2.344 -1.171 1.470 7076
2.354 -1.176 1.466 6952
2.364 -1.181 1.461 7068
2.367 -1.183 1.454 5083
2.351 -1.175 1.435 3423
2.387 -1.193 1.445 3215
2.422 -1.210 1.454 3714
2.445 -1.222 1.456 3718
2.550 -1.274 1.502 4568
2.503 -1.251 1.467 4012
2.686 -1.342 1.552 3365
2.690 -1.344 1.543 3365
2.674 -1.336 1.525 4515
2.671 -1.335 1.513 6108
2.668 -1.333 1.500 5302
2.626 -1.312 1.469 5824
2.636 -1.317 1.464 4691
2.659 -1.329 1.465 4026
2.663 -1.331 1.456 4026
2.673 -1.335 1.450 3517
2.676 -1.337 1.441 3047
2.679 -1.339 1.433 1523
0.573 -0.287 1.605 9713
0.580 -0.291 1.610 11994
0.587 -0.294 1.615 14538
0.596 -0.299 1.628 12170
0.606 -0.304 1.640 11838
0.610 -0.306 1.638 12027
0.614 -0.308 1.636 11487
0.618 -0.310 1.634 10757
0.622 -0.312 1.632 8697
0.623 -0.312 1.622 6727
0.626 -0.314 1.620 6005
0.627 -0.314 1.611 5358
0.634 -0.318 1.616 4589
0.651 -0.326 1.642 4212
0.648 -0.325 1.626 6388
0.649 -0.325 1.617 8725
0.653 -0.327 1.615 9807
0.656 -0.329 1.612 12140
0.664 -0.333 1.617 14040
0.664 -0.333 1.608 13306
0.671 -0.337 1.613 11967
0.675 -0.338 1.610 11153
0.682 -0.342 1.615 9832
0.689 -0.346 1.620 12588
0.693 -0.348 1.617 15497
0.697 -0.350 1.615 15874
0.701 -0.351 1.613 14951
0.708 -0.355 1.617 13534
0.712 -0.357 1.615 11122
0.719 -0.361 1.619 8851
0.716 -0.359 1.603 12625
0.720 -0.361 1.601 16439
0.724 -0.363 1.598 17958
0.727 -0.365 1.596 19476
0.728 -0.365 1.587 17075
0.728 -0.365 1.577 15269
0.735 -0.369 1.582 15986
0.735 -0.369 1.573 17286
0.735 -0.369 1.563 18515
0.746 -0.374 1.574 18815
0.754 -0.378 1.579 19073
0.757 -0.380 1.576 15315
0.765 -0.384 1.580 11897
0.776 -0.389 1.591 11421
0.784 -0.393 1.595 11865
0.787 -0.395 1.593 13312
0.791 -0.397 1.590 13688
0.795 -0.399 1.587 12564
0.795 -0.399 1.578 13400
0.795 -0.398 1.569 13927
0.802 -0.402 1.573 20416
0.806 -0.404 1.570 27501
0.814 -0.408 1.574 27290
0.821 -0.412 1.578 21080
0.837 -0.419 1.595 13576
0.832 -0.417 1.579 10070
0.887 -0.445 1.662 8762
0.887 -0.445 1.652 12133
0.891 -0.447 1.649 16853
0.899 -0.451 1.653 19711
0.903 -0.453 1.650 21832
0.907 -0.455 1.647 23680
0.911 -0.457 1.644 25380
0.911 -0.457 1.634 35228
0.907 -0.455 1.618 42624
0.914 -0.459 1.622 28843
0.918 -0.460 1.619 17960
0.922 -0.462 1.616 18092
0.930 -0.466 1.619 16201
0.934 -0.468 1.616 15354
0.938 -0.470 1.613 16292
0.937 -0.470 1.603 16497
0.941 -0.472 1.600 16271
0.949 -0.476 1.603 16295
0.957 -0.480 1.606 15958
0.965 -0.484 1.610 10105
0.969 -0.486 1.606 6663
0.973 -0.488 1.603 9941
0.977 -0.490 1.600 13678
0.998 -0.500 1.622 16788
1.010 -0.507 1.631 20849
1.014 -0.509 1.627 18860
1.014 -0.508 1.618 12428
1.022 -0.512 1.621 9542
1.026 -0.514 1.617 16141
1.038 -0.521 1.626 25741
1.042 -0.523 1.623 27937
1.055 -0.529 1.632 24944
1.068 -0.535 1.640 24762
1.076 -0.540 1.643 20401
1.071 -0.537 1.627 17839
1.079 -0.541 1.630 20441
1.088 -0.545 1.632 24985
1.092 -0.547 1.629 23576
1.100 -0.552 1.631 16643
1.104 -0.554 1.627 15115
1.103 -0.553 1.618 20444
1.107 -0.555 1.614 21671
1.106 -0.555 1.604 18627
1.115 -0.559 1.607 17123
1.123 -0.563 1.609 16630
1.127 -0.565 1.605 16017
1.121 -0.562 1.589 22550
1.125 -0.564 1.586 30083
1.129 -0.566 1.582 27862
1.133 -0.568 1.578 17743
1.155 -0.579 1.598 11959
1.164 -0.584 1.600 9547
1.158 -0.581 1.584 9145
1.171 -0.587 1.592 12472
1.180 -0.592 1.594 12295
1.189 -0.596 1.596 10475
1.197 -0.600 1.598 10122
1.196 -0.600 1.588 8679
1.200 -0.602 1.584 10449
1.209 -0.606 1.586 10518
1.212 -0.608 1.582 9974
1.226 -0.615 1.589 13755
1.230 -0.617 1.585 13961
1.238 -0.621 1.587 13522
1.247 -0.625 1.588 23314
1.256 -0.630 1.590 25575
1.264 -0.634 1.591 14916
1.268 -0.636 1.587 22111
1.272 -0.638 1.583 36804
1.276 -0.640 1.579 34091
1.284 -0.644 1.580 25123
1.288 -0.646 1.576 24304
1.292 -0.648 1.571 36732
1.296 -0.650 1.567 42571
1.299 -0.652 1.563 31621
1.308 -0.656 1.564 32663
1.312 -0.658 1.560 44130
1.321 -0.662 1.561 44521
1.324 -0.664 1.556 31940
1.328 -0.666 1.552 30672
1.332 -0.668 1.547 39914
1.335 -0.670 1.543 32410
1.344 -0.674 1.544 20270
1.358 -0.681 1.550 11481
1.378 -0.691 1.562 8198
1.371 -0.687 1.546 7493
1.385 -0.695 1.552 10933
1.399 -0.702 1.558 13363
1.414 -0.709 1.564 8997
1.423 -0.713 1.565 10095
1.421 -0.713 1.555 10258
1.425 -0.714 1.550 7230
1.428 -0.716 1.545 4971
1.459 -0.731 1.566 8931
1.462 -0.733 1.562 16644
1.466 -0.735 1.557 18095
1.464 -0.734 1.547 16959
1.468 -0.736 1.542 18436
1.472 -0.738 1.537 14488
1.497 -0.751 1.552 24381
1.495 -0.750 1.542 42015
1.499 -0.752 1.538 46463
1.502 -0.753 1.533 41935
1.506 -0.755 1.528 32256
1.510 -0.757 1.523 22033
1.519 -0.762 1.523 13162
1.539 -0.772 1.532 7114
1.559 -0.782 1.542 6450
1.563 -0.784 1.537 6558
1.600 -0.802 1.561 11036
1.604 -0.804 1.555 16730
1.619 -0.812 1.560 14657
1.628 -0.816 1.559 18226
1.626 -0.815 1.549 26590
1.635 -0.820 1.549 24315
1.650 -0.827 1.553 27016
1.642 -0.824 1.538 27373
1.646 -0.825 1.532 18468
1.655 -0.830 1.532 13024
1.653 -0.829 1.521 9078
1.680 -0.842 1.535 7299
1.752 -0.879 1.585 10262
1.767 -0.886 1.588 12549
1.783 -0.894 1.592 13144
1.786 -0.896 1.586 12600
1.784 -0.895 1.575 8943
1.794 -0.899 1.574 5869
1.798 -0.901 1.568 6475
1.801 -0.903 1.562 9696
1.811 -0.908 1.561 14864
1.814 -0.910 1.555 17915
1.818 -0.912 1.549 15854
1.833 -0.919 1.552 12166
1.843 -0.924 1.550 12538
1.847 -0.926 1.544 12175
1.850 -0.928 1.538 8970
1.860 -0.933 1.536 8721
1.875 -0.940 1.538 10037
1.891 -0.948 1.541 10104
1.966 -0.986 1.586 12133
1.969 -0.988 1.580 11863
1.973 -0.989 1.573 9604
1.971 -0.988 1.563 8575
1.974 -0.990 1.556 12479
1.984 -0.995 1.554 17603
1.994 -1.000 1.551 20016
2.003 -1.005 1.549 20951
2.007 -1.006 1.542 18089
2.017 -1.011 1.540 17863
2.020 -1.013 1.533 20993
2.024 -1.015 1.527 18622
2.022 -1.014 1.516 15058
2.025 -1.015 1.509 12059
2.059 -1.033 1.523 9577
2.069 -1.037 1.520 9893
2.060 -1.033 1.505 9107
2.058 -1.032 1.494 9059
2.061 -1.033 1.487 8493
2.058 -1.032 1.477 7425
2.056 -1.031 1.466 6573
2.152 -1.079 1.518 6429
2.161 -1.084 1.514 7732
2.165 -1.086 1.507 8764
2.181 -1.094 1.508 8742
2.209 -1.108 1.516 11238
2.206 -1.106 1.505 12420
2.210 -1.108 1.497 13636
2.214 -1.110 1.490 10996
2.230 -1.118 1.490 8849
2.246 -1.126 1.490 9728
2.249 -1.128 1.483 8886
2.259 -1.133 1.479 8131
2.275 -1.141 1.479 9407
2.291 -1.149 1.479 11916
2.307 -1.157 1.479 12115
2.310 -1.159 1.471 12492
2.320 -1.163 1.467 9529
2.330 -1.168 1.463 6639
2.352 -1.180 1.466 6498
2.368 -1.188 1.465 6713
2.372 -1.189 1.457 4974
2.350 -1.178 1.435 3384
2.391 -1.199 1.448 3484
2.420 -1.214 1.454 3908
2.443 -1.225 1.456 3970
2.542 -1.275 1.499 4328
2.456 -1.232 1.444 4207
2.684 -1.346 1.552 3619
2.688 -1.348 1.543 3619
2.679 -1.343 1.528 4755
2.676 -1.342 1.516 6360
2.673 -1.340 1.504 5386
2.625 -1.316 1.469 6000
2.635 -1.321 1.464 4999
2.657 -1.333 1.465 4419
2.661 -1.334 1.456 4419
2.664 -1.336 1.447 3527
2.674 -1.341 1.441 2644
2.677 -1.343 1.433 1322
0.572 -0.289 1.605 9660
0.579 -0.293 1.610 11904
0.586 -0.296 1.615 14349
0.593 -0.299 1.620 11865
0.608 -0.307 1.647 11439
0.609 -0.308 1.638 11682
0.613 -0.310 1.636 11264
0.617 -0.312 1.634 10576
0.621 -0.314 1.632 8452
0.622 -0.314 1.622 6409
0.625 -0.316 1.620 5998
0.629 -0.318 1.618 5587
0.636 -0.322 1.623 4854
0.653 -0.330 1.649 4453
0.647 -0.327 1.626 6546
0.648 -0.327 1.617 8801
0.652 -0.329 1.615 9907
0.655 -0.331 1.612 12297
0.662 -0.335 1.617 14034
0.663 -0.335 1.608 13282
0.670 -0.339 1.613 11919
0.674 -0.341 1.610 11101
0.681 -0.344 1.615 9882
0.688 -0.348 1.620 12670
0.695 -0.351 1.624 15543
0.699 -0.353 1.622 15929
0.703 -0.355 1.620 15212
0.707 -0.357 1.617 13858
0.711 -0.359 1.615 11883
0.711 -0.359 1.606 10064
0.715 -0.361 1.603 14254
0.719 -0.363 1.601 18445
0.723 -0.365 1.598 19784
0.726 -0.367 1.596 21122
0.730 -0.369 1.594 18305
0.727 -0.367 1.577 15997
0.734 -0.371 1.582 16855
0.734 -0.371 1.573 17651
0.734 -0.371 1.563 18417
0.745 -0.377 1.574 18253
0.753 -0.380 1.579 18290
0.760 -0.384 1.583 14652
0.764 -0.386 1.580 11769
0.775 -0.392 1.591 11865
0.782 -0.395 1.595 11841
0.786 -0.397 1.593 12986
0.790 -0.399 1.590 13449
0.794 -0.401 1.587 12476
0.794 -0.401 1.578 13700
0.793 -0.401 1.569 14520
0.801 -0.405 1.573 21194
0.805 -0.407 1.570 28768
0.812 -0.411 1.574 28971
0.820 -0.414 1.578 21480
0.835 -0.422 1.595 12783
0.839 -0.424 1.592 8130
0.886 -0.448 1.662 9873
0.886 -0.448 1.652 13702
0.890 -0.450 1.649 17954
0.898 -0.454 1.653 20021
0.902 -0.456 1.650 21564
0.906 -0.458 1.647 23543
0.914 -0.462 1.650 25781
0.909 -0.460 1.634 35058
0.909 -0.459 1.625 41041
0.913 -0.461 1.622 27931
0.917 -0.463 1.619 18081
0.921 -0.465 1.616 18553
0.929 -0.469 1.619 16755
0.932 -0.471 1.616 15732
0.936 -0.473 1.613 16391
0.936 -0.473 1.603 16316
0.940 -0.475 1.600 15595
0.943 -0.477 1.597 15031
0.956 -0.483 1.606 14399
0.959 -0.485 1.603 9120
0.968 -0.489 1.606 5097
0.971 -0.491 1.603 7310
0.979 -0.495 1.606 11453
1.000 -0.506 1.628 14952
1.009 -0.510 1.631 18807
1.013 -0.512 1.627 17333
1.012 -0.511 1.618 11772
1.020 -0.516 1.621 9738
1.024 -0.518 1.617 17192
1.037 -0.524 1.626 26937
1.041 -0.526 1.623 28667
1.053 -0.532 1.632 24655
1.071 -0.541 1.647 24137
1.079 -0.545 1.649 20837
1.069 -0.540 1.627 17723
1.078 -0.545 1.630 19351
1.086 -0.549 1.632 23527
1.090 -0.551 1.629 22907
1.098 -0.555 1.631 16773
1.102 -0.557 1.627 14147
1.101 -0.557 1.618 18177
1.105 -0.559 1.614 19732
1.104 -0.558 1.604 17331
1.113 -0.562 1.607 16732
1.121 -0.567 1.609 17707
1.125 -0.569 1.605 18886
1.120 -0.566 1.589 25380
1.123 -0.568 1.586 32024
1.127 -0.570 1.582 29049
1.131 -0.572 1.578 18548
1.158 -0.585 1.604 13883
1.162 -0.587 1.600 12220
1.161 -0.587 1.590 10119
1.170 -0.591 1.592 12802
1.178 -0.595 1.594 13807
1.187 -0.600 1.596 11327
1.195 -0.604 1.598 10826
1.194 -0.604 1.588 8940
1.198 -0.605 1.584 9556
1.207 -0.610 1.586 9823
1.215 -0.614 1.588 8805
1.224 -0.619 1.589 11845
1.228 -0.620 1.585 12583
1.241 -0.627 1.592 14269
1.245 -0.629 1.588 24656
1.254 -0.634 1.590 25740
1.267 -0.641 1.597 14402
1.266 -0.640 1.587 19352
1.270 -0.642 1.583 32245
1.279 -0.646 1.584 29852
1.282 -0.648 1.580 23510
1.286 -0.650 1.576 22111
1.290 -0.652 1.571 33101
1.294 -0.654 1.567 38595
1.302 -0.658 1.568 26604
1.306 -0.660 1.564 27729
1.310 -0.662 1.560 37019
1.319 -0.666 1.561 39572
1.322 -0.668 1.556 31813
1.326 -0.670 1.552 29362
1.330 -0.672 1.547 36077
1.333 -0.674 1.543 28494
1.347 -0.681 1.549 18645
1.356 -0.685 1.550 13189
1.370 -0.693 1.556 9830
1.369 -0.692 1.546 7507
1.388 -0.702 1.558 10317
1.397 -0.706 1.558 12920
1.417 -0.716 1.569 8682
1.426 -0.720 1.570 9915
1.424 -0.720 1.560 9581
1.428 -0.722 1.555 7136
1.447 -0.731 1.566 6333
1.456 -0.736 1.566 10520
1.465 -0.741 1.567 18418
1.469 -0.743 1.562 18289
1.467 -0.742 1.552 14544
1.466 -0.741 1.542 15846
1.469 -0.743 1.537 13096
1.495 -0.755 1.552 22231
1.493 -0.754 1.542 39868
1.496 -0.756 1.538 43612
1.500 -0.758 1.533 38560
1.504 -0.760 1.528 28789
1.507 -0.762 1.523 19770
1.516 -0.766 1.523 12185
1.575 -0.796 1.567 7199
1.573 -0.795 1.557 6830
1.583 -0.800 1.556 6552
1.597 -0.807 1.561 13274
1.607 -0.812 1.560 18676
1.616 -0.817 1.560 16308
1.625 -0.821 1.559 19941
1.629 -0.823 1.554 28105
1.633 -0.825 1.549 26815
1.648 -0.833 1.553 31272
1.640 -0.829 1.538 32532
1.643 -0.831 1.532 25431
1.653 -0.835 1.532 19954
1.656 -0.837 1.526 12982
1.671 -0.845 1.530 8972
1.675 -0.847 1.524 8391
1.770 -0.895 1.593 11733
1.780 -0.899 1.592 13210
1.783 -0.901 1.586 12927
1.787 -0.903 1.580 9367
1.791 -0.905 1.574 6470
1.795 -0.907 1.568 6927
1.804 -0.912 1.567 10635
1.808 -0.914 1.561 16792
1.812 -0.916 1.555 19882
1.821 -0.920 1.553 17495
1.836 -0.928 1.556 13746
1.846 -0.933 1.554 13438
1.844 -0.932 1.544 12150
1.830 -0.925 1.525 9396
1.851 -0.935 1.532 9393
1.866 -0.943 1.534 10371
1.888 -0.954 1.541 10058
1.962 -0.992 1.586 11154
1.966 -0.994 1.580 11170
1.970 -0.996 1.573 9573
1.968 -0.994 1.563 9030
1.971 -0.996 1.556 13785
1.981 -1.001 1.554 19205
1.991 -1.006 1.551 20638
2.000 -1.011 1.549 21193
2.004 -1.013 1.542 18078
2.014 -1.018 1.540 17380
2.017 -1.019 1.533 20305
2.021 -1.021 1.527 18309
2.018 -1.020 1.516 14518
2.016 -1.019 1.505 10985
2.056 -1.039 1.523 8594
2.065 -1.044 1.520 9359
2.051 -1.036 1.501 9483
2.054 -1.038 1.494 10383
2.058 -1.040 1.487 10003
2.061 -1.042 1.481 8319
2.052 -1.037 1.466 6875
2.074 -1.048 1.471 6555
2.158 -1.091 1.514 7657
2.161 -1.092 1.507 8878
2.177 -1.100 1.508 8706
2.206 -1.115 1.516 10870
2.209 -1.117 1.509 11761
2.207 -1.115 1.497 12660
2.216 -1.120 1.494 10044
2.232 -1.128 1.494 8066
2.248 -1.136 1.494 9428
2.252 -1.138 1.487 8800
2.255 -1.140 1.479 8172
2.290 -1.157 1.490 10074
2.293 -1.159 1.482 12318
2.303 -1.164 1.479 12746
2.313 -1.169 1.474 13334
2.316 -1.171 1.467 9893
2.320 -1.172 1.459 6453
2.349 -1.187 1.466 6012
2.365 -1.195 1.465 6366
2.374 -1.200 1.461 4935
2.384 -1.205 1.456 3618
2.394 -1.210 1.452 3885
2.404 -1.215 1.447 4281
2.439 -1.233 1.456 4266
2.449 -1.238 1.452 4450
2.452 -1.239 1.444 4450
2.680 -1.354 1.552 3696
2.683 -1.356 1.543 3696
2.668 -1.348 1.525 4860
2.671 -1.350 1.516 6478
2.662 -1.345 1.500 5445
2.620 -1.324 1.469 6309
2.630 -1.329 1.464 5451
2.647 -1.338 1.461 4949
2.650 -1.339 1.453 4949
2.653 -1.341 1.444 3725
2.663 -1.346 1.438 2511
2.667 -1.348 1.430 1255
0.563 -0.286 1.583 9765
0.579 -0.293 1.610 11637
0.582 -0.295 1.608 13949
0.592 -0.300 1.620 11452
0.608 -0.308 1.647 10750
0.609 -0.309 1.638 11037
0.613 -0.311 1.636 10717
0.617 -0.313 1.634 10103
0.620 -0.315 1.632 8064
0.621 -0.315 1.622 6085
0.625 -0.317 1.620 6076
0.629 -0.319 1.618 6067
0.636 -0.322 1.623 5241
0.652 -0.331 1.649 4656
0.647 -0.328 1.626 6672
0.647 -0.328 1.617 8814
0.651 -0.330 1.615 9900
0.655 -0.332 1.612 12303
0.659 -0.334 1.610 13922
0.663 -0.336 1.608 13135
0.670 -0.340 1.613 11766
0.674 -0.341 1.610 10950
0.681 -0.345 1.615 9825
0.688 -0.349 1.620 12637
0.695 -0.352 1.624 15563
0.699 -0.354 1.622 16014
0.703 -0.356 1.620 15467
0.706 -0.358 1.617 14164
0.710 -0.360 1.615 12590
0.714 -0.362 1.613 11259
0.714 -0.362 1.603 15743
0.718 -0.364 1.601 20260
0.722 -0.366 1.598 21362
0.726 -0.368 1.596 22465
0.730 -0.370 1.594 19240
0.726 -0.368 1.577 16432
0.734 -0.372 1.582 17493
0.737 -0.374 1.579 17959
0.734 -0.372 1.563 18187
0.745 -0.378 1.574 17598
0.756 -0.383 1.585 17316
0.759 -0.385 1.583 13905
0.767 -0.389 1.587 11703
0.774 -0.393 1.591 12283
0.782 -0.396 1.595 11735
0.786 -0.398 1.593 12532
0.789 -0.400 1.590 13115
0.793 -0.402 1.587 12455
0.793 -0.402 1.578 14122
0.793 -0.402 1.569 15130
0.800 -0.406 1.573 21781
0.804 -0.408 1.570 29805
0.812 -0.412 1.574 30596
0.819 -0.415 1.578 22921
0.835 -0.423 1.595 12035
0.858 -0.435 1.625 6984
0.885 -0.449 1.662 10775
0.885 -0.449 1.652 15006
0.889 -0.451 1.649 18718
0.897 -0.455 1.653 19875
0.901 -0.457 1.650 20984
0.905 -0.459 1.647 23247
0.913 -0.463 1.650 25907
0.913 -0.463 1.641 34101
0.909 -0.461 1.625 38606
0.912 -0.463 1.622 26539
0.916 -0.465 1.619 17820
0.920 -0.467 1.616 18331
0.928 -0.471 1.619 16478
0.932 -0.472 1.616 15568
0.936 -0.474 1.613 16277
0.935 -0.474 1.603 16069
0.939 -0.476 1.600 14818
0.943 -0.478 1.597 13780
0.951 -0.482 1.600 13174
0.959 -0.486 1.603 9294
0.963 -0.488 1.600 5244
0.971 -0.492 1.603 5614
0.979 -0.496 1.606 9492
1.000 -0.507 1.628 13273
1.008 -0.511 1.631 16842
1.012 -0.513 1.627 15867
1.011 -0.513 1.618 11095
1.020 -0.517 1.621 9828
1.028 -0.521 1.624 18237
1.036 -0.525 1.626 28058
1.044 -0.529 1.629 29270
1.053 -0.534 1.632 24102
1.070 -0.542 1.647 22896
1.078 -0.547 1.649 20594
1.073 -0.544 1.633 17069
1.077 -0.546 1.630 18062
1.085 -0.550 1.632 22039
1.089 -0.552 1.629 22164
1.098 -0.557 1.631 16554
1.101 -0.558 1.627 13066
1.105 -0.560 1.624 15614
1.105 -0.560 1.614 16449
1.104 -0.560 1.604 14405
1.112 -0.564 1.607 15006
1.121 -0.568 1.609 18152
1.124 -0.570 1.605 21987
1.124 -0.570 1.595 28553
1.123 -0.569 1.586 34116
1.126 -0.571 1.582 30212
1.130 -0.573 1.578 19329
1.153 -0.584 1.598 15850
1.161 -0.589 1.600 15252
1.160 -0.588 1.590 11989
1.169 -0.593 1.592 14044
1.177 -0.597 1.594 16406
1.181 -0.599 1.590 13691
1.195 -0.606 1.598 11991
1.198 -0.608 1.594 9104
1.202 -0.609 1.590 7815
1.211 -0.614 1.592 7773
1.219 -0.618 1.593 7255
1.223 -0.620 1.589 10379
1.227 -0.622 1.585 11375
1.240 -0.629 1.592 14521
1.249 -0.633 1.594 25239
1.258 -0.638 1.595 27643
1.267 -0.642 1.597 18654
1.270 -0.644 1.593 19458
1.269 -0.643 1.583 27749
1.278 -0.648 1.584 25718
1.282 -0.650 1.580 20719
1.285 -0.652 1.576 19575
1.289 -0.654 1.571 29929
1.293 -0.655 1.567 33468
1.302 -0.660 1.568 22389
1.315 -0.667 1.575 25549
1.314 -0.666 1.565 30518
1.318 -0.668 1.561 33148
1.321 -0.670 1.556 29661
1.325 -0.672 1.552 26709
1.329 -0.674 1.547 31362
1.332 -0.676 1.543 24333
1.346 -0.683 1.549 17462
1.360 -0.690 1.556 15129
1.369 -0.694 1.556 11424
1.368 -0.693 1.546 7432
1.387 -0.703 1.558 9812
1.401 -0.711 1.564 12741
1.421 -0.720 1.575 8669
1.430 -0.725 1.575 9733
1.428 -0.724 1.565 9044
1.432 -0.726 1.561 7538
1.452 -0.736 1.571 8033
1.461 -0.741 1.572 12362
1.465 -0.743 1.567 19735
1.468 -0.744 1.562 18232
1.472 -0.746 1.557 12751
1.470 -0.745 1.547 12993
1.468 -0.744 1.537 11049
1.494 -0.757 1.552 19546
1.492 -0.756 1.542 36150
1.496 -0.758 1.538 39413
1.499 -0.760 1.533 34099
1.503 -0.762 1.528 24762
1.506 -0.764 1.523 17524
1.515 -0.768 1.523 11763
1.580 -0.801 1.572 10088
1.578 -0.800 1.562 8977
1.598 -0.810 1.571 8842
1.602 -0.812 1.566 16058
1.606 -0.814 1.560 20865
1.615 -0.819 1.560 17951
1.630 -0.826 1.564 21411
1.628 -0.825 1.554 29059
1.637 -0.830 1.553 28773
1.646 -0.835 1.553 35108
1.644 -0.834 1.542 37814
1.648 -0.836 1.537 32156
1.652 -0.837 1.532 26329
1.655 -0.839 1.526 17412
1.665 -0.844 1.525 11259
1.668 -0.846 1.520 10081
1.775 -0.900 1.598 10543
1.779 -0.902 1.592 12692
1.782 -0.904 1.586 12760
1.786 -0.906 1.580 9650
1.790 -0.907 1.574 6875
1.793 -0.909 1.568 7158
1.803 -0.914 1.567 11579
1.807 -0.916 1.561 18702
1.810 -0.918 1.555 21780
1.820 -0.923 1.553 19429
1.835 -0.930 1.556 16085
1.839 -0.932 1.550 15031
1.842 -0.934 1.544 13054
1.834 -0.930 1.529 10826
1.850 -0.938 1.532 10588
1.865 -0.946 1.534 10717
1.886 -0.956 1.541 10032
1.967 -0.997 1.591 9877
1.965 -0.996 1.580 10200
1.963 -0.995 1.569 9781
1.966 -0.997 1.563 9947
1.970 -0.999 1.556 15210
1.974 -1.001 1.550 20767
1.989 -1.009 1.551 20934
1.999 -1.014 1.549 20994
2.003 -1.015 1.542 17740
2.006 -1.017 1.536 16463
2.016 -1.022 1.533 18950
2.019 -1.024 1.527 17364
2.011 -1.020 1.512 13507
2.014 -1.021 1.505 9794
2.054 -1.042 1.523 7301
2.064 -1.047 1.520 8341
2.049 -1.039 1.501 9801
2.053 -1.041 1.494 11499
2.056 -1.043 1.487 11241
2.060 -1.044 1.481 9112
2.051 -1.040 1.466 7067
2.073 -1.051 1.471 6679
2.156 -1.093 1.514 7234
2.160 -1.095 1.507 8569
2.170 -1.100 1.504 8337
2.210 -1.121 1.520 10263
2.208 -1.119 1.509 10863
2.211 -1.121 1.501 11528
2.215 -1.123 1.494 9038
2.231 -1.131 1.494 7410
2.265 -1.149 1.505 9437
2.275 -1.154 1.501 8985
2.279 -1.155 1.494 8662
2.288 -1.160 1.490 10528
2.298 -1.165 1.486 12434
2.302 -1.167 1.479 13073
2.311 -1.172 1.474 13887
2.315 -1.174 1.467 10068
2.318 -1.175 1.459 6249
2.347 -1.190 1.466 5520
2.369 -1.201 1.468 6092
2.379 -1.206 1.464 5000
2.383 -1.208 1.456 3931
2.392 -1.213 1.452 4283
2.402 -1.218 1.447 4652
2.437 -1.236 1.456 4537
2.447 -1.241 1.452 4684
2.451 -1.243 1.444 4684
2.678 -1.358 1.552 3655
2.682 -1.360 1.543 3655
2.666 -1.352 1.525 4884
2.663 -1.350 1.513 6508
2.660 -1.349 1.500 5550
2.619 -1.328 1.469 6718
2.629 -1.333 1.464 6078
2.645 -1.341 1.461 5669
2.648 -1.343 1.453 5669
2.645 -1.341 1.441 4213
2.649 -1.343 1.432 2761
2.652 -1.345 1.423 1380
0.562 -0.287 1.583 9641
0.575 -0.294 1.603 11107
0.582 -0.297 1.608 13253
0.591 -0.302 1.620 10774
0.607 -0.310 1.647 10179
0.608 -0.311 1.638 10486
0.609 -0.311 1.629 10400
0.616 -0.314 1.634 9840
0.616 -0.315 1.625 7826
0.620 -0.317 1.622 5822
0.624 -0.319 1.620 6148
0.631 -0.322 1.625 6488
0.635 -0.324 1.623 5600
0.651 -0.333 1.649 4882
0.646 -0.330 1.626 6822
0.646 -0.330 1.617 8819
0.647 -0.330 1.607 9869
0.654 -0.334 1.612 12241
0.658 -0.336 1.610 13763
0.662 -0.338 1.608 12946
0.669 -0.342 1.613 11604
0.672 -0.343 1.610 10810
0.680 -0.347 1.615 9784
0.687 -0.351 1.620 12593
0.694 -0.354 1.624 15564
0.698 -0.356 1.622 16110
0.702 -0.358 1.620 15740
0.705 -0.360 1.617 14521
0.709 -0.362 1.615 13212
0.713 -0.364 1.613 12203
0.713 -0.364 1.603 16886
0.717 -0.366 1.601 21655
0.721 -0.368 1.598 22552
0.728 -0.372 1.603 23458
0.728 -0.372 1.594 19838
0.725 -0.370 1.577 16545
0.736 -0.376 1.589 17878
0.736 -0.376 1.579 18197
0.733 -0.374 1.563 17888
0.744 -0.380 1.574 16948
0.755 -0.385 1.585 16254
0.762 -0.389 1.590 13148
0.766 -0.391 1.587 11731
0.773 -0.395 1.591 12791
0.777 -0.397 1.589 11711
0.784 -0.401 1.593 12119
0.788 -0.403 1.590 12875
0.792 -0.404 1.587 12686
0.792 -0.404 1.578 14890
0.792 -0.404 1.569 16048
0.795 -0.406 1.566 22478
0.803 -0.410 1.570 30775
0.807 -0.412 1.567 32310
0.818 -0.418 1.578 25002
0.830 -0.424 1.588 12050
0.857 -0.438 1.625 6934
0.880 -0.450 1.655 11672
0.884 -0.452 1.652 16363
0.888 -0.454 1.649 19598
0.896 -0.458 1.653 19594
0.900 -0.460 1.650 20286
0.904 -0.462 1.647 22966
0.912 -0.466 1.650 25851
0.911 -0.466 1.641 32843
0.907 -0.463 1.625 34806
0.907 -0.463 1.615 24518
0.915 -0.467 1.619 17626
0.919 -0.469 1.616 18157
0.922 -0.471 1.612 15922
0.930 -0.475 1.616 14797
0.934 -0.477 1.613 15776
0.934 -0.477 1.603 15663
0.933 -0.477 1.594 14038
0.941 -0.481 1.597 12489
0.949 -0.485 1.600 12068
0.957 -0.489 1.603 10015
0.965 -0.493 1.606 7113
0.969 -0.495 1.603 5570
0.977 -0.499 1.606 7806
0.998 -0.510 1.628 11654
1.006 -0.514 1.631 14753
1.010 -0.516 1.627 14023
1.010 -0.516 1.618 10033
1.018 -0.520 1.621 9830
1.026 -0.524 1.624 19176
1.034 -0.528 1.626 29043
1.043 -0.533 1.629 29720
1.051 -0.537 1.632 23095
1.068 -0.546 1.647 20836
1.077 -0.550 1.649 19648
1.071 -0.547 1.633 16296
1.075 -0.549 1.630 16541
1.084 -0.554 1.632 19733
1.092 -0.558 1.635 20276
1.101 -0.562 1.637 15793
1.104 -0.564 1.633 11453
1.104 -0.564 1.624 12279
1.103 -0.563 1.614 13714
1.102 -0.563 1.604 12575
1.110 -0.567 1.607 14077
1.119 -0.572 1.609 18654
1.123 -0.573 1.605 25101
1.122 -0.573 1.595 32136
1.121 -0.573 1.586 35612
1.125 -0.574 1.582 30227
1.128 -0.576 1.578 19369
1.151 -0.588 1.598 17568
1.155 -0.590 1.594 17601
1.159 -0.592 1.590 14026
1.167 -0.596 1.592 16178
1.176 -0.600 1.594 19578
1.179 -0.602 1.590 17669
1.193 -0.609 1.598 15034
1.196 -0.611 1.594 10202
1.205 -0.616 1.596 6480
1.219 -0.622 1.603 5968
1.222 -0.624 1.599 6464
1.216 -0.621 1.584 10413
1.225 -0.626 1.585 10862
1.239 -0.633 1.592 14706
1.247 -0.637 1.594 25726
1.256 -0.642 1.595 30330
1.265 -0.646 1.597 23352
1.268 -0.648 1.593 20194
1.267 -0.647 1.583 24144
1.276 -0.652 1.584 21746
1.280 -0.654 1.580 17639
1.288 -0.658 1.581 17659
1.287 -0.657 1.571 27290
1.291 -0.659 1.567 27772
1.305 -0.666 1.574 18774
1.324 -0.676 1.586 27131
1.322 -0.675 1.576 28170
1.321 -0.675 1.566 27392
1.319 -0.674 1.556 26215
1.328 -0.678 1.557 23295
1.332 -0.680 1.553 26406
1.335 -0.682 1.548 20138
1.350 -0.689 1.555 16585
1.358 -0.694 1.556 17073
1.367 -0.698 1.556 12339
1.366 -0.698 1.546 6981
1.390 -0.710 1.563 9572
1.399 -0.715 1.564 13029
1.414 -0.722 1.569 9274
1.428 -0.729 1.575 9610
1.432 -0.731 1.570 9047
1.441 -0.736 1.571 8642
1.455 -0.743 1.576 9747
1.459 -0.745 1.572 14180
1.462 -0.747 1.567 20670
1.466 -0.749 1.562 18038
1.470 -0.751 1.557 11344
1.473 -0.753 1.552 10642
1.477 -0.754 1.547 9056
1.491 -0.762 1.552 16754
1.490 -0.761 1.542 30970
1.493 -0.763 1.538 33755
1.497 -0.765 1.533 28689
1.500 -0.766 1.528 20617
1.504 -0.768 1.523 15420
1.513 -0.773 1.523 11399
1.583 -0.809 1.577 12776
1.587 -0.810 1.571 11311
1.596 -0.815 1.571 11181
1.600 -0.817 1.566 18372
1.603 -0.819 1.560 22455
1.618 -0.826 1.565 19416
1.627 -0.831 1.564 23057
1.625 -0.830 1.554 30153
1.635 -0.835 1.553 30825
1.644 -0.840 1.553 37830
1.642 -0.839 1.542 42306
1.646 -0.841 1.537 38321
1.649 -0.842 1.532 31580
1.653 -0.844 1.526 21174
1.662 -0.849 1.525 13450
1.666 -0.851 1.520 11358
1.663 -0.850 1.510 9257
1.776 -0.907 1.592 11868
1.780 -0.909 1.586 12276
1.783 -0.911 1.580 9734
1.793 -0.916 1.578 7207
1.791 -0.915 1.568 7262
1.800 -0.920 1.567 12460
1.804 -0.921 1.561 20511
1.808 -0.923 1.555 23542
1.817 -0.928 1.553 21398
1.832 -0.936 1.556 18458
1.836 -0.938 1.550 16554
1.840 -0.940 1.544 13924
1.832 -0.936 1.529 11866
1.847 -0.943 1.532 11635
1.862 -0.951 1.534 11165
1.884 -0.962 1.541 10053
1.905 -0.973 1.548 9843
1.956 -0.999 1.576 9330
1.960 -1.001 1.569 10205
1.963 -1.003 1.563 11071
1.967 -1.005 1.556 16681
1.971 -1.007 1.550 22215
1.986 -1.015 1.551 20943
1.996 -1.019 1.549 20396
2.000 -1.021 1.542 17046
2.003 -1.023 1.536 15061
2.013 -1.028 1.533 16841
2.016 -1.030 1.527 15715
2.008 -1.026 1.512 12001
2.011 -1.027 1.505 8234
2.021 -1.032 1.502 6418
2.043 -1.043 1.508 7351
2.046 -1.045 1.501 9888
2.050 -1.047 1.494 12241
2.059 -1.052 1.491 12196
2.063 -1.054 1.485 9625
2.054 -1.049 1.470 7170
2.064 -1.054 1.467 6622
2.153 -1.100 1.514 6691
2.157 -1.102 1.507 8138
2.228 -1.138 1.542 7900
2.226 -1.137 1.531 10148
2.211 -1.129 1.512 10003
2.208 -1.128 1.501 10425
2.211 -1.130 1.494 8091
2.265 -1.157 1.516 7058
2.262 -1.155 1.505 9569
2.272 -1.160 1.501 9368
2.275 -1.162 1.494 9206
2.285 -1.167 1.490 10719
2.295 -1.172 1.486 12399
2.305 -1.177 1.482 13221
2.308 -1.179 1.474 14192
2.311 -1.181 1.467 10089
2.309 -1.179 1.456 6116
2.388 -1.220 1.490 5436
2.391 -1.221 1.482 6281
2.388 -1.220 1.471 5257
2.411 -1.231 1.473 4335
2.389 -1.220 1.452 4692
2.399 -1.225 1.447 5049
2.427 -1.240 1.453 4664
2.443 -1.248 1.452 4733
2.447 -1.250 1.444 4733
2.674 -1.366 1.552 3528
2.678 -1.368 1.543 3528
2.656 -1.356 1.521 4897
2.659 -1.358 1.513 6496
2.650 -1.353 1.497 5737
2.621 -1.339 1.472 7177
2.625 -1.341 1.464 6691
2.634 -1.346 1.458 6371
2.638 -1.347 1.450 6371
2.641 -1.349 1.441 4749
2.645 -1.351 1.432 3127
2.648 -1.352 1.423 1563
0.562 -0.288 1.583 9517
0.574 -0.295 1.603 10947
0.581 -0.298 1.608 12948
0.588 -0.302 1.613 10395
0.606 -0.311 1.647 9878
0.607 -0.312 1.638 10092
0.611 -0.314 1.636 9938
0.615 -0.316 1.634 9330
0.616 -0.316 1.625 7460
0.614 -0.315 1.608 5632
0.624 -0.320 1.620 6415
0.630 -0.323 1.625 7268
0.634 -0.325 1.623 6206
0.641 -0.329 1.628 5211
0.645 -0.331 1.626 7068
0.646 -0.331 1.617 8810
0.646 -0.332 1.607 9863
0.653 -0.335 1.612 12056
0.657 -0.337 1.610 13438
0.661 -0.339 1.608 12634
0.668 -0.343 1.613 11339
0.672 -0.345 1.610 10615
0.682 -0.350 1.622 9812
0.686 -0.352 1.620 12565
0.693 -0.356 1.624 15565
0.697 -0.358 1.622 16269
0.701 -0.360 1.620 16123
0.705 -0.362 1.617 15001
0.709 -0.364 1.615 13865
0.712 -0.365 1.613 13071
0.716 -0.367 1.610 17891
0.717 -0.368 1.601 22805
0.724 -0.371 1.605 23551
0.728 -0.373 1.603 24390
0.728 -0.373 1.594 20266
0.724 -0.372 1.577 16413
0.735 -0.377 1.589 18164
0.739 -0.379 1.586 18364
0.732 -0.376 1.563 17438
0.743 -0.381 1.574 16107
0.754 -0.387 1.585 14757
0.761 -0.391 1.590 12334
0.765 -0.392 1.587 11855
0.772 -0.396 1.591 13409
0.776 -0.398 1.589 11879
0.784 -0.402 1.593 11943
0.787 -0.404 1.590 13048
0.791 -0.406 1.587 13420
0.795 -0.408 1.585 16206
0.791 -0.406 1.569 17452
0.795 -0.408 1.566 23440
0.802 -0.412 1.570 31633
0.806 -0.413 1.567 34193
0.813 -0.417 1.571 28029
0.821 -0.421 1.575 14908
0.809 -0.415 1.546 10243
0.879 -0.451 1.655 12576
0.883 -0.453 1.652 17861
0.887 -0.455 1.649 20693
0.895 -0.459 1.653 19297
0.899 -0.461 1.650 19212
0.903 -0.463 1.647 22054
0.907 -0.465 1.644 25436
0.911 -0.467 1.641 31117
0.906 -0.465 1.625 30230
0.906 -0.465 1.615 21724
0.914 -0.469 1.619 16342
0.918 -0.471 1.616 16969
0.926 -0.475 1.619 14831
0.930 -0.477 1.616 13966
0.933 -0.479 1.613 15340
0.933 -0.479 1.603 15135
0.933 -0.478 1.594 12931
0.941 -0.483 1.597 10827
0.949 -0.487 1.600 10765
0.961 -0.493 1.610 11159
0.965 -0.495 1.606 9420
0.968 -0.497 1.603 5850
0.989 -0.508 1.625 6238
0.997 -0.512 1.628 9767
1.006 -0.516 1.631 12307
1.009 -0.518 1.627 11827
1.009 -0.518 1.618 8786
1.017 -0.522 1.621 9626
1.025 -0.526 1.624 19915
1.034 -0.530 1.626 30066
1.042 -0.534 1.629 30174
1.046 -0.536 1.625 22002
1.067 -0.548 1.647 18261
1.076 -0.552 1.649 18097
1.071 -0.549 1.633 15336
1.074 -0.551 1.630 14978
1.083 -0.555 1.632 16946
1.091 -0.560 1.635 17825
1.100 -0.564 1.637 15462
1.103 -0.566 1.633 10309
1.103 -0.566 1.624 9273
1.102 -0.565 1.614 11509
1.101 -0.565 1.604 10784
1.114 -0.572 1.613 12211
1.118 -0.573 1.609 17851
1.122 -0.575 1.605 27745
1.121 -0.575 1.595 35343
1.120 -0.575 1.586 35689
1.124 -0.576 1.582 28768
1.132 -0.581 1.584 19319
1.150 -0.590 1.598 19759
1.154 -0.592 1.594 19536
1.157 -0.594 1.590 16226
1.166 -0.598 1.592 19804
1.175 -0.603 1.594 23773
1.178 -0.604 1.590 23129
1.187 -0.609 1.592 20498
1.195 -0.613 1.594 13194
1.194 -0.613 1.584 7931
1.203 -0.617 1.586 6346
1.212 -0.622 1.588 7025
1.215 -0.623 1.584 11221
1.224 -0.628 1.585 10912
1.237 -0.635 1.592 15394
1.246 -0.639 1.594 26982
1.255 -0.644 1.595 33952
1.264 -0.648 1.597 27355
1.262 -0.648 1.587 20644
1.266 -0.649 1.583 21542
1.270 -0.651 1.579 18735
1.279 -0.656 1.580 15236
1.287 -0.660 1.581 16683
1.291 -0.662 1.577 25512
1.290 -0.662 1.567 21080
1.309 -0.671 1.579 16090
1.322 -0.678 1.586 31020
1.326 -0.680 1.581 30940
1.325 -0.680 1.572 24894
1.323 -0.679 1.562 21042
1.327 -0.681 1.557 18096
1.331 -0.683 1.553 20866
1.339 -0.687 1.554 15906
1.354 -0.694 1.560 15918
1.357 -0.696 1.556 18941
1.366 -0.701 1.556 12905
1.364 -0.700 1.546 6417
1.394 -0.715 1.568 9810
1.403 -0.720 1.569 14129
1.412 -0.724 1.569 11044
1.427 -0.732 1.575 9906
1.436 -0.736 1.576 10258
1.445 -0.741 1.576 10592
1.454 -0.746 1.576 11408
1.457 -0.748 1.572 15791
1.461 -0.749 1.567 21259
1.465 -0.751 1.562 17604
1.474 -0.756 1.562 10120
1.488 -0.763 1.567 9214
1.513 -0.776 1.583 8680
1.490 -0.764 1.552 13128
1.488 -0.763 1.542 23875
1.492 -0.765 1.538 26049
1.496 -0.767 1.533 21733
1.499 -0.769 1.528 15770
1.503 -0.771 1.523 12821
1.578 -0.809 1.582 11718
1.581 -0.811 1.577 15816
1.585 -0.813 1.571 14095
1.594 -0.818 1.571 13483
1.598 -0.820 1.566 20158
1.607 -0.825 1.565 23109
1.617 -0.829 1.565 20267
1.631 -0.837 1.569 24618
1.624 -0.833 1.554 30577
1.633 -0.838 1.553 32176
1.642 -0.843 1.553 39661
1.640 -0.842 1.542 45616
1.644 -0.843 1.537 42928
1.648 -0.845 1.532 35132
1.651 -0.847 1.526 23714
1.655 -0.849 1.521 15022
1.664 -0.854 1.520 12043
1.662 -0.853 1.510 9625
1.774 -0.910 1.592 10939
1.778 -0.912 1.586 11684
1.787 -0.917 1.584 9908
1.791 -0.919 1.578 7889
1.789 -0.918 1.568 7735
1.799 -0.923 1.567 13514
1.808 -0.928 1.565 22361
1.812 -0.929 1.559 25472
1.815 -0.931 1.553 23586
1.831 -0.939 1.556 21195
1.834 -0.941 1.550 18507
1.838 -0.943 1.544 15102
1.836 -0.942 1.533 12719
1.845 -0.947 1.532 12162
1.861 -0.954 1.534 11549
1.900 -0.974 1.554 10326
1.903 -0.976 1.548 10759
1.948 -0.999 1.571 9083
1.958 -1.004 1.569 10735
1.962 -1.006 1.563 12345
1.965 -1.008 1.556 18202
1.969 -1.010 1.550 23596
1.985 -1.018 1.551 20705
1.994 -1.023 1.549 19397
1.998 -1.025 1.542 15995
2.001 -1.027 1.536 13135
2.011 -1.032 1.533 13939
2.015 -1.033 1.527 13307
2.012 -1.032 1.516 10085
2.010 -1.031 1.505 6522
2.019 -1.036 1.502 5760
2.035 -1.044 1.504 6738
2.044 -1.049 1.501 9618
2.054 -1.054 1.498 12522
2.058 -1.056 1.491 12735
2.061 -1.057 1.485 9891
2.058 -1.056 1.474 7084
2.062 -1.058 1.467 6385
2.145 -1.100 1.511 5952
2.155 -1.105 1.507 7410
2.226 -1.142 1.542 8093
2.230 -1.144 1.535 10145
2.221 -1.139 1.520 9428
2.212 -1.135 1.505 9429
2.216 -1.137 1.498 7263
2.263 -1.161 1.516 7032
2.266 -1.163 1.509 9597
2.270 -1.164 1.501 9568
2.273 -1.166 1.494 9540
2.283 -1.171 1.490 10703
2.293 -1.176 1.486 12149
2.302 -1.181 1.482 13162
2.312 -1.186 1.478 14320
2.309 -1.185 1.467 9929
2.306 -1.183 1.456 5827
2.386 -1.224 1.490 6043
2.389 -1.226 1.482 6702
2.399 -1.231 1.478 5752
2.409 -1.236 1.473 4894
2.393 -1.228 1.455 5046
2.396 -1.229 1.447 5382
2.425 -1.244 1.453 4771
2.435 -1.249 1.448 4758
2.438 -1.251 1.440 4758
2.608 -1.338 1.519 3607
2.611 -1.340 1.510 3607
2.647 -1.358 1.518 4985
2.650 -1.360 1.509 6551
2.622 -1.345 1.484 6217
2.619 -1.343 1.472 7745
2.629 -1.349 1.467 7355
2.632 -1.350 1.458 7055
2.635 -1.352 1.450 7055
2.639 -1.354 1.441 5349
2.642 -1.355 1.432 3643
2.646 -1.357 1.423 1821
0.561 -0.290 1.583 9295
0.573 -0.296 1.603 10389
0.577 -0.298 1.601 12120
0.587 -0.303 1.613 9780
0.606 -0.313 1.647 9544
0.606 -0.313 1.638 9768
0.607 -0.314 1.629 9811
0.611 -0.316 1.627 9200
0.615 -0.318 1.625 7330
0.622 -0.321 1.630 5466
0.626 -0.323 1.627 6706
0.630 -0.325 1.625 7946
0.637 -0.329 1.630 6778
0.640 -0.331 1.628 5663
0.644 -0.333 1.626 7260
0.645 -0.333 1.617 8693
0.645 -0.333 1.607 9765
0.652 -0.337 1.612 11765
0.656 -0.339 1.610 12965
0.660 -0.341 1.608 12182
0.667 -0.345 1.613 10988
0.674 -0.348 1.617 10388
0.681 -0.352 1.622 9769
0.685 -0.354 1.620 12394
0.692 -0.358 1.624 15396
0.696 -0.360 1.622 16251
0.700 -0.362 1.620 16330
0.704 -0.364 1.617 15311
0.708 -0.366 1.615 14309
0.711 -0.368 1.613 13676
0.715 -0.369 1.610 18566
0.715 -0.370 1.601 23516
0.723 -0.373 1.605 24179
0.727 -0.375 1.603 24901
0.727 -0.375 1.594 20393
0.723 -0.374 1.577 16052
0.734 -0.379 1.589 18225
0.738 -0.381 1.586 18590
0.734 -0.379 1.570 17047
0.742 -0.383 1.574 15135
0.753 -0.389 1.585 12964
0.764 -0.395 1.596 11604
0.768 -0.397 1.594 12237
0.771 -0.398 1.591 13990
0.775 -0.400 1.589 12096
0.782 -0.404 1.593 12023
0.786 -0.406 1.590 13843
0.794 -0.410 1.594 14878
0.794 -0.410 1.585 17998
0.790 -0.408 1.569 18982
0.794 -0.410 1.566 24146
0.801 -0.414 1.570 32037
0.805 -0.416 1.567 35946
0.812 -0.420 1.571 31827
0.816 -0.422 1.569 19798
0.812 -0.419 1.553 15202
0.874 -0.452 1.649 13134
0.878 -0.454 1.646 19138
0.882 -0.456 1.643 21409
0.890 -0.460 1.646 18705
0.898 -0.464 1.650 17842
0.902 -0.466 1.647 20931
0.905 -0.468 1.644 24811
0.909 -0.470 1.641 28621
0.905 -0.468 1.625 24305
0.905 -0.467 1.615 18330
0.909 -0.469 1.612 15163
0.916 -0.473 1.616 15690
0.924 -0.478 1.619 13961
0.928 -0.480 1.616 13908
0.932 -0.482 1.613 15626
0.932 -0.481 1.603 15166
0.935 -0.483 1.600 12217
0.935 -0.483 1.591 9402
0.947 -0.489 1.600 9746
0.959 -0.496 1.610 12740
0.967 -0.500 1.613 11273
0.971 -0.502 1.609 6154
0.992 -0.513 1.631 5689
0.996 -0.515 1.628 8492
1.004 -0.519 1.631 10268
1.008 -0.521 1.627 9665
1.007 -0.520 1.618 7757
1.020 -0.527 1.627 9681
1.024 -0.529 1.624 20590
1.032 -0.533 1.626 31143
1.040 -0.537 1.629 30910
1.044 -0.539 1.625 21318
1.066 -0.551 1.647 15530
1.074 -0.555 1.649 16023
1.069 -0.552 1.633 13861
1.068 -0.552 1.624 13433
1.081 -0.559 1.632 14180
1.089 -0.563 1.635 14811
1.098 -0.567 1.637 14438
1.102 -0.569 1.633 10067
1.101 -0.569 1.624 6639
1.100 -0.568 1.614 8253
1.099 -0.568 1.604 9026
1.108 -0.572 1.607 10644
1.112 -0.574 1.603 16824
1.120 -0.579 1.605 29243
1.119 -0.578 1.595 37068
1.118 -0.578 1.586 34948
1.122 -0.580 1.582 27313
1.130 -0.584 1.584 20113
1.144 -0.591 1.592 22500
1.152 -0.595 1.594 21446
1.156 -0.597 1.590 18089
1.164 -0.602 1.592 23377
1.173 -0.606 1.594 28920
1.177 -0.608 1.590 30664
1.185 -0.612 1.592 28054
1.189 -0.614 1.588 18551
1.183 -0.611 1.573 13166
1.191 -0.616 1.574 10999
1.205 -0.622 1.582 8710
1.213 -0.627 1.584 10873
1.222 -0.631 1.585 10914
1.241 -0.641 1.598 16991
1.249 -0.645 1.600 29755
1.253 -0.647 1.595 37970
1.257 -0.649 1.591 30364
1.260 -0.651 1.587 21147
1.259 -0.651 1.577 20595
1.268 -0.655 1.579 16993
1.277 -0.660 1.580 14369
1.285 -0.664 1.581 16692
1.294 -0.669 1.582 24071
1.293 -0.668 1.573 17291
1.317 -0.680 1.590 15612
1.326 -0.685 1.591 34238
1.329 -0.687 1.587 37158
1.333 -0.689 1.582 27382
1.332 -0.688 1.573 16618
1.335 -0.690 1.568 12903
1.334 -0.689 1.558 15834
1.343 -0.694 1.559 13014
1.352 -0.698 1.560 15908
1.355 -0.700 1.556 20231
1.364 -0.705 1.556 13084
1.362 -0.704 1.546 6201
1.392 -0.719 1.568 10600
1.401 -0.724 1.569 16207
1.405 -0.726 1.564 13852
1.419 -0.733 1.570 11281
1.433 -0.741 1.576 12163
1.442 -0.745 1.576 12334
1.457 -0.753 1.582 12298
1.460 -0.755 1.577 16384
1.459 -0.754 1.567 20696
1.462 -0.756 1.562 16632
1.472 -0.760 1.562 8927
1.502 -0.776 1.583 10037
1.511 -0.781 1.583 10742
1.520 -0.786 1.583 11234
1.486 -0.768 1.542 16382
1.490 -0.770 1.538 17966
1.493 -0.772 1.533 14744
1.497 -0.773 1.528 11221
1.577 -0.815 1.592 10214
1.575 -0.814 1.582 13476
1.579 -0.816 1.577 18470
1.588 -0.821 1.576 16923
1.598 -0.825 1.576 15537
1.601 -0.827 1.571 21227
1.605 -0.829 1.565 22749
1.620 -0.837 1.570 20331
1.629 -0.842 1.569 25315
1.622 -0.838 1.554 29806
1.631 -0.843 1.553 31732
1.640 -0.847 1.553 39955
1.638 -0.846 1.542 47247
1.642 -0.848 1.537 45251
1.651 -0.853 1.536 36622
1.649 -0.852 1.526 24849
1.652 -0.854 1.521 15882
1.662 -0.858 1.520 12348
1.659 -0.857 1.510 9659
1.766 -0.912 1.587 9949
1.775 -0.917 1.586 10927
1.785 -0.922 1.584 10353
1.789 -0.924 1.578 8942
1.792 -0.926 1.573 8494
1.796 -0.928 1.567 14472
1.805 -0.933 1.565 23765
1.809 -0.935 1.559 26952
1.819 -0.940 1.558 25430
1.822 -0.941 1.552 23472
1.832 -0.946 1.550 20160
1.835 -0.948 1.544 16196
1.827 -0.944 1.529 13211
1.842 -0.952 1.532 12164
1.858 -0.960 1.534 11685
1.897 -0.980 1.554 10887
1.906 -0.985 1.552 11875
1.934 -0.999 1.563 9808
1.949 -1.007 1.565 11254
1.959 -1.012 1.563 13405
1.962 -1.014 1.556 19396
1.966 -1.016 1.550 24569
1.982 -1.024 1.551 20126
1.991 -1.029 1.549 17974
1.995 -1.031 1.542 14649
1.998 -1.032 1.536 10992
2.008 -1.037 1.533 10716
2.012 -1.039 1.527 10516
2.009 -1.038 1.516 8306
2.061 -1.065 1.542 6330
2.022 -1.045 1.507 5386
2.020 -1.043 1.496 6234
2.041 -1.055 1.501 8942
2.051 -1.060 1.498 12344
2.061 -1.065 1.495 12763
2.058 -1.063 1.485 9796
2.061 -1.065 1.478 6837
2.065 -1.067 1.471 6020
2.142 -1.107 1.511 5077
2.152 -1.112 1.507 6450
2.229 -1.152 1.546 8136
2.233 -1.153 1.539 9857
2.230 -1.152 1.527 9326
2.221 -1.148 1.513 8973
2.219 -1.146 1.501 6542
2.259 -1.167 1.516 7137
2.263 -1.169 1.509 9476
2.266 -1.171 1.501 9555
2.270 -1.173 1.494 9634
2.280 -1.178 1.490 10468
2.296 -1.186 1.490 11731
2.305 -1.191 1.486 12888
2.309 -1.193 1.478 14261
2.312 -1.195 1.470 9816
2.378 -1.229 1.498 6055
2.382 -1.231 1.490 6521
2.385 -1.232 1.482 6986
2.395 -1.237 1.478 6177
2.405 -1.243 1.473 5452
2.389 -1.234 1.455 5442
2.393 -1.236 1.447 5722
2.422 -1.251 1.453 4845
2.431 -1.256 1.448 4689
2.435 -1.258 1.440 4689
2.604 -1.345 1.519 3801
2.607 -1.347 1.510 3801
2.637 -1.362 1.515 5057
2.640 -1.364 1.506 6541
2.624 -1.356 1.488 6750
2.621 -1.354 1.476 8257
2.625 -1.356 1.467 7941
2.628 -1.358 1.458 7626
2.632 -1.360 1.450 7626
2.635 -1.361 1.441 5940
2.638 -1.363 1.432 4255
2.642 -1.365 1.423 2127
0.561 -0.290 1.583 9075
0.570 -0.295 1.596 9887
0.577 -0.299 1.601 11279
0.584 -0.302 1.606 9160
0.605 -0.314 1.647 8742
0.603 -0.313 1.631 9108
0.607 -0.315 1.629 9817
0.608 -0.315 1.619 9489
0.615 -0.318 1.625 7809
0.622 -0.322 1.630 6183
0.625 -0.324 1.627 7480
0.632 -0.328 1.632 8810
0.636 -0.330 1.630 7433
0.640 -0.332 1.628 6056
0.644 -0.334 1.626 7393
0.641 -0.332 1.610 8558
0.645 -0.334 1.607 9620
0.652 -0.338 1.612 11419
0.656 -0.340 1.610 12401
0.660 -0.342 1.608 11678
0.667 -0.345 1.613 10611
0.674 -0.349 1.617 10166
0.681 -0.353 1.622 9756
0.685 -0.355 1.620 12258
0.692 -0.359 1.624 15217
0.696 -0.360 1.622 16198
0.700 -0.362 1.620 16431
0.703 -0.364 1.617 15459
0.707 -0.366 1.615 14523
0.711 -0.368 1.613 13983
0.715 -0.370 1.610 18861
0.715 -0.371 1.601 23779
0.722 -0.374 1.605 24398
0.726 -0.376 1.603 25058
0.726 -0.376 1.594 20286
0.730 -0.378 1.591 15620
0.734 -0.380 1.589 18068
0.737 -0.382 1.586 18636
0.738 -0.382 1.577 16639
0.745 -0.386 1.581 14068
0.756 -0.392 1.592 11070
0.763 -0.396 1.596 10944
0.767 -0.397 1.594 12612
0.771 -0.399 1.591 14401
0.775 -0.401 1.589 12267
0.778 -0.403 1.586 12497
0.786 -0.407 1.590 15219
0.793 -0.411 1.594 17099
0.793 -0.411 1.585 20103
0.793 -0.411 1.575 20761
0.793 -0.411 1.566 24685
0.797 -0.413 1.563 32380
0.804 -0.417 1.567 37776
0.812 -0.421 1.571 35974
0.815 -0.423 1.569 25633
0.815 -0.422 1.559 20731
0.819 -0.424 1.557 15065
0.877 -0.455 1.646 19839
0.881 -0.457 1.643 21850
0.889 -0.461 1.646 17961
0.893 -0.463 1.643 16450
0.897 -0.465 1.640 19885
0.905 -0.469 1.644 24119
0.909 -0.471 1.641 26583
0.909 -0.471 1.631 19296
0.904 -0.469 1.615 15418
0.908 -0.471 1.612 14536
0.916 -0.475 1.616 14813
0.924 -0.479 1.619 14177
0.928 -0.481 1.616 15404
0.931 -0.483 1.613 16967
0.935 -0.485 1.610 15917
0.935 -0.484 1.600 12122
0.934 -0.484 1.591 8324
0.951 -0.493 1.606 9040
0.963 -0.499 1.616 14358
0.967 -0.501 1.613 13077
0.971 -0.503 1.609 6627
0.991 -0.514 1.631 5105
0.995 -0.516 1.628 7219
1.003 -0.520 1.631 8203
1.007 -0.522 1.627 7650
1.011 -0.524 1.624 7023
1.019 -0.528 1.627 9876
1.028 -0.532 1.630 21198
1.031 -0.534 1.626 31887
1.040 -0.539 1.629 31355
1.043 -0.541 1.625 20792
1.065 -0.552 1.647 13071
1.073 -0.556 1.649 13861
1.068 -0.554 1.633 12786
1.068 -0.553 1.624 12399
1.080 -0.560 1.632 11861
1.089 -0.564 1.635 13747
1.093 -0.566 1.631 15813
1.097 -0.568 1.627 11368
1.096 -0.568 1.618 7656
1.095 -0.567 1.608 10383
1.099 -0.569 1.604 10591
1.107 -0.574 1.607 9918
1.111 -0.576 1.603 14611
1.115 -0.578 1.599 29025
1.118 -0.580 1.595 38192
1.118 -0.579 1.586 34404
1.121 -0.581 1.582 25669
1.134 -0.588 1.590 20718
1.143 -0.592 1.592 25447
1.147 -0.594 1.588 23531
1.155 -0.599 1.590 19769
1.168 -0.605 1.598 26636
1.172 -0.607 1.594 34036
1.176 -0.609 1.590 38898
1.180 -0.611 1.586 37360
1.183 -0.613 1.582 26603
1.182 -0.613 1.573 21159
1.191 -0.617 1.574 17496
1.194 -0.619 1.570 10769
1.208 -0.626 1.578 9566
1.226 -0.635 1.591 11074
1.240 -0.642 1.598 19145
1.248 -0.647 1.600 33335
1.252 -0.649 1.595 41912
1.256 -0.651 1.591 32053
1.255 -0.650 1.581 23193
1.258 -0.652 1.577 23092
1.267 -0.657 1.579 17905
1.276 -0.661 1.580 13799
1.285 -0.666 1.581 17478
1.293 -0.670 1.582 23623
1.297 -0.672 1.578 16007
1.321 -0.685 1.596 17033
1.325 -0.686 1.591 35601
1.328 -0.688 1.587 42240
1.337 -0.693 1.588 32479
1.341 -0.695 1.583 16735
1.350 -0.699 1.584 10263
1.338 -0.693 1.564 12221
1.352 -0.701 1.570 11943
1.356 -0.703 1.565 16492
1.360 -0.704 1.561 21244
1.363 -0.706 1.556 13536
1.367 -0.708 1.552 6922
1.391 -0.721 1.568 11910
1.400 -0.726 1.569 18701
1.399 -0.725 1.559 17746
1.408 -0.729 1.560 13559
1.427 -0.740 1.570 13854
1.441 -0.747 1.576 13273
1.456 -0.754 1.582 12200
1.460 -0.756 1.577 15960
1.458 -0.755 1.567 19252
1.462 -0.757 1.562 15254
1.492 -0.773 1.583 9060
1.501 -0.778 1.583 12119
1.516 -0.785 1.588 13167
1.530 -0.793 1.593 14692
1.534 -0.795 1.588 16521
1.538 -0.797 1.583 14460
1.547 -0.802 1.583 10926
1.578 -0.818 1.602 9845
1.582 -0.820 1.597 11535
1.574 -0.816 1.582 14833
1.584 -0.821 1.582 20659
1.587 -0.823 1.576 19449
1.597 -0.827 1.576 17539
1.600 -0.829 1.571 21687
1.604 -0.831 1.565 21074
1.624 -0.842 1.574 19074
1.628 -0.844 1.569 24705
1.626 -0.843 1.559 27844
1.630 -0.845 1.553 29634
1.639 -0.849 1.553 38859
1.637 -0.848 1.542 47302
1.641 -0.850 1.537 45649
1.650 -0.855 1.536 36552
1.653 -0.857 1.531 24960
1.651 -0.856 1.521 16045
1.661 -0.860 1.520 12260
1.658 -0.859 1.510 9467
1.765 -0.914 1.587 9575
1.774 -0.919 1.586 10336
1.784 -0.924 1.584 10945
1.787 -0.926 1.578 10454
1.785 -0.925 1.568 9622
1.795 -0.930 1.567 15104
1.804 -0.935 1.565 24311
1.808 -0.937 1.559 27490
1.817 -0.942 1.558 26405
1.821 -0.944 1.552 24746
1.831 -0.949 1.550 21158
1.834 -0.950 1.544 17169
1.826 -0.946 1.529 13403
1.847 -0.957 1.536 12296
1.857 -0.962 1.534 11865
1.901 -0.985 1.558 11532
1.911 -0.990 1.556 13018
1.921 -0.995 1.554 11348
1.948 -1.009 1.565 11534
1.957 -1.014 1.563 14095
1.961 -1.016 1.556 20124
1.965 -1.018 1.550 25032
1.974 -1.023 1.547 19351
1.990 -1.031 1.549 16236
1.994 -1.033 1.542 13106
1.991 -1.032 1.532 9004
2.001 -1.037 1.529 8012
2.004 -1.039 1.522 7924
2.044 -1.059 1.540 7613
2.054 -1.064 1.538 7882
2.039 -1.057 1.519 5861
2.012 -1.043 1.492 6429
2.040 -1.057 1.501 8251
2.050 -1.062 1.498 11713
2.059 -1.067 1.495 12561
2.063 -1.069 1.489 9494
2.060 -1.068 1.478 6471
2.064 -1.069 1.471 5622
2.220 -1.151 1.561 5185
2.224 -1.152 1.553 6593
2.228 -1.154 1.546 8036
2.231 -1.156 1.539 9479
2.235 -1.158 1.531 9164
2.232 -1.157 1.520 8662
2.254 -1.168 1.524 6758
2.258 -1.170 1.516 7279
2.261 -1.172 1.509 9220
2.265 -1.174 1.501 9381
2.268 -1.175 1.494 9543
2.278 -1.180 1.490 10109
2.294 -1.189 1.490 11219
2.304 -1.194 1.486 12526
2.314 -1.199 1.482 14053
2.317 -1.201 1.474 9841
2.371 -1.228 1.495 6607
2.381 -1.234 1.490 6807
2.384 -1.235 1.482 7139
2.394 -1.240 1.478 6363
2.403 -1.245 1.473 5773
2.394 -1.241 1.459 5641
2.391 -1.239 1.447 5909
2.414 -1.251 1.450 5008
2.576 -1.335 1.526 4803
2.427 -1.258 1.437 4696
2.596 -1.345 1.515 4165
2.599 -1.347 1.507 4165
2.635 -1.365 1.515 5111
2.638 -1.367 1.506 6550
2.623 -1.359 1.488 7248
2.620 -1.357 1.476 8753
2.623 -1.359 1.467 8440
2.627 -1.361 1.458 8127
2.630 -1.363 1.450 8127
2.633 -1.365 1.441 6541
2.637 -1.366 1.432 4955
2.640 -1.368 1.423 2477
0.560 -0.292 1.583 9179
0.569 -0.297 1.596 9699
0.573 -0.299 1.594 10611
0.580 -0.303 1.599 8687
0.604 -0.316 1.647 8015
0.599 -0.313 1.624 8593
0.603 -0.315 1.621 9500
0.607 -0.317 1.619 9272
0.614 -0.321 1.625 7902
0.620 -0.324 1.630 6754
0.624 -0.326 1.627 8270
0.631 -0.330 1.632 9884
0.635 -0.332 1.630 8267
0.639 -0.334 1.628 6649
0.643 -0.336 1.626 7511
0.643 -0.336 1.617 8185
0.644 -0.336 1.607 9198
0.648 -0.338 1.605 10791
0.651 -0.340 1.603 11428
0.658 -0.344 1.608 10838
0.665 -0.348 1.613 10040
0.673 -0.351 1.617 9801
0.680 -0.355 1.622 9587
0.683 -0.357 1.620 12031
0.691 -0.361 1.624 14968
0.694 -0.363 1.622 16098
0.698 -0.365 1.620 16429
0.702 -0.367 1.617 15384
0.706 -0.369 1.615 14453
0.710 -0.371 1.613 13974
0.713 -0.373 1.610 18766
0.714 -0.373 1.601 23573
0.721 -0.377 1.605 24073
0.725 -0.379 1.603 24590
0.729 -0.381 1.600 19733
0.729 -0.381 1.591 14920
0.736 -0.385 1.595 17818
0.740 -0.387 1.593 18674
0.740 -0.387 1.584 16632
0.744 -0.389 1.581 12982
0.762 -0.398 1.606 9425
0.766 -0.400 1.603 10345
0.766 -0.400 1.594 12739
0.769 -0.402 1.591 14375
0.773 -0.404 1.589 12186
0.777 -0.406 1.586 13199
0.784 -0.410 1.590 17089
0.792 -0.414 1.594 19850
0.796 -0.416 1.592 22616
0.792 -0.414 1.575 22589
0.792 -0.414 1.566 24843
0.795 -0.416 1.563 32204
0.803 -0.419 1.567 39087
0.810 -0.423 1.571 39787
0.814 -0.425 1.569 31473
0.814 -0.425 1.559 26427
0.817 -0.427 1.557 19089
0.872 -0.456 1.639 20057
0.880 -0.460 1.643 21761
0.888 -0.464 1.646 17042
0.891 -0.466 1.643 15407
