0.391 2.112 1.553 10244
0.391 2.109 1.543 12220
0.391 2.113 1.537 9743
0.403 2.176 1.570 7405
0.404 2.180 1.563 7646
0.406 2.190 1.561 7893
0.406 2.195 1.555 6432
0.412 2.225 1.566 5257
0.413 2.229 1.559 5781
0.414 2.233 1.553 8610
0.414 2.237 1.547 11439
0.416 2.248 1.544 10300
0.418 2.258 1.542 9254
0.420 2.269 1.540 9992
0.422 2.279 1.537 11745
0.424 2.290 1.535 12938
0.426 2.301 1.532 9986
0.428 2.311 1.530 6793
0.431 2.329 1.531 6645
0.433 2.339 1.528 6893
0.438 2.363 1.534 5236
0.447 2.414 1.555 6597
0.444 2.398 1.536 8227
0.444 2.396 1.525 11175
0.444 2.400 1.518 10124
0.445 2.403 1.511 5844
0.462 2.495 1.555 3991
0.462 2.493 1.544 5353
0.461 2.490 1.533 6779
0.461 2.487 1.522 8077
0.463 2.498 1.518 9181
0.467 2.522 1.522 8177
0.470 2.540 1.523 8120
0.470 2.537 1.511 7119
0.469 2.534 1.500 6795
0.473 2.552 1.500 6304
0.477 2.576 1.504 7149
0.480 2.594 1.504 5981
0.485 2.618 1.508 3312
0.496 2.678 1.529 2721
0.495 2.675 1.518 5099
0.495 2.672 1.506 7039
0.494 2.669 1.495 7586
0.495 2.672 1.487 7667
0.496 2.676 1.479 6359
0.511 2.757 1.510 5346
0.510 2.754 1.499 6731
0.512 2.765 1.494 10047
0.514 2.776 1.490 12165
0.516 2.786 1.485 9991
0.521 2.811 1.487 9257
0.521 2.815 1.479 10889
0.521 2.812 1.468 11075
0.523 2.823 1.463 9407
0.525 2.834 1.458 6074
0.541 2.922 1.489 7530
0.542 2.926 1.481 6510
0.537 2.902 1.459 5734
0.542 2.927 1.461 7113
0.543 2.930 1.452 8064
0.542 2.927 1.440 5950
0.565 3.052 1.486 4914
0.569 3.070 1.484 6156
0.568 3.067 1.471 7869
0.569 3.070 1.462 8067
0.569 3.074 1.454 5074
0.581 3.135 1.469 5087
0.585 3.161 1.469 7353
0.589 3.179 1.466 10487
0.589 3.183 1.457 8341
0.583 3.150 1.433 6593
0.588 3.176 1.432 6996
0.590 3.187 1.426 6347
0.600 3.241 1.437 5016
0.610 3.295 1.448 5260
0.614 3.313 1.444 5604
0.616 3.324 1.438 6396
0.611 3.299 1.416 6581
0.610 3.296 1.404 5842
0.627 3.386 1.428 7396
0.631 3.405 1.424 7027
0.637 3.438 1.425 5620
0.635 3.427 1.409 6181
0.638 3.445 1.405 7032
0.643 3.470 1.403 6447
0.650 3.511 1.406 5616
0.659 3.558 1.412 5913
0.661 3.569 1.404 4453
0.675 3.646 1.420 4951
0.676 3.650 1.409 7079
0.670 3.617 1.385 7050
0.680 3.672 1.393 7270
0.685 3.698 1.390 6509
0.698 3.768 1.401 6442
0.700 3.779 1.393 5037
0.699 3.775 1.379 4326
0.701 3.786 1.371 6093
0.703 3.797 1.362 4996
0.722 3.897 1.382 4155
0.721 3.893 1.368 3778
0.723 3.904 1.359 3327
0.729 3.937 1.357 4027
0.733 3.955 1.350 4564
0.746 4.026 1.359 5375
0.746 4.029 1.347 6895
0.745 4.025 1.333 5791
0.761 4.111 1.346 4154
0.769 4.152 1.345 5142
0.772 4.170 1.337 4721
0.777 4.196 1.331 3312
0.779 4.207 1.321 4250
0.810 4.375 1.355 5093
0.822 4.439 1.359 8351
0.819 4.420 1.340 7807
0.819 4.423 1.327 9358
0.824 4.449 1.320 10138
0.830 4.483 1.315 7839
0.834 4.501 1.306 4791
0.850 4.588 1.314 3944
0.856 4.621 1.308 4961
0.858 4.632 1.297 6372
0.871 4.703 1.300 5099
0.867 4.684 1.280 4312
0.893 4.823 1.300 7702
0.894 4.827 1.286 7210
0.893 4.822 1.270 3186
0.909 4.909 1.275 3123
0.908 4.905 1.259 3109
0.913 4.931 1.250 2528
0.915 4.942 1.237 2448
0.954 5.150 1.268 2218
0.973 5.252 1.274 3558
0.972 5.248 1.257 3703
0.974 5.259 1.243 3254
0.989 5.338 1.244 4063
0.988 5.334 1.227 4465
0.988 5.337 1.211 3420
1.030 5.561 1.239 2921
1.076 5.809 1.271 2761
1.076 5.812 1.254 2856
1.080 5.831 1.240 2904
1.049 5.665 1.191 3123
1.097 5.921 1.221 2840
1.096 5.917 1.202 2795
1.092 5.897 1.181 2604
1.178 6.360 1.244 2188
1.171 6.325 1.219 2381
1.175 6.343 1.203 2875
1.209 6.530 1.214 3217
1.209 6.526 1.194 2942
1.235 6.667 1.197 2737
1.211 6.539 1.157 2120
1.213 6.550 1.139 2030
1.299 7.015 1.189 2250
1.274 6.879 1.148 2359
1.349 7.283 1.185 2187
1.354 7.309 1.167 1797
1.481 7.998 1.241 2928
1.482 8.001 1.217 3082
1.482 8.004 1.194 1743
1.487 8.031 1.173 2112
1.486 8.026 1.148 3857
1.487 8.029 1.125 4642
1.487 8.031 1.101 3951
1.488 8.034 1.077 2396
1.622 8.756 1.136 1900
1.621 8.751 1.109 2823
1.615 8.723 1.080 2983
1.613 8.710 1.053 2515
1.662 8.976 1.054 2434
1.663 8.979 1.027 2309
1.662 8.974 1.000 2842
1.661 8.968 0.973 3268
1.661 8.971 0.946 3023
1.663 8.981 0.921 2797
1.662 8.975 0.893 2165
1.663 8.977 0.867 1598
1.663 8.979 0.840 1400
0.374 1.990 1.591 4169
0.374 1.994 1.585 8338
0.375 1.998 1.579 7404
0.377 2.008 1.578 6445
0.379 2.019 1.577 6408
0.381 2.029 1.575 7109
0.383 2.040 1.574 8034
0.385 2.050 1.573 7569
0.386 2.054 1.567 7221
0.387 2.058 1.561 7221
0.389 2.069 1.560 5774
0.398 2.118 1.585 5993
0.397 2.115 1.574 6940
0.398 2.120 1.568 7918
0.395 2.104 1.549 9803
0.396 2.108 1.543 11898
0.397 2.112 1.537 9613
0.408 2.175 1.570 7835
0.410 2.185 1.568 8032
0.411 2.189 1.561 8364
0.412 2.194 1.555 6780
0.418 2.224 1.566 5348
0.418 2.228 1.559 5553
0.419 2.232 1.553 8266
0.420 2.236 1.547 10980
0.422 2.247 1.544 9904
0.424 2.257 1.542 8775
0.426 2.268 1.540 9821
0.428 2.278 1.537 11847
0.430 2.289 1.535 13087
0.432 2.300 1.532 10379
0.435 2.317 1.534 7297
0.437 2.328 1.531 7405
0.439 2.338 1.528 7723
0.442 2.356 1.530 5551
0.453 2.413 1.555 6098
0.449 2.390 1.532 7542
0.450 2.394 1.525 10066
0.450 2.398 1.518 9189
0.450 2.396 1.507 5681
0.447 2.379 1.488 3807
0.468 2.491 1.544 4929
0.466 2.482 1.529 6274
0.468 2.493 1.525 7867
0.469 2.497 1.518 9346
0.472 2.514 1.519 8731
0.475 2.532 1.519 8701
0.475 2.529 1.508 7993
0.476 2.533 1.500 7847
0.479 2.550 1.500 7128
0.482 2.568 1.500 7497
0.491 2.613 1.515 5984
0.493 2.624 1.511 4030
0.500 2.662 1.522 3945
0.502 2.673 1.518 6493
0.503 2.677 1.510 8430
0.502 2.674 1.499 8957
0.502 2.671 1.487 8840
0.502 2.675 1.479 7153
0.503 2.679 1.472 5332
0.517 2.752 1.499 5816
0.518 2.756 1.491 9369
0.521 2.774 1.490 11922
0.523 2.785 1.485 10250
0.526 2.803 1.484 9644
0.528 2.814 1.479 10052
0.528 2.811 1.468 9935
0.530 2.821 1.463 8510
0.532 2.832 1.458 5230
0.549 2.921 1.489 7182
0.549 2.925 1.481 6393
0.545 2.900 1.459 6604
0.549 2.925 1.461 7107
0.550 2.929 1.452 7498
0.548 2.919 1.437 5341
0.573 3.050 1.486 4787
0.576 3.068 1.484 5947
0.576 3.065 1.471 7911
0.575 3.062 1.459 8362
0.577 3.073 1.454 5143
0.589 3.134 1.469 6556
0.592 3.152 1.466 7996
0.597 3.177 1.466 10176
0.599 3.188 1.460 8182
0.591 3.149 1.433 6331
0.597 3.181 1.435 6734
0.600 3.192 1.429 5923
0.608 3.239 1.437 4621
0.619 3.294 1.448 4669
0.623 3.319 1.447 5428
0.624 3.323 1.438 6355
0.619 3.298 1.416 6662
0.619 3.294 1.404 6455
0.636 3.385 1.428 6566
0.638 3.396 1.421 6550
0.643 3.421 1.419 5762
0.643 3.425 1.409 6447
0.645 3.436 1.402 7002
0.661 3.520 1.422 6741
0.659 3.509 1.406 6196
0.664 3.535 1.404 6444
0.666 3.546 1.396 4893
0.684 3.645 1.420 5293
0.691 3.678 1.419 8139
0.678 3.608 1.383 7925
0.689 3.670 1.393 7081
0.694 3.696 1.390 5860
0.707 3.766 1.401 6484
0.704 3.747 1.383 5544
0.706 3.758 1.374 4952
0.711 3.784 1.371 6391
0.711 3.788 1.360 5306
0.733 3.902 1.384 4432
0.715 3.809 1.342 3337
0.733 3.902 1.359 3114
0.738 3.928 1.355 4257
0.742 3.954 1.350 4950
0.754 4.017 1.357 5658
0.756 4.027 1.347 6420
0.756 4.023 1.333 5721
0.758 4.034 1.324 4897
0.778 4.142 1.343 4832
0.783 4.168 1.337 4619
0.785 4.179 1.327 3506
0.787 4.190 1.317 4425
0.818 4.358 1.351 5133
0.833 4.437 1.359 7316
0.818 4.358 1.323 6286
0.830 4.421 1.327 8198
0.835 4.447 1.320 9522
0.840 4.473 1.313 8317
0.842 4.484 1.302 5638
0.863 4.593 1.316 3668
0.867 4.619 1.308 5154
0.868 4.622 1.295 6015
0.883 4.701 1.300 5597
0.881 4.689 1.282 5435
0.905 4.821 1.300 7875
0.906 4.825 1.286 7424
0.907 4.828 1.272 3302
0.944 5.028 1.303 2918
0.919 4.895 1.257 2977
0.921 4.906 1.244 2812
0.925 4.924 1.233 2501
0.968 5.155 1.269 2260
0.983 5.235 1.271 3587
0.985 5.245 1.257 3403
0.989 5.264 1.245 2954
1.001 5.328 1.242 3817
1.003 5.339 1.228 4570
1.002 5.334 1.211 3579
1.042 5.551 1.238 2902
1.090 5.806 1.271 2694
1.091 5.809 1.254 2445
1.063 5.660 1.208 3243
1.063 5.663 1.191 3573
1.065 5.673 1.176 2697
1.111 5.914 1.202 2705
1.108 5.901 1.182 2574
1.192 6.349 1.243 2342
1.187 6.322 1.219 2517
1.198 6.378 1.209 2819
1.226 6.527 1.214 3156
1.225 6.523 1.194 2864
1.251 6.664 1.197 2777
1.252 6.667 1.177 1952
1.229 6.547 1.139 2098
1.318 7.019 1.190 2353
1.293 6.884 1.149 2738
1.368 7.287 1.187 2224
1.317 7.013 1.126 1817
1.501 7.995 1.241 2626
1.502 7.998 1.217 2540
1.504 8.008 1.195 1376
1.509 8.035 1.174 1876
1.506 8.022 1.148 3424
1.507 8.025 1.125 4166
1.508 8.028 1.101 3671
1.508 8.030 1.077 2273
1.644 8.752 1.136 2164
1.643 8.747 1.109 3212
1.637 8.719 1.080 3405
1.635 8.706 1.053 2454
1.685 8.972 1.054 2626
1.685 8.975 1.027 2529
1.683 8.962 0.999 3157
1.683 8.964 0.973 3648
1.684 8.966 0.946 3398
1.686 8.976 0.921 3213
1.686 8.979 0.894 2503
1.684 8.965 0.866 1864
1.685 8.975 0.840 1671
0.379 1.989 1.591 4439
0.380 1.993 1.585 8878
0.381 1.997 1.579 7981
0.383 2.007 1.578 6939
0.384 2.011 1.572 6788
0.387 2.028 1.575 7514
0.389 2.039 1.574 8599
0.391 2.049 1.573 8121
0.392 2.053 1.567 7807
0.392 2.057 1.561 7807
0.394 2.068 1.560 6282
0.402 2.110 1.580 6241
0.402 2.108 1.570 6449
0.398 2.086 1.546 7059
0.401 2.103 1.549 8774
0.402 2.107 1.543 10717
0.403 2.111 1.537 8822
0.415 2.174 1.570 8075
0.417 2.184 1.568 8376
0.419 2.195 1.566 8798
0.419 2.199 1.559 7209
0.420 2.203 1.553 5483
0.421 2.207 1.547 5319
0.425 2.231 1.553 7738
0.426 2.235 1.547 10201
0.427 2.239 1.540 9358
0.430 2.256 1.542 8108
0.432 2.267 1.540 9487
0.434 2.277 1.537 11706
0.436 2.288 1.535 12907
0.438 2.298 1.532 10521
0.442 2.316 1.534 7706
0.444 2.326 1.531 7924
0.446 2.337 1.528 8249
0.445 2.334 1.517 5829
0.459 2.405 1.551 5746
0.456 2.389 1.532 6976
0.456 2.393 1.525 9016
0.457 2.397 1.518 8385
0.455 2.388 1.503 5933
0.453 2.378 1.488 4555
0.475 2.490 1.544 4634
0.473 2.481 1.529 5833
0.475 2.491 1.525 7654
0.477 2.502 1.522 9484
0.479 2.513 1.519 9424
0.483 2.530 1.519 9870
0.482 2.528 1.508 9507
0.483 2.531 1.500 9199
0.486 2.549 1.500 8019
0.488 2.560 1.497 8045
0.499 2.619 1.519 6499
0.501 2.630 1.515 5423
0.506 2.654 1.518 5496
0.510 2.672 1.518 7992
0.510 2.676 1.510 10042
0.510 2.673 1.499 10409
0.509 2.670 1.487 10097
0.511 2.681 1.483 8146
0.512 2.684 1.475 6246
0.519 2.723 1.485 5834
0.525 2.755 1.491 8651
0.529 2.773 1.490 11560
0.533 2.798 1.492 10679
0.536 2.808 1.487 10330
0.536 2.812 1.479 9256
0.537 2.816 1.471 8705
0.538 2.820 1.463 7339
0.552 2.894 1.488 4876
0.557 2.919 1.489 6930
0.557 2.923 1.481 6288
0.553 2.899 1.459 7319
0.555 2.910 1.454 7240
0.558 2.927 1.452 6842
0.556 2.917 1.437 4705
0.581 3.049 1.486 4720
0.585 3.067 1.484 5498
0.584 3.064 1.471 7539
0.584 3.060 1.459 8278
0.598 3.135 1.482 5636
0.597 3.132 1.469 7891
0.599 3.143 1.463 8394
0.604 3.168 1.463 9467
0.608 3.187 1.460 7707
0.610 3.198 1.454 5834
0.609 3.194 1.441 6380
0.610 3.198 1.432 5392
0.617 3.238 1.437 4130
0.628 3.292 1.448 4078
0.633 3.317 1.447 5572
0.633 3.321 1.438 6789
0.630 3.303 1.419 6879
0.628 3.292 1.404 7001
0.645 3.383 1.428 5582
0.647 3.394 1.421 5877
0.651 3.412 1.417 5764
0.651 3.416 1.407 6592
0.655 3.434 1.402 6962
0.675 3.540 1.430 7051
0.669 3.507 1.406 6869
0.671 3.518 1.398 7521
0.674 3.536 1.393 5872
0.693 3.635 1.417 5724
0.701 3.676 1.419 9139
0.688 3.606 1.383 8737
0.701 3.676 1.395 6738
0.703 3.687 1.387 5351
0.716 3.757 1.399 6348
0.714 3.745 1.383 6248
0.716 3.756 1.374 5361
0.721 3.782 1.371 6344
0.743 3.897 1.396 6235
0.744 3.900 1.384 4803
0.726 3.807 1.342 3347
0.744 3.900 1.359 3914
0.749 3.926 1.355 5435
0.751 3.937 1.346 5362
0.766 4.014 1.357 6012
0.766 4.018 1.345 5859
0.767 4.021 1.333 5185
0.769 4.032 1.324 5337
0.778 4.080 1.325 4616
0.794 4.166 1.337 4926
0.795 4.169 1.325 4050
0.797 4.180 1.315 4712
0.832 4.364 1.353 5779
0.846 4.435 1.359 6049
0.829 4.348 1.321 6070
0.833 4.366 1.313 6986
0.848 4.445 1.320 8286
0.853 4.471 1.313 8133
0.855 4.482 1.302 6373
0.875 4.590 1.316 3414
0.879 4.609 1.306 5060
0.881 4.620 1.295 5558
0.895 4.691 1.298 6007
0.894 4.687 1.282 6457
0.919 4.819 1.300 7958
0.920 4.822 1.286 7498
0.920 4.825 1.272 3376
0.960 5.033 1.305 3063
0.968 5.074 1.299 3107
0.934 4.895 1.243 2767
0.966 5.066 1.266 2437
0.983 5.152 1.269 2332
0.996 5.224 1.269 3476
0.997 5.227 1.254 3058
1.003 5.261 1.245 2510
1.015 5.325 1.242 3506
1.018 5.336 1.228 4661
1.017 5.331 1.211 3658
1.058 5.548 1.238 2908
1.107 5.803 1.271 2638
1.078 5.654 1.224 2557
1.080 5.664 1.209 3659
1.079 5.660 1.191 3778
1.080 5.663 1.174 2709
1.127 5.911 1.202 2626
1.126 5.906 1.183 2730
1.125 5.901 1.165 2613
1.206 6.326 1.220 2613
1.216 6.375 1.209 2865
1.244 6.524 1.214 2918
1.242 6.512 1.193 2735
1.270 6.661 1.197 2846
1.272 6.671 1.178 2217
1.246 6.536 1.137 2202
1.338 7.016 1.190 2438
1.311 6.872 1.148 3018
1.333 6.991 1.144 2427
1.335 7.001 1.125 1943
1.524 7.990 1.241 2252
1.526 8.001 1.218 1995
1.494 7.835 1.172 1463
1.550 8.131 1.187 1637
1.530 8.026 1.149 2769
1.530 8.021 1.125 3447
1.530 8.023 1.101 3175
1.529 8.018 1.076 2194
1.667 8.740 1.135 2360
1.666 8.735 1.108 3468
1.662 8.714 1.080 3736
1.661 8.709 1.053 2519
1.710 8.967 1.054 2701
1.711 8.970 1.027 2639
1.708 8.957 0.999 3348
1.709 8.959 0.973 3875
1.709 8.962 0.946 3633
1.711 8.972 0.921 3493
1.711 8.974 0.894 2751
1.709 8.960 0.866 2080
1.711 8.970 0.840 1895
0.384 1.988 1.591 4694
0.385 1.992 1.585 9388
0.386 1.996 1.579 8506
0.386 2.000 1.573 7387
0.387 2.004 1.567 7150
0.390 2.021 1.571 7870
0.394 2.038 1.574 9078
0.394 2.042 1.568 8543
0.397 2.052 1.567 8207
0.397 2.056 1.561 8207
0.399 2.067 1.560 6647
0.406 2.103 1.576 6277
0.403 2.088 1.556 6164
0.403 2.085 1.546 6646
0.405 2.096 1.544 8054
0.407 2.106 1.543 9783
0.408 2.110 1.537 8147
0.420 2.173 1.570 8417
0.422 2.183 1.568 8639
0.424 2.194 1.566 9179
0.425 2.198 1.559 7617
0.425 2.202 1.553 5748
0.426 2.206 1.547 5452
0.428 2.217 1.545 7137
0.430 2.227 1.542 9309
0.431 2.231 1.536 8882
0.434 2.248 1.538 7619
0.436 2.259 1.535 9202
0.438 2.270 1.533 11454
0.442 2.287 1.535 12489
0.445 2.304 1.536 10553
0.450 2.328 1.542 8151
0.451 2.332 1.535 8497
0.450 2.329 1.524 8855
0.451 2.333 1.517 6375
0.464 2.404 1.551 5301
0.460 2.381 1.528 6269
0.461 2.385 1.521 7758
0.462 2.389 1.514 7349
0.461 2.386 1.503 6080
0.461 2.384 1.492 5364
0.481 2.489 1.544 4663
0.480 2.486 1.533 5508
0.482 2.497 1.529 7484
0.483 2.501 1.522 9640
0.485 2.512 1.519 10158
0.489 2.529 1.519 11352
0.489 2.533 1.511 11378
0.490 2.537 1.504 10825
0.492 2.548 1.500 9165
0.494 2.559 1.497 8806
0.507 2.624 1.523 7254
0.509 2.635 1.519 6762
0.513 2.653 1.518 6888
0.516 2.671 1.518 9406
0.517 2.675 1.510 11529
0.516 2.672 1.499 11633
0.516 2.669 1.487 11058
0.518 2.679 1.483 9116
0.518 2.683 1.475 7316
0.525 2.715 1.481 6515
0.528 2.733 1.480 8443
0.535 2.771 1.490 11165
0.540 2.796 1.492 11301
0.542 2.807 1.487 11045
0.543 2.811 1.479 8659
0.544 2.815 1.471 7561
0.545 2.819 1.463 6228
0.556 2.879 1.481 5211
0.564 2.918 1.489 6952
0.559 2.894 1.468 6486
0.560 2.897 1.459 7304
0.562 2.908 1.454 6878
0.564 2.919 1.449 5855
0.584 3.022 1.485 4471
0.589 3.047 1.486 4678
0.592 3.065 1.484 4913
0.590 3.055 1.468 6872
0.590 3.052 1.456 7853
0.606 3.134 1.482 6356
0.605 3.131 1.469 8712
0.596 3.084 1.439 8954
0.612 3.167 1.463 8542
0.614 3.178 1.457 7132
0.618 3.196 1.454 6072
0.618 3.200 1.444 6363
0.620 3.211 1.438 5318
0.620 3.207 1.426 4039
0.637 3.298 1.451 3880
0.641 3.316 1.447 5896
0.640 3.312 1.435 7279
0.639 3.309 1.422 7067
0.639 3.305 1.410 7357
0.639 3.309 1.400 5241
0.658 3.407 1.427 5370
0.651 3.367 1.400 6267
0.660 3.414 1.407 6629
0.663 3.433 1.402 6703
0.684 3.538 1.430 7124
0.677 3.506 1.406 7315
0.679 3.516 1.398 8560
0.683 3.535 1.393 6841
0.702 3.634 1.417 6190
0.710 3.674 1.419 9532
0.696 3.604 1.383 9129
0.713 3.689 1.400 6670
0.713 3.692 1.390 5218
0.724 3.747 1.396 5910
0.723 3.744 1.383 6474
0.725 3.755 1.374 5304
0.730 3.780 1.371 5944
0.752 3.895 1.396 6982
0.752 3.891 1.382 5230
0.761 3.939 1.385 3933
0.753 3.898 1.359 5105
0.758 3.924 1.355 6417
0.759 3.927 1.343 5711
0.774 4.005 1.355 6326
0.776 4.016 1.345 5364
0.778 4.027 1.336 4662
0.780 4.038 1.326 6150
0.785 4.064 1.321 5257
0.803 4.157 1.335 4958
0.804 4.160 1.323 4457
0.804 4.163 1.310 4750
0.843 4.362 1.353 6231
0.855 4.425 1.357 5092
0.835 4.323 1.315 6298
0.843 4.364 1.313 6887
0.858 4.443 1.320 6775
0.863 4.469 1.313 7560
0.865 4.480 1.302 6479
0.886 4.588 1.316 3232
0.890 4.607 1.306 4654
0.895 4.633 1.298 4815
0.906 4.689 1.298 6193
0.905 4.685 1.282 7166
0.931 4.816 1.300 7864
0.931 4.820 1.286 7432
0.932 4.823 1.272 3458
0.975 5.046 1.309 3162
0.978 5.064 1.297 3570
0.979 5.068 1.282 2998
0.978 5.063 1.266 2387
0.996 5.158 1.271 2299
1.009 5.222 1.269 3314
1.009 5.225 1.254 2908
1.017 5.266 1.247 2459
1.030 5.330 1.244 3188
1.030 5.333 1.228 4304
1.030 5.329 1.211 3577
1.070 5.538 1.236 2891
1.121 5.800 1.271 2496
1.102 5.704 1.235 2760
1.094 5.662 1.209 3758
1.093 5.657 1.191 3681
1.094 5.660 1.174 2663
1.141 5.908 1.202 2554
1.141 5.903 1.183 2774
1.141 5.906 1.166 2851
1.222 6.323 1.220 2681
1.230 6.364 1.208 2747
1.261 6.529 1.216 2682
1.256 6.501 1.191 2695
1.288 6.665 1.198 2939
1.288 6.668 1.178 2552
1.261 6.525 1.136 2187
1.355 7.012 1.190 2426
1.327 6.869 1.148 3084
1.350 6.987 1.144 2741
1.352 6.998 1.125 2111
1.542 7.979 1.240 1865
1.547 8.005 1.219 1542
1.511 7.823 1.171 1846
1.570 8.127 1.187 1803
1.550 8.022 1.149 2118
1.549 8.017 1.125 2685
1.549 8.020 1.101 2573
1.548 8.015 1.076 2075
1.688 8.736 1.135 2402
1.687 8.731 1.108 3521
1.683 8.710 1.080 3888
1.683 8.713 1.054 2680
1.732 8.963 1.054 2591
1.732 8.966 1.027 2588
1.730 8.953 0.999 3363
1.730 8.955 0.973 3902
1.732 8.965 0.947 3713
1.733 8.967 0.921 3582
1.733 8.970 0.894 2808
1.730 8.956 0.866 2141
1.731 8.958 0.840 1994
1.733 8.968 0.814 1333
0.390 1.993 1.595 4945
0.391 1.997 1.590 9890
0.392 2.001 1.584 8958
0.391 1.999 1.573 7727
0.391 1.997 1.563 7530
0.395 2.020 1.571 8161
0.399 2.037 1.574 9492
0.399 2.041 1.568 8924
0.401 2.051 1.567 8536
0.402 2.055 1.561 8536
0.404 2.066 1.560 6997
0.410 2.095 1.571 6739
0.408 2.087 1.556 5864
0.408 2.084 1.546 5650
0.410 2.095 1.544 6874
0.412 2.105 1.543 8506
0.413 2.109 1.537 7549
0.425 2.172 1.570 8581
0.427 2.182 1.568 8859
0.429 2.193 1.566 9500
0.430 2.197 1.559 8058
0.431 2.201 1.553 6157
0.432 2.205 1.547 5698
0.432 2.209 1.540 6886
0.436 2.226 1.542 8338
0.435 2.224 1.532 8384
0.436 2.227 1.525 7483
0.442 2.258 1.535 8961
0.444 2.268 1.533 11130
0.447 2.286 1.535 11804
0.451 2.303 1.536 10383
0.455 2.327 1.542 8489
0.456 2.331 1.535 8940
0.456 2.328 1.524 9443
0.456 2.332 1.517 6913
0.470 2.403 1.551 5072
0.466 2.380 1.528 5782
0.467 2.384 1.521 6782
0.467 2.388 1.514 6684
0.467 2.385 1.503 6455
0.468 2.389 1.496 6265
0.487 2.488 1.544 5063
0.486 2.485 1.533 5529
0.488 2.496 1.529 7637
0.489 2.500 1.522 9829
0.493 2.517 1.522 10878
0.495 2.528 1.519 12722
0.496 2.532 1.511 13053
0.496 2.536 1.504 12206
0.498 2.547 1.500 9978
0.501 2.557 1.497 9228
0.513 2.623 1.523 8026
0.516 2.634 1.519 7991
0.518 2.645 1.515 8074
0.522 2.669 1.518 10422
0.523 2.673 1.510 12562
0.523 2.670 1.499 12441
0.523 2.674 1.491 11700
0.524 2.678 1.483 9985
0.526 2.689 1.479 8598
0.531 2.714 1.481 7706
0.533 2.724 1.477 9221
0.537 2.742 1.476 10674
0.548 2.802 1.496 11535
0.551 2.813 1.491 11348
0.550 2.810 1.479 8198
0.551 2.814 1.471 6722
0.551 2.817 1.463 5510
0.562 2.870 1.478 5926
0.564 2.881 1.473 7233
0.566 2.892 1.468 6692
0.567 2.896 1.459 7010
0.569 2.907 1.454 6394
0.571 2.918 1.449 4902
0.593 3.028 1.489 4621
0.598 3.053 1.489 4397
0.600 3.064 1.484 4047
0.595 3.039 1.462 5679
0.596 3.043 1.453 7041
0.613 3.133 1.482 6516
0.612 3.129 1.469 8945
0.605 3.090 1.442 10080
0.617 3.151 1.457 7739
0.622 3.176 1.457 6730
0.625 3.195 1.454 6245
0.627 3.206 1.447 6484
0.630 3.216 1.441 5604
0.627 3.206 1.426 4558
0.645 3.296 1.451 3967
0.649 3.314 1.447 6174
0.648 3.311 1.435 7523
0.647 3.307 1.422 7037
0.647 3.304 1.410 7616
0.647 3.307 1.400 5784
0.658 3.362 1.410 5543
0.659 3.365 1.400 6800
0.668 3.413 1.407 6662
0.670 3.424 1.399 6502
0.694 3.544 1.433 6961
0.686 3.504 1.406 7692
0.688 3.515 1.398 9490
0.690 3.526 1.391 7516
0.711 3.632 1.417 6248
0.714 3.650 1.412 9226
0.704 3.595 1.380 8994
0.723 3.694 1.403 6971
0.724 3.698 1.392 5283
0.733 3.746 1.396 5357
0.731 3.735 1.380 6452
0.733 3.745 1.372 4956
0.761 3.889 1.407 5387
0.762 3.893 1.396 7139
0.761 3.889 1.382 5560
0.760 3.885 1.368 4654
0.763 3.896 1.359 6241
0.768 3.922 1.355 7030
0.768 3.925 1.343 5743
0.783 4.003 1.355 6511
0.784 4.007 1.343 5030
0.788 4.025 1.336 3794
0.790 4.036 1.326 5537
0.793 4.054 1.318 4799
0.812 4.147 1.333 5867
0.812 4.151 1.320 5185
0.813 4.154 1.308 4686
0.853 4.359 1.353 6449
0.854 4.363 1.340 5450
0.846 4.321 1.315 6583
0.854 4.362 1.313 7150
0.856 4.373 1.302 6275
0.874 4.467 1.313 6487
0.876 4.477 1.302 6090
0.896 4.579 1.314 3284
0.901 4.605 1.306 4245
0.906 4.631 1.298 4128
0.917 4.687 1.298 5895
0.918 4.690 1.284 7255
0.942 4.814 1.300 7709
0.943 4.817 1.286 7233
0.943 4.821 1.272 3524
0.989 5.051 1.311 3110
0.991 5.062 1.297 3801
0.991 5.065 1.282 3139
0.992 5.069 1.268 2208
1.010 5.163 1.273 2268
1.020 5.212 1.268 3060
1.024 5.230 1.256 2675
1.035 5.287 1.251 2749
1.043 5.328 1.244 2975
1.045 5.338 1.230 3682
1.044 5.334 1.212 3131
1.082 5.528 1.235 2858
1.115 5.699 1.252 2359
1.114 5.694 1.233 2933
1.109 5.667 1.211 3489
1.108 5.662 1.193 3283
1.142 5.833 1.207 2788
1.156 5.905 1.202 2449
1.155 5.900 1.183 2814
1.155 5.903 1.166 3064
1.237 6.320 1.220 2529
1.278 6.530 1.236 2532
1.271 6.495 1.211 2482
1.270 6.490 1.190 2628
1.304 6.662 1.198 2952
1.304 6.665 1.178 2780
1.310 6.691 1.162 2662
1.372 7.009 1.190 2397
1.344 6.866 1.148 3009
1.367 6.984 1.144 3059
1.367 6.987 1.124 2323
1.555 7.944 1.235 1695
1.528 7.809 1.193 1805
1.530 7.819 1.171 2242
1.590 8.123 1.187 1914
1.589 8.118 1.162 1514
1.568 8.013 1.125 1835
1.569 8.016 1.101 1857
1.568 8.011 1.076 1812
1.709 8.732 1.135 2300
1.706 8.719 1.107 3366
1.705 8.714 1.081 3849
1.706 8.717 1.055 2878
1.711 8.742 1.032 2320
1.754 8.961 1.027 2396
1.751 8.948 0.999 3226
1.752 8.951 0.973 3747
1.754 8.961 0.947 3608
1.754 8.963 0.921 3467
1.755 8.965 0.894 2701
1.752 8.952 0.866 2107
1.752 8.954 0.840 2029
1.754 8.964 0.814 1348
0.394 1.992 1.595 5112
0.395 1.996 1.590 10224
0.396 2.000 1.584 9249
0.396 1.998 1.573 7929
0.394 1.990 1.558 7786
0.400 2.019 1.571 8400
0.403 2.036 1.574 9850
0.404 2.040 1.568 9188
0.406 2.050 1.567 8662
0.407 2.054 1.561 8662
0.410 2.071 1.564 7352
0.415 2.095 1.571 7577
0.416 2.099 1.565 6319
0.416 2.103 1.559 5060
0.416 2.100 1.549 5785
0.417 2.104 1.543 6526
0.428 2.160 1.572 6449
0.431 2.177 1.574 8357
0.433 2.188 1.572 8833
0.434 2.192 1.566 9612
0.435 2.196 1.559 8396
0.434 2.193 1.549 6666
0.435 2.197 1.542 6124
0.437 2.208 1.540 6823
0.439 2.219 1.538 7441
0.440 2.223 1.532 8054
0.441 2.227 1.525 7601
0.447 2.257 1.535 8850
0.449 2.267 1.533 10793
0.452 2.285 1.535 11016
0.456 2.302 1.536 10112
0.461 2.326 1.542 8719
0.460 2.323 1.531 9386
0.461 2.327 1.524 10102
0.462 2.331 1.517 7583
0.461 2.328 1.507 5225
0.471 2.379 1.528 5427
0.472 2.383 1.521 5963
0.473 2.387 1.514 5985
0.472 2.384 1.503 6496
0.473 2.388 1.496 6854
0.476 2.406 1.497 5735
0.493 2.491 1.537 5840
0.494 2.495 1.529 7902
0.496 2.505 1.526 9992
0.498 2.516 1.522 11519
0.500 2.527 1.519 13886
0.501 2.531 1.511 14405
0.502 2.535 1.504 13248
0.504 2.546 1.500 10536
0.506 2.556 1.497 9488
0.521 2.629 1.526 8734
0.521 2.633 1.519 8912
0.524 2.644 1.515 8859
0.528 2.668 1.518 10912
0.529 2.672 1.510 13091
0.529 2.669 1.499 12873
0.529 2.673 1.491 12010
0.531 2.684 1.487 10519
0.532 2.688 1.479 9542
0.537 2.712 1.481 8983
0.539 2.723 1.477 10544
0.541 2.734 1.472 11121
0.555 2.801 1.496 11117
0.557 2.812 1.491 11503
0.558 2.815 1.483 8420
0.557 2.812 1.471 6863
0.559 2.823 1.466 5873
0.567 2.862 1.475 6996
0.569 2.873 1.470 8120
0.572 2.891 1.468 6710
0.573 2.895 1.459 6446
0.575 2.906 1.454 5818
0.578 2.916 1.449 4431
0.601 3.034 1.492 4766
0.604 3.052 1.489 4108
0.608 3.070 1.487 3374
0.600 3.031 1.459 4468
0.601 3.035 1.450 6316
0.620 3.131 1.482 6103
0.612 3.092 1.454 9172
0.612 3.089 1.442 11095
0.621 3.135 1.451 7646
0.626 3.161 1.451 6836
0.632 3.193 1.454 6229
0.636 3.211 1.450 6351
0.637 3.215 1.441 5713
0.635 3.204 1.426 4991
0.651 3.287 1.448 4165
0.655 3.306 1.444 6377
0.655 3.309 1.435 7398
0.655 3.306 1.422 6679
0.654 3.302 1.410 7584
0.658 3.320 1.406 6485
0.665 3.360 1.410 5917
0.666 3.364 1.400 7045
0.676 3.411 1.407 6548
0.678 3.422 1.399 6021
0.702 3.542 1.433 6586
0.694 3.502 1.406 7768
0.694 3.506 1.396 9685
0.698 3.524 1.391 7661
0.710 3.586 1.401 6686
0.712 3.597 1.393 8641
0.712 3.594 1.380 8265
0.731 3.693 1.403 6924
0.732 3.696 1.392 4975
0.740 3.737 1.394 4609
0.738 3.725 1.378 6279
0.734 3.707 1.360 5257
0.770 3.888 1.407 5214
0.771 3.891 1.396 6967
0.770 3.887 1.382 5673
0.769 3.884 1.368 5136
0.771 3.895 1.359 6899
0.776 3.920 1.355 7416
0.793 4.005 1.369 6100
0.791 3.994 1.352 6384
0.792 3.998 1.341 4599
0.795 4.016 1.333 3039
0.800 4.042 1.328 5604
0.819 4.134 1.343 4867
0.821 4.145 1.333 6724
0.820 4.141 1.318 5717
0.822 4.152 1.308 4387
0.863 4.358 1.353 6271
0.864 4.361 1.340 5832
0.854 4.312 1.313 6848
0.863 4.360 1.313 6953
0.866 4.371 1.302 6592
0.866 4.375 1.289 5417
0.888 4.483 1.304 5363
0.906 4.577 1.314 3378
0.911 4.603 1.306 3721
0.920 4.644 1.302 3333
0.926 4.677 1.296 5561
0.928 4.688 1.284 7287
0.953 4.812 1.300 7454
0.954 4.815 1.286 6761
0.956 4.826 1.273 3061
0.977 4.935 1.284 2890
1.002 5.060 1.297 3683
1.003 5.063 1.282 2993
1.005 5.074 1.269 2031
1.029 5.199 1.281 1928
1.038 5.240 1.274 2709
1.049 5.296 1.270 2803
1.048 5.292 1.253 3214
1.056 5.333 1.245 2758
1.057 5.336 1.230 2987
1.093 5.522 1.251 2893
1.094 5.525 1.235 2777
1.099 5.551 1.223 2498
1.100 5.554 1.207 3075
1.123 5.672 1.212 3015
1.152 5.820 1.223 3001
1.155 5.831 1.207 3012
1.169 5.902 1.202 2260
1.168 5.898 1.183 2677
1.167 5.893 1.165 3122
1.231 6.218 1.203 2963
1.236 6.244 1.188 2451
1.284 6.484 1.209 2407
1.285 6.487 1.190 2543
1.319 6.659 1.198 2970
1.319 6.662 1.178 2958
1.324 6.688 1.162 2959
1.322 6.676 1.140 2526
1.357 6.855 1.147 2890
1.382 6.981 1.144 3242
1.383 6.984 1.124 2446
1.571 7.933 1.234 1573
1.546 7.805 1.193 2138
1.548 7.816 1.171 2600
1.512 7.634 1.124 2267
1.511 7.629 1.100 1803
1.638 8.272 1.157 1838
1.639 8.275 1.133 1692
1.636 8.262 1.106 1811
1.727 8.720 1.134 2038
1.726 8.715 1.107 2967
1.725 8.710 1.081 3446
1.727 8.721 1.056 2945
1.730 8.739 1.032 2739
1.729 8.733 1.005 2439
1.771 8.945 0.999 2988
1.772 8.947 0.973 3473
1.774 8.957 0.947 3397
1.774 8.959 0.921 3217
1.775 8.962 0.894 2432
1.772 8.948 0.866 1929
1.772 8.950 0.840 1937
0.399 1.991 1.595 5234
0.400 1.995 1.590 10469
0.401 1.999 1.584 9465
0.398 1.985 1.564 8125
0.399 1.989 1.558 8125
0.405 2.018 1.571 8651
0.408 2.035 1.574 10254
0.409 2.039 1.568 9404
0.411 2.049 1.567 8657
0.412 2.053 1.561 8657
0.415 2.070 1.564 7536
0.419 2.087 1.567 7800
0.421 2.098 1.565 6599
0.423 2.108 1.564 5500
0.424 2.112 1.558 5744
0.428 2.136 1.565 6156
0.433 2.159 1.572 6981
0.435 2.170 1.570 8388
0.439 2.187 1.572 8790
0.439 2.191 1.566 9489
0.440 2.195 1.559 8602
0.440 2.192 1.549 7240
0.440 2.196 1.542 6540
0.441 2.200 1.536 6755
0.443 2.211 1.534 6750
0.445 2.221 1.532 7720
0.446 2.225 1.525 7733
0.452 2.256 1.535 8955
0.454 2.266 1.533 10501
0.458 2.284 1.535 10245
0.461 2.301 1.536 9727
0.465 2.318 1.538 8675
0.466 2.322 1.531 9613
0.466 2.326 1.524 10550
0.467 2.330 1.517 8127
0.467 2.327 1.507 5916
0.477 2.378 1.528 5267
0.478 2.382 1.521 5414
0.478 2.386 1.514 5537
0.478 2.383 1.503 6533
0.480 2.394 1.500 7289
0.498 2.485 1.544 6313
0.501 2.496 1.540 6469
0.501 2.500 1.533 8283
0.502 2.504 1.526 10097
0.503 2.508 1.519 11933
0.507 2.526 1.519 14684
0.507 2.530 1.511 15326
0.508 2.534 1.504 13807
0.510 2.544 1.500 10586
0.512 2.555 1.497 9248
0.527 2.628 1.526 9277
0.528 2.632 1.519 9472
0.530 2.642 1.515 9215
0.535 2.667 1.518 11156
0.536 2.671 1.510 13391
0.536 2.675 1.502 13153
0.536 2.672 1.491 11816
0.538 2.683 1.487 10393
0.539 2.686 1.479 9801
0.544 2.711 1.481 9731
0.546 2.722 1.477 11688
0.547 2.726 1.469 11997
0.563 2.806 1.499 10532
0.564 2.810 1.491 11451
0.564 2.814 1.483 8905
0.564 2.811 1.471 7396
0.566 2.822 1.466 6856
0.572 2.854 1.471 8347
0.576 2.872 1.470 9124
0.579 2.889 1.468 6811
0.582 2.900 1.463 5889
0.584 2.911 1.457 5243
0.596 2.972 1.475 4367
0.608 3.032 1.492 4982
0.613 3.057 1.492 4121
0.617 3.075 1.490 3390
0.616 3.072 1.478 3630
0.607 3.026 1.447 5629
0.626 3.123 1.478 5488
0.618 3.083 1.451 9675
0.619 3.087 1.442 11669
0.628 3.134 1.451 8053
0.634 3.159 1.451 7178
0.639 3.184 1.451 6015
0.644 3.210 1.450 6019
0.644 3.214 1.441 5640
0.642 3.203 1.426 5279
0.659 3.286 1.448 4194
0.663 3.304 1.444 6394
0.663 3.308 1.435 6962
0.663 3.304 1.422 6060
0.663 3.308 1.412 7275
0.667 3.326 1.408 7149
0.674 3.359 1.410 6365
0.674 3.362 1.400 6811
0.684 3.410 1.407 6253
0.684 3.413 1.397 5542
0.709 3.533 1.430 6112
0.703 3.508 1.409 7709
0.703 3.504 1.396 9402
0.706 3.522 1.391 7208
0.717 3.577 1.399 6798
0.721 3.596 1.393 7989
0.722 3.599 1.383 7422
0.740 3.691 1.403 6533
0.742 3.702 1.395 4509
0.746 3.720 1.389 3989
0.744 3.709 1.373 6184
0.743 3.705 1.360 5607
0.779 3.886 1.407 4711
0.780 3.889 1.396 6409
0.778 3.878 1.380 5570
0.778 3.882 1.368 5368
0.781 3.893 1.359 6845
0.786 3.918 1.355 7448
0.800 3.989 1.364 6410
0.801 3.992 1.352 6014
0.801 3.996 1.341 3787
0.803 4.006 1.331 2509
0.810 4.040 1.328 4793
0.829 4.133 1.343 4868
0.831 4.143 1.333 7341
0.830 4.139 1.318 5750
0.837 4.173 1.315 3474
0.873 4.355 1.353 5684
0.874 4.359 1.340 5835
0.863 4.302 1.311 6688
0.874 4.358 1.313 6807
0.876 4.369 1.302 6756
0.877 4.372 1.289 5076
0.903 4.503 1.310 4625
0.917 4.574 1.314 3391
0.924 4.608 1.308 3284
0.932 4.649 1.304 2882
0.939 4.682 1.298 4857
0.940 4.686 1.284 6873
0.966 4.817 1.302 6833
0.965 4.813 1.286 5812
0.967 4.824 1.273 2475
0.988 4.925 1.282 2981
1.013 5.050 1.296 3284
1.013 5.053 1.281 2714
1.016 5.064 1.268 1953
1.056 5.264 1.296 1971
1.052 5.245 1.276 2620
1.060 5.286 1.269 3334
1.061 5.289 1.253 3600
1.069 5.330 1.245 2368
1.070 5.334 1.230 2392
1.107 5.519 1.251 3222
1.082 5.393 1.209 2956
1.114 5.556 1.225 2649
1.115 5.559 1.208 3337
1.155 5.761 1.230 3447
1.157 5.771 1.214 3208
1.167 5.820 1.205 3243
1.209 6.030 1.226 2326
1.181 5.887 1.182 2384
1.181 5.890 1.165 3003
1.246 6.215 1.203 3280
1.250 6.233 1.187 2649
1.298 6.473 1.208 2257
1.299 6.477 1.189 2289
1.335 6.656 1.198 3106
1.337 6.667 1.180 3170
1.341 6.685 1.162 3063
1.338 6.672 1.140 2570
1.400 6.982 1.166 2986
1.399 6.978 1.144 3230
1.400 6.981 1.124 2388
1.561 7.783 1.214 1750
1.565 7.802 1.193 2284
1.567 7.812 1.171 2742
1.530 7.630 1.124 2602
1.529 7.626 1.100 2081
1.658 8.268 1.157 1931
1.657 8.263 1.132 1708
1.655 8.250 1.105 1865
1.657 8.261 1.082 1868
1.747 8.711 1.107 2379
1.746 8.706 1.081 2766
1.751 8.732 1.058 2813
1.752 8.734 1.032 2842
1.751 8.729 1.005 2433
1.793 8.940 0.999 2703
1.793 8.943 0.973 3142
1.795 8.953 0.947 3130
1.796 8.955 0.921 2890
1.798 8.965 0.895 2070
1.792 8.936 0.866 1642
1.791 8.930 0.839 1716
0.402 1.991 1.595 5289
0.403 1.995 1.590 10578
0.404 1.999 1.584 9568
0.401 1.984 1.564 8314
0.402 1.988 1.558 8314
0.408 2.017 1.571 8858
0.411 2.034 1.574 10566
0.412 2.038 1.568 9609
0.414 2.049 1.567 8819
0.415 2.053 1.561 8819
0.418 2.070 1.564 7837
0.422 2.086 1.567 8103
0.425 2.103 1.570 6728
0.427 2.114 1.568 5854
0.431 2.131 1.571 6501
0.433 2.141 1.569 7695
0.435 2.152 1.567 7995
0.437 2.162 1.565 8530
0.441 2.179 1.568 8618
0.443 2.190 1.566 9125
0.444 2.194 1.559 8559
0.442 2.185 1.544 7582
0.444 2.196 1.542 6732
0.445 2.200 1.536 6640
0.445 2.204 1.530 6169
0.448 2.214 1.527 7310
0.450 2.225 1.525 7728
0.456 2.255 1.535 9048
0.458 2.266 1.533 10177
0.460 2.276 1.531 9529
0.465 2.300 1.536 9201
0.468 2.317 1.538 8420
0.469 2.321 1.531 9635
0.470 2.325 1.524 10849
0.471 2.329 1.517 8616
0.470 2.327 1.507 6662
0.481 2.377 1.528 5139
0.481 2.381 1.521 4910
0.481 2.378 1.510 4914
0.482 2.382 1.503 6065
0.484 2.393 1.500 7217
0.502 2.485 1.544 6834
0.506 2.502 1.544 7124
0.505 2.499 1.533 8578
0.506 2.503 1.526 10059
0.507 2.507 1.519 12148
0.510 2.525 1.519 15040
0.511 2.529 1.511 15692
0.512 2.533 1.504 13717
0.514 2.544 1.500 10106
0.516 2.554 1.497 8650
0.531 2.627 1.526 9604
0.532 2.631 1.519 9631
0.534 2.642 1.515 9062
0.539 2.666 1.518 10961
0.541 2.677 1.514 13336
0.541 2.674 1.502 13170
0.541 2.678 1.494 11484
0.542 2.682 1.487 9945
0.544 2.693 1.482 9879
0.549 2.717 1.485 10363
0.550 2.721 1.477 12747
0.551 2.725 1.469 13015
0.552 2.729 1.461 11358
0.568 2.809 1.491 11065
0.567 2.806 1.479 9622
0.567 2.803 1.468 8227
0.569 2.814 1.463 7988
0.574 2.839 1.465 9586
0.580 2.871 1.470 9943
0.585 2.896 1.471 7229
0.588 2.906 1.466 6018
0.588 2.910 1.457 5202
0.601 2.971 1.475 4614
0.611 3.024 1.489 5253
0.618 3.056 1.492 4261
0.624 3.089 1.496 4028
0.625 3.093 1.487 3704
0.609 3.011 1.441 5006
0.614 3.036 1.441 4874
0.623 3.083 1.451 9794
0.624 3.086 1.442 11820
0.633 3.133 1.451 8591
0.637 3.151 1.448 7416
0.642 3.176 1.448 5724
0.647 3.202 1.447 5452
0.646 3.198 1.435 5486
0.647 3.202 1.426 5561
0.648 3.205 1.416 4597
0.668 3.303 1.444 6254
0.667 3.299 1.432 6359
0.659 3.260 1.405 5636
0.670 3.314 1.415 6980
0.672 3.325 1.408 7556
0.679 3.358 1.410 6434
0.687 3.398 1.414 6266
0.689 3.409 1.407 5658
0.690 3.412 1.397 4653
0.714 3.532 1.430 5634
0.709 3.507 1.409 7823
0.708 3.503 1.396 9109
0.712 3.521 1.391 6579
0.721 3.569 1.396 6814
0.727 3.594 1.393 6952
0.727 3.598 1.383 6155
0.744 3.682 1.400 5717
0.742 3.671 1.385 4708
0.741 3.667 1.371 5079
0.748 3.700 1.370 6433
0.749 3.704 1.360 5717
0.785 3.885 1.407 4013
0.784 3.881 1.393 5680
0.784 3.877 1.380 5341
0.784 3.881 1.368 5143
0.788 3.899 1.362 6110
0.793 3.925 1.357 7322
0.796 3.935 1.348 7103
0.805 3.983 1.350 5509
0.801 3.965 1.331 3112
0.822 4.065 1.349 2426
0.813 4.023 1.324 4050
0.834 4.124 1.340 4659
0.836 4.135 1.331 7354
0.836 4.138 1.318 5124
0.864 4.276 1.345 3708
0.880 4.354 1.353 4752
0.866 4.283 1.319 5724
0.866 4.286 1.307 6356
0.882 4.364 1.315 6522
0.883 4.368 1.302 6626
0.911 4.506 1.325 4963
0.912 4.510 1.312 4303
0.934 4.618 1.326 3330
0.937 4.637 1.316 3238
0.946 4.678 1.312 2361
0.946 4.681 1.298 4433
0.947 4.684 1.284 6600
0.975 4.823 1.304 6421
0.973 4.812 1.286 4733
0.995 4.921 1.297 2196
0.995 4.924 1.282 2862
1.019 5.041 1.294 2778
1.020 5.044 1.279 2377
1.025 5.070 1.269 2204
1.033 5.111 1.263 2414
1.035 5.122 1.249 3160
1.067 5.277 1.267 3860
1.069 5.288 1.253 3848
1.045 5.169 1.212 2341
1.102 5.454 1.255 2328
1.114 5.510 1.250 3611
1.088 5.384 1.207 3100
1.123 5.554 1.225 2584
1.123 5.557 1.208 3172
1.164 5.759 1.230 4035
1.165 5.762 1.213 3569
1.176 5.818 1.205 3443
1.218 6.028 1.226 2551
1.188 5.878 1.181 2037
1.190 5.889 1.165 2705
1.256 6.213 1.203 3427
1.260 6.231 1.187 2727
1.308 6.471 1.208 1971
1.346 6.658 1.219 2032
1.347 6.661 1.199 3303
1.347 6.664 1.180 3399
1.351 6.683 1.162 3098
1.350 6.678 1.141 2503
1.410 6.973 1.165 2881
1.410 6.976 1.144 2924
1.412 6.986 1.125 2070
1.487 7.358 1.155 1869
1.575 7.792 1.192 2246
1.580 7.818 1.172 2772
1.542 7.628 1.124 2789
1.543 7.631 1.101 2297
1.671 8.265 1.157 1894
1.668 8.253 1.131 1666
1.666 8.240 1.105 1896
1.635 8.089 1.062 1900
1.634 8.083 1.038 1723
1.759 8.703 1.081 1918
1.766 8.737 1.058 2494
1.765 8.732 1.032 2617
1.786 8.835 1.016 2354
1.807 8.937 0.999 2442
1.807 8.940 0.973 2794
1.809 8.950 0.947 2810
1.810 8.952 0.921 2505
1.852 9.163 0.912 1899
1.793 8.871 0.861 1498
1.800 8.904 0.837 1592
0.409 1.989 1.595 5257
0.409 1.993 1.590 10514
0.410 1.998 1.584 9582
0.407 1.983 1.564 8405
0.408 1.987 1.558 8405
0.415 2.022 1.575 9137
0.418 2.033 1.574 10869
0.418 2.037 1.568 9793
0.420 2.047 1.567 8914
0.421 2.052 1.561 8914
0.425 2.068 1.564 8371
0.428 2.085 1.567 9057
0.432 2.102 1.570 7820
0.435 2.119 1.573 7467
0.437 2.129 1.571 8037
0.439 2.140 1.569 8996
0.440 2.144 1.563 8718
0.444 2.161 1.565 8632
0.447 2.178 1.568 8431
0.449 2.189 1.566 8746
0.449 2.186 1.555 8564
0.448 2.184 1.544 8053
0.449 2.188 1.538 7076
0.451 2.198 1.536 6665
0.452 2.202 1.530 5904
0.454 2.213 1.527 6967
0.457 2.223 1.525 7598
0.463 2.254 1.535 9046
0.465 2.264 1.533 9834
0.467 2.275 1.531 8870
0.472 2.299 1.536 8660
0.476 2.316 1.538 8025
0.476 2.320 1.531 9485
0.477 2.324 1.524 10945
0.478 2.328 1.517 8921
0.476 2.318 1.503 7301
0.477 2.322 1.496 5707
0.489 2.380 1.521 4437
0.488 2.377 1.510 4364
0.489 2.381 1.503 5455
0.493 2.398 1.504 6880
0.511 2.490 1.548 7192
0.514 2.501 1.544 7713
0.513 2.498 1.533 8823
0.514 2.502 1.526 9980
0.515 2.506 1.519 12224
0.518 2.523 1.519 14999
0.519 2.527 1.511 15587
0.521 2.538 1.508 13142
0.522 2.542 1.500 9297
0.540 2.628 1.538 8873
0.541 2.632 1.530 9745
0.540 2.629 1.519 9502
0.542 2.640 1.515 8585
0.547 2.664 1.518 10593
0.549 2.675 1.514 13299
0.549 2.672 1.502 13330
0.551 2.683 1.498 11141
0.552 2.687 1.490 9085
0.553 2.691 1.482 9276
0.558 2.716 1.485 10564
0.558 2.719 1.477 13652
0.559 2.723 1.469 14088
0.560 2.727 1.461 12512
0.577 2.808 1.491 10541
0.575 2.797 1.476 10520
0.575 2.801 1.468 9363
0.578 2.812 1.463 9007
0.583 2.837 1.465 10399
0.589 2.869 1.470 10855
0.594 2.894 1.471 8116
0.598 2.912 1.469 6838
0.599 2.916 1.461 5612
0.611 2.976 1.478 4940
0.621 3.022 1.489 5587
0.627 3.054 1.492 4424
0.634 3.087 1.496 4472
0.635 3.091 1.487 3840
0.615 2.995 1.434 4744
0.616 2.998 1.425 4690
0.633 3.081 1.451 9586
0.633 3.084 1.442 11664
0.643 3.131 1.451 9035
0.647 3.149 1.448 7334
0.650 3.167 1.445 5324
0.654 3.185 1.441 5071
0.655 3.189 1.432 5429
0.657 3.200 1.426 5686
0.659 3.211 1.419 5081
0.676 3.294 1.442 5985
0.677 3.297 1.432 5830
0.668 3.250 1.402 5560
0.685 3.334 1.424 6768
0.682 3.323 1.408 7764
0.691 3.363 1.413 6283
0.697 3.395 1.414 5778
0.701 3.414 1.409 5099
0.700 3.410 1.397 3894
0.723 3.523 1.427 5450
0.721 3.512 1.411 7628
0.719 3.501 1.396 8342
0.724 3.526 1.393 5790
0.732 3.567 1.396 6646
0.736 3.585 1.391 5751
0.741 3.610 1.388 4639
0.753 3.665 1.395 5343
0.750 3.654 1.379 5624
0.751 3.658 1.369 6739
0.758 3.691 1.368 6851
0.760 3.702 1.360 5646
0.797 3.882 1.407 3338
0.796 3.878 1.393 4796
0.797 3.882 1.382 5014
0.796 3.878 1.368 4902
0.800 3.896 1.362 5003
0.805 3.922 1.357 6999
0.806 3.926 1.346 7813
0.808 3.936 1.336 5151
0.834 4.059 1.361 3293
0.836 4.070 1.351 2763
0.826 4.021 1.324 3898
0.845 4.114 1.338 4538
0.847 4.125 1.328 6884
0.848 4.128 1.316 4471
0.878 4.273 1.345 4201
0.880 4.284 1.334 5230
0.877 4.273 1.317 6172
0.878 4.276 1.305 6351
0.896 4.362 1.315 6226
0.896 4.365 1.302 5998
0.923 4.496 1.323 5138
0.926 4.507 1.312 4345
0.948 4.615 1.326 3650
0.950 4.626 1.314 3565
0.966 4.705 1.319 2746
0.962 4.686 1.300 4259
0.961 4.681 1.284 6141
0.991 4.828 1.305 6367
0.989 4.816 1.288 3878
1.008 4.910 1.295 2083
1.011 4.921 1.282 2273
1.031 5.022 1.290 2323
1.045 5.086 1.289 2368
1.041 5.067 1.269 2648
1.049 5.108 1.263 3114
1.051 5.119 1.249 4410
1.083 5.273 1.267 4159
1.084 5.277 1.251 4072
1.062 5.173 1.214 2444
1.130 5.503 1.266 2358
1.131 5.507 1.250 3897
1.102 5.365 1.204 3281
1.142 5.558 1.226 2423
1.181 5.752 1.247 3230
1.182 5.755 1.230 4390
1.181 5.751 1.211 3800
1.194 5.815 1.205 3493
1.239 6.032 1.227 2695
1.241 6.042 1.211 2107
1.273 6.198 1.220 2681
1.275 6.209 1.203 3411
1.279 6.227 1.187 2615
1.330 6.475 1.209 1613
1.367 6.654 1.219 2175
1.367 6.657 1.199 3465
1.368 6.660 1.180 3549
1.370 6.671 1.161 3004
1.371 6.674 1.141 2417
1.431 6.968 1.165 2701
1.438 7.002 1.149 2603
1.511 7.358 1.178 2280
1.510 7.353 1.155 2164
1.508 7.341 1.131 2284
1.604 7.813 1.172 2752
1.566 7.623 1.124 2885
1.566 7.626 1.101 2442
1.568 7.636 1.080 1882
1.687 8.217 1.127 1671
1.660 8.081 1.086 1969
1.660 8.083 1.062 2141
1.659 8.078 1.038 1901
1.660 8.081 1.014 1326
1.795 8.739 1.059 2066
1.811 8.819 1.041 2308
1.815 8.837 1.017 2341
1.815 8.839 0.990 2454
1.835 8.934 0.973 2505
1.837 8.944 0.947 2503
1.815 8.838 0.911 2310
1.816 8.841 0.885 2129
1.819 8.858 0.860 1627
1.824 8.883 0.836 1497
0.414 1.988 1.595 5128
0.415 1.992 1.590 10257
0.415 1.996 1.584 9492
0.416 2.001 1.578 8452
0.413 1.986 1.558 8405
0.421 2.021 1.575 9492
0.423 2.032 1.574 11238
0.424 2.036 1.568 9988
0.426 2.046 1.567 8914
0.427 2.050 1.561 8914
0.430 2.067 1.564 8815
0.435 2.090 1.571 9959
0.439 2.107 1.574 8814
0.441 2.118 1.573 8883
0.443 2.128 1.571 9032
0.445 2.139 1.569 9582
0.446 2.143 1.563 8989
0.448 2.153 1.561 8625
0.452 2.170 1.563 8171
0.455 2.187 1.566 8183
0.455 2.185 1.555 8348
0.453 2.176 1.540 8254
0.455 2.187 1.538 7159
0.456 2.191 1.532 6473
0.457 2.195 1.525 5544
0.460 2.212 1.527 6573
0.464 2.229 1.529 7418
0.467 2.246 1.531 8982
0.471 2.263 1.533 9469
0.473 2.274 1.531 8224
0.478 2.297 1.536 8041
0.480 2.308 1.534 7469
0.482 2.319 1.531 9083
0.483 2.323 1.524 10772
0.484 2.327 1.517 8994
0.482 2.317 1.503 7755
0.483 2.321 1.496 6262
0.484 2.325 1.489 4769
0.493 2.369 1.506 4017
0.495 2.380 1.503 4991
0.499 2.397 1.504 6583
0.518 2.489 1.548 7653
0.520 2.499 1.544 8420
0.520 2.497 1.533 9162
0.520 2.501 1.526 9928
0.521 2.504 1.519 12220
0.525 2.522 1.519 14779
0.526 2.526 1.511 15307
0.528 2.537 1.508 12429
0.529 2.541 1.500 8332
0.547 2.627 1.538 9191
0.547 2.631 1.530 9820
0.547 2.628 1.519 9255
0.549 2.638 1.515 8014
0.554 2.663 1.518 10204
0.555 2.667 1.510 13342
0.557 2.678 1.506 13677
0.558 2.682 1.498 10848
0.559 2.686 1.490 7900
0.560 2.689 1.482 8218
0.565 2.714 1.485 10392
0.566 2.718 1.477 14169
0.566 2.722 1.469 14813
0.567 2.725 1.461 13359
0.581 2.792 1.484 10142
0.582 2.796 1.476 11750
0.583 2.800 1.468 10720
0.585 2.811 1.463 9860
0.590 2.835 1.465 10667
0.598 2.874 1.473 11697
0.602 2.892 1.471 9329
0.606 2.910 1.469 8026
0.606 2.914 1.461 6339
0.619 2.974 1.478 5085
0.627 3.013 1.485 5927
0.631 3.032 1.483 4662
0.640 3.078 1.493 4506
0.643 3.089 1.487 3627
0.621 2.986 1.431 4572
0.624 2.997 1.425 4729
0.641 3.079 1.451 8982
0.643 3.090 1.445 11189
0.651 3.129 1.451 9432
0.655 3.147 1.448 7313
0.657 3.158 1.442 5073
0.661 3.176 1.438 4960
0.662 3.180 1.429 5604
0.665 3.198 1.426 5943
0.668 3.209 1.419 5785
0.685 3.292 1.442 5668
0.684 3.288 1.429 5324
0.673 3.234 1.396 5689
0.693 3.332 1.424 6924
0.693 3.328 1.411 7995
0.699 3.361 1.413 5925
0.708 3.401 1.417 5246
0.713 3.426 1.415 4768
0.730 3.510 1.435 3176
0.731 3.514 1.424 5230
0.730 3.510 1.411 7334
0.728 3.499 1.396 7536
0.738 3.546 1.401 5230
0.742 3.565 1.396 6344
0.746 3.583 1.391 4919
0.752 3.616 1.391 3616
0.761 3.656 1.393 5401
0.758 3.645 1.377 6904
0.761 3.656 1.369 8311
0.766 3.681 1.365 7195
0.770 3.700 1.360 5311
0.797 3.828 1.390 3248
0.807 3.876 1.393 4043
0.809 3.887 1.384 4844
0.808 3.883 1.371 4590
0.809 3.887 1.359 4043
0.814 3.913 1.355 6630
0.816 3.923 1.346 8209
0.817 3.927 1.334 5521
0.843 4.049 1.359 3496
0.846 4.067 1.351 3121
0.836 4.019 1.324 3964
0.854 4.104 1.336 4403
0.855 4.107 1.324 6146
0.857 4.118 1.314 4267
0.889 4.271 1.345 4654
0.889 4.274 1.332 5746
0.889 4.270 1.317 6535
0.889 4.274 1.305 6357
0.909 4.367 1.317 5883
0.908 4.363 1.302 4991
0.935 4.493 1.323 5341
0.937 4.504 1.312 4566
0.961 4.620 1.328 4125
0.962 4.624 1.314 3917
0.977 4.695 1.318 3539
0.976 4.691 1.302 4376
0.975 4.686 1.286 5506
1.004 4.825 1.305 6523
1.005 4.829 1.291 3883
1.020 4.900 1.293 2009
1.017 4.888 1.275 2064
1.015 4.876 1.257 2313
1.059 5.091 1.291 2839
1.054 5.064 1.269 3055
1.062 5.105 1.263 3666
1.065 5.116 1.249 5265
1.067 5.127 1.236 4311
1.097 5.274 1.251 4232
1.078 5.178 1.215 2836
1.143 5.493 1.264 2774
1.144 5.496 1.248 4314
1.114 5.355 1.203 3570
1.120 5.380 1.191 2433
1.198 5.757 1.248 3544
1.197 5.752 1.230 4505
1.193 5.732 1.208 4000
1.209 5.812 1.205 3379
1.254 6.028 1.227 2861
1.257 6.039 1.211 2276
1.288 6.187 1.218 2698
1.291 6.205 1.203 3313
1.295 6.224 1.187 2512
1.254 6.028 1.135 1556
1.384 6.651 1.219 2255
1.385 6.654 1.199 3500
1.385 6.657 1.180 3553
1.387 6.667 1.161 2910
1.388 6.670 1.141 2410
1.448 6.957 1.164 2560
1.463 7.029 1.153 2524
1.530 7.354 1.178 2441
1.526 7.334 1.153 2375
1.527 7.337 1.131 2474
1.625 7.808 1.172 2664
1.587 7.627 1.125 2829
1.588 7.630 1.102 2429
1.588 7.632 1.080 1905
1.707 8.205 1.126 1798
1.681 8.076 1.086 2061
1.681 8.079 1.062 2264
1.680 8.074 1.038 2021
1.681 8.077 1.014 1420
1.856 8.919 1.079 1765
1.834 8.814 1.041 2252
1.838 8.832 1.017 2316
1.838 8.834 0.990 2621
1.837 8.829 0.963 2687
1.838 8.831 0.937 2569
1.838 8.834 0.911 2584
1.839 8.836 0.885 2383
1.903 9.147 0.884 1676
1.846 8.871 0.835 1367
0.418 1.987 1.595 4939
0.419 1.991 1.590 9878
0.420 1.996 1.584 9334
0.421 2.000 1.578 8623
0.423 2.010 1.577 8526
0.425 2.020 1.575 9864
0.427 2.031 1.574 11637
0.430 2.041 1.573 10261
0.430 2.045 1.567 8999
0.431 2.049 1.561 8999
0.435 2.066 1.564 9067
0.440 2.089 1.571 10364
0.443 2.106 1.574 9384
0.445 2.117 1.573 9682
0.448 2.127 1.571 9692
0.450 2.138 1.569 10007
0.451 2.142 1.563 9262
0.453 2.152 1.561 8811
0.455 2.163 1.559 7977
0.460 2.186 1.566 7477
0.458 2.178 1.551 8041
0.458 2.175 1.540 8324
0.459 2.179 1.534 7216
0.461 2.190 1.532 6486
0.462 2.194 1.525 5467
0.465 2.211 1.527 6194
0.469 2.228 1.529 7060
0.472 2.245 1.531 8667
0.475 2.255 1.529 8966
0.478 2.273 1.531 7551
0.485 2.303 1.540 7481
0.485 2.307 1.534 6950
0.488 2.318 1.531 8717
0.490 2.328 1.528 10636
0.489 2.325 1.517 9037
0.487 2.316 1.503 8016
0.488 2.320 1.496 6571
0.489 2.324 1.489 5126
0.491 2.334 1.486 3736
0.500 2.379 1.503 4389
0.504 2.396 1.504 6019
0.523 2.487 1.548 8037
0.524 2.491 1.540 9046
0.525 2.495 1.533 9339
0.526 2.499 1.526 9633
0.527 2.503 1.519 11862
0.530 2.521 1.519 14167
0.531 2.525 1.511 14624
0.534 2.535 1.508 11495
0.552 2.621 1.545 8072
0.552 2.625 1.538 9429
0.553 2.629 1.530 9803
0.553 2.626 1.519 8965
0.555 2.637 1.515 7404
0.560 2.662 1.518 9717
0.561 2.666 1.510 13425
0.563 2.677 1.506 14156
0.565 2.687 1.501 10799
0.566 2.691 1.494 6956
0.567 2.695 1.486 7182
0.571 2.713 1.485 10253
0.572 2.717 1.477 14591
0.572 2.720 1.469 15258
0.575 2.731 1.464 13928
0.586 2.784 1.480 10551
0.588 2.795 1.476 13147
0.589 2.798 1.468 12196
0.591 2.809 1.463 10490
0.599 2.848 1.471 10539
0.605 2.873 1.473 12656
0.608 2.891 1.471 10759
0.611 2.902 1.466 9330
0.611 2.906 1.457 7291
0.614 2.916 1.452 5235
0.634 3.012 1.485 6251
0.636 3.023 1.480 4999
0.647 3.077 1.493 4231
0.629 2.988 1.443 3256
0.627 2.977 1.428 4206
0.630 2.995 1.425 4638
0.648 3.078 1.451 8174
0.650 3.088 1.445 10401
0.660 3.135 1.454 9610
0.662 3.146 1.448 7148
0.664 3.157 1.442 4568
0.667 3.168 1.435 4791
0.667 3.171 1.426 5698
0.673 3.197 1.426 5988
0.675 3.207 1.419 6113
0.692 3.290 1.442 5500
0.690 3.280 1.426 5067
0.680 3.233 1.396 5582
0.701 3.330 1.424 7103
0.700 3.327 1.411 8105
0.707 3.359 1.413 5640
0.717 3.407 1.419 4625
0.722 3.432 1.418 4737
0.737 3.501 1.432 3613
0.739 3.512 1.424 5284
0.738 3.508 1.411 6756
0.734 3.490 1.393 6565
0.752 3.574 1.412 5234
0.750 3.563 1.396 5944
0.752 3.574 1.388 4491
0.768 3.651 1.404 3167
0.767 3.647 1.390 5650
0.767 3.643 1.377 7996
0.769 3.654 1.369 9439
0.774 3.680 1.365 7340
0.780 3.705 1.362 4775
0.805 3.827 1.390 3549
0.814 3.867 1.391 3536
0.818 3.885 1.384 4966
0.818 3.889 1.373 4811
0.819 3.892 1.362 3761
0.823 3.911 1.355 6566
0.825 3.922 1.346 8491
0.826 3.925 1.334 5733
0.845 4.018 1.350 3787
0.855 4.066 1.351 3562
0.855 4.062 1.337 4267
0.863 4.102 1.336 4212
0.862 4.098 1.322 5386
0.865 4.109 1.312 4139
0.900 4.276 1.347 5130
0.901 4.280 1.334 6183
0.898 4.268 1.317 6796
0.899 4.272 1.305 6242
0.920 4.372 1.319 5407
0.900 4.278 1.280 3818
0.945 4.491 1.323 5616
0.947 4.502 1.312 4854
0.972 4.618 1.328 4645
0.971 4.614 1.312 4304
0.987 4.693 1.318 4030
0.986 4.688 1.302 4661
0.986 4.684 1.286 5264
1.016 4.831 1.307 6789
1.017 4.834 1.293 4580
1.030 4.897 1.293 2219
1.030 4.893 1.277 2032
1.026 4.874 1.257 2303
1.071 5.089 1.291 3305
1.065 5.062 1.269 3483
1.075 5.110 1.264 4045
1.076 5.113 1.249 5633
1.077 5.117 1.234 4525
1.109 5.271 1.251 3773
1.091 5.183 1.217 3161
1.155 5.490 1.264 3118
1.156 5.493 1.248 4616
1.126 5.352 1.203 3746
1.130 5.370 1.190 2512
1.211 5.754 1.248 3844
1.210 5.749 1.230 4387
1.207 5.737 1.210 3870
1.222 5.809 1.205 3127
1.268 6.025 1.227 2889
1.270 6.036 1.211 2351
1.298 6.169 1.216 2633
1.262 5.996 1.167 3121
1.264 6.007 1.151 2406
1.268 6.025 1.135 1541
1.399 6.648 1.219 2307
1.399 6.651 1.199 3443
1.400 6.654 1.180 3490
1.402 6.664 1.161 2880
1.403 6.667 1.141 2475
1.462 6.946 1.163 2406
1.478 7.025 1.153 2424
