0.007 3.832 1.451 7251
0.007 3.888 1.458 7428
0.007 3.907 1.451 9522
0.007 3.933 1.448 8110
0.007 3.982 1.452 9078
0.007 4.001 1.445 8642
0.007 3.997 1.431 5871
0.007 3.993 1.417 5295
0.007 4.005 1.408 6349
0.007 4.061 1.413 4369
0.007 4.072 1.404 5037
0.007 4.076 1.392 4250
0.007 4.140 1.399 3575
0.007 4.151 1.389 4484
0.007 4.163 1.380 5513
0.007 4.166 1.368 3992
0.008 4.284 1.389 3566
0.008 4.257 1.368 4857
0.008 4.336 1.378 5916
0.008 4.332 1.363 5546
0.008 4.351 1.355 4319
0.008 4.446 1.368 4012
0.008 4.564 1.387 5775
0.008 4.568 1.374 7558
0.008 4.564 1.358 9200
0.008 4.575 1.347 8742
0.008 4.586 1.336 6276
0.008 4.628 1.333 4725
0.008 4.716 1.341 6841
0.008 4.727 1.330 9597
0.008 4.738 1.318 5892
0.009 4.857 1.333 4906
0.009 4.922 1.334 3227
0.009 4.956 1.327 3996
0.009 4.975 1.316 3702
0.009 5.040 1.317 3737
0.009 5.043 1.302 3757
0.009 5.093 1.298 3619
0.009 5.243 1.317 3241
0.009 5.254 1.303 4054
0.009 5.265 1.290 4029
0.009 5.284 1.278 3146
0.010 5.434 1.294 2994
0.010 5.453 1.282 3694
0.010 5.627 1.302 5464
0.010 5.630 1.285 5632
0.010 5.657 1.274 4864
0.010 5.660 1.257 4302
0.011 5.935 1.294 3153
0.011 5.923 1.274 3425
0.011 5.927 1.257 2551
0.011 6.109 1.273 3439
0.011 6.143 1.261 4007
0.011 6.146 1.244 3253
0.011 6.118 1.220 2826
0.011 6.129 1.204 2745
0.012 6.515 1.252 3214
0.012 6.526 1.234 3642
0.012 6.545 1.218 3681
0.012 6.555 1.200 2397
0.012 6.981 1.249 2028
0.013 7.516 1.312 1776
0.013 7.511 1.289 2030
0.012 6.990 1.188 2025
0.013 7.463 1.238 2105
0.013 7.466 1.216 2677
0.013 7.461 1.193 2231
0.013 7.559 1.185 2072
0.013 7.554 1.162 2606
0.013 7.565 1.141 2558
0.015 8.588 1.252 1936
0.015 8.395 1.202 1992
0.015 8.398 1.178 2385
0.015 8.393 1.152 2325
0.016 9.001 1.200 2200
0.016 9.004 1.174 1903
0.016 9.015 1.148 1431
0.016 9.113 1.132 2159
0.016 9.108 1.105 3560
0.016 9.110 1.079 3573
0.017 9.523 1.094 4144
0.017 9.525 1.066 4155
0.017 9.528 1.038 3396
0.017 9.531 1.011 1794
0.007 2.012 1.581 2915
0.007 2.016 1.575 5831
0.007 2.033 1.579 5868
0.007 2.050 1.583 6968
0.007 2.067 1.586 8398
0.007 2.090 1.594 8039
0.007 2.108 1.597 9226
0.007 2.112 1.591 10206
0.007 2.116 1.585 11186
0.007 2.120 1.579 11186
0.007 2.124 1.573 11273
0.007 2.129 1.567 11361
0.008 2.139 1.565 9509
0.008 2.163 1.573 7914
0.008 2.207 1.593 8191
0.008 2.211 1.587 8473
0.008 2.222 1.585 7455
0.008 2.226 1.579 6460
0.008 2.224 1.568 7365
0.008 2.221 1.557 8459
0.008 2.225 1.551 7459
0.008 2.243 1.553 6819
0.008 2.253 1.551 7324
0.008 2.258 1.545 6037
0.008 2.268 1.542 4720
0.008 2.306 1.557 4948
0.008 2.337 1.567 5974
0.008 2.348 1.565 5766
0.008 2.345 1.554 5733
0.008 2.343 1.543 5872
0.008 2.353 1.540 4699
0.009 2.439 1.583 3860
0.008 2.362 1.527 4663
0.008 2.366 1.520 5751
0.008 2.370 1.513 5495
0.009 2.517 1.591 5344
0.009 2.521 1.584 7163
0.009 2.525 1.577 8982
0.009 2.536 1.573 7611
0.009 2.568 1.582 7006
0.009 2.545 1.559 6622
0.009 2.611 1.587 8456
0.009 2.622 1.583 11262
0.009 2.619 1.572 11331
0.009 2.623 1.564 11460
0.009 2.634 1.561 8738
0.009 2.666 1.568 5594
0.009 2.677 1.564 4507
0.009 2.605 1.515 4785
0.009 2.616 1.512 4374
0.010 2.704 1.549 4686
0.010 2.750 1.563 5464
0.010 2.761 1.559 6171
0.010 2.786 1.562 5077
0.010 2.706 1.510 6038
0.010 2.724 1.510 6493
0.010 2.735 1.506 6387
0.010 2.760 1.509 8214
0.010 2.778 1.508 10220
0.010 2.797 1.507 11602
0.010 2.822 1.509 11727
0.010 2.840 1.508 13309
0.010 2.844 1.500 13218
0.010 2.848 1.492 9926
0.010 2.959 1.535 8198
0.010 2.956 1.523 9013
0.010 2.953 1.512 8417
0.010 2.957 1.503 6833
0.011 3.068 1.545 3789
0.011 3.051 1.526 5910
0.011 3.055 1.517 7479
0.011 3.059 1.508 8372
0.011 3.077 1.506 6993
0.011 3.125 1.517 5981
0.011 3.114 1.501 6852
0.011 3.118 1.492 10040
0.011 3.122 1.484 11814
0.011 3.119 1.471 11933
0.011 3.123 1.462 15098
0.011 3.134 1.457 17558
0.011 3.145 1.451 12287
0.011 3.149 1.442 5770
0.012 3.467 1.564 4081
0.012 3.471 1.554 5009
0.012 3.468 1.541 5047
0.012 3.464 1.528 5706
0.012 3.490 1.527 8324
0.012 3.494 1.517 10809
0.012 3.498 1.507 7837
0.013 3.591 1.531 4539
0.013 3.587 1.518 4988
0.013 3.555 1.494 6097
0.013 3.588 1.495 5946
0.013 3.614 1.493 7287
0.013 3.626 1.485 7712
0.013 3.696 1.500 7017
0.013 3.700 1.489 6103
0.013 3.726 1.487 5207
0.013 3.738 1.479 5984
0.013 3.779 1.481 5562
0.013 3.790 1.473 6663
0.013 3.787 1.459 5420
0.013 3.820 1.459 4893
0.013 3.832 1.451 7635
0.014 3.888 1.458 7626
0.014 3.907 1.451 10460
0.014 3.918 1.443 9394
0.014 3.974 1.449 9183
0.014 3.993 1.443 8322
0.014 3.997 1.431 5838
0.014 3.993 1.417 5357
0.014 4.004 1.408 6356
0.014 4.069 1.416 4172
0.014 4.080 1.406 5334
0.014 4.114 1.404 4619
0.015 4.133 1.397 4272
0.015 4.151 1.389 5128
0.015 4.163 1.380 6072
0.015 4.174 1.370 4040
0.015 4.276 1.387 3463
0.015 4.257 1.368 5208
0.015 4.260 1.356 5242
0.015 4.325 1.361 4727
0.015 4.351 1.355 4143
0.016 4.530 1.391 4386
0.016 4.549 1.383 6954
0.016 4.568 1.374 8753
0.016 4.564 1.358 10685
0.016 4.567 1.345 10372
0.016 4.579 1.334 7547
0.016 4.682 1.347 5395
0.017 4.708 1.339 7268
0.017 4.727 1.330 9553
0.017 4.738 1.318 5476
0.017 4.849 1.331 5000
0.017 4.922 1.334 3453
0.017 4.956 1.327 4422
0.017 4.967 1.315 4112
0.018 5.040 1.317 3443
0.018 5.089 1.313 3555
0.018 5.093 1.298 3854
0.018 5.243 1.317 3397
0.018 5.246 1.302 3864
0.018 5.219 1.280 4071
0.019 5.284 1.278 3076
0.019 5.349 1.276 2960
0.020 5.608 1.315 3419
0.020 5.627 1.302 5341
0.020 5.630 1.285 5453
0.020 5.657 1.274 4384
0.020 5.660 1.257 4109
0.020 5.664 1.241 2955
0.021 5.915 1.273 2752
0.021 5.926 1.257 2204
0.022 6.109 1.273 3516
0.022 6.143 1.261 4006
0.021 6.061 1.228 3246
0.022 6.118 1.220 3099
0.022 6.129 1.204 3009
0.023 6.491 1.248 3430
0.023 6.518 1.233 3512
0.023 6.545 1.218 3298
0.024 6.876 1.253 2288
0.025 6.981 1.249 2285
0.026 7.523 1.314 1869
0.026 7.511 1.289 2144
0.026 7.515 1.268 1978
0.026 7.526 1.247 2067
0.027 7.537 1.226 2273
0.027 7.555 1.207 2268
0.027 7.559 1.185 2212
0.027 7.562 1.163 2672
0.027 7.565 1.141 2597
0.030 8.588 1.252 1979
0.030 8.395 1.202 1781
0.030 8.390 1.177 2136
0.030 8.393 1.152 2143
0.032 8.993 1.199 2079
0.030 8.407 1.105 1778
0.032 9.015 1.148 1357
0.032 9.223 1.145 1500
0.032 9.218 1.117 2078
0.034 9.520 1.121 2968
0.034 9.523 1.094 3841
0.034 9.525 1.066 3823
0.034 9.528 1.038 3134
0.034 9.531 1.011 1726
0.013 1.999 1.572 3190
0.013 2.003 1.566 6381
0.013 2.026 1.574 6151
0.013 2.050 1.583 7196
0.013 2.067 1.586 8473
0.013 2.090 1.594 8090
0.014 2.108 1.597 9332
0.014 2.112 1.591 10188
0.014 2.116 1.585 11043
0.014 2.120 1.579 11043
0.014 2.124 1.573 10971
0.014 2.129 1.567 10899
0.014 2.133 1.561 9138
0.014 2.157 1.568 7520
0.014 2.207 1.593 7975
0.014 2.211 1.587 8432
0.014 2.222 1.585 7474
0.014 2.226 1.579 6531
0.014 2.224 1.568 7404
0.014 2.221 1.557 8567
0.014 2.225 1.551 7580
0.014 2.243 1.553 6893
0.014 2.253 1.551 7168
0.014 2.257 1.545 5801
0.015 2.262 1.538 4295
0.015 2.339 1.578 5482
0.015 2.337 1.567 7680
0.015 2.341 1.560 7307
0.015 2.345 1.554 6985
0.015 2.349 1.547 6859
0.015 2.353 1.540 5393
0.015 2.357 1.534 4104
0.015 2.361 1.527 4734
0.015 2.366 1.520 5364
0.015 2.370 1.513 5221
0.016 2.510 1.587 6479
0.016 2.514 1.580 8566
0.016 2.518 1.573 10653
0.016 2.529 1.569 8563
0.017 2.575 1.586 7194
0.016 2.538 1.555 6865
0.017 2.611 1.587 8271
0.017 2.622 1.583 11144
0.017 2.619 1.572 11347
0.017 2.623 1.564 11663
0.017 2.627 1.557 8848
0.017 2.666 1.568 5566
0.016 2.566 1.504 4618
0.017 2.598 1.512 4555
0.017 2.616 1.512 4375
0.017 2.704 1.549 4731
0.018 2.743 1.560 5753
0.018 2.761 1.559 6706
0.018 2.779 1.558 5246
0.017 2.706 1.510 5971
0.017 2.724 1.510 6915
0.018 2.735 1.506 6937
0.018 2.760 1.509 8452
0.018 2.778 1.508 10549
0.018 2.797 1.507 12040
0.018 2.822 1.509 12349
0.018 2.833 1.505 14099
0.018 2.844 1.500 13897
0.018 2.848 1.492 10578
0.019 2.959 1.535 8021
0.019 2.956 1.523 9130
0.019 2.960 1.515 8771
0.019 2.957 1.503 7247
0.019 2.961 1.495 4120
0.020 3.051 1.526 5984
0.020 3.055 1.517 7895
0.020 3.059 1.508 9207
0.020 3.085 1.509 8087
0.020 3.117 1.514 5408
0.020 3.107 1.498 6379
0.020 3.111 1.489 10795
0.020 3.122 1.484 12941
0.020 3.119 1.471 13550
0.020 3.123 1.462 16330
0.020 3.134 1.457 17814
0.020 3.138 1.448 12443
0.020 3.141 1.439 5451
0.022 3.467 1.564 4342
0.022 3.471 1.554 5102
0.022 3.475 1.544 4692
0.022 3.472 1.531 5150
0.022 3.490 1.527 7770
0.022 3.494 1.517 9749
0.022 3.506 1.510 7202
0.023 3.591 1.531 4744
0.023 3.587 1.518 4556
0.023 3.562 1.496 6134
0.023 3.581 1.492 6364
0.023 3.614 1.493 7406
0.023 3.625 1.485 7246
0.024 3.696 1.500 6755
0.024 3.700 1.489 6061
0.024 3.726 1.487 5905
0.024 3.738 1.479 7349
0.024 3.779 1.481 5832
0.024 3.783 1.470 6930
0.024 3.779 1.457 6238
0.025 3.820 1.459 5286
0.025 3.832 1.451 8208
0.025 3.880 1.455 7527
0.025 3.907 1.451 10680
0.025 3.918 1.443 10317
0.025 3.967 1.446 9122
0.026 3.993 1.443 7283
0.026 3.997 1.431 5459
0.026 3.993 1.417 5528
0.026 4.004 1.408 6016
0.026 4.076 1.418 3947
0.026 4.080 1.406 5347
0.026 4.114 1.404 5241
0.027 4.132 1.397 5017
0.027 4.144 1.387 5569
0.027 4.162 1.380 6016
0.027 4.181 1.372 3909
0.027 4.261 1.383 3546
0.027 4.264 1.370 5419
0.027 4.260 1.356 5847
0.027 4.264 1.344 4994
0.028 4.351 1.355 3778
0.029 4.530 1.391 5180
0.029 4.549 1.383 8136
0.029 4.560 1.372 9630
0.029 4.564 1.358 11322
0.029 4.567 1.345 11034
0.029 4.571 1.332 8632
0.029 4.582 1.321 5737
0.030 4.700 1.337 7125
0.030 4.719 1.328 8672
0.030 4.730 1.316 4656
0.031 4.849 1.331 5356
0.031 4.868 1.321 4236
0.032 4.948 1.325 4555
0.032 4.967 1.315 4359
0.032 4.986 1.304 3889
0.033 5.089 1.313 3485
0.033 5.093 1.298 3997
0.034 5.243 1.317 3370
0.033 5.208 1.293 4248
0.033 5.196 1.274 4484
0.034 5.346 1.291 3518
0.034 5.349 1.276 3537
0.036 5.600 1.313 3114
0.036 5.627 1.302 4748
0.036 5.630 1.285 4837
0.036 5.641 1.271 3739
0.036 5.652 1.256 3741
0.036 5.671 1.242 2975
0.037 5.830 1.256 2810
0.037 5.825 1.238 2341
0.039 6.109 1.273 3365
0.039 6.120 1.257 3884
0.039 6.068 1.229 3956
0.040 6.305 1.254 3309
0.039 6.121 1.203 3133
0.042 6.483 1.247 3469
0.042 6.502 1.230 3330
0.042 6.552 1.219 2769
0.044 6.876 1.253 2196
0.045 6.988 1.250 2288
0.048 7.523 1.314 1940
0.048 7.511 1.289 2225
0.048 7.514 1.268 2047
0.048 7.533 1.248 2059
0.048 7.537 1.226 2202
0.048 7.555 1.207 2305
0.050 7.786 1.216 2492
0.049 7.561 1.163 2549
0.049 7.564 1.141 2441
0.055 8.588 1.252 1911
0.054 8.395 1.202 1746
0.054 8.398 1.178 2227
0.054 8.393 1.152 2308
0.054 8.396 1.128 2096
0.058 9.004 1.174 1603
0.058 9.102 1.158 1422
0.059 9.223 1.145 1477
0.059 9.210 1.116 2159
0.061 9.520 1.121 2644
0.061 9.522 1.094 3476
0.061 9.525 1.066 3410
0.061 9.528 1.038 2877
0.061 9.530 1.011 1805
0.016 1.999 1.572 3384
0.016 2.003 1.566 6768
0.017 2.026 1.574 6315
0.017 2.050 1.583 7251
0.017 2.067 1.586 8424
0.017 2.090 1.594 8124
0.017 2.108 1.597 9474
0.017 2.112 1.591 10169
0.017 2.116 1.585 10864
0.017 2.120 1.579 10864
0.017 2.124 1.573 10476
0.017 2.129 1.567 10089
0.017 2.133 1.561 8483
0.018 2.202 1.599 7012
0.018 2.207 1.593 7623
0.018 2.217 1.591 8281
0.018 2.222 1.585 7508
0.018 2.226 1.579 6736
0.018 2.223 1.568 7570
0.018 2.221 1.557 8745
0.018 2.225 1.551 7738
0.018 2.236 1.549 6981
0.018 2.253 1.551 7047
0.018 2.257 1.545 5570
0.018 2.262 1.538 3956
0.019 2.339 1.578 6506
0.019 2.337 1.567 9196
0.019 2.341 1.560 8704
0.019 2.345 1.554 8124
0.019 2.349 1.547 7783
0.019 2.353 1.540 6110
0.019 2.357 1.534 4689
0.019 2.361 1.527 4807
0.019 2.365 1.520 4924
0.020 2.472 1.574 5536
0.020 2.489 1.575 7445
0.020 2.507 1.576 9654
0.020 2.511 1.569 11905
0.021 2.522 1.565 9369
0.021 2.575 1.586 7224
0.021 2.524 1.547 7170
0.021 2.618 1.591 7947
0.021 2.622 1.583 10717
0.021 2.619 1.572 11032
0.021 2.623 1.564 11489
0.021 2.627 1.557 8748
0.022 2.659 1.564 5384
0.021 2.566 1.504 4757
0.021 2.598 1.512 4364
0.021 2.616 1.512 4248
0.022 2.704 1.549 4538
0.022 2.743 1.560 5943
0.022 2.754 1.555 7178
0.023 2.772 1.555 5633
0.022 2.713 1.514 5698
0.022 2.731 1.514 7087
0.022 2.735 1.506 7143
0.023 2.760 1.509 8369
0.023 2.778 1.508 10351
0.023 2.797 1.507 11856
0.023 2.822 1.509 12525
0.023 2.833 1.505 14548
0.023 2.844 1.500 14221
0.023 2.848 1.492 10914
0.024 2.959 1.535 7574
0.024 2.963 1.527 8836
0.024 2.960 1.515 8861
0.024 2.957 1.503 7445
0.024 2.953 1.491 4674
0.025 3.044 1.523 5929
0.025 3.055 1.517 8083
0.025 3.066 1.512 9883
0.025 3.099 1.516 9536
0.025 3.110 1.510 6124
0.025 3.100 1.495 6949
0.025 3.111 1.489 11594
0.025 3.115 1.480 13854
0.025 3.119 1.471 14659
0.025 3.123 1.462 17204
0.026 3.134 1.457 18257
0.026 3.137 1.448 13117
0.026 3.134 1.436 5451
0.028 3.467 1.564 4375
0.028 3.471 1.554 4895
0.028 3.475 1.544 4132
0.028 3.479 1.534 4389
0.028 3.490 1.527 6801
0.028 3.494 1.517 8193
0.029 3.506 1.510 6214
0.029 3.583 1.528 4945
0.029 3.573 1.512 4248
0.029 3.562 1.496 5991
0.029 3.573 1.489 6337
0.029 3.614 1.493 7094
0.030 3.625 1.485 6450
0.030 3.689 1.497 6382
0.030 3.700 1.489 6023
0.030 3.726 1.487 6683
0.030 3.738 1.479 8596
0.031 3.756 1.473 6021
0.031 3.783 1.470 6987
0.031 3.779 1.457 6986
0.031 3.820 1.459 5417
0.031 3.832 1.451 8497
0.032 3.873 1.452 7221
0.032 3.907 1.451 10182
0.032 3.918 1.443 10574
0.032 3.959 1.444 8843
0.033 3.986 1.440 5812
0.033 3.989 1.429 4644
0.033 3.993 1.417 5481
0.033 3.997 1.406 5478
0.033 4.084 1.420 3934
0.033 4.080 1.406 5028
0.034 4.114 1.404 5237
0.034 4.132 1.397 5306
0.034 4.151 1.389 5506
0.034 4.170 1.382 5233
0.034 4.204 1.379 3663
0.035 4.253 1.380 3715
0.035 4.264 1.370 5579
0.035 4.268 1.358 6275
0.035 4.264 1.344 5245
0.035 4.343 1.353 3701
0.037 4.530 1.391 5614
0.037 4.541 1.380 8753
0.037 4.560 1.372 9952
0.037 4.571 1.360 11082
0.037 4.567 1.345 10497
0.037 4.563 1.330 9249
0.037 4.582 1.321 6374
0.038 4.700 1.337 6555
0.038 4.719 1.328 7415
0.039 4.830 1.341 4150
0.040 4.849 1.331 5691
0.040 4.868 1.321 5223
0.040 4.917 1.318 4797
0.041 4.967 1.315 4282
0.041 4.986 1.304 4454
0.042 5.089 1.313 3551
0.042 5.100 1.300 4351
0.043 5.235 1.315 3137
0.042 5.200 1.291 4604
0.042 5.195 1.274 4985
0.044 5.346 1.291 3783
0.044 5.349 1.276 3987
0.045 5.538 1.300 2958
0.046 5.635 1.303 3897
0.046 5.638 1.287 4059
0.047 5.742 1.291 3937
0.047 5.784 1.282 3309
0.048 5.834 1.274 2904
0.048 5.838 1.258 3099
0.048 5.825 1.238 2463
0.050 6.101 1.272 3037
0.050 6.096 1.253 3915
0.049 6.068 1.229 4538
0.050 6.110 1.219 3462
0.050 6.121 1.203 3227
0.051 6.288 1.213 3357
0.053 6.494 1.229 3099
0.053 6.521 1.214 2165
0.056 6.883 1.254 2092
0.057 6.988 1.250 2111
0.061 7.523 1.314 1829
0.061 7.511 1.289 2131
0.061 7.522 1.269 1997
0.061 7.533 1.248 1930
0.062 7.544 1.227 2031
0.062 7.555 1.207 2262
0.063 7.786 1.216 2619
0.064 7.789 1.194 2488
0.062 7.572 1.142 2148
0.070 8.588 1.252 1723
0.070 8.599 1.228 1541
0.068 8.390 1.177 1649
0.068 8.385 1.151 1907
0.068 8.396 1.128 1833
0.069 8.406 1.105 1532
0.075 9.222 1.145 1585
0.075 9.218 1.117 1980
0.078 9.520 1.121 2578
0.078 9.522 1.094 3448
0.078 9.525 1.066 3403
0.078 9.528 1.038 3241
0.078 9.530 1.011 2438
0.078 9.533 0.983 1753
0.023 1.999 1.572 3554
0.023 2.003 1.566 7108
0.023 2.026 1.574 6310
0.023 2.050 1.583 7097
0.024 2.067 1.586 8247
0.024 2.097 1.598 8247
0.024 2.114 1.602 9752
0.024 2.112 1.591 10223
0.024 2.116 1.585 10700
0.024 2.120 1.579 10700
0.024 2.124 1.573 9812
0.024 2.122 1.562 9089
0.024 2.133 1.561 7627
0.024 2.137 1.555 6330
0.025 2.213 1.597 7067
0.025 2.217 1.591 7999
0.025 2.222 1.585 7486
0.025 2.226 1.579 6973
0.025 2.210 1.559 7739
0.025 2.214 1.553 8850
0.025 2.225 1.551 7738
0.026 2.236 1.549 6934
0.026 2.247 1.547 6856
0.026 2.257 1.545 5293
0.026 2.308 1.568 4402
0.027 2.333 1.574 7390
0.027 2.337 1.567 10441
0.027 2.341 1.560 9905
0.027 2.345 1.554 9184
0.027 2.349 1.547 8744
0.027 2.360 1.544 6941
0.027 2.364 1.538 5420
0.027 2.361 1.527 4961
0.027 2.365 1.520 4535
0.028 2.478 1.578 6013
0.028 2.489 1.575 8088
0.029 2.507 1.576 10317
0.029 2.511 1.569 12645
0.029 2.522 1.565 9824
0.029 2.533 1.562 7166
0.029 2.524 1.547 7215
0.030 2.617 1.591 7367
0.030 2.622 1.583 9950
0.030 2.619 1.572 10421
0.030 2.616 1.560 11061
0.030 2.627 1.557 8476
0.029 2.569 1.515 5199
0.029 2.566 1.504 4858
0.030 2.591 1.508 4308
0.030 2.616 1.512 4120
0.031 2.704 1.549 4105
0.031 2.743 1.560 5889
0.031 2.754 1.555 7367
0.032 2.765 1.551 5971
0.031 2.727 1.521 5443
0.031 2.731 1.514 6769
0.031 2.735 1.506 6912
0.032 2.760 1.509 8117
0.032 2.778 1.508 10202
0.032 2.796 1.507 11587
0.032 2.822 1.509 12265
0.032 2.833 1.505 14447
0.032 2.837 1.497 14060
0.033 2.848 1.492 10884
0.034 2.959 1.535 6926
0.034 2.963 1.527 8359
0.034 2.960 1.515 8719
0.034 2.957 1.503 7551
0.034 2.953 1.491 5269
0.035 3.044 1.523 5649
0.035 3.055 1.517 7857
0.035 3.073 1.515 10117
0.035 3.099 1.516 10729
0.035 3.074 1.494 7308
0.035 3.100 1.495 7890
0.036 3.111 1.489 11928
0.036 3.115 1.480 14191
0.036 3.119 1.471 15185
0.036 3.122 1.462 17883
0.036 3.134 1.457 18860
0.036 3.137 1.448 13793
0.036 3.134 1.436 5519
0.040 3.466 1.564 4202
0.040 3.471 1.554 4488
0.037 3.218 1.439 3551
0.040 3.486 1.537 3436
0.040 3.498 1.530 5483
0.040 3.502 1.520 6327
0.040 3.498 1.507 4983
0.041 3.583 1.528 5088
0.041 3.565 1.510 4037
0.041 3.562 1.496 5483
0.041 3.573 1.489 5792
0.041 3.614 1.493 6288
0.041 3.618 1.482 5640
0.042 3.689 1.497 5753
0.042 3.693 1.486 5994
0.043 3.726 1.487 7276
0.043 3.738 1.479 9573
0.043 3.756 1.473 6389
0.043 3.775 1.468 6911
0.043 3.779 1.457 7310
0.044 3.813 1.456 5175
0.044 3.839 1.453 8462
0.044 3.858 1.447 7010
0.045 3.906 1.451 8996
0.045 3.918 1.443 10503
0.045 3.959 1.444 8292
0.046 3.978 1.438 4512
0.045 3.937 1.411 3846
0.046 3.993 1.417 5193
0.046 3.997 1.406 5110
0.047 4.083 1.420 4087
0.047 4.080 1.406 4690
0.047 4.121 1.406 5168
0.047 4.140 1.399 5330
0.047 4.151 1.389 4870
0.048 4.170 1.382 3951
0.048 4.234 1.388 3169
0.049 4.253 1.380 3884
0.049 4.257 1.368 5622
0.049 4.268 1.358 6519
0.049 4.264 1.344 5083
0.050 4.343 1.353 3885
0.052 4.530 1.391 5691
0.052 4.541 1.380 8634
0.052 4.552 1.369 9796
0.052 4.579 1.363 9933
0.052 4.582 1.349 9017
0.052 4.563 1.330 9338
0.052 4.589 1.323 6584
0.054 4.700 1.337 5513
0.054 4.719 1.328 5792
0.055 4.830 1.341 4029
0.055 4.849 1.331 5811
0.056 4.868 1.321 5758
0.056 4.909 1.316 4966
0.057 4.967 1.315 3768
0.057 4.986 1.304 4535
0.058 5.097 1.315 3852
0.058 5.100 1.300 5017
0.058 5.111 1.287 3072
0.059 5.200 1.291 4526
0.059 5.195 1.274 5095
0.061 5.346 1.291 3767
0.061 5.349 1.276 4167
0.063 5.530 1.298 3093
0.063 5.518 1.279 3125
0.066 5.746 1.309 3487
0.066 5.750 1.293 4375
0.066 5.776 1.281 3510
0.067 5.842 1.276 2882
0.067 5.837 1.258 3346
0.067 5.833 1.239 2674
0.070 6.101 1.272 2572
0.070 6.080 1.250 4064
0.069 6.068 1.229 4996
0.070 6.110 1.219 3609
0.070 6.121 1.203 3253
0.072 6.288 1.213 3589
0.072 6.283 1.193 3105
0.076 6.669 1.239 2090
0.079 6.899 1.256 2096
0.079 6.910 1.238 2109
0.077 6.764 1.194 1793
0.082 7.143 1.233 2023
0.082 7.138 1.211 1825
0.082 7.204 1.199 1714
0.084 7.348 1.199 2226
0.086 7.555 1.207 2153
0.089 7.785 1.216 2572
0.089 7.789 1.194 2613
0.087 7.572 1.142 1825
0.092 8.077 1.185 1549
0.098 8.599 1.228 1339
0.096 8.390 1.177 1468
0.096 8.385 1.151 1768
0.096 8.395 1.128 1628
0.106 9.230 1.145 1531
0.106 9.225 1.118 1824
0.109 9.519 1.121 2358
0.109 9.522 1.094 3191
0.109 9.525 1.066 3260
0.109 9.527 1.038 3508
0.109 9.530 1.011 2886
0.109 9.533 0.983 2087
0.109 9.535 0.955 1383
0.028 1.999 1.572 3682
0.029 2.003 1.566 7365
0.029 2.026 1.574 6201
0.029 2.050 1.583 6810
0.029 2.067 1.586 8015
0.030 2.097 1.598 8497
0.030 2.114 1.602 10244
0.030 2.118 1.596 10469
0.030 2.122 1.590 10694
0.030 2.127 1.584 10694
0.030 2.124 1.573 8992
0.030 2.122 1.562 7772
0.030 2.126 1.556 6601
0.030 2.137 1.555 5630
0.032 2.213 1.597 6391
0.032 2.217 1.591 7528
0.032 2.222 1.585 7406
0.032 2.226 1.579 7284
0.031 2.210 1.559 7993
0.032 2.214 1.553 8845
0.032 2.225 1.551 7545
0.032 2.236 1.549 6672
0.032 2.240 1.542 6620
0.032 2.251 1.540 5025
0.033 2.308 1.568 5042
0.033 2.332 1.574 8158
0.033 2.337 1.567 11444
0.033 2.341 1.560 10950
0.033 2.345 1.554 10245
0.033 2.349 1.547 9840
0.034 2.360 1.544 7971
0.034 2.364 1.538 6301
0.035 2.463 1.588 5230
0.035 2.467 1.581 4408
0.035 2.478 1.578 6328
0.035 2.482 1.571 8331
0.036 2.500 1.572 10468
0.036 2.511 1.569 12762
0.036 2.515 1.562 9834
0.036 2.526 1.558 7091
0.036 2.517 1.543 6947
0.037 2.617 1.591 6619
0.037 2.622 1.583 8949
0.037 2.619 1.572 9568
0.037 2.616 1.560 10496
0.037 2.620 1.553 8100
0.037 2.576 1.519 5445
0.037 2.573 1.508 4940
0.037 2.584 1.504 4305
0.037 2.616 1.512 3857
0.039 2.711 1.553 3603
0.039 2.743 1.560 5907
0.039 2.747 1.552 7644
0.039 2.758 1.547 6634
0.039 2.734 1.525 5302
0.039 2.731 1.514 6029
0.039 2.742 1.509 6168
0.039 2.760 1.509 7524
0.040 2.778 1.508 9766
0.040 2.796 1.507 10910
0.040 2.822 1.509 11430
0.040 2.833 1.505 13633
0.040 2.837 1.497 13275
0.041 2.848 1.492 10305
0.042 2.959 1.535 6395
0.042 2.970 1.530 7882
0.042 2.974 1.522 8602
0.042 2.956 1.503 7498
0.042 2.953 1.491 5738
0.043 3.051 1.526 5247
0.044 3.069 1.524 7707
0.044 3.087 1.522 10586
0.044 3.106 1.519 11876
0.044 3.081 1.497 8616
0.044 3.092 1.492 8794
0.044 3.111 1.489 11910
0.044 3.115 1.480 14123
0.044 3.118 1.471 15372
0.044 3.122 1.462 18218
0.045 3.133 1.457 19094
0.045 3.137 1.448 14080
0.045 3.141 1.439 5384
0.049 3.459 1.561 3907
0.046 3.222 1.451 4343
0.046 3.218 1.439 4675
0.046 3.251 1.441 2586
0.050 3.512 1.536 4236
0.050 3.516 1.526 4493
0.051 3.564 1.533 4663
0.051 3.576 1.526 5072
0.051 3.587 1.518 3802
0.051 3.562 1.496 4591
0.051 3.573 1.489 4687
0.051 3.614 1.493 5330
0.052 3.618 1.482 5315
0.052 3.644 1.480 5655
0.052 3.678 1.481 6345
0.053 3.733 1.489 7612
0.053 3.737 1.479 9938
0.053 3.749 1.470 6580
0.054 3.775 1.468 6715
0.054 3.771 1.454 7180
0.054 3.813 1.456 4944
0.055 3.839 1.453 8282
0.055 3.835 1.440 7277
0.056 3.899 1.449 7861
0.056 3.910 1.440 10501
0.056 3.959 1.444 7718
0.056 3.955 1.430 4048
0.056 3.936 1.411 4422
0.057 3.985 1.415 4858
0.057 3.997 1.406 4550
0.058 4.083 1.420 4120
0.058 4.079 1.406 4517
0.059 4.128 1.409 5408
0.059 4.155 1.404 5401
0.059 4.174 1.396 4525
0.060 4.230 1.400 3011
0.061 4.257 1.395 3419
0.060 4.245 1.378 3748
0.061 4.256 1.368 5165
0.061 4.275 1.360 6220
0.061 4.294 1.352 4553
0.062 4.343 1.353 4303
0.064 4.522 1.389 5576
0.065 4.541 1.380 8137
0.065 4.552 1.369 9273
0.065 4.586 1.365 8731
0.065 4.590 1.351 8636
0.065 4.563 1.330 9165
0.065 4.597 1.325 6789
0.066 4.631 1.319 4786
0.067 4.719 1.328 3922
0.069 4.830 1.341 3933
0.069 4.841 1.329 5696
0.069 4.867 1.321 6166
0.070 4.909 1.316 4903
0.070 4.936 1.307 3417
0.071 4.993 1.306 4448
0.073 5.097 1.315 4129
0.073 5.100 1.300 5682
0.073 5.111 1.287 3731
0.074 5.207 1.293 4082
0.074 5.195 1.274 4821
0.074 5.206 1.261 3512
0.076 5.349 1.276 4014
0.079 5.530 1.298 3365
0.079 5.533 1.282 2885
0.082 5.738 1.308 3648
0.082 5.750 1.293 4606
0.082 5.776 1.281 3737
0.084 5.865 1.281 2927
0.083 5.845 1.259 3551
0.083 5.848 1.242 2926
0.084 5.898 1.234 2305
0.086 6.072 1.248 3794
0.086 6.060 1.228 4971
0.087 6.094 1.216 3476
0.089 6.285 1.231 3066
0.089 6.280 1.212 3730
0.089 6.283 1.193 3213
0.095 6.677 1.240 2137
0.095 6.695 1.223 2032
0.098 6.910 1.238 2200
0.099 6.928 1.220 1925
0.102 7.135 1.231 2069
0.102 7.146 1.212 1994
0.104 7.329 1.218 1948
0.105 7.340 1.198 2579
0.111 7.774 1.238 2085
0.111 7.785 1.216 2671
0.111 7.788 1.194 2727
0.111 7.791 1.171 1756
0.115 8.077 1.185 2058
0.115 8.080 1.162 1616
0.122 8.549 1.171 1488
0.122 8.545 1.146 1660
0.122 8.540 1.120 1306
0.130 9.096 1.131 1486
0.132 9.240 1.119 1627
0.136 9.519 1.121 2324
0.136 9.522 1.094 3142
0.136 9.524 1.066 3331
0.136 9.527 1.038 3809
0.136 9.530 1.011 3147
0.136 9.532 0.983 2196
0.136 9.535 0.955 1404
0.035 1.999 1.572 3583
0.035 2.003 1.566 7167
0.036 2.026 1.574 5860
0.036 2.056 1.587 6399
0.037 2.073 1.591 7763
0.037 2.103 1.603 8700
0.037 2.114 1.602 10663
0.037 2.118 1.596 10677
0.038 2.122 1.590 10690
0.038 2.126 1.584 10690
0.038 2.131 1.578 8278
0.037 2.115 1.558 6353
0.038 2.126 1.556 5537
0.038 2.137 1.555 4967
0.039 2.219 1.602 5628
0.039 2.224 1.596 6944
0.039 2.221 1.585 7295
0.039 2.219 1.574 7743
0.039 2.210 1.559 8153
0.039 2.214 1.553 8591
0.039 2.218 1.546 7243
0.039 2.229 1.544 6280
0.040 2.240 1.542 6313
0.040 2.244 1.536 4818
0.041 2.308 1.568 5648
0.041 2.332 1.574 8618
0.041 2.336 1.567 11992
0.041 2.341 1.560 11566
0.041 2.345 1.554 10959
0.042 2.349 1.547 10683
0.042 2.360 1.544 8800
0.042 2.364 1.538 6987
0.044 2.463 1.588 5405
0.044 2.488 1.593 4635
0.044 2.478 1.578 6259
0.044 2.482 1.571 8021
0.044 2.500 1.572 9929
0.044 2.504 1.565 12039
0.044 2.515 1.562 9245
0.045 2.526 1.558 6595
0.045 2.517 1.543 6227
0.046 2.617 1.591 5836
0.046 2.621 1.583 7864
0.046 2.612 1.568 8604
0.046 2.616 1.560 9719
0.046 2.620 1.553 7646
0.046 2.576 1.519 5458
0.046 2.573 1.508 4882
0.046 2.584 1.504 4267
0.046 2.616 1.512 3560
0.048 2.724 1.560 3411
0.048 2.735 1.556 6027
0.049 2.747 1.552 8049
0.049 2.751 1.544 7349
0.048 2.741 1.529 5355
0.048 2.738 1.517 5243
0.048 2.742 1.509 5413
0.049 2.767 1.512 6815
0.049 2.785 1.511 9037
0.049 2.796 1.507 9912
0.050 2.821 1.509 10311
0.050 2.833 1.505 12377
0.050 2.836 1.497 12036
0.050 2.848 1.492 9349
0.052 2.951 1.532 6089
0.053 2.977 1.534 7601
0.053 2.988 1.529 8562
0.053 2.978 1.513 7160
0.052 2.953 1.491 5839
0.054 3.065 1.533 5165
0.055 3.083 1.530 7897
0.055 3.094 1.525 11023
0.055 3.106 1.519 12475
0.054 3.081 1.497 9168
0.055 3.092 1.492 9165
0.055 3.103 1.486 11410
0.055 3.114 1.480 13485
0.055 3.118 1.471 14852
0.055 3.122 1.462 17467
0.055 3.133 1.457 18048
0.056 3.144 1.451 13422
0.056 3.177 1.454 6210
0.057 3.210 1.457 4811
0.057 3.214 1.448 4608
0.057 3.211 1.436 4139
0.056 3.193 1.417 2539
0.062 3.519 1.539 3380
0.063 3.538 1.534 3796
0.063 3.571 1.536 4569
0.063 3.576 1.526 4892
0.064 3.594 1.521 3651
0.063 3.569 1.499 3536
0.064 3.624 1.509 4009
0.064 3.621 1.496 4736
0.064 3.610 1.480 5595
0.064 3.636 1.478 6740
0.065 3.662 1.475 6778
0.066 3.733 1.489 7538
0.066 3.737 1.479 9423
0.066 3.749 1.470 6473
0.067 3.767 1.465 6589
0.067 3.779 1.457 6819
0.068 3.820 1.459 4926
0.068 3.839 1.453 7858
0.068 3.842 1.442 7396
0.069 3.891 1.446 7388
0.069 3.910 1.440 10293
0.070 3.959 1.444 7143
0.070 3.955 1.430 4261
0.070 3.944 1.414 5028
0.070 3.985 1.415 4876
0.071 3.996 1.406 4131
0.071 4.015 1.399 4446
0.072 4.087 1.409 4160
0.073 4.136 1.411 5515
0.074 4.162 1.406 5195
0.074 4.189 1.401 4601
0.075 4.230 1.400 3595
0.075 4.257 1.395 4258
0.075 4.237 1.376 3622
0.075 4.256 1.368 4614
0.076 4.283 1.362 5627
0.077 4.339 1.365 4258
0.077 4.351 1.355 4548
0.080 4.522 1.389 5091
0.080 4.541 1.380 7430
0.081 4.552 1.369 8552
0.081 4.594 1.367 7589
0.081 4.597 1.353 8425
0.081 4.570 1.332 8859
0.081 4.604 1.327 6763
0.082 4.631 1.319 5019
0.082 4.626 1.304 3468
0.085 4.829 1.341 4307
0.086 4.841 1.329 6037
0.086 4.867 1.321 5917
0.087 4.901 1.314 4475
0.087 4.912 1.302 3051
0.088 4.993 1.306 3993
0.090 5.096 1.315 3987
0.090 5.100 1.300 5841
0.090 5.111 1.287 4143
0.092 5.215 1.295 3560
0.092 5.203 1.276 4313
0.092 5.214 1.263 3565
0.097 5.511 1.311 3810
0.098 5.530 1.298 3649
0.098 5.549 1.285 2836
0.101 5.738 1.308 3689
0.102 5.749 1.293 4681
0.102 5.768 1.279 3783
0.105 5.919 1.291 2997
0.103 5.845 1.259 3618
0.105 5.918 1.255 3282
0.104 5.905 1.235 2699
0.107 6.064 1.247 3431
0.107 6.060 1.228 4720
0.108 6.110 1.219 3229
0.111 6.277 1.230 3113
0.111 6.280 1.212 3618
0.111 6.283 1.193 3027
0.118 6.676 1.240 2178
0.122 6.914 1.259 2020
0.122 6.917 1.239 2172
0.122 6.920 1.219 1899
0.126 7.127 1.230 2057
0.126 7.146 1.212 2025
0.130 7.329 1.218 2191
0.130 7.340 1.198 2803
0.137 7.774 1.238 2137
0.138 7.785 1.216 2604
0.138 7.788 1.194 2667
0.143 8.097 1.212 1891
0.143 8.076 1.185 2404
0.143 8.080 1.162 1874
0.151 8.546 1.196 1457
0.151 8.549 1.171 1714
0.151 8.536 1.145 1760
0.161 9.093 1.157 1322
0.161 9.095 1.131 1499
0.165 9.350 1.131 1728
0.168 9.518 1.121 2307
0.168 9.521 1.094 3135
0.168 9.524 1.066 3507
0.168 9.527 1.038 4135
0.169 9.529 1.011 3264
0.169 9.532 0.983 2136
0.169 9.534 0.955 1362
0.040 1.999 1.572 3422
0.040 2.003 1.566 6845
0.040 2.026 1.574 5446
0.041 2.056 1.587 5999
0.042 2.079 1.595 7603
0.042 2.103 1.603 8967
0.042 2.114 1.602 11156
0.042 2.118 1.596 11059
0.042 2.122 1.590 10962
0.042 2.126 1.584 10962
0.043 2.137 1.582 8237
0.043 2.141 1.576 5521
0.043 2.139 1.565 5005
0.043 2.143 1.559 4521
0.044 2.219 1.602 4981
0.044 2.224 1.596 6390
0.044 2.221 1.585 7250
0.044 2.212 1.570 8395
0.044 2.210 1.559 8311
0.044 2.207 1.548 8276
0.044 2.218 1.546 6882
0.045 2.229 1.544 5851
0.045 2.233 1.538 5916
0.045 2.244 1.536 4749
0.046 2.308 1.568 6246
0.046 2.326 1.570 8862
0.047 2.336 1.567 12200
0.047 2.341 1.560 11853
0.047 2.345 1.554 11409
0.047 2.349 1.547 11373
0.047 2.360 1.544 9571
0.047 2.364 1.538 7648
0.049 2.470 1.592 5505
0.050 2.487 1.593 4796
0.050 2.478 1.578 5896
0.049 2.475 1.567 7289
0.050 2.500 1.572 8857
0.050 2.504 1.565 10771
0.050 2.515 1.562 8182
0.050 2.526 1.558 5769
0.050 2.517 1.543 5192
0.052 2.617 1.591 5079
0.052 2.614 1.579 6868
0.052 2.612 1.568 7785
0.052 2.609 1.557 9045
0.052 2.613 1.549 7296
0.051 2.576 1.519 5407
0.053 2.677 1.564 4848
0.052 2.584 1.504 4202
0.052 2.615 1.512 3296
0.054 2.717 1.556 3418
0.055 2.735 1.556 6119
0.055 2.739 1.548 8420
0.055 2.744 1.540 7804
0.055 2.755 1.536 5655
0.055 2.738 1.517 4629
0.055 2.749 1.513 4758
0.055 2.774 1.516 6444
0.056 2.785 1.511 8263
0.056 2.796 1.507 8793
0.056 2.821 1.509 9225
0.057 2.832 1.505 11101
0.057 2.836 1.497 10787
0.057 2.840 1.489 8433
0.059 2.944 1.528 6521
0.060 2.991 1.540 7930
0.060 3.002 1.535 8927
0.060 2.992 1.520 7092
0.059 2.960 1.495 6056
0.061 3.072 1.536 5282
0.062 3.083 1.530 7972
0.062 3.094 1.525 10994
0.062 3.106 1.519 12274
0.062 3.088 1.501 8775
0.062 3.092 1.492 8745
0.062 3.103 1.486 10689
0.062 3.114 1.480 12732
0.062 3.118 1.471 14158
0.062 3.122 1.462 16144
0.063 3.133 1.457 16018
0.063 3.144 1.451 11947
0.063 3.177 1.454 6332
0.064 3.210 1.457 4934
0.069 3.441 1.542 4509
0.069 3.445 1.532 3654
0.064 3.222 1.429 2889
0.068 3.409 1.494 2962
0.071 3.545 1.537 3641
0.071 3.571 1.536 4314
0.071 3.575 1.526 4579
0.072 3.594 1.521 3473
0.072 3.620 1.519 3827
0.073 3.632 1.512 4255
0.072 3.621 1.496 4777
0.072 3.610 1.480 6129
0.073 3.644 1.480 7617
0.073 3.655 1.473 7384
0.075 3.733 1.489 7248
0.075 3.737 1.479 8391
0.075 3.756 1.473 6165
0.075 3.767 1.465 6580
0.075 3.778 1.457 6467
0.076 3.820 1.459 5080
0.077 3.838 1.453 7718
0.077 3.842 1.442 7564
0.078 3.883 1.444 7210
0.078 3.910 1.440 9886
0.079 3.959 1.444 6499
0.079 3.955 1.430 4432
0.079 3.951 1.416 5619
0.080 3.992 1.417 5386
0.080 4.004 1.408 3904
0.080 4.015 1.399 4685
0.081 4.041 1.394 4064
0.083 4.136 1.411 5694
0.083 4.170 1.408 4650
0.084 4.188 1.401 4384
0.085 4.230 1.400 4243
0.085 4.256 1.395 5040
0.085 4.252 1.380 3333
0.085 4.233 1.361 3946
0.085 4.275 1.360 4841
0.087 4.339 1.365 4027
0.087 4.350 1.355 4486
0.090 4.522 1.389 4335
0.091 4.540 1.380 6548
0.091 4.552 1.369 7782
0.091 4.555 1.356 7037
0.092 4.597 1.353 7879
0.092 4.585 1.336 8272
0.092 4.619 1.331 6648
0.093 4.631 1.319 4915
0.092 4.626 1.304 3463
0.096 4.829 1.341 4110
0.097 4.833 1.327 5872
0.097 4.859 1.319 5674
0.097 4.863 1.305 4124
0.100 4.981 1.318 2694
0.100 4.993 1.306 3648
0.102 5.096 1.315 3554
0.102 5.100 1.300 5679
0.102 5.111 1.287 4358
0.104 5.222 1.296 3282
0.104 5.210 1.278 3775
0.104 5.221 1.264 3528
0.110 5.511 1.311 3768
0.110 5.522 1.296 3790
0.111 5.564 1.289 2947
0.115 5.738 1.308 3603
0.115 5.749 1.293 4604
0.115 5.768 1.279 3755
0.118 5.919 1.291 2967
0.118 5.922 1.274 3595
0.118 5.918 1.255 3677
0.118 5.913 1.237 3006
0.120 6.025 1.240 3396
0.121 6.044 1.225 4385
0.122 6.109 1.219 2849
0.125 6.268 1.228 3171
0.125 6.279 1.212 3370
0.126 6.283 1.193 2678
0.134 6.684 1.241 2226
0.138 6.914 1.259 1877
0.138 6.917 1.239 2064
0.138 6.920 1.219 1854
0.142 7.119 1.229 2096
0.143 7.137 1.211 1998
0.146 7.328 1.218 2271
0.147 7.339 1.198 2826
0.155 7.758 1.236 1996
0.156 7.784 1.216 2431
0.156 7.795 1.195 2580
0.162 8.097 1.212 2085
0.161 8.084 1.186 2706
0.161 8.079 1.162 2091
0.171 8.546 1.196 1596
0.171 8.549 1.171 1837
0.171 8.544 1.146 1713
0.182 9.092 1.157 1367
0.182 9.087 1.130 1548
0.187 9.350 1.131 1806
0.190 9.518 1.121 2304
0.190 9.521 1.094 3144
0.190 9.524 1.066 3707
0.190 9.526 1.038 4398
0.190 9.529 1.011 3219
0.190 9.531 0.983 1912
0.190 9.534 0.955 1363
0.044 1.998 1.572 3236
0.044 2.003 1.566 6472
0.044 2.026 1.574 4998
0.045 2.062 1.592 5657
0.046 2.086 1.600 7421
0.046 2.103 1.603 9114
0.046 2.114 1.602 11479
0.046 2.118 1.596 11341
0.047 2.129 1.594 11322
0.047 2.133 1.588 11322
0.047 2.137 1.582 8615
0.047 2.161 1.589 6142
0.047 2.145 1.570 5188
0.047 2.150 1.564 4468
0.048 2.213 1.597 4551
0.049 2.224 1.596 5940
0.049 2.221 1.585 7416
0.048 2.212 1.570 9253
0.048 2.210 1.559 8615
0.048 2.214 1.553 8037
0.049 2.225 1.551 6716
0.049 2.229 1.544 5655
0.049 2.240 1.542 5625
0.049 2.257 1.545 4873
0.050 2.301 1.563 6856
0.051 2.325 1.570 8982
0.051 2.336 1.567 12148
0.051 2.340 1.560 11897
0.051 2.345 1.554 11706
0.051 2.349 1.547 12022
0.052 2.360 1.544 10319
0.052 2.364 1.538 8291
0.052 2.368 1.531 5707
0.055 2.494 1.597 4887
0.054 2.471 1.574 5309
0.054 2.475 1.567 6367
0.054 2.486 1.564 7449
0.055 2.504 1.565 9038
0.055 2.515 1.562 6746
0.055 2.526 1.558 4672
0.055 2.516 1.543 3940
0.057 2.610 1.587 4377
0.057 2.614 1.579 6033
0.057 2.612 1.568 7039
0.057 2.609 1.557 8469
0.057 2.606 1.545 7040
0.056 2.575 1.519 5254
0.059 2.684 1.568 5259
0.057 2.583 1.504 4199
0.059 2.706 1.560 3393
0.059 2.710 1.553 3770
0.060 2.728 1.552 6161
0.060 2.732 1.544 8591
0.060 2.743 1.540 7983
0.060 2.755 1.536 5997
0.060 2.759 1.528 4528
0.062 2.812 1.545 4953
0.061 2.781 1.519 6215
0.061 2.785 1.511 7301
0.061 2.796 1.507 7610
0.062 2.828 1.513 8346
0.062 2.832 1.505 9897
0.062 2.836 1.497 9466
0.062 2.840 1.489 7438
0.064 2.944 1.528 7070
0.066 2.998 1.544 8491
0.066 3.009 1.539 9414
0.065 2.992 1.520 7150
0.065 2.974 1.501 5927
0.067 3.072 1.536 5478
0.068 3.090 1.534 7958
0.068 3.094 1.525 10779
0.068 3.105 1.519 11843
0.068 3.102 1.507 7941
0.068 3.092 1.492 7666
0.068 3.103 1.486 9651
0.068 3.114 1.480 11967
0.068 3.118 1.471 13160
0.068 3.122 1.462 13977
0.069 3.133 1.457 12922
0.069 3.151 1.454 9627
0.070 3.177 1.454 5713
0.070 3.188 1.448 4635
0.075 3.441 1.542 4624
0.075 3.445 1.532 3902
0.071 3.229 1.432 2973
0.074 3.401 1.491 3689
0.071 3.236 1.414 3635
0.078 3.564 1.533 4020
0.078 3.568 1.523 4332
0.079 3.594 1.521 3445
0.079 3.628 1.522 4158
0.079 3.632 1.512 4514
0.079 3.591 1.484 5307
0.079 3.602 1.477 6863
0.080 3.643 1.480 8217
0.080 3.655 1.473 7860
0.082 3.733 1.489 6635
0.082 3.737 1.479 6871
0.082 3.756 1.473 5657
0.082 3.767 1.465 6584
0.083 3.778 1.457 6224
0.084 3.819 1.459 5480
0.084 3.838 1.453 7898
0.084 3.835 1.440 7829
0.085 3.868 1.439 7291
0.086 3.910 1.440 9424
0.086 3.951 1.441 6004
0.087 3.955 1.430 4683
0.087 3.958 1.419 6137
0.087 3.992 1.417 5702
0.088 4.011 1.410 3640
0.088 4.015 1.399 4485
0.088 4.018 1.387 4241
0.091 4.135 1.411 6014
0.091 4.154 1.404 4213
0.092 4.196 1.403 4026
0.093 4.230 1.400 4998
0.093 4.249 1.393 5651
0.093 4.252 1.380 3222
0.093 4.256 1.368 3282
0.094 4.275 1.360 4095
0.095 4.347 1.368 3677
0.096 4.373 1.361 4085
0.097 4.430 1.364 4280
0.099 4.540 1.380 5773
0.099 4.544 1.367 7015
0.100 4.547 1.354 6744
0.100 4.559 1.343 6955
0.100 4.562 1.330 7457
0.102 4.642 1.337 6355
0.102 4.638 1.321 4466
0.102 4.657 1.312 3237
0.106 4.829 1.341 4631
0.106 4.833 1.327 6199
0.107 4.867 1.321 4969
0.106 4.855 1.303 3279
0.109 4.981 1.318 2726
0.109 4.992 1.306 3310
0.112 5.104 1.316 2943
0.112 5.107 1.302 5121
0.112 5.110 1.287 4316
0.114 5.222 1.296 3253
0.114 5.210 1.278 3411
0.114 5.229 1.266 3453
0.121 5.518 1.312 3615
0.121 5.522 1.296 3882
0.122 5.579 1.292 3138
0.126 5.738 1.308 3469
0.126 5.749 1.293 4434
0.126 5.768 1.279 3643
0.130 5.926 1.293 3012
0.130 5.922 1.274 3720
0.130 5.917 1.255 3864
0.129 5.913 1.237 3167
0.132 6.025 1.240 3520
0.132 6.036 1.224 4111
0.136 6.226 1.240 2604
0.137 6.268 1.228 3339
0.137 6.279 1.212 3097
0.146 6.688 1.262 2396
0.140 6.387 1.192 2366
0.140 6.398 1.175 1912
0.151 6.916 1.239 1983
0.152 6.927 1.220 1971
0.156 7.111 1.228 1988
0.156 7.114 1.207 1858
0.160 7.328 1.218 2204
0.160 7.331 1.197 2718
0.168 7.695 1.227 2052
0.170 7.784 1.216 2253
0.171 7.795 1.195 2457
0.177 8.104 1.213 2235
0.177 8.084 1.186 2872
0.177 8.087 1.163 2224
0.187 8.553 1.197 1623
0.187 8.548 1.171 1898
0.187 8.559 1.148 1713
0.199 9.084 1.156 1372
0.199 9.087 1.130 1565
0.205 9.349 1.131 1881
0.208 9.518 1.121 2310
0.208 9.520 1.094 3158
0.208 9.523 1.066 3888
0.208 9.526 1.038 4552
0.209 9.528 1.011 3049
0.209 9.531 0.983 1610
0.209 9.533 0.955 1381
0.209 9.536 0.928 1626
0.209 9.538 0.900 1727
0.209 9.532 0.871 1362
0.209 9.542 0.844 1364
0.049 1.998 1.572 3009
0.049 2.002 1.566 6018
0.049 2.007 1.560 4604
0.051 2.069 1.596 5493
0.051 2.086 1.600 7228
0.051 2.096 1.598 9124
0.052 2.107 1.597 11645
0.052 2.118 1.596 11426
0.052 2.128 1.594 11497
0.052 2.133 1.588 11497
0.052 2.143 1.587 9075
0.053 2.167 1.594 7509
0.053 2.165 1.583 6140
0.053 2.156 1.568 4995
0.054 2.206 1.593 4592
0.054 2.217 1.591 5665
0.054 2.215 1.580 7730
0.054 2.212 1.570 10067
0.054 2.216 1.563 9105
0.054 2.220 1.557 8144
0.055 2.231 1.555 7105
0.055 2.235 1.549 5934
0.055 2.246 1.547 5625
0.056 2.290 1.566 5731
0.056 2.301 1.563 7561
0.057 2.325 1.570 8995
0.057 2.336 1.567 11923
0.057 2.340 1.560 11791
0.057 2.344 1.554 11927
0.057 2.349 1.547 12680
0.058 2.359 1.544 11052
0.058 2.364 1.538 8910
0.058 2.368 1.531 5952
0.061 2.494 1.597 4936
0.061 2.498 1.590 4661
0.060 2.468 1.563 5457
0.061 2.479 1.560 6123
0.061 2.497 1.561 7208
0.061 2.508 1.558 5271
0.062 2.526 1.558 3520
0.061 2.509 1.539 2695
0.064 2.610 1.587 3856
0.064 2.614 1.579 5316
0.064 2.605 1.564 6416
0.064 2.602 1.553 7987
0.064 2.606 1.545 6822
0.063 2.582 1.523 5149
0.066 2.684 1.568 5694
0.066 2.695 1.564 4655
0.066 2.699 1.557 3948
0.066 2.703 1.549 4286
0.067 2.721 1.548 6310
0.067 2.732 1.544 8601
0.067 2.743 1.540 7895
0.067 2.754 1.536 6438
0.068 2.766 1.532 5496
0.068 2.777 1.527 5684
0.068 2.788 1.523 6143
0.068 2.785 1.511 6325
0.070 2.874 1.546 6858
0.069 2.828 1.513 7505
0.069 2.832 1.505 8734
0.069 2.829 1.493 8269
0.072 2.926 1.530 6565
0.072 2.937 1.525 7106
0.074 3.005 1.547 8828
0.074 3.009 1.539 9665
0.074 3.020 1.533 7180
0.073 2.981 1.505 5222
0.075 3.057 1.529 5641
0.075 3.083 1.530 7482
0.076 3.101 1.528 10054
0.076 3.105 1.519 10857
0.076 3.102 1.507 6664
0.075 3.084 1.489 6247
0.076 3.110 1.489 8648
0.076 3.121 1.484 11411
0.076 3.125 1.475 12182
0.076 3.122 1.462 11437
0.077 3.133 1.457 9328
0.077 3.151 1.454 6622
0.078 3.177 1.454 4212
0.084 3.414 1.542 4655
0.084 3.441 1.542 4805
0.084 3.445 1.532 4093
0.084 3.427 1.513 3199
0.083 3.401 1.491 4470
0.079 3.236 1.414 4068
0.087 3.556 1.530 3806
0.087 3.546 1.514 4496
0.087 3.542 1.501 4009
0.089 3.627 1.522 4294
0.089 3.631 1.512 4596
0.088 3.591 1.484 6001
0.088 3.602 1.477 7259
0.089 3.643 1.480 8474
0.089 3.655 1.473 8166
0.091 3.733 1.489 6041
0.092 3.744 1.481 5444
0.092 3.763 1.476 5268
0.092 3.767 1.465 6759
0.092 3.778 1.457 6134
0.093 3.812 1.456 5983
0.094 3.831 1.451 8322
0.094 3.834 1.440 8180
0.094 3.861 1.436 7433
0.095 3.902 1.438 8837
0.097 3.951 1.441 5746
0.097 3.954 1.430 5154
0.097 3.958 1.419 6488
0.098 3.992 1.417 5691
0.098 4.018 1.413 3434
0.098 4.007 1.396 4134
0.098 4.003 1.382 4431
0.101 4.143 1.413 6149
0.101 4.146 1.401 4467
0.102 4.180 1.399 3829
0.103 4.229 1.400 5758
0.104 4.248 1.393 6004
0.104 4.244 1.378 3454
0.104 4.256 1.368 3238
0.105 4.290 1.365 4096
0.107 4.369 1.374 3517
0.108 4.426 1.377 4313
0.108 4.430 1.364 5054
0.111 4.540 1.380 5302
0.111 4.536 1.365 6461
0.111 4.547 1.354 6612
0.111 4.551 1.341 6557
0.111 4.554 1.328 6432
0.114 4.642 1.337 6123
0.114 4.653 1.325 3892
0.115 4.687 1.320 4276
0.116 4.737 1.318 4327
0.117 4.802 1.319 5453
0.119 4.866 1.321 4371
0.118 4.831 1.297 3399
0.122 4.989 1.320 2845
0.122 4.992 1.306 3060
0.125 5.119 1.320 2619
0.125 5.107 1.302 4441
0.125 5.118 1.289 4077
0.128 5.229 1.298 3216
0.128 5.217 1.280 3057
0.128 5.236 1.268 3303
0.135 5.518 1.312 3300
0.135 5.529 1.298 3849
0.137 5.587 1.293 3350
0.140 5.737 1.308 3424
0.141 5.748 1.293 4335
0.141 5.760 1.277 3521
0.141 5.755 1.259 3053
0.145 5.914 1.273 3660
0.145 5.917 1.255 3843
0.145 5.920 1.238 3226
0.148 6.032 1.241 3503
0.148 6.036 1.224 3820
0.152 6.218 1.238 2881
0.153 6.260 1.227 3541
0.154 6.279 1.212 2841
0.156 6.376 1.209 2512
0.156 6.386 1.192 2478
0.157 6.397 1.175 1857
0.169 6.916 1.239 1901
0.169 6.927 1.220 2075
0.171 7.008 1.212 1993
0.174 7.105 1.206 1771
0.179 7.328 1.218 2012
0.179 7.331 1.197 2401
0.188 7.686 1.226 2253
0.188 7.690 1.203 2370
0.191 7.795 1.195 2253
0.198 8.104 1.213 2358
0.198 8.083 1.186 2903
0.198 8.086 1.163 2217
0.209 8.553 1.197 1642
0.209 8.556 1.172 1984
0.209 8.559 1.148 1763
0.215 8.774 1.147 1406
0.222 9.083 1.156 1330
0.222 9.086 1.130 1510
0.229 9.349 1.131 1874
0.233 9.517 1.121 2338
0.233 9.520 1.094 3177
0.233 9.523 1.066 4046
0.233 9.525 1.038 4662
0.233 9.528 1.011 2916
0.233 9.530 0.983 1421
0.233 9.533 0.955 1470
0.233 9.535 0.928 2077
0.233 9.537 0.900 2153
0.233 9.540 0.872 1670
0.233 9.542 0.844 1604
0.055 1.998 1.572 2806
0.055 2.002 1.566 5612
0.055 2.006 1.560 4239
0.057 2.068 1.596 5399
0.057 2.079 1.595 7003
0.058 2.096 1.598 9061
0.058 2.107 1.597 11717
0.058 2.118 1.596 11431
0.059 2.128 1.594 11654
0.059 2.132 1.588 11654
0.059 2.143 1.587 9753
0.060 2.160 1.589 8954
0.060 2.165 1.583 7562
0.060 2.169 1.577 6171
0.060 2.173 1.571 5293
0.061 2.217 1.591 5483
0.061 2.214 1.580 8099
0.061 2.212 1.570 10831
0.061 2.223 1.568 9899
0.061 2.227 1.561 8990
0.062 2.231 1.555 7972
0.062 2.242 1.553 6539
0.062 2.253 1.551 6054
0.063 2.290 1.566 6746
0.063 2.294 1.559 8312
0.064 2.325 1.570 8909
0.065 2.336 1.567 11554
0.065 2.340 1.560 11595
0.065 2.344 1.554 12095
0.065 2.348 1.547 13262
0.065 2.359 1.544 11677
0.065 2.363 1.538 9413
0.065 2.367 1.531 6185
0.069 2.501 1.601 4999
0.069 2.498 1.590 4222
0.068 2.461 1.559 4705
0.068 2.465 1.552 5130
0.069 2.483 1.553 5643
0.069 2.494 1.550 4045
0.067 2.430 1.503 2883
0.067 2.434 1.496 2796
0.072 2.610 1.587 3461
0.072 2.614 1.579 4694
0.072 2.604 1.564 5820
0.072 2.602 1.553 7457
0.072 2.606 1.545 6538
0.074 2.665 1.568 5317
0.074 2.683 1.568 6050
0.074 2.695 1.564 5133
0.075 2.699 1.557 4548
0.074 2.696 1.545 4907
0.075 2.714 1.545 6460
0.075 2.725 1.541 8448
0.076 2.736 1.536 7676
0.076 2.754 1.536 7010
0.076 2.765 1.532 6914
0.077 2.776 1.527 6815
0.077 2.788 1.523 6269
0.079 2.869 1.554 5758
0.079 2.873 1.546 6425
0.078 2.842 1.520 6758
0.078 2.825 1.501 7777
0.078 2.829 1.493 7589
0.081 2.925 1.530 7185
0.081 2.936 1.525 7513
0.083 3.012 1.551 8947
0.083 3.016 1.542 9494
0.083 3.020 1.533 7079
0.084 3.024 1.525 4922
0.084 3.050 1.526 5967
0.085 3.075 1.527 6925
0.086 3.101 1.528 9205
0.086 3.105 1.519 9704
0.086 3.109 1.510 5390
0.085 3.084 1.489 4620
0.086 3.110 1.489 7615
0.086 3.128 1.487 11134
0.086 3.132 1.478 11567
0.087 3.136 1.469 9313
0.087 3.133 1.457 6167
0.087 3.144 1.451 3971
0.093 3.366 1.534 4183
0.094 3.400 1.536 5555
0.094 3.418 1.533 5336
0.095 3.430 1.526 4303
0.094 3.412 1.507 3795
0.094 3.401 1.491 5197
0.095 3.434 1.493 4519
0.098 3.549 1.527 3597
0.098 3.538 1.511 4834
0.098 3.542 1.501 4779
0.100 3.627 1.522 4263
0.100 3.638 1.515 4494
0.099 3.591 1.484 6387
0.099 3.602 1.477 7519
0.101 3.643 1.480 8722
0.101 3.654 1.473 8635
0.101 3.658 1.462 5975
0.103 3.736 1.479 4345
0.104 3.763 1.476 4947
0.104 3.766 1.465 6890
0.105 3.785 1.459 6092
0.105 3.811 1.456 6458
0.106 3.823 1.448 9013
0.106 3.834 1.440 8573
0.106 3.853 1.434 7612
0.107 3.879 1.430 8347
0.109 3.950 1.441 5546
0.109 3.954 1.430 5820
0.109 3.958 1.419 6830
0.110 3.992 1.417 5533
0.111 4.018 1.413 3370
0.110 3.999 1.394 3992
0.111 4.003 1.382 4656
0.114 4.142 1.413 5993
0.115 4.146 1.401 4895
0.115 4.165 1.394 4112
0.117 4.229 1.400 6104
0.117 4.240 1.390 5957
0.117 4.244 1.378 3791
0.117 4.248 1.366 3528
0.118 4.289 1.365 4656
0.121 4.384 1.378 3890
0.122 4.426 1.377 5235
0.122 4.429 1.364 5937
0.126 4.547 1.383 5353
0.125 4.528 1.363 6107
0.126 4.547 1.354 6333
0.125 4.543 1.339 6023
0.126 4.554 1.328 5532
0.128 4.634 1.335 5686
0.130 4.691 1.335 4001
0.130 4.694 1.322 5370
0.131 4.736 1.318 5177
0.132 4.763 1.310 5550
0.133 4.805 1.306 4097
0.133 4.823 1.295 3795
0.138 4.988 1.320 2733
0.137 4.976 1.302 2815
0.142 5.126 1.322 3137
0.141 5.122 1.305 3991
0.141 5.117 1.289 3745
0.145 5.237 1.300 3179
0.144 5.217 1.280 2781
0.145 5.251 1.271 3312
0.145 5.247 1.254 3083
0.153 5.529 1.298 3827
0.154 5.586 1.293 3416
0.158 5.737 1.308 3379
0.159 5.748 1.293 4165
0.159 5.759 1.277 3280
0.164 5.933 1.294 3103
0.164 5.921 1.274 3601
0.163 5.916 1.255 3684
0.164 5.928 1.240 3106
0.167 6.032 1.241 3486
0.167 6.035 1.224 3572
0.172 6.217 1.238 3181
0.173 6.260 1.227 3703
0.176 6.364 1.226 2659
0.176 6.375 1.209 2782
0.176 6.386 1.192 2630
0.176 6.389 1.174 1890
0.188 6.822 1.224 1994
0.191 6.926 1.220 2095
0.194 7.008 1.212 2073
0.196 7.097 1.205 1742
0.196 7.108 1.185 1773
0.202 7.330 1.197 1976
0.212 7.686 1.226 2447
0.212 7.681 1.202 2673
0.212 7.676 1.179 2205
0.224 8.103 1.213 2443
0.223 8.083 1.186 2854
0.223 8.086 1.163 2115
0.236 8.552 1.197 1645
0.236 8.555 1.172 2014
0.237 8.566 1.148 1750
0.242 8.773 1.147 1689
0.242 8.776 1.122 1336
0.251 9.086 1.130 1410
0.258 9.356 1.132 1861
0.263 9.516 1.121 2401
0.263 9.519 1.094 3197
0.263 9.522 1.066 4151
0.263 9.524 1.038 4674
0.263 9.527 1.011 2819
0.263 9.530 0.983 1395
0.263 9.532 0.955 1624
0.263 9.534 0.928 2446
0.263 9.537 0.900 2480
0.263 9.539 0.872 1922
0.263 9.541 0.844 1775
0.264 9.543 0.817 1358
0.058 1.998 1.572 2641
0.059 2.002 1.566 5283
0.059 2.026 1.574 4040
0.060 2.062 1.592 5451
0.061 2.079 1.595 6851
0.061 2.096 1.598 8971
0.062 2.107 1.597 11733
0.062 2.117 1.596 11413
0.062 2.128 1.594 11800
0.062 2.132 1.588 11800
0.063 2.150 1.591 10463
0.063 2.160 1.589 10232
0.063 2.165 1.583 8785
0.063 2.169 1.577 7339
0.064 2.173 1.571 6071
0.065 2.217 1.591 5303
0.065 2.214 1.580 8391
0.065 2.218 1.574 11505
0.065 2.223 1.568 10761
0.065 2.233 1.566 10174
0.065 2.238 1.559 9056
0.066 2.242 1.553 7234
0.066 2.252 1.551 6610
0.067 2.290 1.566 7615
0.067 2.294 1.559 8933
0.068 2.318 1.565 8825
0.068 2.336 1.567 11110
0.068 2.340 1.560 11331
0.069 2.344 1.554 12165
0.069 2.348 1.547 13712
0.069 2.359 1.544 12194
0.069 2.363 1.538 9844
0.069 2.374 1.535 6457
0.073 2.500 1.601 5249
0.073 2.505 1.594 4433
0.072 2.461 1.559 4247
0.072 2.465 1.552 4632
0.072 2.469 1.545 5018
0.072 2.474 1.538 3768
0.071 2.430 1.503 3013
0.071 2.440 1.500 2957
0.076 2.603 1.583 3207
0.076 2.607 1.575 4221
0.076 2.597 1.560 5327
0.076 2.595 1.549 6972
0.076 2.606 1.545 6251
0.078 2.665 1.568 5608
0.079 2.690 1.572 6337
0.079 2.687 1.560 5576
0.079 2.692 1.553 5170
0.078 2.675 1.534 5689
0.079 2.707 1.541 6480
0.080 2.725 1.541 8049
0.080 2.736 1.536 7279
0.081 2.754 1.536 7641
0.081 2.765 1.532 8547
0.081 2.776 1.527 8119
0.082 2.787 1.523 6575
0.082 2.791 1.515 5181
0.084 2.873 1.546 5983
0.084 2.870 1.534 6709
0.083 2.825 1.501 7372
0.085 2.921 1.538 7654
0.086 2.925 1.530 7442
0.086 2.936 1.525 7332
0.088 3.019 1.554 8751
0.088 3.016 1.542 9198
0.088 3.020 1.533 6881
0.089 3.031 1.528 5095
0.089 3.042 1.523 6370
0.089 3.039 1.511 6910
0.090 3.094 1.525 8028
0.091 3.105 1.519 8235
0.091 3.123 1.517 4343
0.093 3.171 1.527 3531
0.091 3.124 1.496 7271
0.092 3.135 1.490 11444
0.092 3.146 1.484 11717
0.092 3.158 1.478 8405
0.092 3.132 1.457 4239
0.098 3.355 1.540 3492
0.098 3.366 1.534 5290
0.099 3.392 1.533 6721
0.100 3.411 1.530 6215
0.094 3.232 1.445 5360
0.095 3.236 1.435 4881
0.100 3.408 1.494 6015
0.100 3.434 1.493 5927
0.102 3.475 1.498 4615
0.103 3.530 1.508 5291
0.104 3.542 1.501 5590
0.105 3.583 1.505 4487
0.105 3.579 1.492 4508
0.105 3.590 1.484 6370
0.105 3.602 1.477 7591
0.107 3.643 1.480 8727
0.107 3.654 1.473 8876
0.107 3.658 1.462 6727
0.107 3.654 1.449 4608
0.110 3.762 1.476 4875
0.110 3.774 1.468 6754
0.111 3.785 1.459 6042
0.111 3.804 1.454 6949
