0.227 5.496 1.325 1521
0.220 5.314 1.269 2815
0.230 5.561 1.322 2450
0.230 5.565 1.306 3022
0.220 5.325 1.256 1772
0.232 5.599 1.297 2850
0.223 5.398 1.255 1684
0.233 5.633 1.287 3856
0.224 5.401 1.239 1452
0.241 5.835 1.328 1444
0.234 5.652 1.274 4536
0.244 5.885 1.321 1348
0.234 5.648 1.256 3679
0.242 5.849 1.296 2127
0.242 5.853 1.279 3131
0.234 5.643 1.238 1939
0.242 5.841 1.259 3292
0.250 6.042 1.298 1977
0.244 5.898 1.253 2765
0.252 6.100 1.291 1415
0.245 5.909 1.237 2683
0.253 6.111 1.275 2174
0.251 6.076 1.250 4302
0.260 6.278 1.287 1785
0.251 6.063 1.229 5208
0.260 6.289 1.270 2477
0.269 6.491 1.307 1439
0.253 6.105 1.219 3686
0.261 6.308 1.255 3316
0.275 6.643 1.315 1543
0.261 6.311 1.237 3411
0.253 6.109 1.201 3060
0.270 6.521 1.274 1855
0.260 6.291 1.214 3832
0.269 6.494 1.249 2121
0.282 6.821 1.306 1501
0.260 6.286 1.195 3541
0.269 6.497 1.230 2715
0.284 6.863 1.292 1623
0.275 6.648 1.236 2642
0.260 6.289 1.177 1945
0.285 6.882 1.275 1852
0.287 6.925 1.262 2495
0.275 6.644 1.216 2006
0.286 6.912 1.239 2977
0.311 7.521 1.337 1507
0.275 6.654 1.198 1354
0.286 6.915 1.219 2311
0.311 7.525 1.315 1911
0.299 7.212 1.266 1588
0.299 7.216 1.245 2154
0.312 7.536 1.294 1988
0.287 6.934 1.201 1564
0.300 7.242 1.227 2231
0.311 7.524 1.270 2063
0.286 6.922 1.179 1303
0.312 7.535 1.249 2988
0.303 7.331 1.219 1924
0.312 7.546 1.229 4531
0.304 7.342 1.199 2091
0.321 7.749 1.258 1449
0.312 7.549 1.207 4403
0.321 7.753 1.236 1610
0.304 7.345 1.178 1406
0.312 7.544 1.184 2531
0.331 8.007 1.248 1877
0.322 7.779 1.216 1358
0.332 8.018 1.226 1941
0.312 7.547 1.162 1783
0.323 7.798 1.196 1378
0.312 7.542 1.139 1699
0.333 8.052 1.207 1592
0.355 8.570 1.276 1552
0.333 8.055 1.183 1961
0.348 8.408 1.229 1487
0.335 8.090 1.164 1803
0.351 8.482 1.214 1333
0.336 8.108 1.142 1300
0.365 8.826 1.206 1807
0.356 8.598 1.178 1552
0.377 9.116 1.241 1300
0.365 8.829 1.180 2273
0.356 8.601 1.153 1621
0.377 9.104 1.213 1366
0.365 8.824 1.154 2027
0.377 9.107 1.186 1425
0.376 9.086 1.157 1538
0.365 8.811 1.126 1415
0.375 9.066 1.128 1606
0.374 9.045 1.099 1523
0.394 9.520 1.038 1403
0.394 9.523 1.011 1966
0.394 9.525 0.983 2471
0.394 9.527 0.955 2508
0.394 9.530 0.928 2467
0.395 9.532 0.900 1912
0.395 9.534 0.872 1434
0.085 1.997 1.572 4369
0.085 2.001 1.566 8739
0.086 2.025 1.574 7341
0.087 2.042 1.578 7483
0.087 2.052 1.577 7761
0.087 2.063 1.575 5857
0.088 2.086 1.583 4817
0.089 2.091 1.577 3178
0.092 2.166 1.621 2017
0.092 2.170 1.615 2017
0.089 2.110 1.564 2763
0.090 2.120 1.562 4234
0.091 2.137 1.565 5822
0.091 2.148 1.564 7936
0.092 2.172 1.571 8541
0.093 2.196 1.578 10147
0.094 2.213 1.580 8176
0.094 2.224 1.579 6913
0.093 2.195 1.550 6156
0.093 2.199 1.544 6603
0.094 2.210 1.542 5147
0.096 2.261 1.566 4358
0.097 2.278 1.568 4646
0.098 2.316 1.583 5887
0.099 2.326 1.580 7742
0.099 2.337 1.578 10526
0.099 2.341 1.571 13367
0.099 2.346 1.565 12512
0.100 2.350 1.558 12037
0.100 2.347 1.547 12304
0.100 2.358 1.544 9969
0.100 2.369 1.542 8419
0.101 2.373 1.535 7568
0.101 2.384 1.532 6785
0.101 2.388 1.526 5765
0.109 2.565 1.631 1490
0.106 2.508 1.587 7575
0.099 2.331 1.483 1500
0.106 2.512 1.580 9488
0.107 2.516 1.573 11401
0.107 2.527 1.569 8618
0.109 2.572 1.586 5917
0.107 2.515 1.543 6120
0.111 2.615 1.591 7613
0.111 2.620 1.583 10133
0.111 2.617 1.572 9872
0.111 2.621 1.564 9665
0.111 2.625 1.557 8012
0.112 2.643 1.557 7022
0.113 2.654 1.553 7993
0.113 2.665 1.549 6312
0.114 2.683 1.549 6004
0.114 2.694 1.545 7015
0.114 2.698 1.537 6313
0.113 2.675 1.515 5483
0.115 2.721 1.529 5247
0.119 2.816 1.569 3985
0.119 2.813 1.557 4475
0.119 2.817 1.549 5009
0.118 2.779 1.519 7643
0.118 2.783 1.511 11923
0.118 2.794 1.507 13328
0.126 2.978 1.599 1692
0.120 2.834 1.516 14935
0.120 2.838 1.508 16222
0.128 3.022 1.599 1464
0.120 2.841 1.500 14173
0.128 3.026 1.590 1749
0.121 2.845 1.492 11095
0.128 3.031 1.582 2231
0.125 2.949 1.532 6552
0.125 2.953 1.523 8862
0.126 2.964 1.518 10630
0.125 2.954 1.503 8630
0.133 3.140 1.591 1869
0.131 3.080 1.551 8168
0.131 3.091 1.546 10225
0.132 3.103 1.540 11354
0.131 3.099 1.528 12855
0.131 3.096 1.516 12166
0.131 3.100 1.507 10175
0.131 3.097 1.495 15033
0.132 3.108 1.489 22647
0.132 3.112 1.480 26034
0.132 3.116 1.471 27168
0.132 3.120 1.462 27314
0.142 3.345 1.560 1423
0.132 3.124 1.454 20216
0.143 3.378 1.562 1660
0.132 3.120 1.441 10770
0.144 3.390 1.556 3350
0.132 3.124 1.432 6375
0.144 3.394 1.546 5011
0.133 3.128 1.423 5281
0.146 3.442 1.555 4835
0.132 3.124 1.411 4423
0.146 3.453 1.548 4416
0.132 3.121 1.399 3581
0.145 3.428 1.526 3260
0.132 3.124 1.391 3857
0.145 3.410 1.507 2528
0.132 3.121 1.379 3768
0.149 3.509 1.536 3504
0.148 3.491 1.517 5491
0.138 3.249 1.420 3039
0.148 3.495 1.507 6158
0.138 3.253 1.410 2834
0.152 3.595 1.534 5341
0.138 3.264 1.404 1984
0.152 3.592 1.521 5295
0.133 3.135 1.343 1338
0.151 3.566 1.499 5668
0.128 3.028 1.291 1843
0.152 3.577 1.492 5442
0.129 3.038 1.285 2219
0.153 3.618 1.496 4805
0.129 3.042 1.276 1912
0.157 3.696 1.513 4369
0.156 3.678 1.494 4267
0.155 3.660 1.475 5387
0.158 3.730 1.489 6881
0.159 3.742 1.481 11068
0.159 3.761 1.476 9262
0.160 3.772 1.468 7741
0.160 3.783 1.459 8559
0.161 3.795 1.451 10301
0.163 3.836 1.453 11267
0.163 3.855 1.447 8262
0.165 3.903 1.451 12221
0.166 3.915 1.443 12128
0.167 3.948 1.441 8672
0.168 3.960 1.433 6091
0.167 3.941 1.414 5177
0.169 3.990 1.417 5493
0.169 3.993 1.406 6775
0.173 4.088 1.423 5511
0.173 4.084 1.409 6186
0.174 4.110 1.404 6584
0.175 4.129 1.397 5881
0.176 4.148 1.389 5450
0.176 4.144 1.375 4543
0.176 4.147 1.363 2584
0.177 4.181 1.360 3149
0.182 4.283 1.377 4251
0.182 4.302 1.369 5782
0.191 4.500 1.426 1362
0.184 4.329 1.363 5651
0.192 4.526 1.420 1620
0.183 4.325 1.349 4199
0.193 4.553 1.413 1702
0.184 4.343 1.340 2868
0.193 4.549 1.398 2611
0.192 4.537 1.380 7172
0.184 4.339 1.326 2000
0.193 4.564 1.374 10507
0.195 4.606 1.371 13703
0.196 4.617 1.360 12087
0.194 4.574 1.334 9287
0.202 4.773 1.387 1853
0.194 4.570 1.319 6538
0.202 4.769 1.371 2794
0.200 4.712 1.341 5623
0.200 4.723 1.330 5290
0.202 4.764 1.326 2719
0.211 4.972 1.378 1593
0.204 4.806 1.321 4115
0.212 5.006 1.371 1521
0.209 4.940 1.339 5578
0.201 4.741 1.290 1854
0.210 4.951 1.327 5666
0.201 4.752 1.279 1319
0.214 5.047 1.335 5205
0.206 4.847 1.287 2636
0.211 4.966 1.300 4368
0.219 5.166 1.348 1605
0.217 5.108 1.318 3812
0.217 5.111 1.303 4397
0.217 5.107 1.287 4378
0.225 5.308 1.332 1816
0.225 5.296 1.314 2869
0.216 5.095 1.269 2377
0.224 5.291 1.297 2752
0.224 5.295 1.281 2905
0.233 5.496 1.325 1448
0.231 5.445 1.298 2630
0.236 5.564 1.306 3150
0.226 5.332 1.257 1731
0.237 5.599 1.297 2818
0.229 5.397 1.255 1673
0.239 5.633 1.287 3760
0.229 5.401 1.239 1485
0.247 5.835 1.328 1447
0.240 5.652 1.274 4324
0.248 5.854 1.314 1371
0.240 5.655 1.257 3387
0.248 5.857 1.298 2145
0.248 5.852 1.279 3220
0.238 5.620 1.233 1878
0.248 5.840 1.259 3388
0.256 6.042 1.298 1892
0.250 5.906 1.254 3099
0.251 5.909 1.237 2955
0.259 6.111 1.275 1956
0.258 6.075 1.250 4256
0.266 6.278 1.287 1770
0.257 6.063 1.229 5142
0.267 6.289 1.270 2402
0.275 6.491 1.307 1437
0.259 6.113 1.220 3482
0.268 6.315 1.256 3231
0.282 6.650 1.316 1509
0.268 6.311 1.237 3359
0.259 6.108 1.201 3007
0.282 6.661 1.298 1747
0.267 6.291 1.214 3803
0.275 6.493 1.249 1998
0.289 6.813 1.304 1511
0.266 6.286 1.195 3558
0.275 6.489 1.229 2605
0.284 6.691 1.263 1524
0.282 6.648 1.236 2686
0.267 6.289 1.177 1988
0.293 6.921 1.282 1851
0.294 6.924 1.262 2672
0.282 6.643 1.216 1950
0.293 6.912 1.239 3038
0.319 7.521 1.337 1367
0.282 6.654 1.198 1348
0.293 6.915 1.219 2265
0.319 7.525 1.315 1777
0.306 7.212 1.266 1620
0.306 7.215 1.245 2126
0.319 7.536 1.294 1903
0.294 6.934 1.201 1510
0.307 7.250 1.229 2176
0.319 7.523 1.270 1932
0.319 7.535 1.249 2748
0.311 7.331 1.219 1967
0.320 7.546 1.229 4273
0.311 7.342 1.199 2161
0.329 7.749 1.258 1547
0.320 7.549 1.207 4218
0.329 7.752 1.236 1774
0.311 7.345 1.178 1442
0.320 7.544 1.184 2416
0.339 8.006 1.248 1831
0.330 7.779 1.216 1412
0.340 8.017 1.226 1954
0.320 7.555 1.163 1686
0.331 7.798 1.196 1414
0.341 8.052 1.207 1671
0.320 7.550 1.140 1579
0.363 8.569 1.276 1539
0.341 8.055 1.183 2057
0.357 8.416 1.230 1590
0.343 8.089 1.164 1890
0.358 8.434 1.208 1300
0.344 8.108 1.142 1371
0.374 8.825 1.206 1771
0.365 8.598 1.178 1461
0.374 8.828 1.180 2215
0.365 8.601 1.153 1531
0.386 9.103 1.213 1333
0.374 8.823 1.154 1999
0.386 9.106 1.186 1407
0.385 9.086 1.157 1628
0.374 8.819 1.127 1374
0.384 9.065 1.128 1689
0.383 9.044 1.099 1513
0.404 9.520 1.038 1604
0.404 9.522 1.011 2076
0.404 9.525 0.983 2558
0.404 9.527 0.955 2674
0.404 9.529 0.928 2723
0.404 9.532 0.900 2102
0.404 9.534 0.872 1548
0.087 1.997 1.572 4321
0.087 2.001 1.566 8643
0.088 2.025 1.574 7190
0.089 2.042 1.578 7382
0.089 2.052 1.577 7703
0.090 2.063 1.575 5806
0.091 2.086 1.583 4792
0.091 2.090 1.577 3096
0.094 2.159 1.617 2288
0.094 2.164 1.611 2288
0.093 2.136 1.582 2699
0.092 2.120 1.562 4097
0.093 2.137 1.565 5824
0.093 2.148 1.564 7996
0.094 2.172 1.571 8411
0.095 2.196 1.578 9955
0.096 2.213 1.580 8257
0.097 2.224 1.579 7144
0.095 2.195 1.550 6338
0.096 2.199 1.544 6754
0.096 2.210 1.542 5221
0.098 2.260 1.566 4160
0.099 2.271 1.564 4330
0.101 2.315 1.583 5636
0.101 2.326 1.580 7618
0.102 2.337 1.578 10415
0.102 2.341 1.571 13335
0.102 2.346 1.565 12483
0.102 2.343 1.554 12012
0.102 2.347 1.547 12346
0.102 2.358 1.544 9966
0.103 2.369 1.542 8322
0.103 2.373 1.535 7420
0.104 2.384 1.532 6603
0.104 2.388 1.526 5652
0.111 2.565 1.631 1449
0.109 2.508 1.587 7688
0.101 2.330 1.483 1499
0.109 2.512 1.580 9615
0.109 2.516 1.573 11542
0.110 2.520 1.565 8715
0.110 2.531 1.562 5967
0.109 2.515 1.543 5967
0.114 2.622 1.595 7318
0.114 2.619 1.583 9681
0.114 2.617 1.572 9383
0.114 2.621 1.564 9173
0.114 2.625 1.557 7722
0.115 2.650 1.561 7128
0.115 2.654 1.553 8212
0.116 2.665 1.549 6399
0.117 2.683 1.549 5743
0.117 2.694 1.545 6568
0.117 2.698 1.537 6140
0.118 2.716 1.537 5379
0.118 2.721 1.529 5689
0.119 2.739 1.529 4260
0.122 2.813 1.557 4823
0.122 2.817 1.549 5246
0.121 2.779 1.519 7182
0.121 2.783 1.511 11276
0.121 2.794 1.507 12589
0.129 2.978 1.599 1605
0.123 2.833 1.516 14814
0.123 2.837 1.508 16229
0.131 3.022 1.599 1406
0.124 2.841 1.500 14184
0.132 3.026 1.590 1757
0.124 2.845 1.492 11141
0.132 3.030 1.582 2199
0.128 2.949 1.532 6213
0.129 2.960 1.527 8745
0.129 2.964 1.518 10802
0.128 2.954 1.503 8783
0.136 3.140 1.591 1842
0.134 3.080 1.551 8216
0.134 3.091 1.546 10430
0.135 3.102 1.540 11585
0.135 3.099 1.528 13099
0.135 3.096 1.516 12365
0.135 3.100 1.507 10146
0.135 3.097 1.495 14995
0.135 3.108 1.489 22702
0.135 3.112 1.480 26204
0.135 3.116 1.471 27281
0.136 3.120 1.462 27361
0.145 3.345 1.560 1571
0.136 3.124 1.454 20498
0.147 3.385 1.566 1882
0.136 3.120 1.441 11220
0.147 3.389 1.556 3701
0.136 3.124 1.432 6728
0.148 3.394 1.546 5389
0.136 3.128 1.423 5609
0.150 3.441 1.555 4956
0.150 3.453 1.548 4437
0.136 3.124 1.411 4397
0.150 3.457 1.538 3824
0.136 3.120 1.399 3538
0.136 3.124 1.391 3894
0.151 3.483 1.537 2836
0.136 3.120 1.379 3540
0.152 3.494 1.530 3469
0.151 3.484 1.514 5278
0.141 3.249 1.420 2887
0.131 3.007 1.323 1474
0.152 3.488 1.504 6289
0.141 3.253 1.410 2320
0.152 3.499 1.497 5995
0.136 3.131 1.352 1610
0.156 3.591 1.521 5314
0.136 3.135 1.343 1325
0.155 3.566 1.499 5542
0.132 3.035 1.294 1586
0.155 3.577 1.492 5486
0.132 3.038 1.285 2027
0.157 3.618 1.496 4727
0.132 3.042 1.276 1806
0.160 3.689 1.510 4297
0.158 3.641 1.480 4249
0.159 3.660 1.475 5400
0.162 3.730 1.489 7307
0.163 3.742 1.481 11406
0.163 3.760 1.476 9381
0.164 3.772 1.468 7710
0.164 3.783 1.459 8279
0.165 3.794 1.451 9814
0.167 3.836 1.453 11113
0.168 3.854 1.447 8174
0.170 3.903 1.451 11789
0.170 3.914 1.443 12045
0.172 3.948 1.441 8382
0.172 3.952 1.430 6039
0.171 3.941 1.414 5317
0.173 3.990 1.417 5114
0.174 3.993 1.406 6355
0.178 4.087 1.423 5596
0.178 4.091 1.411 5925
0.179 4.110 1.404 6473
0.180 4.136 1.399 5730
0.180 4.147 1.389 5070
0.180 4.143 1.375 4077
0.180 4.139 1.361 2314
0.188 4.337 1.420 1379
0.182 4.189 1.362 3288
0.186 4.283 1.377 4178
0.187 4.302 1.369 5555
0.196 4.500 1.426 1391
0.188 4.328 1.363 5537
0.197 4.526 1.420 1486
0.188 4.324 1.349 4215
0.199 4.575 1.420 1625
0.188 4.335 1.338 2777
0.198 4.564 1.402 2545
0.197 4.537 1.380 6709
0.189 4.339 1.326 1962
0.198 4.564 1.374 10686
0.200 4.605 1.371 13911
0.201 4.617 1.360 12406
0.199 4.574 1.334 9388
0.207 4.773 1.387 1680
0.199 4.578 1.321 6741
0.208 4.777 1.373 2048
0.205 4.719 1.343 5165
0.205 4.722 1.330 4958
0.207 4.772 1.327 3055
0.216 4.971 1.378 1444
0.209 4.806 1.321 4447
0.218 5.006 1.371 1494
0.215 4.940 1.339 5788
0.206 4.740 1.290 1950
0.215 4.951 1.327 5630
0.207 4.751 1.279 1494
0.219 5.047 1.335 4974
0.211 4.847 1.287 2571
0.216 4.966 1.300 4214
0.225 5.166 1.348 1389
0.222 5.108 1.318 3908
0.222 5.111 1.303 4776
0.222 5.107 1.287 4710
0.231 5.307 1.332 1820
0.230 5.295 1.314 2930
0.221 5.095 1.269 2440
0.230 5.291 1.297 2745
0.230 5.294 1.281 2798
0.239 5.495 1.325 1407
0.237 5.445 1.298 2622
0.242 5.564 1.306 3242
0.233 5.363 1.264 1690
0.244 5.606 1.298 2701
0.235 5.405 1.256 1837
0.245 5.633 1.287 3510
0.235 5.408 1.241 1613
0.254 5.834 1.328 1504
0.246 5.652 1.274 4172
0.254 5.853 1.314 1432
0.246 5.655 1.257 3159
0.255 5.857 1.298 2096
0.254 5.844 1.278 3124
0.244 5.612 1.232 1985
0.254 5.840 1.259 3440
0.263 6.042 1.298 1758
0.257 5.913 1.255 3375
0.257 5.909 1.237 3089
0.266 6.111 1.275 1819
0.264 6.075 1.250 4191
0.273 6.277 1.287 1711
0.264 6.063 1.229 5126
0.273 6.288 1.270 2297
0.282 6.491 1.307 1393
0.265 6.105 1.219 3364
0.274 6.307 1.255 3235
0.289 6.650 1.316 1492
0.274 6.311 1.237 3201
0.265 6.108 1.201 2894
0.290 6.661 1.298 1859
0.273 6.290 1.214 3667
0.288 6.633 1.273 1956
0.297 6.836 1.308 1389
0.273 6.286 1.195 3498
0.289 6.644 1.256 2659
0.298 6.855 1.291 1339
0.289 6.648 1.236 2743
0.273 6.289 1.177 1997
0.301 6.921 1.282 1842
0.301 6.924 1.262 2741
0.289 6.643 1.216 1950
0.300 6.912 1.239 3082
0.289 6.654 1.198 1324
0.301 6.923 1.220 2268
0.327 7.524 1.315 1624
0.313 7.212 1.266 1586
0.314 7.215 1.245 2049
0.328 7.535 1.294 1799
0.301 6.934 1.201 1513
0.315 7.249 1.229 2147
0.328 7.539 1.272 1842
0.327 7.534 1.249 2509
0.319 7.331 1.219 1987
0.328 7.545 1.229 3908
0.319 7.342 1.199 2216
0.337 7.749 1.258 1618
0.328 7.548 1.207 3932
0.337 7.752 1.236 1917
0.319 7.345 1.178 1443
0.328 7.544 1.184 2268
0.348 8.006 1.248 1763
0.338 7.779 1.216 1556
0.348 8.017 1.226 1970
0.329 7.570 1.165 1641
0.339 7.797 1.196 1570
0.350 8.051 1.207 1710
0.372 8.561 1.275 1493
0.328 7.557 1.141 1488
0.350 8.054 1.183 2132
0.366 8.423 1.231 1555
0.352 8.089 1.164 1943
0.366 8.426 1.207 1478
0.352 8.107 1.142 1417
0.384 8.825 1.206 1694
0.374 8.597 1.178 1365
0.384 8.828 1.180 2091
0.374 8.600 1.153 1405
0.384 8.823 1.154 1915
0.396 9.106 1.186 1366
0.395 9.078 1.156 1717
0.383 8.818 1.127 1344
0.394 9.065 1.128 1778
0.393 9.044 1.099 1520
0.414 9.516 1.066 1360
0.414 9.519 1.038 1872
0.414 9.522 1.011 2245
0.414 9.524 0.983 2644
0.414 9.527 0.955 2848
0.414 9.529 0.928 2988
0.414 9.531 0.900 2296
0.414 9.533 0.872 1668
0.088 1.991 1.567 4313
0.088 1.995 1.561 8627
0.090 2.024 1.574 7114
0.091 2.048 1.583 7313
0.091 2.052 1.577 7648
0.092 2.069 1.580 5732
0.093 2.093 1.588 4849
0.093 2.097 1.582 3208
0.095 2.146 1.608 2759
0.095 2.151 1.602 2759
0.094 2.135 1.582 3069
0.094 2.127 1.567 4035
0.095 2.144 1.570 5939
0.095 2.148 1.564 8119
0.096 2.172 1.571 8290
0.097 2.196 1.578 9735
0.098 2.213 1.580 8330
0.098 2.224 1.579 7388
0.097 2.202 1.555 6565
0.097 2.199 1.544 6933
0.098 2.210 1.542 5315
0.100 2.254 1.562 3909
0.100 2.251 1.551 4088
0.102 2.315 1.583 5346
0.103 2.320 1.576 7509
0.103 2.330 1.574 10287
0.104 2.341 1.571 13282
0.104 2.345 1.565 12419
0.104 2.343 1.554 12014
0.104 2.347 1.547 12450
0.104 2.358 1.544 10075
0.105 2.369 1.542 8347
0.105 2.373 1.535 7368
0.105 2.384 1.532 6488
0.106 2.388 1.526 5592
0.113 2.565 1.631 1383
0.111 2.508 1.587 7652
0.103 2.330 1.483 1516
0.111 2.512 1.580 9576
0.111 2.516 1.573 11500
0.112 2.520 1.565 8689
0.112 2.531 1.562 5950
0.111 2.515 1.543 5746
0.116 2.622 1.595 6988
0.116 2.619 1.583 9172
0.116 2.617 1.572 8839
0.116 2.621 1.564 8623
0.116 2.625 1.557 7398
0.117 2.650 1.561 7255
0.117 2.654 1.553 8424
0.118 2.665 1.549 6511
0.119 2.683 1.549 5494
0.119 2.694 1.545 6100
0.120 2.705 1.541 6015
0.120 2.716 1.537 5687
0.120 2.720 1.529 6131
0.121 2.739 1.529 4974
0.124 2.813 1.557 5029
0.125 2.817 1.549 5404
0.123 2.779 1.519 7141
0.123 2.783 1.511 11168
0.124 2.794 1.507 12340
0.132 2.978 1.599 1474
0.125 2.833 1.516 14828
0.126 2.837 1.508 16286
0.134 3.022 1.599 1347
0.126 2.841 1.500 14196
0.134 3.026 1.590 1778
0.126 2.845 1.492 11167
0.134 3.030 1.582 2145
0.127 2.863 1.491 6032
0.136 3.063 1.587 4896
0.131 2.960 1.527 8753
0.131 2.964 1.518 11049
0.131 2.961 1.506 8973
0.136 3.080 1.551 8180
0.137 3.091 1.546 10560
0.137 3.102 1.540 11790
0.137 3.099 1.528 13301
0.137 3.096 1.516 12450
0.137 3.100 1.507 9928
0.137 3.097 1.495 14704
0.138 3.108 1.489 22557
0.138 3.112 1.480 26281
0.138 3.116 1.471 27345
0.147 3.326 1.563 1412
0.138 3.120 1.462 27359
0.148 3.345 1.560 1739
0.138 3.123 1.454 20747
0.149 3.378 1.562 2108
0.138 3.120 1.441 11798
0.150 3.389 1.556 4037
0.138 3.124 1.432 7247
0.150 3.393 1.546 5758
0.138 3.128 1.423 5890
0.152 3.434 1.552 5241
0.152 3.445 1.545 4811
0.138 3.124 1.411 4313
0.152 3.435 1.529 4164
0.138 3.128 1.402 3499
0.139 3.131 1.394 3959
0.152 3.439 1.519 2772
0.138 3.120 1.379 3275
0.153 3.450 1.512 2683
0.154 3.476 1.511 3975
0.144 3.256 1.423 2401
0.154 3.488 1.504 4553
0.144 3.252 1.410 1821
0.159 3.595 1.534 4967
0.139 3.131 1.352 1528
0.159 3.584 1.518 5309
0.158 3.581 1.505 5496
0.134 3.027 1.291 1381
0.159 3.585 1.495 5649
0.134 3.038 1.285 1716
0.160 3.625 1.498 4853
0.135 3.041 1.276 1563
0.163 3.681 1.508 4362
0.161 3.641 1.480 4585
0.162 3.659 1.475 5561
0.165 3.730 1.489 7589
0.166 3.742 1.481 11454
0.166 3.760 1.476 9293
0.167 3.772 1.468 7559
0.167 3.783 1.459 8015
0.168 3.794 1.451 9432
0.170 3.835 1.453 10748
0.170 3.847 1.445 7979
0.173 3.903 1.451 11271
0.174 3.922 1.445 11871
0.175 3.948 1.441 8071
0.175 3.952 1.430 5879
0.174 3.941 1.414 5424
0.178 4.019 1.427 4802
0.177 3.993 1.406 5920
0.181 4.080 1.420 5646
0.181 4.091 1.411 5695
0.182 4.110 1.404 6232
0.183 4.136 1.399 5504
0.184 4.162 1.394 4751
0.183 4.143 1.375 3653
0.183 4.139 1.361 2199
0.192 4.336 1.420 1438
0.186 4.204 1.367 3477
0.190 4.283 1.377 4255
0.190 4.302 1.369 5497
0.199 4.499 1.426 1360
0.192 4.328 1.363 5464
0.200 4.526 1.420 1401
0.191 4.324 1.349 4183
0.202 4.575 1.420 1719
0.192 4.328 1.336 2785
0.202 4.571 1.404 2603
0.201 4.552 1.385 6331
0.192 4.346 1.328 1936
0.202 4.563 1.374 10657
0.204 4.605 1.371 13519
0.204 4.616 1.360 12035
0.202 4.574 1.334 9561
0.211 4.773 1.387 1540
0.203 4.578 1.321 6984
0.211 4.777 1.373 1717
0.209 4.719 1.343 4952
0.209 4.730 1.331 4946
0.211 4.772 1.327 3418
0.212 4.798 1.319 4697
0.221 4.998 1.369 1630
0.219 4.940 1.339 5651
0.210 4.740 1.290 2062
0.215 4.867 1.307 5580
0.224 5.066 1.355 3173
0.223 5.047 1.335 4658
0.214 4.847 1.287 2819
0.220 4.966 1.300 4103
0.226 5.108 1.318 3967
0.226 5.111 1.303 5185
0.226 5.107 1.287 5071
0.235 5.307 1.332 1859
0.234 5.295 1.314 2977
0.225 5.095 1.269 2500
0.234 5.283 1.295 2728
0.234 5.287 1.280 2626
0.243 5.488 1.323 1510
0.241 5.437 1.296 2618
0.246 5.564 1.306 3333
0.237 5.363 1.264 1716
0.248 5.606 1.298 2494
0.239 5.405 1.256 1944
0.249 5.633 1.287 3237
0.239 5.408 1.241 1715
0.258 5.834 1.328 1558
0.250 5.651 1.274 4169
0.259 5.853 1.314 1484
0.256 5.779 1.282 3199
0.247 5.577 1.242 1955
0.265 5.981 1.322 1425
0.259 5.844 1.278 2997
0.248 5.611 1.232 2152
0.258 5.840 1.259 3353
0.267 6.042 1.298 1622
0.262 5.913 1.255 3566
0.261 5.908 1.237 3275
0.277 6.258 1.302 1724
0.269 6.075 1.250 3995
0.278 6.277 1.287 1628
0.268 6.063 1.229 5019
0.279 6.296 1.272 2174
0.270 6.105 1.219 3218
0.279 6.307 1.255 3128
0.294 6.650 1.316 1425
0.271 6.123 1.204 3137
0.280 6.326 1.239 2996
0.295 6.661 1.298 1892
0.278 6.290 1.214 3533
0.294 6.641 1.275 2005
0.278 6.285 1.195 3367
0.294 6.644 1.256 2737
0.294 6.647 1.236 2765
0.278 6.288 1.177 1954
0.306 6.920 1.282 1790
0.306 6.924 1.262 2697
0.294 6.643 1.216 1901
0.306 6.911 1.239 2943
0.306 6.922 1.220 2142
0.319 7.211 1.266 1545
0.333 7.524 1.315 1434
0.319 7.215 1.245 1965
0.333 7.535 1.294 1661
0.307 6.933 1.201 1446
0.321 7.257 1.230 2131
0.334 7.539 1.272 1755
0.333 7.534 1.249 2277
0.324 7.331 1.219 2037
0.334 7.545 1.229 3505
0.325 7.334 1.198 2326
0.343 7.748 1.258 1669
0.334 7.556 1.208 3594
0.343 7.760 1.237 1908
0.325 7.337 1.177 1477
0.334 7.543 1.184 2089
0.344 7.778 1.216 1662
0.354 8.006 1.248 1642
0.355 8.017 1.226 1908
0.345 7.797 1.196 1675
0.335 7.570 1.165 1565
0.356 8.051 1.207 1766
0.334 7.557 1.141 1416
0.379 8.561 1.275 1409
0.357 8.062 1.184 2303
0.372 8.415 1.230 1328
0.358 8.089 1.164 2103
0.373 8.418 1.206 1484
0.359 8.107 1.142 1499
0.391 8.825 1.206 1649
0.380 8.597 1.178 1309
0.391 8.828 1.180 2019
0.381 8.600 1.153 1356
0.391 8.831 1.154 1892
0.403 9.106 1.186 1334
0.402 9.077 1.156 1793
0.391 8.826 1.128 1342
0.401 9.064 1.128 1831
0.410 9.269 1.151 1307
0.400 9.044 1.099 1519
0.410 9.272 1.124 1377
0.421 9.516 1.066 1634
0.421 9.519 1.038 2186
0.421 9.521 1.011 2450
0.421 9.524 0.983 2735
0.422 9.526 0.955 3034
0.422 9.529 0.928 3264
0.422 9.531 0.900 2486
0.422 9.533 0.872 1777
0.089 1.991 1.567 4268
0.090 1.995 1.561 8537
0.091 2.024 1.574 6975
0.092 2.048 1.583 7186
0.092 2.052 1.577 7525
0.093 2.069 1.580 5628
0.094 2.093 1.588 4957
0.095 2.116 1.596 3713
0.096 2.140 1.603 3444
0.096 2.144 1.597 3444
0.096 2.142 1.587 3597
0.096 2.133 1.571 4057
0.096 2.144 1.570 6074
0.096 2.148 1.564 8181
0.097 2.165 1.566 8190
0.099 2.202 1.582 9542
0.099 2.213 1.580 8453
0.100 2.224 1.579 7699
0.099 2.201 1.555 6853
0.099 2.199 1.544 7116
0.099 2.210 1.542 5374
0.100 2.220 1.540 3747
0.101 2.251 1.551 3963
0.104 2.309 1.579 5053
0.104 2.313 1.572 7396
0.105 2.330 1.574 10151
0.105 2.341 1.571 13163
0.105 2.345 1.565 12321
0.105 2.343 1.554 12000
0.105 2.347 1.547 12531
0.106 2.358 1.544 10198
0.106 2.369 1.542 8404
0.107 2.373 1.535 7297
0.107 2.384 1.532 6308
0.107 2.388 1.526 5467
0.115 2.564 1.631 1318
0.113 2.507 1.587 7525
0.105 2.330 1.483 1538
0.113 2.512 1.580 9433
0.113 2.516 1.573 11340
0.113 2.520 1.565 8576
0.114 2.531 1.562 5882
0.113 2.515 1.543 5489
0.118 2.622 1.595 6652
0.118 2.619 1.583 8658
0.118 2.617 1.572 8290
0.118 2.621 1.564 8063
0.118 2.625 1.557 7072
0.119 2.650 1.561 7397
0.120 2.661 1.557 8666
0.120 2.672 1.553 6718
0.121 2.690 1.553 5267
0.121 2.694 1.545 5562
0.122 2.712 1.545 5878
0.122 2.716 1.537 5998
0.122 2.727 1.533 6644
0.123 2.738 1.529 5674
0.126 2.813 1.557 5194
0.127 2.817 1.549 5527
0.125 2.779 1.519 6821
0.125 2.783 1.511 10699
0.125 2.794 1.507 11835
0.134 2.978 1.599 1338
0.127 2.833 1.516 14685
0.127 2.837 1.508 16187
0.136 3.022 1.599 1323
0.128 2.841 1.500 14094
0.136 3.026 1.590 1843
0.128 2.845 1.492 11061
0.136 3.030 1.582 2125
0.129 2.863 1.491 6032
0.138 3.063 1.587 4599
0.133 2.967 1.530 8542
0.133 2.964 1.518 11078
0.133 2.961 1.506 9145
0.138 3.080 1.551 8085
0.130 2.893 1.465 1397
0.139 3.091 1.546 10469
0.139 3.102 1.540 11738
0.139 3.099 1.528 13277
0.139 3.096 1.516 12431
0.139 3.100 1.507 9696
0.139 3.097 1.495 14224
0.140 3.108 1.489 22030
0.140 3.112 1.480 25908
0.140 3.116 1.471 27016
0.149 3.326 1.563 1515
0.140 3.112 1.459 27108
0.150 3.345 1.560 1822
0.140 3.116 1.450 20773
0.152 3.378 1.562 2299
0.140 3.120 1.441 12121
0.152 3.389 1.556 4369
0.140 3.124 1.432 7658
0.152 3.393 1.546 6072
0.140 3.127 1.423 6090
0.154 3.434 1.552 5582
0.155 3.445 1.545 5157
0.140 3.124 1.411 4157
0.154 3.435 1.529 4414
0.140 3.128 1.402 3345
0.141 3.131 1.394 3778
0.154 3.439 1.519 2981
0.155 3.458 1.515 3223
0.146 3.252 1.432 2895
0.156 3.469 1.508 4549
0.146 3.256 1.423 2177
0.157 3.495 1.507 5102
0.146 3.252 1.410 1939
0.157 3.506 1.500 5816
0.146 3.249 1.398 1751
0.161 3.584 1.518 5302
0.146 3.252 1.389 1308
0.161 3.588 1.508 5567
0.161 3.584 1.495 5860
0.136 3.038 1.285 1375
0.163 3.625 1.498 4995
0.165 3.674 1.505 4503
0.164 3.641 1.480 4897
0.164 3.659 1.475 5667
0.168 3.730 1.489 7739
0.168 3.741 1.481 11257
0.169 3.760 1.476 9113
0.169 3.772 1.468 7423
0.170 3.783 1.459 7769
0.170 3.794 1.451 9024
0.172 3.835 1.453 10284
0.173 3.847 1.445 7690
0.175 3.903 1.451 10763
0.176 3.922 1.445 11606
0.177 3.948 1.441 7814
0.177 3.952 1.430 5763
0.177 3.940 1.414 5370
0.181 4.027 1.429 4722
0.179 3.985 1.403 5519
0.183 4.080 1.420 5588
0.184 4.091 1.411 5359
0.185 4.110 1.404 6009
0.186 4.143 1.401 5343
0.187 4.170 1.396 4633
0.186 4.143 1.375 3283
0.190 4.230 1.388 2382
0.189 4.211 1.369 3586
0.190 4.222 1.359 4176
0.199 4.420 1.417 1347
0.193 4.294 1.367 5074
0.202 4.492 1.424 1372
0.194 4.328 1.363 5080
0.205 4.556 1.428 1371
0.194 4.324 1.349 3956
0.205 4.575 1.420 1805
0.194 4.328 1.336 2695
0.205 4.571 1.404 2575
0.204 4.552 1.385 5721
0.196 4.354 1.330 1853
0.205 4.563 1.374 10300
0.207 4.605 1.371 12697
0.207 4.616 1.360 11379
0.206 4.582 1.336 9000
0.206 4.577 1.321 6596
0.215 4.776 1.373 1561
0.212 4.719 1.343 4819
0.213 4.737 1.333 5073
0.214 4.764 1.326 3819
0.216 4.798 1.319 5043
0.224 4.998 1.369 1562
0.222 4.940 1.339 5672
0.213 4.740 1.290 2228
0.223 4.959 1.329 4945
0.214 4.759 1.280 1771
0.226 5.039 1.333 4338
0.217 4.839 1.285 2580
0.223 4.965 1.300 3919
0.229 5.107 1.318 3947
0.230 5.111 1.303 5487
0.229 5.107 1.287 5334
0.238 5.307 1.332 1896
0.238 5.295 1.314 2941
0.228 5.087 1.267 2556
0.237 5.283 1.295 2711
0.237 5.286 1.280 2528
0.246 5.487 1.323 1475
0.244 5.429 1.294 2750
0.244 5.432 1.278 3381
0.252 5.606 1.298 2385
0.243 5.405 1.256 2035
0.253 5.632 1.287 3023
0.243 5.408 1.241 1809
0.262 5.834 1.328 1601
0.254 5.651 1.274 4187
0.263 5.853 1.314 1520
0.260 5.779 1.282 3312
0.250 5.577 1.242 2125
0.269 5.980 1.322 1373
0.262 5.836 1.276 2932
0.252 5.611 1.232 2314
0.262 5.840 1.259 3313
0.271 6.042 1.298 1449
0.266 5.921 1.257 3875
0.265 5.908 1.237 3459
0.281 6.250 1.301 1718
0.272 6.067 1.248 3699
0.282 6.269 1.286 1606
0.272 6.055 1.228 4818
0.283 6.296 1.272 2046
0.274 6.104 1.219 2987
0.283 6.307 1.255 2986
0.292 6.509 1.291 1367
0.275 6.123 1.204 3059
0.284 6.326 1.239 2851
0.299 6.661 1.298 1857
0.283 6.290 1.214 3370
0.299 6.656 1.277 2036
0.282 6.285 1.195 3196
0.299 6.652 1.257 2755
0.299 6.647 1.236 2786
0.282 6.288 1.177 1890
0.311 6.920 1.282 1709
0.311 6.924 1.262 2676
0.298 6.643 1.216 1832
0.286 6.377 1.172 1310
0.311 6.919 1.240 2886
0.311 6.922 1.220 2071
0.320 7.125 1.252 1472
0.325 7.246 1.250 1866
0.339 7.543 1.295 1538
0.311 6.925 1.200 1416
0.326 7.257 1.230 2063
0.339 7.538 1.272 1677
0.329 7.330 1.219 2090
0.338 7.534 1.249 2052
0.339 7.553 1.230 3112
0.329 7.333 1.198 2409
0.348 7.756 1.259 1626
0.339 7.556 1.208 3284
0.349 7.759 1.237 1956
0.330 7.337 1.177 1523
0.339 7.559 1.186 1935
0.349 7.778 1.216 1725
0.363 8.091 1.260 1562
0.360 8.009 1.225 1832
0.351 7.805 1.197 1724
0.340 7.570 1.165 1499
0.362 8.051 1.207 1793
0.345 7.690 1.159 1538
0.384 8.560 1.275 1355
0.362 8.062 1.184 2394
0.363 8.088 1.164 2146
0.378 8.418 1.206 1317
0.364 8.115 1.143 1541
0.396 8.824 1.206 1605
0.396 8.827 1.180 1923
0.386 8.600 1.153 1323
0.397 8.830 1.154 1842
0.409 9.097 1.185 1315
0.408 9.077 1.156 1875
0.396 8.825 1.128 1358
0.407 9.064 1.128 1907
0.416 9.269 1.151 1356
0.406 9.043 1.099 1529
0.416 9.271 1.124 1468
0.427 9.516 1.066 1903
0.428 9.518 1.038 2525
0.428 9.521 1.011 2680
0.428 9.524 0.983 2838
0.428 9.526 0.955 3213
0.428 9.528 0.928 3513
0.428 9.531 0.900 2657
0.428 9.533 0.872 1874
0.091 1.990 1.567 4218
0.092 1.995 1.561 8437
0.093 2.024 1.574 6699
0.094 2.048 1.583 6907
0.094 2.058 1.581 7262
0.095 2.075 1.585 5550
0.096 2.099 1.593 5226
0.097 2.123 1.600 4375
0.098 2.133 1.599 4181
0.098 2.138 1.593 4181
0.098 2.142 1.587 4187
0.098 2.139 1.576 4276
0.098 2.144 1.570 6262
0.099 2.148 1.564 8249
0.099 2.165 1.566 8102
0.101 2.202 1.582 9402
0.102 2.213 1.580 8607
0.102 2.224 1.579 8043
0.101 2.201 1.555 7101
0.101 2.199 1.544 7236
0.101 2.210 1.542 5394
0.102 2.220 1.540 3663
0.103 2.251 1.551 3873
0.106 2.308 1.579 4856
0.106 2.313 1.572 7409
0.107 2.330 1.574 10078
0.107 2.341 1.571 13110
0.108 2.345 1.565 12294
0.108 2.343 1.554 12058
0.108 2.347 1.547 12666
0.108 2.358 1.544 10336
0.109 2.369 1.542 8449
0.109 2.373 1.535 7201
0.109 2.383 1.532 6087
0.114 2.490 1.586 5370
0.115 2.507 1.587 7349
0.107 2.330 1.483 1502
0.115 2.512 1.580 9233
0.115 2.516 1.573 11117
0.116 2.520 1.565 8409
0.116 2.531 1.562 5777
0.115 2.514 1.543 5171
0.120 2.622 1.595 6367
0.120 2.619 1.583 8203
0.120 2.616 1.572 7782
0.120 2.621 1.564 7528
0.120 2.625 1.557 6753
0.122 2.657 1.564 7592
0.122 2.661 1.557 8963
0.123 2.672 1.553 6965
0.123 2.690 1.553 5110
0.124 2.701 1.549 5095
0.124 2.712 1.545 5791
0.125 2.716 1.537 6244
0.125 2.727 1.533 7068
0.126 2.738 1.529 6299
0.129 2.813 1.557 5227
0.129 2.817 1.549 5624
0.128 2.779 1.519 6696
0.128 2.783 1.511 10344
0.128 2.787 1.503 11316
0.136 2.971 1.595 1448
0.130 2.840 1.520 14542
0.130 2.837 1.508 15965
0.139 3.022 1.599 1322
0.130 2.841 1.500 13871
0.139 3.026 1.590 1945
0.131 2.845 1.492 10937
0.139 3.030 1.582 2143
0.131 2.863 1.491 6119
0.140 3.049 1.580 4409
0.136 2.967 1.530 8472
0.136 2.971 1.522 11279
0.136 2.961 1.506 9458
0.141 3.079 1.551 8108
0.133 2.893 1.465 1477
0.142 3.091 1.546 10487
0.142 3.102 1.540 11716
0.142 3.099 1.528 13321
0.142 3.096 1.516 12499
0.142 3.100 1.507 9478
0.142 3.096 1.495 13638
0.143 3.108 1.489 21342
0.143 3.112 1.480 25354
0.143 3.115 1.471 26480
0.153 3.326 1.563 1669
0.143 3.112 1.459 26648
0.153 3.344 1.560 1969
0.143 3.123 1.454 20612
0.155 3.378 1.562 2495
0.143 3.120 1.441 12178
0.156 3.389 1.556 4648
0.143 3.124 1.432 7786
0.156 3.401 1.549 6333
0.144 3.127 1.423 6100
0.158 3.434 1.552 5652
0.158 3.445 1.545 5148
0.148 3.226 1.454 4314
0.158 3.435 1.529 4808
0.149 3.244 1.451 3436
0.158 3.453 1.525 3989
0.144 3.131 1.394 3471
0.159 3.465 1.518 4834
0.149 3.252 1.432 3035
0.160 3.476 1.511 5796
0.149 3.256 1.423 2397
0.160 3.495 1.507 5954
0.149 3.252 1.410 2242
0.161 3.499 1.497 6999
0.149 3.249 1.398 1981
0.161 3.503 1.487 6485
0.165 3.595 1.511 5633
0.164 3.584 1.495 6116
0.166 3.625 1.498 5216
0.167 3.637 1.491 4761
0.167 3.640 1.480 5121
0.168 3.659 1.475 5722
0.171 3.730 1.489 7818
0.172 3.741 1.481 10921
0.173 3.760 1.476 8862
0.173 3.771 1.468 7248
0.174 3.783 1.459 7407
0.174 3.794 1.451 8405
0.176 3.835 1.453 9841
0.177 3.846 1.445 7460
0.179 3.903 1.451 10430
0.180 3.921 1.445 11440
0.181 3.948 1.441 7650
0.181 3.952 1.430 5589
0.181 3.940 1.414 5409
0.185 4.027 1.429 4649
0.183 3.985 1.403 5270
0.187 4.079 1.420 5499
0.188 4.098 1.413 5015
0.189 4.117 1.406 5811
0.190 4.151 1.404 5200
0.192 4.185 1.401 4514
0.194 4.234 1.403 3280
0.194 4.230 1.388 2799
0.193 4.211 1.369 3712
0.194 4.222 1.359 4255
0.203 4.419 1.417 1300
0.197 4.294 1.367 4812
0.206 4.491 1.424 1375
0.199 4.328 1.363 4807
0.209 4.556 1.428 1390
0.198 4.324 1.349 3883
0.210 4.567 1.417 1936
0.199 4.327 1.336 2703
0.210 4.579 1.406 2493
0.209 4.544 1.383 5216
0.199 4.346 1.328 1705
0.209 4.563 1.374 9766
0.211 4.605 1.371 12008
0.212 4.616 1.360 10835
0.210 4.581 1.336 8522
0.210 4.577 1.321 6206
0.219 4.776 1.373 1553
0.217 4.718 1.343 4664
0.217 4.737 1.333 5087
0.218 4.756 1.324 4193
0.220 4.790 1.318 5395
0.229 4.990 1.367 1675
0.227 4.940 1.339 5680
0.218 4.740 1.290 2342
0.223 4.858 1.305 5412
0.232 5.058 1.353 3323
0.231 5.039 1.333 3986
0.222 4.839 1.285 2637
0.228 4.958 1.298 3669
0.234 5.107 1.318 3854
0.235 5.111 1.303 5659
0.234 5.106 1.287 5475
0.244 5.307 1.332 1928
0.243 5.295 1.314 2780
0.233 5.087 1.267 2603
0.242 5.283 1.295 2444
0.243 5.286 1.280 2333
0.252 5.487 1.323 1455
0.249 5.421 1.293 2897
0.249 5.432 1.278 3578
0.240 5.231 1.236 1409
0.249 5.435 1.263 2446
0.259 5.637 1.305 1494
0.258 5.632 1.287 2842
0.248 5.408 1.241 1860
0.268 5.834 1.328 1727
0.259 5.651 1.274 4138
0.269 5.853 1.314 1565
0.265 5.778 1.282 3294
0.256 5.577 1.242 2204
0.274 5.980 1.322 1374
0.268 5.836 1.276 2778
0.257 5.611 1.232 2374
0.270 5.894 1.270 3242
0.258 5.614 1.216 1318
0.272 5.920 1.257 4113
0.271 5.908 1.237 3704
0.287 6.250 1.301 1785
0.278 6.067 1.248 3516
0.288 6.269 1.286 1626
0.278 6.054 1.228 4667
0.289 6.296 1.272 1933
0.289 6.307 1.255 2871
0.280 6.104 1.219 2725
0.299 6.509 1.291 1385
0.281 6.123 1.204 2894
0.291 6.349 1.243 2711
0.306 6.660 1.298 1859
0.289 6.290 1.214 3237
0.305 6.656 1.277 2083
0.288 6.285 1.195 3068
0.305 6.651 1.257 2752
0.305 6.655 1.238 2745
0.289 6.288 1.177 1839
0.318 6.920 1.282 1617
0.317 6.915 1.260 2605
0.305 6.642 1.216 1749
0.293 6.385 1.174 1421
0.317 6.919 1.240 2822
0.318 6.922 1.220 2051
0.331 7.211 1.266 1363
0.332 7.245 1.250 1793
0.346 7.542 1.295 1432
0.318 6.925 1.200 1364
0.333 7.256 1.230 2030
0.346 7.546 1.274 1602
0.336 7.322 1.218 2175
0.345 7.526 1.248 1866
0.347 7.552 1.230 2754
0.337 7.333 1.198 2509
0.356 7.756 1.259 1629
0.347 7.555 1.208 2949
0.356 7.759 1.237 1984
0.337 7.336 1.177 1553
0.357 7.778 1.216 1796
0.347 7.566 1.187 1768
0.371 8.091 1.260 1589
0.358 7.804 1.197 1843
0.367 8.008 1.225 1798
0.347 7.569 1.165 1410
0.369 8.050 1.207 1825
0.353 7.690 1.159 1693
0.393 8.560 1.275 1322
0.370 8.061 1.184 2455
0.371 8.088 1.164 2132
0.372 8.114 1.143 1531
0.405 8.824 1.206 1565
0.405 8.827 1.180 1824
0.405 8.830 1.154 1789
0.417 9.089 1.184 1303
0.417 9.077 1.156 1942
0.405 8.833 1.129 1376
0.416 9.072 1.129 1950
0.426 9.276 1.151 1345
0.426 9.279 1.124 1556
0.415 9.043 1.099 1501
0.436 9.510 1.121 1334
0.437 9.513 1.094 1495
0.437 9.515 1.066 2165
0.437 9.518 1.038 2887
0.437 9.521 1.011 2918
0.437 9.523 0.983 2897
0.437 9.526 0.955 3355
0.437 9.528 0.928 3713
0.437 9.530 0.900 2763
0.437 9.532 0.872 1913
0.438 9.534 0.844 1333
0.092 1.990 1.567 4161
0.093 1.995 1.561 8323
0.094 2.024 1.574 6402
0.095 2.048 1.583 6563
0.095 2.058 1.581 6973
0.097 2.082 1.589 5543
0.098 2.105 1.597 5554
0.098 2.123 1.600 5061
0.099 2.133 1.599 4952
0.099 2.138 1.593 4952
0.099 2.142 1.587 4782
0.100 2.159 1.589 4626
0.099 2.144 1.570 6432
0.100 2.148 1.564 8263
0.100 2.165 1.566 7972
0.102 2.202 1.582 9273
0.103 2.213 1.580 8798
0.103 2.224 1.579 8427
0.102 2.201 1.555 7321
0.102 2.199 1.544 7256
0.103 2.210 1.542 5335
0.103 2.214 1.536 3511
0.104 2.251 1.551 3791
0.107 2.302 1.574 4700
0.107 2.313 1.572 7413
0.108 2.330 1.574 9983
0.109 2.341 1.571 13037
0.109 2.345 1.565 12264
0.109 2.343 1.554 12135
0.109 2.347 1.547 12839
0.109 2.358 1.544 10528
0.110 2.362 1.538 8580
0.110 2.373 1.535 7130
0.111 2.383 1.532 5858
0.115 2.489 1.586 5251
0.116 2.507 1.587 7032
0.108 2.330 1.483 1478
0.117 2.511 1.580 8881
0.117 2.516 1.573 10731
0.117 2.520 1.565 8127
0.117 2.531 1.562 5610
0.117 2.514 1.543 4797
0.122 2.622 1.595 6030
0.122 2.619 1.583 7695
0.121 2.616 1.572 7214
0.121 2.614 1.560 6926
0.122 2.625 1.557 6402
0.123 2.657 1.564 7851
0.124 2.668 1.561 9292
0.124 2.672 1.553 7256
0.125 2.690 1.553 4943
0.125 2.701 1.549 4574
0.126 2.719 1.548 5704
0.126 2.723 1.541 6505
0.127 2.734 1.536 7490
0.127 2.738 1.529 6878
0.130 2.813 1.557 5277
0.131 2.817 1.549 5799
0.129 2.786 1.523 6460
0.129 2.783 1.511 9771
0.133 2.857 1.539 11124
0.132 2.847 1.524 14387
0.132 2.837 1.508 15658
0.140 3.022 1.599 1376
0.132 2.841 1.500 13575
0.140 3.026 1.590 2065
0.132 2.845 1.492 10745
0.141 3.030 1.582 2214
0.133 2.863 1.491 6154
0.141 3.048 1.580 4222
0.138 2.974 1.534 8311
0.138 2.971 1.522 11199
0.137 2.961 1.506 9513
0.143 3.079 1.551 8028
0.134 2.893 1.465 1592
0.143 3.084 1.543 10477
0.144 3.102 1.540 11707
0.144 3.099 1.528 13271
0.144 3.103 1.519 12395
0.144 3.100 1.507 9080
0.144 3.096 1.495 12921
0.144 3.108 1.489 20544
0.144 3.112 1.480 24636
0.145 3.115 1.471 25693
0.154 3.326 1.563 1854
0.144 3.112 1.459 25898
0.155 3.344 1.560 2111
0.145 3.123 1.454 20285
0.157 3.378 1.562 2689
0.145 3.120 1.441 12102
0.158 3.396 1.559 4884
0.145 3.123 1.432 7761
0.158 3.400 1.549 6528
0.145 3.127 1.423 5914
0.159 3.426 1.549 5894
0.159 3.438 1.542 5516
0.150 3.226 1.454 4730
0.160 3.442 1.532 5283
0.150 3.237 1.448 3927
0.161 3.461 1.528 4490
0.151 3.248 1.441 3758
0.161 3.472 1.521 4475
0.151 3.259 1.435 3159
0.161 3.476 1.511 4004
0.151 3.248 1.420 2582
0.163 3.517 1.515 4384
0.151 3.245 1.407 2416
0.163 3.513 1.502 5533
0.151 3.248 1.398 2011
0.167 3.591 1.521 5035
0.167 3.595 1.511 5767
0.167 3.592 1.498 6406
0.168 3.625 1.498 5478
0.169 3.636 1.491 5116
0.169 3.640 1.480 5316
0.170 3.659 1.475 5831
0.173 3.730 1.489 7762
0.174 3.741 1.481 10380
0.174 3.760 1.476 8452
0.175 3.779 1.470 7088
0.175 3.783 1.459 7169
0.176 3.801 1.454 7939
0.178 3.835 1.453 9376
0.178 3.846 1.445 7215
0.181 3.910 1.454 9963
0.182 3.921 1.445 11107
0.183 3.940 1.439 7306
0.183 3.951 1.430 5210
0.183 3.940 1.414 5169
0.187 4.034 1.432 4495
0.185 3.985 1.403 4838
0.189 4.079 1.420 5422
0.190 4.098 1.413 4806
0.191 4.124 1.409 5497
0.193 4.151 1.404 5044
0.194 4.185 1.401 4446
0.196 4.234 1.403 3641
0.197 4.237 1.390 3240
0.196 4.218 1.371 3799
0.196 4.222 1.359 4290
0.199 4.286 1.365 4531
0.209 4.499 1.426 1346
0.201 4.328 1.363 4508
0.211 4.548 1.426 1413
0.201 4.324 1.349 3583
0.212 4.567 1.417 2052
0.201 4.327 1.336 2526
0.212 4.571 1.404 2488
0.210 4.529 1.378 4723
0.201 4.331 1.324 1497
0.212 4.563 1.374 9083
0.213 4.597 1.369 11213
0.214 4.608 1.357 10183
0.213 4.581 1.336 7864
0.212 4.577 1.321 5747
0.222 4.776 1.373 1540
0.219 4.711 1.341 4504
0.220 4.737 1.333 5070
0.221 4.756 1.324 4513
0.222 4.790 1.318 5773
0.231 4.990 1.367 1581
0.229 4.939 1.339 5493
0.220 4.740 1.290 2538
0.225 4.858 1.305 5229
0.235 5.058 1.353 3006
0.232 5.008 1.326 3385
0.223 4.808 1.278 1636
0.230 4.957 1.298 3408
0.237 5.107 1.318 3791
0.237 5.111 1.303 5848
0.237 5.106 1.287 5683
0.246 5.307 1.332 1916
0.236 5.086 1.267 2641
0.246 5.302 1.315 2551
0.245 5.283 1.295 2156
0.245 5.286 1.280 2171
0.255 5.487 1.323 1472
0.251 5.413 1.291 2885
0.252 5.432 1.278 3524
0.243 5.231 1.236 1573
0.260 5.598 1.297 2441
0.250 5.396 1.255 2002
0.261 5.624 1.285 2754
0.251 5.407 1.241 1840
0.271 5.834 1.328 1805
0.262 5.651 1.274 4066
0.272 5.852 1.314 1657
0.268 5.778 1.282 3320
0.259 5.577 1.242 2376
0.271 5.836 1.276 2620
0.260 5.611 1.232 2451
0.274 5.909 1.273 3385
0.265 5.707 1.234 1496
0.275 5.920 1.257 4351
0.274 5.916 1.238 3922
0.290 6.250 1.301 1804
0.281 6.067 1.248 3327
0.291 6.269 1.286 1585
0.281 6.046 1.227 4475
0.290 6.249 1.263 1874
0.300 6.467 1.303 1440
0.293 6.306 1.255 2675
0.280 6.026 1.205 2626
0.302 6.509 1.291 1358
0.284 6.131 1.205 2659
0.295 6.356 1.245 2541
0.309 6.660 1.298 1814
0.292 6.290 1.214 3048
0.309 6.656 1.277 2074
0.292 6.285 1.195 2889
0.309 6.659 1.258 2713
0.309 6.655 1.238 2703
0.292 6.288 1.177 1797
0.321 6.912 1.280 1500
0.321 6.915 1.260 2487
0.308 6.642 1.216 1651
0.296 6.385 1.174 1537
0.321 6.919 1.240 2795
0.321 6.922 1.220 2111
0.336 7.245 1.250 1672
0.321 6.925 1.200 1392
0.337 7.256 1.230 1927
0.346 7.467 1.262 1651
0.340 7.330 1.219 2199
0.350 7.541 1.250 1633
0.340 7.333 1.198 2599
0.350 7.552 1.230 2422
0.360 7.756 1.259 1618
0.351 7.555 1.208 2656
0.360 7.759 1.237 2023
0.340 7.336 1.177 1616
0.361 7.778 1.216 1891
0.375 8.083 1.259 1669
0.351 7.566 1.187 1629
0.362 7.804 1.197 1920
0.372 8.008 1.225 1751
0.374 8.058 1.208 1811
0.357 7.690 1.159 1776
0.374 8.069 1.185 2453
0.375 8.088 1.164 2126
0.376 8.114 1.143 1502
0.409 8.824 1.206 1534
0.410 8.835 1.181 1760
0.410 8.830 1.154 1750
0.421 9.081 1.184 1307
0.421 9.076 1.156 2029
0.410 8.833 1.129 1408
0.421 9.071 1.129 2021
0.430 9.276 1.151 1439
0.430 9.279 1.124 1700
0.420 9.043 1.099 1482
0.441 9.510 1.121 1491
0.441 9.512 1.094 1683
0.441 9.515 1.066 2388
0.442 9.518 1.038 3202
0.442 9.520 1.011 3150
0.442 9.523 0.983 2989
0.442 9.525 0.955 3539
0.442 9.528 0.928 3947
0.442 9.530 0.900 2888
0.442 9.532 0.872 1971
0.442 9.534 0.844 1381
0.094 1.990 1.567 4134
0.095 1.994 1.561 8269
0.096 2.024 1.574 6221
0.097 2.048 1.583 6334
0.098 2.058 1.581 6807
0.099 2.088 1.594 5703
0.100 2.105 1.597 5981
0.101 2.122 1.600 5688
0.101 2.133 1.599 5630
0.101 2.137 1.593 5630
0.102 2.142 1.587 5326
0.102 2.159 1.589 5193
0.102 2.150 1.574 6633
0.102 2.148 1.564 8283
0.103 2.165 1.566 7860
0.105 2.208 1.587 9109
0.105 2.213 1.580 8944
0.106 2.223 1.579 8792
0.104 2.201 1.555 7560
0.104 2.199 1.544 7312
0.105 2.209 1.542 5310
0.105 2.214 1.536 3415
0.107 2.251 1.551 3689
0.109 2.295 1.570 4684
0.109 2.306 1.568 7452
0.111 2.330 1.574 9891
0.111 2.341 1.571 12941
0.111 2.345 1.565 12232
0.111 2.343 1.554 12239
0.111 2.347 1.547 13047
0.112 2.357 1.544 10751
0.112 2.362 1.538 8751
0.113 2.372 1.535 7100
0.113 2.383 1.532 5684
0.118 2.489 1.586 5101
0.119 2.507 1.587 6665
0.111 2.330 1.483 1464
0.119 2.511 1.580 8467
0.119 2.516 1.573 10269
0.120 2.527 1.569 7791
0.120 2.531 1.562 5403
0.120 2.521 1.547 4437
0.124 2.622 1.595 5692
0.124 2.619 1.583 7192
0.125 2.623 1.576 6661
0.124 2.613 1.560 6370
0.126 2.645 1.568 6078
0.126 2.656 1.564 8098
0.127 2.667 1.561 9692
0.127 2.679 1.557 7594
0.128 2.690 1.553 4822
0.129 2.708 1.553 4165
0.129 2.719 1.548 5678
0.129 2.723 1.541 6779
0.130 2.734 1.536 7853
0.130 2.731 1.525 7420
0.133 2.812 1.557 5239
0.134 2.824 1.552 5933
0.132 2.785 1.523 6348
0.132 2.782 1.511 9310
0.136 2.857 1.539 11272
0.135 2.854 1.527 14264
0.135 2.837 1.508 15310
0.143 3.021 1.599 1470
0.135 2.841 1.500 13272
0.144 3.026 1.590 2171
0.135 2.845 1.492 10557
0.144 3.030 1.582 2236
0.136 2.863 1.491 6232
0.145 3.048 1.580 4045
0.141 2.974 1.534 8623
0.141 2.971 1.522 11716
0.141 2.961 1.506 10006
0.146 3.079 1.551 7711
0.137 2.893 1.465 1677
0.146 3.083 1.543 10151
0.147 3.102 1.540 11378
0.147 3.099 1.528 12956
0.147 3.103 1.519 12100
0.147 3.100 1.507 8563
0.147 3.096 1.495 12126
0.147 3.107 1.489 19689
0.148 3.111 1.480 23839
0.148 3.115 1.471 24773
0.158 3.326 1.563 2013
0.148 3.112 1.459 25040
0.158 3.337 1.556 2234
0.148 3.123 1.454 19907
0.160 3.377 1.562 2836
0.148 3.120 1.441 11987
0.161 3.396 1.559 5032
0.148 3.123 1.432 7617
0.161 3.400 1.549 6592
0.163 3.426 1.549 6118
0.153 3.215 1.460 5894
0.163 3.438 1.542 5877
0.153 3.226 1.454 5165
0.163 3.442 1.532 5413
0.154 3.244 1.451 4202
0.164 3.453 1.525 4193
0.155 3.255 1.444 3759
0.165 3.472 1.521 4060
0.155 3.259 1.435 3277
0.165 3.468 1.508 3923
0.154 3.248 1.420 2915
0.167 3.509 1.513 4796
0.154 3.245 1.407 2604
0.167 3.513 1.502 5854
0.155 3.256 1.401 2102
0.170 3.591 1.521 4975
0.171 3.602 1.514 5843
0.170 3.591 1.498 6626
0.172 3.618 1.496 5702
0.173 3.636 1.491 5429
0.173 3.640 1.480 5569
0.174 3.659 1.475 5970
0.177 3.730 1.489 7686
0.178 3.741 1.481 9905
0.178 3.760 1.476 8109
0.179 3.779 1.470 7021
0.180 3.782 1.459 6908
0.180 3.801 1.454 7467
0.182 3.835 1.453 8943
0.183 3.846 1.445 6981
0.186 3.910 1.454 9528
0.186 3.921 1.445 10810
0.187 3.940 1.439 7018
0.188 3.951 1.430 4903
0.187 3.940 1.414 5037
0.191 4.034 1.432 4393
0.193 4.068 1.430 4634
0.194 4.079 1.420 5394
0.195 4.098 1.413 4610
0.196 4.124 1.409 5172
0.197 4.158 1.406 4878
0.199 4.192 1.403 4351
0.201 4.234 1.403 3913
0.201 4.237 1.390 3611
0.200 4.218 1.371 3880
0.200 4.222 1.359 4313
0.203 4.286 1.365 4458
0.205 4.328 1.363 4206
0.216 4.548 1.426 1428
0.206 4.331 1.351 3273
0.217 4.567 1.417 2135
0.210 4.418 1.362 2627
0.215 4.529 1.378 4251
0.206 4.330 1.324 1363
0.217 4.563 1.374 8213
0.218 4.597 1.369 10251
0.209 4.398 1.315 1412
0.219 4.608 1.357 9389
0.209 4.409 1.304 1430
0.218 4.589 1.338 7055
0.217 4.577 1.321 5182
0.227 4.776 1.373 1557
0.224 4.710 1.341 4411
0.225 4.737 1.333 4979
0.225 4.748 1.322 4856
0.235 4.947 1.372 1309
0.227 4.790 1.318 5914
0.237 4.989 1.367 1473
0.234 4.939 1.339 5240
0.225 4.740 1.290 2732
0.231 4.858 1.305 5129
0.240 5.058 1.353 2807
0.237 4.992 1.322 3344
0.227 4.792 1.274 1448
0.236 4.965 1.300 3310
0.242 5.107 1.318 3602
0.243 5.110 1.303 5868
0.252 5.311 1.350 1331
0.242 5.106 1.287 5716
0.252 5.306 1.332 1943
0.241 5.086 1.267 2650
0.252 5.302 1.315 2428
0.247 5.213 1.280 2111
0.259 5.452 1.332 1368
0.251 5.286 1.280 2044
0.261 5.494 1.325 1387
0.257 5.405 1.289 3122
0.258 5.432 1.278 3679
0.248 5.230 1.236 1718
0.258 5.443 1.264 2611
0.272 5.737 1.326 1545
0.267 5.616 1.284 2721
0.257 5.407 1.241 1964
0.277 5.833 1.328 1910
0.268 5.651 1.274 4001
0.278 5.852 1.314 1728
0.274 5.778 1.282 3350
0.265 5.576 1.242 2594
0.266 5.611 1.232 2559
0.280 5.890 1.287 2527
0.281 5.917 1.274 3504
0.271 5.715 1.235 1701
0.281 5.920 1.257 4417
0.280 5.908 1.237 3980
0.297 6.250 1.301 1661
0.288 6.058 1.247 3126
0.297 6.261 1.284 1576
0.287 6.038 1.225 4365
0.296 6.241 1.262 1865
0.307 6.474 1.304 1318
0.296 6.228 1.241 2664
0.286 6.026 1.205 2618
0.308 6.485 1.287 1372
0.296 6.232 1.223 2508
0.316 6.660 1.298 1757
0.305 6.434 1.259 1636
0.299 6.289 1.214 2875
0.316 6.655 1.277 2023
0.299 6.292 1.196 2741
0.316 6.659 1.258 2653
0.316 6.654 1.238 2642
0.303 6.381 1.192 1876
0.328 6.912 1.280 1522
0.328 6.915 1.260 2522
0.303 6.376 1.172 1668
0.315 6.642 1.216 1574
0.328 6.918 1.240 2861
0.329 6.921 1.220 2218
0.344 7.253 1.251 1583
0.329 6.924 1.200 1502
0.344 7.256 1.230 1879
0.354 7.459 1.260 1674
0.348 7.329 1.219 2201
0.363 7.658 1.268 1535
0.348 7.333 1.198 2598
0.358 7.552 1.230 2129
0.368 7.755 1.259 1570
0.359 7.563 1.209 2423
0.369 7.766 1.238 1939
0.348 7.336 1.177 1616
0.369 7.777 1.216 1955
0.384 8.083 1.259 1704
0.359 7.566 1.187 1523
0.370 7.804 1.197 1985
0.380 8.008 1.225 1685
0.365 7.689 1.159 1857
0.382 8.058 1.208 1802
0.383 8.069 1.185 2483
0.384 8.087 1.164 2143
0.385 8.114 1.143 1495
0.419 8.823 1.206 1522
0.419 8.834 1.181 1721
0.419 8.837 1.155 1736
0.431 9.076 1.156 2079
0.417 8.793 1.124 1479
0.431 9.071 1.129 2067
0.440 9.275 1.151 1500
0.417 8.788 1.098 1429
0.440 9.278 1.124 1828
0.429 9.042 1.099 1486
0.451 9.509 1.121 1625
0.451 9.512 1.094 1844
0.452 9.515 1.066 2612
0.452 9.517 1.038 3557
0.452 9.520 1.011 3426
0.452 9.522 0.983 3117
0.452 9.525 0.955 3742
0.452 9.527 0.928 4187
0.452 9.529 0.900 3004
0.452 9.532 0.872 1999
0.453 9.534 0.844 1423
0.096 1.990 1.567 4124
0.096 1.994 1.561 8248
0.096 2.005 1.560 6129
0.099 2.054 1.587 6041
0.099 2.065 1.586 6580
0.101 2.095 1.598 5925
0.101 2.112 1.602 6511
0.102 2.122 1.600 6353
0.102 2.133 1.599 6365
0.103 2.137 1.593 6365
0.103 2.142 1.587 5917
0.104 2.159 1.589 5822
0.103 2.150 1.574 6861
0.103 2.154 1.568 8252
0.104 2.158 1.562 7743
0.106 2.208 1.587 9049
0.106 2.213 1.580 9195
0.106 2.217 1.574 9340
0.106 2.201 1.555 7832
0.106 2.199 1.544 7311
0.106 2.209 1.542 5218
0.106 2.213 1.536 3224
0.108 2.251 1.551 3641
0.110 2.288 1.566 4920
0.111 2.306 1.568 7614
0.112 2.323 1.570 9881
0.112 2.334 1.567 12908
0.112 2.338 1.560 12256
0.112 2.342 1.554 12398
0.113 2.347 1.547 13334
0.113 2.351 1.540 11074
0.113 2.362 1.538 8991
0.114 2.372 1.535 7133
0.114 2.383 1.532 5564
0.120 2.496 1.590 4909
0.111 2.319 1.485 1495
0.120 2.507 1.587 6216
0.112 2.330 1.483 1446
0.121 2.511 1.580 7967
0.121 2.515 1.573 9718
0.121 2.527 1.569 7408
0.121 2.531 1.562 5168
0.121 2.521 1.547 4056
0.126 2.622 1.595 5355
0.126 2.626 1.587 6708
0.126 2.623 1.576 6113
0.125 2.613 1.560 5793
0.127 2.645 1.568 5927
0.128 2.663 1.568 8417
0.128 2.667 1.561 10137
0.129 2.679 1.557 8003
0.129 2.690 1.553 4698
0.131 2.722 1.560 3778
0.131 2.726 1.552 5599
0.131 2.730 1.544 6982
0.131 2.734 1.536 8124
0.131 2.731 1.525 7909
0.131 2.735 1.517 5788
0.136 2.824 1.552 6039
0.134 2.785 1.523 6234
0.134 2.782 1.511 8701
0.137 2.857 1.539 11435
0.137 2.854 1.527 14170
0.136 2.837 1.508 14843
0.145 3.021 1.599 1591
0.136 2.841 1.500 12815
0.145 3.026 1.590 2296
0.137 2.845 1.492 10245
0.145 3.030 1.582 2302
0.137 2.863 1.491 6255
0.146 3.048 1.580 3896
0.143 2.981 1.537 8946
0.143 2.971 1.522 12076
0.142 2.961 1.506 10405
0.148 3.079 1.551 7531
0.139 2.893 1.465 1727
0.148 3.083 1.543 9965
0.149 3.102 1.540 11161
0.149 3.099 1.528 12674
0.149 3.103 1.519 11748
0.149 3.099 1.507 8061
0.149 3.096 1.495 11385
0.149 3.107 1.489 18857
0.149 3.111 1.480 23046
0.150 3.115 1.471 23778
0.160 3.325 1.563 2172
0.149 3.112 1.459 24083
0.160 3.330 1.553 2338
0.150 3.123 1.454 19459
