2.224 2.202 1.466 8215
2.222 2.200 1.454 7949
2.214 2.192 1.438 6250
2.289 2.267 1.472 6284
2.287 2.264 1.460 13157
2.290 2.267 1.451 17111
2.292 2.270 1.442 12683
2.295 2.272 1.432 7239
2.298 2.275 1.423 4719
2.337 2.314 1.434 7504
2.345 2.322 1.428 11182
2.353 2.330 1.421 8876
2.355 2.332 1.412 4972
2.405 2.382 1.428 3832
2.413 2.389 1.421 6648
2.421 2.397 1.414 7895
2.476 2.452 1.432 6142
2.495 2.470 1.430 6991
2.497 2.473 1.420 7993
2.526 2.502 1.424 8168
2.529 2.504 1.414 8862
2.667 2.640 1.484 1344
2.521 2.496 1.398 7988
2.659 2.633 1.468 2064
2.534 2.509 1.393 6708
2.693 2.667 1.473 3637
2.707 2.680 1.467 4861
2.548 2.523 1.388 4188
2.715 2.688 1.459 6099
2.571 2.546 1.388 2899
2.723 2.696 1.451 5889
2.574 2.549 1.378 1826
2.720 2.693 1.437 5487
2.707 2.680 1.418 6724
2.773 2.746 1.438 7615
2.635 2.609 1.372 2665
2.776 2.749 1.426 6135
2.789 2.762 1.420 4331
2.803 2.775 1.414 2941
2.827 2.799 1.412 2127
2.797 2.770 1.386 3896
2.816 2.788 1.382 4706
2.824 2.796 1.373 6088
2.832 2.804 1.364 5830
2.845 2.817 1.357 6422
2.848 2.820 1.346 7899
2.845 2.817 1.332 7046
2.842 2.814 1.318 6018
2.850 2.822 1.309 9575
2.852 2.824 1.297 12869
2.854 2.826 1.285 8057
2.841 2.813 1.267 5013
3.052 3.022 1.352 1589
2.854 2.826 1.260 11950
3.059 3.029 1.342 2328
2.856 2.828 1.249 15259
3.067 3.037 1.332 2769
3.208 3.177 1.387 1961
2.858 2.830 1.237 9794
3.064 3.034 1.317 3176
3.205 3.174 1.372 2851
2.855 2.827 1.223 7642
3.202 3.171 1.357 3507
3.061 3.031 1.303 2980
2.857 2.829 1.212 5162
3.200 3.168 1.342 3691
3.058 3.028 1.288 2127
2.865 2.837 1.202 3584
3.202 3.171 1.329 3394
3.061 3.031 1.276 1417
2.867 2.839 1.191 3228
3.205 3.173 1.316 2860
3.368 3.335 1.376 2239
2.957 2.928 1.211 3262
3.376 3.343 1.365 3094
3.218 3.186 1.307 2651
2.959 2.930 1.199 4388
3.356 3.323 1.343 3677
3.215 3.183 1.292 2003
3.386 3.353 1.339 4658
2.961 2.932 1.187 2597
3.228 3.196 1.283 1607
3.394 3.361 1.327 6907
3.536 3.501 1.378 1804
2.865 2.837 1.140 1504
3.402 3.369 1.316 6573
3.544 3.509 1.365 2347
3.410 3.376 1.304 4590
3.552 3.517 1.353 2805
3.262 3.230 1.253 1517
3.543 3.509 1.335 5628
3.401 3.368 1.286 3594
3.259 3.227 1.238 1972
3.540 3.506 1.318 7397
3.398 3.365 1.270 2328
3.256 3.224 1.223 1690
3.532 3.497 1.300 4496
3.286 3.253 1.218 1583
3.622 3.586 1.315 2702
3.635 3.600 1.303 3282
3.643 3.608 1.290 2644
3.679 3.642 1.286 2469
3.697 3.661 1.276 1680
3.788 3.751 1.288 2766
3.774 3.737 1.268 3587
3.787 3.750 1.256 7575
3.789 3.752 1.240 11601
3.932 3.894 1.282 1395
3.792 3.754 1.225 9034
3.935 3.896 1.266 3670
3.805 3.767 1.212 7857
3.948 3.909 1.253 5093
3.812 3.775 1.198 9851
3.956 3.917 1.239 6482
3.947 3.908 1.220 8770
3.804 3.766 1.180 6740
3.949 3.911 1.203 10512
3.806 3.768 1.164 4341
3.946 3.907 1.186 13918
3.802 3.765 1.147 2110
3.948 3.909 1.170 17365
4.092 4.052 1.208 1377
3.956 3.917 1.155 15730
4.100 4.059 1.193 1344
3.952 3.914 1.138 9238
4.096 4.056 1.174 1592
4.373 4.330 1.245 1369
3.999 3.960 1.133 4541
4.375 4.332 1.227 2074
4.525 4.480 1.265 1370
4.006 3.967 1.118 4882
4.378 4.335 1.209 3216
4.527 4.483 1.246 2269
4.014 3.974 1.103 6118
4.380 4.337 1.192 3514
4.524 4.480 1.226 2984
4.021 3.982 1.088 5723
4.515 4.471 1.205 2594
4.371 4.328 1.171 1900
4.023 3.984 1.071 4144
4.567 4.522 1.199 1800
4.025 3.986 1.055 2775
4.581 4.536 1.183 2308
4.375 4.332 1.135 1357
4.622 4.576 1.173 2468
4.027 3.988 1.039 1876
4.772 4.725 1.206 1591
4.590 4.545 1.146 1829
4.840 4.793 1.202 1820
4.843 4.795 1.182 2288
4.592 4.547 1.128 2019
4.722 4.676 1.136 2215
5.045 4.995 1.205 1473
4.578 4.533 1.105 1438
4.713 4.667 1.115 2272
4.858 4.810 1.145 1988
5.047 4.998 1.184 1324
4.854 4.807 1.124 2694
4.710 4.663 1.094 1871
4.856 4.809 1.104 2429
5.090 5.040 1.151 1462
4.853 4.805 1.083 2285
5.087 5.037 1.129 1709
5.273 5.221 1.144 2382
4.860 4.813 1.064 2012
5.106 5.056 1.112 1603
5.281 5.229 1.123 3361
5.108 5.057 1.091 1498
4.957 4.908 1.062 1310
5.283 5.231 1.102 2972
5.104 5.054 1.069 1450
5.301 5.249 1.083 2371
5.547 5.492 1.127 1637
5.112 5.061 1.049 1366
5.549 5.494 1.104 2966
5.314 5.262 1.063 2944
5.767 5.710 1.142 1542
5.551 5.496 1.082 3426
5.316 5.264 1.042 3232
5.763 5.706 1.118 1513
5.307 5.255 1.018 2968
5.553 5.498 1.059 2873
5.771 5.714 1.095 1403
5.320 5.268 0.998 2260
5.549 5.495 1.035 1815
5.784 5.727 1.074 1371
5.338 5.286 0.979 1818
5.924 5.865 1.023 1476
5.937 5.878 1.000 1772
5.955 5.897 0.978 1441
6.582 6.517 1.067 1427
6.584 6.519 1.040 1468
6.110 6.050 0.950 1684
6.603 6.538 1.016 1651
6.604 6.539 0.989 2095
6.117 6.057 0.926 1688
6.612 6.547 0.963 2483
6.130 6.070 0.902 1330
6.619 6.554 0.936 1962
6.621 6.556 0.909 1412
6.772 6.705 0.927 1356
6.774 6.707 0.899 1312
1.381 1.365 1.530 1822
1.384 1.368 1.524 3644
1.432 1.416 1.565 4060
1.435 1.418 1.559 4944
1.438 1.421 1.554 4944
1.441 1.424 1.548 5250
1.448 1.432 1.547 5711
1.456 1.439 1.545 6277
1.463 1.447 1.544 6944
1.476 1.459 1.547 5832
1.488 1.471 1.550 7589
1.491 1.474 1.545 9660
1.498 1.481 1.543 8803
1.506 1.488 1.541 8027
1.513 1.496 1.540 6694
1.558 1.540 1.574 6577
1.566 1.548 1.572 6004
1.574 1.556 1.570 5826
1.586 1.568 1.572 4751
1.603 1.585 1.579 4282
1.601 1.583 1.568 4618
1.609 1.591 1.566 5508
1.612 1.593 1.559 6080
1.620 1.601 1.557 5131
1.627 1.609 1.555 4366
1.649 1.630 1.565 4232
1.667 1.647 1.571 5362
1.660 1.641 1.556 5612
1.654 1.634 1.541 6991
1.652 1.633 1.531 7348
1.655 1.635 1.524 7168
1.662 1.643 1.521 7334
1.694 1.674 1.539 6849
1.702 1.682 1.536 6912
1.695 1.675 1.522 5386
1.688 1.669 1.507 4780
1.691 1.671 1.500 3459
1.772 1.751 1.557 3227
1.775 1.754 1.550 4067
1.773 1.752 1.539 5883
1.776 1.755 1.531 7917
1.788 1.768 1.532 7891
1.796 1.775 1.529 7157
1.804 1.783 1.525 5284
1.807 1.786 1.518 3309
1.824 1.803 1.522 5241
1.832 1.811 1.519 8829
1.840 1.819 1.515 10815
1.848 1.826 1.512 10870
1.856 1.834 1.508 13600
1.858 1.837 1.500 15947
1.861 1.840 1.493 15979
1.879 1.857 1.497 13646
1.887 1.865 1.493 13779
1.895 1.873 1.489 11847
1.922 1.900 1.499 10850
1.930 1.908 1.495 12279
1.933 1.911 1.487 11228
1.941 1.918 1.483 13269
1.949 1.926 1.479 17613
1.956 1.934 1.474 19320
1.964 1.942 1.470 15819
2.013 1.989 1.493 16024
2.015 1.992 1.485 17764
2.018 1.995 1.477 16061
2.021 1.998 1.469 7859
2.075 2.051 1.495 4488
2.077 2.053 1.486 5451
2.075 2.051 1.475 5753
2.073 2.049 1.463 6447
2.065 2.041 1.448 6500
2.063 2.039 1.436 5353
2.127 2.102 1.467 5114
2.145 2.120 1.468 6935
2.148 2.123 1.460 4742
2.223 2.197 1.496 4172
2.236 2.210 1.493 4192
2.223 2.198 1.475 5651
2.226 2.200 1.466 8200
2.224 2.198 1.454 8056
2.216 2.190 1.438 6530
2.291 2.265 1.472 6186
2.289 2.262 1.460 13039
2.292 2.265 1.451 16844
2.299 2.273 1.445 12462
2.297 2.270 1.432 6882
2.247 2.221 1.393 4939
2.383 2.356 1.470 3051
2.339 2.312 1.434 7382
2.347 2.320 1.428 11148
2.355 2.327 1.421 8746
2.357 2.330 1.412 4572
2.413 2.385 1.431 4118
2.415 2.387 1.421 6651
2.434 2.405 1.420 7948
2.436 2.408 1.410 6680
2.502 2.473 1.433 7378
2.505 2.476 1.423 8516
2.529 2.499 1.424 9316
2.526 2.497 1.411 9868
2.664 2.633 1.481 1506
2.523 2.494 1.398 8547
2.661 2.630 1.468 1918
2.537 2.507 1.393 6815
2.696 2.664 1.473 3812
2.709 2.678 1.467 4990
2.550 2.520 1.388 4292
2.717 2.686 1.459 6079
2.568 2.539 1.386 3109
2.725 2.694 1.451 6071
2.576 2.546 1.378 1936
2.728 2.696 1.440 5769
2.709 2.678 1.418 7408
2.776 2.744 1.438 7627
2.637 2.607 1.372 2505
2.773 2.741 1.424 6173
2.792 2.760 1.420 4384
2.805 2.773 1.414 3338
2.819 2.786 1.407 2530
2.811 2.778 1.391 3677
2.824 2.791 1.384 4757
2.826 2.794 1.373 6387
2.834 2.802 1.364 6217
2.848 2.815 1.357 7011
2.850 2.817 1.346 8695
2.847 2.814 1.332 7314
2.850 2.817 1.320 5968
2.852 2.819 1.309 10254
2.855 2.822 1.297 14103
2.857 2.824 1.285 8694
2.843 2.810 1.267 4544
3.049 3.014 1.350 2023
2.856 2.823 1.260 11187
3.062 3.027 1.342 2710
2.859 2.826 1.249 15438
3.065 3.029 1.330 3109
3.206 3.169 1.385 2366
2.861 2.828 1.237 10457
3.067 3.032 1.317 3561
3.208 3.171 1.372 3212
2.858 2.825 1.223 7437
3.205 3.168 1.357 3599
3.064 3.029 1.303 3153
2.860 2.827 1.212 5099
3.197 3.160 1.340 3890
3.056 3.020 1.286 1754
2.868 2.834 1.202 3887
3.199 3.162 1.327 3672
2.870 2.837 1.191 3205
3.207 3.170 1.316 3017
3.371 3.332 1.376 1820
3.215 3.178 1.305 3366
2.959 2.925 1.211 3088
3.390 3.350 1.369 2758
2.961 2.927 1.199 4256
3.354 3.315 1.341 3406
3.212 3.175 1.290 2422
3.373 3.334 1.333 4199
2.964 2.929 1.187 2468
3.231 3.194 1.283 1685
3.403 3.363 1.329 6053
3.544 3.503 1.380 1521
2.867 2.834 1.140 1395
3.405 3.366 1.316 5738
3.547 3.506 1.365 2285
3.418 3.379 1.306 4160
3.560 3.519 1.355 2653
3.265 3.227 1.253 1426
3.547 3.506 1.335 5480
3.404 3.365 1.286 3250
3.262 3.224 1.238 1908
3.544 3.503 1.318 7259
3.401 3.362 1.270 2121
3.259 3.221 1.223 1682
3.535 3.494 1.300 4572
3.283 3.245 1.217 1470
3.625 3.583 1.315 2668
3.639 3.597 1.303 3148
3.646 3.604 1.290 2564
3.682 3.639 1.286 2450
3.767 3.723 1.297 1683
3.797 3.753 1.290 2911
3.793 3.750 1.273 3639
3.796 3.752 1.257 7456
3.798 3.754 1.242 11611
3.941 3.896 1.284 1321
3.795 3.751 1.225 9031
3.938 3.893 1.266 3792
3.808 3.764 1.212 8173
3.952 3.906 1.253 5129
3.821 3.777 1.200 10816
3.965 3.919 1.240 5404
3.829 3.785 1.186 9248
3.973 3.927 1.226 5448
3.953 3.907 1.203 9667
3.809 3.765 1.164 4741
3.949 3.904 1.186 12840
3.806 3.762 1.147 2421
3.952 3.906 1.170 16481
4.096 4.048 1.208 1514
3.959 3.914 1.155 15131
4.103 4.056 1.193 1507
3.956 3.910 1.138 8808
4.100 4.052 1.174 1830
4.008 3.961 1.134 4189
4.374 4.323 1.226 1951
4.529 4.476 1.265 1472
4.010 3.963 1.118 4709
4.376 4.325 1.208 3002
4.537 4.484 1.248 2396
4.017 3.971 1.103 6024
4.384 4.333 1.192 3270
4.528 4.476 1.226 3090
4.025 3.978 1.088 5543
4.519 4.467 1.205 2632
4.375 4.324 1.171 1799
4.027 3.980 1.071 3912
4.571 4.518 1.199 1842
4.029 3.982 1.055 2575
4.579 4.526 1.181 2333
4.379 4.328 1.135 1510
4.631 4.578 1.174 2352
4.031 3.984 1.039 1726
4.776 4.720 1.206 1545
4.589 4.536 1.145 1836
4.845 4.789 1.202 1703
4.847 4.791 1.182 2139
4.591 4.538 1.127 1917
4.726 4.672 1.136 2215
4.871 4.815 1.167 1430
5.044 4.985 1.204 1412
4.717 4.663 1.115 2291
4.862 4.806 1.145 1983
4.859 4.803 1.124 2469
4.714 4.659 1.094 1878
4.955 4.898 1.123 2430
5.100 5.041 1.152 1500
4.863 4.806 1.084 2077
5.097 5.038 1.130 1708
5.272 5.211 1.143 2523
4.870 4.814 1.066 1831
5.110 5.051 1.112 1743
5.280 5.218 1.122 3404
5.112 5.053 1.091 1754
4.967 4.910 1.063 1444
5.287 5.226 1.102 2762
5.114 5.055 1.070 1857
5.311 5.250 1.084 2241
5.552 5.487 1.127 1765
5.110 5.051 1.048 1686
5.559 5.495 1.105 3103
5.319 5.257 1.063 2940
5.107 5.048 1.026 1653
5.556 5.491 1.082 3520
5.321 5.259 1.042 3400
5.762 5.696 1.117 1488
5.312 5.250 1.018 3177
5.558 5.493 1.059 2925
5.770 5.703 1.094 1400
5.325 5.263 0.998 2218
5.554 5.490 1.035 1813
5.118 5.058 0.965 1717
5.337 5.276 0.978 1620
5.114 5.055 0.943 1499
5.934 5.866 1.024 1466
5.947 5.879 1.001 1801
5.966 5.897 0.979 1496
6.582 6.506 1.067 1478
6.590 6.513 1.040 1470
6.115 6.044 0.950 1721
6.608 6.532 1.016 1570
6.616 6.539 0.990 2029
6.122 6.051 0.926 1711
6.617 6.541 0.963 2454
6.130 6.059 0.902 1340
6.625 6.548 0.936 2035
6.626 6.550 0.909 1485
6.778 6.699 0.927 1398
1.382 1.363 1.530 2014
1.385 1.366 1.524 4028
1.434 1.414 1.565 3958
1.437 1.417 1.559 4658
1.440 1.420 1.554 4658
1.447 1.427 1.552 5111
1.455 1.435 1.551 5708
1.458 1.437 1.545 6419
1.465 1.445 1.544 7206
1.477 1.457 1.547 6012
1.490 1.469 1.550 7917
1.492 1.472 1.545 10122
1.500 1.479 1.543 9332
1.508 1.487 1.541 8600
1.511 1.490 1.535 7049
1.560 1.539 1.574 6535
1.568 1.546 1.572 6101
1.580 1.558 1.574 6094
1.588 1.566 1.572 4980
1.600 1.578 1.574 4278
1.603 1.581 1.568 4569
1.611 1.589 1.566 5271
1.614 1.592 1.559 5747
1.622 1.599 1.557 4911
1.629 1.607 1.555 4233
1.656 1.633 1.570 4134
1.669 1.646 1.571 5468
1.662 1.639 1.556 5890
1.655 1.632 1.541 7571
1.654 1.631 1.531 7932
1.656 1.633 1.524 7620
1.664 1.641 1.521 7730
1.696 1.672 1.539 6796
1.699 1.675 1.532 6705
1.697 1.673 1.522 5334
1.690 1.667 1.507 4585
1.761 1.737 1.556 3303
1.779 1.754 1.561 3467
1.777 1.752 1.550 4322
1.775 1.750 1.539 6385
1.778 1.753 1.531 8718
1.790 1.765 1.532 8709
1.798 1.773 1.529 7955
1.801 1.776 1.522 5597
1.809 1.784 1.518 3029
1.826 1.801 1.522 4935
1.834 1.809 1.519 8596
1.847 1.821 1.519 10704
1.850 1.824 1.512 10783
1.858 1.832 1.508 13603
1.861 1.835 1.500 16051
1.863 1.837 1.493 16236
1.881 1.855 1.497 14249
1.889 1.863 1.493 14394
1.897 1.870 1.489 12397
1.925 1.898 1.499 11381
1.932 1.906 1.495 12704
1.935 1.908 1.487 11478
1.943 1.916 1.483 13580
1.951 1.924 1.479 18143
1.959 1.932 1.474 19934
1.967 1.939 1.470 16322
2.010 1.982 1.490 15405
2.018 1.990 1.485 17030
2.026 1.997 1.480 15252
2.033 2.005 1.476 7505
2.077 2.048 1.495 5475
2.080 2.051 1.486 6094
2.093 2.064 1.485 5808
2.070 2.041 1.460 5983
2.063 2.034 1.445 5891
2.060 2.031 1.433 4712
2.130 2.100 1.467 5220
2.143 2.113 1.465 6720
2.145 2.116 1.456 5211
2.225 2.194 1.496 4263
2.233 2.202 1.490 4340
2.231 2.200 1.478 5561
2.229 2.198 1.466 8118
2.226 2.195 1.454 8258
2.219 2.188 1.438 6945
2.299 2.267 1.475 6156
2.292 2.260 1.460 12748
2.294 2.262 1.451 16368
2.302 2.270 1.445 12130
2.305 2.273 1.435 6586
2.302 2.270 1.423 4392
2.342 2.309 1.434 7220
2.350 2.317 1.428 11017
2.357 2.325 1.421 8452
2.360 2.327 1.412 4039
2.421 2.387 1.434 4461
2.418 2.384 1.421 6897
2.436 2.403 1.420 8365
2.481 2.447 1.432 7347
2.505 2.470 1.433 7926
2.508 2.473 1.423 9464
2.532 2.496 1.424 10530
2.534 2.499 1.414 10805
2.526 2.491 1.398 8937
2.691 2.653 1.481 1873
2.540 2.504 1.393 6882
2.699 2.661 1.473 3948
2.712 2.674 1.467 5107
2.553 2.517 1.388 4294
2.720 2.682 1.459 5985
2.571 2.536 1.386 3138
2.734 2.696 1.453 6182
2.579 2.543 1.378 1958
2.731 2.693 1.440 6007
2.712 2.675 1.418 7825
2.779 2.740 1.438 7538
2.640 2.604 1.372 2323
2.776 2.738 1.424 6153
2.801 2.762 1.423 4434
2.809 2.769 1.414 3608
2.811 2.772 1.402 2962
2.819 2.780 1.393 3731
2.827 2.788 1.384 4731
2.835 2.796 1.375 6520
2.838 2.798 1.364 6392
2.851 2.811 1.357 7428
2.853 2.814 1.346 9341
2.851 2.811 1.332 7353
2.853 2.813 1.320 5568
2.855 2.816 1.309 10546
2.858 2.818 1.297 14972
2.860 2.821 1.285 9306
2.846 2.807 1.267 4395
3.052 3.010 1.350 2425
2.865 2.825 1.262 10609
3.060 3.018 1.340 3036
3.201 3.157 1.396 1511
2.862 2.822 1.249 15306
3.068 3.026 1.330 3404
3.209 3.165 1.385 2755
2.859 2.819 1.235 10792
3.071 3.028 1.317 3931
3.212 3.167 1.372 3630
2.861 2.821 1.223 7177
3.209 3.164 1.357 3787
3.068 3.025 1.303 3320
2.863 2.823 1.212 5021
3.201 3.156 1.340 4580
3.059 3.017 1.286 1817
3.198 3.153 1.325 4538
2.871 2.831 1.202 4086
3.211 3.166 1.316 3381
2.873 2.833 1.191 3129
3.385 3.338 1.381 1494
3.219 3.174 1.305 4204
3.399 3.352 1.371 2879
2.963 2.921 1.211 2687
2.965 2.924 1.199 3813
3.227 3.182 1.294 3556
3.369 3.322 1.345 3061
3.366 3.319 1.330 4038
2.967 2.926 1.187 2252
3.224 3.179 1.279 2030
3.406 3.359 1.329 5225
3.549 3.499 1.380 1419
3.221 3.176 1.264 1303
3.409 3.362 1.316 4840
3.551 3.502 1.365 2241
3.428 3.380 1.307 3745
3.570 3.520 1.356 2511
3.551 3.501 1.335 5330
3.408 3.361 1.286 3018
3.266 3.220 1.238 1750
3.542 3.493 1.316 7107
3.274 3.228 1.226 1708
3.534 3.485 1.298 4687
3.676 3.625 1.346 1363
3.624 3.574 1.313 2623
3.643 3.592 1.303 2976
3.651 3.600 1.290 2524
3.686 3.635 1.286 2433
3.793 3.740 1.303 1789
3.801 3.748 1.290 3176
3.803 3.750 1.274 3774
3.800 3.747 1.257 7471
3.803 3.750 1.242 11777
3.946 3.891 1.284 1392
3.805 3.752 1.226 9060
3.948 3.893 1.268 3491
3.813 3.760 1.212 8367
3.956 3.901 1.253 5188
3.826 3.773 1.200 11692
3.970 3.914 1.240 5234
3.834 3.780 1.186 10159
3.977 3.922 1.226 5062
3.957 3.902 1.203 8656
3.814 3.761 1.164 5035
3.954 3.899 1.186 11472
3.810 3.757 1.147 2685
3.962 3.907 1.171 15289
3.818 3.765 1.133 1493
4.106 4.049 1.209 1428
3.964 3.909 1.155 14222
4.108 4.051 1.193 1756
3.961 3.905 1.138 8122
4.105 4.048 1.174 2072
4.029 3.973 1.138 4119
4.379 4.318 1.226 1883
4.534 4.471 1.265 1553
4.015 3.959 1.118 4508
4.381 4.320 1.208 2820
4.542 4.479 1.248 2496
4.022 3.966 1.103 5927
4.533 4.470 1.226 3142
4.389 4.328 1.192 2986
4.024 3.968 1.087 5325
4.524 4.461 1.205 2593
4.380 4.319 1.171 1752
4.032 3.976 1.071 3652
4.577 4.513 1.199 1854
4.388 4.326 1.155 1353
4.579 4.515 1.180 2395
4.034 3.977 1.055 2367
4.384 4.323 1.135 1563
4.586 4.523 1.163 2304
4.035 3.979 1.039 1572
4.781 4.715 1.206 1525
4.533 4.470 1.132 1914
4.778 4.711 1.186 1685
4.852 4.785 1.182 1933
4.596 4.532 1.127 1841
4.732 4.666 1.136 2188
4.877 4.809 1.167 1430
5.044 4.974 1.203 1331
4.723 4.657 1.115 2278
4.868 4.800 1.145 1907
4.864 4.797 1.124 2365
4.719 4.654 1.094 1967
5.104 5.033 1.173 1419
4.961 4.892 1.123 2362
5.106 5.035 1.152 1722
4.868 4.801 1.084 2109
5.108 5.037 1.131 1819
5.270 5.197 1.163 1338
5.278 5.205 1.143 2827
5.122 5.050 1.113 1873
4.870 4.803 1.064 1825
5.286 5.212 1.122 3766
5.124 5.052 1.092 1951
4.973 4.904 1.063 1581
5.293 5.220 1.102 2906
5.120 5.049 1.070 2115
5.318 5.244 1.084 2196
5.558 5.481 1.127 2000
5.116 5.045 1.048 1900
5.566 5.488 1.105 3361
5.325 5.251 1.063 2902
5.113 5.042 1.026 1823
5.568 5.490 1.083 3721
5.327 5.253 1.042 3514
5.114 5.043 1.005 1505
5.318 5.244 1.018 3431
5.564 5.487 1.059 3053
5.771 5.691 1.094 1381
5.331 5.257 0.998 2318
5.560 5.483 1.035 1886
5.349 5.275 0.979 1722
5.941 5.859 1.024 1510
5.960 5.877 1.002 1836
5.973 5.890 0.979 1531
6.590 6.498 1.067 1435
6.592 6.500 1.040 1405
6.122 6.037 0.950 1706
6.616 6.524 1.016 1518
6.618 6.526 0.989 2037
6.129 6.044 0.926 1694
6.769 6.675 1.008 1465
6.625 6.533 0.963 2448
6.771 6.677 0.981 1414
6.137 6.051 0.902 1324
6.632 6.540 0.936 2018
6.779 6.684 0.954 1398
6.780 6.686 0.926 1585
6.634 6.542 0.909 1489
6.787 6.693 0.899 1387
1.383 1.363 1.530 2209
1.386 1.366 1.524 4419
1.389 1.369 1.519 4265
1.437 1.416 1.559 4366
1.440 1.419 1.554 4366
1.448 1.427 1.552 4991
1.455 1.434 1.551 5716
1.458 1.437 1.545 6514
1.466 1.444 1.544 7381
1.478 1.456 1.547 6114
1.490 1.468 1.550 8117
1.493 1.471 1.545 10408
1.500 1.479 1.543 9667
1.508 1.486 1.541 8964
1.511 1.489 1.535 7278
1.561 1.538 1.574 6421
1.568 1.546 1.572 6108
1.581 1.558 1.574 6246
1.584 1.561 1.568 5126
1.596 1.573 1.570 4328
1.604 1.581 1.568 4520
1.611 1.588 1.566 5050
1.614 1.591 1.559 5428
1.622 1.599 1.557 4693
1.630 1.606 1.555 4090
1.657 1.633 1.570 4086
1.669 1.645 1.571 5584
1.658 1.634 1.552 6196
1.656 1.632 1.541 8076
1.654 1.630 1.531 8432
1.657 1.633 1.524 7992
1.665 1.641 1.521 8043
1.692 1.667 1.535 6782
1.699 1.675 1.532 6559
1.697 1.673 1.522 5298
1.691 1.666 1.507 4442
1.766 1.741 1.560 3213
1.779 1.753 1.561 3513
1.777 1.751 1.550 4289
1.775 1.750 1.539 6444
1.778 1.752 1.531 8959
1.786 1.760 1.528 9056
1.794 1.768 1.525 8352
1.801 1.775 1.522 5775
1.809 1.783 1.518 2966
1.827 1.801 1.522 4891
1.840 1.813 1.523 8600
1.848 1.821 1.519 10704
1.850 1.824 1.512 10747
1.858 1.831 1.508 13596
1.861 1.834 1.500 16144
1.864 1.837 1.493 16438
1.882 1.854 1.497 14800
1.889 1.862 1.493 14960
1.897 1.870 1.489 12952
1.925 1.897 1.499 11929
1.933 1.905 1.495 13130
1.936 1.908 1.487 11755
1.944 1.916 1.483 13922
1.951 1.923 1.479 18656
1.959 1.931 1.474 20417
1.967 1.939 1.470 16659
2.010 1.981 1.490 14669
2.018 1.989 1.485 16187
2.026 1.997 1.480 14707
2.044 2.015 1.483 7961
2.078 2.048 1.495 6457
2.080 2.050 1.486 6773
2.093 2.063 1.485 6017
2.071 2.041 1.460 5714
2.063 2.033 1.445 5366
2.117 2.087 1.469 4977
2.125 2.094 1.464 5417
2.143 2.112 1.465 6656
2.151 2.120 1.460 5293
2.226 2.194 1.496 4209
2.234 2.202 1.490 4346
2.232 2.199 1.478 5478
2.229 2.197 1.466 7993
2.232 2.200 1.457 8175
2.219 2.187 1.438 6674
2.300 2.267 1.475 6093
2.292 2.259 1.460 12210
2.295 2.262 1.451 15618
2.303 2.270 1.445 11688
2.306 2.272 1.435 6325
2.251 2.218 1.393 4588
2.387 2.352 1.470 3075
2.337 2.303 1.431 7372
2.350 2.316 1.428 11072
2.358 2.324 1.421 8282
2.361 2.327 1.412 3679
2.421 2.386 1.434 4906
2.424 2.389 1.424 7334
2.469 2.433 1.437 9045
2.477 2.441 1.429 7601
2.506 2.470 1.433 8220
2.508 2.472 1.423 10232
2.532 2.496 1.424 11402
2.530 2.493 1.411 11463
2.667 2.629 1.481 1417
2.527 2.491 1.398 9326
2.691 2.653 1.481 1848
2.540 2.504 1.393 6996
2.700 2.661 1.473 4030
2.713 2.674 1.467 5156
2.553 2.517 1.388 4358
2.721 2.682 1.459 5888
2.567 2.530 1.383 3281
2.734 2.695 1.453 6274
2.580 2.543 1.378 2028
2.732 2.692 1.440 6218
2.593 2.556 1.373 1306
2.713 2.674 1.418 8118
2.780 2.740 1.438 7307
2.641 2.603 1.372 2106
2.777 2.737 1.424 6021
2.801 2.761 1.423 4419
2.809 2.769 1.414 3895
2.812 2.771 1.402 3531
2.820 2.779 1.393 3837
2.833 2.792 1.387 4727
2.836 2.795 1.375 6513
2.844 2.803 1.366 6398
2.852 2.811 1.357 7565
2.854 2.813 1.346 9651
2.851 2.810 1.332 7273
2.854 2.813 1.320 5209
2.856 2.815 1.309 10703
2.859 2.817 1.297 15553
2.861 2.820 1.285 9768
3.040 2.996 1.358 1463
2.853 2.811 1.270 4507
3.053 3.009 1.350 2841
2.866 2.824 1.262 10257
3.061 3.017 1.340 3377
3.202 3.156 1.396 1793
2.863 2.821 1.249 14854
3.069 3.025 1.330 3700
3.210 3.164 1.385 3159
2.860 2.818 1.235 10615
3.071 3.027 1.317 4229
3.213 3.166 1.372 4025
2.862 2.820 1.223 6792
3.210 3.164 1.357 3876
3.068 3.024 1.303 3333
3.202 3.155 1.340 5298
2.864 2.823 1.212 4825
3.060 3.016 1.286 1874
3.199 3.152 1.325 5522
2.866 2.825 1.200 4109
3.008 2.964 1.253 1422
3.212 3.166 1.316 3763
2.874 2.832 1.191 3003
3.392 3.343 1.383 1407
3.220 3.173 1.305 5057
3.400 3.351 1.371 3149
2.958 2.915 1.209 2452
3.228 3.181 1.294 4440
2.966 2.923 1.199 3482
3.397 3.348 1.355 3310
3.361 3.313 1.328 4265
3.219 3.173 1.277 2612
2.968 2.925 1.187 2088
3.407 3.358 1.329 5018
3.227 3.180 1.266 1627
3.410 3.361 1.316 4486
3.552 3.501 1.365 2182
3.429 3.379 1.307 3324
3.571 3.520 1.356 2479
3.552 3.500 1.335 5143
3.409 3.360 1.286 2599
3.267 3.220 1.238 1384
3.543 3.492 1.316 6896
3.274 3.227 1.226 1426
3.535 3.484 1.298 4845
3.677 3.624 1.346 1349
3.614 3.562 1.309 2709
3.644 3.591 1.303 2845
3.734 3.680 1.317 2618
3.753 3.699 1.307 2379
3.794 3.739 1.303 1976
3.802 3.747 1.290 3363
3.804 3.749 1.274 3936
3.807 3.752 1.259 7447
3.804 3.749 1.242 11765
3.947 3.890 1.284 1404
3.806 3.751 1.226 9114
3.949 3.892 1.268 3495
3.814 3.758 1.212 8522
3.957 3.900 1.253 5084
3.827 3.772 1.200 12293
3.971 3.913 1.240 4954
3.835 3.779 1.186 10888
3.978 3.921 1.226 4609
3.959 3.901 1.203 7606
3.815 3.759 1.164 5420
3.955 3.898 1.186 10092
3.811 3.756 1.147 2981
4.099 4.040 1.224 1342
3.963 3.906 1.171 14140
3.819 3.764 1.133 1738
4.107 4.048 1.209 1554
3.965 3.908 1.155 13274
4.109 4.050 1.193 1972
3.962 3.904 1.138 7416
4.106 4.047 1.174 2298
4.036 3.977 1.140 4143
4.380 4.317 1.226 1884
4.541 4.475 1.266 1633
4.016 3.958 1.118 4287
4.382 4.319 1.208 2677
4.543 4.478 1.248 2556
4.018 3.960 1.102 5896
4.534 4.469 1.226 3169
4.384 4.321 1.190 2815
4.025 3.967 1.087 5158
4.531 4.466 1.207 2569
4.387 4.323 1.172 1886
4.033 3.974 1.071 3383
4.572 4.506 1.197 1893
4.383 4.320 1.153 1562
4.580 4.514 1.180 2485
4.035 3.976 1.055 2173
4.385 4.322 1.135 1662
4.582 4.516 1.161 2455
4.783 4.713 1.206 1506
4.037 3.978 1.039 1444
4.534 4.469 1.132 2125
4.779 4.710 1.186 1668
4.748 4.679 1.159 1951
4.597 4.531 1.127 1738
4.893 4.822 1.190 1522
4.733 4.665 1.136 2189
4.878 4.808 1.167 1421
4.724 4.656 1.115 2294
4.869 4.799 1.145 1741
4.866 4.795 1.124 2092
4.721 4.652 1.094 1969
5.111 5.037 1.174 1452
4.963 4.891 1.123 2318
5.108 5.034 1.152 1791
4.817 4.748 1.094 1345
4.864 4.794 1.083 2139
5.110 5.036 1.131 1762
5.272 5.196 1.163 1413
5.279 5.203 1.143 3053
4.872 4.801 1.064 1886
5.123 5.049 1.113 1673
5.287 5.211 1.122 4076
4.974 4.902 1.063 1718
5.125 5.051 1.092 1667
5.295 5.218 1.102 3155
5.121 5.047 1.070 1669
5.302 5.226 1.081 2257
5.560 5.479 1.127 2231
5.118 5.044 1.048 1519
5.562 5.481 1.104 3606
5.332 5.255 1.064 2682
5.114 5.040 1.026 1562
5.564 5.483 1.082 3937
5.329 5.252 1.042 3496
5.760 5.676 1.115 1398
5.319 5.242 1.018 3768
5.566 5.485 1.059 3220
5.773 5.689 1.094 1327
5.321 5.244 0.996 2438
5.562 5.482 1.035 1983
5.351 5.273 0.979 1664
5.948 5.863 1.025 1582
5.962 5.875 1.002 1894
5.974 5.888 0.979 1555
6.592 6.496 1.067 1429
6.594 6.498 1.040 1377
5.976 5.890 0.955 1311
6.124 6.035 0.950 1600
6.618 6.522 1.016 1442
6.625 6.530 0.990 2011
6.771 6.673 1.008 1697
6.131 6.043 0.926 1608
6.627 6.531 0.963 2452
6.773 6.675 0.981 1720
6.634 6.538 0.936 2065
6.780 6.682 0.954 1533
6.782 6.684 0.926 1615
6.636 6.540 0.909 1526
6.789 6.691 0.899 1512
1.384 1.361 1.530 2439
1.387 1.364 1.524 4879
1.390 1.367 1.519 4772
1.393 1.370 1.513 4666
1.396 1.373 1.507 4666
1.449 1.425 1.552 4837
1.457 1.432 1.551 5678
1.460 1.435 1.545 6567
1.467 1.443 1.544 7516
1.484 1.459 1.552 6192
1.492 1.467 1.550 8302
1.495 1.470 1.545 10696
1.502 1.477 1.543 10006
1.510 1.485 1.541 9343
1.513 1.487 1.535 7511
1.562 1.536 1.574 6304
1.570 1.544 1.572 6119
1.583 1.556 1.574 6375
1.585 1.559 1.568 5237
1.598 1.571 1.570 4359
1.606 1.579 1.568 4425
1.613 1.586 1.566 4737
1.616 1.589 1.559 4977
1.624 1.597 1.557 4364
1.632 1.604 1.555 3848
1.654 1.626 1.565 4011
1.671 1.643 1.571 5646
1.660 1.632 1.552 6530
1.653 1.625 1.537 8608
1.656 1.628 1.531 8954
1.659 1.631 1.524 8390
1.666 1.639 1.521 8356
1.694 1.665 1.535 6725
1.701 1.673 1.532 6357
1.699 1.671 1.522 5265
1.697 1.669 1.511 4408
1.773 1.744 1.564 3239
1.781 1.751 1.561 3672
1.779 1.749 1.550 4472
1.777 1.747 1.539 6793
1.780 1.750 1.531 9484
1.788 1.758 1.528 9630
1.796 1.766 1.525 8913
1.799 1.768 1.518 6199
1.806 1.776 1.514 3243
1.829 1.798 1.522 4938
1.842 1.811 1.523 8553
1.850 1.819 1.519 10558
1.852 1.821 1.512 10635
1.860 1.829 1.508 13580
1.863 1.832 1.500 16226
1.866 1.835 1.493 16671
1.884 1.852 1.497 15421
1.892 1.860 1.493 15586
1.899 1.868 1.489 13537
1.927 1.895 1.499 12313
1.935 1.903 1.495 13350
1.938 1.906 1.487 11867
1.946 1.913 1.483 14243
1.954 1.921 1.479 19259
1.962 1.929 1.474 21002
1.969 1.936 1.470 17060
2.013 1.979 1.490 14005
2.021 1.987 1.485 15340
2.028 1.995 1.480 14126
2.047 2.012 1.483 8657
2.075 2.040 1.491 7367
2.083 2.048 1.486 7400
2.101 2.066 1.488 6354
2.104 2.069 1.479 5540
2.112 2.076 1.474 5839
2.120 2.084 1.469 6119
2.127 2.092 1.464 5794
2.146 2.110 1.465 6085
2.154 2.117 1.460 5194
2.229 2.191 1.496 4262
2.237 2.199 1.490 4432
2.234 2.197 1.478 5377
2.232 2.194 1.466 7607
2.235 2.197 1.457 7835
2.222 2.184 1.438 6715
2.302 2.264 1.475 5866
2.295 2.256 1.460 11610
2.298 2.259 1.451 14736
2.305 2.267 1.445 11115
2.313 2.275 1.438 6132
2.321 2.282 1.432 4459
2.340 2.301 1.431 7229
2.353 2.314 1.428 10693
2.361 2.321 1.421 7886
2.363 2.324 1.412 3457
2.424 2.383 1.434 5412
2.427 2.386 1.424 7801
2.472 2.430 1.437 9790
2.474 2.433 1.427 8016
2.509 2.467 1.433 8176
2.511 2.469 1.423 10610
2.535 2.493 1.424 12171
2.533 2.490 1.411 12051
2.671 2.626 1.481 1333
2.530 2.488 1.398 9709
2.700 2.655 1.484 1810
2.538 2.495 1.390 7206
2.703 2.657 1.473 4113
2.711 2.665 1.465 5232
2.556 2.514 1.388 4482
2.724 2.679 1.459 5714
2.570 2.527 1.383 3498
2.738 2.692 1.453 6242
2.572 2.529 1.373 2161
2.735 2.689 1.440 6318
2.596 2.553 1.373 1349
2.716 2.671 1.418 8214
2.719 2.673 1.407 7193
2.780 2.734 1.424 5810
2.805 2.758 1.423 4329
2.818 2.771 1.416 4101
2.815 2.768 1.402 4014
2.823 2.776 1.393 3901
2.842 2.794 1.389 4706
2.839 2.792 1.375 6446
2.847 2.799 1.366 6306
2.855 2.807 1.357 7517
2.858 2.810 1.346 9750
2.860 2.812 1.334 7158
2.857 2.809 1.320 4953
2.860 2.812 1.309 10799
2.862 2.814 1.297 15896
2.864 2.816 1.285 10066
3.043 2.992 1.358 1764
2.856 2.808 1.270 4689
3.051 3.000 1.348 3242
2.869 2.821 1.262 9859
3.059 3.008 1.338 3624
3.200 3.147 1.394 2279
2.866 2.818 1.249 14118
3.203 3.149 1.381 3923
3.062 3.010 1.325 3656
2.863 2.815 1.235 10196
3.211 3.157 1.370 4566
3.070 3.018 1.315 4411
2.865 2.817 1.223 6341
3.208 3.154 1.355 3949
3.067 3.015 1.301 3195
3.205 3.152 1.340 6104
2.867 2.819 1.212 4561
3.064 3.012 1.286 2037
3.202 3.149 1.325 6613
2.870 2.822 1.200 4064
3.344 3.288 1.378 1383
3.216 3.162 1.316 4176
2.877 2.829 1.191 2902
3.358 3.301 1.368 1515
3.223 3.170 1.305 5787
3.404 3.347 1.371 3167
2.967 2.917 1.211 2304
3.226 3.172 1.292 5317
3.368 3.312 1.343 3658
2.974 2.925 1.201 3203
3.354 3.298 1.324 4706
3.212 3.158 1.273 2989
3.502 3.443 1.376 2147
3.417 3.360 1.331 4333
3.231 3.177 1.266 2008
3.408 3.351 1.314 3745
3.551 3.491 1.363 2155
3.438 3.381 1.309 3063
3.581 3.521 1.358 2223
3.556 3.496 1.335 4852
3.413 3.356 1.286 2129
3.547 3.488 1.316 6596
3.539 3.479 1.298 4973
3.613 3.552 1.307 2946
3.643 3.582 1.302 2651
3.738 3.676 1.317 2724
3.757 3.695 1.307 2560
3.798 3.735 1.303 2181
3.806 3.743 1.290 3545
3.809 3.745 1.274 4160
3.811 3.747 1.259 7515
3.813 3.750 1.243 11656
3.816 3.752 1.228 9197
3.959 3.893 1.269 2949
3.823 3.759 1.214 8682
3.967 3.901 1.255 4200
3.831 3.767 1.200 12763
3.975 3.909 1.240 4705
3.839 3.775 1.186 11493
3.983 3.916 1.226 4216
3.841 3.777 1.170 7510
3.985 3.919 1.210 4326
3.965 3.899 1.187 8786
3.821 3.757 1.149 3860
3.967 3.901 1.171 12867
3.823 3.759 1.133 1932
4.112 4.043 1.209 1708
3.970 3.903 1.155 12179
4.114 4.045 1.193 2225
3.966 3.900 1.138 6652
4.111 4.042 1.174 2570
4.040 3.973 1.140 4265
4.385 4.312 1.226 1895
4.546 4.470 1.266 1646
4.020 3.953 1.118 4005
4.548 4.472 1.248 2544
4.387 4.314 1.208 2500
4.022 3.955 1.102 5612
4.540 4.464 1.226 3106
4.389 4.316 1.190 2609
4.030 3.962 1.087 4871
4.536 4.460 1.207 2491
4.392 4.318 1.172 1889
4.037 3.970 1.071 3051
4.577 4.501 1.197 1888
4.388 4.315 1.153 1737
4.585 4.508 1.180 2554
4.039 3.972 1.055 1914
4.390 4.317 1.135 1741
4.587 4.511 1.161 2655
4.788 4.708 1.206 1479
4.539 4.463 1.132 2387
4.684 4.606 1.164 1750
4.852 4.770 1.201 1406
4.748 4.668 1.158 2111
4.603 4.526 1.127 1715
4.904 4.822 1.192 1600
4.739 4.659 1.136 2338
4.884 4.802 1.167 1431
4.730 4.650 1.115 2359
4.875 4.793 1.145 1625
4.732 4.652 1.095 1986
4.961 4.878 1.142 1955
5.117 5.031 1.174 1421
4.968 4.885 1.123 2310
5.114 5.028 1.152 1805
4.823 4.742 1.094 1309
4.870 4.788 1.083 2031
5.116 5.030 1.131 1817
5.283 5.195 1.164 1531
5.286 5.197 1.143 3320
4.877 4.796 1.064 1794
5.129 5.043 1.113 1732
5.293 5.205 1.122 4364
4.980 4.897 1.063 1814
5.137 5.051 1.093 1550
5.295 5.207 1.101 3232
5.133 5.047 1.071 1361
5.325 5.236 1.084 2309
5.566 5.473 1.127 2250
5.574 5.480 1.105 3582
5.338 5.249 1.064 2932
5.576 5.482 1.083 3881
5.335 5.245 1.042 3790
5.325 5.236 1.018 4131
5.572 5.479 1.059 3165
5.327 5.238 0.996 2589
5.568 5.475 1.035 1951
5.357 5.267 0.979 1660
5.955 5.856 1.025 1618
5.968 5.868 1.002 1940
5.981 5.881 0.979 1593
6.599 6.489 1.067 1322
5.983 5.883 0.955 1331
6.131 6.028 0.950 1634
6.625 6.515 1.016 1338
6.633 6.522 0.990 1951
6.138 6.035 0.926 1534
6.779 6.666 1.008 1494
6.640 6.529 0.963 2390
6.786 6.673 0.981 1511
6.642 6.531 0.936 2059
6.788 6.674 0.954 1334
6.649 6.538 0.910 1553
6.795 6.682 0.927 1340
6.803 6.689 0.900 1304
1.387 1.359 1.530 2974
1.389 1.362 1.524 5948
1.392 1.365 1.519 5861
1.395 1.368 1.513 5773
1.398 1.370 1.507 5773
1.401 1.373 1.502 4925
1.459 1.430 1.551 5797
1.462 1.433 1.545 6744
1.470 1.440 1.544 7710
1.473 1.443 1.538 6320
1.494 1.464 1.550 8530
1.497 1.467 1.545 11061
1.505 1.475 1.543 10474
1.507 1.478 1.537 9917
1.515 1.485 1.535 7884
1.565 1.534 1.574 6313
1.573 1.541 1.572 6251
1.585 1.554 1.574 6561
1.588 1.556 1.568 5361
1.600 1.569 1.570 4342
1.608 1.576 1.568 4283
1.616 1.584 1.566 4417
1.619 1.587 1.559 4555
1.627 1.594 1.557 4143
1.629 1.597 1.551 3827
1.652 1.619 1.561 4026
1.674 1.640 1.571 5753
1.662 1.629 1.552 6964
1.656 1.623 1.537 9242
1.659 1.626 1.531 9517
1.661 1.628 1.524 8792
1.669 1.636 1.521 8679
1.691 1.658 1.531 6800
1.704 1.670 1.532 6206
1.702 1.668 1.522 5237
1.700 1.666 1.511 4285
1.776 1.741 1.564 3445
1.784 1.748 1.561 4010
1.782 1.747 1.550 4748
1.780 1.745 1.539 7174
1.783 1.747 1.531 10092
1.791 1.755 1.528 10406
1.799 1.763 1.525 9803
1.801 1.766 1.518 6802
1.809 1.773 1.514 3502
1.832 1.795 1.522 5093
1.845 1.808 1.523 8779
1.853 1.816 1.519 10706
1.855 1.819 1.512 10662
1.863 1.826 1.508 13588
1.866 1.829 1.500 16417
1.869 1.832 1.493 17008
1.882 1.844 1.493 16286
1.895 1.857 1.493 16366
1.902 1.865 1.489 14300
1.930 1.892 1.499 12935
1.938 1.900 1.495 13765
1.941 1.902 1.487 12147
1.949 1.910 1.483 14759
1.957 1.918 1.479 20140
1.965 1.926 1.474 21826
1.972 1.933 1.470 17599
2.016 1.976 1.490 13214
2.024 1.984 1.485 14402
2.037 1.996 1.484 13857
2.050 2.009 1.483 9697
2.078 2.037 1.491 8464
2.086 2.045 1.486 8037
2.104 2.062 1.488 6826
2.112 2.070 1.483 6031
2.110 2.068 1.471 6841
2.118 2.076 1.466 7445
2.126 2.083 1.461 6294
2.144 2.101 1.462 5564
2.157 2.114 1.460 5356
2.232 2.188 1.496 4571
2.235 2.190 1.487 4870
2.238 2.193 1.478 5747
2.240 2.196 1.469 7924
2.238 2.194 1.457 8115
2.230 2.186 1.441 6755
2.306 2.260 1.475 5708
2.304 2.258 1.463 10827
2.301 2.255 1.451 13690
2.309 2.263 1.445 10253
2.317 2.271 1.438 5930
2.325 2.279 1.432 4860
2.338 2.292 1.428 7451
2.351 2.305 1.425 10421
2.365 2.318 1.421 7457
2.367 2.320 1.412 3170
2.433 2.385 1.436 5807
2.436 2.387 1.427 8294
2.475 2.426 1.437 10784
2.483 2.434 1.429 8648
2.513 2.463 1.433 8429
2.521 2.471 1.426 11175
2.534 2.484 1.421 13289
2.537 2.486 1.411 12935
2.534 2.484 1.398 10044
2.704 2.650 1.484 1753
2.542 2.491 1.390 7083
2.712 2.658 1.476 4158
2.715 2.661 1.465 5346
2.560 2.510 1.388 4361
2.728 2.674 1.459 5627
2.568 2.517 1.380 3628
2.736 2.682 1.451 6320
2.571 2.520 1.370 2328
2.739 2.685 1.440 6492
2.600 2.549 1.373 1383
2.721 2.666 1.418 8191
2.723 2.669 1.407 6996
2.790 2.735 1.426 5536
2.814 2.758 1.425 4314
2.822 2.766 1.416 4344
2.820 2.764 1.402 4518
2.828 2.771 1.393 4043
2.846 2.790 1.389 4862
2.849 2.792 1.378 6442
2.852 2.795 1.366 6176
2.859 2.803 1.357 7356
2.862 2.805 1.346 9645
2.865 2.808 1.334 6860
2.862 2.805 1.320 4590
2.864 2.807 1.309 10772
2.866 2.809 1.297 16080
3.018 2.958 1.359 1616
2.869 2.812 1.285 10318
3.048 2.988 1.358 2228
2.866 2.809 1.272 4989
3.056 2.995 1.348 3707
2.874 2.816 1.262 9271
3.064 3.003 1.338 3952
3.205 3.142 1.394 2825
2.870 2.813 1.249 12651
3.208 3.144 1.381 4666
3.066 3.006 1.325 3810
2.867 2.810 1.235 9036
3.216 3.152 1.370 5126
3.074 3.013 1.315 4551
2.870 2.813 1.223 5532
3.213 3.149 1.355 4134
3.071 3.010 1.301 3237
3.210 3.146 1.340 7135
2.872 2.815 1.212 4018
3.068 3.007 1.286 2296
3.207 3.144 1.325 7986
2.874 2.817 1.200 3684
3.065 3.004 1.272 1657
3.221 3.157 1.316 5002
2.882 2.824 1.191 2581
3.363 3.296 1.368 1903
3.229 3.164 1.305 6706
3.404 3.336 1.369 3235
2.971 2.912 1.211 2315
3.231 3.167 1.292 6276
3.373 3.306 1.343 4260
2.979 2.920 1.201 3004
3.359 3.293 1.324 5325
3.217 3.153 1.273 3590
3.507 3.438 1.376 2328
3.378 3.311 1.316 3714
3.521 3.451 1.366 3189
3.236 3.171 1.266 2391
3.375 3.308 1.300 3165
3.518 3.448 1.350 2852
3.200 3.136 1.239 1407
3.476 3.407 1.321 2881
3.561 3.491 1.335 4590
3.418 3.351 1.286 1699
3.553 3.482 1.316 6116
3.544 3.474 1.298 4911
3.613 3.541 1.306 3324
3.637 3.565 1.298 2630
3.739 3.665 1.315 2851
3.763 3.689 1.307 2674
3.799 3.723 1.302 2475
3.812 3.737 1.290 3855
3.820 3.744 1.276 4629
3.823 3.747 1.260 7787
3.819 3.743 1.243 11671
3.822 3.746 1.228 9299
3.966 3.887 1.269 2913
3.829 3.753 1.214 8775
3.974 3.895 1.255 4104
3.837 3.761 1.200 13064
3.981 3.902 1.240 4449
3.845 3.769 1.186 11957
3.989 3.910 1.226 3789
3.847 3.771 1.170 7832
3.991 3.912 1.210 3803
3.971 3.893 1.187 7443
3.827 3.751 1.149 4073
4.188 4.105 1.245 1310
3.979 3.900 1.173 11489
3.835 3.759 1.135 2415
4.124 4.042 1.211 1583
3.976 3.897 1.155 11010
4.120 4.038 1.193 2476
3.978 3.899 1.139 5966
4.123 4.041 1.176 2432
4.378 4.291 1.241 1472
4.052 3.972 1.141 4419
4.381 4.294 1.223 1984
4.197 4.114 1.177 1769
4.027 3.947 1.118 3693
4.556 4.465 1.248 2530
4.389 4.301 1.207 2286
4.029 3.948 1.102 5093
4.547 4.456 1.226 3052
4.396 4.309 1.190 2293
4.036 3.956 1.087 4374
4.549 4.459 1.208 2482
4.398 4.311 1.172 1843
4.044 3.963 1.071 2644
4.395 4.308 1.153 1899
4.579 4.488 1.196 1865
4.587 4.496 1.179 2627
4.392 4.304 1.134 1798
4.046 3.965 1.055 1604
4.595 4.503 1.161 2841
4.796 4.700 1.206 1385
4.546 4.456 1.132 2568
4.692 4.598 1.164 1967
4.755 4.661 1.158 2074
4.917 4.820 1.193 1763
4.560 4.469 1.116 1602
4.746 4.652 1.136 2184
4.925 4.827 1.174 1650
4.737 4.643 1.115 2189
4.961 4.862 1.161 1687
4.968 4.870 1.142 2044
4.733 4.639 1.094 1895
5.125 5.023 1.174 1445
4.982 4.883 1.124 2216
5.127 5.025 1.153 1840
4.836 4.740 1.095 1319
4.877 4.780 1.083 1840
5.124 5.022 1.131 1744
5.292 5.187 1.164 1650
5.294 5.189 1.143 3545
4.991 4.892 1.085 1739
5.137 5.035 1.113 1421
5.296 5.191 1.121 4604
4.988 4.889 1.063 1842
5.133 5.031 1.091 1588
5.304 5.198 1.101 3361
5.135 5.033 1.070 1824
5.317 5.211 1.081 2639
5.575 5.464 1.127 2311
5.137 5.035 1.049 1404
5.582 5.471 1.105 3587
5.341 5.235 1.063 3043
5.332 5.226 1.040 4138
5.584 5.473 1.083 3819
5.770 5.655 1.114 1308
5.334 5.228 1.018 4498
5.581 5.470 1.059 3070
5.783 5.668 1.093 1305
5.335 5.229 0.996 2619
5.577 5.466 1.035 1965
5.365 5.259 0.979 1480
5.970 5.852 1.025 1636
5.978 5.859 1.002 1928
5.991 5.872 0.979 1605
6.610 6.478 1.067 1314
5.998 5.879 0.956 1358
6.268 6.144 0.993 1324
6.140 6.018 0.950 1567
6.568 6.438 1.007 1396
6.643 6.511 0.990 1886
6.148 6.026 0.926 1479
6.790 6.655 1.008 1315
6.651 6.518 0.963 2316
6.652 6.520 0.936 2027
6.660 6.527 0.910 1549
6.806 6.671 0.927 1418
1.388 1.357 1.530 3426
1.391 1.360 1.524 6852
1.394 1.363 1.519 6854
1.397 1.366 1.513 6855
1.400 1.369 1.507 6855
1.403 1.371 1.502 5755
1.465 1.433 1.556 5716
1.468 1.436 1.550 6628
1.467 1.434 1.540 7553
1.474 1.441 1.538 6187
1.496 1.463 1.550 8410
1.499 1.465 1.545 10958
1.506 1.473 1.543 10493
1.509 1.476 1.537 10040
1.517 1.483 1.535 7905
1.534 1.500 1.543 6136
1.574 1.539 1.572 6219
1.582 1.547 1.570 6600
1.590 1.555 1.568 5350
1.598 1.562 1.566 4253
1.610 1.574 1.568 4034
1.618 1.582 1.566 3962
1.621 1.585 1.559 3980
1.624 1.588 1.553 3852
1.631 1.595 1.551 3748
1.649 1.612 1.557 4037
1.671 1.634 1.567 5701
1.659 1.623 1.548 7205
1.658 1.621 1.537 9513
1.656 1.619 1.526 9726
1.663 1.626 1.524 8929
1.671 1.634 1.521 8807
1.689 1.651 1.527 6850
1.701 1.663 1.528 6106
1.704 1.666 1.522 5192
1.707 1.669 1.515 4278
1.778 1.739 1.564 3534
1.781 1.741 1.557 4210
1.784 1.744 1.550 4828
1.782 1.742 1.539 7169
1.785 1.745 1.531 10151
1.793 1.753 1.528 10619
1.801 1.761 1.525 10153
1.804 1.763 1.518 7095
1.811 1.771 1.514 3719
1.824 1.784 1.515 5211
1.847 1.806 1.523 8749
1.855 1.813 1.519 10572
1.858 1.816 1.512 10391
1.865 1.824 1.508 13251
1.868 1.827 1.500 16219
1.871 1.830 1.493 16989
1.884 1.842 1.493 16764
1.897 1.855 1.493 16732
1.905 1.862 1.489 14669
1.933 1.890 1.499 13173
1.941 1.897 1.495 13821
1.943 1.900 1.487 12184
1.951 1.908 1.483 15043
1.959 1.916 1.479 20684
1.967 1.923 1.474 22296
1.975 1.931 1.470 17830
2.018 1.973 1.490 12382
2.031 1.986 1.489 13562
2.039 1.994 1.484 13399
2.052 2.007 1.483 10267
2.075 2.029 1.488 9038
2.094 2.047 1.490 8468
2.107 2.060 1.488 7339
2.115 2.068 1.483 6375
2.112 2.065 1.471 7370
2.120 2.073 1.466 8206
2.123 2.076 1.457 6657
2.193 2.144 1.491 5414
2.165 2.116 1.463 5357
2.167 2.119 1.454 5057
2.238 2.188 1.487 4923
2.240 2.191 1.478 5758
2.243 2.193 1.469 7925
2.241 2.191 1.457 8094
2.233 2.183 1.441 6267
2.309 2.257 1.475 5320
2.306 2.255 1.463 9710
2.309 2.258 1.454 12211
2.312 2.260 1.445 9340
2.320 2.268 1.438 5848
2.328 2.276 1.432 5011
2.341 2.289 1.428 7363
2.354 2.302 1.425 9934
2.367 2.315 1.421 6999
2.444 2.389 1.452 3322
2.436 2.382 1.436 6262
2.439 2.384 1.427 8716
2.478 2.423 1.437 11113
2.481 2.426 1.427 8861
2.510 2.454 1.430 8591
2.524 2.467 1.426 11476
2.537 2.480 1.421 13688
2.540 2.483 1.411 13230
2.537 2.480 1.398 10193
2.707 2.647 1.484 1703
2.545 2.488 1.390 7022
2.715 2.655 1.476 4109
2.718 2.658 1.465 5308
2.563 2.506 1.388 4272
2.732 2.671 1.459 5437
2.571 2.514 1.380 3633
2.740 2.679 1.451 6182
2.574 2.517 1.370 2336
2.742 2.681 1.440 6485
2.724 2.663 1.418 8056
2.726 2.666 1.407 6696
2.793 2.731 1.426 5134
2.823 2.760 1.428 4271
2.826 2.763 1.416 4521
2.823 2.760 1.402 4892
2.826 2.763 1.391 4131
2.855 2.792 1.392 4844
2.852 2.789 1.378 6181
2.855 2.791 1.366 5755
2.857 2.794 1.355 6972
2.865 2.802 1.346 9352
2.868 2.804 1.334 6480
2.865 2.801 1.320 4122
2.867 2.804 1.309 10134
2.870 2.806 1.297 15225
3.022 2.955 1.359 2010
2.872 2.808 1.285 9987
3.057 2.989 1.360 2622
2.869 2.805 1.272 5219
3.060 2.992 1.348 3969
2.872 2.808 1.260 8678
3.068 2.999 1.338 4102
3.209 3.138 1.394 3195
2.874 2.810 1.249 11097
3.212 3.140 1.381 5099
3.070 3.002 1.325 3801
2.871 2.807 1.235 7771
3.220 3.148 1.370 5300
3.078 3.010 1.315 4444
2.873 2.809 1.223 4842
3.217 3.145 1.355 4064
3.075 3.007 1.301 3152
3.214 3.143 1.340 7743
2.875 2.811 1.212 3516
3.072 3.004 1.286 2414
3.211 3.140 1.325 8844
2.877 2.813 1.200 3179
3.069 3.001 1.272 1835
3.230 3.158 1.318 5567
3.088 3.019 1.265 2300
2.885 2.821 1.191 2214
3.232 3.160 1.305 7276
3.397 3.321 1.365 3239
3.090 3.021 1.253 2314
3.229 3.157 1.290 6882
3.372 3.297 1.341 4903
2.983 2.916 1.201 2627
3.358 3.283 1.322 5911
3.215 3.144 1.271 3672
3.511 3.433 1.376 2372
3.371 3.296 1.312 3897
3.514 3.436 1.362 3500
3.229 3.157 1.262 2403
3.379 3.304 1.300 3425
3.522 3.444 1.350 2849
3.203 3.132 1.239 1401
3.503 3.425 1.328 2992
3.360 3.285 1.279 1470
3.560 3.481 1.333 4397
3.557 3.478 1.316 5838
3.548 3.470 1.298 4850
3.617 3.537 1.306 3626
3.642 3.561 1.298 2748
3.743 3.660 1.315 2968
3.773 3.689 1.308 2782
3.792 3.708 1.298 2749
3.817 3.732 1.290 4052
3.825 3.740 1.276 4969
3.827 3.742 1.260 7934
3.824 3.739 1.243 11239
3.826 3.741 1.228 8996
3.970 3.882 1.269 2787
3.834 3.749 1.214 8573
3.978 3.890 1.255 3902
3.842 3.756 1.200 12822
3.986 3.897 1.240 4113
3.850 3.764 1.186 11905
3.994 3.905 1.226 3255
3.846 3.761 1.169 7879
3.991 3.902 1.208 3695
3.982 3.893 1.189 6427
3.837 3.752 1.150 4705
4.193 4.100 1.245 1385
3.984 3.895 1.173 10403
3.839 3.754 1.135 2451
4.201 4.107 1.230 1718
3.986 3.897 1.157 9991
4.131 4.039 1.194 2183
4.083 3.992 1.165 5507
4.384 4.286 1.241 1583
3.938 3.850 1.128 1569
4.057 3.967 1.141 4493
4.386 4.288 1.223 2036
4.202 4.109 1.177 1970
4.026 3.936 1.116 3431
4.561 4.460 1.248 2507
4.394 4.296 1.207 2066
4.033 3.944 1.102 4536
4.558 4.456 1.228 3000
4.402 4.304 1.190 2025
4.041 3.951 1.087 3768
4.554 4.453 1.208 2484
4.404 4.306 1.172 1818
4.048 3.958 1.071 2174
4.400 4.302 1.153 1999
4.657 4.554 1.213 1861
4.592 4.490 1.179 2606
4.397 4.299 1.134 1801
4.050 3.960 1.055 1315
4.600 4.498 1.161 2908
4.552 4.451 1.132 2666
4.697 4.593 1.164 1933
4.766 4.660 1.159 2061
4.923 4.814 1.193 1866
4.565 4.464 1.116 1689
4.752 4.646 1.136 2013
4.931 4.821 1.174 1794
4.737 4.632 1.114 2066
4.961 4.851 1.160 1876
4.969 4.858 1.141 2110
4.739 4.634 1.094 1783
5.137 5.023 1.175 1378
4.988 4.877 1.124 2121
5.133 5.019 1.153 1755
4.842 4.734 1.095 1395
5.124 5.010 1.130 1753
4.883 4.774 1.083 1664
5.298 5.180 1.164 1654
5.300 5.182 1.143 3405
4.997 4.886 1.085 1621
5.143 5.029 1.113 1406
5.302 5.184 1.121 4480
4.994 4.883 1.063 1784
5.139 5.025 1.091 1431
5.304 5.186 1.100 3180
5.141 5.027 1.070 1581
5.317 5.199 1.080 2646
5.581 5.457 1.127 2390
5.149 5.034 1.050 1313
5.589 5.465 1.105 3570
5.314 5.196 1.057 3253
5.332 5.214 1.039 4399
5.591 5.467 1.083 3754
5.782 5.653 1.115 1324
5.334 5.216 1.017 4968
5.587 5.463 1.059 3103
5.790 5.661 1.093 1366
5.342 5.223 0.996 2912
5.584 5.459 1.035 2136
5.366 5.247 0.978 1526
5.580 5.456 1.012 1441
5.977 5.844 1.025 1642
5.979 5.846 1.001 1900
5.998 5.864 0.979 1525
6.270 6.131 0.992 1404
6.005 5.872 0.956 1305
6.266 6.127 0.966 1667
6.570 6.424 1.006 1501
6.657 6.509 0.990 1750
6.803 6.652 1.009 1473
6.155 6.018 0.926 1413
6.658 6.510 0.963 2188
6.805 6.654 0.981 1475
6.666 6.518 0.937 1980
6.812 6.661 0.955 1392
6.808 6.657 0.926 1695
6.662 6.514 0.909 1489
6.816 6.664 0.899 1445
1.389 1.356 1.530 3790
1.392 1.359 1.524 7580
1.395 1.362 1.519 7687
1.398 1.365 1.513 7794
1.401 1.367 1.507 7794
1.404 1.370 1.502 6530
1.467 1.432 1.556 5741
1.465 1.430 1.545 6618
1.468 1.433 1.540 7534
1.475 1.440 1.538 6134
1.497 1.461 1.550 8272
1.505 1.469 1.549 10811
1.508 1.472 1.543 10425
1.510 1.474 1.537 10040
1.518 1.482 1.535 7863
1.535 1.498 1.543 6008
1.576 1.538 1.572 6131
1.583 1.546 1.570 6575
1.591 1.553 1.568 5305
1.532 1.496 1.505 4270
1.611 1.573 1.568 3832
1.619 1.580 1.566 3593
1.622 1.583 1.559 3507
1.625 1.586 1.553 3617
1.623 1.584 1.542 3728
1.645 1.606 1.553 4030
1.663 1.623 1.559 5698
1.661 1.621 1.548 7376
1.659 1.619 1.537 9669
1.657 1.617 1.526 9818
1.665 1.625 1.524 8965
1.672 1.633 1.521 8845
1.690 1.650 1.527 6933
1.702 1.662 1.528 6104
1.705 1.665 1.522 5242
1.708 1.668 1.515 4380
1.721 1.680 1.516 3613
1.783 1.740 1.557 4323
1.785 1.743 1.550 4840
1.784 1.741 1.539 7132
1.786 1.744 1.531 10150
1.794 1.751 1.528 10731
1.802 1.759 1.525 10367
1.805 1.762 1.518 7323
1.813 1.770 1.514 3905
1.826 1.782 1.515 5283
1.848 1.804 1.523 8591
1.856 1.812 1.519 10318
1.859 1.815 1.512 10084
1.867 1.822 1.508 12912
1.870 1.825 1.500 15958
1.873 1.828 1.493 16848
1.885 1.841 1.493 17082
1.893 1.848 1.489 17039
1.906 1.861 1.489 14936
1.934 1.888 1.499 13375
1.942 1.896 1.495 13866
1.945 1.899 1.487 12261
1.958 1.911 1.487 15396
1.966 1.919 1.482 21088
1.969 1.922 1.474 22608
1.976 1.929 1.470 17965
2.000 1.952 1.476 11870
2.033 1.984 1.489 12900
2.046 1.997 1.487 13191
2.054 2.005 1.483 10942
2.062 2.013 1.478 9988
2.095 2.045 1.490 8719
2.108 2.058 1.488 7716
2.116 2.066 1.483 6700
2.114 2.064 1.471 7868
2.122 2.071 1.466 8749
2.125 2.074 1.457 6927
2.195 2.142 1.491 5241
2.166 2.115 1.463 5319
2.169 2.117 1.454 5354
2.239 2.186 1.487 4931
2.242 2.189 1.478 5561
2.245 2.191 1.469 7455
2.242 2.189 1.457 7361
2.240 2.187 1.445 5409
2.305 2.250 1.472 4992
2.308 2.253 1.463 8872
2.311 2.256 1.454 11020
2.314 2.258 1.445 8466
2.322 2.266 1.438 5653
2.330 2.274 1.432 5161
2.343 2.287 1.428 7298
2.356 2.300 1.425 9416
2.369 2.313 1.421 6471
2.451 2.393 1.455 3642
2.438 2.380 1.436 6386
2.441 2.382 1.427 8815
2.475 2.416 1.434 11432
2.483 2.424 1.427 9184
2.512 2.452 1.430 8559
2.526 2.465 1.426 11348
2.539 2.478 1.421 13681
2.542 2.481 1.411 13167
2.539 2.478 1.398 10207
2.709 2.645 1.484 1646
2.547 2.486 1.390 7003
2.718 2.653 1.476 4006
2.715 2.650 1.462 5258
2.560 2.499 1.386 4332
2.728 2.663 1.456 5358
2.573 2.512 1.380 3753
2.742 2.677 1.451 6036
2.571 2.509 1.368 2383
2.745 2.679 1.440 6383
2.726 2.661 1.418 7895
2.729 2.663 1.407 6469
2.796 2.729 1.426 4575
2.831 2.763 1.430 4169
2.833 2.766 1.419 4578
2.825 2.758 1.402 5061
2.828 2.760 1.391 4212
2.857 2.789 1.392 4846
2.860 2.792 1.380 5962
2.857 2.789 1.366 5321
2.860 2.792 1.355 6469
2.868 2.799 1.346 8842
2.876 2.807 1.336 6098
2.873 2.804 1.322 3736
2.870 2.801 1.309 9489
3.016 2.944 1.369 1420
2.872 2.804 1.297 14249
3.024 2.952 1.359 2372
2.875 2.806 1.285 9421
3.060 2.987 1.360 2893
2.871 2.803 1.272 5233
3.062 2.989 1.348 4097
3.215 3.138 1.409 1300
2.874 2.805 1.260 8071
3.065 2.992 1.336 4256
3.212 3.135 1.394 3408
2.876 2.808 1.249 9733
3.214 3.138 1.381 5285
3.073 2.999 1.325 3786
2.873 2.804 1.235 6699
3.222 3.146 1.370 5209
3.081 3.007 1.315 4258
2.875 2.807 1.223 4141
3.214 3.137 1.353 3739
3.072 2.999 1.298 2896
3.217 3.140 1.340 8001
2.878 2.809 1.212 2982
3.074 3.001 1.286 2577
3.219 3.142 1.327 9398
2.880 2.811 1.200 2812
3.077 3.003 1.274 2301
3.233 3.155 1.318 5983
3.090 3.016 1.265 2561
2.882 2.813 1.189 2019
3.235 3.158 1.305 7544
3.394 3.313 1.363 3214
3.092 3.019 1.253 2427
3.232 3.155 1.290 7337
3.375 3.294 1.341 5108
2.991 2.919 1.203 2386
3.361 3.280 1.322 6203
3.218 3.141 1.271 3974
3.514 3.430 1.376 2386
3.374 3.294 1.312 4143
3.517 3.433 1.362 3489
3.231 3.154 1.262 2502
3.382 3.301 1.300 3668
3.525 3.441 1.350 2828
3.201 3.124 1.237 1438
3.505 3.422 1.328 3287
3.362 3.282 1.279 1480
3.563 3.478 1.333 4198
3.560 3.475 1.316 5578
3.557 3.472 1.300 4709
3.620 3.534 1.306 3814
3.639 3.552 1.296 2859
3.746 3.657 1.315 3071
3.776 3.686 1.308 2851
3.633 3.546 1.263 1306
3.795 3.705 1.298 2952
3.820 3.729 1.290 4128
3.828 3.737 1.276 5197
3.836 3.744 1.262 7976
3.833 3.741 1.245 10813
3.829 3.738 1.228 8653
3.974 3.879 1.269 2588
3.837 3.746 1.214 8268
3.981 3.887 1.255 3628
3.845 3.753 1.200 12362
3.989 3.894 1.240 3794
3.853 3.761 1.186 11625
3.997 3.902 1.226 2912
3.849 3.757 1.169 7776
3.994 3.899 1.208 3150
3.985 3.890 1.189 5626
