-1.983 5.223 1.378 3368
-2.028 5.342 1.389 2871
-2.035 5.359 1.376 3523
-2.116 5.573 1.407 3493
-2.117 5.576 1.390 2439
-2.146 5.652 1.389 2546
-2.142 5.641 1.368 2447
-2.143 5.644 1.351 2350
-2.263 5.959 1.400 2434
-2.259 5.948 1.378 2655
-2.257 5.944 1.358 2248
-2.283 6.013 1.353 2789
-2.282 6.009 1.333 3800
-2.319 6.107 1.333 2370
-2.400 6.321 1.355 2818
-2.407 6.339 1.338 2597
-2.630 6.926 1.428 3176
-2.631 6.929 1.406 4232
-2.630 6.925 1.384 3732
-2.634 6.936 1.363 2215
-2.696 7.100 1.370 2399
-2.697 7.103 1.348 1817
-2.710 7.136 1.331 1374
-3.088 8.134 1.473 2533
-3.090 8.138 1.447 4261
-3.091 8.141 1.422 5120
-3.093 8.145 1.397 5860
-3.094 8.148 1.372 6356
-3.095 8.151 1.346 6048
-3.096 8.155 1.321 5162
-3.095 8.150 1.295 4624
-3.099 8.161 1.270 3994
-3.100 8.164 1.245 2678
-3.210 8.453 1.258 1953
-3.208 8.449 1.231 2127
-3.209 8.452 1.204 2080
-3.210 8.455 1.178 1713
-3.206 8.443 1.150 1158
-3.198 8.424 1.121 956
-3.188 8.397 1.092 946
-2.985 7.862 1.006 1039
-3.193 8.409 1.040 1070
-2.984 7.859 0.956 1607
-3.058 8.053 0.952 2392
-3.059 8.055 0.927 3156
-3.059 8.057 0.902 3280
-2.845 7.491 0.824 3468
-2.845 7.493 0.801 4307
-2.896 7.628 0.789 4603
-2.897 7.630 0.765 5420
-2.584 6.805 0.676 4918
-2.587 6.813 0.656 5623
-2.590 6.822 0.635 4978
-2.588 6.816 0.613 3597
-2.507 6.603 0.578 3635
-2.508 6.604 0.557 4046
-2.505 6.598 0.537 4427
-2.503 6.592 0.516 4866
-2.506 6.600 0.496 4595
-2.506 6.601 0.475 4302
-2.507 6.602 0.455 3885
-2.507 6.603 0.434 3761
-2.507 6.604 0.414 3347
-2.443 6.434 0.387 3208
-2.466 6.494 0.369 3256
-2.463 6.487 0.349 2918
-2.447 6.443 0.327 2898
-2.444 6.436 0.307 3508
-2.444 6.437 0.287 3030
-2.444 6.437 0.267 2553
-2.447 6.445 0.247 1893
-2.332 6.142 0.223 1378
-2.332 6.142 0.204 1901
-2.332 6.142 0.185 2611
-2.329 6.135 0.166 2831
-2.332 6.142 0.147 2220
-2.335 6.150 0.128 1643
-2.332 6.142 0.109 1240
-2.307 6.076 0.090 947
-2.332 6.142 0.071 1044
-2.332 6.142 0.052 1249
-2.332 6.141 0.033 1231
-2.329 6.134 0.014 1209
-2.329 6.133 -0.005 971
-2.332 6.140 -0.024 518
-2.331 6.140 -0.043 304
-0.759 2.007 1.680 4132
-0.761 2.011 1.674 8264
-0.762 2.015 1.668 8264
-0.766 2.025 1.666 5832
-0.775 2.047 1.674 4350
-0.776 2.052 1.668 5104
-0.773 2.044 1.652 6016
-0.777 2.054 1.650 6438
-0.779 2.058 1.644 6895
-0.780 2.062 1.638 6895
-0.784 2.072 1.636 7139
-0.785 2.076 1.630 7421
-0.787 2.080 1.623 7771
-0.789 2.085 1.617 8121
-0.790 2.089 1.611 5997
-0.815 2.154 1.649 4893
-0.814 2.152 1.638 4153
-0.802 2.119 1.605 3951
-0.812 2.148 1.616 3809
-0.814 2.152 1.609 5324
-0.815 2.156 1.603 6753
-0.850 2.247 1.656 7569
-0.851 2.251 1.649 8553
-0.851 2.249 1.638 7456
-0.850 2.247 1.627 6387
-0.856 2.263 1.629 6093
-0.860 2.274 1.626 5985
-0.859 2.271 1.615 5922
-0.887 2.345 1.654 6485
-0.889 2.349 1.646 7664
-0.890 2.353 1.639 8842
-0.901 2.382 1.648 8233
-0.908 2.399 1.649 9763
-0.912 2.410 1.646 9003
-0.911 2.407 1.635 10345
-0.912 2.411 1.627 12475
-0.916 2.422 1.624 11722
-0.920 2.432 1.620 11416
-0.931 2.462 1.629 9872
-0.940 2.485 1.633 10852
-0.937 2.477 1.618 10228
-0.936 2.474 1.606 10386
-0.935 2.472 1.595 10407
-0.944 2.495 1.599 9954
-0.948 2.505 1.595 9947
-0.952 2.516 1.591 8301
-0.958 2.533 1.591 7350
-0.960 2.537 1.583 7315
-0.961 2.541 1.576 5524
-0.987 2.610 1.605 4960
-0.991 2.620 1.601 7116
-0.990 2.618 1.589 10177
-0.992 2.622 1.581 11175
-0.993 2.626 1.573 8848
-0.997 2.636 1.569 7069
-1.016 2.686 1.586 9210
-1.005 2.657 1.560 10397
-1.004 2.654 1.548 11957
-1.006 2.658 1.540 10499
-1.012 2.675 1.539 11625
-1.016 2.686 1.534 13743
-1.035 2.736 1.550 15553
-1.034 2.733 1.538 18597
-1.035 2.737 1.530 14206
-1.034 2.734 1.518 9324
-1.033 2.731 1.506 7216
-1.032 2.728 1.495 5928
-1.084 2.866 1.554 4308
-1.083 2.863 1.541 8583
-1.085 2.867 1.533 11773
-1.086 2.871 1.524 12094
-1.087 2.875 1.515 10615
-1.091 2.885 1.509 8454
-1.098 2.902 1.507 8090
-1.097 2.899 1.495 7105
-1.096 2.896 1.483 5017
-1.094 2.893 1.471 3539
-1.134 2.999 1.509 3339
-1.138 3.009 1.503 4501
-1.137 3.006 1.491 4624
-1.131 2.989 1.472 7424
-1.135 3.000 1.466 8588
-1.139 3.010 1.460 6028
-1.163 3.075 1.478 6142
-1.139 3.010 1.439 5280
-1.145 3.028 1.435 5940
-1.147 3.031 1.426 4106
-1.195 3.158 1.470 4050
-1.173 3.100 1.434 4121
-1.174 3.104 1.424 4981
-1.204 3.183 1.446 5045
-1.205 3.187 1.436 7924
-1.196 3.162 1.415 7291
-1.192 3.152 1.400 6609
-1.209 3.197 1.407 6547
-1.216 3.214 1.403 7865
-1.220 3.225 1.396 6225
-1.219 3.221 1.383 3950
-1.217 3.218 1.370 3223
-1.427 3.771 1.572 3766
-1.428 3.775 1.561 3689
-1.224 3.235 1.343 3119
-1.442 3.811 1.548 3858
-1.456 3.850 1.549 5526
-1.222 3.230 1.308 6786
-1.223 3.233 1.298 6769
-1.224 3.237 1.288 5638
-1.531 4.047 1.567 5598
-1.535 4.058 1.557 6360
-1.537 4.062 1.544 4282
-1.538 4.066 1.532 4573
-1.577 4.169 1.553 6220
-1.581 4.179 1.543 5204
-1.556 4.113 1.506 3733
-1.570 4.152 1.505 4566
-1.585 4.191 1.504 6916
-1.592 4.209 1.496 6753
-1.599 4.226 1.487 5042
-1.611 4.259 1.483 3075
-1.628 4.305 1.484 4507
-1.638 4.330 1.477 5472
-1.645 4.348 1.468 6151
-1.651 4.365 1.459 4892
-1.666 4.405 1.456 4382
-1.721 4.551 1.485 3211
-1.720 4.547 1.469 4275
-1.722 4.551 1.455 4108
-1.728 4.569 1.445 3810
-1.738 4.594 1.437 5644
-1.745 4.612 1.427 5523
-1.732 4.579 1.403 4116
-1.807 4.776 1.442 4163
-1.843 4.873 1.453 4200
-1.796 4.748 1.403 4060
-1.854 4.902 1.428 3981
-1.861 4.920 1.417 3493
-1.881 4.974 1.415 3598
-1.924 5.085 1.427 3941
-1.928 5.096 1.413 3588
-1.937 5.121 1.403 3235
-1.974 5.218 1.410 2808
-2.011 5.315 1.416 2763
-1.971 5.211 1.374 3291
-2.019 5.337 1.387 2927
-2.023 5.347 1.372 3387
-2.106 5.568 1.405 3603
-2.075 5.484 1.369 2518
-2.139 5.655 1.389 2473
-2.135 5.643 1.368 2336
-2.136 5.647 1.351 2286
-2.187 5.781 1.361 2561
-2.193 5.799 1.346 3081
-2.250 5.947 1.358 2322
-2.276 6.016 1.353 2831
-2.277 6.019 1.335 3498
-2.275 6.015 1.314 2175
-2.392 6.324 1.355 2754
-2.399 6.342 1.338 2580
-2.621 6.929 1.428 2858
-2.622 6.933 1.406 4009
-2.621 6.929 1.384 3663
-2.625 6.939 1.363 2103
-2.690 7.111 1.371 2202
-2.691 7.114 1.349 1627
-2.701 7.139 1.331 1367
-3.078 8.138 1.473 2396
-3.080 8.141 1.447 4116
-3.081 8.145 1.422 5008
-3.085 8.156 1.398 5579
-3.084 8.152 1.372 5981
-3.085 8.155 1.346 5903
-3.086 8.158 1.321 5142
-3.085 8.154 1.295 4430
-3.089 8.165 1.270 3689
-3.090 8.168 1.245 2354
-3.199 8.457 1.258 1902
-3.198 8.453 1.231 1985
-3.201 8.463 1.205 1826
-3.200 8.459 1.178 1376
-3.229 8.535 1.161 1015
-3.249 8.589 1.140 1153
-2.974 7.863 1.030 912
-2.975 7.866 1.006 1128
-3.188 8.428 1.042 1213
-2.576 6.809 0.846 1780
-2.975 7.865 0.932 2317
-3.049 8.059 0.927 2451
-2.832 7.486 0.847 2875
-2.835 7.495 0.824 3407
-2.836 7.497 0.801 4281
-2.837 7.499 0.778 4486
-2.887 7.633 0.765 4811
-2.575 6.808 0.676 5585
-2.579 6.817 0.656 5862
-2.582 6.825 0.635 4917
-2.582 6.827 0.614 3541
-2.499 6.606 0.578 3321
-2.499 6.607 0.557 3739
-2.497 6.601 0.537 4199
-2.495 6.595 0.516 4663
-2.498 6.603 0.496 4349
-2.498 6.604 0.475 4040
-2.499 6.605 0.455 3756
-2.496 6.599 0.434 3800
-2.499 6.607 0.414 3327
-2.446 6.467 0.388 2995
-2.458 6.497 0.369 3698
-2.455 6.490 0.349 3338
-2.436 6.439 0.327 2500
-2.433 6.432 0.307 3155
-2.436 6.440 0.287 2782
-2.439 6.448 0.267 2456
-2.439 6.448 0.247 1785
-2.324 6.145 0.223 1592
-2.324 6.145 0.204 2294
-2.325 6.145 0.185 2955
-2.322 6.138 0.166 2934
-2.325 6.145 0.147 2178
-2.297 6.071 0.128 1789
-2.297 6.071 0.109 1491
-2.294 6.064 0.091 1205
-2.327 6.152 0.071 1160
-2.324 6.145 0.052 1341
-2.324 6.144 0.033 1278
-2.321 6.137 0.014 1205
-2.321 6.136 -0.005 952
-2.324 6.143 -0.024 504
-2.324 6.143 -0.043 296
-0.753 2.009 1.680 4345
-0.754 2.013 1.674 8691
-0.756 2.018 1.668 8691
-0.757 2.022 1.661 5989
-0.768 2.050 1.674 4214
-0.770 2.054 1.668 5091
-0.767 2.046 1.652 6149
-0.770 2.056 1.650 6604
-0.772 2.061 1.644 7099
-0.773 2.065 1.638 7099
-0.777 2.075 1.636 7112
-0.779 2.079 1.630 7249
-0.780 2.083 1.623 7710
-0.784 2.093 1.622 8223
-0.783 2.091 1.611 6090
-0.810 2.163 1.653 4732
-0.809 2.161 1.642 3997
-0.809 2.159 1.631 3550
-0.808 2.157 1.620 3646
-0.809 2.161 1.613 5466
-0.811 2.165 1.607 7185
-0.812 2.169 1.600 6793
-0.844 2.254 1.649 7421
-0.846 2.258 1.642 6227
-0.847 2.262 1.636 5033
-0.851 2.272 1.633 5436
-0.855 2.283 1.630 5948
-0.854 2.280 1.619 5968
-0.856 2.284 1.612 6000
-0.881 2.352 1.646 7380
-0.883 2.356 1.639 8998
-0.891 2.379 1.644 8177
-0.897 2.396 1.645 9349
-0.899 2.400 1.638 8122
-0.903 2.410 1.635 8714
-0.904 2.414 1.627 10274
-0.908 2.425 1.624 9763
-0.915 2.442 1.624 9892
-0.928 2.478 1.637 10091
-0.932 2.488 1.633 11833
-0.931 2.486 1.622 10891
-0.930 2.484 1.610 10722
-0.932 2.488 1.603 10951
-0.936 2.498 1.599 10319
-0.940 2.508 1.595 9860
-0.944 2.519 1.591 8661
-0.948 2.529 1.587 8352
-0.949 2.533 1.579 8546
-0.951 2.537 1.572 6793
-0.950 2.535 1.560 4090
-0.980 2.617 1.597 6936
-0.982 2.621 1.589 11065
-0.983 2.625 1.581 11915
-0.985 2.629 1.573 9059
-0.989 2.639 1.569 6234
-1.010 2.696 1.589 8566
-0.997 2.660 1.560 9675
-0.996 2.658 1.548 12899
-0.997 2.661 1.540 12172
-1.001 2.672 1.535 12278
-1.005 2.682 1.531 13018
-1.029 2.746 1.554 15682
-1.025 2.737 1.538 19057
-1.027 2.740 1.530 15087
-1.028 2.744 1.522 10086
-1.024 2.735 1.506 7311
-1.023 2.732 1.495 5962
-1.075 2.869 1.554 5338
-1.074 2.867 1.541 10035
-1.075 2.870 1.533 12511
-1.077 2.874 1.524 12154
-1.078 2.878 1.515 10350
-1.085 2.895 1.513 8479
-1.086 2.899 1.504 8670
-1.087 2.903 1.495 7704
-1.089 2.906 1.486 5039
-1.098 2.930 1.487 3302
-1.117 2.982 1.500 3523
-1.129 3.013 1.503 4127
-1.120 2.989 1.482 4306
-1.119 2.986 1.469 8051
-1.123 2.996 1.463 9547
-1.126 3.007 1.457 6641
-1.148 3.065 1.472 5686
-1.129 3.014 1.439 6033
-1.136 3.031 1.435 6447
-1.137 3.035 1.426 4560
-1.179 3.148 1.464 4244
-1.171 3.124 1.442 4800
-1.167 3.114 1.427 5506
-1.194 3.187 1.446 5255
-1.195 3.190 1.436 8064
-1.186 3.166 1.415 7619
-1.182 3.156 1.400 6355
-1.202 3.208 1.410 6549
-1.206 3.218 1.403 8054
-1.210 3.229 1.396 6094
-1.208 3.225 1.383 3677
-1.207 3.222 1.370 2926
-1.412 3.769 1.570 3839
-1.413 3.773 1.558 3873
-1.216 3.245 1.346 3475
-1.209 3.228 1.328 3996
-1.210 3.231 1.318 5313
-1.212 3.234 1.308 7056
-1.213 3.237 1.298 7271
-1.214 3.241 1.288 6174
-1.521 4.059 1.569 6019
-1.522 4.063 1.557 6955
-1.524 4.067 1.544 4758
-1.525 4.071 1.532 4512
-1.564 4.174 1.553 5128
-1.568 4.184 1.543 4619
-1.543 4.118 1.506 3698
-1.557 4.157 1.505 4243
-1.572 4.196 1.504 6691
-1.576 4.207 1.493 6443
-1.585 4.232 1.487 4862
-1.592 4.249 1.479 3163
-1.620 4.324 1.488 3977
-1.627 4.342 1.479 4942
-1.631 4.353 1.468 5940
-1.640 4.378 1.461 4689
-1.652 4.410 1.456 3890
-1.710 4.563 1.487 2891
-1.714 4.574 1.475 3731
-1.710 4.564 1.457 3994
-1.706 4.553 1.439 4145
-1.718 4.585 1.433 4543
-1.730 4.617 1.427 4877
-1.720 4.592 1.405 4183
-1.751 4.674 1.412 4496
-1.763 4.707 1.406 4276
-1.775 4.739 1.399 4058
-1.839 4.908 1.428 4055
-1.845 4.926 1.417 3908
-1.844 4.922 1.400 3412
-1.905 5.084 1.425 3843
-1.906 5.088 1.409 3799
-1.953 5.214 1.424 3656
-1.952 5.210 1.406 3257
-1.994 5.322 1.416 3009
-1.954 5.217 1.374 3141
-1.999 5.336 1.385 2847
-2.082 5.557 1.419 2986
-2.088 5.575 1.405 3729
-2.057 5.491 1.369 2906
-2.121 5.661 1.389 2404
-2.117 5.650 1.368 2109
-2.153 5.748 1.371 2303
-2.168 5.788 1.361 3018
-2.172 5.798 1.345 3460
-2.228 5.947 1.357 2421
-2.259 6.031 1.355 2812
-2.260 6.034 1.336 3099
-2.294 6.125 1.335 2045
-2.372 6.332 1.355 2781
-2.376 6.343 1.337 2543
-2.596 6.930 1.427 2546
-2.597 6.934 1.405 3597
-2.599 6.937 1.384 3424
-2.606 6.955 1.365 2077
-2.667 7.119 1.371 2104
-2.671 7.130 1.350 1548
-2.678 7.148 1.331 1411
-3.052 8.148 1.473 2158
-3.054 8.151 1.447 3753
-3.055 8.155 1.422 4579
-3.059 8.166 1.398 4946
-3.058 8.162 1.372 5205
-3.059 8.165 1.346 5368
-3.060 8.168 1.321 4813
-3.058 8.164 1.295 4013
-3.062 8.175 1.270 3269
-3.064 8.178 1.245 1981
-3.172 8.467 1.258 1797
-3.171 8.463 1.231 2044
-3.174 8.473 1.205 1973
-3.173 8.469 1.178 1449
-3.215 8.582 1.165 889
-3.222 8.600 1.140 1074
-3.129 8.352 1.085 1131
-2.950 7.875 1.006 1250
-2.553 6.815 0.867 1375
-2.554 6.817 0.846 2409
-2.552 6.812 0.824 2629
-2.550 6.806 0.803 2446
-2.810 7.502 0.848 2676
-2.811 7.504 0.824 3147
-2.812 7.506 0.801 3898
-2.813 7.508 0.778 4089
-2.863 7.642 0.765 4157
-2.553 6.816 0.676 5846
-2.557 6.825 0.656 5809
-2.563 6.841 0.636 4743
-2.561 6.835 0.614 3251
-2.478 6.614 0.578 2889
-2.556 6.823 0.571 3422
-2.476 6.609 0.537 3866
-2.474 6.603 0.516 4282
-2.477 6.611 0.496 3912
-2.477 6.612 0.475 3606
-2.477 6.613 0.455 3405
-2.475 6.606 0.434 3548
-2.478 6.615 0.414 3130
-2.426 6.475 0.388 2971
-2.434 6.497 0.369 3718
-2.434 6.498 0.349 3344
-2.415 6.447 0.327 2237
-2.413 6.440 0.307 2837
-2.413 6.440 0.287 2404
-2.416 6.448 0.267 2030
-2.352 6.278 0.244 1550
-2.302 6.145 0.223 1930
-2.302 6.145 0.204 2444
-2.302 6.145 0.185 2571
-2.280 6.086 0.166 3153
-2.280 6.086 0.147 2979
-2.277 6.078 0.128 2820
-2.277 6.078 0.109 2260
-2.274 6.071 0.091 1745
-2.274 6.071 0.072 1475
-2.305 6.152 0.052 1534
-2.305 6.152 0.033 1321
-2.304 6.151 0.014 1097
-2.302 6.144 -0.005 889
-2.304 6.151 -0.024 490
-2.304 6.150 -0.043 294
-0.748 2.011 1.680 4501
-0.749 2.015 1.674 9002
-0.751 2.019 1.668 9002
-0.753 2.024 1.661 6177
-0.763 2.052 1.674 4168
-0.762 2.050 1.663 5122
-0.762 2.048 1.652 6286
-0.763 2.052 1.646 6805
-0.765 2.056 1.640 7323
-0.766 2.060 1.633 7323
-0.770 2.071 1.632 7028
-0.774 2.081 1.630 6989
-0.778 2.091 1.628 7547
-0.779 2.095 1.622 8128
-0.778 2.093 1.611 6053
-0.812 2.183 1.666 4724
-0.813 2.187 1.660 4028
-0.804 2.161 1.631 3775
-0.803 2.158 1.620 3833
-0.804 2.163 1.613 5735
-0.806 2.167 1.607 7528
-0.807 2.171 1.600 6941
-0.839 2.256 1.649 6375
-0.840 2.260 1.642 5197
-0.844 2.270 1.640 4113
-0.848 2.281 1.637 5049
-0.850 2.285 1.630 6053
-0.849 2.282 1.619 6085
-0.850 2.286 1.612 6210
-0.875 2.354 1.646 7128
-0.877 2.358 1.639 9012
-0.881 2.368 1.636 8221
-0.889 2.391 1.641 9064
-0.891 2.396 1.634 7864
-0.895 2.406 1.631 7229
-0.899 2.416 1.627 7838
-0.903 2.427 1.624 7580
-0.918 2.469 1.640 8682
-0.922 2.480 1.637 10364
-0.926 2.491 1.633 12612
-0.928 2.495 1.626 11681
-0.927 2.492 1.614 11336
-0.928 2.496 1.606 11655
-0.930 2.500 1.599 10693
-0.931 2.504 1.591 9731
-0.938 2.521 1.591 8968
-0.942 2.532 1.587 9321
-0.943 2.536 1.579 9834
-0.944 2.540 1.572 8267
-0.943 2.537 1.560 5390
-0.974 2.619 1.597 7541
-0.973 2.617 1.585 11751
-0.975 2.621 1.577 12630
-0.976 2.625 1.569 9280
-1.005 2.701 1.601 6211
-1.004 2.698 1.589 8364
-0.990 2.663 1.560 9403
-0.989 2.660 1.548 13975
-0.991 2.664 1.540 13619
-0.995 2.674 1.535 12691
-1.028 2.765 1.573 12438
-1.022 2.749 1.554 15750
-1.021 2.746 1.542 19283
-1.023 2.750 1.533 15791
-1.024 2.753 1.525 10916
-1.020 2.744 1.510 7131
-1.017 2.734 1.495 5701
-1.066 2.865 1.550 6461
-1.067 2.869 1.541 10989
-1.071 2.880 1.536 13271
-1.072 2.884 1.527 13034
-1.071 2.881 1.515 10881
-1.078 2.898 1.513 8674
-1.079 2.902 1.504 8962
-1.080 2.905 1.495 8116
-1.084 2.916 1.489 5171
-1.103 2.967 1.503 3951
-1.107 2.978 1.497 4226
-1.119 3.009 1.500 3946
-1.110 2.985 1.478 4675
-1.111 2.989 1.469 8666
-1.115 2.999 1.463 10292
-1.119 3.010 1.457 7488
-1.121 3.013 1.448 6069
-1.124 3.024 1.442 6859
-1.126 3.027 1.432 6849
-1.130 3.038 1.426 4957
-1.167 3.137 1.458 4662
-1.166 3.134 1.445 5694
-1.159 3.117 1.427 5879
-1.189 3.197 1.449 5598
-1.188 3.193 1.436 8188
-1.179 3.169 1.415 7733
-1.177 3.166 1.403 6060
-1.194 3.211 1.410 6487
-1.200 3.228 1.406 7883
-1.202 3.232 1.396 5597
-1.200 3.228 1.383 3213
-1.199 3.224 1.370 2424
-1.400 3.765 1.567 4063
-1.402 3.769 1.555 4681
-1.208 3.248 1.346 3537
-1.201 3.231 1.328 3861
-1.203 3.234 1.318 4989
-1.204 3.237 1.308 6828
-1.205 3.240 1.298 7293
-1.206 3.243 1.288 6341
-1.511 4.063 1.569 6056
-1.515 4.074 1.559 7447
-1.516 4.078 1.547 5235
-1.521 4.089 1.537 4721
-1.525 4.100 1.527 4883
-1.558 4.188 1.543 3915
-1.533 4.121 1.506 2972
-1.560 4.196 1.517 3859
-1.562 4.200 1.504 6491
-1.566 4.210 1.493 6140
-1.575 4.235 1.487 4711
-1.595 4.289 1.490 3720
-1.610 4.328 1.488 3492
-1.616 4.346 1.479 4273
-1.623 4.364 1.470 5649
-1.630 4.382 1.461 4606
-1.644 4.421 1.458 3716
-1.701 4.575 1.490 2946
-1.705 4.586 1.478 3785
-1.699 4.568 1.457 4011
-1.695 4.557 1.439 4992
-1.699 4.568 1.427 4698
-1.716 4.614 1.425 4638
-1.715 4.611 1.409 4681
-1.740 4.679 1.412 4651
-1.747 4.697 1.402 4578
-1.764 4.743 1.399 3933
-1.829 4.919 1.430 3916
-1.833 4.930 1.417 4083
-1.832 4.926 1.400 3094
-1.892 5.089 1.425 3566
-1.894 5.092 1.409 3795
-1.938 5.211 1.422 3810
-1.939 5.215 1.406 3600
-1.981 5.327 1.416 3180
-1.977 5.316 1.397 3366
-1.981 5.326 1.382 2837
-2.068 5.562 1.419 2880
-2.075 5.580 1.405 3594
-2.044 5.496 1.369 2933
-2.110 5.674 1.390 2360
-2.100 5.648 1.366 1805
-2.140 5.753 1.371 2431
-2.154 5.793 1.361 3318
-2.158 5.803 1.345 3694
-2.271 6.105 1.388 2729
-2.245 6.036 1.355 2698
-2.249 6.047 1.337 2705
-2.277 6.123 1.333 2113
-2.360 6.345 1.356 2514
-2.364 6.356 1.338 2278
-2.580 6.936 1.427 2142
-2.581 6.940 1.405 3104
-2.585 6.951 1.385 3139
-2.592 6.969 1.366 2199
-2.650 7.126 1.371 2005
-2.657 7.144 1.352 1489
-2.661 7.154 1.331 1391
-3.033 8.155 1.473 1865
-3.034 8.158 1.447 3232
-3.038 8.169 1.423 3942
-3.039 8.173 1.398 4133
-3.038 8.169 1.372 4257
-3.039 8.172 1.346 4578
-3.040 8.176 1.321 4284
-3.042 8.179 1.296 3426
-3.043 8.182 1.270 2644
-3.129 8.413 1.276 1927
-3.149 8.468 1.257 1741
-3.150 8.471 1.231 1891
-3.151 8.474 1.204 1738
-3.152 8.477 1.178 1195
-3.195 8.590 1.165 851
-3.201 8.607 1.140 937
-2.930 7.880 1.030 1070
-3.148 8.465 1.071 1422
-2.537 6.821 0.867 1790
-2.538 6.823 0.846 3216
-2.535 6.818 0.824 3545
-2.533 6.812 0.803 3317
-2.542 6.836 0.784 3140
-2.546 6.845 0.763 3339
-2.794 7.513 0.801 3194
-2.795 7.514 0.778 3416
-2.534 6.813 0.697 3785
-2.534 6.815 0.676 6038
-2.540 6.831 0.656 5499
-2.546 6.847 0.636 4226
-2.428 6.530 0.592 3298
-2.509 6.746 0.586 2832
-2.542 6.836 0.571 3152
-2.540 6.830 0.550 3530
-2.427 6.527 0.511 3923
-2.425 6.521 0.490 3562
-2.461 6.618 0.475 2948
-2.462 6.619 0.455 2909
-2.459 6.612 0.434 3237
-2.459 6.613 0.413 2814
-2.410 6.480 0.388 2987
-2.416 6.496 0.368 3689
-2.416 6.496 0.348 3265
-2.391 6.430 0.326 2222
-2.394 6.438 0.307 2538
-2.397 6.446 0.287 2072
-2.403 6.461 0.267 1701
-2.340 6.291 0.244 1747
-2.284 6.143 0.223 2299
-2.287 6.150 0.204 2375
-2.263 6.084 0.184 3261
-2.263 6.084 0.166 4050
-2.263 6.084 0.147 4040
-2.265 6.091 0.128 4039
-2.263 6.084 0.109 3242
-2.260 6.076 0.091 2505
-2.260 6.076 0.072 2070
-2.287 6.150 0.052 1692
-2.262 6.083 0.034 1267
-2.262 6.083 0.015 868
-2.290 6.157 -0.005 690
-2.251 6.052 -0.021 442
-2.251 6.052 -0.040 376
-2.250 6.051 -0.059 310
-0.745 2.012 1.680 4545
-0.747 2.016 1.674 9091
-0.748 2.020 1.668 9091
-0.750 2.025 1.661 6258
-0.760 2.053 1.674 4188
-0.759 2.051 1.663 5164
-0.756 2.043 1.648 6440
-0.758 2.047 1.641 7010
-0.762 2.057 1.640 7609
-0.763 2.061 1.633 7609
-0.767 2.072 1.632 6933
-0.771 2.082 1.630 6643
-0.775 2.092 1.628 7235
-0.776 2.096 1.622 7842
-0.775 2.094 1.611 5906
-0.811 2.191 1.671 4919
-0.810 2.189 1.660 4122
-0.800 2.162 1.631 4070
-0.800 2.160 1.620 4124
-0.801 2.164 1.613 5982
-0.805 2.174 1.611 7856
-0.804 2.172 1.600 6953
-0.806 2.176 1.594 6176
-0.840 2.267 1.647 4732
-0.848 2.290 1.652 4194
-0.847 2.288 1.641 5192
-0.846 2.286 1.630 6211
-0.848 2.290 1.623 6316
-0.847 2.288 1.612 6449
-0.872 2.355 1.646 6883
-0.874 2.359 1.639 8846
-0.877 2.370 1.636 8252
-0.886 2.393 1.641 8997
-0.885 2.390 1.630 8257
-0.877 2.369 1.606 6458
-0.879 2.373 1.599 5651
-0.911 2.460 1.644 6020
-0.917 2.477 1.644 8165
-0.921 2.488 1.641 10545
-0.923 2.492 1.633 13168
-0.924 2.496 1.626 12606
-0.926 2.500 1.618 12337
-0.927 2.504 1.610 12629
-0.926 2.502 1.599 11100
-0.928 2.506 1.591 9655
-0.936 2.529 1.595 9165
-0.938 2.533 1.587 9993
-0.939 2.537 1.579 10820
-0.941 2.541 1.572 9607
-0.942 2.545 1.564 6765
-0.968 2.614 1.593 8385
-0.969 2.618 1.585 12242
-0.971 2.622 1.577 13052
-0.972 2.626 1.569 9618
-1.001 2.703 1.601 6572
-1.000 2.700 1.589 8420
-0.989 2.671 1.563 9777
-0.988 2.668 1.552 15359
-0.989 2.672 1.543 14949
-0.991 2.676 1.535 12774
-1.024 2.766 1.573 11946
-1.018 2.750 1.554 15711
-1.017 2.747 1.542 19325
-1.019 2.751 1.533 16448
-1.025 2.768 1.532 12118
-1.029 2.779 1.527 7600
-1.043 2.816 1.535 5749
-1.064 2.874 1.554 7084
-1.063 2.871 1.541 11861
-1.067 2.881 1.536 14602
-1.068 2.885 1.527 14572
-1.067 2.882 1.515 11698
-1.074 2.899 1.513 8676
-1.075 2.903 1.504 8728
-1.076 2.907 1.495 7981
-1.088 2.938 1.499 5378
-1.099 2.969 1.503 4909
-1.101 2.972 1.494 5014
-1.104 2.983 1.488 4438
-1.103 2.980 1.475 5276
-1.105 2.983 1.466 9110
-1.109 2.994 1.460 10834
-1.112 3.004 1.454 8716
-1.116 3.015 1.448 7493
-1.120 3.025 1.442 7655
-1.121 3.029 1.432 7125
-1.125 3.039 1.426 5276
-1.162 3.139 1.458 4888
-1.161 3.136 1.445 6276
-1.157 3.126 1.430 6142
-1.184 3.198 1.449 5894
-1.183 3.195 1.436 8158
-1.174 3.171 1.415 7612
-1.175 3.174 1.406 5631
-1.189 3.212 1.410 6096
-1.196 3.230 1.406 7135
-1.197 3.233 1.396 4600
-1.193 3.223 1.380 2567
-1.362 3.680 1.546 2242
-1.392 3.760 1.564 4518
-1.396 3.771 1.555 5748
-1.398 3.775 1.544 3932
-1.404 3.793 1.538 3962
-1.411 3.811 1.531 4400
-1.199 3.239 1.308 6055
-1.200 3.242 1.298 6695
-1.202 3.245 1.288 5938
-1.505 4.065 1.569 5787
-1.509 4.076 1.559 7486
-1.508 4.073 1.544 5650
-1.515 4.091 1.537 4638
-1.519 4.102 1.527 4688
-1.538 4.155 1.531 3714
-1.527 4.123 1.506 2747
-1.554 4.198 1.517 4209
-1.556 4.202 1.504 6529
-1.562 4.220 1.496 5951
-1.569 4.238 1.487 4531
-1.589 4.291 1.490 4410
-1.593 4.302 1.479 3335
-1.613 4.355 1.481 3552
-1.617 4.366 1.470 5270
-1.621 4.377 1.459 4668
-1.635 4.416 1.456 3860
-1.695 4.577 1.490 3209
-1.699 4.588 1.478 4030
-1.687 4.556 1.453 4451
-1.691 4.567 1.441 5940
-1.692 4.570 1.427 5458
-1.709 4.617 1.425 4655
-1.705 4.606 1.407 5365
-1.733 4.681 1.412 4764
-1.743 4.706 1.404 4760
-1.755 4.738 1.397 3698
-1.822 4.922 1.430 3704
-1.826 4.933 1.417 4114
-1.825 4.929 1.400 2567
-1.882 5.084 1.423 3240
-1.884 5.088 1.408 3563
-1.931 5.214 1.422 3889
-1.932 5.217 1.406 3648
-1.971 5.322 1.415 3090
-1.969 5.318 1.397 3609
-1.971 5.322 1.380 2696
-2.028 5.478 1.399 2751
-2.064 5.575 1.404 3497
-2.036 5.499 1.369 2970
-2.102 5.677 1.390 2198
-2.103 5.680 1.373 1627
-2.129 5.749 1.369 2584
-2.146 5.796 1.361 3419
-2.150 5.807 1.345 3841
-2.262 6.109 1.388 3410
-2.244 6.061 1.359 2565
-2.248 6.072 1.342 2441
-2.263 6.111 1.330 2101
-2.351 6.348 1.356 2283
-2.352 6.352 1.337 2111
-2.570 6.940 1.427 1794
-2.571 6.943 1.405 2473
-2.575 6.954 1.385 2682
-2.584 6.980 1.367 2351
-2.637 7.122 1.370 1885
-2.649 7.155 1.353 1395
-2.650 7.158 1.331 1287
-2.749 7.425 1.352 1750
-3.022 8.163 1.447 2709
-3.026 8.174 1.423 3233
-3.028 8.177 1.398 3230
-3.026 8.173 1.372 3152
-3.104 8.382 1.377 3679
-3.029 8.180 1.321 3555
-3.104 8.382 1.324 2832
-3.110 8.400 1.300 3127
-3.114 8.410 1.275 2508
-3.235 8.737 1.292 1845
-3.138 8.475 1.231 1619
-3.139 8.478 1.204 1511
-3.138 8.474 1.177 1131
-3.182 8.595 1.165 764
-3.189 8.612 1.140 906
-2.919 7.884 1.030 964
-2.532 6.838 0.890 1203
-2.530 6.832 0.868 2020
-2.528 6.827 0.846 3712
-2.523 6.814 0.824 4153
-2.521 6.808 0.802 3979
-2.533 6.840 0.784 3669
-2.536 6.849 0.763 4274
-2.534 6.843 0.741 3654
-2.529 6.830 0.719 3175
-2.527 6.824 0.697 4192
-2.525 6.818 0.676 6218
-2.528 6.827 0.655 5153
-2.537 6.851 0.636 3600
-2.416 6.526 0.592 3456
-2.499 6.750 0.586 2885
-2.502 6.758 0.566 2965
-2.530 6.834 0.550 3097
-2.415 6.523 0.511 3491
-2.413 6.517 0.490 3365
-2.416 6.525 0.470 2654
-2.447 6.608 0.454 2421
-2.444 6.601 0.433 3050
-2.444 6.602 0.413 2576
-2.401 6.484 0.388 2882
-2.404 6.492 0.368 3452
-2.404 6.492 0.348 2934
-2.379 6.426 0.326 2457
-2.380 6.427 0.306 2382
-2.388 6.449 0.287 1841
-2.278 6.153 0.261 1892
-2.278 6.153 0.242 2418
-2.278 6.153 0.223 2943
-2.279 6.154 0.204 2740
-2.254 6.087 0.184 3878
-2.254 6.087 0.166 4649
-2.254 6.087 0.147 4896
-2.257 6.095 0.128 5189
-2.254 6.087 0.109 4174
-2.251 6.080 0.091 3288
-2.251 6.079 0.072 2592
-2.254 6.087 0.053 1918
-2.254 6.086 0.034 1421
-2.253 6.086 0.015 924
-2.248 6.071 -0.003 719
-2.242 6.056 -0.021 542
-2.245 6.062 -0.040 485
-2.245 6.062 -0.059 451
-2.242 6.054 -0.078 417
-2.162 5.838 -0.088 328
-2.161 5.838 -0.106 279
-0.739 2.014 1.680 4465
-0.741 2.018 1.674 8930
-0.742 2.023 1.668 8930
-0.744 2.027 1.661 6191
-0.754 2.055 1.674 4251
-0.754 2.053 1.663 5219
-0.748 2.039 1.643 6653
-0.752 2.049 1.641 7368
-0.754 2.053 1.635 8107
-0.755 2.058 1.629 8107
-0.761 2.074 1.632 6889
-0.778 2.121 1.657 6607
-0.769 2.094 1.628 6860
-0.770 2.098 1.622 7466
-0.801 2.182 1.673 5963
-0.805 2.193 1.671 5066
-0.804 2.191 1.660 4178
-0.794 2.164 1.631 4480
-0.793 2.162 1.620 4562
-0.797 2.172 1.618 6296
-0.799 2.176 1.611 8112
-0.800 2.180 1.605 6980
-0.799 2.178 1.594 5924
-0.835 2.276 1.651 4837
-0.837 2.280 1.644 5090
-0.838 2.284 1.637 5733
-0.842 2.295 1.634 6409
-0.841 2.292 1.623 6576
-0.843 2.296 1.616 6777
-0.865 2.357 1.646 6638
-0.867 2.362 1.639 8540
-0.871 2.372 1.636 8179
-0.877 2.389 1.637 9137
-0.878 2.393 1.630 8936
-0.870 2.371 1.606 6620
-0.870 2.369 1.595 5498
-0.906 2.469 1.648 5608
-0.913 2.486 1.648 7595
-0.914 2.490 1.641 10463
-0.916 2.494 1.633 13331
-0.919 2.505 1.629 13323
-0.921 2.509 1.622 13506
-0.922 2.513 1.614 13663
-0.922 2.511 1.603 11469
-0.921 2.508 1.591 9513
-0.929 2.532 1.595 9227
-0.931 2.536 1.587 10367
-0.932 2.540 1.579 11540
-0.934 2.544 1.572 10687
-0.947 2.580 1.583 8637
-0.956 2.604 1.586 9331
-0.960 2.614 1.582 12496
-0.961 2.618 1.574 13458
-0.962 2.622 1.566 10016
-0.993 2.705 1.601 6771
-0.992 2.703 1.589 8484
-0.981 2.674 1.563 10440
-0.980 2.671 1.552 16736
-0.982 2.675 1.543 16123
-0.983 2.679 1.535 12594
-1.014 2.762 1.569 11241
-1.010 2.753 1.554 15481
-1.009 2.750 1.542 19056
-1.013 2.761 1.537 16871
-1.017 2.771 1.532 13142
-1.023 2.788 1.530 8558
-1.035 2.819 1.535 6812
-1.053 2.870 1.550 7793
-1.055 2.874 1.541 13089
-1.056 2.878 1.533 16098
-1.060 2.888 1.527 15932
-1.059 2.885 1.515 12492
-1.065 2.902 1.513 8394
-1.067 2.906 1.504 7780
-1.068 2.910 1.495 7282
-1.084 2.954 1.505 5522
-1.091 2.972 1.503 5362
-1.092 2.975 1.494 5553
-1.093 2.979 1.484 5079
-1.092 2.976 1.472 5939
-1.096 2.987 1.466 9327
-1.100 2.997 1.460 11116
-1.101 3.001 1.451 10035
-1.108 3.018 1.448 8933
-1.109 3.021 1.439 8283
-1.113 3.032 1.432 7255
-1.117 3.042 1.426 5522
-1.153 3.142 1.458 4710
-1.152 3.139 1.445 6447
-1.151 3.136 1.433 6361
-1.175 3.202 1.449 5990
-1.174 3.198 1.436 7865
-1.165 3.174 1.415 7279
-1.166 3.178 1.406 5275
-1.180 3.216 1.410 5560
-1.187 3.233 1.406 6161
-1.188 3.237 1.396 3566
-1.335 3.638 1.541 2298
-1.365 3.718 1.560 2362
-1.382 3.764 1.564 5176
-1.383 3.768 1.553 6802
-1.387 3.779 1.544 4694
-1.394 3.797 1.538 4347
-1.398 3.808 1.528 4226
-1.190 3.242 1.308 4948
-1.191 3.245 1.298 5720
-1.438 3.918 1.529 5487
-1.494 4.069 1.569 5259
-1.498 4.080 1.559 7226
-1.496 4.077 1.544 5865
-1.500 4.088 1.534 4465
-1.507 4.106 1.527 4405
-1.527 4.159 1.531 3285
-1.546 4.213 1.535 3044
-1.542 4.202 1.517 4551
-1.544 4.206 1.504 6670
-1.550 4.224 1.496 5846
-1.557 4.242 1.487 4214
-1.579 4.303 1.492 4792
-1.581 4.306 1.479 3578
-1.208 3.290 1.148 3280
-1.602 4.364 1.468 4865
-1.606 4.374 1.457 4832
-1.617 4.407 1.452 4121
-1.679 4.575 1.487 3401
-1.665 4.535 1.461 4157
-1.674 4.561 1.453 5067
-1.678 4.571 1.441 7107
-1.682 4.582 1.429 6391
-1.686 4.593 1.417 4889
-1.690 4.603 1.405 6054
-1.760 4.794 1.442 4807
-1.761 4.798 1.427 4694
-1.746 4.758 1.401 3513
-1.785 4.862 1.413 3424
-1.812 4.938 1.417 4075
-1.856 5.057 1.431 2518
-1.868 5.089 1.423 3048
-1.869 5.093 1.408 3211
-1.913 5.212 1.421 3625
-1.920 5.230 1.408 3380
-1.953 5.321 1.413 3004
-1.954 5.324 1.397 3726
-1.953 5.320 1.378 2429
-2.042 5.563 1.418 2815
-2.049 5.581 1.404 3577
-2.018 5.497 1.367 2895
-2.088 5.690 1.392 2051
-2.090 5.693 1.374 1593
-2.110 5.748 1.368 2593
-2.130 5.802 1.361 3509
-2.133 5.813 1.345 3936
-2.244 6.115 1.388 4055
-2.243 6.111 1.368 2781
-2.234 6.085 1.343 2374
-2.243 6.110 1.329 2161
-2.298 6.260 1.338 2178
-2.334 6.358 1.337 1919
-2.324 6.332 1.312 1646
-2.551 6.951 1.405 1823
-2.561 6.976 1.388 2314
-2.567 6.994 1.369 2496
-2.574 7.012 1.350 2166
-2.583 7.038 1.332 1392
-2.592 7.063 1.314 1434
-2.726 7.426 1.351 1933
-2.730 7.437 1.329 2161
-3.003 8.182 1.423 2446
-3.007 8.193 1.399 2341
-3.081 8.395 1.404 2549
-3.080 8.391 1.377 4360
-3.081 8.395 1.351 3986
-3.082 8.398 1.325 3407
-3.086 8.408 1.300 3697
-3.087 8.412 1.274 3003
-3.208 8.739 1.291 2170
-3.209 8.742 1.264 1403
-3.156 8.598 1.218 1143
-3.211 8.748 1.210 1012
-3.215 8.759 1.184 871
-3.107 8.466 1.122 760
-2.512 6.843 0.911 921
-3.117 8.493 1.072 1368
-2.510 6.840 0.868 2319
-2.506 6.827 0.846 4278
-2.504 6.821 0.824 4670
-2.502 6.816 0.802 4513
-2.516 6.854 0.784 3581
-2.517 6.856 0.763 4210
-2.514 6.850 0.741 3662
-2.510 6.837 0.719 3099
-2.505 6.824 0.697 4077
-2.505 6.825 0.676 5899
-2.506 6.827 0.655 4718
-2.400 6.539 0.612 3234
-2.398 6.533 0.592 3517
-2.398 6.534 0.571 2941
-2.483 6.765 0.566 2526
-2.432 6.626 0.537 2743
-2.394 6.523 0.510 3167
-2.389 6.509 0.489 3688
-2.387 6.502 0.469 3056
-2.376 6.473 0.447 2906
-2.417 6.586 0.432 3032
-2.377 6.475 0.407 2837
-2.380 6.483 0.388 3120
-2.380 6.484 0.368 3592
-2.380 6.484 0.348 3004
-2.361 6.433 0.326 2554
-2.359 6.426 0.306 2141
-2.261 6.159 0.280 2164
-2.261 6.159 0.261 2645
-2.261 6.160 0.242 3124
-2.264 6.167 0.223 3611
-2.264 6.168 0.204 3519
-2.237 6.093 0.184 4384
-2.237 6.093 0.166 5077
-2.237 6.094 0.147 5697
-2.239 6.101 0.128 6349
-2.237 6.093 0.109 5143
-2.234 6.086 0.091 4108
-2.234 6.086 0.072 3046
-2.236 6.093 0.053 2037
-2.236 6.093 0.034 1458
-2.239 6.100 0.015 892
-2.225 6.062 -0.003 778
-2.217 6.040 -0.021 653
-2.228 6.069 -0.040 534
-2.148 5.853 -0.052 554
-2.227 6.068 -0.078 555
-2.145 5.844 -0.088 551
-2.145 5.844 -0.106 472
-2.150 5.858 -0.124 406
-2.147 5.850 -0.142 345
-2.122 5.782 -0.157 341
-2.094 5.705 -0.206 254
-2.091 5.697 -0.223 272
-0.733 2.017 1.680 4250
-0.734 2.021 1.674 8500
-0.736 2.025 1.668 8500
-0.739 2.035 1.666 6013
-0.747 2.058 1.674 4344
-0.747 2.056 1.663 5265
-0.742 2.042 1.643 6959
-0.743 2.046 1.637 7896
-0.745 2.050 1.631 8833
-0.746 2.054 1.624 8833
-0.752 2.070 1.627 7089
-0.774 2.129 1.661 6582
-0.759 2.091 1.623 6495
-0.790 2.175 1.675 7173
-0.796 2.191 1.677 6001
-0.800 2.202 1.675 5194
-0.797 2.193 1.660 4266
-0.785 2.160 1.627 5191
-0.786 2.164 1.620 5223
-0.790 2.175 1.618 6691
-0.794 2.185 1.616 8376
-0.795 2.189 1.609 6921
-0.794 2.187 1.598 5529
-0.828 2.279 1.651 5290
-0.829 2.283 1.644 6358
-0.831 2.287 1.637 6511
-0.835 2.297 1.634 6770
-0.834 2.295 1.623 6928
-0.835 2.299 1.616 7192
-0.857 2.360 1.646 6430
-0.859 2.364 1.639 8175
-0.863 2.375 1.636 8082
-0.869 2.392 1.637 9336
-0.870 2.396 1.630 9749
-0.874 2.406 1.627 7273
-0.887 2.442 1.639 5991
-0.893 2.459 1.640 5747
-0.904 2.489 1.648 7035
-0.906 2.493 1.641 10071
-0.907 2.497 1.633 13107
-0.911 2.508 1.629 13763
-0.913 2.512 1.622 14460
-0.914 2.516 1.614 14466
-0.918 2.527 1.610 11807
-0.922 2.537 1.607 9477
-0.923 2.541 1.599 9095
-0.920 2.532 1.583 10475
-0.921 2.536 1.576 12025
-0.925 2.547 1.572 11438
-0.938 2.583 1.583 10454
-0.947 2.607 1.586 10348
-0.951 2.618 1.582 12607
-0.952 2.621 1.574 13606
-0.954 2.625 1.566 10251
-0.982 2.702 1.598 6772
-0.981 2.699 1.586 8348
-0.975 2.683 1.567 11065
-0.971 2.674 1.552 17684
-0.975 2.685 1.547 16864
-0.977 2.688 1.539 12417
-1.002 2.759 1.566 10488
-1.001 2.756 1.554 14937
-1.000 2.753 1.542 18334
-1.004 2.764 1.537 17084
-1.010 2.781 1.535 14177
-1.017 2.798 1.534 9485
-1.028 2.829 1.539 7696
-1.032 2.840 1.533 8672
-1.045 2.877 1.541 14092
-1.047 2.881 1.533 17445
-1.050 2.892 1.527 17329
-1.049 2.889 1.515 13710
-1.056 2.906 1.513 8076
-1.057 2.910 1.504 6420
-1.056 2.907 1.492 6208
-1.075 2.958 1.505 5064
-1.083 2.982 1.506 5165
-1.082 2.979 1.494 5616
-1.081 2.976 1.481 5714
-1.080 2.973 1.469 6629
-1.084 2.983 1.463 9297
-1.088 2.994 1.457 11282
-1.091 3.004 1.451 11129
-1.095 3.015 1.445 10094
-1.099 3.025 1.439 8562
-1.100 3.029 1.429 7180
-1.107 3.046 1.426 5690
-1.120 3.084 1.431 4883
-1.144 3.150 1.448 6051
-1.141 3.140 1.433 6206
-1.162 3.199 1.446 5704
-1.163 3.202 1.436 7265
-1.154 3.178 1.415 6884
-1.156 3.181 1.406 4924
-1.170 3.220 1.410 4838
-1.176 3.237 1.406 5030
-1.180 3.248 1.398 2622
-1.321 3.635 1.538 2659
-1.355 3.730 1.562 2779
-1.367 3.762 1.562 5770
-1.371 3.773 1.553 7432
-1.375 3.784 1.544 5228
-1.381 3.801 1.538 4870
-1.385 3.812 1.528 4181
-1.425 3.922 1.555 4167
-1.426 3.926 1.543 5954
-1.425 3.922 1.529 6865
-1.429 3.933 1.519 5577
-1.484 4.085 1.559 6677
-1.480 4.075 1.542 5721
-1.484 4.086 1.532 4161
-1.493 4.111 1.527 3997
-1.528 4.207 1.545 2709
-1.532 4.218 1.535 3787
-1.531 4.215 1.519 5504
-1.530 4.211 1.504 7132
-1.536 4.229 1.496 5899
-1.543 4.247 1.487 3729
-1.565 4.308 1.492 4919
-1.564 4.304 1.477 4003
-1.197 3.294 1.148 2783
-1.590 4.376 1.470 4685
-1.591 4.380 1.457 5196
-1.595 4.390 1.445 4664
-1.661 4.573 1.485 3487
-1.650 4.541 1.461 4797
-1.659 4.566 1.453 5429
-1.665 4.584 1.443 8592
-1.667 4.588 1.429 7682
-1.668 4.591 1.415 5218
-1.672 4.602 1.403 6271
-1.678 4.620 1.393 5098
-1.742 4.796 1.425 5011
-1.746 4.807 1.412 4257
-1.763 4.854 1.409 3698
-1.796 4.944 1.417 3912
-1.839 5.063 1.431 2778
-1.848 5.088 1.421 3151
-1.852 5.099 1.408 2974
-1.893 5.211 1.419 3110
-1.900 5.229 1.406 2894
-1.930 5.312 1.409 2857
-1.934 5.323 1.395 3424
-1.977 5.443 1.406 2388
-1.984 5.461 1.392 2824
-2.027 5.581 1.402 3498
-2.000 5.504 1.367 2766
-2.128 5.857 1.428 1849
-2.081 5.729 1.381 1678
-2.091 5.755 1.368 2711
-2.110 5.809 1.361 3669
-2.114 5.820 1.345 4179
-2.224 6.122 1.388 4408
-2.223 6.119 1.368 2982
-2.221 6.115 1.348 2306
-2.220 6.111 1.327 2144
-2.346 6.458 1.375 2249
-2.347 6.461 1.355 2141
-2.277 6.267 1.298 1792
-2.347 6.461 1.314 1652
-2.537 6.985 1.388 1976
-2.544 7.003 1.369 2535
-2.551 7.021 1.350 2459
-2.560 7.046 1.332 1679
-2.572 7.079 1.315 1734
-2.701 7.435 1.351 2053
-2.705 7.446 1.329 2151
-2.861 7.876 1.373 2350
-2.865 7.886 1.350 2216
-3.054 8.405 1.404 2763
-3.052 8.401 1.377 4726
-3.056 8.412 1.352 4350
-3.057 8.415 1.326 3759
-3.058 8.419 1.300 4082
-3.059 8.422 1.274 3447
-3.179 8.750 1.291 2285
-3.177 8.746 1.263 1564
-3.178 8.749 1.236 1167
-3.179 8.752 1.209 1006
-3.183 8.762 1.183 798
-3.187 8.772 1.157 676
-2.492 6.858 0.912 926
-2.492 6.861 0.891 1316
-2.488 6.848 0.868 2447
-2.483 6.835 0.846 4655
-2.481 6.829 0.824 5063
-2.476 6.816 0.801 5040
-2.480 6.826 0.781 3808
-2.494 6.864 0.763 4198
-2.492 6.859 0.741 3824
-2.490 6.853 0.720 3105
-2.485 6.840 0.697 3845
-2.480 6.826 0.675 5209
-2.480 6.828 0.654 3946
-2.470 6.799 0.631 2943
-2.376 6.541 0.592 3296
-2.377 6.542 0.571 2848
-2.412 6.640 0.557 2619
-2.410 6.634 0.537 2783
-2.362 6.501 0.508 3705
-2.362 6.502 0.488 4489
-2.362 6.503 0.468 3914
-2.355 6.481 0.447 3692
-2.355 6.482 0.427 3663
-2.355 6.483 0.407 3364
-2.358 6.491 0.388 3354
-2.358 6.492 0.368 3684
-2.353 6.477 0.347 3032
-2.337 6.433 0.326 2809
-2.335 6.426 0.306 2177
-2.240 6.166 0.280 2495
-2.240 6.167 0.261 2899
-2.240 6.167 0.242 3145
-2.243 6.175 0.223 3395
-2.214 6.093 0.203 3442
-2.216 6.101 0.184 4797
-2.216 6.101 0.166 5494
-2.216 6.101 0.147 6298
-2.216 6.101 0.128 7101
-2.216 6.101 0.109 5793
-2.211 6.086 0.091 4651
-2.214 6.093 0.072 3281
-2.216 6.100 0.053 2005
-2.219 6.108 0.034 1437
-2.167 5.966 0.018 1053
-2.167 5.965 -0.000 1061
-2.175 5.987 -0.019 856
-2.137 5.883 -0.035 712
-2.129 5.860 -0.052 759
-2.126 5.852 -0.070 749
-2.126 5.851 -0.088 761
-2.125 5.851 -0.106 651
-2.131 5.865 -0.124 544
-2.103 5.790 -0.139 546
-2.103 5.789 -0.157 581
-2.105 5.796 -0.175 419
-2.081 5.728 -0.189 404
-2.078 5.720 -0.206 423
-2.072 5.704 -0.223 468
-2.066 5.688 -0.239 389
-2.061 5.672 -0.256 373
-2.057 5.663 -0.273 315
-2.035 5.603 -0.286 343
-2.030 5.587 -0.302 329
-2.026 5.578 -0.318 333
-2.026 5.577 -0.335 336
-2.023 5.568 -0.352 336
-2.022 5.567 -0.369 337
-0.729 2.025 1.684 3863
-0.730 2.029 1.678 7726
-0.732 2.033 1.672 7726
-0.736 2.043 1.671 5768
-0.707 1.963 1.600 4478
-0.734 2.040 1.649 5381
-0.734 2.038 1.638 7268
-0.737 2.048 1.637 8425
-0.739 2.052 1.631 9652
-0.740 2.056 1.624 9652
-0.742 2.060 1.618 7570
-0.767 2.132 1.661 6483
-0.753 2.093 1.623 6038
-0.784 2.177 1.675 7009
-0.790 2.194 1.677 5887
-0.793 2.204 1.675 5239
-0.788 2.190 1.655 4421
-0.778 2.163 1.627 5707
-0.780 2.167 1.620 5681
-0.784 2.177 1.618 6841
-0.787 2.187 1.616 8350
-0.791 2.198 1.613 6813
-0.795 2.208 1.611 5369
-0.819 2.275 1.647 6052
-0.820 2.279 1.640 7837
-0.824 2.289 1.637 7321
-0.828 2.300 1.634 7171
-0.829 2.304 1.627 7287
-0.828 2.302 1.616 7488
-0.851 2.363 1.646 6172
-0.852 2.367 1.639 7711
-0.858 2.384 1.640 7985
-0.862 2.394 1.637 9422
-0.863 2.398 1.630 10295
-0.869 2.415 1.631 8400
-0.880 2.445 1.639 7595
-0.882 2.449 1.632 6571
-0.897 2.492 1.648 6347
-0.898 2.496 1.641 9413
-0.900 2.500 1.633 12479
-0.904 2.511 1.629 13638
-0.905 2.515 1.622 14756
-0.909 2.525 1.618 14717
-0.910 2.529 1.610 11786
-0.917 2.546 1.610 9406
-0.918 2.550 1.603 8642
-0.912 2.535 1.583 10043
-0.914 2.539 1.576 11873
-0.918 2.549 1.572 11524
-0.931 2.586 1.583 11525
-0.937 2.603 1.582 10816
-0.943 2.620 1.582 12266
-0.945 2.624 1.574 13345
-0.946 2.628 1.566 10149
-0.974 2.705 1.598 6363
-0.973 2.702 1.586 7828
-0.967 2.686 1.567 11173
-0.966 2.684 1.555 17985
-0.967 2.687 1.547 17001
-0.971 2.698 1.542 12143
-0.992 2.755 1.562 9729
-0.993 2.759 1.554 13688
-0.995 2.763 1.545 16790
-0.998 2.774 1.540 16466
-1.005 2.791 1.539 14689
-1.013 2.815 1.540 10338
-1.019 2.832 1.539 7931
-1.033 2.870 1.547 8957
-1.037 2.880 1.541 14361
-1.038 2.884 1.533 18397
-1.040 2.888 1.524 18712
-1.041 2.892 1.515 14994
-1.042 2.895 1.506 8185
-1.051 2.920 1.507 5229
-1.045 2.903 1.489 4924
-1.066 2.961 1.505 3998
-1.075 2.985 1.506 4659
-1.073 2.982 1.494 5241
-1.072 2.979 1.481 6187
-1.071 2.976 1.469 7132
-1.075 2.986 1.463 8972
-1.079 2.997 1.457 10993
-1.083 3.007 1.451 11513
-1.086 3.018 1.445 10435
-1.090 3.028 1.439 8094
-1.091 3.032 1.429 6560
-1.105 3.070 1.435 5843
-1.109 3.080 1.428 5274
-1.135 3.153 1.448 5201
-1.131 3.143 1.433 5784
-1.153 3.202 1.446 5050
-1.154 3.206 1.436 6330
-1.145 3.181 1.415 6446
-1.146 3.185 1.406 4569
-1.160 3.223 1.410 4086
-1.166 3.241 1.406 3991
-1.336 3.712 1.580 3121
-1.338 3.716 1.568 2967
-1.344 3.734 1.562 2972
-1.356 3.766 1.562 5945
-1.357 3.770 1.550 7620
-1.366 3.795 1.547 5462
-1.372 3.813 1.540 5532
-1.374 3.816 1.528 4345
-1.413 3.926 1.555 4199
-1.415 3.930 1.543 6443
-1.413 3.926 1.529 7900
-1.415 3.930 1.517 6774
-1.424 3.955 1.512 6904
-1.468 4.079 1.542 5321
-1.472 4.090 1.532 3813
-1.479 4.108 1.524 3513
-1.516 4.211 1.545 2452
-1.520 4.222 1.535 4382
-1.519 4.219 1.519 6704
-1.520 4.223 1.506 7724
-1.521 4.227 1.493 5885
-1.554 4.316 1.508 3437
-1.552 4.312 1.492 4726
-1.551 4.309 1.477 4020
-1.581 4.391 1.488 2547
-1.574 4.374 1.468 4590
-1.576 4.377 1.455 5392
-1.579 4.388 1.443 5050
-1.632 4.535 1.472 3606
-1.634 4.539 1.459 5047
-1.645 4.571 1.453 5405
-1.652 4.589 1.443 9554
-1.653 4.593 1.429 8767
-1.654 4.596 1.415 5386
-1.658 4.607 1.403 5949
-1.665 4.625 1.393 5482
-1.723 4.787 1.421 5007
-1.732 4.812 1.412 5103
-1.736 4.823 1.400 3597
-1.781 4.949 1.417 3690
-1.827 5.076 1.433 3001
-1.834 5.094 1.421 3533
-1.837 5.104 1.408 3215
-1.875 5.209 1.417 2847
-1.879 5.220 1.403 2623
-1.906 5.296 1.404 2757
-1.918 5.329 1.395 2900
-1.961 5.449 1.406 2436
-1.965 5.459 1.391 2878
-2.011 5.587 1.402 3468
-1.981 5.503 1.365 2543
-2.111 5.863 1.428 2111
-2.070 5.750 1.384 1866
-2.071 5.753 1.366 2905
-2.096 5.823 1.363 3618
-2.097 5.826 1.345 4171
-2.204 6.122 1.387 4344
-2.205 6.125 1.368 2887
-2.195 6.099 1.343 2182
-2.202 6.117 1.327 2076
-2.327 6.465 1.375 2448
-2.328 6.468 1.355 2283
-2.258 6.273 1.298 2074
-2.325 6.460 1.312 1778
-2.520 6.999 1.389 1645
-2.526 7.017 1.370 2461
-2.533 7.036 1.351 2676
-2.536 7.046 1.330 1922
-2.551 7.086 1.315 1934
-2.679 7.443 1.351 2063
-2.651 7.365 1.315 2112
-2.838 7.884 1.373 2471
-2.842 7.895 1.350 2264
-3.029 8.414 1.404 2799
-3.027 8.410 1.377 4776
-3.031 8.421 1.352 4465
-3.030 8.417 1.325 3822
-3.034 8.428 1.300 4075
-3.035 8.431 1.274 3626
-3.033 8.426 1.247 2458
-3.154 8.762 1.264 1613
-3.155 8.765 1.237 1351
-3.156 8.768 1.210 1114
-3.157 8.771 1.183 729
-3.054 8.485 1.122 714
-2.471 6.866 0.912 942
-2.475 6.875 0.892 1346
-2.468 6.855 0.868 2560
-2.463 6.842 0.846 4860
-2.458 6.829 0.823 5139
-2.456 6.824 0.801 5244
-2.452 6.811 0.779 4108
-2.434 6.760 0.753 3962
-2.472 6.866 0.741 3686
-2.480 6.890 0.722 3107
-2.465 6.847 0.697 3523
-2.463 6.841 0.676 4301
-2.452 6.813 0.652 3254
-2.447 6.799 0.630 2716
-2.419 6.719 0.604 3105
-2.414 6.705 0.582 2864
-2.395 6.654 0.558 2948
-2.393 6.648 0.537 3067
-2.340 6.500 0.508 4466
-2.343 6.509 0.488 5362
-2.341 6.502 0.468 4871
-2.333 6.481 0.447 4632
-2.336 6.489 0.427 4538
-2.336 6.490 0.407 4015
-2.339 6.498 0.388 3624
-2.339 6.499 0.368 3757
-2.334 6.484 0.347 3081
-2.318 6.440 0.326 2791
-2.217 6.158 0.299 2706
-2.198 6.106 0.278 2994
-2.195 6.099 0.260 4007
-2.193 6.092 0.241 4039
-2.190 6.085 0.222 4178
-2.193 6.092 0.203 4077
-2.196 6.100 0.184 4614
-2.196 6.100 0.166 5104
-2.198 6.107 0.147 5782
-2.198 6.107 0.128 6629
-2.198 6.107 0.109 5399
-2.193 6.092 0.091 4410
-2.196 6.100 0.072 2872
-2.204 6.122 0.053 1539
-2.150 5.973 0.036 1293
-2.150 5.972 0.018 1430
-2.150 5.972 -0.000 1460
-2.155 5.986 -0.019 1176
-2.120 5.889 -0.035 958
-2.109 5.859 -0.052 1023
-2.109 5.858 -0.070 1011
-2.109 5.858 -0.088 1011
-2.108 5.857 -0.106 851
-2.105 5.849 -0.123 696
-2.086 5.796 -0.139 724
-2.086 5.795 -0.157 772
-2.086 5.794 -0.175 558
-2.064 5.734 -0.189 576
-2.061 5.726 -0.206 619
-2.055 5.710 -0.223 709
-2.047 5.686 -0.239 627
-2.044 5.678 -0.256 614
-2.027 5.632 -0.270 525
-2.019 5.609 -0.286 588
-2.011 5.585 -0.301 564
-2.007 5.577 -0.318 576
-2.007 5.575 -0.335 589
-2.006 5.574 -0.352 601
-2.003 5.565 -0.368 614
-2.005 5.571 -0.386 413
-0.723 2.027 1.684 3512
-0.725 2.031 1.678 7025
-0.726 2.035 1.672 7025
-0.730 2.045 1.671 5711
-0.701 1.965 1.600 4815
-0.729 2.042 1.649 5788
-0.726 2.034 1.634 7781
-0.730 2.044 1.632 9225
-0.731 2.048 1.626 10678
-0.732 2.052 1.620 10678
-0.736 2.062 1.618 8415
-0.762 2.134 1.661 6234
-0.765 2.144 1.659 5773
-0.778 2.179 1.675 6693
-0.784 2.196 1.677 5715
-0.787 2.206 1.675 5202
-0.782 2.192 1.655 4556
-0.773 2.165 1.627 6036
-0.774 2.169 1.620 5958
-0.778 2.179 1.618 6865
-0.782 2.189 1.616 8249
-0.787 2.206 1.617 6829
-0.791 2.216 1.615 5621
-0.811 2.271 1.642 7329
-0.814 2.281 1.640 9452
-0.816 2.285 1.633 8358
-0.822 2.302 1.634 7733
-0.823 2.306 1.627 7685
-0.822 2.304 1.616 7692
-0.842 2.359 1.642 5927
-0.846 2.369 1.639 7255
-0.852 2.386 1.640 7964
-0.853 2.390 1.633 9537
-0.857 2.401 1.630 10660
-0.865 2.424 1.635 9518
-0.874 2.447 1.639 8968
-0.875 2.452 1.632 7613
-0.879 2.462 1.628 6260
-0.892 2.498 1.641 8631
-0.893 2.503 1.633 11631
-0.897 2.513 1.629 13159
-0.901 2.524 1.626 14630
-0.902 2.528 1.618 14563
-0.906 2.538 1.614 11496
-0.910 2.549 1.610 9153
-0.914 2.559 1.606 8119
-0.906 2.537 1.583 9175
-0.909 2.548 1.579 11265
-0.916 2.565 1.579 11177
-0.924 2.589 1.583 12154
-0.930 2.606 1.582 11011
-0.936 2.623 1.582 11768
-0.938 2.627 1.574 12876
-0.939 2.631 1.566 9788
-0.962 2.694 1.590 5792
-0.963 2.698 1.582 7123
-0.960 2.689 1.567 10788
-0.959 2.686 1.555 17450
-0.960 2.690 1.547 16372
-0.966 2.707 1.546 11952
-0.982 2.751 1.559 8873
-0.986 2.762 1.554 11506
-0.987 2.766 1.545 14134
-0.991 2.776 1.540 14964
-1.000 2.800 1.542 14989
-1.008 2.824 1.544 11226
-1.014 2.842 1.542 8116
-1.025 2.872 1.547 9228
-1.029 2.883 1.541 14403
-1.030 2.887 1.533 19081
-1.032 2.891 1.524 19883
-1.033 2.894 1.515 16040
-1.035 2.898 1.506 8458
-1.046 2.929 1.510 4237
-1.035 2.899 1.485 3842
-1.070 2.998 1.521 3553
-1.069 2.995 1.509 4173
-1.066 2.985 1.494 4736
-1.064 2.982 1.481 6388
-1.063 2.979 1.469 7494
-1.065 2.982 1.460 8468
-1.071 3.000 1.457 10417
-1.075 3.010 1.451 11506
-1.078 3.021 1.445 10101
-1.087 3.045 1.445 7166
-1.091 3.056 1.438 5832
-1.097 3.073 1.435 5753
-1.101 3.083 1.428 5311
-1.109 3.108 1.428 4290
-1.120 3.139 1.430 5318
-1.124 3.149 1.423 5066
-1.135 3.181 1.425 5670
-1.134 3.177 1.412 6122
-1.138 3.188 1.406 4227
-1.306 3.659 1.583 3817
-1.297 3.635 1.561 4330
-1.326 3.716 1.580 3783
-1.328 3.720 1.568 3547
-1.334 3.737 1.562 2832
-1.345 3.769 1.562 5724
-1.347 3.773 1.550 7362
-1.356 3.798 1.547 5455
-1.362 3.816 1.540 6182
-1.364 3.820 1.528 4561
-1.400 3.923 1.553 4042
-1.404 3.933 1.543 6538
-1.403 3.930 1.529 8660
-1.402 3.927 1.514 8004
-1.408 3.945 1.507 7460
-1.415 3.963 1.500 4826
-1.464 4.101 1.534 3529
-1.468 4.112 1.524 3006
-1.502 4.208 1.543 2110
-1.506 4.219 1.532 4748
-1.510 4.230 1.522 7783
-1.509 4.227 1.506 8319
-1.510 4.231 1.493 5947
-1.542 4.320 1.508 3770
-1.543 4.324 1.495 4506
-1.540 4.313 1.477 3952
-1.561 4.374 1.481 2773
-1.563 4.378 1.468 4642
-1.566 4.389 1.457 5422
-1.570 4.399 1.445 5005
-1.618 4.532 1.470 3858
-1.619 4.536 1.456 4948
-1.631 4.568 1.451 5401
-1.640 4.593 1.443 10456
-1.641 4.597 1.429 9962
-1.640 4.593 1.413 5600
-1.679 4.705 1.429 5555
-1.688 4.730 1.420 5499
-1.708 4.784 1.419 4925
-1.719 4.817 1.412 5386
-1.721 4.820 1.398 3450
-1.768 4.954 1.417 3282
-1.816 5.088 1.435 3237
-1.820 5.099 1.421 4166
-1.824 5.109 1.408 3936
-1.861 5.214 1.417 2934
-1.863 5.218 1.401 2706
-1.890 5.294 1.402 2625
-1.904 5.334 1.395 2150
-1.944 5.447 1.404 2336
-1.948 5.457 1.389 2780
-1.996 5.592 1.402 3423
-1.995 5.588 1.383 2522
-2.097 5.876 1.429 2298
-2.065 5.785 1.390 2223
-2.058 5.766 1.368 2731
-2.083 5.835 1.364 3425
-2.082 5.831 1.345 4068
-2.187 6.128 1.387 3959
-2.188 6.131 1.368 2643
-2.177 6.098 1.342 2058
-2.309 6.468 1.395 1978
-2.310 6.471 1.375 2508
-2.311 6.474 1.355 2334
-2.241 6.279 1.298 2269
-2.308 6.466 1.312 1817
-2.469 6.918 1.373 1625
-2.507 7.024 1.370 2405
-2.514 7.042 1.351 2962
-2.515 7.046 1.329 2190
-2.532 7.093 1.315 1959
-2.659 7.450 1.351 1896
-2.631 7.372 1.315 2105
-2.817 7.892 1.373 2534
-2.826 7.917 1.353 2336
-3.006 8.422 1.404 2664
-3.008 8.426 1.378 4544
-3.009 8.429 1.352 4323
-3.007 8.425 1.325 3678
-3.011 8.436 1.300 3804
-3.012 8.439 1.274 3547
-3.008 8.427 1.246 2532
-3.131 8.771 1.264 1432
-3.134 8.781 1.238 1419
-3.135 8.784 1.211 1262
-3.134 8.780 1.183 838
-2.450 6.863 0.932 575
-2.456 6.880 0.913 1030
-2.459 6.889 0.893 1442
-2.449 6.862 0.868 2740
-2.447 6.856 0.846 5110
-2.440 6.836 0.823 5213
-2.435 6.823 0.800 5429
-2.433 6.817 0.779 4695
-2.413 6.760 0.752 4791
-2.408 6.746 0.730 4283
-2.401 6.726 0.708 3761
-2.452 6.868 0.698 3140
-2.447 6.855 0.676 3206
-2.368 6.633 0.638 2683
-2.397 6.717 0.624 2840
-2.403 6.733 0.604 3561
-2.401 6.727 0.583 3345
-2.378 6.661 0.558 3376
-2.375 6.654 0.537 3485
-2.322 6.507 0.508 5133
-2.323 6.508 0.488 6223
-2.323 6.508 0.468 5839
-2.316 6.487 0.447 5711
-2.316 6.488 0.427 5561
-2.319 6.496 0.407 4660
-2.322 6.504 0.388 3624
-2.322 6.505 0.368 3452
-2.197 6.155 0.336 2902
-2.197 6.156 0.317 3642
-2.197 6.156 0.298 4013
-2.184 6.119 0.279 4888
-2.182 6.112 0.260 6314
-2.179 6.105 0.241 5746
-2.177 6.098 0.222 5434
-2.179 6.105 0.203 4877
-2.179 6.106 0.184 4660
-2.177 6.098 0.166 4847
-2.179 6.106 0.147 4981
-2.182 6.113 0.128 5207
-2.179 6.106 0.109 4321
-2.177 6.098 0.091 3574
-2.177 6.098 0.072 2445
-2.161 6.053 0.054 1680
-2.184 6.120 0.034 1735
-2.184 6.120 0.015 1975
-2.134 5.978 -0.000 1895
-2.139 5.992 -0.019 1513
-2.104 5.895 -0.035 1198
-2.093 5.864 -0.052 1233
-2.090 5.856 -0.069 1228
-2.090 5.856 -0.087 1229
-2.090 5.855 -0.105 1043
-2.068 5.795 -0.121 905
-2.068 5.794 -0.139 971
-2.068 5.793 -0.156 1038
-2.068 5.792 -0.174 758
-2.049 5.739 -0.189 777
-2.046 5.731 -0.206 844
-2.037 5.708 -0.222 999
-2.032 5.692 -0.239 919
-2.029 5.683 -0.256 920
-2.012 5.638 -0.270 834
-2.004 5.614 -0.286 944
-1.996 5.591 -0.301 917
-1.992 5.582 -0.318 945
-1.992 5.581 -0.335 968
-1.992 5.579 -0.352 988
-1.991 5.578 -0.369 1007
-1.991 5.577 -0.386 685
-1.993 5.583 -0.404 368
-1.992 5.581 -0.421 368
-1.925 5.394 -0.419 327
-1.920 5.378 -0.434 347
-0.723 2.034 1.689 3172
