-0.977 1.943 1.654 7935
-0.976 1.941 1.643 10683
-0.983 1.956 1.646 12150
-0.991 1.972 1.649 14710
-0.993 1.976 1.642 14710
-0.998 1.985 1.641 12839
-1.003 1.995 1.639 11236
-1.005 1.999 1.632 6834
-1.033 2.056 1.666 5236
-1.035 2.059 1.660 4777
-1.026 2.040 1.635 4715
-1.042 2.073 1.651 6075
-1.044 2.077 1.644 7985
-1.055 2.099 1.651 8350
-1.054 2.097 1.639 7822
-1.056 2.101 1.633 7378
-1.076 2.140 1.652 10820
-1.078 2.144 1.645 14821
-1.083 2.154 1.642 14450
-1.085 2.158 1.636 14496
-1.090 2.168 1.633 13777
-1.092 2.172 1.626 13129
-1.097 2.182 1.623 13319
-1.102 2.192 1.620 14187
-1.104 2.195 1.613 12861
-1.106 2.199 1.606 11536
-1.111 2.209 1.603 9293
-1.140 2.267 1.633 7999
-1.148 2.284 1.634 8888
-1.153 2.293 1.631 9506
-1.158 2.303 1.627 9267
-1.166 2.320 1.628 7634
-1.177 2.342 1.632 6893
-1.179 2.346 1.625 7331
-1.178 2.343 1.613 7944
-1.180 2.347 1.606 6196
-1.207 2.400 1.630 4299
-1.224 2.435 1.641 4606
-1.226 2.439 1.634 4608
-1.222 2.430 1.618 4804
-1.227 2.440 1.614 8210
-1.232 2.450 1.610 12396
-1.234 2.454 1.602 12997
-1.239 2.464 1.598 13965
-1.244 2.474 1.594 15568
-1.243 2.472 1.582 15459
-1.245 2.476 1.574 12765
-1.243 2.473 1.563 10178
-1.248 2.483 1.558 8271
-1.294 2.575 1.601 6704
-1.296 2.579 1.593 8750
-1.305 2.595 1.592 10671
-1.310 2.605 1.587 12005
-1.312 2.609 1.579 10370
-1.313 2.613 1.571 8244
-1.322 2.629 1.569 8445
-1.330 2.645 1.568 12697
-1.335 2.655 1.563 14490
-1.343 2.672 1.561 15699
-1.348 2.682 1.556 13474
-1.360 2.705 1.558 8091
-1.371 2.728 1.559 7331
-1.376 2.738 1.554 8089
-1.381 2.748 1.548 7820
-1.383 2.751 1.539 6050
-1.388 2.762 1.534 5087
-1.393 2.772 1.528 5836
-1.399 2.782 1.523 5702
-1.407 2.798 1.520 3637
-1.480 2.944 1.582 4458
-1.482 2.948 1.572 5051
-1.474 2.932 1.553 5121
-1.473 2.929 1.541 5675
-1.435 2.855 1.494 6708
-1.437 2.858 1.485 10072
-1.436 2.855 1.472 10057
-1.500 2.983 1.522 6478
-1.501 2.986 1.512 8468
-1.503 2.990 1.502 8663
-1.505 2.993 1.493 8820
-1.507 2.997 1.483 8193
-1.535 3.053 1.497 9493
-1.533 3.050 1.484 14148
-1.535 3.053 1.475 14377
-1.524 3.030 1.453 13904
-1.522 3.027 1.440 16232
-1.527 3.037 1.434 12224
-1.529 3.041 1.424 6994
-1.530 3.044 1.414 5758
-1.535 3.054 1.407 3896
-1.797 3.574 1.613 5476
-1.802 3.584 1.604 5516
-1.801 3.582 1.590 4358
-1.843 3.665 1.611 5521
-1.848 3.676 1.602 4982
-1.890 3.759 1.622 3304
-1.443 2.870 1.256 2981
-1.881 3.740 1.587 3103
-1.892 3.764 1.583 3614
-1.898 3.775 1.573 4673
-1.920 3.819 1.576 5071
-1.925 3.829 1.567 4603
-1.954 3.886 1.574 5636
-1.956 3.890 1.562 7514
-1.954 3.887 1.547 6157
-1.956 3.891 1.534 3128
-2.032 4.042 1.575 3217
-2.027 4.033 1.557 4877
-2.029 4.036 1.544 5643
-2.035 4.047 1.533 4349
-2.060 4.098 1.537 5464
-2.055 4.088 1.519 5197
-2.060 4.098 1.508 4308
-2.103 4.183 1.522 3736
-2.108 4.193 1.511 3477
-2.141 4.258 1.517 2316
-2.184 4.343 1.530 2498
-2.185 4.347 1.516 4109
-2.197 4.371 1.508 4189
-2.251 4.477 1.526 3949
-2.252 4.480 1.511 4551
-2.285 4.545 1.516 5368
-2.290 4.555 1.503 7190
-2.292 4.559 1.488 7370
-2.297 4.569 1.476 5180
-2.361 4.696 1.497 6544
-2.363 4.700 1.481 8797
-2.364 4.703 1.466 7522
-2.359 4.693 1.447 4934
-2.402 4.779 1.455 3551
-2.535 5.043 1.511 3033
-2.534 5.040 1.493 4591
-2.539 5.050 1.478 6785
-2.541 5.054 1.462 5748
-2.605 5.181 1.478 3418
-2.606 5.184 1.461 2310
-2.733 5.436 1.508 2147
-2.731 5.433 1.488 2455
-2.681 5.333 1.445 1653
-2.759 5.488 1.465 1945
-2.789 5.547 1.460 2638
-2.790 5.550 1.442 2838
-2.841 5.651 1.447 2462
-2.839 5.647 1.427 1966
-2.924 5.817 1.446 3134
-2.923 5.813 1.426 3470
-2.980 5.928 1.432 2474
-2.985 5.938 1.414 2839
-3.088 6.143 1.437 2197
-3.090 6.146 1.418 1869
-3.186 6.337 1.436 2004
-3.293 6.549 1.458 2418
-3.294 6.553 1.437 2672
-3.328 6.619 1.428 2031
-3.333 6.629 1.408 2304
-3.303 6.570 1.374 2471
-3.308 6.580 1.354 4054
-3.306 6.576 1.332 3908
-3.308 6.579 1.310 2725
-3.492 6.945 1.353 3080
-3.497 6.956 1.332 3971
-3.495 6.952 1.308 3817
-3.486 6.934 1.282 2322
-3.973 7.903 1.416 1410
-4.119 8.193 1.436 1390
-4.114 8.182 1.407 1306
-4.101 8.158 1.377 1389
-4.223 8.399 1.386 1506
-4.228 8.409 1.359 1416
-0.952 1.901 1.666 1683
-0.954 1.905 1.660 3367
-0.956 1.909 1.654 3367
-0.964 1.925 1.657 3965
-0.971 1.940 1.660 5059
-0.971 1.938 1.649 7986
-0.973 1.942 1.643 10985
-0.977 1.952 1.641 12288
-0.988 1.973 1.649 14607
-0.990 1.977 1.642 14607
-0.995 1.987 1.641 12499
-1.000 1.997 1.639 10701
-1.002 2.001 1.632 6324
-1.030 2.057 1.666 5159
-1.032 2.061 1.660 4532
-1.055 2.106 1.684 4467
-1.039 2.075 1.651 5630
-1.041 2.079 1.644 7427
-1.052 2.101 1.651 7833
-1.051 2.099 1.639 7256
-1.071 2.138 1.659 6778
-1.073 2.142 1.652 11138
-1.075 2.146 1.645 15498
-1.079 2.156 1.642 15107
-1.081 2.160 1.636 14965
-1.086 2.170 1.633 13573
-1.088 2.174 1.626 12193
-1.096 2.189 1.627 12898
-1.101 2.199 1.624 14299
-1.100 2.197 1.613 13107
-1.102 2.201 1.606 11965
-1.104 2.205 1.599 9733
-1.139 2.275 1.637 7892
-1.144 2.285 1.634 8687
-1.149 2.295 1.631 8582
-1.154 2.305 1.627 7735
-1.162 2.321 1.628 6341
-1.177 2.350 1.636 5589
-1.169 2.335 1.617 6388
-1.171 2.339 1.610 7285
-1.176 2.349 1.606 5694
-1.212 2.421 1.641 4165
-1.220 2.437 1.641 4710
-1.219 2.435 1.630 4656
-1.221 2.439 1.622 4742
-1.226 2.449 1.618 7790
-1.228 2.452 1.610 11699
-1.227 2.450 1.598 12464
-1.235 2.466 1.598 13476
-1.240 2.476 1.594 15340
-1.242 2.480 1.586 14424
-1.241 2.478 1.574 11167
-1.239 2.475 1.563 8864
-1.244 2.485 1.558 7469
-1.290 2.577 1.601 5506
-1.292 2.581 1.593 7251
-1.304 2.603 1.596 9033
-1.305 2.607 1.587 10399
-1.304 2.605 1.575 9183
-1.309 2.615 1.571 7723
-1.314 2.625 1.566 8376
-1.326 2.648 1.568 12199
-1.334 2.664 1.566 14773
-1.339 2.674 1.561 15750
-1.344 2.684 1.556 13511
-1.355 2.707 1.558 7837
-1.370 2.736 1.562 6790
-1.375 2.746 1.557 7721
-1.377 2.750 1.548 7711
-1.376 2.747 1.536 6376
-1.374 2.745 1.524 5528
-1.386 2.767 1.525 5718
-1.394 2.784 1.523 5409
-1.402 2.800 1.520 3415
-1.475 2.946 1.582 5143
-1.477 2.950 1.572 5962
-1.469 2.934 1.553 5969
-1.468 2.932 1.541 6298
-1.434 2.864 1.497 5684
-1.429 2.854 1.482 9153
-1.431 2.858 1.472 9527
-1.491 2.979 1.518 7431
-1.496 2.989 1.512 9562
-1.495 2.986 1.499 9116
-1.497 2.989 1.490 8825
-1.498 2.993 1.480 8800
-1.520 3.036 1.488 7475
-1.528 3.052 1.484 10558
-1.530 3.056 1.475 10741
-1.515 3.026 1.450 11231
-1.517 3.030 1.440 13673
-1.522 3.040 1.434 10774
-1.514 3.023 1.415 6542
-1.512 3.020 1.403 5597
-1.514 3.023 1.393 4631
-1.791 3.577 1.613 5433
-1.793 3.581 1.602 5154
-1.795 3.585 1.590 4338
-1.837 3.668 1.611 5933
-1.842 3.679 1.602 5339
-1.847 3.689 1.593 3771
-1.849 3.693 1.581 2911
-1.436 2.868 1.244 2696
-1.906 3.807 1.599 3335
-1.908 3.811 1.586 4024
-1.917 3.828 1.579 5760
-1.919 3.832 1.567 4907
-1.944 3.883 1.572 4713
-1.946 3.887 1.559 6416
-1.948 3.890 1.547 5335
-1.946 3.887 1.532 2548
-2.005 4.005 1.560 3281
-2.017 4.029 1.555 5025
-2.023 4.040 1.544 6084
-2.048 4.091 1.547 4639
-2.053 4.101 1.537 5276
-2.052 4.098 1.521 5320
-2.054 4.102 1.508 4329
-2.100 4.193 1.524 3799
-2.098 4.190 1.508 3726
-2.134 4.262 1.517 2971
-2.176 4.347 1.530 2782
-2.178 4.350 1.516 4514
-2.190 4.374 1.508 4535
-2.243 4.480 1.526 4196
-2.245 4.484 1.511 4773
-2.278 4.549 1.516 5171
-2.283 4.559 1.503 6747
-2.285 4.563 1.488 7223
-2.290 4.573 1.476 5660
-2.357 4.707 1.499 6426
-2.355 4.703 1.481 8277
-2.357 4.707 1.466 7001
-2.348 4.690 1.445 4980
-2.353 4.700 1.432 3667
-2.527 5.047 1.511 3291
-2.525 5.044 1.493 4809
-2.531 5.054 1.478 6807
-2.532 5.058 1.462 5875
-2.596 5.185 1.478 3994
-2.595 5.182 1.460 2735
-2.724 5.441 1.508 2124
-2.722 5.437 1.488 2727
-2.714 5.420 1.465 1983
-2.750 5.493 1.465 1990
-2.780 5.551 1.460 2542
-2.778 5.548 1.441 2810
-2.832 5.655 1.447 2272
-2.819 5.631 1.422 2073
-2.915 5.822 1.446 3339
-2.913 5.818 1.426 3497
-2.970 5.933 1.432 2551
-2.976 5.943 1.414 2989
-2.970 5.932 1.392 2101
-3.076 6.144 1.416 1775
-3.210 6.412 1.451 2092
-3.209 6.408 1.428 2154
-3.280 6.551 1.435 2362
-3.317 6.624 1.428 2261
-3.322 6.635 1.408 2451
-3.289 6.568 1.373 2560
-3.294 6.578 1.353 3834
-3.295 6.581 1.332 3450
-3.479 6.948 1.375 2221
-3.473 6.937 1.350 2882
-3.478 6.947 1.329 3456
-3.480 6.950 1.307 3346
-3.475 6.939 1.282 2252
-3.964 7.916 1.417 1389
-4.088 8.164 1.377 1372
-0.939 1.887 1.652 1825
-0.941 1.891 1.646 3650
-0.943 1.895 1.640 3650
-0.953 1.916 1.648 4326
-0.964 1.937 1.655 5320
-0.966 1.941 1.649 8247
-0.968 1.945 1.643 11174
-0.972 1.955 1.641 12322
-0.980 1.970 1.644 14304
-0.982 1.974 1.638 14304
-0.990 1.990 1.641 11922
-0.995 1.999 1.639 9994
-1.000 2.009 1.637 6104
-1.025 2.060 1.666 5493
-1.027 2.064 1.660 4649
-1.049 2.109 1.684 4393
-1.034 2.078 1.651 5369
-1.039 2.087 1.648 6993
-1.046 2.103 1.651 7374
-1.045 2.101 1.639 6883
-1.065 2.141 1.659 7062
-1.067 2.145 1.652 11495
-1.069 2.149 1.645 15927
-1.074 2.159 1.642 15523
-1.079 2.169 1.640 15217
-1.081 2.172 1.633 13209
-1.086 2.182 1.630 11358
-1.091 2.192 1.627 12816
-1.096 2.202 1.624 14736
-1.095 2.200 1.613 13579
-1.096 2.204 1.606 12529
-1.098 2.208 1.599 10283
-1.133 2.278 1.637 7925
-1.138 2.288 1.634 8441
-1.143 2.298 1.631 7571
-1.145 2.302 1.623 6286
-1.153 2.318 1.624 5384
-1.161 2.334 1.624 4993
-1.163 2.338 1.617 5922
-1.165 2.342 1.610 6852
-1.167 2.346 1.602 5443
-1.209 2.430 1.645 4235
-1.214 2.440 1.641 4911
-1.213 2.438 1.630 4725
-1.215 2.442 1.622 4621
-1.220 2.452 1.618 7245
-1.222 2.456 1.610 10803
-1.220 2.453 1.598 11824
-1.232 2.476 1.602 13020
-1.237 2.486 1.598 15197
-1.235 2.483 1.586 13375
-1.234 2.481 1.574 9542
-1.267 2.547 1.603 8527
-1.241 2.495 1.562 7020
-1.246 2.505 1.558 5022
-1.286 2.584 1.593 5334
-1.297 2.607 1.596 7035
-1.299 2.610 1.587 8338
-1.297 2.608 1.575 7812
-1.299 2.612 1.567 7099
-1.308 2.628 1.566 8312
-1.319 2.651 1.568 12070
-1.327 2.667 1.566 15327
-1.332 2.677 1.561 15806
-1.340 2.694 1.559 13241
-1.348 2.710 1.558 7383
-1.366 2.746 1.566 6302
-1.368 2.750 1.557 7245
-1.370 2.754 1.548 7572
-1.365 2.744 1.533 6941
-1.364 2.742 1.521 6497
-1.375 2.765 1.522 5662
-1.387 2.788 1.523 4930
-1.466 2.946 1.591 3379
-1.468 2.950 1.582 5946
-1.466 2.947 1.569 6998
-1.462 2.938 1.553 6837
-1.457 2.929 1.538 6804
-1.472 2.958 1.541 5233
-1.422 2.858 1.482 7896
-1.424 2.861 1.472 8510
-1.477 2.969 1.512 8295
-1.489 2.993 1.512 9887
-1.487 2.990 1.499 9043
-1.489 2.993 1.490 8493
-1.491 2.997 1.480 8850
-1.493 3.000 1.470 7055
-1.514 3.043 1.478 7522
-1.509 3.033 1.463 7905
-1.508 3.030 1.450 8864
-1.509 3.034 1.440 10581
-1.514 3.044 1.434 8781
-1.503 3.021 1.412 6420
-1.504 3.024 1.403 5990
-1.503 3.021 1.390 5833
-1.501 3.017 1.378 5711
-1.784 3.585 1.602 4807
-1.786 3.589 1.590 4317
-1.827 3.673 1.611 6365
-1.833 3.683 1.602 5669
-1.838 3.694 1.593 4290
-1.840 3.698 1.581 3591
-1.425 2.865 1.242 2436
-1.897 3.812 1.599 3083
-1.902 3.823 1.589 4134
-1.907 3.833 1.579 6580
-1.909 3.837 1.567 5327
-1.934 3.888 1.572 3783
-1.936 3.892 1.559 5263
-1.935 3.888 1.544 4618
-1.973 3.966 1.559 2464
-1.985 3.990 1.553 3717
-2.007 4.034 1.555 4773
-2.012 4.045 1.544 6183
-2.021 4.062 1.536 4909
-2.043 4.106 1.537 4684
-2.041 4.103 1.521 5270
-2.043 4.107 1.508 4439
-2.092 4.205 1.526 3728
-2.087 4.195 1.508 4064
-2.123 4.267 1.517 3647
-2.165 4.352 1.530 2956
-2.167 4.356 1.516 4637
-2.179 4.380 1.508 4634
-2.228 4.479 1.524 4268
-2.234 4.490 1.511 5048
-2.266 4.555 1.516 4782
-2.271 4.565 1.503 6002
-2.273 4.569 1.488 6745
-2.278 4.579 1.476 5721
-2.345 4.713 1.499 5778
-2.343 4.709 1.481 7016
-2.345 4.713 1.466 5736
-2.336 4.696 1.445 4583
-2.341 4.706 1.432 3615
-2.514 5.054 1.511 3363
-2.513 5.050 1.493 4706
-2.518 5.061 1.478 6351
-2.519 5.064 1.462 5570
-2.580 5.185 1.476 4488
-2.581 5.188 1.460 3149
-2.576 5.178 1.439 2190
-2.705 5.437 1.486 2869
-2.700 5.427 1.465 2286
-2.740 5.507 1.466 1887
-2.762 5.552 1.459 2290
-2.764 5.555 1.441 2722
-2.814 5.656 1.445 2253
-2.898 5.826 1.465 2304
-2.897 5.822 1.445 3437
-2.898 5.825 1.426 3515
-2.955 5.940 1.432 2622
-2.960 5.950 1.414 3000
-2.903 5.835 1.369 2176
-2.908 5.845 1.352 1957
-3.194 6.420 1.451 2369
-3.196 6.424 1.430 2300
-3.260 6.553 1.434 2163
-3.303 6.640 1.429 2436
-3.305 6.643 1.408 2526
-3.272 6.576 1.373 2553
-3.277 6.587 1.353 3472
-3.278 6.590 1.332 2906
-3.454 6.943 1.373 2054
-3.456 6.946 1.350 2687
-3.461 6.956 1.329 2953
-3.459 6.952 1.305 2878
-3.457 6.948 1.282 2102
-3.943 7.926 1.417 1870
-3.966 7.972 1.398 1397
-4.067 8.175 1.377 1314
-0.943 1.906 1.666 2254
-0.945 1.910 1.660 4508
-0.947 1.914 1.654 4508
-0.952 1.924 1.652 5274
-0.953 1.928 1.646 6171
-0.961 1.943 1.649 8536
-0.963 1.947 1.643 11151
-0.968 1.957 1.641 12090
-0.976 1.972 1.644 13659
-0.978 1.976 1.638 13659
-0.982 1.986 1.636 11092
-0.990 2.002 1.639 9174
-0.998 2.017 1.641 6414
-1.017 2.056 1.662 6298
-1.022 2.066 1.660 5127
-1.041 2.106 1.679 4463
-1.029 2.080 1.651 5347
-1.037 2.096 1.653 6810
-1.039 2.100 1.646 7121
-1.043 2.110 1.644 6831
-1.063 2.149 1.663 7648
-1.065 2.153 1.656 11877
-1.067 2.157 1.649 16106
-1.069 2.161 1.642 15559
-1.074 2.171 1.640 15045
-1.076 2.175 1.633 12571
-1.081 2.185 1.630 10445
-1.086 2.195 1.627 12794
-1.091 2.205 1.624 15309
-1.089 2.203 1.613 14137
-1.091 2.206 1.606 13066
-1.093 2.210 1.599 10753
-1.131 2.287 1.641 8205
-1.133 2.291 1.634 8277
-1.135 2.295 1.627 6904
-1.137 2.299 1.619 5367
-1.145 2.315 1.620 4817
-1.153 2.331 1.620 4900
-1.155 2.335 1.613 5705
-1.157 2.339 1.606 6510
-1.159 2.342 1.598 5283
-1.203 2.433 1.645 4395
-1.208 2.443 1.641 5148
-1.210 2.447 1.634 4747
-1.209 2.444 1.622 4410
-1.214 2.455 1.618 6498
-1.213 2.452 1.606 9679
-1.215 2.456 1.598 10966
-1.232 2.491 1.609 12748
-1.237 2.501 1.605 15511
-1.233 2.492 1.590 12436
-1.260 2.546 1.611 9073
-1.258 2.544 1.599 8935
-1.245 2.516 1.573 8123
-1.247 2.520 1.565 6791
-1.251 2.530 1.561 4993
-1.253 2.534 1.552 5022
-1.293 2.613 1.587 5839
-1.288 2.605 1.572 6224
-1.287 2.602 1.560 6404
-1.301 2.631 1.566 8301
-1.316 2.660 1.571 12357
-1.321 2.670 1.566 15812
-1.323 2.674 1.558 15820
-1.334 2.697 1.559 12737
-1.342 2.714 1.558 7290
-1.319 2.666 1.522 5998
-1.362 2.753 1.557 6638
-1.360 2.750 1.545 7399
-1.356 2.741 1.529 7516
-1.358 2.745 1.521 7387
-1.363 2.755 1.515 5921
-1.380 2.791 1.523 4274
-1.456 2.943 1.588 4005
-1.458 2.947 1.579 6840
-1.460 2.951 1.569 8106
-1.455 2.941 1.553 7592
-1.450 2.932 1.538 7109
-1.459 2.949 1.535 5528
-1.470 2.972 1.534 7349
-1.465 2.963 1.519 9068
-1.467 2.966 1.509 8736
-1.482 2.996 1.512 9134
-1.477 2.986 1.496 8240
-1.479 2.990 1.487 7952
-1.481 2.993 1.477 8379
-1.486 3.004 1.470 7499
-1.487 3.007 1.461 7401
-1.489 3.010 1.451 7344
-1.491 3.014 1.442 6981
-1.499 3.031 1.438 7342
-1.501 3.034 1.428 6652
-1.496 3.024 1.412 6165
-1.494 3.021 1.400 6476
-1.496 3.024 1.390 7172
-1.497 3.027 1.381 7556
-1.499 3.030 1.371 5998
-1.781 3.600 1.593 4286
-1.819 3.677 1.611 6674
-1.824 3.688 1.602 5778
-1.829 3.698 1.593 4559
-1.828 3.695 1.578 4126
-1.816 3.672 1.556 2572
-1.891 3.823 1.601 2710
-1.893 3.827 1.589 4127
-1.898 3.838 1.579 7104
-1.900 3.841 1.567 5719
-1.905 3.852 1.557 2960
-1.924 3.889 1.557 4130
-1.922 3.886 1.542 4056
-1.964 3.971 1.559 2745
-1.969 3.981 1.548 4014
-1.984 4.012 1.545 4556
-2.003 4.050 1.544 5986
-2.008 4.060 1.533 4981
-2.017 4.077 1.525 4004
-2.032 4.108 1.521 5015
-2.037 4.118 1.510 4557
-2.079 4.203 1.524 3653
-2.074 4.193 1.506 4638
-2.113 4.272 1.517 4075
-2.115 4.276 1.503 3201
-2.157 4.361 1.516 4281
-2.169 4.385 1.508 4386
-2.221 4.491 1.526 3976
-2.223 4.495 1.511 4895
-2.255 4.560 1.516 4102
-2.261 4.570 1.503 4922
-2.262 4.574 1.488 5618
-2.268 4.584 1.476 5258
-2.334 4.718 1.499 4529
-2.336 4.722 1.483 5267
-2.334 4.718 1.466 4183
-2.325 4.701 1.445 3931
-2.330 4.711 1.432 3279
-2.503 5.059 1.511 3117
-2.501 5.056 1.493 4155
-2.506 5.066 1.478 5256
-2.508 5.070 1.462 4724
-2.564 5.184 1.474 4663
-2.566 5.187 1.458 3341
-2.568 5.191 1.441 2344
-2.693 5.444 1.486 2840
-2.687 5.433 1.465 2326
-2.727 5.513 1.466 1694
-2.749 5.558 1.459 1928
-2.751 5.561 1.441 2703
-2.766 5.593 1.429 2568
-2.878 5.818 1.462 2476
-2.883 5.829 1.445 3414
-2.885 5.832 1.426 3422
-2.883 5.828 1.406 2809
-2.943 5.950 1.412 2942
-2.890 5.842 1.369 2424
-2.898 5.859 1.353 2218
-3.186 6.442 1.454 2766
-3.188 6.445 1.433 2365
-3.245 6.560 1.434 2037
-3.288 6.647 1.429 2543
-3.290 6.651 1.408 2639
-3.253 6.577 1.372 2432
-3.262 6.594 1.353 3008
-3.263 6.597 1.332 2393
-3.435 6.944 1.372 1856
-3.436 6.947 1.349 2346
-3.441 6.957 1.328 2468
-3.443 6.960 1.305 2395
-3.930 7.946 1.445 2208
-3.929 7.942 1.419 1935
-3.944 7.974 1.397 1622
-3.946 7.977 1.371 1527
-0.940 1.907 1.666 2787
-0.942 1.911 1.660 5574
-0.944 1.915 1.654 5574
-0.949 1.925 1.652 6347
-0.951 1.929 1.646 7168
-0.959 1.944 1.649 8856
-0.960 1.948 1.643 10975
-0.965 1.958 1.641 11688
-0.970 1.968 1.640 12908
-0.972 1.972 1.633 12908
-0.980 1.987 1.636 10246
-0.990 2.009 1.643 8505
-1.007 2.042 1.659 7296
-1.012 2.052 1.657 7548
-1.016 2.062 1.655 5988
-1.036 2.101 1.675 4743
-1.026 2.081 1.651 5606
-1.034 2.097 1.653 7000
-1.036 2.101 1.646 7293
-1.041 2.111 1.644 7249
-1.057 2.145 1.659 8488
-1.062 2.155 1.656 12327
-1.064 2.159 1.649 16204
-1.066 2.163 1.642 15422
-1.071 2.172 1.640 14650
-1.073 2.176 1.633 11989
-1.081 2.192 1.634 9783
-1.086 2.202 1.631 12876
-1.088 2.206 1.624 16010
-1.087 2.204 1.613 14759
-1.088 2.208 1.606 13567
-1.090 2.212 1.599 11102
-1.128 2.288 1.641 8677
-1.130 2.292 1.634 8211
-1.132 2.296 1.627 6671
-1.131 2.294 1.615 5549
-1.136 2.304 1.612 4959
-1.147 2.326 1.616 5106
-1.152 2.336 1.613 5542
-1.154 2.340 1.606 5994
-1.156 2.344 1.598 4984
-1.200 2.434 1.645 4431
-1.205 2.444 1.641 5198
-1.207 2.448 1.634 4683
-1.209 2.452 1.626 4168
-1.223 2.481 1.633 5847
-1.225 2.485 1.625 8671
-1.212 2.458 1.598 10094
-1.232 2.499 1.613 12829
-1.237 2.509 1.609 16202
-1.245 2.525 1.608 12433
-1.250 2.536 1.604 9875
-1.249 2.533 1.592 10403
-1.241 2.518 1.573 10482
-1.243 2.522 1.565 9367
-1.245 2.525 1.557 7565
-1.250 2.535 1.552 7114
-1.255 2.545 1.548 5421
-1.279 2.594 1.565 5420
-1.280 2.597 1.556 6360
-1.298 2.633 1.566 8396
-1.312 2.662 1.571 12757
-1.317 2.672 1.566 16037
-1.319 2.676 1.558 15978
-1.324 2.686 1.552 12512
-1.323 2.683 1.540 7717
-1.318 2.674 1.525 7262
-1.358 2.755 1.557 6118
-1.357 2.752 1.545 7333
-1.352 2.743 1.529 8098
-1.354 2.747 1.521 8043
-1.356 2.750 1.512 6354
-1.377 2.793 1.523 3539
-1.452 2.945 1.588 4733
-1.454 2.949 1.579 7838
-1.456 2.953 1.569 9250
-1.454 2.950 1.557 8485
-1.446 2.934 1.538 7301
-1.448 2.938 1.528 6255
-1.463 2.967 1.531 7802
-1.465 2.971 1.522 9245
-1.463 2.968 1.509 8645
-1.481 3.004 1.515 7548
-1.467 2.975 1.490 7115
-1.469 2.979 1.481 7847
-1.474 2.989 1.474 8111
-1.478 2.999 1.467 7761
-1.483 3.009 1.461 8164
-1.482 3.006 1.448 7435
-1.484 3.009 1.439 6186
-1.485 3.013 1.429 5674
-1.490 3.023 1.422 5182
-1.492 3.026 1.412 5723
-1.487 3.016 1.397 7107
-1.489 3.019 1.388 8537
-1.493 3.029 1.381 9205
-1.495 3.032 1.371 7251
-1.779 3.609 1.596 4336
-1.811 3.673 1.608 6851
-1.819 3.690 1.602 5630
-1.821 3.694 1.590 4517
-1.820 3.691 1.576 4406
-1.812 3.675 1.556 2943
-1.886 3.826 1.601 2356
-1.891 3.836 1.591 4095
-1.893 3.840 1.579 7299
-1.895 3.844 1.567 6131
-1.957 3.969 1.599 3056
-1.955 3.966 1.584 3981
-1.914 3.882 1.539 3645
-1.596 3.237 1.293 2831
-1.964 3.984 1.548 3915
-1.976 4.008 1.543 4161
-2.001 4.059 1.546 5447
-2.003 4.063 1.533 4810
-2.011 4.080 1.525 3704
-2.030 4.117 1.523 4730
-2.032 4.121 1.510 4606
-2.057 4.172 1.513 3999
-2.065 4.189 1.504 5041
-2.084 4.227 1.501 3998
-2.109 4.278 1.503 3608
-2.148 4.357 1.513 3723
-2.126 4.313 1.484 4084
-2.128 4.316 1.470 3703
-2.217 4.498 1.511 4410
-2.219 4.501 1.497 3562
-2.251 4.566 1.501 4154
-2.253 4.570 1.486 4344
-2.261 4.587 1.476 4467
-2.267 4.598 1.463 4933
-2.289 4.642 1.460 3989
-2.334 4.735 1.470 2801
-2.380 4.828 1.480 3159
-2.399 4.866 1.474 2876
-2.499 5.070 1.513 2626
-2.494 5.059 1.493 3435
-2.496 5.063 1.477 4047
-2.501 5.073 1.462 3629
-2.557 5.187 1.474 4445
-2.559 5.191 1.458 3223
-2.561 5.194 1.441 2202
-2.685 5.447 1.486 2678
-2.680 5.437 1.465 2241
-2.672 5.419 1.443 1618
-2.738 5.555 1.457 1426
-2.747 5.572 1.442 2547
-2.759 5.596 1.429 3002
-2.867 5.815 1.460 2582
-2.869 5.819 1.442 3422
-2.874 5.829 1.424 3417
-2.875 5.832 1.406 2985
-2.935 5.954 1.412 2847
-2.885 5.853 1.371 2621
-3.176 6.442 1.474 2295
-3.178 6.446 1.454 3310
-3.179 6.449 1.433 2976
-3.236 6.564 1.434 1918
-3.276 6.645 1.428 2564
-3.198 6.487 1.376 2755
-3.241 6.574 1.370 2100
-3.415 6.928 1.414 2524
-3.417 6.931 1.392 2049
-3.467 7.032 1.387 1634
-3.427 6.951 1.349 1909
-3.432 6.962 1.328 1942
-3.915 7.941 1.470 2095
-3.920 7.951 1.445 2685
-3.918 7.947 1.419 2308
-3.930 7.972 1.396 1901
-3.932 7.975 1.370 1764
-0.938 1.915 1.670 3285
-0.940 1.919 1.664 6571
-0.942 1.923 1.658 6571
-0.944 1.927 1.652 7271
-0.949 1.937 1.651 8074
-0.951 1.941 1.645 9197
-0.955 1.951 1.643 10645
-0.960 1.961 1.641 11127
-0.965 1.970 1.640 12029
-0.967 1.974 1.633 12029
-0.977 1.996 1.641 9433
-0.985 2.011 1.643 8166
-1.001 2.045 1.659 8294
-1.003 2.049 1.653 9039
-1.008 2.058 1.651 7056
-1.013 2.068 1.649 5224
-1.026 2.096 1.660 6081
-1.028 2.100 1.653 7484
-1.030 2.104 1.646 7824
-1.035 2.114 1.644 7960
-1.052 2.147 1.659 9365
-1.057 2.157 1.656 12596
-1.058 2.161 1.649 15997
-1.060 2.165 1.642 14953
-1.062 2.169 1.636 13910
-1.067 2.179 1.633 11341
-1.078 2.201 1.638 9465
-1.080 2.205 1.631 13052
-1.082 2.209 1.624 16639
-1.081 2.207 1.613 15242
-1.083 2.211 1.606 13848
-1.085 2.215 1.599 11166
-1.122 2.291 1.641 9082
-1.124 2.295 1.634 8128
-1.123 2.293 1.623 6853
-1.125 2.297 1.615 6339
-1.130 2.307 1.612 5604
-1.141 2.329 1.616 5514
-1.143 2.333 1.609 5597
-1.148 2.343 1.606 5689
-1.146 2.341 1.594 4861
-1.191 2.431 1.641 4473
-1.199 2.448 1.641 5114
-1.201 2.452 1.634 4560
-1.166 2.381 1.580 4437
-1.217 2.484 1.633 5166
-1.219 2.488 1.625 7881
-1.236 2.523 1.636 9757
-1.228 2.508 1.617 12936
-1.230 2.512 1.609 16663
-1.238 2.529 1.608 13112
-1.240 2.533 1.600 11466
-1.239 2.530 1.588 12924
-1.235 2.521 1.573 13318
-1.237 2.525 1.565 12293
-1.238 2.529 1.557 10467
-1.243 2.539 1.552 9444
-1.251 2.555 1.552 7108
-1.266 2.584 1.558 6168
-1.270 2.594 1.553 7263
-1.288 2.630 1.562 8650
-1.305 2.665 1.571 12685
-1.310 2.676 1.566 15577
-1.312 2.679 1.558 15635
-1.317 2.689 1.552 12545
-1.316 2.687 1.540 8963
-1.314 2.684 1.529 8896
-1.310 2.675 1.513 6730
-1.346 2.749 1.541 7371
-1.345 2.746 1.529 8637
-1.347 2.750 1.521 8557
-1.349 2.754 1.512 6845
-1.353 2.764 1.506 3565
-1.441 2.942 1.585 5537
-1.446 2.953 1.579 8768
-1.448 2.956 1.569 10221
-1.450 2.960 1.560 9250
-1.439 2.938 1.538 7430
-1.444 2.948 1.531 6873
-1.455 2.971 1.531 8028
-1.454 2.968 1.519 9157
-1.452 2.965 1.506 8681
-1.448 2.956 1.491 6805
-1.453 2.966 1.484 7092
-1.457 2.976 1.478 8563
-1.462 2.986 1.471 8783
-1.467 2.996 1.465 8280
-1.472 3.006 1.458 8762
-1.474 3.010 1.448 7223
-1.469 3.000 1.433 5924
-1.471 3.003 1.423 5425
-1.479 3.020 1.419 4339
-1.477 3.017 1.407 5331
-1.479 3.020 1.397 7679
-1.481 3.023 1.388 9694
-1.482 3.026 1.378 10583
-1.487 3.036 1.371 8259
-1.498 3.060 1.369 4748
-1.798 3.671 1.606 6824
-1.806 3.688 1.599 5285
-1.811 3.699 1.590 4278
-1.810 3.696 1.576 4412
-1.802 3.679 1.556 3045
-1.843 3.764 1.575 2804
-1.884 3.848 1.594 3869
-1.883 3.845 1.579 7079
-1.885 3.849 1.567 6173
-1.887 3.853 1.554 3060
-1.945 3.971 1.584 3570
-1.943 3.968 1.569 3201
-1.587 3.241 1.293 2872
-1.950 3.982 1.546 3479
-1.962 4.006 1.540 3550
-1.990 4.064 1.546 4533
-1.989 4.061 1.531 4256
-2.004 4.092 1.527 3381
-2.019 4.123 1.523 4377
-2.024 4.133 1.512 4212
-2.046 4.178 1.513 4267
-2.051 4.188 1.502 5234
-2.069 4.226 1.499 3913
-2.095 4.277 1.501 3523
-2.110 4.308 1.496 3366
-2.115 4.318 1.484 4192
-2.116 4.322 1.470 3571
-2.242 4.579 1.535 3169
-2.177 4.445 1.478 3391
-2.219 4.531 1.489 3880
-2.221 4.535 1.474 4190
-2.256 4.607 1.480 4015
-2.261 4.617 1.467 5648
-2.273 4.641 1.458 4389
-2.335 4.769 1.478 2551
-2.371 4.841 1.482 3135
-2.383 4.865 1.472 2568
-2.371 4.841 1.449 2160
-2.481 5.066 1.493 2729
-2.479 5.062 1.475 2860
-2.542 5.191 1.491 2916
-2.540 5.187 1.473 3953
-2.542 5.191 1.456 2845
-2.550 5.208 1.443 1804
-2.671 5.454 1.486 2468
-2.666 5.444 1.465 2083
-2.640 5.392 1.434 1532
-2.736 5.586 1.444 2401
-2.741 5.596 1.428 3280
-2.848 5.816 1.459 2596
-2.850 5.819 1.440 3392
-2.858 5.836 1.424 3322
-2.860 5.840 1.406 2974
-2.862 5.843 1.387 2714
-2.870 5.860 1.371 2584
-3.159 6.451 1.474 2609
-3.161 6.454 1.454 3738
-3.166 6.464 1.434 3424
-3.171 6.475 1.415 2232
-3.173 6.478 1.394 2545
-3.178 6.488 1.374 2786
-3.179 6.492 1.353 2039
-3.397 6.937 1.414 2213
-3.402 6.947 1.393 1881
-3.448 7.042 1.387 2209
-3.464 7.073 1.369 2004
-3.895 7.954 1.497 1918
-3.897 7.958 1.471 2509
-3.899 7.961 1.445 3031
-3.897 7.958 1.419 2458
-3.909 7.982 1.396 2040
-3.911 7.985 1.370 2025
-3.909 7.982 1.343 1517
-0.934 1.918 1.670 3688
-0.936 1.922 1.664 7377
-0.938 1.926 1.658 7377
-0.942 1.935 1.657 8038
-0.944 1.939 1.651 8735
-0.949 1.949 1.649 9324
-0.951 1.953 1.643 10183
-0.956 1.963 1.641 10512
-0.960 1.973 1.640 11199
-0.962 1.976 1.633 11199
-0.990 2.033 1.668 9047
-0.983 2.019 1.648 8244
-0.994 2.041 1.655 9387
-0.996 2.045 1.648 10576
-1.000 2.055 1.646 8229
-1.005 2.065 1.644 5987
-1.022 2.098 1.660 6638
-1.024 2.102 1.653 8103
-1.025 2.106 1.646 8533
-1.033 2.122 1.648 8817
-1.044 2.144 1.654 10237
-1.052 2.160 1.656 12763
-1.053 2.164 1.649 15693
-1.055 2.168 1.642 14350
-1.057 2.172 1.636 13008
-1.062 2.182 1.633 10623
-1.076 2.210 1.643 9111
-1.075 2.208 1.631 13006
-1.074 2.205 1.620 16974
-1.079 2.215 1.617 15436
-1.080 2.219 1.610 13930
-1.079 2.217 1.599 10989
-1.117 2.294 1.641 9441
-1.119 2.298 1.634 8053
-1.121 2.302 1.627 7174
-1.120 2.300 1.615 7225
-1.125 2.310 1.612 6320
-1.135 2.332 1.616 5921
-1.137 2.336 1.609 5656
-1.139 2.340 1.602 5391
-1.174 2.412 1.637 4923
-1.182 2.428 1.637 4804
-1.196 2.457 1.645 5072
-1.198 2.461 1.637 4517
-1.167 2.396 1.587 5289
-1.174 2.412 1.587 5327
-1.216 2.497 1.629 7175
-1.230 2.526 1.636 9321
-1.223 2.511 1.617 12875
-1.225 2.515 1.609 16859
-1.229 2.525 1.605 13937
-1.231 2.529 1.597 13465
-1.230 2.527 1.585 15670
-1.229 2.524 1.573 16219
-1.231 2.528 1.565 15172
-1.233 2.532 1.557 13236
-1.237 2.542 1.552 11735
-1.252 2.571 1.559 9121
-1.260 2.587 1.558 8499
-1.265 2.597 1.553 9386
-1.276 2.620 1.555 9761
-1.302 2.675 1.575 12025
-1.304 2.679 1.566 14600
-1.306 2.682 1.558 14839
-1.311 2.692 1.552 12277
-1.310 2.690 1.540 9782
-1.308 2.687 1.529 10286
-1.307 2.684 1.517 7766
-1.340 2.752 1.541 7721
-1.339 2.750 1.529 9207
-1.340 2.753 1.521 9025
-1.342 2.757 1.512 7321
-1.341 2.754 1.500 4288
-1.434 2.946 1.585 6308
-1.439 2.956 1.579 9520
-1.441 2.960 1.569 10946
-1.443 2.964 1.560 9824
-1.435 2.948 1.541 7681
-1.437 2.951 1.531 7533
-1.445 2.968 1.528 8370
-1.447 2.972 1.519 9329
-1.442 2.962 1.503 9806
-1.444 2.966 1.494 8550
-1.446 2.969 1.484 8218
-1.447 2.973 1.475 9692
-1.452 2.983 1.468 10073
-1.457 2.993 1.462 9482
-1.465 3.010 1.458 9171
-1.464 3.007 1.445 6834
-1.459 2.997 1.430 6020
-1.464 3.007 1.423 5394
-1.472 3.023 1.419 4308
-1.470 3.020 1.407 5409
-1.472 3.023 1.397 8087
-1.474 3.027 1.388 10465
-1.475 3.030 1.378 11569
-1.483 3.046 1.374 8966
-1.491 3.063 1.369 5657
-1.786 3.668 1.603 6621
-1.794 3.686 1.597 4976
-1.803 3.703 1.590 3958
-1.801 3.700 1.576 4063
-1.797 3.690 1.558 2845
-1.834 3.768 1.575 3135
-1.876 3.852 1.594 3559
-1.874 3.849 1.579 6547
-1.876 3.853 1.567 5757
-1.878 3.857 1.554 2902
-1.936 3.976 1.584 2851
-1.931 3.966 1.567 2778
-1.580 3.245 1.293 2831
-1.578 3.241 1.280 3068
-1.992 4.092 1.569 3044
-1.978 4.062 1.544 3432
-1.979 4.066 1.531 3516
-2.014 4.137 1.541 3865
-2.013 4.134 1.526 3910
-2.015 4.138 1.512 3345
-2.033 4.175 1.510 3985
-2.038 4.186 1.499 5162
-2.040 4.189 1.486 3726
-2.075 4.261 1.494 3145
-2.100 4.313 1.496 3243
-2.108 4.330 1.486 4193
-2.107 4.327 1.470 3309
-2.175 4.467 1.499 2975
-2.177 4.471 1.484 3662
-2.202 4.523 1.484 4648
-2.207 4.533 1.472 4295
-2.252 4.626 1.484 4714
-2.254 4.629 1.469 6359
-2.259 4.640 1.456 4585
-1.589 3.264 1.050 2788
-2.360 4.847 1.482 2953
-2.368 4.864 1.470 2268
-2.360 4.847 1.449 2289
-2.469 5.072 1.493 2340
-2.380 4.888 1.427 2181
-2.530 5.196 1.491 2093
-2.528 5.193 1.473 3125
-2.527 5.189 1.454 2269
-2.660 5.464 1.506 1402
-2.658 5.460 1.486 2210
-2.657 5.457 1.467 1817
-2.628 5.398 1.434 1453
-2.730 5.606 1.447 2455
-2.731 5.610 1.429 3318
-2.831 5.815 1.457 2607
-2.836 5.826 1.440 3255
-2.845 5.843 1.424 3323
-2.850 5.853 1.407 2960
-2.851 5.857 1.388 2584
-2.860 5.874 1.372 2398
-3.144 6.458 1.474 2599
-3.146 6.461 1.454 3743
-3.151 6.472 1.434 3629
-3.153 6.475 1.413 2881
-3.154 6.478 1.392 3460
-3.159 6.489 1.373 3502
-3.161 6.492 1.352 2506
-3.166 6.502 1.332 2026
-3.441 7.067 1.413 2065
-3.432 7.049 1.387 2634
-3.444 7.074 1.368 2469
-3.877 7.963 1.497 2084
-3.879 7.967 1.471 2635
-3.881 7.970 1.445 2978
-3.879 7.967 1.419 2359
-3.887 7.984 1.395 2109
-3.885 7.980 1.368 2281
-3.887 7.984 1.342 1773
-3.888 7.987 1.317 1317
-0.933 1.925 1.675 3991
-0.935 1.929 1.669 7982
-0.937 1.933 1.663 7982
-0.939 1.937 1.657 8544
-0.941 1.941 1.651 9107
-0.946 1.951 1.649 9376
-0.948 1.954 1.643 9728
-0.953 1.964 1.641 10039
-0.957 1.974 1.640 10705
-0.959 1.978 1.633 10705
-0.978 2.017 1.654 9264
-0.983 2.027 1.652 9118
-0.988 2.037 1.650 10505
-0.992 2.047 1.648 12027
-0.994 2.051 1.642 9337
-1.002 2.066 1.644 6727
-1.018 2.100 1.660 7205
-1.020 2.104 1.653 8736
-1.022 2.108 1.646 9260
-1.030 2.124 1.648 9648
-1.038 2.140 1.650 11060
-1.048 2.161 1.656 12790
-1.050 2.165 1.649 15307
-1.052 2.169 1.642 13650
-1.054 2.173 1.636 11993
-1.059 2.183 1.633 9857
-1.072 2.211 1.643 8973
-1.071 2.209 1.631 12750
-1.070 2.207 1.620 16824
-1.075 2.217 1.617 15194
-1.080 2.227 1.615 13637
-1.103 2.274 1.636 10965
-1.113 2.296 1.641 9545
-1.115 2.300 1.634 7786
-1.117 2.304 1.627 7301
-1.119 2.308 1.619 7889
-1.124 2.318 1.616 6823
-1.159 2.389 1.652 6652
-1.161 2.393 1.645 6154
-1.165 2.403 1.641 5723
-1.167 2.407 1.633 6032
-1.175 2.423 1.634 5473
-1.183 2.440 1.634 5004
-1.176 2.425 1.614 4758
-1.166 2.404 1.591 6261
-1.174 2.420 1.591 6535
-1.188 2.449 1.599 6847
-1.223 2.522 1.632 8869
-1.219 2.513 1.617 12646
-1.221 2.517 1.609 16786
-1.222 2.521 1.601 14716
-1.227 2.531 1.597 15550
-1.226 2.529 1.585 18365
-1.225 2.526 1.573 18986
-1.227 2.530 1.565 17798
-1.229 2.533 1.557 15636
-1.233 2.544 1.552 13812
-1.257 2.592 1.569 12336
-1.259 2.595 1.561 11853
-1.260 2.599 1.553 12643
-1.268 2.616 1.552 12251
-1.301 2.683 1.578 10868
-1.303 2.687 1.570 13138
-1.302 2.684 1.558 13596
-1.307 2.695 1.552 11584
-1.305 2.692 1.540 9953
-1.304 2.689 1.529 11040
-1.303 2.686 1.517 8521
-1.336 2.754 1.541 8405
-1.334 2.752 1.529 9951
-1.336 2.755 1.521 9646
-1.338 2.759 1.512 7959
-1.336 2.756 1.500 5196
-1.430 2.948 1.585 6888
-1.435 2.958 1.579 10024
-1.436 2.962 1.569 11384
-1.438 2.966 1.560 10137
-1.434 2.956 1.544 7946
-1.432 2.954 1.531 7838
-1.437 2.964 1.525 8847
-1.439 2.967 1.516 10000
-1.441 2.971 1.506 11612
-1.442 2.975 1.497 11092
-1.441 2.972 1.484 9658
-1.443 2.975 1.475 10915
-1.444 2.979 1.465 11731
-1.449 2.989 1.459 11090
-1.457 3.005 1.455 9872
-1.456 3.002 1.442 6679
-1.451 2.992 1.427 6305
-1.456 3.002 1.420 5581
-1.467 3.026 1.419 4634
-1.462 3.016 1.404 5744
-1.467 3.026 1.397 8246
-1.469 3.029 1.388 10770
-1.470 3.032 1.378 12170
-1.478 3.049 1.374 9614
-1.490 3.072 1.372 6504
-1.774 3.658 1.598 6251
-1.785 3.682 1.594 4814
-1.797 3.706 1.590 3752
-1.796 3.703 1.576 3560
-1.817 3.747 1.579 3298
-1.829 3.771 1.575 3221
-1.866 3.849 1.591 3344
-1.868 3.852 1.579 5919
-1.870 3.856 1.567 4966
-1.869 3.853 1.552 2404
-1.572 3.241 1.313 2157
-1.921 3.962 1.564 2379
-1.572 3.241 1.290 3043
-1.570 3.237 1.277 3527
-1.571 3.240 1.267 3240
-1.569 3.236 1.254 2819
-2.006 4.137 1.555 3924
-2.008 4.140 1.541 4496
-2.006 4.137 1.526 3448
-2.005 4.134 1.510 2293
-2.026 4.179 1.510 3452
-2.028 4.182 1.497 4714
-2.030 4.186 1.484 3371
-2.071 4.271 1.497 2867
-2.096 4.323 1.498 2940
-2.105 4.340 1.489 4307
-2.100 4.330 1.470 3017
-2.171 4.478 1.501 3649
-2.176 4.488 1.488 4373
-2.188 4.512 1.480 6037
-2.190 4.516 1.466 4988
-2.245 4.629 1.484 5415
-2.247 4.633 1.469 6552
-2.248 4.636 1.454 4465
-1.584 3.266 1.050 2901
-2.309 4.761 1.457 2973
-2.401 4.951 1.493 2270
-2.376 4.899 1.462 2726
-2.374 4.895 1.444 2391
-2.413 4.975 1.449 2023
-2.471 5.096 1.464 1688
-2.520 5.197 1.473 2139
-2.515 5.186 1.452 1934
-2.513 5.183 1.434 1425
-2.653 5.471 1.488 1953
-2.608 5.378 1.447 1636
-2.616 5.395 1.433 1640
-2.719 5.607 1.465 1311
-2.724 5.618 1.449 2477
-2.722 5.614 1.429 3190
-2.815 5.806 1.454 2443
-2.827 5.830 1.440 2859
-2.836 5.848 1.424 3285
-2.841 5.858 1.407 2939
-2.842 5.861 1.388 2358
-2.851 5.878 1.372 2145
-3.134 6.463 1.474 2526
-3.136 6.466 1.454 3528
-3.141 6.477 1.434 3491
-3.142 6.480 1.413 3139
-3.141 6.476 1.391 3983
-3.142 6.480 1.370 3999
-3.151 6.497 1.352 2812
-3.152 6.500 1.331 2175
-3.430 7.073 1.413 2324
-3.421 7.055 1.387 3028
-3.426 7.065 1.365 2901
-3.441 7.096 1.347 2076
-3.866 7.973 1.471 2572
-3.868 7.976 1.445 2936
-3.866 7.973 1.419 2523
-3.871 7.983 1.394 2167
-3.873 7.986 1.368 2088
-3.874 7.990 1.342 1631
-3.876 7.993 1.317 1323
-0.931 1.926 1.675 4200
-0.933 1.930 1.669 8400
-0.935 1.934 1.663 8400
-0.937 1.938 1.657 8800
-0.941 1.948 1.655 9295
-0.943 1.952 1.649 9277
-0.945 1.956 1.643 9259
-0.950 1.966 1.641 9723
-0.957 1.981 1.644 10626
-0.959 1.985 1.638 10626
-0.975 2.018 1.654 9870
-0.980 2.028 1.652 10284
-0.985 2.038 1.650 11630
-0.990 2.048 1.648 13256
-0.992 2.052 1.642 10309
-0.996 2.062 1.640 7412
-1.016 2.101 1.660 7686
-1.017 2.105 1.653 9230
-1.022 2.115 1.651 9834
-1.027 2.125 1.648 10258
-1.035 2.141 1.650 11669
-1.042 2.157 1.652 12756
-1.047 2.167 1.649 14889
-1.049 2.171 1.642 12897
-1.051 2.175 1.636 10905
-1.056 2.185 1.633 9092
-1.069 2.213 1.643 8716
-1.068 2.211 1.631 12256
-1.070 2.215 1.624 16266
-1.072 2.218 1.617 14535
-1.077 2.228 1.615 13020
-1.100 2.275 1.636 11284
-1.110 2.297 1.641 9399
-1.112 2.301 1.634 7392
-1.114 2.305 1.627 7298
-1.116 2.309 1.619 8360
-1.121 2.319 1.616 7192
-1.155 2.391 1.652 7477
-1.160 2.401 1.649 7213
-1.162 2.405 1.641 7060
-1.164 2.409 1.633 7413
-1.169 2.419 1.630 6660
-1.174 2.429 1.626 5860
-1.167 2.414 1.607 6145
-1.166 2.412 1.595 7493
-1.171 2.422 1.591 8027
-1.178 2.438 1.591 7620
-1.220 2.523 1.632 8448
-1.215 2.515 1.617 12302
-1.214 2.512 1.605 16582
-1.219 2.522 1.601 15490
-1.221 2.526 1.593 17627
-1.223 2.530 1.585 20807
-1.222 2.528 1.573 21426
-1.223 2.531 1.565 19926
-1.225 2.535 1.557 17438
-1.230 2.545 1.552 15509
-1.253 2.593 1.569 16495
-1.255 2.597 1.561 15963
-1.257 2.601 1.553 16670
-1.262 2.611 1.548 15703
-1.273 2.634 1.550 10983
-1.300 2.689 1.570 11800
-1.301 2.693 1.561 12424
-1.303 2.696 1.552 10675
-1.305 2.700 1.544 9542
-1.304 2.697 1.532 11121
-1.299 2.688 1.517 8843
-1.332 2.756 1.541 9607
-1.331 2.753 1.529 11068
-1.332 2.757 1.521 10607
-1.334 2.761 1.512 8856
-1.333 2.758 1.500 6108
-1.426 2.950 1.585 7213
-1.428 2.954 1.575 10220
-1.433 2.964 1.569 11358
-1.434 2.968 1.560 10121
-1.433 2.965 1.547 8210
-1.428 2.955 1.531 8099
-1.430 2.959 1.522 9559
-1.435 2.969 1.516 11193
-1.437 2.973 1.506 13763
-1.439 2.977 1.497 13703
-1.440 2.980 1.487 10932
-1.439 2.977 1.475 11949
-1.441 2.980 1.465 13366
-1.445 2.991 1.459 12870
-1.450 3.001 1.452 10930
-1.449 2.997 1.439 7087
-1.444 2.988 1.424 7139
-1.449 2.998 1.417 6187
-1.460 3.021 1.416 5060
-1.458 3.018 1.404 5827
-1.463 3.028 1.397 8144
-1.462 3.024 1.385 10741
-1.466 3.034 1.378 12361
-1.478 3.057 1.376 10184
-1.486 3.074 1.372 7216
-1.484 3.071 1.360 5896
-1.771 3.664 1.586 4749
-1.786 3.695 1.585 3924
-1.804 3.732 1.586 3390
-1.812 3.749 1.579 3475
-1.827 3.780 1.578 2987
-1.842 3.811 1.576 3880
-1.860 3.848 1.576 5318
-1.865 3.859 1.567 3908
-1.563 3.234 1.321 2183
-1.568 3.243 1.313 2802
-1.563 3.233 1.298 2830
-1.564 3.236 1.288 3599
-1.565 3.239 1.277 4030
-1.567 3.242 1.267 3772
-1.568 3.245 1.257 3092
-1.997 4.133 1.552 4697
-1.999 4.136 1.539 5036
-2.001 4.140 1.526 3006
-2.032 4.205 1.533 2243
-2.024 4.188 1.513 3578
-2.023 4.185 1.497 3803
-2.024 4.188 1.484 2809
-2.066 4.274 1.497 2831
-2.104 4.353 1.507 3151
-2.102 4.350 1.491 4661
-2.097 4.340 1.472 2983
-2.169 4.487 1.503 4237
-2.177 4.505 1.493 5527
-2.182 4.515 1.480 7786
-2.181 4.512 1.464 6802
-2.242 4.639 1.486 5605
-2.241 4.636 1.469 6137
-2.239 4.632 1.452 4022
-2.301 4.760 1.472 2850
-2.299 4.757 1.455 3304
-2.394 4.954 1.493 2605
-2.373 4.909 1.464 3215
-2.374 4.912 1.448 2515
-2.403 4.971 1.447 2287
-2.461 5.093 1.462 2112
-2.470 5.110 1.449 2717
-2.505 5.183 1.451 1792
-2.520 5.214 1.441 1897
-2.646 5.475 1.488 1651
-2.601 5.381 1.447 2236
-2.606 5.391 1.431 2080
-2.725 5.639 1.472 1544
-2.730 5.649 1.455 2566
-2.718 5.625 1.431 2909
-2.801 5.796 1.451 2368
-2.820 5.834 1.440 2458
-2.828 5.851 1.424 3329
-2.833 5.862 1.407 2834
-2.835 5.865 1.388 2128
-2.843 5.882 1.372 2029
-3.126 6.467 1.474 2266
-3.127 6.470 1.454 3054
-3.132 6.481 1.434 3127
-3.134 6.484 1.413 3061
-3.132 6.480 1.391 4013
-3.134 6.484 1.370 4023
-3.139 6.494 1.351 2769
-3.144 6.504 1.331 2052
-3.417 7.070 1.412 2504
-3.412 7.059 1.387 3325
-3.417 7.070 1.365 3183
-3.432 7.101 1.347 2227
-3.856 7.978 1.471 2309
-3.854 7.974 1.444 2595
-3.856 7.978 1.419 2253
-3.861 7.988 1.394 1864
-3.862 7.991 1.368 1776
-3.864 7.995 1.342 1554
-3.862 7.991 1.316 1444
-0.925 1.929 1.675 4294
-0.927 1.933 1.669 8588
-0.929 1.937 1.663 8588
-0.933 1.947 1.661 8875
-0.935 1.951 1.655 9306
-0.937 1.955 1.649 9058
-0.939 1.959 1.643 8811
-0.947 1.974 1.646 9619
-0.954 1.990 1.649 11014
-0.956 1.994 1.642 11014
-0.966 2.015 1.650 10741
-0.971 2.025 1.648 11457
-0.976 2.035 1.646 12589
-0.981 2.045 1.644 14232
-0.985 2.055 1.642 11048
-0.990 2.065 1.640 7925
-1.009 2.104 1.660 8002
-1.011 2.108 1.653 9420
-1.016 2.118 1.651 10112
-1.020 2.128 1.648 10457
-1.028 2.144 1.650 11841
-1.036 2.160 1.652 12581
-1.040 2.170 1.649 14406
-1.042 2.174 1.642 12105
-1.044 2.178 1.636 9805
-1.049 2.188 1.633 8252
-1.065 2.222 1.647 8446
-1.064 2.220 1.636 11423
-1.063 2.218 1.624 15115
-1.065 2.222 1.617 13340
-1.088 2.268 1.639 12734
-1.092 2.278 1.636 11284
-1.100 2.295 1.637 9153
-1.105 2.305 1.634 6921
-1.107 2.309 1.627 7127
-1.109 2.312 1.619 8535
-1.114 2.323 1.616 7394
-1.148 2.394 1.652 8339
-1.153 2.404 1.649 8313
-1.155 2.408 1.641 8481
-1.157 2.412 1.633 8924
-1.158 2.416 1.626 8134
-1.163 2.426 1.622 7094
-1.159 2.418 1.607 7588
-1.158 2.415 1.595 8657
-1.163 2.426 1.591 9504
-1.171 2.442 1.591 8888
-1.176 2.452 1.587 8165
-1.205 2.512 1.613 11974
-1.206 2.516 1.605 16347
-1.211 2.526 1.601 16045
-1.213 2.530 1.593 19277
-1.215 2.534 1.585 22658
-1.214 2.531 1.573 23163
-1.216 2.535 1.565 21223
-1.217 2.539 1.557 18379
-1.247 2.600 1.581 18607
-1.248 2.604 1.573 20793
-1.247 2.601 1.561 20157
-1.249 2.605 1.553 20845
-1.254 2.615 1.548 19658
-1.259 2.625 1.543 13812
-1.291 2.693 1.570 10957
-1.293 2.697 1.561 11794
-1.295 2.700 1.552 9997
-1.296 2.704 1.544 8837
-1.295 2.701 1.532 10562
-1.297 2.705 1.523 8735
-1.320 2.754 1.538 11396
-1.322 2.758 1.529 12652
-1.324 2.761 1.521 11993
-1.326 2.765 1.512 10089
-1.327 2.768 1.503 7304
-1.416 2.954 1.585 7127
-1.418 2.958 1.575 9938
-1.423 2.968 1.569 10796
-1.422 2.966 1.557 9782
-1.424 2.969 1.547 8416
-1.422 2.967 1.535 8588
-1.421 2.964 1.522 10204
-1.426 2.974 1.516 12109
-1.431 2.984 1.509 15333
-1.432 2.988 1.500 15180
-1.431 2.985 1.487 11569
-1.429 2.981 1.475 12490
-1.431 2.985 1.465 14362
-1.433 2.988 1.456 14125
-1.438 2.999 1.449 12139
-1.436 2.995 1.437 8220
-1.431 2.985 1.421 8670
-1.436 2.995 1.415 7498
-1.447 3.019 1.414 5323
-1.452 3.029 1.407 5411
-1.454 3.032 1.397 8091
-1.452 3.029 1.385 10780
-1.454 3.032 1.375 12334
-1.468 3.062 1.376 10646
-1.476 3.079 1.372 7583
-1.474 3.075 1.360 6409
-1.479 3.085 1.352 5028
-1.771 3.693 1.582 4546
-1.795 3.744 1.589 3619
-1.800 3.755 1.579 3506
-1.818 3.792 1.580 2802
-1.830 3.816 1.576 4562
-1.841 3.840 1.571 4967
-1.850 3.858 1.564 3056
-1.553 3.238 1.321 2338
-1.554 3.242 1.311 3359
-1.552 3.238 1.298 3831
-1.554 3.241 1.288 4277
-1.555 3.244 1.277 4427
-1.557 3.247 1.267 4292
-1.558 3.250 1.257 3363
-1.984 4.139 1.552 5158
-1.986 4.143 1.539 5363
-1.988 4.146 1.526 2789
-2.016 4.204 1.531 3494
-2.014 4.201 1.515 4182
-2.013 4.198 1.499 2659
-2.047 4.270 1.508 2947
-2.056 4.287 1.499 2966
-2.090 4.360 1.507 3838
-2.089 4.356 1.491 5000
-2.123 4.429 1.498 3340
-2.155 4.494 1.503 4223
-2.163 4.511 1.493 6276
-2.168 4.522 1.480 8885
-2.170 4.525 1.466 8408
-2.165 4.515 1.447 6213
-2.233 4.657 1.473 5412
-2.238 4.667 1.460 3714
-2.243 4.677 1.447 3171
-2.284 4.764 1.455 3692
-2.379 4.961 1.493 2797
-2.360 4.923 1.466 3690
-2.359 4.920 1.448 2969
-2.387 4.979 1.447 2616
-2.445 5.100 1.462 2539
-2.450 5.111 1.448 3379
-2.449 5.107 1.429 2058
-2.504 5.222 1.441 2511
-2.579 5.379 1.462 1779
-2.584 5.389 1.447 2689
-2.592 5.406 1.433 2535
-2.708 5.647 1.472 1793
-2.713 5.658 1.455 2796
-2.707 5.647 1.434 2890
-2.780 5.797 1.449 2114
-2.808 5.857 1.443 2010
-2.810 5.860 1.424 3230
-2.815 5.870 1.407 2724
-2.820 5.881 1.390 2106
-2.824 5.891 1.372 2186
-2.981 6.217 1.420 2399
-3.107 6.480 1.454 2522
-3.112 6.491 1.434 2606
-3.110 6.487 1.412 2700
-3.112 6.490 1.391 3472
-3.113 6.494 1.370 3400
-3.230 6.736 1.394 2654
-3.228 6.732 1.371 2232
-3.395 7.081 1.412 2565
-3.393 7.077 1.388 3517
-3.395 7.080 1.365 3320
-3.410 7.112 1.347 2365
-3.425 7.143 1.329 2067
-3.829 7.986 1.444 2070
-3.827 7.983 1.417 1929
-3.836 8.000 1.394 1526
-3.837 8.004 1.368 1442
-3.839 8.007 1.342 1406
-0.921 1.931 1.675 4326
-0.923 1.935 1.669 8652
-0.925 1.939 1.663 8652
-0.929 1.949 1.661 8787
-0.931 1.953 1.655 9075
-0.933 1.957 1.649 8750
-0.935 1.961 1.643 8425
-0.945 1.982 1.650 9749
-0.950 1.992 1.649 11833
-0.952 1.996 1.642 11833
-0.962 2.018 1.650 11658
-0.967 2.027 1.648 12519
-0.971 2.037 1.646 13429
-0.976 2.047 1.644 15021
-0.978 2.051 1.637 11629
-0.986 2.067 1.640 8307
-1.004 2.107 1.660 8151
-1.006 2.111 1.653 9280
-1.011 2.120 1.651 10010
-1.019 2.136 1.652 10278
-1.023 2.146 1.650 11670
-1.031 2.162 1.652 12323
-1.036 2.172 1.649 13953
-1.038 2.176 1.642 11351
-1.040 2.180 1.636 8749
-1.044 2.190 1.633 7392
-1.061 2.224 1.647 7964
-1.060 2.222 1.636 10316
-1.059 2.220 1.624 13404
-1.063 2.230 1.622 11625
-1.083 2.271 1.639 11980
-1.088 2.281 1.636 10838
-1.095 2.297 1.637 8659
-1.103 2.313 1.638 6414
-1.105 2.317 1.631 6805
-1.107 2.321 1.623 8407
-1.112 2.331 1.620 7403
-1.143 2.397 1.652 9021
-1.145 2.401 1.645 9318
-1.150 2.411 1.641 9850
-1.151 2.415 1.633 10449
-1.153 2.419 1.626 9812
-1.158 2.429 1.622 8625
-1.154 2.420 1.607 9016
-1.156 2.424 1.599 9700
-1.158 2.428 1.591 10987
-1.163 2.438 1.587 10387
-1.170 2.454 1.587 9151
-1.199 2.515 1.613 11843
-1.201 2.519 1.605 15984
-1.203 2.523 1.597 16342
-1.208 2.533 1.593 20370
-1.209 2.537 1.585 23837
-1.208 2.534 1.573 24054
-1.210 2.538 1.565 21550
-1.209 2.535 1.553 18406
-1.241 2.603 1.581 21851
-1.243 2.606 1.573 24883
-1.245 2.610 1.565 24210
-1.243 2.607 1.553 24850
-1.248 2.618 1.548 23636
-1.253 2.628 1.543 17427
-1.255 2.631 1.535 12730
-1.287 2.699 1.561 11284
-1.292 2.710 1.556 9385
-1.291 2.707 1.544 8078
-1.289 2.704 1.532 9724
-1.310 2.747 1.543 9496
-1.314 2.757 1.538 13667
-1.316 2.760 1.529 14661
-1.318 2.764 1.521 13837
-1.320 2.768 1.512 11726
-1.321 2.771 1.503 8831
-1.382 2.899 1.556 7512
-1.409 2.955 1.572 9187
-1.414 2.965 1.566 9888
-1.409 2.956 1.550 9368
-1.417 2.972 1.547 8688
-1.419 2.976 1.538 9401
-1.415 2.967 1.522 10784
-1.419 2.977 1.516 12538
-1.424 2.987 1.509 15847
-1.426 2.991 1.500 15098
-1.425 2.988 1.487 11262
-1.420 2.978 1.472 12422
-1.422 2.981 1.462 14426
-1.426 2.992 1.456 14698
-1.431 3.002 1.449 13227
-1.430 2.998 1.437 9849
-1.428 2.995 1.424 10412
-1.430 2.999 1.415 9430
-1.438 3.015 1.411 5764
-1.452 3.045 1.412 4958
-1.444 3.029 1.394 8876
-1.446 3.032 1.385 11454
-1.447 3.035 1.375 12187
-1.458 3.058 1.374 10872
-1.469 3.082 1.372 7586
-1.465 3.072 1.357 6469
-1.469 3.082 1.350 5029
-1.763 3.697 1.582 5216
-1.768 3.708 1.573 4195
-1.795 3.765 1.582 3453
-1.823 3.823 1.591 3357
-1.825 3.827 1.579 5243
-1.827 3.831 1.566 5183
-1.841 3.862 1.564 3419
-1.837 3.852 1.547 2581
-1.550 3.252 1.313 3612
-1.549 3.248 1.300 4534
-1.547 3.244 1.288 4660
-1.548 3.247 1.277 4613
-1.550 3.250 1.267 4717
-1.551 3.253 1.257 3637
-1.972 4.136 1.550 5309
-1.974 4.140 1.537 5474
-1.976 4.144 1.523 3006
-2.007 4.209 1.531 4491
-2.009 4.212 1.517 4883
-2.014 4.223 1.506 2680
-2.035 4.268 1.506 2956
-2.050 4.299 1.501 3192
-2.078 4.357 1.505 4467
-2.079 4.361 1.491 5316
-2.114 4.433 1.498 3898
-2.112 4.430 1.482 4706
-2.160 4.530 1.497 6525
-2.158 4.527 1.480 8842
-2.160 4.530 1.466 9122
-2.162 4.534 1.451 6872
-2.226 4.668 1.475 4672
-2.234 4.686 1.464 3847
-2.229 4.675 1.445 3441
-2.271 4.762 1.453 4045
-2.269 4.758 1.436 3187
-2.350 4.928 1.466 4046
-2.348 4.925 1.448 3416
-2.343 4.914 1.429 2958
-2.378 4.987 1.431 2910
-2.443 5.123 1.449 3927
-2.441 5.119 1.431 2409
-2.492 5.227 1.441 3173
-2.491 5.224 1.423 1890
-2.576 5.402 1.448 2728
-2.581 5.412 1.433 2851
-2.682 5.625 1.465 1894
-2.700 5.663 1.455 2703
-2.705 5.674 1.439 2765
-2.767 5.803 1.449 1947
-2.705 5.674 1.401 1911
-2.797 5.866 1.424 3152
-2.802 5.876 1.407 2686
-2.810 5.894 1.391 2249
-2.812 5.897 1.372 2538
-2.971 6.230 1.422 2727
-2.972 6.234 1.402 2897
-3.098 6.497 1.434 2183
-3.096 6.494 1.412 2352
-3.098 6.497 1.391 2855
-3.210 6.733 1.414 3309
-3.215 6.743 1.394 3295
-3.217 6.746 1.372 2718
-3.376 7.081 1.411 2509
-3.378 7.084 1.388 3547
-3.379 7.088 1.365 3271
-3.394 7.119 1.347 2431
-3.403 7.136 1.327 2369
-3.728 7.818 1.415 1711
-3.807 7.984 1.416 1582
-4.085 8.567 1.370 1351
-0.918 1.932 1.675 4290
-0.920 1.936 1.669 8581
-0.922 1.940 1.663 8581
-0.927 1.950 1.661 8518
-0.931 1.960 1.660 8762
-0.933 1.964 1.654 8375
-0.932 1.962 1.643 8061
-0.943 1.983 1.650 9974
-0.950 1.999 1.653 12568
-0.952 2.003 1.647 12568
-0.959 2.019 1.650 12344
-0.964 2.029 1.648 13108
-0.969 2.039 1.646 13855
-0.973 2.048 1.644 15382
-0.975 2.052 1.637 11868
-0.983 2.068 1.640 8435
-1.002 2.108 1.660 8033
-1.004 2.112 1.653 8766
-1.008 2.122 1.651 9470
-1.016 2.138 1.652 9771
-1.021 2.148 1.650 11135
-1.028 2.164 1.652 11867
-1.033 2.174 1.649 13396
-1.035 2.178 1.642 10563
-1.037 2.182 1.636 7729
-1.041 2.192 1.633 6501
-1.061 2.232 1.651 7266
-1.057 2.224 1.636 8917
-1.056 2.222 1.624 11310
-1.060 2.232 1.622 9760
-1.080 2.272 1.639 10871
-1.085 2.282 1.636 10086
-1.089 2.292 1.633 8018
-1.091 2.296 1.626 5802
-1.102 2.319 1.631 6328
-1.104 2.322 1.623 8026
-1.138 2.394 1.660 7362
-1.140 2.398 1.652 9467
-1.142 2.402 1.645 10059
-1.146 2.412 1.641 10908
-1.148 2.416 1.633 11652
-1.150 2.420 1.626 11124
-1.152 2.424 1.618 9853
-1.151 2.422 1.607 9956
-1.153 2.426 1.599 10306
-1.155 2.430 1.591 12041
-1.159 2.440 1.587 11719
-1.164 2.450 1.583 10139
-1.196 2.516 1.613 11834
-1.198 2.520 1.605 15501
-1.203 2.530 1.601 16305
-1.204 2.534 1.593 20711
-1.206 2.538 1.585 24088
-1.205 2.536 1.573 23899
-1.207 2.539 1.565 20876
-1.236 2.600 1.589 19790
-1.238 2.604 1.581 24111
-1.239 2.608 1.573 27825
-1.241 2.612 1.565 27218
-1.240 2.609 1.553 27714
-1.245 2.619 1.548 26598
-1.246 2.623 1.540 20417
-1.248 2.627 1.531 15582
-1.250 2.630 1.523 12518
-1.288 2.711 1.556 8994
-1.299 2.734 1.558 7931
-1.301 2.738 1.549 9161
-1.309 2.755 1.547 11263
-1.311 2.758 1.538 15570
-1.313 2.762 1.529 16301
-1.314 2.766 1.521 15425
-1.316 2.769 1.512 13285
-1.321 2.779 1.506 10625
-1.323 2.783 1.497 8253
-1.399 2.943 1.566 8299
-1.404 2.954 1.560 8836
-1.402 2.951 1.547 8995
-1.413 2.974 1.547 8833
-1.415 2.978 1.538 10418
-1.411 2.968 1.522 11170
-1.416 2.979 1.516 12362
-1.420 2.989 1.509 15129
-1.422 2.993 1.500 13622
-1.417 2.983 1.484 10227
-1.416 2.980 1.472 11927
-1.418 2.983 1.462 13994
-1.422 2.993 1.456 14608
-1.424 2.997 1.446 14054
-1.426 3.000 1.437 11257
-1.424 2.997 1.424 12092
-1.429 3.007 1.417 11447
-1.431 3.010 1.408 6779
-1.458 3.067 1.421 5494
-1.440 3.030 1.394 10538
-1.438 3.027 1.382 12961
-1.443 3.037 1.375 12120
-1.451 3.054 1.371 10859
