-0.218 3.908 1.454 8583
-0.176 3.167 1.201 2869
-0.218 3.912 1.443 9498
-0.176 3.163 1.190 2357
-0.229 4.107 1.509 1322
-0.219 3.923 1.434 5642
-0.176 3.166 1.181 2160
-0.229 4.118 1.499 1869
-0.224 4.025 1.455 3845
-0.176 3.162 1.169 1690
-0.224 4.021 1.441 3739
-0.231 4.137 1.466 3806
-0.220 3.942 1.402 2352
-0.226 4.051 1.425 4729
-0.227 4.070 1.418 5433
-0.228 4.096 1.413 4019
-0.231 4.138 1.413 3470
-0.237 4.255 1.436 4808
-0.237 4.251 1.422 5915
-0.237 4.262 1.412 5385
-0.238 4.273 1.402 4054
-0.240 4.300 1.396 3746
-0.241 4.326 1.390 4548
-0.243 4.360 1.387 7540
-0.244 4.371 1.376 7139
-0.250 4.489 1.396 4842
-0.249 4.477 1.379 6087
-0.249 4.473 1.364 6916
-0.262 4.710 1.429 1330
-0.254 4.553 1.372 7664
-0.253 4.549 1.356 8253
-0.265 4.755 1.412 2018
-0.254 4.560 1.345 7841
-0.265 4.759 1.398 2089
-0.255 4.571 1.334 7376
-0.266 4.770 1.387 2473
-0.255 4.583 1.323 4914
-0.266 4.781 1.375 3537
-0.266 4.777 1.359 5507
-0.255 4.578 1.308 3454
-0.266 4.781 1.345 6309
-0.255 4.582 1.294 2081
-0.273 4.892 1.358 4549
-0.261 4.692 1.308 1348
-0.274 4.911 1.348 4399
-0.276 4.960 1.345 5432
-0.265 4.761 1.296 1402
-0.277 4.971 1.333 5452
-0.280 5.021 1.329 4215
-0.280 5.032 1.317 3699
-0.285 5.112 1.320 2859
-0.286 5.139 1.311 2477
-0.294 5.281 1.327 4313
-0.283 5.081 1.282 1512
-0.294 5.277 1.310 4890
-0.293 5.265 1.291 3176
-0.305 5.465 1.336 1699
-0.300 5.376 1.300 4168
-0.313 5.616 1.352 2819
-0.313 5.611 1.334 4865
-0.301 5.395 1.288 2946
-0.312 5.607 1.316 4273
-0.299 5.367 1.265 1771
-0.312 5.603 1.298 3025
-0.330 5.920 1.365 1634
-0.301 5.402 1.256 1480
-0.313 5.622 1.285 3965
-0.330 5.916 1.346 2215
-0.302 5.420 1.244 2203
-0.314 5.633 1.271 3939
-0.330 5.919 1.329 2370
-0.303 5.431 1.230 1641
-0.330 5.931 1.313 2961
-0.314 5.644 1.256 2267
-0.331 5.942 1.297 3459
-0.315 5.655 1.241 2050
-0.342 6.143 1.337 1426
-0.331 5.945 1.280 4164
-0.316 5.673 1.228 2276
-0.331 5.948 1.263 4704
-0.349 6.259 1.322 1514
-0.332 5.952 1.246 2934
-0.343 6.161 1.285 1922
-0.357 6.402 1.330 1921
-0.357 6.398 1.310 2317
-0.344 6.180 1.270 2058
-0.356 6.394 1.290 2994
-0.345 6.191 1.253 2471
-0.369 6.619 1.331 1361
-0.346 6.210 1.238 2837
-0.357 6.412 1.274 2417
-0.369 6.630 1.313 1880
-0.370 6.634 1.294 2100
-0.350 6.276 1.231 1783
-0.381 6.836 1.330 1329
-0.369 6.629 1.273 2492
-0.381 6.832 1.308 1902
-0.351 6.302 1.217 1868
-0.369 6.625 1.253 2441
-0.384 6.898 1.299 1604
-0.370 6.636 1.235 1729
-0.383 6.870 1.274 1602
-0.400 7.174 1.324 1403
-0.382 6.857 1.251 2171
-0.401 7.193 1.306 1951
-0.370 6.647 1.217 1439
-0.401 7.204 1.287 2596
-0.383 6.868 1.233 2504
-0.402 7.215 1.267 2001
-0.383 6.879 1.214 1958
-0.426 7.652 1.336 1804
-0.427 7.671 1.316 3349
-0.399 7.156 1.236 1363
-0.428 7.675 1.294 4079
-0.416 7.472 1.263 1726
-0.439 7.878 1.324 1404
-0.427 7.670 1.270 3796
-0.440 7.897 1.304 1356
-0.416 7.467 1.240 1328
-0.428 7.681 1.249 3153
-0.441 7.908 1.282 1832
-0.435 7.802 1.243 2301
-0.454 8.139 1.291 1519
-0.435 7.805 1.221 2944
-0.451 8.087 1.260 1865
-0.436 7.816 1.199 3135
-0.452 8.106 1.239 2559
-0.436 7.819 1.176 2328
-0.452 8.117 1.216 2101
-0.474 8.509 1.268 2025
-0.475 8.520 1.245 2572
-0.486 8.724 1.271 1841
-0.436 7.822 1.154 1489
-0.485 8.703 1.243 2304
-0.474 8.500 1.217 1813
-0.485 8.699 1.217 1842
-0.503 9.024 1.231 1436
-0.481 8.623 1.182 1435
-0.481 8.626 1.157 1653
-0.503 9.027 1.204 1459
-0.515 9.246 1.230 1403
-0.503 9.030 1.178 1508
-0.515 9.234 1.202 1506
-0.503 9.033 1.152 1821
-0.515 9.237 1.175 1544
-0.503 9.036 1.126 1639
-0.515 9.240 1.148 1607
-0.515 9.243 1.121 1963
-0.515 9.238 1.093 1503
-0.521 9.351 1.078 1457
-0.113 2.072 1.628 2715
-0.114 2.077 1.622 5430
-0.114 2.081 1.616 5430
-0.115 2.098 1.620 5125
-0.115 2.102 1.614 5098
-0.115 2.107 1.608 4474
-0.116 2.111 1.602 3850
-0.116 2.128 1.605 5581
-0.117 2.132 1.599 7485
-0.117 2.137 1.593 7485
-0.118 2.160 1.600 10305
-0.118 2.165 1.594 13910
-0.119 2.175 1.592 15444
-0.119 2.180 1.586 17103
-0.119 2.184 1.580 15043
-0.120 2.188 1.574 12984
-0.120 2.192 1.567 9625
-0.120 2.190 1.557 6277
-0.120 2.200 1.555 6823
-0.122 2.231 1.566 8129
-0.124 2.262 1.577 7776
-0.124 2.272 1.575 9413
-0.125 2.277 1.568 11233
-0.125 2.281 1.562 10905
-0.125 2.278 1.551 10631
-0.126 2.296 1.553 8455
-0.127 2.320 1.559 7526
-0.127 2.317 1.548 7927
-0.127 2.321 1.541 7194
-0.127 2.319 1.531 5398
-0.131 2.390 1.565 4835
-0.131 2.401 1.562 6043
-0.132 2.405 1.555 6250
-0.132 2.410 1.549 6140
-0.133 2.427 1.550 6889
-0.134 2.445 1.551 7815
-0.134 2.449 1.544 5845
-0.139 2.535 1.585 5350
-0.136 2.485 1.546 5331
-0.136 2.482 1.535 6876
-0.136 2.486 1.528 7637
-0.137 2.497 1.524 6222
-0.146 2.676 1.626 2334
-0.142 2.590 1.568 5843
-0.142 2.601 1.564 4292
-0.146 2.661 1.587 3066
-0.142 2.603 1.545 3055
-0.146 2.662 1.568 3256
-0.146 2.667 1.561 3957
-0.148 2.705 1.572 5532
-0.148 2.710 1.564 8080
-0.149 2.721 1.560 8071
-0.149 2.725 1.552 7809
-0.149 2.729 1.544 7432
-0.150 2.740 1.540 8336
-0.152 2.772 1.547 10385
-0.153 2.790 1.546 13801
-0.153 2.801 1.542 16535
-0.154 2.806 1.534 15235
-0.164 2.989 1.627 1580
-0.154 2.810 1.526 10847
-0.164 2.993 1.618 1600
-0.154 2.821 1.521 10743
-0.164 3.005 1.613 3110
-0.155 2.825 1.513 8507
-0.165 3.009 1.604 5733
-0.163 2.985 1.582 7509
-0.153 2.800 1.491 2620
-0.164 2.996 1.577 5536
-0.164 2.993 1.565 4149
-0.168 3.076 1.594 4892
-0.158 2.890 1.504 2482
-0.169 3.087 1.588 6266
-0.159 2.902 1.500 1693
-0.170 3.098 1.583 6381
-0.159 2.913 1.495 1355
-0.169 3.095 1.570 5425
-0.169 3.085 1.555 4560
-0.169 3.097 1.549 6553
-0.170 3.101 1.540 8785
-0.170 3.112 1.535 7610
-0.173 3.166 1.549 5986
-0.175 3.192 1.549 6383
-0.175 3.196 1.540 5458
-0.179 3.280 1.566 4232
-0.180 3.291 1.560 4883
-0.181 3.310 1.557 7283
-0.182 3.328 1.553 9245
-0.172 3.140 1.472 1507
-0.182 3.333 1.544 10791
-0.183 3.337 1.534 9795
-0.182 3.333 1.522 7266
-0.172 3.144 1.442 1440
-0.182 3.330 1.509 5466
-0.172 3.140 1.430 1771
-0.183 3.349 1.505 4852
-0.173 3.159 1.427 2344
-0.184 3.367 1.502 5609
-0.172 3.148 1.412 3876
-0.172 3.152 1.402 6197
-0.185 3.386 1.498 5649
-0.172 3.148 1.390 6050
-0.191 3.500 1.533 5770
-0.193 3.526 1.531 8517
-0.172 3.144 1.378 4454
-0.196 3.574 1.539 6111
-0.172 3.141 1.366 3257
-0.185 3.383 1.463 2605
-0.196 3.585 1.531 5853
-0.172 3.151 1.360 2805
-0.186 3.394 1.456 1776
-0.196 3.589 1.521 4803
-0.173 3.162 1.354 2283
-0.196 3.586 1.508 4518
-0.197 3.597 1.500 7225
-0.198 3.616 1.496 7507
-0.198 3.620 1.485 7050
-0.198 3.624 1.475 7219
-0.173 3.165 1.303 1511
-0.200 3.658 1.475 6800
-0.173 3.168 1.294 1977
-0.204 3.728 1.489 7286
-0.174 3.172 1.285 2134
-0.205 3.747 1.484 8849
-0.173 3.160 1.270 2279
-0.205 3.751 1.473 9901
-0.172 3.149 1.256 2284
-0.206 3.762 1.465 9585
-0.172 3.144 1.244 4193
-0.206 3.759 1.452 6544
-0.172 3.148 1.235 5974
-0.206 3.770 1.443 4763
-0.172 3.151 1.226 4745
-0.207 3.781 1.435 4434
-0.173 3.161 1.220 3981
-0.214 3.905 1.465 5913
-0.173 3.164 1.210 3749
-0.214 3.908 1.454 8731
-0.173 3.168 1.201 2957
-0.214 3.912 1.443 9415
-0.173 3.163 1.190 2534
-0.225 4.107 1.509 1350
-0.214 3.916 1.431 5507
-0.173 3.166 1.181 2301
-0.225 4.111 1.497 2082
-0.220 4.025 1.455 3849
-0.173 3.162 1.169 1779
-0.220 4.029 1.443 3556
-0.226 4.138 1.466 3869
-0.216 3.942 1.402 2208
-0.222 4.051 1.425 4419
-0.223 4.078 1.420 5210
-0.225 4.104 1.416 4401
-0.226 4.138 1.413 3796
-0.233 4.255 1.436 4626
-0.233 4.251 1.422 5647
-0.233 4.262 1.412 5276
-0.234 4.274 1.402 3943
-0.235 4.300 1.396 3898
-0.237 4.326 1.390 4812
-0.238 4.353 1.384 8137
-0.239 4.364 1.374 7326
-0.246 4.497 1.398 4518
-0.245 4.485 1.381 5750
-0.245 4.474 1.364 6802
-0.258 4.710 1.429 1357
-0.248 4.531 1.365 6316
-0.249 4.542 1.354 7688
-0.260 4.755 1.412 1759
-0.250 4.561 1.345 7239
-0.261 4.774 1.402 1885
-0.250 4.572 1.334 6446
-0.261 4.770 1.387 2288
-0.251 4.583 1.323 4215
-0.262 4.782 1.375 3563
-0.262 4.785 1.361 5779
-0.251 4.586 1.310 2823
-0.262 4.781 1.345 5973
-0.251 4.582 1.294 1505
-0.268 4.892 1.358 4396
-0.257 4.693 1.308 1411
-0.264 4.819 1.325 4695
-0.271 4.960 1.345 5668
-0.260 4.761 1.296 1423
-0.272 4.972 1.333 5525
-0.275 5.021 1.329 4002
-0.275 5.032 1.317 3637
-0.279 5.105 1.318 2821
-0.279 5.101 1.302 2373
-0.289 5.281 1.327 4047
-0.278 5.081 1.282 1409
-0.289 5.277 1.310 4934
-0.288 5.265 1.291 3244
-0.299 5.466 1.336 1629
-0.295 5.384 1.301 4184
-0.307 5.616 1.352 2771
-0.307 5.612 1.334 4780
-0.295 5.395 1.288 3139
-0.307 5.607 1.316 4213
-0.294 5.368 1.265 1777
-0.307 5.611 1.300 3019
-0.324 5.920 1.365 1549
-0.296 5.410 1.258 1403
-0.308 5.622 1.285 3967
-0.324 5.916 1.346 2179
-0.297 5.421 1.244 2149
-0.309 5.641 1.272 3936
-0.324 5.920 1.329 2429
-0.298 5.439 1.231 1859
-0.325 5.931 1.313 2820
-0.309 5.644 1.256 2198
-0.325 5.942 1.297 3218
-0.310 5.663 1.242 2048
-0.336 6.144 1.337 1534
-0.325 5.945 1.280 4005
-0.310 5.674 1.228 2392
-0.336 6.147 1.319 1343
-0.325 5.949 1.263 4657
-0.342 6.259 1.322 1393
-0.326 5.952 1.246 2974
-0.350 6.403 1.330 1801
-0.337 6.154 1.284 1611
-0.351 6.406 1.312 2186
-0.335 6.118 1.259 1859
-0.350 6.394 1.290 3029
-0.339 6.192 1.253 2310
-0.362 6.619 1.331 1344
-0.340 6.210 1.238 2808
-0.351 6.413 1.274 2562
-0.363 6.631 1.313 1786
-0.363 6.634 1.294 1968
-0.351 6.408 1.254 1777
-0.340 6.206 1.219 1332
-0.363 6.630 1.273 2407
-0.374 6.832 1.308 1850
-0.345 6.302 1.217 1763
-0.363 6.625 1.253 2418
-0.377 6.898 1.299 1516
-0.364 6.644 1.236 1747
-0.376 6.870 1.274 1546
-0.392 7.166 1.323 1429
-0.375 6.858 1.251 2275
-0.394 7.193 1.306 1971
-0.364 6.655 1.218 1406
-0.394 7.204 1.287 2626
-0.375 6.861 1.231 2611
-0.395 7.223 1.268 2076
-0.376 6.872 1.213 1931
-0.419 7.653 1.336 1854
-0.420 7.672 1.316 3334
-0.391 7.148 1.235 1436
-0.420 7.675 1.294 4045
-0.409 7.472 1.263 1569
-0.391 7.152 1.214 1407
-0.420 7.671 1.270 3832
-0.432 7.898 1.304 1351
-0.420 7.682 1.249 3273
-0.433 7.917 1.283 1857
-0.420 7.685 1.227 2381
-0.432 7.904 1.258 1925
-0.445 8.139 1.291 1456
-0.427 7.806 1.221 3052
-0.443 8.088 1.260 1886
-0.428 7.817 1.199 3304
-0.443 8.099 1.238 2556
-0.428 7.820 1.176 2481
-0.444 8.117 1.216 2041
-0.466 8.509 1.268 1874
-0.466 8.512 1.244 2443
-0.477 8.716 1.270 2035
-0.428 7.823 1.154 1600
-0.476 8.704 1.243 2362
-0.465 8.500 1.217 1770
-0.476 8.699 1.217 1880
-0.494 9.024 1.231 1406
-0.472 8.624 1.182 1336
-0.472 8.627 1.157 1523
-0.494 9.027 1.204 1425
-0.506 9.239 1.229 1405
-0.505 9.234 1.202 1503
-0.494 9.030 1.178 1455
-0.494 9.033 1.152 1738
-0.505 9.237 1.175 1555
-0.505 9.233 1.147 1669
-0.494 9.028 1.125 1558
-0.506 9.243 1.121 2037
-0.505 9.238 1.093 1593
-0.512 9.351 1.078 1478
-0.112 2.079 1.633 2669
-0.112 2.083 1.627 5338
-0.113 2.087 1.621 5338
-0.113 2.098 1.620 5156
-0.114 2.109 1.618 5176
-0.114 2.107 1.608 4424
-0.114 2.105 1.597 3702
-0.115 2.122 1.600 5398
-0.115 2.132 1.599 7271
-0.115 2.137 1.593 7271
-0.117 2.160 1.600 10116
-0.117 2.165 1.594 13826
-0.117 2.169 1.588 15460
-0.118 2.180 1.586 17202
-0.118 2.184 1.580 15243
-0.118 2.188 1.574 13284
-0.118 2.192 1.567 9948
-0.118 2.190 1.557 6642
-0.119 2.201 1.555 7224
-0.120 2.231 1.566 8618
-0.122 2.262 1.577 7962
-0.123 2.273 1.575 9413
-0.123 2.277 1.568 11043
-0.123 2.281 1.562 10666
-0.123 2.285 1.555 10289
-0.124 2.296 1.553 8298
-0.125 2.320 1.559 7329
-0.125 2.317 1.548 7867
-0.125 2.322 1.541 7106
-0.126 2.326 1.535 5287
-0.129 2.390 1.565 5077
-0.130 2.401 1.562 6355
-0.130 2.412 1.560 6498
-0.130 2.416 1.553 6296
-0.131 2.427 1.550 7055
-0.132 2.438 1.547 7912
-0.132 2.442 1.540 5902
-0.137 2.528 1.581 5449
-0.135 2.492 1.550 5325
-0.134 2.482 1.535 6780
-0.134 2.486 1.528 7424
-0.135 2.497 1.524 6037
-0.144 2.676 1.626 2386
-0.140 2.597 1.571 6048
-0.140 2.602 1.564 4346
-0.144 2.661 1.587 3065
-0.141 2.610 1.549 2923
-0.144 2.662 1.568 3479
-0.144 2.667 1.561 4283
-0.145 2.692 1.564 5995
-0.146 2.710 1.564 8390
-0.147 2.721 1.560 8215
-0.147 2.725 1.552 7966
-0.148 2.736 1.548 7629
-0.148 2.740 1.540 8495
-0.150 2.772 1.547 10402
-0.151 2.790 1.546 13791
-0.151 2.802 1.542 16508
-0.151 2.806 1.534 15216
-0.161 2.989 1.627 1533
-0.152 2.810 1.526 10810
-0.162 2.993 1.618 1520
-0.152 2.814 1.518 10666
-0.162 2.998 1.609 3237
-0.153 2.825 1.513 8446
-0.162 3.009 1.604 5600
-0.161 2.985 1.582 6971
-0.151 2.800 1.491 2778
-0.162 2.996 1.577 5191
-0.152 2.811 1.486 1448
-0.162 2.993 1.565 3916
-0.152 2.808 1.475 1432
-0.166 3.076 1.594 4780
-0.156 2.891 1.504 2943
-0.167 3.094 1.592 5957
-0.157 2.909 1.503 2134
-0.167 3.099 1.583 6025
-0.157 2.913 1.495 1466
-0.168 3.103 1.574 5098
-0.167 3.085 1.555 4641
-0.167 3.097 1.549 6618
-0.167 3.101 1.540 8765
-0.168 3.112 1.535 7435
-0.171 3.174 1.552 5812
-0.173 3.199 1.552 6110
-0.172 3.189 1.537 5068
-0.177 3.273 1.563 4512
-0.178 3.291 1.560 5014
-0.179 3.310 1.557 7402
-0.180 3.329 1.553 9267
-0.170 3.140 1.472 1630
-0.180 3.333 1.544 10577
-0.180 3.337 1.534 9438
-0.180 3.334 1.522 7150
-0.170 3.144 1.442 1427
-0.180 3.330 1.509 5468
-0.170 3.141 1.430 1823
-0.181 3.356 1.508 4833
-0.170 3.152 1.424 2455
-0.182 3.367 1.502 5576
-0.170 3.148 1.412 4167
-0.170 3.152 1.402 6865
-0.183 3.386 1.498 5626
-0.170 3.148 1.390 6987
-0.189 3.500 1.533 5861
-0.190 3.526 1.531 8544
-0.170 3.144 1.378 5196
-0.193 3.574 1.539 6059
-0.170 3.141 1.366 3439
-0.183 3.383 1.463 2709
-0.194 3.593 1.534 5792
-0.170 3.152 1.360 2692
-0.184 3.402 1.459 1931
-0.194 3.590 1.521 4591
-0.171 3.162 1.354 2105
-0.194 3.586 1.508 4380
-0.170 3.151 1.339 1307
-0.194 3.598 1.500 7140
-0.170 3.147 1.327 1473
-0.195 3.609 1.493 7468
-0.171 3.158 1.321 1738
-0.195 3.620 1.485 7139
-0.171 3.162 1.312 1505
-0.196 3.632 1.478 7090
-0.197 3.658 1.475 6705
-0.202 3.736 1.492 7737
-0.170 3.150 1.277 1301
-0.202 3.747 1.484 9020
-0.169 3.138 1.262 1734
-0.203 3.751 1.473 9315
-0.170 3.149 1.256 2222
-0.203 3.762 1.465 8566
-0.170 3.144 1.244 4496
-0.170 3.148 1.235 6260
-0.203 3.766 1.454 5900
-0.170 3.151 1.226 4925
-0.204 3.778 1.446 4924
-0.204 3.781 1.435 4663
-0.171 3.161 1.220 4038
-0.215 3.976 1.502 1319
-0.211 3.905 1.465 6122
-0.171 3.165 1.210 3909
-0.211 3.909 1.454 8870
-0.171 3.168 1.201 3146
-0.211 3.905 1.440 9325
-0.171 3.163 1.190 2651
-0.222 4.107 1.509 1411
-0.211 3.909 1.429 5502
-0.171 3.166 1.181 2357
-0.222 4.104 1.494 2305
-0.218 4.032 1.457 3903
-0.171 3.162 1.169 1844
-0.218 4.029 1.443 3384
-0.223 4.130 1.463 3887
-0.212 3.935 1.400 1912
-0.218 4.044 1.422 4075
-0.220 4.078 1.420 5048
-0.222 4.104 1.416 4930
-0.223 4.138 1.413 4128
-0.229 4.247 1.434 4526
-0.230 4.251 1.422 5379
-0.230 4.262 1.412 5120
-0.231 4.281 1.404 3910
-0.232 4.293 1.394 4037
-0.234 4.327 1.390 5047
-0.235 4.353 1.384 8629
-0.236 4.364 1.374 7657
-0.236 4.375 1.364 4485
-0.247 4.573 1.420 1477
-0.242 4.485 1.381 5438
-0.242 4.474 1.364 6656
-0.254 4.710 1.429 1439
-0.244 4.516 1.361 5120
-0.255 4.714 1.415 1405
-0.245 4.542 1.354 7339
-0.257 4.756 1.412 1477
-0.246 4.553 1.343 6965
-0.258 4.775 1.402 1774
-0.247 4.572 1.334 5464
-0.258 4.771 1.387 2179
-0.247 4.583 1.323 3969
-0.258 4.782 1.375 3563
-0.258 4.785 1.361 5983
-0.248 4.586 1.310 3052
-0.258 4.781 1.345 5718
-0.247 4.582 1.294 1837
-0.264 4.892 1.358 4259
-0.253 4.693 1.308 1431
-0.260 4.819 1.325 4836
-0.268 4.961 1.345 5800
-0.257 4.761 1.296 1390
-0.268 4.972 1.333 5495
-0.271 5.021 1.329 3728
-0.272 5.033 1.317 3495
-0.276 5.105 1.318 2886
-0.275 5.101 1.302 2486
-0.285 5.282 1.327 3771
-0.274 5.081 1.282 1422
-0.285 5.277 1.310 4941
-0.284 5.265 1.291 3268
-0.295 5.466 1.336 1603
-0.291 5.384 1.301 4270
-0.303 5.616 1.352 2718
-0.303 5.612 1.334 4704
-0.291 5.396 1.288 3338
-0.303 5.608 1.316 4126
-0.290 5.368 1.265 1828
-0.303 5.611 1.300 2875
-0.320 5.921 1.365 1495
-0.292 5.402 1.256 1379
-0.304 5.630 1.287 3864
-0.320 5.924 1.347 2128
-0.293 5.429 1.245 2063
-0.305 5.641 1.272 3961
-0.320 5.920 1.329 2445
-0.294 5.440 1.231 1857
-0.320 5.931 1.313 2694
-0.305 5.644 1.256 2207
-0.321 5.942 1.297 3053
-0.306 5.663 1.242 2179
-0.332 6.144 1.337 1667
-0.321 5.946 1.280 3890
-0.306 5.674 1.228 2544
-0.332 6.147 1.319 1522
-0.321 5.949 1.263 4566
-0.338 6.260 1.322 1324
-0.322 5.960 1.247 3053
-0.346 6.403 1.330 1700
-0.346 6.406 1.312 2105
-0.330 6.103 1.256 1993
-0.345 6.394 1.290 3153
-0.334 6.192 1.253 2047
-0.346 6.405 1.273 2820
-0.335 6.203 1.237 2593
-0.358 6.631 1.313 1686
-0.358 6.634 1.294 1821
-0.346 6.401 1.253 1721
-0.358 6.622 1.272 2284
-0.368 6.825 1.307 1907
-0.340 6.295 1.216 1673
-0.358 6.625 1.253 2372
-0.372 6.898 1.299 1375
-0.359 6.652 1.238 1777
-0.371 6.870 1.274 1491
-0.387 7.167 1.323 1397
-0.370 6.858 1.251 2308
-0.388 7.194 1.306 1900
-0.359 6.655 1.218 1414
-0.389 7.205 1.287 2617
-0.370 6.861 1.231 2616
-0.390 7.224 1.268 2185
-0.413 7.653 1.336 1861
-0.371 6.872 1.213 1834
-0.414 7.672 1.316 3289
-0.386 7.141 1.234 1466
-0.414 7.676 1.294 3995
-0.403 7.472 1.263 1450
-0.386 7.144 1.213 1448
-0.414 7.671 1.270 3825
-0.426 7.898 1.304 1355
-0.393 7.280 1.212 1304
-0.415 7.682 1.249 3371
-0.427 7.917 1.283 1864
-0.415 7.685 1.227 2476
-0.427 7.912 1.259 1920
-0.439 8.139 1.291 1431
-0.421 7.798 1.220 3172
-0.437 8.088 1.260 1896
-0.422 7.817 1.199 3459
-0.437 8.099 1.238 2529
-0.422 7.820 1.176 2627
-0.438 8.110 1.215 1976
-0.459 8.510 1.268 1718
-0.460 8.513 1.244 2308
-0.471 8.717 1.270 2020
-0.422 7.815 1.153 1731
-0.470 8.704 1.243 2382
-0.459 8.500 1.217 1708
-0.422 7.818 1.130 1317
-0.470 8.700 1.217 1877
-0.487 9.024 1.231 1395
-0.466 8.627 1.157 1413
-0.499 9.239 1.229 1400
-0.487 9.028 1.204 1373
-0.499 9.235 1.202 1492
-0.488 9.031 1.178 1366
-0.488 9.034 1.152 1621
-0.499 9.238 1.175 1551
-0.498 9.233 1.147 1689
-0.487 9.029 1.125 1468
-0.499 9.244 1.121 2075
-0.499 9.247 1.094 1660
-0.504 9.344 1.077 1499
-0.111 2.079 1.633 2632
-0.111 2.083 1.627 5265
-0.111 2.088 1.621 5265
-0.112 2.098 1.620 5165
-0.112 2.109 1.618 5226
-0.112 2.107 1.608 4371
-0.112 2.105 1.597 3622
-0.113 2.115 1.596 5309
-0.113 2.126 1.594 7170
-0.113 2.130 1.588 7170
-0.115 2.154 1.596 9958
-0.115 2.165 1.594 13753
-0.115 2.169 1.588 15506
-0.116 2.180 1.586 17273
-0.116 2.184 1.580 15401
-0.116 2.188 1.574 13529
-0.117 2.192 1.567 10219
-0.117 2.190 1.557 6955
-0.117 2.201 1.555 7572
-0.118 2.225 1.561 9040
-0.120 2.262 1.577 8066
-0.121 2.273 1.575 9334
-0.121 2.277 1.568 10774
-0.121 2.281 1.562 10300
-0.122 2.285 1.555 9826
-0.123 2.303 1.557 8026
-0.123 2.313 1.555 7041
-0.123 2.318 1.548 7744
-0.123 2.315 1.537 7131
-0.124 2.326 1.535 5404
-0.127 2.391 1.565 5235
-0.128 2.401 1.562 6549
-0.128 2.412 1.560 6672
-0.129 2.417 1.553 6400
-0.129 2.421 1.546 7166
-0.129 2.432 1.543 7967
-0.130 2.442 1.540 5920
-0.135 2.529 1.581 5541
-0.133 2.492 1.550 5329
-0.132 2.489 1.539 6663
-0.133 2.493 1.531 7191
-0.138 2.586 1.575 5944
-0.138 2.597 1.571 6327
-0.138 2.602 1.564 4518
-0.141 2.654 1.583 3121
-0.141 2.651 1.572 2997
-0.142 2.663 1.568 3719
-0.142 2.674 1.564 4597
-0.143 2.692 1.564 6387
-0.144 2.710 1.564 8592
-0.145 2.721 1.560 8264
-0.145 2.725 1.552 8067
-0.146 2.736 1.548 7875
-0.146 2.740 1.540 8620
-0.148 2.772 1.547 10286
-0.148 2.791 1.546 13459
-0.149 2.802 1.542 16139
-0.149 2.806 1.534 14812
-0.159 2.989 1.627 1549
-0.149 2.810 1.526 10215
-0.159 2.994 1.618 1510
-0.150 2.814 1.518 9848
-0.159 2.998 1.609 3158
-0.150 2.825 1.513 7689
-0.160 3.009 1.604 5509
-0.159 2.992 1.585 6530
-0.149 2.808 1.494 2817
-0.160 3.003 1.580 4938
-0.150 2.819 1.490 1494
-0.159 2.993 1.565 3727
-0.164 3.076 1.594 4715
-0.154 2.891 1.504 3201
-0.165 3.094 1.592 5745
-0.155 2.909 1.503 2326
-0.165 3.106 1.586 5840
-0.155 2.920 1.498 1558
-0.165 3.103 1.574 4871
-0.164 3.086 1.555 4634
-0.165 3.097 1.549 6552
-0.165 3.108 1.544 8609
-0.166 3.112 1.535 7160
-0.169 3.174 1.552 5640
-0.170 3.200 1.552 5788
-0.170 3.204 1.543 4638
-0.174 3.273 1.563 4751
-0.175 3.284 1.557 5119
-0.176 3.310 1.557 7485
-0.166 3.122 1.475 1303
-0.177 3.329 1.553 9254
-0.167 3.140 1.472 1786
-0.177 3.333 1.544 10339
-0.167 3.144 1.463 1420
-0.178 3.337 1.534 9043
-0.177 3.334 1.522 7004
-0.167 3.144 1.442 1391
-0.177 3.330 1.509 5450
-0.167 3.141 1.430 1918
-0.179 3.356 1.508 4838
-0.168 3.152 1.424 2677
-0.179 3.368 1.502 5584
-0.167 3.148 1.412 4455
-0.168 3.152 1.402 7382
-0.180 3.386 1.498 5643
-0.168 3.148 1.390 7577
-0.186 3.500 1.533 5885
-0.188 3.526 1.531 8496
-0.167 3.145 1.378 5682
-0.190 3.574 1.539 5992
-0.167 3.141 1.366 3752
-0.180 3.383 1.463 2725
-0.191 3.593 1.534 5743
-0.167 3.144 1.357 2811
-0.181 3.402 1.459 1970
-0.191 3.597 1.524 4481
-0.168 3.155 1.351 2064
-0.191 3.586 1.508 4356
-0.191 3.598 1.500 7164
-0.167 3.148 1.327 1368
-0.192 3.609 1.493 7529
-0.168 3.166 1.324 1430
-0.193 3.628 1.488 7143
-0.193 3.632 1.478 6939
-0.195 3.658 1.475 6567
-0.199 3.736 1.492 8189
-0.199 3.747 1.484 9062
-0.168 3.153 1.268 2410
-0.200 3.751 1.473 8603
-0.168 3.156 1.259 3040
-0.200 3.763 1.465 7544
-0.168 3.152 1.247 4655
-0.167 3.148 1.235 6154
-0.200 3.766 1.454 5430
-0.201 3.778 1.446 5269
-0.168 3.151 1.226 4921
-0.201 3.781 1.435 4972
-0.168 3.162 1.220 4201
-0.212 3.976 1.502 1339
-0.208 3.905 1.465 6163
-0.168 3.165 1.210 4009
-0.208 3.909 1.454 8886
-0.169 3.168 1.201 3155
-0.208 3.905 1.440 9189
-0.168 3.163 1.190 2584
-0.219 4.107 1.509 1466
-0.208 3.909 1.429 5343
-0.218 4.104 1.494 2538
-0.168 3.166 1.181 2334
-0.215 4.033 1.457 4007
-0.168 3.162 1.169 1934
-0.214 4.029 1.443 3270
-0.220 4.131 1.463 3854
-0.209 3.935 1.400 1863
-0.215 4.044 1.422 3767
-0.217 4.085 1.423 4841
-0.218 4.104 1.416 5237
-0.221 4.146 1.416 4459
-0.226 4.248 1.434 4480
-0.226 4.251 1.422 5149
-0.227 4.263 1.412 4957
-0.228 4.281 1.404 3898
-0.228 4.293 1.394 4199
-0.230 4.327 1.390 5307
-0.232 4.353 1.384 9158
-0.232 4.364 1.374 7883
-0.232 4.368 1.361 4468
-0.243 4.566 1.417 1828
-0.239 4.486 1.381 5155
-0.238 4.474 1.364 6348
-0.251 4.710 1.429 1553
-0.243 4.569 1.376 4897
-0.242 4.542 1.354 7232
-0.242 4.553 1.343 6835
-0.254 4.782 1.404 1684
-0.243 4.572 1.334 5157
-0.254 4.771 1.387 2198
-0.244 4.591 1.325 3738
-0.255 4.790 1.377 3443
-0.255 4.786 1.361 6167
-0.244 4.587 1.310 2816
-0.254 4.782 1.345 5533
-0.244 4.582 1.294 1805
-0.260 4.885 1.356 4130
-0.247 4.647 1.297 1438
-0.257 4.827 1.327 5130
-0.264 4.961 1.345 5886
-0.265 4.972 1.333 5427
-0.263 4.937 1.309 3584
-0.268 5.033 1.317 3270
-0.272 5.105 1.318 3010
-0.271 5.101 1.302 2553
-0.281 5.282 1.327 3577
-0.270 5.081 1.282 1347
-0.281 5.278 1.310 5014
-0.281 5.273 1.293 3348
-0.291 5.474 1.338 1456
-0.286 5.385 1.301 4331
-0.299 5.616 1.352 2621
-0.299 5.612 1.334 4534
-0.287 5.396 1.288 3535
-0.299 5.616 1.318 3959
-0.286 5.368 1.265 1834
-0.299 5.611 1.300 2823
-0.315 5.921 1.365 1439
-0.287 5.402 1.256 1356
-0.300 5.630 1.287 3931
-0.315 5.917 1.346 2070
-0.289 5.429 1.245 1940
-0.300 5.641 1.272 4052
-0.315 5.920 1.329 2425
-0.289 5.440 1.231 1855
-0.316 5.931 1.313 2573
-0.300 5.645 1.256 2302
-0.316 5.943 1.297 2944
-0.302 5.671 1.244 2249
-0.327 6.144 1.337 1711
-0.316 5.946 1.280 3824
-0.302 5.674 1.228 2540
-0.327 6.148 1.319 1623
-0.317 5.949 1.263 4503
-0.317 5.960 1.247 3118
-0.341 6.411 1.332 1623
-0.325 6.103 1.256 2073
-0.340 6.399 1.310 2017
-0.340 6.394 1.290 3182
-0.329 6.192 1.253 1966
-0.341 6.406 1.273 2932
-0.330 6.203 1.237 2515
-0.353 6.631 1.313 1533
-0.341 6.409 1.254 1702
-0.353 6.635 1.294 1671
-0.330 6.206 1.219 1300
-0.362 6.802 1.303 2128
-0.351 6.599 1.268 1811
-0.335 6.295 1.216 1608
-0.353 6.626 1.253 2188
-0.367 6.891 1.298 1332
-0.354 6.652 1.238 1685
-0.366 6.871 1.274 1476
-0.379 7.120 1.315 1411
-0.365 6.858 1.251 2313
-0.383 7.194 1.306 1885
-0.354 6.655 1.218 1356
-0.383 7.205 1.287 2697
-0.365 6.862 1.231 2521
-0.384 7.224 1.268 2342
-0.407 7.653 1.336 1862
-0.366 6.872 1.213 1688
-0.408 7.673 1.316 3224
-0.380 7.141 1.234 1508
-0.408 7.676 1.294 3890
-0.380 7.137 1.212 1476
-0.398 7.473 1.263 1321
-0.408 7.671 1.270 3765
-0.420 7.898 1.304 1353
-0.388 7.288 1.213 1331
-0.409 7.683 1.249 3424
-0.421 7.917 1.283 1876
-0.409 7.686 1.227 2539
-0.421 7.913 1.259 1913
-0.433 8.132 1.290 1408
-0.415 7.798 1.220 3264
-0.430 8.088 1.260 1902
-0.415 7.809 1.198 3569
-0.431 8.099 1.238 2495
-0.416 7.820 1.176 2760
-0.432 8.110 1.215 1894
-0.453 8.510 1.268 1552
-0.453 8.513 1.244 2115
-0.464 8.717 1.270 2020
-0.416 7.815 1.153 1868
-0.463 8.705 1.243 2385
-0.452 8.501 1.217 1620
-0.416 7.818 1.130 1424
-0.463 8.700 1.217 1857
-0.480 9.025 1.231 1370
-0.492 9.240 1.229 1356
-0.480 9.028 1.204 1348
-0.491 9.235 1.202 1437
-0.480 9.031 1.178 1315
-0.491 9.230 1.174 1551
-0.480 9.026 1.151 1505
-0.491 9.233 1.147 1675
-0.480 9.029 1.125 1387
-0.492 9.244 1.121 2092
-0.492 9.247 1.094 1714
-0.497 9.344 1.077 1450
-0.108 2.079 1.633 2635
-0.108 2.083 1.627 5271
-0.109 2.088 1.621 5271
-0.109 2.098 1.620 5397
-0.110 2.109 1.618 5594
-0.110 2.107 1.608 4560
-0.107 2.066 1.570 3839
-0.110 2.109 1.591 5601
-0.110 2.120 1.590 7502
-0.110 2.124 1.584 7502
-0.112 2.154 1.596 10011
-0.113 2.165 1.594 13989
-0.113 2.169 1.588 16073
-0.113 2.173 1.582 18157
-0.113 2.178 1.575 16385
-0.114 2.188 1.574 14649
-0.114 2.186 1.563 11282
-0.114 2.190 1.557 7952
-0.114 2.201 1.555 8641
-0.116 2.225 1.561 10368
-0.117 2.242 1.564 8792
-0.118 2.273 1.575 9535
-0.118 2.277 1.568 10585
-0.119 2.281 1.562 9867
-0.119 2.285 1.555 9150
-0.120 2.303 1.557 7804
-0.120 2.314 1.555 6998
-0.121 2.318 1.548 8010
-0.120 2.315 1.537 7580
-0.121 2.326 1.535 5834
-0.125 2.397 1.569 5714
-0.125 2.402 1.562 7073
-0.125 2.413 1.560 7132
-0.126 2.417 1.553 6688
-0.126 2.421 1.546 7516
-0.126 2.418 1.535 8353
-0.126 2.429 1.532 6188
-0.132 2.529 1.581 5938
-0.131 2.526 1.569 5525
-0.129 2.489 1.539 6485
-0.130 2.493 1.531 6746
-0.135 2.593 1.579 6614
-0.136 2.611 1.579 7135
-0.136 2.609 1.568 5141
-0.138 2.647 1.580 3696
-0.138 2.645 1.568 3717
-0.138 2.663 1.568 4356
-0.139 2.674 1.564 5367
-0.140 2.685 1.560 7215
-0.141 2.710 1.564 8971
-0.142 2.721 1.560 8345
-0.142 2.732 1.556 8287
-0.142 2.736 1.548 8199
-0.143 2.747 1.544 8811
-0.144 2.773 1.547 10068
-0.145 2.791 1.546 12920
-0.145 2.795 1.538 15537
-0.155 2.978 1.632 1466
-0.146 2.799 1.530 14316
-0.155 2.982 1.623 1560
-0.146 2.803 1.522 9781
-0.155 2.987 1.614 1388
-0.146 2.814 1.518 9177
-0.156 2.998 1.609 2908
-0.147 2.818 1.509 7119
-0.156 3.002 1.601 5729
-0.156 2.999 1.589 6227
-0.146 2.815 1.498 3146
-0.157 3.011 1.584 5128
-0.147 2.826 1.493 1902
-0.158 3.029 1.582 4003
-0.148 2.844 1.492 2823
-0.153 2.934 1.525 5195
-0.162 3.119 1.614 2408
-0.161 3.095 1.592 5354
-0.151 2.909 1.503 2941
-0.162 3.106 1.586 5519
-0.152 2.920 1.498 1716
-0.162 3.110 1.577 4647
-0.152 2.924 1.490 1330
-0.160 3.086 1.555 4533
-0.161 3.104 1.553 6192
-0.162 3.108 1.544 7887
-0.162 3.112 1.535 6269
-0.166 3.188 1.558 5384
-0.166 3.200 1.552 5164
-0.167 3.211 1.546 4000
-0.170 3.273 1.563 5402
-0.171 3.284 1.557 5556
-0.172 3.303 1.553 7648
-0.173 3.329 1.553 8819
-0.163 3.140 1.472 1935
-0.173 3.333 1.544 9585
-0.164 3.144 1.463 1542
-0.173 3.330 1.531 8173
-0.173 3.334 1.522 6449
-0.164 3.144 1.442 1581
-0.173 3.331 1.509 5043
-0.163 3.141 1.430 2186
-0.175 3.357 1.508 4753
-0.164 3.159 1.427 3149
-0.175 3.368 1.502 5671
-0.164 3.148 1.412 4983
-0.164 3.152 1.402 8215
-0.176 3.386 1.498 5798
-0.164 3.148 1.390 8610
-0.182 3.493 1.530 6011
-0.183 3.519 1.528 8564
-0.164 3.145 1.378 6695
-0.183 3.523 1.518 6236
-0.164 3.148 1.369 4292
-0.187 3.601 1.537 5735
-0.164 3.145 1.357 3065
-0.177 3.409 1.462 2058
-0.188 3.612 1.530 4758
-0.164 3.155 1.351 2273
-0.188 3.609 1.516 4317
-0.164 3.152 1.339 1461
-0.187 3.598 1.500 6944
-0.164 3.148 1.327 1733
-0.187 3.602 1.490 7967
-0.164 3.159 1.321 1933
-0.188 3.621 1.485 7861
-0.164 3.155 1.309 1466
-0.189 3.639 1.480 7194
-0.193 3.710 1.495 7179
-0.195 3.744 1.495 9528
-0.163 3.128 1.268 1868
-0.195 3.748 1.484 9359
-0.163 3.131 1.259 2493
-0.195 3.751 1.473 7268
-0.163 3.142 1.253 2106
-0.196 3.763 1.465 5608
-0.164 3.145 1.244 3888
-0.164 3.148 1.235 5909
-0.198 3.804 1.467 5225
-0.197 3.793 1.451 6634
-0.164 3.151 1.226 4920
-0.197 3.789 1.438 5909
-0.164 3.162 1.220 3902
-0.207 3.983 1.505 1338
-0.203 3.905 1.465 6214
-0.165 3.172 1.213 3469
-0.203 3.909 1.454 8913
-0.165 3.168 1.201 2690
-0.203 3.905 1.440 8952
-0.165 3.164 1.190 2280
-0.214 4.108 1.509 1555
-0.203 3.909 1.429 4972
-0.213 4.104 1.494 3086
-0.165 3.167 1.181 2194
-0.212 4.070 1.470 4664
-0.164 3.162 1.169 1959
-0.212 4.082 1.461 3603
-0.214 4.123 1.461 3693
-0.204 3.928 1.398 1717
-0.210 4.037 1.420 3276
-0.212 4.086 1.423 4508
-0.213 4.104 1.416 6026
-0.216 4.161 1.420 5565
-0.220 4.225 1.427 4621
-0.220 4.229 1.415 4759
-0.222 4.263 1.412 4527
-0.222 4.274 1.402 3969
-0.223 4.285 1.392 4662
-0.225 4.335 1.393 5776
-0.226 4.353 1.384 9794
-0.227 4.357 1.372 7946
-0.227 4.368 1.361 4332
-0.237 4.566 1.417 1779
-0.233 4.486 1.381 4681
-0.233 4.474 1.364 5707
-0.245 4.703 1.427 1601
-0.238 4.569 1.376 6688
-0.237 4.558 1.358 7113
-0.238 4.569 1.347 5917
-0.248 4.767 1.400 1615
-0.238 4.580 1.336 5667
-0.249 4.779 1.389 2028
-0.239 4.599 1.327 4667
-0.250 4.798 1.379 3307
-0.249 4.786 1.361 6165
-0.239 4.587 1.310 2327
-0.249 4.789 1.347 5263
-0.250 4.801 1.335 4215
-0.260 5.000 1.385 1464
-0.251 4.827 1.327 5755
-0.261 5.027 1.377 1562
-0.258 4.961 1.345 5802
-0.259 4.972 1.333 5252
-0.257 4.937 1.309 3511
-0.262 5.041 1.318 2928
-0.266 5.106 1.318 3089
-0.265 5.101 1.302 2748
-0.274 5.274 1.325 3381
-0.275 5.286 1.312 5080
-0.275 5.281 1.295 3434
-0.280 5.385 1.301 4420
-0.292 5.617 1.352 2420
-0.292 5.613 1.334 4122
-0.281 5.396 1.288 3907
-0.292 5.616 1.318 3671
-0.281 5.399 1.272 2025
-0.292 5.612 1.300 2716
-0.308 5.921 1.365 1384
-0.281 5.410 1.258 1364
-0.293 5.631 1.287 3888
-0.282 5.429 1.245 1984
-0.308 5.917 1.346 1887
-0.294 5.649 1.274 4044
-0.308 5.921 1.329 2240
-0.283 5.448 1.233 2070
-0.295 5.676 1.262 2447
-0.309 5.940 1.315 2208
-0.311 5.982 1.305 2872
-0.295 5.671 1.244 2533
-0.309 5.946 1.280 3665
-0.295 5.675 1.228 2709
-0.320 6.148 1.319 1892
-0.310 5.957 1.264 4375
-0.320 6.159 1.303 1362
-0.295 5.678 1.211 1300
-0.310 5.968 1.249 3321
-0.323 6.209 1.294 1442
-0.334 6.419 1.333 1430
-0.317 6.104 1.256 2614
-0.334 6.423 1.314 1748
-0.333 6.403 1.292 3262
-0.322 6.200 1.255 1961
-0.334 6.414 1.274 3299
-0.323 6.211 1.238 2351
-0.352 6.772 1.338 1320
-0.353 6.783 1.320 1913
-0.334 6.425 1.257 1846
-0.324 6.222 1.222 1456
-0.353 6.794 1.302 2236
-0.327 6.288 1.214 1403
-0.343 6.592 1.267 1310
-0.345 6.626 1.253 1799
-0.346 6.661 1.239 1628
-0.370 7.113 1.314 1583
-0.357 6.871 1.274 1419
-0.356 6.851 1.250 2277
-0.374 7.194 1.306 1747
-0.375 7.213 1.288 2727
-0.356 6.854 1.230 2486
-0.376 7.224 1.268 2673
-0.398 7.654 1.336 1813
-0.357 6.865 1.212 1646
-0.399 7.673 1.316 3065
-0.371 7.142 1.234 1594
-0.399 7.676 1.294 3653
-0.371 7.137 1.212 1567
-0.399 7.672 1.270 3680
-0.410 7.891 1.303 1313
-0.400 7.683 1.249 3612
-0.411 7.910 1.282 1760
-0.400 7.686 1.227 2725
-0.412 7.913 1.259 1720
-0.406 7.799 1.220 3482
-0.421 8.089 1.260 1845
-0.406 7.810 1.198 3880
-0.421 8.092 1.237 2395
-0.407 7.821 1.176 3030
-0.422 8.111 1.215 1706
-0.452 8.699 1.294 1469
-0.406 7.816 1.153 2105
-0.453 8.702 1.268 2058
-0.442 8.498 1.242 1752
-0.452 8.697 1.242 2347
-0.407 7.819 1.130 1642
-0.432 8.305 1.192 1573
-0.452 8.693 1.216 1815
-0.432 8.300 1.167 1346
-0.469 9.025 1.231 1362
-0.480 9.233 1.229 1375
-0.469 9.021 1.203 1305
-0.480 9.228 1.201 1417
-0.480 9.231 1.174 1455
-0.469 9.027 1.151 1337
-0.480 9.234 1.147 1657
-0.480 9.237 1.120 2190
-0.481 9.240 1.093 1885
-0.486 9.345 1.077 1421
-0.106 2.085 1.638 2519
-0.106 2.090 1.632 5039
-0.106 2.094 1.626 5039
-0.106 2.098 1.620 5251
-0.107 2.109 1.618 5516
-0.107 2.107 1.608 4510
-0.105 2.073 1.574 3930
-0.107 2.109 1.591 5620
-0.107 2.113 1.585 7484
-0.107 2.118 1.579 7484
-0.109 2.154 1.596 9553
-0.110 2.165 1.594 13410
-0.110 2.169 1.588 15597
-0.110 2.173 1.582 17785
-0.111 2.178 1.575 16232
-0.111 2.182 1.569 14678
-0.111 2.186 1.563 11423
-0.111 2.190 1.557 8169
-0.112 2.201 1.555 8853
-0.113 2.225 1.561 10635
-0.114 2.242 1.564 8869
-0.115 2.273 1.575 9201
-0.116 2.277 1.568 10003
-0.116 2.281 1.562 9221
-0.116 2.292 1.559 8457
-0.117 2.296 1.553 7312
-0.117 2.314 1.555 6544
-0.117 2.311 1.544 7724
-0.117 2.315 1.537 7426
-0.118 2.326 1.535 5792
-0.122 2.398 1.569 5685
-0.122 2.409 1.566 7021
-0.122 2.413 1.560 7035
-0.123 2.417 1.553 6544
-0.123 2.421 1.546 7385
-0.123 2.418 1.535 8303
-0.122 2.409 1.520 6276
-0.131 2.586 1.624 1439
-0.128 2.529 1.581 5913
-0.128 2.526 1.569 5625
-0.127 2.496 1.543 6112
-0.127 2.500 1.535 6192
-0.132 2.594 1.579 6810
-0.133 2.612 1.579 7339
-0.133 2.630 1.579 5452
-0.134 2.641 1.576 4018
-0.134 2.638 1.564 4147
-0.135 2.663 1.568 4583
-0.136 2.674 1.564 5569
-0.136 2.685 1.560 7364
-0.138 2.710 1.564 8817
-0.138 2.721 1.560 8053
-0.139 2.732 1.556 8054
-0.139 2.744 1.552 8007
-0.139 2.748 1.544 8526
-0.141 2.773 1.547 9760
-0.142 2.791 1.546 12590
-0.142 2.795 1.538 15086
-0.151 2.978 1.632 1379
-0.142 2.799 1.530 13821
-0.151 2.983 1.623 1438
-0.142 2.803 1.522 9215
-0.142 2.807 1.514 8369
-0.152 2.998 1.609 2619
-0.143 2.818 1.509 6407
-0.152 3.002 1.601 5318
-0.152 3.000 1.589 6017
-0.143 2.815 1.498 2926
-0.153 3.011 1.584 5249
-0.143 2.826 1.493 1928
-0.154 3.029 1.582 4240
-0.144 2.844 1.492 2848
-0.149 2.934 1.525 5496
-0.158 3.119 1.614 2244
-0.157 3.095 1.592 4906
-0.148 2.909 1.503 3114
-0.158 3.106 1.586 5069
-0.148 2.920 1.498 1700
-0.156 3.082 1.564 4358
-0.157 3.086 1.555 4217
-0.158 3.112 1.556 5662
-0.158 3.116 1.547 7040
-0.158 3.120 1.538 5565
-0.161 3.181 1.555 5192
-0.162 3.200 1.552 4552
-0.166 3.262 1.569 4095
-0.166 3.273 1.563 5587
-0.166 3.277 1.553 5616
-0.168 3.303 1.553 7486
-0.169 3.322 1.550 8204
-0.159 3.133 1.469 1902
-0.169 3.333 1.544 8734
-0.160 3.144 1.463 1844
-0.169 3.330 1.531 7543
-0.169 3.334 1.522 6078
-0.160 3.145 1.442 1623
-0.169 3.338 1.512 4668
-0.160 3.148 1.433 2611
-0.170 3.357 1.508 4447
-0.160 3.160 1.427 3463
-0.171 3.368 1.502 5324
-0.160 3.156 1.415 5197
-0.160 3.152 1.402 8470
-0.172 3.387 1.498 5586
-0.160 3.149 1.390 9109
-0.177 3.493 1.530 5852
-0.179 3.519 1.528 8311
-0.160 3.145 1.378 7213
-0.179 3.523 1.518 6203
-0.160 3.149 1.369 4507
-0.183 3.601 1.537 5296
-0.160 3.145 1.357 2937
-0.173 3.410 1.462 1945
-0.183 3.612 1.530 4673
-0.160 3.156 1.351 2006
-0.183 3.609 1.516 4333
-0.160 3.144 1.337 1401
-0.183 3.598 1.500 6566
-0.160 3.148 1.327 1799
-0.183 3.602 1.490 7763
-0.161 3.166 1.324 1858
-0.184 3.621 1.485 7906
-0.185 3.640 1.480 7147
-0.189 3.718 1.497 7345
-0.190 3.744 1.495 10125
-0.158 3.120 1.266 1403
-0.190 3.748 1.484 9307
-0.159 3.138 1.262 2284
-0.190 3.752 1.473 6325
-0.160 3.157 1.259 1958
-0.191 3.763 1.465 4445
-0.160 3.145 1.244 3292
-0.193 3.804 1.467 5724
-0.160 3.148 1.235 5243
-0.192 3.793 1.451 7585
-0.160 3.151 1.226 4497
-0.192 3.789 1.438 6411
-0.160 3.162 1.220 3641
-0.202 3.984 1.505 1326
-0.199 3.920 1.470 5997
-0.161 3.173 1.213 3030
-0.198 3.909 1.454 8636
-0.161 3.168 1.201 2222
-0.198 3.906 1.440 8514
-0.161 3.164 1.190 1928
-0.208 4.100 1.506 1550
-0.205 4.037 1.472 4812
-0.161 3.167 1.181 1962
-0.195 3.842 1.406 1919
-0.207 4.071 1.470 5064
-0.160 3.162 1.169 1810
-0.207 4.082 1.461 3807
-0.204 4.026 1.429 3675
-0.205 4.045 1.422 2957
-0.208 4.093 1.425 4465
-0.208 4.097 1.413 6340
-0.212 4.169 1.423 6083
-0.214 4.225 1.427 4616
-0.215 4.229 1.415 4498
-0.216 4.256 1.409 4224
-0.216 4.252 1.395 4121
-0.217 4.278 1.389 4981
-0.220 4.335 1.393 5817
-0.221 4.354 1.384 9721
-0.221 4.357 1.372 7698
-0.222 4.368 1.361 3953
-0.232 4.566 1.417 1591
-0.228 4.486 1.381 4343
-0.227 4.482 1.366 4890
-0.239 4.703 1.427 1510
-0.232 4.562 1.374 6816
-0.231 4.550 1.356 7255
-0.241 4.749 1.410 1330
-0.232 4.569 1.347 6051
-0.242 4.768 1.400 1722
-0.232 4.580 1.336 5831
-0.243 4.779 1.389 2113
-0.233 4.599 1.327 4247
-0.243 4.798 1.379 3299
-0.243 4.794 1.363 5845
-0.233 4.595 1.312 2148
-0.243 4.790 1.347 4849
-0.244 4.809 1.337 4353
-0.254 5.008 1.387 1447
-0.245 4.827 1.327 5871
-0.255 5.027 1.377 1755
-0.252 4.969 1.347 5601
-0.242 4.769 1.298 1458
-0.252 4.973 1.333 5054
-0.250 4.930 1.307 3330
-0.260 5.130 1.355 1484
-0.259 5.095 1.331 2831
-0.248 4.895 1.284 1736
-0.259 5.098 1.316 2861
-0.259 5.102 1.302 2596
-0.268 5.275 1.325 3406
-0.268 5.286 1.312 5044
-0.269 5.297 1.298 3473
-0.273 5.385 1.301 4306
-0.285 5.617 1.352 2153
-0.274 5.396 1.288 3985
-0.285 5.621 1.336 3675
-0.285 5.616 1.318 3342
-0.275 5.415 1.275 2229
-0.278 5.480 1.272 3149
-0.292 5.751 1.329 2167
-0.286 5.639 1.288 3742
-0.276 5.437 1.247 2508
-0.300 5.917 1.346 1723
-0.287 5.650 1.274 3907
-0.276 5.448 1.233 2228
-0.300 5.921 1.329 1975
-0.291 5.738 1.274 2546
-0.302 5.948 1.316 1819
-0.277 5.467 1.220 1451
-0.304 5.982 1.305 2647
-0.288 5.672 1.244 2500
-0.314 6.184 1.345 1376
-0.302 5.947 1.280 3499
-0.288 5.675 1.228 2549
-0.312 6.149 1.319 1963
-0.302 5.958 1.264 4275
-0.313 6.160 1.303 1571
-0.303 5.969 1.249 3417
-0.315 6.202 1.292 1788
-0.310 6.104 1.256 2773
-0.327 6.439 1.317 1747
-0.325 6.403 1.292 3122
-0.310 6.115 1.239 1963
-0.326 6.414 1.274 3277
-0.315 6.212 1.238 2092
-0.344 6.780 1.340 1512
-0.344 6.783 1.320 1988
-0.326 6.433 1.259 1905
-0.316 6.223 1.222 1465
-0.345 6.795 1.302 2117
-0.344 6.775 1.278 1759
-0.361 7.106 1.313 1698
-0.338 6.661 1.239 1521
-0.349 6.872 1.274 1311
-0.348 6.851 1.250 2131
-0.361 7.117 1.293 1726
-0.371 7.320 1.327 1483
-0.366 7.214 1.288 2694
-0.348 6.855 1.230 2349
-0.367 7.225 1.268 2850
-0.388 7.654 1.336 1702
-0.348 6.866 1.212 1581
-0.389 7.674 1.316 2812
-0.367 7.236 1.248 1620
-0.390 7.677 1.294 3324
-0.362 7.130 1.211 1545
-0.389 7.672 1.270 3468
-0.390 7.684 1.249 3577
-0.401 7.910 1.282 1661
-0.390 7.687 1.227 2712
-0.402 7.922 1.260 1577
-0.396 7.799 1.220 3478
-0.411 8.089 1.260 1738
-0.396 7.810 1.198 3884
-0.411 8.092 1.237 2252
-0.397 7.821 1.176 3039
-0.411 8.103 1.214 1534
-0.442 8.707 1.295 1356
-0.397 7.816 1.153 2125
-0.442 8.702 1.268 1915
-0.431 8.499 1.242 1601
-0.441 8.698 1.242 2208
-0.397 7.819 1.130 1653
-0.421 8.306 1.192 1620
-0.441 8.693 1.216 1716
-0.421 8.301 1.167 1444
-0.458 9.026 1.231 1315
-0.469 9.233 1.229 1321
-0.468 9.228 1.201 1326
-0.468 9.232 1.174 1330
-0.469 9.235 1.147 1578
-0.469 9.237 1.120 2168
-0.469 9.240 1.093 1930
-0.474 9.337 1.076 1399
-0.105 2.086 1.638 2451
-0.105 2.090 1.632 4903
-0.105 2.094 1.626 4903
-0.105 2.099 1.620 5183
-0.106 2.109 1.618 5512
-0.106 2.107 1.608 4565
-0.104 2.073 1.574 4067
-0.106 2.109 1.591 5737
-0.106 2.113 1.585 7595
-0.106 2.118 1.579 7595
-0.108 2.154 1.596 9288
-0.109 2.165 1.594 13079
-0.109 2.169 1.588 15366
-0.109 2.174 1.582 17653
-0.109 2.178 1.575 16260
-0.110 2.182 1.569 14867
-0.110 2.186 1.563 11629
-0.110 2.190 1.557 8391
-0.111 2.201 1.555 9072
-0.112 2.225 1.561 10886
-0.112 2.236 1.559 8990
-0.114 2.273 1.575 8939
-0.114 2.277 1.568 9535
-0.115 2.281 1.562 8728
-0.115 2.292 1.559 7968
-0.115 2.296 1.553 7059
-0.116 2.314 1.555 6393
-0.116 2.311 1.544 7726
-0.116 2.315 1.537 7487
-0.117 2.326 1.535 5913
-0.120 2.398 1.569 5685
-0.121 2.409 1.566 7026
-0.121 2.413 1.560 7000
-0.121 2.417 1.553 6482
-0.122 2.421 1.546 7346
-0.121 2.411 1.531 8349
-0.121 2.409 1.520 6446
-0.127 2.529 1.581 5943
-0.127 2.526 1.569 5721
-0.126 2.510 1.550 5901
-0.126 2.500 1.535 5830
-0.130 2.594 1.579 6984
-0.131 2.612 1.579 7502
-0.132 2.630 1.579 5735
-0.133 2.641 1.576 4383
-0.132 2.638 1.564 4583
-0.134 2.663 1.568 4794
-0.134 2.674 1.564 5720
-0.135 2.685 1.560 7438
-0.136 2.710 1.564 8632
-0.137 2.721 1.560 7770
-0.137 2.732 1.556 7836
-0.138 2.744 1.552 7884
-0.138 2.748 1.544 8208
-0.139 2.773 1.547 9235
-0.140 2.791 1.546 11938
-0.140 2.795 1.538 14319
-0.150 2.978 1.632 1342
-0.141 2.799 1.530 13139
-0.150 2.983 1.623 1348
-0.140 2.796 1.518 8805
-0.141 2.807 1.514 7883
-0.151 2.998 1.609 2322
-0.142 2.818 1.509 5851
-0.151 3.003 1.601 4953
-0.151 3.000 1.589 5999
-0.141 2.815 1.498 2670
-0.151 3.011 1.584 5490
-0.142 2.826 1.493 1850
-0.148 2.944 1.540 4689
-0.147 2.927 1.522 5693
-0.156 3.112 1.611 2362
-0.155 3.088 1.588 4413
-0.146 2.902 1.500 2994
-0.156 3.106 1.586 4522
-0.147 2.920 1.498 1678
-0.154 3.075 1.560 4034
-0.157 3.129 1.575 3905
-0.157 3.119 1.559 5297
-0.156 3.116 1.547 6359
-0.157 3.127 1.541 5191
-0.160 3.182 1.555 5180
-0.161 3.200 1.552 4012
-0.164 3.262 1.569 4161
-0.164 3.273 1.563 5658
-0.165 3.278 1.553 5685
-0.166 3.303 1.553 7330
-0.166 3.315 1.547 7760
-0.157 3.126 1.466 1767
-0.167 3.333 1.544 7963
-0.158 3.144 1.463 2049
-0.167 3.330 1.531 6865
-0.158 3.141 1.451 1348
-0.167 3.334 1.522 5531
-0.158 3.145 1.442 1663
-0.168 3.346 1.515 4247
-0.158 3.156 1.436 3032
-0.169 3.364 1.511 4175
-0.159 3.167 1.430 3809
-0.158 3.156 1.415 5478
-0.169 3.368 1.502 5046
-0.158 3.152 1.402 8678
-0.170 3.379 1.495 5343
-0.158 3.149 1.390 9364
-0.175 3.493 1.530 5771
-0.177 3.519 1.528 8182
-0.158 3.145 1.378 7452
-0.177 3.523 1.518 6356
-0.158 3.149 1.369 4509
-0.181 3.601 1.537 5004
-0.158 3.145 1.357 2735
-0.171 3.410 1.462 1883
-0.181 3.612 1.530 4584
-0.158 3.156 1.351 1795
-0.181 3.609 1.516 4244
-0.181 3.598 1.500 6275
-0.158 3.148 1.327 1564
-0.181 3.602 1.490 7701
-0.158 3.151 1.318 1418
-0.182 3.621 1.485 8084
-0.183 3.640 1.480 7137
-0.187 3.718 1.497 7600
-0.188 3.744 1.495 10728
-0.157 3.135 1.271 1674
-0.188 3.748 1.484 9378
-0.157 3.131 1.259 2096
-0.188 3.744 1.470 5701
-0.157 3.134 1.250 1603
-0.190 3.785 1.473 3797
-0.158 3.138 1.241 3257
-0.191 3.804 1.467 6286
-0.158 3.141 1.232 5094
-0.191 3.801 1.454 8363
-0.158 3.151 1.226 4555
-0.190 3.790 1.438 6744
-0.159 3.162 1.220 3573
-0.200 3.984 1.505 1360
-0.197 3.920 1.470 5947
-0.159 3.173 1.213 2585
-0.197 3.917 1.457 8502
-0.159 3.168 1.201 1751
-0.196 3.906 1.440 8115
-0.159 3.164 1.190 1681
-0.206 4.100 1.506 1574
-0.203 4.044 1.474 4871
-0.193 3.849 1.409 2135
-0.159 3.167 1.181 1861
-0.204 4.071 1.470 5373
-0.159 3.162 1.169 1723
-0.205 4.082 1.461 4074
-0.202 4.026 1.429 3891
-0.203 4.045 1.422 2942
-0.206 4.094 1.425 4640
-0.208 4.135 1.425 6680
-0.209 4.169 1.423 6505
-0.212 4.226 1.427 4644
-0.212 4.229 1.415 4454
-0.214 4.256 1.409 4227
-0.213 4.252 1.395 4423
-0.214 4.255 1.383 5422
-0.218 4.335 1.393 5750
-0.219 4.354 1.384 9494
-0.219 4.357 1.372 7239
-0.219 4.369 1.361 3536
-0.229 4.566 1.417 1696
-0.226 4.494 1.383 4236
-0.225 4.482 1.366 4419
-0.236 4.703 1.427 1448
-0.229 4.562 1.374 6746
-0.229 4.558 1.358 7207
-0.239 4.757 1.412 1454
-0.229 4.569 1.347 5981
-0.239 4.768 1.400 1984
-0.230 4.580 1.336 5694
-0.240 4.779 1.389 2181
-0.237 4.729 1.361 3774
-0.227 4.530 1.309 1687
-0.241 4.794 1.363 5681
-0.231 4.595 1.312 1706
-0.241 4.790 1.347 4663
-0.231 4.591 1.296 1530
-0.241 4.809 1.337 4554
-0.251 5.008 1.387 1498
-0.242 4.828 1.327 5997
-0.252 5.027 1.377 1921
-0.250 4.969 1.347 5426
-0.239 4.770 1.298 1381
-0.250 4.973 1.333 4865
-0.248 4.930 1.307 3298
-0.258 5.130 1.355 1758
-0.256 5.103 1.333 2948
-0.246 4.903 1.286 2158
-0.256 5.106 1.318 2754
-0.257 5.110 1.303 2546
-0.265 5.275 1.325 3503
-0.265 5.286 1.312 4992
-0.267 5.313 1.302 3672
-0.271 5.393 1.303 4217
-0.282 5.617 1.352 1973
-0.271 5.404 1.289 4064
-0.282 5.621 1.336 3310
-0.282 5.617 1.318 3049
-0.272 5.415 1.275 2547
-0.275 5.473 1.271 3712
-0.289 5.752 1.329 2373
-0.275 5.476 1.255 4321
-0.289 5.755 1.312 2623
-0.284 5.650 1.274 3698
-0.274 5.448 1.233 2583
-0.297 5.921 1.329 1816
-0.288 5.738 1.274 2519
-0.275 5.467 1.220 1885
-0.301 5.987 1.324 1611
-0.300 5.982 1.305 2485
-0.285 5.672 1.244 2480
-0.311 6.184 1.345 1401
-0.299 5.947 1.280 3303
-0.285 5.675 1.228 2512
-0.309 6.149 1.319 1905
-0.299 5.958 1.264 4151
-0.309 6.160 1.303 1676
-0.300 5.977 1.250 3495
-0.311 6.202 1.292 2082
-0.306 6.097 1.254 2965
-0.323 6.439 1.317 1798
-0.322 6.411 1.293 3169
-0.307 6.108 1.238 2097
-0.322 6.422 1.276 3441
-0.312 6.220 1.240 2053
-0.340 6.780 1.340 1587
-0.323 6.433 1.259 2091
-0.341 6.784 1.320 2028
-0.313 6.231 1.223 1472
-0.341 6.787 1.300 2100
-0.340 6.775 1.278 1806
-0.357 7.106 1.313 1784
-0.341 6.786 1.260 1506
-0.344 6.844 1.249 2040
-0.357 7.117 1.293 1829
-0.368 7.320 1.327 1396
-0.363 7.222 1.289 2610
-0.344 6.855 1.230 2257
-0.363 7.225 1.268 2910
-0.384 7.655 1.336 1591
-0.345 6.866 1.212 1537
-0.385 7.674 1.316 2603
-0.363 7.236 1.248 1761
-0.385 7.677 1.294 3069
-0.358 7.130 1.211 1499
-0.385 7.673 1.270 3302
-0.386 7.684 1.249 3543
-0.397 7.903 1.281 1589
-0.386 7.687 1.227 2711
-0.403 8.024 1.275 1564
-0.392 7.800 1.220 3494
-0.406 8.082 1.259 1654
-0.392 7.811 1.198 3865
-0.406 8.093 1.237 2135
-0.393 7.822 1.176 3019
-0.406 8.088 1.212 1451
-0.393 7.817 1.153 2142
-0.437 8.703 1.268 1819
-0.427 8.499 1.242 1479
-0.436 8.690 1.241 2139
-0.417 8.306 1.192 1721
-0.393 7.820 1.130 1688
-0.436 8.686 1.215 1646
-0.417 8.301 1.167 1522
-0.463 9.226 1.228 1315
-0.464 9.243 1.148 1550
-0.464 9.238 1.120 2161
-0.464 9.240 1.093 1956
-0.464 9.243 1.067 1412
-0.103 2.086 1.638 2398
-0.103 2.090 1.632 4796
-0.103 2.094 1.626 4796
-0.104 2.105 1.624 5129
-0.104 2.109 1.618 5503
-0.104 2.107 1.608 4665
-0.102 2.073 1.574 4209
-0.103 2.103 1.587 5933
-0.104 2.114 1.585 7728
-0.104 2.118 1.579 7728
-0.106 2.154 1.596 9050
-0.106 2.165 1.594 12759
-0.107 2.169 1.588 15130
-0.107 2.174 1.582 17500
-0.107 2.178 1.575 16276
-0.107 2.182 1.569 15051
-0.108 2.186 1.563 11827
-0.108 2.190 1.557 8604
-0.109 2.208 1.559 9312
-0.109 2.225 1.561 11167
-0.110 2.236 1.559 9169
-0.112 2.273 1.575 8685
-0.112 2.277 1.568 9073
-0.112 2.281 1.562 8220
-0.113 2.292 1.559 7436
-0.113 2.296 1.553 6756
-0.114 2.314 1.555 6223
-0.114 2.311 1.544 7740
-0.114 2.315 1.537 7614
-0.115 2.333 1.539 6140
-0.118 2.405 1.573 5677
-0.118 2.409 1.566 7017
-0.119 2.420 1.564 6958
-0.119 2.424 1.557 6412
-0.119 2.414 1.542 7320
-0.119 2.412 1.531 8446
-0.118 2.409 1.520 6613
-0.124 2.529 1.581 5920
-0.124 2.526 1.569 5768
-0.124 2.517 1.554 5882
-0.123 2.507 1.539 5512
-0.128 2.594 1.579 7163
-0.128 2.612 1.579 7660
-0.129 2.623 1.576 6019
-0.130 2.641 1.576 4734
-0.130 2.638 1.564 5017
-0.131 2.656 1.564 5032
-0.132 2.674 1.564 5838
-0.132 2.685 1.560 7433
-0.133 2.710 1.564 8371
-0.134 2.721 1.560 7444
-0.134 2.733 1.556 7633
-0.135 2.744 1.552 7797
-0.135 2.748 1.544 7889
-0.136 2.773 1.547 8674
-0.137 2.791 1.546 11219
-0.137 2.795 1.538 13414
-0.146 2.978 1.632 1342
-0.138 2.799 1.530 12198
-0.138 2.796 1.518 8078
-0.138 2.807 1.514 7123
-0.147 2.998 1.609 2035
-0.139 2.818 1.509 5245
-0.148 3.003 1.601 4591
-0.148 3.000 1.589 5967
-0.138 2.815 1.498 2620
-0.148 3.004 1.580 5698
-0.138 2.805 1.483 2001
-0.145 2.944 1.540 5075
-0.144 2.927 1.522 5779
-0.153 3.112 1.611 2032
-0.151 3.081 1.585 3889
-0.142 2.895 1.496 2851
-0.153 3.114 1.589 3904
-0.144 2.928 1.501 1734
-0.154 3.125 1.584 3715
-0.145 2.939 1.496 1351
-0.154 3.136 1.578 3870
-0.154 3.126 1.563 4755
-0.154 3.123 1.550 5311
-0.154 3.142 1.548 5043
-0.156 3.175 1.552 5199
-0.157 3.200 1.552 3444
-0.160 3.262 1.569 4166
-0.161 3.266 1.560 5673
-0.161 3.270 1.550 5685
-0.162 3.289 1.547 7169
-0.163 3.308 1.544 7348
-0.153 3.119 1.462 1556
-0.164 3.334 1.544 7140
-0.155 3.145 1.463 2369
-0.164 3.330 1.531 6068
-0.154 3.141 1.451 1396
-0.164 3.334 1.522 4867
-0.155 3.145 1.442 1644
-0.165 3.353 1.518 3850
-0.156 3.163 1.439 3490
-0.156 3.167 1.430 4237
-0.165 3.364 1.511 3968
-0.155 3.156 1.415 5750
-0.166 3.368 1.502 4844
-0.155 3.153 1.402 8876
-0.166 3.380 1.495 5129
-0.155 3.149 1.390 9577
-0.172 3.494 1.530 5683
-0.173 3.520 1.528 8049
-0.155 3.145 1.378 7692
-0.173 3.524 1.518 6447
-0.155 3.149 1.369 4584
-0.177 3.609 1.540 4711
-0.155 3.152 1.360 2537
-0.167 3.403 1.459 1850
-0.178 3.613 1.530 4466
-0.155 3.156 1.351 1673
-0.177 3.609 1.516 4000
-0.155 3.145 1.337 1349
-0.177 3.599 1.500 5668
-0.155 3.148 1.327 1930
-0.178 3.610 1.493 7482
-0.155 3.159 1.321 2048
-0.178 3.621 1.485 8327
-0.155 3.155 1.309 1505
-0.179 3.640 1.480 7145
-0.183 3.725 1.500 7831
-0.184 3.744 1.495 11198
-0.154 3.128 1.268 1314
-0.184 3.748 1.484 9310
-0.154 3.139 1.262 1567
-0.184 3.745 1.470 5027
-0.155 3.149 1.256 2030
-0.187 3.793 1.476 3612
-0.155 3.145 1.244 3482
-0.187 3.804 1.467 6912
-0.155 3.148 1.235 4999
-0.187 3.801 1.454 9211
-0.155 3.152 1.226 4613
-0.186 3.790 1.438 7136
-0.155 3.155 1.217 3224
-0.196 3.984 1.505 1333
-0.193 3.921 1.470 5766
-0.156 3.165 1.210 2025
-0.193 3.924 1.459 8353
