0.128 2.263 0.285 1289
0.128 2.263 0.278 2012
0.128 2.264 0.272 2334
0.128 2.264 0.265 2506
0.128 2.265 0.259 2638
0.128 2.265 0.252 2597
0.128 2.265 0.246 2403
0.128 2.266 0.239 1912
0.128 2.266 0.233 1615
0.128 2.266 0.226 1325
0.128 2.266 0.220 791
0.129 2.274 0.214 548
0.129 2.275 0.207 402
0.485 8.583 0.224 290
0.485 8.583 0.199 442
0.485 8.583 0.174 594
0.485 8.583 0.149 668
0.485 8.583 0.124 743
0.485 8.583 0.099 677
0.486 8.591 0.074 683
0.486 8.598 0.049 773
0.486 8.590 0.024 1181
0.486 8.590 -0.001 1599
0.485 8.582 -0.025 1939
0.485 8.581 -0.050 2287
0.485 8.580 -0.075 2313
0.485 8.580 -0.100 2340
0.485 8.579 -0.125 2051
0.485 8.578 -0.150 1763
0.485 8.569 -0.175 1372
0.484 8.568 -0.200 990
0.484 8.567 -0.225 703
0.484 8.566 -0.249 416
0.485 8.573 -0.275 265
0.103 1.823 0.043 309
0.103 1.822 0.038 402
0.103 1.814 0.034 579
0.103 1.814 0.028 771
0.103 1.813 0.023 1055
0.103 1.813 0.018 1339
0.103 1.821 0.012 1637
0.103 1.820 0.007 1941
0.103 1.820 0.002 1934
0.103 1.819 -0.003 2077
0.103 1.819 -0.008 2226
0.103 1.819 -0.013 2331
0.103 1.818 -0.019 2437
0.103 1.818 -0.024 2333
0.103 1.817 -0.029 2229
0.103 1.817 -0.034 1966
0.102 1.808 -0.038 1727
0.102 1.808 -0.043 1735
0.102 1.807 -0.049 1496
0.102 1.807 -0.054 1624
0.121 2.027 1.595 4439
0.121 2.031 1.590 8879
0.122 2.042 1.588 9347
0.122 2.046 1.583 10250
0.122 2.050 1.577 10554
0.123 2.061 1.575 9181
0.125 2.104 1.597 9642
0.126 2.108 1.591 11315
0.126 2.119 1.590 13032
0.126 2.123 1.584 13032
0.127 2.127 1.578 10221
0.127 2.125 1.567 7429
0.128 2.149 1.574 5239
0.130 2.179 1.586 4303
0.130 2.177 1.575 6147
0.130 2.181 1.569 8046
0.130 2.185 1.563 7595
0.131 2.196 1.561 7163
0.130 2.187 1.546 7596
0.130 2.184 1.535 8265
0.131 2.195 1.534 7356
0.133 2.232 1.549 7071
0.133 2.236 1.542 7184
0.133 2.240 1.536 8706
0.134 2.251 1.534 9842
0.135 2.268 1.536 9212
0.136 2.286 1.538 8713
0.137 2.297 1.535 6460
0.142 2.381 1.579 5623
0.142 2.386 1.572 4657
0.141 2.363 1.549 4685
0.142 2.387 1.554 4848
0.142 2.391 1.547 4846
0.145 2.429 1.561 5711
0.145 2.433 1.554 7699
0.145 2.437 1.547 9686
0.146 2.448 1.544 9527
0.148 2.480 1.553 11251
0.148 2.491 1.550 9814
0.149 2.502 1.546 8513
0.149 2.499 1.535 7314
0.149 2.496 1.524 6793
0.149 2.500 1.517 7071
0.154 2.594 1.560 7020
0.155 2.605 1.557 8042
0.156 2.616 1.553 6930
0.156 2.620 1.545 5336
0.157 2.631 1.542 4789
0.158 2.649 1.542 4966
0.158 2.660 1.538 6194
0.159 2.671 1.534 7090
0.159 2.675 1.526 7860
0.160 2.679 1.519 8713
0.160 2.683 1.511 8309
0.161 2.701 1.510 8462
0.162 2.719 1.510 7668
0.167 2.801 1.542 10078
0.166 2.784 1.523 14342
0.166 2.781 1.511 12680
0.165 2.778 1.500 10407
0.166 2.796 1.499 8340
0.169 2.842 1.512 10293
0.170 2.860 1.511 13387
0.171 2.871 1.506 11513
0.172 2.883 1.501 9745
0.178 2.993 1.544 8311
0.178 2.990 1.532 9063
0.178 2.994 1.523 8117
0.179 2.998 1.515 9689
0.179 3.002 1.506 13164
0.179 3.014 1.501 12962
0.181 3.032 1.499 10020
0.185 3.115 1.526 6562
0.187 3.134 1.523 7921
0.188 3.159 1.524 7840
0.189 3.178 1.521 8135
0.190 3.189 1.515 9398
0.191 3.200 1.509 10588
0.192 3.226 1.509 10236
0.193 3.244 1.506 10106
0.193 3.234 1.491 8190
0.193 3.238 1.482 5790
0.200 3.366 1.524 5511
0.200 3.362 1.511 8075
0.200 3.366 1.502 9509
0.201 3.370 1.492 7885
0.200 3.367 1.479 6146
0.201 3.371 1.470 5441
0.207 3.478 1.501 6562
0.207 3.474 1.488 8953
0.207 3.478 1.478 9154
0.209 3.511 1.479 8301
0.211 3.537 1.478 8979
0.213 3.571 1.479 7540
0.215 3.604 1.480 6046
0.215 3.616 1.472 5202
0.216 3.620 1.462 3983
0.219 3.683 1.473 4303
0.220 3.687 1.462 5562
0.222 3.720 1.462 5591
0.222 3.724 1.452 6376
0.218 3.661 1.417 5094
0.219 3.679 1.412 4924
0.221 3.713 1.412 5764
0.226 3.791 1.427 5779
0.226 3.803 1.418 10005
0.227 3.806 1.407 10463
0.227 3.810 1.396 8465
0.228 3.829 1.390 6501
0.231 3.877 1.394 6410
0.232 3.888 1.385 5039
0.234 3.937 1.389 3698
0.235 3.948 1.380 3054
0.242 4.058 1.402 3700
0.239 4.008 1.373 4256
0.239 4.020 1.364 5896
0.240 4.038 1.357 4283
0.247 4.140 1.375 4909
0.252 4.227 1.388 4651
0.252 4.238 1.378 4917
0.251 4.219 1.359 4215
0.255 4.283 1.365 3418
0.255 4.287 1.352 4992
0.256 4.306 1.344 5633
0.257 4.317 1.334 5329
0.269 4.511 1.374 4626
0.269 4.514 1.361 6476
0.269 4.510 1.346 4022
0.265 4.445 1.315 4168
0.269 4.525 1.322 6614
0.272 4.574 1.321 4541
0.279 4.684 1.335 4051
0.279 4.688 1.322 4210
0.291 4.883 1.356 3571
0.291 4.886 1.342 4759
0.291 4.882 1.326 4404
0.290 4.863 1.307 4978
0.288 4.843 1.287 4064
0.301 5.062 1.324 3156
0.302 5.065 1.309 4425
0.302 5.076 1.296 4783
0.303 5.095 1.285 3594
0.312 5.237 1.302 3043
0.311 5.225 1.283 2911
0.319 5.360 1.296 2350
0.314 5.278 1.263 2681
0.315 5.289 1.249 2779
0.328 5.501 1.277 3922
0.329 5.520 1.265 4124
0.330 5.539 1.252 3133
0.330 5.542 1.236 2719
0.342 5.747 1.259 2429
0.347 5.827 1.258 3215
0.346 5.815 1.238 3479
0.101 1.701 0.449 3077
0.101 1.702 0.444 4259
0.101 1.703 0.439 4939
0.101 1.704 0.434 5133
0.102 1.705 0.429 4873
0.101 1.698 0.423 4317
0.102 1.707 0.420 3230
0.102 1.707 0.415 1959
0.399 6.700 1.226 1957
0.415 6.976 1.250 2924
0.416 6.987 1.231 3736
0.418 7.014 1.215 2979
0.424 7.118 1.210 3174
0.418 7.028 1.175 3377
0.418 7.023 1.153 4694
0.418 7.018 1.132 5880
0.418 7.013 1.110 4808
0.418 7.016 1.090 3213
0.426 7.152 1.088 3561
0.426 7.154 1.067 3897
0.426 7.149 1.045 2858
0.426 7.160 1.025 2241
0.426 7.162 1.004 1722
0.489 8.209 1.107 1432
0.512 8.604 1.129 1059
0.553 9.290 1.181 1311
0.553 9.293 1.154 1722
0.554 9.312 1.129 1608
0.553 9.291 1.099 1143
0.551 9.254 1.068 1151
0.554 9.304 1.046 1253
0.556 9.330 1.021 1647
0.565 9.490 1.008 1168
0.565 9.493 0.981 1010
0.565 9.487 0.952 719
0.561 9.427 0.920 454
0.567 9.523 0.900 459
0.135 2.261 0.310 778
0.135 2.261 0.304 1225
0.135 2.262 0.298 1456
0.135 2.262 0.291 1654
0.135 2.263 0.285 2029
0.135 2.263 0.278 2229
0.135 2.263 0.272 2232
0.135 2.264 0.265 2128
0.135 2.264 0.259 1900
0.135 2.272 0.253 1777
0.135 2.265 0.246 1585
0.135 2.265 0.239 1194
0.135 2.273 0.233 987
0.135 2.274 0.227 807
0.135 2.266 0.220 501
0.135 2.274 0.214 371
0.081 1.358 0.179 430
0.081 1.358 0.176 677
0.081 1.358 0.172 814
0.081 1.358 0.168 921
0.081 1.358 0.164 1067
0.081 1.366 0.160 1107
0.081 1.358 0.157 1022
0.081 1.359 0.153 797
0.081 1.359 0.149 594
0.081 1.359 0.145 398
0.511 8.582 0.149 426
0.511 8.582 0.124 478
0.511 8.574 0.099 440
0.511 8.581 0.074 379
0.511 8.581 0.049 371
0.511 8.581 0.024 682
0.511 8.580 -0.000 993
0.511 8.580 -0.025 1273
0.511 8.580 -0.050 1553
0.511 8.579 -0.075 1609
0.511 8.578 -0.100 1665
0.511 8.578 -0.125 1472
0.511 8.577 -0.150 1279
0.510 8.568 -0.175 1005
0.510 8.567 -0.200 733
0.510 8.566 -0.225 527
0.510 8.573 -0.250 320
0.109 1.822 0.043 291
0.109 1.830 0.038 481
0.108 1.822 0.033 906
0.108 1.821 0.028 1332
0.108 1.821 0.023 1889
0.108 1.821 0.018 2446
0.108 1.820 0.012 2876
0.108 1.820 0.007 3307
0.108 1.820 0.002 3243
0.108 1.819 -0.003 3320
0.108 1.811 -0.008 3487
0.108 1.810 -0.013 3537
0.108 1.810 -0.018 3587
0.108 1.809 -0.023 3354
0.108 1.809 -0.028 3122
0.108 1.808 -0.033 2701
0.108 1.808 -0.038 2246
0.108 1.807 -0.043 2212
0.108 1.807 -0.049 1772
0.108 1.806 -0.054 1707
0.124 2.027 1.595 4589
0.124 2.031 1.590 9179
0.125 2.042 1.588 9357
0.125 2.046 1.583 10039
0.126 2.050 1.577 10364
0.126 2.061 1.575 9008
0.129 2.104 1.597 9012
0.129 2.108 1.591 10566
0.129 2.112 1.585 12119
0.130 2.116 1.579 12119
0.130 2.121 1.573 9765
0.130 2.125 1.567 7411
0.131 2.142 1.570 5159
0.133 2.179 1.586 4316
0.133 2.176 1.575 5768
0.134 2.181 1.569 7375
0.134 2.185 1.563 6880
0.134 2.195 1.561 6511
0.133 2.180 1.542 6933
0.133 2.177 1.531 7763
0.134 2.188 1.529 6837
0.137 2.232 1.549 6620
0.137 2.236 1.542 6904
0.137 2.240 1.536 8698
0.138 2.251 1.534 10180
0.139 2.268 1.536 9733
0.140 2.286 1.538 9131
0.141 2.296 1.535 6761
0.145 2.374 1.575 6589
0.144 2.358 1.555 5613
0.144 2.356 1.544 4827
0.144 2.353 1.534 4249
0.148 2.418 1.564 4530
0.149 2.429 1.561 5793
0.149 2.433 1.554 8098
0.149 2.430 1.543 10412
0.150 2.448 1.544 9742
0.151 2.473 1.549 10525
0.153 2.490 1.550 9049
0.154 2.508 1.550 8185
0.153 2.499 1.535 7417
0.153 2.496 1.524 7239
0.153 2.500 1.517 7687
0.159 2.594 1.560 7872
0.159 2.605 1.557 9357
0.160 2.609 1.549 7865
0.160 2.620 1.545 5306
0.162 2.638 1.545 4311
0.162 2.642 1.538 4783
0.163 2.660 1.538 6518
0.164 2.671 1.534 7793
0.164 2.675 1.526 8433
0.164 2.679 1.519 8987
0.169 2.753 1.547 9139
0.166 2.708 1.514 8887
0.166 2.719 1.510 8268
0.170 2.779 1.531 9935
0.170 2.783 1.523 14391
0.170 2.780 1.511 12493
0.170 2.777 1.500 9928
0.172 2.810 1.506 8849
0.174 2.835 1.508 11435
0.175 2.853 1.507 14063
0.175 2.864 1.502 11675
0.176 2.875 1.498 9779
0.183 2.993 1.544 9144
0.183 2.990 1.532 9181
0.183 2.994 1.523 8213
0.184 2.998 1.515 9705
0.184 3.002 1.506 13129
0.185 3.013 1.501 12736
0.186 3.032 1.499 9856
0.190 3.108 1.523 7567
0.192 3.133 1.523 8281
0.193 3.159 1.524 7755
0.194 3.163 1.515 7152
0.195 3.189 1.515 8575
0.196 3.207 1.512 11313
0.198 3.226 1.509 11071
0.199 3.244 1.506 9524
0.198 3.226 1.488 8345
0.198 3.238 1.482 7101
0.199 3.249 1.475 6647
0.206 3.362 1.511 6376
0.206 3.366 1.502 7630
0.206 3.363 1.489 7141
0.206 3.367 1.479 6967
0.206 3.371 1.470 6565
0.213 3.477 1.501 7166
0.213 3.474 1.488 9441
0.213 3.485 1.481 9361
0.215 3.518 1.482 8910
0.217 3.537 1.478 10110
0.219 3.571 1.479 8281
0.221 3.604 1.480 6276
0.221 3.615 1.472 5384
0.221 3.612 1.459 4123
0.225 3.675 1.470 4572
0.226 3.686 1.462 6639
0.226 3.690 1.452 5815
0.223 3.642 1.422 5146
0.224 3.653 1.415 5823
0.226 3.686 1.414 5745
0.227 3.713 1.412 6592
0.233 3.798 1.429 5669
0.233 3.802 1.418 9598
0.233 3.806 1.407 9916
0.233 3.802 1.394 8242
0.234 3.821 1.388 6031
0.237 3.877 1.394 5335
0.238 3.888 1.385 4456
0.242 3.944 1.391 3283
0.243 3.963 1.384 3554
0.246 4.012 1.387 3562
0.245 4.008 1.373 4213
0.246 4.012 1.362 5986
0.247 4.030 1.355 4424
0.253 4.125 1.371 4150
0.259 4.227 1.388 4329
0.259 4.238 1.378 5395
0.260 4.241 1.366 4088
0.263 4.290 1.367 3051
0.262 4.286 1.352 4708
0.264 4.313 1.346 5336
0.264 4.316 1.334 4582
0.275 4.495 1.370 4700
0.276 4.514 1.361 6428
0.277 4.517 1.348 4307
0.278 4.536 1.339 4762
0.277 4.524 1.322 6766
0.277 4.528 1.309 4883
0.287 4.692 1.337 4541
0.287 4.687 1.322 4567
0.299 4.882 1.356 3605
0.299 4.886 1.342 4445
0.299 4.882 1.326 4118
0.298 4.870 1.308 4894
0.297 4.850 1.289 4058
0.309 5.053 1.322 2629
0.310 5.065 1.309 3931
0.311 5.076 1.296 4833
0.311 5.087 1.283 3547
0.324 5.291 1.314 3031
0.324 5.286 1.297 2405
0.327 5.336 1.291 2424
0.324 5.293 1.266 3276
0.325 5.304 1.252 2989
0.337 5.500 1.277 4026
0.338 5.519 1.265 4903
0.339 5.530 1.250 3729
0.339 5.541 1.236 3105
0.366 5.971 1.303 2214
0.356 5.819 1.256 2821
0.356 5.815 1.238 3382
0.104 1.701 0.449 5305
0.104 1.702 0.444 7544
0.104 1.703 0.439 8957
0.104 1.704 0.434 9481
0.104 1.705 0.429 9225
0.104 1.698 0.423 8485
0.104 1.706 0.420 6624
0.104 1.699 0.414 4279
0.105 1.708 0.410 2613
0.427 6.975 1.250 3242
0.428 6.986 1.231 4190
0.429 7.013 1.215 3176
0.436 7.118 1.210 3659
0.436 7.121 1.189 3678
0.430 7.022 1.153 5320
0.430 7.017 1.132 6238
0.429 7.012 1.110 4991
0.438 7.148 1.108 3611
0.438 7.151 1.088 4030
0.438 7.146 1.066 4328
0.438 7.156 1.046 3254
0.438 7.159 1.025 2604
0.439 7.162 1.004 2012
0.503 8.208 1.107 1249
0.527 8.611 1.130 1255
0.569 9.289 1.181 1266
0.569 9.292 1.154 1715
0.570 9.311 1.129 1634
0.569 9.290 1.099 1123
0.567 9.253 1.068 1220
0.570 9.303 1.046 1211
0.571 9.329 1.021 1640
0.582 9.497 1.009 1312
0.582 9.500 0.981 1142
0.581 9.486 0.952 745
0.578 9.441 0.921 435
0.583 9.522 0.900 362
0.583 9.525 0.872 332
0.138 2.261 0.304 624
0.138 2.262 0.298 859
0.139 2.262 0.291 1104
0.139 2.262 0.285 1545
0.139 2.263 0.278 1830
0.139 2.263 0.272 1910
0.139 2.264 0.265 1806
0.139 2.264 0.259 1523
0.139 2.264 0.252 1335
0.139 2.265 0.246 1137
0.139 2.265 0.239 742
0.139 2.273 0.233 545
0.139 2.265 0.226 399
0.083 1.358 0.187 491
0.083 1.358 0.183 693
0.083 1.358 0.179 970
0.083 1.358 0.176 1537
0.083 1.358 0.172 1825
0.083 1.358 0.168 2006
0.083 1.358 0.164 2136
0.083 1.358 0.160 2085
0.083 1.358 0.157 1850
0.083 1.358 0.153 1383
0.083 1.358 0.149 1028
0.084 1.366 0.145 640
0.083 1.358 0.141 355
0.525 8.581 0.074 313
0.525 8.580 0.049 490
0.525 8.580 0.024 761
0.525 8.580 -0.000 1033
0.525 8.579 -0.025 1238
0.525 8.579 -0.050 1443
0.525 8.578 -0.075 1461
0.525 8.577 -0.100 1479
0.525 8.577 -0.125 1311
0.525 8.576 -0.150 1142
0.525 8.567 -0.175 900
0.525 8.566 -0.200 664
0.524 8.565 -0.225 473
0.524 8.564 -0.249 282
0.112 1.823 0.054 299
0.112 1.822 0.049 408
0.112 1.822 0.043 626
0.111 1.814 0.039 849
0.111 1.814 0.034 1025
0.111 1.805 0.029 1240
0.111 1.805 0.024 1453
0.111 1.805 0.019 1666
0.111 1.812 0.013 2216
0.111 1.812 0.008 2789
0.111 1.811 0.003 2789
0.111 1.811 -0.002 3264
0.111 1.811 -0.008 3739
0.111 1.810 -0.013 3837
0.111 1.810 -0.018 3936
0.111 1.809 -0.023 3460
0.111 1.809 -0.028 2985
0.110 1.800 -0.032 2459
0.110 1.800 -0.038 1879
0.110 1.799 -0.043 1783
0.110 1.799 -0.048 1396
0.111 1.806 -0.054 1315
0.135 2.026 1.595 4665
0.135 2.031 1.590 9331
0.136 2.041 1.588 9195
0.136 2.045 1.583 9664
0.136 2.050 1.577 10037
0.137 2.060 1.575 8728
0.139 2.097 1.593 8257
0.140 2.107 1.591 9528
0.140 2.111 1.585 10897
0.141 2.116 1.579 10897
0.141 2.120 1.573 9084
0.141 2.124 1.567 7270
0.142 2.141 1.570 5339
0.145 2.178 1.586 4151
0.144 2.169 1.571 5263
0.144 2.173 1.565 6465
0.145 2.177 1.558 5953
0.146 2.195 1.561 5666
0.144 2.172 1.537 6327
0.145 2.177 1.531 7302
0.145 2.187 1.529 6333
0.148 2.231 1.549 6109
0.148 2.235 1.542 6510
0.149 2.246 1.540 8500
0.149 2.250 1.534 10244
0.151 2.267 1.536 10003
0.152 2.285 1.538 9367
0.153 2.302 1.540 7074
0.158 2.374 1.575 7374
0.156 2.351 1.551 6447
0.156 2.341 1.536 5027
0.155 2.332 1.521 4372
0.160 2.410 1.560 4354
0.161 2.421 1.557 5872
0.161 2.426 1.550 8420
0.161 2.430 1.543 10968
0.162 2.441 1.540 9830
0.164 2.472 1.549 9599
0.165 2.490 1.550 8138
0.167 2.514 1.554 7848
0.166 2.498 1.535 7222
0.166 2.495 1.524 7334
0.166 2.499 1.517 7996
0.172 2.593 1.560 8361
0.173 2.604 1.557 10259
0.173 2.608 1.549 8595
0.174 2.619 1.545 5179
0.175 2.637 1.545 3695
0.175 2.641 1.538 4348
0.177 2.659 1.538 6402
0.177 2.670 1.534 7939
0.178 2.674 1.526 8545
0.178 2.685 1.522 9001
0.183 2.752 1.547 9766
0.183 2.749 1.536 9335
0.181 2.718 1.510 8641
0.184 2.771 1.527 9683
0.185 2.782 1.523 13857
0.185 2.779 1.511 11894
0.184 2.776 1.500 9205
0.187 2.809 1.506 9729
0.188 2.834 1.508 12580
0.189 2.852 1.507 14696
0.190 2.856 1.499 11877
0.191 2.874 1.498 9729
0.199 2.992 1.544 10288
0.199 2.989 1.532 9921
0.199 2.993 1.523 8523
0.199 2.990 1.511 9278
0.199 2.994 1.503 12464
0.200 3.012 1.501 12129
0.201 3.023 1.495 9568
0.206 3.099 1.519 8641
0.208 3.132 1.523 8516
0.210 3.158 1.524 7470
0.211 3.184 1.524 6454
0.212 3.195 1.518 8710
0.213 3.206 1.512 12246
0.214 3.225 1.509 11988
0.214 3.229 1.500 10027
0.214 3.225 1.488 10067
0.215 3.236 1.482 9488
0.216 3.248 1.475 7994
0.216 3.251 1.466 5314
0.223 3.358 1.499 5916
0.223 3.362 1.489 6603
0.224 3.366 1.479 7825
0.224 3.369 1.470 7541
0.230 3.469 1.498 7249
0.231 3.473 1.488 9212
0.231 3.484 1.481 9011
0.234 3.517 1.482 9072
0.235 3.536 1.478 10579
0.237 3.569 1.479 8486
0.239 3.603 1.480 6102
0.240 3.614 1.472 5278
0.239 3.603 1.456 4491
0.239 3.600 1.443 5247
0.241 3.626 1.441 7440
0.242 3.637 1.433 7045
0.242 3.648 1.425 5955
0.243 3.652 1.415 6361
0.245 3.685 1.414 6210
0.247 3.711 1.412 6826
0.252 3.797 1.429 5395
0.253 3.808 1.421 9009
0.253 3.805 1.407 9266
0.252 3.801 1.394 7978
0.253 3.812 1.385 5532
0.257 3.876 1.394 4132
0.259 3.894 1.388 3751
0.262 3.951 1.393 3288
0.264 3.977 1.389 4463
0.264 3.980 1.378 4178
0.266 3.999 1.371 4218
0.266 4.010 1.362 5770
0.267 4.021 1.352 4515
0.273 4.116 1.368 3460
0.281 4.225 1.388 3932
0.281 4.236 1.378 5567
0.282 4.240 1.366 3933
0.285 4.289 1.367 2736
0.285 4.293 1.354 4291
0.287 4.326 1.351 4978
0.289 4.353 1.345 4100
0.298 4.486 1.368 4859
0.300 4.512 1.361 6390
0.300 4.523 1.350 5208
0.301 4.534 1.339 6068
0.300 4.523 1.322 7342
0.300 4.518 1.307 5526
0.312 4.690 1.337 4550
0.312 4.694 1.324 4530
0.316 4.758 1.326 3837
0.324 4.884 1.342 3865
0.324 4.880 1.326 3655
0.323 4.868 1.308 4578
0.329 4.956 1.315 4391
0.328 4.937 1.295 2831
0.336 5.063 1.309 3311
0.337 5.074 1.296 4480
0.337 5.077 1.282 3250
0.352 5.297 1.315 3134
0.352 5.292 1.298 2630
0.353 5.319 1.288 2808
0.352 5.307 1.269 3999
0.353 5.310 1.254 3628
0.366 5.506 1.279 3979
0.367 5.517 1.265 5495
0.367 5.528 1.250 4262
0.368 5.539 1.236 3484
0.369 5.550 1.221 2085
0.386 5.817 1.256 2275
0.112 1.692 0.452 3714
0.113 1.701 0.449 6259
0.113 1.702 0.444 9226
0.113 1.702 0.439 11157
0.113 1.703 0.434 11910
0.113 1.704 0.429 11732
0.113 1.697 0.423 10960
0.113 1.706 0.420 8667
0.113 1.699 0.414 5667
0.113 1.707 0.410 3505
0.464 6.981 1.252 3394
0.464 6.992 1.232 4411
0.465 7.003 1.213 3276
0.473 7.123 1.211 3943
0.473 7.118 1.189 4170
0.466 7.020 1.153 5565
0.466 7.015 1.132 6205
0.466 7.010 1.110 4889
0.474 7.138 1.107 3960
0.474 7.141 1.086 4284
0.475 7.144 1.066 4505
0.475 7.154 1.046 3496
0.475 7.157 1.025 2861
0.476 7.159 1.004 2227
0.572 8.605 1.155 1359
0.572 8.608 1.130 1409
0.593 8.925 1.140 1270
0.618 9.297 1.155 1674
0.619 9.315 1.130 1626
0.617 9.295 1.100 1036
0.614 9.250 1.068 1204
0.618 9.308 1.047 1142
0.620 9.334 1.022 1593
0.632 9.510 1.011 1427
0.632 9.512 0.983 1290
0.632 9.515 0.955 772
0.628 9.454 0.922 484
0.632 9.511 0.899 341
0.150 2.260 0.310 344
0.150 2.260 0.304 777
0.150 2.261 0.298 1042
0.150 2.261 0.291 1334
0.150 2.262 0.285 1919
0.150 2.262 0.278 2347
0.150 2.263 0.272 2468
0.150 2.263 0.265 2376
0.150 2.263 0.259 2130
0.150 2.264 0.252 1962
0.150 2.264 0.246 1716
0.150 2.264 0.239 1210
0.150 2.264 0.233 950
0.150 2.265 0.226 759
0.090 1.357 0.187 583
0.090 1.357 0.183 802
0.090 1.357 0.179 1134
0.090 1.358 0.176 1814
0.091 1.366 0.172 2162
0.090 1.358 0.168 2298
0.090 1.358 0.164 2242
0.090 1.358 0.160 2050
0.090 1.358 0.157 1668
0.090 1.358 0.153 1031
0.090 1.358 0.149 652
0.091 1.374 0.145 501
0.091 1.374 0.141 437
0.091 1.366 0.137 430
0.570 8.578 0.099 377
0.570 8.578 0.074 678
0.570 8.577 0.049 851
0.570 8.577 0.024 1059
0.570 8.577 -0.000 1266
0.570 8.576 -0.025 1371
0.570 8.576 -0.050 1475
0.570 8.575 -0.075 1433
0.570 8.575 -0.100 1391
0.570 8.574 -0.125 1210
0.569 8.573 -0.150 1028
0.569 8.564 -0.175 805
0.569 8.563 -0.200 585
0.569 8.562 -0.225 420
0.569 8.561 -0.249 255
0.119 1.797 0.029 278
0.120 1.812 0.023 556
0.120 1.812 0.018 862
0.120 1.812 0.013 1169
0.120 1.811 0.008 1476
0.120 1.811 0.003 1476
0.120 1.810 -0.002 1515
0.120 1.802 -0.007 1581
0.120 1.802 -0.012 1608
0.120 1.801 -0.017 1636
0.120 1.809 -0.023 1609
0.120 1.808 -0.028 1601
0.120 1.808 -0.033 1410
0.120 1.807 -0.038 1187
0.120 1.807 -0.043 1156
0.120 1.806 -0.049 946
0.120 1.806 -0.054 958
0.140 2.026 1.595 4756
0.140 2.030 1.590 9512
0.141 2.041 1.588 9050
0.141 2.045 1.583 9339
0.142 2.056 1.581 9850
0.142 2.060 1.575 8498
0.144 2.077 1.579 7658
0.145 2.100 1.587 8424
0.146 2.111 1.585 9572
0.146 2.115 1.579 9572
0.147 2.119 1.573 8355
0.147 2.130 1.571 7198
0.148 2.134 1.565 5731
0.149 2.151 1.568 4585
0.149 2.156 1.562 5146
0.149 2.160 1.556 5706
0.149 2.157 1.545 5297
0.149 2.161 1.539 4893
0.150 2.165 1.533 5906
0.150 2.170 1.527 6919
0.151 2.180 1.525 5977
0.154 2.231 1.549 5649
0.154 2.235 1.542 6094
0.155 2.245 1.540 8201
0.156 2.256 1.538 10268
0.157 2.267 1.536 10105
0.158 2.284 1.538 9549
0.159 2.302 1.540 7412
0.164 2.373 1.575 7903
0.162 2.350 1.551 6891
0.162 2.341 1.536 5124
0.161 2.332 1.521 4329
0.167 2.410 1.560 4197
0.167 2.414 1.553 6150
0.168 2.425 1.550 8799
0.168 2.429 1.543 11481
0.169 2.440 1.540 10002
0.170 2.458 1.541 8911
0.173 2.496 1.554 7380
0.174 2.514 1.554 7651
0.174 2.511 1.543 7014
0.172 2.495 1.524 7124
0.172 2.492 1.513 7932
0.179 2.592 1.560 8539
0.179 2.596 1.553 10799
0.180 2.607 1.549 9059
0.181 2.618 1.545 5174
0.182 2.636 1.545 3135
0.183 2.640 1.538 3778
0.184 2.658 1.538 5885
0.184 2.663 1.530 7672
0.185 2.674 1.526 8422
0.186 2.692 1.526 9011
0.190 2.752 1.547 10121
0.190 2.749 1.536 9798
0.188 2.718 1.510 8673
0.192 2.771 1.527 9359
0.193 2.789 1.527 13190
0.193 2.786 1.515 11411
0.193 2.797 1.510 8564
0.194 2.808 1.506 10729
0.195 2.826 1.505 13680
0.197 2.844 1.504 15346
0.197 2.855 1.499 12009
0.198 2.867 1.494 9580
0.206 2.985 1.540 10641
0.207 2.989 1.532 10020
0.207 2.993 1.523 8714
0.207 2.989 1.511 9041
0.207 2.993 1.503 11489
0.208 3.012 1.501 11068
0.209 3.023 1.495 9123
0.214 3.099 1.519 9621
0.216 3.124 1.520 8833
0.219 3.172 1.530 7272
0.221 3.190 1.528 6719
0.221 3.201 1.522 9130
0.222 3.213 1.516 12672
0.223 3.224 1.509 12353
0.223 3.228 1.500 10722
0.223 3.232 1.491 12063
0.224 3.236 1.482 11837
0.224 3.247 1.475 8949
0.225 3.251 1.466 5378
0.231 3.342 1.493 4884
0.232 3.361 1.489 6301
0.233 3.372 1.482 8935
0.233 3.369 1.470 8594
0.239 3.461 1.495 6923
0.240 3.472 1.488 8375
0.241 3.483 1.481 8297
0.243 3.517 1.482 8927
0.244 3.535 1.478 10550
0.246 3.561 1.476 8394
0.248 3.587 1.474 5806
0.249 3.606 1.469 5117
0.249 3.602 1.456 5065
0.248 3.591 1.440 6941
0.250 3.618 1.438 9185
0.251 3.636 1.433 8361
0.253 3.662 1.430 6978
0.253 3.659 1.417 6676
0.255 3.685 1.414 6186
0.256 3.703 1.409 6616
0.257 3.714 1.401 5331
0.263 3.808 1.421 8220
0.263 3.811 1.410 8363
0.263 3.800 1.394 7382
0.263 3.804 1.383 5239
0.270 3.905 1.404 3265
0.271 3.916 1.395 3438
0.275 3.972 1.401 4163
0.275 3.976 1.389 5507
0.275 3.980 1.378 4909
0.276 3.998 1.371 4102
0.277 4.009 1.362 5519
0.278 4.021 1.352 4644
0.284 4.107 1.366 3035
0.292 4.224 1.388 3646
0.293 4.236 1.378 5563
0.293 4.239 1.366 3752
0.296 4.281 1.365 2379
0.297 4.292 1.354 3697
0.300 4.341 1.355 4973
0.301 4.360 1.347 4887
0.310 4.485 1.368 4574
0.312 4.511 1.361 5934
0.313 4.522 1.350 6081
0.313 4.526 1.337 7059
0.313 4.522 1.322 7550
0.313 4.525 1.309 5656
0.324 4.689 1.337 4281
0.329 4.754 1.339 4259
0.328 4.750 1.324 3594
0.338 4.883 1.342 3428
0.337 4.879 1.326 3678
0.336 4.867 1.308 4444
0.343 4.955 1.315 5016
0.341 4.936 1.295 3598
0.349 5.054 1.307 2701
0.351 5.073 1.296 3864
0.350 5.069 1.280 2819
0.366 5.296 1.315 3196
0.366 5.291 1.298 2889
0.367 5.310 1.286 3277
0.367 5.306 1.269 4577
0.368 5.317 1.256 4108
0.381 5.505 1.279 3902
0.382 5.524 1.266 5882
0.382 5.527 1.250 4584
0.383 5.538 1.236 3674
0.384 5.557 1.223 2395
0.402 5.816 1.256 2040
0.117 1.692 0.452 3344
0.118 1.700 0.449 5941
0.118 1.701 0.444 9146
0.118 1.702 0.439 11443
0.118 1.703 0.434 12495
0.118 1.704 0.429 12479
0.117 1.697 0.423 11700
0.118 1.706 0.420 9283
0.117 1.699 0.414 6049
0.118 1.707 0.410 3691
0.483 6.980 1.252 3412
0.483 6.991 1.232 4390
0.484 7.002 1.213 3250
0.492 7.122 1.211 3982
0.493 7.125 1.190 4385
0.485 7.019 1.153 5488
0.485 7.014 1.132 5816
0.493 7.134 1.128 4877
0.493 7.137 1.107 4122
0.494 7.139 1.086 4257
0.494 7.142 1.066 4378
0.494 7.153 1.046 3506
0.495 7.155 1.025 2908
0.495 7.158 1.004 2267
0.595 8.603 1.155 1468
0.595 8.606 1.130 1494
0.632 9.135 1.164 1400
0.643 9.303 1.156 1649
0.644 9.314 1.130 1591
0.643 9.301 1.101 943
0.639 9.241 1.067 1174
0.643 9.306 1.047 1087
0.645 9.332 1.022 1551
0.657 9.508 1.011 1558
0.657 9.510 0.983 1439
0.658 9.513 0.955 890
0.654 9.460 0.923 537
0.657 9.502 0.899 367
0.658 9.520 0.872 273
0.156 2.252 0.303 355
0.156 2.253 0.297 421
0.156 2.261 0.291 451
0.156 2.261 0.285 477
0.156 2.262 0.278 502
0.156 2.262 0.272 528
0.156 2.262 0.265 496
0.156 2.263 0.259 432
0.157 2.271 0.253 400
0.157 2.271 0.246 415
0.157 2.272 0.240 414
0.157 2.272 0.233 397
0.157 2.264 0.226 354
0.094 1.357 0.187 512
0.094 1.357 0.183 746
0.094 1.357 0.179 1077
0.094 1.357 0.176 1667
0.094 1.365 0.172 1928
0.094 1.357 0.168 1946
0.094 1.358 0.164 1660
0.094 1.366 0.160 1365
0.094 1.366 0.157 991
0.094 1.366 0.153 664
0.094 1.366 0.149 719
0.094 1.366 0.145 821
0.094 1.358 0.141 909
0.094 1.358 0.137 843
0.094 1.358 0.134 636
0.593 8.576 0.074 700
0.593 8.576 0.049 865
0.593 8.576 0.024 1030
0.593 8.575 -0.000 1194
0.593 8.575 -0.025 1247
0.593 8.574 -0.050 1301
0.593 8.574 -0.075 1228
0.593 8.573 -0.100 1156
0.593 8.572 -0.125 1000
0.593 8.571 -0.150 843
0.592 8.563 -0.175 661
0.592 8.562 -0.200 482
0.592 8.561 -0.225 343
0.126 1.829 0.043 267
0.127 1.837 0.037 335
0.126 1.828 0.033 416
0.126 1.820 0.028 513
0.126 1.820 0.023 492
0.126 1.820 0.018 471
0.126 1.819 0.012 557
0.126 1.819 0.007 644
0.126 1.818 0.002 647
0.126 1.818 -0.003 939
0.125 1.810 -0.008 1233
0.125 1.809 -0.013 1311
0.125 1.809 -0.018 1389
0.125 1.808 -0.023 1206
0.125 1.808 -0.028 1022
0.125 1.807 -0.033 858
0.157 2.278 -0.086 833
0.157 2.278 -0.093 750
0.157 2.277 -0.099 668
0.157 2.276 -0.106 837
0.143 2.019 1.591 4845
0.143 2.024 1.585 9690
0.144 2.034 1.584 9006
0.145 2.051 1.587 9209
0.145 2.055 1.581 9907
0.146 2.066 1.580 8478
0.147 2.077 1.579 7468
0.148 2.100 1.587 7389
0.149 2.111 1.585 8133
0.149 2.115 1.579 8133
0.150 2.119 1.573 7597
0.151 2.130 1.571 7203
0.151 2.134 1.565 6267
0.152 2.145 1.564 5356
0.151 2.136 1.549 5633
0.151 2.140 1.543 5964
0.152 2.144 1.537 5400
0.152 2.148 1.530 4835
0.153 2.159 1.529 5646
0.153 2.169 1.527 6558
0.154 2.173 1.521 5653
0.157 2.224 1.544 5239
0.163 2.308 1.589 5788
0.159 2.245 1.540 7745
0.160 2.263 1.542 10172
0.161 2.273 1.540 10113
0.162 2.291 1.542 9761
0.163 2.302 1.540 7791
0.167 2.366 1.570 8028
0.166 2.350 1.551 7070
0.165 2.341 1.536 5426
0.165 2.338 1.525 4492
0.170 2.403 1.555 4168
0.171 2.414 1.553 6554
0.171 2.418 1.546 9142
0.172 2.429 1.543 11833
0.172 2.433 1.536 10216
0.173 2.444 1.533 8716
0.177 2.503 1.558 6844
0.178 2.514 1.554 7537
0.177 2.511 1.543 6972
0.176 2.494 1.524 6856
0.176 2.491 1.513 7778
0.183 2.592 1.560 8363
0.183 2.596 1.553 10884
0.184 2.607 1.549 9186
0.185 2.611 1.542 5314
0.185 2.615 1.534 3066
0.185 2.619 1.527 3497
0.188 2.658 1.538 5206
0.189 2.669 1.534 7331
0.189 2.680 1.530 8349
0.191 2.698 1.530 9349
0.194 2.744 1.544 10124
0.194 2.748 1.536 9915
0.192 2.717 1.510 8283
0.196 2.778 1.531 8951
0.197 2.789 1.527 12657
0.197 2.793 1.518 11263
0.198 2.797 1.510 8806
0.198 2.808 1.506 11667
0.200 2.826 1.505 14341
0.201 2.844 1.504 15473
0.201 2.848 1.496 11888
0.203 2.866 1.494 9095
0.211 2.984 1.540 11021
0.211 2.988 1.532 10681
0.211 2.992 1.523 9206
0.212 2.996 1.515 8776
0.212 2.993 1.503 10381
0.212 3.004 1.497 9762
0.213 3.015 1.492 8627
0.219 3.098 1.519 10255
0.220 3.110 1.514 9405
0.225 3.186 1.537 7353
0.226 3.197 1.531 7078
0.227 3.208 1.525 9066
0.227 3.212 1.516 12398
0.228 3.224 1.509 12207
0.228 3.228 1.500 10904
0.228 3.232 1.491 13294
0.229 3.243 1.485 13189
0.229 3.247 1.475 8724
0.229 3.243 1.463 4838
0.237 3.357 1.499 4791
0.238 3.368 1.492 6969
0.238 3.372 1.482 10006
0.238 3.368 1.470 9423
0.238 3.372 1.460 6867
0.245 3.472 1.488 7004
0.247 3.490 1.484 7161
0.248 3.509 1.479 8314
0.250 3.535 1.478 9892
0.252 3.561 1.476 8071
0.253 3.580 1.471 5737
0.254 3.598 1.466 4987
0.254 3.595 1.453 5704
0.254 3.591 1.440 8526
0.255 3.610 1.435 10519
0.256 3.628 1.430 9035
0.259 3.669 1.433 7627
0.259 3.658 1.417 6622
0.260 3.684 1.414 5592
0.262 3.703 1.409 5776
0.262 3.714 1.401 5078
0.269 3.807 1.421 6959
0.269 3.811 1.410 7092
0.268 3.792 1.391 6427
0.268 3.796 1.380 4824
0.276 3.912 1.406 3265
0.278 3.931 1.400 3626
0.281 3.972 1.401 4936
0.281 3.976 1.389 5801
0.281 3.979 1.378 4884
0.282 3.990 1.369 3836
0.283 4.009 1.362 5180
0.284 4.020 1.352 4574
0.290 4.107 1.366 2647
0.299 4.224 1.388 3483
0.299 4.235 1.378 5309
0.300 4.239 1.366 3501
0.309 4.379 1.393 2081
0.302 4.269 1.348 3099
0.307 4.348 1.357 5112
0.309 4.367 1.349 5837
0.316 4.477 1.366 4257
0.319 4.511 1.361 5363
0.319 4.514 1.348 6418
0.319 4.518 1.335 7047
0.319 4.514 1.320 6986
0.321 4.548 1.315 5812
0.322 4.559 1.304 4602
0.332 4.692 1.324 3855
0.336 4.749 1.324 3037
0.345 4.883 1.342 3511
0.345 4.879 1.326 4019
0.344 4.867 1.308 4378
0.350 4.955 1.315 5442
0.349 4.935 1.295 4426
0.348 4.931 1.279 2713
0.359 5.073 1.296 2756
0.359 5.076 1.282 2045
0.374 5.295 1.315 3078
0.374 5.291 1.298 2996
0.375 5.309 1.286 3403
0.375 5.313 1.271 4629
0.376 5.316 1.256 4233
0.390 5.513 1.281 3713
0.390 5.524 1.266 5819
0.391 5.527 1.250 4536
0.392 5.546 1.237 3484
0.393 5.556 1.223 2457
0.412 5.823 1.258 2046
0.120 1.692 0.452 2257
0.120 1.700 0.449 4401
0.120 1.701 0.444 7261
0.120 1.702 0.439 9478
0.120 1.703 0.434 10671
0.120 1.704 0.429 10988
0.120 1.705 0.425 10547
0.121 1.705 0.420 8547
0.120 1.698 0.414 5631
0.121 1.707 0.410 3434
0.475 6.722 1.210 3368
0.494 6.990 1.232 4169
0.495 7.001 1.213 3084
0.503 7.121 1.211 3725
0.504 7.124 1.190 4307
0.495 7.010 1.152 4999
0.496 7.013 1.132 5088
0.504 7.133 1.128 4817
0.505 7.144 1.108 4095
0.505 7.139 1.086 4002
0.505 7.141 1.066 3984
0.505 7.152 1.046 3259
0.506 7.155 1.025 2742
0.506 7.157 1.004 2143
0.590 8.344 1.124 1531
0.608 8.605 1.130 1511
0.646 9.134 1.164 1466
0.657 9.302 1.156 1656
0.658 9.313 1.130 1522
0.671 9.496 1.121 949
0.653 9.240 1.067 1087
0.659 9.329 1.049 1054
0.659 9.331 1.022 1541
0.672 9.507 1.011 1630
0.672 9.509 0.983 1535
0.672 9.512 0.955 980
0.669 9.459 0.923 579
0.672 9.509 0.899 418
0.673 9.519 0.872 292
0.160 2.260 0.298 266
0.160 2.269 0.292 290
0.160 2.269 0.285 305
0.160 2.261 0.278 316
0.160 2.270 0.272 340
0.160 2.262 0.265 389
0.160 2.263 0.259 442
0.160 2.263 0.252 447
0.160 2.263 0.246 437
0.160 2.264 0.239 400
0.160 2.264 0.233 375
0.160 2.264 0.226 324
0.096 1.357 0.187 669
0.096 1.357 0.183 905
0.096 1.357 0.179 1207
0.096 1.357 0.176 1697
0.096 1.365 0.172 1895
0.096 1.357 0.168 1737
0.096 1.357 0.164 1202
0.096 1.365 0.160 831
0.097 1.365 0.157 871
0.097 1.365 0.153 1080
0.097 1.365 0.149 1290
0.097 1.366 0.145 1306
0.096 1.358 0.141 1295
0.096 1.358 0.137 1138
0.096 1.358 0.134 803
0.606 8.575 0.074 580
0.606 8.575 0.049 702
0.606 8.575 0.024 822
0.606 8.574 -0.000 942
0.606 8.574 -0.025 966
0.605 8.565 -0.050 993
0.606 8.573 -0.075 920
0.606 8.572 -0.100 849
0.606 8.571 -0.125 719
0.606 8.571 -0.150 590
0.605 8.562 -0.175 466
0.605 8.561 -0.200 343
0.129 1.828 0.022 388
0.129 1.827 0.017 539
0.129 1.819 0.012 663
0.129 1.819 0.007 792
0.129 1.818 0.002 780
0.128 1.810 -0.002 662
0.128 1.809 -0.008 558
0.128 1.809 -0.013 516
0.127 1.801 -0.017 476
0.128 1.808 -0.023 531
0.128 1.808 -0.028 588
0.127 1.799 -0.032 544
0.127 1.799 -0.038 494
0.127 1.798 -0.043 482
0.128 1.806 -0.049 428
0.128 1.805 -0.054 476
0.149 2.019 1.591 4953
0.149 2.023 1.585 9906
0.150 2.034 1.584 9060
0.151 2.051 1.587 9278
0.152 2.055 1.581 10149
0.153 2.066 1.580 8668
0.153 2.076 1.579 7464
0.154 2.087 1.577 6529
0.156 2.110 1.585 6694
0.156 2.115 1.579 6694
0.156 2.119 1.573 6914
0.157 2.129 1.571 7297
0.158 2.134 1.565 6932
0.157 2.125 1.550 6760
0.158 2.135 1.549 6763
0.158 2.139 1.543 6810
0.158 2.143 1.537 5960
0.158 2.134 1.522 5200
0.159 2.158 1.529 5639
0.160 2.162 1.522 6326
0.160 2.173 1.521 5469
0.164 2.223 1.544 4924
0.170 2.307 1.589 5860
0.166 2.251 1.545 7210
0.168 2.269 1.547 9939
0.168 2.280 1.544 10041
0.169 2.290 1.542 9885
0.170 2.301 1.540 8032
0.175 2.366 1.570 7781
0.174 2.350 1.551 6810
0.173 2.340 1.536 5398
0.173 2.344 1.530 4558
0.177 2.396 1.551 4460
0.178 2.407 1.549 6984
0.179 2.417 1.546 9466
0.179 2.428 1.543 12033
0.180 2.432 1.536 10377
0.180 2.436 1.529 8721
0.185 2.502 1.558 6449
0.186 2.513 1.554 7482
0.186 2.517 1.547 6925
0.184 2.487 1.520 6682
0.184 2.491 1.513 7685
0.191 2.591 1.560 7837
0.192 2.595 1.553 10447
0.192 2.600 1.545 8921
0.193 2.611 1.542 5335
0.193 2.615 1.534 3233
0.193 2.612 1.523 3447
0.197 2.665 1.542 4707
0.197 2.669 1.534 7122
0.198 2.680 1.530 8494
0.200 2.705 1.533 9799
0.203 2.744 1.544 9762
0.203 2.748 1.536 9596
0.201 2.717 1.510 7759
0.206 2.791 1.538 8607
0.206 2.795 1.530 12198
0.207 2.799 1.522 11385
0.207 2.803 1.514 9615
0.207 2.807 1.506 12455
0.209 2.825 1.505 14471
0.209 2.836 1.500 15237
0.210 2.847 1.496 11610
0.212 2.866 1.494 8525
0.220 2.983 1.540 10060
0.221 2.988 1.532 9149
0.221 2.992 1.523 8239
0.221 2.988 1.511 8770
0.221 2.992 1.503 10171
0.221 2.996 1.494 8889
0.223 3.015 1.492 8411
0.229 3.098 1.519 10406
0.229 3.102 1.510 10016
0.236 3.192 1.540 7588
0.237 3.204 1.534 7316
0.237 3.208 1.525 8788
0.237 3.212 1.516 11816
0.238 3.223 1.509 12214
0.238 3.227 1.500 11304
0.239 3.231 1.491 13919
0.239 3.242 1.485 13496
0.240 3.246 1.475 8232
0.240 3.243 1.463 4781
0.248 3.356 1.499 5083
0.249 3.367 1.492 7599
0.249 3.371 1.482 10835
0.249 3.375 1.473 10074
0.250 3.379 1.463 7033
0.256 3.471 1.488 5473
0.258 3.489 1.484 5854
0.259 3.508 1.479 7381
0.261 3.534 1.478 8737
0.262 3.553 1.473 7672
0.263 3.557 1.463 6150
0.264 3.568 1.455 5432
0.265 3.594 1.453 6589
0.265 3.590 1.440 10001
0.266 3.601 1.433 11630
0.268 3.628 1.430 9194
0.271 3.668 1.433 8042
0.271 3.665 1.420 6288
0.272 3.676 1.412 4549
0.275 3.724 1.417 4626
0.275 3.728 1.406 4523
0.281 3.799 1.418 5323
0.281 3.803 1.407 5438
0.280 3.791 1.391 5157
0.280 3.795 1.380 4185
0.289 3.911 1.406 3665
0.291 3.945 1.405 4427
0.293 3.971 1.401 5772
0.294 3.975 1.389 6087
0.294 3.978 1.378 4856
0.295 3.989 1.369 3529
0.297 4.016 1.364 4561
0.297 4.019 1.352 4010
0.303 4.106 1.366 2253
0.312 4.223 1.388 3362
0.313 4.234 1.378 4990
0.312 4.230 1.364 3523
0.323 4.378 1.393 2082
0.314 4.252 1.344 2868
0.321 4.347 1.357 5171
0.322 4.366 1.349 6574
0.327 4.430 1.353 4769
0.332 4.495 1.357 6314
0.333 4.506 1.346 7071
0.333 4.509 1.333 7089
0.334 4.528 1.324 6791
0.336 4.554 1.317 5917
0.337 4.565 1.306 4357
0.344 4.653 1.314 3941
0.347 4.695 1.310 2638
0.360 4.874 1.340 3596
0.360 4.878 1.326 4461
0.360 4.873 1.310 4396
0.365 4.946 1.313 5767
0.364 4.934 1.295 4987
0.366 4.953 1.284 2757
0.369 4.994 1.279 2027
0.381 5.159 1.301 1882
0.391 5.294 1.315 2814
0.391 5.289 1.298 3006
0.392 5.308 1.286 3313
0.393 5.319 1.273 4343
0.393 5.323 1.257 4086
0.408 5.519 1.282 3461
0.408 5.530 1.268 5574
0.409 5.533 1.252 4279
0.410 5.544 1.237 3059
0.430 5.826 1.276 2354
0.436 5.907 1.274 2149
0.436 5.903 1.255 2276
0.451 6.100 1.275 3420
0.126 1.701 0.444 4384
0.126 1.702 0.439 6184
0.126 1.702 0.434 7313
0.126 1.703 0.429 7849
0.126 1.704 0.425 7871
0.126 1.705 0.420 6700
0.126 1.706 0.415 4625
0.126 1.707 0.410 2896
0.496 6.720 1.210 3360
0.516 6.988 1.232 3720
0.517 6.999 1.213 2783
0.526 7.119 1.211 3158
0.526 7.123 1.190 3841
0.518 7.008 1.152 4239
0.518 7.011 1.132 4193
0.527 7.131 1.128 4435
0.528 7.142 1.108 3893
0.527 7.137 1.086 3545
0.527 7.140 1.066 3407
0.528 7.150 1.046 2833
0.528 7.153 1.025 2381
0.616 8.339 1.149 2595
0.616 8.342 1.124 2256
0.616 8.345 1.100 1872
0.675 9.140 1.165 1438
0.657 8.900 1.112 1846
0.688 9.318 1.130 1438
0.695 9.408 1.112 1099
0.656 8.876 1.031 936
0.689 9.327 1.049 1017
0.690 9.337 1.023 1555
0.702 9.505 1.011 1585
0.702 9.507 0.983 1521
0.702 9.510 0.955 1016
0.699 9.457 0.923 645
0.702 9.506 0.899 429
0.703 9.516 0.872 278
0.167 2.260 0.298 317
0.167 2.260 0.291 413
0.167 2.261 0.285 635
0.167 2.261 0.278 786
0.167 2.261 0.272 804
0.167 2.262 0.265 782
0.167 2.262 0.259 724
0.167 2.262 0.252 681
0.167 2.263 0.246 584
0.167 2.263 0.239 397
0.167 2.263 0.233 308
0.101 1.364 0.191 404
0.100 1.356 0.187 856
0.100 1.357 0.183 1103
0.100 1.357 0.179 1278
0.100 1.357 0.176 1588
0.100 1.357 0.172 1724
0.100 1.357 0.168 1528
0.101 1.365 0.164 1045
0.101 1.365 0.160 767
0.101 1.365 0.157 1071
0.101 1.365 0.153 1559
0.101 1.365 0.149 1763
0.101 1.365 0.145 1696
0.100 1.357 0.141 1628
0.100 1.357 0.137 1369
0.100 1.357 0.134 894
0.100 1.357 0.130 633
0.633 8.573 0.049 693
0.633 8.573 0.024 755
0.633 8.572 -0.000 817
0.633 8.564 -0.025 790
0.633 8.563 -0.050 769
0.632 8.563 -0.075 684
0.633 8.570 -0.100 603
0.632 8.561 -0.125 511
0.632 8.561 -0.150 423
0.632 8.560 -0.175 334
0.134 1.819 0.012 253
0.134 1.818 0.007 351
0.134 1.818 0.002 350
0.134 1.817 -0.003 359
0.134 1.817 -0.008 369
0.134 1.817 -0.013 300
0.170 2.296 -0.062 323
0.170 2.295 -0.068 388
0.169 2.295 -0.075 514
0.169 2.294 -0.081 640
0.169 2.293 -0.088 640
0.169 2.293 -0.094 641
0.169 2.292 -0.101 642
0.169 2.291 -0.108 842
0.154 2.019 1.591 4989
0.154 2.023 1.585 9979
0.155 2.033 1.584 9055
0.156 2.050 1.587 9314
0.156 2.055 1.581 10332
0.157 2.065 1.580 8813
0.157 2.069 1.574 7449
0.158 2.080 1.573 6085
0.161 2.110 1.585 5289
0.161 2.114 1.579 5289
0.161 2.118 1.573 6290
0.162 2.129 1.571 7383
0.162 2.127 1.561 7706
0.162 2.131 1.555 8121
0.162 2.135 1.549 7989
0.163 2.139 1.543 7856
0.163 2.143 1.537 6623
0.162 2.134 1.522 5523
0.164 2.151 1.524 5712
0.164 2.162 1.522 6173
0.165 2.172 1.521 5291
0.168 2.210 1.536 4739
0.176 2.307 1.589 5848
0.173 2.278 1.562 7013
0.173 2.275 1.551 9762
0.173 2.279 1.544 9935
0.175 2.297 1.546 10002
0.175 2.301 1.540 8271
0.180 2.365 1.570 7182
0.178 2.343 1.547 6500
0.178 2.340 1.536 5482
0.179 2.351 1.534 4886
0.182 2.395 1.551 4740
0.183 2.406 1.549 7182
0.184 2.417 1.546 9470
0.184 2.421 1.539 11917
0.185 2.425 1.532 10344
0.185 2.429 1.525 8770
0.185 2.433 1.518 6474
0.191 2.513 1.554 7462
0.191 2.517 1.547 6930
0.189 2.486 1.520 6239
0.189 2.484 1.509 7352
0.197 2.591 1.560 7032
0.197 2.595 1.553 9544
0.198 2.599 1.545 8258
0.199 2.610 1.542 5220
0.199 2.614 1.534 3418
0.199 2.611 1.523 3301
0.204 2.678 1.549 5188
0.204 2.675 1.538 7482
0.204 2.686 1.534 9100
0.206 2.704 1.533 10461
0.207 2.722 1.533 9543
0.209 2.747 1.536 8921
0.210 2.758 1.532 7146
0.213 2.798 1.542 8651
0.213 2.802 1.534 12057
0.213 2.806 1.526 11543
0.213 2.803 1.514 10300
0.214 2.807 1.506 12757
0.214 2.818 1.501 14069
0.216 2.836 1.500 14428
0.217 2.847 1.496 10977
0.226 2.972 1.546 8514
0.226 2.976 1.537 8577
0.220 2.887 1.484 7132
0.226 2.977 1.517 7850
0.227 2.988 1.511 9775
0.228 2.992 1.503 9971
0.228 2.996 1.494 8003
0.229 3.014 1.492 8248
0.235 3.090 1.516 10065
0.237 3.108 1.514 10300
0.243 3.192 1.540 7628
0.244 3.210 1.537 7226
0.244 3.207 1.525 7976
0.245 3.218 1.519 10714
0.245 3.222 1.509 11788
0.245 3.226 1.500 11024
0.246 3.230 1.491 13397
0.247 3.241 1.485 12929
0.247 3.245 1.475 7835
0.247 3.249 1.466 4819
0.256 3.363 1.502 5388
0.256 3.367 1.492 7768
0.256 3.371 1.482 11125
0.257 3.374 1.473 10485
0.258 3.386 1.466 7126
0.258 3.389 1.456 4425
0.265 3.489 1.484 4692
0.266 3.500 1.476 6421
0.269 3.534 1.478 7241
0.270 3.552 1.473 7142
0.271 3.556 1.463 6484
0.271 3.560 1.453 6078
0.273 3.586 1.451 7495
0.273 3.590 1.440 11307
0.274 3.601 1.433 12747
0.275 3.619 1.428 9143
0.280 3.675 1.436 8192
0.279 3.672 1.422 5870
0.276 3.631 1.396 3661
0.286 3.754 1.427 4314
0.285 3.750 1.414 4381
0.289 3.798 1.418 3577
0.289 3.795 1.405 3754
0.288 3.783 1.389 3945
0.296 3.884 1.410 4092
0.298 3.911 1.406 4104
0.300 3.944 1.405 4620
0.302 3.970 1.401 5524
0.303 3.982 1.392 5252
0.303 3.978 1.378 4008
0.305 4.004 1.373 3424
0.305 4.007 1.362 4170
0.307 4.034 1.357 3606
0.315 4.143 1.377 2401
0.315 4.147 1.365 3534
0.322 4.226 1.376 4587
0.321 4.214 1.359 3981
0.321 4.218 1.347 2268
0.322 4.236 1.339 2859
0.331 4.346 1.357 4965
0.332 4.365 1.349 6732
0.337 4.429 1.353 5263
0.342 4.494 1.357 8051
0.343 4.505 1.346 8350
0.342 4.501 1.331 7828
0.345 4.535 1.326 7263
0.346 4.554 1.317 6101
0.348 4.580 1.310 3851
0.353 4.644 1.312 4171
0.351 4.617 1.291 2752
0.371 4.873 1.340 3644
0.371 4.877 1.326 4690
0.371 4.873 1.310 4549
0.376 4.945 1.313 5793
0.375 4.933 1.295 5212
0.377 4.960 1.286 2871
0.381 5.001 1.280 2213
0.392 5.159 1.301 2096
0.393 5.162 1.286 2774
0.402 5.289 1.298 2883
0.403 5.292 1.283 3121
0.405 5.326 1.274 3907
0.405 5.329 1.259 3650
0.422 5.549 1.289 3359
0.421 5.537 1.269 5267
0.422 5.540 1.253 3827
0.418 5.497 1.228 2374
0.443 5.825 1.276 2398
0.444 5.836 1.261 2487
0.449 5.902 1.255 2507
0.456 5.998 1.256 3311
0.465 6.110 1.259 4081
0.454 5.966 1.214 3061
0.130 1.702 0.434 3710
0.130 1.703 0.429 4201
0.130 1.704 0.425 4426
0.130 1.705 0.420 3925
0.130 1.705 0.415 2814
0.512 6.724 1.231 2150
0.511 6.719 1.210 3202
0.532 6.995 1.234 3162
0.532 6.998 1.213 2376
0.542 7.118 1.211 2436
0.542 7.129 1.191 3169
0.533 7.007 1.152 3222
0.542 7.120 1.148 3452
0.543 7.130 1.128 3815
0.543 7.141 1.108 3487
0.544 7.144 1.088 2969
0.543 7.139 1.066 2704
0.633 8.324 1.196 2575
0.634 8.335 1.173 2847
0.634 8.338 1.149 3216
0.635 8.340 1.124 2818
0.635 8.343 1.100 2297
0.635 8.346 1.076 1752
0.677 8.898 1.112 1692
0.715 9.403 1.140 1703
0.716 9.406 1.112 1525
0.716 9.417 1.086 1143
0.712 9.364 1.053 1188
0.711 9.343 1.023 1618
0.723 9.503 1.011 1423
0.723 9.506 0.983 1405
0.723 9.508 0.955 993
0.719 9.455 0.923 697
0.723 9.505 0.899 441
0.724 9.515 0.872 288
0.172 2.259 0.304 460
0.172 2.259 0.298 597
0.172 2.260 0.291 819
0.172 2.260 0.285 1299
0.172 2.261 0.278 1683
0.172 2.261 0.272 1805
0.172 2.261 0.265 1841
0.172 2.262 0.259 1825
0.172 2.262 0.252 1767
0.172 2.262 0.246 1604
0.172 2.263 0.239 1239
0.172 2.263 0.233 1036
0.172 2.263 0.226 844
0.104 1.364 0.187 993
0.104 1.364 0.184 1277
0.103 1.356 0.179 1381
0.103 1.357 0.176 1630
0.103 1.357 0.172 1753
0.103 1.357 0.168 1579
0.104 1.365 0.164 1102
0.104 1.365 0.160 815
0.103 1.357 0.157 1127
0.103 1.357 0.153 1614
0.103 1.357 0.149 1771
0.103 1.357 0.145 1735
0.103 1.357 0.141 1697
0.103 1.357 0.137 1440
0.103 1.357 0.134 947
0.652 8.564 0.074 680
0.652 8.564 0.050 732
0.652 8.563 0.025 761
0.652 8.563 -0.000 791
0.651 8.563 -0.025 749
0.651 8.562 -0.050 708
0.651 8.561 -0.075 610
0.651 8.561 -0.100 513
0.651 8.560 -0.125 419
0.651 8.559 -0.150 326
0.651 8.558 -0.175 257
0.175 2.298 -0.029 253
0.175 2.298 -0.035 345
0.175 2.297 -0.042 430
0.175 2.296 -0.049 457
0.174 2.288 -0.054 488
0.174 2.287 -0.061 387
0.174 2.287 -0.067 287
0.175 2.299 -0.102 268
0.175 2.299 -0.108 324
0.158 2.018 1.591 4954
0.159 2.022 1.585 9909
0.159 2.033 1.584 9015
0.161 2.050 1.587 9377
0.161 2.054 1.581 10505
0.162 2.065 1.580 8899
0.162 2.069 1.574 7361
0.163 2.080 1.573 5757
0.164 2.090 1.571 4185
0.164 2.094 1.565 4185
0.166 2.118 1.573 5754
0.166 2.122 1.567 7500
0.167 2.126 1.561 8493
0.167 2.130 1.555 9486
0.167 2.135 1.549 9252
0.168 2.139 1.543 9017
0.168 2.143 1.537 7341
0.167 2.134 1.522 5791
0.169 2.151 1.524 5785
0.169 2.161 1.522 6001
0.170 2.172 1.521 5095
0.173 2.209 1.536 4644
0.180 2.300 1.585 5856
0.180 2.291 1.570 7093
0.179 2.281 1.555 9553
0.179 2.285 1.548 9811
0.180 2.296 1.546 10009
0.180 2.300 1.540 8471
0.184 2.345 1.558 6371
0.184 2.342 1.547 6269
0.184 2.346 1.540 5590
0.185 2.357 1.538 5206
0.187 2.388 1.547 5070
0.189 2.406 1.549 7296
0.189 2.417 1.546 9360
0.190 2.421 1.539 11658
0.190 2.425 1.532 10249
0.190 2.429 1.525 8840
0.191 2.433 1.518 6733
0.198 2.519 1.558 7458
0.197 2.516 1.547 6910
0.194 2.479 1.517 5641
0.194 2.476 1.506 6759
0.203 2.590 1.560 6104
0.203 2.595 1.553 8313
0.204 2.606 1.549 7315
0.207 2.644 1.561 5013
0.208 2.655 1.557 3597
0.209 2.666 1.553 3847
0.210 2.678 1.549 6470
0.210 2.682 1.541 8660
0.211 2.693 1.537 10188
0.212 2.704 1.533 11302
0.213 2.715 1.529 9737
0.215 2.747 1.536 8043
0.217 2.765 1.535 6470
0.219 2.797 1.542 8886
0.220 2.808 1.537 12285
0.220 2.805 1.526 11735
0.220 2.809 1.518 10804
0.220 2.806 1.506 12443
0.221 2.817 1.501 12979
0.222 2.835 1.500 12967
0.223 2.846 1.496 9921
0.233 2.971 1.546 7428
0.233 2.975 1.537 8852
0.233 2.972 1.525 8212
0.233 2.976 1.517 8182
0.234 2.987 1.511 9216
0.235 2.991 1.503 9556
0.234 2.988 1.491 8071
0.236 3.014 1.492 8717
0.241 3.075 1.509 9652
0.245 3.122 1.520 10569
0.251 3.198 1.543 7411
0.252 3.217 1.540 6916
0.253 3.221 1.531 7040
0.252 3.218 1.519 9315
0.253 3.222 1.509 10607
0.253 3.226 1.500 9732
0.253 3.230 1.491 11894
0.254 3.234 1.482 11920
0.254 3.245 1.475 7162
0.256 3.263 1.472 4637
0.264 3.362 1.502 5491
0.264 3.366 1.492 7640
0.264 3.370 1.482 10873
0.265 3.381 1.476 10466
0.266 3.392 1.469 7185
0.266 3.396 1.459 4428
0.273 3.481 1.481 3950
0.273 3.485 1.471 5785
0.274 3.496 1.464 5894
0.278 3.552 1.473 6361
0.279 3.555 1.463 6393
0.279 3.559 1.453 6540
0.281 3.585 1.451 8458
0.281 3.589 1.440 12495
0.282 3.600 1.433 13747
0.283 3.604 1.422 9582
0.289 3.682 1.438 8175
0.288 3.678 1.425 6380
0.283 3.615 1.391 3353
0.295 3.760 1.430 4630
0.295 3.757 1.416 4743
0.294 3.753 1.403 3391
0.295 3.764 1.395 3341
0.304 3.872 1.419 3851
0.304 3.876 1.408 5212
0.303 3.865 1.392 5134
0.310 3.951 1.407 4866
0.311 3.970 1.401 5255
0.313 3.988 1.394 4560
0.314 4.000 1.385 3446
0.314 4.003 1.373 3173
0.314 4.007 1.362 3932
0.317 4.041 1.359 3223
0.324 4.127 1.373 2723
0.324 4.138 1.363 4278
0.329 4.202 1.369 4440
0.330 4.206 1.357 4403
0.330 4.209 1.345 2859
0.332 4.228 1.337 3092
0.341 4.346 1.357 4688
0.342 4.364 1.349 6567
0.351 4.474 1.366 5696
0.352 4.493 1.357 10020
0.353 4.504 1.346 10047
0.353 4.500 1.331 9062
0.355 4.534 1.326 8508
0.357 4.553 1.317 6817
0.365 4.655 1.329 4131
0.364 4.644 1.312 4474
0.362 4.616 1.291 2928
0.382 4.873 1.340 3476
0.382 4.876 1.326 4610
0.383 4.879 1.312 4764
0.387 4.937 1.311 5428
0.387 4.932 1.295 5152
0.389 4.959 1.286 3070
0.393 5.008 1.282 2556
0.404 5.158 1.301 2241
0.405 5.161 1.286 2831
0.414 5.280 1.297 2572
0.414 5.283 1.281 2909
0.418 5.333 1.276 3273
0.421 5.375 1.269 3610
0.435 5.548 1.289 3437
0.435 5.551 1.272 4951
0.435 5.547 1.255 3289
0.447 5.697 1.268 2221
0.465 5.933 1.297 2391
0.457 5.828 1.259 2872
0.457 5.823 1.241 2618
0.471 6.005 1.257 3088
0.479 6.109 1.259 3618
0.468 5.965 1.214 3191
0.502 6.403 1.274 2672
0.501 6.390 1.253 3377
0.500 6.378 1.232 3381
0.500 6.374 1.212 2734
0.502 6.400 1.197 2375
0.528 6.730 1.232 2099
0.527 6.718 1.210 2972
0.548 6.994 1.234 2584
0.549 6.997 1.213 1966
0.536 6.836 1.168 1997
0.560 7.144 1.194 2477
0.560 7.147 1.173 2337
0.558 7.118 1.148 2610
0.559 7.129 1.128 3100
0.560 7.140 1.108 3010
0.560 7.142 1.088 2394
0.652 8.311 1.219 3180
0.653 8.322 1.196 3127
0.653 8.333 1.173 3264
0.654 8.336 1.149 3593
0.654 8.339 1.124 3243
0.654 8.342 1.100 2675
0.654 8.345 1.076 1991
0.730 9.312 1.157 1602
0.737 9.394 1.139 1999
0.737 9.404 1.112 1879
0.738 9.415 1.086 1441
0.735 9.371 1.054 1441
0.732 9.342 1.023 1670
0.745 9.502 1.011 1311
0.745 9.504 0.983 1330
0.745 9.506 0.955 971
0.741 9.446 0.922 746
0.744 9.495 0.899 427
0.745 9.497 0.871 282
0.177 2.259 0.291 320
0.178 2.268 0.285 531
0.177 2.260 0.278 720
0.177 2.261 0.272 784
0.177 2.261 0.265 839
0.177 2.261 0.259 887
0.177 2.262 0.252 878
0.177 2.262 0.246 808
0.177 2.262 0.239 639
0.177 2.263 0.233 541
0.108 1.372 0.191 456
0.107 1.364 0.187 899
0.107 1.364 0.184 1179
0.106 1.356 0.179 1286
0.106 1.356 0.176 1616
0.106 1.356 0.172 1800
0.106 1.357 0.168 1677
0.106 1.357 0.164 1201
0.106 1.357 0.160 849
0.106 1.357 0.157 1131
0.106 1.357 0.153 1487
0.106 1.357 0.149 1546
0.106 1.357 0.145 1516
0.106 1.357 0.141 1500
0.106 1.357 0.137 1351
0.106 1.357 0.134 974
0.106 1.357 0.130 685
0.671 8.562 0.050 691
0.671 8.562 0.025 723
0.671 8.561 -0.000 754
0.671 8.561 -0.025 701
0.671 8.561 -0.050 649
0.671 8.560 -0.075 551
0.671 8.559 -0.100 453
0.671 8.559 -0.125 370
0.671 8.558 -0.150 287
0.181 2.303 -0.062 319
0.181 2.302 -0.069 432
0.180 2.302 -0.076 441
0.180 2.293 -0.081 452
0.180 2.292 -0.088 452
0.180 2.292 -0.094 372
0.180 2.291 -0.101 292
0.180 2.290 -0.108 373
0.165 2.018 1.591 4941
0.165 2.022 1.585 9883
0.166 2.032 1.584 9095
0.167 2.049 1.587 9576
0.168 2.054 1.581 10758
0.169 2.064 1.580 8951
0.169 2.068 1.574 7164
0.169 2.073 1.568 5571
0.168 2.051 1.544 4057
0.171 2.087 1.561 3910
0.173 2.117 1.573 5469
0.173 2.122 1.567 7826
0.174 2.126 1.561 9295
0.174 2.130 1.555 10764
0.174 2.134 1.549 10482
0.175 2.138 1.543 10201
0.175 2.142 1.537 8073
0.175 2.140 1.526 6032
0.176 2.150 1.524 5897
0.177 2.161 1.522 5946
0.177 2.172 1.521 5021
0.180 2.209 1.536 4683
0.188 2.299 1.585 5893
0.188 2.297 1.574 7209
0.186 2.281 1.555 9156
0.187 2.285 1.548 9436
0.188 2.296 1.546 9741
0.188 2.300 1.540 8533
0.189 2.317 1.541 6248
0.191 2.335 1.543 6297
0.192 2.346 1.540 5843
0.193 2.356 1.538 5446
0.195 2.387 1.547 5169
0.196 2.405 1.549 7134
0.197 2.416 1.546 9095
0.198 2.420 1.539 11289
0.198 2.424 1.532 10077
0.198 2.428 1.525 8866
0.199 2.432 1.518 6789
0.206 2.525 1.562 7645
0.207 2.529 1.555 7086
0.202 2.478 1.517 5070
0.202 2.476 1.506 6230
0.203 2.486 1.502 5515
0.212 2.594 1.553 6883
0.213 2.612 1.553 6275
0.216 2.644 1.561 5485
0.217 2.655 1.557 4289
0.218 2.666 1.553 4839
0.219 2.677 1.549 7888
0.220 2.688 1.545 10263
