-2.593 6.364 0.786 5544
-2.596 6.373 0.767 6313
-2.597 6.375 0.747 5209
-2.604 6.391 0.729 4813
-2.601 6.385 0.708 6711
-2.596 6.372 0.687 8495
-2.590 6.359 0.666 7307
-2.529 6.207 0.633 6383
-2.526 6.201 0.613 7701
-2.527 6.202 0.594 8944
-2.527 6.203 0.575 8563
-2.528 6.205 0.555 7015
-2.528 6.206 0.536 5847
-2.528 6.207 0.516 5082
-2.448 6.010 0.486 4092
-2.449 6.011 0.467 4012
-2.446 6.005 0.448 4424
-2.443 5.998 0.428 3842
-2.438 5.984 0.409 2997
-2.438 5.985 0.390 1991
-2.436 5.979 0.334 1546
-2.433 5.972 0.315 2173
-2.433 5.973 0.296 2434
-2.427 5.959 0.277 2549
-2.424 5.952 0.258 2570
-2.425 5.952 0.240 1841
-2.383 5.850 0.202 1333
-2.380 5.843 0.183 1457
-2.365 5.806 0.165 1736
-2.359 5.791 0.147 1386
-2.344 5.755 0.129 1351
-2.332 5.725 0.093 1342
-2.220 5.450 -0.075 1323
-2.220 5.450 -0.092 1311
-2.080 5.107 -0.398 1601
-2.080 5.106 -0.414 2073
-0.801 1.977 1.670 4345
-0.803 1.981 1.664 8691
-0.804 1.985 1.658 8691
-0.813 2.007 1.666 7346
-0.822 2.029 1.674 7229
-0.826 2.039 1.672 5831
-0.830 2.049 1.670 4873
-0.832 2.053 1.664 7133
-0.836 2.063 1.662 9666
-0.840 2.073 1.661 10066
-0.842 2.078 1.654 10001
-0.848 2.094 1.657 10194
-0.855 2.110 1.659 7411
-0.859 2.120 1.657 5484
-0.863 2.130 1.655 7903
-0.865 2.134 1.649 10398
-0.869 2.145 1.646 11212
-0.871 2.149 1.640 12227
-0.872 2.153 1.633 12227
-0.876 2.163 1.631 11335
-0.878 2.167 1.624 10778
-0.892 2.202 1.639 12215
-0.896 2.212 1.636 15174
-0.900 2.222 1.634 12886
-0.907 2.239 1.636 11722
-0.931 2.299 1.667 9491
-0.936 2.309 1.664 11562
-0.935 2.307 1.652 10892
-0.936 2.311 1.645 10377
-0.935 2.309 1.634 9884
-0.932 2.300 1.619 9979
-0.946 2.336 1.632 9211
-0.951 2.346 1.629 8355
-0.952 2.350 1.622 6063
-0.949 2.341 1.606 5698
-0.981 2.421 1.647 6542
-0.985 2.431 1.644 6032
-0.989 2.442 1.640 5621
-0.994 2.452 1.637 5844
-0.998 2.463 1.633 6296
-1.000 2.467 1.626 5963
-1.001 2.471 1.618 4294
-1.026 2.532 1.645 4142
-1.028 2.536 1.637 6824
-1.029 2.540 1.630 9510
-1.036 2.557 1.629 11244
-1.040 2.568 1.625 13821
-1.045 2.578 1.621 14254
-1.044 2.576 1.609 12354
-1.043 2.573 1.598 10786
-1.047 2.584 1.593 9383
-1.051 2.594 1.589 7691
-1.063 2.624 1.596 8468
-1.062 2.621 1.584 11982
-1.072 2.645 1.587 16573
-1.079 2.662 1.586 20653
-1.080 2.666 1.578 21397
-1.082 2.670 1.569 17046
-1.086 2.680 1.565 11453
-1.090 2.690 1.560 14168
-1.100 2.714 1.562 19208
-1.107 2.731 1.561 16883
-1.111 2.741 1.556 13625
-1.120 2.765 1.558 11817
-1.130 2.789 1.559 10465
-1.132 2.793 1.551 6606
-1.114 2.750 1.518 7241
-1.118 2.760 1.513 5632
-1.125 2.777 1.511 3191
-1.211 2.987 1.606 1947
-1.212 2.991 1.597 2407
-1.214 2.995 1.587 2559
-1.215 2.999 1.578 2764
-1.217 3.003 1.569 3762
-1.218 3.007 1.559 5745
-1.220 3.011 1.550 6792
-1.224 3.021 1.544 6908
-1.179 2.911 1.481 7097
-1.181 2.914 1.472 7310
-1.182 2.918 1.463 6552
-1.228 3.030 1.503 5210
-1.270 3.135 1.540 4821
-1.299 3.206 1.561 5931
-1.301 3.210 1.551 7995
-1.305 3.221 1.544 6838
-1.304 3.218 1.531 5356
-1.297 3.201 1.512 6792
-1.310 3.232 1.514 7964
-1.314 3.242 1.507 9368
-1.313 3.239 1.494 8830
-1.317 3.250 1.487 5420
-1.318 3.253 1.476 4461
-1.317 3.250 1.464 5263
-1.324 3.267 1.459 5519
-1.331 3.285 1.454 5912
-1.335 3.295 1.447 3944
-1.339 3.305 1.440 3365
-1.332 3.288 1.421 5007
-1.339 3.306 1.416 5908
-1.346 3.323 1.411 4746
-1.513 3.734 1.558 4673
-1.548 3.821 1.578 5233
-1.544 3.811 1.561 6979
-1.540 3.801 1.544 8381
-1.556 3.839 1.545 6021
-1.569 3.871 1.543 6295
-1.573 3.882 1.534 4570
-1.642 4.052 1.582 4792
-1.613 3.980 1.542 4042
-1.628 4.018 1.542 4858
-1.635 4.036 1.534 5072
-1.682 4.152 1.560 4279
-1.681 4.148 1.545 3746
-1.671 4.124 1.523 3543
-1.667 4.114 1.505 4523
-1.686 4.160 1.506 4552
-1.701 4.198 1.505 6068
-1.711 4.223 1.499 7244
-1.730 4.269 1.499 6146
-1.737 4.287 1.490 5083
-1.747 4.311 1.484 4632
-1.760 4.343 1.479 4674
-1.761 4.347 1.465 3623
-1.820 4.492 1.495 5032
-1.827 4.509 1.485 5303
-1.829 4.513 1.471 4508
-1.836 4.531 1.461 5968
-1.837 4.534 1.447 6075
-1.842 4.545 1.435 4860
-1.846 4.556 1.423 4312
-1.862 4.594 1.419 4585
-1.872 4.619 1.410 5425
-1.937 4.779 1.439 4089
-1.947 4.804 1.430 4278
-1.945 4.800 1.413 3764
-1.949 4.811 1.400 3037
-2.011 4.964 1.424 2387
-2.022 4.989 1.414 2101
-2.069 5.107 1.428 2591
-2.074 5.117 1.413 3544
-2.081 5.135 1.401 2699
-2.126 5.246 1.411 2328
-2.127 5.249 1.395 2786
-2.169 5.353 1.402 2543
-2.170 5.356 1.386 2793
-2.247 5.546 1.412 1937
-2.310 5.700 1.429 1562
-2.396 5.912 1.458 1506
-2.397 5.915 1.440 1801
-2.410 5.948 1.428 1891
-2.409 5.944 1.407 2570
-2.407 5.940 1.387 3975
-2.405 5.936 1.367 3816
-2.386 5.889 1.338 2052
-2.437 6.015 1.345 1966
-2.561 6.321 1.386 1902
-2.566 6.332 1.368 2647
-2.567 6.335 1.348 3076
-2.565 6.331 1.327 2633
-2.622 6.472 1.333 2635
-2.794 6.895 1.389 2225
-2.792 6.891 1.366 1792
-2.955 7.292 1.415 1387
-3.194 7.882 1.493 1536
-3.196 7.886 1.468 2164
-3.262 8.049 1.470 2443
-3.263 8.053 1.445 3217
-3.209 7.918 1.398 2500
-3.210 7.922 1.373 2727
-2.720 6.712 1.162 3135
-2.727 6.729 1.143 4211
-2.728 6.732 1.122 3567
-2.723 6.720 1.099 3608
-2.724 6.723 1.078 6288
-2.725 6.725 1.057 8069
-2.723 6.720 1.035 8246
-2.721 6.715 1.013 6248
-2.710 6.689 0.988 4561
-2.732 6.742 0.974 3726
-2.736 6.751 0.954 2991
-2.728 6.732 0.930 2846
-2.678 6.610 0.894 2876
-2.611 6.444 0.855 2873
-2.606 6.431 0.833 3567
-2.604 6.426 0.812 4158
-2.587 6.384 0.788 5118
-2.587 6.385 0.768 6029
-2.588 6.387 0.748 4859
-2.589 6.389 0.728 4792
-2.589 6.390 0.708 6537
-2.584 6.377 0.687 7408
-2.522 6.225 0.654 6220
-2.517 6.212 0.633 6457
-2.518 6.213 0.614 7374
-2.518 6.214 0.595 8915
-2.516 6.208 0.575 8256
-2.516 6.209 0.555 6840
-2.517 6.210 0.536 5930
-2.517 6.211 0.516 5228
-2.434 6.007 0.485 5399
-2.438 6.016 0.467 5844
-2.435 6.009 0.448 5819
-2.432 6.003 0.428 4092
-2.433 6.003 0.410 2410
-2.430 5.997 0.391 2004
-2.433 6.005 0.372 1846
-2.436 6.013 0.354 2167
-2.425 5.984 0.334 2267
-2.422 5.977 0.315 2741
-2.422 5.977 0.296 3069
-2.416 5.963 0.277 3224
-2.414 5.956 0.258 3238
-2.414 5.956 0.240 2259
-2.381 5.876 0.220 1365
-2.372 5.854 0.202 1682
-2.369 5.847 0.183 1781
-2.354 5.810 0.165 2083
-2.349 5.796 0.147 1626
-2.334 5.759 0.129 1587
-2.325 5.737 0.111 1531
-2.322 5.730 0.093 1714
-2.322 5.729 0.075 1503
-2.319 5.722 0.057 1306
-2.210 5.455 -0.058 1380
-2.210 5.455 -0.075 1835
-2.210 5.454 -0.092 1785
-2.210 5.453 -0.109 1736
-2.209 5.453 -0.126 1510
-2.221 5.481 -0.145 1388
-2.212 5.458 -0.161 1467
-2.209 5.450 -0.177 1633
-2.078 5.128 -0.368 1497
-2.078 5.127 -0.384 1497
-2.071 5.111 -0.398 1943
-2.070 5.109 -0.414 2450
-0.795 1.979 1.670 4476
-0.797 1.983 1.664 8953
-0.798 1.987 1.658 8953
-0.810 2.015 1.671 7445
-0.814 2.025 1.669 7347
-0.820 2.041 1.672 5807
-0.824 2.052 1.670 4683
-0.826 2.056 1.664 6917
-0.830 2.066 1.662 9416
-0.834 2.076 1.661 9813
-0.836 2.080 1.654 9930
-0.840 2.090 1.652 10187
-0.849 2.112 1.659 7228
-0.853 2.123 1.657 5346
-0.857 2.133 1.655 7325
-0.859 2.137 1.649 9400
-0.863 2.147 1.646 10216
-0.864 2.151 1.640 11103
-0.866 2.155 1.633 11103
-0.870 2.165 1.631 10543
-0.872 2.169 1.624 10239
-0.888 2.211 1.643 12910
-0.890 2.215 1.636 16481
-0.894 2.225 1.634 14280
-0.898 2.235 1.631 12782
-0.900 2.239 1.624 9616
-0.929 2.312 1.664 11811
-0.930 2.316 1.657 11435
-0.930 2.314 1.645 11248
-0.929 2.311 1.634 10482
-0.925 2.303 1.619 10611
-0.937 2.332 1.628 9883
-0.944 2.349 1.629 9175
-0.945 2.353 1.622 6798
-0.962 2.395 1.639 5986
-0.971 2.418 1.643 7290
-0.973 2.422 1.636 6411
-0.977 2.432 1.632 5669
-0.984 2.449 1.633 5783
-0.988 2.459 1.629 6375
-0.992 2.470 1.626 6161
-0.994 2.474 1.618 4704
-1.019 2.535 1.645 4691
-1.023 2.546 1.641 7029
-1.024 2.550 1.633 9358
-1.029 2.560 1.629 11146
-1.033 2.571 1.625 13133
-1.037 2.581 1.621 13128
-1.036 2.579 1.609 11563
-1.035 2.576 1.598 10585
-1.039 2.587 1.593 10169
-1.043 2.597 1.589 9609
-1.053 2.621 1.592 9975
-1.057 2.631 1.588 12548
-1.064 2.648 1.587 16926
-1.068 2.658 1.582 21031
-1.072 2.669 1.578 21659
-1.074 2.673 1.569 16994
-1.078 2.683 1.565 11294
-1.082 2.694 1.560 13359
-1.092 2.717 1.562 17401
-1.099 2.734 1.561 15198
-1.103 2.745 1.556 12565
-1.112 2.768 1.558 12075
-1.119 2.785 1.556 10817
-1.123 2.796 1.551 6447
-1.106 2.753 1.518 5895
-1.110 2.764 1.513 4461
-1.117 2.781 1.511 2398
-1.199 2.984 1.602 1540
-1.201 2.988 1.593 1945
-1.205 2.999 1.587 2094
-1.142 2.842 1.500 2499
-1.146 2.852 1.494 3759
-1.153 2.870 1.492 5756
-1.163 2.893 1.492 6671
-1.167 2.904 1.487 7359
-1.171 2.914 1.481 7634
-1.172 2.918 1.472 8253
-1.171 2.915 1.460 7856
-1.175 2.925 1.454 5793
-1.223 3.044 1.497 4390
-1.290 3.210 1.561 4787
-1.291 3.214 1.551 6489
-1.295 3.224 1.544 5776
-1.220 3.038 1.450 5336
-1.285 3.198 1.509 6272
-1.295 3.222 1.508 6150
-1.304 3.246 1.507 8054
-1.303 3.243 1.494 7976
-1.304 3.247 1.484 4672
-1.234 3.072 1.399 5537
-1.307 3.254 1.464 5000
-1.314 3.271 1.459 5386
-1.321 3.289 1.454 5459
-1.325 3.299 1.447 3617
-1.330 3.309 1.440 2877
-1.323 3.292 1.421 4558
-1.330 3.310 1.416 5585
-1.337 3.327 1.411 4699
-1.510 3.759 1.566 4464
-1.534 3.818 1.576 4852
-1.527 3.801 1.556 6482
-1.526 3.798 1.541 7289
-1.553 3.865 1.553 6203
-1.557 3.875 1.543 6499
-1.559 3.879 1.531 3908
-1.633 4.064 1.584 4987
-1.634 4.068 1.572 3699
-1.616 4.023 1.542 4703
-1.621 4.034 1.532 4869
-1.670 4.156 1.560 4911
-1.666 4.146 1.543 4504
-1.659 4.129 1.523 4048
-1.658 4.126 1.507 4026
-1.673 4.165 1.506 4198
-1.697 4.224 1.512 6171
-1.702 4.235 1.501 7484
-1.717 4.274 1.499 6107
-1.724 4.292 1.490 4772
-1.734 4.317 1.484 4070
-1.747 4.348 1.479 4758
-1.749 4.352 1.465 3858
-1.810 4.504 1.497 4963
-1.771 4.409 1.453 5564
-1.773 4.412 1.440 3948
-1.823 4.536 1.461 6056
-1.824 4.540 1.447 6453
-1.825 4.543 1.433 5357
-1.833 4.561 1.423 4800
-1.848 4.600 1.419 5478
-1.855 4.618 1.408 4956
-1.920 4.778 1.437 4349
-1.930 4.803 1.428 5356
-1.931 4.806 1.413 4832
-1.932 4.809 1.398 3201
-1.994 4.963 1.422 2698
-2.050 5.102 1.442 2636
-2.051 5.105 1.426 2749
-2.058 5.123 1.413 2918
-2.106 5.241 1.426 2585
-2.110 5.252 1.411 2518
-2.111 5.255 1.395 3349
-2.110 5.251 1.377 2560
-2.157 5.370 1.387 2169
-2.231 5.553 1.412 1989
-2.229 5.549 1.393 1822
-2.378 5.919 1.458 1661
-2.377 5.915 1.438 1840
-2.332 5.804 1.395 2024
-2.388 5.944 1.406 2427
-2.387 5.940 1.386 3961
-2.385 5.936 1.366 3900
-2.456 6.113 1.383 2276
-2.451 6.102 1.361 2173
-2.543 6.329 1.386 2088
-2.544 6.332 1.366 2658
-2.545 6.335 1.347 2866
-2.544 6.331 1.325 2623
-2.603 6.479 1.333 2592
-2.770 6.895 1.388 2314
-2.772 6.899 1.366 1895
-2.770 6.895 1.343 1513
-2.943 7.326 1.395 1345
-3.172 7.895 1.468 1817
-3.180 7.914 1.446 2114
-3.239 8.062 1.445 2766
-3.185 7.928 1.398 2483
-3.187 7.931 1.373 2614
-2.700 6.720 1.162 3834
-2.707 6.737 1.143 5308
-2.711 6.747 1.123 4884
-2.703 6.728 1.099 4259
-2.704 6.731 1.078 6242
-2.705 6.733 1.057 7237
-2.703 6.728 1.035 7168
-2.701 6.723 1.013 5600
-2.691 6.696 0.988 4171
-2.709 6.743 0.973 3321
-2.710 6.745 0.952 2875
-2.705 6.732 0.929 2881
-2.588 6.442 0.874 2569
-2.566 6.386 0.848 2746
-2.564 6.380 0.827 3140
-2.579 6.419 0.811 3338
-2.577 6.413 0.790 4630
-2.577 6.415 0.770 5439
-2.575 6.409 0.749 5105
-2.570 6.396 0.728 5388
-2.506 6.237 0.694 5995
-2.506 6.238 0.674 7165
-2.504 6.232 0.654 7232
-2.502 6.226 0.634 6209
-2.502 6.228 0.615 5823
-2.500 6.222 0.595 6823
-2.500 6.223 0.575 6113
-2.415 6.011 0.541 5822
-2.419 6.020 0.523 6445
-2.416 6.013 0.504 6233
-2.416 6.014 0.485 6909
-2.420 6.023 0.467 7729
-2.420 6.024 0.448 7100
-2.420 6.024 0.429 5462
-2.424 6.032 0.411 4514
-2.418 6.018 0.391 4232
-2.415 6.012 0.372 3871
-2.416 6.012 0.353 3446
-2.413 6.006 0.334 2890
-2.401 5.977 0.315 2817
-2.404 5.985 0.296 3312
-2.399 5.970 0.277 3597
-2.396 5.963 0.258 3616
-2.393 5.956 0.240 2507
-2.364 5.883 0.220 1691
-2.355 5.861 0.202 1921
-2.352 5.854 0.183 1956
-2.337 5.817 0.165 2297
-2.334 5.810 0.147 1775
-2.314 5.759 0.129 1720
-2.308 5.744 0.111 1808
-2.305 5.736 0.093 2110
-2.302 5.729 0.075 1891
-2.302 5.729 0.057 1691
-2.260 5.626 0.041 1400
-2.257 5.618 0.024 1722
-2.260 5.625 0.006 1513
-2.260 5.625 -0.011 1310
-2.242 5.580 -0.045 1427
-2.194 5.462 -0.058 1768
-2.194 5.461 -0.075 2349
-2.194 5.460 -0.092 2244
-2.194 5.460 -0.109 2139
-2.193 5.459 -0.126 1834
-2.202 5.480 -0.144 1663
-2.196 5.465 -0.161 1757
-2.192 5.457 -0.177 1934
-2.192 5.456 -0.194 1453
-2.168 5.396 -0.208 1507
-2.125 5.290 -0.267 1424
-2.125 5.288 -0.283 1424
-2.121 5.280 -0.299 1526
-2.121 5.279 -0.316 1629
-2.120 5.277 -0.332 1417
-2.061 5.129 -0.351 1492
-2.066 5.142 -0.368 1796
-2.065 5.140 -0.384 1796
-2.059 5.124 -0.399 2312
-2.055 5.116 -0.414 2908
-2.055 5.114 -0.430 1454
-0.795 1.986 1.675 4184
-0.796 1.990 1.669 8368
-0.798 1.994 1.663 8368
-0.807 2.016 1.671 7340
-0.813 2.032 1.674 7397
-0.815 2.037 1.668 5794
-0.821 2.053 1.670 4547
-0.823 2.057 1.664 6685
-0.827 2.067 1.662 9106
-0.831 2.077 1.661 9518
-0.833 2.081 1.654 9754
-0.837 2.091 1.652 10062
-0.846 2.114 1.659 7000
-0.821 2.051 1.604 5312
-0.854 2.134 1.655 6595
-0.858 2.144 1.653 8127
-0.860 2.148 1.646 8945
-0.861 2.152 1.640 9764
-0.863 2.157 1.633 9764
-0.867 2.167 1.631 9532
-0.878 2.195 1.641 9675
-0.885 2.212 1.643 13371
-0.887 2.216 1.636 17365
-0.891 2.226 1.634 15325
-0.895 2.236 1.631 13720
-0.894 2.234 1.620 10620
-0.925 2.313 1.664 12078
-0.927 2.317 1.657 11943
-0.926 2.315 1.645 11965
-0.925 2.313 1.634 10828
-0.922 2.304 1.619 10840
-0.934 2.333 1.628 10161
-0.940 2.350 1.629 9732
-0.944 2.360 1.626 7530
-0.959 2.396 1.639 7192
-0.965 2.413 1.639 8289
-0.967 2.417 1.632 7352
-0.966 2.414 1.620 6445
-0.978 2.444 1.629 5837
-0.984 2.461 1.629 6353
-0.986 2.465 1.622 6188
-0.988 2.469 1.614 4967
-1.015 2.537 1.645 5137
-1.019 2.547 1.641 7079
-1.021 2.551 1.633 9017
-1.025 2.562 1.629 10629
-1.029 2.572 1.625 11915
-1.033 2.583 1.621 11547
-1.030 2.574 1.606 10733
-1.031 2.578 1.598 10525
-1.035 2.588 1.593 10809
-1.042 2.605 1.593 11138
-1.049 2.622 1.592 11249
-1.051 2.626 1.584 12836
-1.060 2.650 1.587 16926
-1.064 2.660 1.582 21042
-1.068 2.670 1.578 21420
-1.073 2.681 1.573 16535
-1.074 2.685 1.565 10928
-1.078 2.695 1.560 12363
-1.088 2.719 1.562 15138
-1.095 2.736 1.561 13178
-1.099 2.746 1.556 10977
-1.111 2.777 1.561 11816
-1.115 2.787 1.556 10956
-1.119 2.797 1.551 6265
-1.105 2.761 1.522 4309
-1.106 2.765 1.513 3129
-1.116 2.789 1.515 1599
-1.131 2.826 1.523 1746
-1.135 2.836 1.517 2029
-1.139 2.847 1.512 2613
-1.138 2.844 1.500 3569
-1.145 2.861 1.497 4511
-1.151 2.878 1.495 6317
-1.158 2.895 1.492 7058
-1.162 2.905 1.487 7454
-1.167 2.916 1.481 7862
-1.165 2.913 1.469 9031
-1.167 2.916 1.460 8912
-1.171 2.927 1.454 6323
-1.216 3.039 1.494 4068
-1.271 3.178 1.545 3795
-1.286 3.216 1.551 5033
-1.212 3.029 1.457 4922
-1.216 3.039 1.450 6209
-1.217 3.043 1.441 5516
-1.284 3.210 1.502 4831
-1.299 3.248 1.507 6561
-1.301 3.252 1.497 6790
-1.226 3.064 1.406 5325
-1.230 3.074 1.399 6323
-1.234 3.084 1.393 5029
-1.310 3.273 1.459 4785
-1.316 3.291 1.454 4535
-1.323 3.308 1.450 3072
-1.471 3.677 1.585 2644
-1.318 3.294 1.421 3913
-1.325 3.311 1.416 5035
-1.332 3.329 1.411 4524
-1.508 3.768 1.569 5071
-1.512 3.779 1.560 5464
-1.519 3.797 1.553 6654
-1.518 3.794 1.539 6556
-1.547 3.867 1.553 6673
-1.551 3.878 1.543 6593
-1.547 3.868 1.526 3816
-1.627 4.067 1.584 4964
-1.628 4.070 1.572 3708
-1.610 4.025 1.542 4611
-1.612 4.029 1.529 4386
-1.664 4.159 1.560 5149
-1.660 4.149 1.543 4956
-1.656 4.139 1.525 4357
-1.652 4.128 1.507 3566
-1.667 4.167 1.506 3977
-1.694 4.234 1.514 6311
-1.695 4.238 1.501 7686
-1.700 4.248 1.490 5916
-1.690 4.224 1.468 5045
-1.734 4.333 1.488 3348
-1.741 4.351 1.479 4429
-1.739 4.348 1.463 3902
-1.806 4.514 1.499 4618
-1.762 4.404 1.451 5477
-1.763 4.408 1.437 4190
-1.816 4.539 1.461 6765
-1.814 4.535 1.445 7104
-1.816 4.539 1.431 6356
-1.826 4.564 1.423 5740
-1.841 4.603 1.419 6505
-1.840 4.599 1.402 4955
-1.907 4.766 1.433 4521
-1.917 4.791 1.424 6148
-1.921 4.802 1.411 5539
-1.925 4.812 1.398 3224
-1.987 4.966 1.422 2937
-2.042 5.105 1.442 3424
-2.041 5.101 1.424 3313
-2.048 5.119 1.412 3016
-2.098 5.244 1.426 2236
-2.099 5.248 1.409 2506
-2.104 5.258 1.395 3439
-2.102 5.255 1.377 2321
-2.213 5.531 1.424 1859
-2.223 5.556 1.412 2007
-2.215 5.538 1.390 2312
-2.208 5.519 1.368 2092
-2.322 5.804 1.413 2056
-2.323 5.807 1.395 2570
-2.374 5.933 1.403 2431
-2.375 5.936 1.384 4087
-2.376 5.940 1.366 4108
-2.447 6.116 1.383 2495
-2.442 6.105 1.361 2533
-2.533 6.333 1.386 2188
-2.535 6.336 1.366 2605
-2.533 6.332 1.345 2646
-2.535 6.335 1.325 2626
-2.594 6.483 1.333 2357
-2.757 6.892 1.386 2402
-2.762 6.903 1.366 1990
-2.763 6.906 1.344 1614
-2.879 7.196 1.349 1528
-3.229 8.071 1.472 1815
-3.230 8.074 1.446 2478
-3.174 7.932 1.398 2240
-2.689 6.721 1.183 2825
-2.693 6.731 1.163 3938
-2.700 6.748 1.144 5738
-2.701 6.751 1.123 5907
-2.696 6.739 1.100 4869
-2.694 6.735 1.078 5790
-2.695 6.737 1.057 5916
-2.690 6.725 1.034 5806
-2.686 6.713 1.011 4858
-2.689 6.722 0.991 3790
-2.696 6.739 0.972 2892
-2.589 6.471 0.918 2615
-2.698 6.744 0.930 2514
-2.558 6.395 0.868 2643
-2.556 6.390 0.848 3192
-2.551 6.377 0.826 3103
-2.558 6.393 0.808 2435
-2.567 6.417 0.790 3532
-2.568 6.419 0.770 3743
-2.566 6.413 0.749 4413
-2.563 6.407 0.729 4816
-2.494 6.233 0.693 6029
-2.494 6.235 0.673 7783
-2.492 6.229 0.653 7586
-2.492 6.230 0.634 5693
-2.496 6.239 0.615 4239
-2.496 6.240 0.596 4614
-2.403 6.007 0.560 5146
-2.409 6.022 0.542 6937
-2.413 6.031 0.524 7827
-2.410 6.024 0.504 7779
-2.411 6.025 0.486 9033
-2.411 6.026 0.467 10264
-2.411 6.027 0.448 9404
-2.412 6.028 0.429 7945
-2.412 6.029 0.410 7347
-2.409 6.022 0.391 6617
-2.407 6.015 0.372 4753
-2.407 6.016 0.353 3453
-2.404 6.009 0.334 2815
-2.395 5.988 0.315 2565
-2.396 5.988 0.296 3089
-2.387 5.966 0.277 3387
-2.384 5.959 0.258 3478
-2.381 5.952 0.240 2518
-2.352 5.879 0.220 1860
-2.349 5.872 0.202 2014
-2.343 5.857 0.183 1965
-2.329 5.821 0.165 2251
-2.329 5.821 0.147 1720
-2.302 5.755 0.129 1784
-2.299 5.747 0.111 1986
-2.296 5.740 0.093 2357
-2.293 5.732 0.075 2153
-2.293 5.732 0.057 1964
-2.252 5.629 0.041 1755
-2.249 5.621 0.024 2146
-2.252 5.628 0.006 1836
-2.254 5.635 -0.012 1541
-2.237 5.591 -0.028 1500
-2.234 5.583 -0.045 1712
-2.189 5.472 -0.058 2088
-2.189 5.472 -0.076 2763
-2.186 5.464 -0.092 2606
-2.186 5.463 -0.109 2455
-2.185 5.462 -0.126 2084
-2.194 5.484 -0.144 1890
-2.188 5.468 -0.161 1985
-2.187 5.467 -0.178 2164
-2.184 5.459 -0.194 1623
-2.160 5.399 -0.208 1670
-2.163 5.406 -0.225 1324
-2.118 5.294 -0.250 1531
-2.115 5.285 -0.266 1916
-2.114 5.284 -0.283 1916
-2.114 5.283 -0.299 1907
-2.113 5.282 -0.316 1897
-2.113 5.281 -0.332 1662
-2.051 5.126 -0.334 1486
-2.053 5.132 -0.351 1771
-2.058 5.145 -0.368 2096
-2.058 5.143 -0.384 2096
-2.048 5.120 -0.398 2681
-2.045 5.111 -0.413 3357
-2.044 5.110 -0.429 1678
-0.791 1.994 1.680 3980
-0.793 1.999 1.674 7961
-0.794 2.003 1.668 7961
-0.801 2.019 1.671 7200
-0.807 2.035 1.674 7329
-0.809 2.039 1.668 5722
-0.815 2.055 1.670 4427
-0.817 2.059 1.664 6459
-0.821 2.069 1.662 8794
-0.825 2.080 1.661 9233
-0.827 2.084 1.654 9524
-0.831 2.094 1.652 9832
-0.815 2.055 1.615 7111
-0.814 2.053 1.604 5583
-0.850 2.143 1.660 5826
-0.852 2.147 1.653 6700
-0.853 2.151 1.646 7539
-0.855 2.155 1.640 8379
-0.856 2.159 1.633 8379
-0.858 2.163 1.626 8407
-0.874 2.204 1.646 9252
-0.878 2.214 1.643 13595
-0.880 2.219 1.636 17941
-0.884 2.229 1.634 16102
-0.888 2.239 1.631 14445
-0.887 2.237 1.620 11408
-0.919 2.316 1.664 12199
-0.920 2.320 1.657 12221
-0.919 2.318 1.645 12354
-0.921 2.322 1.638 10833
-0.913 2.301 1.615 10640
-0.927 2.336 1.628 10006
-0.936 2.359 1.633 10058
-0.942 2.376 1.634 8369
-0.951 2.399 1.639 8721
-0.956 2.409 1.635 9636
-0.957 2.413 1.628 8918
-0.959 2.417 1.620 8200
-0.963 2.428 1.617 6375
-0.977 2.464 1.629 6281
-0.979 2.468 1.622 6205
-0.980 2.472 1.614 5253
-1.007 2.540 1.645 5454
-1.012 2.550 1.641 6972
-1.013 2.554 1.633 8495
-1.017 2.565 1.629 9816
-1.021 2.575 1.625 10477
-1.026 2.586 1.621 9873
-1.025 2.583 1.609 10073
-1.024 2.581 1.598 10619
-1.028 2.591 1.593 11332
-1.035 2.608 1.593 12022
-1.039 2.619 1.588 11881
-1.043 2.629 1.584 12767
-1.052 2.653 1.587 16702
-1.056 2.663 1.582 20813
-1.060 2.674 1.578 20846
-1.065 2.684 1.573 15878
-1.066 2.688 1.565 10281
-1.070 2.698 1.560 11280
-1.080 2.722 1.562 12784
-1.086 2.739 1.561 11249
-1.088 2.743 1.552 9452
-1.103 2.780 1.561 10938
-1.107 2.790 1.556 10836
-1.111 2.801 1.551 6233
-1.115 2.811 1.545 3025
-1.119 2.822 1.540 2544
-1.123 2.832 1.535 2628
-1.125 2.836 1.526 3259
-1.126 2.840 1.517 3590
-1.130 2.850 1.512 4070
-1.129 2.847 1.500 4631
-1.136 2.864 1.497 5156
-1.143 2.881 1.495 6754
-1.150 2.898 1.492 7075
-1.156 2.916 1.490 7106
-1.158 2.919 1.481 7692
-1.157 2.916 1.469 9439
-1.158 2.920 1.460 9465
-1.162 2.930 1.454 6558
-1.164 2.934 1.445 4212
-1.259 3.175 1.542 2872
-1.277 3.219 1.551 3608
-1.203 3.033 1.457 5420
-1.204 3.036 1.447 7077
-1.206 3.040 1.438 6357
-1.215 3.064 1.437 5034
-1.290 3.252 1.507 5048
-1.291 3.256 1.497 5494
-1.217 3.067 1.406 5821
-1.221 3.078 1.399 6653
-1.228 3.095 1.395 5522
-1.300 3.277 1.459 3964
-1.304 3.288 1.452 3526
-1.456 3.670 1.594 3340
-1.460 3.681 1.585 2780
-1.308 3.298 1.421 3401
-1.315 3.315 1.416 4277
-1.492 3.762 1.578 4148
-1.496 3.773 1.569 5649
-1.503 3.790 1.562 6402
-1.508 3.801 1.553 7130
-1.523 3.840 1.554 6679
-1.536 3.872 1.553 6811
-1.540 3.882 1.543 6508
-1.533 3.865 1.524 4147
-1.615 4.071 1.584 4712
-1.603 4.040 1.559 3659
-1.599 4.030 1.542 4539
-1.597 4.027 1.527 3779
-1.652 4.164 1.560 5062
-1.648 4.154 1.543 5059
-1.646 4.150 1.527 4445
-1.667 4.203 1.531 3592
-1.655 4.172 1.506 3984
-1.681 4.239 1.514 6157
-1.683 4.243 1.501 7504
-1.684 4.246 1.488 5831
-1.677 4.229 1.468 5267
-1.726 4.352 1.493 2750
-1.728 4.356 1.479 3567
-1.724 4.346 1.461 3322
-1.795 4.526 1.501 4138
-1.746 4.402 1.449 5305
-1.781 4.491 1.461 4873
-1.800 4.537 1.459 7725
-1.801 4.541 1.445 7686
-1.802 4.544 1.431 7700
-1.812 4.569 1.423 7223
-1.825 4.601 1.417 7067
-1.824 4.597 1.400 4899
-1.893 4.772 1.433 4663
-1.900 4.790 1.422 6287
-1.904 4.800 1.409 5536
-1.925 4.854 1.407 3000
-1.975 4.979 1.424 3071
-2.027 5.111 1.442 3970
-2.029 5.114 1.426 3943
-2.033 5.125 1.412 3818
-2.037 5.136 1.397 2717
-2.041 5.146 1.383 2650
-2.085 5.257 1.393 3307
-2.132 5.376 1.404 2221
-2.196 5.537 1.424 1623
-2.203 5.555 1.410 2164
-2.196 5.537 1.388 2820
-2.192 5.526 1.368 2425
-2.305 5.810 1.413 2243
-2.306 5.814 1.395 2871
-2.347 5.918 1.398 2975
-2.355 5.936 1.383 4346
-2.359 5.947 1.366 4324
-2.363 5.957 1.349 2798
-2.424 6.112 1.361 2747
-2.512 6.333 1.385 2131
-2.513 6.336 1.365 2369
-2.512 6.332 1.344 2368
-2.513 6.335 1.324 2610
-2.730 6.883 1.405 2559
-2.737 6.900 1.386 2669
-2.741 6.911 1.366 2072
-2.797 7.052 1.369 1767
-2.856 7.201 1.372 1410
-2.858 7.204 1.349 1659
-2.824 7.120 1.312 1822
-3.206 8.084 1.446 1975
-2.674 6.741 1.206 2680
-2.672 6.736 1.184 3256
-2.679 6.754 1.165 3415
-2.680 6.756 1.144 4906
-2.681 6.759 1.123 5747
-2.679 6.754 1.101 4800
-2.674 6.742 1.078 4722
-2.675 6.745 1.057 4296
-2.662 6.711 1.031 4508
-2.619 6.604 0.996 4293
-2.617 6.599 0.974 3492
-2.673 6.740 0.971 2122
-2.573 6.486 0.919 2867
-2.571 6.481 0.898 2648
-2.534 6.388 0.867 2837
-2.534 6.390 0.847 3203
-2.535 6.392 0.827 3867
-2.536 6.393 0.807 4681
-2.537 6.395 0.787 4769
-2.534 6.390 0.766 4349
-2.538 6.399 0.747 4662
-2.507 6.320 0.720 4487
-2.475 6.241 0.693 4994
-2.473 6.235 0.673 6680
-2.474 6.236 0.653 6521
-2.390 6.025 0.617 5726
-2.387 6.019 0.598 6470
-2.385 6.012 0.578 6060
-2.385 6.014 0.560 6005
-2.392 6.029 0.542 6546
-2.392 6.030 0.523 7452
-2.389 6.024 0.504 8531
-2.393 6.032 0.486 10699
-2.396 6.041 0.467 12074
-2.393 6.034 0.448 11308
-2.394 6.035 0.429 9686
-2.394 6.036 0.410 8693
-2.391 6.029 0.391 6917
-2.392 6.030 0.372 3891
-2.404 6.060 0.355 2739
-2.395 6.038 0.335 2567
-2.392 6.031 0.316 2545
-2.384 6.010 0.297 2447
-2.329 5.870 0.275 2836
-2.329 5.871 0.256 3325
-2.329 5.871 0.238 2602
-2.335 5.886 0.220 1893
-2.332 5.879 0.202 1941
-2.326 5.864 0.183 1755
-2.314 5.835 0.165 1998
-2.282 5.754 0.147 1637
-2.285 5.761 0.129 1760
-2.279 5.747 0.111 2113
-2.276 5.739 0.093 2595
-2.276 5.739 0.075 2424
-2.273 5.731 0.057 2267
-2.232 5.628 0.041 2093
-2.232 5.628 0.024 2500
-2.235 5.635 0.006 2024
-2.238 5.642 -0.012 1597
-2.220 5.597 -0.028 1713
-2.217 5.589 -0.045 2009
-2.173 5.479 -0.058 2345
-2.173 5.478 -0.076 3099
-2.170 5.470 -0.092 2855
-2.169 5.469 -0.109 2653
-2.169 5.469 -0.126 2223
-2.178 5.490 -0.144 1991
-2.171 5.475 -0.161 2093
-2.171 5.474 -0.178 2291
-2.168 5.466 -0.194 1705
-2.144 5.406 -0.208 1721
-2.147 5.412 -0.225 1330
-2.103 5.301 -0.234 1670
-2.099 5.293 -0.250 2026
-2.099 5.292 -0.266 2426
-2.098 5.290 -0.283 2426
-2.098 5.289 -0.299 2246
-2.098 5.288 -0.316 2066
-2.097 5.287 -0.332 1824
-2.038 5.139 -0.335 1686
-2.038 5.138 -0.351 1957
-2.043 5.151 -0.368 2296
-2.043 5.149 -0.384 2296
-2.033 5.126 -0.398 2801
-2.030 5.117 -0.413 3448
-2.029 5.116 -0.429 1724
-0.788 1.995 1.680 3695
-0.790 2.000 1.674 7391
-0.792 2.004 1.668 7391
-0.798 2.020 1.671 6843
-0.804 2.036 1.674 7026
-0.806 2.040 1.668 5516
-0.812 2.056 1.670 4286
-0.814 2.060 1.664 6149
-0.818 2.071 1.662 8340
-0.822 2.081 1.661 8814
-0.824 2.085 1.654 9078
-0.825 2.089 1.648 9342
-0.812 2.057 1.615 7199
-0.814 2.061 1.608 5769
-0.849 2.150 1.664 5001
-0.853 2.160 1.662 5394
-0.850 2.152 1.646 6141
-0.852 2.156 1.640 7043
-0.853 2.160 1.633 7043
-0.855 2.164 1.626 7266
-0.881 2.230 1.663 9371
-0.878 2.222 1.648 13546
-0.879 2.226 1.641 17999
-0.881 2.230 1.634 16330
-0.883 2.234 1.627 14661
-0.884 2.238 1.620 11708
-0.915 2.317 1.664 12086
-0.917 2.321 1.657 12146
-0.916 2.319 1.645 12232
-0.918 2.323 1.638 10492
-0.909 2.302 1.615 10094
-0.926 2.344 1.632 9445
-0.935 2.367 1.637 10117
-0.944 2.390 1.642 9346
-0.948 2.400 1.639 10175
-0.952 2.411 1.635 10893
-0.954 2.415 1.628 10384
-0.953 2.412 1.616 9962
-0.957 2.423 1.613 7370
-0.971 2.459 1.625 6212
-0.975 2.469 1.622 6239
-0.974 2.467 1.610 5622
-1.004 2.541 1.645 5602
-1.008 2.552 1.641 6673
-1.010 2.556 1.633 7782
-1.014 2.566 1.629 8751
-1.018 2.577 1.625 9000
-1.020 2.581 1.617 8474
-1.021 2.585 1.609 9466
-1.020 2.582 1.598 10534
-1.027 2.599 1.597 11332
-1.031 2.610 1.593 11908
-1.035 2.620 1.588 11599
-1.039 2.631 1.584 12178
-1.048 2.654 1.587 16048
-1.053 2.665 1.582 20107
-1.057 2.675 1.578 19846
-1.061 2.686 1.573 14898
-1.062 2.689 1.565 9427
-1.064 2.693 1.556 10295
-1.081 2.737 1.569 10907
-1.083 2.741 1.561 9843
-1.066 2.698 1.528 10150
-1.096 2.775 1.558 9817
-1.100 2.785 1.552 10582
-1.107 2.802 1.551 6219
-1.114 2.819 1.549 3140
-1.115 2.823 1.540 3273
-1.119 2.834 1.535 4054
-1.121 2.838 1.526 4928
-1.122 2.841 1.517 5228
-1.124 2.845 1.508 5446
-1.128 2.855 1.503 5355
-1.132 2.866 1.497 5196
-1.139 2.883 1.495 6542
-1.146 2.900 1.492 6578
-1.152 2.917 1.490 6313
-1.154 2.921 1.481 7149
-1.153 2.918 1.469 9272
-1.154 2.921 1.460 9270
-1.158 2.932 1.454 6398
-1.160 2.935 1.445 4303
-1.164 2.946 1.439 2942
-1.192 3.017 1.460 2978
-1.196 3.028 1.454 5848
-1.200 3.038 1.447 7618
-1.202 3.041 1.438 6898
-1.203 3.045 1.428 5426
-1.215 3.076 1.431 4624
-1.214 3.072 1.418 5088
-1.212 3.069 1.406 5828
-1.219 3.086 1.402 6409
-1.223 3.097 1.395 5675
-1.233 3.121 1.394 3460
-1.446 3.661 1.602 3321
-1.448 3.665 1.591 3520
-1.452 3.676 1.582 2781
-1.301 3.293 1.418 3028
-1.310 3.317 1.416 3412
-1.487 3.764 1.578 4543
-1.488 3.768 1.566 6084
-1.498 3.793 1.562 7181
-1.503 3.803 1.553 7492
-1.518 3.842 1.554 7383
-1.525 3.860 1.548 6706
-1.535 3.884 1.543 6304
-1.528 3.867 1.524 4545
-1.609 4.074 1.584 4318
-1.597 4.043 1.559 3654
-1.593 4.032 1.542 4592
-1.592 4.029 1.527 3224
-1.646 4.166 1.560 4600
-1.642 4.156 1.543 4768
-1.640 4.153 1.527 4302
-1.661 4.206 1.531 3627
-1.649 4.174 1.506 4222
-1.673 4.234 1.512 5568
-1.677 4.245 1.501 6824
-1.678 4.249 1.488 5543
-1.669 4.224 1.466 5001
-1.726 4.369 1.497 2506
-1.744 4.415 1.497 2932
-1.746 4.419 1.483 3053
-1.739 4.401 1.463 3972
-1.740 4.405 1.449 5267
-1.778 4.501 1.463 5596
-1.791 4.533 1.457 8375
-1.795 4.543 1.445 7802
-1.796 4.547 1.431 8588
-1.803 4.564 1.421 8559
-1.819 4.604 1.417 7278
-1.814 4.593 1.399 4834
-1.883 4.767 1.431 4872
-1.890 4.785 1.420 6145
-1.892 4.789 1.405 5134
-1.924 4.871 1.411 3361
-2.019 5.110 1.458 2963
-2.020 5.114 1.442 4021
-2.024 5.124 1.428 4223
-2.026 5.128 1.412 4564
-2.027 5.131 1.396 3509
-2.031 5.142 1.381 3486
-2.030 5.138 1.364 3441
-2.028 5.134 1.346 2492
-2.032 5.145 1.332 1923
-2.196 5.558 1.410 2344
-2.186 5.533 1.387 3217
-2.181 5.522 1.366 2749
-2.297 5.814 1.413 2429
-2.298 5.817 1.395 3058
-2.339 5.922 1.398 3248
-2.346 5.939 1.383 4399
-2.350 5.950 1.366 4396
-2.355 5.960 1.349 3118
-2.413 6.108 1.359 2808
-2.497 6.322 1.382 2106
-2.499 6.325 1.362 2237
-2.500 6.328 1.342 2296
-2.504 6.339 1.324 2659
-2.723 6.894 1.406 3073
-2.725 6.897 1.385 2973
-2.732 6.915 1.366 2238
-2.788 7.056 1.369 1939
-2.849 7.212 1.373 1533
-2.848 7.208 1.349 1613
-2.814 7.124 1.312 1744
-2.888 7.309 1.320 2103
-2.667 6.752 1.207 2550
-2.665 6.747 1.185 3616
-2.632 6.663 1.151 3827
-2.639 6.680 1.132 5287
-2.640 6.683 1.112 5524
-2.641 6.685 1.091 4407
-2.659 6.732 1.076 3254
-2.663 6.741 1.056 2884
-2.612 6.612 1.017 3497
-2.610 6.607 0.996 4321
-2.608 6.602 0.974 3955
-2.592 6.561 0.948 2010
-2.570 6.504 0.921 2443
-2.518 6.375 0.885 2392
-2.522 6.384 0.866 3132
-2.526 6.393 0.847 3413
-2.529 6.402 0.828 4681
-2.527 6.397 0.807 6299
-2.522 6.384 0.786 6357
-2.517 6.371 0.764 6163
-2.520 6.380 0.745 5996
-2.498 6.323 0.720 5441
-2.496 6.317 0.699 5721
-2.493 6.311 0.679 6183
-2.497 6.320 0.660 5471
-2.384 6.035 0.618 6202
-2.385 6.037 0.599 4977
-2.376 6.016 0.578 4135
-2.383 6.032 0.561 4711
-2.380 6.025 0.541 6555
-2.378 6.019 0.522 8192
-2.381 6.027 0.504 8948
-2.384 6.036 0.486 10411
-2.388 6.044 0.467 11281
-2.385 6.038 0.448 10573
-2.385 6.038 0.429 9039
-2.389 6.046 0.411 8111
-2.389 6.047 0.392 6270
-2.389 6.048 0.373 3790
-2.392 6.056 0.354 3165
-2.390 6.049 0.335 3174
-2.390 6.049 0.316 3197
-2.387 6.043 0.297 2304
-2.320 5.874 0.275 3035
-2.321 5.874 0.256 3531
-2.321 5.874 0.238 2709
-2.318 5.867 0.220 1910
-2.321 5.875 0.202 1695
-2.271 5.750 0.182 1567
-2.269 5.742 0.164 1852
-2.271 5.750 0.147 1706
-2.274 5.757 0.129 1644
-2.271 5.750 0.111 2026
-2.268 5.742 0.093 2520
-2.266 5.735 0.075 2396
-2.265 5.735 0.057 2282
-2.225 5.631 0.041 2281
-2.222 5.624 0.024 2666
-2.221 5.623 0.006 2075
-2.230 5.645 -0.012 1556
-2.212 5.600 -0.028 1801
-2.209 5.593 -0.045 2156
-2.168 5.489 -0.059 2428
-2.165 5.481 -0.076 3185
-2.162 5.473 -0.092 2865
-2.162 5.472 -0.109 2620
-2.162 5.472 -0.126 2197
-2.170 5.493 -0.144 1998
-2.167 5.485 -0.161 2085
-2.164 5.477 -0.178 2253
-2.128 5.388 -0.189 1729
-2.140 5.416 -0.208 1657
-2.096 5.305 -0.217 1471
-2.095 5.304 -0.234 2090
-2.092 5.296 -0.250 2438
-2.092 5.294 -0.266 2811
-2.091 5.293 -0.283 2811
-2.091 5.292 -0.299 2436
-2.090 5.291 -0.316 2062
-2.090 5.290 -0.332 1823
-2.031 5.142 -0.335 1780
-2.034 5.148 -0.352 2033
-2.036 5.154 -0.368 2374
-2.035 5.152 -0.384 2374
-2.029 5.136 -0.399 2675
-2.023 5.120 -0.413 3162
-2.022 5.119 -0.429 1581
-0.785 2.004 1.684 3395
-0.786 2.008 1.678 6790
-0.788 2.012 1.672 6790
-0.794 2.028 1.675 6448
-0.798 2.038 1.674 6590
-0.802 2.049 1.672 5255
-0.806 2.059 1.670 4168
-0.810 2.069 1.669 5823
-0.814 2.079 1.667 7831
-0.816 2.083 1.661 8318
-0.817 2.087 1.654 8519
-0.819 2.091 1.648 8721
-0.806 2.059 1.615 7207
-0.808 2.063 1.608 5943
-0.809 2.067 1.602 4259
-0.849 2.169 1.666 4293
-0.844 2.155 1.646 4757
-0.843 2.153 1.635 5772
-0.844 2.157 1.629 5772
-0.873 2.229 1.670 6274
-0.874 2.233 1.663 9313
-0.871 2.224 1.648 13241
-0.873 2.229 1.641 17684
-0.874 2.233 1.634 16170
-0.876 2.237 1.627 14655
-0.877 2.241 1.620 11698
-0.908 2.320 1.664 11737
-0.910 2.324 1.657 11751
-0.911 2.328 1.649 11765
-0.911 2.326 1.638 9860
-0.902 2.305 1.615 9126
-0.919 2.347 1.632 8705
-0.930 2.376 1.641 10210
-0.937 2.393 1.642 10250
-0.941 2.403 1.639 11372
-0.942 2.407 1.631 11968
-0.944 2.411 1.624 11741
-0.946 2.415 1.616 11514
-0.950 2.426 1.613 8300
-0.964 2.462 1.625 6113
-0.965 2.466 1.618 6360
-0.964 2.463 1.606 6260
-0.966 2.467 1.599 6010
-1.000 2.555 1.641 6266
-1.004 2.565 1.637 7005
-1.006 2.569 1.629 7548
-1.008 2.573 1.621 7729
-1.012 2.584 1.617 7457
-1.013 2.588 1.609 8906
-1.015 2.592 1.601 10355
-1.019 2.602 1.597 11073
-1.023 2.613 1.593 11218
-1.027 2.623 1.588 10709
-1.031 2.634 1.584 11219
-1.040 2.657 1.587 14998
-1.045 2.668 1.582 18968
-1.049 2.678 1.578 18503
-1.053 2.689 1.573 13671
-1.054 2.693 1.565 8420
-1.056 2.696 1.556 9417
-1.075 2.747 1.573 9990
-1.059 2.704 1.540 10689
-1.058 2.701 1.528 12181
-1.059 2.705 1.520 10771
-1.092 2.789 1.552 10185
-1.101 2.812 1.554 6347
-1.105 2.823 1.549 3415
-1.107 2.827 1.540 3953
-1.111 2.837 1.535 5412
-1.112 2.841 1.526 6618
-1.114 2.845 1.517 6881
-1.115 2.848 1.508 6769
-1.119 2.859 1.503 5824
-1.123 2.869 1.497 4846
-1.130 2.886 1.495 5870
-1.137 2.904 1.492 5725
-1.144 2.921 1.490 5257
-1.145 2.924 1.481 6422
-1.144 2.921 1.469 8807
-1.145 2.925 1.460 8613
-1.149 2.935 1.454 6002
-1.188 3.034 1.488 4462
-1.155 2.949 1.439 3022
-1.183 3.021 1.460 3685
-1.187 3.031 1.454 6239
-1.188 3.035 1.444 8057
-1.190 3.038 1.435 7385
-1.194 3.049 1.428 5678
-1.203 3.073 1.428 4523
-1.204 3.076 1.418 4921
-1.203 3.073 1.406 5475
-1.210 3.090 1.402 5772
-1.214 3.100 1.395 5526
-1.218 3.111 1.389 3667
-1.435 3.666 1.602 3424
-1.437 3.670 1.591 3521
-1.222 3.121 1.360 2760
-1.285 3.283 1.413 3059
-1.466 3.744 1.581 3118
-1.475 3.768 1.578 4755
-1.477 3.772 1.566 6325
-1.487 3.797 1.562 7608
-1.491 3.808 1.553 7634
-1.506 3.847 1.554 8068
-1.491 3.809 1.527 7404
-1.493 3.812 1.515 6522
-1.513 3.865 1.521 4985
-1.597 4.078 1.584 3733
-1.533 3.914 1.512 3781
-1.581 4.037 1.542 4690
-1.621 4.139 1.564 3603
-1.628 4.157 1.556 4359
-1.629 4.161 1.543 4369
-1.636 4.179 1.535 4191
-1.649 4.211 1.531 3784
-1.636 4.179 1.506 4735
-1.660 4.239 1.512 4799
-1.664 4.250 1.501 5752
-1.660 4.240 1.483 5209
-1.656 4.229 1.466 4562
-1.693 4.325 1.481 2576
-1.731 4.420 1.497 3040
-1.732 4.424 1.483 3285
-1.725 4.406 1.463 4066
-1.729 4.417 1.451 5202
-1.764 4.506 1.463 6262
-1.774 4.531 1.455 8496
-1.781 4.549 1.445 7518
-1.785 4.559 1.433 9130
-1.786 4.563 1.419 9648
-1.805 4.609 1.417 7282
-1.800 4.598 1.399 4694
-1.869 4.773 1.431 5064
-1.870 4.777 1.416 5795
-1.874 4.787 1.403 4575
-1.909 4.876 1.411 3320
-1.916 4.894 1.400 3007
-1.954 4.991 1.408 3782
-2.006 5.123 1.426 4267
-2.010 5.134 1.412 5118
-2.012 5.138 1.396 4024
-2.016 5.148 1.381 3867
-2.014 5.144 1.364 3845
-2.013 5.140 1.346 2656
-2.113 5.396 1.389 2006
-2.176 5.558 1.409 2453
-2.169 5.539 1.387 3360
-2.162 5.521 1.365 2942
-2.282 5.828 1.414 2438
-2.280 5.824 1.395 3003
-2.321 5.929 1.398 3442
-2.325 5.939 1.381 4449
-2.332 5.957 1.366 4311
-2.337 5.968 1.349 3322
-2.392 6.109 1.358 2905
-2.384 6.090 1.335 2325
-2.477 6.325 1.361 2195
-2.478 6.329 1.341 2335
-2.701 6.898 1.428 2929
-2.702 6.902 1.406 3638
-2.704 6.905 1.385 3428
-2.708 6.916 1.365 2352
-2.769 7.072 1.370 2107
-2.827 7.221 1.373 1650
-2.640 6.744 1.269 1536
-2.641 6.747 1.248 1827
-2.865 7.318 1.320 2255
-2.641 6.745 1.205 3142
-2.645 6.755 1.185 4701
-2.612 6.671 1.151 4884
-2.619 6.688 1.132 5822
-2.620 6.691 1.112 5752
-2.618 6.686 1.090 5047
-2.602 6.645 1.063 4404
-2.597 6.632 1.040 3955
-2.583 6.598 1.014 3705
-2.581 6.593 0.993 4086
-2.580 6.588 0.972 3408
-2.572 6.569 0.948 2408
-2.573 6.571 0.928 2181
-2.579 6.587 0.909 2649
-2.583 6.597 0.889 3367
-2.506 6.401 0.847 3922
-2.507 6.403 0.827 5355
-2.508 6.405 0.807 6842
-2.505 6.399 0.786 7035
-2.498 6.379 0.764 7721
-2.498 6.380 0.744 7137
-2.482 6.338 0.720 6648
-2.479 6.332 0.700 6308
-2.477 6.326 0.680 5676
-2.365 6.041 0.636 6323
-2.372 6.057 0.619 5915
-2.378 6.073 0.601 4849
-2.378 6.074 0.582 4699
-2.373 6.061 0.562 4084
-2.356 6.018 0.540 4689
-2.357 6.019 0.522 5483
-2.366 6.042 0.504 6037
-2.369 6.050 0.486 7596
-2.369 6.051 0.467 7474
-2.370 6.052 0.448 6363
-2.370 6.053 0.429 5583
-2.370 6.054 0.411 5913
-2.370 6.054 0.392 5491
-2.368 6.048 0.373 4106
-2.362 6.034 0.353 3472
-2.365 6.041 0.335 2950
-2.369 6.049 0.316 2528
-2.372 6.057 0.298 2083
-2.302 5.881 0.275 2957
-2.303 5.881 0.256 3401
-2.300 5.874 0.238 2585
-2.300 5.874 0.220 1826
-2.260 5.771 0.200 1443
-2.251 5.749 0.182 1793
-2.251 5.749 0.164 2129
-2.251 5.749 0.147 1860
-2.257 5.764 0.129 1654
-2.251 5.749 0.111 2026
-2.245 5.734 0.093 2533
-2.248 5.742 0.075 2417
-2.248 5.741 0.057 2310
-2.205 5.631 0.041 2395
-2.204 5.630 0.024 2718
-2.201 5.623 0.007 2065
-2.164 5.526 -0.008 1639
-2.195 5.607 -0.028 1779
-2.192 5.599 -0.045 2183
-2.152 5.496 -0.059 2422
-2.151 5.495 -0.076 3123
-2.148 5.487 -0.093 2724
-2.145 5.479 -0.109 2450
-2.148 5.486 -0.127 2055
-2.153 5.500 -0.144 1869
-2.150 5.492 -0.161 1946
-2.107 5.380 -0.172 2325
-2.109 5.387 -0.189 1791
-2.123 5.423 -0.208 1483
-2.080 5.311 -0.217 1697
-2.079 5.310 -0.234 2409
-2.076 5.302 -0.250 2714
-2.075 5.301 -0.266 3019
-2.075 5.300 -0.283 3019
-2.075 5.299 -0.299 2465
-2.077 5.305 -0.316 1922
-2.074 5.296 -0.332 1700
-2.016 5.148 -0.335 1776
-2.021 5.161 -0.352 2064
-2.020 5.160 -0.368 2424
-2.020 5.158 -0.384 2424
-2.013 5.142 -0.399 2642
-2.010 5.134 -0.414 3024
-2.009 5.132 -0.430 1512
-0.781 2.012 1.689 3147
-0.783 2.016 1.683 6295
-0.785 2.020 1.677 6295
-0.789 2.030 1.675 5999
-0.792 2.041 1.674 6040
-0.796 2.051 1.672 4985
-0.800 2.061 1.670 4110
-0.804 2.071 1.669 5526
-0.808 2.081 1.667 7327
-0.810 2.085 1.661 7799
-0.811 2.090 1.654 7873
-0.801 2.063 1.625 8233
-0.800 2.061 1.615 7144
-0.802 2.065 1.608 6076
-0.804 2.069 1.602 4356
-0.846 2.177 1.671 3371
-0.835 2.151 1.642 3633
-0.832 2.143 1.627 4807
-0.834 2.147 1.620 4886
-0.869 2.237 1.674 6268
-0.870 2.241 1.667 9116
-0.865 2.227 1.648 12688
-0.866 2.231 1.641 16990
-0.868 2.235 1.634 15632
-0.870 2.239 1.627 14273
-0.871 2.243 1.620 11409
-0.902 2.322 1.664 11195
-0.903 2.326 1.657 11144
-0.905 2.331 1.649 11093
-0.907 2.335 1.642 9110
-0.896 2.307 1.615 7962
-0.922 2.374 1.648 8070
-0.929 2.391 1.649 10466
-0.933 2.402 1.646 10912
-0.934 2.406 1.639 12249
-0.936 2.410 1.631 12871
-0.937 2.414 1.624 12791
-0.939 2.418 1.616 12711
-0.943 2.428 1.613 9031
-0.952 2.451 1.617 6348
-0.954 2.455 1.610 6876
-0.955 2.459 1.602 7137
-0.957 2.463 1.595 6871
-0.993 2.557 1.641 5839
-0.997 2.568 1.637 6283
-0.999 2.572 1.629 6311
-1.000 2.576 1.621 6619
-1.005 2.587 1.617 6916
-1.006 2.591 1.609 8459
-1.010 2.601 1.605 10041
-1.012 2.605 1.597 10601
-1.016 2.616 1.593 10351
-1.020 2.626 1.588 9647
-1.024 2.637 1.584 10097
-1.033 2.660 1.587 13657
-1.037 2.671 1.582 17556
-1.041 2.681 1.578 17047
-1.045 2.692 1.573 12381
-1.047 2.696 1.565 7379
-1.048 2.699 1.556 8599
-1.047 2.697 1.545 10402
-1.049 2.700 1.536 12669
-1.053 2.711 1.531 14333
-1.052 2.708 1.520 12421
-1.084 2.792 1.552 9753
-1.093 2.815 1.554 6642
-1.097 2.826 1.549 3734
-1.099 2.830 1.540 4452
-1.103 2.840 1.535 6429
-1.104 2.844 1.526 8005
-1.106 2.848 1.517 8245
-1.107 2.851 1.508 7758
-1.111 2.862 1.503 5966
-1.118 2.879 1.501 4354
-1.122 2.890 1.495 4994
-1.129 2.907 1.492 4781
-1.138 2.931 1.493 4430
-1.137 2.928 1.481 5778
-1.136 2.924 1.469 8262
-1.137 2.928 1.460 7763
-1.141 2.938 1.454 5388
-1.179 3.037 1.488 4759
-1.176 3.027 1.472 3592
-1.174 3.024 1.460 4252
-1.178 3.034 1.454 6502
-1.180 3.038 1.444 8317
-1.181 3.042 1.435 7636
-1.183 3.045 1.426 5713
-1.187 3.055 1.419 4283
-1.193 3.073 1.415 4462
-1.195 3.076 1.406 4890
-1.201 3.093 1.402 4841
-1.205 3.104 1.395 5060
-1.209 3.114 1.389 3789
-1.267 3.262 1.438 3248
-1.427 3.674 1.591 3269
-1.267 3.262 1.415 2927
-1.454 3.744 1.593 3594
-1.458 3.755 1.584 3421
-1.465 3.773 1.578 4713
-1.467 3.776 1.566 6368
-1.476 3.801 1.562 7635
-1.483 3.819 1.556 7504
-1.495 3.851 1.554 8472
-1.481 3.813 1.527 7925
-1.482 3.816 1.515 6841
-1.503 3.869 1.521 5391
-1.523 3.922 1.527 3858
-1.524 3.926 1.515 4055
-1.567 4.035 1.539 4641
-1.612 4.151 1.566 4408
-1.613 4.155 1.553 4747
-1.618 4.165 1.543 4415
-1.627 4.190 1.537 4485
-1.629 4.194 1.524 4161
-1.625 4.184 1.506 5387
-1.634 4.209 1.500 4344
-1.650 4.248 1.499 4733
-1.645 4.237 1.481 4955
-1.647 4.241 1.468 4038
-1.679 4.322 1.479 3182
-1.718 4.425 1.497 3263
-1.717 4.422 1.481 3605
-1.716 4.418 1.465 4118
-1.720 4.429 1.453 5177
-1.754 4.518 1.465 6985
-1.761 4.536 1.455 8223
-1.768 4.554 1.445 6708
-1.772 4.564 1.433 8991
-1.774 4.568 1.419 10138
-1.792 4.614 1.417 6926
-1.854 4.775 1.446 4450
-1.856 4.778 1.431 5114
-1.854 4.775 1.414 5238
-1.858 4.785 1.401 3986
-1.893 4.875 1.409 2848
-1.903 4.900 1.400 3281
-1.940 4.996 1.408 3562
-1.992 5.129 1.426 4036
-1.993 5.132 1.410 5305
-1.997 5.143 1.396 4266
-2.001 5.154 1.381 3860
-2.000 5.150 1.364 3762
-2.001 5.153 1.348 2543
-2.095 5.394 1.387 2516
-2.161 5.564 1.409 2610
-2.151 5.538 1.385 3334
-2.144 5.520 1.363 2971
-2.266 5.834 1.414 2216
-2.264 5.830 1.395 2586
-2.305 5.935 1.398 3472
-2.309 5.946 1.381 4362
-2.316 5.963 1.366 3953
-2.320 5.974 1.349 3256
-2.330 5.999 1.335 3091
-2.365 6.089 1.333 2569
-2.453 6.318 1.358 2353
-2.458 6.328 1.340 2466
-2.682 6.906 1.428 3337
-2.683 6.909 1.406 4043
-2.684 6.913 1.385 3565
-2.689 6.923 1.365 2389
-2.749 7.080 1.370 2349
-2.807 7.229 1.373 1804
-2.622 6.751 1.269 1754
-2.620 6.747 1.247 2608
-2.618 6.742 1.225 3824
-2.608 6.716 1.199 4672
-2.623 6.755 1.184 5150
-2.624 6.758 1.163 5696
-2.594 6.680 1.130 5549
-2.607 6.712 1.114 5059
-2.591 6.671 1.086 5628
-2.583 6.652 1.063 7292
-2.578 6.640 1.040 6642
-2.574 6.627 1.017 5961
-2.572 6.622 0.996 4420
-2.561 6.595 0.972 3064
-2.554 6.576 0.948 2859
-2.554 6.578 0.928 2884
-2.555 6.580 0.907 3495
-2.556 6.582 0.887 4338
-2.488 6.408 0.847 4231
-2.486 6.402 0.826 5897
-2.490 6.412 0.807 6644
-2.488 6.406 0.786 7120
-2.480 6.386 0.764 8100
-2.478 6.380 0.744 7046
-2.461 6.338 0.720 7125
-2.462 6.339 0.700 6306
-2.342 6.032 0.654 7029
-2.340 6.026 0.635 7130
-2.349 6.049 0.618 7969
-2.355 6.065 0.600 8445
-2.359 6.074 0.582 7592
-2.359 6.075 0.563 6154
-2.360 6.076 0.544 4636
-2.354 6.062 0.524 4666
-2.355 6.063 0.505 5331
-2.358 6.072 0.487 4275
-2.367 6.095 0.469 2880
-2.336 6.014 0.446 2541
-2.342 6.030 0.428 3551
-2.345 6.038 0.410 4323
-2.348 6.046 0.391 3798
-2.348 6.047 0.372 2993
-2.343 6.033 0.353 2813
-2.343 6.033 0.334 2283
-2.329 5.997 0.315 1935
-2.326 5.990 0.296 2101
-2.286 5.887 0.275 2694
-2.286 5.887 0.256 3087
-2.284 5.880 0.238 2379
-2.281 5.873 0.220 1786
-2.244 5.777 0.200 1466
-2.235 5.755 0.182 2037
-2.235 5.756 0.164 2454
-2.238 5.763 0.147 2140
-2.244 5.778 0.129 1942
-2.235 5.756 0.111 2082
-2.229 5.741 0.093 2534
-2.229 5.740 0.075 2392
-2.229 5.740 0.057 2250
-2.189 5.637 0.041 2396
-2.189 5.636 0.024 2638
-2.186 5.629 0.007 1980
-2.148 5.532 -0.008 1830
-2.148 5.532 -0.025 1725
-2.174 5.598 -0.045 2180
-2.168 5.583 -0.062 2453
-2.165 5.575 -0.079 2904
-2.133 5.493 -0.093 2428
-2.130 5.485 -0.109 2135
-2.133 5.492 -0.127 1817
-2.104 5.417 -0.140 1843
-2.095 5.394 -0.155 1988
-2.092 5.386 -0.172 2461
-2.088 5.378 -0.188 1843
-2.080 5.355 -0.203 1484
-2.065 5.317 -0.217 1816
-2.062 5.309 -0.233 2580
-2.061 5.308 -0.250 2820
-2.061 5.307 -0.266 3061
-2.060 5.305 -0.283 3061
-2.060 5.304 -0.299 2367
-2.062 5.310 -0.316 1682
-2.059 5.302 -0.332 1503
-2.004 5.161 -0.336 1682
-2.006 5.167 -0.352 2008
-2.006 5.165 -0.368 2353
-2.005 5.164 -0.384 2353
-2.002 5.155 -0.400 2386
-1.996 5.139 -0.414 2635
-1.995 5.138 -0.430 1317
-0.777 2.013 1.689 2997
-0.779 2.018 1.683 5995
-0.780 2.022 1.677 5995
-0.784 2.032 1.675 5556
-0.788 2.042 1.674 5446
-0.792 2.052 1.672 4747
-0.796 2.063 1.670 4156
-0.800 2.073 1.669 5319
-0.804 2.083 1.667 6886
-0.808 2.093 1.665 7367
-0.807 2.091 1.654 7245
-0.795 2.059 1.621 7933
-0.799 2.069 1.619 7080
-0.800 2.073 1.613 6249
-0.802 2.077 1.606 4493
-0.813 2.106 1.618 2899
-0.817 2.116 1.616 3426
-0.823 2.132 1.618 4402
-0.825 2.136 1.611 4486
-0.864 2.239 1.674 6280
-0.866 2.243 1.667 8930
-0.863 2.235 1.652 12111
-0.862 2.233 1.641 16093
-0.863 2.237 1.634 14818
-0.865 2.241 1.627 13543
-0.867 2.245 1.620 10814
-0.897 2.324 1.664 10525
-0.899 2.328 1.657 10394
-0.900 2.332 1.649 10263
-0.902 2.336 1.642 8472
-0.903 2.341 1.635 6680
-0.920 2.383 1.653 8199
-0.924 2.393 1.649 10770
-0.928 2.403 1.646 11356
-0.929 2.408 1.639 12755
-0.931 2.412 1.631 13438
-0.932 2.416 1.624 13461
-0.934 2.420 1.616 13485
-0.938 2.430 1.613 9546
-0.945 2.447 1.613 6689
-0.949 2.457 1.610 7593
-0.950 2.461 1.602 8083
-0.952 2.465 1.595 7641
-0.956 2.476 1.591 6133
-0.990 2.564 1.633 5678
-0.994 2.574 1.629 5212
-0.995 2.578 1.621 5722
-0.999 2.589 1.617 6706
-1.003 2.599 1.613 8010
-1.005 2.603 1.605 9604
-1.009 2.614 1.601 9967
-1.010 2.618 1.593 9563
-1.014 2.628 1.588 8770
-1.019 2.639 1.584 9047
-1.028 2.662 1.587 12215
-1.032 2.673 1.582 16052
-1.033 2.677 1.574 15623
-1.040 2.694 1.573 11119
-1.041 2.698 1.565 6363
-1.040 2.695 1.553 8055
-1.039 2.692 1.541 11457
-1.043 2.703 1.536 14548
-1.047 2.713 1.531 16326
-1.046 2.710 1.520 13783
-1.081 2.800 1.556 9258
-1.088 2.818 1.554 6898
-1.061 2.748 1.508 4571
-1.093 2.832 1.540 4642
-1.097 2.842 1.535 6928
-1.099 2.846 1.526 8926
-1.100 2.850 1.517 9215
-1.102 2.854 1.508 8438
-1.108 2.871 1.506 6015
-1.112 2.881 1.501 3971
-1.119 2.899 1.498 4197
-1.123 2.909 1.492 3886
-1.135 2.940 1.496 3856
-1.131 2.930 1.481 5187
-1.130 2.927 1.469 7617
-1.131 2.930 1.460 6864
-1.172 3.036 1.497 4787
-1.171 3.033 1.485 5065
-1.169 3.030 1.472 4090
-1.168 3.026 1.460 4505
-1.170 3.030 1.451 6579
-1.171 3.034 1.441 8345
-1.172 3.037 1.432 7759
-1.176 3.047 1.426 5542
-1.178 3.051 1.416 3879
-1.184 3.068 1.413 3834
-1.188 3.078 1.406 4233
-1.195 3.096 1.402 3863
-1.199 3.106 1.395 4450
-1.203 3.116 1.389 3709
-1.255 3.251 1.432 3692
-1.256 3.255 1.422 3747
-1.258 3.258 1.412 3478
-1.446 3.747 1.593 4102
-1.451 3.758 1.584 3666
-1.457 3.776 1.578 4499
-1.459 3.779 1.566 6080
-1.468 3.804 1.562 7298
-1.478 3.829 1.558 7091
-1.485 3.847 1.552 8522
-1.476 3.823 1.530 8087
-1.477 3.826 1.518 6787
-1.492 3.865 1.519 5679
-1.515 3.925 1.527 4156
-1.517 3.929 1.515 4051
-1.559 4.038 1.539 4472
-1.603 4.154 1.566 5276
-1.605 4.158 1.553 5532
-1.609 4.169 1.543 4844
-1.619 4.194 1.537 4869
-1.620 4.197 1.524 4661
-1.616 4.187 1.506 5966
-1.623 4.205 1.498 4753
-1.638 4.244 1.496 4111
-1.637 4.240 1.481 4737
-1.638 4.244 1.468 3729
-1.667 4.319 1.477 3836
-1.668 4.322 1.464 3628
-1.708 4.425 1.481 3900
-1.704 4.415 1.463 4239
-1.714 4.440 1.455 4960
-1.745 4.521 1.465 7221
-1.749 4.532 1.453 7411
-1.762 4.564 1.447 5681
-1.763 4.568 1.433 8381
-1.765 4.571 1.419 9952
-1.780 4.610 1.415 6335
-1.845 4.778 1.446 4757
-1.849 4.789 1.433 4877
-1.844 4.778 1.414 4661
-1.846 4.782 1.400 3509
-1.861 4.821 1.394 2675
-1.896 4.911 1.402 3297
-1.911 4.950 1.396 3551
-1.976 5.119 1.422 3832
-1.983 5.136 1.410 5292
-1.984 5.140 1.394 4130
-1.991 5.158 1.381 3432
-2.009 5.204 1.376 3394
-2.010 5.208 1.360 2559
-2.081 5.391 1.386 3204
-2.085 5.402 1.371 2686
-2.139 5.543 1.385 3258
-2.130 5.517 1.361 3012
-2.254 5.839 1.414 2022
-2.294 5.943 1.418 2183
-2.296 5.947 1.400 3384
-2.297 5.950 1.381 4090
-2.301 5.961 1.364 3500
-2.308 5.979 1.349 3112
-2.315 5.997 1.333 3316
-2.350 6.087 1.332 2661
-2.441 6.323 1.358 2477
-2.445 6.333 1.340 2656
-2.668 6.911 1.428 3453
-2.669 6.915 1.406 4232
-2.670 6.918 1.385 3744
-2.675 6.929 1.365 2396
-2.735 7.085 1.370 2479
-2.795 7.242 1.374 1856
-2.605 6.749 1.268 1984
-2.606 6.752 1.247 3422
-2.605 6.748 1.225 5238
-2.594 6.721 1.199 4992
-2.587 6.702 1.175 5854
-2.580 6.683 1.151 6107
-2.575 6.671 1.128 5563
-2.570 6.659 1.105 4953
-2.569 6.654 1.083 7634
-2.567 6.650 1.062 9356
-2.565 6.645 1.040 8100
-2.563 6.640 1.018 7545
-2.564 6.642 0.998 5952
-2.568 6.652 0.978 4005
-2.546 6.595 0.950 2970
-2.541 6.583 0.928 2789
-2.488 6.446 0.891 3450
-2.540 6.580 0.886 4330
-2.478 6.420 0.848 4519
-2.476 6.415 0.827 5755
-2.474 6.409 0.806 5867
-2.472 6.404 0.786 6868
-2.470 6.398 0.765 7994
-2.470 6.400 0.745 6458
-2.445 6.335 0.719 6552
-2.446 6.337 0.699 6396
-2.322 6.014 0.652 6340
-2.331 6.038 0.635 6529
-2.337 6.054 0.618 8250
-2.343 6.070 0.600 7606
