1.236 1.920 1.614 22007
1.239 1.923 1.608 22379
1.241 1.927 1.601 21075
1.247 1.936 1.598 22280
1.253 1.945 1.596 20374
1.255 1.949 1.589 17247
1.257 1.952 1.582 13726
1.293 2.007 1.612 14265
1.302 2.022 1.613 15931
1.308 2.031 1.610 11956
1.369 2.126 1.668 10347
1.372 2.130 1.661 12858
1.374 2.134 1.653 13226
1.377 2.137 1.646 13594
1.379 2.141 1.638 12082
1.378 2.139 1.627 8703
1.380 2.143 1.619 6939
1.390 2.158 1.620 5334
1.403 2.179 1.624 4646
1.421 2.206 1.631 4472
1.438 2.232 1.639 5257
1.459 2.265 1.650 6200
1.461 2.269 1.643 5129
1.464 2.273 1.635 4059
1.496 2.323 1.657 3941
1.499 2.327 1.649 4053
1.493 2.319 1.633 3591
1.484 2.305 1.614 3662
1.490 2.314 1.609 4653
1.497 2.324 1.605 5724
1.518 2.357 1.615 5424
1.535 2.384 1.621 7612
1.538 2.388 1.613 6577
1.540 2.391 1.605 5542
1.546 2.401 1.600 5149
1.552 2.410 1.595 4929
1.616 2.509 1.643 4928
1.618 2.513 1.634 5640
1.621 2.516 1.625 5511
1.627 2.526 1.620 5390
1.637 2.542 1.618 4275
1.662 2.581 1.630 4226
1.738 2.699 1.685 5375
1.741 2.703 1.676 7596
1.732 2.688 1.656 7197
1.726 2.680 1.640 7538
1.728 2.684 1.631 7538
1.731 2.687 1.621 6574
1.733 2.691 1.612 5609
1.732 2.688 1.599 4482
1.773 2.753 1.622 3765
1.771 2.750 1.609 3583
1.774 2.754 1.600 3416
1.776 2.757 1.590 3416
1.778 2.761 1.580 1708
0.835 1.297 0.821 251
0.365 0.565 1.703 7617
0.368 0.569 1.701 7747
0.366 0.568 1.684 8194
0.371 0.574 1.689 12627
0.373 0.578 1.687 17238
0.376 0.582 1.685 17238
0.378 0.585 1.683 20961
0.379 0.586 1.674 24758
0.381 0.590 1.672 24579
0.383 0.594 1.670 24399
0.386 0.598 1.667 22337
0.388 0.601 1.665 20274
0.391 0.605 1.663 18402
0.393 0.609 1.661 16530
0.395 0.612 1.659 15144
0.398 0.616 1.657 12654
0.400 0.620 1.654 11549
0.403 0.623 1.652 8583
0.407 0.630 1.657 5639
0.407 0.631 1.648 6974
0.410 0.635 1.645 8330
0.414 0.641 1.650 7568
0.418 0.648 1.655 6943
0.421 0.652 1.653 5405
0.443 0.687 1.720 5891
0.448 0.694 1.725 7866
0.450 0.698 1.722 10083
0.455 0.705 1.727 11245
0.460 0.712 1.731 12848
0.464 0.719 1.735 12465
0.469 0.726 1.740 12632
0.471 0.730 1.737 10440
0.474 0.734 1.735 7226
0.478 0.741 1.739 6584
0.483 0.748 1.743 7382
0.483 0.749 1.733 7642
0.484 0.749 1.724 11538
0.486 0.753 1.721 15607
0.487 0.754 1.712 16780
0.487 0.754 1.702 16632
0.489 0.758 1.700 14793
0.494 0.765 1.704 15011
0.499 0.772 1.708 16131
0.503 0.780 1.712 12933
0.510 0.790 1.722 11264
0.515 0.798 1.726 13057
0.518 0.802 1.724 11259
0.520 0.805 1.721 9176
0.525 0.813 1.725 9143
0.527 0.817 1.722 11975
0.532 0.824 1.725 13332
0.537 0.832 1.729 13707
0.539 0.835 1.726 13405
0.542 0.839 1.723 12516
0.544 0.843 1.720 13720
0.545 0.843 1.711 21089
0.547 0.847 1.708 31994
0.550 0.851 1.705 35616
0.554 0.858 1.708 33232
0.559 0.866 1.712 23664
0.564 0.874 1.715 15623
0.562 0.870 1.699 12510
0.559 0.866 1.683 12030
0.559 0.866 1.673 15133
0.562 0.870 1.670 22069
0.567 0.877 1.674 26858
0.572 0.885 1.677 39055
0.576 0.893 1.680 53384
0.576 0.893 1.671 50374
0.579 0.896 1.667 40489
0.581 0.900 1.664 33542
0.584 0.904 1.661 28504
0.588 0.911 1.664 20980
0.604 0.935 1.693 17132
0.609 0.942 1.696 22366
0.608 0.942 1.686 22401
0.613 0.950 1.689 19243
0.616 0.954 1.686 19414
0.618 0.958 1.682 20776
0.623 0.965 1.685 15273
0.634 0.981 1.701 10764
0.636 0.985 1.697 13390
0.633 0.981 1.681 15520
0.638 0.989 1.684 17141
0.641 0.992 1.681 16361
0.646 1.000 1.683 8834
0.648 1.004 1.680 5694
0.653 1.012 1.682 10737
0.659 1.020 1.685 12651
0.669 1.036 1.700 12505
0.674 1.044 1.702 16687
0.677 1.048 1.699 16891
0.679 1.052 1.695 16595
0.684 1.060 1.697 19462
0.690 1.068 1.700 16258
0.692 1.072 1.696 14373
0.694 1.075 1.692 14473
0.697 1.079 1.688 10122
0.708 1.096 1.702 9575
0.707 1.095 1.692 13447
0.710 1.099 1.689 13934
0.721 1.116 1.703 14861
0.723 1.120 1.699 20294
0.728 1.128 1.701 25677
0.734 1.136 1.703 28114
0.739 1.144 1.705 25296
0.744 1.153 1.706 19252
0.750 1.161 1.708 9539
0.752 1.165 1.704 3938
0.749 1.160 1.688 5800
0.754 1.168 1.690 6881
0.759 1.176 1.692 6102
0.768 1.189 1.699 6451
0.767 1.188 1.689 5065
0.758 1.174 1.662 3347
0.778 1.205 1.692 3765
0.786 1.218 1.699 5057
0.786 1.217 1.689 5190
0.785 1.216 1.679 4611
0.797 1.234 1.692 9602
0.799 1.238 1.688 20809
0.802 1.241 1.684 20168
0.807 1.250 1.685 16484
0.812 1.258 1.686 18165
0.818 1.267 1.687 21422
0.823 1.275 1.688 26644
0.826 1.279 1.684 21218
0.828 1.283 1.679 22696
0.834 1.291 1.680 20040
0.845 1.309 1.692 12062
0.842 1.303 1.677 10291
0.856 1.326 1.694 18736
0.859 1.330 1.689 22688
0.858 1.329 1.679 12096
0.873 1.352 1.696 11945
0.876 1.356 1.692 10577
0.818 1.268 1.584 4723
0.893 1.383 1.704 6247
0.895 1.387 1.699 9941
0.901 1.395 1.699 11417
0.904 1.399 1.694 8599
0.836 1.295 1.572 9090
0.838 1.298 1.567 8600
0.841 1.302 1.563 6776
0.843 1.305 1.558 5348
0.922 1.428 1.680 4770
0.928 1.437 1.680 7157
0.933 1.445 1.680 7848
0.933 1.444 1.670 9198
0.935 1.448 1.665 9920
0.937 1.452 1.660 6759
0.946 1.465 1.665 5421
0.945 1.464 1.655 5654
0.948 1.468 1.650 8280
0.950 1.471 1.644 11441
0.959 1.485 1.649 11703
0.965 1.494 1.649 11044
0.977 1.513 1.659 9698
0.983 1.522 1.659 11796
0.985 1.526 1.654 19836
0.988 1.529 1.648 22099
0.993 1.538 1.648 15706
0.999 1.547 1.647 11653
0.998 1.545 1.637 10411
1.004 1.554 1.636 14170
1.006 1.558 1.631 17481
1.012 1.567 1.630 15184
1.021 1.581 1.635 14095
1.027 1.590 1.634 14382
1.032 1.599 1.633 12679
1.038 1.608 1.632 8305
1.088 1.685 1.694 7929
1.036 1.604 1.611 11167
1.038 1.608 1.606 9784
1.102 1.707 1.685 10145
1.105 1.711 1.679 11671
1.107 1.715 1.673 9000
1.120 1.735 1.681 7711
1.133 1.755 1.689 9500
1.139 1.764 1.688 7356
1.141 1.767 1.682 6336
1.151 1.782 1.685 8126
1.153 1.786 1.678 9834
1.156 1.790 1.672 10116
1.158 1.793 1.666 8336
1.189 1.841 1.696 9201
1.191 1.844 1.689 8184
1.193 1.848 1.683 6564
1.196 1.852 1.676 8383
1.198 1.856 1.670 10006
1.208 1.870 1.672 11363
1.210 1.874 1.666 13547
1.213 1.878 1.659 16438
1.219 1.887 1.657 19581
1.232 1.907 1.663 29303
1.234 1.911 1.657 36270
1.236 1.915 1.650 36178
1.235 1.913 1.639 30658
1.234 1.911 1.628 23053
1.236 1.915 1.621 20308
1.239 1.918 1.614 21427
1.241 1.922 1.608 21690
1.243 1.925 1.601 20834
1.249 1.934 1.598 22074
1.251 1.938 1.592 20303
1.257 1.947 1.589 17352
1.260 1.951 1.582 13630
1.299 2.011 1.616 12656
1.308 2.026 1.617 14799
1.314 2.035 1.614 11357
1.372 2.125 1.668 10715
1.374 2.128 1.661 12680
1.377 2.132 1.653 12928
1.379 2.136 1.646 13176
1.382 2.139 1.638 11602
1.380 2.137 1.627 7654
1.379 2.135 1.615 5522
1.400 2.168 1.627 4584
1.410 2.183 1.628 4735
1.419 2.198 1.628 4238
1.429 2.213 1.628 4247
1.469 2.275 1.658 5195
1.483 2.296 1.662 4066
1.508 2.335 1.676 4040
1.506 2.333 1.664 3826
1.509 2.337 1.656 3622
1.504 2.329 1.641 3213
1.487 2.303 1.614 3564
1.497 2.318 1.613 4813
1.499 2.322 1.605 6168
1.521 2.355 1.615 6113
1.534 2.376 1.618 8102
1.537 2.380 1.609 6918
1.543 2.389 1.605 5740
1.545 2.393 1.596 5402
1.551 2.402 1.591 5157
1.619 2.507 1.643 4840
1.621 2.511 1.634 5298
1.624 2.514 1.625 5151
1.630 2.524 1.620 4995
1.636 2.534 1.615 4083
1.662 2.573 1.626 3603
1.738 2.691 1.682 4984
1.740 2.695 1.672 7174
1.735 2.686 1.656 7128
1.729 2.678 1.640 7786
1.732 2.682 1.631 7786
1.734 2.685 1.621 6806
1.736 2.689 1.612 5827
1.735 2.686 1.599 4657
1.733 2.684 1.587 3716
1.735 2.687 1.577 3668
1.777 2.752 1.600 3377
1.779 2.755 1.590 3377
1.781 2.759 1.580 1688
0.837 1.296 0.821 248
0.367 0.564 1.703 7479
0.370 0.568 1.701 8256
0.369 0.566 1.684 9596
0.371 0.570 1.682 13806
0.375 0.576 1.687 18198
0.378 0.580 1.685 18198
0.380 0.584 1.683 21443
0.381 0.585 1.674 24828
0.383 0.588 1.672 24695
0.386 0.592 1.670 24561
0.388 0.596 1.667 22855
0.391 0.600 1.665 21149
0.393 0.603 1.663 19760
0.396 0.607 1.661 18372
0.398 0.611 1.659 16960
0.400 0.614 1.657 14704
0.403 0.618 1.654 13859
0.405 0.622 1.652 10123
0.408 0.625 1.650 6386
0.410 0.629 1.648 6759
0.412 0.633 1.645 7133
0.417 0.640 1.650 6485
0.419 0.643 1.648 5972
0.421 0.647 1.646 5096
0.446 0.685 1.720 5517
0.451 0.692 1.725 7784
0.453 0.696 1.722 10179
0.458 0.703 1.727 11123
0.462 0.710 1.731 12562
0.467 0.717 1.735 12295
0.472 0.724 1.740 12533
0.474 0.728 1.737 10662
0.477 0.732 1.735 6978
0.484 0.742 1.746 5579
0.486 0.746 1.743 6868
0.489 0.750 1.740 7580
0.489 0.751 1.731 10352
0.489 0.751 1.721 13317
0.490 0.752 1.712 14289
0.490 0.752 1.702 13719
0.492 0.756 1.700 11800
0.497 0.763 1.704 13182
0.502 0.770 1.708 15109
0.504 0.774 1.705 12739
0.509 0.781 1.709 10880
0.516 0.792 1.720 11854
0.519 0.796 1.717 10146
0.523 0.803 1.721 8119
0.528 0.811 1.725 7914
0.531 0.814 1.722 10341
0.536 0.822 1.725 11188
0.540 0.829 1.729 11260
0.545 0.837 1.733 11309
0.545 0.837 1.723 11098
0.548 0.841 1.720 12821
0.548 0.841 1.711 20504
0.551 0.845 1.708 32054
0.555 0.852 1.711 36191
0.558 0.856 1.708 33789
0.563 0.864 1.712 23961
0.565 0.868 1.709 15052
0.565 0.868 1.699 11610
0.563 0.864 1.683 11992
0.563 0.864 1.673 14493
0.568 0.871 1.677 20017
0.570 0.875 1.674 24449
0.575 0.883 1.677 37523
0.580 0.890 1.680 53059
0.580 0.890 1.671 50610
0.582 0.894 1.667 40037
0.585 0.898 1.664 32241
0.587 0.901 1.661 27684
0.590 0.905 1.658 21041
0.607 0.932 1.693 16204
0.612 0.940 1.696 19849
0.612 0.940 1.686 19371
0.615 0.944 1.683 17252
0.620 0.951 1.686 18232
0.622 0.955 1.682 20559
0.627 0.963 1.685 15877
0.638 0.979 1.701 9956
0.640 0.982 1.697 10629
0.637 0.978 1.681 13723
0.642 0.986 1.684 16383
0.648 0.994 1.687 15334
0.650 0.998 1.683 8378
0.652 1.001 1.680 6452
0.658 1.009 1.682 11212
0.665 1.021 1.691 12478
0.673 1.033 1.700 13200
0.676 1.037 1.696 18216
0.681 1.045 1.699 19297
0.683 1.049 1.695 19107
0.689 1.057 1.697 21710
0.694 1.065 1.700 17639
0.696 1.069 1.696 13207
0.696 1.068 1.686 11438
0.701 1.076 1.688 7352
0.709 1.089 1.696 9236
0.712 1.092 1.692 14715
0.717 1.101 1.695 13870
0.725 1.113 1.703 14702
0.728 1.117 1.699 20416
0.733 1.125 1.701 26132
0.738 1.133 1.703 29977
0.744 1.141 1.705 28425
0.749 1.150 1.706 22275
0.752 1.153 1.702 11246
0.748 1.148 1.686 5133
0.751 1.152 1.682 7454
0.756 1.160 1.684 7466
0.761 1.169 1.686 5497
0.776 1.190 1.705 6978
0.775 1.190 1.695 6617
0.766 1.175 1.668 4322
0.780 1.197 1.687 4957
0.788 1.210 1.694 5936
0.791 1.214 1.689 5043
0.790 1.213 1.679 4564
0.802 1.231 1.692 9001
0.804 1.234 1.688 18948
0.807 1.238 1.684 19306
0.812 1.246 1.685 15862
0.815 1.250 1.680 16141
0.823 1.263 1.687 22314
0.829 1.272 1.688 29559
0.831 1.276 1.684 22725
0.834 1.279 1.679 20749
0.836 1.283 1.675 15703
0.841 1.292 1.676 7795
0.847 1.300 1.677 8159
0.862 1.323 1.694 17994
0.864 1.327 1.689 21841
0.873 1.340 1.696 11418
0.879 1.349 1.696 9237
0.878 1.347 1.686 7688
0.824 1.264 1.584 4913
0.899 1.379 1.704 6854
0.904 1.388 1.704 11508
0.907 1.392 1.699 14513
0.909 1.396 1.694 13233
0.912 1.399 1.689 9326
0.844 1.295 1.567 7607
0.929 1.427 1.701 6352
0.932 1.430 1.696 5017
0.931 1.429 1.685 5425
0.934 1.433 1.680 7745
0.936 1.437 1.675 6992
0.932 1.430 1.660 6122
0.938 1.439 1.660 7707
0.943 1.448 1.660 6486
0.942 1.446 1.650 5194
0.951 1.460 1.655 6146
0.954 1.464 1.650 8691
0.956 1.468 1.644 12372
0.962 1.476 1.644 13936
0.968 1.485 1.644 11992
0.983 1.509 1.659 7698
0.989 1.518 1.659 9940
0.991 1.522 1.654 17357
0.994 1.525 1.648 18253
1.003 1.539 1.653 12460
1.005 1.543 1.647 9563
1.008 1.547 1.642 9274
1.010 1.550 1.636 13472
1.012 1.554 1.631 16026
1.018 1.563 1.630 13288
1.027 1.577 1.635 12600
1.033 1.586 1.634 15416
1.039 1.595 1.633 14682
1.041 1.598 1.627 9231
1.099 1.686 1.699 9779
1.043 1.600 1.611 11221
1.045 1.604 1.606 9133
1.113 1.708 1.690 10488
1.112 1.707 1.679 12719
1.114 1.710 1.673 9940
1.127 1.730 1.681 8356
1.137 1.744 1.685 9941
1.143 1.754 1.683 7514
1.152 1.768 1.686 7035
1.158 1.777 1.685 9539
1.160 1.781 1.678 11550
1.163 1.785 1.672 11738
1.165 1.788 1.666 9125
1.185 1.819 1.682 7999
1.195 1.834 1.685 6859
1.201 1.843 1.683 5346
1.203 1.847 1.676 7222
1.206 1.851 1.670 9558
1.212 1.860 1.668 11170
1.218 1.869 1.666 13049
1.220 1.873 1.659 15771
1.230 1.888 1.661 19415
1.239 1.902 1.663 30474
1.242 1.906 1.657 37987
1.244 1.910 1.650 37654
1.243 1.908 1.639 30938
1.242 1.906 1.628 22437
1.244 1.909 1.621 19380
1.246 1.913 1.614 20018
1.249 1.917 1.608 20346
1.255 1.926 1.605 20041
1.257 1.929 1.598 21358
1.259 1.933 1.592 19822
1.265 1.942 1.589 17032
1.264 1.940 1.578 13313
1.307 2.006 1.616 10462
1.320 2.026 1.622 12750
1.323 2.030 1.614 10082
1.381 2.119 1.668 9778
1.387 2.128 1.665 10947
1.385 2.126 1.653 11128
1.388 2.130 1.646 11379
1.390 2.134 1.638 10303
1.389 2.132 1.627 6455
1.384 2.124 1.611 4304
1.409 2.162 1.627 4256
1.411 2.166 1.620 4763
1.421 2.181 1.620 3681
1.487 2.283 1.678 3372
1.486 2.281 1.666 4374
1.504 2.308 1.673 3832
1.514 2.323 1.673 4357
1.520 2.333 1.668 3909
1.522 2.336 1.660 3501
1.517 2.328 1.644 2883
1.500 2.303 1.618 3488
1.506 2.312 1.613 5010
1.513 2.322 1.609 6653
1.530 2.349 1.615 6911
1.540 2.364 1.614 8732
1.543 2.368 1.606 7346
1.549 2.377 1.601 5998
1.555 2.387 1.596 5679
1.557 2.390 1.588 5451
1.629 2.500 1.643 4747
1.632 2.504 1.634 4981
1.634 2.508 1.625 4833
1.640 2.517 1.620 4672
1.646 2.527 1.615 3993
1.657 2.542 1.613 3457
1.745 2.678 1.678 4746
1.747 2.682 1.669 6892
1.742 2.673 1.653 7219
1.736 2.665 1.637 8171
1.739 2.668 1.627 8171
1.745 2.678 1.621 7128
1.747 2.682 1.612 6135
1.746 2.679 1.599 4923
1.744 2.677 1.587 3911
1.746 2.680 1.577 3853
1.788 2.744 1.600 3233
1.790 2.748 1.590 3233
1.793 2.751 1.580 1616
0.842 1.292 0.821 241
0.369 0.563 1.703 8468
0.369 0.564 1.693 9844
0.370 0.565 1.684 11650
0.373 0.569 1.682 15222
0.377 0.575 1.687 18837
0.379 0.579 1.685 18837
0.380 0.580 1.676 21372
0.382 0.584 1.674 23951
0.385 0.588 1.672 23894
0.387 0.591 1.670 23837
0.390 0.595 1.667 22685
0.392 0.599 1.665 21533
0.395 0.602 1.663 20504
0.397 0.606 1.661 19476
0.399 0.610 1.659 18127
0.402 0.614 1.657 16302
0.404 0.617 1.654 15825
0.407 0.621 1.652 11778
0.411 0.628 1.657 7733
0.411 0.628 1.648 6886
0.412 0.629 1.638 6085
0.416 0.636 1.643 5825
0.419 0.639 1.641 5610
0.421 0.643 1.639 5205
0.450 0.687 1.727 5467
0.452 0.691 1.725 7756
0.457 0.698 1.729 10161
0.462 0.705 1.734 10942
0.464 0.709 1.731 12165
0.469 0.716 1.735 11694
0.473 0.723 1.740 11794
0.476 0.727 1.737 10288
0.479 0.731 1.735 7062
0.481 0.735 1.732 5528
0.486 0.742 1.736 6939
0.488 0.746 1.733 8057
0.491 0.749 1.731 9708
0.493 0.753 1.728 11358
0.494 0.754 1.719 11521
0.494 0.754 1.709 10223
0.492 0.751 1.693 8332
0.501 0.765 1.710 10810
0.504 0.769 1.708 13440
0.506 0.773 1.705 12212
0.509 0.777 1.702 11038
0.513 0.784 1.706 11362
0.520 0.795 1.717 9493
0.525 0.802 1.721 6999
0.530 0.809 1.725 6369
0.533 0.813 1.722 8187
0.537 0.821 1.725 8717
0.545 0.832 1.736 8851
0.547 0.836 1.733 9705
0.547 0.836 1.723 10256
0.550 0.840 1.720 12320
0.552 0.843 1.717 20064
0.552 0.844 1.708 31504
0.557 0.851 1.711 35853
0.560 0.855 1.708 33285
0.562 0.859 1.705 23886
0.567 0.866 1.709 15178
0.565 0.863 1.692 12320
0.565 0.863 1.683 13131
0.567 0.866 1.680 14881
0.572 0.874 1.683 18985
0.575 0.878 1.680 22934
0.580 0.885 1.683 35825
0.582 0.889 1.680 51686
0.585 0.893 1.677 49674
0.584 0.893 1.667 37982
0.587 0.896 1.664 29556
0.589 0.900 1.661 25739
0.592 0.904 1.658 20452
0.607 0.927 1.686 15174
0.617 0.942 1.702 17105
0.615 0.938 1.686 16183
0.617 0.942 1.683 15215
0.622 0.950 1.686 16810
0.624 0.954 1.682 19583
0.630 0.961 1.685 15352
0.640 0.977 1.701 9364
0.645 0.985 1.704 8845
0.640 0.977 1.681 12131
0.645 0.984 1.684 15720
0.650 0.992 1.687 14356
0.652 0.996 1.683 8015
0.655 1.000 1.680 7100
0.663 1.012 1.689 11686
0.670 1.024 1.697 12892
0.676 1.032 1.700 14038
0.678 1.036 1.696 19221
0.683 1.044 1.699 21185
0.686 1.047 1.695 21589
0.691 1.055 1.697 23648
0.696 1.063 1.700 18817
0.699 1.067 1.696 12253
0.699 1.067 1.686 9324
0.701 1.070 1.682 6667
0.709 1.083 1.690 10011
0.714 1.091 1.692 15736
0.720 1.099 1.695 13467
0.728 1.111 1.703 14450
0.730 1.115 1.699 20327
0.736 1.123 1.701 26093
0.741 1.131 1.703 31421
0.746 1.140 1.705 31767
0.752 1.148 1.706 25828
0.754 1.152 1.702 13877
0.748 1.142 1.681 7515
0.750 1.146 1.677 9632
0.756 1.154 1.678 8339
0.761 1.162 1.680 5407
0.778 1.189 1.705 7719
0.778 1.188 1.695 8716
0.777 1.187 1.685 5588
0.783 1.195 1.687 6675
0.788 1.204 1.688 7638
0.788 1.203 1.678 5306
0.793 1.211 1.679 4184
0.805 1.229 1.692 8546
0.807 1.232 1.688 16702
0.813 1.241 1.689 17205
0.812 1.240 1.679 13324
0.818 1.248 1.680 11697
0.826 1.261 1.687 21711
0.832 1.270 1.688 31410
0.834 1.274 1.684 25353
0.833 1.273 1.674 21006
0.836 1.276 1.669 14307
0.841 1.285 1.670 8088
0.863 1.317 1.699 9494
0.865 1.321 1.694 16960
0.871 1.329 1.695 20592
0.876 1.338 1.696 12580
0.882 1.346 1.696 7560
0.884 1.350 1.692 6188
0.890 1.359 1.692 6678
0.902 1.377 1.704 10147
0.908 1.386 1.704 13436
0.910 1.390 1.699 17583
0.913 1.393 1.694 18380
0.915 1.397 1.689 12685
0.924 1.411 1.695 7811
0.933 1.424 1.701 7295
0.935 1.428 1.696 6740
0.934 1.427 1.685 6293
0.937 1.431 1.680 8008
0.939 1.434 1.675 7018
0.903 1.378 1.608 6112
0.908 1.387 1.608 7623
0.914 1.395 1.608 7054
0.946 1.444 1.650 4976
0.955 1.458 1.655 7416
0.957 1.462 1.650 9630
0.960 1.465 1.644 12901
0.965 1.474 1.644 15408
0.971 1.483 1.644 12897
0.973 1.486 1.639 6329
1.003 1.531 1.674 7900
0.995 1.519 1.654 14452
0.994 1.518 1.643 14593
1.003 1.532 1.648 9282
1.009 1.541 1.647 7549
1.015 1.549 1.647 7724
1.017 1.553 1.641 11463
1.016 1.551 1.631 13697
1.022 1.560 1.630 11151
1.034 1.580 1.639 11179
1.040 1.588 1.639 16165
1.046 1.597 1.638 16151
1.045 1.596 1.627 9717
1.103 1.684 1.699 11487
1.050 1.603 1.616 11325
1.052 1.606 1.610 8359
1.117 1.705 1.690 10852
1.119 1.709 1.684 13940
1.118 1.708 1.673 10903
1.131 1.727 1.681 8984
1.141 1.742 1.685 10349
1.147 1.751 1.683 7695
1.156 1.765 1.686 7858
1.162 1.775 1.685 11121
1.165 1.778 1.678 13413
1.167 1.782 1.672 13142
1.169 1.786 1.666 9254
1.175 1.795 1.664 7123
1.199 1.831 1.685 5430
1.205 1.840 1.683 4281
1.204 1.839 1.672 6344
1.210 1.848 1.670 9248
1.216 1.857 1.668 10742
1.222 1.866 1.666 11723
1.228 1.875 1.663 14230
1.234 1.885 1.661 18715
1.244 1.899 1.663 30626
1.246 1.903 1.657 38369
1.249 1.907 1.650 37857
1.247 1.905 1.639 30048
1.246 1.903 1.628 20541
1.249 1.907 1.621 17154
1.251 1.910 1.614 17467
1.253 1.914 1.608 18010
1.259 1.923 1.605 18354
1.262 1.926 1.598 19618
1.264 1.930 1.592 18263
1.270 1.939 1.589 15699
1.269 1.937 1.578 12195
1.326 2.025 1.633 8945
1.332 2.035 1.630 11344
1.368 2.089 1.659 10180
1.382 2.110 1.664 8792
1.392 2.125 1.665 9253
1.394 2.129 1.657 9362
1.393 2.127 1.646 9633
1.395 2.130 1.638 9215
1.394 2.128 1.627 6354
1.389 2.120 1.611 4395
1.395 2.130 1.608 5018
1.401 2.139 1.604 5755
1.399 2.137 1.593 4529
1.398 2.135 1.581 3385
1.499 2.289 1.673 3786
1.513 2.310 1.677 4019
1.519 2.319 1.673 4795
1.521 2.323 1.664 4116
1.528 2.333 1.660 3504
1.511 2.307 1.633 2882
1.598 2.440 1.707 3649
1.516 2.314 1.617 4946
1.522 2.324 1.612 6918
1.536 2.345 1.615 7447
1.546 2.360 1.614 9044
1.544 2.358 1.602 7540
1.547 2.362 1.594 6048
1.557 2.377 1.593 5728
1.563 2.386 1.588 5498
1.565 2.390 1.579 4684
1.634 2.494 1.631 4686
1.640 2.504 1.625 4501
1.646 2.513 1.620 4399
1.656 2.529 1.618 3950
1.662 2.539 1.613 3641
1.747 2.668 1.675 4515
1.750 2.671 1.666 6524
1.744 2.663 1.649 7131
1.743 2.661 1.637 8203
1.745 2.664 1.627 8203
1.747 2.668 1.618 7148
1.754 2.678 1.612 6145
1.752 2.675 1.599 4970
1.750 2.673 1.587 3956
1.753 2.676 1.577 3888
1.866 2.849 1.657 3636
1.868 2.853 1.647 3636
1.871 2.857 1.637 1818
0.845 1.290 0.821 210
0.370 0.562 1.703 8918
0.371 0.563 1.693 10661
0.371 0.564 1.684 12804
0.374 0.568 1.682 16088
0.378 0.575 1.687 19415
0.381 0.578 1.685 19415
0.381 0.579 1.676 21323
0.384 0.583 1.674 23274
0.386 0.587 1.672 23066
0.389 0.590 1.670 22857
0.391 0.594 1.667 22097
0.393 0.598 1.665 21337
0.396 0.602 1.663 20864
0.398 0.605 1.661 20391
0.401 0.609 1.659 19104
0.405 0.616 1.664 17692
0.406 0.616 1.654 17502
0.408 0.620 1.652 13254
0.412 0.627 1.657 9012
0.413 0.627 1.648 7243
0.413 0.628 1.638 5609
0.418 0.635 1.643 5780
0.420 0.638 1.641 6080
0.422 0.642 1.639 5407
0.449 0.683 1.720 6385
0.456 0.693 1.732 8220
0.459 0.697 1.729 10326
0.463 0.704 1.734 10831
0.466 0.708 1.731 11699
0.470 0.715 1.735 11052
0.475 0.722 1.740 11029
0.478 0.726 1.737 9910
0.478 0.726 1.728 7436
0.481 0.730 1.725 6164
0.485 0.737 1.729 7675
0.488 0.741 1.727 9097
0.492 0.748 1.731 9684
0.495 0.752 1.728 10529
0.498 0.756 1.725 9666
0.498 0.756 1.716 7283
0.503 0.764 1.720 5565
0.503 0.764 1.710 8530
0.505 0.768 1.708 11573
0.506 0.768 1.698 11583
0.510 0.776 1.702 11565
0.515 0.783 1.706 11695
0.520 0.790 1.710 9416
0.527 0.801 1.721 5976
0.532 0.808 1.725 4755
0.537 0.816 1.728 5993
0.539 0.819 1.725 6406
0.546 0.830 1.736 6624
0.549 0.834 1.733 8652
0.552 0.838 1.730 10135
0.554 0.842 1.727 12269
0.554 0.842 1.717 19812
0.554 0.842 1.708 30871
0.559 0.850 1.711 35181
0.562 0.854 1.708 32267
0.564 0.857 1.705 23175
0.567 0.861 1.702 15415
0.567 0.861 1.692 13503
0.567 0.861 1.683 14167
0.572 0.869 1.686 15404
0.574 0.873 1.683 18825
0.577 0.876 1.680 21970
0.582 0.884 1.683 34347
0.584 0.888 1.680 50064
0.587 0.891 1.677 48215
0.587 0.891 1.667 35167
0.589 0.895 1.664 26333
0.591 0.899 1.661 23294
0.594 0.902 1.658 19511
0.607 0.922 1.680 14440
0.619 0.941 1.702 14775
0.617 0.937 1.686 13024
0.619 0.941 1.683 12446
0.622 0.944 1.680 14421
0.627 0.952 1.682 17432
0.632 0.960 1.685 13837
0.645 0.980 1.707 8721
0.647 0.984 1.704 7906
0.642 0.975 1.681 11758
0.647 0.983 1.684 15653
0.649 0.987 1.681 13568
0.652 0.990 1.677 7764
0.657 0.998 1.680 7574
0.665 1.010 1.689 12207
0.673 1.022 1.697 13500
0.678 1.030 1.700 14489
0.680 1.034 1.696 19384
0.686 1.042 1.699 22189
0.691 1.050 1.701 23472
0.696 1.058 1.703 25180
0.699 1.062 1.700 19749
0.701 1.066 1.696 11587
0.698 1.061 1.680 8232
0.701 1.065 1.676 7541
0.711 1.081 1.690 11172
0.717 1.089 1.692 16201
0.722 1.097 1.695 12750
0.730 1.110 1.703 13972
0.733 1.113 1.699 19628
0.738 1.122 1.701 25496
0.744 1.130 1.703 32548
0.749 1.138 1.705 33914
0.751 1.142 1.700 28049
0.754 1.146 1.696 16514
0.751 1.140 1.681 10594
0.753 1.144 1.677 11842
0.755 1.148 1.672 9207
0.758 1.152 1.668 5818
0.778 1.182 1.699 8753
0.781 1.186 1.695 11050
0.780 1.185 1.685 7197
0.785 1.194 1.687 8167
0.788 1.197 1.682 9971
0.787 1.196 1.672 6392
0.793 1.205 1.674 3768
0.807 1.227 1.692 8513
0.813 1.235 1.694 15641
0.815 1.239 1.689 15822
0.815 1.238 1.679 11307
0.826 1.256 1.692 9590
0.829 1.260 1.687 22471
0.831 1.263 1.683 32029
0.837 1.272 1.684 28163
0.836 1.271 1.674 22502
0.839 1.274 1.669 16603
0.844 1.283 1.670 11607
0.865 1.315 1.699 12043
0.868 1.319 1.694 16409
0.874 1.327 1.695 19658
0.879 1.336 1.696 13561
0.879 1.335 1.685 6116
0.890 1.353 1.697 5297
0.896 1.362 1.698 11111
0.905 1.375 1.704 13853
0.911 1.384 1.704 15056
0.913 1.388 1.699 19862
0.916 1.391 1.694 22615
0.918 1.395 1.689 14865
0.927 1.409 1.695 7557
0.936 1.422 1.701 7780
0.938 1.426 1.696 8418
0.938 1.425 1.685 7004
0.940 1.429 1.680 7850
0.946 1.437 1.680 7670
0.906 1.376 1.608 6109
0.911 1.385 1.608 7805
0.917 1.393 1.608 7314
0.962 1.462 1.670 5936
0.961 1.461 1.660 9110
0.960 1.459 1.650 10321
0.963 1.463 1.644 13123
0.972 1.477 1.649 16359
0.974 1.481 1.644 13634
0.967 1.469 1.624 7444
0.959 1.457 1.604 7351
0.998 1.517 1.654 11373
0.997 1.516 1.643 11002
1.003 1.524 1.643 6730
1.002 1.523 1.632 6307
1.022 1.552 1.652 6659
1.017 1.546 1.636 9203
1.020 1.549 1.631 11361
1.029 1.563 1.635 9288
1.041 1.582 1.644 11217
1.044 1.586 1.639 17059
1.050 1.595 1.638 17475
1.049 1.593 1.627 10016
1.106 1.681 1.699 12501
1.060 1.611 1.626 12582
1.066 1.620 1.625 8789
1.124 1.708 1.695 10594
1.123 1.707 1.684 13727
1.122 1.705 1.673 10918
1.139 1.730 1.686 9699
1.145 1.739 1.685 10774
1.151 1.748 1.683 8180
1.157 1.757 1.682 9102
1.166 1.772 1.685 12789
1.169 1.776 1.678 14557
1.171 1.779 1.672 13581
1.173 1.783 1.666 8892
1.176 1.787 1.660 6083
1.207 1.834 1.689 4763
1.209 1.838 1.683 4891
1.208 1.836 1.672 6226
1.214 1.845 1.670 8249
1.220 1.854 1.668 9155
1.230 1.869 1.670 9728
1.232 1.873 1.663 12526
1.238 1.882 1.661 17480
1.248 1.897 1.663 29633
1.251 1.900 1.657 37360
1.253 1.904 1.650 36725
1.252 1.902 1.639 28255
1.250 1.900 1.628 17940
1.253 1.904 1.621 14126
1.255 1.907 1.614 14367
1.258 1.911 1.608 15392
1.264 1.920 1.605 16396
1.266 1.924 1.598 17586
1.268 1.927 1.592 16333
1.274 1.936 1.589 13976
1.273 1.934 1.578 10756
1.368 2.079 1.674 8413
1.367 2.077 1.662 11070
1.373 2.086 1.659 10593
1.383 2.101 1.660 8573
1.397 2.122 1.665 8419
1.399 2.126 1.657 8616
1.398 2.124 1.646 9182
1.400 2.127 1.638 8726
1.399 2.125 1.627 6219
1.412 2.146 1.631 4500
1.400 2.127 1.608 5321
1.406 2.136 1.604 6258
1.404 2.134 1.593 4997
1.407 2.137 1.585 3765
1.508 2.291 1.677 3375
1.518 2.307 1.677 4194
1.524 2.316 1.673 5137
1.527 2.320 1.664 4321
1.533 2.329 1.660 3506
1.516 2.304 1.633 3093
1.603 2.436 1.707 4212
1.521 2.311 1.617 4883
1.527 2.320 1.612 7138
1.541 2.342 1.615 7817
1.547 2.351 1.610 9259
1.550 2.355 1.602 7667
1.552 2.358 1.594 6074
1.562 2.373 1.593 5664
1.564 2.377 1.584 5426
1.567 2.380 1.576 4548
1.639 2.491 1.631 4513
1.642 2.494 1.622 4278
1.730 2.629 1.689 4293
1.666 2.531 1.621 3918
1.672 2.541 1.616 3802
1.753 2.664 1.675 4334
1.752 2.662 1.662 6161
1.750 2.659 1.649 6901
1.748 2.657 1.637 7957
1.751 2.660 1.627 7957
1.753 2.664 1.618 6939
1.760 2.674 1.612 5950
1.758 2.671 1.599 4864
1.875 2.850 1.684 3917
1.874 2.847 1.670 3919
1.872 2.845 1.657 4133
1.875 2.849 1.647 4133
1.877 2.852 1.637 2066
0.371 0.561 1.703 9000
0.372 0.563 1.693 10948
0.373 0.564 1.684 13335
0.375 0.567 1.682 16443
0.379 0.574 1.687 19625
0.382 0.578 1.685 19625
0.382 0.578 1.676 21007
0.385 0.582 1.674 22463
0.387 0.586 1.672 22032
0.390 0.590 1.670 21601
0.392 0.593 1.667 21175
0.395 0.597 1.665 20750
0.397 0.601 1.663 20907
0.400 0.604 1.661 21065
0.404 0.611 1.666 19890
0.406 0.615 1.664 18874
0.409 0.618 1.661 18913
0.411 0.622 1.659 14512
0.414 0.626 1.657 10111
0.414 0.626 1.648 7740
0.415 0.627 1.638 5548
0.419 0.634 1.643 5982
0.421 0.637 1.641 6562
0.424 0.641 1.639 5790
0.451 0.682 1.720 7567
0.455 0.689 1.725 9062
0.460 0.696 1.729 10908
0.465 0.703 1.734 10889
0.467 0.707 1.731 11306
0.472 0.714 1.735 10491
0.479 0.724 1.747 10405
0.479 0.725 1.737 9664
0.480 0.725 1.728 7975
0.482 0.729 1.725 6945
0.485 0.733 1.722 8812
0.485 0.734 1.713 10723
0.492 0.744 1.724 10640
0.497 0.751 1.728 10991
0.497 0.752 1.719 9116
0.502 0.759 1.723 6280
0.506 0.766 1.727 5480
0.507 0.766 1.717 7844
0.509 0.770 1.714 10222
0.510 0.771 1.705 10972
0.512 0.774 1.702 12156
0.517 0.782 1.706 12341
0.519 0.785 1.703 9867
0.526 0.796 1.714 5140
0.534 0.807 1.725 3057
0.541 0.818 1.735 3561
0.541 0.818 1.725 4200
0.546 0.826 1.729 4948
0.548 0.830 1.726 8324
0.553 0.837 1.730 10587
0.558 0.844 1.733 12852
0.556 0.841 1.717 19324
0.556 0.841 1.708 29517
0.561 0.849 1.711 33772
0.564 0.852 1.708 30877
0.566 0.856 1.705 22287
0.569 0.860 1.702 15186
0.569 0.860 1.692 13543
0.571 0.864 1.689 13781
0.576 0.871 1.693 14845
0.579 0.875 1.690 18046
0.579 0.875 1.680 20949
0.584 0.883 1.683 32428
0.586 0.886 1.680 47396
0.588 0.890 1.677 45450
0.591 0.894 1.674 31426
0.591 0.894 1.664 22429
0.593 0.897 1.661 20681
0.596 0.901 1.658 18777
0.608 0.920 1.680 14051
0.621 0.940 1.702 12585
0.619 0.936 1.686 10244
0.618 0.935 1.677 10161
0.626 0.947 1.686 12214
0.631 0.955 1.689 15341
0.636 0.963 1.692 12319
0.647 0.978 1.707 8200
0.649 0.982 1.704 7218
0.644 0.974 1.681 11768
0.649 0.982 1.684 16418
0.651 0.985 1.681 13885
0.654 0.989 1.677 8010
0.659 0.997 1.680 8117
0.670 1.013 1.695 13123
0.675 1.021 1.697 14315
0.677 1.025 1.694 14609
0.683 1.033 1.696 19114
0.688 1.041 1.699 22709
0.693 1.048 1.701 25013
0.696 1.052 1.697 26501
0.701 1.060 1.700 20507
0.704 1.064 1.696 11340
0.703 1.064 1.686 7979
0.703 1.063 1.676 8713
0.711 1.075 1.684 11762
0.719 1.088 1.692 15681
0.724 1.096 1.695 11546
0.733 1.108 1.703 13045
0.735 1.112 1.699 18217
0.741 1.120 1.701 23792
0.746 1.128 1.703 32565
0.751 1.136 1.705 36184
0.754 1.140 1.700 30542
0.756 1.144 1.696 18458
0.756 1.143 1.686 12315
0.755 1.143 1.677 13110
0.758 1.146 1.672 9590
0.760 1.150 1.668 6265
0.778 1.176 1.693 9636
0.783 1.184 1.695 13246
0.783 1.184 1.685 8942
0.788 1.192 1.687 9398
0.791 1.196 1.682 12087
0.790 1.195 1.672 7844
0.795 1.203 1.674 4474
0.807 1.221 1.687 9266
0.813 1.229 1.688 15785
0.815 1.233 1.684 15699
0.814 1.232 1.673 10872
0.832 1.259 1.697 10881
0.832 1.258 1.687 23730
0.834 1.262 1.683 32014
0.840 1.270 1.684 30030
0.839 1.269 1.674 24942
0.841 1.273 1.669 20357
0.850 1.286 1.676 15409
0.868 1.313 1.699 14817
0.871 1.317 1.694 16316
0.876 1.326 1.695 19020
0.882 1.334 1.696 14702
0.888 1.343 1.696 7177
0.903 1.366 1.713 7767
0.902 1.365 1.703 15046
0.905 1.368 1.698 17274
0.914 1.382 1.704 15783
0.916 1.386 1.699 21249
0.919 1.389 1.694 26023
0.918 1.388 1.684 16313
0.927 1.402 1.690 6791
0.939 1.420 1.701 7903
0.942 1.424 1.696 9800
0.941 1.423 1.685 7632
0.943 1.427 1.680 7588
0.952 1.440 1.686 8131
0.955 1.444 1.680 7602
0.954 1.443 1.670 9175
0.953 1.441 1.660 9128
0.965 1.460 1.670 9249
0.968 1.464 1.665 11219
0.967 1.462 1.655 10825
0.969 1.466 1.650 13259
0.975 1.475 1.649 16726
0.974 1.473 1.639 13792
0.973 1.472 1.629 8416
0.962 1.455 1.604 7089
0.961 1.454 1.593 8775
0.994 1.503 1.633 8097
1.000 1.512 1.633 4760
1.002 1.516 1.627 5564
1.032 1.560 1.662 6653
1.017 1.538 1.631 7998
1.023 1.547 1.631 9284
1.039 1.571 1.645 8284
1.052 1.591 1.654 12554
1.051 1.589 1.644 18726
1.053 1.593 1.638 19080
1.069 1.617 1.652 11228
1.110 1.679 1.699 12596
1.067 1.614 1.630 15036
1.073 1.623 1.630 10941
1.128 1.706 1.695 10636
1.130 1.710 1.689 13884
1.129 1.708 1.678 10607
1.142 1.728 1.686 8158
1.148 1.737 1.685 8842
1.158 1.751 1.688 6612
1.171 1.771 1.696 9064
1.173 1.775 1.689 13576
1.176 1.779 1.683 16073
1.175 1.777 1.672 15006
1.177 1.781 1.666 8533
1.176 1.779 1.655 5106
1.214 1.837 1.694 4950
1.217 1.841 1.687 5248
1.216 1.839 1.676 5406
1.222 1.848 1.674 7349
1.235 1.868 1.681 8563
1.256 1.899 1.697 8791
1.240 1.876 1.668 10784
1.246 1.885 1.666 16068
1.252 1.894 1.663 27734
1.255 1.898 1.657 35127
1.257 1.901 1.650 34620
1.256 1.899 1.639 26134
1.255 1.897 1.628 15010
1.257 1.901 1.621 10601
1.259 1.905 1.614 10870
1.262 1.908 1.608 12505
1.268 1.917 1.605 14242
1.270 1.921 1.598 15449
1.272 1.924 1.592 14376
1.278 1.933 1.589 12208
1.277 1.931 1.578 9259
1.376 2.082 1.678 8410
1.375 2.080 1.667 11138
1.377 2.083 1.659 10807
1.387 2.098 1.660 8552
1.405 2.125 1.669 8232
1.400 2.117 1.653 8873
1.402 2.121 1.646 9960
1.405 2.124 1.638 9407
1.411 2.134 1.635 6470
1.417 2.143 1.631 4495
1.404 2.124 1.608 4966
1.410 2.133 1.604 5880
1.409 2.131 1.593 5160
1.411 2.134 1.585 4448
1.433 2.167 1.597 4128
1.523 2.303 1.677 4283
1.525 2.307 1.669 5425
1.528 2.311 1.661 4514
1.519 2.297 1.641 3852
1.521 2.301 1.633 3285
1.608 2.432 1.707 4671
1.615 2.442 1.702 5144
1.536 2.323 1.616 7391
1.542 2.332 1.611 8051
1.552 2.348 1.610 9276
1.555 2.351 1.602 7598
1.557 2.355 1.594 5919
1.563 2.364 1.589 5549
1.569 2.374 1.584 5325
1.572 2.377 1.576 4425
1.644 2.487 1.631 4411
1.733 2.621 1.698 4318
1.736 2.625 1.689 4725
1.671 2.528 1.621 3960
1.678 2.537 1.616 4083
1.755 2.654 1.672 4168
1.753 2.652 1.659 5887
1.752 2.649 1.646 6681
1.750 2.647 1.633 7587
1.753 2.651 1.624 7587
1.759 2.660 1.618 6644
1.765 2.670 1.612 5738
1.764 2.667 1.599 4739
1.882 2.846 1.684 4064
1.880 2.843 1.670 4188
1.879 2.841 1.657 4572
1.881 2.845 1.647 4572
1.883 2.848 1.637 2286
0.372 0.561 1.703 9143
0.373 0.562 1.693 11507
0.374 0.563 1.684 14311
0.376 0.567 1.682 17215
0.380 0.573 1.687 20242
0.383 0.577 1.685 20242
0.384 0.578 1.676 20778
0.386 0.581 1.674 21437
0.388 0.585 1.672 20753
0.391 0.589 1.670 20069
0.393 0.593 1.667 20159
0.396 0.596 1.665 20249
0.398 0.600 1.663 20934
0.401 0.604 1.661 21620
0.405 0.610 1.666 20599
0.408 0.614 1.664 20097
0.410 0.618 1.661 20559
0.412 0.621 1.659 15989
0.415 0.625 1.657 11419
0.415 0.626 1.648 8507
0.416 0.626 1.638 5836
0.420 0.633 1.643 6697
0.423 0.637 1.641 7663
0.425 0.640 1.639 6698
0.452 0.681 1.720 8144
0.457 0.688 1.725 9635
0.459 0.692 1.722 11320
0.466 0.702 1.734 10638
0.471 0.709 1.738 10594
0.475 0.716 1.742 9789
0.480 0.723 1.747 9686
0.480 0.724 1.737 9195
0.481 0.724 1.728 8382
0.481 0.725 1.718 7678
0.484 0.729 1.716 10004
0.486 0.733 1.713 12329
0.491 0.740 1.717 12790
0.496 0.747 1.721 13398
0.496 0.747 1.712 10972
0.499 0.751 1.709 8870
0.503 0.758 1.713 9318
0.508 0.766 1.717 10415
0.513 0.773 1.721 11791
0.513 0.773 1.712 11930
0.516 0.777 1.709 12600
0.518 0.781 1.706 13065
0.521 0.785 1.703 10616
0.526 0.792 1.707 5204
0.533 0.803 1.718 2526
0.538 0.810 1.722 1699
0.540 0.814 1.719 2165
0.543 0.818 1.716 4614
0.548 0.825 1.720 9534
0.553 0.832 1.723 11990
0.560 0.843 1.733 14160
0.558 0.840 1.717 19374
0.558 0.840 1.708 27584
0.563 0.848 1.711 31560
0.565 0.851 1.708 28866
0.568 0.855 1.705 21389
0.570 0.859 1.702 15143
0.570 0.859 1.692 13464
0.575 0.867 1.696 13390
0.583 0.878 1.706 15097
0.580 0.874 1.690 17861
0.583 0.878 1.686 20569
0.585 0.882 1.683 29973
0.588 0.885 1.680 42757
0.590 0.889 1.677 41161
0.593 0.893 1.674 27441
0.595 0.896 1.671 18330
0.597 0.900 1.667 17796
0.600 0.904 1.664 17296
0.608 0.915 1.674 12528
0.623 0.939 1.702 10322
0.620 0.935 1.686 9409
0.620 0.934 1.677 10221
0.628 0.946 1.686 12674
0.633 0.954 1.689 15409
0.638 0.961 1.692 11785
0.649 0.977 1.707 7951
0.651 0.981 1.704 7200
0.648 0.977 1.688 12046
0.651 0.980 1.684 17438
0.653 0.984 1.681 14552
0.653 0.984 1.671 8463
0.664 1.000 1.686 8910
0.672 1.012 1.695 14394
0.677 1.020 1.697 15205
0.679 1.023 1.694 14542
0.685 1.031 1.696 18362
0.690 1.039 1.699 22896
0.692 1.043 1.695 26514
0.698 1.051 1.697 28079
0.703 1.059 1.700 21654
0.703 1.059 1.690 12021
0.705 1.062 1.686 8095
0.705 1.062 1.676 9265
0.713 1.074 1.684 12101
0.721 1.086 1.692 14611
0.726 1.094 1.695 10490
0.735 1.107 1.703 12390
0.734 1.106 1.693 16504
0.745 1.123 1.707 22133
0.751 1.131 1.709 33453
0.753 1.135 1.705 39005
0.756 1.139 1.700 32936
0.758 1.143 1.696 21091
0.758 1.142 1.686 16065
0.758 1.141 1.677 14777
0.760 1.145 1.672 9356
0.762 1.149 1.668 6901
0.780 1.175 1.693 10861
0.785 1.183 1.695 15603
0.785 1.182 1.685 11304
0.790 1.190 1.687 10527
0.790 1.190 1.677 13832
0.792 1.193 1.672 10166
0.798 1.202 1.674 7454
0.806 1.214 1.681 12168
0.812 1.223 1.682 18357
0.814 1.227 1.678 17646
0.817 1.230 1.673 11721
0.838 1.262 1.703 15528
0.834 1.256 1.687 26350
0.836 1.260 1.683 31745
0.842 1.268 1.684 31181
0.841 1.267 1.674 27739
0.844 1.271 1.669 24432
0.852 1.284 1.676 18754
0.871 1.312 1.699 17660
0.870 1.311 1.689 16924
0.879 1.324 1.695 19056
0.884 1.332 1.696 16348
0.893 1.346 1.702 11195
0.905 1.364 1.713 14095
0.908 1.368 1.708 20927
0.907 1.367 1.698 22035
0.913 1.375 1.699 16531
0.919 1.384 1.699 21570
0.921 1.388 1.694 28085
0.920 1.387 1.684 17343
0.923 1.390 1.679 6169
0.942 1.419 1.701 8324
0.944 1.422 1.696 11904
0.943 1.421 1.685 9343
0.946 1.425 1.680 7552
0.955 1.438 1.686 9123
0.954 1.437 1.675 10645
0.957 1.441 1.670 12390
0.959 1.445 1.665 13624
0.965 1.453 1.665 14560
0.971 1.462 1.665 14255
0.970 1.461 1.655 11929
0.972 1.464 1.650 14059
0.978 1.473 1.649 16833
0.980 1.477 1.644 13653
0.979 1.475 1.634 9506
0.975 1.469 1.619 6326
0.964 1.452 1.593 6824
0.973 1.466 1.598 7123
0.972 1.464 1.588 4525
0.998 1.503 1.618 5348
1.000 1.507 1.612 8327
1.010 1.521 1.617 8880
1.036 1.561 1.646 8176
1.059 1.595 1.669 11032
1.058 1.594 1.659 16201
1.057 1.592 1.648 22037
1.059 1.596 1.643 22392
1.069 1.610 1.647 14307
1.075 1.619 1.646 13378
1.074 1.617 1.635 18449
1.076 1.621 1.630 14501
1.134 1.709 1.700 10060
1.133 1.708 1.689 13523
1.136 1.711 1.683 11010
1.145 1.726 1.686 9427
1.152 1.735 1.685 9957
1.158 1.744 1.683 7606
1.171 1.764 1.691 10122
1.173 1.767 1.685 14955
1.179 1.776 1.683 17117
1.182 1.780 1.677 15832
1.181 1.778 1.666 8488
1.222 1.842 1.709 4312
1.218 1.835 1.694 6503
1.220 1.838 1.687 8118
1.219 1.837 1.676 8431
1.218 1.835 1.665 9099
1.253 1.888 1.699 10669
1.259 1.897 1.697 10919
1.247 1.879 1.672 9900
1.250 1.882 1.666 14523
1.256 1.892 1.663 25149
1.258 1.895 1.657 31982
1.261 1.899 1.650 31686
1.263 1.903 1.643 24011
1.262 1.901 1.632 12172
1.264 1.904 1.625 7089
1.318 1.986 1.678 7986
1.269 1.911 1.612 9006
1.275 1.921 1.609 11541
1.277 1.924 1.603 12709
1.280 1.928 1.596 11888
1.282 1.931 1.589 9899
1.281 1.929 1.578 7315
1.376 2.073 1.674 8284
1.379 2.077 1.667 11135
1.381 2.081 1.659 10657
1.391 2.096 1.660 8393
1.409 2.122 1.669 7901
1.404 2.115 1.653 8730
1.402 2.112 1.642 9999
1.408 2.122 1.638 9491
1.415 2.131 1.635 6421
1.421 2.140 1.631 4232
1.423 2.144 1.623 4509
1.414 2.130 1.604 4822
1.436 2.163 1.616 4736
1.453 2.189 1.624 5406
1.444 2.176 1.605 4792
1.527 2.301 1.677 4546
1.526 2.298 1.665 5892
1.520 2.291 1.649 5020
1.519 2.288 1.637 4526
1.610 2.426 1.715 3611
1.613 2.430 1.707 5216
1.615 2.433 1.698 5821
1.540 2.320 1.616 7603
1.546 2.330 1.611 8186
1.553 2.339 1.607 9109
1.559 2.348 1.602 7375
1.561 2.352 1.594 5666
1.567 2.361 1.589 5306
1.570 2.365 1.581 5051
1.647 2.481 1.639 4375
1.735 2.614 1.708 4506
1.738 2.618 1.698 4882
1.740 2.622 1.689 5257
1.743 2.626 1.680 4040
1.686 2.540 1.619 4351
1.748 2.633 1.661 4262
1.754 2.643 1.655 5789
1.753 2.640 1.643 6459
1.755 2.644 1.633 7216
1.757 2.648 1.624 7216
1.764 2.657 1.618 6261
1.770 2.667 1.612 5552
1.769 2.664 1.599 4644
1.887 2.842 1.684 4349
1.885 2.840 1.670 4647
1.884 2.838 1.657 5244
1.886 2.841 1.647 5244
1.889 2.845 1.637 2622
0.373 0.560 1.703 9016
0.374 0.561 1.693 11563
0.374 0.562 1.684 14559
0.377 0.566 1.682 17232
0.381 0.573 1.687 20087
0.384 0.576 1.685 20087
0.386 0.580 1.683 19961
0.387 0.581 1.674 19900
0.389 0.585 1.672 18885
0.392 0.588 1.670 17870
0.394 0.592 1.667 18303
0.397 0.596 1.665 18737
0.399 0.599 1.663 19842
0.402 0.603 1.661 20947
0.406 0.610 1.666 20098
0.408 0.613 1.664 20178
0.411 0.617 1.661 21075
0.413 0.621 1.659 16540
0.416 0.624 1.657 12004
0.416 0.625 1.648 8875
0.419 0.629 1.645 5905
0.421 0.632 1.643 7110
0.423 0.636 1.641 8315
0.426 0.640 1.639 7192
0.453 0.680 1.720 8436
0.458 0.687 1.725 9899
0.460 0.691 1.722 11611
0.465 0.698 1.727 10354
0.472 0.708 1.738 9723
0.476 0.715 1.742 8942
0.481 0.723 1.747 8693
0.481 0.723 1.737 8254
0.480 0.721 1.721 8006
0.478 0.718 1.704 8100
0.485 0.728 1.716 10341
0.489 0.735 1.720 12819
0.492 0.739 1.717 14069
0.495 0.743 1.714 15319
0.497 0.747 1.712 13060
0.497 0.747 1.702 11782
0.502 0.754 1.706 12639
0.507 0.761 1.710 13573
0.512 0.769 1.714 14997
0.514 0.772 1.712 14289
0.517 0.776 1.709 13464
0.519 0.780 1.706 13347
0.522 0.784 1.703 11085
0.527 0.791 1.707 6227
0.534 0.802 1.718 4038
0.534 0.802 1.708 3635
0.539 0.809 1.712 4049
0.544 0.817 1.716 6192
0.549 0.824 1.720 11009
0.554 0.832 1.723 13106
0.559 0.839 1.727 15030
0.559 0.839 1.717 19469
0.559 0.839 1.708 25941
0.564 0.847 1.711 29521
0.566 0.851 1.708 26778
0.569 0.854 1.705 19799
0.571 0.858 1.702 14333
0.574 0.862 1.699 12984
0.579 0.869 1.702 13333
0.586 0.881 1.712 16494
0.586 0.881 1.703 19212
0.584 0.877 1.686 20739
0.586 0.881 1.683 27484
0.589 0.884 1.680 37232
0.591 0.888 1.677 35777
0.596 0.896 1.680 23413
0.599 0.899 1.677 15268
0.599 0.899 1.667 15607
0.601 0.903 1.664 15995
0.609 0.914 1.674 11101
0.622 0.934 1.696 8812
0.619 0.930 1.680 8971
0.619 0.930 1.670 10403
0.629 0.945 1.686 13156
0.632 0.949 1.682 15614
0.637 0.957 1.685 11585
0.647 0.972 1.701 7378
0.644 0.968 1.685 7100
0.650 0.976 1.688 12099
0.655 0.984 1.690 17707
0.655 0.983 1.681 14594
0.654 0.983 1.671 8660
0.665 0.999 1.686 9677
0.673 1.011 1.695 15170
0.678 1.019 1.697 15468
0.681 1.022 1.694 13798
0.686 1.030 1.696 16508
0.691 1.038 1.699 21460
0.694 1.042 1.695 26345
0.699 1.050 1.697 28057
0.704 1.058 1.700 21948
0.704 1.058 1.690 12939
0.707 1.061 1.686 8393
0.709 1.065 1.682 9343
0.714 1.073 1.684 11534
0.723 1.085 1.692 12883
0.731 1.098 1.701 9660
0.736 1.106 1.703 11991
0.736 1.105 1.693 15024
0.747 1.122 1.707 19920
0.752 1.130 1.709 31913
0.755 1.134 1.705 38696
0.757 1.138 1.700 34695
0.760 1.142 1.696 24782
0.759 1.141 1.686 19737
0.762 1.145 1.682 15119
0.761 1.144 1.672 8458
0.767 1.152 1.674 7935
0.778 1.169 1.688 11963
0.784 1.177 1.689 16672
0.786 1.181 1.685 12957
0.789 1.185 1.681 10956
0.791 1.189 1.677 13967
0.794 1.192 1.672 11786
0.799 1.201 1.674 10161
0.805 1.209 1.675 14400
0.810 1.217 1.677 20779
0.813 1.221 1.672 20339
0.818 1.229 1.673 13393
0.839 1.261 1.703 18971
0.836 1.255 1.687 27434
0.838 1.259 1.683 30087
0.844 1.267 1.684 29944
0.843 1.266 1.674 27245
0.845 1.270 1.669 24392
0.857 1.288 1.681 18782
0.869 1.306 1.693 18943
0.872 1.309 1.689 17026
0.881 1.323 1.695 19024
0.886 1.331 1.696 17455
0.898 1.349 1.707 15004
0.907 1.363 1.713 19989
0.910 1.367 1.708 26664
0.909 1.365 1.698 25658
0.915 1.374 1.699 17073
0.920 1.383 1.699 20208
0.923 1.386 1.694 27392
0.922 1.385 1.684 16636
0.918 1.379 1.668 5171
0.940 1.412 1.695 8760
0.943 1.416 1.690 13850
0.945 1.420 1.685 11152
0.951 1.429 1.685 7634
0.957 1.437 1.686 9683
0.956 1.436 1.675 13038
0.958 1.440 1.670 15466
0.961 1.443 1.665 18265
0.967 1.452 1.665 18905
0.972 1.461 1.665 15957
0.975 1.464 1.660 12518
0.977 1.468 1.655 14088
0.980 1.472 1.649 15506
0.982 1.475 1.644 12626
0.981 1.474 1.634 9984
0.980 1.472 1.624 6885
0.969 1.456 1.598 6090
0.971 1.459 1.593 6185
0.974 1.463 1.588 4282
1.003 1.507 1.622 5564
1.006 1.511 1.617 9598
1.032 1.550 1.646 10480
1.048 1.575 1.660 10132
1.061 1.594 1.669 13985
1.060 1.593 1.659 19554
1.059 1.591 1.648 25411
1.062 1.595 1.643 25546
1.071 1.609 1.647 17230
1.073 1.612 1.641 15839
1.076 1.616 1.635 20838
1.078 1.620 1.630 17543
1.088 1.634 1.633 11308
1.139 1.711 1.694 13857
1.135 1.704 1.678 11146
1.148 1.724 1.686 8383
1.154 1.733 1.685 9460
1.160 1.742 1.683 7220
1.177 1.767 1.696 9968
1.179 1.771 1.689 14320
1.182 1.775 1.683 16852
1.184 1.779 1.677 15428
1.186 1.782 1.670 7773
1.221 1.835 1.705 4749
1.220 1.833 1.694 8915
1.223 1.837 1.687 11622
1.222 1.835 1.676 11271
1.228 1.844 1.674 10177
1.252 1.881 1.694 12482
1.258 1.890 1.692 12335
1.261 1.894 1.685 10135
1.256 1.886 1.670 12851
1.255 1.884 1.659 22118
1.261 1.894 1.657 27963
1.263 1.897 1.650 27788
1.265 1.901 1.643 21584
1.264 1.899 1.632 10621
1.315 1.975 1.681 9147
1.321 1.984 1.678 9484
1.327 1.993 1.675 8729
1.277 1.919 1.609 8919
1.280 1.922 1.603 9886
1.282 1.926 1.596 9176
1.284 1.929 1.589 7499
1.287 1.933 1.582 5389
1.379 2.072 1.674 7597
1.378 2.070 1.662 10435
1.384 2.079 1.659 9957
1.398 2.100 1.664 7820
1.412 2.120 1.669 7167
1.406 2.113 1.653 7591
1.405 2.111 1.642 8440
1.411 2.120 1.638 8169
1.417 2.129 1.635 5567
1.424 2.139 1.631 3466
1.430 2.148 1.627 3407
1.409 2.117 1.596 3399
1.454 2.184 1.631 4052
1.456 2.187 1.624 5081
1.451 2.179 1.608 4514
1.530 2.298 1.677 4634
1.529 2.296 1.665 6166
1.520 2.283 1.646 5420
1.518 2.281 1.634 4976
1.613 2.424 1.715 3811
1.616 2.427 1.707 5470
1.619 2.431 1.698 6202
1.547 2.324 1.620 7388
1.550 2.328 1.611 7872
1.556 2.337 1.607 8510
1.558 2.340 1.599 6779
1.564 2.350 1.594 5085
1.571 2.359 1.589 4774
1.573 2.363 1.581 4565
1.650 2.478 1.639 4329
1.743 2.618 1.711 4904
1.741 2.616 1.698 5228
1.744 2.620 1.689 5570
1.746 2.623 1.680 4319
1.693 2.544 1.623 4523
1.751 2.631 1.661 4348
1.754 2.634 1.652 5627
1.756 2.638 1.643 6036
1.755 2.636 1.630 6512
1.757 2.639 1.621 6512
1.763 2.649 1.615 5586
1.774 2.664 1.612 5184
1.776 2.668 1.603 4398
1.891 2.840 1.684 4426
1.885 2.831 1.667 4862
1.887 2.835 1.657 5571
1.890 2.839 1.647 5571
1.892 2.842 1.637 2785
0.375 0.559 1.703 8806
0.376 0.560 1.693 11614
0.376 0.561 1.684 14892
0.381 0.567 1.689 17468
0.383 0.571 1.687 20265
0.386 0.575 1.685 20265
0.388 0.579 1.683 19431
0.391 0.582 1.681 18598
0.391 0.583 1.672 17028
0.394 0.587 1.670 15581
0.396 0.591 1.667 16291
0.399 0.594 1.665 17002
0.401 0.598 1.663 18584
0.404 0.602 1.661 20167
0.408 0.608 1.666 19407
0.411 0.612 1.664 20092
0.413 0.616 1.661 21511
0.415 0.619 1.659 17166
0.418 0.623 1.657 12822
0.418 0.624 1.648 9396
0.421 0.627 1.645 6221
0.423 0.631 1.643 7409
0.428 0.638 1.648 8680
0.428 0.638 1.639 7621
0.453 0.676 1.713 8809
0.458 0.683 1.718 10218
0.463 0.690 1.722 12083
0.467 0.697 1.727 10510
0.472 0.704 1.731 9273
0.477 0.711 1.735 8141
0.484 0.721 1.747 7674
0.484 0.721 1.737 7413
0.482 0.719 1.721 7321
0.480 0.716 1.704 8152
0.487 0.726 1.716 10162
0.492 0.734 1.720 12772
0.495 0.737 1.717 14558
0.497 0.741 1.714 16344
0.497 0.742 1.705 14746
0.500 0.745 1.702 14041
0.505 0.753 1.706 14804
0.510 0.760 1.710 16436
0.512 0.763 1.708 18605
0.515 0.767 1.705 17206
0.519 0.774 1.709 14839
0.524 0.782 1.713 13827
0.525 0.782 1.703 11697
0.527 0.786 1.701 7868
0.537 0.800 1.718 6642
0.539 0.804 1.715 6779
0.544 0.811 1.719 6871
0.547 0.815 1.716 8404
0.552 0.822 1.720 12652
0.554 0.826 1.717 14235
0.562 0.837 1.727 15795
0.562 0.837 1.717 19499
0.562 0.837 1.708 24553
0.567 0.845 1.711 27860
0.569 0.849 1.708 25064
0.574 0.856 1.712 18180
0.574 0.856 1.702 13156
0.577 0.860 1.699 12246
0.584 0.871 1.709 13411
0.589 0.879 1.712 18315
0.592 0.882 1.709 21022
0.589 0.879 1.693 20995
0.589 0.879 1.683 24753
0.592 0.882 1.680 31444
0.597 0.890 1.683 31347
0.599 0.894 1.680 21240
0.605 0.901 1.683 14351
0.604 0.901 1.674 15146
0.607 0.905 1.671 14855
0.615 0.916 1.680 9538
0.625 0.932 1.696 7830
0.622 0.928 1.680 9121
0.622 0.927 1.670 10750
0.632 0.943 1.686 13951
0.635 0.947 1.682 16297
0.640 0.954 1.685 11953
0.648 0.966 1.694 7211
0.645 0.962 1.678 6942
0.653 0.974 1.688 11687
0.658 0.981 1.690 17464
0.655 0.977 1.674 14477
0.658 0.981 1.671 8830
0.671 1.001 1.692 10751
0.676 1.008 1.695 15940
0.682 1.016 1.697 15427
0.687 1.024 1.700 13023
0.690 1.028 1.696 14604
0.695 1.036 1.699 19413
0.697 1.040 1.695 25355
0.703 1.048 1.697 27609
0.705 1.051 1.693 22464
0.708 1.055 1.690 14165
0.710 1.059 1.686 9536
0.713 1.063 1.682 10252
0.718 1.071 1.684 11216
0.726 1.083 1.692 10559
0.729 1.087 1.689 8895
0.737 1.099 1.697 12960
0.743 1.107 1.699 15150
0.754 1.124 1.713 19975
0.756 1.128 1.709 31131
0.759 1.131 1.705 37711
0.761 1.135 1.700 34506
0.764 1.139 1.696 26164
0.764 1.138 1.686 21083
0.769 1.146 1.688 14798
0.768 1.146 1.678 8104
0.774 1.154 1.680 9690
0.782 1.166 1.688 13713
0.788 1.175 1.689 17620
0.790 1.178 1.685 15004
0.793 1.182 1.681 11229
0.795 1.186 1.677 12603
0.795 1.185 1.667 12992
0.800 1.193 1.668 13236
0.809 1.206 1.675 17102
0.815 1.214 1.677 23787
0.817 1.218 1.672 23249
0.823 1.226 1.673 14975
0.841 1.253 1.697 21647
0.840 1.252 1.687 26951
0.842 1.256 1.683 26912
0.848 1.264 1.684 26866
0.851 1.268 1.679 26596
0.850 1.267 1.669 24329
0.865 1.290 1.687 17228
0.874 1.303 1.693 19156
0.876 1.306 1.689 17359
0.882 1.315 1.689 19883
0.891 1.328 1.696 19233
0.903 1.346 1.707 19178
0.912 1.360 1.713 26133
0.915 1.363 1.708 33184
0.914 1.362 1.698 29721
0.916 1.366 1.693 18947
0.922 1.375 1.694 18456
0.928 1.383 1.694 24695
0.927 1.382 1.684 14652
0.926 1.381 1.674 4288
0.945 1.409 1.695 9821
0.948 1.413 1.690 15606
0.950 1.417 1.685 12825
0.953 1.420 1.680 8532
0.959 1.429 1.680 10493
0.958 1.428 1.670 14986
0.963 1.436 1.670 18730
0.966 1.440 1.665 23203
0.968 1.444 1.660 22997
0.978 1.457 1.665 16876
0.980 1.461 1.660 13259
0.982 1.465 1.655 14770
0.988 1.473 1.655 14584
0.987 1.472 1.644 11777
0.986 1.470 1.634 9388
0.992 1.479 1.634 6681
0.974 1.452 1.598 4999
1.021 1.522 1.658 4662
1.023 1.526 1.653 4715
1.012 1.509 1.627 6989
1.015 1.512 1.622 11063
1.041 1.552 1.651 14117
1.050 1.566 1.655 14530
1.067 1.590 1.669 17228
1.066 1.589 1.659 23165
1.065 1.587 1.648 29516
1.067 1.591 1.643 29676
1.073 1.600 1.642 21058
1.079 1.609 1.641 18743
1.081 1.612 1.635 23478
1.084 1.616 1.630 21157
1.093 1.630 1.633 15613
1.145 1.707 1.694 13598
1.141 1.700 1.678 10298
1.157 1.725 1.691 5739
1.167 1.740 1.694 7184
1.173 1.749 1.692 8150
1.183 1.763 1.696 10823
1.185 1.767 1.689 13665
1.191 1.776 1.688 15391
1.194 1.780 1.681 14472
1.193 1.778 1.670 7621
1.224 1.825 1.700 5717
1.227 1.829 1.694 11630
1.229 1.832 1.687 14743
1.232 1.836 1.681 13405
1.241 1.851 1.683 10700
1.259 1.876 1.694 13884
1.261 1.880 1.688 13441
