0.963 1.131 1.665 21342
0.969 1.139 1.666 10515
0.972 1.142 1.661 12422
0.982 1.154 1.668 15320
0.985 1.158 1.664 14259
0.992 1.165 1.665 11860
0.995 1.169 1.660 15110
0.997 1.172 1.656 14164
1.019 1.197 1.678 8355
0.996 1.170 1.636 8511
1.028 1.208 1.675 14182
1.027 1.207 1.664 18420
1.012 1.189 1.633 19247
1.022 1.201 1.639 16906
1.077 1.266 1.709 17044
1.084 1.274 1.710 17486
1.087 1.277 1.705 12506
1.086 1.276 1.695 11826
1.089 1.280 1.690 14822
1.096 1.288 1.690 15333
1.103 1.296 1.690 14566
1.109 1.303 1.691 12044
1.112 1.307 1.685 10120
1.123 1.319 1.691 9106
1.137 1.336 1.701 11074
1.144 1.344 1.701 14697
1.155 1.357 1.706 16030
1.166 1.370 1.712 17297
1.169 1.373 1.706 15968
1.160 1.363 1.685 11323
1.174 1.380 1.696 13127
1.181 1.388 1.695 17721
1.184 1.391 1.690 20222
1.183 1.390 1.679 17467
1.174 1.380 1.659 13849
1.205 1.416 1.689 14416
1.212 1.424 1.688 16405
1.219 1.432 1.688 12673
1.206 1.416 1.662 10954
1.204 1.415 1.652 12834
1.211 1.423 1.651 8544
1.266 1.488 1.709 5471
1.277 1.501 1.713 8456
1.280 1.504 1.708 11364
1.283 1.508 1.702 8775
1.290 1.516 1.701 4937
1.293 1.520 1.695 4333
1.296 1.523 1.689 6427
1.307 1.536 1.693 9249
1.322 1.554 1.701 15920
1.330 1.562 1.700 21864
1.341 1.575 1.703 18080
1.352 1.588 1.706 12631
1.355 1.592 1.700 9145
1.370 1.610 1.708 13365
1.373 1.613 1.702 20089
1.380 1.622 1.700 17497
1.383 1.625 1.694 13229
1.390 1.634 1.692 11255
1.402 1.647 1.695 10744
1.404 1.650 1.689 7584
1.441 1.693 1.718 4811
1.444 1.697 1.712 10019
1.447 1.700 1.705 13687
1.450 1.704 1.699 14090
1.457 1.712 1.697 13610
1.464 1.720 1.694 15415
1.467 1.724 1.688 16147
1.470 1.727 1.681 14913
1.511 1.776 1.714 13090
1.519 1.784 1.711 16773
1.526 1.793 1.709 19424
1.529 1.796 1.702 22521
1.527 1.795 1.691 23837
1.535 1.803 1.688 19689
1.542 1.812 1.685 14574
1.545 1.815 1.678 10475
1.552 1.824 1.675 6620
1.555 1.827 1.668 6567
1.593 1.871 1.695 5307
1.600 1.880 1.692 7279
1.603 1.883 1.684 7823
1.606 1.887 1.677 6295
1.613 1.895 1.674 3727
1.633 1.919 1.683 3608
1.636 1.923 1.676 3216
1.657 1.947 1.684 4718
1.660 1.950 1.677 6726
1.667 1.959 1.673 9445
1.670 1.962 1.666 12189
1.673 1.965 1.658 12755
1.671 1.964 1.646 12367
1.674 1.967 1.639 11409
1.677 1.970 1.631 10342
1.684 1.979 1.628 9340
1.745 2.050 1.670 9960
1.748 2.054 1.662 11453
1.751 2.057 1.654 11942
1.754 2.060 1.646 11160
1.761 2.069 1.642 10426
1.764 2.072 1.634 10089
1.767 2.076 1.626 9753
1.765 2.074 1.614 8641
1.768 2.077 1.606 7642
1.770 2.080 1.598 6536
1.832 2.153 1.638 5927
1.840 2.161 1.633 5230
1.852 2.175 1.632 4767
1.941 2.281 1.692 4840
1.944 2.284 1.684 5055
1.942 2.282 1.671 4172
1.918 2.253 1.641 4960
1.925 2.262 1.636 5437
1.932 2.271 1.631 6290
1.935 2.274 1.622 5857
1.943 2.283 1.617 5404
1.982 2.329 1.635 3935
1.990 2.338 1.630 3252
2.053 2.412 1.665 3959
2.056 2.415 1.655 5169
2.059 2.419 1.646 5094
2.057 2.417 1.633 5036
2.060 2.420 1.624 5036
2.128 2.500 1.661 3975
2.140 2.514 1.658 4559
2.138 2.512 1.645 4550
2.141 2.515 1.635 4547
2.139 2.513 1.622 3153
2.250 2.643 1.686 3469
2.253 2.647 1.676 3469
2.256 2.650 1.665 1734
0.440 0.514 1.710 8967
0.445 0.520 1.715 6956
0.452 0.528 1.727 5148
0.440 0.514 1.675 5193
0.445 0.520 1.680 7101
0.448 0.523 1.678 7101
0.455 0.532 1.690 10087
0.461 0.538 1.695 14105
0.464 0.541 1.693 17774
0.466 0.545 1.691 21442
0.472 0.551 1.696 19577
0.475 0.554 1.694 18045
0.477 0.558 1.692 15485
0.480 0.561 1.689 12219
0.481 0.562 1.680 11850
0.482 0.562 1.671 19134
0.485 0.566 1.669 25855
0.487 0.569 1.666 27229
0.490 0.572 1.664 28603
0.493 0.576 1.662 24896
0.496 0.579 1.659 21188
0.499 0.583 1.657 22632
0.502 0.586 1.655 24077
0.505 0.589 1.653 24252
0.508 0.593 1.650 24428
0.510 0.596 1.648 21339
0.513 0.599 1.646 17467
0.516 0.603 1.643 14576
0.519 0.606 1.641 10272
0.524 0.612 1.645 8796
0.532 0.621 1.657 8680
0.540 0.630 1.668 8372
0.543 0.634 1.666 7393
0.546 0.637 1.663 6415
0.554 0.646 1.674 8395
0.562 0.656 1.685 10962
0.565 0.659 1.683 11184
0.565 0.660 1.673 11954
0.557 0.651 1.644 12930
0.558 0.651 1.634 12626
0.550 0.642 1.604 13030
0.553 0.645 1.602 11970
0.555 0.649 1.599 10130
0.556 0.649 1.590 9382
0.558 0.652 1.587 11802
0.558 0.652 1.578 12547
0.561 0.655 1.575 11011
0.621 0.725 1.714 11758
0.564 0.658 1.564 12728
0.566 0.661 1.561 16092
0.569 0.664 1.558 15875
0.575 0.671 1.562 12269
0.647 0.755 1.726 16816
0.650 0.759 1.723 19916
0.656 0.766 1.727 20014
0.659 0.769 1.724 17416
0.665 0.776 1.727 19196
0.668 0.779 1.724 24958
0.673 0.786 1.728 27165
0.679 0.793 1.731 31398
0.682 0.797 1.728 34807
0.682 0.797 1.719 33433
0.682 0.797 1.709 24718
0.685 0.800 1.706 16346
0.691 0.807 1.709 10192
0.706 0.824 1.732 9143
0.715 0.835 1.742 8328
0.721 0.842 1.745 6827
0.721 0.842 1.735 7581
0.718 0.838 1.719 8398
0.721 0.842 1.716 9140
0.727 0.849 1.719 10244
0.736 0.859 1.728 9046
0.748 0.874 1.744 7871
0.748 0.873 1.734 7284
0.751 0.877 1.731 7426
0.751 0.877 1.721 8455
0.751 0.877 1.711 8415
0.760 0.888 1.720 8398
0.763 0.891 1.717 10433
0.766 0.894 1.713 11725
0.766 0.894 1.704 11825
0.769 0.898 1.700 13665
0.775 0.905 1.703 15582
0.784 0.916 1.712 11879
0.797 0.930 1.727 8976
0.797 0.930 1.717 8487
0.806 0.941 1.726 10340
0.806 0.941 1.716 14970
0.806 0.941 1.706 19170
0.805 0.940 1.696 23824
0.811 0.947 1.699 28241
0.814 0.951 1.695 31770
0.814 0.950 1.685 31535
0.817 0.954 1.681 30527
0.826 0.965 1.690 28889
0.849 0.992 1.722 31492
0.856 0.999 1.724 34555
0.862 1.006 1.726 24627
0.868 1.014 1.729 14486
0.868 1.013 1.719 11025
0.871 1.017 1.715 14877
0.874 1.020 1.711 27046
0.877 1.024 1.707 26538
0.880 1.027 1.703 17522
0.886 1.035 1.705 22633
0.893 1.042 1.706 33457
0.899 1.050 1.708 35703
0.898 1.049 1.698 29886
0.901 1.052 1.694 26863
0.908 1.060 1.696 19884
0.914 1.067 1.698 17066
0.921 1.075 1.699 20664
0.927 1.082 1.701 18189
0.927 1.082 1.691 19360
0.937 1.093 1.698 19952
0.943 1.101 1.699 22101
0.942 1.100 1.689 28462
0.945 1.104 1.685 28545
0.952 1.111 1.687 34297
0.955 1.115 1.682 46839
0.958 1.118 1.678 49344
0.961 1.122 1.673 47440
0.963 1.125 1.669 45937
0.966 1.128 1.665 28713
0.973 1.136 1.666 12830
0.976 1.139 1.661 10706
0.982 1.147 1.663 14549
0.989 1.154 1.664 17615
0.999 1.166 1.670 15270
0.998 1.165 1.660 17961
1.001 1.169 1.656 19893
1.000 1.168 1.646 14027
0.996 1.162 1.630 10874
1.036 1.209 1.680 15182
1.031 1.204 1.664 16617
1.027 1.199 1.649 16336
1.033 1.206 1.650 16687
1.032 1.205 1.640 15017
1.088 1.270 1.710 14979
1.091 1.274 1.705 11917
1.094 1.277 1.700 11645
1.097 1.281 1.695 12318
1.100 1.284 1.690 11612
1.107 1.292 1.690 11270
1.110 1.295 1.685 10957
1.112 1.299 1.680 10466
1.123 1.311 1.686 8479
1.145 1.337 1.707 10096
1.152 1.345 1.707 14513
1.159 1.353 1.706 17597
1.170 1.366 1.712 20499
1.177 1.374 1.711 18167
1.176 1.373 1.701 11710
1.183 1.381 1.701 13972
1.186 1.384 1.695 19652
1.189 1.388 1.690 20432
1.180 1.377 1.669 17699
1.182 1.381 1.664 14963
1.209 1.412 1.689 15174
1.216 1.420 1.688 17398
1.223 1.428 1.688 13118
1.218 1.422 1.672 10593
1.213 1.416 1.657 12471
1.216 1.419 1.651 8810
1.271 1.484 1.709 6182
1.282 1.497 1.713 9738
1.285 1.500 1.708 12168
1.288 1.504 1.702 8872
1.295 1.512 1.701 5101
1.298 1.516 1.695 4707
1.301 1.519 1.689 6146
1.316 1.537 1.697 7938
1.327 1.550 1.701 13468
1.334 1.558 1.700 17697
1.346 1.571 1.703 14835
1.357 1.584 1.706 11897
1.360 1.588 1.700 9576
1.375 1.606 1.708 13392
1.378 1.609 1.702 19972
1.385 1.617 1.700 17510
1.392 1.626 1.698 13312
1.408 1.644 1.706 12219
1.407 1.642 1.695 12654
1.410 1.646 1.689 9525
1.442 1.684 1.714 6439
1.449 1.692 1.712 11031
1.452 1.696 1.705 14783
1.455 1.699 1.699 14854
1.462 1.707 1.697 13334
1.470 1.716 1.694 14177
1.468 1.714 1.683 15165
1.475 1.723 1.681 14200
1.517 1.771 1.714 13541
1.524 1.780 1.711 18318
1.527 1.783 1.704 21658
1.534 1.792 1.702 24639
1.533 1.790 1.691 25630
1.536 1.793 1.684 20682
1.543 1.802 1.681 15051
1.550 1.810 1.678 11552
1.553 1.814 1.671 8338
1.556 1.817 1.664 8567
1.559 1.820 1.657 6615
1.606 1.875 1.692 7933
1.613 1.883 1.689 8723
1.616 1.887 1.681 7723
1.619 1.890 1.674 6648
1.626 1.899 1.671 6819
1.633 1.907 1.667 5681
1.645 1.921 1.668 4826
1.657 1.935 1.669 5877
1.673 1.954 1.673 8019
1.676 1.957 1.666 10387
1.679 1.960 1.658 11265
1.677 1.958 1.646 11151
1.680 1.962 1.639 10198
1.683 1.965 1.631 9234
1.690 1.974 1.628 8455
1.751 2.045 1.670 8178
1.754 2.048 1.662 8858
1.757 2.052 1.654 8922
1.760 2.055 1.646 8226
1.763 2.058 1.638 7530
1.770 2.067 1.634 7314
1.773 2.070 1.626 7115
1.776 2.073 1.618 6373
1.820 2.125 1.643 6143
1.827 2.133 1.639 5658
1.834 2.142 1.634 5504
1.851 2.161 1.637 4586
1.941 2.266 1.698 4848
1.948 2.275 1.692 5009
1.951 2.278 1.684 5182
1.949 2.276 1.671 4154
1.925 2.247 1.641 4154
1.932 2.256 1.636 4854
1.940 2.265 1.631 5881
1.942 2.268 1.622 5522
1.945 2.271 1.613 5171
1.994 2.329 1.639 4054
2.006 2.343 1.636 3654
2.056 2.400 1.661 4442
2.063 2.409 1.655 5554
2.061 2.407 1.643 5632
2.064 2.410 1.633 5749
2.067 2.413 1.624 5749
2.070 2.417 1.615 4260
2.157 2.519 1.664 4722
2.151 2.511 1.648 4602
2.153 2.514 1.638 4507
2.147 2.507 1.622 3045
2.258 2.636 1.686 3532
2.261 2.640 1.676 3532
2.264 2.643 1.665 1766
0.444 0.514 1.717 8671
0.449 0.520 1.722 6723
0.459 0.531 1.742 5357
0.455 0.527 1.718 5019
0.447 0.518 1.680 6325
0.450 0.522 1.678 6325
0.458 0.530 1.690 9532
0.463 0.536 1.695 13240
0.466 0.539 1.693 17052
0.469 0.543 1.691 20865
0.474 0.549 1.696 19364
0.479 0.555 1.701 18226
0.480 0.556 1.692 15341
0.483 0.559 1.689 11863
0.483 0.560 1.680 11348
0.484 0.560 1.671 17868
0.487 0.564 1.669 24082
0.490 0.567 1.666 25620
0.493 0.571 1.664 27159
0.495 0.574 1.662 23518
0.498 0.577 1.659 19877
0.501 0.581 1.657 20783
0.504 0.584 1.655 21689
0.507 0.587 1.653 21653
0.510 0.591 1.650 21618
0.513 0.594 1.648 18818
0.513 0.594 1.639 15473
0.518 0.600 1.643 13319
0.521 0.604 1.641 10101
0.527 0.610 1.645 8791
0.534 0.619 1.657 8331
0.542 0.628 1.668 7855
0.545 0.632 1.666 7033
0.548 0.635 1.663 6210
0.554 0.641 1.667 7730
0.562 0.651 1.679 9620
0.567 0.657 1.683 9649
0.562 0.651 1.660 10867
0.557 0.646 1.637 12682
0.558 0.646 1.627 12676
0.552 0.640 1.604 13149
0.555 0.643 1.602 11920
0.558 0.646 1.599 10074
0.558 0.646 1.590 9460
0.561 0.650 1.587 11629
0.561 0.650 1.578 11824
0.621 0.719 1.717 10498
0.621 0.719 1.707 12353
0.566 0.656 1.564 12938
0.569 0.659 1.561 16087
0.572 0.662 1.558 15672
0.577 0.669 1.562 11973
0.650 0.753 1.726 18556
0.653 0.756 1.723 21540
0.659 0.763 1.727 21224
0.662 0.766 1.724 17643
0.668 0.773 1.727 19193
0.673 0.780 1.731 25390
0.676 0.784 1.728 29288
0.682 0.790 1.731 35032
0.685 0.794 1.728 37915
0.685 0.794 1.719 34916
0.688 0.797 1.715 24314
0.688 0.798 1.706 14469
0.691 0.801 1.703 8523
0.712 0.825 1.738 8629
0.718 0.832 1.742 8200
0.724 0.839 1.745 6187
0.724 0.839 1.735 6137
0.718 0.832 1.712 6680
0.724 0.839 1.716 8174
0.730 0.846 1.719 10017
0.739 0.856 1.728 9379
0.749 0.867 1.738 9071
0.748 0.867 1.728 8202
0.755 0.874 1.731 6118
0.761 0.881 1.734 5342
0.764 0.885 1.730 4881
0.767 0.888 1.727 7227
0.770 0.892 1.723 11671
0.770 0.891 1.713 13699
0.769 0.891 1.704 12913
0.772 0.895 1.700 13276
0.782 0.905 1.709 14162
0.788 0.913 1.712 11477
0.797 0.924 1.721 9745
0.800 0.927 1.717 8527
0.810 0.938 1.726 9485
0.813 0.941 1.722 14214
0.806 0.934 1.700 18628
0.809 0.937 1.696 24886
0.815 0.944 1.699 30492
0.815 0.944 1.689 34141
0.818 0.947 1.685 35780
0.821 0.951 1.681 36312
0.827 0.958 1.684 33728
0.850 0.984 1.716 29383
0.860 0.996 1.724 30982
0.866 1.003 1.726 20455
0.872 1.010 1.729 12746
0.875 1.014 1.725 12064
0.875 1.013 1.715 14133
0.878 1.017 1.711 23382
0.881 1.020 1.707 23802
0.884 1.024 1.703 15617
0.890 1.031 1.705 18141
0.897 1.039 1.706 28048
0.903 1.046 1.708 31867
0.903 1.045 1.698 28275
0.906 1.049 1.694 26924
0.912 1.056 1.696 19799
0.918 1.064 1.698 15785
0.928 1.075 1.705 19801
0.931 1.079 1.701 17496
0.934 1.082 1.697 17805
0.944 1.094 1.704 21247
0.947 1.097 1.699 25611
0.947 1.097 1.689 32865
0.953 1.104 1.691 35142
0.956 1.108 1.687 40751
0.959 1.111 1.682 51995
0.962 1.114 1.678 53984
0.965 1.118 1.673 50943
0.968 1.121 1.669 49996
0.974 1.129 1.670 33413
0.977 1.132 1.666 15507
0.973 1.127 1.650 12242
0.983 1.139 1.657 16504
0.993 1.151 1.664 22772
1.000 1.158 1.665 20418
1.003 1.162 1.660 21718
1.006 1.165 1.656 24849
1.005 1.164 1.646 19395
1.004 1.163 1.636 12928
1.041 1.205 1.680 16160
1.040 1.204 1.670 16211
1.035 1.199 1.654 16563
1.038 1.202 1.650 16933
1.041 1.206 1.645 13863
1.093 1.266 1.710 12333
1.096 1.270 1.705 11930
1.103 1.277 1.705 13508
1.110 1.285 1.706 11205
1.105 1.280 1.690 8474
1.108 1.283 1.685 9190
1.115 1.291 1.685 11355
1.118 1.295 1.680 11806
1.132 1.311 1.691 7590
1.155 1.337 1.712 8823
1.161 1.345 1.712 13682
1.168 1.353 1.712 18250
1.175 1.361 1.712 22374
1.182 1.369 1.711 19522
1.181 1.368 1.701 12164
1.188 1.376 1.701 14306
1.191 1.380 1.695 20335
1.190 1.378 1.685 19485
1.185 1.373 1.669 16977
1.188 1.376 1.664 15359
1.219 1.412 1.694 16651
1.222 1.415 1.688 18256
1.233 1.428 1.693 12976
1.228 1.422 1.677 9960
1.218 1.411 1.657 11513
1.221 1.415 1.651 8542
1.273 1.474 1.705 6405
1.288 1.492 1.713 9184
1.295 1.500 1.712 11440
1.298 1.504 1.707 8698
1.301 1.507 1.701 6144
1.300 1.506 1.690 6346
1.307 1.514 1.689 6568
1.326 1.536 1.702 7492
1.333 1.545 1.701 12412
1.340 1.553 1.700 15069
1.356 1.571 1.708 12337
1.363 1.579 1.706 10581
1.370 1.587 1.705 8982
1.381 1.600 1.708 13321
1.384 1.604 1.702 19807
1.392 1.612 1.700 18140
1.399 1.620 1.698 14519
1.414 1.638 1.706 13492
1.417 1.642 1.700 13627
1.416 1.640 1.689 11088
1.449 1.678 1.714 7756
1.452 1.682 1.707 11356
1.455 1.685 1.701 14921
1.462 1.693 1.699 14562
1.469 1.702 1.697 12314
1.472 1.705 1.690 12381
1.475 1.709 1.683 13857
1.482 1.717 1.681 13421
1.524 1.765 1.714 14008
1.531 1.774 1.711 19443
1.534 1.777 1.704 23064
1.541 1.786 1.702 25755
1.540 1.784 1.691 26534
1.543 1.787 1.684 21231
1.550 1.796 1.681 15474
1.553 1.799 1.674 12524
1.560 1.808 1.671 9901
1.563 1.811 1.664 10217
1.566 1.814 1.657 8143
1.613 1.869 1.692 8592
1.620 1.877 1.689 9661
1.623 1.880 1.681 9307
1.626 1.884 1.674 9212
1.634 1.892 1.671 9661
1.636 1.896 1.663 8232
1.644 1.904 1.660 6298
1.656 1.918 1.661 6331
1.676 1.942 1.669 6873
1.684 1.950 1.666 8772
1.687 1.954 1.658 9851
1.685 1.952 1.646 9783
1.688 1.955 1.639 8720
1.691 1.958 1.631 7847
1.702 1.972 1.631 7308
1.755 2.033 1.666 6415
1.762 2.041 1.662 6459
1.765 2.045 1.654 6272
1.768 2.048 1.646 5608
1.830 2.120 1.688 5458
1.828 2.118 1.676 5277
1.827 2.116 1.664 5187
1.825 2.114 1.652 5749
1.823 2.112 1.640 6495
1.831 2.121 1.635 5722
1.838 2.129 1.631 5241
1.859 2.154 1.637 3968
1.950 2.258 1.698 4844
1.952 2.262 1.689 5002
1.960 2.270 1.684 5177
1.958 2.268 1.671 4124
1.933 2.240 1.641 3219
1.946 2.254 1.639 4180
1.948 2.257 1.631 5375
1.951 2.260 1.622 5087
1.949 2.258 1.610 4825
2.008 2.326 1.642 4198
2.020 2.340 1.640 4014
2.065 2.392 1.661 4722
2.073 2.401 1.655 5619
2.071 2.399 1.643 5860
2.074 2.402 1.633 6119
2.077 2.405 1.624 6119
2.079 2.409 1.615 4709
2.172 2.516 1.668 4859
2.165 2.508 1.651 4486
2.163 2.506 1.638 4295
2.157 2.498 1.622 2863
2.268 2.628 1.686 3597
2.271 2.631 1.676 3597
2.274 2.634 1.665 1798
0.445 0.513 1.717 8481
0.451 0.519 1.722 6692
0.460 0.530 1.742 5660
0.459 0.528 1.725 5359
0.451 0.519 1.687 5902
0.454 0.523 1.685 5902
0.459 0.529 1.690 9072
0.462 0.532 1.688 12386
0.467 0.538 1.693 16264
0.470 0.541 1.691 20174
0.475 0.547 1.696 19051
0.481 0.553 1.701 18366
0.481 0.554 1.692 15272
0.484 0.558 1.689 11769
0.487 0.561 1.687 11162
0.488 0.562 1.678 16828
0.488 0.562 1.669 22427
0.491 0.566 1.666 24179
0.497 0.572 1.671 25958
0.497 0.572 1.662 22519
0.500 0.576 1.659 19106
0.503 0.579 1.657 19431
0.506 0.582 1.655 19756
0.509 0.586 1.653 19367
0.511 0.589 1.650 18978
0.512 0.590 1.641 16476
0.515 0.593 1.639 13478
0.518 0.596 1.636 12118
0.523 0.602 1.641 9971
0.528 0.608 1.645 8970
0.534 0.615 1.650 8301
0.544 0.627 1.668 7577
0.547 0.630 1.666 6795
0.550 0.633 1.663 6013
0.555 0.640 1.667 7116
0.561 0.646 1.672 8356
0.564 0.649 1.669 8147
0.562 0.647 1.653 9670
0.557 0.641 1.630 11749
0.559 0.644 1.627 11837
0.594 0.684 1.706 12606
0.597 0.688 1.704 11446
0.600 0.691 1.701 10285
0.563 0.648 1.597 9053
0.563 0.648 1.587 10885
0.623 0.717 1.726 10847
0.623 0.717 1.717 12024
0.623 0.718 1.707 13419
0.629 0.724 1.711 13530
0.571 0.657 1.561 15887
0.574 0.661 1.558 15305
0.643 0.741 1.716 12884
0.652 0.751 1.726 20576
0.658 0.758 1.730 23242
0.661 0.761 1.727 22404
0.664 0.765 1.724 17979
0.670 0.771 1.727 19634
0.676 0.778 1.731 26741
0.679 0.782 1.728 31781
0.685 0.788 1.731 38571
0.688 0.792 1.728 40770
0.691 0.795 1.725 36423
0.691 0.796 1.715 24154
0.691 0.796 1.706 12578
0.723 0.833 1.768 6561
0.718 0.826 1.745 7852
0.721 0.830 1.742 7641
0.727 0.837 1.745 5670
0.727 0.837 1.735 5187
0.721 0.830 1.712 5426
0.730 0.840 1.722 7281
0.736 0.847 1.725 9382
0.742 0.854 1.728 9681
0.748 0.861 1.731 10899
0.751 0.865 1.728 10012
0.754 0.868 1.724 6256
0.760 0.875 1.727 3873
0.776 0.893 1.749 3562
0.772 0.890 1.733 6862
0.772 0.889 1.723 12184
0.772 0.889 1.713 14453
0.772 0.889 1.704 13040
0.775 0.892 1.700 12140
0.784 0.903 1.709 12374
0.794 0.914 1.718 11086
0.800 0.921 1.721 10498
0.803 0.925 1.717 8868
0.812 0.936 1.726 8656
0.815 0.939 1.722 13152
0.809 0.931 1.700 17728
0.812 0.935 1.696 25211
0.818 0.942 1.699 31976
0.817 0.942 1.689 35516
0.820 0.945 1.685 38805
0.827 0.952 1.687 40798
0.830 0.956 1.684 37433
0.839 0.967 1.692 30107
0.862 0.993 1.724 27374
0.869 1.001 1.726 18240
0.872 1.004 1.723 14476
0.878 1.011 1.725 15687
0.878 1.011 1.715 14746
0.881 1.014 1.711 20250
0.884 1.018 1.707 21476
0.883 1.017 1.697 14454
0.893 1.029 1.705 14091
0.900 1.036 1.706 22718
0.906 1.044 1.708 27947
0.906 1.043 1.698 26333
0.908 1.046 1.694 26191
0.915 1.054 1.696 18817
0.925 1.065 1.703 13669
0.931 1.073 1.705 17681
0.934 1.076 1.701 15940
0.937 1.080 1.697 16152
0.947 1.091 1.704 22565
0.950 1.095 1.699 29085
0.953 1.098 1.695 36747
0.956 1.101 1.691 40550
0.956 1.101 1.681 45325
0.962 1.108 1.682 54603
0.965 1.112 1.678 56106
0.968 1.115 1.673 52411
0.971 1.118 1.669 51630
0.978 1.126 1.670 35592
0.984 1.133 1.671 16440
0.983 1.133 1.661 14434
0.986 1.136 1.657 20664
0.993 1.144 1.658 27814
1.003 1.155 1.665 25587
1.006 1.159 1.660 25348
1.005 1.158 1.650 28305
1.008 1.161 1.646 22682
1.015 1.169 1.646 14877
1.044 1.202 1.680 16510
1.047 1.206 1.675 16337
1.042 1.200 1.660 16822
1.041 1.199 1.650 14448
1.094 1.260 1.715 12389
1.100 1.267 1.715 9838
1.103 1.271 1.710 11981
1.106 1.274 1.705 16573
1.117 1.287 1.711 12596
1.116 1.286 1.701 7142
1.119 1.289 1.696 8717
1.122 1.292 1.691 13185
1.125 1.296 1.685 13287
1.140 1.313 1.696 7648
1.162 1.339 1.717 7923
1.165 1.342 1.712 12591
1.172 1.350 1.712 18184
1.179 1.358 1.712 22948
1.186 1.366 1.711 19981
1.185 1.365 1.701 12320
1.192 1.373 1.701 14029
1.199 1.381 1.700 20167
1.198 1.380 1.690 17262
1.189 1.369 1.669 14806
1.192 1.373 1.664 14614
1.223 1.408 1.694 17834
1.226 1.412 1.688 18651
1.237 1.424 1.693 12147
1.236 1.423 1.682 9047
1.226 1.413 1.662 10073
1.225 1.411 1.651 7621
1.273 1.466 1.700 7092
1.288 1.484 1.709 7596
1.299 1.496 1.712 9601
1.302 1.500 1.707 8432
1.305 1.503 1.701 7820
1.304 1.502 1.690 8653
1.311 1.510 1.689 7160
1.335 1.537 1.707 6438
1.342 1.546 1.706 9796
1.349 1.554 1.704 10464
1.360 1.567 1.708 8846
1.367 1.575 1.706 10266
1.370 1.578 1.700 9871
1.386 1.596 1.708 13076
1.393 1.605 1.706 19161
1.396 1.608 1.700 17968
1.403 1.616 1.698 15178
1.419 1.634 1.706 14966
1.422 1.638 1.700 14917
1.421 1.636 1.689 12450
1.436 1.654 1.696 9395
1.456 1.677 1.707 11349
1.459 1.681 1.701 14403
1.462 1.684 1.694 13608
1.474 1.698 1.697 10640
1.477 1.701 1.690 10167
1.480 1.704 1.683 12111
1.491 1.718 1.685 12536
1.529 1.761 1.714 14711
1.536 1.769 1.711 20512
1.539 1.773 1.704 24005
1.542 1.776 1.698 26214
1.545 1.780 1.691 26892
1.548 1.783 1.684 21656
1.555 1.791 1.681 16048
1.558 1.795 1.674 13759
1.561 1.798 1.667 11475
1.568 1.806 1.664 11500
1.571 1.810 1.657 9272
1.623 1.869 1.696 9305
1.626 1.872 1.689 10658
1.629 1.876 1.681 10873
1.632 1.879 1.674 11484
1.639 1.888 1.671 11989
1.637 1.886 1.659 10395
1.645 1.894 1.656 8028
1.657 1.908 1.657 7495
1.664 1.916 1.653 6879
1.689 1.946 1.666 7391
1.692 1.949 1.658 8576
1.690 1.947 1.646 8380
1.693 1.950 1.639 7121
1.701 1.959 1.635 6382
1.713 1.972 1.635 6115
1.720 1.981 1.631 5225
1.723 1.984 1.624 4379
1.821 2.097 1.696 4730
1.828 2.106 1.692 4627
1.836 2.115 1.688 4725
1.834 2.113 1.676 4652
1.828 2.106 1.660 5042
1.826 2.104 1.648 5821
1.825 2.102 1.636 6616
1.832 2.110 1.632 5637
1.844 2.124 1.631 4868
1.953 2.249 1.706 3418
1.956 2.253 1.698 4653
1.964 2.261 1.692 4774
1.966 2.265 1.684 4898
1.969 2.268 1.675 4014
1.986 2.288 1.676 3162
1.957 2.254 1.643 3716
1.959 2.257 1.634 4906
1.958 2.255 1.622 4613
2.012 2.317 1.651 4694
2.061 2.374 1.677 4529
2.060 2.372 1.664 4634
2.067 2.381 1.658 5009
2.079 2.395 1.655 5569
2.078 2.393 1.643 5975
2.081 2.396 1.633 6386
2.083 2.400 1.624 6386
2.086 2.403 1.615 5089
2.179 2.509 1.668 4922
2.177 2.507 1.655 4410
2.170 2.500 1.638 4102
2.278 2.623 1.699 2873
2.276 2.621 1.686 3700
2.279 2.624 1.676 3700
2.282 2.628 1.665 1850
0.447 0.512 1.717 8154
0.452 0.518 1.722 6783
0.460 0.526 1.735 6018
0.460 0.527 1.725 5934
0.455 0.521 1.694 5895
0.458 0.524 1.692 5895
0.461 0.527 1.690 8752
0.464 0.531 1.688 11608
0.469 0.537 1.693 15457
0.472 0.540 1.691 19372
0.477 0.546 1.696 18539
0.482 0.552 1.701 18209
0.485 0.555 1.699 15151
0.486 0.556 1.689 11658
0.489 0.560 1.687 11164
0.489 0.560 1.678 16210
0.490 0.561 1.669 21203
0.495 0.567 1.673 23156
0.498 0.570 1.671 25195
0.501 0.574 1.669 21962
0.504 0.577 1.667 18730
0.505 0.578 1.657 18446
0.507 0.581 1.655 18317
0.510 0.584 1.653 17386
0.513 0.588 1.650 16456
0.514 0.588 1.641 14176
0.517 0.591 1.639 11309
0.519 0.595 1.636 10992
0.525 0.601 1.641 10166
0.530 0.607 1.645 9507
0.536 0.613 1.650 8572
0.546 0.625 1.668 7373
0.549 0.628 1.666 6512
0.552 0.632 1.663 5651
0.555 0.635 1.661 6518
0.558 0.638 1.658 7384
0.561 0.642 1.655 7147
0.564 0.645 1.653 8705
0.558 0.639 1.630 10941
0.593 0.679 1.709 13276
0.599 0.685 1.713 14096
0.602 0.689 1.710 12483
0.602 0.689 1.701 10997
0.565 0.646 1.597 8602
0.622 0.712 1.729 10050
0.625 0.715 1.726 13426
0.625 0.715 1.717 14305
0.625 0.716 1.707 15091
0.631 0.722 1.711 14694
0.573 0.656 1.561 15288
0.576 0.659 1.558 14635
0.646 0.739 1.716 14262
0.654 0.749 1.726 22580
0.660 0.756 1.730 24866
0.663 0.759 1.727 23427
0.666 0.763 1.724 18536
0.672 0.769 1.727 20775
0.678 0.776 1.731 28896
0.681 0.780 1.728 34929
0.687 0.786 1.731 42245
0.690 0.790 1.728 43447
0.693 0.793 1.725 38125
0.693 0.793 1.715 24424
0.696 0.797 1.712 11519
0.723 0.827 1.761 6977
0.723 0.828 1.751 7399
0.726 0.831 1.748 6846
0.726 0.831 1.738 5123
0.726 0.831 1.729 4640
0.723 0.828 1.712 4810
0.735 0.842 1.728 6535
0.738 0.845 1.725 8461
0.744 0.852 1.728 10133
0.747 0.856 1.725 13140
0.754 0.863 1.728 11847
0.757 0.866 1.724 8232
0.756 0.866 1.715 6134
0.763 0.873 1.717 5055
0.775 0.887 1.733 7976
0.778 0.891 1.729 11917
0.775 0.887 1.713 14179
0.775 0.887 1.704 12119
0.778 0.890 1.700 10261
0.790 0.905 1.715 10640
0.796 0.912 1.718 10711
0.803 0.919 1.721 11160
0.806 0.922 1.717 9585
0.818 0.937 1.732 8084
0.821 0.940 1.728 11949
0.811 0.929 1.700 16316
0.818 0.936 1.702 24851
0.821 0.939 1.699 32477
0.820 0.939 1.689 35250
0.823 0.942 1.685 40086
0.830 0.950 1.687 43750
0.832 0.953 1.684 39734
0.839 0.960 1.686 31705
0.865 0.991 1.724 24313
0.872 0.998 1.726 17228
0.875 1.001 1.723 17188
0.881 1.009 1.725 19098
0.884 1.012 1.721 15503
0.884 1.012 1.711 17677
0.887 1.015 1.707 20175
0.890 1.019 1.703 14972
0.896 1.026 1.705 11730
0.906 1.037 1.712 18456
0.909 1.041 1.708 24639
0.909 1.040 1.698 24625
0.912 1.044 1.694 25225
0.918 1.051 1.696 17985
0.932 1.067 1.709 11636
0.938 1.074 1.711 14340
0.938 1.073 1.701 13912
0.944 1.081 1.702 14577
0.951 1.088 1.704 23375
0.954 1.092 1.699 31447
0.957 1.095 1.695 39098
0.960 1.099 1.691 44068
0.959 1.098 1.681 48242
0.966 1.105 1.682 55947
0.969 1.109 1.678 57272
0.971 1.112 1.673 52545
0.974 1.115 1.669 50380
0.981 1.123 1.670 33293
0.988 1.131 1.671 15577
0.991 1.134 1.667 17595
0.990 1.133 1.657 24551
0.996 1.141 1.658 31497
1.007 1.152 1.665 29440
1.013 1.160 1.666 28574
1.009 1.155 1.650 29882
1.012 1.158 1.646 23179
1.022 1.170 1.652 16542
1.036 1.186 1.664 15895
1.054 1.207 1.681 14678
1.053 1.206 1.671 14887
1.045 1.196 1.650 12391
1.044 1.195 1.640 11824
1.047 1.198 1.635 9925
1.107 1.268 1.710 14656
1.110 1.271 1.705 20237
1.117 1.279 1.706 15932
1.124 1.287 1.706 8499
1.127 1.290 1.701 9895
1.130 1.293 1.696 15267
1.133 1.297 1.691 15079
1.144 1.309 1.696 8912
1.166 1.335 1.717 7597
1.169 1.339 1.712 10965
1.176 1.346 1.712 17082
1.183 1.354 1.712 22458
1.186 1.358 1.706 19599
1.189 1.361 1.701 12145
1.196 1.369 1.701 13432
1.203 1.377 1.700 19613
1.206 1.381 1.695 15621
1.209 1.384 1.689 11757
1.224 1.401 1.699 15044
1.227 1.405 1.694 18806
1.230 1.408 1.688 18985
1.233 1.411 1.683 10744
1.240 1.419 1.682 7773
1.243 1.423 1.676 9666
1.270 1.454 1.700 9544
1.273 1.458 1.695 9052
1.280 1.466 1.694 7517
1.291 1.478 1.698 7638
1.303 1.491 1.702 8262
1.306 1.495 1.696 9735
1.309 1.498 1.690 10999
1.312 1.501 1.684 7794
1.348 1.543 1.717 7077
1.351 1.546 1.710 9114
1.358 1.554 1.709 7688
1.369 1.567 1.713 6045
1.372 1.571 1.706 8432
1.375 1.574 1.700 10559
1.387 1.587 1.703 12930
1.398 1.600 1.706 17490
1.405 1.609 1.705 16936
1.412 1.617 1.703 15224
1.424 1.630 1.706 15683
1.423 1.629 1.695 16077
1.430 1.637 1.693 14111
1.441 1.650 1.696 11012
1.461 1.673 1.707 11397
1.460 1.672 1.696 13940
1.467 1.680 1.694 12473
1.475 1.688 1.692 8665
1.478 1.692 1.686 7656
1.485 1.700 1.683 10021
1.518 1.738 1.708 12379
1.534 1.756 1.714 15735
1.542 1.765 1.711 21578
1.545 1.768 1.704 24576
1.547 1.771 1.698 26194
1.550 1.775 1.691 26787
1.553 1.778 1.684 21946
1.561 1.787 1.681 16817
1.564 1.790 1.674 15208
1.567 1.793 1.667 13154
1.570 1.797 1.660 12709
1.572 1.800 1.653 10059
1.628 1.864 1.696 10005
1.631 1.867 1.689 11700
1.634 1.871 1.681 12362
1.637 1.874 1.674 13386
1.640 1.878 1.667 13749
1.643 1.881 1.659 12121
1.646 1.884 1.652 9598
1.658 1.898 1.653 9040
1.665 1.906 1.649 7723
1.677 1.920 1.650 6801
1.693 1.939 1.654 7407
1.701 1.947 1.650 6979
1.695 1.940 1.635 5449
1.716 1.964 1.643 5078
1.723 1.972 1.639 4866
1.726 1.976 1.631 4180
1.815 2.078 1.697 3622
1.823 2.087 1.693 4350
1.835 2.100 1.692 4030
1.847 2.114 1.691 4049
1.832 2.097 1.668 4312
1.830 2.095 1.656 5408
1.828 2.093 1.644 6008
1.831 2.096 1.636 6638
1.834 2.099 1.628 5546
1.841 2.108 1.623 4649
1.964 2.249 1.710 3126
1.967 2.252 1.701 4195
1.970 2.256 1.692 4255
1.973 2.259 1.684 4315
1.976 2.262 1.675 3773
1.993 2.282 1.676 3479
1.982 2.269 1.657 3312
1.966 2.251 1.634 4140
2.021 2.313 1.664 4032
2.070 2.370 1.689 5531
2.069 2.368 1.677 5397
2.067 2.366 1.664 5432
2.074 2.375 1.658 5238
2.087 2.389 1.655 5244
2.085 2.387 1.643 5850
2.088 2.390 1.633 6462
2.091 2.393 1.624 6462
2.093 2.396 1.615 5379
2.186 2.503 1.668 5059
2.185 2.501 1.655 4442
2.173 2.488 1.635 4074
2.285 2.616 1.699 3119
2.284 2.614 1.686 3951
2.287 2.618 1.676 3951
2.290 2.621 1.665 1975
0.448 0.511 1.717 7654
0.454 0.516 1.722 6834
0.461 0.525 1.735 6447
0.462 0.526 1.725 6506
0.463 0.527 1.716 6460
0.463 0.528 1.707 6137
0.464 0.529 1.697 8390
0.465 0.529 1.688 10751
0.470 0.535 1.693 14447
0.473 0.539 1.691 18233
0.478 0.545 1.696 17627
0.484 0.551 1.701 17552
0.487 0.554 1.699 14681
0.490 0.558 1.697 11450
0.493 0.561 1.694 11090
0.491 0.559 1.678 15525
0.494 0.562 1.676 20153
0.497 0.566 1.673 22106
0.500 0.569 1.671 24060
0.503 0.572 1.669 21063
0.506 0.576 1.667 18065
0.506 0.576 1.657 17338
0.509 0.580 1.655 17016
0.512 0.583 1.653 15671
0.515 0.586 1.650 14326
0.515 0.587 1.641 12260
0.516 0.587 1.632 9783
0.523 0.596 1.643 10207
0.526 0.599 1.641 10436
0.532 0.605 1.645 9952
0.537 0.612 1.650 8729
0.545 0.621 1.661 7159
0.551 0.627 1.666 6211
0.554 0.630 1.663 5306
0.557 0.634 1.661 5969
0.554 0.631 1.644 6869
0.583 0.664 1.710 6895
0.594 0.677 1.728 8568
0.592 0.674 1.712 11194
0.595 0.677 1.709 14364
0.601 0.684 1.713 14935
0.604 0.687 1.710 13359
0.607 0.691 1.708 11783
0.612 0.697 1.712 9343
0.624 0.710 1.729 11734
0.627 0.713 1.726 15397
0.627 0.714 1.717 16044
0.627 0.714 1.707 16297
0.633 0.721 1.711 15502
0.636 0.724 1.708 15288
0.577 0.657 1.558 13682
0.648 0.737 1.716 15531
0.656 0.747 1.726 23895
0.662 0.754 1.730 25691
0.665 0.757 1.727 23800
0.671 0.764 1.730 18777
0.677 0.771 1.734 21637
0.680 0.774 1.731 30358
0.683 0.778 1.728 37079
0.689 0.785 1.731 44494
0.692 0.788 1.728 44812
0.695 0.791 1.725 38879
0.698 0.795 1.722 25061
0.701 0.798 1.719 12037
0.722 0.822 1.755 7755
0.725 0.826 1.751 7316
0.728 0.829 1.748 6365
0.722 0.822 1.725 5306
0.722 0.822 1.716 5414
0.725 0.826 1.712 5386
0.737 0.840 1.728 6502
0.744 0.847 1.731 8019
0.747 0.850 1.728 10476
0.750 0.854 1.725 14304
0.756 0.861 1.728 12469
0.759 0.864 1.724 9352
0.756 0.860 1.708 8680
0.762 0.867 1.711 7767
0.777 0.885 1.733 8814
0.780 0.889 1.729 11500
0.777 0.885 1.713 13177
0.777 0.885 1.704 10659
0.783 0.892 1.706 8701
0.793 0.902 1.715 9926
0.799 0.910 1.718 10242
0.802 0.913 1.714 11295
0.805 0.916 1.711 10106
0.821 0.935 1.732 7508
0.824 0.938 1.728 10495
0.817 0.930 1.706 14215
0.820 0.934 1.702 23291
0.823 0.937 1.699 31002
0.823 0.937 1.689 32871
0.826 0.940 1.685 38860
0.832 0.947 1.687 43911
0.835 0.951 1.684 39477
0.838 0.954 1.680 31659
0.841 0.958 1.676 22412
0.874 0.996 1.726 16209
0.877 0.999 1.723 17861
0.884 1.006 1.725 20010
0.887 1.010 1.721 15127
0.886 1.009 1.711 15565
0.889 1.013 1.707 19351
0.892 1.016 1.703 15888
0.899 1.024 1.705 11179
0.909 1.035 1.712 16535
0.912 1.038 1.708 22696
0.911 1.038 1.698 23498
0.914 1.041 1.694 24156
0.921 1.049 1.696 17515
0.938 1.068 1.715 10644
0.941 1.072 1.711 11193
0.940 1.071 1.701 11613
0.947 1.078 1.702 12992
0.954 1.086 1.704 22853
0.957 1.089 1.699 31677
0.960 1.093 1.695 38747
0.963 1.096 1.691 44243
0.966 1.099 1.687 48701
0.969 1.103 1.682 55553
0.971 1.106 1.678 56607
0.974 1.109 1.673 51476
0.977 1.113 1.669 47079
0.984 1.120 1.670 28960
0.991 1.128 1.671 13561
0.997 1.135 1.673 18342
0.996 1.135 1.663 25991
0.999 1.138 1.658 32668
1.013 1.154 1.670 31357
1.016 1.157 1.666 30212
1.012 1.152 1.650 28763
1.015 1.155 1.646 21335
1.029 1.172 1.657 17408
1.036 1.179 1.658 15474
1.057 1.204 1.681 11376
1.057 1.203 1.671 11313
1.052 1.198 1.655 13123
1.051 1.197 1.645 14015
1.100 1.252 1.705 12719
1.107 1.260 1.705 19161
1.114 1.268 1.705 23587
1.121 1.276 1.706 19426
1.124 1.279 1.701 10284
1.130 1.287 1.701 10496
1.133 1.291 1.696 15752
1.136 1.294 1.691 14947
1.147 1.306 1.696 8450
1.170 1.332 1.717 6671
1.173 1.335 1.712 9302
1.180 1.343 1.712 14657
1.187 1.351 1.712 20896
1.190 1.355 1.706 18578
1.193 1.358 1.701 11189
1.204 1.371 1.706 12301
1.211 1.379 1.705 18955
1.214 1.382 1.700 15670
1.229 1.399 1.710 11719
1.232 1.403 1.704 14403
1.231 1.401 1.694 18481
1.234 1.405 1.688 18638
1.233 1.403 1.678 10226
1.240 1.411 1.677 7192
1.251 1.424 1.681 9316
1.270 1.446 1.695 11461
1.277 1.454 1.695 11209
1.280 1.458 1.689 10398
1.287 1.466 1.688 10580
1.290 1.469 1.682 10645
1.305 1.486 1.691 11525
1.308 1.490 1.685 12688
1.311 1.493 1.679 8358
1.352 1.539 1.717 7912
1.355 1.543 1.710 9521
1.362 1.551 1.709 8580
1.365 1.554 1.703 7150
1.376 1.567 1.706 8113
1.379 1.571 1.700 9754
1.391 1.584 1.703 12021
1.402 1.597 1.706 15585
1.409 1.605 1.705 15951
1.417 1.613 1.703 15545
1.428 1.626 1.706 16359
1.431 1.630 1.700 16826
1.434 1.633 1.693 15246
1.446 1.646 1.696 11902
1.466 1.669 1.707 11341
1.465 1.668 1.696 13511
1.472 1.676 1.694 11445
1.475 1.679 1.688 7083
1.482 1.688 1.686 5787
1.511 1.721 1.705 8649
1.527 1.739 1.712 13037
1.539 1.752 1.714 16257
1.546 1.761 1.711 21815
1.549 1.764 1.704 24196
1.552 1.767 1.698 25312
1.555 1.771 1.691 25919
1.558 1.774 1.684 21664
1.565 1.783 1.681 17160
1.568 1.786 1.674 16078
1.571 1.789 1.667 14059
1.574 1.793 1.660 13123
1.577 1.796 1.653 10145
1.633 1.860 1.696 10290
1.636 1.863 1.689 12189
1.639 1.867 1.681 13059
1.642 1.870 1.674 14154
1.645 1.873 1.667 14379
1.648 1.877 1.659 12704
1.651 1.880 1.652 10341
1.663 1.893 1.653 10002
1.666 1.897 1.645 8418
1.678 1.910 1.646 7054
1.694 1.929 1.650 6840
1.711 1.948 1.654 5982
1.727 1.966 1.659 4951
1.734 1.975 1.655 4515
1.742 1.983 1.651 4181
1.804 2.054 1.693 3394
1.816 2.068 1.693 3849
1.824 2.077 1.689 4135
1.836 2.090 1.688 3678
1.857 2.115 1.695 3650
1.837 2.092 1.668 4307
1.831 2.085 1.652 5778
1.834 2.088 1.644 6149
1.832 2.086 1.632 6666
1.839 2.095 1.628 5492
1.847 2.103 1.623 4555
1.850 2.106 1.615 3068
1.973 2.247 1.701 3681
1.976 2.250 1.692 3683
1.979 2.254 1.684 3685
1.987 2.262 1.678 3553
1.999 2.276 1.676 3660
1.997 2.274 1.664 3405
1.972 2.246 1.634 3335
2.027 2.308 1.664 4318
2.077 2.364 1.689 6005
2.075 2.363 1.677 5799
2.073 2.360 1.664 5757
2.081 2.369 1.658 5184
2.093 2.383 1.655 4789
2.091 2.381 1.643 5515
2.094 2.384 1.633 6244
2.097 2.388 1.624 6244
2.100 2.391 1.615 5405
2.188 2.492 1.664 5073
2.186 2.489 1.651 4439
2.175 2.476 1.632 4131
2.292 2.610 1.699 3249
2.295 2.614 1.689 4099
2.298 2.617 1.679 4099
2.301 2.620 1.669 2049
0.449 0.510 1.717 7165
0.454 0.516 1.722 6950
0.462 0.524 1.735 7041
0.463 0.525 1.725 7165
0.464 0.526 1.716 7052
0.467 0.529 1.714 6671
0.465 0.528 1.697 8219
0.466 0.529 1.688 10037
0.471 0.535 1.693 13586
0.474 0.538 1.691 17250
0.479 0.544 1.696 16837
0.485 0.550 1.701 16968
0.488 0.553 1.699 14333
0.491 0.557 1.697 11479
0.494 0.560 1.694 11260
0.492 0.558 1.678 15206
0.495 0.561 1.676 19713
0.498 0.565 1.673 21572
0.501 0.568 1.671 23432
0.504 0.572 1.669 20664
0.507 0.575 1.667 17897
0.510 0.578 1.664 16855
0.510 0.579 1.655 16189
0.513 0.582 1.653 14422
0.516 0.585 1.650 12656
0.516 0.586 1.641 10850
0.517 0.586 1.632 8561
0.525 0.595 1.643 9930
0.530 0.601 1.648 10921
0.533 0.605 1.645 10585
0.538 0.611 1.650 9078
0.546 0.620 1.661 7072
0.552 0.626 1.666 6093
0.557 0.632 1.670 5244
0.555 0.630 1.654 5508
0.553 0.627 1.637 6331
0.590 0.669 1.724 7658
0.595 0.676 1.728 10160
0.593 0.673 1.712 12673
0.596 0.676 1.709 15473
0.602 0.683 1.713 15812
0.605 0.686 1.710 14331
0.608 0.690 1.708 12851
0.614 0.696 1.712 10893
0.625 0.709 1.729 13640
0.628 0.712 1.726 17541
0.628 0.713 1.717 17882
0.631 0.716 1.714 17647
0.634 0.720 1.711 16479
0.637 0.723 1.708 16388
0.640 0.726 1.705 14515
0.649 0.736 1.716 16992
0.658 0.746 1.726 25272
0.663 0.753 1.730 26383
0.666 0.756 1.727 23990
0.672 0.763 1.730 18969
0.678 0.770 1.734 22737
0.681 0.773 1.731 32195
0.684 0.777 1.728 39471
0.690 0.783 1.731 46797
0.696 0.790 1.735 46349
0.697 0.790 1.725 39635
0.700 0.794 1.722 25994
0.703 0.797 1.719 13700
0.715 0.811 1.735 9456
0.724 0.821 1.745 7577
0.721 0.818 1.729 6461
0.718 0.814 1.712 6583
0.721 0.818 1.709 7111
0.727 0.825 1.712 7166
0.739 0.838 1.728 6956
0.745 0.845 1.731 8247
0.748 0.849 1.728 11291
0.751 0.852 1.725 15029
0.757 0.859 1.728 12780
0.757 0.859 1.718 10193
0.757 0.859 1.708 10523
0.763 0.866 1.711 9951
0.776 0.880 1.727 9675
0.782 0.887 1.729 11128
0.782 0.887 1.720 12040
0.779 0.883 1.704 9263
0.785 0.890 1.706 8117
0.797 0.905 1.721 10272
0.800 0.908 1.718 10145
0.803 0.912 1.714 11564
0.806 0.915 1.711 10624
0.816 0.926 1.719 7190
0.826 0.937 1.728 9342
0.822 0.933 1.712 12433
0.825 0.936 1.708 21678
0.828 0.940 1.705 28852
0.824 0.935 1.689 29419
0.827 0.939 1.685 36182
0.834 0.946 1.687 42230
0.837 0.949 1.684 37556
0.840 0.953 1.680 30574
0.843 0.956 1.676 22269
0.876 0.994 1.726 15100
0.879 0.998 1.723 17220
0.886 1.005 1.725 19598
0.889 1.008 1.721 14064
0.888 1.008 1.711 13508
0.891 1.011 1.707 18770
0.894 1.015 1.703 17094
0.904 1.026 1.710 12382
0.914 1.037 1.718 16686
0.914 1.037 1.708 21741
0.913 1.036 1.698 22557
0.916 1.040 1.694 22748
0.923 1.047 1.696 16723
0.940 1.066 1.715 10388
0.943 1.070 1.711 8765
0.942 1.069 1.701 9186
0.949 1.077 1.702 11087
0.956 1.084 1.704 21660
0.959 1.088 1.699 31169
0.962 1.091 1.695 37234
0.964 1.094 1.691 42652
0.967 1.098 1.687 47587
0.970 1.101 1.682 53972
0.973 1.104 1.678 54671
0.976 1.108 1.673 48396
0.979 1.111 1.669 41449
0.986 1.119 1.670 23340
0.996 1.130 1.677 10968
0.999 1.134 1.673 17653
0.998 1.133 1.663 25428
1.001 1.136 1.658 31755
1.015 1.152 1.670 32318
1.018 1.155 1.666 30689
1.018 1.155 1.656 26496
1.017 1.154 1.646 18696
1.027 1.165 1.652 17328
1.038 1.177 1.658 14553
1.037 1.176 1.648 9040
1.043 1.184 1.649 10571
1.054 1.196 1.655 14215
1.057 1.199 1.650 14051
1.102 1.251 1.705 16909
1.109 1.258 1.705 24676
1.116 1.266 1.705 27029
1.123 1.274 1.706 22352
1.130 1.282 1.706 12338
1.137 1.290 1.706 11389
1.136 1.289 1.696 15380
1.139 1.292 1.691 14280
1.146 1.300 1.691 8624
1.164 1.321 1.707 5119
1.179 1.338 1.717 7568
1.182 1.341 1.712 13916
1.189 1.349 1.712 19751
1.192 1.353 1.706 17198
1.195 1.356 1.701 10053
1.206 1.369 1.706 11368
1.213 1.376 1.705 18400
1.220 1.384 1.705 17066
1.231 1.397 1.710 12836
1.234 1.400 1.704 13124
1.237 1.404 1.699 17309
1.240 1.407 1.693 17611
1.235 1.401 1.678 9970
1.238 1.405 1.672 7141
1.274 1.445 1.706 9865
1.273 1.444 1.695 13487
1.280 1.452 1.695 13731
1.283 1.455 1.689 14129
1.290 1.463 1.688 15260
1.293 1.467 1.682 14194
1.304 1.479 1.686 13728
1.311 1.488 1.685 14907
1.314 1.491 1.679 9505
1.355 1.537 1.717 8227
1.358 1.540 1.710 9501
1.369 1.553 1.714 9827
1.372 1.557 1.708 9148
1.375 1.560 1.702 9964
1.378 1.563 1.696 11033
1.394 1.581 1.703 10846
1.405 1.594 1.706 14294
1.412 1.602 1.705 15653
1.420 1.611 1.703 16047
1.427 1.619 1.701 16754
1.434 1.627 1.700 16996
1.441 1.635 1.698 15701
1.449 1.644 1.696 12484
1.469 1.667 1.707 11370
1.472 1.670 1.701 13099
1.470 1.668 1.690 10642
1.473 1.672 1.683 6330
1.485 1.685 1.686 4711
1.523 1.728 1.714 9043
1.530 1.736 1.712 13611
1.542 1.749 1.714 16527
1.549 1.758 1.711 21584
1.552 1.761 1.704 23168
1.555 1.765 1.698 23742
1.558 1.768 1.691 24495
1.561 1.771 1.684 21088
1.569 1.780 1.681 17377
1.572 1.783 1.674 16779
1.574 1.786 1.667 14739
1.577 1.790 1.660 13296
1.580 1.793 1.653 9836
1.632 1.852 1.692 10458
1.640 1.860 1.689 12488
1.643 1.864 1.681 13457
1.646 1.867 1.674 14423
1.648 1.870 1.667 14421
1.651 1.874 1.659 12729
1.654 1.877 1.652 10656
1.666 1.890 1.653 10718
1.669 1.894 1.645 8998
1.681 1.907 1.646 7480
1.693 1.921 1.646 6794
1.723 1.955 1.662 5449
1.744 1.979 1.670 5970
1.747 1.982 1.663 5239
1.750 1.986 1.655 4507
1.808 2.051 1.693 3812
1.811 2.054 1.685 4184
1.823 2.068 1.685 4022
1.835 2.082 1.684 3520
1.861 2.111 1.695 3486
1.836 2.083 1.664 4513
1.834 2.081 1.652 6195
1.833 2.080 1.641 6361
1.836 2.083 1.632 6628
1.839 2.086 1.624 5479
1.851 2.100 1.623 4575
1.853 2.103 1.615 3211
1.931 2.191 1.665 3237
1.929 2.189 1.653 3682
1.927 2.187 1.640 4198
1.939 2.201 1.639 3547
1.998 2.268 1.673 4060
2.001 2.271 1.664 3705
2.000 2.269 1.652 3355
2.082 2.363 1.702 4561
2.081 2.361 1.689 6362
2.079 2.359 1.677 6094
2.077 2.357 1.664 5977
2.085 2.366 1.658 5131
2.097 2.380 1.655 4457
2.095 2.377 1.643 5243
2.098 2.381 1.633 6051
2.101 2.384 1.624 6051
2.099 2.382 1.611 5394
2.193 2.488 1.664 5174
2.191 2.486 1.651 4526
2.179 2.473 1.632 4310
2.297 2.606 1.699 3387
2.300 2.610 1.689 4265
2.303 2.613 1.679 4265
2.306 2.616 1.669 2132
0.451 0.509 1.717 6741
0.458 0.517 1.730 7072
0.463 0.523 1.735 7504
0.464 0.524 1.725 7687
0.465 0.525 1.716 7533
0.468 0.528 1.714 7114
0.467 0.526 1.697 8093
0.467 0.527 1.688 9399
0.473 0.533 1.693 12769
0.478 0.539 1.698 16328
0.481 0.543 1.696 16027
0.486 0.549 1.701 16332
0.489 0.552 1.699 14006
0.497 0.561 1.711 11742
0.500 0.564 1.708 11851
0.496 0.559 1.685 15194
0.496 0.560 1.676 19566
0.499 0.563 1.673 21286
0.502 0.567 1.671 23007
0.505 0.570 1.669 20468
0.508 0.573 1.667 17929
0.511 0.577 1.664 16653
0.512 0.577 1.655 15690
0.515 0.581 1.653 13545
0.518 0.584 1.650 11401
0.518 0.584 1.641 9840
0.521 0.588 1.639 7788
0.526 0.594 1.643 9951
0.532 0.600 1.648 11711
0.537 0.606 1.652 11434
0.540 0.609 1.650 9655
0.545 0.615 1.654 7336
0.554 0.624 1.666 6338
0.559 0.631 1.670 5543
0.549 0.619 1.633 5597
0.552 0.623 1.631 6168
0.592 0.667 1.724 8533
0.595 0.671 1.721 11703
0.595 0.671 1.712 14081
0.598 0.675 1.709 16464
0.604 0.681 1.713 16617
0.607 0.685 1.710 15250
0.613 0.691 1.714 14110
0.618 0.698 1.718 12461
0.627 0.707 1.729 15468
0.630 0.711 1.726 19544
0.630 0.711 1.717 19576
0.633 0.714 1.714 18891
0.636 0.718 1.711 17442
0.639 0.721 1.708 17575
0.642 0.725 1.705 15842
0.651 0.734 1.716 18460
0.660 0.744 1.726 26423
0.666 0.751 1.730 26808
0.669 0.754 1.727 23995
0.675 0.761 1.730 19169
0.680 0.768 1.734 23896
0.684 0.771 1.731 34009
0.687 0.775 1.728 41636
0.693 0.781 1.731 48834
0.699 0.788 1.735 47694
0.699 0.788 1.725 40305
0.702 0.792 1.722 27205
0.708 0.799 1.725 16297
0.714 0.805 1.729 12062
0.720 0.812 1.732 8970
0.720 0.812 1.722 7613
0.720 0.812 1.712 8257
0.723 0.816 1.709 9020
0.729 0.823 1.712 9185
0.735 0.829 1.716 8019
0.747 0.843 1.731 8824
0.751 0.847 1.728 12384
0.754 0.850 1.725 15680
0.760 0.857 1.728 13078
0.760 0.857 1.718 10713
0.760 0.857 1.708 11267
0.766 0.864 1.711 11343
0.778 0.878 1.727 10874
0.785 0.885 1.729 10814
0.784 0.885 1.720 10888
0.784 0.885 1.710 8363
0.800 0.903 1.731 8716
0.800 0.902 1.721 11334
0.803 0.906 1.718 10301
0.806 0.909 1.714 11747
0.809 0.913 1.711 11177
0.815 0.920 1.713 7229
0.828 0.934 1.728 8223
0.828 0.934 1.718 11137
0.831 0.938 1.715 20200
0.834 0.941 1.711 26456
0.827 0.933 1.689 25043
0.830 0.936 1.685 32092
0.836 0.944 1.687 38717
0.839 0.947 1.684 33836
0.842 0.950 1.680 28008
0.845 0.954 1.676 21267
0.879 0.992 1.726 14148
0.882 0.995 1.723 15780
0.888 1.002 1.725 18156
0.895 1.010 1.727 12656
0.895 1.009 1.717 12094
0.898 1.013 1.713 18931
0.901 1.016 1.709 19190
0.911 1.027 1.716 15734
0.917 1.035 1.718 19157
0.917 1.034 1.708 21839
0.916 1.034 1.698 21668
0.919 1.037 1.694 21192
0.926 1.044 1.696 15844
0.939 1.060 1.709 10931
0.942 1.063 1.705 7643
0.945 1.067 1.701 7324
0.952 1.074 1.702 9094
0.959 1.081 1.704 19803
0.962 1.085 1.699 29672
0.965 1.088 1.695 33982
0.968 1.092 1.691 38442
0.971 1.095 1.687 43903
0.974 1.098 1.682 50522
0.977 1.102 1.678 50819
0.979 1.105 1.673 42984
0.982 1.108 1.669 34484
0.985 1.112 1.665 18206
1.025 1.157 1.716 7933
1.006 1.135 1.678 15577
1.002 1.130 1.663 22964
1.008 1.138 1.664 29277
1.022 1.154 1.676 32655
1.025 1.157 1.671 31204
1.025 1.156 1.661 24519
1.062 1.198 1.706 18824
1.030 1.163 1.652 16488
1.037 1.170 1.653 13601
1.040 1.173 1.648 7932
1.047 1.181 1.649 9837
1.057 1.193 1.655 13655
1.064 1.201 1.656 12070
1.106 1.247 1.705 19638
1.113 1.255 1.705 28712
1.119 1.263 1.705 28657
1.126 1.271 1.706 23170
1.129 1.274 1.701 14366
1.140 1.286 1.706 12053
1.139 1.285 1.696 13904
1.142 1.289 1.691 12824
1.145 1.292 1.686 8464
1.156 1.304 1.691 5668
1.179 1.330 1.712 6568
1.186 1.338 1.712 10719
1.193 1.346 1.712 16367
1.196 1.349 1.706 15349
1.199 1.353 1.701 9169
1.210 1.365 1.706 10382
1.221 1.378 1.710 18150
1.228 1.386 1.710 19230
1.231 1.389 1.705 13911
1.242 1.401 1.709 11293
1.245 1.405 1.704 15946
1.248 1.408 1.698 16515
1.243 1.402 1.683 10063
1.242 1.401 1.672 7617
1.278 1.441 1.706 10871
1.277 1.440 1.695 15037
1.280 1.444 1.690 15894
1.287 1.452 1.689 17558
1.294 1.460 1.688 19769
1.297 1.463 1.682 17744
1.308 1.476 1.686 15883
1.315 1.484 1.685 16618
1.314 1.482 1.675 10117
1.359 1.533 1.717 8232
1.362 1.536 1.710 9431
1.373 1.549 1.714 11069
1.372 1.548 1.703 10808
1.379 1.556 1.702 11257
1.382 1.560 1.696 12894
1.390 1.568 1.694 11573
1.410 1.590 1.706 12618
1.417 1.598 1.705 14460
1.424 1.607 1.703 15630
1.431 1.615 1.701 16230
1.439 1.623 1.700 16398
1.446 1.631 1.698 15844
1.453 1.640 1.696 12970
1.474 1.662 1.707 11466
1.477 1.666 1.701 12816
1.480 1.669 1.694 9963
1.483 1.673 1.688 6180
1.503 1.696 1.699 5504
1.528 1.723 1.714 9638
1.535 1.732 1.712 13981
1.547 1.745 1.714 16543
1.550 1.748 1.707 20898
1.557 1.757 1.704 21598
1.560 1.760 1.698 21766
1.563 1.764 1.691 22686
1.566 1.767 1.684 20107
1.574 1.775 1.681 17183
1.577 1.779 1.674 17010
1.580 1.782 1.667 15032
1.582 1.785 1.660 13227
1.585 1.789 1.653 9419
1.637 1.847 1.692 10502
1.645 1.856 1.689 12419
1.648 1.859 1.681 13452
1.651 1.862 1.674 14256
1.654 1.866 1.667 14028
1.657 1.869 1.659 12292
1.660 1.872 1.652 10586
1.672 1.886 1.653 11157
1.679 1.894 1.649 9376
1.695 1.913 1.654 7991
1.703 1.921 1.650 7099
1.733 1.955 1.666 5649
1.750 1.974 1.670 7190
1.753 1.977 1.663 6233
1.756 1.981 1.655 5276
1.813 2.046 1.693 4169
1.816 2.049 1.685 4587
1.819 2.053 1.677 4145
1.818 2.051 1.665 3702
1.871 2.111 1.699 3518
1.837 2.073 1.661 4706
1.840 2.076 1.652 6484
1.839 2.074 1.641 6476
1.837 2.072 1.629 6560
1.844 2.081 1.624 5401
1.857 2.095 1.623 4518
1.878 2.119 1.630 3482
1.937 2.185 1.665 3776
1.935 2.183 1.653 4559
1.933 2.181 1.640 5559
1.941 2.190 1.635 4769
2.005 2.262 1.673 4284
2.008 2.265 1.664 3879
2.030 2.290 1.669 3600
2.089 2.357 1.702 4763
2.087 2.355 1.689 6528
2.090 2.358 1.680 6256
2.089 2.356 1.667 6068
2.096 2.365 1.661 5004
2.104 2.374 1.655 4057
2.102 2.372 1.643 4818
2.105 2.375 1.633 5612
2.108 2.378 1.624 5612
2.106 2.376 1.611 5164
2.195 2.476 1.661 5319
2.193 2.474 1.648 4729
2.186 2.466 1.632 4598
2.189 2.470 1.622 3575
2.303 2.598 1.686 4418
2.305 2.601 1.676 4418
2.308 2.604 1.665 2209
0.456 0.513 1.732 6472
0.459 0.516 1.730 7138
0.462 0.520 1.727 7805
0.463 0.521 1.718 8027
0.466 0.524 1.716 7890
0.467 0.525 1.707 7490
0.467 0.526 1.697 7993
0.468 0.527 1.688 8805
0.473 0.532 1.693 11943
0.479 0.538 1.698 15356
0.484 0.544 1.703 15156
0.487 0.548 1.701 15480
0.490 0.551 1.699 13555
0.498 0.560 1.711 12136
0.501 0.563 1.708 12345
0.497 0.559 1.685 15394
0.497 0.559 1.676 19664
0.503 0.565 1.680 21274
0.506 0.569 1.678 22914
0.509 0.572 1.676 20499
0.509 0.573 1.667 18107
0.512 0.576 1.664 16643
0.513 0.576 1.655 15419
0.516 0.580 1.653 12911
0.518 0.583 1.650 10404
0.521 0.586 1.648 9100
0.524 0.590 1.646 7487
0.530 0.596 1.650 10250
0.533 0.599 1.648 12568
0.538 0.605 1.652 12464
0.541 0.608 1.650 10418
0.546 0.615 1.654 7938
0.555 0.624 1.666 6858
0.560 0.630 1.670 6073
0.550 0.618 1.633 5749
0.553 0.622 1.631 6085
0.593 0.666 1.724 9598
0.596 0.670 1.721 13287
0.596 0.670 1.712 15494
0.599 0.674 1.709 17468
0.605 0.680 1.713 17575
0.608 0.684 1.710 16256
0.614 0.690 1.714 15393
0.619 0.697 1.718 14148
0.628 0.706 1.729 17422
0.631 0.710 1.726 21705
0.631 0.710 1.717 21385
0.634 0.713 1.714 20202
0.637 0.717 1.711 18390
0.640 0.720 1.708 18710
0.643 0.724 1.705 17119
0.652 0.733 1.716 19803
0.661 0.743 1.726 27322
0.667 0.750 1.730 26994
0.670 0.753 1.727 23808
0.676 0.760 1.730 19209
0.682 0.767 1.734 24866
0.685 0.770 1.731 35543
0.688 0.774 1.728 43288
0.694 0.780 1.731 50165
0.700 0.787 1.735 48398
0.703 0.791 1.732 40766
0.703 0.791 1.722 28619
0.709 0.797 1.725 19218
0.715 0.804 1.729 14970
0.718 0.808 1.725 11177
0.718 0.808 1.716 9688
0.721 0.811 1.712 10675
0.724 0.815 1.709 11559
0.730 0.821 1.712 11702
0.733 0.825 1.709 9780
0.743 0.835 1.719 10115
0.749 0.842 1.722 13983
0.755 0.849 1.725 16116
0.761 0.856 1.728 13039
0.761 0.856 1.718 10783
0.764 0.859 1.715 11372
0.770 0.866 1.717 12402
0.776 0.873 1.720 12151
0.786 0.884 1.729 10479
0.789 0.887 1.726 10067
0.786 0.883 1.710 8243
0.798 0.898 1.725 10386
0.801 0.901 1.721 12778
0.801 0.901 1.712 10666
0.807 0.908 1.714 11800
0.810 0.911 1.711 11555
0.814 0.915 1.707 7247
0.826 0.929 1.722 7257
0.833 0.937 1.724 10632
0.842 0.947 1.733 19879
0.842 0.947 1.723 24603
0.832 0.936 1.695 20060
0.832 0.935 1.685 26714
0.838 0.942 1.687 33354
0.841 0.946 1.684 28313
0.844 0.949 1.680 24184
0.847 0.952 1.676 19642
0.880 0.990 1.726 13469
0.884 0.994 1.723 14079
0.890 1.001 1.725 16232
0.897 1.008 1.727 11295
0.900 1.012 1.723 11143
0.899 1.011 1.713 19434
0.902 1.015 1.709 21541
0.912 1.026 1.716 19873
0.919 1.033 1.718 22337
0.922 1.037 1.714 22648
0.921 1.036 1.704 20458
0.921 1.036 1.694 19075
0.931 1.047 1.702 15044
0.941 1.058 1.709 11515
0.944 1.062 1.705 7578
0.943 1.061 1.695 6162
