-1.233 2.672 1.655 6136
-1.237 2.683 1.650 4558
-1.260 2.732 1.666 4932
-1.259 2.729 1.653 6220
-1.258 2.727 1.641 7697
-1.260 2.731 1.632 6632
-1.261 2.735 1.623 5577
-1.266 2.745 1.618 3483
-1.331 2.885 1.681 3472
-1.336 2.896 1.675 3858
-1.338 2.900 1.666 4337
-1.372 2.975 1.693 4264
-1.371 2.973 1.680 6131
-1.373 2.977 1.671 6131
-1.378 2.987 1.664 6217
-1.389 3.011 1.664 6715
-1.379 2.989 1.642 7422
-1.378 2.986 1.629 8687
-1.379 2.990 1.619 7474
-1.378 2.988 1.606 6343
-1.380 2.991 1.596 6343
-1.382 2.995 1.587 3171
-0.277 0.606 1.688 8839
-0.279 0.610 1.686 9290
-0.280 0.611 1.677 9974
-0.280 0.612 1.668 10068
-0.282 0.616 1.666 10220
-0.284 0.620 1.664 10220
-0.286 0.624 1.662 12020
-0.289 0.632 1.667 13937
-0.289 0.633 1.657 14518
-0.290 0.633 1.648 15565
-0.289 0.631 1.632 14546
-0.291 0.635 1.630 14152
-0.292 0.639 1.628 13982
-0.294 0.643 1.626 13811
-0.296 0.647 1.623 11529
-0.298 0.651 1.621 9460
-0.300 0.655 1.619 10305
-0.312 0.681 1.666 11821
-0.314 0.685 1.664 14011
-0.303 0.663 1.605 12899
-0.305 0.667 1.603 13207
-0.307 0.671 1.601 11923
-0.327 0.715 1.683 12026
-0.329 0.719 1.681 9399
-0.334 0.730 1.692 6964
-0.328 0.717 1.655 7642
-0.328 0.717 1.646 10585
-0.332 0.725 1.650 16843
-0.337 0.736 1.662 23565
-0.338 0.740 1.659 25051
-0.340 0.744 1.657 19934
-0.341 0.744 1.647 13753
-0.344 0.752 1.652 12122
-0.354 0.774 1.684 11863
-0.357 0.781 1.688 14398
-0.359 0.785 1.685 17010
-0.363 0.793 1.690 13417
-0.368 0.804 1.701 10401
-0.370 0.808 1.698 9863
-0.370 0.809 1.689 12254
-0.370 0.809 1.679 15193
-0.374 0.817 1.683 16807
-0.374 0.817 1.674 19012
-0.376 0.821 1.671 18480
-0.378 0.825 1.668 15308
-0.381 0.833 1.672 13263
-0.381 0.834 1.663 9973
-0.383 0.838 1.660 7163
-0.385 0.842 1.657 7641
-0.389 0.849 1.661 7552
-0.390 0.853 1.659 7174
-0.392 0.857 1.656 6811
-0.394 0.861 1.653 9293
-0.398 0.869 1.657 12339
-0.401 0.877 1.661 13817
-0.405 0.885 1.664 15073
-0.410 0.897 1.675 26162
-0.414 0.905 1.678 37292
-0.416 0.909 1.675 41797
-0.418 0.913 1.672 43389
-0.422 0.921 1.676 31460
-0.427 0.934 1.686 22033
-0.425 0.930 1.670 21615
-0.420 0.917 1.641 16064
-0.440 0.962 1.703 10114
-0.442 0.966 1.699 9283
-0.444 0.970 1.696 8303
-0.448 0.979 1.700 6200
-0.452 0.987 1.703 5291
-0.452 0.987 1.693 5832
-0.448 0.978 1.671 6256
-0.453 0.991 1.680 7001
-0.459 1.003 1.690 6646
-0.463 1.012 1.693 5925
-0.467 1.020 1.696 7922
-0.469 1.024 1.693 8118
-0.467 1.020 1.677 9488
-0.468 1.024 1.673 12193
-0.472 1.032 1.676 18567
-0.476 1.041 1.679 26547
-0.480 1.049 1.682 24728
-0.480 1.049 1.672 19816
-0.482 1.053 1.669 18151
-0.483 1.057 1.665 15874
-0.485 1.061 1.662 16569
-0.487 1.065 1.658 18406
-0.489 1.069 1.655 16857
-0.491 1.073 1.651 16140
-0.495 1.081 1.654 15635
-0.501 1.094 1.663 12502
-0.509 1.112 1.678 13471
-0.509 1.112 1.668 18653
-0.506 1.106 1.652 21029
-0.508 1.110 1.648 17262
-0.508 1.110 1.639 12583
-0.510 1.114 1.635 28049
-0.509 1.113 1.625 45121
-0.515 1.126 1.634 51658
-0.519 1.135 1.636 58210
-0.523 1.143 1.638 59897
-0.525 1.147 1.635 48702
-0.527 1.151 1.631 44921
-0.531 1.160 1.633 49909
-0.535 1.169 1.635 38155
-0.539 1.177 1.637 21696
-0.558 1.220 1.681 21404
-0.558 1.219 1.671 19174
-0.546 1.194 1.632 10945
-0.548 1.198 1.628 7525
-0.552 1.207 1.630 9514
-0.554 1.211 1.626 11613
-0.556 1.215 1.622 13222
-0.557 1.219 1.618 14809
-0.559 1.222 1.614 15713
-0.561 1.226 1.610 12725
-0.565 1.235 1.612 12061
-0.567 1.239 1.608 9110
-0.569 1.243 1.604 7784
-0.573 1.252 1.605 9069
-0.593 1.296 1.647 11954
-0.590 1.290 1.631 12229
-0.580 1.268 1.599 12576
-0.598 1.307 1.634 13680
-0.605 1.322 1.641 24965
-0.606 1.325 1.637 19396
-0.606 1.324 1.627 12370
-0.594 1.298 1.589 11736
-0.619 1.353 1.640 13152
-0.623 1.362 1.641 10082
-0.627 1.371 1.643 8294
-0.627 1.370 1.633 8428
-0.645 1.410 1.667 18380
-0.644 1.409 1.657 23490
-0.649 1.418 1.657 14041
-0.658 1.438 1.669 18174
-0.660 1.442 1.664 23644
-0.661 1.446 1.660 16731
-0.668 1.460 1.666 15603
-0.672 1.469 1.666 18854
-0.677 1.479 1.667 15298
-0.678 1.483 1.662 14006
-0.680 1.487 1.657 16459
-0.684 1.496 1.658 14440
-0.689 1.505 1.658 9178
-0.691 1.509 1.653 5167
-0.700 1.530 1.664 5745
-0.702 1.534 1.659 9068
-0.703 1.538 1.654 7965
-0.713 1.558 1.665 8640
-0.715 1.562 1.660 8641
-0.721 1.577 1.665 7528
-0.726 1.586 1.665 9448
-0.730 1.596 1.665 8247
-0.742 1.622 1.680 12035
-0.744 1.626 1.675 15045
-0.748 1.635 1.675 8309
-0.748 1.634 1.664 5045
-0.749 1.638 1.659 6031
-0.754 1.647 1.659 6468
-0.761 1.663 1.664 6909
-0.765 1.672 1.663 5566
-0.772 1.687 1.668 4019
-0.779 1.703 1.672 5132
-0.786 1.718 1.676 6576
-0.790 1.728 1.676 6234
-0.792 1.732 1.670 9000
-0.791 1.730 1.660 15137
-0.796 1.740 1.659 19098
-0.798 1.744 1.653 18624
-0.800 1.748 1.648 17749
-0.801 1.752 1.642 22197
-0.803 1.756 1.636 24488
-0.805 1.760 1.630 24354
-0.804 1.758 1.620 20875
-0.806 1.762 1.614 15814
-0.813 1.777 1.618 11693
-0.849 1.856 1.673 13078
-0.851 1.860 1.667 16210
-0.848 1.853 1.652 10638
-0.831 1.816 1.613 9091
-0.838 1.831 1.617 8743
-0.874 1.911 1.671 11483
-0.874 1.910 1.660 14048
-0.875 1.914 1.654 13509
-0.840 1.835 1.584 13936
-0.841 1.839 1.578 11102
-0.900 1.967 1.667 11709
-0.902 1.971 1.660 12020
-0.906 1.981 1.658 11136
-0.911 1.991 1.656 11516
-0.891 1.947 1.614 12331
-0.893 1.951 1.608 11895
-0.922 2.015 1.646 9726
-0.921 2.013 1.635 10672
-0.953 2.083 1.676 12625
-0.952 2.081 1.665 13751
-0.951 2.079 1.654 11992
-0.961 2.101 1.660 11957
-0.966 2.111 1.658 16310
-0.968 2.115 1.651 17666
-0.972 2.125 1.648 13930
-0.980 2.141 1.650 10652
-0.981 2.145 1.643 11158
-0.983 2.149 1.636 11548
-0.985 2.153 1.629 9411
-0.987 2.157 1.622 6883
-0.991 2.167 1.619 5322
-1.033 2.257 1.670 5415
-1.040 2.273 1.671 7503
-1.042 2.277 1.663 8206
-1.044 2.281 1.656 7799
-1.043 2.279 1.644 6839
-1.056 2.308 1.653 5795
-1.078 2.355 1.674 5957
-1.079 2.359 1.666 8259
-1.081 2.363 1.658 9033
-1.083 2.367 1.651 7506
-1.088 2.378 1.647 5168
-1.070 2.338 1.612 3446
-1.094 2.392 1.635 3803
-1.110 2.427 1.647 5546
-1.164 2.545 1.708 6678
-1.166 2.549 1.700 6173
-1.171 2.559 1.695 5691
-1.170 2.557 1.683 6016
-1.166 2.548 1.667 6519
-1.174 2.565 1.667 5317
-1.181 2.582 1.666 4438
-1.180 2.579 1.654 4718
-1.182 2.583 1.645 5013
-1.222 2.670 1.684 5859
-1.224 2.675 1.676 7271
-1.225 2.679 1.667 6455
-1.224 2.676 1.655 5759
-1.259 2.751 1.685 4605
-1.252 2.736 1.666 4703
-1.250 2.733 1.653 5842
-1.249 2.731 1.641 7299
-1.251 2.735 1.632 6453
-1.253 2.739 1.623 5634
-1.255 2.743 1.615 3619
-1.322 2.889 1.681 3468
-1.327 2.900 1.675 4013
-1.332 2.910 1.669 4586
-1.360 2.973 1.690 4599
-1.362 2.977 1.680 6660
-1.364 2.981 1.671 6660
-1.369 2.992 1.664 6671
-1.380 3.015 1.664 7101
-1.369 2.993 1.642 7771
-1.371 2.997 1.632 8920
-1.370 2.994 1.619 7531
-1.369 2.992 1.606 6171
-1.371 2.996 1.596 6171
-1.372 2.999 1.587 3085
-0.276 0.607 1.688 8646
-0.278 0.611 1.686 8992
-0.279 0.612 1.677 9489
-0.279 0.613 1.668 9332
-0.281 0.617 1.666 9304
-0.283 0.621 1.664 9304
-0.284 0.625 1.662 11139
-0.288 0.632 1.667 13064
-0.288 0.633 1.657 13679
-0.289 0.634 1.648 14702
-0.288 0.632 1.632 13720
-0.289 0.636 1.630 13333
-0.291 0.640 1.628 13319
-0.293 0.644 1.626 13304
-0.295 0.647 1.623 11051
-0.298 0.655 1.628 9138
-0.300 0.658 1.626 10302
-0.309 0.679 1.659 12155
-0.312 0.686 1.664 14160
-0.304 0.667 1.613 12727
-0.304 0.668 1.603 13165
-0.306 0.671 1.601 11594
-0.324 0.712 1.676 11303
-0.326 0.716 1.674 8914
-0.329 0.724 1.678 6532
-0.327 0.717 1.655 8953
-0.327 0.718 1.646 12168
-0.330 0.725 1.650 18872
-0.334 0.733 1.655 26151
-0.337 0.740 1.659 27656
-0.337 0.741 1.650 22211
-0.339 0.745 1.647 15619
-0.341 0.749 1.645 13958
-0.346 0.760 1.656 12579
-0.354 0.778 1.681 13377
-0.358 0.786 1.685 15892
-0.361 0.794 1.690 12445
-0.365 0.801 1.694 9532
-0.368 0.809 1.698 9309
-0.368 0.810 1.689 12106
-0.369 0.810 1.679 15235
-0.371 0.814 1.677 17012
-0.372 0.818 1.674 19602
-0.374 0.822 1.671 19495
-0.376 0.826 1.668 16937
-0.378 0.830 1.666 15299
-0.380 0.834 1.663 11826
-0.382 0.838 1.660 8180
-0.383 0.842 1.657 8007
-0.385 0.846 1.655 7833
-0.389 0.854 1.659 7687
-0.391 0.858 1.656 7687
-0.392 0.862 1.653 10352
-0.394 0.866 1.650 13628
-0.400 0.878 1.661 15136
-0.401 0.882 1.658 16535
-0.409 0.898 1.675 26693
-0.412 0.906 1.678 37355
-0.414 0.910 1.675 41273
-0.416 0.914 1.672 43535
-0.420 0.922 1.676 32248
-0.425 0.934 1.686 22687
-0.423 0.930 1.670 21600
-0.425 0.934 1.667 16192
-0.436 0.959 1.696 10824
-0.436 0.959 1.686 8971
-0.438 0.963 1.683 7441
-0.446 0.980 1.700 5400
-0.450 0.988 1.703 5513
-0.450 0.988 1.693 6719
-0.446 0.979 1.671 7625
-0.449 0.988 1.674 8031
-0.453 0.996 1.677 7023
-0.459 1.008 1.686 6002
-0.465 1.021 1.696 7955
-0.465 1.021 1.686 8209
-0.465 1.021 1.677 9844
-0.466 1.025 1.673 12205
-0.470 1.033 1.676 17549
-0.474 1.042 1.679 24844
-0.478 1.050 1.682 23021
-0.478 1.050 1.672 18571
-0.480 1.054 1.669 17456
-0.481 1.058 1.665 14921
-0.483 1.062 1.662 14863
-0.485 1.066 1.658 16682
-0.487 1.070 1.655 16065
-0.489 1.074 1.651 16325
-0.493 1.082 1.654 16071
-0.496 1.091 1.657 12965
-0.505 1.108 1.672 13772
-0.506 1.112 1.668 19481
-0.504 1.107 1.652 22987
-0.506 1.111 1.648 20688
-0.501 1.101 1.627 14114
-0.505 1.110 1.629 28864
-0.509 1.119 1.631 47775
-0.511 1.123 1.628 53124
-0.517 1.136 1.636 57819
-0.521 1.144 1.638 60071
-0.523 1.148 1.635 48996
-0.525 1.152 1.631 44871
-0.526 1.156 1.627 48775
-0.532 1.170 1.635 36280
-0.536 1.178 1.637 21303
-0.556 1.221 1.681 21329
-0.555 1.220 1.671 20276
-0.548 1.205 1.643 11676
-0.548 1.204 1.634 8162
-0.552 1.213 1.636 8461
-0.552 1.212 1.626 9754
-0.553 1.216 1.622 12550
-0.555 1.220 1.618 14382
-0.559 1.228 1.620 13552
-0.561 1.232 1.616 11867
-0.563 1.236 1.612 12730
-0.564 1.240 1.608 8543
-0.566 1.244 1.604 6603
-0.586 1.288 1.645 9512
-0.590 1.297 1.647 12388
-0.590 1.296 1.637 12080
-0.580 1.274 1.604 13180
-0.582 1.278 1.600 14280
-0.602 1.323 1.641 22927
-0.604 1.327 1.637 18747
-0.601 1.320 1.621 11675
-0.589 1.294 1.583 13223
-0.619 1.359 1.646 13700
-0.620 1.363 1.641 9595
-0.624 1.372 1.643 7857
-0.626 1.376 1.638 9551
-0.642 1.411 1.667 18280
-0.644 1.415 1.662 22330
-0.648 1.424 1.663 13436
-0.655 1.439 1.669 14601
-0.657 1.443 1.664 18047
-0.659 1.447 1.660 13606
-0.665 1.461 1.666 15207
-0.669 1.471 1.666 19929
-0.674 1.480 1.667 15584
-0.675 1.484 1.662 12126
-0.677 1.488 1.657 12739
-0.682 1.497 1.658 10225
-0.686 1.507 1.658 6127
-0.693 1.522 1.664 3753
-0.699 1.536 1.669 5525
-0.699 1.535 1.659 8333
-0.703 1.544 1.659 7995
-0.710 1.559 1.665 10033
-0.712 1.563 1.660 9679
-0.718 1.578 1.665 7556
-0.723 1.588 1.665 9408
-0.727 1.597 1.665 8390
-0.736 1.618 1.675 10763
-0.738 1.622 1.670 12631
-0.740 1.626 1.665 8454
-0.742 1.630 1.659 7187
-0.746 1.639 1.659 7312
-0.753 1.654 1.664 7562
-0.762 1.675 1.674 10511
-0.762 1.674 1.663 8727
-0.766 1.683 1.663 5892
-0.776 1.704 1.672 6837
-0.780 1.714 1.672 8419
-0.784 1.723 1.671 6974
-0.786 1.728 1.665 8201
-0.788 1.732 1.660 12946
-0.793 1.741 1.659 16051
-0.797 1.751 1.658 15763
-0.799 1.755 1.652 13897
-0.798 1.753 1.642 16152
-0.802 1.763 1.641 18794
-0.804 1.767 1.635 19781
-0.803 1.765 1.625 16404
-0.826 1.815 1.657 13160
-0.817 1.796 1.632 10315
-0.846 1.858 1.673 13550
-0.847 1.862 1.667 17224
-0.847 1.860 1.657 10959
-0.830 1.823 1.618 7979
-0.840 1.845 1.626 9717
-0.868 1.907 1.666 11626
-0.870 1.911 1.660 14570
-0.872 1.915 1.654 14988
-0.836 1.837 1.584 13707
-0.838 1.841 1.578 10898
-0.896 1.969 1.667 10269
-0.898 1.973 1.660 10321
-0.846 1.858 1.564 9833
-0.907 1.993 1.656 11143
-0.887 1.949 1.614 12313
-0.889 1.953 1.608 11778
-0.891 1.957 1.602 9013
-0.917 2.014 1.635 8814
-0.949 2.084 1.676 12189
-0.945 2.077 1.661 13661
-0.947 2.081 1.654 11688
-0.957 2.103 1.660 11182
-0.962 2.113 1.658 15913
-0.963 2.117 1.651 17538
-0.965 2.121 1.644 13994
-0.973 2.137 1.646 10425
-0.977 2.147 1.643 10737
-0.979 2.151 1.636 11381
-0.981 2.155 1.629 9716
-0.983 2.159 1.622 7405
-0.987 2.169 1.619 5157
-1.028 2.259 1.670 5567
-1.033 2.269 1.667 7329
-1.037 2.279 1.663 8065
-1.039 2.283 1.656 8420
-1.038 2.281 1.644 8074
-1.040 2.285 1.637 6779
-1.056 2.320 1.650 5845
-1.075 2.362 1.666 7927
-1.077 2.366 1.658 8839
-1.081 2.376 1.655 7478
-1.083 2.380 1.647 5190
-1.065 2.340 1.612 3141
-1.101 2.419 1.651 3996
-1.106 2.429 1.647 5916
-1.159 2.547 1.708 6620
-1.161 2.551 1.700 6151
-1.163 2.555 1.691 5682
-1.165 2.559 1.683 5975
-1.164 2.557 1.671 6366
-1.169 2.567 1.667 4976
-1.194 2.622 1.688 4097
-1.178 2.588 1.657 4112
-1.218 2.675 1.697 4435
-1.217 2.673 1.684 5593
-1.218 2.677 1.676 6789
-1.220 2.681 1.667 5943
-1.219 2.679 1.655 5189
-1.256 2.760 1.689 4704
-1.258 2.764 1.680 4644
-1.242 2.729 1.650 5338
-1.241 2.727 1.638 6750
-1.243 2.731 1.629 6220
-1.248 2.741 1.623 5656
-1.249 2.745 1.615 3726
-1.319 2.898 1.684 3540
-1.321 2.902 1.675 4336
-1.326 2.913 1.669 5183
-1.354 2.976 1.690 4800
-1.356 2.980 1.680 6829
-1.358 2.984 1.671 6829
-1.363 2.994 1.664 6778
-1.374 3.018 1.664 7222
-1.367 3.002 1.645 7760
-1.365 3.000 1.632 8870
-1.367 3.004 1.622 7272
-1.366 3.001 1.609 5772
-1.368 3.005 1.600 5772
-1.369 3.009 1.590 2886
-0.275 0.607 1.688 8685
-0.276 0.612 1.686 8918
-0.277 0.613 1.677 9215
-0.279 0.617 1.675 8753
-0.279 0.618 1.666 8487
-0.281 0.622 1.664 8487
-0.283 0.626 1.662 10247
-0.286 0.633 1.667 12027
-0.286 0.634 1.657 12653
-0.287 0.635 1.648 13634
-0.286 0.632 1.632 12735
-0.286 0.633 1.623 12344
-0.289 0.640 1.628 12494
-0.291 0.644 1.626 12656
-0.293 0.648 1.623 10559
-0.296 0.655 1.628 9078
-0.304 0.672 1.654 10643
-0.307 0.680 1.659 12493
-0.309 0.684 1.657 14398
-0.302 0.668 1.613 12929
-0.304 0.672 1.610 13299
-0.305 0.676 1.608 11317
-0.322 0.713 1.676 10945
-0.323 0.714 1.667 9353
-0.320 0.708 1.643 8575
-0.323 0.715 1.648 11300
-0.325 0.719 1.646 14354
-0.328 0.726 1.650 21383
-0.332 0.734 1.655 29035
-0.333 0.738 1.652 30544
-0.335 0.742 1.650 25001
-0.336 0.742 1.640 17909
-0.339 0.750 1.645 16161
-0.341 0.754 1.642 14442
-0.346 0.765 1.654 12668
-0.354 0.783 1.679 14580
-0.358 0.791 1.683 11390
-0.363 0.802 1.694 8724
-0.366 0.810 1.698 8594
-0.366 0.811 1.689 11389
-0.367 0.811 1.679 14608
-0.368 0.815 1.677 16770
-0.370 0.819 1.674 20027
-0.372 0.823 1.671 20728
-0.374 0.827 1.668 19191
-0.376 0.831 1.666 18050
-0.378 0.835 1.663 14342
-0.378 0.835 1.654 9836
-0.379 0.839 1.651 8789
-0.383 0.847 1.655 8198
-0.387 0.855 1.659 8045
-0.388 0.859 1.656 8613
-0.390 0.863 1.653 11486
-0.392 0.867 1.650 15063
-0.396 0.875 1.654 16456
-0.399 0.883 1.658 17902
-0.406 0.899 1.675 26553
-0.410 0.907 1.678 36376
-0.412 0.911 1.675 39438
-0.415 0.919 1.679 42567
-0.416 0.919 1.669 32857
-0.419 0.927 1.673 23181
-0.423 0.936 1.676 22163
-0.425 0.940 1.673 18424
-0.428 0.948 1.677 13447
-0.430 0.952 1.674 11147
-0.432 0.956 1.670 8793
-0.428 0.947 1.648 5812
-0.445 0.985 1.696 5977
-0.445 0.985 1.687 8217
-0.443 0.980 1.671 9470
-0.447 0.989 1.674 9535
-0.449 0.993 1.671 8296
-0.454 1.005 1.680 7042
-0.460 1.018 1.690 8352
-0.462 1.022 1.686 8248
-0.462 1.022 1.677 10089
-0.464 1.026 1.673 12227
-0.468 1.034 1.676 16420
-0.471 1.043 1.679 23209
-0.473 1.047 1.676 21847
-0.475 1.051 1.672 17793
-0.477 1.055 1.669 17172
-0.479 1.059 1.665 14778
-0.480 1.063 1.662 13614
-0.482 1.067 1.658 14800
-0.484 1.071 1.655 15164
-0.486 1.075 1.651 16133
-0.490 1.084 1.654 15630
-0.494 1.092 1.657 12758
-0.502 1.110 1.672 13802
-0.503 1.114 1.668 18815
-0.503 1.113 1.658 22298
-0.503 1.113 1.648 22384
-0.498 1.103 1.627 15875
-0.502 1.111 1.629 29268
-0.506 1.120 1.631 49249
-0.508 1.124 1.628 54258
-0.514 1.137 1.636 56399
-0.518 1.146 1.638 59536
-0.520 1.150 1.635 49159
-0.519 1.149 1.625 44754
-0.523 1.158 1.627 46191
-0.529 1.171 1.635 31904
-0.533 1.180 1.637 19233
-0.550 1.217 1.675 20837
-0.552 1.221 1.671 21309
-0.550 1.216 1.655 12709
-0.547 1.210 1.640 7923
-0.549 1.214 1.636 7859
-0.551 1.218 1.632 9675
-0.552 1.222 1.628 12470
-0.554 1.226 1.624 14172
-0.556 1.230 1.620 11992
-0.558 1.234 1.616 9386
-0.562 1.243 1.617 9460
-0.563 1.247 1.613 6617
-0.565 1.250 1.609 6571
-0.580 1.284 1.639 10528
-0.585 1.293 1.641 12392
-0.586 1.297 1.637 11109
-0.577 1.276 1.604 13503
-0.578 1.280 1.600 14105
-0.599 1.324 1.641 18542
-0.600 1.328 1.637 18426
-0.598 1.322 1.621 13279
-0.585 1.295 1.583 13475
-0.615 1.361 1.646 14773
-0.617 1.365 1.641 10766
-0.616 1.363 1.631 8289
-0.625 1.383 1.644 11326
-0.639 1.413 1.667 17682
-0.643 1.422 1.667 20433
-0.647 1.431 1.668 13908
-0.649 1.435 1.664 11787
-0.653 1.445 1.664 11918
-0.655 1.449 1.660 10314
-0.661 1.463 1.666 14942
-0.666 1.472 1.666 21015
-0.670 1.482 1.667 15836
-0.672 1.486 1.662 9889
-0.671 1.485 1.652 8818
-0.675 1.494 1.653 6262
-0.682 1.509 1.658 4019
-0.689 1.523 1.664 4484
-0.693 1.533 1.664 6828
-0.695 1.537 1.659 8017
-0.699 1.546 1.659 8675
-0.706 1.561 1.665 11875
-0.707 1.565 1.660 11564
-0.712 1.575 1.660 9114
-0.718 1.590 1.665 9996
-0.723 1.599 1.665 8900
-0.732 1.620 1.675 10493
-0.731 1.618 1.665 12532
-0.731 1.617 1.655 10969
-0.738 1.632 1.659 10689
-0.742 1.641 1.659 10067
-0.756 1.673 1.679 9791
-0.758 1.677 1.674 13721
-0.760 1.681 1.668 11174
-0.764 1.691 1.668 7418
-0.769 1.701 1.667 8460
-0.773 1.710 1.667 10173
-0.777 1.720 1.666 8191
-0.782 1.730 1.665 7357
-0.784 1.734 1.660 10296
-0.788 1.743 1.659 12806
-0.792 1.753 1.658 12759
-0.794 1.757 1.652 9813
-0.796 1.761 1.647 9808
-0.813 1.799 1.670 13973
-0.802 1.775 1.640 15580
-0.820 1.813 1.663 15604
-0.821 1.817 1.657 16317
-0.818 1.810 1.642 11519
-0.838 1.854 1.669 14191
-0.843 1.864 1.667 18416
-0.847 1.874 1.666 12110
-0.838 1.855 1.641 8579
-0.837 1.853 1.631 10910
-0.863 1.909 1.666 11672
-0.865 1.914 1.660 14851
-0.867 1.918 1.654 16220
-0.834 1.845 1.588 13403
-0.836 1.849 1.582 10981
-0.888 1.965 1.662 8274
-0.839 1.856 1.570 8973
-0.841 1.860 1.564 10345
-0.875 1.935 1.612 10957
-0.882 1.951 1.614 11872
-0.884 1.955 1.608 11298
-0.883 1.953 1.597 8408
-0.914 2.023 1.639 8227
-0.941 2.081 1.672 11061
-0.940 2.079 1.661 12727
-0.922 2.041 1.624 11309
-0.921 2.039 1.613 10904
-0.953 2.109 1.654 14613
-0.955 2.113 1.647 16534
-0.960 2.123 1.644 13425
-0.970 2.145 1.650 10252
-0.972 2.149 1.643 10562
-0.973 2.153 1.636 11442
-0.975 2.157 1.629 10138
-0.977 2.161 1.622 7954
-0.981 2.171 1.619 5416
-1.019 2.255 1.666 5752
-1.027 2.272 1.667 7172
-1.034 2.288 1.667 7859
-1.036 2.292 1.660 9068
-1.032 2.284 1.644 9358
-1.034 2.288 1.637 7795
-1.036 2.292 1.630 6232
-1.069 2.364 1.666 7436
-1.070 2.368 1.658 8448
-1.075 2.379 1.655 7302
-1.077 2.383 1.647 5090
-1.082 2.393 1.643 2952
-1.095 2.422 1.651 4113
-1.099 2.432 1.647 6029
-1.147 2.537 1.700 6348
-1.152 2.548 1.696 5940
-1.156 2.558 1.691 5609
-1.155 2.556 1.679 5882
-1.157 2.560 1.671 6217
-1.162 2.570 1.667 4627
-1.187 2.625 1.688 3709
-1.168 2.585 1.654 3465
-1.211 2.678 1.697 4296
-1.210 2.676 1.684 5203
-1.211 2.680 1.676 6123
-1.210 2.678 1.663 5213
-1.244 2.752 1.694 4980
-1.249 2.763 1.689 4798
-1.251 2.767 1.680 4632
-1.235 2.732 1.650 4760
-1.234 2.730 1.638 6271
-1.236 2.734 1.629 6043
-1.240 2.744 1.623 5800
-1.245 2.755 1.618 3930
-1.309 2.895 1.681 3631
-1.313 2.906 1.675 4581
-1.318 2.916 1.669 5595
-1.320 2.920 1.660 5013
-1.351 2.990 1.684 6397
-1.353 2.994 1.674 6397
-1.358 3.005 1.667 6390
-1.366 3.022 1.664 6958
-1.362 3.013 1.648 7384
-1.360 3.010 1.635 8454
-1.359 3.007 1.622 6761
-1.361 3.011 1.612 5128
-1.363 3.015 1.603 5128
-1.365 3.019 1.593 2564
-0.274 0.611 1.695 9471
-0.275 0.612 1.686 9558
-0.276 0.616 1.684 9662
-0.277 0.618 1.675 8646
-0.276 0.616 1.659 8018
-0.278 0.620 1.656 8018
-0.281 0.627 1.662 9461
-0.283 0.631 1.660 11054
-0.283 0.632 1.650 11673
-0.284 0.633 1.641 12748
-0.284 0.633 1.632 12032
-0.284 0.634 1.623 11671
-0.287 0.641 1.628 12066
-0.289 0.645 1.626 12488
-0.292 0.652 1.630 10594
-0.296 0.659 1.635 9650
-0.300 0.670 1.647 11591
-0.302 0.674 1.645 13446
-0.305 0.681 1.650 15304
-0.301 0.672 1.620 13708
-0.301 0.673 1.610 13835
-0.305 0.680 1.615 11304
-0.319 0.711 1.669 11902
-0.319 0.711 1.660 11307
-0.318 0.709 1.643 12030
-0.321 0.716 1.648 14647
-0.323 0.720 1.646 17547
-0.326 0.727 1.650 24791
-0.329 0.735 1.655 32596
-0.331 0.739 1.652 34429
-0.333 0.743 1.650 28653
-0.333 0.743 1.640 21527
-0.335 0.747 1.638 19622
-0.337 0.751 1.636 17716
-0.340 0.759 1.640 14645
-0.352 0.784 1.679 13957
-0.355 0.792 1.683 11061
-0.362 0.807 1.701 8774
-0.364 0.811 1.698 8710
-0.364 0.812 1.689 11202
-0.364 0.812 1.679 14325
-0.366 0.816 1.677 17189
-0.368 0.820 1.674 21525
-0.368 0.821 1.664 23416
-0.371 0.828 1.668 22955
-0.373 0.832 1.666 22155
-0.375 0.836 1.663 17899
-0.375 0.837 1.654 12114
-0.379 0.844 1.657 10203
-0.379 0.845 1.648 8913
-0.382 0.853 1.652 8328
-0.386 0.860 1.656 9247
-0.387 0.864 1.653 12644
-0.389 0.868 1.650 16714
-0.393 0.876 1.654 17961
-0.395 0.880 1.651 19432
-0.402 0.896 1.668 27217
-0.407 0.908 1.678 35715
-0.409 0.912 1.675 37128
-0.413 0.921 1.679 40374
-0.413 0.921 1.669 32486
-0.414 0.925 1.666 23078
-0.422 0.941 1.683 21889
-0.424 0.945 1.680 21925
-0.424 0.945 1.670 19512
-0.425 0.949 1.667 16451
-0.427 0.953 1.664 12483
-0.425 0.949 1.648 7879
-0.442 0.986 1.696 6698
-0.442 0.986 1.687 10461
-0.440 0.982 1.671 12501
-0.444 0.990 1.674 12014
-0.446 0.994 1.671 10069
-0.451 1.007 1.680 8673
-0.455 1.015 1.683 9309
-0.457 1.019 1.680 8872
-0.459 1.023 1.677 10736
-0.461 1.027 1.673 12917
-0.462 1.031 1.670 16149
-0.468 1.044 1.679 21914
-0.470 1.048 1.676 21014
-0.472 1.052 1.672 17098
-0.474 1.056 1.669 16319
-0.475 1.060 1.665 13663
-0.477 1.064 1.662 11510
-0.477 1.064 1.652 12690
-0.481 1.073 1.655 14246
-0.485 1.081 1.658 15651
-0.486 1.085 1.654 14299
-0.490 1.094 1.657 12169
-0.498 1.111 1.672 13700
-0.500 1.115 1.668 16588
-0.498 1.110 1.652 19706
-0.499 1.114 1.648 23074
-0.497 1.109 1.633 17686
-0.499 1.113 1.629 28678
-0.503 1.122 1.631 49330
-0.504 1.125 1.628 54815
-0.508 1.134 1.630 54939
-0.512 1.143 1.632 58622
-0.514 1.147 1.629 48415
-0.516 1.151 1.625 44391
-0.520 1.159 1.627 45897
-0.526 1.173 1.635 30445
-0.534 1.191 1.649 18961
-0.546 1.219 1.675 20928
-0.548 1.223 1.671 22047
-0.548 1.222 1.661 13925
-0.548 1.222 1.651 7414
-0.549 1.226 1.647 9181
-0.549 1.225 1.637 11155
-0.553 1.234 1.639 12752
-0.555 1.237 1.635 14459
-0.554 1.237 1.625 10439
-0.556 1.240 1.621 8639
-0.564 1.259 1.635 7915
-0.564 1.258 1.625 6333
-0.564 1.257 1.615 8926
-0.572 1.276 1.628 13029
-0.576 1.285 1.630 12978
-0.578 1.289 1.625 9952
-0.573 1.278 1.604 14177
-0.572 1.277 1.594 15207
-0.592 1.321 1.635 13429
-0.596 1.330 1.637 19507
-0.596 1.329 1.627 20178
-0.597 1.333 1.622 15154
-0.611 1.362 1.646 17392
-0.615 1.372 1.647 14134
-0.610 1.360 1.626 9297
-0.623 1.390 1.649 12704
-0.636 1.420 1.672 15995
-0.641 1.429 1.673 19248
-0.640 1.428 1.663 15568
-0.637 1.422 1.647 11748
-0.641 1.431 1.648 7945
-0.653 1.456 1.665 7962
-0.659 1.470 1.671 15121
-0.661 1.475 1.666 22782
-0.665 1.484 1.667 16322
-0.669 1.493 1.668 8338
-0.669 1.492 1.657 7173
-0.673 1.501 1.658 6275
-0.682 1.521 1.669 5544
-0.684 1.525 1.664 6722
-0.688 1.535 1.664 9076
-0.690 1.539 1.659 8832
-0.696 1.554 1.665 9750
-0.701 1.563 1.665 13615
-0.703 1.567 1.660 13385
-0.707 1.577 1.660 11365
-0.714 1.592 1.665 11626
-0.718 1.601 1.665 10563
-0.725 1.616 1.670 11958
-0.726 1.620 1.665 14805
-0.726 1.619 1.655 14732
-0.732 1.634 1.659 14922
-0.737 1.644 1.659 14010
-0.751 1.675 1.679 11984
-0.753 1.680 1.674 15253
-0.755 1.684 1.668 12096
-0.759 1.693 1.668 8173
-0.763 1.703 1.667 9701
-0.768 1.713 1.667 11650
-0.772 1.722 1.666 9607
-0.776 1.732 1.665 7578
-0.778 1.736 1.660 9586
-0.783 1.746 1.659 11988
-0.789 1.761 1.663 10860
-0.791 1.765 1.657 6851
-0.806 1.798 1.676 6475
-0.810 1.808 1.675 12142
-0.810 1.806 1.664 14236
-0.814 1.816 1.663 17475
-0.816 1.820 1.657 20630
-0.815 1.818 1.646 14732
-0.832 1.857 1.669 15352
-0.839 1.873 1.672 20370
-0.841 1.877 1.666 14014
-0.835 1.863 1.646 9830
-0.832 1.855 1.631 12138
-0.831 1.853 1.620 12545
-0.859 1.916 1.660 15017
-0.861 1.920 1.654 17169
-0.828 1.847 1.588 12603
-0.830 1.851 1.582 10923
-0.832 1.855 1.576 8386
-0.833 1.859 1.570 8807
-0.835 1.863 1.564 9896
-0.869 1.938 1.612 10689
-0.873 1.948 1.610 11298
-0.875 1.952 1.604 10847
-0.906 2.022 1.646 8718
-0.911 2.032 1.644 10851
-0.912 2.036 1.637 11352
-0.933 2.082 1.661 10834
-0.916 2.044 1.624 11250
-0.918 2.047 1.617 11241
-0.947 2.112 1.654 12809
-0.949 2.116 1.647 15047
-0.953 2.126 1.644 12374
-0.963 2.148 1.650 10247
-0.965 2.152 1.643 10577
-0.967 2.156 1.636 11621
-0.968 2.160 1.629 10518
-0.970 2.164 1.622 8371
-0.972 2.168 1.615 5955
-1.010 2.252 1.662 6114
-1.017 2.269 1.662 7163
-1.027 2.291 1.667 7641
-1.029 2.295 1.660 9633
-1.025 2.287 1.644 10611
-1.027 2.291 1.637 8725
-1.029 2.295 1.630 6840
-1.061 2.368 1.666 6944
-1.063 2.372 1.658 7997
-1.068 2.382 1.655 7022
-1.072 2.392 1.651 4999
-1.074 2.396 1.643 3074
-1.087 2.425 1.651 4112
-1.092 2.436 1.647 5947
-1.096 2.446 1.643 6219
-1.135 2.532 1.684 5774
-1.148 2.562 1.691 5526
-1.147 2.560 1.679 5803
-1.146 2.557 1.667 6110
-1.145 2.555 1.655 4414
-1.124 2.508 1.618 3682
-1.195 2.665 1.698 3197
-1.199 2.676 1.693 4249
-1.201 2.680 1.684 4909
-1.200 2.677 1.672 5581
-1.237 2.759 1.707 5076
-1.238 2.763 1.698 5174
-1.240 2.767 1.689 4928
-1.242 2.771 1.680 4683
-1.227 2.736 1.650 4296
-1.223 2.727 1.634 6007
-1.227 2.738 1.629 6039
-1.232 2.748 1.623 6127
-1.280 2.856 1.670 4429
-1.288 2.873 1.667 4494
-1.296 2.890 1.665 4922
-1.309 2.920 1.669 5865
-1.308 2.918 1.656 5418
-1.342 2.994 1.684 5591
-1.344 2.998 1.674 5591
-1.352 3.015 1.671 5775
-1.356 3.026 1.664 6455
-1.355 3.023 1.651 6941
-1.354 3.021 1.638 7882
-1.353 3.018 1.625 6188
-1.352 3.015 1.612 4546
-1.353 3.019 1.603 4546
-1.355 3.023 1.593 2273
-0.271 0.609 1.688 11018
-0.273 0.613 1.686 10770
-0.275 0.617 1.684 10522
-0.275 0.618 1.675 8648
-0.274 0.616 1.659 7152
-0.276 0.620 1.656 7152
-0.279 0.627 1.662 8275
-0.281 0.631 1.660 9537
-0.281 0.632 1.650 10432
-0.282 0.633 1.641 11662
-0.282 0.634 1.632 11178
-0.283 0.635 1.623 10975
-0.286 0.642 1.628 11682
-0.289 0.649 1.633 12555
-0.291 0.653 1.630 11002
-0.297 0.667 1.650 10862
-0.298 0.671 1.647 12769
-0.300 0.675 1.645 14811
-0.304 0.682 1.650 16887
-0.304 0.683 1.641 14429
-0.301 0.677 1.617 13824
-0.312 0.701 1.657 11452
-0.315 0.708 1.662 13365
-0.315 0.709 1.653 13873
-0.316 0.709 1.643 15619
-0.317 0.713 1.641 17983
-0.321 0.721 1.646 20566
-0.324 0.728 1.650 27600
-0.326 0.732 1.648 35170
-0.329 0.740 1.652 37255
-0.331 0.744 1.650 31642
-0.330 0.741 1.634 24810
-0.333 0.748 1.638 22723
-0.335 0.752 1.636 20667
-0.336 0.756 1.633 16916
-0.340 0.764 1.637 13184
-0.340 0.764 1.628 11341
-0.360 0.808 1.701 8450
-0.361 0.812 1.698 8885
-0.362 0.813 1.689 11668
-0.362 0.813 1.679 14676
-0.364 0.817 1.677 18295
-0.365 0.821 1.674 23673
-0.367 0.825 1.671 26454
-0.369 0.829 1.668 26557
-0.371 0.833 1.666 25637
-0.373 0.837 1.663 20769
-0.373 0.838 1.654 13916
-0.376 0.846 1.657 11576
-0.376 0.846 1.648 9708
-0.380 0.854 1.652 8790
-0.383 0.861 1.656 9964
-0.385 0.865 1.653 13587
-0.387 0.869 1.650 17714
-0.390 0.877 1.654 18668
-0.392 0.881 1.651 20479
-0.398 0.893 1.661 27813
-0.405 0.909 1.678 34856
-0.407 0.914 1.675 34464
-0.410 0.922 1.679 36934
-0.410 0.922 1.669 30851
-0.410 0.922 1.660 22157
-0.421 0.946 1.689 21469
-0.421 0.946 1.680 24832
-0.421 0.946 1.670 24478
-0.423 0.950 1.667 21009
-0.425 0.954 1.664 15660
-0.423 0.950 1.648 9345
-0.438 0.983 1.690 7312
-0.439 0.987 1.687 11456
-0.437 0.983 1.671 13427
-0.441 0.991 1.674 12911
-0.443 0.995 1.671 11327
-0.450 1.012 1.686 10272
-0.452 1.016 1.683 9795
-0.454 1.020 1.680 8970
-0.454 1.020 1.670 11347
-0.458 1.029 1.673 13751
-0.460 1.033 1.670 16480
-0.465 1.045 1.679 20958
-0.467 1.050 1.676 19829
-0.469 1.054 1.672 15742
-0.469 1.053 1.663 15112
-0.472 1.062 1.665 12490
-0.474 1.066 1.662 9115
-0.474 1.065 1.652 9939
-0.478 1.074 1.655 12383
-0.482 1.082 1.658 13697
-0.485 1.091 1.660 11637
-0.487 1.095 1.657 11052
-0.493 1.108 1.665 13744
-0.495 1.112 1.662 14307
-0.495 1.112 1.652 17741
-0.494 1.111 1.642 23595
-0.494 1.110 1.633 19013
-0.496 1.114 1.629 27420
-0.500 1.123 1.631 48005
-0.501 1.127 1.628 54222
-0.505 1.135 1.630 53166
-0.509 1.144 1.632 56555
-0.511 1.148 1.629 46366
-0.513 1.152 1.625 41680
-0.514 1.156 1.621 42730
-0.523 1.174 1.635 27705
-0.533 1.197 1.655 19367
-0.541 1.216 1.669 21152
-0.545 1.225 1.671 22123
-0.545 1.224 1.661 14894
-0.544 1.223 1.651 8854
-0.546 1.227 1.647 11567
-0.548 1.231 1.643 13441
-0.550 1.235 1.639 14356
-0.551 1.239 1.635 15397
-0.551 1.238 1.625 10088
-0.553 1.242 1.621 8549
-0.552 1.241 1.612 8318
-0.561 1.260 1.625 8452
-0.560 1.259 1.615 12304
-0.566 1.273 1.622 15894
-0.568 1.277 1.618 15645
-0.561 1.260 1.591 11776
-0.567 1.274 1.599 14684
-0.569 1.278 1.594 16006
-0.586 1.318 1.630 11971
-0.593 1.332 1.637 21213
-0.592 1.331 1.627 26508
-0.596 1.340 1.628 19097
-0.607 1.364 1.646 19717
-0.611 1.373 1.647 17075
-0.604 1.357 1.620 9953
-0.619 1.392 1.649 14365
-0.621 1.396 1.645 18858
-0.632 1.420 1.662 19031
-0.632 1.419 1.652 20190
-0.626 1.408 1.631 17308
-0.630 1.417 1.632 11377
-0.644 1.447 1.654 7881
-0.655 1.472 1.671 15745
-0.657 1.476 1.666 24772
-0.661 1.486 1.667 17180
-0.668 1.500 1.673 7937
-0.667 1.499 1.663 8468
-0.674 1.514 1.668 9879
-0.678 1.523 1.669 8696
-0.680 1.527 1.664 8889
-0.681 1.531 1.659 11199
-0.683 1.535 1.654 10217
-0.692 1.556 1.665 10092
-0.696 1.565 1.665 13761
-0.701 1.575 1.665 13733
-0.705 1.584 1.665 13194
-0.707 1.588 1.660 13514
-0.713 1.603 1.665 12254
-0.720 1.618 1.670 13271
-0.722 1.622 1.665 16328
-0.724 1.626 1.660 16878
-0.728 1.636 1.659 17824
-0.732 1.646 1.659 17026
-0.744 1.672 1.674 12754
-0.748 1.682 1.674 14449
-0.750 1.686 1.668 11288
-0.754 1.695 1.668 7939
-0.759 1.705 1.667 10034
-0.763 1.715 1.667 12203
-0.770 1.730 1.671 10597
-0.774 1.740 1.670 9292
-0.776 1.744 1.665 11713
-0.778 1.748 1.659 13871
-0.785 1.763 1.663 10588
-0.789 1.773 1.662 6112
-0.804 1.806 1.680 5270
-0.808 1.816 1.679 10176
-0.807 1.814 1.669 12887
-0.809 1.818 1.663 18515
-0.811 1.822 1.657 23711
-0.813 1.826 1.651 17055
-0.827 1.859 1.669 15979
-0.834 1.875 1.672 21891
-0.836 1.879 1.666 15592
-0.830 1.865 1.646 10710
-0.829 1.864 1.635 12712
-0.828 1.862 1.625 13100
-0.851 1.913 1.655 14941
-0.856 1.923 1.654 17400
-0.857 1.927 1.648 11692
-0.825 1.854 1.582 10228
-0.826 1.857 1.576 8033
-0.828 1.861 1.570 7988
-0.859 1.931 1.614 9399
-0.863 1.940 1.612 9942
-0.868 1.950 1.610 10323
-0.870 1.954 1.604 10050
-0.903 2.030 1.650 10634
-0.905 2.034 1.644 13468
-0.907 2.038 1.637 12392
-0.906 2.036 1.626 10370
-0.910 2.046 1.624 10933
-0.912 2.050 1.617 11171
-0.938 2.109 1.649 10898
-0.940 2.113 1.643 13144
-0.947 2.129 1.644 11042
-0.960 2.157 1.654 10134
-0.959 2.155 1.643 10391
-0.961 2.159 1.636 11502
-0.963 2.163 1.629 10516
-0.964 2.167 1.622 8418
-0.966 2.171 1.615 6326
-1.004 2.255 1.662 6377
-1.008 2.265 1.658 7143
-1.021 2.294 1.667 7201
-1.023 2.298 1.660 9691
-1.019 2.290 1.644 11225
-1.021 2.294 1.637 9097
-1.022 2.298 1.630 6970
-1.049 2.358 1.658 6547
-1.057 2.375 1.658 7523
-1.061 2.385 1.655 6674
-1.066 2.395 1.651 4889
-1.068 2.399 1.643 3186
-1.081 2.428 1.651 4000
-1.085 2.439 1.647 5656
-1.090 2.449 1.643 6086
-1.128 2.535 1.684 5635
-1.127 2.533 1.673 5374
-1.140 2.563 1.679 5563
-1.139 2.560 1.667 5860
-1.110 2.494 1.618 4532
-1.117 2.511 1.618 4072
-1.122 2.521 1.613 3329
-1.192 2.679 1.693 4091
-1.194 2.683 1.684 4548
-1.227 2.758 1.716 5145
-1.229 2.762 1.707 5215
-1.231 2.766 1.698 5285
-1.233 2.770 1.689 5023
-1.235 2.774 1.680 4760
-1.233 2.772 1.668 4327
-1.215 2.731 1.634 5724
-1.220 2.741 1.629 5832
-1.227 2.758 1.627 6188
-1.273 2.860 1.670 5531
-1.277 2.870 1.664 5894
-1.282 2.881 1.658 5771
-1.298 2.917 1.666 5904
-1.291 2.902 1.646 5616
-1.293 2.906 1.637 5403
-1.295 2.910 1.627 5403
-1.343 3.019 1.671 5014
-1.348 3.030 1.664 5839
-1.347 3.027 1.651 6437
-1.346 3.024 1.638 7313
-1.348 3.028 1.629 5629
-1.346 3.026 1.616 4039
-1.348 3.030 1.606 4039
-1.350 3.034 1.596 2019
-0.269 0.610 1.688 12927
-0.271 0.614 1.686 12536
-0.273 0.618 1.684 12145
-0.275 0.622 1.682 9292
-0.276 0.626 1.680 6439
-0.278 0.630 1.678 6439
-0.279 0.631 1.669 6845
-0.279 0.632 1.660 7560
-0.280 0.633 1.650 8771
-0.280 0.634 1.641 10220
-0.280 0.635 1.632 10181
-0.282 0.639 1.630 10263
-0.284 0.643 1.628 11351
-0.287 0.650 1.633 12784
-0.289 0.654 1.630 11580
-0.293 0.664 1.642 12229
-0.295 0.668 1.640 13872
-0.298 0.676 1.645 16121
-0.302 0.683 1.650 18584
-0.302 0.684 1.641 15756
-0.299 0.678 1.617 13652
-0.310 0.702 1.657 12712
-0.313 0.709 1.662 14337
-0.313 0.710 1.653 16317
-0.314 0.710 1.643 19350
-0.315 0.714 1.641 21205
-0.319 0.722 1.646 23208
-0.322 0.729 1.650 29623
-0.324 0.733 1.648 36938
-0.327 0.741 1.652 39051
-0.327 0.741 1.643 34070
-0.327 0.742 1.634 28010
-0.329 0.746 1.631 25562
-0.333 0.753 1.636 23116
-0.334 0.757 1.633 18794
-0.336 0.761 1.631 14472
-0.338 0.765 1.628 12424
-0.340 0.769 1.626 9284
-0.359 0.813 1.698 8401
-0.358 0.810 1.682 11633
-0.358 0.810 1.672 14498
-0.361 0.818 1.677 18906
-0.363 0.822 1.674 25290
-0.365 0.826 1.671 28663
-0.367 0.830 1.668 28779
-0.368 0.834 1.666 27419
-0.370 0.839 1.663 22105
-0.370 0.839 1.654 15018
-0.374 0.847 1.657 12966
-0.376 0.851 1.655 10856
-0.377 0.855 1.652 9556
-0.381 0.863 1.656 10703
-0.383 0.867 1.653 14163
-0.384 0.871 1.650 17962
-0.388 0.879 1.654 18536
-0.390 0.883 1.651 21098
-0.395 0.895 1.661 28827
-0.399 0.903 1.665 34649
-0.404 0.915 1.675 31348
-0.404 0.915 1.666 31901
-0.406 0.919 1.663 28122
-0.406 0.919 1.653 21112
-0.418 0.947 1.689 21075
-0.418 0.947 1.680 27240
-0.418 0.947 1.670 27725
-0.420 0.951 1.667 23960
-0.422 0.955 1.664 17914
-0.420 0.951 1.648 10620
-0.435 0.985 1.690 8437
-0.436 0.989 1.687 12225
-0.436 0.989 1.677 13320
-0.438 0.993 1.674 13040
-0.442 1.001 1.677 12570
-0.447 1.014 1.686 12444
-0.451 1.022 1.690 10302
-0.449 1.017 1.674 8958
-0.451 1.022 1.670 12167
-0.455 1.030 1.673 14889
-0.457 1.034 1.670 17670
-0.460 1.042 1.673 20754
-0.464 1.051 1.676 18571
-0.464 1.051 1.666 14112
-0.466 1.055 1.663 13804
-0.467 1.059 1.659 10789
-0.467 1.058 1.649 6618
-0.471 1.067 1.652 7495
-0.475 1.075 1.655 11342
-0.478 1.084 1.658 11353
-0.482 1.092 1.660 7802
-0.486 1.101 1.663 9139
-0.490 1.110 1.665 13781
-0.490 1.109 1.656 13626
-0.489 1.108 1.646 17873
-0.491 1.112 1.642 24877
-0.491 1.112 1.633 19869
-0.493 1.116 1.629 24630
-0.496 1.124 1.631 44688
-0.498 1.128 1.628 51086
-0.502 1.137 1.630 48918
-0.506 1.146 1.632 52328
-0.508 1.150 1.629 42440
-0.507 1.149 1.619 36573
-0.511 1.157 1.621 36116
-0.519 1.176 1.635 24394
-0.531 1.204 1.661 19945
-0.537 1.217 1.669 21806
-0.539 1.221 1.665 22139
-0.541 1.225 1.661 15794
-0.541 1.225 1.651 11039
-0.542 1.229 1.647 14424
-0.544 1.233 1.643 16744
-0.546 1.237 1.639 15879
-0.546 1.236 1.629 15935
-0.547 1.240 1.625 10167
-0.562 1.273 1.656 7591
-0.566 1.282 1.658 8241
-0.559 1.266 1.631 10245
-0.556 1.260 1.615 15700
-0.558 1.264 1.611 18895
-0.558 1.263 1.601 20047
-0.557 1.262 1.591 16299
-0.561 1.271 1.593 15966
-0.567 1.285 1.600 16498
-0.578 1.309 1.618 14177
-0.589 1.333 1.637 23682
-0.588 1.332 1.627 31415
-0.592 1.341 1.628 21934
-0.603 1.366 1.646 20938
-0.607 1.375 1.647 19098
-0.597 1.353 1.615 10225
-0.615 1.393 1.649 18055
-0.615 1.392 1.639 29989
-0.619 1.401 1.640 30095
-0.623 1.411 1.641 30015
-0.622 1.409 1.631 25773
-0.624 1.413 1.626 16897
-0.635 1.438 1.643 10491
-0.651 1.474 1.671 16840
-0.653 1.478 1.666 26673
-0.657 1.488 1.667 18542
-0.663 1.502 1.673 8459
-0.667 1.512 1.673 11103
-0.669 1.516 1.668 14366
-0.673 1.525 1.669 12309
-0.675 1.529 1.664 10744
-0.677 1.533 1.659 12882
-0.679 1.537 1.654 11778
-0.688 1.558 1.665 10034
-0.692 1.567 1.665 13429
-0.696 1.577 1.665 13906
-0.700 1.586 1.665 14840
-0.702 1.590 1.660 15224
-0.709 1.605 1.665 13723
-0.715 1.620 1.670 14256
-0.717 1.624 1.665 16868
-0.719 1.629 1.660 17589
-0.726 1.644 1.664 19880
-0.730 1.653 1.664 19693
-0.737 1.669 1.669 12841
-0.743 1.684 1.674 11909
-0.748 1.693 1.673 9306
-0.752 1.703 1.673 7204
-0.754 1.707 1.667 10043
-0.758 1.717 1.667 12344
-0.765 1.732 1.671 11707
-0.769 1.742 1.670 12088
-0.771 1.746 1.665 15324
-0.773 1.750 1.659 17097
-0.777 1.760 1.658 11775
-0.784 1.775 1.662 6217
-0.793 1.797 1.671 5096
-0.805 1.824 1.684 8007
-0.807 1.828 1.678 11766
-0.806 1.826 1.668 19356
-0.805 1.824 1.657 25811
-0.810 1.834 1.656 18644
-0.824 1.867 1.673 16947
-0.829 1.877 1.672 23715
-0.831 1.881 1.666 17250
-0.830 1.880 1.655 11154
-0.824 1.866 1.635 12609
-0.826 1.870 1.629 13315
-0.846 1.915 1.655 15305
-0.850 1.925 1.654 17259
-0.852 1.929 1.648 11634
-0.819 1.856 1.582 8778
-0.821 1.860 1.576 6963
-0.854 1.935 1.624 6781
-0.856 1.939 1.618 8571
-0.858 1.943 1.612 8661
-0.862 1.953 1.610 8688
-0.898 2.035 1.661 9773
-0.897 2.033 1.650 12625
-0.899 2.037 1.644 15902
-0.901 2.041 1.637 13260
-0.897 2.033 1.622 10672
-0.902 2.043 1.620 10366
-0.906 2.053 1.617 10600
-0.924 2.093 1.636 9484
-0.934 2.115 1.643 11055
-0.941 2.132 1.644 9503
-0.954 2.160 1.654 10207
-0.953 2.158 1.643 10297
-0.954 2.162 1.636 11326
-0.956 2.166 1.629 10214
-0.958 2.170 1.622 8072
-0.995 2.254 1.669 6621
-0.997 2.258 1.662 6503
-0.999 2.262 1.654 7054
-1.003 2.272 1.651 6795
-1.016 2.301 1.660 9254
-1.012 2.293 1.644 11283
-1.014 2.297 1.637 9000
-1.016 2.301 1.630 6716
-1.040 2.355 1.654 6326
-1.050 2.378 1.658 7015
-1.054 2.388 1.655 6302
-1.059 2.398 1.651 4770
-1.063 2.409 1.647 3362
-1.071 2.425 1.647 3975
-1.078 2.442 1.647 5335
-1.083 2.452 1.643 5848
-1.118 2.532 1.681 5514
-1.120 2.536 1.673 5213
-1.133 2.566 1.679 5267
-1.132 2.564 1.667 5567
-1.105 2.504 1.622 4691
-1.110 2.514 1.618 4296
-1.115 2.524 1.613 3406
-1.184 2.682 1.693 3731
-1.186 2.687 1.684 3975
-1.216 2.755 1.712 5256
-1.221 2.766 1.707 5297
-1.223 2.770 1.698 5348
-1.225 2.774 1.689 5103
-1.226 2.778 1.680 4859
-1.228 2.782 1.671 4538
-1.207 2.734 1.634 5247
-1.212 2.745 1.629 5421
-1.222 2.768 1.630 6065
-1.264 2.863 1.670 6483
-1.266 2.867 1.660 7329
-1.268 2.871 1.651 6869
-1.272 2.882 1.645 6420
-1.271 2.879 1.633 6172
-1.270 2.877 1.620 5946
-1.272 2.881 1.611 5946
-1.268 2.871 1.595 5199
-1.339 3.034 1.664 5135
-1.341 3.038 1.655 5845
-1.340 3.035 1.642 6742
-1.342 3.039 1.632 5240
-1.346 3.050 1.625 3817
-1.348 3.053 1.615 3817
-1.350 3.057 1.606 1908
-0.268 0.610 1.688 14778
-0.270 0.614 1.686 14427
-0.272 0.619 1.684 14077
-0.273 0.623 1.682 10709
-0.275 0.627 1.680 7341
-0.277 0.631 1.678 7341
-0.277 0.632 1.669 6438
-0.277 0.630 1.652 5972
-0.277 0.631 1.643 7437
-0.279 0.635 1.641 8953
-0.279 0.636 1.632 9325
-0.281 0.639 1.630 9725
-0.284 0.647 1.635 11025
-0.286 0.651 1.633 12619
-0.289 0.658 1.638 11916
-0.292 0.665 1.642 13002
-0.294 0.669 1.640 14318
-0.297 0.676 1.645 16619
-0.300 0.684 1.650 19345
-0.300 0.684 1.641 16248
-0.302 0.688 1.638 13202
-0.308 0.702 1.657 13583
-0.310 0.706 1.655 14896
-0.310 0.707 1.646 18125
-0.312 0.711 1.643 22134
-0.314 0.715 1.641 23519
-0.317 0.722 1.646 24924
-0.320 0.730 1.650 30581
-0.322 0.734 1.648 37470
-0.324 0.738 1.645 39781
-0.326 0.742 1.643 35506
-0.326 0.742 1.634 29889
-0.328 0.746 1.631 27307
-0.329 0.750 1.629 24724
-0.331 0.754 1.626 20075
-0.334 0.762 1.631 15306
-0.336 0.766 1.628 13249
-0.338 0.770 1.626 10151
-0.340 0.774 1.623 9110
-0.356 0.811 1.682 11833
-0.356 0.811 1.672 14486
-0.360 0.819 1.677 19455
-0.361 0.823 1.674 26593
-0.363 0.827 1.671 30401
-0.365 0.831 1.668 30529
-0.367 0.835 1.666 28840
-0.369 0.839 1.663 23189
-0.369 0.839 1.654 15901
-0.372 0.847 1.657 14141
-0.374 0.851 1.655 11739
-0.377 0.859 1.659 9957
-0.379 0.863 1.656 10956
-0.381 0.867 1.653 14173
-0.383 0.871 1.650 17679
-0.384 0.875 1.647 17967
-0.388 0.883 1.651 21058
-0.393 0.895 1.661 28749
-0.395 0.899 1.658 33863
-0.398 0.907 1.662 28652
-0.400 0.912 1.659 27467
-0.400 0.912 1.650 25851
-0.398 0.907 1.634 21700
-0.411 0.936 1.670 20560
-0.416 0.948 1.680 29395
-0.416 0.948 1.670 30186
-0.418 0.952 1.667 26077
-0.420 0.956 1.664 19389
-0.420 0.956 1.654 11613
-0.431 0.981 1.683 9403
-0.434 0.990 1.687 12968
-0.434 0.989 1.677 13526
-0.436 0.993 1.674 13454
-0.442 1.006 1.683 14153
-0.445 1.014 1.686 14569
-0.449 1.023 1.690 11254
-0.449 1.023 1.680 9009
-0.449 1.022 1.670 12352
-0.451 1.027 1.667 15182
-0.454 1.035 1.670 18007
-0.458 1.043 1.673 20678
-0.462 1.052 1.676 18466
-0.462 1.052 1.666 13860
-0.463 1.056 1.663 12240
-0.465 1.060 1.659 8710
-0.463 1.055 1.643 4840
-0.471 1.072 1.658 5199
-0.475 1.081 1.661 8795
-0.478 1.089 1.664 7981
-0.482 1.098 1.666 5563
-0.486 1.106 1.669 9243
-0.486 1.106 1.659 14950
-0.485 1.105 1.650 14548
-0.485 1.105 1.640 17948
-0.487 1.109 1.636 23923
-0.489 1.113 1.633 19163
-0.490 1.117 1.629 21066
-0.494 1.125 1.631 39079
-0.496 1.129 1.628 45896
-0.500 1.138 1.630 43620
-0.503 1.147 1.632 45413
-0.505 1.151 1.629 36520
-0.503 1.145 1.613 30855
-0.509 1.159 1.621 30116
-0.517 1.177 1.635 22050
-0.529 1.205 1.661 19986
-0.535 1.218 1.669 21507
-0.537 1.223 1.665 21554
-0.536 1.222 1.655 16400
-0.540 1.231 1.657 12717
-0.540 1.230 1.647 16454
-0.542 1.234 1.643 18814
-0.543 1.238 1.639 16471
-0.543 1.237 1.629 15073
-0.547 1.246 1.631 9895
-0.560 1.274 1.656 7137
-0.564 1.283 1.658 8734
-0.557 1.268 1.631 11962
-0.554 1.261 1.615 17936
-0.556 1.265 1.611 20346
-0.555 1.264 1.601 20346
-0.557 1.268 1.597 15775
-0.558 1.272 1.593 15859
-0.567 1.291 1.606 18143
-0.575 1.310 1.618 15988
-0.586 1.335 1.637 24509
-0.585 1.333 1.627 32080
-0.587 1.337 1.622 21882
-0.600 1.367 1.646 20165
-0.604 1.376 1.647 19349
-0.615 1.401 1.665 10420
-0.612 1.395 1.649 21868
-0.612 1.393 1.639 39454
-0.616 1.403 1.640 41895
-0.618 1.407 1.636 39725
-0.617 1.405 1.626 33539
-0.621 1.415 1.626 21676
-0.632 1.440 1.643 13204
-0.648 1.475 1.671 17509
-0.650 1.480 1.666 26971
-0.654 1.489 1.667 19160
-0.660 1.504 1.673 9075
-0.664 1.513 1.673 13041
-0.666 1.517 1.668 17433
-0.670 1.527 1.669 14691
-0.672 1.531 1.664 11592
-0.674 1.535 1.659 13562
-0.676 1.539 1.654 12546
-0.687 1.565 1.670 9458
-0.691 1.574 1.670 12339
-0.695 1.584 1.670 13601
-0.699 1.593 1.670 15466
-0.699 1.592 1.660 16017
-0.705 1.607 1.665 14164
-0.712 1.622 1.670 14206
-0.714 1.626 1.665 16694
-0.718 1.636 1.665 17973
-0.722 1.645 1.664 21450
-0.727 1.655 1.664 21849
-0.733 1.670 1.669 12624
-0.740 1.685 1.674 9139
-0.744 1.695 1.673 7462
-0.746 1.699 1.668 6277
-0.750 1.709 1.667 9351
-0.755 1.718 1.667 11730
-0.761 1.734 1.671 12173
-0.766 1.744 1.670 14213
-0.767 1.748 1.665 18229
-0.769 1.752 1.659 19606
-0.773 1.761 1.658 13074
-0.780 1.777 1.662 6655
-0.785 1.787 1.661 5641
-0.796 1.814 1.675 6261
-0.803 1.830 1.678 10878
-0.803 1.828 1.668 19835
-0.804 1.832 1.662 26675
-0.806 1.836 1.656 19136
-0.826 1.881 1.683 17238
-0.825 1.879 1.672 23830
-0.827 1.883 1.666 17575
-0.826 1.881 1.655 11553
-0.823 1.873 1.640 12929
-0.824 1.877 1.634 13865
-0.839 1.911 1.651 15439
-0.843 1.921 1.649 16372
-0.848 1.931 1.648 11167
-0.818 1.864 1.587 6940
-0.830 1.891 1.599 5435
-0.850 1.937 1.624 5757
-0.852 1.941 1.618 7217
-0.854 1.945 1.612 7201
-0.898 2.045 1.677 7974
-0.894 2.037 1.661 10745
-0.896 2.041 1.655 13870
-0.895 2.039 1.644 17231
-0.897 2.043 1.637 13716
-0.891 2.028 1.618 11017
-0.898 2.044 1.620 9982
-0.905 2.061 1.622 10069
-0.914 2.083 1.628 8945
-0.927 2.111 1.638 9055
-0.956 2.176 1.674 8189
-0.955 2.174 1.663 9913
-0.948 2.160 1.643 9914
-0.953 2.170 1.640 10911
-0.952 2.168 1.629 9688
-0.989 2.252 1.676 7806
-0.991 2.256 1.669 6908
-0.992 2.260 1.662 6429
-0.994 2.264 1.654 6847
-0.996 2.268 1.647 6634
-1.006 2.291 1.652 8686
-1.008 2.295 1.644 10893
-1.009 2.299 1.637 8553
-1.011 2.303 1.630 6213
-1.035 2.357 1.654 6037
-1.045 2.380 1.658 6458
-1.049 2.390 1.655 5851
-1.054 2.400 1.651 4563
-1.061 2.417 1.651 3523
-1.066 2.427 1.647 4086
-1.073 2.444 1.647 5213
-1.075 2.448 1.639 5750
-1.110 2.528 1.677 5226
-1.115 2.539 1.673 4892
-1.128 2.568 1.679 4831
-1.096 2.496 1.626 5309
-1.100 2.506 1.622 4739
-1.105 2.516 1.618 4341
-1.109 2.527 1.613 3358
-1.179 2.685 1.693 3325
-1.206 2.747 1.717 3774
-1.211 2.757 1.712 5072
-1.215 2.768 1.707 5076
-1.220 2.779 1.701 5141
-1.222 2.783 1.693 4913
-1.221 2.780 1.680 4699
-1.223 2.785 1.671 4533
-1.199 2.730 1.631 4808
-1.206 2.747 1.629 5008
-1.216 2.771 1.630 5869
-1.255 2.859 1.666 6933
-1.260 2.870 1.660 8206
-1.259 2.867 1.648 7635
-1.255 2.858 1.632 7323
-1.260 2.869 1.626 6919
-1.264 2.879 1.620 6544
-1.266 2.883 1.611 6544
-1.262 2.874 1.595 5560
-1.261 2.871 1.582 4872
-1.335 3.040 1.655 5328
-1.337 3.044 1.645 6299
-1.338 3.048 1.635 5196
-1.343 3.059 1.628 4165
-1.345 3.063 1.619 4165
-1.347 3.067 1.609 2082
-0.266 0.611 1.688 16632
-0.268 0.615 1.686 16749
-0.270 0.619 1.684 16866
-0.272 0.624 1.682 13190
-0.273 0.628 1.680 9514
-0.275 0.632 1.678 9514
-0.276 0.633 1.669 7059
-0.272 0.624 1.638 5099
-0.274 0.628 1.636 6693
-0.275 0.632 1.634 8288
-0.277 0.636 1.632 9013
-0.279 0.640 1.630 9739
-0.282 0.647 1.635 11011
-0.284 0.651 1.633 12500
-0.287 0.659 1.638 12220
-0.290 0.666 1.642 13485
-0.292 0.670 1.640 14472
-0.295 0.677 1.645 16709
-0.298 0.684 1.650 19578
-0.300 0.688 1.648 16236
-0.303 0.696 1.652 12985
-0.306 0.703 1.657 13872
-0.308 0.707 1.655 15078
-0.308 0.708 1.646 19320
-0.310 0.712 1.643 24072
-0.312 0.716 1.641 25453
-0.315 0.723 1.646 26614
-0.318 0.731 1.650 31371
-0.320 0.735 1.648 37745
-0.322 0.739 1.645 40421
-0.323 0.743 1.643 36775
-0.324 0.743 1.634 31822
-0.325 0.747 1.631 29285
-0.327 0.751 1.629 26749
-0.329 0.755 1.626 21928
-0.331 0.759 1.624 16809
-0.334 0.767 1.628 14529
-0.334 0.767 1.619 11303
-0.337 0.775 1.623 10198
-0.354 0.812 1.682 12377
-0.354 0.812 1.672 14786
-0.357 0.820 1.677 20607
-0.359 0.824 1.674 28811
-0.361 0.828 1.671 33097
-0.362 0.832 1.668 32931
-0.364 0.836 1.666 30646
-0.366 0.840 1.663 24521
-0.368 0.844 1.660 16884
-0.369 0.848 1.657 15373
-0.371 0.853 1.655 12870
-0.375 0.860 1.659 10798
-0.376 0.864 1.656 11471
-0.378 0.869 1.653 14629
-0.380 0.873 1.650 17630
-0.382 0.877 1.647 17472
-0.385 0.885 1.651 20739
-0.389 0.893 1.655 28676
-0.392 0.901 1.658 33549
-0.394 0.905 1.655 27667
-0.396 0.909 1.653 24936
-0.396 0.909 1.643 25514
-0.396 0.909 1.634 22856
-0.406 0.933 1.663 21119
-0.413 0.949 1.680 31425
-0.413 0.949 1.670 32915
-0.415 0.953 1.667 28738
-0.417 0.958 1.664 21559
-0.417 0.957 1.654 13074
-0.426 0.978 1.677 10448
-0.431 0.991 1.687 13521
-0.431 0.991 1.677 13808
-0.433 0.995 1.674 14281
-0.439 1.007 1.683 16282
-0.444 1.020 1.693 17045
-0.446 1.024 1.690 12597
-0.446 1.024 1.680 9307
-0.446 1.024 1.670 11873
-0.450 1.032 1.673 14206
-0.451 1.036 1.670 17265
-0.455 1.045 1.673 20690
-0.459 1.053 1.676 18729
-0.460 1.057 1.672 13398
-0.460 1.057 1.663 10181
-0.460 1.057 1.653 7108
-0.456 1.047 1.631 4504
-0.471 1.083 1.671 4504
-0.473 1.087 1.667 7170
-0.477 1.095 1.670 7070
-0.479 1.099 1.666 7001
-0.482 1.108 1.669 11235
-0.482 1.107 1.659 16837
-0.480 1.102 1.643 17987
-0.480 1.102 1.634 19822
-0.483 1.110 1.636 22203
-0.485 1.114 1.633 16704
-0.485 1.114 1.623 16878
-0.491 1.127 1.631 31165
-0.492 1.131 1.628 38242
-0.496 1.139 1.630 37004
-0.500 1.148 1.632 38939
-0.502 1.152 1.629 33192
-0.501 1.151 1.619 27915
-0.507 1.165 1.627 27417
-0.515 1.183 1.641 21140
-0.525 1.206 1.661 19169
-0.531 1.220 1.669 20439
-0.533 1.224 1.665 20819
-0.533 1.223 1.655 17168
-0.534 1.227 1.651 13858
-0.536 1.231 1.647 17410
-0.538 1.235 1.643 20129
-0.540 1.239 1.639 16868
-0.539 1.238 1.629 14094
-0.543 1.247 1.631 10520
-0.549 1.261 1.639 7731
-0.560 1.285 1.658 9481
-0.553 1.269 1.631 13026
-0.550 1.263 1.615 18507
-0.552 1.267 1.611 20093
-0.553 1.271 1.607 18554
-0.553 1.270 1.597 14346
-0.557 1.279 1.599 15223
-0.565 1.298 1.611 19169
-0.569 1.307 1.613 17324
-0.582 1.336 1.637 24303
-0.581 1.335 1.627 30346
-0.583 1.339 1.622 20379
-0.594 1.364 1.640 18947
-0.600 1.378 1.647 18859
-0.611 1.403 1.665 12213
-0.608 1.397 1.649 25496
-0.608 1.395 1.639 46117
-0.612 1.405 1.640 50610
-0.613 1.409 1.636 48095
-0.613 1.407 1.626 40953
-0.617 1.416 1.626 26933
-0.623 1.431 1.633 16621
-0.643 1.477 1.671 18145
-0.645 1.482 1.666 26660
-0.649 1.491 1.667 19613
-0.656 1.506 1.673 9296
