-0.632 2.844 1.661 10213
-0.633 2.848 1.653 7466
-0.656 2.956 1.698 8792
-0.657 2.960 1.689 9369
-0.660 2.971 1.684 9964
-0.661 2.976 1.675 8370
-0.665 2.994 1.673 7125
-0.681 3.068 1.698 5558
-0.682 3.072 1.689 5086
-0.686 3.090 1.687 4888
-0.692 3.116 1.688 5830
-0.691 3.113 1.675 6921
-0.689 3.103 1.659 8429
-0.689 3.101 1.646 6590
-0.687 3.091 1.630 5211
-0.687 3.095 1.621 5211
-0.715 3.219 1.667 4857
-0.717 3.230 1.661 6610
-0.717 3.227 1.648 6516
-0.713 3.210 1.629 6887
-0.711 3.201 1.613 4626
-0.737 3.318 1.654 4370
-0.738 3.322 1.644 4370
-0.739 3.326 1.634 2185
-0.142 0.648 1.681 8949
-0.144 0.656 1.686 10961
-0.145 0.663 1.691 13100
-0.146 0.668 1.689 14485
-0.148 0.675 1.694 15893
-0.149 0.680 1.692 15893
-0.149 0.681 1.683 14907
-0.150 0.685 1.681 13945
-0.150 0.686 1.672 11773
-0.150 0.687 1.662 10189
-0.151 0.691 1.660 12817
-0.152 0.696 1.658 15445
-0.153 0.700 1.656 17213
-0.154 0.704 1.654 18981
-0.154 0.705 1.645 19804
-0.156 0.713 1.650 22912
-0.157 0.717 1.647 25282
-0.159 0.725 1.652 22987
-0.160 0.729 1.650 20754
-0.161 0.737 1.655 24065
-0.162 0.741 1.652 27443
-0.163 0.746 1.650 21238
-0.165 0.754 1.655 15247
-0.168 0.765 1.667 13353
-0.170 0.777 1.678 12491
-0.172 0.785 1.683 13987
-0.174 0.793 1.687 16387
-0.174 0.793 1.678 21090
-0.175 0.798 1.675 26057
-0.176 0.802 1.673 23882
-0.176 0.803 1.664 14946
-0.175 0.800 1.647 8785
-0.177 0.808 1.652 9341
-0.179 0.816 1.656 10452
-0.181 0.828 1.667 14549
-0.182 0.832 1.665 18994
-0.184 0.840 1.669 16877
-0.187 0.852 1.680 15065
-0.187 0.853 1.671 13807
-0.189 0.861 1.675 14462
-0.189 0.865 1.672 16421
-0.190 0.870 1.670 16603
-0.191 0.874 1.667 16080
-0.192 0.878 1.664 14354
-0.195 0.891 1.675 18816
-0.196 0.895 1.672 24609
-0.197 0.899 1.670 25492
-0.200 0.912 1.680 24679
-0.202 0.920 1.684 24105
-0.203 0.929 1.688 24531
-0.204 0.933 1.685 26181
-0.205 0.938 1.682 27140
-0.206 0.942 1.680 22045
-0.206 0.942 1.670 19676
-0.209 0.955 1.680 22501
-0.212 0.968 1.691 23711
-0.216 0.985 1.708 22537
-0.218 0.994 1.711 21409
-0.220 1.003 1.715 20066
-0.220 1.003 1.705 20751
-0.221 1.007 1.702 22394
-0.221 1.012 1.699 21229
-0.222 1.016 1.696 17229
-0.225 1.029 1.706 16813
-0.226 1.034 1.703 22068
-0.227 1.038 1.699 24928
-0.228 1.042 1.696 22901
-0.229 1.047 1.693 16526
-0.231 1.056 1.696 15189
-0.234 1.069 1.706 17695
-0.235 1.074 1.703 15929
-0.235 1.074 1.693 11543
-0.235 1.073 1.683 10625
-0.236 1.078 1.680 16956
-0.238 1.087 1.683 22184
-0.239 1.091 1.680 20136
-0.240 1.095 1.677 15099
-0.241 1.100 1.673 13673
-0.242 1.104 1.670 15577
-0.245 1.118 1.679 15331
-0.247 1.127 1.682 14345
-0.248 1.131 1.678 17660
-0.250 1.140 1.681 16878
-0.251 1.145 1.678 13039
-0.250 1.140 1.662 14596
-0.252 1.149 1.665 21588
-0.254 1.158 1.667 27189
-0.256 1.167 1.670 26343
-0.256 1.171 1.666 30048
-0.258 1.180 1.669 29442
-0.259 1.185 1.665 19781
-0.259 1.184 1.656 16698
-0.262 1.198 1.664 12765
-0.265 1.213 1.673 8598
-0.262 1.197 1.645 10928
-0.268 1.226 1.671 15085
-0.272 1.240 1.680 19517
-0.270 1.235 1.664 21928
-0.270 1.234 1.654 23347
-0.271 1.238 1.650 17260
-0.273 1.248 1.653 17404
-0.275 1.257 1.655 21719
-0.278 1.272 1.663 23727
-0.279 1.276 1.659 25802
-0.280 1.280 1.655 25393
-0.282 1.290 1.657 15031
-0.284 1.299 1.659 8891
-0.285 1.303 1.655 14167
-0.285 1.303 1.645 18766
-0.288 1.317 1.653 16261
-0.290 1.327 1.655 17882
-0.293 1.336 1.657 19190
-0.295 1.346 1.658 20950
-0.296 1.350 1.654 24959
-0.297 1.354 1.650 23380
-0.296 1.353 1.640 28077
-0.297 1.358 1.636 37667
-0.299 1.367 1.638 38106
-0.301 1.377 1.639 28688
-0.301 1.376 1.630 29721
-0.302 1.380 1.625 29372
-0.304 1.389 1.627 20425
-0.317 1.448 1.679 16584
-0.317 1.447 1.669 16586
-0.318 1.451 1.665 21062
-0.320 1.461 1.666 16341
-0.316 1.443 1.639 11492
-0.321 1.464 1.651 16149
-0.323 1.474 1.653 25302
-0.324 1.478 1.648 31308
-0.323 1.477 1.638 27371
-0.324 1.481 1.634 20046
-0.336 1.536 1.678 16934
-0.338 1.545 1.679 19472
-0.338 1.544 1.669 16744
-0.337 1.537 1.654 10764
-0.340 1.553 1.660 5597
-0.341 1.557 1.655 4046
-0.322 1.471 1.564 3978
-0.323 1.475 1.560 3659
-0.325 1.484 1.561 5412
-0.326 1.489 1.556 6907
-0.326 1.487 1.546 4910
-0.326 1.491 1.542 2823
-0.327 1.495 1.537 3048
-0.326 1.487 1.522 3290
-0.325 1.485 1.512 2857
-0.325 1.483 1.503 3657
-0.326 1.487 1.498 4760
-0.328 1.497 1.499 4905
-0.330 1.507 1.499 6224
-0.328 1.499 1.485 8234
-0.328 1.497 1.475 7930
-0.327 1.494 1.465 5750
-0.327 1.492 1.456 6081
-0.328 1.496 1.451 7506
-0.328 1.500 1.446 7990
-0.329 1.503 1.442 7487
-0.330 1.507 1.437 6910
-0.332 1.517 1.438 7362
-0.333 1.520 1.433 7963
-0.338 1.542 1.444 8196
-0.341 1.558 1.449 9694
-0.343 1.568 1.449 9530
-0.344 1.571 1.444 11239
-0.346 1.581 1.444 11170
-0.348 1.591 1.444 7579
-0.411 1.875 1.664 7570
-0.410 1.873 1.653 9851
-0.410 1.871 1.643 8670
-0.415 1.894 1.652 7981
-0.418 1.911 1.655 8585
-0.423 1.933 1.664 8950
-0.426 1.944 1.663 13036
-0.428 1.954 1.662 17553
-0.429 1.959 1.656 21105
-0.428 1.957 1.645 19043
-0.425 1.942 1.625 19415
-0.426 1.946 1.619 19261
-0.426 1.944 1.609 15960
-0.427 1.949 1.603 15062
-0.426 1.946 1.592 15008
-0.428 1.957 1.591 20447
-0.429 1.961 1.585 28970
-0.430 1.965 1.579 30870
-0.431 1.969 1.573 24421
-0.431 1.967 1.563 19843
-0.432 1.971 1.557 16666
-0.432 1.975 1.551 13011
-0.458 2.094 1.625 18900
-0.458 2.092 1.614 20229
-0.459 2.096 1.608 19125
-0.460 2.100 1.602 18411
-0.462 2.111 1.600 15807
-0.464 2.121 1.598 10842
-0.437 1.996 1.505 8217
-0.439 2.006 1.503 8024
-0.439 2.004 1.492 9193
-0.438 2.001 1.482 9885
-0.439 2.005 1.476 9789
-0.440 2.009 1.470 8534
-0.441 2.012 1.464 7375
-0.535 2.442 1.731 5996
-0.536 2.446 1.724 7000
-0.535 2.444 1.713 9586
-0.535 2.442 1.701 12166
-0.536 2.446 1.694 13836
-0.538 2.458 1.690 16093
-0.542 2.475 1.691 17901
-0.543 2.480 1.684 15891
-0.545 2.491 1.680 11281
-0.546 2.495 1.673 8900
-0.552 2.519 1.677 8070
-0.563 2.570 1.698 8450
-0.565 2.581 1.694 8673
-0.568 2.593 1.690 8618
-0.569 2.597 1.682 8291
-0.577 2.635 1.694 6703
-0.579 2.646 1.690 6616
-0.580 2.650 1.682 6569
-0.584 2.668 1.682 7604
-0.587 2.679 1.677 8866
-0.589 2.691 1.673 6965
-0.593 2.708 1.673 5246
-0.595 2.720 1.668 5084
-0.601 2.744 1.671 5067
-0.614 2.803 1.693 6267
-0.615 2.808 1.684 8804
-0.617 2.819 1.680 10596
-0.620 2.830 1.675 12768
-0.621 2.834 1.666 11941
-0.623 2.846 1.661 11261
-0.624 2.850 1.653 8405
-0.648 2.958 1.698 8016
-0.649 2.962 1.689 8519
-0.651 2.973 1.684 9101
-0.652 2.978 1.675 7682
-0.656 2.996 1.673 6474
-0.672 3.070 1.698 5754
-0.673 3.074 1.689 5552
-0.677 3.092 1.687 5163
-0.683 3.118 1.688 6355
-0.682 3.115 1.675 7028
-0.680 3.105 1.659 8161
-0.679 3.103 1.646 6159
-0.677 3.093 1.630 4785
-0.678 3.097 1.621 4785
-0.705 3.221 1.667 4813
-0.706 3.225 1.658 6740
-0.706 3.222 1.645 6661
-0.703 3.213 1.629 7054
-0.701 3.203 1.613 4693
-0.725 3.313 1.651 4302
-0.726 3.317 1.641 4302
-0.727 3.322 1.631 2151
-0.141 0.648 1.681 10048
-0.142 0.656 1.686 11680
-0.144 0.663 1.691 13496
-0.145 0.668 1.689 14684
-0.147 0.675 1.694 16025
-0.148 0.680 1.692 16025
-0.149 0.684 1.690 15121
-0.149 0.689 1.688 14217
-0.149 0.686 1.672 12157
-0.149 0.687 1.662 10994
-0.150 0.692 1.660 13814
-0.151 0.696 1.658 16635
-0.152 0.700 1.656 17649
-0.152 0.701 1.647 18820
-0.153 0.705 1.645 19537
-0.155 0.713 1.650 22363
-0.156 0.717 1.647 24795
-0.157 0.725 1.652 22686
-0.158 0.730 1.650 20647
-0.160 0.737 1.655 24232
-0.161 0.742 1.652 27824
-0.162 0.746 1.650 21672
-0.164 0.754 1.655 15657
-0.165 0.762 1.660 13116
-0.168 0.773 1.671 11684
-0.170 0.785 1.683 13545
-0.172 0.793 1.687 16401
-0.172 0.794 1.678 21134
-0.173 0.798 1.675 26196
-0.174 0.802 1.673 23867
-0.174 0.803 1.664 14745
-0.173 0.796 1.640 8777
-0.175 0.808 1.652 9116
-0.178 0.820 1.663 10386
-0.180 0.828 1.667 14506
-0.181 0.836 1.672 18883
-0.183 0.844 1.676 16568
-0.185 0.853 1.680 14598
-0.185 0.853 1.671 13697
-0.187 0.861 1.675 14886
-0.188 0.866 1.672 16971
-0.189 0.870 1.670 16917
-0.190 0.874 1.667 16145
-0.191 0.879 1.664 14317
-0.193 0.887 1.668 18563
-0.194 0.895 1.672 24311
-0.195 0.900 1.670 25591
-0.198 0.912 1.680 25211
-0.200 0.921 1.684 24586
-0.202 0.929 1.688 24985
-0.203 0.934 1.685 26427
-0.204 0.938 1.682 27057
-0.205 0.943 1.680 22116
-0.205 0.943 1.670 19938
-0.207 0.955 1.680 23084
-0.210 0.968 1.691 24740
-0.214 0.985 1.708 24374
-0.216 0.994 1.711 23309
-0.217 0.999 1.708 21025
-0.218 1.003 1.705 20717
-0.219 1.008 1.702 22184
-0.220 1.012 1.699 20947
-0.221 1.016 1.696 17477
-0.223 1.030 1.706 18515
-0.224 1.034 1.703 23372
-0.225 1.038 1.699 25531
-0.226 1.043 1.696 23329
-0.227 1.047 1.693 16979
-0.229 1.056 1.696 15174
-0.232 1.070 1.706 16368
-0.233 1.074 1.703 13908
-0.232 1.069 1.687 10036
-0.232 1.069 1.677 10733
-0.234 1.078 1.680 18162
-0.236 1.087 1.683 23601
-0.237 1.092 1.680 20651
-0.239 1.101 1.683 13775
-0.240 1.105 1.680 10300
-0.240 1.105 1.670 12190
-0.243 1.118 1.679 13757
-0.245 1.127 1.682 14726
-0.246 1.132 1.678 19806
-0.248 1.141 1.681 19540
-0.250 1.150 1.684 14115
-0.247 1.140 1.662 14339
-0.249 1.149 1.665 22042
-0.251 1.158 1.667 26709
-0.254 1.172 1.676 24440
-0.255 1.177 1.673 27809
-0.256 1.181 1.669 28771
-0.257 1.185 1.665 19184
-0.257 1.185 1.656 14390
-0.259 1.194 1.658 10223
-0.263 1.213 1.673 7654
-0.261 1.203 1.651 11309
-0.266 1.227 1.671 16675
-0.269 1.241 1.680 20040
-0.269 1.240 1.670 20417
-0.268 1.235 1.654 20647
-0.270 1.244 1.656 14465
-0.271 1.248 1.653 14945
-0.273 1.258 1.655 19108
-0.276 1.272 1.663 22979
-0.277 1.276 1.659 26836
-0.278 1.281 1.655 27233
-0.279 1.285 1.651 17983
-0.281 1.294 1.653 10723
-0.283 1.304 1.655 13170
-0.283 1.303 1.645 17666
-0.286 1.318 1.653 16286
-0.289 1.332 1.661 18901
-0.290 1.337 1.657 18224
-0.291 1.341 1.653 17829
-0.293 1.351 1.654 22832
-0.294 1.355 1.650 21623
-0.294 1.354 1.640 22168
-0.295 1.358 1.636 31525
-0.297 1.368 1.638 34201
-0.299 1.377 1.639 25843
-0.299 1.376 1.630 26633
-0.300 1.380 1.625 28224
-0.302 1.390 1.627 20323
-0.313 1.443 1.673 16258
-0.314 1.447 1.669 15803
-0.316 1.457 1.670 19257
-0.317 1.462 1.666 17880
-0.317 1.460 1.656 13700
-0.318 1.465 1.651 17704
-0.320 1.474 1.653 25965
-0.321 1.479 1.648 25523
-0.321 1.477 1.638 19213
-0.324 1.493 1.645 17042
-0.333 1.536 1.678 17319
-0.336 1.546 1.679 20814
-0.335 1.545 1.669 19301
-0.335 1.544 1.659 12074
-0.333 1.537 1.643 5658
-0.322 1.484 1.585 3884
-0.319 1.471 1.564 3839
-0.320 1.475 1.560 3518
-0.322 1.485 1.561 5086
-0.323 1.489 1.556 6480
-0.324 1.493 1.552 4680
-0.324 1.491 1.542 2640
-0.325 1.495 1.537 2841
-0.323 1.488 1.522 2700
-0.322 1.486 1.512 2150
-0.322 1.484 1.503 2608
-0.323 1.488 1.498 3419
-0.325 1.497 1.499 3506
-0.326 1.501 1.494 4580
-0.325 1.499 1.485 6649
-0.325 1.497 1.475 6878
-0.326 1.501 1.470 4580
-0.325 1.499 1.461 4061
-0.325 1.497 1.451 4915
-0.326 1.500 1.446 4965
-0.326 1.504 1.442 4726
-0.327 1.508 1.437 5430
-0.329 1.517 1.438 6953
-0.330 1.521 1.433 7608
-0.334 1.537 1.439 7168
-0.337 1.552 1.444 7233
-0.339 1.562 1.444 7258
-0.340 1.566 1.439 9046
-0.342 1.576 1.439 8709
-0.344 1.585 1.440 5100
-0.407 1.876 1.664 6148
-0.407 1.874 1.653 8134
-0.406 1.872 1.643 7487
-0.411 1.895 1.652 7163
-0.415 1.911 1.655 7679
-0.421 1.940 1.669 8168
-0.422 1.945 1.663 11945
-0.424 1.955 1.662 16563
-0.425 1.959 1.656 20776
-0.425 1.958 1.645 18139
-0.424 1.956 1.635 15849
-0.424 1.954 1.624 14726
-0.424 1.951 1.613 11530
-0.423 1.949 1.603 11654
-0.424 1.954 1.597 11616
-0.423 1.951 1.587 14771
-0.426 1.962 1.585 20049
-0.427 1.966 1.579 21524
-0.428 1.970 1.573 16931
-0.427 1.968 1.563 13348
-0.428 1.972 1.557 10401
-0.458 2.110 1.645 8805
-0.457 2.107 1.634 11972
-0.457 2.105 1.623 10165
-0.458 2.109 1.617 7812
-0.432 1.992 1.527 8879
-0.460 2.118 1.604 10117
-0.462 2.128 1.602 10419
-0.463 2.133 1.596 9609
-0.464 2.137 1.589 6921
-0.435 2.004 1.492 6193
-0.434 2.002 1.482 6966
-0.435 2.006 1.476 7163
-0.438 2.016 1.474 6759
-0.438 2.020 1.468 6152
-0.529 2.436 1.727 5503
-0.531 2.447 1.724 6257
-0.529 2.439 1.708 9041
-0.530 2.443 1.701 11999
-0.531 2.447 1.694 13943
-0.534 2.458 1.690 16614
-0.537 2.476 1.691 18447
-0.538 2.481 1.684 16196
-0.539 2.485 1.676 11159
-0.542 2.496 1.673 8629
-0.546 2.514 1.673 7444
-0.560 2.578 1.702 8280
-0.560 2.582 1.694 8873
-0.563 2.594 1.690 9001
-0.564 2.598 1.682 8685
-0.571 2.629 1.690 6861
-0.574 2.647 1.690 6428
-0.575 2.651 1.682 6488
-0.579 2.669 1.682 7486
-0.582 2.680 1.677 8658
-0.583 2.685 1.669 6742
-0.590 2.716 1.676 5118
-0.593 2.734 1.676 5184
-0.597 2.752 1.675 5523
-0.609 2.804 1.693 6715
-0.611 2.816 1.688 9374
-0.614 2.827 1.683 11181
-0.614 2.831 1.675 13412
-0.617 2.842 1.670 12673
-0.618 2.847 1.661 11971
-0.619 2.851 1.653 9103
-0.642 2.959 1.698 7185
-0.645 2.970 1.693 7709
-0.646 2.974 1.684 8253
-0.646 2.979 1.675 7026
-0.662 3.053 1.701 6110
-0.665 3.064 1.695 6018
-0.667 3.075 1.689 6107
-0.674 3.108 1.694 5557
-0.677 3.119 1.688 6906
-0.676 3.116 1.675 7151
-0.676 3.114 1.662 7859
-0.675 3.111 1.649 5765
-0.670 3.087 1.627 4324
-0.671 3.091 1.617 4324
-0.699 3.222 1.667 4801
-0.700 3.227 1.658 6894
-0.700 3.224 1.645 6772
-0.698 3.214 1.629 7148
-0.695 3.204 1.613 4735
-0.727 3.350 1.667 4261
-0.728 3.354 1.657 4261
-0.729 3.358 1.647 2130
-0.139 0.649 1.681 9236
-0.140 0.656 1.686 11208
-0.142 0.664 1.691 13331
-0.143 0.668 1.689 14607
-0.145 0.676 1.694 16070
-0.146 0.680 1.692 16070
-0.147 0.685 1.690 15541
-0.148 0.689 1.688 15012
-0.147 0.687 1.672 13105
-0.147 0.688 1.662 12499
-0.148 0.692 1.660 15355
-0.149 0.696 1.658 18212
-0.150 0.701 1.656 18072
-0.150 0.702 1.647 18395
-0.151 0.706 1.645 18891
-0.152 0.710 1.642 21513
-0.154 0.721 1.654 24129
-0.155 0.726 1.652 22337
-0.157 0.734 1.657 20747
-0.158 0.738 1.655 24606
-0.159 0.742 1.652 28465
-0.160 0.746 1.650 22209
-0.161 0.754 1.655 16119
-0.163 0.762 1.660 13257
-0.166 0.777 1.678 11504
-0.168 0.786 1.683 13707
-0.170 0.794 1.687 16907
-0.170 0.794 1.678 21408
-0.171 0.799 1.675 26344
-0.172 0.803 1.673 23854
-0.172 0.804 1.664 14548
-0.171 0.797 1.640 8545
-0.173 0.808 1.652 8455
-0.176 0.820 1.663 9397
-0.178 0.832 1.674 13363
-0.179 0.837 1.672 17434
-0.181 0.845 1.676 15223
-0.182 0.849 1.673 13448
-0.183 0.854 1.671 13406
-0.185 0.862 1.675 15449
-0.185 0.866 1.672 17748
-0.186 0.871 1.670 17336
-0.187 0.875 1.667 16189
-0.188 0.879 1.664 14252
-0.190 0.888 1.668 18401
-0.192 0.896 1.672 24106
-0.193 0.900 1.670 26053
-0.195 0.913 1.680 26382
-0.197 0.921 1.684 25562
-0.199 0.930 1.688 25920
-0.200 0.934 1.685 26680
-0.201 0.939 1.682 26525
-0.202 0.943 1.680 21628
-0.202 0.943 1.670 19520
-0.206 0.960 1.687 22890
-0.208 0.973 1.697 25168
-0.211 0.986 1.708 26173
-0.213 0.995 1.711 25140
-0.214 0.999 1.708 21749
-0.215 1.004 1.705 20157
-0.216 1.008 1.702 21149
-0.217 1.013 1.699 19455
-0.219 1.021 1.702 17381
-0.221 1.030 1.706 21222
-0.222 1.035 1.703 25688
-0.222 1.039 1.699 26755
-0.223 1.044 1.696 23864
-0.225 1.052 1.700 16997
-0.226 1.057 1.696 15093
-0.229 1.070 1.706 15704
-0.230 1.075 1.703 12688
-0.229 1.070 1.687 10312
-0.229 1.070 1.677 12414
-0.231 1.079 1.680 19257
-0.233 1.088 1.683 24022
-0.234 1.092 1.680 20428
-0.236 1.101 1.683 12003
-0.238 1.110 1.686 7459
-0.240 1.119 1.689 9562
-0.241 1.124 1.685 11968
-0.243 1.133 1.688 15115
-0.242 1.132 1.678 23065
-0.244 1.142 1.681 23973
-0.246 1.151 1.684 17023
-0.245 1.145 1.668 14547
-0.246 1.150 1.665 22541
-0.249 1.164 1.673 27001
-0.251 1.173 1.676 23129
-0.252 1.177 1.673 25135
-0.253 1.182 1.669 27082
-0.255 1.191 1.672 17998
-0.255 1.190 1.662 11029
-0.254 1.185 1.646 6893
-0.260 1.214 1.673 7166
-0.259 1.208 1.657 13442
-0.263 1.227 1.671 18807
-0.266 1.242 1.680 20375
-0.266 1.241 1.670 17576
-0.264 1.235 1.654 15766
-0.266 1.245 1.656 12381
-0.268 1.254 1.659 14163
-0.269 1.258 1.655 16606
-0.273 1.273 1.663 22305
-0.273 1.277 1.659 28881
-0.274 1.282 1.655 29227
-0.275 1.286 1.651 20853
-0.275 1.285 1.641 13399
-0.276 1.289 1.638 14257
-0.279 1.304 1.645 16685
-0.283 1.324 1.659 15939
-0.287 1.338 1.667 20201
-0.287 1.343 1.663 19001
-0.288 1.347 1.658 16304
-0.289 1.351 1.654 20988
-0.290 1.356 1.650 20017
-0.291 1.360 1.646 16998
-0.292 1.364 1.642 25522
-0.294 1.374 1.644 31085
-0.295 1.378 1.639 22905
-0.296 1.382 1.635 21511
-0.297 1.387 1.631 23103
-0.298 1.391 1.627 17810
-0.309 1.444 1.673 16745
-0.310 1.448 1.669 15560
-0.313 1.464 1.676 17699
-0.314 1.468 1.671 19597
-0.314 1.467 1.661 17188
-0.315 1.471 1.657 19971
-0.316 1.475 1.653 25887
-0.319 1.491 1.659 20289
-0.321 1.501 1.660 14082
-0.322 1.505 1.656 16138
-0.328 1.531 1.673 19274
-0.330 1.541 1.674 23042
-0.331 1.546 1.669 22318
-0.332 1.550 1.664 14961
-0.333 1.554 1.660 7044
-0.320 1.496 1.596 4431
-0.316 1.478 1.570 3835
-0.316 1.476 1.560 3527
-0.318 1.486 1.561 4807
-0.319 1.490 1.556 5861
-0.320 1.494 1.552 4335
-0.319 1.492 1.542 2416
-0.320 1.496 1.537 2638
-0.319 1.489 1.522 2256
-0.318 1.487 1.512 1506
-0.319 1.491 1.508 1488
-0.317 1.483 1.493 1950
-0.320 1.493 1.494 2030
-0.322 1.502 1.494 2830
-0.321 1.500 1.485 4802
-0.321 1.498 1.475 5534
-0.322 1.502 1.470 3526
-0.322 1.506 1.466 2240
-0.322 1.503 1.456 2115
-0.321 1.501 1.446 1636
-0.323 1.511 1.447 2866
-0.324 1.515 1.442 5305
-0.325 1.518 1.438 6705
-0.326 1.522 1.433 6858
-0.328 1.532 1.434 5844
-0.331 1.547 1.439 4778
-0.333 1.557 1.439 5278
-0.335 1.567 1.439 7412
-0.336 1.571 1.435 6987
-0.383 1.787 1.601 3695
-0.402 1.877 1.664 4775
-0.401 1.875 1.653 6562
-0.401 1.873 1.643 6434
-0.406 1.896 1.652 6298
-0.408 1.906 1.651 6482
-0.416 1.941 1.669 7117
-0.417 1.946 1.663 10754
-0.419 1.956 1.662 15193
-0.420 1.961 1.656 19652
-0.419 1.959 1.645 16750
-0.420 1.963 1.639 12804
-0.421 1.967 1.633 11346
-0.425 1.984 1.637 9160
-0.420 1.963 1.612 9157
-0.418 1.955 1.597 9243
-0.418 1.953 1.587 10550
-0.420 1.963 1.585 12626
-0.421 1.967 1.579 13386
-0.422 1.971 1.573 10802
-0.423 1.975 1.567 8794
-0.451 2.107 1.651 9457
-0.451 2.104 1.641 10781
-0.453 2.115 1.639 11347
-0.454 2.119 1.632 11365
-0.455 2.124 1.626 11664
-0.456 2.128 1.619 9166
-0.456 2.132 1.613 8367
-0.456 2.130 1.602 10653
-0.457 2.134 1.596 11354
-0.458 2.138 1.589 8678
-0.459 2.142 1.583 4200
-0.427 1.997 1.478 4741
-0.430 2.007 1.476 5011
-0.432 2.017 1.474 5295
-0.433 2.021 1.468 5228
-0.520 2.431 1.723 5310
-0.523 2.442 1.720 5888
-0.522 2.440 1.708 8897
-0.523 2.445 1.701 11971
-0.524 2.449 1.694 13991
-0.527 2.460 1.690 16705
-0.529 2.471 1.687 18444
-0.531 2.482 1.684 15927
-0.532 2.486 1.676 10834
-0.535 2.497 1.673 8341
-0.538 2.515 1.673 6915
-0.552 2.580 1.702 8337
-0.553 2.584 1.694 9118
-0.554 2.588 1.686 9394
-0.557 2.600 1.682 8991
-0.560 2.617 1.682 6943
-0.566 2.642 1.686 6197
-0.567 2.646 1.678 6220
-0.570 2.664 1.678 7136
-0.573 2.675 1.673 8309
-0.575 2.686 1.669 6463
-0.582 2.718 1.676 4958
-0.587 2.743 1.679 5315
-0.591 2.761 1.679 6029
-0.602 2.813 1.696 7265
-0.603 2.817 1.688 9997
-0.606 2.829 1.683 11760
-0.608 2.840 1.678 13890
-0.609 2.844 1.670 13076
-0.610 2.848 1.661 12263
-0.611 2.853 1.653 9515
-0.613 2.864 1.648 6805
-0.636 2.972 1.693 6911
-0.637 2.976 1.684 7369
-0.638 2.981 1.675 6357
-0.655 3.061 1.704 6138
-0.658 3.073 1.698 6520
-0.659 3.077 1.689 6993
-0.666 3.109 1.694 6273
-0.668 3.121 1.688 7764
-0.668 3.118 1.675 7451
-0.667 3.116 1.662 7573
-0.668 3.120 1.653 5433
-0.661 3.089 1.627 3760
-0.662 3.093 1.617 3760
-0.692 3.231 1.671 4892
-0.691 3.228 1.658 7092
-0.689 3.219 1.642 6900
-0.687 3.209 1.625 7197
-0.686 3.206 1.613 4725
-0.719 3.359 1.670 4217
-0.720 3.363 1.660 4217
-0.721 3.367 1.650 2108
-0.138 0.652 1.688 9685
-0.139 0.657 1.686 11588
-0.140 0.664 1.691 13687
-0.141 0.669 1.689 14869
-0.143 0.676 1.694 16235
-0.144 0.681 1.692 16235
-0.145 0.685 1.690 15997
-0.146 0.689 1.688 15758
-0.146 0.691 1.679 13846
-0.145 0.688 1.662 13267
-0.146 0.693 1.660 16073
-0.147 0.697 1.658 18879
-0.148 0.701 1.656 18257
-0.148 0.702 1.647 18224
-0.149 0.706 1.645 18571
-0.150 0.711 1.642 21039
-0.152 0.722 1.654 23655
-0.153 0.726 1.652 21884
-0.155 0.734 1.657 20369
-0.156 0.738 1.655 24280
-0.157 0.743 1.652 28190
-0.158 0.747 1.650 22052
-0.159 0.755 1.655 16078
-0.161 0.763 1.660 13036
-0.164 0.778 1.678 11040
-0.167 0.790 1.690 13489
-0.168 0.794 1.687 16907
-0.168 0.795 1.678 21179
-0.169 0.799 1.675 25937
-0.170 0.803 1.673 23355
-0.170 0.804 1.664 14151
-0.168 0.797 1.640 8333
-0.171 0.809 1.652 7968
-0.175 0.828 1.677 8891
-0.176 0.833 1.674 12762
-0.177 0.837 1.672 16633
-0.179 0.845 1.676 14537
-0.179 0.850 1.673 12880
-0.180 0.854 1.671 13096
-0.182 0.862 1.675 15327
-0.183 0.867 1.672 17640
-0.184 0.871 1.670 17087
-0.185 0.875 1.667 15883
-0.186 0.880 1.664 14109
-0.188 0.888 1.668 18346
-0.189 0.897 1.672 24061
-0.190 0.901 1.670 26313
-0.193 0.913 1.680 26760
-0.195 0.922 1.684 25688
-0.196 0.926 1.681 25953
-0.197 0.935 1.685 26433
-0.198 0.939 1.682 26038
-0.199 0.944 1.680 21352
-0.200 0.948 1.677 19474
-0.203 0.961 1.687 23008
-0.206 0.974 1.697 25636
-0.208 0.987 1.708 27274
-0.210 0.995 1.711 26322
-0.212 1.004 1.715 22294
-0.212 1.004 1.705 20205
-0.213 1.009 1.702 21182
-0.214 1.013 1.699 19162
-0.216 1.022 1.702 17882
-0.218 1.031 1.706 22804
-0.219 1.035 1.703 26592
-0.220 1.040 1.699 26832
-0.220 1.044 1.696 23466
-0.222 1.053 1.700 16491
-0.224 1.062 1.703 14567
-0.226 1.071 1.706 14778
-0.226 1.071 1.696 11660
-0.225 1.066 1.680 10636
-0.226 1.071 1.677 13616
-0.228 1.079 1.680 19996
-0.230 1.088 1.683 24348
-0.231 1.093 1.680 20276
-0.233 1.102 1.683 11426
-0.236 1.116 1.692 7445
-0.237 1.125 1.695 10355
-0.238 1.129 1.692 11858
-0.239 1.133 1.688 15443
-0.239 1.133 1.678 24774
-0.241 1.142 1.681 26436
-0.243 1.151 1.684 19046
-0.242 1.146 1.668 14835
-0.243 1.151 1.665 21702
-0.246 1.164 1.673 25793
-0.249 1.178 1.682 21635
-0.250 1.183 1.679 23590
-0.251 1.187 1.675 25898
-0.252 1.192 1.672 17015
-0.252 1.191 1.662 9103
-0.249 1.181 1.640 5979
-0.255 1.210 1.667 6824
-0.255 1.209 1.657 13856
-0.259 1.228 1.671 19125
-0.262 1.242 1.680 19562
-0.262 1.242 1.670 15286
-0.262 1.241 1.660 12995
-0.264 1.251 1.662 10851
-0.265 1.255 1.659 13293
-0.267 1.264 1.661 14890
-0.269 1.274 1.663 21044
-0.269 1.273 1.653 29217
-0.271 1.282 1.655 30436
-0.272 1.287 1.651 23534
-0.271 1.286 1.641 16339
-0.272 1.290 1.638 15680
-0.275 1.305 1.645 15853
-0.280 1.325 1.659 15775
-0.283 1.339 1.667 21062
-0.284 1.344 1.663 20001
-0.285 1.348 1.658 14964
-0.286 1.352 1.654 18323
-0.286 1.357 1.650 18480
-0.287 1.361 1.646 14406
-0.288 1.365 1.642 21994
-0.290 1.375 1.644 28492
-0.292 1.384 1.645 21003
-0.292 1.383 1.635 18716
-0.293 1.387 1.631 20968
-0.294 1.392 1.627 17175
-0.305 1.445 1.673 16453
-0.306 1.449 1.669 15621
-0.309 1.464 1.676 17157
-0.310 1.469 1.671 20964
-0.311 1.473 1.667 19814
-0.311 1.472 1.657 20960
-0.312 1.476 1.653 25501
-0.315 1.492 1.659 19048
-0.317 1.501 1.660 13956
-0.319 1.511 1.661 16452
-0.324 1.532 1.673 21000
-0.326 1.542 1.674 24863
-0.327 1.547 1.669 24308
-0.328 1.551 1.664 17093
-0.328 1.555 1.660 8394
-0.329 1.560 1.655 5132
-0.330 1.564 1.650 3820
-0.312 1.477 1.560 3371
-0.314 1.487 1.561 4472
-0.315 1.491 1.556 5325
-0.316 1.495 1.552 4073
-0.314 1.487 1.536 2310
-0.316 1.497 1.537 2520
-0.316 1.495 1.527 2071
-0.315 1.493 1.518 1229
-0.317 1.503 1.518 989
-0.316 1.495 1.503 1273
-0.314 1.488 1.488 1644
-0.316 1.497 1.489 2086
-0.317 1.501 1.485 3692
-0.317 1.499 1.475 4685
-0.317 1.503 1.470 3384
-0.319 1.512 1.471 1932
-0.321 1.522 1.471 1444
-0.320 1.514 1.457 1799
-0.319 1.512 1.447 3809
-0.320 1.516 1.442 5904
-0.321 1.519 1.438 6622
-0.322 1.523 1.433 6421
-0.324 1.533 1.434 5198
-0.324 1.536 1.429 3702
-0.328 1.552 1.434 4546
-0.330 1.562 1.434 7118
-0.331 1.565 1.430 6871
-0.378 1.788 1.601 3922
-0.395 1.872 1.659 4077
-0.395 1.870 1.648 5891
-0.396 1.874 1.643 6020
-0.399 1.891 1.647 5995
-0.403 1.907 1.651 5879
-0.409 1.936 1.664 6310
-0.411 1.947 1.663 9630
-0.413 1.957 1.662 13764
-0.414 1.962 1.656 18152
-0.414 1.960 1.645 15102
-0.416 1.970 1.644 10747
-0.420 1.987 1.647 10486
-0.421 1.991 1.641 9483
-0.420 1.989 1.631 8443
-0.414 1.962 1.602 7837
-0.413 1.954 1.587 8288
-0.415 1.964 1.585 8896
-0.417 1.975 1.584 9420
-0.418 1.979 1.578 8334
-0.417 1.976 1.567 7462
-0.444 2.101 1.647 10257
-0.445 2.106 1.641 11902
-0.446 2.110 1.634 12395
-0.446 2.114 1.628 13926
-0.447 2.118 1.621 15482
-0.448 2.123 1.615 12244
-0.449 2.127 1.609 9278
-0.451 2.137 1.607 10648
-0.451 2.135 1.596 11653
-0.452 2.139 1.589 9184
-0.453 2.143 1.583 4572
-0.422 1.998 1.478 3779
-0.424 2.008 1.476 3958
-0.426 2.018 1.474 4403
-0.428 2.029 1.472 4655
-0.514 2.433 1.723 5256
-0.515 2.437 1.716 5783
-0.516 2.442 1.708 8858
-0.517 2.446 1.701 11912
-0.517 2.450 1.694 13902
-0.520 2.461 1.690 16518
-0.522 2.472 1.687 18170
-0.523 2.477 1.680 15549
-0.525 2.488 1.676 10683
-0.528 2.499 1.673 8437
-0.531 2.517 1.673 6902
-0.545 2.581 1.702 8151
-0.546 2.586 1.694 9089
-0.547 2.590 1.686 9532
-0.549 2.601 1.682 9094
-0.553 2.619 1.682 6916
-0.558 2.644 1.686 5930
-0.559 2.648 1.678 5986
-0.563 2.666 1.678 6933
-0.565 2.677 1.673 8108
-0.568 2.688 1.669 6344
-0.574 2.720 1.676 4911
-0.581 2.751 1.683 5390
-0.583 2.762 1.679 6350
-0.594 2.815 1.696 7552
-0.595 2.819 1.688 10316
-0.598 2.830 1.683 11994
-0.600 2.841 1.678 14022
-0.601 2.846 1.670 13131
-0.602 2.850 1.661 12240
-0.603 2.854 1.653 9638
-0.605 2.866 1.648 7152
-0.629 2.981 1.696 6307
-0.629 2.978 1.684 6686
-0.630 2.982 1.675 5875
-0.647 3.063 1.704 6076
-0.649 3.075 1.698 6771
-0.650 3.079 1.689 7501
-0.657 3.111 1.694 6676
-0.659 3.123 1.688 8219
-0.660 3.127 1.678 7569
-0.658 3.117 1.662 7293
-0.659 3.122 1.653 5234
-0.653 3.091 1.627 3335
-0.654 3.095 1.617 3335
-0.683 3.233 1.671 4910
-0.682 3.230 1.658 7133
-0.679 3.213 1.638 6982
-0.678 3.211 1.625 7229
-0.677 3.208 1.613 4768
-0.710 3.361 1.670 4194
-0.711 3.365 1.660 4194
-0.712 3.369 1.650 2097
-0.135 0.649 1.681 10405
-0.137 0.657 1.686 11858
-0.138 0.665 1.691 13615
-0.139 0.669 1.689 14733
-0.141 0.677 1.694 16101
-0.142 0.681 1.692 16101
-0.143 0.686 1.690 16105
-0.143 0.690 1.688 16110
-0.144 0.691 1.679 14476
-0.143 0.689 1.662 14081
-0.144 0.693 1.660 16804
-0.145 0.697 1.658 19526
-0.146 0.702 1.656 18522
-0.146 0.702 1.647 18052
-0.147 0.707 1.645 18302
-0.148 0.711 1.642 20710
-0.150 0.722 1.654 23378
-0.151 0.727 1.652 21402
-0.153 0.734 1.657 19686
-0.154 0.739 1.655 23478
-0.155 0.743 1.652 27270
-0.155 0.747 1.650 21363
-0.157 0.755 1.655 15545
-0.159 0.763 1.660 12275
-0.162 0.778 1.678 10047
-0.164 0.790 1.690 12950
-0.165 0.795 1.687 16499
-0.165 0.795 1.678 20725
-0.166 0.800 1.675 25374
-0.166 0.800 1.666 22861
-0.167 0.805 1.664 13902
-0.166 0.798 1.640 8213
-0.168 0.809 1.652 7629
-0.172 0.829 1.677 8686
-0.173 0.833 1.674 12381
-0.174 0.838 1.672 16076
-0.176 0.846 1.676 13921
-0.178 0.854 1.680 12119
-0.178 0.855 1.671 12387
-0.179 0.863 1.675 14700
-0.180 0.867 1.672 16917
-0.181 0.872 1.670 16436
-0.182 0.876 1.667 15401
-0.183 0.880 1.664 13851
-0.185 0.889 1.668 18245
-0.187 0.897 1.672 23958
-0.188 0.901 1.670 26479
-0.190 0.914 1.680 27071
-0.192 0.923 1.684 25835
-0.193 0.927 1.681 25806
-0.195 0.935 1.685 25677
-0.195 0.940 1.682 25021
-0.196 0.940 1.673 20964
-0.196 0.944 1.670 19669
-0.200 0.961 1.687 23050
-0.203 0.974 1.697 26033
-0.205 0.987 1.708 28746
-0.207 0.996 1.711 28087
-0.209 1.005 1.715 23531
-0.209 1.005 1.705 21376
-0.210 1.009 1.702 22325
-0.211 1.014 1.699 19483
-0.213 1.023 1.702 18796
-0.215 1.032 1.706 24408
-0.215 1.036 1.703 27327
-0.216 1.040 1.699 26664
-0.217 1.045 1.696 22586
-0.219 1.054 1.700 15399
-0.221 1.063 1.703 13636
-0.223 1.072 1.706 13576
-0.222 1.067 1.690 10974
-0.222 1.067 1.680 11980
-0.223 1.071 1.677 15869
-0.225 1.080 1.680 21030
-0.227 1.089 1.683 24530
-0.227 1.094 1.680 19845
-0.230 1.107 1.689 11673
-0.234 1.126 1.705 10444
-0.235 1.130 1.701 13406
-0.235 1.130 1.692 12746
-0.236 1.134 1.688 16070
-0.236 1.134 1.678 26360
-0.238 1.143 1.681 28656
-0.240 1.152 1.684 21136
-0.239 1.147 1.668 15476
-0.239 1.151 1.665 20562
-0.242 1.165 1.673 23623
-0.245 1.179 1.682 19841
-0.246 1.184 1.679 21693
-0.247 1.188 1.675 23744
-0.248 1.192 1.672 14755
-0.246 1.182 1.650 6756
-0.246 1.181 1.640 6103
-0.251 1.205 1.661 7877
-0.252 1.210 1.657 14361
-0.255 1.224 1.665 19512
-0.259 1.243 1.680 18317
-0.258 1.243 1.670 12698
-0.258 1.242 1.660 10198
-0.260 1.251 1.662 9711
-0.262 1.261 1.665 12775
-0.263 1.265 1.661 13595
-0.264 1.269 1.657 20059
-0.265 1.274 1.653 29611
-0.267 1.283 1.655 31983
-0.268 1.287 1.651 26453
-0.268 1.287 1.641 19159
-0.268 1.291 1.638 16848
-0.273 1.311 1.651 14325
-0.276 1.325 1.659 14920
-0.279 1.340 1.667 21342
-0.281 1.350 1.668 21089
-0.281 1.349 1.658 13435
-0.281 1.353 1.654 14312
-0.283 1.363 1.656 16243
-0.284 1.367 1.652 12456
-0.285 1.371 1.648 18256
-0.286 1.376 1.644 24731
-0.288 1.385 1.645 18922
-0.288 1.384 1.635 16197
-0.289 1.388 1.631 18653
-0.290 1.393 1.627 16326
-0.301 1.446 1.673 16050
-0.302 1.450 1.669 16191
-0.305 1.465 1.676 16608
-0.306 1.470 1.671 21873
-0.307 1.474 1.667 21771
-0.307 1.478 1.663 21604
-0.308 1.483 1.658 24757
-0.312 1.498 1.665 21444
-0.312 1.502 1.660 18244
-0.316 1.518 1.667 17470
-0.320 1.539 1.678 23318
-0.321 1.543 1.674 27442
-0.322 1.548 1.669 27076
-0.323 1.552 1.664 19736
-0.324 1.556 1.660 10039
-0.325 1.561 1.655 6370
-0.326 1.565 1.650 4911
-0.309 1.484 1.565 3201
-0.309 1.488 1.561 4046
-0.310 1.492 1.556 4673
-0.311 1.496 1.552 3919
-0.311 1.494 1.542 2298
-0.312 1.498 1.537 2366
-0.312 1.502 1.533 1957
-0.311 1.494 1.518 1096
-0.314 1.510 1.524 1054
-0.312 1.502 1.509 1555
-0.310 1.489 1.488 2098
-0.309 1.486 1.479 1941
-0.312 1.502 1.485 2590
-0.312 1.500 1.475 3743
-0.313 1.504 1.470 3268
-0.315 1.513 1.471 1988
-0.316 1.517 1.466 1996
-0.315 1.515 1.457 3324
-0.315 1.513 1.447 5227
-0.315 1.516 1.442 6565
-0.316 1.520 1.438 6407
-0.317 1.524 1.433 5811
-0.318 1.528 1.429 4532
-0.320 1.537 1.429 3397
-0.323 1.553 1.434 4615
-0.325 1.563 1.434 7259
-0.326 1.566 1.430 7341
-0.372 1.789 1.601 4047
-0.390 1.873 1.659 3655
-0.389 1.871 1.648 5503
-0.390 1.876 1.643 5832
-0.394 1.892 1.647 5912
-0.396 1.903 1.646 5551
-0.399 1.919 1.650 5818
-0.405 1.948 1.663 8299
-0.406 1.953 1.657 11967
-0.407 1.957 1.651 16163
-0.408 1.961 1.645 12910
-0.410 1.972 1.644 8790
-0.414 1.988 1.647 9955
-0.414 1.993 1.641 9479
-0.414 1.991 1.631 8189
-0.412 1.982 1.615 6542
-0.408 1.961 1.591 6291
-0.409 1.965 1.585 6369
-0.411 1.976 1.584 6823
-0.410 1.974 1.573 6924
-0.438 2.105 1.658 7219
-0.437 2.103 1.647 10586
-0.437 2.101 1.636 12689
-0.438 2.105 1.630 13302
-0.440 2.116 1.628 15818
-0.441 2.120 1.621 18179
-0.442 2.124 1.615 14614
-0.443 2.128 1.609 10019
-0.445 2.139 1.607 10388
-0.446 2.143 1.600 11530
-0.447 2.147 1.594 9459
-0.446 2.145 1.583 5153
-0.444 2.136 1.568 3072
-0.445 2.140 1.561 3153
-0.421 2.026 1.478 3557
-0.503 2.417 1.722 4525
-0.505 2.428 1.719 5414
-0.507 2.439 1.716 5972
-0.507 2.437 1.704 9192
-0.508 2.441 1.697 12085
-0.509 2.445 1.690 13866
-0.512 2.463 1.690 16286
-0.515 2.474 1.687 17888
-0.516 2.478 1.680 15232
-0.518 2.489 1.676 10614
-0.520 2.500 1.673 8705
-0.522 2.512 1.669 7143
-0.539 2.589 1.706 7896
-0.538 2.587 1.694 8996
-0.539 2.592 1.686 9635
-0.541 2.603 1.682 9153
-0.544 2.614 1.678 6847
-0.550 2.645 1.686 5564
-0.551 2.650 1.678 5690
-0.555 2.667 1.678 6737
-0.557 2.679 1.673 7933
-0.559 2.690 1.669 6327
-0.565 2.715 1.673 5137
-0.574 2.760 1.687 5583
-0.576 2.771 1.682 6774
-0.586 2.816 1.696 7747
-0.587 2.821 1.688 10533
-0.589 2.832 1.683 12166
-0.591 2.843 1.678 14132
-0.592 2.848 1.670 13103
-0.593 2.852 1.661 12074
-0.594 2.856 1.653 9674
-0.596 2.867 1.648 7462
-0.620 2.982 1.696 5768
-0.621 2.987 1.687 6177
-0.621 2.984 1.675 5473
-0.639 3.072 1.708 6026
-0.640 3.077 1.698 7028
-0.641 3.081 1.689 8029
-0.648 3.113 1.694 7095
-0.650 3.125 1.688 8683
-0.651 3.129 1.678 7701
-0.650 3.126 1.666 6985
-0.650 3.124 1.653 5063
-0.651 3.128 1.643 3168
-0.651 3.132 1.634 3168
-0.673 3.235 1.671 4923
-0.671 3.225 1.655 7199
-0.667 3.208 1.635 7108
-0.667 3.206 1.622 7305
-0.666 3.203 1.609 4882
-0.699 3.363 1.670 4168
-0.700 3.367 1.660 4168
-0.701 3.372 1.650 2084
-0.134 0.650 1.681 9794
-0.135 0.657 1.686 11313
-0.137 0.665 1.691 13136
-0.138 0.669 1.689 14318
-0.139 0.677 1.694 15773
-0.140 0.681 1.692 15773
-0.141 0.686 1.690 16413
-0.142 0.690 1.688 17053
-0.142 0.691 1.679 15577
-0.142 0.689 1.662 15201
-0.143 0.697 1.667 17739
-0.144 0.701 1.665 20340
-0.144 0.702 1.656 18691
-0.144 0.703 1.647 17501
-0.145 0.707 1.645 17617
-0.147 0.715 1.650 20129
-0.149 0.723 1.654 23051
-0.149 0.727 1.652 20782
-0.151 0.735 1.657 18883
-0.152 0.739 1.655 22449
-0.153 0.743 1.652 26015
-0.154 0.748 1.650 20325
-0.155 0.756 1.655 14702
-0.156 0.760 1.653 11381
-0.160 0.779 1.678 8942
-0.162 0.791 1.690 12197
-0.163 0.795 1.687 15854
-0.164 0.796 1.678 20060
-0.164 0.800 1.675 24615
-0.165 0.801 1.666 22326
-0.165 0.805 1.664 13752
-0.164 0.798 1.640 8010
-0.169 0.821 1.672 7225
-0.171 0.833 1.684 8380
-0.172 0.838 1.681 11603
-0.172 0.838 1.672 14848
-0.174 0.846 1.676 12734
-0.176 0.855 1.680 10898
-0.177 0.859 1.678 11441
-0.177 0.863 1.675 13896
-0.178 0.868 1.672 15946
-0.179 0.872 1.670 15452
-0.180 0.876 1.667 14582
-0.181 0.881 1.664 13429
-0.183 0.889 1.668 18072
-0.184 0.898 1.672 23771
-0.185 0.902 1.670 26727
-0.188 0.914 1.680 27571
-0.190 0.923 1.684 25970
-0.191 0.927 1.681 25681
-0.192 0.936 1.685 24823
-0.193 0.940 1.682 23712
-0.193 0.940 1.673 20222
-0.194 0.945 1.670 19437
-0.198 0.962 1.687 22758
-0.200 0.975 1.697 26241
-0.203 0.988 1.708 29862
-0.205 0.997 1.711 29232
-0.206 1.001 1.708 24373
-0.207 1.005 1.705 22276
-0.208 1.010 1.702 22689
-0.208 1.014 1.699 18780
-0.211 1.028 1.709 18946
-0.212 1.032 1.706 25391
-0.213 1.036 1.703 27213
-0.214 1.041 1.699 25524
-0.215 1.045 1.696 20671
-0.217 1.054 1.700 13524
-0.221 1.077 1.722 13233
-0.219 1.068 1.700 13707
-0.217 1.054 1.671 12090
-0.218 1.063 1.674 14084
-0.220 1.072 1.677 18095
-0.222 1.081 1.680 21938
-0.224 1.090 1.683 24468
-0.225 1.094 1.680 19402
-0.228 1.108 1.689 13273
-0.231 1.121 1.698 13892
-0.231 1.126 1.695 16531
-0.232 1.130 1.692 13547
-0.233 1.135 1.688 16624
-0.233 1.134 1.678 28113
-0.235 1.143 1.681 30589
-0.236 1.148 1.678 22776
-0.236 1.147 1.668 15758
-0.237 1.152 1.665 19086
-0.240 1.166 1.673 21463
-0.244 1.185 1.689 18520
-0.244 1.189 1.685 20342
-0.244 1.189 1.675 21441
-0.246 1.198 1.678 12534
-0.245 1.192 1.662 5790
-0.244 1.187 1.646 6508
-0.248 1.206 1.661 8358
-0.250 1.215 1.663 14049
-0.252 1.225 1.665 18922
-0.255 1.239 1.674 16655
-0.256 1.243 1.670 9826
-0.255 1.243 1.660 7702
-0.260 1.267 1.680 10361
-0.259 1.261 1.665 13461
-0.260 1.266 1.661 12091
-0.261 1.270 1.657 18079
-0.262 1.274 1.653 29374
-0.264 1.284 1.655 33165
-0.265 1.288 1.651 28494
-0.266 1.292 1.647 20992
-0.265 1.291 1.638 18261
-0.266 1.296 1.634 14510
-0.274 1.331 1.665 14012
-0.277 1.346 1.672 20576
-0.278 1.350 1.668 21671
-0.278 1.355 1.664 12695
-0.279 1.359 1.660 10909
-0.280 1.363 1.656 14072
-0.282 1.373 1.658 12246
-0.282 1.372 1.648 16079
-0.284 1.382 1.649 21468
-0.286 1.391 1.651 17584
-0.287 1.396 1.647 14648
-0.286 1.389 1.631 15446
-0.289 1.404 1.638 14463
-0.297 1.446 1.673 15610
-0.298 1.451 1.669 17630
-0.300 1.461 1.670 17010
-0.303 1.476 1.677 22700
-0.304 1.480 1.673 22938
-0.305 1.485 1.668 21703
-0.306 1.489 1.664 23579
-0.308 1.499 1.665 24883
-0.309 1.503 1.660 24307
-0.313 1.524 1.672 19817
-0.316 1.540 1.678 26426
-0.317 1.544 1.674 30407
-0.318 1.548 1.669 29375
-0.319 1.553 1.664 21175
-0.320 1.557 1.660 10731
-0.321 1.561 1.655 7123
-0.322 1.566 1.650 5590
-0.322 1.564 1.640 3307
-0.306 1.489 1.561 3622
-0.307 1.493 1.556 3950
-0.308 1.497 1.552 3756
-0.307 1.495 1.542 2351
-0.308 1.499 1.537 2182
-0.309 1.503 1.533 1887
-0.307 1.495 1.518 1070
-0.308 1.499 1.513 1303
-0.309 1.503 1.509 2170
-0.307 1.495 1.494 2914
-0.308 1.499 1.489 2483
-0.309 1.503 1.485 2058
-0.310 1.507 1.480 2829
-0.309 1.504 1.470 2936
-0.310 1.508 1.466 2143
-0.311 1.512 1.461 2784
-0.312 1.516 1.457 4753
-0.311 1.514 1.447 6449
-0.312 1.517 1.442 7004
-0.313 1.521 1.438 5976
-0.313 1.525 1.433 5102
-0.315 1.534 1.434 4254
-0.317 1.544 1.434 4212
-0.319 1.554 1.434 5742
-0.321 1.563 1.434 8125
-0.322 1.567 1.430 8139
-0.322 1.565 1.420 4604
-0.384 1.868 1.654 3663
-0.385 1.872 1.648 5461
-0.386 1.876 1.643 5744
-0.389 1.893 1.647 5791
-0.391 1.903 1.646 5613
-0.393 1.914 1.645 6333
-0.397 1.931 1.649 7634
-0.400 1.947 1.652 10210
-0.401 1.952 1.646 13614
-0.402 1.956 1.640 10291
-0.407 1.979 1.649 6808
-0.409 1.989 1.647 9082
-0.410 1.994 1.641 9079
-0.409 1.992 1.631 7683
-0.409 1.990 1.620 5497
-0.403 1.962 1.591 4175
-0.405 1.973 1.590 4925
-0.405 1.970 1.579 5679
-0.406 1.974 1.573 6059
-0.433 2.106 1.658 6781
-0.432 2.104 1.647 10328
-0.432 2.102 1.636 12822
-0.433 2.106 1.630 13453
-0.435 2.117 1.628 16120
-0.436 2.121 1.621 18928
-0.437 2.125 1.615 15572
-0.438 2.129 1.609 9987
-0.440 2.140 1.607 9432
-0.441 2.144 1.600 10725
-0.442 2.148 1.594 9213
-0.441 2.146 1.583 5551
-0.439 2.137 1.568 3679
-0.439 2.134 1.557 3388
-0.418 2.034 1.483 2846
-0.497 2.418 1.722 4851
-0.499 2.429 1.719 5972
-0.500 2.433 1.712 6592
-0.501 2.438 1.704 9709
-0.502 2.442 1.697 12242
-0.503 2.447 1.690 13717
-0.507 2.464 1.690 15534
-0.509 2.475 1.687 16877
-0.510 2.480 1.680 14204
-0.512 2.491 1.676 10045
-0.514 2.502 1.673 8758
-0.516 2.513 1.669 7302
-0.533 2.591 1.706 7750
-0.532 2.588 1.694 8941
-0.533 2.593 1.686 9720
-0.535 2.604 1.682 9160
-0.538 2.615 1.678 6761
-0.545 2.653 1.690 5136
-0.545 2.651 1.678 5238
-0.549 2.669 1.678 6419
-0.551 2.680 1.673 7686
-0.553 2.691 1.669 6331
-0.557 2.709 1.669 5494
-0.568 2.761 1.687 5750
-0.570 2.772 1.682 7179
-0.578 2.811 1.693 7728
-0.581 2.829 1.692 10495
-0.582 2.833 1.683 11988
-0.585 2.845 1.678 13870
-0.586 2.849 1.670 12664
-0.586 2.853 1.661 11457
-0.587 2.858 1.653 9325
-0.590 2.869 1.648 7448
-0.613 2.984 1.696 5263
-0.614 2.988 1.687 5790
-0.614 2.986 1.675 5181
-0.632 3.074 1.708 6044
-0.633 3.078 1.698 7345
-0.632 3.075 1.686 8658
-0.636 3.094 1.683 7646
-0.643 3.126 1.688 9223
-0.643 3.131 1.678 7845
-0.643 3.128 1.666 6651
-0.644 3.132 1.656 4952
-0.665 3.235 1.694 3266
-0.666 3.239 1.684 3266
-0.665 3.237 1.671 5007
-0.662 3.220 1.651 7268
-0.660 3.210 1.635 7196
-0.659 3.207 1.622 7328
-0.659 3.204 1.609 5019
-0.694 3.379 1.676 4217
-0.695 3.383 1.666 4217
-0.696 3.387 1.656 2108
-0.132 0.650 1.681 8133
-0.134 0.658 1.686 9865
-0.135 0.665 1.691 11899
-0.137 0.673 1.697 13503
-0.138 0.677 1.694 15411
-0.138 0.682 1.692 15411
-0.139 0.686 1.690 16636
-0.140 0.691 1.688 17861
-0.140 0.692 1.679 17090
-0.141 0.693 1.670 17026
-0.142 0.697 1.667 19249
-0.142 0.701 1.665 21472
-0.143 0.706 1.663 18969
-0.144 0.710 1.661 16466
-0.144 0.707 1.645 16317
-0.146 0.719 1.657 19342
-0.147 0.723 1.654 22522
-0.148 0.731 1.659 19947
-0.150 0.739 1.664 17717
-0.151 0.743 1.662 20839
-0.152 0.747 1.659 23961
-0.153 0.752 1.657 18690
-0.154 0.756 1.655 13420
-0.155 0.764 1.660 10190
-0.159 0.783 1.685 7930
-0.161 0.791 1.690 11429
-0.162 0.799 1.694 15132
-0.162 0.796 1.678 18668
-0.162 0.797 1.669 22813
-0.163 0.801 1.666 20887
-0.164 0.805 1.664 13179
-0.162 0.798 1.640 7356
-0.168 0.825 1.679 6909
-0.170 0.837 1.691 7702
-0.170 0.838 1.681 10320
-0.171 0.842 1.679 12993
-0.173 0.851 1.683 10717
-0.174 0.859 1.687 8889
-0.175 0.859 1.678 9935
-0.175 0.864 1.675 12403
-0.176 0.868 1.672 14044
-0.177 0.873 1.670 13526
-0.178 0.877 1.667 13017
-0.179 0.881 1.664 12741
-0.181 0.890 1.668 17727
-0.182 0.894 1.666 23141
-0.183 0.902 1.670 26631
-0.186 0.915 1.680 28163
-0.188 0.923 1.684 26598
-0.188 0.928 1.681 25515
-0.190 0.936 1.685 23105
-0.191 0.941 1.682 21372
-0.191 0.941 1.673 18935
-0.193 0.950 1.677 18691
-0.196 0.967 1.694 22404
-0.199 0.980 1.704 27561
-0.201 0.988 1.708 32492
-0.202 0.997 1.711 31749
-0.203 1.001 1.708 26945
-0.204 1.006 1.705 25031
-0.205 1.010 1.702 24452
-0.207 1.019 1.705 19318
-0.209 1.028 1.709 20386
-0.211 1.037 1.712 27321
-0.212 1.041 1.709 27846
-0.212 1.046 1.706 24880
-0.213 1.050 1.703 18650
-0.214 1.055 1.700 11543
-0.219 1.077 1.722 13901
-0.217 1.068 1.700 14834
-0.214 1.054 1.671 14183
-0.217 1.068 1.680 16483
-0.218 1.072 1.677 20104
-0.220 1.081 1.680 22216
-0.221 1.090 1.683 23087
-0.222 1.095 1.680 18021
-0.226 1.113 1.696 14921
-0.227 1.117 1.692 17790
-0.229 1.126 1.695 20425
-0.230 1.131 1.692 15492
-0.231 1.135 1.688 18406
-0.230 1.135 1.678 30687
-0.232 1.144 1.681 32806
-0.233 1.148 1.678 24219
-0.233 1.148 1.668 14809
-0.234 1.152 1.665 15496
-0.238 1.171 1.680 18063
-0.241 1.185 1.689 17066
-0.242 1.190 1.685 18675
-0.243 1.194 1.681 17655
-0.243 1.198 1.678 10389
-0.243 1.198 1.668 7555
-0.243 1.197 1.658 9551
-0.245 1.207 1.661 9703
-0.247 1.216 1.663 13623
-0.249 1.225 1.665 18494
-0.252 1.239 1.674 15408
-0.253 1.244 1.670 6215
-0.257 1.263 1.684 6061
-0.257 1.268 1.680 12776
-0.257 1.267 1.671 15936
-0.257 1.266 1.661 11608
-0.258 1.271 1.657 15403
-0.259 1.275 1.653 28925
-0.261 1.284 1.655 35454
-0.262 1.289 1.651 31697
-0.263 1.293 1.647 22812
-0.263 1.297 1.643 17963
-0.263 1.296 1.634 13452
-0.270 1.332 1.665 13239
-0.274 1.347 1.672 19798
-0.274 1.351 1.668 21478
-0.275 1.355 1.664 12367
-0.276 1.360 1.660 8848
-0.278 1.369 1.662 12785
-0.279 1.374 1.658 13370
-0.281 1.383 1.659 15151
-0.282 1.388 1.655 19070
-0.283 1.392 1.651 17120
-0.285 1.402 1.652 14394
-0.287 1.411 1.654 12765
-0.289 1.421 1.655 10763
-0.294 1.447 1.673 14518
-0.295 1.451 1.669 19363
-0.297 1.461 1.670 17672
-0.300 1.477 1.677 23445
-0.301 1.481 1.673 24073
-0.302 1.485 1.668 19463
-0.305 1.501 1.675 19695
-0.306 1.505 1.670 29488
-0.307 1.509 1.666 32583
-0.310 1.525 1.672 24390
-0.313 1.540 1.678 30319
-0.314 1.545 1.674 33082
-0.315 1.549 1.669 30522
-0.316 1.554 1.664 20416
-0.315 1.552 1.654 9450
-0.317 1.562 1.655 6450
-0.318 1.566 1.650 5169
-0.303 1.491 1.570 3322
-0.302 1.489 1.561 3256
-0.302 1.488 1.551 3208
-0.304 1.497 1.552 3500
-0.304 1.496 1.542 2408
-0.305 1.500 1.537 1828
-0.305 1.503 1.533 1590
-0.303 1.490 1.512 1115
-0.303 1.494 1.508 1544
-0.304 1.498 1.503 2671
-0.304 1.496 1.494 3622
-0.305 1.500 1.489 3167
-0.307 1.509 1.490 1802
-0.306 1.507 1.480 1849
-0.306 1.505 1.470 2327
-0.306 1.509 1.466 2187
-0.307 1.513 1.461 3512
-0.308 1.516 1.457 5928
-0.308 1.514 1.447 7396
-0.308 1.518 1.442 6932
-0.309 1.522 1.438 5005
-0.310 1.525 1.433 4084
-0.312 1.535 1.434 4443
-0.314 1.545 1.434 6117
-0.316 1.554 1.434 7930
-0.318 1.564 1.434 9750
-0.318 1.568 1.430 9124
-0.318 1.565 1.420 5263
-0.378 1.863 1.649 4301
-0.380 1.873 1.648 6051
-0.381 1.877 1.643 5861
-0.383 1.888 1.642 5668
-0.386 1.898 1.641 6289
-0.388 1.909 1.640 7778
-0.390 1.919 1.639 8360
-0.394 1.942 1.647 8616
-0.395 1.946 1.642 10496
-0.395 1.944 1.631 8043
-0.406 1.999 1.663 5327
-0.403 1.984 1.643 7738
-0.403 1.982 1.632 8104
-0.403 1.986 1.626 6542
-0.404 1.991 1.620 4250
-0.399 1.963 1.591 2715
-0.400 1.967 1.585 4697
-0.400 1.971 1.579 5931
-0.401 1.975 1.573 5568
-0.428 2.107 1.658 5977
-0.427 2.105 1.647 9235
-0.427 2.103 1.636 12210
-0.428 2.107 1.630 12650
-0.430 2.118 1.628 14550
-0.431 2.122 1.621 17429
-0.432 2.126 1.615 14890
-0.433 2.130 1.609 9164
-0.435 2.141 1.607 7595
-0.436 2.145 1.600 8902
-0.435 2.143 1.589 8095
-0.435 2.140 1.579 5494
-0.433 2.131 1.564 3821
-0.434 2.135 1.557 3261
-0.493 2.427 1.738 3192
-0.493 2.425 1.726 5843
-0.494 2.430 1.719 7128
-0.493 2.428 1.707 7863
-0.495 2.439 1.704 10521
-0.496 2.443 1.697 12437
-0.497 2.448 1.690 13175
-0.501 2.465 1.690 13818
-0.503 2.476 1.687 14758
-0.504 2.481 1.680 12282
-0.506 2.492 1.676 9031
-0.508 2.503 1.673 8638
-0.511 2.514 1.669 7412
-0.526 2.592 1.706 7565
-0.526 2.590 1.694 8806
-0.527 2.594 1.686 9682
-0.529 2.605 1.682 8978
-0.530 2.610 1.674 6518
-0.539 2.655 1.690 4645
-0.566 2.787 1.755 4737
-0.542 2.670 1.678 5820
-0.545 2.681 1.673 7176
-0.547 2.692 1.669 6189
-0.550 2.710 1.669 5761
-0.561 2.762 1.687 5717
-0.565 2.780 1.686 7399
-0.570 2.805 1.689 7483
-0.575 2.830 1.692 10073
-0.577 2.842 1.687 11412
-0.578 2.846 1.678 12967
-0.579 2.850 1.670 11543
-0.580 2.855 1.661 10119
-0.581 2.859 1.653 8373
-0.584 2.877 1.651 7061
-0.608 2.992 1.700 4914
-0.607 2.990 1.687 5664
-0.607 2.987 1.675 5109
-0.626 3.082 1.711 6163
-0.625 3.080 1.698 7768
-0.625 3.077 1.686 9409
-0.629 3.095 1.683 8415
-0.637 3.135 1.691 10015
-0.636 3.132 1.678 8081
-0.636 3.129 1.666 6247
-0.638 3.141 1.660 4803
-0.657 3.237 1.694 3796
-0.658 3.241 1.684 3796
-0.658 3.238 1.671 5244
-0.653 3.214 1.648 7206
-0.652 3.212 1.635 7042
-0.652 3.209 1.622 7094
-0.651 3.206 1.609 5031
-0.689 3.395 1.683 4381
-0.690 3.399 1.672 4381
-0.691 3.403 1.662 2190
-0.131 0.650 1.681 7721
-0.133 0.658 1.686 9299
-0.134 0.665 1.691 11180
-0.136 0.673 1.697 13050
-0.137 0.678 1.694 15184
-0.137 0.682 1.692 15184
-0.138 0.686 1.690 17111
-0.139 0.691 1.688 19039
-0.139 0.692 1.679 18602
-0.140 0.693 1.670 18549
-0.140 0.697 1.667 20340
-0.141 0.702 1.665 22131
-0.142 0.706 1.663 19090
-0.143 0.710 1.661 16049
-0.144 0.715 1.659 15771
-0.146 0.722 1.664 18716
-0.146 0.727 1.661 21903
-0.148 0.735 1.666 19119
-0.149 0.739 1.664 16524
-0.150 0.743 1.662 18844
-0.151 0.748 1.659 21165
-0.151 0.752 1.657 16487
-0.153 0.760 1.662 11863
-0.155 0.771 1.674 8811
-0.159 0.787 1.692 6704
-0.159 0.791 1.690 10266
-0.161 0.799 1.694 13942
-0.160 0.796 1.678 17084
-0.161 0.797 1.669 20887
-0.161 0.801 1.666 19266
-0.162 0.806 1.664 12493
-0.164 0.814 1.668 7028
-0.168 0.833 1.693 7235
-0.169 0.838 1.691 7825
-0.170 0.842 1.688 9719
-0.171 0.847 1.685 11613
-0.172 0.855 1.690 9219
-0.174 0.863 1.694 7278
-0.174 0.864 1.684 8377
-0.174 0.864 1.675 10343
-0.174 0.864 1.666 11582
-0.176 0.873 1.670 10992
-0.177 0.877 1.667 11117
-0.178 0.881 1.664 12143
-0.179 0.890 1.668 17593
-0.180 0.894 1.666 22597
-0.182 0.903 1.670 26338
-0.184 0.915 1.680 28356
-0.186 0.924 1.684 26927
-0.187 0.928 1.681 25079
-0.189 0.937 1.685 21208
-0.190 0.941 1.682 18939
-0.190 0.941 1.673 17735
-0.191 0.950 1.677 18463
-0.195 0.967 1.694 22145
-0.197 0.980 1.704 28374
-0.199 0.989 1.708 33943
-0.201 0.997 1.711 32872
-0.202 1.002 1.708 28300
-0.203 1.006 1.705 27002
-0.204 1.011 1.702 25944
-0.205 1.020 1.705 20077
-0.207 1.028 1.709 21468
-0.209 1.037 1.712 28047
-0.210 1.042 1.709 26901
-0.211 1.046 1.706 22971
-0.212 1.051 1.703 15546
-0.216 1.073 1.725 10857
-0.216 1.073 1.716 14515
-0.215 1.068 1.700 16140
-0.214 1.064 1.683 15804
-0.215 1.068 1.680 18084
-0.216 1.073 1.677 21181
-0.218 1.082 1.680 22154
-0.220 1.091 1.683 21406
-0.221 1.095 1.680 16294
-0.224 1.113 1.696 15557
-0.225 1.118 1.692 19889
-0.227 1.127 1.695 22488
-0.228 1.131 1.692 16876
-0.229 1.136 1.688 19606
-0.229 1.135 1.678 31037
-0.231 1.144 1.681 32044
-0.231 1.149 1.678 23231
-0.231 1.148 1.668 13393
-0.233 1.158 1.671 12470
-0.237 1.176 1.686 15483
-0.240 1.190 1.695 16245
-0.241 1.195 1.691 17555
-0.241 1.194 1.681 14881
-0.242 1.199 1.678 10540
-0.241 1.198 1.668 10981
-0.241 1.198 1.658 12361
-0.243 1.207 1.661 10528
-0.246 1.221 1.669 12231
-0.248 1.231 1.671 16904
-0.250 1.240 1.674 14277
-0.249 1.234 1.658 5510
-0.254 1.259 1.678 6727
-0.254 1.263 1.674 16004
-0.255 1.267 1.671 19375
-0.255 1.267 1.661 12401
-0.256 1.271 1.657 12597
-0.257 1.275 1.653 25536
-0.259 1.285 1.655 34567
-0.261 1.294 1.657 32033
-0.261 1.293 1.647 22588
-0.261 1.298 1.643 17385
-0.262 1.302 1.640 12675
-0.273 1.353 1.688 12718
-0.271 1.347 1.672 18016
-0.273 1.357 1.674 19446
-0.273 1.356 1.664 11473
-0.274 1.360 1.660 7712
-0.276 1.370 1.662 12085
-0.277 1.374 1.658 13365
-0.279 1.384 1.659 13171
-0.280 1.388 1.655 16932
-0.281 1.392 1.651 16595
-0.282 1.402 1.652 13985
-0.287 1.423 1.665 12083
-0.287 1.427 1.661 8265
-0.292 1.448 1.673 13312
-0.293 1.452 1.669 20126
-0.294 1.462 1.670 17281
-0.298 1.477 1.677 22928
-0.298 1.481 1.673 24967
-0.302 1.497 1.679 16588
-0.302 1.501 1.675 15437
-0.303 1.506 1.670 31576
-0.304 1.510 1.666 37477
-0.307 1.525 1.672 27327
-0.309 1.535 1.673 31258
-0.311 1.545 1.674 33458
-0.312 1.550 1.669 30076
-0.312 1.548 1.659 18086
-0.312 1.547 1.649 7427
-0.314 1.557 1.650 5104
-0.316 1.567 1.650 4288
-0.299 1.486 1.565 3171
-0.299 1.484 1.555 2839
