0.882 0.995 1.732 11463
0.885 0.999 1.729 16726
0.888 1.002 1.725 20315
0.895 1.010 1.727 19376
0.898 1.013 1.723 14912
0.898 1.013 1.713 14034
0.904 1.020 1.714 12817
0.914 1.031 1.722 17563
0.917 1.035 1.718 28414
0.917 1.034 1.708 31218
0.920 1.038 1.704 29184
0.919 1.037 1.694 24063
0.919 1.036 1.684 16906
0.929 1.048 1.692 14693
0.932 1.051 1.688 13016
0.945 1.067 1.701 10346
0.956 1.078 1.708 7803
0.959 1.081 1.704 7261
0.958 1.081 1.694 9760
0.965 1.088 1.695 16436
0.971 1.096 1.697 23856
0.971 1.095 1.687 27447
0.970 1.094 1.677 32832
0.977 1.102 1.678 28277
0.979 1.105 1.673 22230
0.982 1.108 1.669 19760
0.985 1.112 1.665 11771
0.996 1.123 1.671 12073
1.002 1.131 1.673 14517
1.002 1.130 1.663 18957
1.005 1.133 1.658 26131
1.049 1.183 1.714 26476
1.048 1.182 1.704 26052
1.051 1.186 1.700 21422
1.043 1.176 1.678 26483
1.046 1.180 1.674 23890
1.041 1.174 1.658 14280
1.040 1.173 1.648 11610
1.047 1.181 1.649 9702
1.092 1.232 1.704 10580
1.095 1.235 1.699 16845
1.102 1.243 1.699 23764
1.109 1.251 1.700 34391
1.116 1.259 1.700 30760
1.122 1.266 1.700 23822
1.122 1.265 1.690 17029
1.128 1.273 1.690 8360
1.151 1.299 1.712 9170
1.158 1.306 1.712 11854
1.161 1.310 1.707 11392
1.168 1.318 1.707 7268
1.179 1.330 1.712 4701
1.182 1.333 1.706 7745
1.185 1.337 1.701 9704
1.196 1.349 1.706 12635
1.199 1.353 1.701 17789
1.198 1.352 1.690 16751
1.209 1.364 1.695 16220
1.220 1.376 1.700 20118
1.223 1.380 1.695 15935
1.250 1.411 1.719 17726
1.257 1.419 1.719 19390
1.269 1.431 1.723 20115
1.272 1.435 1.717 22819
1.271 1.433 1.707 29435
1.274 1.437 1.701 35056
1.277 1.440 1.695 37721
1.284 1.448 1.695 36701
1.291 1.456 1.694 35461
1.294 1.460 1.688 31990
1.297 1.463 1.682 26212
1.300 1.466 1.677 21766
1.303 1.470 1.671 18257
1.310 1.478 1.670 13730
1.338 1.509 1.693 13692
1.353 1.527 1.701 14427
1.373 1.549 1.714 17692
1.372 1.548 1.703 16381
1.379 1.556 1.702 12040
1.387 1.564 1.700 9169
1.377 1.553 1.680 5927
1.405 1.585 1.702 5933
1.417 1.598 1.705 12980
1.420 1.602 1.698 17506
1.427 1.610 1.697 16902
1.434 1.618 1.695 13658
1.437 1.622 1.689 8751
1.475 1.664 1.718 10115
1.478 1.667 1.712 16377
1.485 1.676 1.710 18660
1.488 1.679 1.703 15011
1.504 1.697 1.710 9461
1.516 1.710 1.712 7172
1.528 1.723 1.714 10178
1.531 1.727 1.708 14031
1.538 1.735 1.705 16172
1.545 1.744 1.703 16923
1.548 1.747 1.696 13728
1.551 1.750 1.689 12550
1.559 1.759 1.686 14217
1.566 1.767 1.684 16328
1.569 1.770 1.677 16424
1.577 1.779 1.674 17385
1.580 1.782 1.667 15910
1.587 1.790 1.664 13781
1.621 1.829 1.686 9372
1.633 1.842 1.688 9737
1.640 1.851 1.684 9773
1.648 1.859 1.681 10118
1.651 1.862 1.674 10107
1.654 1.866 1.667 9708
1.657 1.869 1.659 9484
1.664 1.877 1.656 8909
1.667 1.881 1.649 8670
1.720 1.940 1.685 7115
1.714 1.933 1.670 10691
1.717 1.937 1.662 11378
1.724 1.945 1.658 9904
1.736 1.959 1.659 8273
1.739 1.962 1.651 6664
1.806 2.037 1.698 6343
1.809 2.041 1.690 6743
1.816 2.049 1.685 6046
1.824 2.058 1.681 5367
1.827 2.061 1.673 5160
1.821 2.054 1.657 5171
1.833 2.068 1.657 5891
1.840 2.076 1.652 6858
1.834 2.069 1.637 6025
1.832 2.067 1.625 5463
1.854 2.091 1.632 4423
1.884 2.126 1.645 5736
1.887 2.129 1.637 5819
1.895 2.138 1.632 5964
1.902 2.146 1.627 5494
1.919 2.165 1.630 5688
1.941 2.190 1.635 4947
1.949 2.198 1.630 4579
1.961 2.212 1.629 3423
2.086 2.353 1.711 3897
2.084 2.352 1.698 5550
2.083 2.350 1.686 7251
2.081 2.348 1.673 6268
2.055 2.319 1.643 5656
2.087 2.354 1.655 4349
2.161 2.438 1.696 4520
2.164 2.441 1.686 4807
2.100 2.369 1.630 5310
2.103 2.373 1.621 5310
2.182 2.462 1.664 5209
2.190 2.471 1.658 5491
2.183 2.463 1.642 5039
2.181 2.461 1.629 4992
2.189 2.470 1.622 4000
2.298 2.592 1.683 4417
2.301 2.596 1.672 4417
2.304 2.599 1.662 2208
0.452 0.507 1.717 10717
0.460 0.515 1.730 8882
0.465 0.521 1.735 7581
0.466 0.522 1.725 7464
0.460 0.516 1.694 8132
0.463 0.519 1.692 8132
0.466 0.523 1.690 9626
0.469 0.526 1.688 11119
0.474 0.532 1.693 12735
0.477 0.535 1.691 14450
0.483 0.541 1.696 13015
0.492 0.552 1.715 12037
0.489 0.548 1.692 17060
0.492 0.551 1.689 23218
0.495 0.555 1.687 24154
0.495 0.555 1.678 30694
0.498 0.559 1.676 37430
0.501 0.562 1.673 38381
0.504 0.565 1.671 39333
0.505 0.566 1.662 35190
0.508 0.569 1.659 31225
0.511 0.572 1.657 27353
0.513 0.576 1.655 23481
0.516 0.579 1.653 20868
0.522 0.585 1.657 18750
0.525 0.588 1.655 14412
0.525 0.589 1.646 10011
0.531 0.595 1.650 11896
0.533 0.598 1.648 13203
0.539 0.604 1.652 13208
0.542 0.608 1.650 11901
0.571 0.640 1.716 10915
0.574 0.643 1.714 10578
0.577 0.647 1.711 9000
0.582 0.653 1.716 7964
0.556 0.624 1.637 9565
0.591 0.663 1.717 10537
0.594 0.666 1.714 13917
0.597 0.669 1.712 16560
0.600 0.673 1.709 17107
0.609 0.682 1.720 15813
0.612 0.686 1.717 12290
0.620 0.695 1.728 9158
0.618 0.693 1.712 7223
0.621 0.696 1.709 9340
0.626 0.702 1.713 13349
0.630 0.706 1.710 14094
0.633 0.709 1.707 14399
0.638 0.716 1.711 14016
0.644 0.722 1.715 18251
0.650 0.729 1.719 21405
0.656 0.736 1.722 24518
0.659 0.739 1.720 30149
0.665 0.746 1.723 29165
0.668 0.749 1.720 26465
0.674 0.756 1.724 23625
0.680 0.762 1.727 32211
0.683 0.766 1.724 44898
0.689 0.773 1.728 49299
0.695 0.779 1.731 51204
0.701 0.786 1.735 49838
0.704 0.789 1.732 43593
0.704 0.790 1.722 33732
0.707 0.793 1.719 29206
0.710 0.796 1.716 27146
0.713 0.800 1.712 25506
0.719 0.807 1.716 24454
0.725 0.813 1.719 19336
0.729 0.817 1.716 16049
0.732 0.820 1.712 16869
0.738 0.827 1.716 15213
0.744 0.834 1.719 12374
0.750 0.841 1.722 11075
0.753 0.844 1.718 11526
0.756 0.848 1.715 13825
0.759 0.851 1.712 15195
0.765 0.858 1.715 13720
0.772 0.865 1.717 12513
0.781 0.876 1.727 11637
0.787 0.883 1.729 12628
0.787 0.883 1.720 12189
0.793 0.890 1.722 8632
0.800 0.897 1.725 12567
0.803 0.900 1.721 19749
0.809 0.907 1.724 19679
0.815 0.914 1.727 16156
0.822 0.921 1.729 12368
0.828 0.928 1.732 7194
0.838 0.939 1.740 8396
0.844 0.946 1.743 14504
0.847 0.950 1.739 25172
0.850 0.953 1.735 32630
0.853 0.957 1.731 27196
0.843 0.945 1.703 23015
0.846 0.949 1.700 23253
0.852 0.956 1.702 16353
0.876 0.982 1.734 14771
0.882 0.989 1.736 13313
0.885 0.993 1.732 13262
0.892 1.000 1.735 16958
0.891 1.000 1.725 19733
0.898 1.007 1.727 18050
0.901 1.010 1.723 13024
0.901 1.010 1.713 12766
0.907 1.017 1.714 13390
0.917 1.028 1.722 19007
0.920 1.032 1.718 29968
0.923 1.035 1.714 31980
0.923 1.035 1.704 28513
0.922 1.034 1.694 22515
0.922 1.034 1.684 15453
0.935 1.049 1.698 13676
0.942 1.056 1.699 11773
0.952 1.068 1.707 9741
0.962 1.079 1.714 8809
0.965 1.083 1.710 8122
0.969 1.086 1.705 8590
0.972 1.089 1.701 13259
0.975 1.093 1.697 19771
0.974 1.092 1.687 22914
0.973 1.091 1.677 29336
0.976 1.095 1.672 23890
0.983 1.102 1.673 17433
0.982 1.101 1.663 17639
0.985 1.104 1.659 12454
0.980 1.099 1.643 11318
0.983 1.103 1.639 10573
1.009 1.131 1.668 14094
1.046 1.172 1.714 22278
1.052 1.180 1.714 36088
1.052 1.179 1.704 33703
1.055 1.183 1.700 24206
1.058 1.186 1.695 27332
1.057 1.185 1.685 26098
1.056 1.184 1.675 13355
1.040 1.166 1.643 9391
1.054 1.182 1.654 8238
1.096 1.229 1.704 13131
1.099 1.232 1.699 19548
1.106 1.240 1.699 27369
1.112 1.247 1.700 38689
1.115 1.251 1.695 31444
1.126 1.263 1.700 21029
1.125 1.262 1.690 16196
1.124 1.261 1.680 11222
1.135 1.273 1.685 10184
1.158 1.298 1.706 12447
1.165 1.306 1.707 13121
1.172 1.314 1.707 8397
1.171 1.313 1.696 4790
1.182 1.325 1.701 5085
1.189 1.333 1.701 6059
1.200 1.346 1.706 11875
1.203 1.349 1.701 18384
1.206 1.352 1.696 15489
1.213 1.360 1.695 14140
1.224 1.373 1.700 18429
1.235 1.385 1.705 16901
1.259 1.411 1.724 21941
1.262 1.415 1.719 19668
1.273 1.427 1.723 20241
1.276 1.431 1.717 25220
1.275 1.430 1.707 30915
1.282 1.438 1.706 34030
1.281 1.436 1.695 36562
1.288 1.444 1.695 37937
1.295 1.452 1.694 38754
1.298 1.456 1.688 34677
1.301 1.459 1.682 28212
1.304 1.462 1.677 22689
1.307 1.466 1.671 19396
1.319 1.478 1.675 16538
1.342 1.505 1.693 15989
1.354 1.518 1.696 15621
1.378 1.545 1.714 17873
1.377 1.544 1.703 17167
1.384 1.552 1.702 12210
1.396 1.565 1.705 9852
1.390 1.559 1.689 6124
1.397 1.567 1.688 6104
1.417 1.589 1.700 11284
1.425 1.598 1.698 14965
1.436 1.611 1.701 13777
1.439 1.614 1.695 10982
1.438 1.612 1.684 7393
1.484 1.664 1.723 9455
1.487 1.668 1.716 15933
1.490 1.671 1.710 18169
1.498 1.679 1.708 14920
1.514 1.697 1.714 11939
1.517 1.701 1.708 10523
1.529 1.714 1.710 12436
1.532 1.717 1.703 15670
1.543 1.731 1.705 17229
1.546 1.734 1.698 17572
1.549 1.737 1.691 13577
1.557 1.746 1.689 11233
1.564 1.754 1.686 13000
1.572 1.762 1.684 16556
1.575 1.766 1.677 17413
1.582 1.774 1.674 18031
1.589 1.782 1.671 16264
1.597 1.790 1.668 14593
1.613 1.809 1.674 11062
1.634 1.832 1.683 9546
1.646 1.846 1.684 8860
1.653 1.854 1.681 8951
1.656 1.857 1.674 8772
1.659 1.861 1.667 8286
1.662 1.864 1.659 8254
1.670 1.872 1.656 8396
1.673 1.876 1.649 8483
1.726 1.935 1.685 9090
1.724 1.933 1.674 12948
1.722 1.931 1.662 13561
1.730 1.940 1.658 12151
1.737 1.948 1.655 10516
1.740 1.951 1.647 8425
1.729 1.939 1.628 6841
1.815 2.035 1.690 6799
1.823 2.044 1.685 6263
1.830 2.052 1.681 5637
1.833 2.056 1.673 5461
1.827 2.049 1.657 5531
1.839 2.062 1.657 6099
1.847 2.071 1.652 6992
1.845 2.069 1.641 5835
1.839 2.062 1.625 5030
1.893 2.122 1.657 4971
1.891 2.120 1.645 6407
1.898 2.129 1.641 6390
1.901 2.132 1.632 6414
1.909 2.141 1.627 5946
1.931 2.165 1.633 6364
1.948 2.184 1.635 5839
1.955 2.192 1.630 5594
1.963 2.201 1.625 3788
2.093 2.347 1.711 4057
2.092 2.345 1.698 5660
2.095 2.349 1.689 7270
2.093 2.347 1.677 6230
2.091 2.345 1.664 5279
2.099 2.353 1.658 4054
2.168 2.431 1.696 4794
2.171 2.435 1.686 5215
2.179 2.443 1.680 5661
2.182 2.447 1.671 5661
2.190 2.455 1.664 5622
2.198 2.464 1.658 5905
2.196 2.462 1.645 5550
2.194 2.460 1.632 5565
2.197 2.463 1.622 4464
2.301 2.580 1.679 4319
2.304 2.583 1.669 4319
2.307 2.586 1.659 2159
0.453 0.506 1.717 10491
0.460 0.515 1.730 8915
0.466 0.521 1.735 7821
0.464 0.519 1.718 7674
0.461 0.515 1.694 8148
0.464 0.518 1.692 8148
0.467 0.522 1.690 9309
0.470 0.525 1.688 10469
0.475 0.531 1.693 12085
0.478 0.534 1.691 13713
0.483 0.540 1.696 12374
0.489 0.546 1.701 11308
0.489 0.547 1.692 16394
0.492 0.550 1.689 22576
0.495 0.554 1.687 23601
0.496 0.554 1.678 29722
0.499 0.558 1.676 36152
0.502 0.561 1.673 36792
0.505 0.564 1.671 37431
0.506 0.565 1.662 32800
0.508 0.568 1.659 28543
0.511 0.572 1.657 25108
0.514 0.575 1.655 21673
0.520 0.581 1.660 19147
0.523 0.584 1.657 17180
0.526 0.588 1.655 13323
0.529 0.591 1.652 9265
0.531 0.594 1.650 11793
0.534 0.597 1.648 13195
0.540 0.603 1.652 12818
0.548 0.612 1.664 11564
0.572 0.639 1.716 10498
0.575 0.642 1.714 10859
0.570 0.637 1.691 10328
0.583 0.652 1.716 8880
0.555 0.620 1.631 9356
0.592 0.662 1.717 11897
0.595 0.665 1.714 15349
0.598 0.669 1.712 18242
0.601 0.672 1.709 18959
0.610 0.681 1.720 17917
0.613 0.685 1.717 13998
0.618 0.691 1.721 10352
0.619 0.692 1.712 8304
0.622 0.695 1.709 10686
0.628 0.701 1.713 15301
0.631 0.705 1.710 16151
0.634 0.708 1.707 15895
0.639 0.715 1.711 14594
0.645 0.721 1.715 18282
0.648 0.725 1.712 21432
0.654 0.731 1.716 24538
0.660 0.738 1.720 29266
0.666 0.745 1.723 27043
0.669 0.748 1.720 23673
0.675 0.755 1.724 21624
0.681 0.761 1.727 31209
0.684 0.765 1.724 43771
0.690 0.771 1.728 48424
0.696 0.778 1.731 50271
0.702 0.785 1.735 48771
0.705 0.788 1.732 42865
0.705 0.788 1.722 35284
0.708 0.792 1.719 32761
0.712 0.795 1.716 30518
0.715 0.799 1.712 28007
0.718 0.802 1.709 26160
0.724 0.809 1.712 21745
0.727 0.812 1.709 20010
0.733 0.819 1.712 21498
0.736 0.823 1.709 18745
0.742 0.829 1.712 13765
0.748 0.836 1.715 10945
0.754 0.843 1.718 10217
0.761 0.850 1.721 11163
0.764 0.854 1.718 14053
0.767 0.857 1.715 14696
0.773 0.864 1.717 14665
0.782 0.874 1.727 13592
0.789 0.881 1.729 13023
0.792 0.885 1.726 11673
0.798 0.892 1.729 8636
0.801 0.895 1.725 12253
0.804 0.899 1.721 19374
0.810 0.906 1.724 20085
0.813 0.909 1.721 17896
0.820 0.916 1.723 13399
0.826 0.923 1.726 8035
0.836 0.934 1.734 9880
0.846 0.945 1.743 16771
0.849 0.949 1.739 27100
0.855 0.956 1.741 34036
0.858 0.959 1.738 27606
0.851 0.951 1.715 19448
0.851 0.951 1.706 19884
0.864 0.966 1.720 20034
0.874 0.977 1.728 16763
0.884 0.988 1.736 14747
0.887 0.991 1.732 14900
0.893 0.999 1.735 16682
0.897 1.002 1.731 18197
0.900 1.006 1.727 16156
0.906 1.013 1.729 11963
0.906 1.012 1.719 12274
0.909 1.016 1.714 13997
0.915 1.023 1.716 19708
0.922 1.030 1.718 29756
0.925 1.034 1.714 32277
0.924 1.033 1.704 27688
0.927 1.037 1.700 21601
0.930 1.040 1.696 14965
0.941 1.051 1.703 14023
0.947 1.059 1.705 11973
0.961 1.074 1.718 9682
0.964 1.078 1.714 9766
0.971 1.085 1.715 9477
0.974 1.089 1.711 9657
0.977 1.092 1.707 11761
0.980 1.095 1.702 15442
0.976 1.090 1.687 16944
0.975 1.090 1.677 23610
0.978 1.093 1.672 19318
0.981 1.096 1.668 14057
0.984 1.100 1.663 17367
0.983 1.099 1.653 13976
0.982 1.098 1.643 10804
1.041 1.164 1.723 10403
1.044 1.167 1.718 16410
1.047 1.171 1.714 29108
1.054 1.178 1.714 46106
1.053 1.178 1.704 40738
1.053 1.177 1.694 26498
1.059 1.184 1.695 26089
1.063 1.188 1.690 24773
1.066 1.191 1.685 12971
1.080 1.207 1.697 9140
1.087 1.215 1.698 11166
1.094 1.223 1.698 14343
1.101 1.230 1.699 18005
1.108 1.238 1.699 25248
1.114 1.246 1.700 38037
1.117 1.249 1.695 32876
1.128 1.261 1.700 22250
1.127 1.260 1.690 16340
1.134 1.268 1.690 9131
1.141 1.276 1.691 5431
1.160 1.297 1.706 9625
1.167 1.304 1.707 11637
1.174 1.312 1.707 6907
1.181 1.320 1.707 4461
1.184 1.324 1.701 5476
1.187 1.327 1.696 7936
1.194 1.335 1.696 12607
1.201 1.343 1.696 16801
1.208 1.350 1.696 14973
1.219 1.363 1.700 13683
1.230 1.375 1.705 20796
1.229 1.374 1.695 19102
1.265 1.414 1.729 19273
1.268 1.417 1.724 20470
1.275 1.425 1.723 22517
1.274 1.424 1.712 28577
1.277 1.428 1.707 34734
1.284 1.436 1.706 35174
1.283 1.434 1.695 35716
1.290 1.442 1.695 37799
1.293 1.446 1.689 38842
1.301 1.454 1.688 35352
1.304 1.457 1.682 27341
1.307 1.460 1.677 19055
1.309 1.464 1.671 15860
1.321 1.476 1.675 14785
1.349 1.508 1.697 17069
1.361 1.521 1.701 16543
1.380 1.543 1.714 19827
1.379 1.542 1.703 17655
1.387 1.550 1.702 12283
1.394 1.558 1.700 9841
1.388 1.552 1.685 6638
1.396 1.560 1.683 6178
1.424 1.592 1.705 10327
1.432 1.600 1.703 14331
1.435 1.603 1.697 13071
1.433 1.602 1.686 7747
1.492 1.668 1.739 5174
1.491 1.667 1.728 9934
1.490 1.665 1.716 16915
1.493 1.669 1.710 19657
1.500 1.677 1.708 17201
1.516 1.695 1.714 15927
1.519 1.698 1.708 13606
1.531 1.712 1.710 14120
1.539 1.720 1.708 17262
1.542 1.723 1.701 19422
1.549 1.731 1.698 19288
1.552 1.735 1.691 13146
1.559 1.743 1.689 9370
1.571 1.756 1.691 12686
1.574 1.760 1.684 17255
1.582 1.768 1.681 18242
1.585 1.771 1.674 18524
1.592 1.780 1.671 16820
1.604 1.793 1.673 16502
1.612 1.801 1.670 13689
1.632 1.825 1.679 9584
1.644 1.838 1.680 7772
1.656 1.851 1.681 7498
1.664 1.860 1.678 7235
1.667 1.863 1.671 6367
1.674 1.871 1.667 6753
1.677 1.875 1.660 7377
1.730 1.934 1.697 8786
1.729 1.932 1.685 12077
1.727 1.930 1.674 15973
1.730 1.934 1.666 16433
1.733 1.937 1.658 15188
1.740 1.945 1.655 13711
1.739 1.944 1.643 11109
1.732 1.937 1.628 9184
1.740 1.945 1.624 7235
1.826 2.041 1.685 5959
1.833 2.049 1.681 5626
1.836 2.053 1.673 5450
1.830 2.046 1.657 5520
1.847 2.064 1.661 6044
1.855 2.073 1.656 7072
1.862 2.081 1.652 5924
1.865 2.085 1.643 4817
1.896 2.119 1.657 6090
1.899 2.123 1.649 7424
1.902 2.126 1.641 7179
1.905 2.129 1.632 6935
1.912 2.138 1.627 6464
1.939 2.167 1.637 6887
1.951 2.181 1.635 6586
1.959 2.189 1.630 6565
1.966 2.198 1.625 4344
2.092 2.339 1.708 4087
2.095 2.342 1.698 5518
2.098 2.345 1.689 6949
2.096 2.343 1.677 5909
2.099 2.347 1.667 4948
2.160 2.414 1.699 4201
2.167 2.423 1.693 5467
2.175 2.431 1.686 5872
2.178 2.435 1.677 6384
2.181 2.438 1.667 6384
2.194 2.452 1.664 6065
2.201 2.461 1.658 6248
2.199 2.459 1.645 6045
2.198 2.456 1.632 6178
2.200 2.460 1.622 4942
2.300 2.571 1.676 4258
2.303 2.574 1.666 4258
2.306 2.577 1.656 2129
0.457 0.507 1.724 10242
0.462 0.513 1.730 8560
0.467 0.519 1.735 7191
0.466 0.518 1.718 7164
0.462 0.514 1.694 7928
0.465 0.517 1.692 7928
0.468 0.520 1.690 8951
0.471 0.524 1.688 9974
0.477 0.530 1.693 11434
0.480 0.533 1.691 12961
0.485 0.539 1.696 11680
0.488 0.542 1.694 10549
0.491 0.546 1.692 15498
0.494 0.549 1.689 21531
0.497 0.552 1.687 22616
0.498 0.553 1.678 28258
0.501 0.556 1.676 34314
0.504 0.560 1.673 34915
0.507 0.563 1.671 35516
0.507 0.563 1.662 30796
0.510 0.567 1.659 26539
0.513 0.570 1.657 23327
0.516 0.573 1.655 20116
0.522 0.579 1.660 17690
0.525 0.583 1.657 15763
0.527 0.586 1.655 12665
0.530 0.589 1.652 9370
0.533 0.592 1.650 11896
0.539 0.598 1.655 13025
0.544 0.605 1.659 12092
0.552 0.614 1.671 10027
0.574 0.637 1.716 9499
0.577 0.640 1.714 10878
0.572 0.635 1.691 11328
0.580 0.644 1.702 9400
0.591 0.656 1.720 8617
0.594 0.660 1.717 12032
0.597 0.663 1.714 15448
0.600 0.667 1.712 18528
0.606 0.673 1.716 19626
0.612 0.679 1.720 18969
0.615 0.683 1.717 15033
0.621 0.689 1.721 11371
0.621 0.690 1.712 9118
0.624 0.693 1.709 11741
0.630 0.700 1.713 16882
0.633 0.703 1.710 17830
0.636 0.706 1.707 17009
0.642 0.713 1.711 14855
0.645 0.716 1.708 18044
0.651 0.723 1.712 21021
0.657 0.729 1.716 24102
0.663 0.736 1.720 28177
0.668 0.742 1.723 25171
0.674 0.749 1.727 21451
0.677 0.753 1.724 20128
0.683 0.759 1.727 30294
0.687 0.763 1.724 42470
0.693 0.769 1.728 47324
0.699 0.776 1.731 49108
0.705 0.783 1.735 47311
0.708 0.786 1.732 41640
0.708 0.786 1.722 35564
0.711 0.790 1.719 34334
0.714 0.793 1.716 32052
0.717 0.796 1.712 29076
0.720 0.800 1.709 27014
0.726 0.807 1.712 23285
0.729 0.810 1.709 22709
0.735 0.817 1.712 24311
0.738 0.820 1.709 20890
0.745 0.827 1.712 15218
0.748 0.830 1.709 12303
0.754 0.837 1.712 10393
0.760 0.844 1.715 10965
0.766 0.851 1.718 14898
0.773 0.858 1.721 15854
0.776 0.861 1.717 15976
0.785 0.872 1.727 14840
0.791 0.879 1.729 13419
0.794 0.882 1.726 11280
0.797 0.886 1.722 8218
0.804 0.893 1.725 11518
0.807 0.896 1.721 17794
0.813 0.903 1.724 19003
0.816 0.907 1.721 17998
0.823 0.914 1.723 14059
0.829 0.921 1.726 9118
0.839 0.932 1.734 11409
0.845 0.939 1.737 18252
0.852 0.946 1.739 27336
0.858 0.953 1.741 33310
0.861 0.957 1.738 28213
0.858 0.953 1.722 17374
0.857 0.952 1.712 15422
0.870 0.967 1.726 18477
0.877 0.974 1.728 16692
0.887 0.985 1.736 15822
0.890 0.989 1.732 16045
0.897 0.996 1.735 16600
0.900 0.999 1.731 17980
0.906 1.007 1.733 15874
0.913 1.014 1.734 12693
0.909 1.010 1.719 12822
0.908 1.009 1.709 14494
0.919 1.020 1.716 19371
0.922 1.024 1.712 28580
0.928 1.031 1.714 31823
0.931 1.034 1.710 27039
0.931 1.034 1.700 21220
0.937 1.041 1.702 15896
0.944 1.048 1.703 14949
0.954 1.060 1.711 12501
0.964 1.071 1.718 9664
0.968 1.075 1.714 9955
0.974 1.082 1.715 10298
0.981 1.090 1.717 11468
0.984 1.093 1.712 13017
0.987 1.096 1.708 14279
0.983 1.092 1.692 13363
0.975 1.083 1.671 19872
0.978 1.086 1.667 17255
0.984 1.093 1.668 11867
0.987 1.097 1.663 15951
0.990 1.100 1.659 13550
1.042 1.157 1.727 10507
1.049 1.165 1.728 11352
1.048 1.164 1.718 17136
1.051 1.167 1.714 32077
1.058 1.175 1.714 48812
1.057 1.174 1.704 42448
1.056 1.173 1.694 27347
1.063 1.181 1.695 24245
1.070 1.189 1.696 22316
1.077 1.196 1.696 13027
1.084 1.204 1.697 11442
1.091 1.211 1.698 13403
1.098 1.219 1.698 14202
1.101 1.222 1.693 14006
1.115 1.239 1.705 19990
1.118 1.242 1.700 33641
1.121 1.246 1.695 29047
1.136 1.262 1.706 15485
1.127 1.252 1.685 9090
1.138 1.264 1.690 7861
1.145 1.272 1.691 9090
1.152 1.280 1.691 9727
1.167 1.296 1.701 7693
1.174 1.304 1.701 5313
1.185 1.316 1.707 4480
1.192 1.324 1.706 5627
1.195 1.328 1.701 9033
1.202 1.335 1.701 12131
1.205 1.339 1.696 14205
1.208 1.342 1.690 11882
1.228 1.364 1.705 11545
1.235 1.371 1.705 20353
1.238 1.375 1.700 18276
1.265 1.405 1.724 20579
1.268 1.409 1.719 22227
1.280 1.421 1.723 24779
1.279 1.420 1.712 32968
1.282 1.424 1.707 36837
1.289 1.432 1.706 35484
1.288 1.430 1.695 34662
1.295 1.438 1.695 36389
1.298 1.442 1.689 36961
1.305 1.450 1.688 34062
1.308 1.453 1.682 27886
1.315 1.461 1.681 18793
1.318 1.464 1.676 14668
1.330 1.477 1.679 14091
1.354 1.504 1.697 14358
1.369 1.521 1.706 14497
1.385 1.539 1.714 18317
1.384 1.537 1.703 16258
1.391 1.545 1.702 11279
1.407 1.563 1.710 10518
1.406 1.562 1.699 6880
1.413 1.570 1.697 6286
1.429 1.587 1.705 10731
1.432 1.591 1.698 13923
1.435 1.594 1.692 11416
1.434 1.593 1.681 5857
1.493 1.659 1.734 4982
1.496 1.662 1.728 9458
1.495 1.661 1.716 16360
1.498 1.664 1.710 19469
1.506 1.672 1.708 17346
1.522 1.690 1.714 16743
1.525 1.694 1.708 14307
1.537 1.707 1.710 15211
1.544 1.715 1.708 18419
1.547 1.718 1.701 20036
1.554 1.727 1.698 19320
1.562 1.735 1.696 13000
1.569 1.743 1.693 9342
1.577 1.751 1.691 12949
1.584 1.760 1.688 17790
1.587 1.763 1.681 18889
1.590 1.766 1.674 18682
1.602 1.780 1.675 16894
1.614 1.793 1.677 17537
1.617 1.796 1.670 15111
1.629 1.810 1.671 9729
1.650 1.833 1.680 6964
1.667 1.851 1.685 6738
1.674 1.860 1.682 6487
1.677 1.863 1.675 5420
1.689 1.876 1.676 6173
1.715 1.905 1.688 7829
1.736 1.928 1.697 10512
1.735 1.927 1.685 13816
1.733 1.925 1.674 17514
1.736 1.928 1.666 17896
1.739 1.932 1.658 16825
1.747 1.940 1.655 15565
1.745 1.938 1.643 12749
1.743 1.936 1.631 10665
1.746 1.939 1.624 8476
1.754 1.948 1.620 6506
1.840 2.044 1.681 5398
1.843 2.047 1.673 5180
1.837 2.040 1.657 5189
1.891 2.100 1.691 5861
1.870 2.078 1.664 7132
1.873 2.081 1.655 6120
1.900 2.110 1.666 5346
1.903 2.113 1.657 6591
1.906 2.117 1.649 7835
1.908 2.120 1.641 7427
1.916 2.128 1.636 7034
1.924 2.137 1.631 6614
1.941 2.156 1.633 6910
1.963 2.180 1.639 6752
1.970 2.188 1.634 6857
1.973 2.192 1.625 4516
2.099 2.332 1.708 3944
2.103 2.335 1.698 5215
2.106 2.339 1.689 6487
2.109 2.342 1.680 5525
2.107 2.340 1.667 4612
2.167 2.407 1.699 4460
2.175 2.416 1.693 5767
2.178 2.419 1.683 6164
2.186 2.428 1.677 6694
2.189 2.431 1.667 6694
2.196 2.440 1.661 6179
2.209 2.454 1.658 6225
2.207 2.452 1.645 6115
2.205 2.449 1.632 6309
2.208 2.453 1.622 5063
2.303 2.558 1.673 4143
2.306 2.561 1.663 4143
2.309 2.565 1.653 2071
0.458 0.506 1.724 9424
0.464 0.512 1.730 8014
0.469 0.518 1.735 6817
0.468 0.516 1.718 7014
0.464 0.512 1.694 7888
0.467 0.516 1.692 7888
0.470 0.519 1.690 8806
0.473 0.522 1.688 9723
0.478 0.528 1.693 11010
0.481 0.531 1.691 12309
0.487 0.537 1.696 11089
0.490 0.541 1.694 10026
0.493 0.544 1.692 14848
0.496 0.547 1.689 20788
0.499 0.551 1.687 21907
0.500 0.551 1.678 27331
0.503 0.555 1.676 33221
0.506 0.558 1.673 33890
0.508 0.561 1.671 34558
0.509 0.562 1.662 29507
0.512 0.565 1.659 25058
0.515 0.568 1.657 21997
0.518 0.572 1.655 18936
0.523 0.578 1.660 16745
0.526 0.581 1.657 14980
0.529 0.584 1.655 12114
0.532 0.587 1.652 9095
0.535 0.591 1.650 11403
0.541 0.597 1.655 12485
0.544 0.600 1.652 11190
0.547 0.603 1.650 7893
0.576 0.635 1.716 9129
0.579 0.639 1.714 10425
0.579 0.639 1.704 10124
0.582 0.642 1.702 9327
0.593 0.655 1.720 9106
0.593 0.655 1.710 12189
0.597 0.658 1.708 15364
0.600 0.662 1.705 18724
0.608 0.671 1.716 20587
0.614 0.678 1.720 20342
0.617 0.681 1.717 16209
0.623 0.687 1.721 12355
0.623 0.688 1.712 9793
0.626 0.691 1.709 12641
0.632 0.698 1.713 18331
0.635 0.701 1.710 19615
0.638 0.704 1.707 18624
0.644 0.711 1.711 15743
0.647 0.714 1.708 18247
0.653 0.721 1.712 20640
0.659 0.727 1.716 23661
0.665 0.734 1.720 27340
0.671 0.740 1.723 23807
0.677 0.747 1.727 19963
0.680 0.750 1.724 19373
0.686 0.757 1.727 30187
0.689 0.760 1.724 42055
0.695 0.767 1.728 46816
0.701 0.774 1.731 47825
0.707 0.781 1.735 45307
0.710 0.784 1.732 39704
0.710 0.784 1.722 35188
0.713 0.787 1.719 35638
0.717 0.791 1.716 33618
0.720 0.794 1.712 30202
0.723 0.798 1.709 27932
0.726 0.801 1.706 25309
0.732 0.808 1.709 25505
0.738 0.815 1.712 26987
0.741 0.818 1.709 23022
0.744 0.821 1.706 16785
0.750 0.828 1.709 13616
0.753 0.832 1.706 11157
0.766 0.845 1.721 10443
0.769 0.849 1.718 14222
0.775 0.856 1.721 16067
0.778 0.859 1.717 16906
0.788 0.870 1.727 16465
0.794 0.876 1.729 14492
0.797 0.880 1.726 11728
0.800 0.883 1.722 8413
0.807 0.890 1.725 10902
0.810 0.894 1.721 16122
0.816 0.901 1.724 17810
0.822 0.908 1.727 17833
0.826 0.911 1.723 14305
0.835 0.922 1.732 10115
0.842 0.929 1.734 12612
0.848 0.936 1.737 19442
0.855 0.943 1.739 27307
0.861 0.950 1.741 32898
0.864 0.954 1.738 28790
0.864 0.954 1.728 18152
0.864 0.953 1.718 15479
0.874 0.964 1.726 18072
0.883 0.975 1.734 16099
0.887 0.979 1.730 15476
0.893 0.986 1.732 16420
0.900 0.993 1.735 16103
0.903 0.996 1.731 17741
0.909 1.004 1.733 17289
0.916 1.011 1.734 15134
0.916 1.011 1.724 13955
0.912 1.006 1.709 14830
0.918 1.013 1.710 19171
0.925 1.021 1.712 27719
0.931 1.028 1.714 31708
0.934 1.031 1.710 26624
0.938 1.035 1.706 21406
0.944 1.042 1.708 17539
0.951 1.049 1.709 16381
0.957 1.057 1.711 13566
0.968 1.068 1.718 9873
0.971 1.072 1.714 10176
0.978 1.079 1.715 11011
0.984 1.086 1.717 12956
0.987 1.090 1.712 14569
0.990 1.093 1.708 14254
0.986 1.088 1.692 11567
0.978 1.080 1.671 16926
0.977 1.079 1.661 15578
0.988 1.090 1.668 10529
0.998 1.102 1.675 14716
0.994 1.097 1.659 12571
1.045 1.154 1.727 11913
1.052 1.162 1.728 12005
1.052 1.161 1.718 17138
1.055 1.164 1.714 33953
1.062 1.172 1.714 49770
1.061 1.171 1.704 42690
1.064 1.174 1.700 27706
1.067 1.178 1.695 22195
1.074 1.185 1.696 18137
1.085 1.197 1.702 11508
1.091 1.205 1.702 12748
1.094 1.208 1.698 16754
1.097 1.211 1.693 13582
1.101 1.215 1.688 9725
1.115 1.231 1.699 18432
1.118 1.234 1.694 36526
1.121 1.238 1.689 29264
1.140 1.258 1.706 11207
1.123 1.240 1.674 6710
1.126 1.243 1.669 5814
1.145 1.264 1.685 6295
1.152 1.272 1.685 8427
1.159 1.280 1.686 6890
1.182 1.305 1.707 3717
1.165 1.286 1.675 3690
1.148 1.267 1.644 4842
1.199 1.324 1.701 5829
1.207 1.332 1.701 9698
1.210 1.335 1.696 11856
1.217 1.343 1.696 9874
1.240 1.369 1.716 14769
1.243 1.372 1.710 27986
1.242 1.371 1.700 23388
1.266 1.397 1.719 20123
1.273 1.405 1.719 22151
1.280 1.413 1.718 27071
1.283 1.416 1.712 35839
1.286 1.420 1.707 37602
1.293 1.428 1.706 37063
1.292 1.426 1.695 35136
1.299 1.434 1.695 34460
1.302 1.438 1.689 34288
1.310 1.446 1.688 31953
1.317 1.453 1.687 27017
1.324 1.461 1.686 17002
1.327 1.465 1.680 11980
1.334 1.473 1.679 13231
1.354 1.495 1.693 15717
1.370 1.512 1.701 14647
1.390 1.534 1.714 16939
1.389 1.533 1.703 15496
1.400 1.546 1.706 11200
1.408 1.554 1.705 9554
1.407 1.552 1.694 6522
1.414 1.561 1.692 4777
1.447 1.597 1.719 8734
1.450 1.601 1.712 11280
1.453 1.604 1.706 9364
1.474 1.627 1.718 6315
1.485 1.639 1.720 6166
1.497 1.653 1.723 10142
1.500 1.656 1.716 16234
1.503 1.659 1.710 18921
1.515 1.672 1.712 17548
1.527 1.685 1.714 17761
1.534 1.694 1.712 15377
1.542 1.702 1.710 16537
1.545 1.705 1.703 20007
1.552 1.713 1.701 21133
1.560 1.722 1.698 19956
1.567 1.730 1.696 13143
1.579 1.743 1.698 9467
1.587 1.751 1.695 13419
1.590 1.755 1.688 18406
1.593 1.758 1.681 19367
1.596 1.761 1.674 18634
1.608 1.775 1.675 16791
1.620 1.788 1.677 18234
1.623 1.791 1.670 16075
1.630 1.799 1.667 10181
1.656 1.828 1.680 6631
1.672 1.846 1.685 6691
1.680 1.854 1.682 6278
1.660 1.833 1.654 5000
1.713 1.891 1.692 6129
1.725 1.905 1.692 9202
1.738 1.918 1.693 12106
1.741 1.921 1.685 15382
1.739 1.920 1.674 18900
1.742 1.923 1.666 19198
1.745 1.926 1.658 18217
1.753 1.934 1.655 17124
1.751 1.933 1.643 14063
1.749 1.931 1.631 11825
1.752 1.934 1.624 9409
1.760 1.942 1.620 7202
1.763 1.945 1.612 5268
1.849 2.041 1.673 4941
1.899 2.096 1.703 5225
1.897 2.094 1.691 6200
1.886 2.082 1.671 7437
1.899 2.096 1.670 6564
1.906 2.104 1.666 5841
1.909 2.107 1.657 7015
1.912 2.111 1.649 8189
1.915 2.114 1.641 7612
1.923 2.122 1.636 7109
1.930 2.131 1.631 6669
1.948 2.150 1.633 6809
1.974 2.179 1.643 6789
1.977 2.182 1.634 6977
1.980 2.185 1.625 4583
2.107 2.325 1.708 3961
2.110 2.329 1.698 5080
2.113 2.332 1.689 6200
2.116 2.335 1.680 5253
2.114 2.333 1.667 4320
2.175 2.400 1.699 4737
2.182 2.409 1.693 6128
2.186 2.412 1.683 6523
2.193 2.421 1.677 7033
2.196 2.424 1.667 7033
2.204 2.433 1.661 6353
2.217 2.447 1.658 6190
2.215 2.445 1.645 6152
2.213 2.443 1.632 6396
2.216 2.446 1.622 5126
2.306 2.546 1.670 4239
2.309 2.549 1.660 4239
2.312 2.552 1.650 2119
0.460 0.505 1.724 8261
0.463 0.508 1.722 7228
0.468 0.514 1.727 6323
0.467 0.512 1.711 6883
0.466 0.511 1.694 8181
0.469 0.514 1.692 8181
0.472 0.517 1.690 8874
0.477 0.523 1.695 9624
0.480 0.527 1.693 10364
0.483 0.530 1.691 11103
0.488 0.536 1.696 10037
0.494 0.542 1.701 9105
0.494 0.542 1.692 13720
0.498 0.546 1.689 19486
0.501 0.549 1.687 20623
0.504 0.552 1.685 25823
0.504 0.553 1.676 31487
0.507 0.556 1.673 32118
0.510 0.560 1.671 32748
0.513 0.563 1.669 27536
0.514 0.564 1.659 22861
0.517 0.567 1.657 20162
0.520 0.570 1.655 17464
0.525 0.576 1.660 15613
0.531 0.582 1.664 14155
0.534 0.585 1.662 11461
0.537 0.589 1.659 8766
0.540 0.592 1.657 11288
0.542 0.595 1.655 13251
0.545 0.598 1.652 12646
0.548 0.602 1.650 10849
0.551 0.605 1.647 9100
0.581 0.637 1.714 9688
0.584 0.640 1.711 8922
0.589 0.646 1.716 8946
0.592 0.650 1.713 9113
0.595 0.653 1.710 11887
0.599 0.657 1.708 14661
0.604 0.663 1.712 18530
0.610 0.669 1.716 21680
0.616 0.676 1.720 21904
0.619 0.679 1.717 17536
0.625 0.685 1.721 13551
0.625 0.686 1.712 10650
0.628 0.689 1.709 13628
0.634 0.696 1.713 19859
0.637 0.699 1.710 21327
0.643 0.705 1.714 19969
0.646 0.709 1.711 16345
0.649 0.712 1.708 18009
0.655 0.719 1.712 19678
0.661 0.725 1.716 22667
0.667 0.732 1.720 25999
0.673 0.738 1.723 21918
0.679 0.745 1.727 17909
0.682 0.748 1.724 18274
0.688 0.755 1.727 29816
0.691 0.758 1.724 41087
0.697 0.765 1.728 45774
0.703 0.772 1.731 46120
0.710 0.778 1.735 42919
0.713 0.782 1.732 37571
0.713 0.782 1.722 34175
0.716 0.785 1.719 35982
0.719 0.789 1.716 34740
0.722 0.792 1.712 31221
0.725 0.795 1.709 28618
0.728 0.799 1.706 27169
0.734 0.806 1.709 28468
0.740 0.812 1.712 29830
0.744 0.816 1.709 25063
0.747 0.819 1.706 18054
0.750 0.822 1.703 14620
0.756 0.829 1.706 11864
0.768 0.843 1.721 9983
0.772 0.846 1.718 13512
0.778 0.853 1.721 16340
0.781 0.857 1.717 17657
0.790 0.867 1.727 16795
0.797 0.874 1.729 14372
0.800 0.877 1.726 11882
0.803 0.881 1.722 8412
0.809 0.888 1.725 10021
0.812 0.891 1.721 14355
0.819 0.898 1.724 15568
0.825 0.905 1.727 16066
0.828 0.909 1.723 13057
0.838 0.919 1.732 10164
0.845 0.926 1.734 12686
0.851 0.934 1.737 19871
0.857 0.941 1.739 27193
0.864 0.948 1.741 32533
0.867 0.951 1.738 28970
0.867 0.951 1.728 19518
0.870 0.954 1.724 17494
0.873 0.958 1.720 19794
0.883 0.969 1.728 16354
0.890 0.976 1.730 16055
0.893 0.979 1.726 18026
0.903 0.990 1.735 15919
0.909 0.998 1.737 16258
0.912 1.001 1.733 17715
0.919 1.008 1.734 18059
0.919 1.008 1.724 16121
0.915 1.003 1.709 15157
0.918 1.007 1.705 18063
0.928 1.018 1.712 25600
0.935 1.025 1.714 31189
0.941 1.033 1.716 26259
0.941 1.032 1.706 22112
0.947 1.039 1.708 20156
0.954 1.047 1.709 18821
0.961 1.054 1.711 15270
0.971 1.065 1.718 10110
0.974 1.069 1.714 10034
0.981 1.076 1.715 11557
0.988 1.083 1.717 13934
0.991 1.087 1.712 15841
0.994 1.090 1.708 14417
0.993 1.089 1.698 9992
0.978 1.072 1.665 13576
0.984 1.080 1.667 13634
1.002 1.099 1.685 9256
1.005 1.103 1.680 12559
1.042 1.143 1.726 11235
1.049 1.151 1.727 14697
1.056 1.158 1.728 14833
1.055 1.158 1.718 17465
1.058 1.161 1.714 34968
1.065 1.168 1.714 47980
1.068 1.172 1.710 40232
1.067 1.171 1.700 26848
1.070 1.174 1.695 19311
1.070 1.173 1.685 17072
1.088 1.194 1.702 14065
1.087 1.193 1.692 16100
1.098 1.205 1.698 18998
1.101 1.208 1.693 13966
1.096 1.203 1.677 12704
1.111 1.219 1.688 20800
1.118 1.227 1.689 34032
1.125 1.234 1.689 26243
1.132 1.242 1.690 10250
1.123 1.232 1.669 5710
1.150 1.262 1.696 5910
1.149 1.261 1.685 9644
1.148 1.260 1.675 7861
1.155 1.267 1.675 3783
1.130 1.240 1.634 3446
1.193 1.309 1.707 6032
1.196 1.312 1.701 7769
1.207 1.325 1.706 4945
1.227 1.346 1.722 6154
1.222 1.340 1.706 7894
1.225 1.344 1.701 8231
1.248 1.369 1.721 16307
1.251 1.373 1.715 26471
1.254 1.376 1.710 22784
1.270 1.393 1.719 20658
1.277 1.401 1.719 23150
1.284 1.409 1.718 28882
1.287 1.412 1.712 34311
1.290 1.416 1.707 35114
1.298 1.424 1.706 34552
1.297 1.422 1.695 29340
1.304 1.430 1.695 28748
1.307 1.434 1.689 30492
1.314 1.442 1.688 29349
1.321 1.449 1.687 26777
1.329 1.457 1.686 17675
1.332 1.461 1.680 11158
1.343 1.473 1.684 11746
1.363 1.495 1.697 13817
1.379 1.513 1.706 13310
1.395 1.530 1.714 15342
1.389 1.524 1.698 13604
1.397 1.532 1.697 9080
1.425 1.564 1.719 8535
1.433 1.572 1.717 6012
1.449 1.589 1.725 4954
1.452 1.593 1.719 8557
1.455 1.596 1.712 10787
1.462 1.604 1.711 9381
1.479 1.622 1.718 7841
1.482 1.625 1.711 7532
1.502 1.648 1.723 10763
1.505 1.651 1.716 16341
1.508 1.655 1.710 18960
1.520 1.668 1.712 18053
1.532 1.681 1.714 18244
1.540 1.689 1.712 16615
1.547 1.697 1.710 19200
1.550 1.701 1.703 22934
1.558 1.709 1.701 22824
1.565 1.717 1.698 20551
1.573 1.725 1.696 13402
1.598 1.753 1.710 11073
1.592 1.747 1.695 14283
1.595 1.750 1.688 18689
1.598 1.753 1.681 19303
1.601 1.757 1.674 17834
1.613 1.770 1.675 16046
1.625 1.783 1.677 18603
1.628 1.786 1.670 16844
1.636 1.794 1.667 10570
1.670 1.833 1.689 6620
1.683 1.846 1.690 7062
1.686 1.849 1.682 6195
1.657 1.817 1.646 5382
1.719 1.886 1.692 6544
1.736 1.904 1.696 10943
1.743 1.913 1.693 14134
1.747 1.916 1.685 17057
1.745 1.914 1.674 20149
1.748 1.918 1.666 20260
1.751 1.921 1.658 19349
1.758 1.929 1.655 18513
1.757 1.927 1.643 15151
1.755 1.925 1.631 12696
1.758 1.929 1.624 10043
1.766 1.937 1.620 7594
1.768 1.940 1.612 5629
1.855 2.036 1.673 4546
1.905 2.090 1.703 5352
1.904 2.088 1.691 6447
1.893 2.076 1.671 7830
1.905 2.090 1.670 6990
1.908 2.093 1.662 6256
1.911 2.096 1.654 7230
1.914 2.100 1.645 8203
1.922 2.108 1.641 7345
1.929 2.116 1.636 6678
1.937 2.125 1.631 6276
1.983 2.175 1.655 6396
1.986 2.178 1.646 6599
1.988 2.181 1.637 6802
1.987 2.179 1.625 4429
2.114 2.319 1.708 3680
2.117 2.322 1.698 4572
2.120 2.326 1.689 5464
2.123 2.329 1.680 4641
2.126 2.332 1.671 3817
2.182 2.394 1.699 4844
2.190 2.402 1.693 6303
2.193 2.406 1.683 6720
2.201 2.414 1.677 7256
2.204 2.418 1.667 7256
2.211 2.426 1.661 6419
2.224 2.440 1.658 5964
2.222 2.438 1.645 5963
2.220 2.436 1.632 6172
2.223 2.439 1.622 4938
2.309 2.533 1.667 4238
2.312 2.536 1.657 4238
2.315 2.540 1.647 2119
0.461 0.503 1.724 6806
0.465 0.507 1.722 6308
0.468 0.510 1.720 5810
0.464 0.506 1.697 6927
0.467 0.509 1.694 8289
0.470 0.513 1.692 8289
0.473 0.516 1.690 8798
0.479 0.522 1.695 9471
0.482 0.525 1.693 9792
0.485 0.528 1.691 10113
0.490 0.534 1.696 9068
0.493 0.538 1.694 8306
0.496 0.541 1.692 12674
0.499 0.544 1.689 18213
0.502 0.548 1.687 19382
0.505 0.551 1.685 24429
0.506 0.552 1.676 29747
0.509 0.555 1.673 30361
0.512 0.558 1.671 30975
0.515 0.561 1.669 25556
0.515 0.562 1.659 20347
0.518 0.565 1.657 17918
0.521 0.569 1.655 15489
0.527 0.574 1.660 14068
0.532 0.580 1.664 12967
0.535 0.584 1.662 11285
0.538 0.587 1.659 9603
0.541 0.590 1.657 12772
0.544 0.593 1.655 15321
0.550 0.600 1.659 15106
0.553 0.603 1.657 13534
0.553 0.603 1.647 11584
0.559 0.609 1.652 10362
0.578 0.630 1.691 9626
0.589 0.642 1.709 9127
0.594 0.648 1.713 9166
0.597 0.651 1.710 11186
0.601 0.655 1.708 13205
0.606 0.661 1.712 17836
0.612 0.667 1.716 22472
0.618 0.674 1.720 23387
0.624 0.680 1.724 18877
0.627 0.684 1.721 14690
0.627 0.684 1.712 11504
0.630 0.687 1.709 14668
0.639 0.697 1.720 21417
0.639 0.697 1.710 23295
0.645 0.703 1.714 21807
0.648 0.707 1.711 17542
0.651 0.710 1.708 17748
0.657 0.717 1.712 17925
0.663 0.723 1.716 20868
0.669 0.730 1.720 23769
0.675 0.736 1.723 19487
0.681 0.743 1.727 15547
0.684 0.746 1.724 17143
0.690 0.753 1.727 29181
0.694 0.756 1.724 39444
0.700 0.763 1.728 43675
0.706 0.770 1.731 42898
0.712 0.776 1.735 38562
0.715 0.780 1.732 33370
0.715 0.780 1.722 31461
0.718 0.783 1.719 35029
0.721 0.786 1.716 34847
0.724 0.790 1.712 31458
0.727 0.793 1.709 29096
0.731 0.797 1.706 29868
0.737 0.803 1.709 33180
0.743 0.810 1.712 34319
0.746 0.813 1.709 28178
0.749 0.817 1.706 20250
0.752 0.820 1.703 16831
0.755 0.823 1.699 13785
0.774 0.844 1.728 10601
0.777 0.848 1.724 12897
0.780 0.851 1.721 15287
0.783 0.854 1.717 16934
0.793 0.865 1.727 16455
0.799 0.872 1.729 13768
0.803 0.875 1.726 11730
0.806 0.878 1.722 9015
0.809 0.882 1.719 9482
0.815 0.889 1.721 11635
0.822 0.896 1.724 12306
0.831 0.906 1.733 13517
0.838 0.913 1.735 11273
0.848 0.924 1.744 9783
0.847 0.924 1.734 11791
0.850 0.927 1.731 18129
0.860 0.938 1.739 24113
0.867 0.945 1.741 28775
0.870 0.949 1.738 26156
0.870 0.948 1.728 20300
0.873 0.952 1.724 20625
0.876 0.955 1.720 22750
0.886 0.966 1.728 16995
0.889 0.969 1.724 17536
0.896 0.977 1.726 20831
0.902 0.984 1.729 15753
0.909 0.991 1.731 15557
0.915 0.998 1.733 20014
0.922 1.005 1.734 22213
0.922 1.005 1.724 18549
0.921 1.005 1.714 15305
0.921 1.004 1.705 16247
0.931 1.015 1.712 21803
0.941 1.026 1.720 30704
0.944 1.030 1.716 26230
0.947 1.033 1.712 23922
0.954 1.040 1.713 24852
0.961 1.048 1.715 23812
0.964 1.051 1.711 19575
0.971 1.058 1.712 11458
0.977 1.066 1.714 9782
0.984 1.073 1.715 11750
0.991 1.080 1.717 13562
0.994 1.084 1.712 15842
0.997 1.087 1.708 14660
1.008 1.099 1.715 9826
0.992 1.082 1.682 10248
0.991 1.081 1.672 10835
1.017 1.109 1.702 10824
1.024 1.116 1.703 11030
1.049 1.144 1.732 9017
1.052 1.148 1.727 18202
1.056 1.151 1.723 22765
1.055 1.150 1.713 22226
1.062 1.158 1.714 35999
1.069 1.165 1.714 40827
1.072 1.169 1.710 31386
1.071 1.168 1.700 25379
1.070 1.167 1.689 16854
1.069 1.166 1.679 15191
1.084 1.182 1.691 17610
1.087 1.185 1.686 20029
1.098 1.197 1.692 20711
1.097 1.196 1.682 19613
1.096 1.195 1.672 21563
1.111 1.211 1.683 22717
1.122 1.223 1.689 27191
1.125 1.227 1.684 18918
1.140 1.243 1.695 11381
1.147 1.250 1.695 13541
1.154 1.258 1.696 15592
1.153 1.257 1.685 15580
1.156 1.260 1.680 10294
1.151 1.255 1.665 4218
1.142 1.245 1.644 4423
1.201 1.310 1.712 7772
1.204 1.313 1.706 9241
1.212 1.321 1.706 6066
1.235 1.347 1.727 6918
1.242 1.354 1.726 7055
1.253 1.367 1.731 8453
1.257 1.370 1.726 17412
1.256 1.369 1.715 26776
1.259 1.372 1.710 24825
1.270 1.385 1.714 22771
1.281 1.397 1.719 25066
1.289 1.405 1.718 31885
1.287 1.404 1.708 32417
1.295 1.412 1.707 27479
1.302 1.420 1.706 25568
1.305 1.423 1.700 19269
1.308 1.426 1.695 17992
1.311 1.430 1.689 21400
1.323 1.442 1.693 25086
1.330 1.450 1.692 27132
1.337 1.458 1.691 19484
1.349 1.471 1.695 9860
1.360 1.483 1.699 10242
1.368 1.491 1.697 14932
1.375 1.499 1.696 13476
1.391 1.516 1.704 13523
1.390 1.515 1.694 11679
1.384 1.509 1.678 5765
1.434 1.564 1.724 5378
1.433 1.563 1.713 6465
1.445 1.576 1.716 5926
1.457 1.588 1.719 8778
1.469 1.601 1.722 10989
1.472 1.605 1.715 11350
1.470 1.603 1.704 11087
1.478 1.611 1.702 9229
1.503 1.639 1.718 11062
1.510 1.647 1.716 14878
1.518 1.655 1.714 17111
1.525 1.663 1.712 17532
1.537 1.676 1.714 18242
1.545 1.684 1.712 17555
1.552 1.692 1.710 21710
1.555 1.696 1.703 25830
1.563 1.704 1.701 24576
1.575 1.717 1.703 21181
1.587 1.730 1.704 14825
1.603 1.748 1.710 14192
1.602 1.747 1.699 16834
1.600 1.745 1.688 19421
1.603 1.748 1.681 19282
1.606 1.752 1.674 16396
1.623 1.770 1.680 14424
1.631 1.778 1.677 18266
1.634 1.781 1.670 17261
1.637 1.785 1.662 11204
1.681 1.832 1.693 8042
1.688 1.841 1.690 8319
1.691 1.844 1.682 6621
1.667 1.817 1.650 6504
1.729 1.886 1.696 6674
1.742 1.899 1.696 12693
1.749 1.907 1.693 16297
1.752 1.911 1.685 18715
1.751 1.909 1.674 21267
1.754 1.912 1.666 21045
1.757 1.915 1.658 20185
1.764 1.924 1.655 19758
1.763 1.922 1.643 16074
1.761 1.920 1.631 13360
1.764 1.923 1.624 10430
1.771 1.932 1.620 7703
1.774 1.935 1.612 5723
1.852 2.020 1.665 4085
1.907 2.079 1.699 5484
1.905 2.077 1.687 6695
1.899 2.070 1.671 8330
1.902 2.074 1.663 7563
1.900 2.072 1.651 6856
1.917 2.091 1.654 7416
1.920 2.094 1.645 8084
1.928 2.102 1.641 6807
1.940 2.116 1.639 5892
1.943 2.119 1.631 5605
1.994 2.174 1.658 6364
1.997 2.177 1.650 6417
2.000 2.181 1.641 6470
1.998 2.179 1.629 4156
2.116 2.307 1.704 3304
2.124 2.316 1.698 3828
2.127 2.319 1.689 4396
2.130 2.323 1.680 3724
2.186 2.384 1.708 3229
2.189 2.387 1.699 4824
2.192 2.390 1.689 6419
2.200 2.399 1.683 6830
2.208 2.408 1.677 7441
2.211 2.411 1.667 7441
2.219 2.419 1.661 6383
2.227 2.428 1.655 5526
2.225 2.426 1.642 5543
2.228 2.429 1.632 5657
2.226 2.427 1.619 4513
2.312 2.521 1.664 4341
2.315 2.524 1.653 4341
2.318 2.527 1.643 2170
0.460 0.500 1.717 5635
0.461 0.501 1.708 5600
0.464 0.504 1.706 5609
0.465 0.505 1.697 6966
0.468 0.509 1.694 8342
0.471 0.512 1.692 8342
0.474 0.515 1.690 8513
0.479 0.521 1.695 8879
0.482 0.524 1.693 9028
0.485 0.528 1.691 9178
0.489 0.531 1.689 8294
0.494 0.537 1.694 7683
0.497 0.540 1.692 11663
0.500 0.544 1.689 16762
0.503 0.547 1.687 17881
0.506 0.550 1.685 22801
0.507 0.551 1.676 27884
0.510 0.554 1.673 28425
0.513 0.557 1.671 28967
0.516 0.561 1.669 23586
0.519 0.564 1.667 18205
0.522 0.567 1.664 15888
0.525 0.570 1.662 13571
0.530 0.576 1.667 12388
0.533 0.580 1.664 11529
0.536 0.583 1.662 11012
0.539 0.586 1.659 10496
0.542 0.589 1.657 13941
0.548 0.595 1.662 16633
0.551 0.599 1.659 16512
0.556 0.605 1.664 14272
0.554 0.602 1.647 11543
0.565 0.614 1.666 10761
0.579 0.629 1.691 10631
0.590 0.641 1.709 9443
0.595 0.647 1.713 9177
0.598 0.651 1.710 10697
0.602 0.654 1.708 12217
0.607 0.660 1.712 17318
0.616 0.669 1.723 22574
0.619 0.673 1.720 23746
0.625 0.679 1.724 19186
0.631 0.686 1.728 14874
0.628 0.683 1.712 11566
0.634 0.689 1.716 14910
0.640 0.696 1.720 21862
0.640 0.696 1.710 23952
0.646 0.702 1.714 22629
0.649 0.706 1.711 18225
0.652 0.709 1.708 17565
0.658 0.716 1.712 16804
0.664 0.722 1.716 19608
0.670 0.729 1.720 21996
0.676 0.735 1.723 17596
0.682 0.742 1.727 13804
0.689 0.748 1.730 16554
0.692 0.752 1.727 28702
0.695 0.755 1.724 37933
0.701 0.762 1.728 41176
0.707 0.768 1.731 39318
0.713 0.775 1.735 34486
0.713 0.775 1.725 29723
0.716 0.779 1.722 28490
0.719 0.782 1.719 32412
0.723 0.785 1.716 33031
0.726 0.789 1.712 30247
0.729 0.792 1.709 28153
0.732 0.795 1.706 30066
0.738 0.802 1.709 34696
0.744 0.809 1.712 36047
0.747 0.812 1.709 29317
0.750 0.816 1.706 21249
0.753 0.819 1.703 18121
0.757 0.822 1.699 14875
0.775 0.843 1.728 11170
0.782 0.850 1.731 12220
0.782 0.850 1.721 13456
0.788 0.857 1.724 14860
0.794 0.863 1.727 14507
0.801 0.870 1.729 12424
0.804 0.874 1.726 11716
0.807 0.877 1.722 9948
0.810 0.881 1.719 8948
0.817 0.888 1.721 9701
0.826 0.898 1.730 9860
0.836 0.909 1.739 11004
0.842 0.916 1.742 9486
0.849 0.923 1.744 9278
0.849 0.923 1.734 11389
0.852 0.926 1.731 16954
0.862 0.937 1.739 21093
0.868 0.944 1.741 24796
0.871 0.947 1.738 22245
0.871 0.947 1.728 18841
0.878 0.954 1.730 22211
0.877 0.954 1.720 25315
0.884 0.961 1.722 19054
0.891 0.968 1.724 19857
0.894 0.971 1.720 22652
0.900 0.979 1.723 15652
0.910 0.990 1.731 14979
0.917 0.997 1.733 21018
0.920 1.000 1.729 24353
0.923 1.004 1.724 19564
0.923 1.003 1.714 15262
0.926 1.006 1.710 14663
0.936 1.018 1.718 19721
0.943 1.025 1.720 28975
0.950 1.032 1.722 25117
0.949 1.032 1.712 23952
0.956 1.039 1.713 27047
0.962 1.046 1.715 26903
0.966 1.049 1.711 22723
0.972 1.057 1.712 13111
0.975 1.060 1.708 9526
0.986 1.072 1.715 11375
0.993 1.079 1.717 12174
0.996 1.082 1.712 14056
0.999 1.086 1.708 14029
1.009 1.097 1.715 10263
0.997 1.084 1.688 9551
1.012 1.100 1.700 10962
1.022 1.111 1.707 12486
1.037 1.127 1.720 11972
1.051 1.143 1.732 9991
1.054 1.146 1.727 20218
1.057 1.149 1.723 28616
1.057 1.149 1.713 27381
1.060 1.152 1.708 37436
1.067 1.159 1.709 34768
1.074 1.167 1.710 22935
1.077 1.170 1.705 22703
1.076 1.169 1.695 14400
1.087 1.181 1.701 12213
1.086 1.180 1.691 18161
1.089 1.184 1.686 20775
1.092 1.187 1.681 23332
1.099 1.194 1.682 24351
1.098 1.193 1.672 23166
1.109 1.205 1.678 20527
1.124 1.221 1.689 22864
1.123 1.220 1.679 15759
1.142 1.241 1.695 12645
1.149 1.249 1.695 16855
1.156 1.256 1.696 17283
1.151 1.251 1.680 15781
1.154 1.254 1.675 10508
1.173 1.275 1.691 6317
1.176 1.278 1.686 5709
1.199 1.304 1.707 11412
1.202 1.307 1.701 15496
1.205 1.310 1.696 9462
1.225 1.331 1.711 8238
1.220 1.326 1.696 10053
1.227 1.334 1.696 9242
1.255 1.364 1.721 16459
1.258 1.367 1.715 21071
1.261 1.370 1.710 22529
1.268 1.378 1.709 22563
1.279 1.391 1.714 23557
1.287 1.398 1.713 30286
1.290 1.402 1.708 26409
1.301 1.414 1.712 17257
1.313 1.427 1.716 18773
1.311 1.426 1.705 15204
1.306 1.420 1.690 13510
1.313 1.428 1.689 15909
1.325 1.440 1.693 22026
1.332 1.448 1.692 26092
1.339 1.456 1.691 19412
1.351 1.468 1.695 9174
1.367 1.486 1.703 9268
1.374 1.494 1.702 14601
1.377 1.497 1.696 13955
1.385 1.505 1.695 13603
1.388 1.508 1.689 12008
1.386 1.507 1.678 6539
1.428 1.552 1.714 7706
1.431 1.556 1.708 8279
1.443 1.569 1.711 7014
1.455 1.581 1.714 8076
1.475 1.604 1.726 10109
1.474 1.602 1.715 11733
1.473 1.601 1.704 12410
1.476 1.604 1.698 9976
1.501 1.631 1.714 10160
1.513 1.644 1.716 12778
1.525 1.657 1.719 15184
1.532 1.666 1.717 17471
1.540 1.674 1.714 19952
1.547 1.682 1.712 20092
1.555 1.690 1.710 24025
1.558 1.693 1.703 27846
1.565 1.702 1.701 25457
1.577 1.715 1.703 21607
1.594 1.733 1.709 16552
1.602 1.741 1.706 16133
1.605 1.744 1.699 18189
1.608 1.747 1.692 19530
1.606 1.746 1.681 18822
1.609 1.749 1.674 15030
1.626 1.767 1.680 12956
1.638 1.780 1.681 17082
1.636 1.779 1.670 16669
1.639 1.782 1.662 11339
1.683 1.830 1.693 9080
1.691 1.838 1.690 9000
1.690 1.836 1.678 6918
1.670 1.815 1.650 6992
1.737 1.888 1.700 6326
1.745 1.896 1.696 12860
1.752 1.905 1.693 16630
1.755 1.908 1.685 18745
1.754 1.906 1.674 21021
1.757 1.909 1.666 20595
1.760 1.913 1.658 19823
1.767 1.921 1.655 19708
1.766 1.919 1.643 15931
1.764 1.917 1.631 13095
1.767 1.920 1.624 10091
1.774 1.929 1.620 7268
1.777 1.932 1.612 5421
1.902 2.068 1.704 3838
1.910 2.076 1.699 5413
1.909 2.074 1.687 6671
1.902 2.067 1.671 8418
1.900 2.066 1.659 7687
1.903 2.069 1.651 6995
1.916 2.082 1.650 7102
1.924 2.091 1.645 7462
1.926 2.094 1.637 6086
1.944 2.113 1.639 5083
1.947 2.116 1.631 4896
2.002 2.176 1.662 6241
2.005 2.179 1.653 6016
2.003 2.177 1.641 5803
2.054 2.233 1.668 3987
2.067 2.247 1.666 3217
2.123 2.307 1.695 3268
2.131 2.316 1.689 3607
2.134 2.319 1.680 3074
2.190 2.380 1.708 2958
2.193 2.384 1.699 4548
2.196 2.387 1.689 6139
2.204 2.396 1.683 6574
2.212 2.404 1.677 7256
2.215 2.407 1.667 7256
2.223 2.416 1.661 6124
2.231 2.424 1.655 5094
2.229 2.422 1.642 5067
2.227 2.420 1.629 5100
2.230 2.423 1.619 4085
2.316 2.517 1.664 4247
2.319 2.520 1.653 4247
2.322 2.524 1.643 2123
0.461 0.499 1.717 5071
0.462 0.500 1.708 5469
0.463 0.501 1.699 5970
0.466 0.504 1.697 7313
0.467 0.505 1.687 8668
0.470 0.508 1.685 8668
0.475 0.514 1.690 8566
0.481 0.520 1.695 8664
0.484 0.523 1.693 8696
0.487 0.526 1.691 8729
0.490 0.530 1.689 7922
0.495 0.536 1.694 7358
0.498 0.539 1.692 10973
0.502 0.542 1.689 15646
0.505 0.545 1.687 16704
0.508 0.549 1.685 21680
0.508 0.549 1.676 26744
0.514 0.555 1.680 27318
0.517 0.559 1.678 27979
0.517 0.559 1.669 22290
0.520 0.562 1.667 16887
0.523 0.566 1.664 15085
0.526 0.569 1.662 13284
0.532 0.575 1.667 12239
0.535 0.578 1.664 11291
0.538 0.581 1.662 10982
0.541 0.585 1.659 10673
0.546 0.591 1.664 14104
0.549 0.594 1.662 16640
0.555 0.600 1.666 16562
0.561 0.606 1.671 13912
0.564 0.609 1.668 10441
0.572 0.618 1.679 10528
0.583 0.630 1.697 11199
0.591 0.639 1.709 9887
0.597 0.646 1.713 9525
0.600 0.649 1.710 10526
0.606 0.655 1.714 11551
0.609 0.659 1.712 16930
0.618 0.668 1.723 22968
0.621 0.671 1.720 24235
0.627 0.677 1.724 19578
0.633 0.684 1.728 15236
0.636 0.687 1.725 11433
0.636 0.688 1.716 14692
0.642 0.694 1.720 21715
0.645 0.697 1.717 24265
0.648 0.701 1.714 23509
0.651 0.704 1.711 19241
0.654 0.707 1.708 17740
0.660 0.714 1.712 15829
0.666 0.720 1.716 18337
0.672 0.727 1.720 20673
0.678 0.733 1.723 16325
0.687 0.743 1.733 12997
0.691 0.747 1.730 16325
0.694 0.750 1.727 27780
0.697 0.753 1.724 35994
0.703 0.760 1.728 38439
0.709 0.767 1.731 36184
0.712 0.770 1.728 31708
0.715 0.773 1.725 27566
0.718 0.777 1.722 26159
0.722 0.780 1.719 29581
0.725 0.783 1.716 30769
0.728 0.787 1.712 28709
0.731 0.790 1.709 27052
0.734 0.793 1.706 30047
0.740 0.800 1.709 36067
0.746 0.807 1.712 37782
0.749 0.810 1.709 30562
0.753 0.814 1.706 21923
0.756 0.817 1.703 18594
0.759 0.820 1.699 15419
0.778 0.841 1.728 11538
0.784 0.848 1.731 11327
0.787 0.851 1.727 11484
0.790 0.854 1.724 12866
0.797 0.861 1.727 13356
0.803 0.868 1.729 12367
0.806 0.872 1.726 12698
0.809 0.875 1.722 11251
0.809 0.875 1.713 8870
