-1.608 2.353 1.661 4371
-1.611 2.357 1.653 5995
-1.613 2.361 1.644 5612
-1.620 2.370 1.639 5293
-1.634 2.391 1.642 7589
-1.637 2.395 1.633 10041
-1.639 2.398 1.625 10919
-1.638 2.396 1.613 11810
-1.640 2.400 1.604 10156
-1.642 2.403 1.596 8501
-1.645 2.407 1.587 6092
-1.812 2.651 1.720 5083
-1.814 2.655 1.711 5938
-1.821 2.664 1.705 6886
-1.823 2.668 1.695 6250
-1.826 2.672 1.686 5613
-1.829 2.676 1.676 4160
-1.859 2.721 1.690 3792
-1.862 2.724 1.680 3792
-1.864 2.728 1.671 3184
-1.863 2.726 1.658 2642
-1.865 2.729 1.648 2736
-1.868 2.733 1.638 2831
-1.923 2.814 1.670 4030
-1.926 2.818 1.660 5403
-1.928 2.822 1.650 5403
-1.931 2.825 1.640 2701
-0.341 0.499 0.417 334
-0.371 0.546 1.674 12875
-0.376 0.552 1.679 14679
-0.378 0.556 1.677 16904
-0.382 0.562 1.682 14900
-0.389 0.572 1.694 14087
-0.391 0.575 1.692 14087
-0.392 0.576 1.683 12894
-0.391 0.574 1.667 12247
-0.391 0.575 1.657 10092
-0.392 0.576 1.648 8291
-0.398 0.585 1.660 6440
-0.404 0.595 1.672 5389
-0.407 0.598 1.670 5658
-0.411 0.605 1.675 6002
-0.414 0.609 1.673 5832
-0.420 0.618 1.685 4982
-0.421 0.619 1.676 4302
-0.419 0.617 1.659 4294
-0.420 0.617 1.650 4739
-0.424 0.624 1.655 6234
-0.429 0.631 1.659 7893
-0.433 0.637 1.664 7145
-0.438 0.644 1.669 6756
-0.440 0.648 1.667 8651
-0.443 0.651 1.664 10547
-0.443 0.652 1.655 12675
-0.446 0.656 1.652 14671
-0.448 0.659 1.650 16044
-0.453 0.666 1.655 16527
-0.455 0.670 1.652 14746
-0.458 0.673 1.650 11281
-0.460 0.677 1.647 8177
-0.465 0.684 1.652 12424
-0.470 0.690 1.656 17348
-0.474 0.697 1.661 18015
-0.479 0.704 1.665 19018
-0.481 0.708 1.662 16999
-0.486 0.715 1.667 15794
-0.489 0.719 1.664 17809
-0.491 0.722 1.661 19714
-0.496 0.729 1.666 20573
-0.498 0.733 1.663 19223
-0.501 0.737 1.660 17876
-0.501 0.737 1.651 16988
-0.503 0.740 1.648 16808
-0.506 0.744 1.645 17687
-0.508 0.748 1.643 15275
-0.508 0.748 1.633 9279
-0.535 0.786 1.698 7364
-0.537 0.790 1.695 6844
-0.537 0.790 1.685 6384
-0.540 0.794 1.682 6382
-0.542 0.798 1.680 8672
-0.550 0.808 1.690 10309
-0.555 0.816 1.694 9943
-0.560 0.823 1.697 10609
-0.567 0.834 1.708 14943
-0.570 0.838 1.705 18051
-0.575 0.845 1.708 17602
-0.580 0.852 1.712 19647
-0.582 0.856 1.709 19423
-0.585 0.860 1.705 15672
-0.587 0.864 1.702 13238
-0.595 0.875 1.712 14060
-0.600 0.882 1.716 15936
-0.603 0.886 1.712 15512
-0.605 0.890 1.709 12488
-0.610 0.898 1.712 9458
-0.613 0.901 1.709 8439
-0.618 0.909 1.712 6623
-0.623 0.917 1.716 5014
-0.628 0.924 1.719 5087
-0.634 0.932 1.722 8260
-0.636 0.936 1.718 11866
-0.641 0.943 1.721 11044
-0.644 0.947 1.718 8844
-0.647 0.951 1.715 9039
-0.649 0.955 1.711 10498
-0.652 0.958 1.708 12170
-0.654 0.962 1.704 13141
-0.651 0.958 1.688 12940
-0.657 0.966 1.691 10758
-0.673 0.989 1.719 11714
-0.673 0.989 1.709 11315
-0.667 0.981 1.687 13171
-0.669 0.985 1.683 15057
-0.675 0.992 1.686 21097
-0.680 1.000 1.689 27708
-0.685 1.008 1.691 26369
-0.691 1.016 1.694 22762
-0.696 1.024 1.696 20772
-0.699 1.027 1.692 20456
-0.698 1.027 1.683 19603
-0.701 1.031 1.679 16299
-0.703 1.034 1.675 15672
-0.703 1.034 1.665 13521
-0.705 1.037 1.662 8758
-0.717 1.054 1.676 9291
-0.731 1.074 1.696 9288
-0.745 1.095 1.717 11015
-0.747 1.099 1.713 9955
-0.753 1.107 1.715 7632
-0.752 1.107 1.705 9201
-0.755 1.110 1.701 18055
-0.758 1.114 1.697 21260
-0.763 1.122 1.699 15981
-0.766 1.126 1.695 15535
-0.771 1.134 1.696 16355
-0.774 1.138 1.692 16460
-0.779 1.146 1.694 19944
-0.785 1.154 1.696 20181
-0.787 1.158 1.692 11899
-0.790 1.161 1.688 7532
-0.789 1.161 1.678 7805
-0.798 1.173 1.685 7059
-0.803 1.182 1.687 9967
-0.806 1.185 1.682 11055
-0.812 1.193 1.684 15449
-0.817 1.202 1.685 21971
-0.820 1.205 1.681 19805
-0.825 1.214 1.682 16000
-0.831 1.222 1.684 14407
-0.833 1.226 1.679 13492
-0.842 1.239 1.686 14074
-0.845 1.242 1.682 15149
-0.850 1.251 1.683 12561
-0.859 1.264 1.689 10614
-0.865 1.272 1.690 14139
-0.867 1.276 1.686 16155
-0.870 1.279 1.681 17549
-0.872 1.283 1.677 16233
-0.885 1.301 1.689 23914
-0.884 1.300 1.678 36352
-0.886 1.304 1.674 39237
-0.889 1.307 1.669 47088
-0.891 1.311 1.664 55085
-0.891 1.310 1.654 52949
-0.896 1.318 1.655 47728
-0.899 1.322 1.650 42245
-0.901 1.325 1.646 28557
-0.907 1.334 1.646 14628
-0.913 1.342 1.647 13752
-0.925 1.360 1.658 16613
-0.928 1.364 1.653 20286
-0.930 1.368 1.648 18275
-0.933 1.371 1.643 16319
-0.935 1.375 1.638 16531
-0.941 1.383 1.639 15921
-0.947 1.392 1.639 13500
-0.956 1.405 1.644 11824
-0.965 1.419 1.650 10820
-0.991 1.457 1.681 12478
-1.000 1.471 1.686 14951
-1.013 1.490 1.696 18003
-1.016 1.493 1.690 16828
-1.018 1.497 1.685 14339
-1.021 1.501 1.680 13224
-1.030 1.515 1.684 14079
-1.036 1.523 1.684 16099
-1.038 1.527 1.679 17776
-1.041 1.531 1.673 23216
-1.047 1.540 1.673 28579
-1.053 1.548 1.672 29319
-1.055 1.552 1.667 25313
-1.061 1.561 1.666 17340
-1.071 1.575 1.670 14173
-1.070 1.573 1.660 13355
-1.072 1.577 1.654 19448
-1.075 1.580 1.648 30919
-1.077 1.584 1.643 36535
-1.083 1.593 1.642 30078
-1.089 1.602 1.641 24343
-1.092 1.605 1.635 25145
-1.094 1.609 1.630 24978
-1.096 1.612 1.624 19001
-1.102 1.621 1.623 12235
-1.151 1.693 1.678 10151
-1.158 1.702 1.677 8498
-1.156 1.701 1.666 8619
-1.173 1.725 1.679 9326
-1.179 1.734 1.677 10782
-1.186 1.743 1.675 10037
-1.192 1.752 1.674 9772
-1.194 1.756 1.668 14844
-1.200 1.765 1.666 22788
-1.203 1.769 1.660 25707
-1.205 1.772 1.653 23031
-1.211 1.781 1.651 19200
-1.214 1.785 1.645 12710
-1.231 1.810 1.656 6438
-1.263 1.857 1.686 9042
-1.269 1.866 1.683 10318
-1.279 1.881 1.685 10789
-1.285 1.890 1.683 9789
-1.303 1.916 1.694 11182
-1.305 1.919 1.687 15896
-1.311 1.929 1.685 16632
-1.314 1.932 1.678 15136
-1.317 1.936 1.671 12914
-1.319 1.940 1.664 11304
-1.321 1.943 1.657 8862
-1.354 1.991 1.684 7309
-1.360 2.000 1.681 8653
-1.367 2.010 1.678 7120
-1.384 2.036 1.688 6032
-1.398 2.056 1.693 7603
-1.397 2.054 1.681 9008
-1.407 2.069 1.682 10532
-1.417 2.084 1.683 11908
-1.420 2.088 1.676 9718
-1.418 2.086 1.664 5922
-1.417 2.084 1.653 4350
-1.427 2.099 1.653 6067
-1.430 2.102 1.646 8045
-1.444 2.123 1.650 7973
-1.461 2.149 1.658 7148
-1.472 2.164 1.659 5619
-1.524 2.242 1.702 4486
-1.523 2.240 1.690 5416
-1.526 2.244 1.682 6696
-1.528 2.247 1.674 7260
-1.577 2.320 1.712 6899
-1.576 2.318 1.700 6255
-1.575 2.316 1.688 5888
-1.546 2.273 1.649 4722
-1.552 2.283 1.645 4304
-1.578 2.321 1.659 3007
-1.581 2.325 1.651 2960
-1.603 2.357 1.661 4694
-1.605 2.361 1.653 6630
-1.612 2.370 1.648 6454
-1.618 2.380 1.643 6386
-1.629 2.395 1.642 8418
-1.631 2.399 1.633 10658
-1.633 2.402 1.625 11409
-1.632 2.400 1.613 12177
-1.634 2.403 1.604 10391
-1.637 2.407 1.596 8605
-1.639 2.410 1.587 6149
-1.806 2.655 1.720 4494
-1.808 2.659 1.711 5146
-1.815 2.669 1.705 5865
-1.817 2.672 1.695 5226
-1.824 2.682 1.689 4596
-1.847 2.715 1.697 3500
-1.853 2.725 1.690 3726
-1.856 2.729 1.680 3726
-1.858 2.732 1.671 3061
-1.861 2.736 1.661 2397
-1.859 2.734 1.648 2388
-1.914 2.815 1.680 2934
-1.917 2.819 1.670 4097
-1.915 2.816 1.657 5329
-1.918 2.820 1.647 5329
-1.920 2.824 1.637 2664
-0.340 0.500 0.417 347
-0.370 0.547 1.674 12302
-0.374 0.553 1.679 14314
-0.377 0.557 1.677 16744
-0.381 0.563 1.682 15244
-0.387 0.573 1.694 14989
-0.390 0.576 1.692 14989
-0.390 0.577 1.683 13829
-0.389 0.575 1.667 13285
-0.390 0.576 1.657 10970
-0.390 0.577 1.648 8981
-0.396 0.586 1.660 7086
-0.403 0.596 1.672 5943
-0.405 0.599 1.670 5853
-0.408 0.603 1.668 5763
-0.412 0.610 1.673 5593
-0.415 0.613 1.671 4515
-0.417 0.617 1.669 3648
-0.418 0.618 1.659 3791
-0.418 0.618 1.650 4145
-0.421 0.622 1.648 5194
-0.425 0.629 1.652 6341
-0.432 0.638 1.664 5845
-0.442 0.654 1.690 5898
-0.439 0.649 1.667 8264
-0.441 0.652 1.664 10728
-0.442 0.653 1.655 12602
-0.444 0.657 1.652 14460
-0.446 0.660 1.650 15723
-0.451 0.667 1.655 15971
-0.454 0.671 1.652 14282
-0.456 0.674 1.650 11020
-0.458 0.678 1.647 8037
-0.463 0.685 1.652 12433
-0.468 0.692 1.656 17397
-0.472 0.699 1.661 18259
-0.477 0.706 1.665 19579
-0.480 0.709 1.662 17912
-0.482 0.713 1.660 16939
-0.487 0.720 1.664 18601
-0.489 0.723 1.661 19590
-0.494 0.731 1.666 19927
-0.496 0.734 1.663 18563
-0.499 0.738 1.660 17495
-0.499 0.738 1.651 16990
-0.502 0.742 1.648 16742
-0.504 0.745 1.645 17510
-0.506 0.749 1.643 14903
-0.507 0.749 1.633 8765
-0.533 0.788 1.698 6793
-0.535 0.791 1.695 6304
-0.535 0.792 1.685 6787
-0.535 0.792 1.676 7730
-0.540 0.799 1.680 9759
-0.543 0.803 1.677 10562
-0.550 0.813 1.687 9710
-0.555 0.821 1.691 9575
-0.565 0.835 1.708 13068
-0.567 0.839 1.705 16254
-0.572 0.847 1.708 16417
-0.577 0.854 1.712 19763
-0.580 0.858 1.709 20642
-0.580 0.858 1.699 17360
-0.585 0.865 1.702 14177
-0.593 0.877 1.712 14453
-0.598 0.884 1.716 16455
-0.600 0.888 1.712 15951
-0.603 0.892 1.709 12238
-0.608 0.899 1.712 7902
-0.613 0.907 1.716 6951
-0.616 0.911 1.712 5658
-0.621 0.918 1.716 4103
-0.626 0.926 1.719 3735
-0.629 0.930 1.715 7270
-0.634 0.937 1.718 11687
-0.636 0.941 1.715 10639
-0.642 0.949 1.718 8322
-0.647 0.956 1.721 8631
-0.647 0.956 1.711 9310
-0.649 0.960 1.708 10113
-0.652 0.964 1.704 11052
-0.652 0.964 1.694 11422
-0.662 0.979 1.710 11355
-0.668 0.987 1.713 13089
-0.667 0.987 1.703 12052
-0.664 0.983 1.687 13612
-0.667 0.986 1.683 16494
-0.672 0.994 1.686 23781
-0.677 1.002 1.689 31077
-0.683 1.010 1.691 29221
-0.688 1.018 1.694 24828
-0.693 1.025 1.696 23540
-0.696 1.029 1.692 24229
-0.696 1.029 1.683 23129
-0.698 1.032 1.679 18609
-0.701 1.036 1.675 17431
-0.700 1.036 1.665 15827
-0.703 1.039 1.662 9447
-0.714 1.056 1.676 7746
-0.731 1.081 1.702 8946
-0.742 1.097 1.717 12082
-0.742 1.097 1.707 11103
-0.750 1.109 1.715 7719
-0.750 1.109 1.705 9563
-0.752 1.112 1.701 19908
-0.755 1.116 1.697 23330
-0.763 1.128 1.705 16809
-0.766 1.132 1.700 14865
-0.768 1.136 1.696 16453
-0.768 1.135 1.686 18038
-0.776 1.148 1.694 20303
-0.782 1.156 1.696 20029
-0.784 1.160 1.692 12458
-0.787 1.164 1.688 8732
-0.789 1.167 1.683 8869
-0.792 1.171 1.679 7228
-0.800 1.184 1.687 9238
-0.803 1.187 1.682 10074
-0.808 1.196 1.684 15366
-0.814 1.204 1.685 23802
-0.817 1.208 1.681 21009
-0.822 1.216 1.682 15782
-0.828 1.224 1.684 14354
-0.830 1.228 1.679 12932
-0.839 1.241 1.686 14282
-0.841 1.244 1.682 15791
-0.844 1.248 1.677 12226
-0.853 1.261 1.684 9855
-0.862 1.274 1.690 16225
-0.864 1.278 1.686 20308
-0.867 1.282 1.681 20410
-0.869 1.285 1.677 17487
-0.884 1.308 1.694 19946
-0.881 1.302 1.678 30297
-0.883 1.306 1.674 38375
-0.886 1.310 1.669 47228
-0.888 1.313 1.664 53500
-0.887 1.312 1.654 50247
-0.893 1.321 1.655 43464
-0.895 1.324 1.650 37545
-0.898 1.328 1.646 23243
-0.904 1.336 1.646 10975
-0.916 1.354 1.657 13043
-0.922 1.363 1.658 15736
-0.924 1.367 1.653 17751
-0.927 1.370 1.648 15562
-0.929 1.374 1.643 13430
-0.935 1.382 1.643 14584
-0.940 1.391 1.644 16313
-0.943 1.394 1.639 13966
-0.952 1.408 1.644 12603
-0.958 1.417 1.644 11597
-0.987 1.460 1.681 11193
-1.000 1.479 1.691 13085
-1.009 1.492 1.696 15875
-1.012 1.496 1.690 13992
-1.011 1.495 1.680 11756
-1.017 1.504 1.680 10433
-1.026 1.517 1.684 12534
-1.032 1.526 1.684 17715
-1.034 1.530 1.679 20146
-1.037 1.533 1.673 23853
-1.043 1.542 1.673 27970
-1.049 1.551 1.672 27661
-1.051 1.555 1.667 21896
-1.054 1.558 1.661 13650
-1.067 1.577 1.670 12214
-1.066 1.576 1.660 12014
-1.068 1.580 1.654 17111
-1.071 1.583 1.648 29260
-1.073 1.587 1.643 34555
-1.076 1.591 1.637 27304
-1.085 1.605 1.641 21196
-1.087 1.608 1.635 22487
-1.090 1.612 1.630 22942
-1.092 1.615 1.624 18165
-1.098 1.624 1.623 12222
-1.147 1.696 1.678 10388
-1.149 1.700 1.672 7594
-1.152 1.704 1.666 7513
-1.169 1.729 1.679 8856
-1.179 1.743 1.682 10681
-1.188 1.757 1.685 10435
-1.191 1.761 1.678 11019
-1.190 1.759 1.668 16671
-1.196 1.768 1.666 23921
-1.198 1.772 1.660 26099
-1.201 1.776 1.653 23410
-1.207 1.785 1.651 19723
-1.209 1.788 1.645 13511
-1.259 1.862 1.697 7551
-1.262 1.866 1.690 9127
-1.272 1.881 1.692 9708
-1.289 1.906 1.703 11998
-1.295 1.915 1.701 10491
-1.298 1.919 1.694 11395
-1.300 1.923 1.687 15445
-1.306 1.932 1.685 16453
-1.309 1.936 1.678 14821
-1.311 1.939 1.671 12384
-1.318 1.949 1.668 10854
-1.320 1.952 1.661 8709
-1.345 1.989 1.680 7108
-1.351 1.998 1.677 8268
-1.354 2.002 1.670 6829
-1.379 2.039 1.688 6083
-1.393 2.060 1.693 7868
-1.395 2.063 1.685 9548
-1.402 2.073 1.682 11224
-1.408 2.082 1.679 12244
-1.410 2.086 1.671 9913
-1.413 2.089 1.664 5864
-1.438 2.127 1.681 4620
-1.422 2.102 1.653 5881
-1.424 2.106 1.646 7763
-1.434 2.121 1.646 7345
-1.452 2.147 1.654 5664
-1.466 2.168 1.659 4403
-1.519 2.246 1.702 4048
-1.517 2.244 1.690 4990
-1.524 2.253 1.686 6129
-1.522 2.251 1.674 6760
-1.571 2.324 1.712 6650
-1.570 2.322 1.700 6311
-1.569 2.320 1.688 6303
-1.540 2.277 1.649 5035
-1.546 2.287 1.645 4669
-1.568 2.319 1.655 3250
-1.575 2.329 1.651 3283
-1.593 2.356 1.657 4905
-1.599 2.365 1.653 7096
-1.606 2.375 1.648 7140
-1.612 2.384 1.643 7364
-1.618 2.393 1.638 9162
-1.625 2.403 1.633 11110
-1.627 2.406 1.625 11759
-1.626 2.404 1.613 12436
-1.628 2.408 1.604 10494
-1.630 2.411 1.596 8553
-1.629 2.409 1.584 6101
-1.631 2.412 1.575 3883
-1.801 2.664 1.711 4306
-1.808 2.673 1.705 4832
-1.810 2.677 1.695 4266
-1.817 2.687 1.689 3826
-1.839 2.720 1.697 3492
-1.846 2.730 1.690 3611
-1.848 2.734 1.680 3611
-1.851 2.737 1.671 2856
-1.857 2.747 1.664 2158
-1.904 2.816 1.690 2320
-1.907 2.820 1.680 3506
-1.909 2.824 1.670 4597
-1.908 2.821 1.657 5694
-1.910 2.825 1.647 5694
-1.913 2.829 1.637 2847
-0.338 0.500 0.417 507
-0.369 0.548 1.674 12071
-0.373 0.554 1.679 14205
-0.375 0.558 1.677 16806
-0.380 0.564 1.682 15750
-0.384 0.571 1.687 15848
-0.386 0.574 1.685 15848
-0.389 0.578 1.683 14684
-0.388 0.576 1.667 14205
-0.388 0.577 1.657 11793
-0.389 0.578 1.648 9734
-0.393 0.584 1.653 7734
-0.400 0.594 1.665 6440
-0.404 0.600 1.670 6022
-0.406 0.604 1.668 5635
-0.409 0.608 1.666 5416
-0.411 0.611 1.664 4224
-0.414 0.615 1.661 3252
-0.416 0.619 1.659 3499
-0.417 0.619 1.650 3854
-0.419 0.623 1.648 4480
-0.424 0.630 1.652 5115
-0.430 0.639 1.664 4919
-0.441 0.655 1.690 5686
-0.437 0.650 1.667 8077
-0.440 0.653 1.664 10890
-0.440 0.654 1.655 12420
-0.443 0.658 1.652 14027
-0.445 0.661 1.650 14952
-0.450 0.668 1.655 14860
-0.452 0.672 1.652 13379
-0.454 0.675 1.650 10486
-0.459 0.682 1.654 7777
-0.464 0.689 1.659 12206
-0.466 0.693 1.656 17119
-0.471 0.700 1.661 18339
-0.475 0.707 1.665 20094
-0.478 0.710 1.662 18769
-0.480 0.714 1.660 17938
-0.485 0.721 1.664 19149
-0.488 0.725 1.661 19323
-0.492 0.732 1.666 19221
-0.495 0.735 1.663 17744
-0.497 0.739 1.660 16741
-0.497 0.739 1.651 16504
-0.500 0.743 1.648 16049
-0.502 0.747 1.645 16533
-0.505 0.750 1.643 13875
-0.505 0.750 1.633 7893
-0.531 0.789 1.698 6073
-0.533 0.793 1.695 5664
-0.531 0.789 1.679 6904
-0.533 0.793 1.676 8521
-0.538 0.800 1.680 9925
-0.541 0.804 1.677 10148
-0.546 0.811 1.680 8931
-0.553 0.822 1.691 8192
-0.563 0.837 1.708 11371
-0.565 0.840 1.705 14489
-0.570 0.848 1.708 15247
-0.575 0.855 1.712 19754
-0.578 0.859 1.709 21688
-0.578 0.859 1.699 18951
-0.581 0.863 1.696 15178
-0.591 0.878 1.712 14947
-0.593 0.882 1.709 17306
-0.596 0.885 1.706 16852
-0.598 0.889 1.703 12517
-0.601 0.893 1.700 6501
-0.611 0.908 1.716 5384
-0.614 0.912 1.712 4856
-0.619 0.920 1.716 3708
-0.621 0.923 1.712 3891
-0.624 0.927 1.709 7957
-0.626 0.931 1.706 12406
-0.634 0.943 1.715 10505
-0.639 0.950 1.718 7796
-0.645 0.958 1.721 8348
-0.647 0.962 1.717 8457
-0.650 0.966 1.714 8326
-0.650 0.965 1.704 8940
-0.649 0.965 1.694 9685
-0.660 0.981 1.710 11685
-0.663 0.985 1.706 14046
-0.662 0.984 1.697 12929
-0.662 0.984 1.687 14385
-0.665 0.988 1.683 17708
-0.670 0.996 1.686 25615
-0.675 1.003 1.689 33509
-0.680 1.011 1.691 31764
-0.686 1.019 1.694 27293
-0.688 1.023 1.690 26468
-0.691 1.027 1.686 27562
-0.693 1.030 1.683 26025
-0.696 1.034 1.679 21061
-0.698 1.038 1.675 19796
-0.698 1.037 1.665 18503
-0.703 1.045 1.668 10985
-0.711 1.057 1.676 6801
-0.734 1.091 1.714 9203
-0.736 1.095 1.711 13370
-0.739 1.098 1.707 12387
-0.747 1.111 1.715 8105
-0.747 1.110 1.705 10308
-0.750 1.114 1.701 21242
-0.752 1.118 1.697 24566
-0.760 1.130 1.705 17165
-0.763 1.134 1.700 13904
-0.763 1.133 1.691 16113
-0.765 1.137 1.686 18974
-0.774 1.150 1.694 20076
-0.779 1.158 1.696 18968
-0.782 1.162 1.692 12406
-0.784 1.165 1.688 10159
-0.787 1.169 1.683 11173
-0.789 1.173 1.679 8703
-0.798 1.185 1.687 10201
-0.800 1.189 1.682 11474
-0.806 1.197 1.684 16549
-0.811 1.206 1.685 25507
-0.814 1.209 1.681 21845
-0.819 1.218 1.682 16229
-0.825 1.226 1.684 15579
-0.827 1.230 1.679 13262
-0.833 1.238 1.680 14912
-0.839 1.246 1.682 15848
-0.841 1.250 1.677 11288
-0.850 1.263 1.684 9693
-0.855 1.272 1.685 19201
-0.858 1.275 1.680 25026
-0.864 1.284 1.681 22579
-0.866 1.287 1.677 18983
-0.881 1.310 1.694 16668
-0.877 1.304 1.678 25377
-0.880 1.308 1.674 36983
-0.882 1.312 1.669 45910
-0.885 1.315 1.664 50619
-0.884 1.314 1.654 45422
-0.890 1.323 1.655 36223
-0.892 1.326 1.650 30533
-0.898 1.335 1.651 17297
-0.904 1.343 1.651 8189
-0.916 1.361 1.663 13573
-0.918 1.365 1.658 15100
-0.921 1.369 1.653 15534
-0.923 1.372 1.648 12854
-0.929 1.381 1.648 9852
-0.932 1.384 1.643 12233
-0.937 1.393 1.644 15832
-0.940 1.397 1.639 13170
-0.949 1.410 1.644 12748
-0.955 1.419 1.644 12004
-0.977 1.452 1.670 9068
-1.006 1.496 1.706 10638
-1.009 1.500 1.701 14049
-1.008 1.498 1.690 11352
-1.007 1.497 1.680 8598
-1.017 1.511 1.685 6658
-1.026 1.525 1.689 10938
-1.028 1.528 1.684 19181
-1.031 1.532 1.679 22633
-1.033 1.536 1.673 24523
-1.039 1.545 1.673 27284
-1.045 1.553 1.672 26029
-1.048 1.557 1.667 18969
-1.050 1.561 1.661 12433
-1.053 1.564 1.655 13276
-1.059 1.573 1.655 12527
-1.061 1.577 1.649 15237
-1.067 1.586 1.648 26124
-1.066 1.584 1.638 30797
-1.072 1.593 1.637 23326
-1.081 1.607 1.641 17183
-1.084 1.611 1.635 18476
-1.086 1.614 1.630 19150
-1.089 1.618 1.624 15582
-1.137 1.690 1.679 11028
-1.143 1.699 1.678 10731
-1.146 1.703 1.672 6607
-1.148 1.706 1.666 6147
-1.168 1.737 1.683 8344
-1.174 1.746 1.682 10699
-1.188 1.765 1.689 11398
-1.187 1.764 1.678 12618
-1.189 1.767 1.672 18422
-1.192 1.771 1.666 24588
-1.194 1.775 1.660 26139
-1.197 1.778 1.653 23604
-1.203 1.787 1.651 20208
-1.205 1.791 1.645 14528
-1.255 1.865 1.697 8998
-1.257 1.869 1.690 9701
-1.282 1.905 1.710 10122
-1.288 1.915 1.708 13379
-1.291 1.918 1.701 11806
-1.293 1.922 1.694 11447
-1.296 1.926 1.687 14541
-1.302 1.935 1.685 15726
-1.304 1.939 1.678 14019
-1.307 1.942 1.671 11633
-1.313 1.952 1.668 10526
-1.316 1.955 1.661 8613
-1.337 1.987 1.675 6861
-1.343 1.996 1.673 7692
-1.345 2.000 1.665 6452
-1.374 2.042 1.688 6071
-1.384 2.057 1.689 8130
-1.391 2.067 1.685 10066
-1.397 2.076 1.682 11922
-1.403 2.085 1.679 12663
-1.406 2.089 1.671 10102
-1.408 2.093 1.664 5743
-1.433 2.130 1.681 4819
-1.417 2.106 1.653 5566
-1.419 2.109 1.646 7270
-1.425 2.119 1.642 6622
-1.432 2.128 1.639 4519
-1.461 2.171 1.659 3392
-1.513 2.249 1.702 3511
-1.512 2.247 1.690 4505
-1.518 2.257 1.686 5409
-1.521 2.261 1.678 5987
-1.566 2.327 1.712 6457
-1.561 2.320 1.696 6437
-1.563 2.323 1.688 6722
-1.539 2.287 1.653 5297
-1.541 2.290 1.645 4923
-1.547 2.300 1.641 3496
-1.569 2.332 1.651 3537
-1.587 2.359 1.657 5031
-1.594 2.369 1.653 7377
-1.600 2.378 1.648 7624
-1.606 2.388 1.643 8098
-1.613 2.397 1.638 9638
-1.619 2.407 1.633 11216
-1.618 2.404 1.621 11771
-1.620 2.408 1.613 12332
-1.622 2.411 1.604 10263
-1.625 2.415 1.596 8193
-1.623 2.413 1.584 5871
-1.622 2.410 1.572 3757
-1.735 2.579 1.659 4058
-1.742 2.589 1.654 4594
-1.808 2.687 1.699 3365
-1.827 2.715 1.703 3524
-1.833 2.724 1.697 3478
-1.836 2.728 1.687 3503
-1.838 2.732 1.677 3503
-1.845 2.742 1.671 2655
-1.859 2.763 1.671 2189
-1.898 2.821 1.690 2753
-1.896 2.819 1.677 4180
-1.903 2.828 1.670 5285
-1.905 2.832 1.660 6414
-1.908 2.836 1.650 6414
-1.910 2.839 1.640 3207
-0.337 0.501 0.417 547
-0.367 0.549 1.674 11868
-0.371 0.555 1.679 14117
-0.374 0.559 1.677 16862
-0.378 0.565 1.682 16270
-0.383 0.572 1.687 16600
-0.385 0.575 1.685 16600
-0.388 0.579 1.683 15346
-0.386 0.577 1.667 14874
-0.387 0.578 1.657 12365
-0.389 0.582 1.655 10212
-0.392 0.585 1.653 8190
-0.398 0.595 1.665 6812
-0.400 0.598 1.663 6191
-0.405 0.605 1.668 5654
-0.407 0.609 1.666 5466
-0.410 0.612 1.664 4292
-0.412 0.616 1.661 3306
-0.415 0.620 1.659 3634
-0.415 0.620 1.650 4006
-0.418 0.624 1.648 4337
-0.420 0.628 1.645 4668
-0.431 0.644 1.671 4737
-0.437 0.653 1.683 5827
-0.438 0.654 1.674 8200
-0.438 0.655 1.664 10856
-0.438 0.655 1.655 12040
-0.441 0.659 1.652 13433
-0.443 0.662 1.650 14141
-0.448 0.669 1.655 13800
-0.450 0.673 1.652 12522
-0.453 0.677 1.650 10046
-0.457 0.683 1.654 7666
-0.462 0.690 1.659 12046
-0.464 0.694 1.656 16817
-0.469 0.701 1.661 18212
-0.474 0.708 1.665 20226
-0.476 0.712 1.662 19312
-0.479 0.715 1.660 18722
-0.483 0.722 1.664 19511
-0.486 0.726 1.661 18953
-0.490 0.733 1.666 18476
-0.493 0.737 1.663 16894
-0.495 0.740 1.660 15833
-0.496 0.740 1.651 15613
-0.498 0.744 1.648 14987
-0.500 0.748 1.645 15277
-0.503 0.751 1.643 12664
-0.503 0.752 1.633 6972
-0.529 0.790 1.698 5619
-0.531 0.794 1.695 5230
-0.529 0.791 1.679 6576
-0.532 0.794 1.676 8261
-0.534 0.798 1.673 9122
-0.539 0.805 1.677 8823
-0.544 0.813 1.680 7760
-0.551 0.823 1.691 7085
-0.561 0.838 1.708 10271
-0.563 0.842 1.705 13249
-0.568 0.849 1.708 14425
-0.571 0.853 1.705 19818
-0.576 0.861 1.709 22626
-0.576 0.861 1.699 20439
-0.578 0.864 1.696 16297
-0.588 0.879 1.712 15408
-0.591 0.883 1.709 17848
-0.594 0.887 1.706 17431
-0.596 0.891 1.703 12746
-0.599 0.894 1.700 5994
-0.601 0.898 1.696 4680
-0.611 0.913 1.712 4700
-0.616 0.921 1.716 4416
-0.619 0.925 1.712 6020
-0.619 0.925 1.703 10356
-0.624 0.933 1.706 13397
-0.629 0.940 1.709 10307
-0.637 0.952 1.718 7339
-0.642 0.960 1.721 8043
-0.642 0.959 1.711 8021
-0.647 0.967 1.714 7285
-0.650 0.971 1.711 7310
-0.652 0.975 1.707 7905
-0.657 0.983 1.710 11408
-0.660 0.986 1.706 14817
-0.660 0.986 1.697 13834
-0.660 0.986 1.687 15152
-0.662 0.989 1.683 18343
-0.667 0.997 1.686 26097
-0.673 1.005 1.689 34732
-0.681 1.017 1.697 33710
-0.683 1.021 1.694 29332
-0.686 1.025 1.690 29016
-0.688 1.028 1.686 30311
-0.691 1.032 1.683 27846
-0.693 1.036 1.679 22412
-0.696 1.040 1.675 21117
-0.695 1.039 1.665 20171
-0.701 1.047 1.668 13083
-0.706 1.055 1.670 7047
-0.731 1.093 1.714 9379
-0.734 1.096 1.711 14354
-0.736 1.100 1.707 13310
-0.742 1.108 1.709 8508
-0.744 1.112 1.705 10781
-0.747 1.116 1.701 21669
-0.749 1.120 1.697 24964
-0.758 1.132 1.705 17184
-0.763 1.140 1.706 13060
-0.760 1.135 1.691 15796
-0.762 1.139 1.686 19264
-0.768 1.147 1.688 19319
-0.776 1.160 1.696 17393
-0.779 1.164 1.692 11885
-0.778 1.163 1.682 11530
-0.784 1.171 1.683 14063
-0.789 1.179 1.685 11335
-0.795 1.188 1.687 12476
-0.797 1.191 1.682 13863
-0.803 1.199 1.684 17627
-0.808 1.208 1.685 26025
-0.811 1.211 1.681 22203
-0.816 1.220 1.682 17406
-0.822 1.228 1.684 17850
-0.824 1.232 1.679 14401
-0.830 1.240 1.680 15178
-0.835 1.249 1.682 14935
-0.838 1.252 1.677 10762
-0.847 1.265 1.684 10475
-0.852 1.274 1.685 22088
-0.855 1.277 1.680 30350
-0.857 1.281 1.676 25919
-0.863 1.290 1.677 20933
-0.869 1.298 1.678 15653
-0.874 1.306 1.678 22018
-0.873 1.305 1.668 34909
-0.879 1.314 1.669 43061
-0.882 1.317 1.664 45746
-0.881 1.316 1.654 39286
-0.887 1.325 1.655 28369
-0.892 1.333 1.656 23151
-0.895 1.337 1.651 14720
-0.907 1.355 1.662 9281
-0.913 1.364 1.663 13275
-0.915 1.367 1.658 13253
-0.917 1.371 1.653 12386
-0.920 1.375 1.648 10198
-0.929 1.388 1.654 7752
-0.931 1.392 1.649 11316
-0.934 1.395 1.644 15307
-0.939 1.404 1.644 11882
-0.945 1.413 1.644 12381
-0.951 1.421 1.644 11882
-0.967 1.445 1.660 7744
-1.009 1.508 1.716 9698
-1.009 1.507 1.706 12728
-1.008 1.506 1.696 9806
-1.004 1.500 1.680 6839
-1.023 1.529 1.700 5782
-1.025 1.532 1.695 10957
-1.025 1.531 1.684 20313
-1.027 1.535 1.679 25027
-1.030 1.538 1.673 25516
-1.035 1.547 1.673 26920
-1.041 1.556 1.672 24997
-1.044 1.560 1.667 17488
-1.043 1.558 1.656 12740
-1.049 1.567 1.655 15632
-1.051 1.571 1.650 14445
-1.057 1.580 1.649 14687
-1.059 1.583 1.644 22872
-1.062 1.587 1.638 26371
-1.064 1.590 1.632 19432
-1.077 1.610 1.641 13466
-1.080 1.613 1.635 14755
-1.082 1.617 1.630 15472
-1.084 1.621 1.624 12589
-1.136 1.698 1.684 11447
-1.142 1.707 1.683 11197
-1.152 1.721 1.686 6038
-1.154 1.725 1.680 4861
-1.164 1.739 1.683 7838
-1.177 1.759 1.691 10933
-1.183 1.768 1.689 12508
-1.186 1.772 1.683 14111
-1.185 1.770 1.672 19554
-1.187 1.774 1.666 24468
-1.190 1.778 1.660 25602
-1.192 1.781 1.653 23391
-1.198 1.790 1.651 20339
-1.201 1.794 1.645 15409
-1.250 1.868 1.697 9709
-1.256 1.878 1.694 9141
-1.288 1.925 1.723 10859
-1.287 1.923 1.712 14261
-1.286 1.922 1.701 12503
-1.288 1.925 1.694 11087
-1.291 1.929 1.687 13247
-1.297 1.938 1.685 14518
-1.300 1.942 1.678 12877
-1.302 1.946 1.671 10881
-1.312 1.961 1.672 10590
-1.314 1.964 1.665 8747
-1.328 1.985 1.671 6573
-1.334 1.994 1.668 6946
-1.340 2.003 1.665 5870
-1.365 2.040 1.683 5975
-1.379 2.061 1.689 8339
-1.385 2.070 1.685 10373
-1.392 2.080 1.682 12329
-1.398 2.089 1.679 12741
-1.397 2.087 1.667 10023
-1.399 2.091 1.660 5583
-1.428 2.134 1.681 4775
-1.415 2.115 1.657 5329
-1.414 2.113 1.646 6831
-1.420 2.122 1.642 5947
-1.426 2.132 1.639 3945
-1.467 2.192 1.670 2837
-1.462 2.185 1.655 3313
-1.506 2.251 1.690 4140
-1.513 2.261 1.686 4693
-1.515 2.264 1.678 5162
-1.556 2.326 1.708 6441
-1.555 2.324 1.696 6735
-1.554 2.322 1.684 7254
-1.537 2.296 1.657 5565
-1.535 2.294 1.645 5094
-1.542 2.304 1.641 3659
-1.563 2.336 1.651 3689
-1.581 2.363 1.657 5026
-1.588 2.373 1.653 7373
-1.598 2.388 1.652 7806
-1.600 2.392 1.643 8450
-1.607 2.401 1.638 9730
-1.609 2.405 1.630 11013
-1.612 2.408 1.621 11449
-1.614 2.412 1.613 11885
-1.616 2.416 1.604 9749
-1.619 2.419 1.596 7614
-1.617 2.417 1.584 5512
-1.726 2.580 1.668 3890
-1.729 2.584 1.659 4324
-1.731 2.587 1.650 4769
-1.730 2.585 1.638 3336
-1.820 2.719 1.703 3444
-1.822 2.723 1.693 3370
-1.825 2.727 1.684 3296
-1.827 2.731 1.674 3296
-1.834 2.740 1.667 2612
-1.852 2.768 1.671 2263
-1.887 2.820 1.687 3131
-1.889 2.823 1.677 4707
-1.896 2.833 1.670 5831
-1.898 2.837 1.660 7020
-1.901 2.840 1.650 7020
-1.903 2.844 1.640 3510
-0.389 0.581 0.458 793
-0.366 0.549 1.674 12096
-0.370 0.556 1.679 14612
-0.373 0.560 1.677 17654
-0.377 0.566 1.682 17814
-0.381 0.572 1.687 18590
-0.384 0.576 1.685 18590
-0.384 0.577 1.676 17448
-0.385 0.578 1.667 16985
-0.386 0.579 1.657 14262
-0.388 0.583 1.655 11939
-0.390 0.586 1.653 9647
-0.397 0.596 1.665 8067
-0.399 0.599 1.663 7379
-0.402 0.603 1.661 6691
-0.406 0.610 1.666 6305
-0.409 0.613 1.664 5036
-0.409 0.614 1.654 4079
-0.413 0.621 1.659 4603
-0.416 0.624 1.657 5152
-0.418 0.628 1.655 5354
-0.421 0.632 1.652 5557
-0.427 0.641 1.664 5597
-0.436 0.654 1.683 6819
-0.436 0.655 1.674 9228
-0.439 0.659 1.671 11679
-0.439 0.659 1.662 12026
-0.439 0.660 1.652 12963
-0.442 0.663 1.650 13254
-0.444 0.667 1.648 12586
-0.449 0.674 1.652 11886
-0.451 0.678 1.650 10079
-0.456 0.684 1.654 8049
-0.460 0.691 1.659 12243
-0.463 0.695 1.656 16783
-0.468 0.702 1.661 18520
-0.472 0.709 1.665 20983
-0.475 0.713 1.662 20657
-0.477 0.716 1.660 20487
-0.479 0.720 1.657 20777
-0.484 0.727 1.661 19014
-0.489 0.734 1.666 17851
-0.491 0.738 1.663 16098
-0.494 0.741 1.660 15131
-0.494 0.742 1.651 15234
-0.496 0.745 1.648 14345
-0.499 0.749 1.645 14321
-0.499 0.749 1.636 11657
-0.501 0.753 1.633 5958
-0.527 0.791 1.698 4525
-0.530 0.795 1.695 4209
-0.527 0.792 1.679 6127
-0.530 0.795 1.676 8179
-0.532 0.799 1.673 8376
-0.535 0.803 1.670 7655
-0.547 0.821 1.694 7573
-0.552 0.828 1.697 6983
-0.561 0.843 1.714 9263
-0.564 0.847 1.711 11313
-0.567 0.851 1.708 13446
-0.569 0.854 1.705 20809
-0.572 0.858 1.702 25172
-0.574 0.862 1.699 23576
-0.577 0.866 1.696 19188
-0.584 0.877 1.706 17775
-0.589 0.884 1.709 19892
-0.589 0.884 1.699 19542
-0.594 0.892 1.703 14233
-0.592 0.888 1.687 6954
-0.594 0.892 1.683 5843
-0.604 0.907 1.700 6015
-0.612 0.919 1.709 6626
-0.614 0.922 1.706 10620
-0.617 0.926 1.703 14868
-0.619 0.930 1.699 15083
-0.625 0.938 1.702 10034
-0.635 0.953 1.718 6944
-0.640 0.961 1.721 8039
-0.640 0.961 1.711 7582
-0.645 0.969 1.714 6049
-0.650 0.976 1.717 5221
-0.653 0.980 1.713 5476
-0.655 0.984 1.710 10124
-0.655 0.984 1.700 15088
-0.658 0.987 1.697 15168
-0.658 0.987 1.687 17131
-0.660 0.991 1.683 19525
-0.668 1.003 1.692 26455
-0.673 1.011 1.695 36238
-0.678 1.019 1.697 36442
-0.681 1.022 1.694 32261
-0.683 1.026 1.690 31988
-0.686 1.030 1.686 33101
-0.688 1.034 1.683 29661
-0.691 1.037 1.679 23602
-0.693 1.041 1.675 22632
-0.696 1.045 1.671 23087
-0.698 1.048 1.668 17253
-0.701 1.052 1.664 9523
-0.729 1.094 1.714 9177
-0.731 1.098 1.711 15474
-0.734 1.102 1.707 14873
-0.739 1.110 1.709 9676
-0.742 1.114 1.705 11343
-0.744 1.118 1.701 21091
-0.747 1.121 1.697 24536
-0.755 1.134 1.705 17039
-0.758 1.138 1.700 12237
-0.757 1.137 1.691 15868
-0.760 1.141 1.686 19510
-0.765 1.149 1.688 17744
-0.771 1.157 1.690 14116
-0.773 1.161 1.686 10250
-0.776 1.165 1.682 14005
-0.781 1.173 1.683 20295
-0.787 1.181 1.685 17041
-0.792 1.189 1.687 16881
-0.795 1.193 1.682 18369
-0.800 1.201 1.684 18978
-0.806 1.209 1.685 24952
-0.808 1.213 1.681 21228
-0.814 1.222 1.682 18164
-0.819 1.230 1.684 21221
-0.822 1.234 1.679 18137
-0.827 1.242 1.680 17766
-0.833 1.250 1.682 15943
-0.835 1.254 1.677 11746
-0.841 1.262 1.678 12829
-0.846 1.271 1.679 25091
-0.852 1.279 1.680 36401
-0.855 1.283 1.676 31860
-0.860 1.291 1.677 23756
-0.863 1.295 1.672 18629
-0.868 1.304 1.673 24384
-0.871 1.307 1.668 35435
-0.876 1.316 1.669 37438
-0.876 1.315 1.659 35102
-0.878 1.318 1.654 29411
-0.887 1.332 1.660 18930
-0.896 1.345 1.666 13803
-0.898 1.349 1.662 14872
-0.901 1.352 1.657 14458
-0.906 1.361 1.657 12900
-0.915 1.374 1.663 11244
-0.921 1.383 1.664 10117
-0.930 1.396 1.669 9249
-0.932 1.400 1.664 9827
-0.928 1.394 1.649 14916
-0.934 1.402 1.649 16095
-0.940 1.411 1.649 10937
-0.946 1.420 1.649 12766
-0.948 1.423 1.644 12572
-0.990 1.487 1.701 10191
-1.000 1.501 1.706 10339
-1.005 1.509 1.706 11892
-1.005 1.508 1.696 11635
-1.007 1.512 1.690 10700
-1.016 1.526 1.695 12488
-1.022 1.535 1.695 14573
-1.021 1.533 1.684 21671
-1.024 1.537 1.679 28373
-1.030 1.546 1.678 28536
-1.032 1.549 1.673 28467
-1.038 1.558 1.672 25775
-1.040 1.562 1.667 17986
-1.039 1.561 1.656 14514
-1.042 1.564 1.651 18537
-1.044 1.568 1.645 17415
-1.050 1.577 1.644 15518
-1.053 1.580 1.639 19522
-1.055 1.584 1.633 20316
-1.057 1.588 1.627 14783
-1.067 1.602 1.631 9888
-1.076 1.616 1.635 10789
-1.079 1.619 1.630 10839
-1.081 1.623 1.624 8023
-1.133 1.700 1.684 13035
-1.135 1.704 1.678 12503
-1.148 1.724 1.686 6680
-1.108 1.664 1.624 5645
-1.164 1.747 1.688 7538
-1.173 1.762 1.691 12066
-1.179 1.771 1.689 14552
-1.182 1.775 1.683 16406
-1.181 1.773 1.672 20643
-1.183 1.777 1.666 23850
-1.186 1.780 1.660 24827
-1.188 1.784 1.653 23357
-1.194 1.793 1.651 20848
-1.197 1.797 1.645 16902
-1.199 1.800 1.639 11758
-1.252 1.880 1.694 8764
-1.284 1.928 1.723 11645
-1.283 1.926 1.712 14790
-1.285 1.930 1.705 12809
-1.284 1.928 1.694 9954
-1.287 1.932 1.687 10799
-1.293 1.941 1.685 12203
-1.295 1.945 1.678 11122
-1.305 1.960 1.679 10441
-1.311 1.969 1.677 11583
-1.314 1.973 1.670 9621
-1.320 1.982 1.667 6895
-1.323 1.986 1.660 6287
-1.329 1.995 1.657 5202
-1.361 2.043 1.683 6197
-1.371 2.058 1.684 9036
-1.381 2.073 1.685 10999
-1.387 2.083 1.682 13090
-1.390 2.086 1.675 13197
-1.392 2.090 1.667 10244
-1.395 2.094 1.660 5551
-1.420 2.131 1.677 4717
-1.407 2.112 1.653 5304
-1.409 2.116 1.646 6518
-1.412 2.120 1.638 5309
-1.422 2.135 1.639 3347
-1.447 2.173 1.655 2885
-1.453 2.182 1.651 3533
-1.498 2.249 1.686 4292
-1.508 2.264 1.686 4133
-1.541 2.314 1.708 4474
-1.547 2.323 1.704 6984
-1.546 2.321 1.692 7574
-1.545 2.319 1.680 8290
-1.536 2.305 1.661 6256
-1.530 2.298 1.645 5472
-1.537 2.307 1.641 3967
-1.558 2.340 1.651 3990
-1.569 2.355 1.650 5234
-1.583 2.376 1.653 7182
-1.593 2.392 1.652 7818
-1.595 2.395 1.643 8638
-1.602 2.405 1.638 9460
-1.604 2.408 1.630 10292
-1.606 2.412 1.621 10729
-1.609 2.415 1.613 11166
-1.611 2.419 1.604 9099
-1.614 2.422 1.596 7032
-1.612 2.420 1.584 5258
-1.721 2.584 1.668 5109
-1.723 2.587 1.659 5371
-1.730 2.597 1.654 5732
-1.732 2.600 1.644 4039
-1.818 2.729 1.706 3451
-1.812 2.721 1.690 3371
-1.803 2.707 1.670 3648
-1.805 2.711 1.661 3648
-1.808 2.714 1.651 3449
-1.810 2.718 1.641 3251
-1.881 2.824 1.687 3586
-1.883 2.827 1.677 5283
-1.890 2.837 1.670 6433
-1.892 2.841 1.660 7741
-1.895 2.844 1.650 7741
-1.897 2.848 1.640 3870
-0.387 0.582 0.458 1171
-0.364 0.551 1.674 11450
-0.368 0.557 1.679 14017
-0.371 0.561 1.677 17059
-0.375 0.567 1.682 17885
-0.379 0.574 1.687 19021
-0.382 0.578 1.685 19021
-0.382 0.579 1.676 18011
-0.383 0.579 1.667 17480
-0.383 0.580 1.657 14760
-0.386 0.584 1.655 12464
-0.390 0.591 1.660 10136
-0.395 0.597 1.665 8450
-0.397 0.601 1.663 7756
-0.399 0.604 1.661 7062
-0.402 0.608 1.659 6630
-0.404 0.612 1.657 5381
-0.407 0.615 1.654 4565
-0.411 0.622 1.659 5027
-0.414 0.626 1.657 5590
-0.416 0.630 1.655 5904
-0.418 0.633 1.652 6219
-0.425 0.643 1.664 6314
-0.431 0.653 1.676 7484
-0.434 0.657 1.674 9694
-0.436 0.660 1.671 11903
-0.437 0.661 1.662 11609
-0.437 0.661 1.652 11841
-0.439 0.665 1.650 11742
-0.442 0.669 1.648 10919
-0.446 0.676 1.652 10587
-0.449 0.679 1.650 9392
-0.453 0.686 1.654 7794
-0.458 0.693 1.659 11637
-0.460 0.697 1.656 15729
-0.465 0.704 1.661 17630
-0.470 0.711 1.665 20197
-0.472 0.714 1.662 20226
-0.474 0.718 1.660 20319
-0.477 0.722 1.657 20399
-0.482 0.729 1.661 17889
-0.486 0.736 1.666 16211
-0.489 0.739 1.663 14386
-0.491 0.743 1.660 13552
-0.491 0.743 1.651 13952
-0.494 0.747 1.648 13189
-0.496 0.751 1.645 13185
-0.496 0.751 1.636 10454
-0.496 0.751 1.627 4971
-0.522 0.790 1.691 3483
-0.524 0.793 1.688 3504
-0.515 0.779 1.652 5908
-0.525 0.794 1.669 7672
-0.529 0.801 1.673 7349
-0.539 0.816 1.690 6495
-0.544 0.823 1.694 7508
-0.551 0.834 1.704 7312
-0.558 0.845 1.714 8850
-0.561 0.849 1.711 10007
-0.563 0.853 1.708 12724
-0.566 0.856 1.705 20767
-0.568 0.860 1.702 25400
-0.571 0.864 1.699 24160
-0.573 0.868 1.696 20316
-0.581 0.879 1.706 19124
-0.583 0.883 1.703 20877
-0.586 0.887 1.699 20482
-0.588 0.890 1.696 15123
-0.586 0.886 1.680 8001
-0.591 0.894 1.683 6653
-0.601 0.909 1.700 6782
-0.609 0.921 1.709 8038
-0.611 0.925 1.706 12642
-0.611 0.925 1.696 16157
-0.613 0.928 1.693 14879
-0.619 0.936 1.696 10084
-0.629 0.952 1.712 7050
-0.637 0.963 1.721 7997
-0.639 0.967 1.717 6939
-0.642 0.971 1.714 5180
-0.647 0.979 1.717 3909
-0.652 0.987 1.720 3675
-0.649 0.982 1.704 8182
-0.649 0.982 1.694 13799
-0.651 0.986 1.690 14936
-0.654 0.990 1.687 17546
-0.656 0.993 1.683 18904
-0.664 1.005 1.692 24692
-0.670 1.013 1.695 34845
-0.675 1.021 1.697 35959
-0.677 1.025 1.694 31942
-0.680 1.029 1.690 31377
-0.682 1.032 1.686 32057
-0.682 1.032 1.676 27990
-0.687 1.040 1.679 22474
-0.690 1.044 1.675 22214
-0.692 1.047 1.671 22942
-0.694 1.051 1.668 17992
-0.697 1.055 1.664 10644
-0.722 1.093 1.708 8413
-0.725 1.096 1.705 15386
-0.727 1.100 1.701 15422
-0.735 1.113 1.709 10153
-0.738 1.116 1.705 10848
-0.740 1.120 1.701 19130
-0.743 1.124 1.697 22925
-0.751 1.137 1.705 16063
-0.754 1.140 1.700 11198
-0.750 1.135 1.685 15221
-0.756 1.143 1.686 18445
-0.761 1.152 1.688 15810
-0.764 1.155 1.684 11514
-0.763 1.155 1.674 9074
-0.771 1.167 1.682 15036
-0.777 1.176 1.683 23730
-0.782 1.184 1.685 20949
-0.788 1.192 1.687 19218
-0.790 1.196 1.682 19777
-0.796 1.204 1.684 18088
-0.801 1.212 1.685 21657
-0.804 1.216 1.681 18741
-0.809 1.224 1.682 16863
-0.815 1.233 1.684 22040
-0.820 1.241 1.685 20529
-0.823 1.245 1.680 19474
-0.828 1.253 1.682 16332
-0.831 1.257 1.677 11336
-0.836 1.265 1.678 13080
-0.842 1.274 1.679 25659
-0.844 1.278 1.675 38706
-0.850 1.286 1.676 34514
-0.852 1.290 1.671 23624
-0.858 1.298 1.672 18401
-0.863 1.307 1.673 23307
-0.866 1.310 1.668 31296
-0.868 1.314 1.664 30808
-0.871 1.318 1.659 28992
-0.873 1.321 1.654 26943
-0.879 1.330 1.655 18406
-0.894 1.353 1.672 12735
-0.893 1.352 1.662 15169
-0.893 1.351 1.651 17062
-0.901 1.364 1.657 11742
-0.910 1.377 1.663 9065
-0.922 1.396 1.674 9607
-0.928 1.405 1.674 10489
-0.927 1.403 1.664 12198
-0.927 1.402 1.654 16904
-0.929 1.406 1.649 16255
-0.935 1.414 1.649 11061
-0.940 1.423 1.649 12840
-0.946 1.432 1.650 12474
-0.982 1.485 1.696 13382
-0.987 1.494 1.696 12407
-0.997 1.508 1.701 11969
-0.999 1.512 1.696 13026
-1.002 1.516 1.690 13967
-1.007 1.524 1.690 17422
-1.013 1.533 1.689 17520
-1.016 1.537 1.684 21777
-1.018 1.541 1.679 28145
-1.024 1.550 1.678 28945
-1.030 1.558 1.678 28602
-1.032 1.562 1.672 26223
-1.031 1.561 1.662 18927
-1.034 1.564 1.656 14993
-1.036 1.568 1.651 18285
-1.039 1.572 1.645 17633
-1.041 1.575 1.639 15559
-1.047 1.584 1.639 17338
-1.049 1.588 1.633 15859
-1.048 1.586 1.623 12568
-1.057 1.600 1.627 9430
-1.067 1.614 1.630 9843
-1.073 1.623 1.630 8977
-1.124 1.701 1.690 7381
-1.126 1.705 1.684 13981
-1.129 1.708 1.678 13069
-1.135 1.717 1.677 7454
-1.102 1.668 1.624 6199
-1.104 1.671 1.618 8187
-1.167 1.766 1.691 12723
-1.173 1.775 1.689 15403
-1.176 1.779 1.683 16958
-1.174 1.777 1.672 19761
-1.177 1.781 1.666 21708
-1.183 1.790 1.664 22830
-1.182 1.788 1.653 21951
-1.188 1.797 1.651 19756
-1.190 1.801 1.645 16416
-1.193 1.805 1.639 12021
-1.206 1.825 1.646 8714
-1.277 1.932 1.723 11239
-1.280 1.936 1.716 14011
-1.278 1.935 1.705 12018
-1.259 1.905 1.672 8510
-1.280 1.937 1.687 8477
-1.286 1.946 1.685 9900
-1.288 1.950 1.678 9494
-1.298 1.964 1.679 10105
-1.308 1.979 1.681 11916
-1.310 1.983 1.674 10132
-1.313 1.987 1.667 7209
-1.315 1.990 1.660 6070
-1.318 1.994 1.653 4831
-1.354 2.048 1.683 6465
-1.363 2.063 1.684 9294
-1.373 2.078 1.685 10871
-1.380 2.088 1.682 12975
-1.382 2.091 1.675 13039
-1.384 2.095 1.667 9978
-1.387 2.099 1.660 5390
-1.408 2.131 1.673 4523
-1.399 2.117 1.653 5167
-1.402 2.121 1.646 6090
-1.404 2.125 1.638 4783
-1.414 2.140 1.639 2855
-1.439 2.178 1.655 2930
-1.445 2.187 1.651 3492
-1.490 2.254 1.686 4602
-1.496 2.264 1.682 4113
-1.529 2.313 1.705 4921
-1.535 2.323 1.700 7206
-1.538 2.327 1.692 7855
-1.536 2.325 1.680 8652
-1.531 2.317 1.664 6429
-1.522 2.303 1.645 5389
-1.528 2.313 1.641 3914
-1.554 2.351 1.655 3973
-1.564 2.367 1.654 5060
-1.574 2.382 1.653 6530
-1.584 2.397 1.652 7205
-1.587 2.401 1.643 8023
-1.593 2.410 1.638 8371
-1.595 2.414 1.630 8765
-1.598 2.418 1.621 9273
-1.600 2.421 1.613 9781
-1.602 2.425 1.604 7995
-1.601 2.422 1.592 6219
-1.603 2.426 1.584 4754
-1.711 2.590 1.668 5659
-1.718 2.599 1.663 5788
-1.720 2.603 1.654 6066
-1.727 2.613 1.648 4365
-1.765 2.670 1.669 3601
-1.787 2.704 1.676 3611
-1.789 2.707 1.667 4133
-1.792 2.711 1.657 4133
-1.794 2.715 1.648 4024
-1.808 2.736 1.648 4070
-1.866 2.824 1.684 3615
-1.869 2.828 1.674 5242
-1.879 2.844 1.670 6141
-1.882 2.848 1.660 7237
-1.884 2.851 1.650 7237
-1.887 2.855 1.640 3618
-0.389 0.589 0.461 1384
-0.363 0.552 1.674 11088
-0.367 0.558 1.679 13802
-0.369 0.562 1.677 16962
-0.374 0.568 1.682 18235
-0.378 0.575 1.687 19650
-0.380 0.578 1.685 19650
-0.381 0.579 1.676 18743
-0.382 0.580 1.667 18215
-0.384 0.584 1.665 15346
-0.385 0.585 1.655 12894
-0.389 0.591 1.660 10508
-0.393 0.598 1.665 8723
-0.396 0.602 1.663 8118
-0.398 0.605 1.661 7514
-0.401 0.609 1.659 7046
-0.403 0.613 1.657 5842
-0.405 0.616 1.654 5106
-0.410 0.623 1.659 5489
-0.412 0.627 1.657 6055
-0.417 0.633 1.662 6404
-0.419 0.637 1.659 6789
-0.424 0.644 1.664 6964
-0.430 0.654 1.676 8111
-0.432 0.657 1.674 10094
-0.435 0.661 1.671 12077
-0.435 0.662 1.662 11299
-0.436 0.662 1.652 11046
-0.438 0.666 1.650 10651
-0.440 0.670 1.648 9709
-0.445 0.676 1.652 9695
-0.449 0.683 1.657 8938
-0.452 0.687 1.654 7637
-0.456 0.694 1.659 11229
-0.459 0.698 1.656 14954
-0.463 0.705 1.661 17140
-0.468 0.712 1.665 19870
-0.470 0.715 1.662 20038
-0.473 0.719 1.660 20110
-0.475 0.723 1.657 19890
-0.480 0.730 1.661 16802
-0.485 0.737 1.666 14751
-0.487 0.740 1.663 12920
-0.489 0.744 1.660 12122
-0.490 0.744 1.651 12561
-0.492 0.748 1.648 11982
-0.494 0.752 1.645 12122
-0.497 0.755 1.643 9364
-0.497 0.756 1.633 4121
-0.520 0.791 1.691 3047
-0.520 0.791 1.681 3312
-0.516 0.784 1.659 5592
-0.523 0.795 1.669 7112
-0.525 0.799 1.666 6461
-0.540 0.820 1.697 6207
-0.544 0.828 1.700 7674
-0.552 0.839 1.711 7942
-0.559 0.850 1.721 8859
-0.559 0.850 1.711 9284
-0.562 0.854 1.708 12503
-0.564 0.858 1.705 20955
-0.567 0.861 1.702 25377
-0.572 0.869 1.705 24177
-0.574 0.873 1.702 21256
-0.579 0.880 1.706 20734
-0.581 0.884 1.703 22127
-0.584 0.888 1.699 21445
-0.586 0.892 1.696 16014
-0.584 0.888 1.680 8932
-0.589 0.895 1.683 7154
-0.601 0.914 1.706 7323
-0.607 0.922 1.709 9050
-0.609 0.926 1.706 13909
-0.609 0.926 1.696 16852
-0.611 0.930 1.693 14906
-0.614 0.933 1.690 10815
-0.622 0.945 1.699 8004
-0.634 0.965 1.721 8322
-0.637 0.968 1.717 7060
-0.637 0.968 1.708 5089
-0.645 0.980 1.717 3199
-0.650 0.988 1.720 2448
-0.639 0.972 1.685 7651
-0.644 0.979 1.688 13078
-0.649 0.987 1.690 14827
-0.652 0.991 1.687 18113
-0.654 0.995 1.683 18569
-0.662 1.007 1.692 23138
-0.667 1.015 1.695 33258
-0.673 1.022 1.697 34837
-0.675 1.026 1.694 30979
-0.678 1.030 1.690 30298
-0.680 1.034 1.686 30368
-0.680 1.033 1.676 25823
-0.685 1.041 1.679 20547
-0.687 1.045 1.675 20665
-0.690 1.049 1.671 21713
-0.692 1.052 1.668 17546
-0.695 1.056 1.664 10734
-0.720 1.094 1.708 7899
-0.722 1.098 1.705 15362
-0.725 1.102 1.701 15983
-0.730 1.110 1.703 10954
-0.735 1.118 1.705 10313
-0.738 1.122 1.701 16878
-0.740 1.126 1.697 21086
-0.746 1.134 1.699 15207
-0.748 1.138 1.695 10446
-0.748 1.137 1.685 14663
-0.753 1.145 1.686 17446
-0.759 1.153 1.688 14256
-0.758 1.153 1.678 9692
-0.761 1.156 1.674 8802
-0.766 1.164 1.676 16148
-0.774 1.177 1.683 26219
-0.780 1.185 1.685 24229
-0.785 1.194 1.687 21372
-0.788 1.198 1.682 20682
-0.793 1.206 1.684 16538
-0.799 1.214 1.685 17741
-0.801 1.218 1.681 15863
-0.807 1.226 1.682 15011
-0.812 1.235 1.684 22384
-0.815 1.238 1.679 22964
-0.820 1.247 1.680 20833
-0.826 1.255 1.682 16173
-0.825 1.254 1.671 9788
-0.830 1.263 1.673 11168
-0.839 1.276 1.679 24583
-0.842 1.279 1.675 38971
-0.847 1.288 1.676 34745
-0.850 1.292 1.671 23538
-0.855 1.300 1.672 18841
-0.861 1.309 1.673 22789
-0.863 1.312 1.668 28262
-0.866 1.316 1.664 26804
-0.868 1.320 1.659 28060
-0.870 1.323 1.654 28779
-0.876 1.332 1.655 21110
-0.885 1.345 1.661 14539
-0.887 1.349 1.656 16326
-0.890 1.353 1.651 19203
-0.889 1.351 1.641 12540
-0.914 1.389 1.674 7923
-0.919 1.398 1.674 10633
-0.925 1.407 1.674 12557
-0.924 1.405 1.664 14222
-0.924 1.404 1.654 17588
-0.926 1.408 1.649 16018
-0.935 1.421 1.654 11655
-0.941 1.430 1.655 12854
-0.950 1.444 1.660 12756
-0.978 1.487 1.696 16246
-0.981 1.491 1.691 15322
-0.990 1.505 1.696 12921
-0.992 1.509 1.690 13810
-0.998 1.518 1.690 15989
-1.004 1.527 1.690 20887
-1.007 1.530 1.684 20344
-1.012 1.539 1.684 21739
-1.015 1.543 1.679 26981
-1.021 1.552 1.678 28376
-1.026 1.561 1.678 28344
-1.029 1.564 1.672 26838
-1.028 1.563 1.662 20758
-1.030 1.567 1.656 15418
-1.033 1.570 1.651 17203
-1.035 1.574 1.645 16993
-1.041 1.583 1.644 15274
-1.043 1.586 1.639 15700
-1.046 1.590 1.633 13095
-1.045 1.588 1.623 11180
-1.054 1.602 1.627 9851
-1.063 1.617 1.630 9979
-1.069 1.625 1.630 8520
-1.120 1.703 1.690 8457
-1.123 1.707 1.684 14966
-1.122 1.705 1.673 13687
-1.131 1.720 1.677 8286
-1.099 1.670 1.624 6449
-1.101 1.674 1.618 8573
-1.163 1.768 1.691 13456
-1.166 1.772 1.685 16351
-1.168 1.776 1.678 17487
-1.171 1.780 1.672 19054
-1.173 1.783 1.666 20118
-1.179 1.793 1.664 21474
-1.178 1.791 1.653 20967
-1.184 1.800 1.651 18915
-1.186 1.804 1.645 15854
-1.232 1.873 1.692 12076
-1.209 1.838 1.654 9046
-1.273 1.935 1.723 11037
-1.275 1.939 1.716 13524
-1.278 1.943 1.709 11474
-1.248 1.897 1.663 8026
-1.246 1.895 1.652 7800
-1.285 1.954 1.689 8166
-1.288 1.958 1.682 8463
-1.298 1.973 1.684 10310
-1.304 1.982 1.681 12433
-1.306 1.986 1.674 10798
-1.309 1.989 1.667 7622
-1.311 1.993 1.660 6081
-1.313 1.997 1.653 4656
-1.349 2.051 1.683 6940
-1.355 2.060 1.680 9655
-1.369 2.081 1.685 10606
-1.375 2.090 1.682 12564
-1.378 2.094 1.675 12581
-1.380 2.098 1.667 9499
-1.382 2.102 1.660 5321
-1.400 2.128 1.669 4627
-1.395 2.120 1.653 5259
-1.393 2.118 1.642 5929
-1.396 2.122 1.634 4554
-1.458 2.217 1.690 2972
-1.495 2.273 1.718 3130
-1.490 2.265 1.702 4009
-1.489 2.263 1.690 5126
-1.487 2.261 1.678 4441
-1.524 2.317 1.705 5316
-1.530 2.326 1.700 7453
-1.529 2.324 1.688 8072
-1.531 2.328 1.680 8874
-1.530 2.326 1.668 6507
-1.517 2.306 1.645 5200
-1.542 2.345 1.659 3822
-1.553 2.360 1.658 3987
-1.563 2.376 1.657 4907
-1.569 2.385 1.653 5964
-1.575 2.395 1.648 6655
-1.581 2.404 1.643 7444
-1.588 2.414 1.638 7244
-1.590 2.417 1.630 7150
-1.593 2.421 1.621 7768
-1.595 2.425 1.613 8387
-1.597 2.428 1.604 6949
-1.596 2.426 1.592 5531
-1.700 2.584 1.674 4736
-1.706 2.593 1.668 6213
-1.712 2.603 1.663 6273
-1.719 2.613 1.657 6504
-1.725 2.622 1.651 4736
-1.759 2.674 1.669 4201
-1.777 2.702 1.673 3909
-1.783 2.711 1.667 4465
-1.786 2.715 1.657 4465
-1.788 2.719 1.648 4407
-1.802 2.740 1.648 4733
-1.809 2.750 1.642 3849
-1.863 2.832 1.674 5077
-1.873 2.848 1.670 5635
-1.876 2.852 1.660 6446
-1.878 2.855 1.650 6446
-1.881 2.859 1.640 3223
-0.388 0.590 0.461 1481
-0.362 0.552 1.674 10721
-0.366 0.559 1.679 13704
-0.368 0.562 1.677 17106
-0.373 0.569 1.682 18874
-0.375 0.573 1.680 20644
-0.378 0.576 1.678 20644
-0.380 0.580 1.676 19853
-0.381 0.581 1.667 19364
-0.383 0.585 1.665 16299
-0.384 0.586 1.655 13597
-0.388 0.592 1.660 11128
-0.392 0.599 1.665 9203
-0.395 0.602 1.663 8574
-0.397 0.606 1.661 7944
-0.399 0.610 1.659 7423
-0.402 0.613 1.657 6252
-0.404 0.617 1.654 5602
-0.409 0.624 1.659 5960
-0.413 0.631 1.664 6581
-0.415 0.634 1.662 7122
-0.418 0.638 1.659 7663
-0.422 0.645 1.664 7742
-0.429 0.655 1.676 8710
-0.431 0.658 1.674 10366
-0.436 0.665 1.678 12099
-0.436 0.666 1.669 10900
-0.436 0.666 1.659 10172
-0.437 0.667 1.650 9568
-0.439 0.670 1.648 8589
-0.444 0.677 1.652 8966
-0.448 0.684 1.657 8810
-0.451 0.688 1.654 7710
-0.455 0.695 1.659 11056
-0.460 0.702 1.663 14464
-0.462 0.705 1.661 16800
-0.467 0.712 1.665 19585
-0.469 0.716 1.662 19720
-0.471 0.720 1.660 19615
-0.474 0.724 1.657 19122
-0.479 0.731 1.661 15678
-0.483 0.738 1.666 13384
-0.486 0.741 1.663 11612
-0.488 0.745 1.660 10791
-0.488 0.745 1.651 11081
-0.491 0.749 1.648 10570
-0.493 0.753 1.645 10793
-0.493 0.753 1.636 8337
-0.495 0.756 1.633 3907
-0.516 0.788 1.684 3470
-0.516 0.788 1.675 3694
-0.517 0.789 1.665 5120
-0.524 0.799 1.676 6168
-0.531 0.810 1.686 5313
-0.538 0.821 1.697 5882
-0.545 0.832 1.707 7715
-0.552 0.843 1.717 8552
-0.557 0.851 1.721 9003
-0.560 0.855 1.718 8820
-0.560 0.855 1.708 12421
-0.562 0.859 1.705 21139
-0.567 0.866 1.709 25487
-0.570 0.870 1.705 24418
-0.572 0.874 1.702 22206
-0.577 0.881 1.706 22436
-0.580 0.885 1.703 23515
-0.582 0.889 1.699 22520
-0.585 0.893 1.696 16933
-0.582 0.889 1.680 9818
-0.587 0.896 1.683 7725
-0.600 0.916 1.706 7924
-0.605 0.923 1.709 10043
-0.607 0.927 1.706 15154
-0.607 0.927 1.696 17614
-0.610 0.931 1.693 15077
-0.612 0.935 1.690 11511
-0.620 0.946 1.699 9333
-0.630 0.962 1.715 8994
-0.635 0.970 1.717 7564
-0.635 0.970 1.708 5317
-0.638 0.973 1.704 3327
-0.629 0.961 1.676 3262
-0.635 0.969 1.678 8195
-0.640 0.977 1.681 12889
-0.645 0.984 1.684 15111
-0.650 0.992 1.687 19147
-0.652 0.996 1.683 18475
-0.660 1.008 1.692 21147
-0.665 1.016 1.695 31162
-0.671 1.024 1.697 33321
-0.673 1.028 1.694 29261
-0.675 1.031 1.690 27778
-0.678 1.035 1.686 27349
-0.678 1.035 1.676 22916
-0.683 1.043 1.679 18180
-0.685 1.046 1.675 18843
-0.688 1.050 1.671 20050
-0.690 1.054 1.668 16773
-0.693 1.057 1.664 11053
-0.715 1.091 1.702 7506
-0.720 1.099 1.705 15124
-0.723 1.103 1.701 16362
-0.728 1.111 1.703 11688
-0.733 1.119 1.705 9788
-0.733 1.119 1.695 14470
-0.738 1.127 1.697 18738
-0.744 1.135 1.699 14093
-0.743 1.135 1.689 9876
-0.743 1.134 1.679 14113
-0.748 1.142 1.681 16733
-0.753 1.150 1.682 13381
-0.756 1.154 1.678 8670
-0.755 1.153 1.668 9310
-0.764 1.166 1.676 17502
-0.772 1.179 1.683 28496
-0.777 1.187 1.685 27777
-0.783 1.195 1.687 23629
-0.785 1.199 1.682 21575
-0.791 1.207 1.684 14830
-0.796 1.216 1.685 13248
-0.802 1.224 1.687 12634
-0.804 1.228 1.682 12439
-0.810 1.236 1.684 21740
-0.812 1.240 1.679 25387
-0.818 1.248 1.680 22668
-0.823 1.257 1.682 16215
-0.822 1.256 1.671 8111
-0.831 1.269 1.678 9850
-0.837 1.277 1.679 23456
-0.839 1.281 1.675 37189
-0.841 1.285 1.670 32954
-0.847 1.293 1.671 21839
