0.093 1.348 1.683 15337
0.093 1.352 1.679 17170
0.093 1.351 1.669 16916
0.093 1.356 1.665 12448
0.094 1.360 1.661 9955
0.094 1.365 1.657 13215
0.094 1.369 1.653 11245
0.094 1.368 1.643 7712
0.095 1.372 1.639 12904
0.095 1.377 1.635 19411
0.095 1.381 1.631 21595
0.095 1.385 1.626 20021
0.096 1.395 1.628 19046
0.096 1.394 1.618 17474
0.097 1.404 1.620 23529
0.097 1.413 1.621 29473
0.098 1.423 1.623 22793
0.098 1.428 1.618 15045
0.104 1.504 1.687 16715
0.105 1.520 1.694 18726
0.106 1.541 1.706 20349
0.106 1.540 1.696 20521
0.106 1.545 1.691 18282
0.108 1.560 1.698 21890
0.109 1.576 1.704 34220
0.110 1.592 1.711 44689
0.110 1.597 1.706 54627
0.110 1.601 1.701 51680
0.111 1.606 1.696 35276
0.111 1.616 1.697 20551
0.112 1.626 1.698 14581
0.113 1.637 1.698 13240
0.113 1.647 1.699 15716
0.114 1.651 1.694 14821
0.115 1.667 1.700 11864
0.115 1.672 1.695 12773
0.116 1.682 1.695 17470
0.117 1.693 1.695 25742
0.117 1.697 1.690 30012
0.117 1.702 1.685 25182
0.118 1.712 1.685 11662
0.120 1.734 1.696 7954
0.120 1.745 1.696 15984
0.121 1.755 1.696 19501
0.123 1.778 1.706 22825
0.123 1.788 1.706 30912
0.124 1.793 1.701 30811
0.124 1.797 1.696 19368
0.123 1.790 1.680 10912
0.123 1.788 1.670 12870
0.124 1.799 1.670 15329
0.125 1.809 1.669 14930
0.124 1.795 1.649 11816
0.129 1.867 1.699 9545
0.129 1.871 1.693 20242
0.129 1.876 1.688 28012
0.130 1.886 1.687 26007
0.130 1.891 1.681 17314
0.133 1.932 1.705 11234
0.134 1.943 1.705 19854
0.135 1.954 1.704 18601
0.135 1.965 1.703 12605
0.136 1.969 1.697 10332
0.136 1.974 1.691 12139
0.137 1.984 1.690 15755
0.138 1.995 1.689 19573
0.138 2.006 1.688 19360
0.139 2.023 1.691 16647
0.141 2.040 1.695 19907
0.140 2.038 1.684 19144
0.141 2.049 1.683 16876
0.142 2.054 1.677 20210
0.141 2.052 1.666 22759
0.142 2.056 1.660 23642
0.142 2.060 1.654 23640
0.142 2.065 1.648 22900
0.143 2.069 1.642 23107
0.143 2.074 1.636 23132
0.143 2.078 1.629 22029
0.143 2.082 1.623 18385
0.144 2.086 1.617 15943
0.144 2.091 1.611 12264
0.152 2.199 1.676 9793
0.153 2.217 1.679 9636
0.156 2.267 1.703 13282
0.157 2.278 1.701 13229
0.158 2.289 1.699 10705
0.158 2.294 1.692 12127
0.159 2.305 1.690 12554
0.161 2.329 1.696 15542
0.161 2.333 1.689 18004
0.162 2.351 1.691 16997
0.163 2.362 1.688 16501
0.163 2.367 1.681 15903
0.163 2.371 1.674 12351
0.164 2.376 1.667 9714
0.164 2.380 1.660 10629
0.165 2.391 1.657 10839
0.166 2.409 1.658 8821
0.166 2.413 1.651 6296
0.167 2.424 1.648 6073
0.168 2.436 1.645 5349
0.174 2.521 1.687 5243
0.174 2.525 1.680 4849
0.173 2.516 1.664 5599
0.173 2.514 1.653 6932
0.174 2.518 1.645 8453
0.173 2.516 1.634 10113
0.174 2.520 1.626 8629
0.181 2.627 1.678 9810
0.182 2.638 1.674 10770
0.182 2.643 1.666 8527
0.182 2.640 1.655 6430
0.183 2.652 1.651 5418
0.189 2.746 1.693 6308
0.190 2.757 1.689 8734
0.190 2.762 1.681 10627
0.191 2.766 1.673 12520
0.191 2.770 1.664 10638
0.192 2.782 1.660 8803
0.192 2.779 1.648 6173
0.199 2.881 1.692 4396
0.198 2.879 1.680 5459
0.198 2.876 1.667 6618
0.199 2.881 1.659 6806
0.199 2.892 1.654 7006
0.203 2.953 1.674 7009
0.204 2.957 1.666 7474
0.204 2.962 1.657 6218
0.207 3.008 1.669 5847
0.208 3.013 1.661 5973
0.208 3.024 1.655 6203
0.209 3.029 1.646 5742
0.210 3.040 1.641 5293
0.211 3.059 1.639 6074
0.212 3.070 1.633 7085
0.211 3.067 1.621 5861
0.211 3.064 1.608 4799
0.219 3.176 1.649 5561
0.219 3.180 1.640 7059
0.219 3.185 1.631 7059
0.219 3.182 1.618 6003
0.219 3.172 1.602 5389
0.218 3.169 1.590 3977
0.228 3.303 1.638 4366
0.228 3.314 1.632 3916
0.229 3.326 1.625 3686
0.229 3.330 1.615 3686
0.230 3.334 1.606 1843
0.047 0.665 1.688 10996
0.047 0.673 1.693 9659
0.048 0.680 1.699 8417
0.049 0.688 1.704 8724
0.049 0.693 1.702 9276
0.049 0.701 1.707 9289
0.050 0.705 1.705 9466
0.050 0.710 1.702 9644
0.050 0.711 1.693 9063
0.050 0.715 1.691 8517
0.051 0.720 1.689 10465
0.051 0.724 1.687 12413
0.051 0.729 1.685 12868
0.052 0.733 1.682 12914
0.052 0.738 1.680 12351
0.052 0.742 1.678 14214
0.053 0.747 1.676 16232
0.053 0.755 1.680 20395
0.054 0.759 1.678 25254
0.054 0.767 1.683 26225
0.054 0.772 1.681 27606
0.055 0.780 1.685 21248
0.056 0.788 1.690 15662
0.056 0.792 1.688 13138
0.056 0.797 1.685 10615
0.056 0.801 1.683 10936
0.057 0.810 1.687 11495
0.058 0.818 1.692 9198
0.059 0.830 1.703 7714
0.060 0.846 1.722 9936
0.060 0.854 1.726 12370
0.061 0.859 1.723 13385
0.061 0.863 1.721 14264
0.061 0.868 1.718 13992
0.062 0.877 1.722 12675
0.062 0.881 1.720 11438
0.062 0.886 1.717 9369
0.062 0.878 1.694 7559
0.062 0.883 1.691 9956
0.063 0.891 1.695 12905
0.063 0.896 1.693 13760
0.064 0.904 1.697 10802
0.064 0.909 1.694 7929
0.065 0.917 1.698 11264
0.065 0.926 1.702 16098
0.066 0.931 1.699 17863
0.066 0.939 1.703 17727
0.067 0.948 1.707 16653
0.067 0.948 1.698 15201
0.067 0.949 1.688 14622
0.067 0.953 1.685 20236
0.068 0.958 1.682 25934
0.068 0.962 1.680 26041
0.068 0.967 1.677 21263
0.069 0.975 1.680 16625
0.070 0.988 1.691 15284
0.071 1.002 1.701 15472
0.071 1.006 1.698 14870
0.071 1.011 1.695 15945
0.072 1.015 1.692 20756
0.072 1.015 1.682 23032
0.072 1.015 1.673 22275
0.072 1.024 1.676 20061
0.073 1.033 1.680 19224
0.073 1.033 1.670 20165
0.073 1.033 1.661 20729
0.073 1.037 1.657 18388
0.074 1.046 1.661 15715
0.074 1.051 1.658 15851
0.075 1.060 1.661 15218
0.076 1.073 1.671 15359
0.077 1.087 1.680 12540
0.079 1.115 1.709 14462
0.079 1.119 1.706 18096
0.077 1.086 1.651 17059
0.077 1.086 1.642 13681
0.079 1.123 1.683 11642
0.081 1.147 1.705 15444
0.081 1.151 1.701 16365
0.081 1.151 1.692 11186
0.083 1.175 1.713 11995
0.083 1.184 1.716 23758
0.084 1.194 1.719 27362
0.085 1.208 1.728 21032
0.085 1.208 1.718 14538
0.085 1.212 1.714 19262
0.086 1.222 1.717 25173
0.087 1.231 1.719 20563
0.087 1.231 1.710 11868
0.086 1.225 1.694 10661
0.087 1.235 1.696 16282
0.088 1.244 1.699 21921
0.088 1.249 1.695 22758
0.088 1.253 1.691 19781
0.089 1.263 1.693 23094
0.089 1.267 1.690 27340
0.090 1.277 1.692 24641
0.091 1.287 1.694 26848
0.091 1.296 1.696 26044
0.092 1.301 1.692 15332
0.092 1.305 1.689 7565
0.093 1.315 1.691 7352
0.093 1.319 1.687 8013
0.093 1.319 1.677 6876
0.094 1.328 1.679 8848
0.094 1.338 1.681 13737
0.095 1.348 1.683 17279
0.095 1.352 1.679 18931
0.096 1.357 1.675 19305
0.096 1.361 1.671 14237
0.096 1.365 1.667 11036
0.097 1.370 1.663 14351
0.097 1.369 1.653 12973
0.096 1.362 1.637 9623
0.097 1.372 1.639 12715
0.097 1.377 1.635 17173
0.097 1.381 1.631 20079
0.098 1.385 1.626 20687
0.098 1.395 1.628 20371
0.099 1.399 1.624 18056
0.099 1.409 1.625 23922
0.100 1.413 1.621 30730
0.100 1.423 1.623 25179
0.101 1.427 1.618 17721
0.106 1.504 1.687 16272
0.107 1.520 1.694 17377
0.108 1.535 1.701 19905
0.109 1.540 1.696 23715
0.109 1.544 1.691 22693
0.110 1.560 1.698 22484
0.111 1.576 1.704 33317
0.112 1.592 1.711 42002
0.113 1.596 1.706 52144
0.113 1.601 1.701 51406
0.113 1.606 1.696 34285
0.114 1.610 1.692 20422
0.114 1.620 1.692 18649
0.115 1.636 1.698 15545
0.116 1.647 1.699 12312
0.116 1.651 1.694 11327
0.117 1.661 1.694 10770
0.117 1.666 1.689 11261
0.119 1.682 1.695 13154
0.119 1.693 1.695 22612
0.120 1.697 1.690 30156
0.120 1.701 1.685 26988
0.121 1.712 1.685 14119
0.122 1.734 1.696 9460
0.123 1.745 1.696 15986
0.124 1.755 1.696 18660
0.126 1.783 1.712 22304
0.126 1.788 1.706 30540
0.126 1.793 1.701 30265
0.127 1.797 1.696 19096
0.126 1.789 1.680 11254
0.126 1.788 1.670 12669
0.127 1.798 1.670 15293
0.128 1.809 1.669 15574
0.127 1.807 1.659 11778
0.131 1.860 1.694 9935
0.132 1.871 1.693 23485
0.132 1.876 1.688 32376
0.133 1.886 1.687 29299
0.133 1.891 1.681 18841
0.134 1.901 1.681 11169
0.137 1.943 1.705 19392
0.137 1.947 1.699 18265
0.138 1.964 1.703 11604
0.139 1.969 1.697 10318
0.139 1.973 1.691 13993
0.140 1.984 1.690 18099
0.141 1.995 1.689 21843
0.141 2.006 1.688 20417
0.143 2.023 1.691 15391
0.143 2.034 1.690 16640
0.144 2.038 1.684 15537
0.144 2.049 1.683 13429
0.145 2.053 1.677 15094
0.145 2.051 1.666 17634
0.145 2.062 1.665 21963
0.146 2.067 1.658 23768
0.146 2.065 1.648 23268
0.146 2.069 1.642 22596
0.146 2.073 1.636 20829
0.146 2.078 1.629 19696
0.147 2.082 1.623 16635
0.147 2.086 1.617 14334
0.154 2.188 1.678 10963
0.155 2.199 1.676 10816
0.156 2.210 1.674 10406
0.160 2.273 1.708 13440
0.161 2.284 1.705 13108
0.163 2.308 1.712 11352
0.162 2.300 1.696 11551
0.163 2.311 1.694 12913
0.164 2.329 1.696 17148
0.164 2.333 1.689 19736
0.165 2.344 1.686 18378
0.167 2.362 1.688 17249
0.167 2.366 1.681 16606
0.167 2.371 1.674 12772
0.167 2.375 1.667 9592
0.168 2.380 1.660 10247
0.169 2.391 1.657 10433
0.169 2.402 1.654 8249
0.170 2.413 1.651 5645
0.171 2.424 1.648 5699
0.172 2.442 1.649 5533
0.173 2.453 1.646 5569
0.178 2.525 1.680 4879
0.177 2.516 1.664 5970
0.178 2.520 1.657 7541
0.178 2.518 1.645 8808
0.177 2.516 1.634 10177
0.178 2.520 1.626 8650
0.185 2.627 1.678 9597
0.186 2.638 1.674 10869
0.186 2.643 1.666 8714
0.186 2.640 1.655 6676
0.187 2.651 1.651 5381
0.194 2.752 1.697 6880
0.194 2.757 1.689 9454
0.195 2.761 1.681 11138
0.195 2.773 1.676 12821
0.196 2.777 1.668 10940
0.196 2.782 1.660 9059
0.196 2.786 1.652 6471
0.203 2.881 1.692 4497
0.203 2.878 1.680 5219
0.203 2.876 1.667 6283
0.203 2.880 1.659 6585
0.203 2.885 1.650 6888
0.208 2.952 1.674 6529
0.208 2.957 1.666 6710
0.209 2.961 1.657 5572
0.212 3.008 1.669 5493
0.213 3.019 1.664 5566
0.214 3.031 1.659 5664
0.214 3.035 1.650 5085
0.215 3.047 1.644 4497
0.216 3.058 1.639 5341
0.216 3.070 1.633 6351
0.216 3.067 1.621 5309
0.216 3.064 1.608 4439
0.224 3.183 1.653 5113
0.225 3.187 1.643 6321
0.225 3.191 1.634 6321
0.224 3.181 1.618 5236
0.224 3.171 1.602 4673
0.232 3.291 1.645 3642
0.233 3.302 1.638 4315
0.234 3.314 1.632 3845
0.245 3.477 1.692 3827
0.245 3.482 1.682 3827
0.246 3.486 1.672 1913
0.050 0.665 1.688 11624
0.050 0.669 1.686 9228
0.051 0.680 1.699 7178
0.052 0.688 1.704 7393
0.052 0.696 1.709 7802
0.053 0.700 1.707 7905
0.053 0.705 1.705 8948
0.053 0.706 1.695 10066
0.053 0.711 1.693 10337
0.054 0.715 1.691 10608
0.054 0.720 1.689 12544
0.054 0.724 1.687 14481
0.055 0.728 1.685 15031
0.055 0.733 1.682 15080
0.055 0.737 1.680 14409
0.056 0.742 1.678 16525
0.056 0.746 1.676 18809
0.056 0.751 1.673 22413
0.057 0.759 1.678 26708
0.057 0.763 1.676 26931
0.058 0.771 1.681 27847
0.059 0.779 1.685 21037
0.060 0.791 1.697 15397
0.060 0.792 1.688 13112
0.060 0.793 1.678 11215
0.060 0.801 1.683 11331
0.061 0.809 1.687 11814
0.062 0.818 1.692 9117
0.062 0.830 1.703 7296
0.064 0.846 1.722 9127
0.064 0.854 1.726 11502
0.065 0.859 1.723 13095
0.065 0.863 1.721 15488
0.065 0.868 1.718 16204
0.066 0.876 1.722 15374
0.066 0.881 1.720 14694
0.066 0.881 1.710 13547
0.066 0.878 1.694 13519
0.066 0.883 1.691 14720
0.067 0.891 1.695 15115
0.068 0.900 1.700 14797
0.068 0.900 1.690 12898
0.067 0.896 1.674 11578
0.068 0.909 1.685 14051
0.069 0.922 1.695 16660
0.070 0.930 1.699 17637
0.071 0.939 1.703 16977
0.071 0.948 1.707 15857
0.071 0.948 1.698 14476
0.071 0.948 1.688 14736
0.072 0.953 1.685 20862
0.072 0.957 1.682 26488
0.072 0.962 1.680 26653
0.073 0.970 1.683 22370
0.073 0.975 1.680 18033
0.074 0.984 1.684 18293
0.075 0.993 1.688 16389
0.075 0.997 1.685 13459
0.076 1.006 1.688 12600
0.076 1.010 1.685 18331
0.076 1.015 1.682 25394
0.076 1.015 1.673 26309
0.077 1.024 1.676 23959
0.077 1.028 1.673 21854
0.077 1.028 1.664 20113
0.078 1.033 1.661 19120
0.078 1.037 1.657 18021
0.078 1.041 1.654 16753
0.079 1.050 1.658 15932
0.080 1.059 1.661 14655
0.081 1.073 1.671 14561
0.081 1.082 1.674 12092
0.084 1.114 1.709 13451
0.084 1.119 1.706 19715
0.085 1.128 1.709 19677
0.085 1.133 1.705 14491
0.086 1.142 1.708 12992
0.087 1.151 1.711 15939
0.087 1.151 1.701 16868
0.087 1.151 1.692 12436
0.088 1.174 1.713 12241
0.089 1.184 1.716 20849
0.090 1.193 1.719 23055
0.090 1.203 1.721 17793
0.090 1.202 1.712 16309
0.091 1.212 1.714 22863
0.092 1.221 1.717 26999
0.092 1.226 1.713 23133
0.092 1.225 1.703 19763
0.092 1.225 1.694 19036
0.092 1.229 1.690 17199
0.093 1.239 1.692 18214
0.094 1.248 1.695 21152
0.094 1.253 1.691 21186
0.095 1.262 1.693 24963
0.096 1.272 1.696 27584
0.096 1.276 1.692 20874
0.097 1.291 1.700 22333
0.098 1.301 1.702 25093
0.098 1.305 1.698 16519
0.099 1.315 1.701 9137
0.099 1.320 1.697 8152
0.099 1.319 1.687 9474
0.100 1.323 1.683 8410
0.100 1.328 1.679 10165
0.100 1.332 1.675 16817
0.101 1.342 1.677 19747
0.102 1.352 1.679 22902
0.102 1.356 1.675 25782
0.102 1.361 1.671 19653
0.103 1.370 1.672 14206
0.103 1.369 1.663 16055
0.103 1.368 1.653 14786
0.102 1.362 1.637 11325
0.103 1.366 1.633 10958
0.104 1.376 1.635 12958
0.104 1.380 1.631 16988
0.104 1.385 1.626 19709
0.105 1.394 1.628 19770
0.105 1.399 1.624 16416
0.106 1.409 1.625 22081
0.107 1.418 1.627 30955
0.107 1.423 1.623 28984
0.108 1.433 1.624 22200
0.108 1.437 1.620 13674
0.114 1.519 1.694 12899
0.115 1.524 1.689 18488
0.115 1.534 1.690 26720
0.116 1.544 1.691 29816
0.117 1.554 1.692 22472
0.119 1.581 1.710 25764
0.120 1.591 1.711 33595
0.120 1.596 1.706 46144
0.120 1.595 1.696 47113
0.121 1.605 1.696 30851
0.122 1.615 1.697 24770
0.122 1.625 1.698 28440
0.123 1.636 1.698 23495
0.124 1.646 1.699 9795
0.124 1.651 1.694 6050
0.125 1.655 1.689 9517
0.125 1.660 1.684 11235
0.126 1.676 1.690 9803
0.127 1.692 1.695 17922
0.128 1.696 1.690 30761
0.128 1.701 1.685 31204
0.129 1.711 1.685 19864
0.130 1.722 1.686 13376
0.130 1.732 1.686 16289
0.132 1.754 1.696 16677
0.134 1.783 1.712 21027
0.134 1.787 1.706 27473
0.135 1.792 1.701 26064
0.135 1.796 1.696 15994
0.135 1.789 1.680 11057
0.135 1.793 1.675 11460
0.135 1.798 1.670 13853
0.138 1.833 1.689 19923
0.139 1.843 1.689 17898
0.140 1.860 1.694 15831
0.141 1.870 1.693 30111
0.141 1.875 1.688 41278
0.141 1.879 1.682 36745
0.142 1.884 1.676 23017
0.143 1.894 1.676 12763
0.146 1.936 1.700 19849
0.146 1.941 1.694 19437
0.147 1.958 1.698 10435
0.148 1.968 1.697 10618
0.148 1.973 1.691 17342
0.149 1.977 1.685 21615
0.150 1.994 1.689 25137
0.151 2.005 1.688 22214
0.152 2.016 1.687 14581
0.153 2.033 1.690 12845
0.153 2.031 1.679 11490
0.155 2.055 1.688 9007
0.156 2.072 1.691 8010
0.155 2.063 1.675 10758
0.156 2.068 1.669 19832
0.155 2.066 1.658 22721
0.156 2.070 1.652 22251
0.156 2.068 1.642 19594
0.156 2.073 1.636 14770
0.162 2.148 1.679 13714
0.157 2.081 1.623 11331
0.164 2.176 1.680 10502
0.165 2.187 1.678 13155
0.165 2.192 1.672 12779
0.166 2.209 1.674 12013
0.170 2.266 1.703 13701
0.172 2.290 1.710 13607
0.174 2.308 1.712 13188
0.174 2.312 1.705 12328
0.174 2.317 1.698 14532
0.175 2.321 1.691 19979
0.175 2.332 1.689 22455
0.176 2.343 1.686 20760
0.177 2.355 1.684 18770
0.178 2.366 1.681 17883
0.178 2.370 1.674 13452
0.178 2.368 1.663 8909
0.178 2.372 1.656 8520
0.179 2.383 1.653 8712
0.181 2.401 1.654 6820
0.181 2.412 1.651 4525
0.183 2.430 1.652 4872
0.189 2.515 1.694 6074
0.189 2.513 1.683 6903
0.185 2.463 1.643 6669
0.189 2.508 1.660 6733
0.189 2.513 1.653 8207
0.189 2.517 1.645 8822
0.190 2.522 1.638 9438
0.190 2.519 1.626 7848
0.198 2.633 1.682 9631
0.198 2.637 1.674 11226
0.199 2.642 1.666 9227
0.199 2.646 1.659 7228
0.206 2.740 1.701 5979
0.207 2.751 1.697 8510
0.207 2.756 1.689 11484
0.208 2.760 1.681 12638
0.208 2.765 1.673 13792
0.209 2.776 1.668 11668
0.209 2.781 1.660 9552
0.210 2.792 1.655 7314
0.211 2.810 1.655 5669
0.216 2.871 1.676 5483
0.216 2.875 1.667 5926
0.217 2.879 1.659 6427
0.222 2.947 1.683 7618
0.222 2.951 1.674 7076
0.222 2.956 1.666 6534
0.223 2.960 1.657 5165
0.227 3.014 1.673 5226
0.228 3.025 1.668 5157
0.228 3.037 1.662 5283
0.229 3.041 1.653 4207
0.223 2.961 1.603 4045
0.231 3.064 1.642 3895
0.239 3.175 1.684 5012
0.239 3.180 1.675 4714
0.240 3.184 1.666 4415
0.241 3.203 1.663 4840
0.242 3.222 1.660 5542
0.243 3.226 1.651 5542
0.243 3.230 1.641 4729
0.243 3.235 1.632 3916
0.247 3.282 1.642 3517
0.248 3.301 1.638 4050
0.249 3.313 1.632 3658
0.262 3.476 1.692 4701
0.262 3.480 1.682 4701
0.262 3.485 1.672 2350
0.052 0.661 1.681 13229
0.052 0.669 1.686 9977
0.053 0.680 1.699 6923
0.054 0.688 1.704 6854
0.055 0.699 1.716 7106
0.055 0.704 1.714 7281
0.055 0.705 1.705 8614
0.055 0.706 1.695 10215
0.056 0.710 1.693 11028
0.056 0.715 1.691 11841
0.056 0.719 1.689 13590
0.057 0.724 1.687 15338
0.057 0.728 1.685 15641
0.057 0.733 1.682 15332
0.058 0.737 1.680 14550
0.058 0.742 1.678 16475
0.058 0.746 1.676 18571
0.059 0.751 1.673 22123
0.059 0.759 1.678 26295
0.060 0.763 1.676 26405
0.060 0.771 1.681 27116
0.061 0.779 1.685 20346
0.062 0.791 1.697 14812
0.062 0.792 1.688 12867
0.062 0.793 1.678 11431
0.063 0.801 1.683 11399
0.063 0.809 1.687 11763
0.064 0.817 1.692 8919
0.065 0.829 1.703 7007
0.066 0.845 1.722 8644
0.067 0.854 1.726 10728
0.067 0.858 1.723 12365
0.068 0.863 1.721 15372
0.068 0.868 1.718 16648
0.068 0.872 1.716 16609
0.069 0.877 1.713 16570
0.069 0.881 1.710 15506
0.069 0.878 1.694 14820
0.069 0.882 1.691 16442
0.069 0.887 1.689 17446
0.070 0.895 1.693 17497
0.070 0.900 1.690 15158
0.070 0.900 1.681 13085
0.071 0.909 1.685 14368
0.072 0.917 1.689 15969
0.073 0.926 1.693 17224
0.074 0.939 1.703 16428
0.074 0.947 1.707 15473
0.074 0.944 1.691 14624
0.074 0.948 1.688 14784
0.075 0.953 1.685 20152
0.075 0.957 1.682 25360
0.076 0.966 1.686 25886
0.076 0.970 1.683 22533
0.076 0.975 1.680 18684
0.077 0.983 1.684 19738
0.077 0.988 1.681 17972
0.078 0.992 1.678 15032
0.078 1.001 1.682 12217
0.079 1.010 1.685 16935
0.079 1.015 1.682 25635
0.079 1.015 1.673 27616
0.080 1.024 1.676 25994
0.080 1.028 1.673 24079
0.080 1.028 1.664 21260
0.081 1.032 1.661 19120
0.081 1.037 1.657 18302
0.082 1.041 1.654 16918
0.082 1.045 1.651 15253
0.083 1.059 1.661 13650
0.084 1.068 1.664 13248
0.084 1.068 1.655 11911
0.087 1.109 1.703 11646
0.088 1.119 1.706 19292
0.088 1.128 1.709 20587
0.089 1.132 1.705 16067
0.089 1.137 1.702 13630
0.090 1.151 1.711 15447
0.090 1.151 1.701 16263
0.090 1.150 1.692 13567
0.092 1.169 1.707 11917
0.092 1.179 1.710 18070
0.093 1.188 1.713 19997
0.094 1.197 1.715 16205
0.094 1.197 1.705 16840
0.095 1.211 1.714 22613
0.096 1.221 1.717 25442
0.096 1.225 1.713 23181
0.096 1.225 1.703 24041
0.096 1.225 1.694 24906
0.096 1.229 1.690 20452
0.097 1.239 1.692 17606
0.097 1.243 1.689 19411
0.098 1.253 1.691 20917
0.099 1.262 1.693 24775
0.100 1.272 1.696 26652
0.100 1.281 1.698 18645
0.101 1.291 1.700 19476
0.102 1.301 1.702 24176
0.103 1.310 1.705 17882
0.103 1.315 1.701 10410
0.104 1.324 1.703 7473
0.104 1.324 1.693 8474
0.104 1.328 1.689 8295
0.104 1.327 1.679 10126
0.104 1.332 1.675 16538
0.105 1.342 1.677 19644
0.106 1.357 1.685 24883
0.106 1.356 1.675 28890
0.107 1.366 1.677 22793
0.107 1.370 1.672 16121
0.107 1.369 1.663 16578
0.107 1.363 1.647 15015
0.107 1.362 1.637 11063
0.107 1.366 1.633 10003
0.108 1.381 1.640 11300
0.108 1.380 1.631 14407
0.109 1.390 1.632 16660
0.109 1.394 1.628 16700
0.110 1.398 1.624 13514
0.110 1.408 1.625 19296
0.111 1.418 1.627 28540
0.111 1.422 1.623 28923
0.112 1.427 1.618 23960
0.112 1.431 1.614 14630
0.119 1.519 1.694 9935
0.119 1.523 1.689 17397
0.120 1.528 1.685 25975
0.120 1.538 1.686 29013
0.121 1.548 1.687 20734
0.123 1.575 1.704 19811
0.125 1.591 1.711 25568
0.125 1.596 1.706 39129
0.125 1.594 1.696 41381
0.126 1.605 1.696 27569
0.126 1.615 1.697 26007
0.127 1.625 1.698 30775
0.128 1.635 1.698 25495
0.128 1.640 1.693 9787
0.128 1.639 1.683 6742
0.129 1.649 1.684 10858
0.130 1.659 1.684 12277
0.131 1.669 1.684 10629
0.132 1.686 1.690 17541
0.133 1.696 1.690 30294
0.133 1.701 1.685 32279
0.134 1.711 1.685 22007
0.135 1.721 1.686 15081
0.135 1.726 1.680 16219
0.138 1.760 1.701 14330
0.140 1.782 1.712 17943
0.140 1.787 1.706 22108
0.141 1.797 1.706 20527
0.141 1.802 1.701 12743
0.140 1.788 1.680 10151
0.140 1.793 1.675 10475
0.143 1.822 1.690 13352
0.144 1.838 1.695 22767
0.144 1.843 1.689 22439
0.145 1.853 1.689 19123
0.146 1.870 1.693 31333
0.147 1.874 1.688 42691
0.147 1.879 1.682 37988
0.147 1.883 1.676 23915
0.148 1.894 1.676 13638
0.152 1.936 1.700 19809
0.152 1.940 1.694 20371
0.151 1.932 1.678 12054
0.154 1.968 1.697 11299
0.154 1.966 1.686 17897
0.155 1.977 1.685 21358
0.156 1.994 1.689 24262
0.156 1.998 1.683 21122
0.158 2.015 1.687 13602
0.159 2.026 1.685 12397
0.159 2.031 1.679 12364
0.160 2.041 1.678 9321
0.163 2.084 1.700 8441
0.162 2.069 1.680 10075
0.162 2.067 1.669 17184
0.162 2.072 1.663 19822
0.162 2.070 1.652 19558
0.162 2.074 1.646 16542
0.168 2.143 1.686 14128
0.168 2.147 1.679 13412
0.169 2.158 1.678 10537
0.170 2.176 1.680 10992
0.171 2.187 1.678 13490
0.172 2.191 1.672 13011
0.173 2.209 1.674 12228
0.175 2.239 1.686 13188
0.180 2.296 1.714 12562
0.181 2.307 1.712 12747
0.181 2.312 1.705 11975
0.181 2.310 1.694 14482
0.182 2.321 1.691 19841
0.183 2.332 1.689 21625
0.183 2.343 1.686 20086
0.184 2.354 1.684 18253
0.185 2.365 1.681 17407
0.185 2.363 1.670 13057
0.185 2.361 1.658 8407
0.185 2.365 1.651 7768
0.186 2.376 1.649 7676
0.187 2.394 1.650 5642
0.188 2.405 1.647 3634
0.196 2.504 1.698 4555
0.196 2.508 1.690 7010
0.197 2.513 1.683 8014
0.193 2.470 1.647 7561
0.196 2.501 1.656 6818
0.197 2.512 1.653 7740
0.197 2.517 1.645 8049
0.197 2.521 1.638 8358
0.198 2.525 1.630 6923
0.206 2.632 1.682 9048
0.207 2.643 1.678 10716
0.207 2.641 1.666 8863
0.207 2.645 1.659 7051
0.215 2.739 1.701 6301
0.215 2.751 1.697 8805
0.216 2.755 1.689 11871
0.216 2.760 1.681 12715
0.216 2.764 1.673 13558
0.217 2.776 1.668 11293
0.218 2.780 1.660 9158
0.219 2.791 1.655 7296
0.220 2.810 1.655 6178
0.225 2.870 1.676 5539
0.225 2.874 1.667 5520
0.229 2.921 1.681 6182
0.230 2.939 1.679 8185
0.230 2.944 1.671 7525
0.231 2.948 1.662 6866
0.231 2.952 1.653 5378
0.236 3.013 1.673 4806
0.237 3.025 1.668 4722
0.238 3.043 1.666 4893
0.232 2.963 1.615 4677
0.232 2.967 1.606 4729
0.233 2.971 1.597 3760
0.249 3.175 1.684 5010
0.249 3.186 1.678 4773
0.250 3.191 1.669 4575
0.251 3.209 1.666 4649
0.253 3.228 1.663 5238
0.253 3.233 1.654 5238
0.253 3.230 1.641 4495
0.253 3.234 1.632 3811
0.257 3.282 1.642 3206
0.259 3.307 1.642 3576
0.272 3.471 1.702 3366
0.272 3.475 1.692 4532
0.272 3.480 1.682 4532
0.273 3.484 1.672 2266
0.053 0.661 1.681 16341
0.053 0.666 1.679 12175
0.054 0.677 1.691 8293
0.055 0.688 1.704 7125
0.056 0.699 1.716 6872
0.056 0.703 1.714 7101
0.056 0.705 1.705 8862
0.056 0.706 1.695 11126
0.057 0.710 1.693 12300
0.057 0.715 1.691 13475
0.057 0.719 1.689 15046
0.058 0.724 1.687 16618
0.058 0.728 1.685 16779
0.058 0.733 1.682 16228
0.059 0.737 1.680 15333
0.059 0.742 1.678 17358
0.060 0.746 1.676 19566
0.060 0.751 1.673 22966
0.061 0.759 1.678 26884
0.061 0.763 1.676 26634
0.062 0.771 1.681 26759
0.062 0.776 1.678 19854
0.063 0.791 1.697 13883
0.063 0.792 1.688 12684
0.063 0.793 1.678 11994
0.064 0.801 1.683 12086
0.065 0.809 1.687 12583
0.065 0.817 1.692 9500
0.066 0.829 1.703 7447
0.067 0.841 1.715 9150
0.068 0.850 1.719 11408
0.068 0.858 1.723 13429
0.069 0.863 1.721 17585
0.069 0.867 1.718 19525
0.070 0.872 1.716 20055
0.070 0.877 1.713 20585
0.070 0.881 1.710 19767
0.070 0.882 1.701 19273
0.070 0.882 1.691 19258
0.071 0.887 1.689 18837
0.071 0.895 1.693 18522
0.072 0.900 1.690 17086
0.072 0.904 1.687 15696
0.072 0.905 1.678 15522
0.073 0.917 1.689 14869
0.074 0.926 1.693 15837
0.075 0.939 1.703 15281
0.075 0.943 1.701 15357
0.075 0.943 1.691 15807
0.076 0.948 1.688 15132
0.076 0.952 1.685 18768
0.076 0.957 1.682 23079
0.077 0.966 1.686 24668
0.077 0.970 1.683 22953
0.078 0.975 1.680 20025
0.078 0.983 1.684 21673
0.079 0.988 1.681 20985
0.079 0.992 1.678 18614
0.080 1.001 1.682 13693
0.081 1.010 1.685 16088
0.081 1.014 1.682 25736
0.081 1.019 1.679 29370
0.082 1.023 1.676 28830
0.082 1.028 1.673 27298
0.082 1.028 1.664 23380
0.082 1.032 1.661 20063
0.083 1.037 1.657 19554
0.083 1.041 1.654 18106
0.083 1.045 1.651 15397
0.084 1.059 1.661 13090
0.085 1.063 1.658 12215
0.085 1.068 1.655 12282
0.086 1.077 1.658 11040
0.089 1.118 1.706 18822
0.090 1.128 1.709 21970
0.090 1.128 1.699 18465
0.091 1.137 1.702 15086
0.092 1.151 1.711 15308
0.091 1.146 1.695 15938
0.091 1.145 1.685 15551
0.093 1.164 1.701 12581
0.094 1.174 1.704 15701
0.094 1.183 1.706 17389
0.095 1.192 1.709 15704
0.096 1.197 1.705 18035
0.096 1.206 1.708 22264
0.097 1.221 1.717 23157
0.098 1.225 1.713 23202
0.098 1.225 1.703 28905
0.098 1.229 1.700 32046
0.098 1.234 1.696 26355
0.099 1.238 1.692 18497
0.099 1.243 1.689 17738
0.100 1.252 1.691 20847
0.101 1.262 1.693 25067
0.101 1.272 1.696 26542
0.103 1.286 1.704 18864
0.103 1.296 1.706 18671
0.104 1.300 1.702 23396
0.105 1.310 1.705 19398
0.105 1.315 1.701 11920
0.106 1.324 1.703 6569
0.106 1.329 1.699 6870
0.106 1.333 1.695 7514
0.106 1.327 1.679 9768
0.106 1.332 1.675 15263
0.107 1.341 1.677 18967
0.108 1.356 1.685 28389
0.109 1.361 1.681 33508
0.109 1.365 1.677 27277
0.109 1.370 1.672 18867
0.109 1.369 1.663 17155
0.109 1.363 1.647 14697
0.109 1.362 1.637 10101
0.109 1.371 1.639 9304
0.110 1.381 1.640 10838
0.111 1.385 1.636 12390
0.111 1.390 1.632 14097
0.111 1.394 1.628 13075
0.112 1.404 1.630 9945
0.113 1.414 1.631 15636
0.113 1.418 1.627 24289
0.113 1.422 1.623 26882
0.114 1.426 1.618 24003
0.115 1.436 1.620 14539
0.122 1.524 1.699 8277
0.121 1.518 1.684 17433
0.121 1.522 1.679 24475
0.123 1.538 1.686 26059
0.123 1.548 1.687 19516
0.126 1.575 1.704 15432
0.126 1.585 1.705 17282
0.127 1.590 1.700 30542
0.127 1.594 1.696 35652
0.128 1.604 1.696 26039
0.129 1.615 1.697 26550
0.130 1.625 1.698 30947
0.130 1.629 1.693 26249
0.130 1.634 1.688 12246
0.131 1.638 1.683 9801
0.132 1.649 1.684 14514
0.132 1.659 1.684 14970
0.133 1.669 1.684 12744
0.134 1.685 1.690 18915
0.135 1.696 1.690 29848
0.136 1.700 1.685 33425
0.136 1.711 1.685 23922
0.137 1.715 1.680 16523
0.137 1.720 1.675 16471
0.139 1.748 1.691 12924
0.142 1.776 1.706 15816
0.143 1.787 1.706 16108
0.143 1.797 1.706 14080
0.142 1.778 1.680 9876
0.143 1.788 1.680 9800
0.144 1.805 1.685 11407
0.145 1.821 1.690 15693
0.147 1.838 1.695 26876
0.147 1.849 1.694 27507
0.148 1.853 1.689 22622
0.149 1.864 1.688 32397
0.150 1.874 1.688 43681
0.150 1.879 1.682 39037
0.150 1.883 1.676 24728
0.152 1.900 1.681 15143
0.154 1.929 1.695 21236
0.154 1.934 1.689 23390
0.154 1.932 1.678 16255
0.156 1.961 1.692 13072
0.157 1.966 1.686 18783
0.158 1.977 1.685 20890
0.159 1.987 1.684 22660
0.159 1.998 1.683 19388
0.161 2.015 1.687 12709
0.162 2.026 1.685 13712
0.162 2.030 1.679 15323
0.162 2.035 1.673 12077
0.165 2.065 1.686 10312
0.165 2.069 1.680 11031
0.165 2.074 1.674 13838
0.165 2.072 1.663 16246
0.166 2.076 1.657 16467
0.165 2.074 1.646 13700
0.170 2.136 1.681 13683
0.171 2.141 1.675 13619
0.172 2.152 1.673 12390
0.173 2.169 1.676 12362
0.174 2.180 1.674 13857
0.175 2.191 1.672 13097
0.176 2.208 1.674 12303
0.178 2.226 1.677 13537
0.177 2.224 1.666 11617
0.184 2.307 1.712 11872
0.184 2.311 1.705 11480
0.184 2.309 1.694 14256
0.185 2.314 1.687 18944
0.186 2.332 1.689 19740
0.187 2.343 1.686 18558
0.188 2.354 1.684 17114
0.189 2.365 1.681 16410
0.189 2.363 1.670 12273
0.188 2.354 1.654 8039
0.188 2.358 1.647 7505
0.189 2.369 1.644 6859
0.190 2.387 1.646 4463
0.199 2.492 1.701 4027
0.200 2.503 1.698 5428
0.200 2.508 1.690 8244
0.200 2.505 1.679 9654
0.198 2.483 1.655 8794
0.198 2.480 1.644 7575
0.200 2.512 1.653 6910
0.201 2.516 1.645 6986
0.201 2.521 1.638 7062
0.201 2.525 1.630 5960
0.211 2.639 1.686 8488
0.211 2.643 1.678 10107
0.211 2.648 1.670 8458
0.218 2.728 1.705 7583
0.219 2.739 1.701 6741
0.219 2.744 1.693 9141
0.219 2.748 1.685 12180
0.220 2.759 1.681 12657
0.221 2.764 1.673 13192
0.221 2.768 1.664 10851
0.222 2.780 1.660 8675
0.223 2.791 1.655 7150
0.225 2.816 1.658 6730
0.228 2.863 1.672 5938
0.229 2.874 1.667 5331
0.233 2.920 1.681 6891
0.234 2.932 1.676 9330
0.235 2.943 1.671 8853
0.235 2.948 1.662 8384
0.235 2.945 1.650 6667
0.234 2.935 1.634 5630
0.236 2.954 1.632 5317
0.236 2.958 1.624 5543
0.236 2.962 1.615 5696
0.237 2.967 1.606 5817
0.238 2.978 1.601 4577
0.253 3.174 1.684 5078
0.254 3.186 1.678 5031
0.255 3.190 1.669 4999
0.257 3.216 1.670 4757
0.258 3.228 1.663 5202
0.258 3.232 1.654 5202
0.258 3.237 1.644 4481
0.258 3.234 1.632 3840
0.259 3.245 1.625 2942
0.264 3.314 1.645 3115
0.277 3.470 1.702 3196
0.278 3.482 1.695 4439
0.278 3.486 1.685 4439
0.279 3.491 1.675 2219
0.055 0.661 1.681 16669
0.055 0.666 1.679 12394
0.056 0.673 1.684 8395
0.057 0.684 1.697 6826
0.058 0.699 1.716 6083
0.059 0.707 1.721 6340
0.058 0.701 1.697 8544
0.059 0.706 1.695 11230
0.059 0.710 1.693 12590
0.059 0.715 1.691 13951
0.060 0.719 1.689 15509
0.060 0.724 1.687 17068
0.060 0.728 1.685 17287
0.061 0.733 1.682 16820
0.061 0.737 1.680 15957
0.062 0.741 1.678 17801
0.062 0.746 1.676 19820
0.062 0.750 1.673 22597
0.063 0.758 1.678 25713
0.063 0.763 1.676 25145
0.064 0.771 1.681 24764
0.064 0.775 1.678 18295
0.066 0.791 1.697 12426
0.065 0.788 1.681 12089
0.066 0.792 1.678 12134
0.066 0.801 1.683 12336
0.067 0.809 1.687 12865
0.068 0.817 1.692 9653
0.069 0.829 1.703 7367
0.070 0.841 1.715 8891
0.070 0.850 1.719 10915
0.071 0.858 1.723 13039
0.072 0.863 1.721 18341
0.072 0.867 1.718 21226
0.072 0.872 1.716 21942
0.073 0.876 1.713 22658
0.073 0.881 1.710 21398
0.073 0.881 1.701 20170
0.073 0.886 1.698 20020
0.074 0.886 1.689 20030
0.074 0.891 1.686 19858
0.075 0.899 1.690 18330
0.075 0.904 1.687 16957
0.075 0.904 1.678 15934
0.076 0.913 1.682 13645
0.077 0.926 1.693 13506
0.077 0.934 1.697 13803
0.078 0.939 1.694 15518
0.078 0.939 1.684 16691
0.079 0.948 1.688 15487
0.079 0.952 1.685 17952
0.079 0.957 1.682 21608
0.080 0.965 1.686 24014
0.080 0.970 1.683 23807
0.081 0.974 1.680 21697
0.081 0.979 1.678 23177
0.082 0.983 1.675 22569
0.082 0.992 1.678 20350
0.083 0.996 1.675 15106
0.084 1.010 1.685 16121
0.084 1.014 1.682 25598
0.085 1.019 1.679 30409
0.085 1.023 1.676 30215
0.085 1.028 1.673 28421
0.085 1.027 1.664 23696
0.085 1.027 1.654 19856
0.086 1.036 1.657 19503
0.086 1.041 1.654 18248
0.087 1.045 1.651 15153
0.087 1.054 1.655 12508
0.088 1.063 1.658 11147
0.089 1.067 1.655 11708
0.089 1.076 1.658 11185
0.093 1.123 1.712 18118
0.094 1.127 1.709 22129
0.094 1.132 1.705 19375
0.094 1.136 1.702 15767
0.095 1.150 1.711 15162
0.095 1.145 1.695 15195
0.095 1.145 1.685 16265
0.097 1.164 1.701 12833
0.097 1.173 1.704 13364
0.098 1.183 1.706 14404
0.099 1.192 1.709 14583
0.099 1.197 1.705 18446
0.100 1.206 1.708 21209
0.101 1.216 1.711 20476
0.101 1.220 1.707 22511
0.102 1.225 1.703 31085
0.102 1.229 1.700 35361
0.102 1.234 1.696 29429
0.103 1.243 1.699 18458
0.103 1.243 1.689 14935
0.104 1.252 1.691 19221
0.105 1.262 1.693 23992
0.105 1.271 1.696 25823
0.107 1.286 1.704 19973
0.107 1.296 1.706 17833
0.108 1.305 1.708 20858
0.109 1.310 1.705 18966
0.109 1.314 1.701 12384
0.111 1.334 1.715 6296
0.111 1.339 1.711 6618
0.111 1.333 1.695 7396
0.110 1.327 1.679 9767
0.110 1.331 1.675 13208
0.112 1.346 1.683 18653
0.112 1.356 1.685 31201
0.113 1.361 1.681 36335
0.113 1.365 1.677 29265
0.114 1.369 1.672 19591
0.114 1.369 1.663 16055
0.113 1.362 1.647 13415
0.113 1.367 1.643 9904
0.114 1.376 1.645 9675
0.115 1.386 1.646 10079
0.115 1.385 1.636 10067
0.115 1.389 1.632 11290
0.116 1.394 1.628 10697
0.116 1.403 1.630 8352
0.117 1.413 1.631 13618
0.118 1.418 1.627 20276
0.118 1.422 1.623 22883
0.119 1.432 1.624 20857
0.119 1.436 1.620 13014
0.127 1.529 1.705 8420
0.126 1.517 1.684 16806
0.126 1.522 1.679 20537
0.128 1.537 1.686 21576
0.128 1.547 1.687 18501
0.130 1.569 1.699 13229
0.131 1.573 1.694 13950
0.131 1.584 1.695 27779
0.132 1.588 1.690 35241
0.133 1.598 1.691 26449
0.134 1.614 1.697 24245
0.135 1.625 1.698 27334
0.135 1.629 1.693 24328
0.136 1.633 1.688 13796
0.136 1.644 1.688 11757
0.137 1.654 1.689 16089
0.138 1.659 1.684 15920
0.139 1.675 1.690 13494
0.139 1.679 1.685 18490
0.141 1.695 1.690 26947
0.141 1.706 1.691 31907
0.142 1.710 1.685 23224
0.142 1.715 1.680 15715
0.143 1.719 1.675 15040
0.146 1.759 1.701 12413
0.147 1.776 1.706 16295
0.148 1.786 1.706 12892
0.149 1.797 1.706 9981
0.147 1.771 1.675 9775
0.149 1.800 1.690 10191
0.149 1.798 1.680 13120
0.151 1.821 1.690 18067
0.152 1.838 1.695 30121
0.153 1.848 1.694 30906
0.153 1.846 1.684 23888
0.155 1.863 1.688 30950
0.155 1.874 1.688 42014
0.156 1.878 1.682 37575
0.156 1.883 1.676 23516
0.158 1.906 1.686 15658
0.160 1.929 1.695 22018
0.160 1.933 1.689 25000
0.160 1.931 1.678 18478
0.163 1.961 1.692 13572
0.164 1.972 1.691 17925
0.164 1.976 1.685 18682
0.165 1.987 1.684 19509
0.166 1.998 1.683 16925
0.167 2.008 1.682 11611
0.168 2.025 1.685 14599
0.168 2.030 1.679 17274
0.169 2.034 1.673 13646
0.171 2.058 1.681 11573
0.172 2.075 1.685 10872
0.172 2.079 1.679 11009
0.172 2.077 1.668 12833
0.172 2.075 1.657 13289
0.177 2.131 1.688 11125
0.177 2.136 1.681 12231
0.178 2.147 1.679 13067
0.178 2.151 1.673 13736
0.180 2.168 1.676 13420
0.181 2.179 1.674 13656
0.181 2.184 1.667 12470
0.183 2.208 1.674 11446
0.185 2.225 1.677 13124
0.184 2.223 1.666 11930
0.191 2.306 1.712 10949
0.192 2.311 1.705 10992
0.192 2.309 1.694 13574
0.192 2.313 1.687 17159
0.193 2.331 1.689 16876
0.194 2.342 1.686 16033
0.195 2.353 1.684 14904
0.196 2.364 1.681 14375
0.196 2.362 1.670 10725
0.195 2.353 1.654 7376
0.196 2.357 1.647 7162
0.196 2.362 1.640 6063
0.196 2.366 1.633 3692
0.206 2.485 1.697 4976
0.207 2.496 1.694 6184
0.208 2.507 1.690 9207
0.208 2.505 1.679 10952
0.206 2.489 1.659 9859
0.206 2.480 1.644 8015
0.207 2.491 1.640 5935
0.208 2.509 1.641 5744
0.209 2.520 1.638 5708
0.210 2.531 1.634 4983
0.219 2.638 1.686 7776
0.219 2.642 1.678 9242
0.220 2.647 1.670 7843
0.226 2.720 1.701 8005
0.227 2.731 1.697 7083
0.228 2.743 1.693 9058
0.228 2.747 1.685 11806
0.228 2.752 1.677 11892
0.229 2.763 1.673 12064
0.230 2.768 1.664 9823
0.231 2.779 1.660 7745
0.237 2.860 1.693 7082
0.236 2.850 1.677 7544
0.237 2.862 1.672 6277
0.238 2.873 1.667 5097
0.243 2.927 1.684 7520
0.243 2.931 1.676 10450
0.244 2.936 1.667 10168
0.244 2.940 1.658 9886
0.244 2.944 1.650 7995
0.243 2.935 1.634 6621
0.245 2.953 1.632 6094
0.246 2.964 1.627 6154
0.246 2.969 1.618 6282
0.247 2.973 1.610 6416
0.247 2.977 1.601 4990
0.264 3.181 1.688 4993
0.264 3.185 1.678 5118
0.265 3.190 1.669 5242
0.267 3.215 1.670 4784
0.268 3.234 1.667 5154
0.269 3.238 1.657 5154
0.268 3.236 1.644 4391
0.268 3.233 1.632 3766
0.277 3.338 1.668 2864
0.280 3.371 1.671 3231
0.279 3.368 1.658 3115
0.289 3.481 1.695 4351
0.289 3.485 1.685 4351
0.289 3.490 1.675 2175
0.057 0.661 1.681 17373
0.057 0.669 1.686 12973
0.058 0.676 1.691 8973
0.059 0.684 1.697 7420
0.060 0.699 1.716 6811
0.060 0.703 1.714 7077
0.060 0.701 1.697 9654
0.061 0.705 1.695 12779
0.061 0.710 1.693 14129
0.061 0.714 1.691 15480
0.062 0.719 1.689 16628
0.062 0.723 1.687 17777
0.062 0.728 1.685 17895
0.063 0.732 1.682 17298
0.063 0.737 1.680 16416
0.064 0.741 1.678 18272
0.064 0.746 1.676 20294
0.064 0.750 1.673 22405
0.065 0.758 1.678 24692
0.065 0.763 1.676 23639
0.066 0.771 1.681 22585
0.066 0.775 1.678 16509
0.068 0.791 1.697 10732
0.068 0.788 1.681 11564
0.068 0.792 1.678 12724
0.069 0.800 1.683 13328
0.069 0.809 1.687 14161
0.070 0.817 1.692 10431
0.071 0.825 1.696 7377
0.072 0.837 1.708 8408
0.073 0.849 1.719 9899
0.074 0.858 1.723 12218
0.074 0.862 1.721 18261
0.074 0.867 1.718 21649
0.075 0.872 1.716 23397
0.075 0.876 1.713 25145
0.076 0.881 1.710 24479
0.076 0.881 1.701 24091
0.076 0.886 1.698 22520
0.076 0.886 1.689 20938
0.076 0.891 1.686 21048
0.077 0.899 1.690 20138
0.078 0.904 1.687 19097
0.078 0.908 1.685 16257
0.078 0.913 1.682 12023
0.079 0.921 1.686 10504
0.080 0.930 1.690 12376
0.080 0.934 1.687 16878
0.081 0.939 1.684 19226
0.081 0.943 1.681 16735
0.082 0.952 1.685 17558
0.082 0.956 1.682 20958
0.083 0.965 1.686 24139
0.083 0.970 1.683 25175
0.084 0.974 1.680 23424
0.084 0.979 1.678 24213
0.084 0.983 1.675 23419
0.085 0.992 1.678 21434
0.085 0.996 1.675 16261
0.087 1.010 1.685 16373
0.087 1.014 1.682 25751
0.087 1.018 1.679 31971
0.088 1.023 1.676 32044
0.088 1.027 1.673 29790
0.088 1.027 1.664 23994
0.088 1.027 1.654 19567
0.089 1.036 1.657 19351
0.089 1.040 1.654 18059
0.090 1.045 1.651 14559
0.090 1.054 1.655 11761
0.091 1.058 1.651 9866
0.092 1.067 1.655 10851
0.093 1.081 1.664 11325
0.096 1.123 1.712 17213
0.097 1.127 1.709 22150
0.097 1.132 1.705 19972
0.097 1.136 1.702 16102
0.099 1.150 1.711 14834
0.098 1.145 1.695 14404
0.098 1.145 1.685 16949
0.099 1.159 1.694 13949
0.100 1.168 1.697 11754
0.101 1.178 1.700 11626
0.102 1.187 1.703 13545
0.103 1.196 1.705 18715
0.103 1.201 1.702 20167
0.104 1.215 1.711 17636
0.105 1.220 1.707 21323
0.105 1.224 1.703 32611
0.105 1.229 1.700 38159
0.106 1.233 1.696 32440
0.107 1.243 1.699 19251
0.107 1.242 1.689 12617
0.108 1.257 1.697 17623
0.109 1.266 1.700 23045
0.109 1.271 1.696 26501
0.111 1.291 1.710 23385
0.112 1.300 1.712 18346
0.112 1.305 1.708 18391
0.112 1.309 1.705 17907
0.113 1.314 1.701 12354
0.114 1.334 1.715 8206
0.115 1.338 1.711 9066
0.115 1.338 1.701 8789
0.115 1.337 1.691 11797
0.115 1.342 1.687 14397
0.116 1.351 1.689 21878
0.116 1.356 1.685 35320
0.117 1.360 1.681 39470
0.117 1.365 1.677 31119
0.117 1.369 1.672 20352
0.118 1.374 1.668 15379
0.118 1.373 1.658 12901
0.119 1.382 1.660 11567
0.119 1.387 1.656 11226
0.119 1.386 1.646 9728
0.119 1.385 1.636 8424
0.120 1.394 1.638 9608
0.120 1.399 1.634 9553
0.120 1.403 1.630 6981
0.121 1.413 1.631 12201
0.122 1.417 1.627 16841
0.122 1.421 1.623 17998
0.123 1.431 1.624 16724
0.124 1.441 1.625 10888
0.131 1.529 1.705 9377
0.131 1.522 1.689 15444
0.130 1.521 1.679 15208
0.132 1.537 1.686 16577
0.133 1.547 1.687 18085
0.135 1.569 1.699 15808
0.134 1.567 1.689 18052
0.136 1.583 1.695 29262
0.136 1.588 1.690 37956
0.137 1.598 1.691 28604
0.138 1.608 1.692 21507
0.140 1.630 1.703 22343
0.140 1.629 1.693 21037
0.140 1.633 1.688 15313
0.141 1.643 1.688 13214
0.142 1.654 1.689 16142
0.143 1.664 1.689 16603
0.144 1.674 1.690 14792
0.144 1.679 1.685 17508
0.145 1.695 1.690 22776
0.146 1.705 1.691 28853
0.147 1.710 1.685 20827
0.147 1.714 1.680 13635
0.147 1.719 1.675 13451
0.151 1.765 1.707 12809
0.152 1.769 1.701 17688
0.153 1.780 1.701 12542
0.152 1.772 1.686 9660
0.152 1.771 1.675 12371
0.154 1.799 1.690 11824
0.154 1.798 1.680 14995
0.156 1.814 1.685 21116
0.158 1.837 1.695 33525
0.158 1.848 1.694 33752
0.158 1.846 1.684 24258
0.160 1.869 1.693 28120
0.161 1.879 1.693 38688
0.161 1.878 1.682 34797
0.162 1.888 1.681 21975
0.164 1.911 1.691 17355
0.165 1.928 1.695 23305
0.166 1.933 1.689 26928
0.166 1.931 1.678 20785
0.168 1.960 1.692 14490
0.169 1.971 1.691 17645
0.169 1.976 1.685 16295
0.171 1.993 1.689 15775
0.171 1.997 1.683 13780
0.173 2.014 1.687 9665
0.174 2.031 1.690 15046
0.174 2.029 1.679 18794
0.174 2.034 1.673 15041
0.176 2.051 1.677 12445
0.178 2.074 1.685 10556
0.179 2.085 1.683 9096
0.180 2.096 1.682 9843
0.179 2.081 1.662 10050
0.182 2.124 1.683 9592
0.183 2.135 1.681 10226
0.184 2.146 1.679 12911
0.185 2.157 1.678 15702
0.186 2.168 1.676 14671
0.187 2.179 1.674 13275
0.187 2.183 1.667 11439
0.190 2.214 1.679 10101
0.190 2.218 1.672 12298
0.190 2.216 1.661 12005
0.191 2.227 1.659 10384
0.199 2.317 1.709 10200
0.198 2.308 1.694 12374
0.198 2.306 1.683 14359
0.199 2.324 1.685 13060
0.201 2.341 1.686 12617
0.202 2.353 1.684 11723
0.203 2.364 1.681 11347
0.203 2.361 1.670 8940
0.202 2.353 1.654 7036
0.202 2.357 1.647 7197
0.202 2.355 1.636 5326
0.212 2.473 1.700 4589
0.213 2.484 1.697 6054
0.214 2.495 1.694 6903
0.215 2.507 1.690 10270
0.215 2.504 1.679 12533
0.214 2.495 1.663 11412
0.213 2.486 1.648 8527
0.213 2.484 1.636 5621
0.215 2.501 1.637 4530
0.216 2.519 1.638 4111
0.226 2.640 1.698 4805
0.226 2.637 1.686 6924
0.227 2.642 1.678 8161
0.233 2.715 1.710 7121
0.233 2.719 1.701 8524
0.234 2.731 1.697 7455
0.235 2.742 1.693 8806
0.236 2.747 1.685 11049
0.236 2.751 1.677 10825
0.236 2.756 1.669 10601
0.237 2.767 1.664 8405
0.245 2.855 1.701 7655
0.245 2.852 1.689 8137
0.244 2.850 1.677 8934
0.245 2.861 1.672 6938
0.250 2.914 1.689 5095
0.250 2.919 1.681 8456
0.251 2.930 1.676 11939
0.252 2.935 1.667 11979
0.252 2.939 1.658 12019
0.252 2.937 1.646 9863
0.252 2.934 1.634 8104
0.253 2.952 1.632 7199
0.254 2.964 1.627 6896
0.255 2.968 1.618 6951
0.255 2.972 1.610 6966
0.255 2.976 1.601 5445
0.273 3.180 1.688 4852
0.273 3.184 1.678 5174
0.274 3.196 1.672 5498
0.276 3.215 1.670 4808
0.277 3.233 1.667 5188
0.278 3.238 1.657 5188
0.278 3.242 1.648 4382
0.277 3.232 1.632 3787
0.288 3.359 1.677 2993
0.289 3.370 1.671 3580
0.289 3.367 1.658 3464
0.299 3.480 1.695 4124
0.299 3.485 1.685 4124
0.299 3.489 1.675 2062
0.059 0.661 1.681 18378
0.059 0.665 1.679 13905
0.060 0.676 1.691 9914
0.061 0.684 1.697 8098
0.062 0.698 1.716 7394
0.063 0.703 1.714 7693
0.063 0.704 1.705 9895
0.063 0.705 1.695 12695
0.063 0.710 1.693 14243
0.064 0.714 1.691 15791
0.064 0.719 1.689 16889
0.064 0.723 1.687 17987
0.065 0.728 1.685 18070
0.065 0.732 1.682 17390
0.066 0.737 1.680 16478
0.066 0.741 1.678 18296
0.066 0.746 1.676 20264
0.067 0.750 1.673 22093
0.067 0.758 1.678 24063
0.068 0.762 1.676 22711
0.068 0.767 1.674 21358
0.069 0.771 1.671 15465
0.069 0.779 1.676 9703
0.070 0.788 1.681 11420
0.070 0.792 1.678 13357
0.071 0.800 1.683 14257
0.072 0.808 1.687 15288
0.072 0.813 1.685 11211
0.073 0.825 1.696 7722
0.074 0.837 1.708 8420
0.076 0.849 1.719 9707
0.076 0.854 1.716 12053
0.077 0.862 1.721 18045
0.077 0.867 1.718 21329
0.077 0.871 1.716 22700
0.078 0.876 1.713 24071
0.078 0.880 1.710 24643
0.078 0.881 1.701 25760
0.079 0.886 1.698 24539
0.079 0.886 1.689 22749
0.080 0.895 1.693 22168
0.080 0.899 1.690 21548
0.080 0.903 1.687 20556
0.081 0.908 1.685 16797
0.081 0.912 1.682 10372
0.082 0.917 1.679 7333
0.082 0.925 1.683 10668
0.083 0.934 1.687 17175
0.083 0.939 1.684 20149
0.084 0.943 1.681 17369
0.085 0.952 1.685 16964
0.085 0.956 1.682 19787
0.085 0.961 1.680 23741
0.086 0.969 1.683 26131
0.087 0.974 1.680 24906
0.087 0.978 1.678 25104
0.087 0.983 1.675 24320
0.088 0.992 1.678 22865
0.089 1.000 1.682 17924
0.090 1.014 1.692 16652
0.090 1.014 1.682 24939
0.091 1.018 1.679 32106
0.091 1.023 1.676 32722
0.091 1.027 1.673 30669
0.091 1.027 1.664 24477
0.091 1.027 1.654 19565
0.092 1.036 1.657 18976
0.093 1.040 1.654 17685
0.093 1.045 1.651 14411
0.094 1.053 1.655 11455
0.094 1.058 1.651 9140
0.095 1.071 1.661 10435
0.096 1.081 1.664 11103
0.100 1.122 1.712 15198
0.100 1.127 1.709 20303
0.100 1.127 1.699 18830
0.101 1.136 1.702 15182
0.103 1.155 1.717 13389
0.101 1.140 1.689 13567
0.102 1.145 1.685 17148
0.103 1.154 1.688 15528
0.103 1.163 1.691 11967
0.104 1.172 1.694 10260
0.106 1.187 1.703 12308
0.106 1.191 1.699 17727
0.107 1.201 1.702 19024
0.108 1.210 1.704 15487
0.108 1.215 1.701 19379
0.109 1.224 1.703 31824
0.109 1.228 1.700 38374
0.110 1.233 1.696 33463
0.110 1.242 1.699 20333
0.111 1.247 1.695 12195
0.112 1.257 1.697 16786
0.113 1.266 1.700 22554
0.113 1.271 1.696 27158
0.115 1.290 1.710 25671
0.116 1.300 1.712 18395
0.116 1.304 1.708 16144
0.116 1.309 1.705 16550
0.117 1.314 1.701 12071
0.118 1.328 1.709 9446
0.119 1.338 1.711 10885
0.119 1.337 1.701 10197
0.119 1.342 1.697 14345
0.120 1.346 1.693 17981
0.121 1.356 1.695 25334
0.121 1.355 1.685 37398
0.121 1.360 1.681 40603
0.121 1.364 1.677 31825
0.122 1.369 1.672 20781
0.122 1.373 1.668 15486
0.123 1.378 1.664 14096
0.123 1.387 1.666 14416
0.123 1.386 1.656 12851
0.123 1.385 1.646 9436
0.123 1.384 1.636 7730
0.124 1.399 1.644 9990
0.125 1.404 1.639 10138
0.126 1.414 1.641 6926
0.126 1.412 1.631 11338
0.126 1.417 1.627 14590
0.127 1.427 1.628 14521
0.128 1.436 1.630 13202
0.129 1.452 1.637 9038
0.136 1.529 1.705 9189
0.136 1.528 1.695 14279
0.137 1.543 1.702 12471
0.138 1.548 1.697 15752
0.139 1.558 1.698 18336
0.139 1.568 1.699 20462
0.139 1.567 1.689 24194
0.140 1.577 1.689 33073
0.141 1.587 1.690 40715
0.142 1.597 1.691 31080
0.143 1.608 1.692 20704
0.145 1.629 1.703 17901
0.145 1.628 1.693 18273
0.145 1.633 1.688 17216
0.146 1.643 1.688 13759
0.147 1.653 1.689 14609
0.148 1.664 1.689 16304
0.149 1.674 1.690 15871
0.149 1.678 1.685 17152
0.151 1.695 1.690 19680
0.152 1.705 1.691 25532
0.152 1.709 1.685 18078
0.152 1.714 1.680 11943
0.153 1.724 1.680 12865
0.157 1.764 1.707 13074
0.157 1.769 1.701 18514
0.158 1.773 1.696 14293
0.158 1.772 1.686 10434
0.157 1.770 1.675 11908
0.160 1.799 1.690 12372
0.160 1.797 1.680 16330
0.161 1.814 1.685 22567
0.163 1.837 1.695 33357
0.164 1.847 1.694 32955
0.164 1.839 1.679 23222
0.166 1.862 1.688 24635
0.167 1.879 1.693 33760
0.167 1.877 1.682 30611
0.168 1.888 1.681 20196
0.170 1.917 1.695 18705
0.171 1.922 1.690 24174
0.171 1.926 1.684 27875
0.172 1.930 1.678 21914
0.174 1.960 1.692 14943
0.175 1.971 1.691 17636
0.176 1.975 1.685 14892
0.177 1.992 1.689 12976
0.177 1.990 1.678 11139
0.180 2.020 1.691 7897
0.181 2.031 1.690 14684
0.180 2.029 1.679 19226
0.181 2.033 1.673 15807
0.182 2.044 1.672 12718
0.182 2.048 1.666 10805
0.186 2.091 1.688 9266
0.187 2.102 1.686 9123
0.185 2.081 1.662 8103
0.188 2.111 1.674 7742
0.190 2.141 1.686 8529
0.191 2.152 1.684 13113
0.192 2.156 1.678 17079
0.193 2.167 1.676 15575
0.194 2.178 1.674 13343
0.194 2.183 1.667 10709
0.197 2.213 1.679 9022
0.197 2.218 1.672 11886
0.197 2.216 1.661 12529
0.198 2.226 1.659 11469
0.198 2.231 1.652 9366
0.205 2.308 1.694 10967
0.205 2.305 1.683 12051
0.208 2.343 1.698 10626
0.208 2.341 1.686 10490
0.209 2.345 1.679 9603
0.210 2.356 1.677 9059
0.210 2.361 1.670 8249
0.210 2.359 1.658 7768
0.210 2.363 1.651 8020
0.211 2.367 1.644 5609
0.220 2.472 1.700 4881
0.220 2.477 1.693 6255
0.221 2.488 1.690 6775
0.223 2.506 1.690 10563
0.223 2.504 1.679 13300
0.222 2.501 1.667 12412
0.221 2.485 1.648 9180
0.221 2.483 1.636 5882
0.222 2.494 1.633 4387
0.231 2.600 1.686 4502
0.235 2.639 1.698 4662
0.234 2.637 1.686 6183
0.234 2.634 1.674 7311
0.241 2.714 1.710 6927
0.242 2.719 1.701 8452
0.242 2.723 1.693 7564
0.244 2.741 1.693 8332
0.244 2.746 1.685 10062
0.245 2.750 1.677 9574
0.245 2.755 1.669 9085
0.245 2.759 1.661 7059
0.254 2.854 1.701 7848
0.254 2.851 1.689 8633
0.253 2.849 1.677 9671
0.254 2.860 1.672 7381
0.255 2.865 1.664 5241
0.260 2.918 1.681 8834
0.261 2.930 1.676 12462
0.261 2.934 1.667 12822
0.261 2.938 1.658 13182
0.261 2.936 1.646 11041
0.261 2.933 1.634 9154
0.262 2.944 1.629 7903
0.264 2.963 1.627 7192
0.264 2.967 1.618 7258
0.265 2.979 1.613 7298
0.265 2.983 1.604 5761
0.283 3.179 1.688 4340
0.283 3.183 1.678 4815
0.284 3.188 1.669 5290
0.285 3.207 1.666 4483
0.288 3.240 1.670 4922
0.289 3.244 1.661 4922
0.288 3.241 1.648 4219
0.287 3.231 1.632 3663
0.299 3.358 1.677 2852
0.300 3.369 1.671 3536
0.299 3.367 1.658 3550
0.309 3.479 1.695 4064
0.310 3.484 1.685 4064
0.310 3.488 1.675 2032
0.061 0.661 1.681 19002
0.061 0.665 1.679 14511
0.062 0.676 1.691 10392
0.063 0.687 1.704 8714
0.064 0.698 1.716 8244
0.065 0.703 1.714 8579
0.065 0.704 1.705 10586
0.065 0.705 1.695 13066
0.065 0.710 1.693 14719
0.066 0.714 1.691 16372
0.066 0.719 1.689 17218
0.067 0.723 1.687 18065
0.067 0.727 1.685 17933
0.067 0.732 1.682 16982
0.068 0.736 1.680 16032
0.068 0.741 1.678 17635
0.069 0.745 1.676 19368
0.069 0.750 1.673 21075
0.070 0.758 1.678 22862
0.070 0.762 1.676 21374
0.071 0.767 1.674 19887
0.071 0.771 1.671 14483
0.071 0.775 1.669 9079
0.073 0.787 1.681 11326
0.073 0.795 1.685 14205
0.074 0.800 1.683 15426
0.074 0.808 1.687 16765
0.075 0.813 1.685 12384
0.076 0.825 1.696 8371
0.077 0.833 1.701 8229
0.078 0.849 1.719 9038
0.079 0.854 1.716 11757
0.079 0.862 1.721 18567
0.080 0.867 1.718 22492
0.080 0.871 1.716 23841
0.081 0.876 1.713 25191
0.081 0.880 1.710 25636
0.081 0.881 1.701 26567
0.081 0.881 1.691 26082
0.082 0.886 1.689 24724
0.082 0.894 1.693 24008
0.083 0.899 1.690 22850
0.083 0.903 1.687 21459
0.084 0.908 1.685 17496
0.084 0.912 1.682 10108
0.084 0.917 1.679 6449
0.085 0.921 1.676 11189
0.086 0.930 1.680 18885
0.086 0.938 1.684 21790
0.086 0.939 1.675 18353
0.087 0.947 1.679 16910
0.088 0.956 1.682 19332
0.088 0.960 1.680 24258
0.089 0.965 1.677 27514
0.090 0.974 1.680 26236
0.090 0.978 1.678 25255
0.090 0.982 1.675 24133
0.091 0.987 1.672 23567
0.092 1.000 1.682 19271
0.093 1.013 1.692 17400
0.094 1.018 1.689 24202
0.094 1.018 1.679 31849
0.094 1.022 1.676 32540
0.094 1.022 1.667 30676
0.094 1.022 1.657 24579
0.095 1.027 1.654 19195
0.096 1.040 1.664 17987
0.096 1.040 1.654 16410
0.096 1.044 1.651 13793
0.097 1.053 1.655 10795
0.098 1.067 1.664 8173
0.099 1.076 1.667 9935
0.099 1.080 1.664 10578
0.104 1.127 1.718 12667
0.104 1.127 1.709 17531
0.104 1.126 1.699 17143
0.104 1.131 1.696 13934
0.106 1.154 1.717 11094
0.105 1.140 1.689 11520
0.105 1.144 1.685 16173
0.107 1.158 1.694 16516
0.107 1.158 1.685 11954
0.107 1.162 1.681 8718
0.109 1.181 1.697 10527
0.110 1.191 1.699 16175
0.111 1.200 1.702 17915
0.111 1.205 1.698 14287
0.112 1.214 1.701 17553
