-0.078 0.852 1.681 15363
-0.079 0.856 1.679 14756
-0.079 0.864 1.683 10076
-0.081 0.881 1.701 7130
-0.082 0.889 1.705 6695
-0.081 0.886 1.689 10006
-0.081 0.886 1.679 13971
-0.082 0.895 1.683 16741
-0.083 0.903 1.687 19329
-0.083 0.904 1.678 16594
-0.084 0.912 1.682 12147
-0.085 0.921 1.686 10502
-0.085 0.925 1.683 14155
-0.087 0.942 1.701 19420
-0.087 0.947 1.698 22792
-0.087 0.951 1.695 20719
-0.088 0.960 1.699 13662
-0.089 0.973 1.709 8368
-0.088 0.960 1.680 6687
-0.088 0.961 1.670 8849
-0.089 0.965 1.667 12122
-0.089 0.969 1.664 16514
-0.090 0.974 1.661 26572
-0.090 0.983 1.665 32990
-0.091 0.991 1.669 33153
-0.092 1.005 1.679 26492
-0.094 1.022 1.695 27368
-0.094 1.022 1.686 31303
-0.094 1.027 1.683 27920
-0.094 1.027 1.673 22230
-0.095 1.036 1.677 26327
-0.096 1.040 1.674 33407
-0.096 1.049 1.677 37635
-0.098 1.063 1.687 42472
-0.098 1.067 1.683 32229
-0.099 1.072 1.680 23554
-0.098 1.071 1.671 24410
-0.099 1.080 1.674 30709
-0.100 1.090 1.677 35826
-0.101 1.099 1.680 27658
-0.101 1.098 1.670 14532
-0.101 1.093 1.654 10789
-0.101 1.103 1.658 12594
-0.102 1.107 1.654 13185
-0.103 1.121 1.664 14473
-0.105 1.140 1.679 18365
-0.106 1.149 1.682 23742
-0.106 1.153 1.678 24926
-0.107 1.162 1.681 22535
-0.108 1.172 1.684 23160
-0.109 1.181 1.687 19820
-0.110 1.195 1.696 20929
-0.110 1.200 1.692 22093
-0.111 1.209 1.695 15042
-0.110 1.199 1.673 14041
-0.111 1.208 1.675 18757
-0.112 1.218 1.678 20018
-0.113 1.227 1.680 18796
-0.114 1.237 1.683 21585
-0.114 1.241 1.679 21699
-0.114 1.246 1.675 18482
-0.115 1.255 1.678 21419
-0.116 1.259 1.674 25089
-0.116 1.264 1.670 19100
-0.117 1.268 1.666 12483
-0.117 1.278 1.668 13880
-0.118 1.282 1.665 16677
-0.119 1.292 1.667 22164
-0.120 1.301 1.669 23075
-0.120 1.306 1.665 12178
-0.119 1.300 1.649 7848
-0.120 1.309 1.651 10167
-0.123 1.340 1.677 13103
-0.124 1.344 1.673 20178
-0.124 1.344 1.663 21498
-0.124 1.348 1.659 18246
-0.125 1.358 1.661 21527
-0.125 1.362 1.657 21039
-0.126 1.372 1.658 13351
-0.127 1.387 1.666 12098
-0.128 1.391 1.662 10923
-0.128 1.390 1.652 10282
-0.129 1.400 1.654 13097
-0.130 1.410 1.655 18846
-0.131 1.420 1.657 22223
-0.131 1.424 1.652 19500
-0.133 1.451 1.671 11127
-0.136 1.477 1.689 8477
-0.137 1.487 1.690 16377
-0.137 1.491 1.686 30235
-0.138 1.496 1.682 28739
-0.138 1.506 1.683 16367
-0.139 1.510 1.678 15158
-0.140 1.520 1.679 29243
-0.141 1.531 1.680 29576
-0.143 1.552 1.692 18125
-0.143 1.551 1.682 11425
-0.142 1.550 1.672 12281
-0.144 1.565 1.678 23455
-0.145 1.575 1.679 29742
-0.146 1.586 1.680 18890
-0.147 1.596 1.681 11328
-0.147 1.594 1.671 14840
-0.147 1.599 1.666 27715
-0.148 1.609 1.666 38499
-0.149 1.619 1.667 33906
-0.149 1.624 1.662 26062
-0.150 1.628 1.657 18795
-0.155 1.691 1.706 19756
-0.156 1.701 1.706 26524
-0.157 1.706 1.701 24658
-0.157 1.704 1.691 19011
-0.158 1.715 1.691 24357
-0.159 1.725 1.691 37453
-0.160 1.736 1.691 43874
-0.160 1.740 1.686 44872
-0.160 1.745 1.681 37217
-0.161 1.749 1.675 24662
-0.162 1.759 1.675 12740
-0.197 2.143 1.993 10340
-0.197 2.148 1.986 9631
-0.198 2.153 1.980 8345
-0.198 2.152 1.969 6945
-0.166 1.806 1.669 11830
-0.167 1.816 1.669 16710
-0.167 1.821 1.664 25042
-0.168 1.825 1.658 25736
-0.168 1.829 1.653 17025
-0.169 1.834 1.647 10952
-0.169 1.838 1.642 8067
-0.169 1.842 1.636 5353
-0.170 1.847 1.631 2837
-0.170 1.851 1.625 1564
-0.162 1.762 1.547 1662
-0.162 1.760 1.537 2468
-0.162 1.764 1.532 2803
-0.162 1.762 1.521 2955
-0.162 1.766 1.516 3046
-0.163 1.770 1.511 2886
-0.163 1.774 1.506 2342
-0.164 1.784 1.505 1471
-0.165 1.794 1.505 1154
-0.165 1.798 1.499 1305
-0.165 1.796 1.489 1413
-0.164 1.781 1.470 2647
-0.164 1.784 1.465 4545
-0.164 1.788 1.459 6612
-0.165 1.792 1.454 7871
-0.165 1.796 1.449 8122
-0.166 1.806 1.448 7506
-0.165 1.797 1.433 6479
-0.202 2.201 1.709 6919
-0.171 1.856 1.459 8598
-0.172 1.866 1.458 9197
-0.206 2.241 1.708 9157
-0.207 2.252 1.706 13268
-0.206 2.237 1.686 10164
-0.205 2.228 1.670 9095
-0.206 2.239 1.668 8976
-0.208 2.263 1.674 10479
-0.205 2.235 1.646 13606
-0.205 2.232 1.635 14667
-0.206 2.237 1.628 15010
-0.206 2.241 1.622 12320
-0.206 2.239 1.611 7438
-0.207 2.256 1.613 5292
-0.207 2.247 1.597 7405
-0.206 2.245 1.587 10077
-0.207 2.249 1.580 10618
-0.207 2.253 1.573 13414
-0.208 2.264 1.571 22757
-0.208 2.268 1.564 29562
-0.208 2.265 1.553 31986
-0.209 2.269 1.546 39385
-0.209 2.273 1.540 43310
-0.209 2.277 1.533 47306
-0.210 2.281 1.526 51303
-0.210 2.285 1.520 49756
-0.210 2.289 1.513 42770
-0.211 2.293 1.506 37332
-0.211 2.297 1.499 31218
-0.212 2.301 1.492 25105
-0.212 2.305 1.486 21149
-0.212 2.309 1.479 14793
-0.213 2.313 1.472 12394
-0.213 2.317 1.465 8960
-0.214 2.327 1.462 5557
-0.254 2.766 1.696 4917
-0.254 2.763 1.684 4903
-0.254 2.768 1.676 4968
-0.257 2.793 1.679 4795
-0.258 2.805 1.675 5522
-0.259 2.816 1.670 6003
-0.261 2.841 1.673 6880
-0.263 2.867 1.676 6315
-0.265 2.878 1.671 6309
-0.260 2.826 1.633 4745
-0.260 2.831 1.625 5036
-0.277 3.017 1.710 5000
-0.278 3.022 1.701 5636
-0.268 2.914 1.635 5792
-0.269 2.925 1.630 6161
-0.269 2.930 1.622 6014
-0.270 2.941 1.617 5968
-0.270 2.938 1.604 4165
-0.290 3.155 1.700 3896
-0.283 3.081 1.652 4443
-0.284 3.086 1.643 5326
-0.283 3.076 1.627 5009
-0.282 3.073 1.615 5202
-0.283 3.077 1.606 5153
-0.304 3.310 1.704 4992
-0.305 3.315 1.694 4992
-0.306 3.334 1.691 5801
-0.307 3.338 1.681 6827
-0.307 3.342 1.671 6174
-0.302 3.289 1.635 5854
-0.302 3.286 1.622 4765
-0.302 3.283 1.609 3811
-0.302 3.288 1.600 3811
-0.303 3.292 1.590 1905
-0.059 0.658 1.674 19399
-0.059 0.662 1.672 15649
-0.059 0.666 1.670 11899
-0.060 0.671 1.668 9104
-0.060 0.679 1.673 6499
-0.061 0.683 1.671 6499
-0.060 0.677 1.647 8027
-0.061 0.682 1.645 9450
-0.061 0.686 1.643 10803
-0.061 0.690 1.641 12156
-0.062 0.702 1.653 11399
-0.063 0.713 1.665 11733
-0.064 0.714 1.656 10421
-0.064 0.718 1.654 9141
-0.064 0.723 1.652 8997
-0.065 0.727 1.650 9209
-0.065 0.731 1.647 9497
-0.065 0.732 1.638 7834
-0.066 0.736 1.636 6388
-0.066 0.737 1.627 5044
-0.070 0.785 1.709 5959
-0.071 0.793 1.713 7219
-0.071 0.798 1.711 8657
-0.070 0.791 1.688 9121
-0.070 0.792 1.678 12009
-0.071 0.796 1.676 14967
-0.072 0.805 1.680 18306
-0.072 0.809 1.678 18683
-0.073 0.817 1.682 19003
-0.073 0.822 1.680 15876
-0.074 0.826 1.677 11615
-0.074 0.827 1.668 10297
-0.075 0.839 1.679 13278
-0.075 0.843 1.677 16856
-0.076 0.852 1.681 16146
-0.077 0.860 1.685 15558
-0.077 0.869 1.690 11094
-0.078 0.881 1.701 8197
-0.078 0.882 1.691 7292
-0.079 0.882 1.682 10436
-0.079 0.886 1.679 14639
-0.080 0.895 1.683 17102
-0.080 0.899 1.681 19522
-0.080 0.904 1.678 16869
-0.081 0.908 1.675 11525
-0.082 0.917 1.679 8691
-0.082 0.925 1.683 11160
-0.084 0.938 1.694 13151
-0.085 0.951 1.704 15245
-0.085 0.956 1.702 14529
-0.086 0.964 1.705 10263
-0.087 0.973 1.709 6644
-0.085 0.956 1.673 5158
-0.086 0.961 1.670 7402
-0.086 0.965 1.667 10390
-0.086 0.970 1.664 13912
-0.087 0.978 1.668 22443
-0.088 0.987 1.672 28502
-0.089 0.996 1.675 29697
-0.090 1.009 1.685 27098
-0.091 1.023 1.695 31104
-0.091 1.023 1.686 34617
-0.091 1.027 1.683 32626
-0.091 1.027 1.673 26286
-0.092 1.036 1.677 27963
-0.093 1.040 1.674 34554
-0.093 1.049 1.677 38692
-0.095 1.063 1.687 43513
-0.095 1.067 1.683 33124
-0.095 1.072 1.680 23845
-0.095 1.072 1.671 24372
-0.096 1.081 1.674 30656
-0.097 1.090 1.677 35487
-0.098 1.099 1.680 28151
-0.098 1.099 1.670 16216
-0.098 1.098 1.661 12234
-0.098 1.103 1.658 15159
-0.099 1.107 1.654 16605
-0.099 1.116 1.657 17186
-0.101 1.130 1.666 17129
-0.102 1.144 1.676 21729
-0.103 1.154 1.678 24196
-0.104 1.168 1.688 23185
-0.104 1.172 1.684 22603
-0.105 1.181 1.687 18305
-0.106 1.196 1.696 19118
-0.107 1.205 1.698 20041
-0.108 1.210 1.695 12334
-0.108 1.209 1.685 9265
-0.108 1.214 1.681 16010
-0.108 1.218 1.678 21326
-0.110 1.232 1.686 22903
-0.110 1.237 1.683 27564
-0.110 1.241 1.679 29837
-0.111 1.251 1.681 26129
-0.112 1.260 1.684 23486
-0.113 1.265 1.680 22518
-0.113 1.269 1.676 15500
-0.113 1.269 1.666 10743
-0.114 1.278 1.668 14255
-0.114 1.277 1.659 17074
-0.115 1.292 1.667 21776
-0.116 1.302 1.669 22584
-0.115 1.296 1.653 14703
-0.116 1.305 1.655 11060
-0.117 1.315 1.657 9425
-0.119 1.340 1.677 10854
-0.119 1.340 1.667 19086
-0.119 1.339 1.657 21762
-0.120 1.343 1.653 17328
-0.120 1.353 1.655 18499
-0.121 1.362 1.657 18258
-0.122 1.367 1.653 9534
-0.124 1.393 1.672 6173
-0.123 1.386 1.656 7115
-0.124 1.391 1.652 9872
-0.124 1.395 1.648 13203
-0.126 1.410 1.655 20850
-0.126 1.420 1.657 25939
-0.127 1.430 1.658 19947
-0.129 1.445 1.665 11836
-0.131 1.472 1.684 9762
-0.131 1.476 1.679 15640
-0.133 1.492 1.686 27271
-0.133 1.496 1.682 21012
-0.134 1.506 1.683 10280
-0.135 1.516 1.684 12835
-0.135 1.521 1.679 24518
-0.136 1.531 1.680 27066
-0.138 1.552 1.692 21399
-0.138 1.551 1.682 15487
-0.138 1.556 1.678 16520
-0.139 1.566 1.678 24757
-0.140 1.570 1.674 26036
-0.141 1.580 1.675 17205
-0.142 1.590 1.675 9647
-0.141 1.589 1.665 13759
-0.143 1.605 1.671 32396
-0.143 1.610 1.666 47233
-0.144 1.620 1.667 44884
-0.145 1.624 1.662 39075
-0.145 1.629 1.657 30412
-0.145 1.633 1.653 21773
-0.151 1.702 1.706 23209
-0.151 1.700 1.696 24109
-0.151 1.699 1.685 25262
-0.152 1.709 1.685 27876
-0.154 1.726 1.691 36866
-0.154 1.730 1.686 43592
-0.155 1.741 1.686 44205
-0.155 1.745 1.681 35395
-0.156 1.749 1.675 21501
-0.157 1.760 1.675 12338
-0.158 1.770 1.675 12053
-0.158 1.775 1.670 9602
-0.158 1.773 1.660 5924
-0.159 1.784 1.659 8229
-0.160 1.800 1.664 14835
-0.162 1.817 1.669 22461
-0.162 1.821 1.664 27623
-0.162 1.826 1.658 23743
-0.163 1.830 1.653 13673
-0.163 1.834 1.647 8269
-0.164 1.839 1.642 6794
-0.164 1.843 1.636 4965
-0.164 1.847 1.631 2874
-0.165 1.858 1.630 1708
-0.157 1.763 1.547 1598
-0.157 1.767 1.542 2504
-0.157 1.764 1.532 2720
-0.157 1.762 1.521 2442
-0.157 1.766 1.516 2191
-0.158 1.770 1.511 2570
-0.158 1.780 1.510 2844
-0.159 1.784 1.505 2013
-0.159 1.788 1.500 1200
-0.160 1.799 1.499 1087
-0.162 1.815 1.503 1165
-0.159 1.787 1.475 1747
-0.159 1.785 1.465 3460
-0.159 1.789 1.459 5260
-0.160 1.792 1.454 6015
-0.160 1.796 1.449 5954
-0.161 1.806 1.448 5567
-0.160 1.797 1.433 4894
-0.196 2.202 1.709 6972
-0.196 2.200 1.698 7278
-0.166 1.867 1.458 7112
-0.199 2.235 1.703 8523
-0.200 2.252 1.706 12521
-0.203 2.276 1.712 9480
-0.198 2.222 1.666 6603
-0.199 2.233 1.663 6853
-0.199 2.237 1.657 9692
-0.199 2.235 1.646 13392
-0.199 2.233 1.635 14258
-0.199 2.237 1.628 13630
-0.200 2.242 1.622 10263
-0.199 2.239 1.611 5648
-0.210 2.356 1.677 3908
-0.200 2.248 1.597 5055
-0.200 2.252 1.591 6614
-0.200 2.249 1.580 6646
-0.201 2.260 1.577 9699
-0.202 2.264 1.571 18694
-0.202 2.268 1.564 24619
-0.202 2.273 1.557 27237
-0.202 2.270 1.546 34113
-0.202 2.274 1.540 37547
-0.203 2.278 1.533 41237
-0.203 2.282 1.526 44927
-0.203 2.286 1.520 43420
-0.204 2.290 1.513 37458
-0.204 2.294 1.506 33002
-0.205 2.298 1.499 27430
-0.205 2.302 1.492 21858
-0.205 2.306 1.486 17247
-0.206 2.316 1.483 10499
-0.206 2.313 1.472 8342
-0.244 2.737 1.701 6584
-0.244 2.741 1.693 4760
-0.240 2.698 1.658 4447
-0.241 2.702 1.650 4137
-0.246 2.769 1.676 4319
-0.249 2.801 1.683 4479
-0.250 2.812 1.679 5379
-0.251 2.817 1.670 5563
-0.252 2.828 1.666 5774
-0.255 2.867 1.676 5013
-0.257 2.893 1.678 5388
-0.260 2.918 1.681 4643
-0.252 2.831 1.625 4998
-0.269 3.025 1.714 4521
-0.270 3.030 1.705 5260
-0.261 2.936 1.646 4741
-0.261 2.933 1.634 5279
-0.261 2.937 1.625 5571
-0.262 2.942 1.617 5863
-0.262 2.946 1.608 4255
-0.281 3.156 1.700 3944
-0.274 3.075 1.649 4051
-0.274 3.079 1.640 5166
-0.274 3.077 1.627 4905
-0.273 3.067 1.612 5025
-0.274 3.078 1.606 5043
-0.294 3.304 1.700 4584
-0.294 3.308 1.690 4584
-0.297 3.334 1.691 5325
-0.297 3.339 1.681 6417
-0.298 3.343 1.671 6078
-0.298 3.348 1.661 5739
-0.293 3.294 1.625 4468
-0.292 3.277 1.606 4086
-0.292 3.281 1.596 4086
-0.292 3.286 1.587 2043
-0.209 2.348 1.171 277
-0.057 0.654 1.667 18859
-0.058 0.662 1.672 15199
-0.058 0.666 1.670 11552
-0.059 0.671 1.668 9091
-0.059 0.679 1.673 6814
-0.060 0.683 1.671 6814
-0.059 0.677 1.647 8081
-0.059 0.678 1.638 9405
-0.060 0.686 1.643 10525
-0.060 0.691 1.641 11684
-0.061 0.702 1.653 10752
-0.062 0.710 1.658 10930
-0.062 0.714 1.656 10198
-0.063 0.718 1.654 9466
-0.063 0.723 1.652 9430
-0.064 0.727 1.650 9426
-0.064 0.731 1.647 9342
-0.064 0.732 1.638 7830
-0.064 0.733 1.629 6558
-0.064 0.737 1.627 5274
-0.069 0.785 1.709 5731
-0.069 0.793 1.713 7193
-0.070 0.798 1.711 8843
-0.069 0.791 1.688 9243
-0.069 0.792 1.678 12062
-0.070 0.797 1.676 14856
-0.070 0.805 1.680 17919
-0.071 0.809 1.678 18443
-0.071 0.817 1.682 18853
-0.072 0.822 1.680 15917
-0.072 0.826 1.677 11853
-0.072 0.827 1.668 10578
-0.073 0.839 1.679 13395
-0.074 0.844 1.677 16987
-0.074 0.852 1.681 16540
-0.075 0.860 1.685 16410
-0.076 0.869 1.690 12164
-0.077 0.881 1.701 9370
-0.077 0.882 1.691 8002
-0.077 0.882 1.682 10750
-0.077 0.887 1.679 15001
-0.078 0.891 1.677 17484
-0.079 0.900 1.681 19609
-0.079 0.904 1.678 17082
-0.079 0.908 1.675 11331
-0.080 0.917 1.679 7815
-0.081 0.921 1.676 9862
-0.081 0.930 1.680 10669
-0.083 0.955 1.711 10961
-0.084 0.960 1.708 10569
-0.084 0.965 1.705 7956
-0.085 0.973 1.709 5470
-0.084 0.957 1.673 4235
-0.084 0.961 1.670 6260
-0.085 0.970 1.674 8912
-0.084 0.965 1.658 11964
-0.085 0.979 1.668 19348
-0.086 0.987 1.672 24621
-0.087 0.996 1.675 26990
-0.088 1.009 1.685 28008
-0.089 1.023 1.695 33362
-0.089 1.023 1.686 36259
-0.090 1.027 1.683 35220
-0.090 1.027 1.673 28741
-0.091 1.036 1.677 28503
-0.091 1.041 1.674 34176
-0.092 1.050 1.677 38120
-0.092 1.059 1.680 42839
-0.093 1.068 1.683 32673
-0.094 1.072 1.680 23084
-0.094 1.072 1.671 23100
-0.094 1.081 1.674 29392
-0.095 1.090 1.677 34402
-0.096 1.094 1.674 28252
-0.096 1.099 1.670 17715
-0.096 1.099 1.661 13327
-0.096 1.103 1.658 16605
-0.097 1.107 1.654 18814
-0.098 1.116 1.657 18956
-0.098 1.126 1.660 16866
-0.100 1.140 1.669 19825
-0.101 1.154 1.678 22608
-0.102 1.168 1.688 22329
-0.103 1.177 1.690 20694
-0.104 1.186 1.693 16302
-0.104 1.196 1.696 17241
-0.105 1.205 1.698 17747
-0.107 1.220 1.707 11769
-0.107 1.224 1.703 9961
-0.106 1.214 1.681 16682
-0.107 1.223 1.684 22549
-0.108 1.233 1.686 25193
-0.108 1.237 1.683 31616
-0.108 1.242 1.679 36569
-0.109 1.251 1.681 35250
-0.110 1.256 1.678 29996
-0.111 1.265 1.680 22327
-0.111 1.270 1.676 12231
-0.111 1.274 1.672 8324
-0.112 1.278 1.668 12973
-0.112 1.278 1.659 16596
-0.112 1.287 1.661 20832
-0.113 1.297 1.663 21521
-0.113 1.296 1.653 16752
-0.114 1.306 1.655 13894
-0.115 1.320 1.663 9379
-0.117 1.335 1.671 9852
-0.117 1.334 1.661 18267
-0.117 1.339 1.657 21705
-0.117 1.343 1.653 16077
-0.118 1.353 1.655 15549
-0.119 1.357 1.651 15923
-0.119 1.362 1.647 7729
-0.118 1.350 1.625 3511
-0.120 1.370 1.639 6043
-0.122 1.391 1.652 10134
-0.122 1.401 1.654 13367
-0.123 1.411 1.655 22754
-0.124 1.420 1.657 28821
-0.125 1.430 1.658 20489
-0.126 1.440 1.659 13169
-0.128 1.467 1.678 11126
-0.129 1.471 1.673 16581
-0.130 1.492 1.686 24571
-0.131 1.502 1.687 17989
-0.132 1.512 1.688 10736
-0.132 1.517 1.684 12412
-0.133 1.521 1.679 19828
-0.134 1.537 1.686 23688
-0.136 1.553 1.692 22440
-0.136 1.551 1.682 17944
-0.136 1.556 1.678 18575
-0.137 1.566 1.678 26011
-0.137 1.570 1.674 25089
-0.138 1.581 1.675 17170
-0.138 1.579 1.664 11596
-0.138 1.584 1.660 14767
-0.140 1.605 1.671 34230
-0.141 1.610 1.666 50469
-0.142 1.620 1.667 50309
-0.142 1.624 1.662 47544
-0.142 1.629 1.657 38616
-0.143 1.633 1.653 27770
-0.143 1.638 1.648 20750
-0.149 1.701 1.696 23425
-0.148 1.699 1.685 28770
-0.149 1.710 1.685 29687
-0.151 1.726 1.691 34788
-0.151 1.730 1.686 41118
-0.152 1.741 1.686 40973
-0.152 1.745 1.681 32009
-0.153 1.750 1.675 18732
-0.154 1.760 1.675 13174
-0.155 1.771 1.675 14856
-0.155 1.775 1.670 11062
-0.155 1.779 1.665 8577
-0.156 1.784 1.659 11394
-0.157 1.800 1.664 17701
-0.158 1.811 1.664 25065
-0.159 1.821 1.664 27304
-0.160 1.826 1.658 21013
-0.160 1.830 1.653 10333
-0.160 1.835 1.647 5816
-0.161 1.839 1.642 5844
-0.161 1.843 1.636 4714
-0.161 1.848 1.631 2867
-0.162 1.858 1.630 1792
-0.155 1.769 1.552 1334
-0.154 1.767 1.542 2167
-0.154 1.765 1.532 2415
-0.155 1.769 1.526 2107
-0.155 1.773 1.521 1918
-0.155 1.777 1.516 2678
-0.156 1.781 1.510 3284
-0.156 1.785 1.505 2544
-0.156 1.789 1.500 1652
-0.157 1.799 1.499 1439
-0.158 1.809 1.499 1401
-0.157 1.794 1.479 1552
-0.156 1.785 1.465 3043
-0.157 1.795 1.464 4741
-0.157 1.793 1.454 5093
-0.157 1.796 1.449 4724
-0.158 1.807 1.448 4418
-0.159 1.817 1.447 4040
-0.192 2.202 1.709 6384
-0.192 2.200 1.698 7061
-0.193 2.205 1.692 6720
-0.195 2.235 1.703 7666
-0.197 2.253 1.706 11135
-0.199 2.277 1.712 8467
-0.194 2.222 1.666 5247
-0.195 2.227 1.659 5801
-0.195 2.231 1.652 9343
-0.195 2.236 1.646 12597
-0.195 2.233 1.635 12832
-0.195 2.238 1.628 11353
-0.196 2.242 1.622 7712
-0.205 2.346 1.679 4279
-0.206 2.357 1.677 4070
-0.207 2.368 1.674 3687
-0.197 2.259 1.595 5229
-0.197 2.256 1.584 5406
-0.197 2.261 1.577 7265
-0.198 2.265 1.571 13689
-0.198 2.269 1.564 18253
-0.199 2.273 1.557 20607
-0.198 2.270 1.546 26360
-0.199 2.274 1.540 29197
-0.199 2.278 1.533 32049
-0.199 2.282 1.526 34901
-0.200 2.286 1.520 33837
-0.200 2.290 1.513 29401
-0.200 2.294 1.506 26027
-0.201 2.298 1.499 21644
-0.201 2.302 1.492 17260
-0.201 2.306 1.486 13417
-0.202 2.310 1.479 7651
-0.239 2.733 1.709 6857
-0.239 2.737 1.701 5986
-0.239 2.735 1.689 4384
-0.236 2.698 1.658 5059
-0.236 2.702 1.650 4581
-0.236 2.700 1.638 4154
-0.245 2.801 1.683 4077
-0.246 2.820 1.682 4980
-0.246 2.817 1.670 4920
-0.246 2.821 1.662 4861
-0.247 2.826 1.654 4213
-0.255 2.914 1.689 4964
-0.256 2.926 1.684 4560
-0.247 2.832 1.625 4741
-0.249 2.850 1.624 4227
-0.265 3.037 1.709 4763
-0.258 2.950 1.653 4340
-0.258 2.948 1.641 4707
-0.257 2.938 1.625 5035
-0.257 2.942 1.617 5487
-0.257 2.946 1.608 4118
-0.276 3.156 1.700 3757
-0.269 3.075 1.649 3520
-0.269 3.080 1.640 4682
-0.268 3.070 1.624 4574
-0.268 3.067 1.612 4665
-0.269 3.078 1.606 4722
-0.289 3.304 1.700 4154
-0.289 3.309 1.690 4154
-0.291 3.328 1.687 4772
-0.292 3.339 1.681 5801
-0.292 3.344 1.671 5684
-0.293 3.348 1.661 5567
-0.288 3.295 1.625 4348
-0.286 3.278 1.606 4328
-0.287 3.282 1.596 4328
-0.287 3.286 1.587 2164
-0.055 0.655 1.667 17760
-0.056 0.659 1.665 14566
-0.056 0.663 1.663 11372
-0.057 0.671 1.668 9275
-0.058 0.682 1.680 7705
-0.058 0.687 1.678 7705
-0.057 0.678 1.647 7994
-0.057 0.679 1.638 9136
-0.058 0.686 1.643 10002
-0.058 0.691 1.641 10984
-0.059 0.698 1.646 10022
-0.060 0.710 1.658 10224
-0.060 0.714 1.656 9898
-0.061 0.718 1.654 9571
-0.061 0.723 1.652 9668
-0.061 0.724 1.642 9538
-0.062 0.728 1.640 9156
-0.062 0.732 1.638 7877
-0.062 0.737 1.636 6875
-0.063 0.741 1.634 5537
-0.066 0.782 1.702 5599
-0.067 0.793 1.713 7137
-0.067 0.798 1.711 8977
-0.067 0.792 1.688 9440
-0.067 0.792 1.678 12255
-0.067 0.797 1.676 15095
-0.068 0.805 1.680 18123
-0.068 0.809 1.678 18795
-0.069 0.818 1.682 19290
-0.070 0.822 1.680 16507
-0.070 0.827 1.677 12384
-0.070 0.827 1.668 10881
-0.071 0.839 1.679 13804
-0.072 0.848 1.684 17605
-0.072 0.852 1.681 17378
-0.073 0.860 1.685 17651
-0.074 0.873 1.697 13576
-0.075 0.881 1.701 10628
-0.075 0.882 1.691 9005
-0.075 0.882 1.682 11591
-0.075 0.887 1.679 15939
-0.075 0.891 1.677 18290
-0.076 0.900 1.681 19921
-0.076 0.904 1.678 17431
-0.077 0.909 1.675 11404
-0.078 0.921 1.686 7613
-0.078 0.922 1.676 9500
-0.078 0.926 1.674 10325
-0.078 0.918 1.651 10178
-0.078 0.922 1.648 10011
-0.078 0.927 1.645 7244
-0.078 0.923 1.629 4898
-0.081 0.952 1.666 4072
-0.081 0.961 1.670 5820
-0.082 0.970 1.674 7875
-0.082 0.966 1.658 10536
-0.082 0.974 1.661 16594
-0.083 0.988 1.672 20838
-0.084 0.996 1.675 24494
-0.085 1.010 1.685 29332
-0.086 1.023 1.695 36127
-0.086 1.023 1.686 38886
-0.087 1.027 1.683 38247
-0.087 1.027 1.673 31132
-0.088 1.036 1.677 29032
-0.088 1.041 1.674 33597
-0.089 1.050 1.677 37111
-0.090 1.059 1.680 41432
-0.090 1.068 1.683 31455
-0.090 1.068 1.674 22482
-0.091 1.072 1.671 22439
-0.091 1.081 1.674 28678
-0.092 1.090 1.677 33721
-0.093 1.095 1.674 28343
-0.093 1.104 1.677 18959
-0.093 1.099 1.661 14817
-0.093 1.103 1.658 18489
-0.094 1.108 1.654 20788
-0.094 1.117 1.657 20391
-0.095 1.126 1.660 16809
-0.096 1.140 1.669 18049
-0.097 1.149 1.672 20504
-0.099 1.168 1.688 20909
-0.100 1.177 1.690 19101
-0.100 1.187 1.693 15325
-0.101 1.196 1.696 15712
-0.102 1.206 1.698 15588
-0.103 1.220 1.707 12655
-0.103 1.219 1.697 12966
-0.103 1.219 1.687 18452
-0.103 1.223 1.684 23792
-0.104 1.233 1.686 27307
-0.105 1.237 1.683 35187
-0.105 1.242 1.679 42529
-0.106 1.251 1.681 43921
-0.106 1.256 1.678 37716
-0.107 1.265 1.680 23535
-0.108 1.275 1.682 10380
-0.108 1.279 1.678 7045
-0.108 1.279 1.668 11646
-0.108 1.278 1.659 15259
-0.109 1.288 1.661 19154
-0.110 1.297 1.663 20847
-0.110 1.296 1.653 18092
-0.110 1.306 1.655 15191
-0.112 1.326 1.669 10106
-0.113 1.336 1.671 10212
-0.113 1.335 1.661 18402
-0.113 1.339 1.657 22281
-0.114 1.344 1.653 16056
-0.114 1.348 1.649 13205
-0.115 1.358 1.651 13281
-0.115 1.362 1.647 8329
-0.116 1.366 1.643 4986
-0.116 1.371 1.639 6252
-0.118 1.397 1.658 10332
-0.118 1.401 1.654 13641
-0.119 1.411 1.655 24947
-0.120 1.421 1.657 32294
-0.121 1.431 1.658 21399
-0.122 1.440 1.659 14266
-0.123 1.450 1.661 13215
-0.124 1.471 1.673 17549
-0.126 1.487 1.680 22136
-0.127 1.502 1.687 19757
-0.128 1.513 1.688 16174
-0.128 1.517 1.684 12732
-0.129 1.521 1.679 15435
-0.130 1.537 1.686 20466
-0.131 1.553 1.692 22515
-0.131 1.552 1.682 19554
-0.132 1.556 1.678 19638
-0.132 1.566 1.678 26710
-0.133 1.571 1.674 24537
-0.134 1.581 1.675 17473
-0.134 1.580 1.664 14514
-0.134 1.590 1.665 16496
-0.136 1.606 1.671 35293
-0.136 1.610 1.666 52529
-0.137 1.620 1.667 53039
-0.137 1.625 1.662 52568
-0.138 1.629 1.657 45378
-0.138 1.634 1.653 33110
-0.138 1.638 1.648 24115
-0.144 1.701 1.696 22784
-0.144 1.700 1.685 30901
-0.145 1.710 1.685 30208
-0.146 1.726 1.691 32160
-0.146 1.731 1.686 37646
-0.147 1.741 1.686 36684
-0.148 1.746 1.681 28065
-0.147 1.744 1.670 16646
-0.149 1.761 1.675 14487
-0.150 1.771 1.675 17494
-0.150 1.775 1.670 12502
-0.150 1.780 1.665 10990
-0.151 1.784 1.659 14731
-0.152 1.801 1.664 21013
-0.153 1.811 1.664 27864
-0.154 1.822 1.664 26207
-0.154 1.826 1.658 17646
-0.154 1.824 1.648 7115
-0.155 1.829 1.642 3515
-0.156 1.839 1.642 4714
-0.156 1.844 1.636 4294
-0.157 1.854 1.636 2759
-0.157 1.858 1.630 1760
-0.158 1.863 1.625 1189
-0.149 1.767 1.542 1811
-0.149 1.765 1.532 1994
-0.150 1.769 1.526 1698
-0.150 1.773 1.521 1781
-0.150 1.777 1.516 2872
-0.151 1.781 1.510 3579
-0.151 1.785 1.505 2936
-0.151 1.789 1.500 2024
-0.152 1.793 1.495 1765
-0.152 1.803 1.494 1609
-0.151 1.788 1.475 1535
-0.151 1.785 1.465 2902
-0.152 1.796 1.464 4646
-0.152 1.793 1.454 4753
-0.152 1.797 1.449 4055
-0.153 1.807 1.448 3683
-0.154 1.817 1.447 3523
-0.186 2.203 1.709 5745
-0.186 2.201 1.698 6680
-0.186 2.205 1.692 6541
-0.188 2.229 1.699 6826
-0.191 2.253 1.706 9562
-0.193 2.277 1.712 7312
-0.188 2.223 1.666 4691
-0.188 2.227 1.659 5403
-0.189 2.232 1.652 9348
-0.189 2.236 1.646 12261
-0.189 2.234 1.635 11961
-0.189 2.238 1.628 9578
-0.190 2.242 1.622 5400
-0.198 2.346 1.679 4183
-0.199 2.357 1.677 3879
-0.200 2.368 1.674 3983
-0.201 2.379 1.671 4767
-0.202 2.384 1.664 5226
-0.192 2.268 1.582 5325
-0.192 2.265 1.571 9126
-0.192 2.269 1.564 12262
-0.192 2.273 1.557 14157
-0.192 2.271 1.546 18681
-0.192 2.275 1.540 20938
-0.193 2.279 1.533 22992
-0.193 2.283 1.526 25046
-0.193 2.287 1.520 24252
-0.194 2.291 1.513 21055
-0.194 2.295 1.506 18653
-0.194 2.299 1.499 15497
-0.195 2.303 1.492 12340
-0.195 2.307 1.486 9494
-0.224 2.653 1.674 6753
-0.225 2.658 1.666 6283
-0.231 2.738 1.701 5300
-0.229 2.708 1.674 4775
-0.229 2.706 1.662 5651
-0.229 2.703 1.650 4990
-0.228 2.700 1.638 4406
-0.235 2.781 1.672 3667
-0.239 2.827 1.686 4613
-0.239 2.825 1.674 4200
-0.239 2.822 1.662 4004
-0.247 2.917 1.702 3879
-0.247 2.922 1.693 4567
-0.247 2.926 1.684 4378
-0.240 2.840 1.629 4350
-0.249 2.949 1.674 4114
-0.257 3.038 1.709 4379
-0.251 2.972 1.664 4404
-0.253 2.991 1.662 4871
-0.249 2.946 1.629 4532
-0.249 2.943 1.617 4987
-0.249 2.947 1.608 3888
-0.266 3.150 1.696 3592
-0.266 3.147 1.683 3247
-0.260 3.073 1.636 4168
-0.260 3.071 1.624 4185
-0.259 3.068 1.612 4279
-0.260 3.079 1.606 4365
-0.279 3.305 1.700 3945
-0.280 3.310 1.690 3945
-0.281 3.329 1.687 4425
-0.282 3.340 1.681 5300
-0.283 3.345 1.671 5336
-0.280 3.313 1.645 5430
-0.279 3.296 1.625 4422
-0.277 3.278 1.606 4567
-0.278 3.283 1.596 4567
-0.278 3.287 1.587 2283
-0.053 0.655 1.667 16801
-0.054 0.659 1.665 14023
-0.054 0.667 1.670 11302
-0.055 0.675 1.675 9538
-0.056 0.682 1.680 8531
-0.056 0.687 1.678 8531
-0.055 0.678 1.647 7913
-0.055 0.679 1.638 8885
-0.056 0.683 1.636 9549
-0.056 0.691 1.641 10335
-0.057 0.699 1.646 9414
-0.058 0.713 1.665 9668
-0.058 0.714 1.656 9642
-0.059 0.719 1.654 9635
-0.059 0.723 1.652 9842
-0.059 0.724 1.642 9664
-0.059 0.728 1.640 9034
-0.060 0.736 1.645 8018
-0.060 0.737 1.636 7289
-0.061 0.745 1.641 5968
-0.063 0.778 1.695 5565
-0.064 0.790 1.706 7071
-0.065 0.798 1.711 9058
-0.065 0.792 1.688 9727
-0.065 0.792 1.678 12588
-0.065 0.797 1.676 15419
-0.066 0.805 1.680 18394
-0.066 0.810 1.678 19166
-0.067 0.818 1.682 19694
-0.067 0.822 1.680 17092
-0.067 0.827 1.677 12946
-0.067 0.827 1.668 11237
-0.068 0.839 1.679 14286
-0.069 0.848 1.684 18407
-0.070 0.856 1.688 18338
-0.071 0.865 1.692 18877
-0.071 0.873 1.697 14849
-0.072 0.882 1.701 11755
-0.072 0.882 1.691 9999
-0.072 0.883 1.682 12620
-0.072 0.887 1.679 17141
-0.073 0.891 1.677 19337
-0.073 0.900 1.681 20560
-0.074 0.904 1.678 18042
-0.074 0.909 1.675 11903
-0.075 0.922 1.686 8357
-0.076 0.926 1.683 10123
-0.075 0.922 1.667 10830
-0.075 0.918 1.651 10673
-0.075 0.923 1.648 9861
-0.075 0.923 1.639 6760
-0.075 0.923 1.629 4684
-0.081 0.995 1.733 3903
-0.080 0.979 1.697 5449
-0.079 0.970 1.674 7291
-0.079 0.966 1.658 9610
-0.079 0.975 1.661 14366
-0.081 0.992 1.678 17450
-0.082 1.001 1.682 22204
-0.083 1.014 1.692 30255
-0.083 1.023 1.695 38132
-0.083 1.023 1.686 40627
-0.084 1.028 1.683 40243
-0.084 1.032 1.680 32869
-0.085 1.037 1.677 29442
-0.085 1.041 1.674 33005
-0.086 1.050 1.677 35954
-0.086 1.059 1.680 39584
-0.087 1.068 1.683 29967
-0.087 1.068 1.674 21815
-0.087 1.072 1.671 21736
-0.088 1.081 1.674 27975
-0.089 1.091 1.677 33185
-0.089 1.095 1.674 28215
-0.090 1.104 1.677 19597
-0.090 1.104 1.667 16015
-0.090 1.104 1.658 19982
-0.091 1.113 1.661 22266
-0.091 1.117 1.657 21371
-0.091 1.121 1.654 16677
-0.093 1.140 1.669 16454
-0.094 1.149 1.672 18256
-0.095 1.168 1.688 18724
-0.096 1.178 1.690 17152
-0.097 1.187 1.693 14622
-0.098 1.196 1.696 14175
-0.099 1.211 1.704 13439
-0.099 1.215 1.701 12812
-0.099 1.215 1.691 15371
-0.099 1.219 1.687 19865
-0.100 1.224 1.684 24011
-0.101 1.233 1.686 28161
-0.101 1.238 1.683 37110
-0.102 1.247 1.685 45848
-0.102 1.252 1.681 49667
-0.102 1.256 1.678 43922
-0.103 1.261 1.674 24954
-0.104 1.275 1.682 10247
-0.104 1.280 1.678 7972
-0.105 1.284 1.674 11027
-0.104 1.278 1.659 13392
-0.105 1.288 1.661 16748
-0.105 1.292 1.657 20504
-0.106 1.297 1.653 19668
-0.107 1.311 1.661 16502
-0.109 1.332 1.675 11005
-0.109 1.336 1.671 10475
-0.109 1.335 1.661 17976
-0.109 1.340 1.657 21974
-0.110 1.344 1.653 16263
-0.110 1.348 1.649 11682
-0.111 1.358 1.651 10379
-0.112 1.368 1.653 8544
-0.112 1.377 1.654 7732
-0.112 1.371 1.639 7406
-0.114 1.397 1.658 11031
-0.114 1.401 1.654 15025
-0.115 1.411 1.655 27494
-0.116 1.421 1.657 35081
-0.117 1.431 1.658 22552
-0.117 1.441 1.659 15358
-0.118 1.445 1.655 15566
-0.119 1.461 1.662 18872
-0.120 1.476 1.669 20992
-0.123 1.503 1.687 21367
-0.123 1.513 1.688 20215
-0.124 1.517 1.684 12668
-0.125 1.527 1.685 11734
-0.125 1.538 1.686 17524
-0.126 1.548 1.687 22172
-0.127 1.552 1.682 20207
-0.127 1.557 1.678 19163
-0.128 1.567 1.678 25724
-0.128 1.571 1.674 23630
-0.129 1.581 1.675 17736
-0.129 1.580 1.664 16417
-0.130 1.590 1.665 17751
-0.131 1.606 1.671 35378
-0.131 1.611 1.666 53342
-0.132 1.621 1.667 54413
-0.133 1.625 1.662 55096
-0.133 1.630 1.657 49474
-0.133 1.634 1.653 36736
-0.134 1.638 1.648 26167
-0.139 1.701 1.696 22019
-0.139 1.700 1.685 31515
-0.139 1.710 1.685 29383
-0.141 1.727 1.691 28924
-0.141 1.731 1.686 33497
-0.142 1.736 1.681 32331
-0.142 1.740 1.675 24848
-0.142 1.745 1.670 16495
-0.144 1.761 1.675 16947
-0.144 1.771 1.675 19633
-0.145 1.776 1.670 13187
-0.145 1.780 1.665 11855
-0.146 1.785 1.659 16455
-0.147 1.801 1.664 23139
-0.148 1.812 1.664 28819
-0.148 1.816 1.659 23825
-0.149 1.827 1.658 13979
-0.149 1.825 1.648 5042
-0.149 1.823 1.637 2680
-0.150 1.840 1.642 4058
-0.150 1.844 1.636 3937
-0.151 1.848 1.631 2562
-0.152 1.859 1.630 1631
-0.152 1.863 1.625 1204
-0.144 1.768 1.542 1398
-0.144 1.766 1.532 1529
-0.144 1.770 1.526 1263
-0.145 1.774 1.521 1665
-0.145 1.778 1.516 3033
-0.145 1.782 1.510 3755
-0.146 1.786 1.505 3211
-0.146 1.789 1.500 2314
-0.146 1.793 1.495 2014
-0.147 1.797 1.489 1767
-0.146 1.788 1.475 1577
-0.146 1.792 1.469 2916
-0.146 1.796 1.464 4649
-0.147 1.800 1.459 4566
-0.147 1.797 1.449 3507
-0.147 1.801 1.443 3054
-0.148 1.818 1.447 3109
-0.180 2.203 1.709 5051
-0.179 2.201 1.698 6098
-0.180 2.206 1.692 6069
-0.181 2.223 1.694 5939
-0.184 2.254 1.706 8004
-0.185 2.265 1.703 6383
-0.181 2.223 1.666 4446
-0.181 2.221 1.655 5255
-0.182 2.232 1.652 9316
-0.182 2.237 1.646 11818
-0.182 2.234 1.635 11141
-0.183 2.239 1.628 8118
-0.190 2.336 1.682 4418
-0.191 2.347 1.679 4075
-0.193 2.364 1.681 3696
-0.193 2.369 1.674 4313
-0.194 2.380 1.671 5212
-0.194 2.384 1.664 5457
-0.195 2.396 1.661 4665
-0.185 2.273 1.575 5778
-0.185 2.270 1.564 7746
-0.185 2.274 1.557 9193
-0.185 2.271 1.546 12580
-0.186 2.282 1.544 14303
-0.186 2.279 1.533 15656
-0.186 2.284 1.526 17032
-0.187 2.288 1.520 16462
-0.187 2.291 1.513 14288
-0.187 2.295 1.506 12685
-0.188 2.299 1.499 10549
-0.188 2.303 1.492 8413
-0.216 2.650 1.682 7472
-0.216 2.654 1.674 7105
-0.217 2.659 1.666 6738
-0.217 2.663 1.659 5044
-0.221 2.709 1.674 5037
-0.221 2.706 1.662 6022
-0.221 2.711 1.654 5202
-0.221 2.708 1.642 4422
-0.223 2.733 1.646 3626
-0.232 2.849 1.697 4693
-0.233 2.860 1.693 3939
-0.236 2.900 1.703 3492
-0.238 2.918 1.702 3727
-0.239 2.929 1.697 4126
-0.239 2.927 1.684 4075
-0.238 2.917 1.668 4157
-0.241 2.957 1.678 4082
-0.242 2.968 1.673 4544
-0.243 2.980 1.668 4858
-0.244 2.991 1.662 5241
-0.240 2.946 1.629 4096
-0.240 2.943 1.617 4488
-0.240 2.948 1.608 3631
-0.256 3.144 1.693 3410
-0.256 3.141 1.680 3172
-0.251 3.074 1.636 3762
-0.250 3.071 1.624 3880
-0.250 3.069 1.612 4011
-0.251 3.080 1.606 4100
-0.270 3.313 1.704 3835
-0.271 3.318 1.694 3835
-0.271 3.329 1.687 4182
-0.272 3.341 1.681 4816
-0.273 3.345 1.671 4950
-0.269 3.299 1.638 5570
-0.268 3.289 1.622 4630
-0.267 3.279 1.606 4781
-0.268 3.283 1.596 4781
-0.268 3.288 1.587 2390
-0.165 2.023 1.030 233
-0.052 0.655 1.667 16042
-0.053 0.662 1.672 13584
-0.053 0.667 1.670 11258
-0.054 0.675 1.675 9739
-0.055 0.682 1.680 8933
-0.055 0.687 1.678 8933
-0.054 0.678 1.647 7720
-0.054 0.679 1.638 8568
-0.055 0.683 1.636 9107
-0.055 0.688 1.634 9647
-0.056 0.699 1.646 8802
-0.057 0.713 1.665 9309
-0.057 0.714 1.656 9409
-0.057 0.719 1.654 9605
-0.058 0.723 1.652 9961
-0.058 0.724 1.642 9841
-0.058 0.728 1.640 9011
-0.059 0.736 1.645 8340
-0.059 0.741 1.643 7972
-0.060 0.749 1.648 6639
-0.062 0.775 1.688 6071
-0.063 0.790 1.706 7393
-0.064 0.798 1.711 9443
-0.063 0.792 1.688 10141
-0.063 0.793 1.678 12870
-0.064 0.797 1.676 15654
-0.064 0.805 1.680 18510
-0.065 0.810 1.678 19334
-0.065 0.818 1.682 19863
-0.066 0.822 1.680 17394
-0.066 0.827 1.677 13267
-0.066 0.824 1.661 11542
-0.067 0.840 1.679 14410
-0.068 0.848 1.684 18645
-0.069 0.856 1.688 18904
-0.069 0.865 1.692 19823
-0.070 0.873 1.697 15861
-0.071 0.882 1.701 12768
-0.071 0.882 1.691 10841
-0.071 0.883 1.682 13446
-0.071 0.887 1.679 18126
-0.071 0.892 1.677 20134
-0.072 0.900 1.681 21010
-0.072 0.905 1.678 18460
-0.073 0.913 1.682 12546
-0.075 0.934 1.706 9616
-0.074 0.926 1.683 11260
-0.074 0.926 1.674 11753
-0.074 0.923 1.657 10894
-0.074 0.927 1.655 9274
-0.074 0.927 1.645 5560
-0.080 0.995 1.742 3925
-0.080 0.996 1.733 4108
-0.079 0.983 1.703 5526
-0.077 0.966 1.667 7403
-0.077 0.966 1.658 9377
-0.078 0.975 1.661 12582
-0.079 0.992 1.678 14196
-0.080 1.001 1.682 20172
-0.081 1.014 1.692 30632
-0.082 1.023 1.695 38872
-0.082 1.023 1.686 41087
-0.082 1.028 1.683 40865
-0.083 1.032 1.680 33518
-0.083 1.037 1.677 29307
-0.083 1.041 1.674 32220
-0.084 1.050 1.677 34735
-0.085 1.059 1.680 37689
-0.085 1.064 1.677 28491
-0.085 1.068 1.674 21101
-0.086 1.073 1.671 21056
-0.087 1.082 1.674 27370
-0.087 1.091 1.677 32871
-0.088 1.095 1.674 28271
-0.088 1.104 1.677 20369
-0.088 1.104 1.667 17134
-0.089 1.108 1.664 20956
-0.089 1.113 1.661 23076
-0.089 1.117 1.657 21502
-0.090 1.122 1.654 16214
-0.091 1.136 1.663 15061
-0.092 1.150 1.672 16065
-0.093 1.169 1.688 16344
-0.094 1.178 1.690 15061
-0.095 1.187 1.693 13977
-0.096 1.197 1.696 13044
-0.097 1.211 1.704 11851
-0.097 1.210 1.695 12957
-0.097 1.215 1.691 17627
-0.098 1.219 1.687 21189
-0.098 1.229 1.690 23893
-0.099 1.233 1.686 28313
-0.099 1.238 1.683 38056
-0.100 1.247 1.685 47442
-0.100 1.252 1.681 52293
-0.100 1.256 1.678 47804
-0.101 1.261 1.674 26959
-0.102 1.275 1.682 10933
-0.102 1.280 1.678 8949
-0.103 1.284 1.674 10036
-0.102 1.278 1.659 11498
-0.103 1.288 1.661 15800
-0.104 1.298 1.663 21349
-0.104 1.302 1.659 20969
-0.105 1.312 1.661 16753
-0.107 1.332 1.675 11475
-0.107 1.336 1.671 10893
-0.107 1.335 1.661 17709
-0.107 1.340 1.657 21802
-0.108 1.344 1.653 17230
-0.108 1.348 1.649 11694
-0.108 1.353 1.645 9045
-0.110 1.379 1.664 9673
-0.110 1.378 1.654 10431
-0.111 1.382 1.650 8216
-0.112 1.397 1.658 11431
-0.113 1.407 1.659 16562
-0.113 1.411 1.655 29731
-0.114 1.421 1.657 37242
-0.114 1.431 1.658 23450
-0.115 1.441 1.659 16100
-0.116 1.445 1.655 17668
-0.116 1.450 1.651 20887
-0.118 1.476 1.669 20406
-0.120 1.503 1.687 21909
-0.121 1.513 1.688 22437
-0.121 1.518 1.684 12941
-0.122 1.528 1.685 9426
-0.123 1.538 1.686 15064
-0.124 1.548 1.687 21419
-0.124 1.552 1.682 19864
-0.125 1.557 1.678 17547
-0.125 1.567 1.678 23495
-0.126 1.577 1.679 22312
-0.127 1.582 1.675 17593
-0.127 1.586 1.670 17194
-0.127 1.590 1.665 18165
-0.128 1.606 1.671 34428
-0.129 1.611 1.666 52778
-0.130 1.621 1.667 54539
-0.130 1.625 1.662 56252
-0.130 1.630 1.657 51877
-0.131 1.634 1.653 38812
-0.131 1.639 1.648 27194
-0.136 1.696 1.690 21282
-0.136 1.700 1.685 30964
-0.137 1.711 1.685 27431
-0.138 1.727 1.691 24914
-0.139 1.731 1.686 28663
-0.139 1.736 1.681 28100
-0.139 1.740 1.675 22402
-0.140 1.745 1.670 16553
-0.141 1.761 1.675 18709
-0.141 1.766 1.670 20826
-0.142 1.770 1.665 13504
-0.142 1.781 1.665 12174
-0.143 1.785 1.659 17345
-0.144 1.795 1.659 24194
-0.145 1.812 1.664 28738
-0.145 1.816 1.659 21151
-0.146 1.827 1.658 10386
-0.146 1.825 1.648 4338
-0.146 1.823 1.637 3784
-0.147 1.834 1.637 4582
-0.147 1.838 1.631 4257
-0.148 1.849 1.631 2651
-0.149 1.859 1.630 1525
-0.149 1.863 1.625 1133
-0.142 1.774 1.546 1034
-0.141 1.766 1.532 1069
-0.141 1.764 1.521 939
-0.142 1.780 1.526 1602
-0.142 1.778 1.516 3036
-0.143 1.782 1.510 3774
-0.143 1.786 1.505 3397
-0.143 1.790 1.500 2543
-0.143 1.787 1.490 2186
-0.144 1.798 1.489 1845
-0.143 1.789 1.475 1597
-0.143 1.793 1.469 2882
-0.144 1.796 1.464 4567
-0.144 1.800 1.459 4371
-0.144 1.798 1.449 3007
-0.144 1.801 1.443 2529
-0.145 1.818 1.447 2838
-0.176 2.203 1.709 4345
-0.176 2.201 1.698 5434
-0.176 2.206 1.692 5477
-0.177 2.217 1.690 5120
-0.180 2.254 1.706 6432
-0.181 2.265 1.703 5515
-0.178 2.224 1.666 4183
-0.178 2.222 1.655 5105
-0.178 2.226 1.648 9187
-0.178 2.230 1.642 11437
-0.179 2.235 1.635 10576
-0.179 2.232 1.624 7262
-0.187 2.336 1.682 4637
-0.188 2.347 1.679 4088
-0.189 2.365 1.681 3597
-0.190 2.369 1.674 4424
-0.190 2.380 1.671 5448
-0.191 2.385 1.664 5674
-0.191 2.389 1.657 4554
-0.182 2.273 1.575 3656
-0.182 2.277 1.568 4484
-0.182 2.274 1.557 5525
-0.182 2.272 1.546 7990
-0.183 2.282 1.544 9292
-0.182 2.280 1.533 10070
-0.183 2.284 1.526 10884
-0.183 2.288 1.520 10459
-0.183 2.292 1.513 9035
-0.184 2.296 1.506 8038
-0.184 2.300 1.499 6657
-0.212 2.645 1.690 5922
-0.212 2.650 1.682 7506
-0.212 2.654 1.674 7333
-0.213 2.659 1.666 7161
-0.213 2.663 1.659 5480
-0.217 2.709 1.674 5320
-0.217 2.713 1.666 6507
-0.217 2.718 1.658 5585
-0.218 2.722 1.650 4663
-0.219 2.740 1.649 3877
-0.229 2.863 1.705 5330
-0.229 2.867 1.696 4832
-0.230 2.879 1.692 4391
-0.232 2.904 1.694 3648
-0.234 2.930 1.697 3682
-0.235 2.934 1.688 3673
-0.231 2.883 1.650 4080
-0.237 2.964 1.682 4072
-0.238 2.976 1.676 4954
-0.239 2.987 1.671 5190
-0.239 2.992 1.662 5500
-0.239 2.982 1.646 3960
-0.235 2.944 1.617 4005
-0.236 2.948 1.608 3346
-0.250 3.130 1.686 3385
-0.251 3.134 1.677 3124
-0.245 3.068 1.633 3535
-0.246 3.072 1.624 3715
-0.246 3.069 1.612 3911
-0.246 3.080 1.606 3988
-0.265 3.314 1.704 3815
-0.265 3.318 1.694 3815
-0.266 3.330 1.687 4001
-0.267 3.341 1.681 4367
-0.264 3.303 1.651 4692
-0.264 3.300 1.638 5756
-0.263 3.283 1.619 4884
-0.262 3.280 1.606 4924
-0.263 3.284 1.596 4924
-0.263 3.288 1.587 2462
-0.161 2.016 1.027 348
-0.050 0.655 1.667 15498
-0.051 0.663 1.672 13309
-0.051 0.667 1.670 11263
-0.052 0.678 1.682 9826
-0.053 0.686 1.687 9139
-0.053 0.690 1.685 9139
-0.052 0.678 1.647 7385
-0.052 0.679 1.638 8136
-0.053 0.683 1.636 8615
-0.053 0.688 1.634 9093
-0.054 0.699 1.646 8291
-0.055 0.714 1.665 9143
-0.055 0.715 1.656 9230
-0.055 0.715 1.647 9502
-0.056 0.723 1.652 9996
-0.056 0.724 1.642 9929
-0.056 0.728 1.640 8916
-0.057 0.740 1.652 8726
-0.057 0.744 1.650 8892
-0.058 0.756 1.662 7800
-0.059 0.764 1.667 7362
-0.060 0.787 1.699 8019
-0.061 0.795 1.704 9971
-0.061 0.792 1.688 10669
-0.061 0.793 1.678 13225
-0.061 0.797 1.676 15893
-0.062 0.805 1.680 18581
-0.062 0.810 1.678 19396
-0.063 0.814 1.675 19925
-0.063 0.823 1.680 17523
-0.063 0.823 1.671 13599
-0.063 0.824 1.661 12024
-0.064 0.836 1.672 14531
-0.065 0.848 1.684 18704
-0.066 0.857 1.688 19249
-0.067 0.865 1.692 20552
-0.067 0.873 1.697 16831
-0.068 0.882 1.701 13939
-0.068 0.882 1.691 11705
-0.068 0.883 1.682 14197
-0.068 0.887 1.679 19053
-0.069 0.892 1.677 20913
-0.069 0.900 1.681 21509
-0.070 0.905 1.678 19039
-0.070 0.913 1.682 13540
-0.072 0.934 1.706 11641
-0.072 0.931 1.690 13071
-0.072 0.931 1.680 13165
-0.072 0.931 1.671 11451
-0.072 0.931 1.661 8820
-0.072 0.931 1.652 4651
-0.077 0.995 1.742 3791
-0.077 0.996 1.733 4308
-0.076 0.988 1.710 5625
-0.074 0.966 1.667 7793
-0.074 0.966 1.658 9423
-0.075 0.975 1.661 11012
-0.076 0.993 1.678 11295
-0.077 1.001 1.682 18332
-0.078 1.015 1.692 30611
-0.079 1.024 1.695 38759
-0.079 1.028 1.692 40601
-0.079 1.028 1.683 40363
-0.079 1.033 1.680 33242
-0.080 1.037 1.677 28803
-0.080 1.041 1.674 31286
-0.081 1.050 1.677 33275
-0.081 1.059 1.680 35568
-0.082 1.064 1.677 26977
-0.082 1.068 1.674 20330
-0.082 1.073 1.671 20370
-0.083 1.082 1.674 26804
-0.084 1.091 1.677 32542
-0.084 1.095 1.674 28104
-0.085 1.104 1.677 20910
-0.085 1.104 1.667 18131
-0.085 1.109 1.664 21832
-0.086 1.113 1.661 23579
-0.086 1.117 1.657 21242
-0.086 1.122 1.654 15450
-0.087 1.131 1.657 13425
-0.088 1.145 1.666 13588
-0.090 1.169 1.688 13478
-0.091 1.178 1.690 12941
-0.091 1.187 1.693 13578
-0.092 1.197 1.696 12309
-0.093 1.206 1.698 10568
-0.093 1.206 1.689 13478
-0.093 1.210 1.685 19660
-0.094 1.220 1.687 22427
-0.095 1.229 1.690 23793
-0.095 1.234 1.686 28358
-0.095 1.238 1.683 38623
-0.096 1.248 1.685 48440
-0.096 1.252 1.681 53967
-0.097 1.257 1.678 50651
-0.097 1.261 1.674 29215
-0.098 1.271 1.676 11908
-0.098 1.275 1.672 9950
-0.099 1.285 1.674 8590
-0.098 1.274 1.653 9644
-0.099 1.293 1.667 16523
-0.100 1.298 1.663 23857
-0.100 1.302 1.659 22263
-0.101 1.312 1.661 16099
-0.103 1.337 1.681 11487
-0.103 1.336 1.671 11224
-0.103 1.336 1.661 17419
-0.103 1.340 1.657 21710
-0.103 1.344 1.653 18356
-0.104 1.349 1.649 12407
-0.104 1.353 1.645 8668
-0.106 1.379 1.664 10326
-0.106 1.378 1.654 11064
-0.106 1.377 1.645 8381
-0.108 1.403 1.663 11901
-0.108 1.407 1.659 18406
-0.109 1.417 1.661 31939
-0.109 1.422 1.657 38520
-0.110 1.431 1.658 23953
-0.111 1.441 1.659 16964
-0.111 1.440 1.650 19952
-0.112 1.450 1.651 22880
-0.113 1.466 1.658 20452
-0.116 1.503 1.687 21552
-0.116 1.513 1.688 23568
-0.117 1.518 1.684 14241
-0.117 1.528 1.685 8983
-0.118 1.538 1.686 13495
-0.119 1.543 1.681 20516
-0.119 1.553 1.682 18539
-0.120 1.557 1.678 14987
-0.121 1.567 1.678 20032
-0.121 1.577 1.679 20382
-0.122 1.588 1.680 17086
-0.122 1.586 1.670 16902
-0.122 1.591 1.665 17918
-0.123 1.601 1.666 32690
-0.124 1.617 1.672 50792
-0.125 1.621 1.667 53710
-0.125 1.626 1.662 56462
-0.125 1.630 1.657 52946
-0.126 1.635 1.653 39692
-0.126 1.639 1.648 27575
-0.130 1.696 1.690 20514
-0.131 1.701 1.685 29430
-0.131 1.705 1.680 24528
-0.133 1.727 1.691 19954
-0.133 1.732 1.686 22933
-0.134 1.736 1.681 23435
-0.134 1.741 1.675 19986
-0.134 1.745 1.670 16357
-0.135 1.762 1.675 19656
-0.136 1.766 1.670 21293
-0.136 1.771 1.665 13375
-0.137 1.781 1.665 11842
-0.137 1.785 1.659 17390
-0.138 1.796 1.659 24294
-0.139 1.806 1.659 27225
-0.140 1.817 1.659 17618
-0.141 1.827 1.658 8312
-0.141 1.832 1.653 5592
-0.141 1.830 1.642 5843
-0.141 1.834 1.637 5992
-0.141 1.839 1.631 5099
-0.142 1.849 1.631 3017
-0.143 1.860 1.630 1594
-0.143 1.864 1.625 1118
-0.144 1.868 1.619 1011
-0.144 1.879 1.619 881
-0.136 1.764 1.521 789
-0.137 1.781 1.526 1655
-0.137 1.778 1.516 2969
-0.137 1.782 1.510 3685
-0.137 1.786 1.505 3446
-0.138 1.790 1.500 2627
-0.137 1.788 1.490 2261
-0.138 1.792 1.485 1886
-0.138 1.789 1.475 1562
-0.138 1.793 1.469 2807
-0.138 1.797 1.464 4384
-0.138 1.801 1.459 4090
-0.138 1.798 1.449 2554
-0.139 1.808 1.448 2102
-0.140 1.818 1.447 2607
-0.169 2.197 1.705 3524
-0.169 2.202 1.698 4571
-0.170 2.206 1.692 4649
-0.170 2.211 1.685 4198
-0.173 2.255 1.706 4805
-0.174 2.266 1.703 4615
-0.174 2.264 1.692 4143
-0.171 2.222 1.655 4766
-0.171 2.226 1.648 8983
-0.172 2.231 1.642 11010
-0.171 2.229 1.631 10121
-0.172 2.233 1.624 7015
-0.180 2.337 1.682 4684
-0.181 2.348 1.679 4033
-0.173 2.252 1.608 4012
-0.182 2.370 1.674 4328
-0.183 2.381 1.671 5520
-0.183 2.385 1.664 5828
-0.184 2.390 1.657 4586
-0.184 2.387 1.646 2644
-0.175 2.277 1.568 2206
-0.175 2.275 1.557 2877
-0.175 2.272 1.546 4436
-0.176 2.283 1.544 5294
-0.175 2.280 1.533 5613
-0.176 2.284 1.526 5977
-0.176 2.288 1.520 5621
-0.176 2.292 1.513 4732
-0.177 2.296 1.506 4200
-0.177 2.300 1.499 3508
-0.203 2.646 1.690 5828
-0.204 2.651 1.682 7457
-0.204 2.655 1.674 7419
-0.205 2.659 1.666 7381
-0.205 2.664 1.659 5701
-0.208 2.710 1.674 5572
-0.209 2.714 1.666 7013
-0.209 2.718 1.658 6022
-0.210 2.730 1.654 5045
-0.220 2.866 1.717 4303
-0.220 2.864 1.705 5950
-0.221 2.868 1.696 5728
-0.221 2.873 1.688 5505
-0.222 2.891 1.687 4106
-0.226 2.938 1.700 3217
-0.224 2.907 1.673 3536
-0.222 2.883 1.650 4282
-0.229 2.972 1.685 4148
-0.229 2.984 1.680 5392
-0.230 2.988 1.671 5612
-0.231 2.999 1.666 5847
-0.230 2.990 1.650 4212
-0.226 2.945 1.617 3564
-0.228 2.963 1.615 3150
-0.240 3.116 1.679 3615
-0.240 3.121 1.670 3185
-0.250 3.253 1.722 3583
-0.236 3.065 1.621 3730
-0.236 3.070 1.612 3978
-0.237 3.081 1.606 4030
-0.255 3.322 1.707 3968
-0.256 3.326 1.697 3968
-0.257 3.338 1.691 3924
-0.257 3.342 1.681 3946
-0.253 3.296 1.648 4780
-0.253 3.293 1.635 5954
-0.252 3.283 1.619 5128
-0.252 3.280 1.606 5043
-0.253 3.285 1.596 5043
-0.253 3.289 1.587 2521
-0.155 2.009 1.024 478
-0.049 0.655 1.667 15285
-0.050 0.663 1.672 13069
-0.050 0.667 1.670 10943
-0.051 0.678 1.682 9695
-0.052 0.686 1.687 9260
-0.052 0.690 1.685 9260
-0.052 0.692 1.676 6986
-0.051 0.679 1.638 7558
-0.051 0.683 1.636 7986
-0.052 0.688 1.634 8414
-0.053 0.699 1.646 7798
-0.054 0.714 1.665 8941
-0.054 0.715 1.656 8935
-0.054 0.716 1.647 9208
-0.054 0.720 1.645 9854
-0.055 0.724 1.642 9882
-0.055 0.729 1.640 8762
-0.056 0.740 1.652 9172
-0.056 0.748 1.657 9969
-0.057 0.760 1.669 9170
-0.058 0.768 1.674 9014
-0.059 0.787 1.699 8965
-0.060 0.795 1.704 10804
-0.060 0.796 1.695 11332
-0.060 0.793 1.678 13593
-0.060 0.797 1.676 16139
-0.060 0.802 1.673 18685
-0.061 0.810 1.678 19452
-0.061 0.814 1.675 19948
-0.062 0.819 1.673 17660
-0.062 0.823 1.671 13933
-0.062 0.824 1.661 12571
-0.063 0.836 1.672 14584
-0.064 0.848 1.684 18533
-0.065 0.857 1.688 19403
-0.065 0.865 1.692 21123
-0.066 0.873 1.697 17751
-0.066 0.882 1.701 15159
-0.066 0.882 1.691 12746
-0.067 0.883 1.682 15106
-0.067 0.887 1.679 20028
-0.067 0.892 1.677 21558
-0.068 0.900 1.681 21800
-0.068 0.905 1.678 19573
-0.069 0.918 1.689 14778
-0.070 0.934 1.706 13840
-0.070 0.935 1.697 15078
-0.070 0.935 1.687 14616
-0.070 0.935 1.678 12286
-0.071 0.936 1.668 8769
-0.070 0.932 1.652 4703
-0.070 0.927 1.636 3959
-0.075 0.996 1.733 4435
-0.072 0.958 1.663 5842
-0.073 0.966 1.667 8515
-0.073 0.966 1.658 9851
-0.073 0.971 1.655 9937
-0.075 0.997 1.685 9307
-0.076 1.006 1.688 17008
-0.076 1.015 1.692 30145
-0.077 1.024 1.695 37932
-0.077 1.028 1.692 39312
-0.077 1.028 1.683 39052
-0.078 1.033 1.680 32512
-0.078 1.033 1.670 28293
-0.078 1.042 1.674 30391
-0.079 1.051 1.677 31685
-0.080 1.060 1.680 33077
-0.080 1.064 1.677 25038
-0.081 1.068 1.674 19370
-0.081 1.073 1.671 19719
-0.082 1.082 1.674 26182
-0.082 1.091 1.677 31921
-0.083 1.095 1.674 27214
-0.083 1.105 1.677 20472
-0.084 1.109 1.674 18589
-0.084 1.109 1.664 22284
-0.084 1.113 1.661 23593
-0.084 1.118 1.657 20699
-0.085 1.122 1.654 14842
-0.085 1.131 1.657 12066
-0.086 1.145 1.666 11034
-0.088 1.174 1.694 10524
-0.089 1.178 1.690 11325
-0.089 1.183 1.687 13702
-0.090 1.192 1.689 12256
-0.091 1.206 1.698 9891
-0.091 1.206 1.689 13986
-0.091 1.210 1.685 21278
-0.092 1.220 1.687 23493
-0.093 1.229 1.690 23453
-0.093 1.234 1.686 27881
-0.093 1.238 1.683 37831
-0.094 1.248 1.685 47973
-0.094 1.252 1.681 54349
-0.095 1.257 1.678 51975
-0.095 1.261 1.674 30800
-0.096 1.271 1.676 13032
-0.096 1.270 1.666 11597
-0.096 1.274 1.662 9456
-0.096 1.274 1.653 10016
-0.097 1.294 1.667 19137
-0.098 1.298 1.663 27180
-0.098 1.302 1.659 23323
-0.099 1.312 1.661 14763
-0.101 1.337 1.681 10956
-0.100 1.331 1.665 10943
-0.101 1.336 1.661 16546
-0.101 1.340 1.657 21116
-0.101 1.345 1.653 18721
-0.101 1.344 1.643 12594
-0.102 1.353 1.645 8426
-0.104 1.379 1.664 11058
-0.104 1.378 1.654 11474
-0.104 1.377 1.645 8680
-0.106 1.403 1.663 13013
-0.106 1.408 1.659 19840
-0.107 1.417 1.661 32811
-0.107 1.422 1.657 38648
-0.108 1.432 1.658 24004
-0.108 1.436 1.654 17752
-0.109 1.440 1.650 21712
-0.109 1.445 1.645 23770
-0.110 1.455 1.647 20405
-0.113 1.504 1.687 20366
-0.114 1.508 1.683 23480
-0.114 1.518 1.684 16115
-0.115 1.528 1.685 9934
-0.115 1.533 1.680 12663
-0.116 1.543 1.681 19899
-0.117 1.547 1.677 16912
-0.117 1.557 1.678 11816
-0.118 1.567 1.678 15926
-0.119 1.583 1.685 18230
-0.120 1.594 1.685 16448
-0.120 1.592 1.675 16150
-0.120 1.591 1.665 17052
-0.121 1.601 1.666 29391
-0.122 1.617 1.672 46166
-0.122 1.622 1.667 51580
-0.123 1.626 1.662 55759
-0.123 1.630 1.657 52322
-0.123 1.635 1.653 38807
-0.124 1.639 1.648 26881
-0.128 1.696 1.690 19556
-0.128 1.695 1.680 27303
-0.128 1.705 1.680 21446
-0.130 1.728 1.691 14730
-0.131 1.732 1.686 16999
-0.131 1.737 1.681 19098
-0.131 1.735 1.670 18164
-0.132 1.745 1.670 15859
-0.133 1.762 1.675 19553
-0.133 1.766 1.670 20619
-0.134 1.777 1.670 12436
-0.134 1.781 1.665 10688
-0.135 1.786 1.659 16232
-0.135 1.796 1.659 23085
-0.136 1.807 1.659 24782
-0.137 1.823 1.664 14777
-0.138 1.834 1.663 9394
-0.138 1.832 1.653 8969
-0.138 1.830 1.642 8681
-0.138 1.835 1.637 8260
-0.139 1.839 1.631 6396
-0.139 1.843 1.626 3566
-0.140 1.854 1.625 1696
-0.140 1.864 1.625 1104
-0.141 1.875 1.624 1054
-0.142 1.879 1.619 947
-0.142 1.883 1.613 854
-0.134 1.781 1.526 1682
-0.134 1.778 1.516 2785
-0.134 1.782 1.510 3462
-0.135 1.786 1.505 3352
-0.135 1.790 1.500 2595
-0.135 1.788 1.490 2232
-0.135 1.785 1.480 1894
-0.134 1.783 1.470 1529
-0.135 1.793 1.469 2588
-0.136 1.803 1.469 4082
-0.136 1.801 1.459 3802
-0.136 1.805 1.453 2247
-0.136 1.808 1.448 1805
-0.137 1.819 1.447 2328
-0.166 2.198 1.705 2815
-0.166 2.202 1.698 3733
-0.166 2.207 1.692 3811
-0.167 2.211 1.685 3319
-0.170 2.261 1.710 3578
-0.171 2.266 1.703 3990
-0.171 2.264 1.692 4082
-0.167 2.222 1.655 4268
-0.168 2.227 1.648 8472
-0.168 2.225 1.637 10463
-0.167 2.222 1.626 9804
-0.168 2.227 1.620 7413
-0.176 2.337 1.682 4698
-0.176 2.341 1.675 4119
