0.546 1.316 1.701 9206
0.546 1.316 1.691 15805
0.550 1.325 1.692 17153
0.551 1.329 1.688 14864
0.553 1.333 1.684 9826
0.555 1.337 1.679 8917
0.557 1.341 1.675 15322
0.558 1.345 1.671 16791
0.564 1.360 1.678 17081
0.568 1.369 1.679 15768
0.572 1.378 1.680 16050
0.576 1.388 1.682 16306
0.578 1.392 1.677 17133
0.584 1.406 1.684 20612
0.583 1.405 1.674 25633
0.583 1.404 1.664 23571
0.582 1.403 1.654 16144
0.588 1.417 1.660 17882
0.594 1.432 1.667 21950
0.600 1.447 1.673 15637
0.591 1.424 1.641 8621
0.601 1.449 1.658 16635
0.603 1.454 1.654 29581
0.605 1.458 1.649 23927
0.611 1.472 1.655 14873
0.619 1.492 1.666 20312
0.619 1.491 1.656 20576
0.618 1.490 1.646 15980
0.636 1.532 1.679 14158
0.640 1.541 1.679 21683
0.641 1.545 1.674 22451
0.643 1.550 1.669 23077
0.642 1.548 1.659 21880
0.644 1.552 1.654 18751
0.646 1.556 1.649 18109
0.650 1.566 1.649 17788
0.654 1.575 1.649 13394
0.655 1.579 1.644 11739
0.673 1.622 1.675 16171
0.677 1.632 1.675 18775
0.677 1.630 1.665 23613
0.683 1.646 1.670 29910
0.689 1.661 1.675 30468
0.691 1.665 1.670 26184
0.693 1.669 1.664 17768
0.694 1.673 1.659 14598
0.696 1.677 1.654 12355
0.670 1.613 1.588 9013
0.671 1.617 1.583 8435
0.715 1.724 1.667 9207
0.722 1.739 1.672 11237
0.721 1.738 1.661 10186
0.725 1.747 1.660 8757
0.727 1.751 1.655 11677
0.728 1.755 1.649 11460
0.742 1.788 1.668 9233
0.749 1.804 1.672 15654
0.748 1.802 1.661 22501
0.747 1.801 1.651 22816
0.749 1.805 1.645 13346
0.760 1.832 1.658 11114
0.760 1.830 1.647 16046
0.761 1.834 1.642 13772
0.768 1.850 1.645 9458
0.789 1.901 1.677 9275
0.793 1.911 1.675 12193
0.795 1.915 1.669 10042
0.792 1.908 1.654 7550
0.788 1.900 1.639 6651
0.793 1.910 1.637 6023
0.804 1.938 1.649 5854
0.808 1.948 1.648 7708
0.810 1.952 1.641 6832
0.827 1.992 1.662 7008
0.821 1.978 1.642 9073
0.822 1.982 1.636 8551
0.834 2.010 1.648 6305
0.841 2.026 1.650 6628
0.822 1.982 1.608 7928
0.854 2.058 1.655 8610
0.856 2.063 1.648 7945
0.863 2.079 1.650 6234
0.847 2.040 1.613 5823
0.876 2.111 1.654 8944
0.873 2.103 1.639 12252
0.874 2.107 1.632 8512
0.879 2.117 1.630 4785
0.937 2.257 1.716 4019
0.938 2.261 1.709 7602
0.938 2.259 1.698 9668
0.942 2.270 1.695 9713
0.946 2.280 1.692 8725
0.948 2.284 1.684 7567
0.952 2.294 1.681 7434
0.956 2.305 1.678 8390
0.958 2.309 1.671 9051
0.962 2.319 1.667 8016
0.969 2.336 1.668 7604
0.974 2.346 1.665 8600
0.978 2.357 1.661 8510
0.982 2.367 1.658 8587
0.987 2.378 1.654 6839
0.996 2.401 1.658 4665
1.011 2.436 1.670 4771
1.010 2.434 1.659 5470
1.009 2.432 1.647 6236
1.021 2.461 1.655 4744
1.052 2.536 1.689 6014
1.059 2.553 1.689 6061
1.069 2.576 1.692 5225
1.073 2.587 1.688 5104
1.078 2.597 1.683 5120
1.085 2.614 1.682 5486
1.084 2.612 1.670 5836
1.083 2.609 1.658 6441
1.119 2.698 1.698 7041
1.121 2.702 1.689 10627
1.126 2.712 1.684 10882
1.127 2.717 1.676 11139
1.129 2.721 1.667 7744
1.169 2.816 1.709 6219
1.173 2.827 1.703 6286
1.177 2.837 1.698 6409
1.182 2.848 1.692 5124
1.197 2.885 1.701 5139
1.199 2.889 1.691 5577
1.206 2.907 1.689 6120
1.208 2.911 1.680 6427
1.210 2.915 1.671 6733
1.206 2.906 1.655 6374
1.205 2.903 1.642 6252
1.209 2.914 1.636 5226
1.269 3.057 1.697 6395
1.270 3.061 1.687 6395
1.272 3.065 1.677 7151
1.271 3.063 1.664 7930
1.264 3.047 1.645 5716
1.227 2.957 1.590 4587
1.265 3.048 1.622 4523
1.267 3.052 1.612 4926
1.268 3.056 1.603 4926
1.270 3.060 1.593 2463
0.594 1.431 0.824 250
0.256 0.615 1.688 10826
0.258 0.620 1.686 12346
0.260 0.624 1.684 13865
0.261 0.628 1.682 15963
0.264 0.635 1.687 18317
0.266 0.639 1.685 18317
0.268 0.643 1.683 17813
0.269 0.647 1.681 17308
0.272 0.655 1.686 15688
0.276 0.662 1.691 14344
0.279 0.669 1.696 15844
0.283 0.680 1.708 18015
0.289 0.694 1.727 16116
0.291 0.698 1.725 13058
0.292 0.702 1.723 10561
0.287 0.690 1.685 8367
0.285 0.684 1.661 8724
0.289 0.695 1.673 7641
0.298 0.716 1.706 9824
0.298 0.717 1.697 14782
0.300 0.721 1.695 19764
0.302 0.725 1.692 20699
0.305 0.733 1.697 21876
0.307 0.737 1.695 21664
0.310 0.744 1.699 22069
0.312 0.749 1.697 19935
0.313 0.753 1.694 17800
0.314 0.753 1.685 12249
0.314 0.754 1.675 6760
0.316 0.758 1.673 7608
0.317 0.762 1.671 7823
0.319 0.766 1.668 7283
0.318 0.763 1.652 10018
0.319 0.767 1.649 12982
0.321 0.771 1.647 14915
0.324 0.779 1.651 17028
0.330 0.794 1.669 14449
0.337 0.809 1.687 14775
0.340 0.817 1.691 15055
0.342 0.821 1.689 19154
0.344 0.825 1.686 22268
0.347 0.833 1.690 20801
0.349 0.837 1.687 21050
0.350 0.842 1.685 21857
0.352 0.846 1.682 21139
0.354 0.850 1.679 20389
0.354 0.850 1.670 18152
0.359 0.862 1.680 17924
0.362 0.870 1.684 22124
0.365 0.878 1.688 23129
0.369 0.886 1.692 21186
0.372 0.894 1.696 18931
0.374 0.898 1.693 18410
0.371 0.891 1.670 17713
0.371 0.891 1.661 20234
0.374 0.899 1.664 21440
0.379 0.911 1.675 19349
0.381 0.915 1.672 16373
0.384 0.923 1.675 23421
0.391 0.940 1.692 33257
0.394 0.948 1.695 33668
0.396 0.952 1.692 28449
0.398 0.956 1.689 18684
0.403 0.969 1.699 7948
0.401 0.964 1.683 10098
0.403 0.969 1.680 13267
0.405 0.973 1.677 13125
0.410 0.985 1.687 19113
0.414 0.994 1.690 25147
0.415 0.998 1.687 20859
0.417 1.002 1.683 15594
0.419 1.006 1.680 11660
0.426 1.023 1.696 9457
0.431 1.036 1.706 9748
0.435 1.044 1.709 8712
0.433 1.040 1.693 11213
0.435 1.044 1.689 13270
0.438 1.053 1.692 14247
0.442 1.061 1.695 14888
0.443 1.065 1.692 14307
0.447 1.074 1.694 16775
0.449 1.078 1.691 15092
0.450 1.082 1.688 11248
0.460 1.104 1.709 10760
0.460 1.104 1.699 12989
0.461 1.108 1.696 15676
0.465 1.117 1.698 12218
0.467 1.121 1.695 6302
0.468 1.125 1.691 3782
0.472 1.134 1.694 6321
0.476 1.143 1.696 10278
0.479 1.152 1.699 8238
0.483 1.160 1.701 5271
0.485 1.165 1.697 7357
0.485 1.164 1.687 11195
0.486 1.168 1.684 13046
0.488 1.172 1.680 13001
0.494 1.186 1.688 15547
0.495 1.190 1.684 16568
0.499 1.199 1.686 17465
0.503 1.208 1.689 25227
0.506 1.217 1.691 26259
0.510 1.226 1.693 18640
0.512 1.230 1.689 19249
0.514 1.234 1.685 23599
0.515 1.238 1.681 18466
0.519 1.247 1.683 9559
0.529 1.271 1.702 8328
0.531 1.275 1.698 11416
0.530 1.274 1.688 12619
0.536 1.288 1.696 16767
0.538 1.293 1.692 18006
0.540 1.297 1.688 9485
0.548 1.316 1.701 7204
0.547 1.315 1.691 13924
0.549 1.319 1.687 16650
0.553 1.328 1.688 14679
0.552 1.327 1.678 11145
0.556 1.337 1.679 12293
0.558 1.341 1.675 17814
0.560 1.345 1.671 16916
0.564 1.354 1.672 18174
0.567 1.363 1.673 17142
0.573 1.378 1.680 16544
0.577 1.387 1.682 18327
0.579 1.391 1.677 18149
0.585 1.406 1.684 23852
0.587 1.410 1.679 26891
0.584 1.403 1.664 18900
0.588 1.413 1.665 12908
0.592 1.422 1.666 19556
0.596 1.431 1.667 23865
0.600 1.441 1.667 17078
0.601 1.445 1.663 10407
0.605 1.454 1.664 17475
0.607 1.458 1.659 27089
0.606 1.457 1.649 23900
0.613 1.472 1.655 17500
0.619 1.486 1.661 21738
0.620 1.491 1.656 21105
0.620 1.489 1.646 15207
0.637 1.531 1.679 14196
0.641 1.541 1.679 21107
0.643 1.545 1.674 22732
0.645 1.549 1.669 22868
0.646 1.553 1.664 21703
0.646 1.552 1.654 16909
0.647 1.556 1.649 14048
0.651 1.565 1.649 13639
0.658 1.580 1.655 11341
0.655 1.573 1.639 11112
0.677 1.627 1.681 13850
0.679 1.631 1.675 15903
0.678 1.630 1.665 21813
0.685 1.645 1.670 28147
0.691 1.660 1.675 27822
0.693 1.664 1.670 24819
0.694 1.669 1.664 16419
0.696 1.673 1.659 12146
0.700 1.682 1.659 10707
0.671 1.613 1.588 9236
0.713 1.713 1.668 9715
0.717 1.723 1.667 10696
0.724 1.738 1.672 12968
0.723 1.737 1.661 11461
0.727 1.747 1.660 8354
0.731 1.756 1.660 9327
0.733 1.760 1.654 8474
0.749 1.799 1.678 8520
0.751 1.803 1.672 15712
0.750 1.802 1.661 24216
0.749 1.800 1.651 24745
0.748 1.798 1.640 15473
0.757 1.820 1.649 11306
0.761 1.829 1.647 15771
0.763 1.834 1.642 13244
0.767 1.843 1.640 9382
0.789 1.895 1.672 8408
0.795 1.910 1.675 11350
0.794 1.909 1.665 9922
0.789 1.895 1.645 9519
0.790 1.899 1.639 8898
0.792 1.903 1.632 7628
0.809 1.943 1.654 5809
0.810 1.947 1.648 7129
0.814 1.957 1.646 6522
0.819 1.967 1.644 6992
0.823 1.977 1.642 9253
0.824 1.981 1.636 8711
0.814 1.955 1.607 5494
0.815 1.959 1.601 5533
0.857 2.060 1.666 6553
0.856 2.058 1.655 7196
0.850 2.043 1.635 7033
0.845 2.029 1.615 6032
0.849 2.039 1.613 5766
0.876 2.104 1.650 7739
0.875 2.102 1.639 11277
0.877 2.106 1.632 8477
0.881 2.116 1.630 5241
0.882 2.120 1.623 4022
0.941 2.260 1.709 6829
0.940 2.258 1.698 8968
0.944 2.269 1.695 9024
0.949 2.279 1.692 8413
0.950 2.283 1.684 7532
0.955 2.293 1.681 7247
0.959 2.304 1.678 7593
0.963 2.314 1.675 7945
0.965 2.318 1.667 7672
0.972 2.335 1.668 7831
0.976 2.345 1.665 8607
0.980 2.356 1.661 8010
0.987 2.372 1.662 8071
0.992 2.383 1.658 7186
0.999 2.400 1.658 4995
1.014 2.435 1.670 4530
1.013 2.433 1.659 5235
1.014 2.437 1.651 5969
1.027 2.467 1.659 5091
1.055 2.535 1.689 5986
1.059 2.545 1.685 5902
1.074 2.581 1.696 4911
1.079 2.592 1.691 4948
1.080 2.596 1.683 5368
1.085 2.607 1.679 5798
1.084 2.604 1.667 5979
1.083 2.602 1.655 6195
1.122 2.696 1.698 7050
1.127 2.707 1.693 10600
1.128 2.711 1.684 10648
1.133 2.722 1.679 10735
1.132 2.719 1.667 7327
1.172 2.815 1.709 6233
1.176 2.825 1.703 6216
1.180 2.836 1.698 6310
1.182 2.840 1.689 5184
1.200 2.884 1.701 4682
1.202 2.888 1.691 5234
1.206 2.899 1.686 5798
1.208 2.903 1.677 6071
1.213 2.914 1.671 6349
1.209 2.904 1.655 6157
1.208 2.902 1.642 6173
1.212 2.913 1.636 4882
1.272 3.056 1.697 5894
1.274 3.060 1.687 5894
1.275 3.064 1.677 6696
1.277 3.068 1.668 7498
1.284 3.086 1.664 5412
1.230 2.956 1.590 4655
1.232 2.960 1.580 4536
1.270 3.051 1.612 4686
1.271 3.055 1.603 4686
1.273 3.059 1.593 2343
0.598 1.437 0.827 245
0.258 0.615 1.688 9854
0.260 0.619 1.686 11421
0.262 0.623 1.684 12987
0.264 0.627 1.682 15607
0.267 0.634 1.687 18529
0.268 0.638 1.685 18529
0.270 0.642 1.683 18280
0.272 0.647 1.681 18032
0.275 0.654 1.686 16623
0.278 0.661 1.691 15416
0.281 0.668 1.696 16893
0.284 0.676 1.701 18901
0.290 0.690 1.720 16781
0.293 0.697 1.725 13777
0.295 0.701 1.723 11417
0.288 0.686 1.678 10134
0.287 0.683 1.661 10666
0.292 0.694 1.673 9149
0.299 0.711 1.699 11042
0.301 0.716 1.697 15868
0.303 0.720 1.695 20695
0.304 0.724 1.692 21166
0.307 0.732 1.697 21757
0.309 0.736 1.695 21728
0.312 0.743 1.699 22166
0.314 0.747 1.697 20303
0.314 0.748 1.687 18566
0.316 0.752 1.685 12848
0.316 0.753 1.675 7135
0.318 0.757 1.673 7475
0.320 0.761 1.671 7401
0.322 0.765 1.668 6948
0.322 0.766 1.659 8778
0.322 0.766 1.649 10873
0.325 0.774 1.654 12926
0.327 0.778 1.651 15035
0.333 0.793 1.669 13634
0.340 0.808 1.687 14457
0.343 0.816 1.691 15005
0.345 0.820 1.689 19122
0.346 0.824 1.686 22072
0.348 0.828 1.683 20013
0.351 0.836 1.687 19432
0.353 0.840 1.685 19661
0.355 0.844 1.682 18212
0.357 0.849 1.679 17150
0.357 0.849 1.670 16088
0.362 0.861 1.680 17643
0.365 0.869 1.684 22141
0.369 0.877 1.688 22704
0.372 0.885 1.692 20627
0.375 0.893 1.696 18769
0.379 0.901 1.700 18654
0.375 0.893 1.677 17567
0.375 0.893 1.667 19472
0.377 0.897 1.664 19812
0.382 0.910 1.675 17161
0.386 0.918 1.678 14734
0.387 0.922 1.675 21899
0.394 0.938 1.692 32194
0.398 0.946 1.695 32830
0.400 0.951 1.692 27787
0.401 0.955 1.689 18177
0.408 0.971 1.706 7358
0.403 0.959 1.677 8649
0.405 0.963 1.674 11448
0.408 0.971 1.677 12436
0.414 0.984 1.687 20282
0.417 0.992 1.690 27029
0.421 1.001 1.693 22755
0.422 1.005 1.690 17175
0.422 1.005 1.680 12406
0.431 1.026 1.703 10705
0.437 1.039 1.712 11961
0.440 1.047 1.715 9064
0.436 1.038 1.693 8931
0.436 1.038 1.683 10626
0.442 1.051 1.692 11626
0.445 1.060 1.695 12701
0.447 1.064 1.692 12786
0.451 1.072 1.694 15609
0.452 1.077 1.691 13938
0.456 1.085 1.694 9826
0.464 1.103 1.709 8871
0.463 1.102 1.699 10264
0.465 1.107 1.696 12507
0.469 1.115 1.698 9530
0.472 1.124 1.701 4344
0.468 1.114 1.679 2990
0.476 1.132 1.694 6623
0.480 1.141 1.696 11330
0.481 1.145 1.692 9796
0.487 1.159 1.701 7257
0.489 1.163 1.697 9748
0.491 1.167 1.693 13707
0.490 1.167 1.684 15390
0.492 1.171 1.680 13970
0.498 1.184 1.688 15846
0.502 1.193 1.690 16987
0.505 1.202 1.692 15687
0.509 1.211 1.695 22006
0.513 1.220 1.697 24348
0.517 1.229 1.699 17738
0.516 1.228 1.689 18332
0.520 1.237 1.691 23034
0.522 1.241 1.687 18198
0.524 1.245 1.683 9412
0.533 1.269 1.702 7801
0.533 1.268 1.692 11250
0.535 1.273 1.688 13628
0.541 1.287 1.696 17013
0.543 1.291 1.692 18964
0.542 1.290 1.682 10995
0.550 1.309 1.695 6472
0.552 1.313 1.691 12729
0.554 1.317 1.687 16922
0.555 1.321 1.682 16065
0.557 1.325 1.678 13837
0.561 1.335 1.679 15990
0.563 1.339 1.675 20081
0.564 1.343 1.671 17862
0.568 1.352 1.672 19954
0.572 1.361 1.673 18958
0.578 1.376 1.680 16864
0.582 1.385 1.682 19206
0.584 1.389 1.677 18453
0.588 1.398 1.678 25853
0.592 1.408 1.679 26995
0.591 1.406 1.669 15969
0.597 1.421 1.676 14059
0.599 1.425 1.671 22679
0.601 1.429 1.667 26023
0.605 1.439 1.667 18297
0.606 1.443 1.663 12154
0.610 1.452 1.664 17247
0.612 1.456 1.659 24143
0.612 1.455 1.649 24042
0.615 1.464 1.650 20590
0.622 1.479 1.656 23287
0.626 1.488 1.656 21472
0.627 1.492 1.651 14651
0.643 1.529 1.679 14024
0.647 1.538 1.679 19668
0.648 1.542 1.674 22322
0.650 1.547 1.669 21720
0.652 1.551 1.664 20191
0.651 1.549 1.654 14497
0.651 1.548 1.644 9995
0.655 1.557 1.644 8457
0.668 1.589 1.665 9411
0.660 1.571 1.639 10836
0.662 1.575 1.634 13550
0.685 1.629 1.675 13002
0.686 1.633 1.670 19200
0.690 1.643 1.670 25042
0.697 1.658 1.675 24521
0.699 1.662 1.670 22849
0.700 1.666 1.664 15064
0.674 1.603 1.598 11273
0.675 1.606 1.593 10093
0.717 1.707 1.673 10063
0.719 1.711 1.668 10949
0.726 1.726 1.672 11686
0.730 1.736 1.672 14288
0.729 1.734 1.661 12670
0.731 1.738 1.655 8035
0.737 1.754 1.660 6890
0.744 1.769 1.664 5909
0.755 1.797 1.678 7597
0.754 1.795 1.667 15275
0.754 1.793 1.656 25065
0.753 1.791 1.646 26088
0.752 1.790 1.635 18134
0.759 1.805 1.639 12662
0.768 1.827 1.647 15414
0.772 1.837 1.646 12593
0.774 1.841 1.640 9443
0.795 1.892 1.672 7414
0.799 1.902 1.671 10093
0.796 1.894 1.655 10683
0.795 1.892 1.645 11586
0.800 1.902 1.643 11001
0.801 1.906 1.637 8986
0.818 1.946 1.658 6114
0.820 1.950 1.652 6832
0.824 1.960 1.650 6651
0.826 1.964 1.644 7607
0.830 1.974 1.642 9377
0.831 1.978 1.636 9065
0.833 1.982 1.630 6671
0.822 1.956 1.601 5294
0.864 2.057 1.666 5157
0.856 2.036 1.641 5889
0.847 2.016 1.617 6827
0.852 2.026 1.615 6206
0.853 2.030 1.609 5836
0.881 2.095 1.646 6848
0.880 2.093 1.635 10047
0.881 2.097 1.628 8099
0.886 2.107 1.625 5209
0.887 2.111 1.619 4279
0.946 2.251 1.705 6256
0.948 2.255 1.698 8377
0.952 2.265 1.695 8398
0.957 2.276 1.692 8101
0.958 2.280 1.684 7510
0.963 2.290 1.681 7061
0.967 2.300 1.678 6912
0.971 2.311 1.675 7011
0.973 2.315 1.667 7330
0.977 2.325 1.664 7797
0.982 2.336 1.661 8230
0.991 2.359 1.665 7310
0.998 2.375 1.666 8080
1.000 2.379 1.658 7855
1.004 2.390 1.654 5522
1.022 2.432 1.670 4188
1.024 2.436 1.663 4960
1.026 2.440 1.655 5731
1.038 2.469 1.662 5399
1.061 2.524 1.685 5872
1.068 2.541 1.685 5723
1.083 2.577 1.696 4606
1.091 2.594 1.695 4929
1.090 2.592 1.683 5571
1.091 2.596 1.675 6254
1.090 2.594 1.663 6051
1.070 2.546 1.625 6018
1.134 2.699 1.702 6938
1.136 2.703 1.693 10341
1.138 2.707 1.684 10208
1.142 2.718 1.679 10163
1.141 2.715 1.667 6853
1.181 2.811 1.709 6064
1.186 2.821 1.703 5990
1.190 2.832 1.698 6057
1.192 2.836 1.689 5130
1.197 2.847 1.683 4215
1.212 2.884 1.691 4652
1.214 2.888 1.682 5292
1.218 2.899 1.677 5616
1.220 2.903 1.667 5984
1.219 2.900 1.655 5924
1.218 2.898 1.642 6059
1.220 2.902 1.633 4598
1.285 3.058 1.700 5260
1.287 3.062 1.690 5260
1.289 3.066 1.681 6018
1.288 3.064 1.668 6820
1.295 3.081 1.664 5055
1.241 2.952 1.590 4693
1.242 2.956 1.580 4566
1.280 3.046 1.612 4330
1.282 3.050 1.603 4330
1.284 3.054 1.593 2165
0.603 1.435 0.827 264
0.260 0.614 1.688 9444
0.262 0.618 1.686 10938
0.263 0.622 1.684 12433
0.265 0.626 1.682 15217
0.268 0.633 1.687 18273
0.270 0.638 1.685 18273
0.272 0.642 1.683 18211
0.273 0.646 1.681 18149
0.275 0.650 1.679 17327
0.278 0.657 1.684 16719
0.281 0.665 1.689 18142
0.286 0.675 1.701 20004
0.289 0.682 1.706 17493
0.295 0.696 1.725 14453
0.290 0.684 1.687 12512
0.290 0.685 1.678 11806
0.289 0.683 1.661 12507
0.293 0.693 1.673 10563
0.301 0.711 1.699 12179
0.303 0.715 1.697 16823
0.304 0.719 1.695 21466
0.306 0.723 1.692 21514
0.309 0.731 1.697 21585
0.311 0.735 1.695 21726
0.314 0.743 1.699 22182
0.316 0.747 1.697 20563
0.316 0.747 1.687 19207
0.318 0.751 1.685 13379
0.318 0.752 1.675 7502
0.320 0.756 1.673 7376
0.322 0.760 1.671 7013
0.328 0.775 1.689 6851
0.325 0.768 1.666 7675
0.325 0.769 1.656 9001
0.327 0.773 1.654 10923
0.329 0.777 1.651 12844
0.335 0.792 1.669 12505
0.342 0.807 1.687 13941
0.345 0.815 1.691 14866
0.347 0.819 1.689 19063
0.348 0.823 1.686 21848
0.350 0.827 1.683 19320
0.354 0.835 1.687 17890
0.355 0.839 1.685 17371
0.357 0.844 1.682 15041
0.357 0.844 1.672 13640
0.359 0.848 1.670 13948
0.364 0.860 1.680 17101
0.367 0.868 1.684 21473
0.371 0.876 1.688 21617
0.374 0.884 1.692 19488
0.377 0.892 1.696 18038
0.379 0.896 1.693 18412
0.379 0.896 1.683 17458
0.378 0.892 1.667 18634
0.379 0.896 1.664 18058
0.385 0.909 1.675 15065
0.388 0.917 1.678 13227
0.390 0.921 1.675 20100
0.397 0.937 1.692 30264
0.400 0.945 1.695 30959
0.404 0.954 1.699 26220
0.405 0.958 1.696 17274
0.411 0.970 1.706 6679
0.404 0.954 1.670 6987
0.407 0.962 1.674 9124
0.411 0.970 1.677 11337
0.416 0.983 1.687 21245
0.419 0.991 1.690 28408
0.423 0.999 1.693 24379
0.425 1.004 1.690 18835
0.427 1.008 1.687 13398
0.434 1.025 1.703 12218
0.439 1.038 1.712 14039
0.445 1.050 1.721 9630
0.445 1.050 1.712 6760
0.439 1.037 1.683 7831
0.444 1.050 1.692 8897
0.448 1.059 1.695 10298
0.452 1.067 1.698 11146
0.453 1.071 1.694 14233
0.455 1.075 1.691 12554
0.459 1.084 1.694 8269
0.466 1.102 1.709 6941
0.466 1.101 1.699 7647
0.468 1.105 1.696 9650
0.472 1.114 1.698 7628
0.475 1.123 1.701 3509
0.481 1.136 1.710 2517
0.481 1.136 1.700 6646
0.482 1.140 1.696 11750
0.484 1.144 1.692 10816
0.488 1.153 1.695 8757
0.492 1.162 1.697 11500
0.493 1.166 1.693 15418
0.493 1.165 1.684 16938
0.495 1.169 1.680 14450
0.501 1.183 1.688 15535
0.504 1.192 1.690 17201
0.510 1.205 1.698 14625
0.512 1.210 1.695 19032
0.518 1.223 1.703 21844
0.522 1.232 1.705 16605
0.521 1.232 1.695 17068
0.523 1.236 1.691 21337
0.525 1.240 1.687 16871
0.529 1.249 1.689 9422
0.535 1.263 1.696 7510
0.534 1.262 1.686 11426
0.536 1.266 1.682 14686
0.542 1.280 1.690 17106
0.544 1.284 1.686 19762
0.545 1.289 1.682 12873
0.549 1.298 1.683 7610
0.553 1.307 1.685 13034
0.557 1.316 1.687 17926
0.559 1.320 1.682 18397
0.560 1.324 1.678 16587
0.564 1.333 1.679 18577
0.566 1.337 1.675 21955
0.566 1.336 1.665 19882
0.569 1.346 1.667 22302
0.573 1.355 1.668 20663
0.579 1.369 1.675 17137
0.586 1.383 1.682 19559
0.585 1.382 1.671 19103
0.591 1.397 1.678 26934
0.595 1.406 1.679 26331
0.595 1.405 1.669 14568
0.601 1.420 1.676 15616
0.603 1.424 1.671 24882
0.604 1.428 1.667 27604
0.608 1.437 1.667 18954
0.610 1.441 1.663 12555
0.614 1.451 1.664 15755
0.616 1.455 1.659 20870
0.615 1.453 1.649 23392
0.619 1.463 1.650 22596
0.625 1.477 1.656 24811
0.629 1.487 1.656 21823
0.636 1.502 1.662 14740
0.642 1.516 1.668 14775
0.648 1.531 1.674 19776
0.652 1.541 1.674 22315
0.654 1.545 1.669 20106
0.656 1.549 1.664 17570
0.655 1.548 1.654 12435
0.652 1.541 1.639 7918
0.663 1.567 1.654 7879
0.674 1.593 1.670 10340
0.676 1.597 1.665 14446
0.668 1.579 1.639 15693
0.672 1.588 1.639 11748
0.690 1.631 1.670 16438
0.694 1.641 1.670 20661
0.701 1.656 1.675 19902
0.703 1.660 1.670 19203
0.704 1.664 1.664 12734
0.678 1.601 1.598 10342
0.715 1.689 1.669 10140
0.722 1.705 1.673 11990
0.723 1.709 1.668 12164
0.730 1.724 1.672 12383
0.734 1.734 1.672 15088
0.733 1.732 1.661 13482
0.730 1.725 1.646 7866
0.742 1.752 1.660 4776
0.751 1.773 1.669 5296
0.755 1.783 1.668 7397
0.756 1.787 1.662 15385
0.758 1.791 1.656 25849
0.757 1.790 1.646 27192
0.757 1.788 1.635 20762
0.761 1.798 1.634 15358
0.770 1.819 1.643 15651
0.774 1.829 1.642 12618
0.773 1.827 1.631 10254
0.773 1.825 1.621 7797
0.802 1.894 1.666 8990
0.798 1.886 1.651 11545
0.800 1.890 1.645 13010
0.804 1.900 1.643 12370
0.806 1.904 1.637 9876
0.800 1.890 1.617 7068
0.829 1.960 1.661 6962
0.831 1.964 1.655 7105
0.833 1.968 1.649 7981
0.832 1.966 1.638 9054
0.836 1.976 1.636 9200
0.838 1.980 1.630 8270
0.842 1.990 1.628 6184
0.857 2.024 1.644 4938
0.856 2.022 1.633 5730
0.852 2.014 1.617 7019
0.857 2.024 1.615 6416
0.858 2.028 1.609 5880
0.886 2.093 1.646 6346
0.885 2.091 1.635 8974
0.884 2.089 1.624 7344
0.886 2.093 1.617 4728
0.890 2.103 1.614 4024
0.952 2.248 1.705 6001
0.953 2.253 1.698 8066
0.958 2.263 1.695 7913
0.962 2.273 1.692 7710
0.961 2.271 1.680 7390
0.966 2.282 1.677 6857
0.973 2.298 1.678 6426
0.977 2.308 1.675 6336
0.979 2.313 1.667 6920
0.983 2.323 1.664 7437
0.988 2.333 1.661 7546
0.995 2.350 1.661 7025
1.004 2.373 1.666 8425
1.006 2.377 1.658 8707
1.000 2.362 1.639 6666
0.999 2.360 1.627 4483
1.030 2.433 1.663 4685
1.034 2.444 1.659 5640
1.044 2.467 1.662 5732
1.057 2.496 1.670 5917
1.072 2.532 1.681 5625
1.092 2.581 1.700 4412
1.097 2.592 1.695 5069
1.096 2.589 1.683 5694
1.095 2.587 1.671 6539
1.097 2.591 1.663 5989
1.074 2.537 1.621 6139
1.141 2.696 1.702 6713
1.143 2.700 1.693 9918
1.147 2.711 1.688 9690
1.149 2.715 1.679 9540
1.148 2.713 1.667 6396
1.186 2.801 1.705 5911
1.193 2.818 1.703 5767
1.195 2.823 1.694 5808
1.196 2.827 1.685 5033
1.190 2.811 1.666 4400
1.203 2.841 1.671 4383
1.218 2.878 1.679 4708
1.223 2.889 1.673 5169
1.227 2.900 1.667 5671
1.226 2.897 1.655 5695
1.225 2.895 1.642 5921
1.227 2.899 1.633 4392
1.293 3.055 1.700 4745
1.295 3.059 1.690 4745
1.296 3.063 1.681 5445
1.298 3.067 1.671 6146
1.303 3.078 1.664 4735
1.248 2.949 1.590 4587
1.247 2.946 1.577 4469
1.288 3.043 1.612 3863
1.290 3.047 1.603 3863
1.291 3.051 1.593 1931
0.607 1.434 0.827 264
0.260 0.610 1.681 9076
0.263 0.617 1.686 10535
0.265 0.621 1.684 12061
0.267 0.626 1.682 15190
0.270 0.633 1.687 18541
0.272 0.637 1.685 18541
0.273 0.641 1.683 18696
0.275 0.645 1.681 18851
0.277 0.649 1.679 18857
0.280 0.656 1.684 18911
0.283 0.664 1.689 20136
0.286 0.671 1.694 21816
0.288 0.675 1.692 19071
0.297 0.695 1.725 15363
0.291 0.683 1.687 14360
0.290 0.681 1.671 13669
0.289 0.679 1.654 14599
0.294 0.689 1.666 12161
0.303 0.710 1.699 13545
0.304 0.714 1.697 17990
0.306 0.718 1.695 22435
0.308 0.722 1.692 21928
0.310 0.727 1.690 21421
0.313 0.734 1.695 21530
0.316 0.742 1.699 21860
0.317 0.742 1.690 20669
0.318 0.747 1.687 19609
0.320 0.751 1.685 13818
0.320 0.751 1.675 7947
0.322 0.755 1.673 7244
0.324 0.759 1.671 6529
0.330 0.774 1.689 6829
0.332 0.778 1.686 7043
0.328 0.768 1.656 7219
0.331 0.776 1.661 8883
0.333 0.780 1.658 10556
0.337 0.791 1.669 11158
0.344 0.806 1.687 13234
0.347 0.814 1.691 14599
0.349 0.818 1.689 18989
0.351 0.822 1.686 21685
0.352 0.826 1.683 18751
0.357 0.838 1.694 16542
0.359 0.842 1.691 15094
0.359 0.843 1.682 11652
0.361 0.847 1.679 9782
0.363 0.851 1.676 11831
0.366 0.859 1.680 16753
0.370 0.867 1.684 20725
0.373 0.875 1.688 20425
0.376 0.883 1.692 18198
0.380 0.891 1.696 17154
0.382 0.895 1.693 18124
0.382 0.895 1.683 17559
0.382 0.895 1.674 17961
0.384 0.899 1.671 16511
0.387 0.908 1.675 13214
0.390 0.916 1.678 11950
0.394 0.924 1.682 18159
0.399 0.936 1.692 27518
0.404 0.948 1.702 28465
0.406 0.953 1.699 24385
0.410 0.961 1.702 16323
0.415 0.973 1.712 6407
0.404 0.948 1.664 5497
0.408 0.957 1.667 6368
0.415 0.973 1.683 10242
0.419 0.982 1.687 22434
0.422 0.990 1.690 29390
0.426 0.998 1.693 25528
0.427 1.002 1.690 20164
0.429 1.007 1.687 14472
0.440 1.032 1.715 14478
0.444 1.041 1.718 16059
0.449 1.054 1.728 10644
0.453 1.062 1.731 6541
0.449 1.053 1.708 5409
0.449 1.053 1.698 6726
0.451 1.057 1.695 7870
0.453 1.061 1.692 9200
0.456 1.070 1.694 12608
0.458 1.074 1.691 11119
0.464 1.087 1.700 6855
0.469 1.100 1.709 5081
0.467 1.096 1.693 5286
0.471 1.104 1.696 7098
0.475 1.113 1.698 6097
0.478 1.122 1.701 3545
0.488 1.144 1.722 3485
0.486 1.139 1.706 7088
0.487 1.143 1.702 11808
0.487 1.143 1.692 11205
0.491 1.152 1.695 9800
0.495 1.160 1.697 12872
0.497 1.165 1.693 16837
0.496 1.164 1.684 17827
0.498 1.168 1.680 13839
0.506 1.186 1.694 14479
0.510 1.195 1.696 17291
0.515 1.209 1.705 15011
0.517 1.213 1.701 17625
0.521 1.222 1.703 20089
0.527 1.236 1.711 16161
0.527 1.235 1.701 15889
0.526 1.234 1.691 18919
0.530 1.243 1.693 15214
0.534 1.252 1.695 9423
0.536 1.257 1.691 7308
0.535 1.256 1.681 11851
0.539 1.265 1.682 15748
0.545 1.279 1.690 17216
0.547 1.283 1.686 20478
0.549 1.287 1.682 14898
0.553 1.296 1.683 9795
0.557 1.305 1.685 14251
0.560 1.314 1.687 19859
0.562 1.318 1.682 21957
0.564 1.323 1.678 19437
0.568 1.332 1.679 19901
0.567 1.331 1.669 23512
0.569 1.335 1.665 23436
0.573 1.344 1.667 25538
0.575 1.348 1.662 22317
0.583 1.368 1.675 16651
0.589 1.382 1.682 18967
0.589 1.381 1.671 19978
0.593 1.390 1.673 27348
0.599 1.405 1.679 24229
0.601 1.409 1.675 13601
0.605 1.418 1.676 16758
0.606 1.422 1.671 25801
0.608 1.426 1.667 28197
0.612 1.435 1.667 18794
0.616 1.445 1.668 12144
0.618 1.449 1.664 12990
0.620 1.453 1.659 16914
0.621 1.457 1.654 23282
0.623 1.461 1.650 24980
0.629 1.476 1.656 26069
0.633 1.485 1.656 21890
0.640 1.500 1.662 14793
0.646 1.515 1.668 17120
0.652 1.530 1.674 21908
0.654 1.534 1.669 23470
0.658 1.543 1.669 18887
0.660 1.547 1.664 14432
0.659 1.546 1.654 12674
0.666 1.561 1.659 12744
0.670 1.570 1.660 16427
0.674 1.580 1.660 16561
0.678 1.590 1.660 19645
0.675 1.583 1.644 20762
0.676 1.587 1.639 16904
0.690 1.618 1.660 13887
0.699 1.639 1.670 14748
0.705 1.654 1.675 13416
0.709 1.664 1.675 14353
0.678 1.590 1.599 10134
0.679 1.593 1.593 8548
0.722 1.693 1.674 12266
0.724 1.697 1.668 14684
0.728 1.707 1.668 13491
0.734 1.722 1.672 13295
0.736 1.726 1.667 16127
0.738 1.730 1.661 14421
0.735 1.723 1.646 8094
0.746 1.750 1.660 3875
0.750 1.760 1.659 6306
0.750 1.758 1.648 9922
0.759 1.779 1.657 17261
0.763 1.789 1.656 27237
0.762 1.788 1.646 28240
0.761 1.786 1.635 22668
0.766 1.796 1.634 18601
0.775 1.817 1.643 17327
0.776 1.821 1.637 13371
0.776 1.819 1.626 11262
0.775 1.817 1.616 9039
0.799 1.874 1.652 9402
0.801 1.878 1.646 12993
0.803 1.882 1.640 14590
0.809 1.898 1.643 13116
0.806 1.890 1.628 10521
0.800 1.876 1.608 9494
0.837 1.964 1.666 7705
0.839 1.968 1.660 8083
0.838 1.966 1.649 8356
0.840 1.970 1.642 8551
0.842 1.974 1.636 8997
0.846 1.984 1.634 9585
0.850 1.994 1.632 8559
0.852 1.998 1.626 6525
0.856 2.008 1.624 7062
0.860 2.018 1.622 7712
0.862 2.022 1.615 6888
0.866 2.032 1.613 6087
0.889 2.084 1.641 6457
0.888 2.082 1.630 8405
0.884 2.074 1.615 7117
0.881 2.066 1.600 5162
0.882 2.070 1.593 4098
0.955 2.240 1.701 6081
0.959 2.250 1.698 8059
0.964 2.260 1.695 7588
0.966 2.264 1.688 7223
0.967 2.269 1.680 7130
0.972 2.279 1.677 6745
0.976 2.289 1.674 6415
0.981 2.300 1.671 6246
0.985 2.310 1.667 6474
0.989 2.320 1.664 6531
0.994 2.331 1.661 6450
0.998 2.341 1.657 7775
1.008 2.364 1.662 9605
1.004 2.355 1.646 10692
1.003 2.353 1.635 8781
1.005 2.357 1.627 5787
1.039 2.437 1.666 4460
1.046 2.454 1.666 5950
1.053 2.470 1.666 6311
1.063 2.494 1.670 6211
1.076 2.523 1.677 5745
1.102 2.585 1.704 4329
1.107 2.595 1.699 5375
1.106 2.593 1.687 5844
1.102 2.584 1.671 6759
1.104 2.588 1.663 5805
1.081 2.534 1.621 6087
1.148 2.693 1.702 6431
1.150 2.697 1.693 9432
1.155 2.708 1.688 9190
1.156 2.712 1.679 8954
1.155 2.710 1.667 6047
1.193 2.798 1.705 6034
1.198 2.809 1.700 5786
1.202 2.819 1.694 5821
1.204 2.824 1.685 5094
1.197 2.808 1.666 4642
1.207 2.832 1.667 4333
1.212 2.842 1.662 4216
1.233 2.892 1.677 4713
1.238 2.903 1.671 5400
1.231 2.887 1.651 5420
1.233 2.891 1.642 5676
1.235 2.895 1.633 4131
1.304 3.058 1.704 4447
1.306 3.062 1.694 4447
1.305 3.059 1.681 5021
1.306 3.064 1.671 5641
1.311 3.074 1.664 4578
1.256 2.945 1.590 4312
1.255 2.943 1.577 4231
1.293 3.033 1.609 3427
1.295 3.037 1.600 3427
1.297 3.041 1.590 1713
0.611 1.432 0.827 276
0.261 0.610 1.681 8591
0.264 0.617 1.686 9902
0.266 0.621 1.684 11375
0.268 0.625 1.682 14532
0.271 0.632 1.687 17827
0.273 0.636 1.685 17827
0.275 0.640 1.683 18226
0.276 0.645 1.681 18625
0.278 0.649 1.679 19412
0.280 0.653 1.677 20199
0.283 0.660 1.682 21104
0.286 0.667 1.687 22471
0.288 0.671 1.685 19731
0.290 0.676 1.682 16297
0.291 0.680 1.680 15250
0.290 0.677 1.664 14798
0.291 0.678 1.654 15880
0.295 0.689 1.666 13084
0.304 0.709 1.699 14269
0.306 0.714 1.697 18402
0.308 0.718 1.695 22534
0.309 0.722 1.692 21672
0.311 0.726 1.690 20811
0.314 0.733 1.695 20758
0.318 0.741 1.699 20888
0.318 0.742 1.690 20015
0.320 0.746 1.687 19144
0.321 0.750 1.685 13604
0.322 0.751 1.675 7957
0.324 0.755 1.673 6970
0.325 0.759 1.671 6105
0.332 0.774 1.689 6683
0.335 0.781 1.693 6763
0.335 0.782 1.684 6080
0.334 0.779 1.667 7183
0.334 0.779 1.658 8502
0.340 0.794 1.676 9756
0.345 0.806 1.687 12240
0.349 0.813 1.691 13979
0.350 0.818 1.689 18522
0.352 0.822 1.686 21149
0.354 0.826 1.683 17997
0.359 0.837 1.694 15359
0.361 0.842 1.691 13415
0.363 0.846 1.689 9392
0.363 0.846 1.679 7331
0.364 0.850 1.676 10576
0.368 0.858 1.680 16292
0.371 0.866 1.684 19576
0.375 0.874 1.688 18790
0.378 0.882 1.692 16356
0.382 0.890 1.696 15571
0.383 0.894 1.693 16988
0.383 0.895 1.683 16979
0.385 0.899 1.680 17097
0.385 0.899 1.671 15214
0.389 0.907 1.675 11963
0.396 0.923 1.691 11298
0.397 0.927 1.688 16421
0.403 0.939 1.699 24423
0.406 0.948 1.702 25577
0.408 0.952 1.699 22005
0.412 0.960 1.702 15477
0.417 0.973 1.712 6664
0.406 0.948 1.664 4274
0.410 0.956 1.667 4512
0.419 0.977 1.690 9925
0.422 0.985 1.693 22775
0.424 0.989 1.690 28937
0.428 0.998 1.693 25512
0.429 1.002 1.690 20645
0.431 1.006 1.687 14953
0.444 1.036 1.722 16314
0.446 1.040 1.718 17154
0.451 1.053 1.728 11461
0.455 1.061 1.731 6730
0.455 1.061 1.721 4771
0.455 1.061 1.711 5240
0.455 1.061 1.701 5942
0.455 1.061 1.692 7289
0.456 1.065 1.688 10724
0.460 1.073 1.691 9778
0.466 1.086 1.700 6075
0.469 1.095 1.703 4231
0.467 1.090 1.687 4310
0.471 1.099 1.689 5723
0.477 1.112 1.698 5164
0.480 1.121 1.701 3477
0.490 1.143 1.722 4278
0.490 1.143 1.712 7521
0.490 1.142 1.702 11416
0.491 1.146 1.699 10576
0.493 1.151 1.695 9519
0.497 1.159 1.697 12839
0.499 1.164 1.693 16815
0.501 1.168 1.690 17481
0.500 1.167 1.680 12702
0.508 1.185 1.694 12899
0.512 1.194 1.696 16480
0.520 1.213 1.711 15833
0.524 1.222 1.713 17367
0.525 1.226 1.709 18411
0.529 1.235 1.711 15658
0.531 1.239 1.707 14846
0.531 1.238 1.697 16113
0.533 1.242 1.693 12826
0.536 1.251 1.695 8702
0.538 1.256 1.691 6989
0.538 1.255 1.681 11838
0.542 1.264 1.682 15859
0.548 1.278 1.690 16431
0.549 1.282 1.686 19856
0.551 1.286 1.682 15621
0.555 1.295 1.683 11007
0.557 1.299 1.679 14833
0.563 1.313 1.687 21212
0.565 1.317 1.682 25041
0.566 1.322 1.678 20874
0.570 1.331 1.679 18665
0.570 1.330 1.669 23562
0.572 1.334 1.665 26087
0.576 1.343 1.667 27116
0.577 1.347 1.662 22136
0.584 1.361 1.669 15447
0.592 1.381 1.682 16870
0.589 1.375 1.666 20007
0.595 1.389 1.673 26413
0.602 1.403 1.679 21614
0.603 1.407 1.675 13628
0.605 1.412 1.670 17028
0.609 1.421 1.671 24711
0.611 1.425 1.667 27195
0.615 1.434 1.667 17082
0.619 1.444 1.668 9739
0.623 1.453 1.669 10952
0.622 1.452 1.659 15056
0.624 1.456 1.654 23026
0.628 1.465 1.655 26448
0.632 1.475 1.656 26019
0.636 1.484 1.656 21488
0.642 1.499 1.662 14404
0.646 1.508 1.663 18457
0.653 1.523 1.668 23520
0.657 1.532 1.669 23356
0.661 1.542 1.669 17584
0.663 1.546 1.664 11921
0.664 1.550 1.659 13654
0.673 1.571 1.670 19461
0.675 1.575 1.665 24440
0.677 1.579 1.660 23790
0.681 1.588 1.660 23085
0.680 1.587 1.650 23137
0.679 1.585 1.639 22230
0.681 1.589 1.634 16918
0.678 1.582 1.619 12578
0.680 1.586 1.614 11855
0.713 1.663 1.675 10391
0.683 1.594 1.604 8947
0.721 1.682 1.674 7125
0.725 1.692 1.674 14361
0.727 1.696 1.668 16942
0.731 1.706 1.668 14248
0.738 1.721 1.672 13412
0.739 1.725 1.667 15945
0.741 1.729 1.661 14234
0.740 1.727 1.651 8401
0.750 1.749 1.660 4790
0.754 1.758 1.659 8103
0.753 1.757 1.648 12787
0.760 1.772 1.652 19018
0.764 1.782 1.652 27702
0.766 1.786 1.646 28014
0.765 1.784 1.635 22684
0.769 1.794 1.634 20479
0.776 1.810 1.638 19714
0.777 1.814 1.632 14699
0.777 1.812 1.622 12062
0.778 1.816 1.616 10186
0.795 1.855 1.638 11283
0.799 1.865 1.637 14661
0.804 1.875 1.635 15887
0.805 1.879 1.629 13503
0.804 1.877 1.619 11631
0.804 1.875 1.608 12134
0.805 1.879 1.602 10447
0.845 1.972 1.664 8804
0.844 1.970 1.653 9077
0.846 1.974 1.647 8760
0.845 1.972 1.636 8783
0.852 1.988 1.639 10002
0.856 1.998 1.637 10231
0.858 2.002 1.630 8602
0.860 2.006 1.624 8372
0.864 2.016 1.622 8455
0.866 2.020 1.615 7608
0.870 2.030 1.613 6921
0.895 2.089 1.646 6877
0.892 2.081 1.630 8123
0.886 2.066 1.611 7510
0.882 2.058 1.596 6232
0.884 2.062 1.589 4577
0.959 2.238 1.701 5958
0.964 2.248 1.698 7798
0.965 2.252 1.691 7112
0.970 2.263 1.688 6533
0.969 2.261 1.676 6525
0.976 2.277 1.677 6338
0.980 2.287 1.674 6516
0.985 2.298 1.671 6555
0.987 2.302 1.663 6237
0.991 2.312 1.660 5676
0.998 2.329 1.661 5593
1.003 2.339 1.657 8734
1.004 2.343 1.650 11997
1.006 2.347 1.642 13096
1.008 2.351 1.635 10550
1.009 2.355 1.627 6906
1.011 2.359 1.620 4833
1.051 2.452 1.666 6188
1.058 2.468 1.666 6649
1.065 2.485 1.666 6283
1.081 2.521 1.677 5706
1.080 2.519 1.665 4253
1.112 2.593 1.699 5357
1.111 2.591 1.687 5676
1.107 2.582 1.671 6494
1.109 2.586 1.663 5327
1.085 2.532 1.621 5813
1.156 2.697 1.705 5907
1.158 2.701 1.697 8667
1.160 2.706 1.688 8434
1.162 2.710 1.679 8202
1.160 2.707 1.667 5657
1.196 2.789 1.701 6065
1.200 2.800 1.696 5760
1.208 2.817 1.694 5750
1.206 2.815 1.682 5068
1.203 2.806 1.666 4649
1.210 2.823 1.664 4216
1.215 2.833 1.658 3909
1.242 2.897 1.680 4238
1.246 2.907 1.674 5098
1.237 2.885 1.651 5014
1.236 2.882 1.639 5278
1.237 2.886 1.629 3844
1.310 3.055 1.704 4062
1.311 3.059 1.694 4062
1.313 3.064 1.684 4525
1.312 3.061 1.671 5004
1.317 3.072 1.664 4319
1.259 2.936 1.587 3920
1.260 2.940 1.577 3868
1.322 3.084 1.635 3568
1.324 3.088 1.625 3568
1.325 3.092 1.615 1784
0.616 1.438 0.830 268
0.263 0.609 1.681 7858
0.266 0.616 1.686 9248
0.268 0.620 1.684 10833
0.270 0.624 1.682 13869
0.273 0.631 1.687 16938
0.275 0.635 1.685 16938
0.275 0.637 1.676 17600
0.277 0.641 1.674 18296
0.279 0.645 1.672 19772
0.282 0.652 1.677 21445
0.285 0.659 1.682 21994
0.288 0.666 1.687 22944
0.290 0.671 1.685 20535
0.290 0.671 1.675 17530
0.293 0.679 1.680 16499
0.292 0.676 1.664 16130
0.293 0.677 1.654 17172
0.297 0.688 1.666 13966
0.306 0.708 1.699 14524
0.308 0.713 1.697 18340
0.310 0.717 1.695 22157
0.312 0.721 1.692 21123
0.313 0.725 1.690 20089
0.317 0.733 1.695 19973
0.318 0.737 1.692 20086
0.320 0.741 1.690 19322
0.322 0.745 1.687 18558
0.322 0.746 1.678 13255
0.324 0.750 1.675 7776
0.327 0.757 1.680 6737
0.329 0.761 1.677 5974
0.334 0.773 1.689 6657
0.337 0.780 1.693 6553
0.339 0.784 1.691 5778
0.339 0.785 1.681 6029
0.338 0.782 1.665 6801
0.343 0.793 1.676 8423
0.348 0.805 1.687 11104
0.351 0.812 1.691 13170
0.353 0.816 1.689 17827
0.355 0.821 1.686 20377
0.357 0.825 1.683 17087
0.362 0.836 1.694 13994
0.365 0.844 1.698 11988
0.367 0.848 1.695 8566
0.367 0.849 1.686 7077
0.369 0.853 1.683 10781
0.372 0.861 1.687 16300
0.374 0.865 1.684 18679
0.377 0.873 1.688 17258
0.381 0.881 1.692 14354
0.384 0.889 1.696 13718
0.386 0.893 1.693 15624
0.388 0.897 1.690 16482
0.388 0.897 1.680 16751
0.390 0.902 1.678 14763
0.393 0.910 1.681 11675
0.399 0.922 1.691 11524
0.400 0.926 1.688 15016
0.406 0.938 1.699 21060
0.409 0.946 1.702 22821
0.413 0.955 1.705 20535
0.415 0.959 1.702 15214
0.418 0.967 1.706 7173
0.415 0.959 1.683 4300
0.415 0.959 1.674 4893
0.422 0.975 1.690 10889
0.425 0.984 1.693 22938
0.429 0.992 1.696 28155
0.431 0.996 1.693 24920
0.432 1.000 1.690 20534
0.434 1.004 1.687 15245
0.447 1.034 1.722 17829
0.449 1.038 1.718 17742
0.455 1.051 1.728 11929
0.458 1.060 1.731 6873
0.460 1.064 1.727 4626
0.460 1.064 1.717 4385
0.460 1.064 1.708 4357
0.458 1.059 1.692 5448
0.460 1.063 1.688 8840
0.463 1.072 1.691 8398
0.469 1.085 1.700 5595
0.471 1.089 1.697 4625
0.471 1.089 1.687 5189
0.474 1.097 1.689 5690
0.478 1.106 1.692 4667
0.482 1.115 1.695 3405
0.492 1.137 1.716 4659
0.493 1.141 1.712 7925
0.493 1.141 1.702 11234
0.495 1.145 1.699 10082
0.497 1.149 1.695 8801
0.501 1.158 1.697 12238
0.502 1.162 1.693 16414
0.504 1.166 1.690 16948
0.506 1.170 1.686 11312
0.512 1.184 1.694 11106
0.516 1.193 1.696 15238
0.524 1.211 1.711 16668
0.525 1.215 1.707 17146
0.529 1.224 1.709 16643
0.535 1.238 1.717 14910
0.537 1.242 1.713 13967
0.535 1.237 1.697 13032
0.539 1.246 1.699 9845
0.540 1.250 1.695 7552
0.540 1.249 1.685 7145
0.542 1.253 1.681 11729
0.546 1.262 1.682 15319
0.552 1.276 1.690 15140
0.553 1.280 1.686 18580
0.555 1.284 1.682 15804
0.559 1.293 1.683 11798
0.561 1.297 1.679 15150
0.567 1.312 1.687 22082
0.569 1.316 1.682 27576
0.571 1.320 1.678 21664
0.572 1.324 1.674 16344
0.574 1.328 1.669 22376
0.576 1.332 1.665 27703
0.580 1.341 1.667 27520
0.579 1.340 1.657 20866
0.588 1.359 1.669 14008
0.594 1.374 1.676 14307
0.593 1.373 1.666 19345
0.597 1.382 1.667 25136
0.606 1.402 1.679 20119
0.608 1.406 1.675 16086
0.609 1.410 1.670 17605
0.613 1.419 1.671 22514
0.615 1.423 1.667 25051
0.619 1.432 1.667 14796
0.623 1.442 1.668 6901
0.627 1.451 1.669 10460
0.629 1.455 1.664 15500
0.631 1.459 1.660 23760
0.633 1.463 1.655 27810
0.637 1.473 1.656 25966
0.641 1.482 1.656 21441
0.647 1.497 1.662 14278
0.651 1.506 1.663 19284
0.655 1.516 1.663 24411
0.662 1.530 1.669 22234
0.663 1.534 1.664 16088
0.665 1.539 1.659 10313
0.672 1.553 1.664 14886
0.676 1.563 1.665 25543
0.680 1.572 1.665 31303
0.682 1.577 1.660 30706
0.683 1.581 1.655 27612
0.685 1.585 1.650 24535
0.687 1.589 1.644 24649
0.686 1.587 1.634 20601
0.683 1.580 1.619 13170
0.687 1.589 1.619 10696
0.686 1.588 1.609 8736
0.715 1.653 1.659 7297
0.726 1.680 1.674 8069
0.730 1.689 1.674 16607
0.732 1.694 1.668 18964
0.736 1.703 1.668 14989
0.743 1.719 1.672 13143
0.745 1.723 1.667 14961
0.747 1.727 1.661 13386
0.746 1.725 1.651 8655
0.753 1.741 1.655 5914
0.759 1.756 1.659 9670
0.758 1.754 1.648 15259
0.763 1.764 1.648 20972
0.769 1.780 1.652 27737
0.771 1.784 1.646 27409
0.770 1.782 1.635 22837
0.775 1.792 1.634 22426
0.781 1.807 1.638 21668
0.783 1.811 1.632 15935
0.782 1.809 1.622 12632
0.792 1.831 1.630 11470
0.801 1.852 1.638 14636
0.805 1.862 1.637 17448
0.807 1.866 1.631 18328
0.806 1.864 1.620 15517
0.808 1.868 1.614 13781
0.809 1.872 1.608 15080
0.811 1.876 1.602 13650
0.813 1.880 1.596 10074
0.853 1.973 1.658 10304
0.852 1.971 1.647 10149
0.854 1.975 1.641 9311
0.858 1.985 1.639 10318
0.863 1.995 1.637 11806
0.864 1.999 1.630 10631
0.866 2.003 1.624 9576
0.870 2.013 1.622 9215
0.875 2.023 1.620 9055
0.877 2.027 1.613 8800
0.899 2.080 1.641 7366
0.893 2.066 1.622 8116
0.887 2.051 1.602 8020
0.886 2.049 1.591 7227
0.890 2.059 1.589 5227
0.966 2.235 1.701 5598
0.971 2.245 1.698 7242
0.972 2.249 1.691 6435
0.974 2.253 1.683 5669
0.973 2.251 1.672 5727
0.983 2.274 1.677 5864
0.990 2.291 1.678 6861
0.992 2.295 1.671 7222
0.994 2.299 1.663 6350
0.996 2.303 1.656 5390
1.016 2.351 1.677 5779
1.010 2.336 1.657 10181
1.012 2.340 1.650 14791
1.013 2.344 1.642 15609
1.015 2.348 1.635 12246
1.014 2.346 1.623 8107
1.016 2.349 1.616 5860
1.061 2.455 1.670 6442
1.066 2.465 1.666 6886
1.073 2.482 1.666 6340
1.088 2.518 1.677 5559
1.088 2.515 1.665 4475
1.120 2.590 1.699 5104
1.119 2.587 1.687 5304
1.115 2.579 1.671 6007
1.117 2.583 1.663 4751
1.091 2.523 1.618 5674
1.165 2.694 1.705 5300
1.166 2.698 1.697 7761
1.168 2.702 1.688 7592
1.173 2.713 1.683 7430
1.169 2.704 1.667 5314
1.204 2.786 1.701 6110
1.209 2.796 1.696 5787
1.214 2.807 1.691 5681
1.212 2.804 1.678 5027
1.211 2.802 1.666 4483
1.216 2.813 1.660 4001
1.221 2.823 1.655 3573
1.253 2.899 1.683 3967
1.255 2.903 1.674 4963
1.246 2.881 1.651 4662
1.245 2.879 1.639 4911
1.243 2.876 1.626 3699
1.319 3.051 1.704 3722
1.321 3.055 1.694 3722
1.323 3.059 1.684 4090
1.325 3.064 1.674 4459
1.326 3.068 1.664 4093
1.331 3.078 1.658 3838
1.333 3.082 1.648 4022
1.337 3.093 1.641 4224
1.339 3.097 1.631 4224
1.341 3.101 1.621 2112
0.621 1.436 0.830 286
0.265 0.608 1.681 7378
0.268 0.615 1.686 8813
0.270 0.619 1.684 10439
0.272 0.623 1.682 13309
0.273 0.628 1.680 16179
0.275 0.632 1.678 16179
0.277 0.636 1.676 17069
0.279 0.640 1.674 17958
0.280 0.644 1.672 20186
0.284 0.651 1.677 22693
0.287 0.658 1.682 22954
0.289 0.662 1.680 23615
0.292 0.670 1.685 21500
0.292 0.671 1.675 19043
0.294 0.675 1.673 18022
0.294 0.676 1.664 17613
0.295 0.676 1.654 18635
0.298 0.684 1.659 14979
0.308 0.708 1.699 14413
0.310 0.712 1.697 18014
0.312 0.716 1.695 21614
0.314 0.720 1.692 20470
0.315 0.724 1.690 19325
0.319 0.732 1.695 19122
0.320 0.736 1.692 19205
0.322 0.740 1.690 18467
0.324 0.744 1.687 17728
0.324 0.745 1.678 12717
0.326 0.749 1.675 7406
0.329 0.756 1.680 6516
0.331 0.760 1.677 5940
0.336 0.772 1.689 6665
0.339 0.779 1.693 6398
0.343 0.787 1.697 5637
0.341 0.784 1.681 5281
0.342 0.784 1.672 5371
0.347 0.796 1.683 7089
0.350 0.804 1.687 9817
0.352 0.808 1.684 12303
0.355 0.816 1.689 16960
0.357 0.820 1.686 19429
0.359 0.824 1.683 16138
0.364 0.835 1.694 12784
0.367 0.843 1.698 11288
0.371 0.851 1.702 9544
0.373 0.855 1.699 9206
0.371 0.852 1.683 12187
0.374 0.860 1.687 16477
0.376 0.864 1.684 17791
0.380 0.872 1.688 15725
0.382 0.876 1.685 12209
0.387 0.888 1.696 11530
0.389 0.892 1.693 13863
0.390 0.896 1.690 15634
0.390 0.896 1.680 16185
0.392 0.900 1.678 14652
0.397 0.913 1.688 12465
0.401 0.921 1.691 12599
0.403 0.925 1.688 14200
0.408 0.937 1.699 17831
0.413 0.949 1.709 20700
0.415 0.953 1.705 19538
0.417 0.958 1.702 15341
0.421 0.966 1.706 8014
0.421 0.966 1.696 5466
0.424 0.974 1.699 6403
0.426 0.978 1.696 12139
0.428 0.983 1.693 22520
0.432 0.991 1.696 26610
0.433 0.995 1.693 23632
0.435 0.999 1.690 19884
0.439 1.008 1.693 15290
0.448 1.029 1.715 18985
0.452 1.037 1.718 17821
0.457 1.050 1.728 11921
0.459 1.054 1.724 6881
0.463 1.063 1.727 4461
0.465 1.067 1.724 3833
0.467 1.071 1.720 3192
0.459 1.054 1.685 3683
0.463 1.062 1.688 6755
0.466 1.071 1.691 7088
0.472 1.084 1.700 5467
0.474 1.088 1.697 5609
0.474 1.087 1.687 6453
0.477 1.096 1.689 6383
0.479 1.100 1.686 4775
0.483 1.109 1.689 3371
0.495 1.136 1.716 4875
0.496 1.140 1.712 8282
0.496 1.139 1.702 11127
0.498 1.144 1.699 9477
0.500 1.148 1.695 7656
0.504 1.157 1.697 11233
0.506 1.161 1.693 15617
0.507 1.165 1.690 15999
0.511 1.174 1.692 10125
0.517 1.187 1.700 9345
0.521 1.196 1.702 13566
0.527 1.210 1.711 16689
0.529 1.214 1.707 16845
0.533 1.223 1.709 15245
0.536 1.232 1.711 14234
0.540 1.241 1.713 13131
0.542 1.245 1.709 10355
0.544 1.249 1.705 6678
0.546 1.253 1.700 6382
0.543 1.248 1.685 8088
0.545 1.252 1.681 11936
0.549 1.261 1.682 14490
0.555 1.275 1.690 13515
0.557 1.279 1.686 16619
0.559 1.283 1.682 15337
0.563 1.292 1.683 12131
0.564 1.296 1.679 14978
0.571 1.310 1.687 22411
0.572 1.314 1.682 29622
0.574 1.318 1.678 22042
0.576 1.322 1.674 13394
0.578 1.326 1.669 20256
0.579 1.330 1.665 28106
0.583 1.340 1.667 26712
0.583 1.339 1.657 18669
0.589 1.353 1.663 12396
0.595 1.367 1.670 11796
0.595 1.366 1.660 18318
0.601 1.380 1.667 23099
0.610 1.400 1.679 18509
0.611 1.404 1.675 18345
0.616 1.413 1.676 17577
0.617 1.417 1.671 18745
0.621 1.427 1.672 21427
0.623 1.431 1.667 12376
0.627 1.440 1.668 5121
0.631 1.449 1.669 10554
0.633 1.453 1.664 15719
0.635 1.457 1.660 24136
0.637 1.461 1.655 28325
0.641 1.471 1.656 25650
0.645 1.480 1.656 21394
0.649 1.490 1.657 14809
0.653 1.499 1.657 20063
0.659 1.514 1.663 24913
0.663 1.523 1.664 20676
0.665 1.527 1.659 13970
0.669 1.537 1.659 9971
0.676 1.552 1.664 16655
0.680 1.561 1.665 30086
0.684 1.571 1.665 36436
0.686 1.575 1.660 37059
0.688 1.579 1.655 33880
0.689 1.583 1.650 26887
0.694 1.592 1.650 24882
0.693 1.591 1.639 21535
0.690 1.584 1.624 12122
0.691 1.588 1.619 8461
0.696 1.597 1.619 7400
0.719 1.651 1.659 7802
0.728 1.672 1.669 10024
0.733 1.682 1.669 19250
0.737 1.692 1.668 20968
0.741 1.701 1.668 15888
0.745 1.711 1.667 13006
0.749 1.721 1.667 13431
0.751 1.725 1.661 11682
0.753 1.729 1.655 8301
0.757 1.739 1.655 6526
0.761 1.748 1.654 10709
0.763 1.752 1.648 17249
0.767 1.762 1.648 22792
0.772 1.772 1.647 27705
0.776 1.782 1.646 26370
0.775 1.780 1.635 23185
0.779 1.790 1.634 24731
0.784 1.799 1.633 23997
0.785 1.803 1.627 17428
0.787 1.807 1.622 13191
0.799 1.835 1.635 13784
0.803 1.844 1.633 18714
0.808 1.854 1.632 21174
0.809 1.858 1.626 21797
0.809 1.856 1.615 18720
0.810 1.860 1.609 16731
0.812 1.864 1.603 18332
0.816 1.874 1.602 16973
0.818 1.878 1.596 12722
0.859 1.971 1.658 11973
0.858 1.969 1.647 12162
0.859 1.973 1.641 10236
0.866 1.989 1.643 10664
0.868 1.993 1.637 12857
0.870 1.997 1.630 12139
0.872 2.001 1.624 10450
0.876 2.011 1.622 9961
0.880 2.021 1.620 11282
0.885 2.031 1.618 11687
0.889 2.041 1.615 9359
0.896 2.057 1.617 8695
0.890 2.043 1.598 8824
0.891 2.047 1.591 8393
0.893 2.050 1.585 6031
0.913 2.097 1.608 5411
0.974 2.236 1.694 6523
0.976 2.241 1.686 5635
0.978 2.245 1.679 4706
0.977 2.243 1.668 4763
0.992 2.278 1.681 5120
0.996 2.288 1.678 7381
1.001 2.298 1.675 8312
1.000 2.296 1.663 7056
1.002 2.300 1.656 5993
1.020 2.342 1.673 6969
1.016 2.333 1.657 12117
1.018 2.337 1.650 17508
1.020 2.341 1.642 17938
1.019 2.339 1.631 13869
1.020 2.343 1.623 9246
1.022 2.347 1.616 6922
1.068 2.452 1.670 6695
1.072 2.462 1.666 7106
1.077 2.473 1.662 6400
1.095 2.515 1.677 5349
1.094 2.512 1.665 4632
1.127 2.587 1.699 4686
1.123 2.578 1.683 4757
1.122 2.576 1.671 5348
1.093 2.509 1.622 4499
1.097 2.520 1.618 5529
1.172 2.691 1.705 4614
1.174 2.695 1.697 6763
1.178 2.705 1.692 6713
1.180 2.709 1.683 6713
1.176 2.701 1.667 5056
1.209 2.776 1.698 6325
1.214 2.786 1.693 6027
1.218 2.797 1.687 5825
1.220 2.801 1.678 5033
1.219 2.799 1.666 4252
1.224 2.809 1.660 3712
1.225 2.813 1.651 3172
1.264 2.902 1.687 3836
1.263 2.900 1.674 4917
1.256 2.884 1.655 4400
1.252 2.875 1.639 4550
1.251 2.873 1.626 3663
1.327 3.048 1.704 3437
1.329 3.052 1.694 3437
1.331 3.056 1.684 3762
1.333 3.060 1.674 4086
1.337 3.071 1.668 3997
1.342 3.081 1.661 4077
1.344 3.085 1.651 4433
1.346 3.089 1.641 4790
1.347 3.093 1.631 4790
1.349 3.097 1.621 2395
0.625 1.434 0.830 291
0.267 0.607 1.681 7166
0.270 0.614 1.686 8532
0.272 0.619 1.684 10123
0.273 0.623 1.682 12750
0.275 0.627 1.680 15377
0.277 0.631 1.678 15377
0.279 0.635 1.676 16436
0.281 0.639 1.674 17494
0.282 0.643 1.672 20444
0.286 0.650 1.677 23739
0.287 0.654 1.675 23843
0.291 0.662 1.680 24337
0.292 0.666 1.677 22337
0.294 0.670 1.675 20014
0.296 0.674 1.673 18958
0.296 0.675 1.664 18610
0.297 0.676 1.654 19711
0.300 0.683 1.659 15785
0.310 0.707 1.699 14560
0.312 0.711 1.697 17837
0.314 0.715 1.695 21114
0.316 0.719 1.692 19770
0.318 0.723 1.690 18427
0.319 0.727 1.688 18034
0.323 0.735 1.692 17965
0.324 0.739 1.690 17340
0.326 0.743 1.687 16715
0.327 0.744 1.678 12061
0.330 0.751 1.682 7103
0.332 0.755 1.680 6456
0.335 0.763 1.684 6202
0.338 0.771 1.689 6924
0.342 0.778 1.693 6468
0.345 0.786 1.697 5735
0.345 0.787 1.688 5019
0.346 0.787 1.679 4549
0.351 0.798 1.690 6288
0.354 0.806 1.694 8851
0.354 0.807 1.684 11694
0.358 0.814 1.689 16317
0.359 0.819 1.686 18643
0.361 0.823 1.683 15365
0.366 0.834 1.694 12015
0.370 0.842 1.698 11440
0.373 0.850 1.702 11663
0.375 0.854 1.699 12408
0.375 0.855 1.690 14404
0.377 0.859 1.687 16923
0.379 0.863 1.684 17166
0.382 0.871 1.688 14576
0.384 0.875 1.685 10492
0.389 0.887 1.696 9634
0.391 0.891 1.693 12232
0.391 0.891 1.683 14897
0.393 0.895 1.680 15847
0.395 0.899 1.678 15227
0.400 0.911 1.688 14129
0.404 0.919 1.691 14177
0.406 0.924 1.688 13699
0.413 0.940 1.705 15284
0.416 0.948 1.709 19336
0.418 0.952 1.705 19335
0.420 0.956 1.702 15707
0.424 0.965 1.706 8638
0.424 0.965 1.696 6788
0.425 0.969 1.693 8456
0.429 0.977 1.696 13497
0.431 0.981 1.693 22019
0.435 0.990 1.696 24826
0.436 0.994 1.693 21971
0.438 0.998 1.690 18738
0.442 1.006 1.693 15122
0.451 1.027 1.715 19811
0.455 1.036 1.718 17342
0.461 1.049 1.728 11391
0.462 1.053 1.724 6569
0.466 1.061 1.727 4053
0.470 1.070 1.730 3255
0.476 1.083 1.739 2776
0.468 1.065 1.704 2533
0.468 1.065 1.694 5215
0.471 1.074 1.697 6049
0.475 1.082 1.700 5461
0.477 1.086 1.697 6407
0.479 1.090 1.693 7515
0.481 1.095 1.689 7096
0.482 1.099 1.686 5029
0.486 1.107 1.689 3402
0.498 1.134 1.716 5030
0.500 1.138 1.712 8583
0.502 1.143 1.708 11045
0.504 1.147 1.705 8931
0.505 1.151 1.701 6641
0.507 1.155 1.697 10132
0.509 1.159 1.693 14593
0.511 1.163 1.690 14903
0.515 1.172 1.692 9255
0.521 1.186 1.700 7887
0.524 1.194 1.702 11586
0.530 1.208 1.711 15925
