0.840 1.012 1.724 41048
0.843 1.016 1.720 42955
0.846 1.019 1.717 37312
0.849 1.023 1.713 24315
0.852 1.026 1.709 20193
0.858 1.034 1.711 28945
0.861 1.037 1.707 29493
0.867 1.045 1.709 34888
0.877 1.056 1.716 47703
0.880 1.060 1.712 47539
0.883 1.063 1.708 40037
0.882 1.063 1.698 31378
0.885 1.066 1.694 24352
0.891 1.074 1.696 16600
0.891 1.073 1.686 10890
0.907 1.093 1.705 10885
0.914 1.101 1.707 16813
0.910 1.096 1.691 17134
0.913 1.099 1.687 16825
0.912 1.099 1.677 19875
0.918 1.106 1.678 16691
0.928 1.118 1.685 14859
0.935 1.126 1.687 17132
0.945 1.138 1.694 21407
0.947 1.141 1.689 17370
0.950 1.145 1.685 11776
0.953 1.148 1.680 17536
0.956 1.152 1.676 22511
0.959 1.155 1.671 20721
0.965 1.163 1.673 19730
0.964 1.162 1.663 22568
0.971 1.170 1.664 19090
0.988 1.190 1.681 12724
0.991 1.194 1.677 11464
0.983 1.184 1.656 14092
1.000 1.205 1.673 19133
1.000 1.204 1.663 17576
1.010 1.216 1.669 16108
1.013 1.220 1.664 16123
1.049 1.263 1.708 12734
1.055 1.271 1.709 14655
1.058 1.275 1.704 18573
1.065 1.283 1.705 24908
1.068 1.286 1.700 27182
1.070 1.290 1.695 17911
1.081 1.302 1.700 14267
1.084 1.306 1.695 19678
1.087 1.309 1.690 18818
1.093 1.317 1.691 13546
1.100 1.325 1.691 8755
1.110 1.338 1.696 6700
1.121 1.350 1.701 7009
1.120 1.349 1.691 12362
1.123 1.353 1.686 16808
1.130 1.361 1.686 16710
1.140 1.373 1.691 17058
1.147 1.381 1.691 12503
1.142 1.376 1.675 8875
1.149 1.384 1.675 8528
1.175 1.415 1.700 13690
1.178 1.419 1.695 13831
1.208 1.455 1.724 13705
1.207 1.454 1.714 13579
1.214 1.462 1.713 12143
1.221 1.470 1.712 14068
1.224 1.474 1.707 11035
1.238 1.492 1.716 8764
1.249 1.505 1.720 10340
1.252 1.508 1.714 13325
1.251 1.507 1.704 21125
1.254 1.510 1.698 26443
1.261 1.519 1.697 23850
1.268 1.527 1.696 17876
1.271 1.530 1.690 9369
1.293 1.558 1.708 5612
1.296 1.562 1.702 8008
1.295 1.560 1.691 14207
1.302 1.569 1.690 21159
1.309 1.577 1.689 17866
1.320 1.590 1.692 9347
1.323 1.594 1.686 6508
1.334 1.607 1.689 8059
1.366 1.645 1.716 12767
1.360 1.639 1.700 19625
1.359 1.637 1.689 24942
1.362 1.641 1.683 24219
1.361 1.639 1.672 18506
1.363 1.642 1.666 11210
1.412 1.701 1.709 7636
1.411 1.699 1.698 7391
1.401 1.688 1.678 7409
1.441 1.736 1.712 8596
1.444 1.740 1.706 12035
1.443 1.738 1.694 11871
1.446 1.742 1.688 10980
1.453 1.750 1.685 10554
1.468 1.769 1.692 9992
1.492 1.798 1.707 10295
1.495 1.801 1.700 9634
1.507 1.815 1.702 10978
1.510 1.818 1.695 14143
1.512 1.822 1.688 15086
1.520 1.830 1.685 12968
1.527 1.839 1.682 9249
1.551 1.868 1.697 6078
1.562 1.882 1.698 7271
1.561 1.880 1.686 8985
1.559 1.879 1.675 10982
1.567 1.887 1.672 10991
1.574 1.896 1.669 10406
1.585 1.910 1.670 10259
1.592 1.918 1.667 10466
1.600 1.927 1.663 10497
1.611 1.941 1.664 10207
1.618 1.949 1.661 9973
1.634 1.969 1.665 12545
1.641 1.977 1.662 15817
1.640 1.975 1.650 15814
1.638 1.973 1.639 13462
1.641 1.977 1.631 11042
1.648 1.985 1.627 9837
1.717 2.068 1.678 10681
1.720 2.072 1.670 12394
1.723 2.075 1.662 16819
1.725 2.078 1.654 19532
1.728 2.082 1.646 19203
1.735 2.091 1.642 19097
1.738 2.094 1.634 18495
1.745 2.103 1.630 18082
1.748 2.106 1.622 16548
1.746 2.104 1.610 15172
1.749 2.107 1.602 13292
1.792 2.159 1.627 12933
1.795 2.162 1.619 12560
1.802 2.171 1.614 12253
1.800 2.169 1.602 9270
1.803 2.172 1.594 6354
1.806 2.175 1.586 4593
1.894 2.282 1.645 5847
1.902 2.291 1.639 5831
1.909 2.300 1.634 5930
1.912 2.303 1.625 5570
1.933 2.328 1.630 5443
1.949 2.348 1.632 4158
1.956 2.357 1.626 3080
2.078 2.503 1.706 3148
2.085 2.512 1.699 4313
2.088 2.516 1.690 3859
2.087 2.514 1.677 3416
2.089 2.517 1.667 3416
2.097 2.526 1.661 3472
2.104 2.535 1.655 3629
2.102 2.533 1.642 3869
2.101 2.530 1.629 4202
2.108 2.539 1.622 3051
2.217 2.671 1.686 2877
2.220 2.674 1.676 2877
2.223 2.678 1.665 1438
0.432 0.517 1.703 10918
0.434 0.520 1.701 8745
0.437 0.523 1.699 6573
0.434 0.519 1.675 6541
0.435 0.520 1.666 6935
0.437 0.524 1.664 6935
0.449 0.537 1.690 9510
0.454 0.543 1.695 12929
0.455 0.544 1.686 16088
0.455 0.545 1.677 19426
0.460 0.551 1.682 22174
0.463 0.555 1.680 24958
0.466 0.558 1.677 27974
0.469 0.561 1.675 31616
0.474 0.568 1.680 32290
0.477 0.571 1.678 35690
0.480 0.574 1.676 39226
0.480 0.575 1.666 36307
0.483 0.578 1.664 33514
0.486 0.582 1.662 31276
0.489 0.585 1.659 29039
0.492 0.589 1.657 29876
0.497 0.595 1.662 31361
0.500 0.598 1.660 29098
0.503 0.602 1.657 26836
0.505 0.605 1.655 21054
0.506 0.605 1.646 14907
0.511 0.612 1.650 11662
0.516 0.618 1.655 7773
0.522 0.624 1.659 6357
0.529 0.634 1.671 6586
0.537 0.643 1.682 7788
0.547 0.655 1.700 10148
0.553 0.662 1.704 12010
0.553 0.662 1.695 11871
0.546 0.654 1.665 11990
0.551 0.660 1.669 15747
0.557 0.667 1.673 19240
0.560 0.670 1.671 16207
0.557 0.667 1.655 12684
0.555 0.664 1.638 12827
0.568 0.680 1.663 10992
0.576 0.690 1.674 10729
0.563 0.674 1.631 8919
0.606 0.725 1.729 9251
0.553 0.662 1.585 11969
0.553 0.662 1.575 15172
0.612 0.733 1.714 15489
0.615 0.736 1.711 16121
0.621 0.743 1.715 17162
0.626 0.750 1.719 15941
0.632 0.756 1.722 13969
0.635 0.760 1.720 14175
0.641 0.767 1.723 14384
0.643 0.770 1.720 15231
0.646 0.774 1.717 17381
0.655 0.784 1.727 23140
0.658 0.787 1.724 28084
0.661 0.791 1.721 24231
0.661 0.791 1.712 15458
0.664 0.795 1.709 13791
0.667 0.798 1.705 17742
0.675 0.808 1.715 19936
0.681 0.815 1.719 20462
0.687 0.822 1.722 13706
0.699 0.836 1.738 8947
0.710 0.850 1.755 5574
0.708 0.847 1.738 6490
0.705 0.844 1.722 11532
0.711 0.851 1.725 13095
0.714 0.854 1.722 12390
0.719 0.861 1.725 14673
0.725 0.868 1.728 15650
0.731 0.875 1.731 12337
0.734 0.879 1.728 16064
0.737 0.883 1.724 20534
0.740 0.886 1.721 20514
0.746 0.893 1.724 17223
0.752 0.900 1.727 14993
0.752 0.900 1.717 16043
0.758 0.907 1.720 12763
0.758 0.907 1.710 10063
0.767 0.918 1.719 9171
0.767 0.918 1.709 9898
0.770 0.922 1.705 11909
0.776 0.929 1.708 8393
0.788 0.944 1.723 5722
0.791 0.947 1.719 7595
0.791 0.947 1.710 9987
0.794 0.950 1.706 11556
0.797 0.954 1.702 14417
0.803 0.961 1.705 17585
0.809 0.968 1.707 14996
0.812 0.972 1.703 10591
0.821 0.983 1.712 12291
0.831 0.995 1.720 22479
0.837 1.002 1.722 31539
0.843 1.009 1.724 39719
0.846 1.013 1.720 41978
0.849 1.016 1.717 36322
0.852 1.020 1.713 23759
0.858 1.027 1.715 20914
0.861 1.031 1.711 31434
0.864 1.034 1.707 30157
0.874 1.046 1.714 34265
0.880 1.054 1.716 48701
0.883 1.057 1.712 49949
0.886 1.061 1.708 43417
0.886 1.060 1.698 35445
0.888 1.063 1.694 28203
0.891 1.067 1.690 18756
0.894 1.070 1.686 14005
0.904 1.082 1.693 14138
0.914 1.094 1.701 17413
0.913 1.093 1.691 17384
0.913 1.092 1.681 17209
0.915 1.096 1.677 20846
0.922 1.103 1.678 18783
0.928 1.111 1.679 13891
0.935 1.119 1.681 15082
0.945 1.131 1.688 19586
0.951 1.138 1.689 15380
0.947 1.133 1.673 11450
0.953 1.141 1.675 15308
0.956 1.144 1.670 20002
0.959 1.148 1.666 21294
0.965 1.155 1.667 20397
0.972 1.163 1.668 24435
0.975 1.167 1.664 23647
0.988 1.183 1.676 15254
0.973 1.165 1.644 11760
0.983 1.177 1.650 14388
1.000 1.198 1.667 21486
1.003 1.201 1.663 20396
1.014 1.213 1.669 15668
1.016 1.217 1.664 15622
1.056 1.264 1.714 12300
1.059 1.268 1.709 14055
1.062 1.271 1.704 18362
1.069 1.279 1.705 24706
1.072 1.283 1.700 25641
1.074 1.286 1.695 16315
1.085 1.299 1.700 13493
1.088 1.302 1.695 19736
1.091 1.306 1.690 18864
1.097 1.314 1.691 12764
1.104 1.322 1.691 7987
1.115 1.334 1.696 6665
1.121 1.342 1.696 7731
1.124 1.346 1.691 12016
1.127 1.349 1.686 15330
1.134 1.357 1.686 15531
1.144 1.370 1.691 17706
1.147 1.373 1.685 12514
1.146 1.372 1.675 8288
1.157 1.385 1.680 9554
1.175 1.407 1.695 15202
1.178 1.410 1.689 15280
1.205 1.442 1.714 12567
1.208 1.445 1.709 12691
1.214 1.454 1.708 11750
1.225 1.467 1.712 12766
1.232 1.475 1.712 10329
1.247 1.493 1.721 10144
1.254 1.501 1.720 11900
1.257 1.504 1.714 14001
1.260 1.508 1.709 20400
1.259 1.507 1.698 25796
1.265 1.515 1.697 23858
1.272 1.523 1.696 17778
1.279 1.531 1.695 9208
1.310 1.569 1.723 6833
1.305 1.562 1.707 8616
1.300 1.556 1.691 15782
1.307 1.565 1.690 22801
1.318 1.578 1.694 17916
1.325 1.586 1.692 8826
1.328 1.590 1.686 5870
1.335 1.598 1.685 7588
1.371 1.641 1.716 12024
1.369 1.639 1.705 17835
1.368 1.638 1.694 22033
1.371 1.641 1.688 21609
1.370 1.640 1.677 16606
1.369 1.638 1.666 10022
1.421 1.701 1.714 6374
1.424 1.705 1.707 7091
1.427 1.708 1.701 8075
1.438 1.722 1.703 9518
1.446 1.730 1.701 12001
1.448 1.734 1.694 13437
1.451 1.737 1.688 13806
1.458 1.746 1.685 13213
1.470 1.759 1.688 11720
1.498 1.793 1.707 11845
1.501 1.797 1.700 11040
1.512 1.810 1.702 12216
1.515 1.814 1.695 15042
1.518 1.817 1.688 14955
1.525 1.826 1.685 12150
1.532 1.834 1.682 8365
1.557 1.863 1.697 5688
1.564 1.872 1.694 6656
1.567 1.875 1.686 8239
1.570 1.879 1.679 10204
1.573 1.882 1.672 10586
1.580 1.891 1.669 9887
1.591 1.905 1.670 8901
1.598 1.913 1.667 8782
1.606 1.922 1.663 8753
1.617 1.936 1.664 8782
1.624 1.944 1.661 8845
1.645 1.969 1.669 11803
1.648 1.972 1.662 15053
1.646 1.970 1.650 14886
1.649 1.974 1.643 12885
1.652 1.977 1.635 10758
1.654 1.980 1.627 9491
1.723 2.063 1.678 10521
1.726 2.066 1.670 11979
1.729 2.070 1.662 16023
1.732 2.073 1.654 18609
1.735 2.076 1.646 18263
1.742 2.085 1.642 18191
1.745 2.088 1.634 17539
1.748 2.092 1.626 16887
1.750 2.095 1.618 15578
1.753 2.098 1.610 14270
1.756 2.102 1.602 12466
1.758 2.105 1.594 10663
1.806 2.162 1.622 10222
1.809 2.165 1.614 10419
1.807 2.163 1.602 7784
1.810 2.166 1.594 5341
1.903 2.278 1.657 4479
1.902 2.276 1.645 5953
1.909 2.285 1.639 6020
1.916 2.294 1.634 6176
1.919 2.297 1.625 5763
1.935 2.317 1.627 5418
1.956 2.342 1.632 4098
1.964 2.351 1.626 3034
2.090 2.502 1.709 3292
2.093 2.506 1.699 4498
2.096 2.509 1.690 4069
2.081 2.490 1.667 3696
2.083 2.494 1.657 3696
2.105 2.519 1.661 3739
2.112 2.528 1.655 3917
2.110 2.526 1.642 4104
2.113 2.529 1.632 4372
2.116 2.533 1.622 3109
2.225 2.664 1.686 3020
2.228 2.667 1.676 3020
2.231 2.671 1.665 1510
0.433 0.515 1.703 10941
0.436 0.519 1.701 8513
0.441 0.525 1.706 6248
0.442 0.526 1.697 5751
0.436 0.519 1.666 6117
0.439 0.522 1.664 6117
0.453 0.539 1.697 9349
0.456 0.542 1.695 13450
0.456 0.543 1.686 16928
0.459 0.546 1.684 20645
0.462 0.550 1.682 22812
0.465 0.553 1.680 24980
0.468 0.557 1.677 27651
0.471 0.560 1.675 30913
0.476 0.566 1.680 31419
0.479 0.570 1.678 35196
0.482 0.573 1.676 39112
0.482 0.574 1.666 36251
0.485 0.577 1.664 33491
0.488 0.580 1.662 30415
0.491 0.584 1.659 27339
0.493 0.587 1.657 27772
0.499 0.593 1.662 28769
0.502 0.597 1.660 26811
0.504 0.600 1.657 24853
0.507 0.603 1.655 19778
0.508 0.604 1.646 14355
0.515 0.613 1.657 11240
0.521 0.619 1.662 7999
0.523 0.623 1.659 6819
0.531 0.632 1.671 7067
0.539 0.641 1.682 8401
0.549 0.654 1.700 10809
0.552 0.657 1.697 12697
0.555 0.661 1.695 12289
0.548 0.652 1.665 12380
0.553 0.658 1.669 16561
0.559 0.665 1.673 20384
0.562 0.668 1.671 17499
0.562 0.669 1.661 13675
0.557 0.663 1.638 13894
0.560 0.666 1.636 11681
0.578 0.688 1.674 10984
0.563 0.670 1.624 9671
0.557 0.663 1.601 8639
0.555 0.660 1.585 12832
0.558 0.663 1.582 16144
0.560 0.667 1.580 16395
0.617 0.734 1.711 15445
0.623 0.741 1.715 16978
0.628 0.748 1.719 16114
0.634 0.755 1.722 14166
0.637 0.758 1.720 14334
0.643 0.765 1.723 14535
0.646 0.768 1.720 15348
0.649 0.772 1.717 17378
0.657 0.782 1.727 23332
0.660 0.786 1.724 28717
0.663 0.789 1.721 25735
0.666 0.793 1.718 18410
0.669 0.796 1.715 17308
0.669 0.796 1.705 19545
0.678 0.807 1.715 19667
0.684 0.813 1.719 19437
0.692 0.824 1.729 13201
0.707 0.841 1.751 9302
0.713 0.848 1.755 6202
0.710 0.845 1.738 6683
0.707 0.841 1.722 11512
0.713 0.849 1.725 13505
0.716 0.852 1.722 12954
0.722 0.859 1.725 15597
0.728 0.866 1.728 16959
0.734 0.873 1.731 11670
0.737 0.877 1.728 12520
0.740 0.880 1.724 16787
0.743 0.884 1.721 17450
0.749 0.891 1.724 14698
0.755 0.898 1.727 11885
0.755 0.898 1.717 12026
0.761 0.905 1.720 10105
0.764 0.909 1.716 9588
0.767 0.912 1.713 8955
0.770 0.916 1.709 9162
0.773 0.919 1.705 10933
0.779 0.926 1.708 7559
0.791 0.941 1.723 6264
0.794 0.945 1.719 9370
0.794 0.945 1.710 11795
0.793 0.944 1.700 12765
0.800 0.951 1.702 14245
0.806 0.959 1.705 15989
0.809 0.962 1.701 13076
0.812 0.966 1.697 9756
0.821 0.977 1.706 13689
0.830 0.988 1.714 24217
0.840 1.000 1.722 30130
0.846 1.007 1.724 37708
0.849 1.010 1.720 40088
0.852 1.014 1.717 34116
0.855 1.017 1.713 22205
0.861 1.025 1.715 21377
0.864 1.028 1.711 33884
0.867 1.032 1.707 30882
0.877 1.043 1.714 33766
0.883 1.051 1.716 49714
0.886 1.054 1.712 51946
0.889 1.058 1.708 46448
0.889 1.057 1.698 39596
0.892 1.061 1.694 32222
0.894 1.064 1.690 21318
0.897 1.068 1.686 17736
0.907 1.079 1.693 18504
0.913 1.087 1.695 18447
0.913 1.086 1.685 18815
0.916 1.090 1.681 18499
0.919 1.093 1.677 21078
0.925 1.101 1.678 21228
0.928 1.104 1.674 14692
0.938 1.116 1.681 13256
0.948 1.128 1.688 17110
0.954 1.135 1.689 12611
0.950 1.130 1.673 11543
0.953 1.134 1.669 13343
0.959 1.142 1.670 15987
0.962 1.145 1.666 19305
0.969 1.153 1.667 19641
0.975 1.160 1.668 26095
0.978 1.164 1.664 28147
0.984 1.171 1.665 16216
0.976 1.162 1.644 13207
0.983 1.169 1.645 15673
1.000 1.190 1.662 23198
1.003 1.194 1.657 23372
1.013 1.206 1.664 15773
1.016 1.209 1.659 15030
1.060 1.261 1.714 10534
1.063 1.265 1.709 13046
1.069 1.273 1.709 18491
1.072 1.276 1.705 25078
1.072 1.275 1.694 24225
1.078 1.283 1.695 14441
1.089 1.295 1.700 13223
1.092 1.299 1.695 20136
1.095 1.302 1.690 19237
1.105 1.315 1.696 12553
1.112 1.323 1.696 7402
1.118 1.331 1.696 7205
1.125 1.339 1.696 9706
1.128 1.342 1.691 11853
1.131 1.346 1.686 13011
1.138 1.354 1.686 14208
1.152 1.371 1.696 19766
1.155 1.375 1.691 14249
1.154 1.373 1.680 8628
1.165 1.386 1.685 11594
1.179 1.403 1.695 18015
1.178 1.402 1.684 17834
1.201 1.429 1.704 11036
1.212 1.442 1.709 11355
1.215 1.445 1.703 12152
1.226 1.458 1.708 11765
1.240 1.476 1.717 10081
1.251 1.489 1.721 11784
1.258 1.497 1.720 13797
1.261 1.501 1.714 14941
1.264 1.504 1.709 19310
1.267 1.508 1.703 24336
1.270 1.511 1.697 22942
1.277 1.519 1.696 17140
1.284 1.528 1.695 9414
1.311 1.560 1.718 8583
1.310 1.559 1.707 9999
1.309 1.557 1.696 16712
1.316 1.566 1.695 23534
1.323 1.574 1.694 17860
1.334 1.587 1.697 8909
1.333 1.586 1.686 6174
1.344 1.599 1.689 7720
1.375 1.637 1.716 12308
1.374 1.635 1.705 16614
1.373 1.634 1.694 18764
1.376 1.637 1.688 18594
1.375 1.636 1.677 13893
1.373 1.634 1.666 7980
1.426 1.697 1.714 5110
1.438 1.711 1.716 8135
1.441 1.714 1.710 10770
1.439 1.713 1.699 11939
1.446 1.721 1.697 12974
1.453 1.730 1.694 14928
1.456 1.733 1.688 16399
1.463 1.741 1.685 15773
1.475 1.755 1.688 13324
1.503 1.789 1.707 13449
1.510 1.797 1.704 13098
1.518 1.806 1.702 14445
1.521 1.809 1.695 16905
1.523 1.813 1.688 15643
1.531 1.821 1.685 12016
1.538 1.830 1.682 8039
1.558 1.854 1.692 5415
1.569 1.867 1.694 5912
1.572 1.871 1.686 7285
1.575 1.874 1.679 9243
1.578 1.878 1.672 9828
1.585 1.886 1.669 8948
1.592 1.895 1.666 7156
1.600 1.903 1.662 6507
1.611 1.917 1.663 6391
1.623 1.931 1.664 7010
1.648 1.960 1.677 7852
1.650 1.964 1.669 10889
1.653 1.967 1.662 13926
1.652 1.965 1.650 13585
1.655 1.969 1.643 12048
1.657 1.972 1.635 10469
1.660 1.975 1.627 9016
1.729 2.058 1.678 9918
1.732 2.061 1.670 11223
1.735 2.065 1.662 14821
1.738 2.068 1.654 17116
1.741 2.071 1.646 16779
1.748 2.080 1.642 16776
1.751 2.083 1.634 16078
1.754 2.087 1.626 15380
1.756 2.090 1.618 13993
1.755 2.088 1.606 12636
1.757 2.091 1.598 11009
1.765 2.100 1.594 9384
1.767 2.103 1.586 7901
1.820 2.165 1.618 8549
1.823 2.169 1.609 6283
1.866 2.221 1.633 4479
1.905 2.267 1.653 4439
1.904 2.265 1.641 5812
1.916 2.279 1.639 6013
1.918 2.283 1.631 6385
1.926 2.291 1.625 5918
1.933 2.300 1.620 5486
1.963 2.336 1.632 4110
1.971 2.345 1.626 3109
2.098 2.496 1.709 3545
2.101 2.499 1.699 4795
2.103 2.503 1.690 4402
2.088 2.484 1.667 4232
2.091 2.488 1.657 4232
2.112 2.513 1.661 4100
2.120 2.522 1.655 4266
2.122 2.525 1.645 4383
2.121 2.523 1.632 4539
2.123 2.527 1.622 3149
2.233 2.657 1.686 3294
2.236 2.661 1.676 3294
2.239 2.664 1.665 1647
0.435 0.514 1.703 10323
0.440 0.520 1.708 7955
0.445 0.526 1.713 5857
0.448 0.529 1.711 5135
0.438 0.518 1.666 5313
0.441 0.521 1.664 5313
0.454 0.537 1.697 9031
0.457 0.541 1.695 13605
0.458 0.541 1.686 17410
0.461 0.545 1.684 21474
0.464 0.548 1.682 22990
0.467 0.552 1.680 24507
0.470 0.555 1.677 26713
0.472 0.559 1.675 29429
0.475 0.562 1.673 29745
0.480 0.568 1.678 33732
0.483 0.571 1.676 37871
0.484 0.572 1.666 35129
0.487 0.576 1.664 32457
0.490 0.579 1.662 28680
0.492 0.582 1.659 24902
0.495 0.586 1.657 24945
0.501 0.592 1.662 25412
0.503 0.595 1.660 23846
0.506 0.599 1.657 22280
0.509 0.602 1.655 18037
0.509 0.602 1.646 13444
0.517 0.612 1.657 10576
0.522 0.618 1.662 8039
0.525 0.621 1.659 7104
0.533 0.630 1.671 7319
0.539 0.637 1.675 8618
0.549 0.649 1.693 11040
0.554 0.655 1.697 12979
0.557 0.659 1.695 12343
0.550 0.650 1.665 12489
0.555 0.657 1.669 16865
0.561 0.663 1.673 20700
0.564 0.667 1.671 17887
0.564 0.667 1.661 14032
0.559 0.661 1.638 14419
0.562 0.664 1.636 12246
0.580 0.686 1.674 10985
0.565 0.668 1.624 10114
0.565 0.668 1.614 9276
0.557 0.658 1.585 13005
0.560 0.662 1.582 16277
0.562 0.665 1.580 16564
0.568 0.671 1.584 15355
0.625 0.739 1.715 15928
0.631 0.746 1.719 15318
0.636 0.753 1.722 13640
0.573 0.677 1.560 14705
0.645 0.763 1.723 14852
0.648 0.766 1.720 15569
0.651 0.770 1.717 17115
0.657 0.777 1.721 22745
0.663 0.783 1.724 28315
0.666 0.787 1.721 26621
0.669 0.791 1.718 21318
0.674 0.797 1.722 21123
0.674 0.797 1.712 21350
0.680 0.804 1.715 19444
0.686 0.811 1.719 17733
0.695 0.822 1.729 12180
0.710 0.839 1.751 9481
0.716 0.846 1.755 6764
0.713 0.843 1.738 6758
0.710 0.839 1.722 10939
0.716 0.846 1.725 13123
0.719 0.850 1.722 12988
0.725 0.857 1.725 16165
0.731 0.864 1.728 17738
0.737 0.871 1.731 11402
0.743 0.878 1.734 9081
0.743 0.878 1.724 11773
0.746 0.882 1.721 13003
0.752 0.889 1.724 11322
0.755 0.892 1.720 8904
0.758 0.896 1.717 8716
0.761 0.899 1.713 8897
0.767 0.906 1.716 10450
0.770 0.910 1.713 9473
0.772 0.913 1.709 8832
0.779 0.921 1.712 10068
0.785 0.928 1.714 7087
0.794 0.939 1.723 7091
0.797 0.942 1.719 10923
0.797 0.942 1.710 13210
0.796 0.942 1.700 13983
0.799 0.945 1.696 14813
0.806 0.952 1.699 16212
0.808 0.956 1.695 14204
0.815 0.963 1.697 13308
0.824 0.974 1.706 17001
0.834 0.986 1.714 24473
0.843 0.997 1.722 27753
0.853 1.008 1.730 34662
0.852 1.008 1.720 36330
0.855 1.011 1.717 29593
0.858 1.015 1.713 19216
0.865 1.022 1.715 20841
0.871 1.030 1.717 34112
0.874 1.033 1.713 29905
0.880 1.041 1.714 31561
0.887 1.048 1.716 48507
0.889 1.052 1.712 52158
0.892 1.055 1.708 47094
0.892 1.055 1.698 40650
0.895 1.058 1.694 33767
0.898 1.061 1.690 22885
0.901 1.065 1.686 20406
0.910 1.077 1.693 21401
0.913 1.080 1.689 18544
0.916 1.083 1.685 19481
0.923 1.091 1.687 19068
0.926 1.094 1.682 20238
0.932 1.102 1.684 23061
0.935 1.105 1.679 19054
0.941 1.113 1.681 15702
0.951 1.125 1.688 16221
0.954 1.128 1.684 11039
0.954 1.127 1.673 10903
0.956 1.131 1.669 11101
0.963 1.139 1.670 10341
0.969 1.146 1.671 14041
0.972 1.150 1.667 16279
0.979 1.157 1.668 25671
0.982 1.161 1.664 28909
0.981 1.160 1.654 15981
0.984 1.163 1.649 14691
0.986 1.166 1.645 17679
1.004 1.187 1.662 23851
1.007 1.191 1.657 24073
1.013 1.198 1.658 15046
1.020 1.206 1.659 13906
1.015 1.201 1.643 9948
1.067 1.261 1.709 10435
1.073 1.269 1.709 18555
1.076 1.273 1.705 25148
1.079 1.276 1.700 21981
1.082 1.280 1.695 12511
1.093 1.292 1.700 12964
1.096 1.296 1.695 19648
1.099 1.299 1.690 18611
1.109 1.311 1.696 11619
1.120 1.324 1.701 6141
1.126 1.332 1.701 7646
1.133 1.340 1.701 11621
1.136 1.343 1.696 10586
1.139 1.347 1.691 8816
1.150 1.359 1.696 13348
1.160 1.372 1.701 21360
1.163 1.376 1.696 15807
1.170 1.384 1.696 9909
1.173 1.387 1.690 13152
1.180 1.395 1.690 19772
1.183 1.399 1.684 20059
1.190 1.407 1.684 11563
1.204 1.424 1.694 9416
1.215 1.437 1.698 12235
1.214 1.436 1.688 13033
1.189 1.406 1.647 11157
1.256 1.485 1.721 12628
1.259 1.488 1.715 15116
1.262 1.492 1.709 15598
1.269 1.500 1.709 17486
1.272 1.504 1.703 21428
1.279 1.512 1.702 20749
1.286 1.520 1.701 15823
1.293 1.528 1.700 9271
1.316 1.556 1.718 9891
1.315 1.555 1.707 10904
1.318 1.558 1.701 16271
1.325 1.566 1.700 22250
1.332 1.575 1.698 16591
1.343 1.588 1.702 8407
1.342 1.586 1.691 5839
1.353 1.600 1.694 8125
1.376 1.627 1.711 13687
1.383 1.636 1.709 16125
1.382 1.634 1.698 15870
1.385 1.638 1.692 15610
1.388 1.641 1.686 11491
1.387 1.640 1.675 6314
1.440 1.703 1.723 5008
1.443 1.706 1.716 10105
1.446 1.710 1.710 13609
1.445 1.708 1.699 14483
1.452 1.717 1.697 13813
1.459 1.725 1.694 15127
1.462 1.728 1.688 17130
1.469 1.737 1.685 16520
1.476 1.745 1.683 13607
1.509 1.784 1.707 14518
1.516 1.793 1.704 14945
1.523 1.801 1.702 16499
1.522 1.799 1.691 18656
1.529 1.808 1.688 16343
1.536 1.816 1.685 12041
1.543 1.825 1.682 8188
1.559 1.844 1.688 5375
1.562 1.847 1.681 5782
1.578 1.866 1.686 6223
1.585 1.875 1.683 8051
1.588 1.878 1.676 8698
1.591 1.881 1.669 7546
1.594 1.885 1.662 5292
1.597 1.888 1.654 4189
1.617 1.912 1.663 3882
1.633 1.931 1.668 5288
1.654 1.955 1.677 6974
1.657 1.959 1.669 9594
1.659 1.962 1.662 12214
1.658 1.960 1.650 11722
1.661 1.964 1.643 10575
1.663 1.967 1.635 9478
1.666 1.970 1.627 8008
1.736 2.052 1.678 8702
1.739 2.056 1.670 9850
1.742 2.059 1.662 12924
1.744 2.063 1.654 14850
1.747 2.066 1.646 14410
1.755 2.075 1.642 14282
1.757 2.078 1.634 13561
1.760 2.081 1.626 12840
1.763 2.084 1.618 11605
1.761 2.082 1.606 10453
1.764 2.086 1.598 8961
1.771 2.094 1.594 7510
1.774 2.097 1.586 6294
1.836 2.170 1.625 6631
1.843 2.179 1.620 4880
1.937 2.290 1.684 4644
1.917 2.267 1.657 4413
1.911 2.259 1.641 5555
1.923 2.273 1.639 5899
1.925 2.277 1.631 6441
1.928 2.280 1.622 6021
1.936 2.289 1.617 5591
1.971 2.330 1.632 3927
1.983 2.344 1.630 3073
2.105 2.489 1.709 3594
2.108 2.493 1.699 4855
2.111 2.496 1.690 4504
2.059 2.434 1.640 4723
2.061 2.437 1.631 4723
2.120 2.507 1.661 4242
2.127 2.515 1.655 4406
2.130 2.519 1.645 4439
2.133 2.522 1.635 4472
2.136 2.525 1.625 3008
2.246 2.656 1.689 3286
2.249 2.659 1.679 3286
2.252 2.663 1.669 1643
0.436 0.513 1.703 11769
0.441 0.519 1.708 9124
0.446 0.525 1.713 6747
0.451 0.531 1.718 5092
0.439 0.516 1.666 4233
0.442 0.520 1.664 4233
0.456 0.536 1.697 8255
0.459 0.539 1.695 13286
0.459 0.540 1.686 17369
0.462 0.544 1.684 21650
0.465 0.547 1.682 21835
0.466 0.548 1.672 22245
0.471 0.554 1.677 23573
0.474 0.557 1.675 25637
0.479 0.563 1.680 26169
0.482 0.567 1.678 31094
0.485 0.570 1.676 36134
0.488 0.573 1.673 33595
0.488 0.574 1.664 31212
0.491 0.578 1.662 25753
0.494 0.581 1.659 20295
0.497 0.584 1.657 19252
0.502 0.590 1.662 18411
0.505 0.594 1.660 17880
0.508 0.597 1.657 17350
0.511 0.600 1.655 15010
0.514 0.604 1.652 12343
0.519 0.610 1.657 10250
0.524 0.616 1.662 9125
0.527 0.620 1.659 8534
0.530 0.623 1.657 8263
0.538 0.632 1.668 9150
0.551 0.647 1.693 10510
0.556 0.654 1.697 12204
0.559 0.657 1.695 11345
0.552 0.649 1.665 10888
0.557 0.655 1.669 15657
0.563 0.662 1.673 20081
0.566 0.665 1.671 17906
0.568 0.668 1.668 14442
0.558 0.656 1.632 14985
0.561 0.660 1.629 13099
0.588 0.691 1.687 11816
0.564 0.663 1.617 11862
0.567 0.666 1.614 10881
0.561 0.660 1.592 12595
0.561 0.660 1.582 15307
0.564 0.663 1.580 15781
0.570 0.670 1.584 15612
0.624 0.734 1.708 14303
0.572 0.673 1.572 13113
0.575 0.676 1.569 14792
0.575 0.676 1.560 16156
0.578 0.679 1.557 14895
0.650 0.764 1.720 16052
0.653 0.768 1.717 17034
0.659 0.775 1.721 21869
0.665 0.782 1.724 27267
0.668 0.785 1.721 28147
0.674 0.792 1.725 26374
0.680 0.799 1.728 27269
0.680 0.799 1.719 25999
0.683 0.802 1.715 20975
0.688 0.809 1.719 16051
0.694 0.816 1.722 10770
0.709 0.834 1.745 8963
0.715 0.841 1.748 7909
0.715 0.841 1.738 6958
0.712 0.837 1.722 9485
0.715 0.841 1.719 11759
0.718 0.844 1.716 12118
0.727 0.855 1.725 15900
0.733 0.862 1.728 17589
0.742 0.872 1.738 12547
0.745 0.876 1.734 7476
0.745 0.876 1.724 6212
0.748 0.879 1.721 7106
0.748 0.879 1.711 6624
0.748 0.879 1.701 5720
0.751 0.883 1.698 7083
0.760 0.893 1.707 11114
0.769 0.904 1.716 15672
0.772 0.908 1.713 13671
0.775 0.911 1.709 10464
0.781 0.918 1.712 10266
0.787 0.926 1.714 7860
0.793 0.933 1.717 7609
0.800 0.940 1.719 9912
0.799 0.940 1.710 12095
0.799 0.939 1.700 14415
0.802 0.943 1.696 16161
0.805 0.946 1.692 18709
0.808 0.950 1.689 21327
0.814 0.957 1.691 25481
0.820 0.964 1.693 26628
0.833 0.979 1.708 21755
0.843 0.991 1.716 20676
0.856 1.006 1.730 26097
0.855 1.005 1.720 26725
0.858 1.009 1.717 20907
0.864 1.016 1.719 15405
0.867 1.020 1.715 20360
0.874 1.027 1.717 33073
0.877 1.031 1.713 26304
0.883 1.038 1.714 23388
0.886 1.042 1.710 41263
0.892 1.049 1.712 49088
0.895 1.053 1.708 45652
0.895 1.052 1.698 40147
0.898 1.055 1.694 36714
0.901 1.059 1.690 27309
0.904 1.062 1.686 25098
0.910 1.070 1.688 25878
0.916 1.077 1.689 21853
0.919 1.081 1.685 21524
0.929 1.093 1.692 20641
0.932 1.096 1.688 20295
0.935 1.099 1.684 25906
0.942 1.107 1.685 28003
0.944 1.110 1.681 24013
0.951 1.118 1.682 20581
0.954 1.121 1.678 12422
0.957 1.125 1.673 9500
0.963 1.132 1.675 10197
0.973 1.144 1.682 8582
0.965 1.135 1.660 11316
0.972 1.143 1.661 13649
0.982 1.154 1.668 23298
0.981 1.154 1.658 23391
0.984 1.157 1.654 13752
0.991 1.165 1.655 25114
0.997 1.172 1.656 27210
1.007 1.184 1.662 22880
1.007 1.183 1.652 18688
1.013 1.191 1.653 14264
1.023 1.203 1.659 16173
1.022 1.202 1.649 12863
1.033 1.214 1.655 10605
1.077 1.266 1.709 12383
1.080 1.270 1.705 19688
1.079 1.269 1.694 17479
1.078 1.268 1.684 10688
1.093 1.284 1.695 11436
1.096 1.288 1.690 18152
1.098 1.291 1.685 18150
1.105 1.299 1.685 11870
1.100 1.294 1.670 5446
1.130 1.329 1.701 8381
1.137 1.337 1.701 12801
1.144 1.345 1.701 8863
1.155 1.357 1.706 5129
1.161 1.365 1.706 13552
1.164 1.369 1.701 23962
1.163 1.368 1.691 17430
1.166 1.371 1.685 10313
1.177 1.384 1.690 14162
1.184 1.392 1.690 21608
1.187 1.395 1.684 22362
1.194 1.403 1.684 14345
1.200 1.411 1.684 9170
1.215 1.429 1.693 12541
1.218 1.432 1.688 15589
1.193 1.403 1.647 12036
1.252 1.472 1.711 11971
1.255 1.475 1.705 16987
1.262 1.484 1.705 17529
1.273 1.497 1.709 15453
1.276 1.500 1.703 17449
1.283 1.508 1.702 17340
1.290 1.516 1.701 13089
1.297 1.525 1.700 8341
1.312 1.543 1.708 9164
1.319 1.551 1.707 9407
1.322 1.554 1.701 13035
1.329 1.563 1.700 17301
1.336 1.571 1.698 12495
1.347 1.584 1.702 9013
1.346 1.583 1.691 8495
1.353 1.591 1.689 10194
1.377 1.619 1.706 16414
1.384 1.627 1.705 16296
1.387 1.630 1.698 13495
1.394 1.639 1.697 13557
1.401 1.647 1.695 11178
1.421 1.670 1.707 6387
1.436 1.689 1.714 6452
1.444 1.697 1.712 13226
1.446 1.701 1.705 17418
1.445 1.699 1.694 17592
1.452 1.707 1.692 14470
1.460 1.716 1.690 14446
1.467 1.724 1.688 16999
1.470 1.728 1.681 16328
1.481 1.741 1.683 12422
1.514 1.780 1.707 14517
1.521 1.788 1.704 17425
1.524 1.792 1.698 19911
1.527 1.795 1.691 21803
1.530 1.799 1.684 18267
1.537 1.807 1.681 12966
1.544 1.816 1.678 9510
1.552 1.824 1.675 7170
1.554 1.827 1.668 7892
1.553 1.826 1.657 6353
1.595 1.875 1.688 6118
1.598 1.879 1.680 6578
1.601 1.882 1.673 5467
1.608 1.890 1.670 3938
1.620 1.904 1.671 3788
1.627 1.913 1.667 3954
1.643 1.932 1.672 3551
1.664 1.956 1.681 4639
1.667 1.959 1.673 6505
1.669 1.963 1.666 8371
1.668 1.961 1.654 8041
1.666 1.959 1.643 7657
1.669 1.962 1.635 7425
1.672 1.965 1.627 5995
1.746 2.053 1.682 5182
1.745 2.051 1.670 6103
1.747 2.054 1.662 8582
1.746 2.052 1.650 10002
1.753 2.061 1.646 9544
1.760 2.070 1.642 9370
1.763 2.073 1.634 8947
1.766 2.076 1.626 8525
1.769 2.079 1.618 7672
1.767 2.077 1.606 6899
1.774 2.086 1.602 5881
1.777 2.089 1.594 4943
1.848 2.173 1.641 4770
1.855 2.181 1.636 5177
1.936 2.276 1.689 4610
1.943 2.285 1.684 4981
1.942 2.283 1.671 4138
1.917 2.254 1.641 4461
1.929 2.268 1.639 5232
1.932 2.271 1.631 6229
1.935 2.274 1.622 6055
1.937 2.278 1.613 5902
1.936 2.276 1.601 3980
1.994 2.344 1.633 3399
2.048 2.407 1.661 3658
2.060 2.421 1.659 4941
2.063 2.425 1.649 5525
2.061 2.423 1.637 6178
2.064 2.426 1.627 6178
2.066 2.429 1.618 4529
2.135 2.509 1.655 4416
2.137 2.513 1.645 4315
2.140 2.516 1.635 4214
2.143 2.519 1.625 2701
2.254 2.650 1.689 3351
2.257 2.653 1.679 3351
2.260 2.656 1.669 1675
0.437 0.512 1.703 10847
0.442 0.518 1.708 8285
0.449 0.526 1.720 6068
0.452 0.530 1.718 4650
0.440 0.516 1.666 3820
0.443 0.519 1.664 3820
0.457 0.535 1.697 8034
0.460 0.538 1.695 13081
0.461 0.539 1.686 17284
0.463 0.543 1.684 21682
0.466 0.546 1.682 21608
0.467 0.547 1.672 21641
0.472 0.553 1.677 22710
0.475 0.556 1.675 24293
0.480 0.562 1.680 24751
0.483 0.566 1.678 29786
0.486 0.569 1.676 34914
0.489 0.573 1.673 32586
0.489 0.573 1.664 30296
0.492 0.577 1.662 24589
0.495 0.580 1.659 18882
0.498 0.583 1.657 17686
0.503 0.589 1.662 16572
0.506 0.593 1.660 16297
0.507 0.593 1.650 16025
0.512 0.599 1.655 14006
0.515 0.603 1.652 11689
0.520 0.609 1.657 9790
0.525 0.615 1.662 8896
0.528 0.619 1.659 8450
0.531 0.622 1.657 8190
0.539 0.631 1.668 8959
0.552 0.646 1.693 10223
0.557 0.653 1.697 11925
0.560 0.656 1.695 10883
0.553 0.648 1.665 10108
0.559 0.654 1.669 14954
0.564 0.660 1.673 19505
0.567 0.664 1.671 17630
0.570 0.667 1.668 14378
0.560 0.655 1.632 14948
0.562 0.658 1.629 13180
0.594 0.696 1.701 11946
0.565 0.662 1.617 11858
0.568 0.665 1.614 10869
0.563 0.659 1.592 12081
0.563 0.659 1.582 14488
0.565 0.662 1.580 14971
0.571 0.669 1.584 14997
0.626 0.733 1.708 14037
0.574 0.672 1.572 12721
0.576 0.675 1.569 14468
0.576 0.675 1.560 15814
0.649 0.760 1.723 15353
0.652 0.763 1.720 16574
0.655 0.767 1.717 17076
0.661 0.773 1.721 21328
0.666 0.780 1.724 26555
0.669 0.784 1.721 28188
0.675 0.791 1.725 27631
0.681 0.798 1.728 28722
0.681 0.798 1.719 26503
0.684 0.801 1.715 20562
0.690 0.808 1.719 15076
0.699 0.818 1.729 10087
0.711 0.832 1.745 8822
0.717 0.839 1.748 8071
0.717 0.839 1.738 7037
0.714 0.836 1.722 8996
0.717 0.839 1.719 11136
0.720 0.843 1.716 11786
0.729 0.853 1.725 15728
0.735 0.860 1.728 17330
0.744 0.871 1.738 13094
0.747 0.875 1.734 8852
0.747 0.874 1.724 6553
0.747 0.874 1.715 5552
0.744 0.871 1.698 5053
0.746 0.874 1.695 5135
0.752 0.881 1.698 7045
0.765 0.896 1.713 11682
0.771 0.903 1.716 16560
0.774 0.906 1.713 14263
0.777 0.910 1.709 10479
0.783 0.917 1.712 9825
0.789 0.924 1.714 7897
0.795 0.931 1.717 8158
0.801 0.938 1.719 10104
0.801 0.938 1.710 11982
0.801 0.938 1.700 14442
0.804 0.941 1.696 16747
0.807 0.945 1.692 19835
0.810 0.948 1.689 23213
0.816 0.955 1.691 28166
0.822 0.963 1.693 28743
0.835 0.978 1.708 21289
0.848 0.993 1.722 19919
0.857 1.004 1.730 25189
0.860 1.008 1.726 24789
0.863 1.011 1.723 18122
0.866 1.015 1.719 14166
0.869 1.018 1.715 20053
0.876 1.026 1.717 31371
0.879 1.029 1.713 24429
0.882 1.032 1.709 21226
0.888 1.040 1.710 37956
0.894 1.047 1.712 46384
0.897 1.051 1.708 43536
0.897 1.050 1.698 38151
0.900 1.054 1.694 35540
0.903 1.057 1.690 26482
0.906 1.061 1.686 24020
0.912 1.068 1.688 25054
0.919 1.076 1.689 21091
0.925 1.083 1.691 20703
0.931 1.091 1.692 20758
0.938 1.098 1.694 20677
0.941 1.102 1.689 28035
0.944 1.105 1.685 32929
0.950 1.113 1.687 28682
0.953 1.116 1.682 24336
0.960 1.124 1.684 15933
0.959 1.123 1.673 12023
0.965 1.130 1.675 11836
0.972 1.138 1.676 12348
0.968 1.133 1.660 16276
0.974 1.141 1.661 15805
0.984 1.153 1.668 24712
0.983 1.152 1.658 24747
0.990 1.159 1.659 15408
0.997 1.167 1.660 26925
0.999 1.170 1.656 27818
1.010 1.182 1.662 21398
1.009 1.181 1.652 17963
1.019 1.193 1.658 15059
1.026 1.201 1.659 16988
1.029 1.204 1.654 13438
1.035 1.212 1.655 10652
1.080 1.264 1.709 10834
1.082 1.268 1.705 17101
1.085 1.271 1.700 14609
1.081 1.266 1.684 9160
1.095 1.282 1.695 10673
1.098 1.286 1.690 15810
1.101 1.289 1.685 16215
1.108 1.297 1.685 12171
1.107 1.296 1.675 6274
1.133 1.327 1.701 8943
1.140 1.334 1.701 13761
1.150 1.347 1.707 9493
1.165 1.364 1.717 5940
1.164 1.363 1.706 13060
1.167 1.366 1.701 22398
1.170 1.370 1.696 16078
1.165 1.364 1.680 9702
1.180 1.381 1.690 12765
1.187 1.389 1.690 19643
1.193 1.397 1.689 21094
1.200 1.406 1.689 14845
1.207 1.414 1.689 9427
1.218 1.426 1.693 11779
1.221 1.430 1.688 15151
1.220 1.429 1.677 12358
1.255 1.470 1.711 12079
1.258 1.473 1.705 17779
1.265 1.481 1.705 18299
1.276 1.494 1.709 14601
1.279 1.498 1.703 15350
1.286 1.506 1.702 15250
1.293 1.514 1.701 11486
1.304 1.527 1.705 7941
1.315 1.540 1.708 9252
1.322 1.548 1.707 8904
1.329 1.556 1.706 11625
1.332 1.560 1.700 15062
1.339 1.568 1.698 11190
1.355 1.586 1.706 9202
1.353 1.585 1.696 8295
1.373 1.608 1.708 9861
1.380 1.616 1.706 17079
1.387 1.624 1.705 16865
1.390 1.628 1.698 13757
1.397 1.636 1.697 13366
1.409 1.649 1.700 11313
1.420 1.663 1.702 7078
1.435 1.681 1.709 7394
1.443 1.689 1.707 14214
1.450 1.698 1.705 18363
1.449 1.696 1.694 18313
1.456 1.705 1.692 14364
1.463 1.713 1.690 13391
1.470 1.721 1.688 15625
1.473 1.725 1.681 15001
1.484 1.738 1.683 11415
1.517 1.777 1.707 15083
1.525 1.785 1.704 18392
1.528 1.789 1.698 20838
1.530 1.792 1.691 22694
1.533 1.796 1.684 18903
1.541 1.804 1.681 13364
1.548 1.812 1.678 10037
1.555 1.821 1.675 7882
1.554 1.819 1.664 8736
1.556 1.823 1.657 7173
1.603 1.877 1.692 5964
1.606 1.881 1.684 6429
1.609 1.884 1.677 5473
1.616 1.892 1.674 4741
1.623 1.901 1.671 5192
1.626 1.904 1.663 5172
1.638 1.918 1.664 3879
1.667 1.953 1.681 4218
1.670 1.956 1.673 5871
1.673 1.959 1.666 7524
1.672 1.957 1.654 7151
1.670 1.956 1.643 6773
1.673 1.959 1.635 6711
1.676 1.962 1.627 5398
1.750 2.049 1.682 4545
1.749 2.047 1.670 5290
1.747 2.046 1.658 7539
1.750 2.049 1.650 8773
1.757 2.058 1.646 8229
1.764 2.066 1.642 7903
1.767 2.069 1.634 7470
1.770 2.073 1.626 7037
1.773 2.076 1.618 6304
1.771 2.074 1.606 5589
1.778 2.082 1.602 4745
1.850 2.166 1.649 4184
1.857 2.174 1.644 4337
1.860 2.178 1.636 4593
1.940 2.272 1.689 4745
1.948 2.281 1.684 5128
1.946 2.279 1.671 4195
1.921 2.250 1.641 3987
1.933 2.264 1.639 4817
1.936 2.267 1.631 5830
1.939 2.271 1.622 5687
1.942 2.274 1.613 5565
1.986 2.326 1.635 3874
1.998 2.340 1.633 3423
2.052 2.403 1.661 3828
2.069 2.423 1.662 5043
2.067 2.421 1.649 5628
2.065 2.419 1.637 6308
2.068 2.422 1.627 6308
2.071 2.425 1.618 4668
2.139 2.505 1.655 4351
2.142 2.509 1.645 4227
2.145 2.512 1.635 4104
2.148 2.515 1.625 2617
2.254 2.640 1.686 3217
2.257 2.643 1.676 3217
2.260 2.646 1.665 1608
0.440 0.513 1.710 10140
0.446 0.519 1.715 7753
0.453 0.528 1.727 5909
0.458 0.534 1.733 4986
0.467 0.545 1.752 4210
0.468 0.546 1.743 4222
0.460 0.536 1.705 8372
0.461 0.537 1.695 13611
0.462 0.538 1.686 17874
0.465 0.542 1.684 22457
0.468 0.545 1.682 22553
0.471 0.548 1.680 22650
0.474 0.552 1.677 23518
0.476 0.555 1.675 24590
0.479 0.559 1.673 24708
0.485 0.565 1.678 29282
0.487 0.568 1.676 34025
0.490 0.571 1.673 31711
0.491 0.572 1.664 29422
0.494 0.575 1.662 24105
0.497 0.579 1.659 18788
0.500 0.582 1.657 17827
0.502 0.585 1.655 16867
0.505 0.589 1.653 16372
0.511 0.595 1.657 15881
0.511 0.595 1.648 13546
0.516 0.602 1.652 10897
0.522 0.608 1.657 8839
0.529 0.617 1.669 7615
0.530 0.617 1.659 7272
0.535 0.624 1.664 7224
0.541 0.630 1.668 8097
0.556 0.648 1.700 10582
0.559 0.651 1.697 12488
0.562 0.655 1.695 10972
0.555 0.646 1.665 9966
0.558 0.650 1.662 14806
0.566 0.659 1.673 18695
0.569 0.662 1.671 16784
0.571 0.666 1.668 13429
0.558 0.651 1.625 14160
0.561 0.654 1.622 12723
0.596 0.695 1.701 11002
0.567 0.661 1.617 9878
0.570 0.664 1.614 9437
0.564 0.658 1.592 11584
0.564 0.658 1.582 13907
0.567 0.661 1.580 14150
0.573 0.667 1.584 13815
0.628 0.731 1.708 13292
0.636 0.741 1.719 12269
0.578 0.673 1.569 13149
0.648 0.755 1.726 14999
0.651 0.758 1.723 17315
0.654 0.762 1.720 17735
0.657 0.765 1.717 17028
0.662 0.772 1.721 20498
0.668 0.779 1.724 25780
0.671 0.782 1.721 28424
0.680 0.792 1.731 30102
0.683 0.796 1.728 31187
0.686 0.799 1.725 26839
0.689 0.803 1.722 19064
0.695 0.810 1.725 13386
0.713 0.830 1.755 10810
0.716 0.834 1.751 9713
0.719 0.837 1.748 8230
0.719 0.838 1.738 6980
0.716 0.834 1.722 8458
0.719 0.838 1.719 10526
0.722 0.841 1.716 12284
0.731 0.852 1.725 17058
0.737 0.859 1.728 18214
0.746 0.869 1.738 14209
0.749 0.873 1.734 10225
0.752 0.876 1.731 6824
0.767 0.894 1.753 4276
0.736 0.858 1.680 3313
0.742 0.865 1.682 3813
0.755 0.879 1.698 5351
0.767 0.894 1.713 9753
0.773 0.901 1.716 14734
0.776 0.904 1.713 12495
0.782 0.911 1.715 9510
0.788 0.919 1.718 9026
0.795 0.926 1.721 8551
0.798 0.929 1.717 10939
0.804 0.937 1.719 13736
0.804 0.936 1.710 14944
0.803 0.936 1.700 15398
0.806 0.939 1.696 17448
0.809 0.943 1.692 21736
0.815 0.950 1.695 25120
0.818 0.953 1.691 28303
0.824 0.961 1.693 27389
0.841 0.980 1.714 22151
0.850 0.991 1.722 22521
0.860 1.002 1.730 28645
0.863 1.006 1.726 26204
0.866 1.009 1.723 17134
0.869 1.012 1.719 14102
0.875 1.020 1.721 20639
0.878 1.023 1.717 28996
0.881 1.027 1.713 21875
0.888 1.034 1.714 21130
0.891 1.038 1.710 36948
0.897 1.045 1.712 43991
0.900 1.049 1.708 40567
0.900 1.048 1.698 34793
0.902 1.052 1.694 30775
0.909 1.059 1.696 21696
0.912 1.062 1.692 19763
0.918 1.070 1.693 21414
0.925 1.077 1.695 17029
0.931 1.085 1.697 19017
0.934 1.088 1.692 21646
0.941 1.096 1.694 22273
0.944 1.099 1.689 33212
0.946 1.103 1.685 39889
0.953 1.110 1.687 35082
0.956 1.114 1.682 29043
0.962 1.121 1.684 17860
0.965 1.125 1.679 12384
0.975 1.137 1.686 15180
0.975 1.136 1.676 16242
0.970 1.131 1.660 14568
0.977 1.138 1.661 9614
0.987 1.150 1.668 19120
0.990 1.153 1.664 25260
0.997 1.161 1.665 20639
0.999 1.164 1.660 25158
1.002 1.168 1.656 23678
1.005 1.171 1.651 23550
1.012 1.179 1.652 22816
1.018 1.187 1.653 16157
1.029 1.199 1.659 15622
1.032 1.202 1.654 11609
1.038 1.210 1.655 8972
1.083 1.261 1.709 13520
1.089 1.269 1.710 18300
1.092 1.273 1.705 13310
1.095 1.276 1.700 6902
1.106 1.289 1.706 8510
1.105 1.288 1.695 11632
1.108 1.291 1.690 12451
1.111 1.294 1.685 10133
1.125 1.311 1.696 5194
1.144 1.333 1.712 10213
1.147 1.336 1.707 16256
1.158 1.349 1.712 13825
1.168 1.361 1.717 10290
1.175 1.369 1.717 16003
1.174 1.368 1.706 21924
1.177 1.372 1.701 13446
1.184 1.380 1.701 7592
1.187 1.383 1.695 11309
1.190 1.387 1.690 17336
1.201 1.399 1.695 18602
1.208 1.407 1.694 13259
1.215 1.415 1.694 7971
1.226 1.428 1.698 10281
1.225 1.427 1.688 13705
1.199 1.397 1.647 12356
1.263 1.471 1.716 12658
1.266 1.475 1.710 18042
1.269 1.478 1.705 18700
1.276 1.486 1.704 13461
1.283 1.494 1.703 12185
1.290 1.503 1.702 12195
1.301 1.516 1.706 10022
1.312 1.529 1.709 8535
1.323 1.542 1.713 10268
1.326 1.545 1.707 9471
1.333 1.553 1.706 11799
1.336 1.557 1.700 15008
1.343 1.565 1.698 10756
1.358 1.583 1.706 7955
1.357 1.581 1.696 6532
1.381 1.609 1.713 9802
1.388 1.617 1.711 17165
1.391 1.621 1.705 17254
1.394 1.624 1.698 14213
1.410 1.642 1.706 13771
1.417 1.651 1.704 12494
1.424 1.659 1.702 8090
1.440 1.677 1.709 7944
1.451 1.691 1.712 15013
1.454 1.694 1.705 19162
1.457 1.698 1.699 18973
1.460 1.701 1.692 14397
1.471 1.714 1.694 12093
1.474 1.718 1.688 13213
1.481 1.726 1.685 12720
1.519 1.770 1.714 11619
1.526 1.778 1.711 17611
1.529 1.782 1.704 20202
1.536 1.790 1.702 22118
1.535 1.788 1.691 23430
1.538 1.792 1.684 19055
1.545 1.800 1.681 13388
1.552 1.809 1.678 10099
1.560 1.817 1.675 7734
1.562 1.821 1.668 8450
1.561 1.819 1.657 6719
1.608 1.873 1.692 6725
1.615 1.882 1.689 7180
1.618 1.885 1.681 6300
1.625 1.894 1.678 5692
1.628 1.897 1.671 6028
1.635 1.906 1.667 5866
1.643 1.914 1.664 4280
1.672 1.948 1.681 4728
1.675 1.952 1.673 6188
1.678 1.955 1.666 7649
1.676 1.953 1.654 7007
1.675 1.951 1.643 6225
1.678 1.955 1.635 6043
1.680 1.958 1.627 4946
1.760 2.050 1.686 5000
1.758 2.048 1.674 5511
1.756 2.047 1.662 7334
1.755 2.045 1.650 8398
1.762 2.053 1.646 7745
1.770 2.062 1.642 7253
1.772 2.065 1.634 6709
1.775 2.068 1.626 6165
1.778 2.072 1.618 5394
1.781 2.075 1.610 4624
1.788 2.083 1.606 3693
1.850 2.156 1.645 3945
1.862 2.170 1.644 3996
1.943 2.264 1.698 4763
1.951 2.273 1.692 5120
1.953 2.276 1.684 5493
1.952 2.274 1.671 4365
1.932 2.251 1.645 3631
1.939 2.259 1.639 4410
1.942 2.263 1.631 5340
1.945 2.266 1.622 5111
1.947 2.269 1.613 4881
1.997 2.326 1.639 3607
2.041 2.379 1.660 3507
2.058 2.398 1.661 3866
2.075 2.418 1.662 4941
2.073 2.416 1.649 5410
2.071 2.414 1.637 5950
2.074 2.417 1.627 5950
2.077 2.420 1.618 4359
2.146 2.500 1.655 4326
2.153 2.509 1.648 4195
2.161 2.518 1.642 4108
2.262 2.636 1.699 2757
2.265 2.640 1.689 3772
2.268 2.643 1.679 3772
2.271 2.646 1.669 1886
0.441 0.513 1.710 9692
0.448 0.521 1.722 7503
0.456 0.529 1.735 5919
0.459 0.533 1.733 5090
0.468 0.544 1.752 4354
0.469 0.545 1.743 4371
0.461 0.536 1.705 8458
0.462 0.537 1.695 13667
0.463 0.537 1.686 17941
0.466 0.541 1.684 22534
0.468 0.544 1.682 22670
0.471 0.548 1.680 22806
0.474 0.551 1.677 23567
0.477 0.554 1.675 24468
0.480 0.558 1.673 24551
0.483 0.561 1.671 29002
0.488 0.567 1.676 33566
0.491 0.571 1.673 31302
0.492 0.571 1.664 29085
0.495 0.575 1.662 23864
0.497 0.578 1.659 18642
0.500 0.581 1.657 17667
0.503 0.585 1.655 16691
0.506 0.588 1.653 16121
0.509 0.591 1.650 15550
0.512 0.595 1.648 13163
0.517 0.601 1.652 10455
0.522 0.607 1.657 8469
0.530 0.616 1.669 7262
0.531 0.617 1.659 7062
0.539 0.626 1.671 7153
0.544 0.632 1.675 7983
0.557 0.647 1.700 10677
0.560 0.651 1.697 12662
0.563 0.654 1.695 10941
0.553 0.643 1.658 9774
0.559 0.649 1.662 14492
0.567 0.658 1.673 18086
0.570 0.662 1.671 16268
0.559 0.650 1.634 13183
0.559 0.650 1.625 13922
0.562 0.653 1.622 12587
0.597 0.694 1.701 10861
0.568 0.660 1.617 9285
0.568 0.660 1.608 8984
0.565 0.657 1.592 11280
0.565 0.657 1.582 13566
0.568 0.660 1.580 13717
0.574 0.666 1.584 13259
0.629 0.730 1.708 13057
0.637 0.740 1.719 12060
0.579 0.673 1.569 12659
0.649 0.754 1.726 15481
0.652 0.757 1.723 17904
0.655 0.761 1.720 18164
0.658 0.764 1.717 16979
0.664 0.771 1.721 19985
0.669 0.778 1.724 25157
0.672 0.781 1.721 28268
0.681 0.791 1.731 30831
0.687 0.798 1.735 31887
0.687 0.798 1.725 27002
0.690 0.802 1.722 18798
0.699 0.812 1.732 13109
0.714 0.829 1.755 11532
0.717 0.833 1.751 10206
0.723 0.840 1.755 8429
0.720 0.837 1.738 6901
0.714 0.830 1.716 7961
0.717 0.833 1.712 9927
0.723 0.840 1.716 12177
0.732 0.851 1.725 17316
0.738 0.858 1.728 18282
0.747 0.868 1.738 14608
0.750 0.872 1.734 10937
0.753 0.875 1.731 7508
0.762 0.886 1.740 4426
0.741 0.860 1.686 3482
0.744 0.864 1.682 3816
0.756 0.878 1.698 5047
0.768 0.893 1.713 9312
0.774 0.900 1.716 14301
0.777 0.903 1.713 12048
0.784 0.910 1.715 9343
0.790 0.917 1.718 9090
0.796 0.925 1.721 9167
0.799 0.928 1.717 12075
0.805 0.935 1.719 14770
0.805 0.935 1.710 15707
0.805 0.935 1.700 15643
0.808 0.938 1.696 17616
0.810 0.942 1.692 22236
0.817 0.949 1.695 25663
0.820 0.952 1.691 28363
0.826 0.959 1.693 26907
0.842 0.978 1.714 22132
0.852 0.990 1.722 22973
0.861 1.001 1.730 29150
0.864 1.004 1.726 26210
0.867 1.008 1.723 16949
0.874 1.015 1.725 14602
0.877 1.019 1.721 20830
0.880 1.022 1.717 27968
0.883 1.026 1.713 20940
0.889 1.033 1.714 20568
0.892 1.036 1.710 35508
0.899 1.044 1.712 42100
0.902 1.047 1.708 38910
0.901 1.047 1.698 33269
0.904 1.050 1.694 29030
0.910 1.058 1.696 20237
0.917 1.065 1.698 18462
0.920 1.069 1.693 20271
0.930 1.080 1.701 16445
0.933 1.084 1.697 19184
0.939 1.091 1.698 22144
0.942 1.095 1.694 22701
0.945 1.098 1.689 34540
0.948 1.101 1.685 42276
0.955 1.109 1.687 37428
0.957 1.112 1.682 30902
0.964 1.120 1.684 19093
0.967 1.123 1.679 13339
0.977 1.135 1.686 17370
0.976 1.134 1.676 18622
0.972 1.129 1.660 15545
0.979 1.137 1.661 10169
0.989 1.149 1.668 18163
0.992 1.152 1.664 23933
1.002 1.164 1.670 22201
1.005 1.167 1.666 25885
1.000 1.162 1.650 23597
1.007 1.170 1.651 23802
1.013 1.177 1.652 23224
1.020 1.185 1.653 16465
1.030 1.197 1.659 15523
1.033 1.200 1.654 11643
1.040 1.208 1.655 8839
1.084 1.260 1.709 13555
1.091 1.268 1.710 17884
1.094 1.271 1.705 12167
1.101 1.279 1.705 6606
1.108 1.287 1.706 8379
1.107 1.286 1.695 10033
1.110 1.289 1.690 10707
1.113 1.293 1.685 9423
1.123 1.305 1.691 5145
1.146 1.331 1.712 10626
1.149 1.335 1.707 17107
1.159 1.347 1.712 14998
1.174 1.364 1.722 12270
1.177 1.368 1.717 17863
1.176 1.366 1.706 21830
1.179 1.370 1.701 12876
1.186 1.378 1.701 7240
1.189 1.381 1.695 10801
1.192 1.385 1.690 16609
1.203 1.397 1.695 17824
1.210 1.405 1.694 13248
1.217 1.414 1.694 8095
1.228 1.426 1.698 9591
1.223 1.420 1.683 13146
1.201 1.396 1.647 12354
1.265 1.469 1.716 12619
1.268 1.473 1.710 17934
1.271 1.476 1.705 18529
1.278 1.484 1.704 12847
1.285 1.493 1.703 10806
1.292 1.501 1.702 10706
1.303 1.514 1.706 9156
1.318 1.531 1.714 8727
1.325 1.540 1.713 9994
1.332 1.548 1.712 8998
1.335 1.551 1.706 11435
1.338 1.555 1.700 14262
1.349 1.568 1.703 10010
1.361 1.581 1.706 7886
1.360 1.579 1.696 7160
1.383 1.607 1.713 10027
1.390 1.615 1.711 17576
1.393 1.619 1.705 17751
1.396 1.622 1.698 14841
1.412 1.640 1.706 14377
1.419 1.649 1.704 13109
1.426 1.657 1.702 8578
1.442 1.675 1.709 8507
1.453 1.689 1.712 15425
1.456 1.692 1.705 19436
1.459 1.695 1.699 19191
1.467 1.704 1.697 14511
1.474 1.712 1.694 11721
1.477 1.716 1.688 12372
1.484 1.724 1.685 11981
1.526 1.772 1.718 12175
1.529 1.776 1.711 18505
1.532 1.779 1.704 20917
1.539 1.788 1.702 22668
1.537 1.786 1.691 23708
1.540 1.790 1.684 19117
1.548 1.798 1.681 13413
1.555 1.806 1.678 10199
1.562 1.815 1.675 7840
1.565 1.818 1.668 8542
1.564 1.817 1.657 6834
1.610 1.871 1.692 6784
1.618 1.879 1.689 7281
1.621 1.883 1.681 6567
1.628 1.891 1.678 6257
1.631 1.895 1.671 6634
1.634 1.898 1.663 6364
1.645 1.912 1.664 4528
1.675 1.946 1.681 4711
1.678 1.949 1.673 6053
1.681 1.953 1.666 7396
1.684 1.956 1.658 6686
1.682 1.954 1.646 5826
1.680 1.952 1.635 5624
1.683 1.956 1.627 4607
1.763 2.048 1.686 4892
1.761 2.046 1.674 5256
1.755 2.039 1.658 6883
1.758 2.042 1.650 7860
1.765 2.051 1.646 7182
1.773 2.059 1.642 6620
1.775 2.063 1.634 6067
1.778 2.066 1.626 5513
1.781 2.069 1.618 4812
1.811 2.104 1.632 4146
1.837 2.134 1.643 3510
1.853 2.153 1.645 3792
1.865 2.167 1.644 3686
1.946 2.261 1.698 4874
1.954 2.270 1.692 5243
1.957 2.273 1.684 5623
1.955 2.271 1.671 4414
1.935 2.248 1.645 3396
1.942 2.257 1.639 4138
1.945 2.260 1.631 5009
1.948 2.263 1.622 4804
1.951 2.266 1.613 4588
2.005 2.329 1.642 3659
2.045 2.376 1.660 3672
2.062 2.395 1.661 3906
2.079 2.415 1.662 4908
2.077 2.413 1.649 5343
2.075 2.411 1.637 5870
2.078 2.414 1.627 5870
2.081 2.417 1.618 4327
2.149 2.497 1.655 4289
2.157 2.506 1.648 4150
2.164 2.514 1.642 4054
2.266 2.633 1.699 2952
2.269 2.636 1.689 3999
2.272 2.640 1.679 3999
2.275 2.643 1.669 1999
0.443 0.511 1.710 10118
0.450 0.520 1.722 8108
0.457 0.528 1.735 6853
0.460 0.531 1.733 5651
0.463 0.535 1.730 4294
0.466 0.538 1.728 4139
0.463 0.534 1.705 7946
0.464 0.535 1.695 12809
0.464 0.536 1.686 17170
0.467 0.539 1.684 21764
0.470 0.543 1.682 21425
0.473 0.546 1.680 21086
0.476 0.550 1.677 21775
0.479 0.553 1.675 22629
0.482 0.556 1.673 22718
0.487 0.562 1.678 27661
0.490 0.566 1.676 32718
0.493 0.569 1.673 30626
0.496 0.572 1.671 28535
0.496 0.573 1.662 22492
0.499 0.576 1.659 16668
0.502 0.580 1.657 14865
0.505 0.583 1.655 13062
0.508 0.586 1.653 13132
0.511 0.590 1.650 13202
0.514 0.593 1.648 11504
0.519 0.599 1.652 9595
0.524 0.605 1.657 7935
0.532 0.614 1.669 7326
0.533 0.615 1.659 7293
0.538 0.621 1.664 7252
0.543 0.627 1.668 8026
0.559 0.645 1.700 10279
0.562 0.649 1.697 12203
0.565 0.652 1.695 10241
0.555 0.641 1.658 8360
0.561 0.647 1.662 13032
0.569 0.656 1.673 16870
0.572 0.660 1.671 15621
0.577 0.666 1.675 13104
0.561 0.648 1.625 14144
0.562 0.648 1.615 13142
0.599 0.692 1.701 11890
0.567 0.655 1.610 9931
0.573 0.661 1.614 9516
0.570 0.658 1.598 10584
0.567 0.655 1.582 12120
0.625 0.722 1.714 14016
0.628 0.725 1.711 13367
0.631 0.728 1.708 13126
0.637 0.735 1.712 11070
0.581 0.671 1.569 12857
0.651 0.752 1.726 15665
0.654 0.755 1.723 18702
0.657 0.759 1.720 19146
0.660 0.762 1.717 17194
0.666 0.769 1.721 19210
0.672 0.776 1.724 24184
0.675 0.779 1.721 29230
0.684 0.789 1.731 34356
0.690 0.796 1.735 35429
0.690 0.796 1.725 29760
0.693 0.800 1.722 19850
0.699 0.807 1.725 12632
0.716 0.827 1.755 10926
0.720 0.831 1.751 9678
0.723 0.834 1.748 8613
0.723 0.834 1.738 6945
0.717 0.827 1.716 6125
0.720 0.831 1.712 7594
0.726 0.838 1.716 10443
0.735 0.848 1.725 16092
0.741 0.855 1.728 17035
0.750 0.866 1.738 15729
0.750 0.866 1.728 14829
0.753 0.869 1.724 11488
0.750 0.866 1.708 7405
0.750 0.865 1.698 5868
0.753 0.869 1.695 5384
0.762 0.879 1.704 6314
0.771 0.890 1.713 10758
0.777 0.897 1.716 16433
0.780 0.901 1.713 13861
0.786 0.908 1.715 10018
0.796 0.919 1.724 9573
