2.469 3.400 1.730 2151
2.541 3.499 1.763 3433
2.624 3.613 1.816 2083
2.605 3.587 1.789 4279
2.522 3.473 1.736 2070
2.612 3.597 1.779 6051
2.703 3.723 1.838 2506
2.619 3.607 1.769 4791
2.702 3.721 1.822 2009
2.622 3.611 1.756 3253
2.740 3.773 1.830 2062
2.743 3.777 1.817 3706
2.616 3.602 1.738 3625
2.746 3.781 1.803 4466
2.623 3.612 1.728 2862
2.740 3.773 1.784 3735
2.823 3.887 1.835 2030
2.742 3.777 1.771 3839
2.826 3.891 1.821 1818
2.741 3.774 1.755 2921
2.824 3.889 1.804 1510
2.801 3.857 1.775 2927
2.919 4.020 1.845 2459
2.922 4.024 1.831 3967
2.817 3.879 1.769 3852
2.925 4.028 1.816 4102
2.842 3.913 1.768 3580
2.933 4.038 1.805 4826
2.844 3.917 1.754 3464
2.966 4.085 1.808 6196
2.843 3.915 1.737 1876
2.969 4.089 1.793 6063
3.053 4.204 1.840 1355
2.972 4.093 1.778 4051
3.056 4.208 1.825 2142
3.054 4.206 1.808 3430
2.970 4.090 1.761 2242
3.057 4.210 1.793 3030
3.141 4.326 1.839 1947
3.078 4.238 1.787 3067
3.162 4.354 1.833 1740
3.081 4.242 1.772 3514
3.165 4.358 1.817 2853
3.163 4.356 1.799 4042
3.079 4.240 1.755 2720
3.175 4.372 1.788 3832
3.259 4.489 1.833 2213
3.187 4.388 1.777 3179
3.302 4.548 1.838 1971
3.265 4.497 1.801 2594
3.181 4.380 1.757 2275
3.268 4.500 1.785 3984
3.402 4.685 1.853 2622
3.405 4.689 1.836 3846
3.271 4.504 1.768 3265
3.408 4.693 1.819 2985
3.323 4.576 1.777 2311
3.352 4.617 1.774 3407
3.473 4.783 1.833 1989
3.463 4.768 1.809 2083
3.360 4.627 1.759 1567
3.452 4.754 1.786 2132
3.640 5.013 1.876 969
3.513 4.838 1.797 1894
3.665 5.048 1.869 1371
3.673 5.058 1.853 2700
3.520 4.848 1.781 1823
3.667 5.049 1.831 2962
3.752 5.167 1.870 1589
3.674 5.060 1.815 2468
3.759 5.177 1.854 1656
3.681 5.070 1.799 2325
3.767 5.187 1.838 1451
3.756 5.173 1.813 2262
3.671 5.055 1.775 1905
3.818 5.257 1.820 1688
3.687 5.077 1.762 1267
3.884 5.348 1.829 1316
3.798 5.230 1.792 1041
3.959 5.451 1.841 1493
4.044 5.569 1.878 1417
4.038 5.561 1.855 1578
4.196 5.778 1.922 1035
4.037 5.559 1.833 1391
4.199 5.783 1.902 1282
4.193 5.774 1.877 1405
4.044 5.569 1.815 1252
4.201 5.785 1.858 1515
4.332 5.965 1.912 1006
4.208 5.795 1.839 1479
4.335 5.969 1.891 1336
4.211 5.799 1.819 1274
4.347 5.986 1.873 1092
4.214 5.803 1.798 919
4.368 6.015 1.859 912
4.343 5.981 1.827 938
4.498 6.194 1.887 902
4.496 6.192 1.863 873
4.582 6.310 1.896 754
4.594 6.327 1.877 791
4.490 6.183 1.837 659
4.588 6.318 1.851 912
4.911 6.763 1.972 614
4.909 6.761 1.946 679
4.591 6.322 1.828 599
4.894 6.740 1.915 695
4.671 6.433 1.834 572
5.029 6.926 1.939 697
4.897 6.744 1.891 675
5.009 6.899 1.906 1144
3.252 4.478 1.282 435
5.012 6.903 1.881 1128
5.113 7.041 1.916 473
5.116 7.045 1.891 857
5.020 6.913 1.858 684
5.114 7.043 1.864 1038
5.028 6.923 1.835 544
5.113 7.041 1.837 763
5.026 6.921 1.808 464
5.102 7.026 1.807 383
5.522 7.604 1.946 322
5.132 7.067 1.791 254
5.139 7.077 1.767 314
5.147 7.088 1.743 275
3.243 4.466 1.064 496
3.244 4.468 1.048 729
4.258 5.864 1.335 437
3.246 4.470 1.032 919
4.260 5.867 1.314 706
3.247 4.472 1.016 1217
4.267 5.876 1.294 968
3.249 4.474 1.000 1587
4.269 5.879 1.273 883
3.250 4.476 0.984 1775
4.271 5.882 1.252 602
3.252 4.478 0.968 1702
4.268 5.878 1.230 596
3.253 4.480 0.952 1499
4.266 5.874 1.207 892
3.255 4.482 0.936 1293
4.272 5.883 1.188 898
3.256 4.484 0.920 1101
4.274 5.885 1.167 594
3.257 4.486 0.904 811
3.511 4.835 0.964 272
3.259 4.487 0.888 633
3.260 4.489 0.872 494
3.266 4.497 0.857 265
1.349 1.853 1.788 2242
1.352 1.857 1.781 4484
1.424 1.955 1.870 729
1.355 1.861 1.775 4484
1.427 1.959 1.863 1459
1.373 1.885 1.787 4743
1.445 1.984 1.875 1015
1.383 1.899 1.789 5835
1.455 1.998 1.877 910
1.390 1.909 1.787 6419
1.462 2.007 1.875 886
1.393 1.912 1.780 7106
1.465 2.012 1.867 1092
1.396 1.916 1.774 7106
1.468 2.016 1.860 1092
1.402 1.925 1.771 6985
1.475 2.025 1.858 1581
1.405 1.929 1.765 6932
1.478 2.029 1.851 2382
1.412 1.938 1.762 5085
1.484 2.038 1.848 2513
1.437 1.974 1.782 4619
1.510 2.074 1.868 925
1.448 1.988 1.784 5522
1.521 2.089 1.869 514
1.455 1.997 1.782 6734
1.528 2.098 1.866 400
1.457 2.001 1.775 6532
1.531 2.102 1.859 400
1.491 2.048 1.803 7434
1.418 1.947 1.719 683
1.494 2.052 1.796 9565
1.420 1.950 1.712 767
1.493 2.050 1.784 9659
1.419 1.949 1.701 516
1.496 2.054 1.777 9670
1.418 1.947 1.690 357
1.499 2.058 1.770 8126
1.573 2.160 1.852 440
1.505 2.067 1.767 6816
1.580 2.169 1.849 483
1.524 2.092 1.776 5913
1.449 1.990 1.695 417
1.534 2.107 1.778 7455
1.460 2.005 1.696 351
1.545 2.122 1.779 7001
1.620 2.224 1.859 699
1.560 2.142 1.784 8273
1.485 2.039 1.703 923
1.563 2.146 1.776 7280
1.638 2.248 1.856 1457
1.569 2.155 1.773 6395
1.644 2.258 1.853 1852
1.572 2.159 1.765 5930
1.647 2.262 1.845 1715
1.575 2.163 1.758 5466
1.650 2.266 1.837 1578
1.578 2.166 1.750 6060
1.653 2.270 1.829 1251
1.580 2.170 1.742 6653
1.656 2.274 1.820 925
1.583 2.174 1.735 5161
1.659 2.278 1.812 1695
1.630 2.238 1.772 5263
1.554 2.134 1.694 1145
1.633 2.242 1.764 6251
1.557 2.137 1.687 943
1.635 2.246 1.756 7239
1.712 2.350 1.833 804
1.642 2.255 1.752 5923
1.719 2.360 1.828 1197
1.649 2.264 1.748 3732
1.725 2.369 1.824 1301
1.700 2.334 1.788 3850
1.624 2.229 1.712 1653
1.695 2.327 1.771 3616
1.618 2.222 1.696 1048
1.698 2.331 1.763 3406
1.775 2.437 1.838 1187
1.705 2.340 1.759 4337
1.781 2.446 1.833 1053
1.711 2.350 1.754 5438
1.788 2.456 1.829 1014
1.730 2.376 1.762 6025
1.653 2.270 1.688 959
1.733 2.380 1.753 5050
1.810 2.486 1.826 518
1.736 2.384 1.745 3269
1.826 2.507 1.829 912
1.726 2.371 1.725 2897
1.833 2.516 1.824 2349
1.835 2.520 1.815 3377
1.729 2.374 1.716 2604
1.842 2.530 1.810 4384
1.765 2.423 1.738 1837
1.841 2.528 1.797 6230
1.763 2.421 1.726 1328
1.844 2.532 1.788 7268
1.766 2.425 1.717 1166
1.843 2.530 1.776 6036
1.765 2.423 1.705 1039
1.817 2.495 1.741 6639
1.895 2.602 1.811 2460
1.824 2.504 1.736 7489
1.902 2.612 1.805 2252
1.822 2.502 1.723 5304
1.909 2.621 1.800 3770
1.891 2.597 1.772 5502
1.812 2.489 1.703 2324
1.902 2.612 1.770 6854
1.811 2.487 1.691 1534
1.913 2.627 1.768 6379
1.826 2.507 1.693 1236
1.924 2.642 1.766 5121
1.845 2.534 1.698 965
1.936 2.658 1.764 5896
1.856 2.549 1.696 1325
1.947 2.673 1.761 5039
1.867 2.564 1.694 1395
1.970 2.705 1.769 2953
1.891 2.596 1.703 1980
1.982 2.721 1.767 3031
1.902 2.612 1.700 1652
1.988 2.730 1.760 5076
1.909 2.621 1.695 1603
1.987 2.728 1.747 6906
2.067 2.838 1.813 3063
1.994 2.738 1.741 8386
2.074 2.848 1.806 3281
1.997 2.742 1.731 10119
2.077 2.851 1.796 4976
1.999 2.745 1.722 8842
2.080 2.855 1.786 5944
2.006 2.755 1.715 6417
2.087 2.865 1.779 3998
2.018 2.770 1.712 4492
2.136 2.933 1.806 3058
2.029 2.786 1.709 4125
2.143 2.942 1.799 3127
2.044 2.807 1.709 3742
2.146 2.946 1.788 3059
2.161 2.968 1.787 3590
2.055 2.822 1.705 3053
2.232 3.065 1.829 4488
2.151 2.954 1.767 3618
2.239 3.075 1.821 4865
2.158 2.964 1.760 3797
2.242 3.079 1.810 4659
2.161 2.968 1.749 4109
2.262 3.106 1.812 4816
2.168 2.977 1.742 4166
2.278 3.128 1.811 6356
2.167 2.975 1.728 2744
2.285 3.137 1.803 6311
2.131 2.926 1.689 1177
2.288 3.141 1.792 7578
2.206 3.030 1.732 1182
2.291 3.145 1.780 8063
2.209 3.033 1.721 962
2.306 3.167 1.778 7107
2.225 3.055 1.720 908
2.313 3.176 1.770 7073
2.395 3.288 1.829 1347
2.320 3.186 1.762 4863
2.402 3.298 1.820 2112
2.340 3.214 1.763 4679
2.422 3.326 1.820 3232
2.343 3.217 1.751 5879
2.425 3.330 1.808 4159
2.359 3.239 1.749 6942
2.441 3.352 1.805 3099
2.366 3.249 1.740 7408
2.478 3.403 1.817 2820
2.373 3.258 1.731 4484
2.486 3.413 1.808 3819
2.506 3.441 1.807 5320
2.423 3.328 1.752 2927
2.513 3.450 1.798 6451
2.431 3.337 1.743 3017
2.524 3.466 1.792 5031
2.442 3.353 1.737 3296
2.545 3.494 1.791 4976
2.462 3.381 1.736 2882
2.552 3.504 1.781 4670
2.635 3.617 1.835 2076
2.546 3.496 1.763 3572
2.629 3.609 1.816 2085
2.610 3.583 1.789 4362
2.505 3.440 1.722 2154
2.613 3.587 1.777 5881
2.713 3.725 1.840 2364
2.624 3.603 1.769 4505
2.707 3.717 1.822 1976
2.627 3.607 1.756 3399
2.745 3.769 1.830 1938
2.625 3.605 1.741 4217
2.748 3.773 1.817 3177
2.751 3.777 1.803 3714
2.632 3.615 1.731 3449
2.745 3.769 1.784 3464
2.833 3.890 1.838 2104
2.748 3.773 1.771 3996
2.831 3.888 1.821 1993
2.746 3.771 1.755 2983
2.830 3.885 1.804 1722
2.806 3.853 1.775 3412
2.925 4.016 1.845 2461
2.822 3.875 1.769 4227
2.928 4.020 1.831 3967
2.931 4.024 1.816 4135
2.834 3.891 1.760 3486
2.938 4.034 1.805 4988
2.850 3.913 1.754 3610
2.967 4.075 1.805 6069
2.844 3.905 1.735 2142
2.970 4.079 1.791 6076
3.054 4.194 1.838 1432
2.978 4.088 1.778 4386
3.062 4.204 1.825 2229
3.060 4.202 1.808 3292
2.976 4.086 1.761 2580
3.063 4.206 1.793 2870
3.147 4.322 1.839 1805
3.084 4.234 1.787 2908
3.168 4.350 1.833 1580
3.086 4.238 1.772 3421
3.171 4.354 1.817 2545
3.169 4.352 1.799 3690
3.085 4.236 1.755 2741
3.181 4.368 1.788 3360
3.266 4.484 1.833 2251
3.193 4.384 1.777 2844
3.309 4.543 1.838 1982
3.271 4.492 1.801 2823
3.187 4.376 1.757 2241
3.274 4.496 1.785 4203
3.404 4.674 1.850 2729
3.411 4.684 1.836 4020
3.277 4.500 1.768 3496
3.414 4.688 1.819 3126
3.329 4.571 1.777 2304
3.359 4.612 1.774 3624
3.480 4.778 1.833 2058
3.465 4.757 1.807 2376
3.366 4.622 1.759 1648
3.459 4.749 1.786 2471
3.544 4.866 1.827 1014
3.515 4.827 1.794 2080
3.677 5.049 1.871 1554
3.680 5.053 1.853 3030
3.527 4.843 1.781 2014
3.674 5.044 1.831 3192
3.759 5.162 1.870 1958
3.681 5.054 1.815 2733
3.767 5.172 1.854 2007
3.756 5.157 1.829 2561
3.670 5.040 1.791 2150
3.763 5.167 1.813 2752
3.678 5.050 1.775 2069
3.825 5.252 1.820 1850
3.694 5.072 1.762 1441
3.859 5.299 1.815 1590
3.968 5.448 1.863 1167
4.043 5.551 1.875 1688
3.957 5.433 1.837 1632
4.041 5.549 1.853 1788
4.200 5.766 1.920 1201
4.044 5.553 1.833 1605
4.207 5.777 1.902 1389
4.201 5.768 1.877 1556
4.052 5.563 1.815 1547
4.209 5.779 1.858 1732
4.340 5.959 1.912 1162
4.216 5.789 1.839 1681
4.347 5.969 1.893 1509
4.214 5.787 1.817 1486
4.355 5.980 1.873 1266
4.217 5.791 1.796 1106
4.376 6.009 1.859 1082
4.352 5.975 1.827 1126
4.506 6.187 1.887 1114
4.505 6.185 1.863 1057
4.591 6.304 1.896 911
4.603 6.320 1.877 991
4.499 6.177 1.837 750
4.597 6.312 1.851 1112
4.916 6.749 1.970 773
4.919 6.754 1.946 855
4.600 6.316 1.828 711
4.904 6.733 1.915 849
4.808 6.602 1.880 662
5.039 6.919 1.939 855
4.907 6.737 1.891 777
5.019 6.892 1.906 1364
3.258 4.473 1.282 445
5.022 6.896 1.881 1352
5.127 7.040 1.918 591
5.126 7.038 1.891 1125
5.030 6.906 1.858 843
5.124 7.036 1.864 1393
5.037 6.916 1.835 627
5.127 7.040 1.839 967
5.040 6.920 1.810 523
5.121 7.031 1.810 466
5.532 7.597 1.946 395
5.142 7.060 1.791 403
5.490 7.538 1.904 322
5.149 7.070 1.767 460
5.497 7.548 1.878 284
5.152 7.074 1.742 350
3.249 4.461 1.064 501
3.251 4.463 1.048 748
4.267 5.858 1.335 430
3.252 4.465 1.032 960
4.269 5.861 1.314 700
3.254 4.467 1.016 1261
4.275 5.870 1.294 952
3.255 4.470 1.000 1640
4.277 5.873 1.273 888
3.257 4.472 0.984 1858
4.284 5.882 1.253 626
3.258 4.474 0.968 1823
4.276 5.872 1.230 597
3.259 4.475 0.952 1610
4.274 5.868 1.207 896
3.261 4.477 0.936 1391
4.280 5.877 1.188 913
3.262 4.479 0.920 1214
4.282 5.879 1.167 619
3.263 4.481 0.904 902
4.279 5.875 1.144 270
3.269 4.489 0.889 711
3.271 4.491 0.873 571
3.272 4.493 0.857 309
1.353 1.850 1.788 2341
1.356 1.854 1.781 4682
1.427 1.952 1.870 830
1.359 1.858 1.775 4682
1.430 1.956 1.863 1661
1.376 1.883 1.787 4866
1.448 1.981 1.875 1025
1.387 1.897 1.789 5826
1.459 1.995 1.877 807
1.394 1.906 1.787 6500
1.466 2.005 1.875 942
1.396 1.910 1.780 7328
1.469 2.009 1.867 1317
1.399 1.914 1.774 7328
1.472 2.013 1.860 1317
1.406 1.923 1.771 7210
1.479 2.022 1.858 1815
1.409 1.927 1.765 7184
1.481 2.026 1.851 2679
1.415 1.936 1.762 5214
1.488 2.036 1.848 2723
1.441 1.971 1.782 4695
1.514 2.071 1.868 931
1.452 1.985 1.784 5386
1.525 2.086 1.869 481
1.458 1.995 1.782 6451
1.532 2.095 1.866 341
1.461 1.999 1.775 6229
1.535 2.099 1.859 341
1.495 2.045 1.803 7138
1.421 1.944 1.719 632
1.498 2.049 1.796 9048
1.424 1.948 1.712 721
1.497 2.047 1.784 9031
1.423 1.946 1.701 492
1.500 2.051 1.777 8939
1.426 1.950 1.694 352
1.506 2.060 1.774 7645
1.581 2.162 1.856 354
1.509 2.064 1.767 6590
1.584 2.166 1.849 515
1.532 2.095 1.781 5793
1.457 1.993 1.699 458
1.538 2.104 1.778 7314
1.464 2.002 1.696 327
1.553 2.124 1.783 6939
1.478 2.022 1.702 712
1.564 2.139 1.784 8274
1.489 2.036 1.703 938
1.567 2.143 1.776 7335
1.642 2.245 1.856 1494
1.573 2.152 1.773 6409
1.649 2.255 1.853 1895
1.572 2.150 1.761 5772
1.648 2.253 1.840 2136
1.575 2.154 1.753 5148
1.651 2.257 1.832 2012
1.578 2.158 1.746 5892
1.653 2.261 1.824 1532
1.581 2.162 1.738 6635
1.656 2.265 1.816 1051
1.587 2.171 1.735 5176
1.663 2.275 1.812 1748
1.638 2.240 1.776 5287
1.562 2.136 1.698 1502
1.637 2.239 1.764 6380
1.561 2.135 1.687 942
1.640 2.243 1.756 7494
1.716 2.347 1.833 978
1.646 2.252 1.752 6317
1.723 2.357 1.828 1392
1.653 2.261 1.748 4187
1.730 2.366 1.824 1490
1.704 2.331 1.788 3978
1.628 2.226 1.712 1988
1.703 2.330 1.775 3601
1.626 2.224 1.700 1415
1.702 2.328 1.763 3299
1.779 2.433 1.838 1155
1.709 2.337 1.759 4269
1.786 2.443 1.833 1039
1.716 2.347 1.754 5396
1.793 2.452 1.829 998
1.735 2.373 1.762 5922
1.657 2.267 1.688 967
1.738 2.377 1.753 5191
1.819 2.488 1.830 454
1.740 2.380 1.745 3562
1.834 2.509 1.833 832
1.735 2.373 1.729 2903
1.837 2.513 1.824 2323
1.840 2.517 1.815 3423
1.734 2.371 1.716 2405
1.847 2.526 1.810 4428
1.769 2.420 1.738 1805
1.850 2.530 1.801 6080
1.772 2.423 1.730 1474
1.849 2.529 1.788 6853
1.770 2.422 1.717 1203
1.847 2.527 1.776 5645
1.769 2.420 1.705 1095
1.821 2.491 1.741 6899
1.900 2.598 1.811 2308
1.824 2.495 1.732 7638
1.903 2.602 1.802 1998
1.827 2.499 1.723 5511
1.914 2.618 1.800 3596
1.900 2.599 1.776 5382
1.821 2.491 1.707 2507
1.907 2.608 1.770 6818
1.816 2.483 1.691 1614
1.918 2.624 1.768 6442
1.827 2.498 1.689 1226
1.929 2.639 1.766 5806
1.850 2.530 1.698 784
1.941 2.654 1.764 6878
1.861 2.546 1.696 1094
1.947 2.664 1.758 5681
1.868 2.555 1.691 1034
1.954 2.673 1.752 3228
2.038 2.788 1.822 1984
1.982 2.711 1.763 3196
2.062 2.820 1.830 1707
1.989 2.721 1.757 5435
2.069 2.830 1.823 1815
1.992 2.725 1.747 7444
2.072 2.834 1.813 3078
1.995 2.728 1.738 8620
2.075 2.838 1.803 3950
2.002 2.738 1.731 10193
2.082 2.848 1.796 4956
2.005 2.742 1.722 8915
2.085 2.852 1.786 5825
2.007 2.745 1.712 6197
2.088 2.855 1.776 4170
2.023 2.767 1.712 4097
2.137 2.923 1.802 3102
2.042 2.793 1.715 4113
2.144 2.933 1.795 3336
2.054 2.809 1.712 3985
2.147 2.937 1.785 3272
2.222 3.039 1.830 3284
2.065 2.824 1.709 3278
2.238 3.061 1.829 4455
2.157 2.950 1.767 3426
2.245 3.070 1.821 4849
2.164 2.960 1.760 3652
2.248 3.074 1.810 4702
2.167 2.964 1.749 3762
2.268 3.102 1.812 4970
2.174 2.973 1.742 3548
2.284 3.123 1.811 6766
2.168 2.965 1.725 2393
2.291 3.133 1.803 6764
2.175 2.975 1.718 1224
2.294 3.137 1.792 8059
2.212 3.025 1.732 1386
2.296 3.141 1.780 8644
2.215 3.029 1.721 1124
2.308 3.156 1.775 7477
2.226 3.045 1.717 764
2.319 3.172 1.770 7190
2.401 3.284 1.829 1364
2.326 3.182 1.762 4800
2.408 3.294 1.820 2274
2.351 3.215 1.766 4575
2.433 3.327 1.823 2973
2.349 3.213 1.751 5834
2.431 3.325 1.808 3886
2.365 3.235 1.749 6849
2.447 3.347 1.805 2883
2.372 3.244 1.740 7284
2.485 3.398 1.817 2654
2.379 3.254 1.731 4422
2.492 3.408 1.808 3655
2.512 3.436 1.807 5488
2.430 3.323 1.752 2625
2.519 3.446 1.798 6528
2.437 3.333 1.743 2629
2.531 3.462 1.792 5005
2.448 3.348 1.737 3067
2.547 3.483 1.788 5079
2.464 3.370 1.733 2679
2.554 3.493 1.778 4714
2.637 3.607 1.832 2428
2.552 3.491 1.763 3709
2.635 3.605 1.816 2020
2.612 3.573 1.787 4338
2.516 3.441 1.725 2087
2.619 3.582 1.777 5588
2.720 3.720 1.840 2128
2.626 3.592 1.767 4201
2.710 3.706 1.819 2031
2.634 3.602 1.756 3378
2.717 3.716 1.808 2262
2.632 3.600 1.741 4379
2.755 3.768 1.817 2783
2.639 3.610 1.731 3700
2.762 3.778 1.806 3191
2.752 3.764 1.784 2939
2.840 3.884 1.838 2189
2.755 3.768 1.771 3631
2.838 3.882 1.821 2043
2.753 3.766 1.755 2852
2.837 3.880 1.804 1730
2.809 3.842 1.772 3731
2.932 4.011 1.845 2394
2.821 3.858 1.764 4530
2.935 4.015 1.831 3850
2.938 4.019 1.816 4090
2.837 3.880 1.758 3528
2.946 4.029 1.805 5103
2.857 3.908 1.754 3666
2.971 4.063 1.803 5780
2.851 3.899 1.735 2371
2.978 4.073 1.791 5902
3.062 4.188 1.838 1444
2.985 4.083 1.778 4548
3.070 4.198 1.825 2292
3.072 4.202 1.810 3186
2.988 4.087 1.764 2880
3.071 4.200 1.793 2756
2.986 4.085 1.747 1843
3.092 4.228 1.787 2824
3.176 4.344 1.833 1432
3.094 4.232 1.772 3321
3.179 4.348 1.817 2319
3.177 4.346 1.799 3467
3.093 4.230 1.755 2733
3.185 4.356 1.786 2994
3.274 4.478 1.833 2196
3.201 4.378 1.777 2602
3.317 4.537 1.838 1895
3.275 4.480 1.798 2828
3.190 4.364 1.755 2024
3.283 4.490 1.785 4111
3.413 4.667 1.850 2832
3.420 4.678 1.836 4105
3.286 4.494 1.768 3539
3.365 4.602 1.790 3353
3.495 4.780 1.855 1598
3.367 4.606 1.774 3876
3.489 4.771 1.833 2087
3.474 4.751 1.807 2574
3.375 4.616 1.759 1881
3.467 4.742 1.786 2626
3.553 4.859 1.827 1012
3.524 4.820 1.794 2160
3.686 5.042 1.871 1647
3.689 5.046 1.853 3254
3.536 4.836 1.781 2049
3.688 5.044 1.833 3368
3.773 5.161 1.873 2178
3.691 5.048 1.815 2941
3.776 5.165 1.854 2360
3.766 5.150 1.829 3039
3.680 5.033 1.791 2279
3.773 5.160 1.813 3155
3.687 5.043 1.775 2154
3.835 5.245 1.820 1926
3.731 5.103 1.774 1713
3.905 5.342 1.831 1925
3.991 5.459 1.869 1270
4.049 5.537 1.873 1861
3.863 5.284 1.793 1740
4.052 5.542 1.853 1971
3.916 5.356 1.795 1283
4.055 5.546 1.833 1769
4.222 5.775 1.903 1529
4.062 5.556 1.815 1705
4.216 5.767 1.879 1661
4.219 5.771 1.858 1828
4.351 5.951 1.912 1247
4.227 5.781 1.839 1807
4.359 5.961 1.893 1662
4.225 5.779 1.817 1617
4.366 5.972 1.873 1358
4.228 5.783 1.796 1203
4.387 6.001 1.859 1138
4.513 6.173 1.885 1276
4.363 5.967 1.827 1212
4.516 6.177 1.863 1242
4.603 6.295 1.896 1034
4.606 6.299 1.874 1087
4.515 6.175 1.839 857
4.609 6.303 1.851 1239
4.928 6.740 1.970 901
4.931 6.745 1.946 985
4.612 6.307 1.828 772
4.916 6.724 1.915 973
4.820 6.593 1.880 786
5.052 6.909 1.939 1011
4.924 6.734 1.893 891
5.032 6.882 1.906 1535
4.826 6.601 1.833 560
5.035 6.886 1.881 1538
5.145 7.037 1.919 744
5.139 7.028 1.891 1421
5.042 6.897 1.858 1001
5.137 7.026 1.864 1788
5.050 6.907 1.835 721
5.140 7.030 1.839 1222
5.053 6.911 1.810 568
5.134 7.022 1.810 579
5.492 7.511 1.928 403
5.155 7.051 1.791 544
5.504 7.528 1.904 353
5.162 7.061 1.767 613
5.511 7.538 1.878 304
5.165 7.065 1.742 449
5.173 7.075 1.718 268
3.260 4.459 1.081 265
3.257 4.455 1.064 520
3.259 4.457 1.048 752
4.278 5.850 1.335 426
3.260 4.459 1.032 982
4.284 5.860 1.315 704
3.262 4.461 1.016 1327
4.286 5.862 1.294 976
3.263 4.463 1.000 1715
4.288 5.865 1.273 906
3.265 4.465 0.984 1904
4.295 5.874 1.253 607
3.266 4.467 0.968 1866
4.287 5.864 1.230 559
3.268 4.469 0.952 1669
4.285 5.860 1.207 868
3.269 4.471 0.936 1425
4.291 5.869 1.188 903
3.270 4.473 0.920 1197
4.293 5.871 1.167 601
3.272 4.475 0.904 888
4.290 5.867 1.144 264
3.273 4.477 0.888 697
3.274 4.478 0.872 553
3.276 4.480 0.856 298
0.422 0.577 0.216 257
0.422 0.578 0.214 279
0.418 0.571 0.211 268
1.229 1.681 0.308 258
1.229 1.681 0.302 254
1.360 1.853 1.792 2312
1.288 1.756 1.703 294
1.363 1.857 1.786 4624
1.434 1.955 1.875 791
1.365 1.861 1.779 4624
1.437 1.959 1.868 1582
1.380 1.880 1.787 4966
1.452 1.979 1.875 1063
1.390 1.895 1.789 5839
1.462 1.993 1.877 747
1.397 1.904 1.787 6626
1.469 2.002 1.875 1074
1.400 1.907 1.780 7606
1.472 2.006 1.867 1650
1.402 1.911 1.774 7606
1.475 2.010 1.860 1650
1.409 1.920 1.771 7488
1.482 2.020 1.858 2122
1.412 1.924 1.765 7461
1.485 2.024 1.851 3032
1.422 1.939 1.767 5368
1.496 2.038 1.852 2629
1.444 1.969 1.782 4874
1.518 2.069 1.868 974
1.451 1.978 1.780 5396
1.525 2.078 1.865 741
1.462 1.992 1.782 6241
1.535 2.092 1.866 250
1.465 1.996 1.775 5985
1.538 2.097 1.859 250
1.499 2.042 1.803 6829
1.425 1.942 1.719 573
1.501 2.046 1.796 8474
1.427 1.945 1.712 669
1.500 2.045 1.784 8363
1.426 1.944 1.701 454
1.503 2.049 1.777 8171
1.429 1.947 1.694 334
1.510 2.058 1.774 7232
1.584 2.159 1.856 368
1.513 2.062 1.767 6502
1.587 2.163 1.849 534
1.535 2.092 1.781 5837
1.460 1.990 1.699 406
1.546 2.107 1.782 7296
1.471 2.005 1.701 420
1.557 2.121 1.783 6997
1.482 2.019 1.702 691
1.567 2.136 1.784 8350
1.492 2.034 1.703 916
1.570 2.140 1.776 7354
1.646 2.243 1.856 1577
1.573 2.144 1.769 6359
1.648 2.247 1.848 2402
1.576 2.148 1.761 5625
1.651 2.251 1.840 2287
1.575 2.146 1.749 4892
1.650 2.249 1.828 2642
1.581 2.155 1.746 5636
1.657 2.259 1.824 1591
1.584 2.159 1.738 6380
1.660 2.263 1.816 1010
1.587 2.163 1.730 4854
1.663 2.267 1.808 2151
1.642 2.238 1.776 5409
1.566 2.134 1.698 1491
1.641 2.236 1.764 6654
1.564 2.132 1.687 939
1.643 2.240 1.756 7959
1.720 2.344 1.833 1211
1.646 2.244 1.748 6824
1.723 2.348 1.824 2048
1.653 2.253 1.744 4655
1.730 2.358 1.820 2315
1.712 2.334 1.792 4351
1.636 2.229 1.716 2632
1.707 2.327 1.775 3756
1.630 2.222 1.700 1672
1.706 2.325 1.763 3312
1.783 2.430 1.838 1179
1.713 2.334 1.759 4285
1.790 2.440 1.833 1051
1.720 2.344 1.754 5363
1.797 2.449 1.829 985
1.735 2.364 1.758 5755
1.657 2.259 1.684 895
1.742 2.374 1.753 5265
1.664 2.268 1.680 433
1.744 2.377 1.745 3873
1.839 2.506 1.833 710
1.739 2.370 1.729 2865
1.842 2.510 1.824 2178
1.844 2.514 1.815 3336
1.733 2.363 1.713 2183
1.851 2.523 1.810 4325
1.773 2.417 1.738 1788
1.854 2.527 1.801 5898
1.776 2.420 1.730 1501
1.853 2.525 1.788 6505
1.775 2.419 1.717 1200
1.852 2.524 1.776 5486
1.773 2.417 1.705 1173
1.826 2.488 1.741 7107
1.904 2.595 1.811 2131
1.828 2.492 1.732 7780
1.907 2.599 1.802 1742
1.827 2.490 1.719 5614
1.918 2.614 1.800 3476
1.913 2.607 1.783 5463
1.825 2.488 1.707 2623
1.916 2.611 1.774 6932
1.820 2.480 1.691 1805
1.923 2.620 1.768 6727
1.827 2.490 1.685 1259
1.934 2.636 1.766 6429
1.854 2.527 1.698 675
1.941 2.645 1.760 7648
1.861 2.537 1.693 515
1.948 2.655 1.754 6210
2.027 2.763 1.821 969
1.955 2.664 1.748 3437
2.039 2.779 1.819 1938
1.987 2.708 1.763 3235
1.907 2.599 1.697 1731
1.994 2.718 1.757 5331
2.074 2.827 1.823 1818
1.997 2.721 1.747 7207
2.077 2.830 1.813 3034
2.000 2.725 1.738 8301
2.080 2.834 1.803 3881
2.007 2.735 1.731 9831
2.087 2.844 1.796 4924
2.009 2.738 1.722 8693
2.090 2.848 1.786 5846
2.012 2.742 1.712 5900
2.093 2.852 1.776 4355
2.027 2.763 1.712 3603
2.142 2.919 1.802 3288
2.056 2.802 1.722 4245
2.149 2.929 1.795 3572
2.058 2.805 1.712 4308
2.152 2.933 1.785 3562
2.159 2.943 1.778 3653
2.070 2.821 1.709 3529
2.243 3.057 1.829 4445
2.162 2.946 1.767 3974
2.246 3.061 1.818 4899
2.165 2.950 1.757 3734
2.253 3.071 1.810 4781
2.172 2.960 1.749 3873
2.273 3.098 1.812 5027
2.192 2.987 1.752 3536
2.289 3.119 1.811 7175
2.207 3.008 1.750 2348
2.296 3.129 1.803 7264
2.214 3.018 1.743 1470
2.299 3.133 1.792 8515
2.204 3.004 1.723 1756
2.302 3.137 1.780 9162
2.220 3.025 1.721 1263
2.313 3.153 1.775 8020
2.231 3.041 1.717 854
2.325 3.168 1.770 7409
2.407 3.280 1.829 1395
2.332 3.178 1.762 4745
2.414 3.290 1.820 2412
2.356 3.211 1.766 4564
2.438 3.323 1.823 2871
2.355 3.209 1.751 5712
2.437 3.321 1.808 3592
2.370 3.231 1.749 6639
2.453 3.343 1.805 2843
2.382 3.246 1.743 7228
2.486 3.388 1.814 2641
2.385 3.250 1.731 4424
2.502 3.410 1.811 3604
2.518 3.432 1.807 5912
2.413 3.289 1.737 2520
2.525 3.442 1.798 6962
2.442 3.329 1.743 2038
2.537 3.457 1.792 5067
2.454 3.344 1.737 2688
2.553 3.479 1.788 5093
2.470 3.366 1.733 2368
2.560 3.489 1.778 4663
2.643 3.602 1.832 2476
2.558 3.487 1.763 3805
2.642 3.600 1.816 2166
2.618 3.568 1.787 4662
2.535 3.455 1.734 2192
2.621 3.572 1.774 5515
2.726 3.716 1.840 1966
2.633 3.588 1.767 3923
2.716 3.702 1.819 2048
2.640 3.598 1.756 3451
2.723 3.712 1.808 2730
2.643 3.601 1.744 4753
2.726 3.715 1.795 2525
2.645 3.605 1.731 4115
2.773 3.779 1.808 2809
2.789 3.801 1.803 2796
2.661 3.627 1.726 1857
2.757 3.757 1.768 3766
2.841 3.871 1.818 2462
2.790 3.803 1.773 3308
2.706 3.689 1.723 1132
2.811 3.831 1.770 4236
2.939 4.006 1.845 2257
2.818 3.841 1.759 4899
2.942 4.010 1.831 3564
2.945 4.014 1.816 3824
2.843 3.875 1.758 3586
2.948 4.018 1.802 5030
2.864 3.903 1.754 4003
2.969 4.046 1.798 5409
2.862 3.901 1.737 2716
2.980 4.062 1.788 5553
3.065 4.177 1.835 1538
2.992 4.078 1.778 4751
3.077 4.193 1.825 2316
2.995 4.082 1.764 3113
3.084 4.203 1.813 3060
3.123 4.256 1.817 2638
2.998 4.086 1.749 1928
3.103 4.229 1.790 2764
3.009 4.101 1.739 1361
3.106 4.233 1.775 3230
3.191 4.349 1.820 1818
3.180 4.334 1.797 3036
3.095 4.219 1.752 2420
3.192 4.350 1.786 2467
3.107 4.235 1.742 2136
3.262 4.446 1.805 2101
3.137 4.275 1.740 1392
3.283 4.474 1.798 2886
3.198 4.358 1.755 1887
3.290 4.484 1.785 3955
3.420 4.662 1.850 2773
3.428 4.672 1.836 3958
3.298 4.494 1.771 3560
3.372 4.596 1.790 3426
3.498 4.768 1.852 1661
3.375 4.600 1.774 3922
3.483 4.747 1.826 2147
3.482 4.745 1.807 2811
3.382 4.610 1.759 2011
3.475 4.737 1.786 2765
3.597 4.902 1.844 1069
3.532 4.814 1.794 2195
3.699 5.042 1.873 1687
3.702 5.046 1.855 3424
3.544 4.830 1.781 2016
3.696 5.037 1.833 3439
3.782 5.154 1.873 2596
3.767 5.134 1.846 3417
3.681 5.017 1.807 2293
3.774 5.144 1.829 3598
3.688 5.027 1.791 2284
3.782 5.154 1.813 3597
3.696 5.037 1.775 2146
3.916 5.337 1.852 2281
3.739 5.096 1.774 1911
3.910 5.329 1.829 2399
3.996 5.446 1.867 1599
4.054 5.524 1.871 2207
3.917 5.339 1.812 2179
4.056 5.528 1.851 2312
3.925 5.349 1.795 1721
4.064 5.539 1.833 2084
4.232 5.768 1.903 1672
4.071 5.549 1.815 2059
4.235 5.772 1.883 1818
4.229 5.764 1.858 1962
4.079 5.559 1.797 1355
4.237 5.774 1.839 1996
4.373 5.960 1.895 1712
4.235 5.772 1.817 1773
4.376 5.964 1.873 1468
4.238 5.776 1.796 1274
4.397 5.993 1.859 1256
4.528 6.171 1.887 1428
4.368 5.954 1.825 1365
4.527 6.169 1.863 1401
4.613 6.288 1.896 1149
4.612 6.285 1.872 1222
4.525 6.167 1.839 909
4.619 6.296 1.851 1305
4.940 6.732 1.970 1091
4.943 6.736 1.946 1194
4.622 6.300 1.828 781
4.927 6.716 1.915 1224
4.827 6.578 1.879 938
5.063 6.901 1.939 1227
4.935 6.726 1.893 1030
5.044 6.874 1.906 1783
4.837 6.593 1.833 694
5.047 6.878 1.881 1789
5.166 7.040 1.922 959
5.151 7.020 1.891 1728
5.054 6.888 1.858 1208
5.149 7.017 1.864 2235
5.062 6.898 1.835 876
5.152 7.021 1.839 1528
5.065 6.902 1.810 695
5.150 7.019 1.812 767
5.559 7.577 1.946 437
5.167 7.042 1.791 742
5.517 7.518 1.904 410
5.170 7.046 1.766 783
5.524 7.529 1.878 345
5.177 7.056 1.742 535
5.184 7.066 1.718 272
3.265 4.450 1.064 522
3.266 4.452 1.048 740
4.287 5.843 1.335 390
3.268 4.454 1.032 959
4.294 5.852 1.315 647
3.269 4.456 1.016 1302
4.296 5.855 1.294 894
3.271 4.458 1.000 1727
4.298 5.858 1.273 840
3.272 4.460 0.984 1955
4.305 5.867 1.253 585
3.274 4.462 0.968 1913
4.302 5.863 1.231 540
3.275 4.464 0.952 1689
4.295 5.853 1.207 782
3.277 4.466 0.936 1433
4.301 5.862 1.188 820
3.278 4.468 0.920 1245
4.303 5.864 1.167 563
3.279 4.469 0.904 930
3.285 4.478 0.889 722
3.287 4.479 0.873 558
3.283 4.475 0.856 278
0.423 0.577 0.216 304
0.419 0.571 0.213 334
0.419 0.571 0.211 319
0.419 0.571 0.210 260
1.232 1.679 0.308 271
1.227 1.673 0.302 258
1.362 1.851 1.792 2254
1.291 1.754 1.703 297
1.365 1.855 1.786 4509
1.437 1.953 1.875 841
1.368 1.859 1.779 4509
1.440 1.957 1.868 1683
1.382 1.878 1.787 4843
1.454 1.977 1.875 1072
1.393 1.893 1.789 5589
1.465 1.991 1.877 719
1.399 1.902 1.787 6430
1.472 2.000 1.875 1161
1.402 1.906 1.780 7479
1.475 2.004 1.867 1852
1.405 1.909 1.774 7479
1.478 2.008 1.860 1852
1.412 1.918 1.771 7388
1.485 2.018 1.858 2285
1.415 1.922 1.765 7381
1.488 2.022 1.851 3184
1.425 1.937 1.767 5324
1.498 2.036 1.852 2676
1.447 1.967 1.782 4869
1.521 2.066 1.868 970
1.454 1.976 1.780 5275
1.528 2.076 1.865 692
1.465 1.990 1.782 5928
1.467 1.994 1.775 5654
1.501 2.040 1.803 6454
1.427 1.940 1.719 546
1.504 2.044 1.796 7859
1.430 1.943 1.712 644
1.503 2.043 1.784 7700
1.429 1.942 1.701 433
1.506 2.047 1.777 7449
1.432 1.945 1.694 321
1.513 2.056 1.774 6750
1.587 2.157 1.856 360
1.520 2.065 1.771 6252
1.594 2.166 1.853 456
1.538 2.090 1.781 5651
1.463 1.988 1.699 364
1.549 2.105 1.782 7058
1.474 2.003 1.701 388
1.560 2.119 1.783 6803
1.635 2.221 1.864 661
1.570 2.134 1.784 8119
1.495 2.032 1.703 852
1.573 2.138 1.776 7131
1.649 2.240 1.856 1581
1.576 2.142 1.769 6143
1.652 2.244 1.848 2423
1.575 2.140 1.757 5490
1.651 2.243 1.836 2798
1.578 2.144 1.749 4871
1.653 2.247 1.828 2731
1.580 2.148 1.742 5524
1.656 2.251 1.820 1979
1.587 2.157 1.738 6213
1.663 2.260 1.816 1008
1.590 2.161 1.730 4635
1.666 2.264 1.808 2158
1.645 2.235 1.776 5257
1.569 2.132 1.698 1493
1.644 2.234 1.764 6526
1.567 2.130 1.687 937
1.647 2.238 1.756 7881
1.723 2.342 1.833 1346
1.649 2.241 1.748 6835
1.726 2.346 1.824 2213
1.656 2.251 1.744 4783
1.733 2.355 1.820 2473
1.716 2.332 1.792 4554
1.639 2.227 1.716 2816
1.710 2.324 1.775 3866
1.633 2.219 1.700 1758
1.709 2.323 1.763 3335
1.787 2.428 1.838 1180
1.716 2.332 1.759 4263
1.794 2.437 1.833 1052
1.723 2.341 1.754 5294
1.801 2.447 1.829 969
1.738 2.362 1.758 5713
1.660 2.256 1.684 903
1.745 2.371 1.753 5414
1.823 2.477 1.826 465
1.748 2.375 1.745 4193
1.842 2.503 1.833 660
1.742 2.368 1.729 2973
1.845 2.507 1.824 2082
1.794 2.438 1.766 3299
1.873 2.545 1.838 1481
1.855 2.521 1.810 4219
1.777 2.414 1.738 1946
1.858 2.525 1.801 5798
1.779 2.418 1.730 1594
1.857 2.523 1.788 6338
1.778 2.416 1.717 1236
1.855 2.521 1.776 5472
1.777 2.414 1.705 1219
1.829 2.485 1.741 6804
1.908 2.593 1.811 2173
1.832 2.489 1.732 7396
1.911 2.597 1.802 1737
1.830 2.487 1.719 5338
1.922 2.612 1.800 3333
1.916 2.604 1.783 5263
1.829 2.485 1.707 2575
1.915 2.602 1.770 6626
1.823 2.478 1.691 1864
1.926 2.618 1.768 6483
1.847 2.510 1.700 1327
1.937 2.633 1.766 6465
1.858 2.525 1.698 748
1.944 2.642 1.760 7730
1.865 2.534 1.693 532
1.951 2.652 1.754 6254
2.031 2.760 1.821 1054
1.963 2.667 1.752 3468
2.043 2.776 1.819 1856
1.987 2.700 1.760 3713
2.067 2.808 1.826 1982
1.994 2.709 1.754 5644
2.074 2.818 1.819 2022
1.996 2.713 1.744 7370
2.077 2.822 1.809 3142
2.003 2.722 1.738 8053
2.084 2.832 1.803 3707
2.010 2.732 1.731 9347
2.091 2.841 1.796 4714
2.013 2.736 1.722 8309
2.094 2.845 1.786 5656
2.016 2.739 1.712 5535
2.096 2.849 1.776 4398
2.095 2.847 1.762 3510
2.014 2.737 1.699 2878
2.060 2.799 1.722 4310
2.153 2.926 1.795 3657
2.066 2.808 1.715 4473
2.156 2.930 1.785 3699
2.159 2.934 1.774 3912
2.073 2.818 1.709 3604
2.175 2.955 1.774 4566
2.256 3.065 1.836 3835
2.250 3.058 1.818 4838
2.169 2.947 1.757 3922
2.257 3.068 1.810 4740
2.176 2.957 1.749 3967
2.282 3.101 1.815 4915
2.200 2.990 1.755 3906
2.293 3.116 1.811 7272
2.211 3.005 1.750 2639
2.300 3.126 1.803 7456
2.219 3.015 1.743 1534
2.303 3.130 1.792 8783
2.221 3.019 1.732 1553
2.306 3.134 1.780 9545
2.224 3.022 1.721 1327
2.318 3.149 1.775 8310
2.235 3.038 1.717 1134
2.329 3.165 1.770 7239
2.411 3.277 1.829 1409
2.340 3.181 1.765 4522
2.423 3.292 1.823 2288
2.361 3.208 1.766 4519
2.443 3.320 1.823 2783
2.359 3.206 1.751 5583
2.442 3.318 1.808 3383
2.379 3.233 1.752 6408
2.462 3.345 1.808 2661
2.386 3.243 1.743 7066
2.491 3.385 1.814 2590
2.393 3.253 1.734 4361
2.507 3.406 1.811 3580
2.523 3.428 1.807 6052
2.414 3.280 1.734 2557
2.530 3.438 1.798 7048
2.447 3.325 1.743 1725
2.537 3.448 1.789 5057
2.454 3.335 1.734 2305
2.558 3.475 1.788 4999
2.474 3.362 1.733 2256
2.560 3.479 1.775 4629
2.644 3.592 1.829 2660
2.559 3.477 1.760 3950
2.642 3.590 1.813 2464
2.623 3.565 1.787 4544
2.540 3.451 1.734 2166
2.626 3.568 1.774 5104
2.731 3.712 1.840 1844
2.638 3.584 1.767 3514
2.721 3.698 1.819 2109
2.715 3.690 1.800 3500
2.632 3.576 1.748 2697
2.648 3.598 1.744 4768
2.731 3.712 1.795 2520
2.655 3.608 1.733 4171
2.783 3.782 1.811 2783
2.794 3.797 1.803 2774
2.666 3.623 1.726 1961
2.762 3.753 1.768 3732
2.846 3.867 1.818 2601
2.796 3.799 1.773 3502
2.712 3.685 1.723 1095
2.816 3.827 1.770 4429
2.945 4.002 1.845 2126
2.819 3.831 1.756 4988
2.943 4.000 1.828 3291
2.951 4.010 1.816 3489
2.849 3.871 1.758 3382
2.958 4.020 1.805 4679
2.874 3.905 1.756 3953
2.961 4.024 1.790 5083
2.863 3.891 1.735 2752
2.986 4.058 1.788 5202
3.071 4.173 1.835 1577
2.998 4.074 1.778 4668
3.082 4.189 1.825 2236
3.001 4.078 1.764 3183
3.094 4.205 1.815 2966
3.124 4.245 1.815 2616
3.003 4.081 1.749 1843
3.109 4.225 1.790 2653
3.015 4.097 1.739 1146
3.112 4.229 1.775 3133
3.197 4.344 1.820 1641
3.115 4.233 1.759 2809
3.245 4.409 1.828 2413
3.122 4.242 1.746 2288
3.261 4.431 1.819 2204
3.264 4.435 1.803 2056
3.134 4.258 1.736 1394
3.289 4.470 1.798 2679
3.379 4.592 1.844 1792
3.297 4.480 1.785 3603
3.427 4.657 1.850 2668
3.430 4.661 1.834 3811
3.304 4.490 1.771 3420
3.379 4.591 1.790 3345
3.500 4.757 1.850 1726
3.386 4.601 1.776 3797
3.490 4.742 1.826 2208
3.488 4.740 1.807 2942
3.389 4.605 1.759 1989
3.482 4.732 1.786 2905
3.568 4.848 1.827 1086
3.539 4.809 1.794 2148
3.706 5.036 1.873 1764
3.714 5.047 1.857 3622
3.551 4.825 1.781 1878
3.708 5.038 1.835 3461
3.794 5.155 1.875 2601
3.774 5.129 1.846 3779
3.688 5.012 1.807 2168
3.781 5.139 1.829 3957
3.695 5.022 1.791 2161
3.793 5.155 1.815 3816
3.707 5.038 1.777 2163
3.923 5.332 1.852 2267
3.746 5.091 1.774 2057
3.917 5.323 1.829 2462
4.004 5.441 1.867 1790
4.061 5.519 1.871 2269
3.925 5.333 1.812 2216
4.064 5.523 1.851 2323
3.937 5.350 1.797 1772
4.072 5.533 1.833 2075
4.240 5.762 1.903 1749
4.079 5.543 1.815 2060
4.243 5.766 1.883 2027
4.237 5.758 1.858 2090
4.087 5.553 1.797 1365
4.245 5.768 1.839 2113
4.381 5.954 1.895 1765
4.243 5.766 1.817 1823
4.384 5.958 1.873 1465
4.246 5.770 1.796 1301
4.410 5.993 1.861 1207
4.532 6.159 1.885 1468
4.432 6.022 1.846 1358
4.535 6.163 1.863 1445
4.622 6.281 1.896 1203
4.621 6.279 1.872 1292
4.534 6.161 1.839 932
4.628 6.289 1.851 1355
4.949 6.725 1.970 1182
4.952 6.729 1.946 1261
4.631 6.293 1.828 817
4.937 6.709 1.915 1270
4.836 6.572 1.879 962
5.073 6.894 1.939 1372
4.944 6.719 1.893 1070
5.058 6.873 1.907 1921
4.846 6.586 1.833 749
5.056 6.871 1.881 1931
5.176 7.033 1.922 1039
5.160 7.012 1.891 1862
5.064 6.881 1.858 1359
5.159 7.010 1.864 2483
5.071 6.891 1.835 956
5.157 7.008 1.837 1703
5.070 6.889 1.808 697
5.165 7.018 1.813 881
5.570 7.569 1.946 459
5.177 7.035 1.791 891
5.527 7.511 1.904 402
5.179 7.039 1.766 913
5.535 7.521 1.878 333
5.187 7.049 1.742 589
5.194 7.059 1.718 304
3.265 4.437 1.079 297
3.271 4.445 1.064 576
3.273 4.447 1.048 707
4.296 5.837 1.335 377
3.274 4.449 1.032 920
4.302 5.846 1.315 606
3.276 4.451 1.016 1313
4.304 5.849 1.294 814
3.277 4.453 1.000 1702
4.306 5.852 1.273 760
3.279 4.455 0.984 1881
4.313 5.861 1.253 536
3.280 4.457 0.968 1836
4.305 5.851 1.230 482
3.281 4.459 0.952 1646
4.303 5.847 1.207 710
3.283 4.461 0.936 1420
4.309 5.856 1.188 751
3.284 4.463 0.920 1256
4.311 5.858 1.167 512
3.286 4.465 0.904 968
3.287 4.467 0.888 759
3.293 4.475 0.873 577
3.294 4.476 0.857 297
0.424 0.576 0.218 261
0.424 0.576 0.216 317
0.419 0.570 0.213 339
0.420 0.570 0.211 317
0.420 0.570 0.210 258
1.230 1.671 0.308 263
1.230 1.671 0.302 263
1.368 1.855 1.797 2359
1.297 1.757 1.708 341
1.371 1.859 1.791 4718
1.443 1.956 1.879 752
1.374 1.862 1.784 4718
1.446 1.960 1.872 1504
1.388 1.882 1.791 4990
1.461 1.980 1.879 815
1.395 1.891 1.789 5589
1.468 1.989 1.877 770
1.402 1.900 1.787 6518
1.474 1.998 1.875 1368
1.405 1.904 1.780 7694
1.477 2.002 1.867 2220
1.407 1.908 1.774 7694
1.480 2.007 1.860 2220
1.414 1.917 1.771 7659
1.487 2.016 1.858 2627
1.417 1.920 1.765 7704
1.490 2.020 1.851 3564
1.428 1.935 1.767 5608
1.501 2.034 1.852 2882
1.450 1.965 1.782 5258
1.523 2.065 1.868 1015
1.456 1.974 1.780 5531
1.530 2.074 1.865 678
1.463 1.983 1.777 5982
1.537 2.083 1.862 362
1.470 1.992 1.775 5664
1.504 2.038 1.803 6229
1.430 1.938 1.719 522
1.503 2.037 1.791 7412
1.429 1.936 1.708 454
1.506 2.041 1.784 7147
1.431 1.940 1.701 420
1.509 2.045 1.777 6830
1.434 1.944 1.694 319
1.515 2.054 1.774 6404
1.590 2.155 1.856 371
1.522 2.063 1.771 6218
1.597 2.164 1.853 465
1.541 2.088 1.781 5580
1.616 2.190 1.862 375
1.551 2.103 1.782 6947
1.476 2.001 1.701 375
1.562 2.117 1.783 6718
1.638 2.219 1.864 651
1.573 2.132 1.784 7991
1.498 2.030 1.703 850
1.576 2.136 1.776 6993
1.651 2.238 1.856 1615
1.575 2.134 1.764 6038
1.650 2.237 1.844 2984
1.578 2.138 1.757 5741
1.653 2.241 1.836 2935
1.580 2.142 1.749 5445
1.656 2.245 1.828 2886
1.583 2.146 1.742 6010
1.659 2.249 1.820 2066
1.590 2.155 1.738 6599
1.666 2.258 1.816 1035
1.593 2.159 1.730 4794
1.669 2.262 1.808 2278
1.648 2.233 1.776 5303
1.571 2.130 1.698 1529
1.651 2.237 1.768 6700
1.574 2.133 1.691 1152
1.649 2.235 1.756 8217
1.726 2.340 1.833 1559
1.652 2.239 1.748 7261
1.729 2.344 1.824 2493
1.659 2.249 1.744 5311
1.736 2.353 1.820 2735
1.719 2.329 1.792 4888
1.641 2.225 1.716 3079
1.713 2.322 1.775 4034
1.636 2.217 1.700 1831
1.712 2.321 1.763 3380
1.790 2.426 1.838 1192
1.719 2.330 1.759 4188
1.797 2.435 1.833 1067
1.726 2.339 1.754 5135
1.804 2.445 1.829 956
1.741 2.360 1.758 5704
1.663 2.254 1.684 889
1.748 2.369 1.753 5861
1.826 2.475 1.826 560
1.751 2.373 1.745 4956
1.829 2.479 1.818 687
1.753 2.377 1.736 3523
1.848 2.505 1.824 2078
1.797 2.436 1.766 3671
1.876 2.542 1.838 1466
1.858 2.518 1.810 4303
1.780 2.412 1.738 2407
1.861 2.522 1.801 5857
1.782 2.416 1.730 1961
1.864 2.526 1.792 6285
1.785 2.419 1.721 1686
1.867 2.530 1.783 5700
1.788 2.423 1.712 2100
1.828 2.478 1.737 6518
1.907 2.585 1.807 2642
1.831 2.481 1.728 7301
1.910 2.588 1.798 2027
1.833 2.485 1.719 5378
1.913 2.592 1.789 3311
1.916 2.596 1.780 5209
1.832 2.483 1.707 2691
1.918 2.600 1.770 6357
1.826 2.475 1.691 1929
1.925 2.610 1.765 6127
1.846 2.502 1.696 1392
1.941 2.630 1.766 6238
1.861 2.522 1.698 952
1.948 2.640 1.760 7412
1.868 2.532 1.693 635
1.955 2.649 1.754 6049
2.035 2.758 1.821 1061
1.962 2.659 1.748 3556
2.042 2.767 1.815 1790
1.990 2.697 1.760 3723
1.910 2.588 1.693 1835
1.997 2.707 1.754 5592
2.077 2.815 1.819 1809
2.004 2.716 1.747 7105
2.084 2.825 1.813 2745
2.011 2.726 1.741 7619
2.091 2.835 1.806 3272
2.014 2.729 1.731 8767
2.094 2.839 1.796 4614
2.016 2.733 1.722 7960
2.097 2.842 1.786 5418
2.015 2.731 1.708 5379
2.096 2.841 1.772 4359
2.128 2.885 1.786 3690
2.035 2.758 1.712 2751
2.067 2.802 1.725 4166
2.157 2.923 1.795 3868
2.070 2.806 1.715 4414
2.151 2.916 1.778 3980
2.163 2.931 1.774 4189
2.081 2.821 1.712 3611
2.178 2.952 1.774 4713
2.097 2.842 1.712 3808
2.185 2.962 1.766 4685
2.267 3.072 1.828 3816
2.192 2.972 1.759 4644
2.274 3.082 1.820 3563
2.286 3.098 1.815 4757
2.204 2.987 1.755 4169
2.297 3.113 1.811 7404
2.215 3.002 1.750 2979
2.304 3.123 1.803 7833
2.222 3.012 1.743 1644
2.307 3.127 1.792 9413
2.225 3.016 1.732 1517
2.310 3.131 1.780 10345
2.228 3.020 1.721 1487
2.321 3.146 1.775 8983
2.239 3.035 1.717 1525
2.333 3.162 1.770 7221
2.251 3.050 1.712 1566
2.349 3.183 1.768 4400
2.266 3.072 1.710 2133
2.369 3.211 1.769 4599
2.286 3.099 1.711 2578
2.363 3.203 1.751 5548
2.446 3.315 1.808 3178
2.383 3.230 1.752 6249
2.466 3.342 1.808 2694
2.390 3.240 1.743 6951
2.486 3.370 1.808 2690
2.398 3.250 1.734 4362
2.511 3.403 1.811 3446
2.527 3.425 1.807 6415
2.418 3.277 1.734 2588
2.534 3.435 1.798 7414
2.425 3.287 1.726 1600
2.542 3.445 1.789 5186
2.458 3.332 1.734 2002
2.562 3.472 1.788 4962
2.479 3.359 1.733 2089
2.560 3.470 1.772 4776
2.644 3.583 1.826 2593
2.563 3.474 1.760 4446
2.647 3.587 1.813 2579
2.628 3.561 1.787 4551
2.544 3.448 1.734 2431
2.626 3.559 1.771 4904
2.732 3.702 1.838 1836
2.642 3.581 1.767 3267
2.726 3.694 1.819 2266
2.724 3.692 1.803 3469
2.640 3.579 1.751 2787
2.652 3.594 1.744 4747
2.736 3.708 1.795 2581
2.659 3.604 1.733 4254
2.792 3.784 1.814 2723
2.804 3.800 1.806 2775
2.671 3.620 1.726 2094
2.762 3.744 1.766 3800
2.846 3.858 1.816 2777
2.805 3.802 1.776 3981
2.721 3.687 1.726 1107
2.817 3.818 1.767 5087
2.950 3.998 1.845 1888
2.824 3.827 1.756 5517
2.953 4.002 1.831 2900
2.849 3.861 1.755 3477
2.956 4.006 1.816 3103
2.963 4.016 1.805 4318
2.878 3.901 1.756 3973
2.966 4.020 1.790 4852
2.868 3.887 1.735 2850
2.987 4.048 1.786 4760
3.071 4.163 1.833 1680
3.003 4.070 1.778 4479
3.088 4.185 1.825 2089
3.010 4.080 1.766 3170
3.104 4.207 1.818 2874
3.125 4.235 1.812 2655
3.013 4.084 1.752 1779
3.114 4.221 1.790 2549
3.029 4.106 1.744 1082
3.117 4.225 1.775 2837
3.202 4.340 1.820 1478
3.120 4.229 1.759 2594
3.250 4.405 1.828 2349
3.262 4.421 1.816 2221
3.127 4.239 1.746 2162
3.269 4.431 1.803 2065
3.139 4.254 1.736 1228
3.295 4.466 1.798 2481
3.209 4.350 1.755 1715
3.298 4.469 1.782 3421
3.433 4.653 1.850 2475
3.309 4.486 1.771 3502
3.436 4.657 1.834 3496
3.384 4.587 1.790 3194
3.506 4.752 1.850 1776
3.392 4.597 1.776 3638
3.491 4.732 1.824 2207
3.494 4.736 1.807 3003
3.390 4.595 1.757 2015
3.492 4.733 1.788 3002
3.578 4.850 1.829 1128
3.545 4.805 1.794 2084
3.713 5.032 1.873 1885
3.725 5.048 1.859 3953
3.557 4.821 1.781 1722
3.719 5.040 1.837 3565
3.805 5.157 1.877 2467
3.776 5.118 1.844 4227
3.690 5.001 1.805 1691
3.783 5.128 1.827 4275
3.870 5.245 1.866 1838
3.800 5.150 1.815 4042
3.714 5.033 1.777 2066
3.930 5.327 1.852 2601
3.748 5.080 1.772 2375
3.924 5.318 1.829 2813
4.010 5.436 1.867 2043
3.931 5.328 1.812 2542
4.064 5.508 1.869 2483
4.067 5.512 1.849 2540
3.943 5.345 1.797 2005
4.074 5.522 1.831 2270
4.247 5.757 1.903 1801
4.250 5.761 1.883 2188
4.086 5.538 1.815 2181
4.244 5.752 1.858 2105
4.094 5.548 1.797 1383
4.252 5.763 1.839 2091
4.389 5.949 1.895 1781
4.255 5.767 1.819 1702
4.397 5.959 1.875 1500
4.413 5.982 1.859 1295
4.253 5.764 1.796 1252
4.444 6.023 1.848 1628
4.544 6.159 1.887 1574
4.543 6.157 1.863 1528
4.630 6.275 1.896 1268
4.606 6.242 1.863 1488
4.849 6.572 1.955 715
4.636 6.283 1.851 1466
4.957 6.719 1.970 1282
4.960 6.723 1.946 1380
4.639 6.287 1.828 891
4.945 6.702 1.915 1309
4.844 6.565 1.879 992
5.082 6.887 1.939 1631
4.852 6.576 1.857 1180
5.066 6.867 1.907 2120
5.172 7.010 1.945 848
5.065 6.864 1.881 2116
5.184 7.027 1.922 1171
5.164 7.000 1.889 2130
5.068 6.869 1.856 1532
5.167 7.004 1.864 2917
5.080 6.885 1.835 1117
5.166 7.002 1.837 2064
5.078 6.883 1.808 867
5.164 6.999 1.810 1119
5.076 6.880 1.782 531
5.185 7.028 1.791 1117
5.532 7.498 1.902 457
5.188 7.032 1.766 1118
5.544 7.514 1.878 373
5.196 7.042 1.742 691
5.203 7.052 1.718 358
3.277 4.441 1.064 495
3.278 4.443 1.048 694
4.303 5.832 1.335 314
3.280 4.445 1.032 866
4.310 5.841 1.315 513
3.281 4.447 1.016 1192
4.312 5.844 1.294 718
3.283 4.449 1.000 1604
4.314 5.846 1.273 716
3.284 4.451 0.984 1809
4.315 5.849 1.252 527
3.286 4.453 0.968 1786
4.317 5.852 1.231 458
3.287 4.455 0.952 1580
4.310 5.842 1.207 650
3.288 4.457 0.936 1329
4.316 5.850 1.188 689
3.290 4.459 0.920 1138
4.318 5.853 1.167 457
3.291 4.461 0.904 842
3.293 4.463 0.888 645
3.294 4.464 0.872 493
3.295 4.466 0.856 255
0.425 0.575 0.218 304
0.420 0.569 0.215 368
0.420 0.569 0.213 378
0.420 0.570 0.211 341
0.420 0.570 0.210 276
1.232 1.670 0.302 254
1.232 1.670 0.296 253
1.376 1.857 1.802 2343
1.304 1.759 1.713 370
1.379 1.861 1.795 4686
1.307 1.763 1.706 740
1.382 1.864 1.789 4686
1.455 1.962 1.877 1215
1.393 1.879 1.791 4987
1.465 1.977 1.879 851
1.396 1.882 1.785 5463
1.468 1.981 1.872 1143
1.402 1.892 1.783 6435
1.475 1.990 1.870 1928
1.409 1.901 1.780 7680
1.482 1.999 1.867 2457
1.412 1.904 1.774 7680
1.485 2.003 1.860 2457
1.419 1.913 1.771 7674
1.492 2.012 1.858 2811
1.425 1.922 1.769 7794
1.499 2.022 1.855 3128
1.436 1.937 1.771 5728
1.509 2.036 1.857 2498
1.458 1.967 1.787 5481
1.532 2.066 1.872 642
1.461 1.971 1.780 5572
1.535 2.070 1.865 678
1.468 1.980 1.777 5817
1.542 2.080 1.862 397
1.474 1.989 1.775 5489
1.509 2.035 1.803 5962
1.434 1.935 1.719 499
1.508 2.033 1.791 6963
1.433 1.933 1.708 424
1.510 2.037 1.784 6591
1.436 1.937 1.701 405
1.513 2.041 1.777 6224
1.588 2.142 1.860 312
1.520 2.050 1.774 6032
1.595 2.151 1.856 367
1.527 2.059 1.771 6093
1.602 2.161 1.853 441
1.542 2.079 1.776 5441
1.617 2.181 1.858 424
1.556 2.099 1.782 6636
1.481 1.998 1.701 332
1.567 2.114 1.783 6542
1.643 2.216 1.864 639
1.578 2.128 1.784 7890
1.502 2.026 1.703 802
1.581 2.132 1.776 6902
1.657 2.234 1.856 1633
1.580 2.131 1.764 6002
1.656 2.233 1.844 3047
1.578 2.129 1.753 5954
1.654 2.232 1.832 3556
1.581 2.133 1.745 5923
1.657 2.236 1.824 3563
1.588 2.142 1.742 6296
1.664 2.245 1.820 2148
1.595 2.151 1.738 6757
1.671 2.254 1.816 1126
1.602 2.160 1.735 4832
1.678 2.264 1.812 2117
1.653 2.230 1.776 5125
1.576 2.126 1.698 1542
1.652 2.228 1.764 6642
1.729 2.332 1.841 1146
1.654 2.232 1.756 8301
1.732 2.336 1.833 1707
1.657 2.235 1.748 7459
1.734 2.340 1.824 2673
1.664 2.245 1.744 5656
1.741 2.349 1.820 2897
1.724 2.325 1.792 5110
1.647 2.221 1.716 3167
1.723 2.324 1.779 4154
1.645 2.219 1.704 2025
1.717 2.317 1.763 3374
1.795 2.421 1.838 1175
1.724 2.326 1.759 4123
1.802 2.431 1.833 1031
1.731 2.335 1.754 4984
1.809 2.440 1.829 880
1.746 2.356 1.758 5501
1.668 2.250 1.684 877
1.753 2.365 1.753 6033
1.836 2.476 1.830 601
1.760 2.374 1.749 5456
1.839 2.480 1.822 773
1.763 2.378 1.740 3947
1.850 2.495 1.820 2077
1.799 2.426 1.762 3839
1.877 2.532 1.834 1720
1.864 2.514 1.810 4258
1.785 2.408 1.738 2539
1.871 2.524 1.805 5869
1.792 2.417 1.733 2127
1.870 2.522 1.792 6307
1.791 2.415 1.721 1725
1.877 2.531 1.787 5877
1.798 2.425 1.716 2519
1.834 2.473 1.737 6341
1.913 2.580 1.807 2815
1.832 2.471 1.724 7068
1.912 2.578 1.794 2504
1.835 2.475 1.716 5258
1.914 2.582 1.785 3091
1.921 2.592 1.780 4655
1.838 2.479 1.707 2734
1.924 2.596 1.770 5643
1.836 2.477 1.694 2050
1.936 2.611 1.768 5590
1.856 2.503 1.700 1627
1.947 2.626 1.766 6004
1.867 2.518 1.698 1161
1.954 2.635 1.760 7024
1.874 2.527 1.693 822
1.961 2.645 1.754 5565
2.041 2.753 1.821 984
1.985 2.677 1.762 3478
1.905 2.569 1.696 1643
1.992 2.687 1.756 4074
2.072 2.795 1.823 1889
2.003 2.702 1.754 5648
2.084 2.811 1.819 1696
2.014 2.717 1.751 6777
2.095 2.826 1.816 2378
2.017 2.721 1.741 6947
2.098 2.830 1.806 3025
2.020 2.725 1.731 7767
2.101 2.834 1.796 4358
2.023 2.728 1.722 7258
2.104 2.838 1.786 5100
2.025 2.732 1.712 5080
2.107 2.841 1.776 3797
2.148 2.897 1.796 3744
2.067 2.788 1.732 3157
2.082 2.809 1.732 4460
2.164 2.918 1.795 3938
2.081 2.807 1.719 4709
2.162 2.916 1.782 4090
2.165 2.920 1.771 4380
2.083 2.810 1.709 3758
2.116 2.855 1.721 4942
2.254 3.040 1.826 3897
2.192 2.957 1.766 4814
2.274 3.067 1.828 3512
2.199 2.967 1.759 4862
2.281 3.077 1.820 3309
2.219 2.994 1.761 4801
2.301 3.104 1.822 4107
2.304 3.108 1.811 7397
2.222 2.997 1.750 3390
2.307 3.112 1.800 7960
2.225 3.001 1.740 1905
2.310 3.116 1.788 9511
2.223 2.999 1.726 1595
2.317 3.126 1.780 10441
2.235 3.014 1.721 1575
2.329 3.141 1.775 9101
2.246 3.030 1.717 1867
2.340 3.157 1.770 7048
2.258 3.045 1.712 1881
2.360 3.184 1.771 4270
2.278 3.072 1.713 2578
2.376 3.205 1.769 4594
2.459 3.317 1.826 2374
2.375 3.203 1.754 5399
2.458 3.315 1.811 2939
2.395 3.231 1.755 5977
2.478 3.343 1.811 2731
2.402 3.240 1.746 6670
2.490 3.358 1.805 2840
2.405 3.244 1.734 4230
2.519 3.398 1.811 3188
2.535 3.419 1.807 6469
2.425 3.271 1.734 2470
2.542 3.429 1.798 7406
2.428 3.275 1.723 1447
2.549 3.439 1.789 5213
2.466 3.326 1.734 1542
2.565 3.460 1.785 5079
2.482 3.348 1.731 1667
2.568 3.464 1.772 4856
2.652 3.577 1.826 2400
2.576 3.474 1.763 4546
2.659 3.587 1.816 2568
2.636 3.555 1.787 4660
2.552 3.442 1.734 2490
2.634 3.553 1.771 4775
2.740 3.696 1.838 1900
2.646 3.569 1.764 3058
2.739 3.694 1.822 2467
2.733 3.686 1.803 3317
2.649 3.573 1.751 2626
2.660 3.588 1.744 4587
2.744 3.702 1.795 2429
2.667 3.598 1.733 4247
2.805 3.784 1.817 2799
2.817 3.799 1.808 2830
2.679 3.614 1.726 2228
2.771 3.737 1.766 3693
2.855 3.851 1.816 2869
2.814 3.795 1.776 4334
2.898 3.909 1.825 1326
2.825 3.811 1.767 5622
2.963 3.997 1.848 1690
2.833 3.821 1.756 5876
2.962 3.995 1.831 2557
2.840 3.831 1.745 3667
2.969 4.005 1.819 2782
2.972 4.009 1.805 3920
2.874 3.877 1.749 3870
2.975 4.013 1.790 4530
2.877 3.880 1.735 2837
2.991 4.035 1.783 4311
3.076 4.150 1.830 1870
3.017 4.069 1.781 4050
3.102 4.184 1.828 1936
3.024 4.079 1.769 3042
3.118 4.206 1.820 2781
3.135 4.228 1.812 2601
3.049 4.113 1.766 1662
3.128 4.220 1.792 2325
3.043 4.105 1.747 1002
3.127 4.218 1.775 2494
3.262 4.400 1.846 1315
3.260 4.398 1.828 2324
3.130 4.222 1.759 2323
3.272 4.414 1.816 2275
3.132 4.225 1.744 2036
3.275 4.418 1.801 2044
3.144 4.241 1.734 1150
3.305 4.458 1.798 2188
3.395 4.580 1.844 1673
3.308 4.462 1.782 2982
3.443 4.645 1.850 2254
3.324 4.484 1.773 3381
3.446 4.649 1.834 3128
3.395 4.579 1.790 2931
3.508 4.732 1.846 1782
3.402 4.589 1.776 3413
3.502 4.724 1.824 2246
3.505 4.728 1.807 3028
3.401 4.587 1.757 1968
3.503 4.725 1.788 2899
3.589 4.842 1.829 1232
3.729 5.029 1.875 2112
3.556 4.797 1.794 1930
3.736 5.040 1.859 4238
3.568 4.813 1.781 1462
3.744 5.050 1.843 3667
3.598 4.853 1.777 1526
3.788 5.109 1.844 4624
3.701 4.992 1.805 1521
3.791 5.113 1.825 4579
3.882 5.236 1.866 1762
