-5.603 4.408 1.658 1855
-5.595 4.401 1.634 2196
-5.665 4.457 1.631 2972
-5.675 4.464 1.612 2659
-5.690 4.476 1.594 2548
-5.687 4.474 1.571 2140
-6.320 4.972 1.708 1874
-6.329 4.979 1.686 1821
-6.284 4.943 1.651 1277
-6.624 5.211 1.707 1534
-6.627 5.214 1.683 2282
-6.625 5.212 1.657 2611
-6.940 5.460 1.703 3375
-6.950 5.468 1.679 3616
-6.984 5.495 1.660 3453
-7.000 5.507 1.637 3902
-7.010 5.514 1.613 2609
-7.394 5.817 1.666 2017
-7.397 5.819 1.638 2316
-7.407 5.827 1.612 1759
-7.435 5.849 1.590 1142
-7.438 5.851 1.562 690
-7.441 5.854 1.535 539
-7.444 5.856 1.507 519
-7.447 5.859 1.480 379
-1.780 1.404 1.769 2960
-1.783 1.407 1.763 5921
-1.787 1.409 1.756 5921
-1.791 1.412 1.750 6578
-1.800 1.419 1.748 7329
-1.808 1.426 1.746 9197
-1.812 1.429 1.739 11242
-1.816 1.432 1.733 11242
-1.819 1.435 1.726 13178
-1.818 1.434 1.715 15239
-1.821 1.437 1.708 12470
-1.825 1.439 1.702 9702
-1.829 1.442 1.695 6438
-1.894 1.494 1.742 4505
-1.898 1.497 1.735 5831
-1.896 1.495 1.724 7179
-1.900 1.498 1.717 7167
-1.908 1.505 1.714 6769
-1.928 1.520 1.720 7558
-1.931 1.523 1.713 6131
-1.956 1.542 1.723 4808
-1.938 1.529 1.699 6058
-1.942 1.532 1.692 7412
-1.946 1.534 1.685 6393
-2.017 1.591 1.733 7602
-2.026 1.598 1.730 7834
-2.030 1.601 1.722 8167
-2.039 1.608 1.719 6513
-2.058 1.623 1.724 5350
-2.046 1.614 1.704 5222
-2.050 1.616 1.697 5557
-2.085 1.644 1.714 5210
-2.099 1.656 1.715 6700
-2.103 1.658 1.707 6156
-2.106 1.661 1.699 5175
-2.115 1.668 1.696 4551
-2.151 1.697 1.712 4439
-2.160 1.704 1.708 5614
-2.158 1.702 1.696 5243
-2.156 1.701 1.684 4928
-2.257 1.780 1.747 4757
-2.266 1.787 1.743 7249
-2.270 1.790 1.734 8225
-2.268 1.789 1.722 7335
-2.239 1.766 1.691 7862
-2.248 1.773 1.687 6731
-2.334 1.840 1.735 6708
-2.337 1.843 1.727 6369
-2.330 1.837 1.711 7038
-2.366 1.866 1.725 7921
-2.375 1.873 1.720 7491
-2.390 1.885 1.719 6413
-2.394 1.888 1.710 5928
-2.403 1.895 1.705 5425
-2.473 1.950 1.740 6269
-2.471 1.949 1.727 7450
-2.474 1.951 1.718 5805
-2.478 1.954 1.709 3746
-2.509 1.979 1.717 3516
-2.519 1.986 1.712 4757
-2.522 1.989 1.703 5372
-2.531 1.996 1.697 4903
-2.624 2.070 1.743 4702
-2.628 2.073 1.734 7235
-2.637 2.080 1.727 8450
-2.641 2.083 1.718 7478
-2.650 2.090 1.711 7222
-2.670 2.106 1.712 7458
-2.708 2.136 1.722 9066
-2.723 2.147 1.719 12223
-2.732 2.155 1.712 10372
-2.741 2.162 1.705 5946
-2.790 2.200 1.721 3870
-2.794 2.203 1.711 5623
-2.786 2.197 1.695 6992
-2.784 2.196 1.681 6643
-2.787 2.198 1.671 4683
-2.859 2.255 1.699 4257
-2.857 2.253 1.685 4621
-2.855 2.252 1.671 5500
-2.881 2.272 1.673 4699
-2.885 2.275 1.663 3589
-2.957 2.332 1.689 3513
-2.978 2.349 1.687 5412
-2.976 2.347 1.673 8527
-2.979 2.350 1.662 7843
-2.983 2.352 1.651 5355
-3.061 2.414 1.679 4685
-3.070 2.422 1.670 4964
-3.097 2.443 1.671 6144
-3.106 2.450 1.662 8828
-3.116 2.457 1.654 9808
-3.183 2.510 1.673 7523
-3.186 2.513 1.662 7250
-3.196 2.520 1.653 5391
-3.275 2.583 1.677 6097
-3.290 2.595 1.670 5306
-3.294 2.598 1.658 5027
-3.268 2.577 1.633 6086
-3.277 2.585 1.623 5308
-3.403 2.684 1.667 5001
-3.442 2.715 1.671 3695
-3.463 2.731 1.666 3517
-3.461 2.729 1.650 4815
-3.464 2.732 1.638 8088
-3.474 2.739 1.628 9160
-3.477 2.742 1.615 5960
-3.480 2.745 1.602 2327
-3.631 2.864 1.651 4066
-3.629 2.862 1.636 3981
-3.709 2.925 1.654 3619
-3.724 2.937 1.645 3013
-3.846 3.033 1.679 3779
-3.862 3.046 1.670 5388
-3.889 3.067 1.665 4227
-3.916 3.088 1.660 5089
-3.920 3.091 1.646 3428
-3.994 3.150 1.659 4142
-3.998 3.153 1.644 5558
-4.013 3.165 1.634 4658
-3.999 3.154 1.612 4384
-4.002 3.156 1.598 4033
-4.065 3.206 1.605 4754
-4.075 3.213 1.592 3219
-4.239 3.344 1.635 3798
-4.375 3.450 1.665 2956
-4.414 3.481 1.662 3995
-4.406 3.475 1.641 5782
-4.409 3.477 1.625 6307
-4.418 3.485 1.611 4984
-4.572 3.606 1.645 3305
-4.570 3.604 1.626 3820
-4.651 3.668 1.634 2779
-4.606 3.633 1.602 2306
-4.761 3.755 1.632 2797
-4.951 3.905 1.673 2233
-4.961 3.912 1.657 2817
-4.982 3.929 1.644 1682
-5.064 3.994 1.649 2011
-5.062 3.992 1.629 1701
-5.180 4.085 1.644 1911
-5.372 4.236 1.679 2475
-5.375 4.239 1.659 2646
-5.360 4.228 1.634 1485
-5.443 4.292 1.636 1631
-5.641 4.449 1.670 2157
-5.662 4.466 1.654 2728
-5.660 4.464 1.631 3798
-5.663 4.466 1.610 3496
-5.679 4.479 1.592 3117
-5.682 4.481 1.571 2741
-5.673 4.474 1.547 1752
-6.329 4.992 1.687 1563
-6.803 5.365 1.778 1426
-6.819 5.378 1.756 1386
-6.621 5.222 1.683 2114
-6.618 5.220 1.657 2499
-6.934 5.468 1.703 2869
-6.937 5.471 1.678 2736
-6.984 5.508 1.662 2670
-6.999 5.520 1.638 3349
-7.003 5.523 1.613 2366
-7.380 5.821 1.664 2045
-7.390 5.828 1.638 2333
-7.400 5.836 1.612 1729
-7.428 5.858 1.590 1109
-7.431 5.860 1.562 658
-7.434 5.863 1.535 523
-7.437 5.865 1.507 487
-7.440 5.868 1.480 339
-1.771 1.404 1.764 3438
-1.775 1.407 1.758 6876
-1.779 1.410 1.751 6876
-1.787 1.417 1.750 6915
-1.796 1.424 1.748 7114
-1.805 1.431 1.746 9063
-1.808 1.434 1.739 11112
-1.812 1.436 1.733 11112
-1.816 1.439 1.726 13027
-1.814 1.438 1.715 15119
-1.818 1.441 1.708 12314
-1.821 1.444 1.702 9509
-1.825 1.447 1.695 6156
-1.885 1.494 1.737 4434
-1.889 1.497 1.730 5778
-1.892 1.500 1.724 7122
-1.896 1.503 1.717 7074
-1.910 1.514 1.718 6746
-1.924 1.525 1.720 7953
-1.927 1.528 1.713 6601
-1.952 1.547 1.723 5310
-1.935 1.534 1.699 6455
-1.938 1.536 1.692 7662
-1.942 1.539 1.685 6371
-2.019 1.600 1.737 7180
-2.022 1.603 1.730 7364
-2.031 1.610 1.727 7610
-2.035 1.613 1.719 6217
-2.054 1.628 1.724 5238
-2.047 1.623 1.709 5186
-2.046 1.622 1.697 5535
-2.107 1.671 1.735 5561
-2.106 1.669 1.723 7004
-2.104 1.668 1.711 6354
-2.113 1.675 1.707 5623
-2.117 1.678 1.700 5249
-2.142 1.698 1.708 4984
-2.150 1.705 1.704 5819
-2.154 1.708 1.696 5388
-2.152 1.706 1.684 5029
-2.264 1.794 1.755 4686
-2.267 1.797 1.747 6995
-2.266 1.796 1.734 7959
-2.258 1.790 1.718 7594
-2.240 1.776 1.695 8011
-2.244 1.779 1.687 6884
-2.334 1.851 1.739 6459
-2.322 1.840 1.719 6821
-2.320 1.839 1.707 7495
-2.334 1.850 1.706 7081
-2.371 1.879 1.720 6196
-2.380 1.887 1.715 5551
-2.394 1.898 1.713 5423
-2.398 1.901 1.705 5411
-2.468 1.956 1.740 5997
-2.466 1.955 1.727 7395
-2.469 1.958 1.718 5934
-2.473 1.960 1.709 3956
-2.482 1.968 1.703 3452
-2.508 1.988 1.708 4142
-2.523 2.000 1.706 4534
-2.588 2.051 1.735 5957
-2.613 2.072 1.740 5411
-2.623 2.079 1.734 7661
-2.626 2.082 1.724 8869
-2.630 2.085 1.714 8030
-2.645 2.097 1.711 7391
-2.665 2.113 1.712 7197
-2.703 2.142 1.722 10094
-2.717 2.154 1.719 13364
-2.727 2.161 1.712 10932
-2.736 2.169 1.705 5631
-2.790 2.212 1.725 3935
-2.788 2.210 1.711 6098
-2.786 2.209 1.698 7402
-2.784 2.207 1.684 6850
-2.788 2.210 1.674 4901
-2.854 2.262 1.699 4282
-2.852 2.260 1.685 4838
-2.849 2.259 1.671 6073
-2.881 2.284 1.676 5119
-2.885 2.287 1.666 3717
-2.951 2.340 1.689 3486
-2.966 2.351 1.684 5157
-2.964 2.350 1.670 8154
-2.973 2.357 1.662 7818
-2.977 2.360 1.651 4948
-3.049 2.417 1.676 4074
-3.059 2.425 1.667 4627
-3.091 2.450 1.671 5669
-3.100 2.458 1.662 8062
-3.110 2.465 1.654 9119
-3.177 2.518 1.673 8270
-3.180 2.521 1.662 7952
-3.189 2.528 1.653 6527
-3.257 2.582 1.671 6662
-3.249 2.575 1.654 5554
-3.287 2.606 1.658 4841
-3.256 2.581 1.630 5524
-3.271 2.593 1.623 4978
-3.403 2.697 1.670 4774
-3.406 2.700 1.657 4037
-3.445 2.731 1.661 3359
-3.454 2.738 1.650 4529
-3.463 2.745 1.640 7369
-3.467 2.748 1.628 8798
-3.470 2.751 1.615 5812
-3.626 2.875 1.667 2839
-3.624 2.873 1.651 4467
-3.616 2.866 1.633 4333
-3.702 2.934 1.654 3648
-3.711 2.942 1.643 3364
-3.685 2.921 1.617 2826
-3.854 3.055 1.670 4006
-3.881 3.077 1.665 3410
-3.908 3.098 1.660 3964
-3.977 3.153 1.671 2772
-3.987 3.160 1.659 4422
-3.996 3.168 1.646 5753
-4.005 3.175 1.634 4746
-3.991 3.164 1.612 4195
-3.994 3.166 1.598 3723
-4.057 3.216 1.605 4832
-4.066 3.224 1.592 3417
-4.231 3.354 1.635 3966
-4.223 3.347 1.615 2604
-4.411 3.497 1.664 3447
-4.409 3.495 1.645 4963
-4.418 3.503 1.631 5723
-4.422 3.505 1.615 4919
-4.401 3.489 1.591 3123
-4.555 3.611 1.624 3604
-4.642 3.680 1.634 2956
-4.736 3.754 1.646 2341
-4.751 3.766 1.632 3047
-4.941 3.917 1.673 2356
-4.951 3.925 1.657 3230
-4.966 3.937 1.642 1924
-5.054 4.007 1.649 2084
-5.197 4.120 1.672 1964
-5.176 4.103 1.646 1977
-5.361 4.250 1.679 2566
-5.364 4.253 1.659 2772
-5.532 4.385 1.686 1511
-5.620 4.455 1.689 1796
-5.636 4.467 1.671 2848
-5.651 4.480 1.654 3543
-5.649 4.478 1.631 4857
-5.652 4.480 1.610 4552
-5.667 4.493 1.592 3884
-5.665 4.491 1.570 3541
-5.662 4.488 1.547 2655
-5.671 4.496 1.528 2170
-6.790 5.382 1.778 1572
-6.805 5.395 1.756 1635
-6.608 5.238 1.683 1946
-6.605 5.236 1.657 2403
-6.914 5.481 1.702 2462
-6.918 5.484 1.676 2108
-6.970 5.525 1.662 1869
-6.992 5.543 1.640 2637
-6.995 5.545 1.614 1996
-7.366 5.839 1.664 2028
-7.375 5.847 1.638 2272
-7.385 5.854 1.612 1638
-7.413 5.876 1.590 1061
-7.416 5.879 1.562 627
-7.419 5.882 1.535 505
-7.423 5.884 1.507 443
-7.426 5.886 1.480 300
-0.570 0.452 0.168 270
-0.576 0.457 0.166 306
-0.570 0.452 0.164 307
-0.558 0.442 0.162 277
-1.768 1.408 1.764 3888
-1.772 1.411 1.758 7777
-1.775 1.414 1.751 7777
-1.784 1.421 1.750 7115
-1.793 1.428 1.748 6769
-1.802 1.435 1.746 8717
-1.805 1.438 1.739 10704
-1.809 1.441 1.733 10704
-1.812 1.444 1.726 12635
-1.811 1.442 1.715 14841
-1.815 1.445 1.708 12115
-1.813 1.444 1.697 9416
-1.817 1.447 1.691 5971
-1.876 1.494 1.733 4574
-1.885 1.501 1.730 5815
-1.889 1.504 1.724 7084
-1.887 1.503 1.712 7037
-1.912 1.522 1.723 6719
-1.926 1.534 1.725 8243
-1.929 1.536 1.718 7001
-1.943 1.548 1.719 5761
-1.931 1.538 1.699 6856
-1.935 1.541 1.692 7967
-1.938 1.544 1.685 6416
-2.015 1.605 1.737 6606
-2.024 1.612 1.734 6662
-2.027 1.615 1.727 6779
-2.031 1.618 1.719 5792
-2.045 1.629 1.720 5091
-2.044 1.628 1.709 5266
-2.042 1.626 1.697 5641
-2.104 1.675 1.735 6043
-2.107 1.678 1.727 7482
-2.106 1.677 1.715 6841
-2.115 1.684 1.711 6265
-2.118 1.687 1.704 6054
-2.127 1.694 1.700 5546
-2.141 1.705 1.700 5806
-2.145 1.708 1.692 5420
-2.148 1.711 1.684 5035
-2.265 1.804 1.759 4708
-2.263 1.802 1.747 6781
-2.256 1.797 1.731 7635
-2.254 1.795 1.718 7817
-2.236 1.781 1.695 7956
-2.245 1.788 1.690 6871
-2.325 1.851 1.735 6684
-2.317 1.846 1.719 7872
-2.316 1.844 1.707 7980
-2.325 1.851 1.702 6563
-2.361 1.880 1.716 4985
-2.376 1.892 1.715 4917
-2.390 1.904 1.713 5018
-2.394 1.906 1.705 5553
-2.458 1.957 1.736 5646
-2.461 1.960 1.727 7162
-2.465 1.963 1.718 5931
-2.469 1.966 1.709 4168
-2.516 2.004 1.728 3756
-2.503 1.994 1.708 3921
-2.563 2.041 1.734 4864
-2.577 2.053 1.732 7077
-2.581 2.056 1.722 6505
-2.612 2.081 1.730 8004
-2.622 2.088 1.724 8855
-2.620 2.086 1.711 8368
-2.634 2.098 1.708 7259
-2.672 2.128 1.719 6738
-2.698 2.148 1.722 10870
-2.707 2.156 1.715 13916
-2.716 2.163 1.709 11045
-2.731 2.175 1.705 5250
-2.785 2.218 1.725 4092
-2.789 2.221 1.714 6468
-2.787 2.219 1.701 7581
-2.785 2.218 1.688 6877
-2.783 2.216 1.674 5313
-2.780 2.214 1.661 4339
-2.841 2.262 1.682 4937
-2.844 2.265 1.671 6646
-2.876 2.291 1.676 5614
-2.885 2.298 1.669 4058
-2.883 2.296 1.655 3632
-2.955 2.354 1.681 4691
-2.959 2.356 1.670 7609
-2.968 2.364 1.662 7470
-2.983 2.376 1.657 4864
-3.021 2.406 1.664 4058
-3.042 2.422 1.661 4404
-3.085 2.457 1.671 5199
-3.095 2.465 1.662 7195
-3.104 2.472 1.654 8379
-3.171 2.525 1.673 8515
-3.174 2.528 1.662 8242
-3.184 2.536 1.653 7443
-3.239 2.580 1.666 7118
-3.231 2.573 1.648 6734
-3.235 2.576 1.637 5567
-3.244 2.584 1.627 4798
-3.329 2.651 1.653 4714
-3.396 2.705 1.670 4260
-3.400 2.708 1.657 4226
-3.427 2.729 1.655 3545
-3.442 2.741 1.648 4408
-3.457 2.753 1.640 6752
-3.460 2.756 1.628 8203
-3.464 2.759 1.615 5424
-3.620 2.883 1.667 3583
-3.612 2.876 1.649 4894
-3.609 2.874 1.633 4701
-3.689 2.938 1.651 3551
-3.693 2.941 1.638 3950
-3.684 2.934 1.619 3758
-3.682 2.932 1.603 2900
-3.880 3.090 1.668 2561
-3.889 3.098 1.656 2779
-3.964 3.157 1.669 3089
-3.979 3.169 1.659 4668
-3.989 3.177 1.646 5945
-3.998 3.184 1.634 4683
-3.996 3.182 1.617 3722
-4.076 3.246 1.631 4069
-4.050 3.225 1.605 5089
-4.059 3.233 1.592 3603
-4.223 3.364 1.635 4024
-4.334 3.452 1.657 2625
-4.302 3.426 1.628 3457
-4.407 3.510 1.648 4288
-4.416 3.517 1.633 5287
-4.420 3.520 1.617 4701
-4.531 3.609 1.637 2991
-4.534 3.611 1.620 3425
-4.640 3.695 1.636 3319
-4.727 3.765 1.646 2324
-4.743 3.777 1.632 3219
-4.746 3.780 1.615 2578
-4.942 3.936 1.657 3393
-4.951 3.943 1.640 2125
-5.033 4.009 1.646 2229
-5.193 4.136 1.674 2243
-5.179 4.125 1.649 2078
-5.357 4.267 1.681 2469
-5.355 4.265 1.659 2720
-5.515 4.393 1.684 1459
-5.616 4.473 1.690 2253
-5.625 4.480 1.671 3495
-5.635 4.488 1.652 4328
-5.638 4.491 1.631 5821
-5.642 4.493 1.610 5500
-5.651 4.501 1.591 4599
-5.654 4.503 1.570 4340
-5.652 4.501 1.547 3645
-5.661 4.508 1.528 3150
-5.658 4.506 1.506 2238
-6.793 5.410 1.756 1810
-6.602 5.258 1.684 1791
-6.599 5.256 1.659 2244
-6.895 5.492 1.701 2110
-6.893 5.490 1.674 1820
-7.317 5.828 1.741 1465
-6.979 5.558 1.640 1875
-6.983 5.561 1.614 1593
-7.353 5.856 1.664 1867
-7.362 5.863 1.638 2144
-7.396 5.891 1.617 1464
-7.399 5.893 1.590 982
-7.403 5.896 1.562 608
-7.406 5.898 1.535 492
-7.409 5.901 1.507 421
-7.412 5.903 1.480 287
-1.766 1.411 1.764 4265
-1.770 1.413 1.758 8531
-1.774 1.416 1.751 8531
-1.777 1.419 1.745 7234
-1.796 1.434 1.752 6318
-1.800 1.437 1.746 8165
-1.808 1.444 1.744 10025
-1.812 1.447 1.737 10025
-1.810 1.446 1.726 11981
-1.804 1.441 1.710 14353
-1.808 1.444 1.704 11823
-1.811 1.446 1.697 9293
-1.810 1.445 1.686 5796
-1.874 1.497 1.733 4867
-1.878 1.500 1.726 5922
-1.887 1.507 1.724 6992
-1.885 1.506 1.712 6985
-1.909 1.525 1.723 6664
-1.923 1.536 1.725 8337
-1.927 1.539 1.718 7294
-1.931 1.542 1.710 6250
-1.929 1.541 1.699 7146
-1.927 1.539 1.688 8120
-1.931 1.542 1.681 6379
-2.018 1.612 1.741 5967
-2.022 1.615 1.734 5880
-2.025 1.618 1.727 5792
-2.034 1.625 1.723 5386
-2.038 1.627 1.716 5059
-2.041 1.630 1.709 5456
-2.045 1.633 1.701 5852
-2.107 1.683 1.739 6636
-2.105 1.681 1.727 8077
-2.109 1.684 1.719 7453
-2.112 1.687 1.711 6900
-2.116 1.690 1.704 6681
-2.125 1.697 1.700 5954
-2.139 1.708 1.700 5740
-2.142 1.711 1.692 5331
-2.146 1.714 1.684 4922
-2.257 1.803 1.755 4633
-2.266 1.810 1.751 6440
-2.254 1.800 1.731 7164
-2.252 1.798 1.718 7740
-2.239 1.788 1.699 7619
-2.243 1.791 1.690 6656
-2.311 1.846 1.728 7295
-2.315 1.849 1.719 8876
-2.313 1.847 1.707 8382
-2.317 1.850 1.699 6204
-2.326 1.857 1.694 4493
-2.373 1.895 1.715 4553
-2.382 1.902 1.710 4740
-2.391 1.910 1.705 5645
-2.455 1.961 1.736 5268
-2.459 1.964 1.727 6822
-2.462 1.967 1.718 5774
-2.471 1.974 1.712 4220
-2.481 1.981 1.707 3775
-2.501 1.997 1.708 3836
-2.582 2.062 1.748 4237
-2.586 2.065 1.739 7023
-2.589 2.068 1.729 7660
-2.604 2.080 1.727 8402
-2.613 2.087 1.720 8419
-2.622 2.094 1.714 8238
-2.626 2.097 1.705 6722
-2.674 2.136 1.722 6396
-2.695 2.152 1.722 11432
-2.704 2.160 1.715 14283
-2.708 2.162 1.706 11085
-2.711 2.165 1.696 5671
-2.782 2.222 1.725 4278
-2.786 2.225 1.714 6734
-2.789 2.228 1.704 7600
-2.787 2.226 1.691 6723
-2.785 2.224 1.677 5576
-2.789 2.227 1.667 4844
-2.838 2.266 1.682 5039
-2.841 2.269 1.671 7065
-2.873 2.295 1.676 6078
-2.882 2.302 1.669 4536
-2.886 2.305 1.658 3976
-2.941 2.349 1.675 4127
-2.950 2.356 1.667 6741
-2.965 2.368 1.662 6642
-2.991 2.389 1.663 5326
-3.006 2.401 1.658 4485
-3.038 2.427 1.661 4357
-3.082 2.462 1.671 4920
-3.091 2.469 1.662 6198
-3.106 2.481 1.656 7595
-3.162 2.525 1.670 8404
-3.171 2.533 1.662 8176
-3.180 2.540 1.653 8018
-3.207 2.561 1.652 7725
-3.216 2.569 1.643 8352
-3.220 2.571 1.631 7128
-3.229 2.579 1.622 4590
-3.319 2.651 1.650 4339
-3.399 2.714 1.673 3743
-3.402 2.717 1.660 4162
-3.411 2.725 1.650 3935
-3.438 2.746 1.648 4246
-3.453 2.758 1.640 6082
-3.457 2.761 1.628 7268
-3.460 2.763 1.615 4717
-3.616 2.888 1.667 4324
-3.602 2.877 1.646 5038
-3.605 2.879 1.633 4656
-3.644 2.910 1.634 3979
-3.683 2.941 1.635 4492
-3.680 2.939 1.619 4410
-3.678 2.937 1.603 3240
-3.740 2.987 1.613 2637
-3.927 3.136 1.672 2508
-3.960 3.162 1.669 3206
-3.975 3.175 1.659 4662
-3.984 3.182 1.646 5969
-3.994 3.190 1.634 4429
-4.003 3.197 1.621 3307
-4.078 3.257 1.633 3938
-4.051 3.236 1.607 4940
-4.204 3.357 1.646 3727
-4.213 3.365 1.632 4089
-4.204 3.358 1.613 2779
-4.303 3.437 1.630 3963
-4.319 3.449 1.619 3564
-4.423 3.533 1.637 4584
-4.421 3.531 1.619 4045
-4.514 3.605 1.633 2935
-4.517 3.608 1.616 3292
-4.635 3.702 1.636 3289
-4.728 3.776 1.648 2282
-4.743 3.788 1.634 3358
-4.747 3.791 1.617 2749
-4.937 3.943 1.657 3274
-4.946 3.950 1.640 2186
-5.022 4.011 1.644 2323
-5.188 4.143 1.674 2240
-5.179 4.136 1.651 2109
-5.352 4.274 1.681 2290
-5.349 4.272 1.659 2514
-5.516 4.405 1.686 1436
-5.616 4.485 1.692 2571
-5.619 4.488 1.671 4002
-5.629 4.496 1.652 4986
-5.632 4.498 1.631 6561
-5.636 4.501 1.610 6118
-5.645 4.508 1.591 5010
-5.648 4.511 1.570 4863
-5.645 4.509 1.547 4398
-5.655 4.516 1.528 3904
-5.652 4.514 1.506 2833
-6.798 5.429 1.758 1905
-6.504 5.194 1.663 1789
-6.592 5.265 1.659 2021
-6.882 5.496 1.699 1939
-6.879 5.494 1.672 1750
-6.816 5.443 1.632 1631
-7.307 5.836 1.712 1518
-7.207 5.756 1.663 1351
-7.351 5.871 1.666 1701
-7.354 5.873 1.638 1899
-7.388 5.901 1.617 1248
-7.391 5.903 1.590 875
-7.395 5.906 1.562 573
-7.398 5.908 1.535 445
-7.401 5.911 1.507 357
-0.568 0.454 0.166 291
-0.568 0.454 0.164 297
-0.562 0.449 0.162 253
-1.758 1.411 1.760 4675
-1.762 1.414 1.753 9351
-1.765 1.416 1.747 9351
-1.774 1.423 1.745 7527
-1.788 1.434 1.748 6020
-1.796 1.441 1.746 7529
-1.805 1.448 1.744 9151
-1.809 1.451 1.737 9151
-1.807 1.450 1.726 11064
-1.801 1.445 1.710 13698
-1.804 1.448 1.704 11347
-1.803 1.446 1.693 9090
-1.801 1.445 1.682 5573
-1.866 1.497 1.728 5238
-1.875 1.504 1.726 6106
-1.878 1.507 1.719 7046
-1.882 1.510 1.712 7039
-1.906 1.529 1.723 6685
-1.920 1.541 1.725 8358
-1.924 1.543 1.718 7493
-1.927 1.546 1.710 6628
-1.926 1.545 1.699 7345
-1.924 1.544 1.688 8188
-1.927 1.547 1.681 6317
-2.014 1.616 1.741 5395
-2.018 1.619 1.734 5081
-2.027 1.626 1.731 4770
-2.025 1.625 1.719 5082
-2.029 1.628 1.712 5397
-2.032 1.631 1.704 5795
-2.041 1.638 1.701 6267
-2.103 1.687 1.739 7469
-2.106 1.690 1.731 8868
-2.105 1.689 1.719 8215
-2.108 1.692 1.711 7554
-2.112 1.695 1.704 7110
-2.121 1.702 1.700 6054
-2.130 1.709 1.696 5457
-2.139 1.716 1.692 5017
-2.142 1.719 1.684 4657
-2.253 1.808 1.755 4488
-2.262 1.815 1.751 6039
-2.249 1.805 1.731 6603
-2.242 1.799 1.715 7439
-2.240 1.798 1.702 7102
-2.309 1.853 1.740 6718
-2.307 1.851 1.728 8022
-2.311 1.854 1.719 9617
-2.309 1.853 1.707 8473
-2.312 1.856 1.699 5761
-2.321 1.863 1.694 4313
-2.363 1.896 1.711 4209
-2.372 1.903 1.706 4384
-2.387 1.915 1.705 5342
-2.385 1.914 1.692 5121
-2.454 1.969 1.727 6328
-2.463 1.977 1.721 5456
-2.472 1.984 1.716 4157
-2.482 1.991 1.710 3900
-2.502 2.007 1.712 3941
-2.583 2.072 1.752 4930
-2.586 2.075 1.742 7362
-2.590 2.078 1.733 8477
-2.599 2.086 1.727 8850
-2.608 2.093 1.720 7951
-2.618 2.100 1.714 7974
-2.627 2.108 1.708 6050
-2.675 2.146 1.725 6132
-2.690 2.158 1.722 11586
-2.693 2.161 1.712 14123
-2.697 2.164 1.702 10979
-2.701 2.167 1.692 6521
-2.777 2.228 1.725 4408
-2.786 2.236 1.718 6812
-2.784 2.234 1.704 7478
-2.782 2.232 1.691 6559
-2.786 2.235 1.680 5969
-2.789 2.238 1.670 5863
-2.895 2.323 1.716 5413
-2.836 2.276 1.671 7250
-2.874 2.306 1.679 6560
-2.877 2.308 1.669 5104
-2.880 2.311 1.658 4289
-2.895 2.323 1.654 4031
-2.939 2.358 1.664 5683
-2.971 2.384 1.668 5745
-2.986 2.396 1.663 6270
-3.001 2.408 1.658 5093
-3.033 2.433 1.661 4158
-3.071 2.464 1.668 4756
-3.086 2.476 1.662 5364
-3.106 2.493 1.659 6875
-3.144 2.523 1.665 8263
-3.165 2.540 1.662 7891
-3.174 2.547 1.653 8123
-3.195 2.564 1.649 8416
-3.204 2.571 1.640 9727
-3.214 2.579 1.631 8611
-3.217 2.581 1.619 4900
-3.319 2.663 1.653 3791
-3.392 2.722 1.673 3456
-3.396 2.725 1.660 3891
-3.405 2.732 1.650 3850
-3.432 2.754 1.648 4012
-3.447 2.766 1.640 5380
-3.450 2.769 1.628 6067
-3.454 2.771 1.615 3929
-3.609 2.896 1.667 4940
-3.595 2.885 1.646 5065
-3.593 2.883 1.631 4566
-3.649 2.928 1.639 4186
-3.670 2.945 1.633 4741
-3.679 2.952 1.622 4524
-3.736 2.998 1.630 3499
-3.745 3.005 1.618 2946
-3.920 3.145 1.672 3010
-3.947 3.167 1.667 3225
-3.968 3.184 1.659 4684
-3.977 3.191 1.646 6120
-3.992 3.203 1.636 4175
-4.002 3.211 1.624 2906
-4.070 3.266 1.633 3530
-4.097 3.288 1.627 4799
-4.196 3.367 1.646 3826
-4.199 3.369 1.630 4253
-4.191 3.363 1.610 3164
-4.289 3.442 1.628 3926
-4.418 3.545 1.656 3531
-4.421 3.548 1.639 4557
-4.407 3.536 1.617 3506
-4.595 3.687 1.663 3142
-4.617 3.705 1.651 3214
-4.626 3.712 1.636 3094
-4.725 3.792 1.650 2643
-4.741 3.804 1.636 3798
-4.738 3.802 1.617 2977
-4.934 3.959 1.659 2991
-4.937 3.961 1.640 2102
-5.007 4.017 1.642 2470
-5.172 4.150 1.672 2053
-5.170 4.148 1.651 1902
-5.342 4.286 1.681 2106
-5.339 4.284 1.659 2216
-5.512 4.422 1.687 1597
-5.515 4.425 1.667 2987
-5.609 4.501 1.671 4303
-5.619 4.508 1.652 5323
-5.622 4.511 1.631 6811
-5.625 4.514 1.610 6299
-5.635 4.521 1.591 5101
-5.638 4.524 1.570 5028
-5.635 4.522 1.547 4708
-5.644 4.529 1.528 4204
-5.642 4.527 1.506 3045
-6.798 5.454 1.761 1968
-6.801 5.457 1.736 2070
-6.817 5.470 1.714 1929
-6.863 5.507 1.698 1981
-6.867 5.510 1.672 1773
-6.803 5.459 1.632 1771
-7.288 5.848 1.711 1288
-7.194 5.772 1.663 1398
-7.343 5.892 1.667 1581
-7.347 5.895 1.640 1593
-7.375 5.917 1.617 979
-7.378 5.920 1.590 778
-7.381 5.923 1.562 568
-7.384 5.925 1.535 421
-7.388 5.928 1.507 324
-1.759 1.409 1.760 4930
-1.763 1.412 1.753 9861
-1.766 1.415 1.747 9861
-1.775 1.422 1.745 7655
-1.784 1.429 1.743 5672
-1.797 1.440 1.746 6646
-1.806 1.447 1.744 7923
-1.810 1.450 1.737 7923
-1.803 1.445 1.721 9932
-1.797 1.439 1.706 12730
-1.800 1.442 1.699 10668
-1.799 1.441 1.688 8668
-1.848 1.481 1.722 5364
-1.867 1.496 1.728 5511
-1.876 1.503 1.726 6192
-1.879 1.506 1.719 7042
-1.883 1.508 1.712 7030
-1.902 1.524 1.718 6656
-1.921 1.539 1.725 8229
-1.925 1.542 1.718 7505
-1.928 1.545 1.710 6782
-1.927 1.543 1.699 7359
-1.925 1.542 1.688 8064
-1.923 1.541 1.676 6162
-2.016 1.615 1.741 4823
-2.019 1.618 1.734 4321
-2.023 1.620 1.727 3819
-2.026 1.623 1.719 4835
-2.030 1.626 1.712 5851
-2.034 1.629 1.704 6223
-2.101 1.683 1.746 6890
-2.104 1.686 1.739 8277
-2.108 1.689 1.731 9663
-2.111 1.691 1.723 8960
-2.110 1.690 1.711 8101
-2.119 1.697 1.708 7301
-2.122 1.700 1.700 5857
-2.131 1.707 1.696 4965
-2.140 1.714 1.692 4590
-2.143 1.717 1.684 4352
-2.254 1.806 1.755 4313
-2.263 1.813 1.751 5631
-2.246 1.799 1.727 6048
-2.244 1.797 1.715 6969
-2.247 1.800 1.706 6588
-2.310 1.851 1.740 7002
-2.309 1.849 1.728 8417
-2.312 1.852 1.719 9929
-2.316 1.855 1.711 8334
-2.352 1.884 1.725 5283
-2.361 1.891 1.720 4593
-2.365 1.894 1.711 4069
-2.335 1.871 1.680 4637
-2.383 1.909 1.701 5090
-2.386 1.912 1.692 4983
-2.461 1.972 1.730 5839
-2.476 1.983 1.729 5230
-2.485 1.991 1.723 4317
-2.489 1.994 1.714 4151
-2.503 2.005 1.712 4194
-2.573 2.061 1.745 5923
-2.583 2.069 1.739 8170
-2.592 2.076 1.733 8948
-2.601 2.084 1.727 8637
-2.616 2.095 1.724 7185
-2.625 2.103 1.718 7402
-2.634 2.110 1.711 5418
-2.677 2.144 1.725 5985
-2.692 2.156 1.722 11269
-2.695 2.159 1.712 13494
-2.699 2.162 1.702 10664
-2.697 2.160 1.689 7106
-2.700 2.163 1.679 4676
-2.783 2.229 1.714 6577
-2.792 2.236 1.707 7006
-2.790 2.235 1.694 6220
-2.793 2.238 1.684 6341
-2.797 2.240 1.673 6893
-2.897 2.320 1.716 5598
-2.838 2.273 1.671 7034
-2.875 2.303 1.679 6675
-2.879 2.306 1.669 5375
-2.882 2.309 1.658 4335
-2.897 2.321 1.654 3919
-2.941 2.356 1.664 4651
-2.984 2.391 1.674 5486
-2.993 2.398 1.666 7278
-2.997 2.401 1.655 5849
-3.035 2.431 1.661 3865
-3.061 2.452 1.662 4548
-3.082 2.469 1.659 4844
-3.114 2.495 1.662 6417
-3.135 2.511 1.659 8025
-3.161 2.533 1.659 7138
-3.177 2.545 1.653 7545
-3.197 2.561 1.649 8528
-3.207 2.569 1.640 10543
-3.216 2.576 1.631 9464
-3.225 2.583 1.622 5152
-3.321 2.661 1.653 3229
-3.395 2.719 1.673 3143
-3.416 2.736 1.668 3495
-3.419 2.739 1.655 3375
-3.440 2.756 1.650 3781
-3.455 2.768 1.643 4743
-3.453 2.766 1.628 4947
-3.614 2.895 1.683 4009
-3.612 2.893 1.667 5413
-3.592 2.877 1.644 4700
-3.589 2.875 1.628 4203
-3.657 2.930 1.642 4274
-3.672 2.942 1.633 4677
-3.688 2.954 1.624 4466
-3.738 2.995 1.630 3589
-3.759 3.011 1.623 3145
-3.916 3.137 1.670 3505
-3.931 3.149 1.660 3130
-3.970 3.181 1.659 4459
-3.980 3.188 1.646 6021
-4.001 3.205 1.638 3797
-4.010 3.213 1.626 2540
-4.043 3.239 1.622 3298
-4.100 3.285 1.627 4489
-4.199 3.363 1.646 3611
-4.196 3.361 1.628 4193
-4.188 3.355 1.608 3281
-4.292 3.438 1.628 3448
-4.427 3.546 1.658 3766
-4.424 3.544 1.639 4673
-4.595 3.681 1.680 3509
-4.598 3.684 1.663 3350
-4.620 3.701 1.651 3228
-4.629 3.708 1.636 2945
-4.734 3.793 1.652 3109
-4.744 3.800 1.636 4098
-4.741 3.798 1.617 2996
-4.943 3.960 1.661 2565
-4.844 3.881 1.611 2191
-5.010 4.013 1.642 2497
-4.935 3.953 1.600 1953
-5.498 4.405 1.747 1543
-5.351 4.287 1.683 1986
-5.343 4.280 1.659 1919
-5.515 4.418 1.687 2049
-5.519 4.421 1.667 3502
-5.516 4.419 1.645 4417
-5.622 4.504 1.652 5242
-5.626 4.507 1.631 6513
-5.629 4.509 1.610 6012
-5.638 4.517 1.591 4871
-5.642 4.519 1.570 4795
-5.639 4.517 1.547 4544
-5.648 4.525 1.528 4031
-5.645 4.522 1.506 2909
-6.808 5.454 1.763 2034
-6.812 5.457 1.738 2268
-6.828 5.469 1.715 2306
-6.862 5.497 1.697 2107
-6.871 5.504 1.672 1819
-6.808 5.454 1.632 1822
-6.817 5.461 1.608 1320
-7.198 5.766 1.663 1358
-7.348 5.886 1.667 1488
-7.352 5.889 1.640 1303
-7.379 5.912 1.617 783
-7.383 5.914 1.590 732
-7.386 5.917 1.562 570
-7.389 5.919 1.535 390
-7.392 5.922 1.507 286
-1.756 1.413 1.760 5076
-1.760 1.416 1.753 10153
-1.764 1.419 1.747 10153
-1.772 1.425 1.745 7581
-1.776 1.428 1.738 5221
-1.790 1.439 1.741 5761
-1.803 1.450 1.744 6836
-1.807 1.453 1.737 6836
-1.800 1.448 1.721 9081
-1.794 1.443 1.706 12091
-1.797 1.446 1.699 10169
-1.796 1.445 1.688 8324
-1.850 1.488 1.726 5691
-1.864 1.499 1.728 5650
-1.873 1.506 1.726 6203
-1.876 1.509 1.719 6999
-1.880 1.512 1.712 6997
-1.899 1.527 1.718 6689
-1.918 1.543 1.725 8045
-1.922 1.546 1.718 7400
-1.920 1.544 1.706 6757
-1.924 1.547 1.699 7261
-1.922 1.546 1.688 7874
-1.920 1.545 1.676 6035
-2.012 1.619 1.741 4363
-2.016 1.622 1.734 3773
-1.983 1.595 1.697 3449
-2.018 1.623 1.715 4812
-2.022 1.626 1.708 6381
-2.030 1.633 1.704 6562
-2.097 1.687 1.746 7671
-2.101 1.690 1.739 9049
-2.104 1.693 1.731 10427
-2.103 1.691 1.719 9687
-2.106 1.694 1.711 8592
-2.115 1.701 1.708 7369
-2.124 1.709 1.704 5482
-2.122 1.707 1.692 4387
-2.137 1.718 1.692 4160
-2.145 1.726 1.688 4132
-2.251 1.810 1.755 4065
-2.260 1.818 1.751 5086
-2.242 1.803 1.727 5532
-2.240 1.802 1.715 6506
-2.249 1.809 1.710 6125
-2.307 1.855 1.740 7025
-2.305 1.854 1.728 8440
-2.309 1.857 1.719 9789
-2.312 1.860 1.711 7901
-2.359 1.898 1.732 6057
-2.363 1.900 1.724 5100
-2.334 1.877 1.693 4040
-2.332 1.876 1.680 4797
-2.379 1.914 1.701 4752
-2.383 1.916 1.692 4774
-2.468 1.985 1.738 5622
-2.478 1.993 1.732 5353
-2.487 2.000 1.727 4701
-2.490 2.003 1.717 4443
-2.499 2.010 1.712 4485
-2.569 2.067 1.745 6626
-2.578 2.074 1.739 8692
-2.588 2.081 1.733 9295
-2.591 2.084 1.723 8658
-2.617 2.105 1.727 6892
-2.632 2.117 1.724 7547
-2.641 2.124 1.718 5714
-2.672 2.150 1.725 5898
-2.687 2.161 1.722 10551
-2.691 2.164 1.712 12286
-2.689 2.163 1.699 10015
-2.692 2.166 1.689 7438
-2.696 2.168 1.679 5162
-2.778 2.235 1.714 6049
-2.787 2.242 1.707 6188
-2.785 2.240 1.694 5665
-2.794 2.248 1.687 6545
-2.792 2.246 1.673 7737
-2.801 2.253 1.666 6146
-2.833 2.279 1.671 6605
-2.871 2.309 1.679 6608
-2.880 2.316 1.672 5531
-2.883 2.319 1.661 4254
-2.955 2.377 1.687 3815
-2.959 2.380 1.676 4016
-2.979 2.396 1.674 5748
-2.989 2.404 1.666 8151
-2.992 2.407 1.655 6528
-3.001 2.414 1.647 3602
-3.056 2.458 1.662 4271
-3.077 2.475 1.659 4648
-3.115 2.505 1.665 6163
-3.124 2.513 1.656 7742
-3.151 2.534 1.656 6230
-3.166 2.546 1.650 6771
-3.192 2.568 1.649 8323
-3.201 2.575 1.640 10879
-3.211 2.582 1.631 9920
-3.220 2.590 1.622 5492
-3.322 2.672 1.656 2725
-3.389 2.726 1.673 2977
-3.416 2.748 1.671 3413
-3.425 2.755 1.661 3393
-3.435 2.762 1.650 3636
-3.450 2.775 1.643 3909
-3.453 2.777 1.630 3856
-3.608 2.902 1.683 5033
-3.606 2.900 1.667 6031
-3.586 2.884 1.644 4275
-3.578 2.878 1.626 3833
-3.652 2.937 1.642 4187
-3.673 2.954 1.635 4391
-3.682 2.961 1.624 4169
-3.732 3.002 1.630 3612
-3.765 3.028 1.628 3385
-3.910 3.145 1.670 3863
-3.919 3.152 1.657 3227
-3.964 3.188 1.659 4119
-3.967 3.191 1.644 5707
-4.000 3.218 1.641 3209
-4.016 3.230 1.630 2159
-4.025 3.237 1.618 3026
-4.034 3.245 1.605 4161
-4.192 3.372 1.646 3278
-4.189 3.370 1.628 4030
-4.181 3.363 1.608 3282
-4.285 3.447 1.628 3141
-4.420 3.555 1.658 3917
-4.417 3.553 1.639 4730
-4.582 3.685 1.678 3471
-4.591 3.693 1.663 3269
-4.612 3.710 1.651 3159
-4.616 3.713 1.634 2611
-4.727 3.802 1.652 3341
-4.730 3.805 1.634 4126
-4.734 3.807 1.617 2854
-4.941 3.974 1.663 2341
-4.836 3.890 1.611 2328
-4.996 4.018 1.640 2378
-4.927 3.963 1.600 1846
-5.490 4.415 1.747 1587
-5.493 4.418 1.726 2098
-5.491 4.416 1.704 2215
-5.506 4.429 1.687 2547
-5.510 4.432 1.667 3860
-5.507 4.430 1.645 4595
-5.613 4.515 1.652 4777
-5.617 4.518 1.631 5737
-5.620 4.520 1.610 5271
-5.629 4.528 1.591 4323
-5.633 4.531 1.570 4286
-5.630 4.528 1.547 4143
-5.639 4.536 1.528 3681
-5.636 4.533 1.506 2640
-6.803 5.472 1.764 2083
-6.813 5.480 1.740 2470
-6.817 5.483 1.715 2670
-6.851 5.510 1.697 2235
-6.860 5.518 1.672 1849
-6.797 5.467 1.632 1769
-6.812 5.479 1.609 1328
-7.187 5.781 1.663 1299
-7.337 5.901 1.667 1382
-7.340 5.904 1.640 1055
-7.368 5.926 1.617 766
-7.371 5.929 1.590 847
-7.374 5.931 1.562 624
-7.378 5.934 1.535 408
-7.381 5.936 1.507 277
-0.591 0.476 0.167 298
-0.591 0.476 0.165 323
-0.585 0.471 0.163 252
-1.754 1.415 1.760 5192
-1.758 1.418 1.753 10384
-1.762 1.421 1.747 10384
-1.765 1.424 1.740 7589
-1.774 1.431 1.738 4889
-1.783 1.438 1.737 4902
-1.806 1.457 1.748 5682
-1.810 1.460 1.742 5682
-1.794 1.446 1.717 8009
-1.792 1.445 1.706 11065
-1.791 1.444 1.695 9425
-1.794 1.447 1.688 7888
-1.848 1.491 1.726 5882
-1.857 1.498 1.724 5590
-1.866 1.505 1.722 6056
-1.880 1.516 1.724 6868
-1.878 1.515 1.712 6844
-1.897 1.530 1.718 6714
-1.916 1.545 1.725 7816
-1.915 1.544 1.713 7178
-1.918 1.547 1.706 6566
-1.922 1.550 1.699 6993
-1.920 1.548 1.688 7574
-1.918 1.547 1.676 5870
-2.005 1.617 1.737 4370
-2.009 1.620 1.730 4074
-1.986 1.602 1.701 4544
-2.011 1.622 1.711 5619
-2.014 1.624 1.703 7291
-2.023 1.632 1.700 7139
-2.095 1.690 1.746 8248
-2.099 1.692 1.739 9672
-2.102 1.695 1.731 11096
-2.101 1.694 1.719 10375
-2.110 1.701 1.715 9059
-2.113 1.704 1.708 7320
-2.122 1.711 1.704 4978
-2.216 1.787 1.764 3853
-2.225 1.794 1.760 3827
-2.143 1.728 1.688 4052
-2.248 1.813 1.755 3819
-2.257 1.821 1.751 4530
-2.240 1.806 1.727 5034
-2.243 1.809 1.718 6004
-2.306 1.860 1.752 5732
-2.304 1.858 1.740 6992
-2.303 1.857 1.728 8358
-2.312 1.864 1.723 9465
-2.331 1.880 1.726 7694
-2.357 1.901 1.732 6977
-2.366 1.908 1.727 5739
-2.364 1.906 1.715 4090
-2.329 1.879 1.680 4825
-2.371 1.912 1.697 4504
-2.468 1.990 1.750 4816
-2.471 1.993 1.741 5598
-2.480 2.000 1.736 5619
-2.490 2.008 1.730 5197
-2.488 2.006 1.717 4782
-2.497 2.014 1.712 4920
-2.567 2.070 1.745 6974
-2.576 2.077 1.739 8873
-2.579 2.080 1.729 9715
-2.583 2.083 1.720 8951
-2.631 2.122 1.738 6568
-2.635 2.125 1.728 7547
-2.644 2.132 1.722 6206
-2.675 2.157 1.729 5903
-2.684 2.165 1.722 9558
-2.688 2.168 1.712 10672
-2.686 2.166 1.699 9404
-2.695 2.174 1.692 7863
-2.699 2.176 1.682 5482
-2.775 2.238 1.714 5407
-2.784 2.246 1.707 5243
-2.788 2.248 1.697 5065
-2.792 2.251 1.687 6578
-2.789 2.250 1.673 8257
-2.793 2.252 1.663 6527
-2.830 2.283 1.671 6193
-2.868 2.313 1.679 6372
-2.871 2.316 1.669 5544
-2.875 2.318 1.658 4051
-2.952 2.381 1.687 3945
-2.893 2.333 1.643 3885
-2.982 2.405 1.677 6124
-2.986 2.408 1.666 8812
-2.989 2.410 1.655 7204
-2.992 2.413 1.644 3971
-3.053 2.462 1.662 3849
-3.068 2.474 1.656 4547
-3.112 2.509 1.665 5919
-3.115 2.512 1.653 7190
-3.147 2.538 1.656 5339
-3.162 2.550 1.650 5908
-3.189 2.572 1.649 7775
-3.198 2.579 1.640 10603
-3.207 2.587 1.631 9769
-3.222 2.599 1.625 5663
-3.359 2.709 1.674 2731
-3.362 2.712 1.662 3048
-3.430 2.766 1.678 3423
-3.433 2.769 1.666 3695
-3.431 2.767 1.650 3472
-3.440 2.774 1.640 3126
-3.455 2.786 1.633 2971
-3.605 2.907 1.683 5731
-3.602 2.905 1.667 6621
-3.606 2.908 1.654 4135
-3.568 2.878 1.623 3581
-3.648 2.942 1.642 4006
-3.675 2.963 1.638 4002
-3.678 2.966 1.624 3769
-3.728 3.007 1.630 3574
-3.761 3.033 1.628 3620
-3.906 3.150 1.670 3740
-3.903 3.148 1.653 3055
-3.954 3.189 1.657 3653
-3.963 3.196 1.644 5271
-3.967 3.199 1.629 2939
-4.094 3.302 1.661 2510
-4.092 3.300 1.644 3265
-4.030 3.250 1.605 3983
-4.188 3.377 1.646 2875
-4.185 3.375 1.628 3687
-4.182 3.373 1.610 3093
-4.334 3.495 1.647 3713
-4.409 3.556 1.656 3838
-4.413 3.559 1.639 4646
-4.577 3.691 1.678 3330
-4.580 3.694 1.661 3120
-4.602 3.711 1.649 3099
-4.605 3.714 1.632 2467
-4.722 3.808 1.652 3355
-4.725 3.811 1.634 4119
-4.729 3.814 1.617 2760
-4.828 3.894 1.629 2198
-4.831 3.896 1.611 2426
-4.991 4.025 1.640 2069
-5.072 4.090 1.645 1665
-5.081 4.098 1.628 1621
-5.487 4.425 1.726 2061
-5.485 4.423 1.704 2547
-5.501 4.436 1.687 2857
-5.504 4.439 1.667 3954
-5.508 4.442 1.646 4479
-5.511 4.444 1.626 4078
-5.611 4.525 1.631 4523
-5.608 4.523 1.609 4174
-5.618 4.530 1.589 3564
-5.627 4.538 1.570 3612
-5.630 4.540 1.549 3523
-5.633 4.543 1.528 3082
-6.308 5.087 1.671 2716
-6.318 5.095 1.649 2064
-6.812 5.494 1.742 2535
-6.810 5.492 1.715 2872
-6.838 5.514 1.695 2415
-6.853 5.527 1.672 1886
-6.790 5.476 1.632 1716
-6.799 5.483 1.608 1289
-7.180 5.790 1.663 1223
-7.189 5.798 1.638 1317
-7.332 5.913 1.640 874
-7.360 5.936 1.617 795
-7.363 5.938 1.590 942
-7.367 5.941 1.562 664
-7.370 5.943 1.535 428
-7.373 5.946 1.507 285
-0.664 0.536 0.178 264
-0.664 0.536 0.176 276
-0.677 0.546 0.174 253
-0.609 0.491 0.168 265
-1.746 1.416 1.755 5220
-1.749 1.419 1.749 10440
-1.753 1.422 1.742 10440
-1.762 1.429 1.740 7434
-1.765 1.431 1.734 4501
-1.779 1.443 1.737 4142
-1.807 1.466 1.753 4706
-1.811 1.469 1.746 4706
-1.790 1.451 1.717 7146
-1.788 1.450 1.706 10351
-1.787 1.449 1.695 9046
-1.785 1.448 1.684 7776
-1.844 1.496 1.726 5880
-1.853 1.503 1.724 5224
-1.867 1.514 1.726 5688
-1.876 1.521 1.724 6628
-1.879 1.524 1.717 6606
-1.893 1.535 1.718 6720
-1.907 1.546 1.720 7637
-1.910 1.549 1.713 6920
-1.914 1.552 1.706 6203
-1.912 1.551 1.695 6620
-1.916 1.554 1.688 7170
-1.914 1.552 1.676 5617
-2.001 1.622 1.737 5001
-1.989 1.613 1.717 5220
-1.987 1.611 1.706 6096
-2.001 1.623 1.707 7108
-2.010 1.630 1.703 8514
-2.019 1.637 1.700 7959
-2.090 1.695 1.746 8668
-2.094 1.698 1.739 10184
-2.098 1.701 1.731 11701
-2.096 1.700 1.719 11040
-2.105 1.707 1.715 9533
-2.114 1.714 1.712 7254
-2.123 1.721 1.708 4483
-2.211 1.793 1.764 3974
-2.220 1.800 1.760 4068
-2.224 1.803 1.751 4183
-2.227 1.806 1.743 3814
-2.253 1.827 1.751 4102
-2.229 1.808 1.723 4751
-2.238 1.815 1.718 5614
-2.301 1.866 1.752 5558
-2.299 1.865 1.740 6769
-2.298 1.863 1.728 8034
-2.307 1.870 1.723 8935
-2.337 1.895 1.733 7690
-2.352 1.907 1.732 7700
-2.361 1.914 1.727 6332
-2.364 1.917 1.719 4379
-2.330 1.889 1.684 4755
-2.371 1.923 1.701 4621
-2.457 1.992 1.747 4878
-2.466 2.000 1.741 5637
-2.475 2.007 1.736 5941
-2.484 2.015 1.730 5808
-2.488 2.017 1.721 5404
-2.491 2.020 1.712 5421
-2.561 2.077 1.745 6716
-2.570 2.084 1.739 8451
-2.574 2.087 1.729 9650
-2.566 2.081 1.713 9436
-2.625 2.129 1.738 6465
-2.629 2.132 1.728 7771
-2.632 2.135 1.718 7168
-2.664 2.160 1.725 6259
-2.679 2.172 1.722 8748
-2.682 2.175 1.712 9229
-2.680 2.173 1.699 8761
-2.689 2.181 1.692 8077
-2.693 2.184 1.682 5616
-2.764 2.241 1.711 4715
-2.778 2.253 1.707 4260
-2.782 2.256 1.697 4415
-2.785 2.259 1.687 6473
-2.783 2.257 1.673 8568
-2.787 2.260 1.663 6808
-2.824 2.290 1.671 5540
-2.856 2.316 1.676 5928
-2.871 2.328 1.672 5481
-2.868 2.326 1.658 3937
-2.940 2.384 1.684 3859
-2.892 2.346 1.646 4633
-2.976 2.413 1.677 6324
-2.979 2.416 1.666 9192
-2.982 2.419 1.655 7769
-2.986 2.421 1.644 4293
-3.046 2.471 1.662 3427
-3.061 2.483 1.656 4611
-3.099 2.513 1.662 5700
-3.108 2.521 1.653 6420
-3.135 2.542 1.653 4377
-3.161 2.564 1.653 5038
-3.182 2.580 1.649 7095
-3.191 2.588 1.640 9987
-3.200 2.595 1.631 9214
-3.221 2.612 1.627 5669
-3.352 2.718 1.674 2764
-3.355 2.721 1.662 3299
-3.428 2.780 1.681 3493
-3.432 2.783 1.668 3988
-3.394 2.753 1.637 3632
-3.398 2.755 1.625 3024
-3.494 2.834 1.653 2872
-3.591 2.912 1.681 6268
-3.594 2.915 1.667 7246
-3.598 2.918 1.654 4602
-3.560 2.887 1.623 3658
-3.640 2.952 1.642 3766
-3.666 2.973 1.638 3522
-3.734 3.028 1.651 3702
-3.720 3.017 1.630 3416
-3.759 3.048 1.630 3683
-3.768 3.056 1.618 3467
-3.854 3.125 1.637 2920
-3.945 3.199 1.657 3246
-3.949 3.202 1.642 4762
-3.946 3.200 1.625 2971
-4.079 3.308 1.659 2979
-4.083 3.311 1.644 3554
-4.021 3.261 1.605 3818
-4.025 3.264 1.590 2727
-4.176 3.386 1.628 3090
-4.321 3.505 1.663 3469
-4.331 3.512 1.649 5043
-4.400 3.568 1.656 3643
-4.403 3.571 1.639 4316
-4.335 3.515 1.599 3723
-4.570 3.706 1.661 2551
-4.580 3.714 1.645 2978
-4.583 3.717 1.628 2520
-4.712 3.821 1.652 3018
-4.715 3.824 1.634 3813
-4.712 3.822 1.615 2452
-4.817 3.907 1.629 2064
-4.821 3.909 1.611 2377
-4.974 4.033 1.639 1754
-5.061 4.104 1.645 1769
-5.076 4.117 1.630 1915
-5.475 4.440 1.726 1876
-5.473 4.438 1.704 2625
-5.477 4.441 1.684 2961
-5.498 4.459 1.668 3815
-5.495 4.457 1.646 4113
-5.499 4.459 1.626 3652
-5.599 4.540 1.631 3279
-5.596 4.538 1.609 3004
-5.605 4.546 1.589 2681
-5.614 4.553 1.570 2781
-5.618 4.556 1.549 2770
-6.122 4.965 1.653 2597
-6.294 5.105 1.671 2686
-6.304 5.112 1.649 1999
-6.797 5.512 1.742 2436
-6.801 5.515 1.716 2924
-6.823 5.533 1.695 2542
-6.832 5.541 1.671 1885
-6.775 5.494 1.632 1548
-6.790 5.507 1.609 1240
-7.303 5.923 1.693 1140
-7.173 5.817 1.638 1235
-7.316 5.933 1.640 889
-7.344 5.956 1.617 953
-7.347 5.958 1.590 1061
-7.350 5.961 1.562 730
-7.354 5.963 1.535 477
-7.351 5.961 1.506 304
-1.743 1.419 1.755 5214
-1.747 1.422 1.749 10428
-1.750 1.425 1.742 10428
-1.754 1.428 1.736 7310
-1.762 1.435 1.734 4216
-1.756 1.430 1.718 3844
-1.815 1.477 1.762 4528
-1.818 1.480 1.755 4528
-1.762 1.434 1.694 6811
-1.780 1.449 1.701 9911
-1.784 1.452 1.695 8767
-1.782 1.451 1.684 7646
-1.841 1.499 1.726 5632
-1.850 1.506 1.724 4628
-1.864 1.518 1.726 5280
-1.878 1.529 1.728 6390
-1.876 1.528 1.717 6375
-1.890 1.539 1.718 6750
-1.899 1.546 1.716 7594
-1.902 1.549 1.709 6617
-1.911 1.556 1.706 5701
-1.909 1.555 1.695 6106
-1.908 1.553 1.683 6580
-1.989 1.619 1.740 5506
-1.992 1.622 1.733 5798
-1.991 1.621 1.721 6574
-1.989 1.620 1.710 7711
-1.998 1.627 1.707 8640
-2.007 1.634 1.703 9766
-2.015 1.641 1.700 8809
-2.087 1.699 1.746 8962
-2.091 1.702 1.739 10592
-2.094 1.705 1.731 12221
-2.093 1.704 1.719 11593
-2.101 1.711 1.715 9952
-2.110 1.718 1.712 7210
-2.119 1.725 1.708 4168
-2.213 1.802 1.768 4106
-2.217 1.805 1.760 4292
-2.220 1.808 1.751 4478
-2.219 1.806 1.739 3923
-2.249 1.831 1.751 3855
-2.226 1.812 1.723 4550
-2.235 1.820 1.718 5206
-2.292 1.866 1.749 5379
-2.296 1.869 1.740 6414
-2.299 1.872 1.732 7449
-2.303 1.875 1.723 8186
-2.333 1.900 1.733 7756
-2.348 1.912 1.732 8218
-2.357 1.919 1.727 6756
-2.366 1.926 1.722 4691
-2.326 1.894 1.684 4304
-2.368 1.928 1.701 4758
-2.453 1.997 1.747 5100
-2.462 2.005 1.741 5797
-2.471 2.012 1.736 6261
-2.486 2.024 1.734 6384
-2.489 2.027 1.725 6142
-2.493 2.030 1.715 5961
-2.557 2.082 1.745 6827
-2.566 2.089 1.739 8109
-2.575 2.097 1.733 9096
-2.562 2.086 1.713 8697
-2.627 2.139 1.741 6329
-2.630 2.142 1.731 7715
-2.628 2.140 1.718 7648
-2.654 2.161 1.722 6729
-2.674 2.177 1.722 7956
-2.678 2.180 1.712 7738
-2.681 2.183 1.702 7889
-2.691 2.191 1.696 7914
-2.694 2.194 1.686 5563
-2.759 2.247 1.711 4171
-2.774 2.259 1.707 3425
-2.783 2.266 1.700 3832
-2.781 2.264 1.687 6277
-2.779 2.263 1.673 8589
-2.782 2.265 1.663 6776
-2.797 2.277 1.659 4985
-2.851 2.322 1.676 5456
-2.866 2.334 1.672 5426
-2.870 2.336 1.661 4066
-2.896 2.358 1.663 4539
-2.893 2.356 1.649 5828
-2.971 2.419 1.677 6201
-2.974 2.422 1.666 9237
-2.978 2.424 1.655 8143
-2.981 2.427 1.644 4424
-3.042 2.477 1.662 3068
-3.056 2.489 1.656 4448
-3.094 2.519 1.662 5729
-3.098 2.522 1.651 6061
-3.130 2.548 1.653 3791
-3.214 2.617 1.681 4815
-3.183 2.591 1.652 6456
-3.180 2.589 1.637 9033
-3.195 2.602 1.631 8165
-3.222 2.623 1.630 5399
-3.352 2.729 1.677 3031
-3.350 2.727 1.662 3707
-3.423 2.787 1.681 3447
-3.432 2.794 1.671 4234
-3.383 2.755 1.635 4371
-3.386 2.757 1.622 3391
-3.489 2.841 1.653 3396
-3.585 2.919 1.681 6599
-3.589 2.922 1.667 7601
-3.592 2.925 1.654 4946
-3.555 2.894 1.623 3532
-3.634 2.959 1.642 3455
-3.725 3.033 1.664 4005
-3.728 3.036 1.651 4177
-3.714 3.024 1.630 3576
-3.753 3.056 1.630 3779
-3.762 3.063 1.618 3483
-3.842 3.128 1.634 2733
-3.833 3.121 1.615 2916
-3.942 3.210 1.642 4192
-3.934 3.203 1.623 2722
-4.073 3.316 1.659 3457
-4.076 3.319 1.644 3748
-4.068 3.312 1.624 3440
-4.018 3.272 1.590 2544
-4.175 3.399 1.630 2657
-4.320 3.518 1.665 3793
-4.330 3.525 1.651 5956
-4.345 3.538 1.639 3847
-4.402 3.584 1.641 4048
-4.334 3.529 1.601 5724
-4.343 3.536 1.587 3368
-4.572 3.723 1.645 2822
-4.564 3.716 1.625 2879
-4.704 3.830 1.652 2481
-4.702 3.828 1.632 3214
-4.699 3.826 1.613 1996
-4.810 3.916 1.629 1919
-4.813 3.919 1.611 2235
-5.037 4.102 1.660 1659
-5.059 4.119 1.647 1804
-5.074 4.132 1.632 2140
-5.467 4.451 1.726 1616
-5.458 4.444 1.703 2559
-5.462 4.447 1.682 2902
-5.489 4.469 1.668 3428
-5.487 4.467 1.646 3537
-5.496 4.475 1.627 3101
-5.499 4.478 1.607 2411
-5.587 4.549 1.609 1845
-6.017 4.900 1.699 2131
-5.605 4.564 1.570 1963
-6.109 4.974 1.676 2123
-6.112 4.977 1.653 2301
-6.284 5.117 1.671 2461
-6.475 5.272 1.693 1977
-6.792 5.531 1.743 2238
-6.790 5.529 1.716 2851
-6.806 5.541 1.694 2627
-6.821 5.554 1.671 1853
-6.764 5.507 1.632 1322
-6.780 5.520 1.609 1085
-7.298 5.942 1.694 1082
-7.162 5.831 1.638 1234
-7.305 5.948 1.640 879
-7.332 5.970 1.617 1030
-7.335 5.973 1.590 1052
-7.339 5.975 1.562 697
-7.342 5.978 1.535 468
-7.339 5.976 1.506 287
-0.650 0.529 0.177 289
-0.643 0.524 0.175 407
-0.644 0.524 0.172 386
-0.662 0.539 0.171 345
-0.613 0.499 0.166 261
-1.736 1.417 1.750 5141
-1.740 1.420 1.744 10283
-1.743 1.423 1.737 10283
-1.747 1.426 1.731 7178
-1.755 1.433 1.729 4109
-1.754 1.432 1.718 4039
-1.818 1.484 1.767 4983
-1.821 1.487 1.760 4983
-1.760 1.437 1.694 6701
-1.773 1.448 1.697 9233
-1.777 1.451 1.690 8209
-1.780 1.454 1.684 7184
-1.839 1.502 1.726 5281
-1.848 1.509 1.724 3921
-1.867 1.524 1.730 4879
-1.876 1.531 1.728 6188
-1.879 1.534 1.721 6172
-1.888 1.541 1.718 6858
-1.891 1.544 1.711 7735
-1.900 1.551 1.709 6400
-1.909 1.558 1.706 5100
-1.907 1.557 1.695 5435
-1.911 1.560 1.688 5784
-1.981 1.618 1.736 6287
-1.990 1.625 1.733 7009
-1.989 1.624 1.721 8390
-1.992 1.627 1.714 9866
-1.996 1.629 1.707 10661
-2.004 1.637 1.703 11551
-2.008 1.639 1.696 10151
-2.085 1.702 1.746 9176
-2.088 1.705 1.739 10966
-2.092 1.708 1.731 12756
-2.090 1.707 1.719 12196
-2.099 1.714 1.715 10536
-2.108 1.721 1.712 7333
-2.122 1.733 1.712 4043
-2.210 1.805 1.768 4185
-2.209 1.804 1.756 4421
-2.212 1.806 1.747 4718
-2.216 1.809 1.739 4093
-2.246 1.834 1.751 3812
-2.229 1.820 1.727 4398
-2.238 1.827 1.722 4626
-2.289 1.869 1.749 5226
-2.293 1.872 1.740 5920
-2.297 1.875 1.732 6615
-2.306 1.883 1.727 7081
-2.336 1.908 1.737 7740
-2.345 1.915 1.732 8645
-2.354 1.922 1.727 7240
-2.363 1.930 1.722 5197
-2.367 1.932 1.713 4332
-2.370 1.935 1.705 5126
-2.450 2.001 1.747 5460
-2.459 2.008 1.741 6107
-2.468 2.015 1.736 6654
-2.483 2.027 1.734 7058
-2.492 2.035 1.728 6918
-2.490 2.033 1.715 6407
-2.554 2.085 1.745 7071
-2.552 2.084 1.732 8111
-2.572 2.100 1.733 8342
-2.548 2.081 1.706 7745
-2.624 2.142 1.741 6229
-2.627 2.145 1.731 7619
-2.625 2.144 1.718 8110
-2.646 2.160 1.719 7295
-2.671 2.181 1.722 6927
-2.680 2.189 1.715 6059
-2.684 2.191 1.706 6720
-2.688 2.194 1.696 7622
-2.697 2.202 1.689 5585
-2.745 2.241 1.705 3624
-2.664 2.175 1.646 2856
-2.780 2.270 1.700 3170
-2.772 2.264 1.684 5785
-2.770 2.262 1.670 8190
-2.774 2.265 1.660 6371
-2.788 2.277 1.656 4342
-2.848 2.325 1.676 5012
-2.863 2.338 1.672 5491
-2.866 2.340 1.661 4515
-2.892 2.362 1.663 5653
-2.890 2.360 1.649 7386
-2.967 2.423 1.677 5787
-2.971 2.426 1.666 9069
-2.974 2.429 1.655 8402
-2.978 2.431 1.644 4389
-3.038 2.481 1.662 2867
-3.053 2.493 1.656 4442
-3.085 2.519 1.659 5903
-3.089 2.522 1.648 5761
-3.132 2.557 1.656 3478
-3.210 2.621 1.681 4822
-3.179 2.596 1.652 5793
-3.177 2.594 1.637 7676
-3.192 2.606 1.631 6663
-3.218 2.627 1.630 4938
-3.348 2.734 1.677 3315
-3.346 2.732 1.662 4028
-3.425 2.796 1.684 3317
-3.428 2.799 1.671 4433
-3.374 2.754 1.632 5058
-3.377 2.757 1.620 3693
-3.485 2.845 1.653 4201
-3.581 2.924 1.681 6735
-3.585 2.927 1.667 7726
-3.588 2.930 1.654 5165
-3.562 2.909 1.628 3414
-3.700 3.021 1.671 3573
-3.721 3.038 1.664 4477
-3.724 3.041 1.651 4474
-3.716 3.034 1.632 3664
-3.749 3.061 1.630 3612
-3.764 3.073 1.621 3277
-3.831 3.128 1.632 2532
-3.829 3.126 1.615 2861
-3.932 3.211 1.640 3782
-3.906 3.189 1.614 2467
-4.068 3.322 1.659 3644
-4.072 3.325 1.644 3750
-4.069 3.323 1.627 3139
-4.037 3.296 1.598 2220
-4.176 3.410 1.632 2510
-4.322 3.529 1.667 3954
-4.325 3.531 1.651 6412
-4.334 3.539 1.637 3847
-4.332 3.537 1.619 4706
-4.335 3.540 1.603 7426
-4.344 3.547 1.589 4308
-4.561 3.724 1.644 2807
-4.553 3.717 1.623 3468
-4.550 3.715 1.604 2783
-4.696 3.835 1.632 2651
-4.688 3.828 1.611 1735
-4.804 3.923 1.629 1513
-4.814 3.930 1.613 1754
-5.020 4.099 1.657 1681
-5.053 4.126 1.647 1729
-5.069 4.138 1.632 2278
-5.072 4.141 1.613 1652
-5.446 4.447 1.701 2517
-5.444 4.445 1.679 2812
-5.483 4.477 1.668 2823
-5.481 4.475 1.646 2769
-5.826 4.757 1.719 2624
-5.835 4.765 1.699 2450
-6.001 4.900 1.720 1858
-6.011 4.908 1.699 1936
-6.285 5.132 1.746 1683
-6.162 5.031 1.691 1911
-6.172 5.039 1.669 2246
-6.271 5.121 1.670 2191
-6.474 5.286 1.694 1947
-6.791 5.545 1.745 1828
-6.782 5.538 1.716 2495
-6.798 5.551 1.694 2512
-6.814 5.563 1.671 1725
-6.908 5.640 1.666 1451
-6.917 5.648 1.641 1269
-7.144 5.833 1.663 1058
-7.160 5.846 1.639 1242
-7.296 5.957 1.640 858
-7.312 5.970 1.615 1100
-7.327 5.983 1.590 1038
-7.331 5.985 1.562 676
-7.334 5.988 1.535 470
-7.331 5.986 1.506 286
-0.594 0.485 0.170 350
-0.594 0.485 0.168 399
-0.600 0.490 0.166 370
-0.600 0.490 0.164 254
-1.732 1.422 1.750 5044
-1.736 1.425 1.744 10088
-1.740 1.428 1.737 10088
-1.743 1.431 1.731 7151
-1.747 1.434 1.725 4215
-1.750 1.437 1.718 4322
-1.814 1.489 1.767 5738
-1.818 1.492 1.760 5738
-1.756 1.441 1.694 6544
-1.765 1.448 1.692 8500
-1.773 1.455 1.690 7462
-1.822 1.495 1.724 6583
-1.836 1.506 1.726 4874
-1.859 1.526 1.737 3317
-1.863 1.529 1.730 4532
-1.877 1.540 1.732 6015
-1.880 1.543 1.725 5992
-1.884 1.546 1.718 6972
-1.888 1.549 1.711 7975
-1.896 1.556 1.709 6214
-1.905 1.563 1.706 4574
-1.903 1.562 1.695 4762
-1.974 1.620 1.743 6090
-1.977 1.623 1.736 7306
-1.981 1.626 1.729 8523
-1.984 1.629 1.721 10435
-1.988 1.632 1.714 12348
-1.992 1.634 1.707 12865
-2.000 1.642 1.703 13553
-2.004 1.644 1.696 11645
-2.013 1.652 1.693 9891
-2.084 1.710 1.739 10982
-2.088 1.713 1.731 12989
-2.086 1.712 1.719 12568
-2.095 1.719 1.715 11020
-2.104 1.726 1.712 7499
-2.118 1.738 1.712 4130
-2.206 1.810 1.768 4227
-2.204 1.809 1.756 4542
-2.208 1.812 1.747 4962
-2.212 1.815 1.739 4308
-2.236 1.835 1.747 3956
-2.229 1.830 1.731 4354
-2.281 1.872 1.757 4299
-2.285 1.875 1.749 4934
-2.288 1.878 1.740 5243
-2.292 1.881 1.732 5551
-2.301 1.888 1.727 5859
-2.331 1.913 1.737 7554
-2.340 1.921 1.732 8762
-2.349 1.928 1.727 7410
-2.358 1.935 1.722 5615
-2.367 1.943 1.717 4966
-2.371 1.946 1.708 5763
-2.440 2.002 1.743 5743
-2.449 2.010 1.738 6300
-2.469 2.026 1.739 6722
-2.478 2.033 1.734 7420
-2.487 2.041 1.728 7613
-2.485 2.039 1.715 6752
-2.549 2.092 1.745 7299
-2.547 2.090 1.732 8334
-2.567 2.107 1.733 7816
-2.532 2.078 1.699 8219
-2.536 2.081 1.690 6843
-2.622 2.152 1.731 7400
-2.620 2.150 1.718 8506
-2.635 2.162 1.715 7854
-2.655 2.179 1.715 5979
-2.681 2.200 1.719 4566
-2.679 2.198 1.706 5425
-2.688 2.206 1.699 6781
-2.691 2.209 1.689 5384
-2.672 2.193 1.666 3231
-2.659 2.182 1.646 2989
-2.690 2.208 1.652 3034
-2.761 2.266 1.680 5247
-2.764 2.269 1.670 7517
-2.768 2.272 1.660 5910
-2.777 2.279 1.653 3856
-2.848 2.337 1.679 4779
-2.863 2.349 1.675 5781
-2.860 2.348 1.661 5220
-2.881 2.364 1.660 6992
-2.884 2.367 1.649 9017
-2.893 2.374 1.641 6506
-2.959 2.428 1.663 8653
-2.974 2.441 1.658 8463
-2.972 2.439 1.644 4334
