-8.472 3.354 1.509 2671
-8.534 3.378 1.492 2072
-8.530 3.377 1.464 1776
-8.534 3.378 1.437 1489
-8.588 3.400 1.418 1434
-8.591 3.401 1.392 931
-8.558 3.388 1.359 722
-8.576 3.395 1.335 586
-8.601 3.405 1.311 472
-8.597 3.404 1.283 312
-5.892 2.333 0.810 313
-5.901 2.336 0.792 469
-5.895 2.334 0.773 768
-5.897 2.335 0.755 881
-5.899 2.335 0.736 825
-5.900 2.336 0.718 799
-5.909 2.339 0.700 1156
-5.911 2.340 0.682 1862
-5.912 2.341 0.663 2214
-5.913 2.341 0.645 2243
-5.915 2.342 0.627 1750
-5.923 2.345 0.609 1503
-5.925 2.346 0.590 1841
-5.933 2.349 0.572 1967
-5.927 2.346 0.553 1718
-5.921 2.344 0.534 1086
-5.922 2.344 0.516 696
-5.923 2.345 0.498 413
-1.015 0.402 0.177 270
-0.838 0.332 0.166 267
-0.838 0.332 0.163 252
-6.152 2.436 0.262 276
-6.152 2.436 0.243 348
-6.145 2.433 0.224 422
-6.153 2.436 0.205 384
-6.153 2.436 0.185 273
-6.152 2.436 0.051 258
-6.160 2.439 0.032 267
-5.632 2.230 -0.381 337
-5.630 2.229 -0.398 378
-5.621 2.225 -0.415 422
-5.620 2.225 -0.433 422
-5.604 2.218 -0.448 590
-5.595 2.215 -0.465 793
-5.593 2.214 -0.483 396
-2.133 0.855 1.792 3442
-2.138 0.857 1.786 6884
-2.142 0.859 1.779 6884
-2.147 0.861 1.773 6565
-2.086 0.836 1.715 6944
-2.156 0.864 1.760 6499
-2.124 0.852 1.725 7080
-2.128 0.853 1.719 7080
-2.175 0.872 1.744 8345
-2.191 0.878 1.747 10372
-2.214 0.887 1.753 9445
-2.224 0.892 1.751 9885
-2.222 0.891 1.740 9017
-2.221 0.890 1.728 9097
-2.225 0.892 1.722 7591
-2.272 0.911 1.746 7549
-2.276 0.913 1.739 7853
-2.287 0.917 1.736 7398
-2.291 0.918 1.729 7026
-2.338 0.937 1.752 6885
-2.349 0.942 1.749 8720
-2.359 0.946 1.746 7402
-2.376 0.953 1.748 6435
-2.343 0.939 1.715 4587
-2.422 0.971 1.758 4239
-2.439 0.978 1.759 5683
-2.449 0.982 1.756 7872
-2.454 0.984 1.748 9382
-2.458 0.986 1.741 10893
-2.462 0.987 1.733 9033
-2.467 0.989 1.726 7173
-2.484 0.996 1.726 7549
-2.500 1.003 1.727 8994
-2.511 1.007 1.723 10042
-2.522 1.011 1.719 11202
-2.532 1.015 1.716 8653
-2.581 1.035 1.736 4891
-2.604 1.044 1.740 5216
-2.609 1.046 1.732 6878
-2.613 1.048 1.724 8541
-2.624 1.052 1.720 8922
-2.641 1.059 1.719 9812
-2.651 1.063 1.715 8834
-2.675 1.072 1.718 6975
-2.686 1.077 1.714 6374
-2.722 1.091 1.725 7484
-2.733 1.096 1.720 10084
-2.737 1.097 1.712 10670
-2.735 1.096 1.700 8275
-2.733 1.096 1.687 5397
-2.873 1.152 1.757 4593
-2.903 1.164 1.763 6030
-2.908 1.166 1.754 7057
-2.919 1.170 1.749 6473
-2.929 1.174 1.743 5376
-3.025 1.213 1.785 5869
-3.030 1.215 1.775 9489
-3.034 1.216 1.766 13207
-3.039 1.218 1.757 14569
-3.049 1.223 1.751 13416
-3.060 1.227 1.745 10030
-3.065 1.229 1.735 7981
-3.056 1.225 1.719 6959
-3.054 1.224 1.706 5552
-3.137 1.258 1.738 6313
-3.148 1.262 1.731 7685
-3.159 1.267 1.725 7174
-3.190 1.279 1.729 9031
-3.261 1.307 1.752 11611
-3.272 1.312 1.745 13993
-3.276 1.314 1.735 12599
-3.301 1.323 1.735 8969
-3.332 1.336 1.738 6475
-3.282 1.316 1.702 5778
-3.307 1.326 1.701 7158
-3.318 1.330 1.694 7629
-3.349 1.343 1.696 9430
-3.373 1.352 1.695 11923
-3.384 1.357 1.688 8767
-3.415 1.369 1.690 7977
-3.420 1.371 1.679 10426
-3.424 1.373 1.669 10897
-3.435 1.377 1.661 8727
-3.439 1.379 1.651 6086
-3.565 1.429 1.694 5602
-3.569 1.431 1.683 7053
-3.587 1.438 1.678 6942
-3.598 1.443 1.670 5355
-3.609 1.447 1.661 3700
-3.750 1.503 1.708 3742
-3.761 1.508 1.699 4922
-3.765 1.510 1.688 3933
-3.756 1.506 1.670 3934
-3.767 1.510 1.662 5770
-3.771 1.512 1.650 5884
-3.858 1.547 1.671 7095
-3.862 1.548 1.659 7862
-3.873 1.553 1.650 6626
-3.911 1.568 1.652 6146
-3.922 1.573 1.642 8955
-4.065 1.630 1.683 6741
-4.076 1.634 1.673 8243
-4.094 1.641 1.666 7175
-4.140 1.660 1.669 5513
-4.137 1.659 1.653 6350
-4.141 1.660 1.640 7679
-4.159 1.667 1.632 7215
-4.212 1.689 1.637 6130
-4.216 1.690 1.624 5459
-4.213 1.689 1.608 5281
-4.217 1.691 1.595 4159
-4.312 1.729 1.614 2681
-4.463 1.789 1.651 3287
-4.460 1.788 1.634 5044
-4.464 1.790 1.620 7184
-4.482 1.797 1.611 6620
-4.507 1.807 1.604 3662
-4.609 1.848 1.622 2577
-4.536 1.819 1.583 3313
-4.547 1.823 1.571 3228
-4.558 1.827 1.559 2390
-4.794 1.922 1.618 3193
-4.798 1.924 1.603 4253
-4.802 1.925 1.588 4309
-5.026 2.015 1.639 3681
-5.030 2.017 1.623 4820
-5.041 2.021 1.610 4611
-5.073 2.034 1.602 3195
-5.077 2.036 1.586 3239
-5.145 2.063 1.589 3645
-5.341 2.141 1.627 2929
-5.523 2.214 1.659 2637
-5.505 2.207 1.636 2952
-5.531 2.217 1.625 2896
-5.570 2.233 1.617 3602
-5.582 2.238 1.602 3586
-5.778 2.317 1.635 2720
-5.832 2.338 1.629 3097
-5.937 2.380 1.637 3935
-5.919 2.373 1.613 2876
-6.088 2.441 1.635 2738
-6.099 2.445 1.618 2562
-6.110 2.450 1.601 1952
-6.372 2.555 1.643 2766
-6.376 2.556 1.623 2557
-6.812 2.731 1.703 2395
-6.809 2.730 1.680 3274
-6.618 2.653 1.615 3013
-6.558 2.629 1.580 2434
-6.850 2.746 1.622 3132
-6.846 2.745 1.599 2423
-7.067 2.833 1.624 2352
-6.854 2.748 1.557 2581
-7.371 2.955 1.640 2247
-7.642 3.064 1.671 2712
-7.639 3.063 1.646 2744
-7.650 3.067 1.623 2615
-7.683 3.080 1.605 3059
-7.680 3.079 1.580 3103
-7.676 3.078 1.554 2113
-8.470 3.396 1.674 2292
-8.474 3.397 1.648 3797
-8.485 3.402 1.622 5413
-8.496 3.406 1.597 5140
-8.471 3.396 1.566 3413
-8.461 3.392 1.537 3367
-8.457 3.391 1.509 2827
-8.519 3.415 1.492 2384
-8.523 3.417 1.465 1914
-8.526 3.418 1.439 1470
-8.537 3.423 1.413 1250
-8.548 3.427 1.387 891
-8.551 3.428 1.361 689
-8.561 3.432 1.335 376
-8.579 3.440 1.310 280
-5.885 2.359 0.773 303
-5.887 2.360 0.755 583
-5.896 2.364 0.737 919
-5.897 2.364 0.719 1117
-5.899 2.365 0.700 1569
-5.908 2.369 0.683 2372
-5.916 2.372 0.665 3163
-5.911 2.370 0.646 3598
-5.905 2.367 0.627 4496
-5.899 2.365 0.608 5644
-5.892 2.362 0.589 5109
-5.894 2.363 0.570 4283
-5.895 2.363 0.552 3361
-5.896 2.364 0.533 1789
-5.904 2.367 0.516 1157
-5.905 2.368 0.497 755
-6.150 2.466 0.089 262
-5.612 2.250 -0.415 261
-5.610 2.249 -0.433 261
-5.594 2.243 -0.448 380
-5.585 2.239 -0.465 525
-5.583 2.238 -0.483 262
-2.131 0.862 1.792 3232
-2.135 0.864 1.786 6465
-2.140 0.865 1.779 6465
-2.144 0.867 1.773 6222
-2.083 0.842 1.715 7117
-2.111 0.854 1.727 6386
-2.121 0.858 1.725 7407
-2.126 0.860 1.719 7407
-2.166 0.876 1.740 8311
-2.188 0.885 1.747 10138
-2.211 0.894 1.753 9111
-2.221 0.898 1.751 9524
-2.220 0.898 1.740 8414
-2.218 0.897 1.728 8095
-2.222 0.899 1.722 6820
-2.269 0.918 1.746 7589
-2.273 0.919 1.739 7864
-2.278 0.921 1.732 7579
-2.288 0.925 1.729 7377
-2.335 0.945 1.752 7200
-2.346 0.949 1.749 9095
-2.350 0.951 1.742 7625
-2.373 0.960 1.748 6462
-2.340 0.947 1.715 4995
-2.419 0.978 1.758 5298
-2.436 0.985 1.759 6754
-2.446 0.989 1.756 8816
-2.451 0.991 1.748 10209
-2.455 0.993 1.741 11602
-2.459 0.995 1.733 9339
-2.470 0.999 1.730 7314
-2.487 1.006 1.730 7612
-2.497 1.010 1.727 8557
-2.508 1.014 1.723 9565
-2.519 1.019 1.719 10647
-2.529 1.023 1.716 8209
-2.571 1.040 1.732 5014
-2.588 1.047 1.732 4522
-2.599 1.051 1.728 6598
-2.603 1.053 1.720 8726
-2.620 1.060 1.720 9038
-2.631 1.064 1.715 9865
-2.648 1.071 1.715 8750
-2.672 1.080 1.718 7141
-2.682 1.085 1.714 6281
-2.719 1.100 1.725 7432
-2.729 1.104 1.720 10330
-2.734 1.106 1.712 11273
-2.731 1.105 1.700 9283
-2.729 1.104 1.687 6529
-2.869 1.161 1.757 4625
-2.900 1.173 1.763 6072
-2.904 1.175 1.754 7034
-2.908 1.176 1.745 6358
-2.919 1.181 1.740 5021
-3.022 1.222 1.785 5445
-3.026 1.224 1.775 9190
-3.030 1.226 1.766 13312
-3.035 1.227 1.757 14950
-3.046 1.232 1.751 13550
-3.057 1.236 1.745 9526
-3.074 1.243 1.742 7310
-3.052 1.234 1.719 7675
-3.056 1.236 1.709 7268
-3.140 1.270 1.741 5926
-3.144 1.272 1.731 7472
-3.162 1.279 1.728 7491
-3.186 1.289 1.729 9168
-3.257 1.317 1.752 12074
-3.268 1.322 1.745 14126
-3.272 1.323 1.735 12439
-3.297 1.333 1.735 8345
-3.328 1.346 1.738 6395
-3.332 1.348 1.727 5962
-3.316 1.341 1.707 7599
-3.314 1.340 1.694 8204
-3.345 1.353 1.696 10551
-3.369 1.363 1.695 13110
-3.380 1.367 1.688 9422
-3.405 1.377 1.687 7760
-3.415 1.381 1.679 10528
-3.420 1.383 1.669 11339
-3.430 1.387 1.661 8816
-3.435 1.389 1.651 5732
-3.561 1.440 1.694 5762
-3.565 1.442 1.683 6812
-3.583 1.449 1.678 6415
-3.594 1.453 1.670 4608
-3.618 1.463 1.667 3858
-3.745 1.515 1.708 4044
-3.757 1.519 1.699 5236
-3.761 1.521 1.688 4094
-3.751 1.517 1.670 4073
-3.762 1.522 1.662 6245
-3.766 1.523 1.650 6519
-3.853 1.558 1.671 7020
-3.857 1.560 1.659 7164
-3.868 1.564 1.650 5976
-3.900 1.577 1.649 6096
-3.924 1.587 1.645 8471
-3.935 1.592 1.635 6030
-4.071 1.646 1.673 7014
-4.089 1.654 1.666 6496
-4.135 1.672 1.669 5830
-4.132 1.671 1.653 6257
-4.136 1.673 1.640 7381
-4.154 1.680 1.632 7514
-4.200 1.698 1.635 7045
-4.204 1.700 1.622 6199
-4.201 1.699 1.606 5418
-4.212 1.703 1.595 4022
-4.299 1.739 1.611 2596
-4.457 1.803 1.651 3405
-4.461 1.804 1.637 5067
-4.465 1.806 1.623 7279
-4.483 1.813 1.614 6928
-4.501 1.821 1.604 3894
-4.604 1.862 1.622 2663
-4.537 1.835 1.585 3281
-4.562 1.845 1.578 3450
-4.552 1.841 1.559 2618
-4.796 1.940 1.620 2588
-4.793 1.938 1.603 3571
-4.797 1.940 1.588 4072
-5.034 2.036 1.643 3815
-5.031 2.035 1.625 4945
-5.035 2.036 1.610 4876
-5.060 2.046 1.600 3538
-5.064 2.048 1.584 3142
-5.146 2.081 1.591 3653
-5.441 2.200 1.657 2841
-5.516 2.231 1.659 2473
-5.506 2.227 1.638 3142
-5.524 2.234 1.625 2848
-5.564 2.250 1.617 3063
-5.767 2.333 1.653 3482
-5.771 2.334 1.635 2573
-5.825 2.356 1.629 3194
-5.844 2.363 1.615 3714
-5.883 2.379 1.606 2570
-6.073 2.456 1.633 2259
-6.084 2.461 1.616 2109
-6.038 2.442 1.585 1974
-6.365 2.574 1.643 2743
-6.369 2.576 1.623 2476
-6.803 2.751 1.703 2696
-6.800 2.750 1.680 3515
-6.603 2.671 1.613 3161
-6.837 2.765 1.644 2465
-6.841 2.767 1.622 3420
-6.838 2.766 1.599 2937
-7.065 2.857 1.625 2374
-6.839 2.766 1.555 2672
-7.369 2.980 1.642 2203
-7.373 2.982 1.619 2203
-7.629 3.086 1.646 2335
-7.641 3.090 1.623 2291
-7.674 3.103 1.605 2987
-7.670 3.102 1.580 2995
-7.667 3.101 1.554 1937
-8.467 3.424 1.675 2107
-8.471 3.426 1.649 3463
-8.475 3.428 1.622 5269
-8.486 3.432 1.597 5010
-8.548 3.457 1.580 3171
-8.443 3.415 1.535 2914
-8.447 3.416 1.509 2585
-8.516 3.444 1.493 2403
-8.519 3.446 1.466 1892
-8.516 3.444 1.439 1474
-8.519 3.445 1.412 1246
-8.530 3.450 1.386 818
-8.533 3.451 1.359 553
-8.405 3.399 1.314 370
-8.576 3.468 1.311 305
-5.876 2.377 0.791 261
-5.878 2.377 0.773 362
-5.880 2.378 0.755 657
-5.889 2.382 0.737 1102
-5.890 2.382 0.719 1273
-5.892 2.383 0.700 1256
-5.893 2.383 0.682 2235
-5.895 2.384 0.663 3596
-5.889 2.382 0.644 3982
-5.897 2.385 0.627 3251
-5.891 2.383 0.608 2332
-5.893 2.383 0.589 2447
-5.894 2.384 0.571 2744
-5.895 2.384 0.552 2314
-5.889 2.382 0.533 1471
-5.890 2.382 0.515 1022
-5.891 2.382 0.497 729
-5.884 2.380 0.478 305
-1.129 0.456 0.189 263
-1.143 0.462 0.186 315
-6.135 2.481 0.090 271
-5.578 2.256 -0.465 347
-2.129 0.866 1.792 2967
-2.134 0.868 1.786 5935
-2.138 0.869 1.779 5935
-2.071 0.842 1.717 6006
-2.076 0.844 1.711 7075
-2.110 0.858 1.727 6333
-2.120 0.862 1.725 7424
-2.124 0.864 1.719 7424
-2.158 0.878 1.735 8153
-2.181 0.887 1.742 9794
-2.209 0.898 1.753 8611
-2.220 0.902 1.751 8989
-2.224 0.904 1.744 7641
-2.216 0.901 1.728 6948
-2.257 0.918 1.748 6184
-2.267 0.922 1.746 7725
-2.272 0.924 1.739 7994
-2.276 0.925 1.732 7965
-2.280 0.927 1.725 7926
-2.334 0.949 1.752 7616
-2.344 0.953 1.749 9538
-2.349 0.955 1.742 8001
-2.365 0.962 1.743 6580
-2.339 0.951 1.715 5427
-2.423 0.985 1.763 6257
-2.434 0.990 1.759 7838
-2.445 0.994 1.756 9810
-2.449 0.996 1.748 11134
-2.453 0.997 1.741 12459
-2.464 1.002 1.737 9896
-2.474 1.006 1.734 7815
-2.485 1.010 1.730 7827
-2.496 1.015 1.727 8078
-2.500 1.016 1.719 9151
-2.517 1.023 1.719 9946
-2.527 1.028 1.716 7672
-2.538 1.032 1.712 5157
-2.542 1.034 1.704 4628
-2.591 1.053 1.724 6279
-2.601 1.058 1.720 8278
-2.612 1.062 1.716 8535
-2.629 1.069 1.715 9520
-2.646 1.076 1.715 8793
-2.670 1.085 1.718 7746
-2.680 1.090 1.714 7097
-2.717 1.105 1.725 8122
-2.727 1.109 1.720 11067
-2.732 1.111 1.712 11669
-2.729 1.110 1.700 9127
-2.727 1.109 1.687 6293
-2.867 1.166 1.757 4537
-2.891 1.176 1.759 6107
-2.889 1.175 1.747 7180
-2.900 1.179 1.741 6456
-2.904 1.181 1.732 5251
-3.019 1.228 1.785 4975
-3.024 1.229 1.775 8782
-3.028 1.231 1.766 13213
-3.033 1.233 1.757 15052
-3.043 1.237 1.751 13429
-3.048 1.239 1.741 9016
-3.046 1.238 1.728 6421
-3.050 1.240 1.719 7970
-3.054 1.242 1.709 8003
-3.144 1.278 1.744 5928
-3.149 1.280 1.735 7690
-3.160 1.285 1.728 7912
-3.184 1.294 1.729 9135
-3.254 1.323 1.752 11912
-3.265 1.328 1.745 13494
-3.270 1.330 1.735 11562
-3.294 1.339 1.735 7162
-3.325 1.352 1.738 6189
-3.329 1.354 1.727 6653
-3.327 1.353 1.714 8194
-3.318 1.349 1.697 8689
-3.342 1.359 1.696 11592
-3.367 1.369 1.695 13678
-3.378 1.373 1.688 9280
-3.402 1.383 1.687 7007
-3.413 1.388 1.679 9745
-3.417 1.389 1.669 10799
-3.428 1.394 1.661 8553
-3.432 1.395 1.651 5622
-3.558 1.447 1.694 5951
-3.562 1.448 1.683 6862
-3.573 1.453 1.675 5962
-3.591 1.460 1.670 3995
-3.616 1.470 1.667 4111
-3.736 1.519 1.705 4451
-3.754 1.526 1.699 5484
-3.765 1.531 1.691 4266
-3.769 1.532 1.679 4424
-3.766 1.531 1.664 6953
-3.763 1.530 1.650 7254
-3.850 1.565 1.671 6488
-3.861 1.570 1.662 6431
-3.879 1.577 1.656 5608
-3.904 1.587 1.652 6381
-3.921 1.594 1.645 8506
-3.939 1.602 1.638 6089
-4.061 1.651 1.671 5764
-4.093 1.664 1.668 5964
-4.132 1.680 1.669 6043
-4.129 1.679 1.653 6122
-4.133 1.680 1.640 7103
-4.151 1.688 1.632 7516
-4.196 1.706 1.635 7546
-4.200 1.708 1.622 6859
-4.191 1.704 1.603 5520
-4.201 1.708 1.593 3623
-4.366 1.775 1.635 2456
-4.461 1.814 1.653 3305
-4.458 1.813 1.637 4623
-4.462 1.814 1.623 6929
-4.480 1.822 1.614 7009
-4.498 1.829 1.604 4282
-4.607 1.873 1.625 2631
-4.555 1.852 1.592 3042
-4.559 1.854 1.578 3671
-4.549 1.849 1.559 2890
-4.792 1.948 1.620 1964
-4.782 1.944 1.600 2712
-4.793 1.949 1.588 3351
-5.030 2.045 1.643 3926
-5.034 2.047 1.627 4977
-5.038 2.048 1.612 4992
-5.049 2.053 1.598 3815
-5.053 2.054 1.582 3175
-5.142 2.091 1.591 3648
-5.139 2.089 1.573 2769
-5.519 2.244 1.661 2157
-5.509 2.240 1.640 3065
-5.520 2.244 1.625 2614
-5.759 2.342 1.671 3073
-5.763 2.343 1.653 3354
-5.689 2.313 1.614 2749
-5.821 2.367 1.629 3018
-5.832 2.371 1.613 3564
-5.872 2.387 1.604 2375
-6.069 2.468 1.633 1798
-6.073 2.469 1.614 1668
-6.034 2.453 1.585 1914
-6.360 2.586 1.643 2621
-6.364 2.588 1.623 2377
-6.798 2.764 1.703 2819
-6.802 2.766 1.681 3609
-6.598 2.683 1.613 3162
-6.825 2.775 1.642 2664
-6.836 2.780 1.622 3579
-6.833 2.778 1.599 3326
-6.815 2.771 1.573 2764
-6.833 2.778 1.555 2643
-7.363 2.994 1.642 2052
-7.374 2.998 1.620 2205
-7.609 3.094 1.643 1852
-7.635 3.104 1.623 1922
-7.675 3.121 1.606 2903
-7.664 3.116 1.580 2810
-7.661 3.115 1.554 1740
-8.460 3.440 1.675 2023
-8.457 3.439 1.648 3396
-8.468 3.443 1.622 5073
-8.472 3.445 1.596 4806
-8.534 3.470 1.579 3180
-8.524 3.466 1.550 2819
-8.513 3.461 1.521 2560
-8.517 3.463 1.494 2632
-8.513 3.461 1.466 2012
-8.509 3.460 1.439 1505
-8.520 3.464 1.413 1284
-8.567 3.483 1.393 990
-8.556 3.479 1.364 545
-8.392 3.412 1.313 462
-8.388 3.410 1.286 358
-5.863 2.384 0.809 377
-5.864 2.384 0.791 716
-5.866 2.385 0.772 1456
-5.868 2.386 0.754 1987
-5.862 2.384 0.735 2489
-5.864 2.384 0.716 2848
-5.865 2.385 0.698 3313
-5.874 2.388 0.680 3593
-5.876 2.389 0.662 3435
-5.877 2.390 0.644 3528
-5.878 2.390 0.625 3314
-5.880 2.391 0.607 2875
-5.888 2.394 0.589 3003
-5.889 2.395 0.571 3408
-5.890 2.395 0.552 2942
-5.884 2.393 0.533 1680
-5.893 2.396 0.516 874
-5.886 2.393 0.497 486
-2.133 0.874 1.797 2712
-2.137 0.876 1.791 5424
-2.142 0.878 1.784 5424
-2.069 0.848 1.717 5942
-2.073 0.850 1.711 6819
-2.107 0.864 1.727 5999
-2.123 0.870 1.730 7127
-2.128 0.872 1.723 7127
-2.156 0.884 1.735 7883
-2.172 0.890 1.737 9289
-2.207 0.904 1.753 7879
-2.217 0.909 1.751 8208
-2.221 0.910 1.744 6713
-2.214 0.907 1.728 5654
-2.254 0.924 1.748 6148
-2.265 0.928 1.746 7993
-2.269 0.930 1.739 8279
-2.273 0.932 1.732 8467
-2.278 0.933 1.725 8629
-2.331 0.955 1.752 8003
-2.335 0.957 1.745 9931
-2.340 0.959 1.738 8427
-2.332 0.956 1.722 7077
-2.336 0.957 1.715 5892
-2.421 0.992 1.763 7161
-2.431 0.996 1.759 8825
-2.436 0.998 1.752 10782
-2.446 1.002 1.748 12001
-2.451 1.004 1.741 13300
-2.461 1.009 1.737 10612
-2.472 1.013 1.734 8630
-2.482 1.017 1.730 8287
-2.487 1.019 1.723 7949
-2.497 1.023 1.719 9102
-2.508 1.028 1.715 9641
-2.524 1.034 1.716 7343
-2.567 1.052 1.732 5317
-2.577 1.056 1.728 4718
-2.588 1.060 1.724 6302
-2.599 1.065 1.720 8074
-2.609 1.069 1.716 8314
-2.626 1.076 1.715 9125
-2.643 1.083 1.715 8566
-2.667 1.093 1.718 7378
-2.677 1.097 1.714 6442
-2.714 1.112 1.725 8010
-2.724 1.116 1.720 10994
-2.729 1.118 1.712 11813
-2.720 1.115 1.696 9744
-2.724 1.116 1.687 7189
-2.728 1.118 1.679 5054
-2.881 1.181 1.755 6110
-2.879 1.180 1.743 7458
-2.877 1.179 1.730 6778
-2.894 1.186 1.729 5959
-2.899 1.188 1.720 5841
-3.020 1.238 1.775 8262
-3.025 1.240 1.766 12859
-3.029 1.241 1.757 14831
-3.040 1.246 1.751 13145
-3.044 1.248 1.741 9001
-3.042 1.247 1.728 6828
-3.046 1.248 1.719 9088
-3.051 1.250 1.709 9604
-3.141 1.287 1.744 5970
-3.152 1.292 1.738 7891
-3.163 1.296 1.732 8154
-3.174 1.300 1.725 9139
-3.251 1.332 1.752 11377
-3.262 1.337 1.745 12420
-3.266 1.338 1.735 10266
-3.297 1.351 1.738 5794
-3.335 1.367 1.744 5974
-3.332 1.366 1.731 6915
-3.330 1.365 1.717 8252
-3.321 1.361 1.700 8663
-3.339 1.368 1.696 12004
-3.363 1.378 1.695 13800
-3.374 1.383 1.688 8933
-3.398 1.393 1.687 6306
-3.409 1.397 1.679 8504
-3.413 1.399 1.669 9511
-3.424 1.403 1.661 7776
-3.550 1.455 1.705 5115
-3.554 1.456 1.694 5956
-3.558 1.458 1.683 6808
-3.569 1.463 1.675 5398
-3.587 1.470 1.670 3538
-3.598 1.474 1.661 4302
-3.732 1.529 1.705 4894
-3.750 1.536 1.699 5500
-3.761 1.541 1.691 4298
-3.765 1.543 1.679 4658
-3.762 1.542 1.664 7378
-3.766 1.543 1.653 7806
-3.853 1.579 1.674 6066
-3.870 1.586 1.668 5991
-3.881 1.591 1.658 5498
-3.906 1.601 1.654 6282
-3.917 1.605 1.645 8024
-3.935 1.612 1.638 5884
-4.056 1.662 1.671 4562
-4.095 1.678 1.671 5555
-4.120 1.688 1.666 6223
-4.124 1.690 1.653 5858
-4.128 1.692 1.640 6567
-4.146 1.699 1.632 7087
-4.192 1.718 1.635 7512
-4.196 1.719 1.622 7193
-4.179 1.712 1.601 5659
-4.190 1.717 1.590 3276
-4.354 1.784 1.633 2673
-4.456 1.826 1.653 2999
-4.453 1.825 1.637 3830
-4.464 1.829 1.625 6237
-4.482 1.837 1.616 6821
-4.493 1.841 1.604 4631
-4.490 1.840 1.588 3122
-4.557 1.867 1.594 3174
-4.554 1.866 1.578 3709
-4.544 1.862 1.559 2961
-4.660 1.910 1.580 1968
-4.763 1.952 1.596 2268
-4.781 1.959 1.585 2877
-5.031 2.062 1.645 3826
-5.035 2.063 1.629 4725
-5.032 2.062 1.612 4721
-5.043 2.067 1.598 3960
-5.047 2.068 1.582 3077
-5.136 2.105 1.591 3416
-5.126 2.101 1.571 2893
-5.513 2.259 1.661 1896
-5.510 2.258 1.642 2899
-5.521 2.262 1.627 2369
-5.738 2.351 1.667 3033
-5.757 2.359 1.653 3010
-5.682 2.328 1.614 3203
-5.814 2.383 1.629 2914
-5.833 2.390 1.615 3534
-5.858 2.401 1.602 2415
-5.891 2.414 1.591 2107
-6.030 2.471 1.606 1796
-6.027 2.470 1.585 2046
-6.360 2.606 1.645 2355
-6.357 2.605 1.623 2239
-6.791 2.783 1.703 2729
-6.795 2.784 1.681 3473
-6.799 2.786 1.660 3346
-6.803 2.788 1.639 3015
-6.829 2.798 1.622 3563
-6.818 2.794 1.598 3521
-6.808 2.790 1.573 2882
-7.157 2.933 1.624 2703
-7.074 2.899 1.584 1827
-7.373 3.022 1.622 2048
-7.723 3.165 1.667 1538
-7.763 3.181 1.650 1733
-7.666 3.142 1.606 2785
-7.663 3.140 1.581 2542
-7.653 3.136 1.554 1454
-8.458 3.466 1.677 1709
-8.448 3.462 1.648 3220
-8.459 3.466 1.622 4518
-8.470 3.471 1.597 4133
-8.525 3.493 1.579 3090
-8.514 3.489 1.550 2842
-8.511 3.488 1.522 2639
-8.514 3.489 1.495 2635
-8.438 3.458 1.456 2052
-8.507 3.486 1.440 1516
-8.511 3.487 1.413 1234
-8.565 3.510 1.394 864
-8.575 3.514 1.368 478
-8.397 3.441 1.315 375
-8.393 3.439 1.288 325
-5.856 2.400 0.809 276
-5.858 2.400 0.791 402
-5.852 2.398 0.771 645
-5.861 2.402 0.754 845
-5.863 2.403 0.736 918
-5.857 2.400 0.716 912
-5.859 2.401 0.698 1453
-5.875 2.407 0.681 2373
-5.876 2.408 0.663 2356
-5.885 2.412 0.645 1955
-5.886 2.412 0.627 2125
-5.888 2.413 0.608 2558
-5.889 2.413 0.590 2152
-5.890 2.414 0.571 1483
-5.891 2.414 0.553 1006
-5.885 2.412 0.534 415
-5.879 2.409 0.515 328
-0.834 0.342 0.163 286
-0.834 0.342 0.161 263
-2.054 0.847 1.736 2625
-2.059 0.849 1.730 5251
-2.063 0.850 1.723 5251
-2.067 0.852 1.717 5818
-2.071 0.854 1.711 6384
-2.111 0.870 1.732 5430
-2.122 0.875 1.730 6616
-2.126 0.876 1.723 6616
-2.154 0.888 1.735 7398
-2.170 0.895 1.737 8667
-2.205 0.909 1.753 7204
-2.215 0.913 1.751 7521
-2.220 0.915 1.744 5943
-2.212 0.912 1.728 4635
-2.252 0.929 1.748 6267
-2.263 0.933 1.746 8432
-2.267 0.935 1.739 8741
-2.271 0.937 1.732 9041
-2.276 0.938 1.725 9296
-2.323 0.958 1.748 8493
-2.333 0.962 1.745 10403
-2.338 0.964 1.738 8888
-2.330 0.961 1.722 7695
-2.328 0.960 1.711 6388
-2.419 0.997 1.763 8041
-2.429 1.002 1.759 9806
-2.433 1.003 1.752 11801
-2.444 1.008 1.748 12814
-2.448 1.009 1.741 14048
-2.459 1.014 1.737 11417
-2.476 1.021 1.738 9773
-2.480 1.022 1.730 9070
-2.484 1.024 1.723 8366
-2.489 1.026 1.715 9588
-2.499 1.030 1.711 9731
-2.522 1.040 1.716 7241
-2.564 1.057 1.732 5764
-2.575 1.062 1.728 4925
-2.586 1.066 1.724 6816
-2.596 1.070 1.720 8860
-2.600 1.072 1.712 8853
-2.617 1.079 1.712 9155
-2.641 1.089 1.715 8213
-2.664 1.098 1.718 7245
-2.675 1.103 1.714 6200
-2.718 1.120 1.729 7588
-2.722 1.122 1.720 10184
-2.726 1.124 1.712 10665
-2.724 1.123 1.700 8479
-2.722 1.122 1.687 6259
-2.726 1.124 1.679 4409
-2.872 1.184 1.752 6179
-2.870 1.183 1.739 7889
-2.868 1.182 1.727 7441
-2.879 1.187 1.721 7051
-2.896 1.194 1.720 7349
-3.024 1.247 1.779 7554
-3.022 1.246 1.766 12039
-3.027 1.248 1.757 13967
-3.037 1.252 1.751 12219
-3.042 1.254 1.741 8361
-3.039 1.253 1.728 6650
-3.044 1.255 1.719 9183
-3.048 1.257 1.709 9881
-3.065 1.264 1.707 6387
-3.156 1.301 1.742 8355
-3.166 1.306 1.735 8642
-3.164 1.305 1.722 9499
-3.248 1.339 1.752 10223
-3.259 1.344 1.745 10772
-3.263 1.345 1.735 8597
-3.261 1.344 1.722 4382
-3.332 1.374 1.744 5632
-3.336 1.375 1.734 6865
-3.334 1.375 1.720 7706
-3.325 1.371 1.704 8147
-3.336 1.375 1.696 11914
-3.360 1.385 1.695 13433
-3.378 1.393 1.691 8310
-3.395 1.400 1.687 5858
-3.413 1.407 1.683 7309
-3.417 1.409 1.672 8033
-3.421 1.410 1.661 6567
-3.554 1.465 1.708 4402
-3.551 1.464 1.694 5863
-3.555 1.466 1.683 6991
-3.566 1.470 1.675 4977
-3.577 1.475 1.667 3114
-3.595 1.482 1.661 4201
-3.728 1.537 1.705 5308
-3.746 1.545 1.699 5206
-3.757 1.549 1.691 4076
-3.761 1.551 1.679 4788
-3.766 1.553 1.667 7711
-3.763 1.551 1.653 8105
-3.760 1.550 1.638 5323
-3.874 1.597 1.670 5632
-3.899 1.607 1.666 5661
-3.910 1.612 1.657 6477
-3.921 1.616 1.648 7658
-3.931 1.621 1.638 5627
-4.046 1.668 1.668 3418
-4.091 1.687 1.671 5300
-4.116 1.697 1.666 6231
-4.120 1.699 1.653 5432
-4.118 1.698 1.638 5841
-4.142 1.708 1.632 6256
-4.188 1.727 1.635 7256
-4.185 1.726 1.619 7448
-4.175 1.721 1.601 5628
-4.179 1.723 1.588 2899
-4.350 1.794 1.633 2854
-4.368 1.801 1.624 2604
-4.358 1.797 1.606 3419
-4.460 1.839 1.625 5024
-4.478 1.846 1.616 6062
-4.489 1.851 1.604 4407
-4.486 1.850 1.588 3184
-4.567 1.883 1.599 3344
-4.557 1.879 1.580 3462
-4.540 1.872 1.559 2933
-4.663 1.923 1.582 2331
-4.744 1.956 1.592 2390
-4.769 1.966 1.583 2609
-5.034 2.075 1.647 3717
-5.045 2.080 1.634 4955
-5.042 2.079 1.616 4504
-5.039 2.078 1.598 3651
-5.043 2.079 1.582 2651
-5.125 2.113 1.589 3330
-5.114 2.109 1.569 3300
-5.402 2.227 1.632 2157
-5.505 2.270 1.642 2708
-5.516 2.274 1.627 2198
-5.719 2.358 1.663 3201
-5.666 2.336 1.630 2794
-5.677 2.341 1.614 3425
-5.816 2.398 1.631 2877
-5.820 2.400 1.613 3289
-5.924 2.443 1.620 2386
-5.885 2.426 1.591 2372
-5.875 2.422 1.569 1904
-6.015 2.480 1.583 2136
-6.354 2.620 1.645 2117
-6.358 2.622 1.625 2168
-6.792 2.800 1.704 2412
-6.710 2.766 1.663 3338
-6.793 2.801 1.660 3464
-6.797 2.802 1.639 3370
-6.815 2.810 1.621 3645
-6.812 2.809 1.598 3703
-6.809 2.807 1.575 2927
-7.000 2.886 1.593 3057
-7.003 2.887 1.571 2065
-7.374 3.040 1.623 1959
-7.709 3.178 1.666 1659
-7.670 3.162 1.633 1753
-7.667 3.161 1.608 2693
-7.664 3.160 1.582 2186
-8.107 3.343 1.640 1257
-8.472 3.493 1.681 1548
-8.440 3.480 1.648 2475
-8.452 3.485 1.622 3810
-8.470 3.492 1.598 3477
-8.517 3.512 1.579 2944
-8.507 3.507 1.550 2784
-8.503 3.506 1.522 2627
-8.507 3.507 1.495 2623
-8.511 3.509 1.469 2083
-8.500 3.504 1.440 1420
-8.503 3.506 1.413 971
-8.557 3.528 1.394 669
-8.561 3.529 1.367 413
-8.433 3.477 1.322 304
-5.853 2.413 0.791 255
-5.855 2.414 0.772 472
-5.856 2.414 0.754 913
-5.858 2.415 0.736 1765
-5.859 2.416 0.717 2299
-5.868 2.419 0.700 2584
-5.877 2.423 0.682 2625
-5.878 2.424 0.663 1705
-5.887 2.427 0.646 1087
-5.888 2.428 0.627 1230
-5.882 2.425 0.608 1441
-5.869 2.420 0.589 1360
-5.863 2.417 0.570 1136
-5.857 2.415 0.551 835
-5.843 2.409 0.531 440
-5.844 2.410 0.513 307
-2.058 0.855 1.741 2827
-2.062 0.857 1.734 5654
-2.066 0.859 1.728 5654
-2.065 0.858 1.717 5657
-2.063 0.857 1.706 5851
-2.139 0.889 1.755 4907
-2.137 0.888 1.744 5859
-2.141 0.890 1.737 5859
-2.158 0.897 1.740 6858
-2.168 0.901 1.737 8004
-2.196 0.913 1.749 6403
-2.213 0.920 1.751 6620
-2.217 0.921 1.744 5088
-2.264 0.941 1.768 4204
-2.256 0.938 1.753 6405
-2.260 0.939 1.746 8893
-2.265 0.941 1.739 9239
-2.269 0.943 1.732 9587
-2.273 0.945 1.725 9855
-2.296 0.954 1.731 9039
-2.331 0.969 1.745 10850
-2.329 0.968 1.733 9368
-2.327 0.967 1.722 8226
-2.405 1.000 1.766 7035
-2.416 1.004 1.763 8930
-2.426 1.008 1.759 10792
-2.431 1.010 1.752 12819
-2.435 1.012 1.744 13595
-2.446 1.016 1.741 14685
-2.456 1.021 1.737 12349
-2.473 1.028 1.738 11069
-2.471 1.027 1.726 10192
-2.475 1.029 1.719 9405
-2.479 1.030 1.711 10666
-2.490 1.035 1.707 10321
-2.494 1.037 1.700 7237
-2.561 1.065 1.732 6096
-2.572 1.069 1.728 5199
-2.583 1.073 1.724 7302
-2.587 1.075 1.716 9582
-2.597 1.080 1.712 9386
-2.608 1.084 1.708 9467
-2.644 1.099 1.719 7881
-2.661 1.106 1.718 8041
-2.672 1.110 1.714 7434
-2.714 1.128 1.729 7628
-2.725 1.133 1.724 10057
-2.729 1.134 1.716 9915
-2.721 1.131 1.700 7213
-2.718 1.130 1.687 5212
-2.858 1.188 1.757 3755
-2.863 1.190 1.748 6405
-2.860 1.189 1.736 8624
-2.865 1.191 1.727 8405
-2.882 1.198 1.725 8349
-2.893 1.202 1.720 8921
-2.903 1.207 1.714 9054
-3.019 1.255 1.766 10872
-3.023 1.256 1.757 12683
-3.034 1.261 1.751 11103
-3.038 1.263 1.741 7839
-3.003 1.248 1.711 7322
-3.034 1.261 1.715 9457
-3.044 1.265 1.709 10085
-3.062 1.273 1.707 6989
-3.152 1.310 1.742 9050
-3.163 1.314 1.735 9377
-3.160 1.314 1.722 10189
-3.251 1.351 1.756 8859
-3.262 1.356 1.749 9281
-3.259 1.355 1.735 7021
-3.257 1.354 1.722 3589
-3.328 1.383 1.744 5091
-3.332 1.385 1.734 6516
-3.337 1.387 1.724 6845
-3.301 1.372 1.694 7474
-3.332 1.385 1.696 11512
-3.349 1.392 1.692 12897
-3.367 1.399 1.688 7585
-3.391 1.409 1.687 5101
-3.409 1.417 1.683 6604
-3.413 1.418 1.672 7336
-3.417 1.420 1.661 5948
-3.435 1.427 1.657 4283
-3.547 1.474 1.694 5760
-3.551 1.476 1.683 7294
-3.555 1.478 1.672 4761
-3.566 1.482 1.664 2769
-3.584 1.489 1.659 3941
-3.717 1.545 1.702 5649
-3.735 1.552 1.697 4873
-3.753 1.560 1.691 3739
-3.757 1.561 1.679 4860
-3.761 1.563 1.667 7801
-3.758 1.562 1.653 8051
-3.756 1.561 1.638 5153
-3.883 1.614 1.676 5381
-3.901 1.621 1.669 5790
-3.912 1.626 1.660 6329
-3.930 1.633 1.653 7280
-3.941 1.638 1.643 5425
-3.958 1.645 1.636 3338
-4.094 1.701 1.674 5101
-4.112 1.709 1.666 5954
-4.109 1.708 1.651 4919
-4.106 1.706 1.635 5243
-4.110 1.708 1.622 5641
-4.190 1.741 1.637 6899
-4.187 1.740 1.622 7596
-4.177 1.736 1.603 5448
-4.167 1.732 1.586 2605
-4.352 1.809 1.635 3344
-4.363 1.813 1.624 2999
-4.353 1.809 1.606 3071
-4.357 1.811 1.592 4104
-4.473 1.859 1.616 4823
-4.498 1.869 1.609 3884
-4.474 1.859 1.586 3017
-4.562 1.896 1.599 3427
-4.552 1.892 1.580 3106
-4.541 1.887 1.561 2866
-4.665 1.939 1.585 2767
-4.725 1.964 1.587 2905
-4.736 1.968 1.575 2562
-5.042 2.096 1.652 3674
-5.046 2.097 1.636 5730
-5.050 2.099 1.620 5155
-5.054 2.101 1.604 3420
-5.164 2.146 1.619 2796
-5.076 2.110 1.577 3705
-5.087 2.114 1.563 3878
-5.395 2.242 1.632 2651
-5.421 2.253 1.621 2497
-5.701 2.369 1.679 2058
-5.712 2.374 1.663 3268
-5.667 2.355 1.632 2921
-5.671 2.357 1.614 3399
-5.810 2.415 1.631 2823
-5.814 2.416 1.613 3045
-5.910 2.456 1.618 2514
-5.871 2.440 1.589 2459
-5.868 2.439 1.569 2178
-6.007 2.497 1.583 2097
-6.354 2.641 1.646 1788
-6.358 2.642 1.626 1984
-6.691 2.781 1.683 2411
-6.695 2.782 1.662 3497
-6.785 2.820 1.660 3422
-6.789 2.822 1.639 3553
-6.807 2.829 1.621 3632
-6.804 2.828 1.598 3743
-6.801 2.826 1.575 2906
-6.991 2.906 1.593 3609
-6.995 2.907 1.571 2357
-7.682 3.193 1.687 2089
-7.700 3.200 1.666 1720
-7.668 3.187 1.635 1711
-7.665 3.186 1.609 2426
-7.662 3.184 1.584 1835
-8.249 3.428 1.668 1384
-8.462 3.517 1.681 1624
-8.445 3.510 1.650 2014
-8.449 3.511 1.624 3032
-8.467 3.519 1.600 2904
-8.507 3.536 1.579 2734
-8.497 3.531 1.550 2643
-8.500 3.533 1.523 2572
-8.497 3.531 1.495 2457
-8.501 3.533 1.469 1984
-8.504 3.534 1.442 1318
-8.493 3.530 1.413 792
-8.547 3.552 1.394 518
-8.543 3.551 1.366 409
-8.423 3.501 1.322 335
-5.835 2.425 0.752 324
-5.836 2.426 0.734 784
-5.838 2.426 0.716 1102
-5.840 2.427 0.697 1231
-5.848 2.431 0.680 1064
-5.850 2.431 0.661 692
-5.851 2.432 0.643 627
-5.860 2.435 0.625 560
-5.854 2.433 0.606 630
-5.855 2.433 0.588 777
-5.856 2.434 0.570 776
-5.857 2.434 0.551 574
-5.858 2.435 0.533 292
-2.055 0.861 1.741 3014
-2.060 0.863 1.734 6029
-2.064 0.865 1.728 6029
-2.062 0.864 1.717 5424
-2.061 0.863 1.706 5269
-2.142 0.897 1.760 4445
-2.146 0.899 1.753 5444
-2.151 0.901 1.746 5444
-2.161 0.905 1.744 6380
-2.165 0.907 1.737 7398
-2.182 0.914 1.740 6034
-2.210 0.926 1.751 6061
-2.220 0.930 1.749 4607
-2.261 0.947 1.768 4750
-2.253 0.944 1.753 6748
-2.258 0.946 1.746 9272
-2.268 0.950 1.743 9676
-2.266 0.949 1.732 10020
-2.270 0.951 1.725 10279
-2.299 0.963 1.735 9492
-2.328 0.975 1.745 11115
-2.326 0.974 1.733 9671
-2.324 0.974 1.722 8538
-2.402 1.006 1.766 7702
-2.413 1.011 1.763 9764
-2.423 1.015 1.759 11692
-2.428 1.017 1.752 13742
-2.432 1.019 1.744 14276
-2.443 1.023 1.741 15141
-2.453 1.028 1.737 13299
-2.464 1.032 1.734 12324
-2.468 1.034 1.726 11593
-2.460 1.030 1.711 11046
-2.470 1.035 1.707 12303
-2.481 1.039 1.703 11550
-2.485 1.041 1.696 8290
-2.558 1.072 1.732 5652
-2.569 1.076 1.728 4872
-2.573 1.078 1.720 6969
-2.584 1.082 1.716 9184
-2.594 1.087 1.712 8923
-2.605 1.091 1.708 9120
-2.635 1.104 1.715 7588
-2.658 1.114 1.718 8477
-2.669 1.118 1.714 8371
-2.711 1.136 1.729 7854
-2.722 1.140 1.724 9990
-2.726 1.142 1.716 9187
-2.737 1.147 1.711 6098
-2.715 1.138 1.687 4017
-2.784 1.166 1.716 3634
-2.859 1.198 1.748 6616
-2.857 1.197 1.736 9365
-2.861 1.199 1.727 9239
-2.879 1.206 1.725 9566
-2.889 1.210 1.720 10373
-2.900 1.215 1.714 10556
-3.015 1.263 1.766 9467
-3.019 1.265 1.757 11019
-3.030 1.269 1.751 9607
-3.028 1.269 1.738 7063
-3.000 1.257 1.711 8268
-3.023 1.267 1.712 9731
-3.041 1.274 1.709 10204
-3.058 1.281 1.707 7970
-3.148 1.319 1.742 9789
-3.159 1.323 1.735 10193
-3.157 1.322 1.722 10899
-3.168 1.327 1.715 9483
-3.265 1.368 1.752 8076
-3.262 1.367 1.739 6136
-3.253 1.363 1.722 3670
-3.311 1.387 1.738 4808
-3.322 1.392 1.731 5948
-3.333 1.396 1.724 5940
-3.290 1.378 1.691 6927
-3.328 1.394 1.696 10889
-3.339 1.399 1.689 12342
-3.356 1.406 1.685 7147
-3.374 1.413 1.681 4133
-3.405 1.426 1.683 5218
-3.409 1.428 1.672 6047
-3.413 1.430 1.661 5163
-3.437 1.440 1.660 4364
-3.543 1.484 1.694 5853
-3.547 1.486 1.683 7472
-3.632 1.522 1.708 4802
-3.643 1.526 1.699 3396
-3.715 1.556 1.717 3689
-3.713 1.555 1.702 5809
-3.724 1.560 1.694 4649
-3.755 1.573 1.693 3371
-3.753 1.572 1.679 4744
-3.757 1.574 1.667 7465
-3.761 1.576 1.655 7699
-3.758 1.574 1.641 4864
-3.885 1.628 1.679 5227
-3.896 1.632 1.669 5541
-3.935 1.648 1.671 5829
-3.939 1.650 1.658 6585
-3.943 1.652 1.646 5103
-3.961 1.659 1.639 3617
-4.089 1.713 1.674 4799
-4.107 1.720 1.666 5513
-4.104 1.719 1.651 4465
-4.094 1.715 1.633 4841
-4.098 1.717 1.620 5403
-4.185 1.753 1.637 6588
-4.182 1.752 1.622 7440
-4.172 1.748 1.603 5117
-4.329 1.814 1.644 2962
-4.347 1.821 1.635 4018
-4.358 1.826 1.624 3338
-4.341 1.819 1.603 2692
-4.352 1.823 1.592 3639
-4.474 1.874 1.618 3884
-4.499 1.885 1.611 3358
-4.412 1.849 1.567 2797
-4.556 1.909 1.599 3303
-4.546 1.905 1.580 2664
-4.641 1.944 1.595 2795
-4.659 1.952 1.585 3207
-4.733 1.983 1.592 3291
-4.730 1.982 1.575 2882
-5.036 2.110 1.652 3685
-5.047 2.114 1.638 6201
-5.051 2.116 1.622 6123
-5.055 2.118 1.606 3682
-5.158 2.161 1.619 3365
-5.070 2.124 1.577 4721
-5.074 2.126 1.561 4369
-5.389 2.258 1.632 2915
-5.414 2.268 1.621 2765
-5.694 2.386 1.679 2049
-5.698 2.387 1.661 3170
-5.688 2.383 1.639 3055
-5.664 2.373 1.614 3068
-5.895 2.470 1.655 2652
-5.892 2.468 1.635 2997
-5.903 2.473 1.618 2783
-5.886 2.466 1.594 2490
-5.861 2.455 1.569 2321
-5.993 2.511 1.582 2142
-5.961 2.497 1.554 1494
-6.351 2.660 1.626 1838
-6.676 2.797 1.681 2527
-6.680 2.798 1.660 3645
-6.777 2.839 1.660 3232
-6.774 2.838 1.637 3554
-6.792 2.845 1.619 3449
-6.796 2.847 1.598 3557
-6.979 2.924 1.615 2894
-6.983 2.925 1.593 3735
-6.987 2.927 1.571 2382
-7.665 3.211 1.686 2226
-7.670 3.213 1.661 1753
-7.659 3.209 1.635 1745
-7.656 3.207 1.609 2238
-8.228 3.447 1.693 1756
-8.232 3.449 1.667 1766
-8.445 3.538 1.679 1627
-8.298 3.476 1.626 2019
-8.446 3.538 1.625 2327
-8.457 3.543 1.600 2410
-8.490 3.557 1.578 2445
-8.487 3.555 1.550 2399
-8.490 3.557 1.523 2407
-8.494 3.558 1.496 2264
-8.491 3.557 1.469 1790
-8.378 3.510 1.424 1171
-8.375 3.508 1.397 860
-8.530 3.573 1.393 436
-8.526 3.572 1.365 379
-8.413 3.525 1.322 268
-5.818 2.437 0.696 276
-5.827 2.441 0.678 381
-5.828 2.442 0.660 442
-5.830 2.442 0.642 441
-5.831 2.443 0.624 467
-5.847 2.449 0.606 759
-5.848 2.450 0.588 939
-5.849 2.450 0.570 869
-5.850 2.451 0.551 630
-5.859 2.454 0.533 318
-2.059 0.868 1.746 3198
-2.063 0.870 1.739 6397
-2.068 0.872 1.733 6397
-2.066 0.871 1.722 5176
-2.053 0.866 1.701 4651
-2.134 0.900 1.755 4006
-2.150 0.907 1.757 5114
-2.155 0.909 1.751 5114
-2.159 0.910 1.744 5880
-2.169 0.915 1.742 6673
-2.173 0.917 1.735 5695
-2.202 0.928 1.746 5464
-2.218 0.935 1.749 4429
-2.259 0.952 1.768 5258
-2.257 0.952 1.757 7228
-2.261 0.954 1.750 9695
-2.266 0.955 1.743 10104
-2.264 0.955 1.732 10335
-2.274 0.959 1.729 10567
-2.303 0.971 1.739 9834
-2.326 0.981 1.745 11249
-2.324 0.980 1.733 9833
-2.322 0.979 1.722 8688
-2.400 1.012 1.766 8442
-2.410 1.016 1.763 10654
-2.415 1.018 1.755 12636
-2.425 1.023 1.752 14694
-2.430 1.025 1.744 14896
-2.440 1.029 1.741 15436
-2.451 1.033 1.737 14237
-2.461 1.038 1.734 13661
-2.459 1.037 1.722 13280
-2.451 1.034 1.706 13593
-2.461 1.038 1.703 14375
-2.472 1.042 1.699 13115
-2.476 1.044 1.692 9618
-2.474 1.043 1.680 6494
-2.566 1.082 1.728 4385
-2.571 1.084 1.720 5993
-2.581 1.088 1.716 7708
-2.592 1.093 1.712 7642
-2.609 1.100 1.712 8137
-2.632 1.110 1.715 7646
-2.662 1.122 1.722 9094
-2.666 1.124 1.714 9388
-2.709 1.142 1.729 8372
-2.719 1.147 1.724 10362
-2.723 1.148 1.716 8933
-2.747 1.158 1.718 5812
-2.764 1.166 1.717 4298
-2.781 1.173 1.716 4220
-2.856 1.204 1.748 6712
-2.854 1.204 1.736 9710
-2.858 1.205 1.727 9632
-2.876 1.213 1.725 10553
-2.886 1.217 1.720 11763
-2.891 1.219 1.711 11981
-2.901 1.223 1.705 10020
-3.016 1.272 1.757 9227
-3.027 1.277 1.751 8035
-2.999 1.265 1.724 7041
-2.997 1.264 1.711 9582
-3.014 1.271 1.708 10584
-3.031 1.278 1.706 10397
-3.055 1.288 1.707 8722
-3.145 1.326 1.742 10257
-3.156 1.331 1.735 10761
-3.160 1.333 1.725 11584
-3.171 1.337 1.719 10531
-3.182 1.342 1.712 8558
-3.266 1.377 1.742 6045
-3.263 1.376 1.728 4636
-3.281 1.384 1.725 6107
-3.285 1.385 1.714 6652
-3.263 1.376 1.691 6455
-3.287 1.386 1.691 6724
-3.324 1.402 1.696 10072
-3.335 1.406 1.689 11733
-3.346 1.411 1.682 7222
-3.350 1.413 1.671 4371
-3.375 1.423 1.670 3953
-3.406 1.436 1.672 4638
-3.416 1.441 1.664 4215
-3.447 1.454 1.666 4329
-3.539 1.492 1.694 6119
-3.543 1.494 1.683 7574
-3.636 1.533 1.710 5666
-3.640 1.535 1.699 4089
-3.712 1.565 1.717 3906
-3.716 1.567 1.705 5805
-3.720 1.569 1.694 4498
-3.731 1.573 1.685 3156
-3.742 1.578 1.676 4531
-3.746 1.580 1.664 6573
-3.757 1.584 1.655 6913
-3.768 1.589 1.646 4624
-3.881 1.637 1.679 4968
-3.892 1.641 1.669 5055
-3.931 1.658 1.671 5477
-3.935 1.659 1.658 6134
-3.946 1.664 1.649 4919
-3.964 1.671 1.642 3912
-4.092 1.725 1.676 4512
-4.103 1.730 1.666 4986
-3.983 1.679 1.607 4300
-4.090 1.725 1.633 4443
-4.094 1.726 1.620 5006
-4.181 1.763 1.637 6233
-4.178 1.762 1.622 7206
-4.161 1.755 1.601 4849
-4.332 1.827 1.647 3595
-4.343 1.831 1.635 4676
-4.354 1.836 1.624 3584
-4.344 1.832 1.606 2484
-4.445 1.874 1.625 3418
-4.463 1.882 1.616 3378
-4.418 1.863 1.586 2881
-4.408 1.859 1.567 2975
-4.552 1.919 1.599 2995
-4.612 1.945 1.602 2624
-4.637 1.955 1.595 3388
-4.654 1.963 1.585 3437
-4.728 1.994 1.592 3434
-4.810 2.028 1.601 3134
-5.031 2.122 1.652 3683
-5.042 2.126 1.638 6436
-5.046 2.128 1.622 6876
-5.057 2.133 1.608 4178
-5.061 2.134 1.592 3589
-5.065 2.136 1.577 5540
-5.069 2.138 1.561 4490
-5.391 2.273 1.634 2955
-5.409 2.281 1.621 2566
-5.554 2.342 1.642 2095
-5.693 2.401 1.661 2860
-5.690 2.399 1.641 3160
-5.680 2.395 1.620 2828
-5.882 2.480 1.653 2647
-5.886 2.482 1.635 3200
-5.890 2.484 1.616 2941
-5.887 2.483 1.596 2469
-5.976 2.520 1.599 2700
-5.973 2.519 1.578 2286
-5.956 2.511 1.554 1931
-6.401 2.699 1.640 1818
-6.662 2.809 1.680 2730
-6.673 2.814 1.660 3717
-6.685 2.819 1.641 3164
-6.753 2.848 1.634 3634
-6.757 2.849 1.613 3410
-6.789 2.863 1.598 3328
-6.979 2.943 1.616 2707
-6.976 2.942 1.593 3640
-7.045 2.971 1.584 2386
-7.651 3.226 1.684 2204
-7.655 3.228 1.660 1754
-7.652 3.227 1.635 1720
-7.656 3.228 1.610 2026
-8.220 3.466 1.693 2195
-8.224 3.468 1.667 1994
-8.336 3.515 1.661 1691
-8.290 3.496 1.626 1980
-8.445 3.561 1.626 1754
-8.456 3.566 1.601 1957
-8.482 3.577 1.578 2141
-8.478 3.575 1.550 2121
-8.482 3.577 1.523 2113
-8.486 3.578 1.496 1931
-8.489 3.580 1.470 1562
-8.493 3.581 1.443 1058
-8.366 3.528 1.397 642
-8.326 3.511 1.364 472
-8.322 3.509 1.336 391
-8.326 3.511 1.310 293
-5.843 2.464 0.680 264
-5.844 2.464 0.662 476
-5.846 2.465 0.644 574
-5.847 2.466 0.625 524
-5.848 2.466 0.607 397
-5.842 2.464 0.588 360
-5.843 2.464 0.570 391
-5.837 2.462 0.551 374
-5.838 2.462 0.532 291
-2.057 0.874 1.746 3326
-2.061 0.876 1.739 6653
-2.065 0.877 1.733 6653
-2.070 0.879 1.726 5076
-2.050 0.871 1.701 4043
-2.132 0.905 1.755 3788
-2.148 0.912 1.757 5062
-2.152 0.914 1.751 5062
-2.156 0.916 1.744 5532
-2.167 0.920 1.742 6071
-2.165 0.920 1.731 5386
-2.199 0.934 1.746 4885
-2.168 0.921 1.713 4715
-2.250 0.956 1.764 5845
-2.254 0.958 1.757 7654
-2.259 0.960 1.750 9919
-2.263 0.961 1.743 10317
-2.267 0.963 1.736 10417
-2.272 0.965 1.729 10574
-2.300 0.977 1.739 9999
-2.323 0.987 1.745 11227
-2.321 0.986 1.733 9823
-2.319 0.985 1.722 8641
-2.397 1.018 1.766 9149
-2.408 1.023 1.763 11493
-2.412 1.025 1.755 13465
-2.423 1.029 1.752 15464
-2.427 1.031 1.744 15270
-2.437 1.035 1.741 15400
-2.442 1.037 1.733 14973
-2.452 1.042 1.730 14831
-2.450 1.041 1.718 15056
-2.448 1.040 1.706 15922
-2.459 1.044 1.703 16270
-2.469 1.049 1.699 14507
-2.473 1.051 1.692 10875
-2.471 1.050 1.680 7859
-2.475 1.052 1.672 5700
-2.568 1.091 1.720 5512
-2.572 1.093 1.712 6391
-2.589 1.100 1.712 6199
-2.619 1.112 1.719 7230
-2.635 1.120 1.719 7733
-2.659 1.129 1.722 9752
-2.663 1.131 1.714 10182
-2.699 1.147 1.725 8708
-2.716 1.154 1.724 10460
-2.727 1.158 1.719 8737
-2.750 1.168 1.722 5807
-2.767 1.176 1.721 4736
-2.778 1.180 1.716 4577
-2.853 1.212 1.748 6724
-2.851 1.211 1.736 9790
-2.855 1.213 1.727 9742
-2.873 1.220 1.725 11065
-2.883 1.225 1.720 12558
-2.887 1.227 1.711 12806
-2.898 1.231 1.705 10811
-2.909 1.236 1.700 8328
-2.907 1.235 1.687 8343
-2.996 1.273 1.724 7987
-2.993 1.272 1.711 10987
-3.004 1.276 1.705 11568
-3.028 1.286 1.706 10600
-3.052 1.296 1.707 9370
-3.142 1.334 1.742 10414
-3.152 1.339 1.735 10974
-3.157 1.341 1.725 12039
-3.174 1.348 1.722 11451
-3.185 1.353 1.715 9878
-3.189 1.355 1.706 7138
-3.260 1.385 1.728 5768
-3.277 1.392 1.725 7617
-3.281 1.394 1.714 7962
-3.272 1.390 1.698 6918
-3.283 1.395 1.691 6622
-3.327 1.413 1.700 9258
-3.332 1.415 1.689 10906
-3.336 1.417 1.679 7409
-3.340 1.419 1.668 5097
-3.351 1.423 1.661 3893
-3.408 1.448 1.675 3624
-3.419 1.453 1.667 3529
-3.450 1.466 1.669 4234
-3.535 1.502 1.694 6128
-3.540 1.504 1.683 7367
-3.631 1.543 1.710 6259
-3.636 1.544 1.699 4601
-3.708 1.575 1.717 3879
-3.712 1.577 1.705 5536
-3.709 1.576 1.691 4345
-3.713 1.577 1.679 3431
-3.724 1.582 1.670 4505
-3.742 1.590 1.664 5536
-3.753 1.594 1.655 5790
-3.771 1.602 1.649 4719
-3.877 1.647 1.679 4309
-3.895 1.655 1.672 4311
-3.926 1.668 1.671 5069
-3.937 1.673 1.661 5677
-3.941 1.674 1.649 4830
-3.966 1.685 1.644 4317
-3.970 1.686 1.632 4361
-3.974 1.688 1.619 4911
-3.978 1.690 1.607 4474
-4.086 1.735 1.633 4094
-4.186 1.778 1.655 4688
-4.176 1.774 1.637 6034
-4.173 1.773 1.622 7062
-4.157 1.766 1.601 4654
-4.327 1.838 1.647 4314
-4.338 1.843 1.635 5205
-4.349 1.847 1.624 3659
-4.436 1.884 1.639 2633
-4.440 1.886 1.625 3775
-4.451 1.891 1.614 3323
-4.413 1.875 1.586 2984
-4.403 1.870 1.567 3179
-4.554 1.934 1.601 2428
-4.599 1.954 1.600 2941
-4.624 1.964 1.592 3805
-4.649 1.975 1.585 3371
-4.723 2.006 1.592 3437
-4.797 2.038 1.598 3474
-4.801 2.039 1.583 3467
-5.037 2.140 1.638 6038
-5.048 2.144 1.624 7032
-5.052 2.146 1.608 4307
-5.056 2.148 1.592 3784
-5.060 2.149 1.577 5661
-5.056 2.148 1.559 4140
-5.385 2.287 1.634 2693
-5.473 2.325 1.640 2139
-5.548 2.357 1.642 2255
-5.552 2.358 1.625 2695
-5.683 2.414 1.641 3115
-5.695 2.419 1.625 2816
-5.876 2.496 1.653 2577
-5.873 2.495 1.633 3354
-5.877 2.496 1.615 2892
-5.959 2.531 1.616 2562
-5.970 2.536 1.599 3151
-5.952 2.528 1.575 2539
-5.949 2.527 1.554 2218
-6.387 2.713 1.638 1878
-6.655 2.827 1.680 2570
-6.659 2.829 1.659 3382
-6.677 2.836 1.641 3002
-6.745 2.865 1.634 3545
-6.749 2.867 1.613 3609
-6.775 2.878 1.596 2991
-7.065 3.001 1.636 2537
-7.119 3.024 1.624 3377
-7.037 2.989 1.584 2255
-7.642 3.246 1.684 2162
-7.646 3.248 1.660 1706
-7.643 3.247 1.635 1542
-8.207 3.486 1.719 2133
-8.211 3.488 1.693 2547
-8.215 3.490 1.667 2141
-8.320 3.534 1.660 1999
-8.281 3.518 1.626 1995
-8.565 3.638 1.649 1722
-8.569 3.640 1.622 2109
-8.465 3.596 1.577 1816
-8.469 3.598 1.550 1725
-8.473 3.599 1.523 1649
-8.476 3.601 1.496 1459
-8.480 3.602 1.470 1215
-8.483 3.604 1.443 909
-8.660 3.679 1.442 566
-8.324 3.536 1.365 509
-8.313 3.531 1.336 489
-8.316 3.533 1.310 378
-8.319 3.534 1.284 271
-5.832 2.477 0.736 262
-5.826 2.475 0.716 369
-5.828 2.476 0.698 469
-5.836 2.479 0.680 619
-5.831 2.477 0.661 707
-5.832 2.477 0.643 750
-5.833 2.478 0.625 693
-5.835 2.478 0.606 489
-5.843 2.482 0.589 324
-5.851 2.486 0.571 322
-5.845 2.483 0.552 291
-2.055 0.878 1.746 3379
-2.059 0.880 1.739 6759
-2.064 0.882 1.733 6759
-2.074 0.886 1.731 5119
-2.090 0.893 1.734 3791
-2.124 0.908 1.750 3858
-2.146 0.917 1.757 5135
-2.150 0.919 1.751 5135
-2.155 0.921 1.744 5258
-2.165 0.925 1.742 5482
-2.163 0.924 1.731 5069
-2.155 0.921 1.715 4944
-2.166 0.925 1.713 4976
-2.248 0.961 1.764 6260
-2.252 0.963 1.757 7880
-2.257 0.964 1.750 9917
-2.261 0.966 1.743 10291
-2.265 0.968 1.736 10293
-2.276 0.972 1.733 10397
-2.298 0.982 1.739 9943
-2.321 0.992 1.745 10969
-2.319 0.991 1.733 9580
-2.366 1.011 1.756 8776
-2.395 1.023 1.766 9757
-2.406 1.028 1.763 12255
-2.410 1.030 1.755 14159
-2.420 1.034 1.752 16077
-2.425 1.036 1.744 15418
-2.435 1.041 1.741 15055
-2.440 1.042 1.733 15448
-2.444 1.044 1.726 15841
-2.442 1.043 1.714 16743
-2.446 1.045 1.706 17934
-2.450 1.047 1.699 17897
-2.467 1.054 1.699 15619
-2.465 1.053 1.688 11947
-2.469 1.055 1.680 9148
-2.473 1.057 1.672 7098
-2.565 1.096 1.720 5328
-2.570 1.098 1.712 5660
-2.580 1.103 1.708 5405
-2.616 1.118 1.719 6810
-2.633 1.125 1.719 7924
-2.656 1.135 1.722 10694
-2.661 1.137 1.714 11323
-2.671 1.141 1.710 9207
-2.714 1.160 1.724 10426
-2.724 1.164 1.719 8591
-2.754 1.177 1.726 6098
-2.765 1.182 1.721 5335
-2.776 1.186 1.716 5012
-2.851 1.218 1.748 6682
-2.848 1.217 1.736 9728
-2.859 1.222 1.730 9683
-2.870 1.226 1.725 11266
-2.881 1.231 1.720 12954
-2.885 1.233 1.711 13211
-2.896 1.237 1.705 11161
-2.900 1.239 1.696 8654
-2.904 1.241 1.687 8511
-2.993 1.279 1.724 9090
-2.991 1.278 1.711 12452
-3.001 1.283 1.705 12610
-3.025 1.293 1.706 10725
-3.049 1.303 1.707 9646
-3.139 1.341 1.742 10217
-3.150 1.346 1.735 10837
-3.160 1.351 1.729 12041
-3.171 1.355 1.722 11968
-3.182 1.360 1.715 10661
-3.193 1.364 1.709 7920
-3.257 1.392 1.728 6718
-3.274 1.399 1.725 8710
-3.278 1.401 1.714 9003
-3.276 1.400 1.701 7513
-3.287 1.405 1.694 6363
-3.324 1.421 1.700 8387
-3.329 1.422 1.689 9786
-3.333 1.424 1.679 7449
-3.337 1.426 1.668 5667
-3.341 1.428 1.658 3902
-3.452 1.475 1.697 2945
-3.436 1.468 1.677 3038
-3.447 1.473 1.669 4121
-3.532 1.509 1.694 5931
-3.536 1.511 1.683 7014
-3.628 1.550 1.710 6549
-3.632 1.552 1.699 4891
-3.704 1.583 1.717 3691
-3.708 1.585 1.705 5035
-3.706 1.584 1.691 4205
-3.703 1.582 1.676 3942
-3.707 1.584 1.665 4814
-3.732 1.595 1.662 4580
-3.763 1.608 1.661 4794
-3.781 1.616 1.655 5508
-3.785 1.617 1.643 3745
-3.891 1.663 1.672 3696
-3.923 1.676 1.671 4767
-3.934 1.681 1.661 5699
-3.938 1.683 1.649 5092
-3.956 1.690 1.642 4718
-3.960 1.692 1.629 4664
-3.971 1.697 1.619 4999
-3.974 1.698 1.607 4419
-4.089 1.747 1.635 3631
-4.182 1.787 1.655 4442
-4.179 1.786 1.640 5684
-4.170 1.782 1.622 6599
-4.153 1.775 1.601 4322
-4.323 1.847 1.647 5030
-4.334 1.852 1.635 5676
-4.338 1.854 1.622 3612
-4.425 1.891 1.637 2965
-4.415 1.887 1.618 4326
-4.419 1.888 1.604 3737
-4.409 1.884 1.586 3151
-4.406 1.883 1.570 3220
-4.424 1.890 1.560 2289
-4.595 1.964 1.600 3229
-4.620 1.974 1.592 3999
-4.645 1.985 1.585 3119
-4.719 2.017 1.592 3155
-4.786 2.045 1.596 3645
-4.790 2.047 1.581 4040
-5.032 2.150 1.638 5131
-5.043 2.155 1.624 6297
-5.054 2.160 1.610 4133
-5.058 2.161 1.594 3747
-5.055 2.160 1.577 5166
-5.052 2.159 1.559 3479
-5.380 2.299 1.634 2382
-5.461 2.334 1.638 2683
-5.543 2.369 1.642 2259
-5.540 2.367 1.623 2674
-5.692 2.433 1.645 3013
-5.696 2.434 1.627 2953
-5.870 2.509 1.653 2483
-5.853 2.501 1.629 3683
-5.864 2.506 1.613 2868
-5.953 2.544 1.616 2787
-5.964 2.549 1.599 3335
-5.947 2.541 1.575 2768
-5.944 2.540 1.554 2505
-5.962 2.548 1.539 1999
-6.641 2.838 1.678 2568
-6.653 2.843 1.659 3233
-6.664 2.848 1.639 2738
-6.732 2.877 1.633 3248
-6.743 2.882 1.613 3520
-6.761 2.889 1.595 2619
-7.065 3.019 1.637 2683
-7.105 3.036 1.623 3348
-7.030 3.004 1.584 2101
-7.635 3.263 1.684 1995
-7.639 3.264 1.660 1547
-8.173 3.493 1.740 1474
-8.206 3.507 1.720 2301
-8.203 3.506 1.693 2731
-8.208 3.507 1.667 2122
-8.312 3.552 1.660 2425
-8.280 3.538 1.627 2445
-8.557 3.657 1.649 1801
-8.561 3.658 1.622 2245
-8.580 3.666 1.598 1673
-8.605 3.677 1.574 1545
-8.602 3.676 1.546 1530
-8.605 3.677 1.519 1448
-8.609 3.679 1.491 1017
-8.476 3.622 1.443 760
-8.652 3.697 1.442 556
-8.490 3.628 1.390 329
-8.305 3.549 1.336 360
-8.309 3.551 1.310 341
-8.312 3.552 1.284 276
-5.819 2.487 0.735 298
-5.821 2.487 0.716 395
-5.822 2.488 0.698 414
-5.824 2.489 0.680 382
-5.832 2.492 0.662 330
-5.841 2.496 0.644 333
-5.835 2.494 0.625 375
-5.829 2.491 0.606 358
-2.054 0.881 1.746 3389
-2.058 0.883 1.739 6778
-2.062 0.885 1.733 6778
-2.078 0.892 1.736 5306
-2.094 0.899 1.738 4437
-2.116 0.908 1.746 4424
-2.138 0.918 1.753 5294
-2.143 0.920 1.746 5294
-2.153 0.924 1.744 4987
-2.163 0.928 1.742 4851
-2.162 0.928 1.731 4700
-2.154 0.924 1.715 4978
-2.164 0.929 1.713 5140
-2.241 0.962 1.760 6534
-2.251 0.966 1.757 7901
-2.255 0.968 1.750 9659
-2.260 0.970 1.743 9991
-2.264 0.972 1.736 9900
-2.274 0.976 1.733 9987
-2.297 0.986 1.739 9698
-2.319 0.995 1.745 10561
-2.318 0.995 1.733 9193
-2.365 1.015 1.756 8842
-2.393 1.027 1.766 10207
-2.404 1.032 1.763 12857
-2.408 1.034 1.755 14713
-2.419 1.038 1.752 16603
-2.423 1.040 1.744 15469
-2.434 1.044 1.741 14599
-2.438 1.046 1.733 15692
-2.442 1.048 1.726 16785
-2.440 1.047 1.714 18129
-2.444 1.049 1.706 19504
-2.449 1.051 1.699 19193
-2.459 1.055 1.695 16445
-2.463 1.057 1.688 12998
-2.467 1.059 1.680 10277
-2.471 1.061 1.672 8250
-2.476 1.062 1.665 6026
-2.568 1.102 1.712 4774
-2.610 1.120 1.727 5014
-2.614 1.122 1.719 6280
-2.644 1.135 1.727 7637
-2.655 1.139 1.722 11269
-2.659 1.141 1.714 12099
-2.669 1.146 1.710 9745
-2.712 1.164 1.724 10050
-2.723 1.168 1.719 8144
-2.752 1.181 1.726 6368
-2.763 1.186 1.721 5766
-2.774 1.190 1.716 5168
-2.849 1.223 1.748 6655
-2.847 1.222 1.736 9647
-2.857 1.226 1.730 9577
-2.868 1.231 1.725 11271
-2.879 1.235 1.720 12989
-2.883 1.237 1.711 13207
