-1.631 2.644 1.684 8854
-1.645 2.665 1.685 8294
-1.644 2.663 1.673 8071
-1.668 2.703 1.685 9229
-1.678 2.719 1.683 11406
-1.688 2.735 1.681 8856
-1.705 2.763 1.685 7828
-1.711 2.773 1.679 8865
-1.721 2.789 1.677 8932
-1.724 2.793 1.667 6414
-1.741 2.821 1.671 4446
-1.740 2.819 1.659 5882
-1.746 2.829 1.652 7115
-1.752 2.839 1.646 7839
-1.765 2.861 1.646 8300
-1.824 2.956 1.686 7186
-1.823 2.954 1.672 8189
-1.829 2.964 1.666 8990
-1.835 2.974 1.659 6526
-1.838 2.978 1.649 3252
-1.947 3.155 1.727 4670
-1.953 3.165 1.719 4933
-1.963 3.181 1.715 4984
-1.969 3.191 1.707 5868
-1.972 3.195 1.697 6559
-1.974 3.199 1.686 6276
-1.984 3.215 1.681 6921
-1.986 3.219 1.670 9695
-1.996 3.235 1.665 8076
-2.026 3.283 1.675 6809
-2.032 3.293 1.667 7239
-2.030 3.290 1.653 5603
-2.091 3.388 1.685 4247
-2.132 3.455 1.702 4129
-2.134 3.459 1.691 6737
-2.137 3.462 1.679 6626
-2.143 3.472 1.670 4084
-2.200 3.564 1.697 4413
-2.151 3.486 1.649 5349
-2.165 3.509 1.646 7078
-2.168 3.513 1.634 5646
-2.205 3.573 1.646 4018
-2.208 3.577 1.634 4094
-2.327 3.771 1.702 4562
-2.322 3.762 1.684 5165
-2.328 3.773 1.674 3566
-2.366 3.834 1.684 5065
-2.364 3.831 1.669 5792
-2.367 3.835 1.656 4562
-2.444 3.960 1.691 3962
-2.446 3.964 1.677 4099
-2.496 4.044 1.694 5208
-2.494 4.042 1.677 5845
-2.489 4.033 1.659 4495
-2.487 4.030 1.643 3680
-2.497 4.047 1.634 2437
-2.615 4.237 1.689 1735
-2.645 4.286 1.691 3246
-2.651 4.296 1.679 4107
-2.693 4.364 1.687 3934
-2.699 4.374 1.675 3181
-2.706 4.385 1.662 1948
-2.744 4.447 1.668 2438
-2.778 4.502 1.670 3734
-2.821 4.571 1.677 4249
-2.827 4.581 1.664 5257
-2.829 4.585 1.648 3305
-2.936 4.757 1.688 3778
-2.962 4.800 1.684 3749
-2.972 4.817 1.672 4119
-3.015 4.885 1.676 4271
-3.009 4.876 1.656 4190
-2.987 4.841 1.627 4438
-2.982 4.831 1.607 3130
-3.064 4.966 1.630 2668
-3.067 4.969 1.613 3152
-3.194 5.175 1.656 2956
-3.273 5.303 1.674 3617
-3.203 5.189 1.622 3271
-3.326 5.390 1.661 2865
-3.409 5.524 1.679 2341
-3.399 5.508 1.655 2926
-3.410 5.525 1.640 2656
-3.436 5.568 1.632 2992
-3.443 5.579 1.614 2112
-3.595 5.826 1.659 2101
-3.622 5.869 1.650 2341
-3.644 5.905 1.638 2042
-3.704 6.001 1.641 1934
-3.763 6.097 1.644 1956
-3.895 6.312 1.675 2042
-3.898 6.316 1.653 1367
-4.091 6.630 1.706 1392
-4.016 6.508 1.653 2059
-4.108 6.658 1.665 2047
-4.123 6.681 1.647 1545
-4.526 7.333 1.769 1702
-4.581 7.424 1.763 2344
-4.404 7.136 1.674 2216
-4.529 7.339 1.692 2297
-4.769 7.727 1.748 2067
-4.779 7.744 1.724 4408
-4.782 7.748 1.698 5813
-4.784 7.752 1.671 4554
-4.782 7.749 1.644 3955
-4.789 7.760 1.619 4572
-4.795 7.770 1.593 4416
-4.797 7.774 1.567 2959
-4.803 7.784 1.541 1641
-4.830 7.827 1.522 1052
-4.832 7.831 1.495 888
-4.834 7.834 1.469 519
-1.186 1.924 1.764 2777
-1.188 1.928 1.758 5554
-1.191 1.932 1.751 5554
-1.193 1.936 1.745 5726
-1.196 1.940 1.738 5898
-1.202 1.950 1.737 4895
-1.251 2.031 1.794 7138
-1.254 2.035 1.787 7138
-1.256 2.039 1.781 7217
-1.259 2.043 1.774 7297
-1.251 2.030 1.753 6477
-1.250 2.029 1.742 6290
-1.277 2.072 1.766 8495
-1.276 2.070 1.755 12644
-1.282 2.080 1.753 12492
-1.284 2.084 1.746 12339
-1.283 2.082 1.734 12130
-1.289 2.092 1.732 9575
-1.302 2.112 1.738 8433
-1.304 2.116 1.731 7745
-1.303 2.115 1.719 7153
-1.295 2.102 1.699 5952
-1.294 2.100 1.688 5008
-1.307 2.121 1.693 3660
-1.330 2.159 1.712 3745
-1.336 2.168 1.709 4232
-1.339 2.172 1.701 4791
-1.345 2.182 1.698 4046
-1.400 2.272 1.753 3385
-1.402 2.276 1.746 4613
-1.401 2.274 1.734 5843
-1.404 2.278 1.726 5824
-1.403 2.276 1.715 5807
-1.405 2.280 1.707 5731
-1.411 2.290 1.703 4713
-1.435 2.328 1.720 4797
-1.441 2.338 1.716 6021
-1.443 2.342 1.708 5880
-1.471 2.387 1.728 4694
-1.481 2.402 1.728 5216
-1.483 2.406 1.720 5727
-1.485 2.410 1.712 6238
-1.491 2.420 1.707 5282
-1.512 2.453 1.718 5797
-1.518 2.463 1.714 6832
-1.524 2.473 1.710 5930
-1.541 2.501 1.716 5504
-1.573 2.552 1.738 5172
-1.575 2.556 1.730 4894
-1.574 2.554 1.717 4092
-1.562 2.534 1.694 4771
-1.560 2.532 1.682 5731
-1.559 2.530 1.669 5438
-1.617 2.623 1.716 4934
-1.619 2.627 1.707 6513
-1.618 2.625 1.694 6810
-1.624 2.635 1.689 8508
-1.630 2.645 1.684 8860
-1.643 2.666 1.685 8349
-1.642 2.664 1.673 8153
-1.667 2.704 1.685 9192
-1.676 2.720 1.683 11357
-1.686 2.736 1.681 8825
-1.704 2.764 1.685 7780
-1.710 2.774 1.679 8717
-1.719 2.790 1.677 8739
-1.722 2.794 1.667 6219
-1.739 2.822 1.671 4383
-1.742 2.826 1.662 5864
-1.744 2.830 1.652 7079
-1.750 2.840 1.646 7780
-1.764 2.862 1.646 8234
-1.823 2.958 1.686 7250
-1.821 2.955 1.672 8427
-1.827 2.965 1.666 9273
-1.833 2.975 1.659 6699
-1.836 2.979 1.649 3296
-1.945 3.156 1.727 4685
-1.951 3.166 1.719 4878
-1.961 3.182 1.715 4932
-1.967 3.192 1.707 5922
-1.970 3.196 1.697 6678
-1.972 3.200 1.686 6383
-1.982 3.216 1.681 6847
-1.984 3.220 1.670 9489
-1.994 3.236 1.665 7829
-2.024 3.284 1.675 6675
-2.030 3.294 1.667 7022
-2.028 3.292 1.653 5391
-2.089 3.389 1.685 3930
-2.130 3.456 1.702 4198
-2.132 3.460 1.691 6806
-2.135 3.464 1.679 6635
-2.141 3.474 1.670 4068
-2.198 3.566 1.697 4292
-2.153 3.494 1.652 5289
-2.163 3.510 1.646 7022
-2.166 3.514 1.634 5608
-2.199 3.568 1.644 3956
-2.205 3.579 1.634 4034
-2.325 3.773 1.702 4475
-2.319 3.764 1.684 5058
-2.326 3.774 1.674 3724
-2.363 3.835 1.684 5121
-2.366 3.839 1.671 5662
-2.364 3.836 1.656 4476
-2.441 3.961 1.691 4010
-2.444 3.965 1.677 4129
-2.493 4.046 1.694 5291
-2.492 4.043 1.677 5906
-2.486 4.034 1.659 4488
-2.488 4.038 1.645 3547
-2.495 4.048 1.634 2250
-2.612 4.238 1.689 1732
-2.642 4.287 1.691 3251
-2.644 4.291 1.677 4110
-2.694 4.372 1.690 4038
-2.697 4.376 1.675 3258
-2.707 4.393 1.665 2021
-2.741 4.448 1.668 2547
-2.775 4.504 1.670 3975
-2.818 4.572 1.677 4418
-2.824 4.583 1.664 5524
-2.826 4.586 1.648 3425
-2.933 4.759 1.688 3632
-2.959 4.802 1.684 3985
-2.969 4.818 1.672 4523
-3.012 4.887 1.676 4439
-2.986 4.846 1.646 4368
-2.984 4.843 1.627 4489
-2.979 4.833 1.607 3225
-3.061 4.968 1.630 2523
-3.172 5.148 1.666 3088
-3.187 5.171 1.654 2915
-3.270 5.305 1.674 3598
-3.199 5.191 1.622 3145
-3.323 5.392 1.661 2896
-3.406 5.526 1.679 2374
-3.400 5.517 1.657 2873
-3.406 5.527 1.640 2687
-3.433 5.571 1.632 2980
-3.435 5.574 1.613 2085
-3.596 5.834 1.661 2049
-3.618 5.871 1.650 2361
-3.641 5.908 1.638 2155
-3.749 6.083 1.661 1929
-3.755 6.093 1.642 1947
-3.891 6.315 1.675 2031
-3.894 6.318 1.653 1327
-4.018 6.520 1.679 1362
-4.012 6.511 1.653 2079
-4.104 6.660 1.665 2054
-4.119 6.684 1.647 1527
-4.521 7.336 1.769 1720
-4.577 7.426 1.763 2238
-4.399 7.139 1.674 2229
-4.524 7.341 1.692 2236
-4.584 7.438 1.687 2075
-4.774 7.747 1.724 4351
-4.777 7.751 1.698 5738
-4.779 7.755 1.671 4530
-4.777 7.752 1.644 3980
-4.784 7.763 1.619 4570
-4.790 7.773 1.593 4407
-4.788 7.770 1.566 2939
-4.799 7.787 1.541 1615
-4.825 7.830 1.522 1066
-4.827 7.834 1.495 898
-4.830 7.837 1.469 520
-1.188 1.930 1.769 3115
-1.190 1.935 1.763 6231
-1.193 1.939 1.756 6231
-1.195 1.943 1.750 5937
-1.194 1.941 1.738 5727
-1.247 2.027 1.801 4984
-1.250 2.031 1.794 7450
-1.252 2.036 1.787 7450
-1.255 2.040 1.781 7463
-1.258 2.044 1.774 7477
-1.253 2.037 1.758 6055
-1.249 2.030 1.742 5594
-1.279 2.078 1.771 8333
-1.278 2.077 1.760 12208
-1.284 2.086 1.757 12412
-1.286 2.090 1.750 12445
-1.285 2.089 1.739 12215
-1.288 2.093 1.732 9823
-1.300 2.113 1.738 8764
-1.303 2.117 1.731 8030
-1.302 2.116 1.719 7348
-1.304 2.120 1.712 5469
-1.293 2.101 1.688 3962
-1.337 2.173 1.732 3951
-1.332 2.165 1.716 5000
-1.335 2.169 1.709 4830
-1.337 2.173 1.701 4661
-1.340 2.177 1.694 3619
-1.405 2.284 1.762 3735
-1.404 2.282 1.750 4385
-1.407 2.286 1.742 5044
-1.406 2.285 1.730 4355
-1.398 2.271 1.711 3895
-1.411 2.293 1.715 4403
-1.427 2.320 1.724 4814
-1.433 2.329 1.720 5379
-1.439 2.339 1.716 5941
-1.442 2.343 1.708 5614
-1.444 2.347 1.700 4145
-1.475 2.398 1.724 3847
-1.481 2.407 1.720 4208
-1.484 2.411 1.712 4589
-1.486 2.415 1.703 4196
-1.510 2.454 1.718 4642
-1.516 2.464 1.714 5534
-1.515 2.462 1.702 4693
-1.561 2.537 1.739 4078
-1.567 2.547 1.734 4889
-1.570 2.551 1.726 5052
-1.572 2.555 1.717 4320
-1.574 2.559 1.709 4783
-1.558 2.533 1.682 5472
-1.557 2.531 1.669 5742
-1.615 2.624 1.716 5959
-1.628 2.646 1.718 8035
-1.619 2.632 1.698 8520
-1.622 2.636 1.689 10196
-1.632 2.652 1.687 10278
-1.641 2.668 1.685 9477
-1.640 2.665 1.673 9266
-1.661 2.699 1.682 9007
-1.671 2.715 1.679 10642
-1.673 2.719 1.670 8737
-1.698 2.759 1.682 7674
-1.708 2.775 1.679 8219
-1.718 2.791 1.677 8192
-1.720 2.795 1.667 5524
-1.741 2.829 1.675 3791
-1.740 2.827 1.662 5294
-1.783 2.898 1.689 6447
-1.782 2.896 1.676 7395
-1.765 2.869 1.650 7678
-1.821 2.959 1.686 7432
-1.823 2.963 1.676 10357
-1.825 2.967 1.666 11596
-1.828 2.970 1.656 8584
-1.834 2.980 1.649 4194
-1.939 3.151 1.724 4234
-1.865 3.031 1.651 3614
-1.959 3.184 1.715 4020
-1.961 3.187 1.704 5912
-1.964 3.191 1.693 7319
-1.962 3.189 1.680 7200
-1.976 3.211 1.678 6827
-1.978 3.215 1.667 8590
-1.981 3.219 1.656 6512
-2.025 3.292 1.678 5045
-2.028 3.295 1.667 5376
-2.022 3.287 1.650 3886
-2.121 3.447 1.711 3423
-2.131 3.464 1.705 4237
-2.134 3.468 1.693 6550
-2.136 3.471 1.682 5971
-2.158 3.507 1.684 4246
-2.129 3.460 1.650 5017
-2.135 3.470 1.641 6391
-2.165 3.518 1.648 7252
-2.167 3.522 1.637 6046
-2.165 3.519 1.622 4933
-2.230 3.624 1.653 4068
-2.318 3.768 1.699 5314
-2.317 3.765 1.684 6362
-2.327 3.782 1.676 5251
-2.361 3.837 1.684 5354
-2.363 3.841 1.671 4627
-2.310 3.755 1.622 2799
-2.438 3.963 1.691 4000
-2.437 3.961 1.675 4558
-2.498 4.060 1.699 6009
-2.497 4.058 1.682 6632
-2.499 4.062 1.669 4892
-2.494 4.053 1.650 2630
-2.547 4.140 1.667 2022
-2.550 4.144 1.653 1926
-2.683 4.360 1.717 2855
-2.693 4.377 1.707 3896
-2.699 4.387 1.694 3267
-2.706 4.397 1.682 3294
-2.720 4.420 1.674 3343
-2.734 4.444 1.665 3064
-2.772 4.506 1.670 3956
-2.779 4.516 1.657 4842
-2.801 4.552 1.653 4902
-2.807 4.562 1.639 3396
-2.905 4.722 1.675 2777
-2.964 4.817 1.689 5998
-2.966 4.821 1.672 6950
-2.972 4.831 1.658 6298
-2.979 4.841 1.643 6546
-2.973 4.832 1.623 7222
-2.975 4.835 1.607 5490
-3.094 5.028 1.647 2510
-3.169 5.150 1.666 3984
-3.175 5.160 1.650 3425
-3.181 5.170 1.634 2949
-3.196 5.194 1.622 2533
-3.323 5.400 1.663 3330
-3.321 5.398 1.642 2252
-3.311 5.382 1.619 2822
-3.314 5.385 1.600 2581
-3.425 5.566 1.630 2763
-3.492 5.675 1.639 1882
-3.612 5.870 1.670 2271
-3.614 5.874 1.650 2943
-3.637 5.910 1.638 2694
-3.704 6.019 1.645 2203
-3.706 6.023 1.624 2224
-3.834 6.231 1.654 1825
-3.751 6.096 1.599 1494
-4.075 6.622 1.702 1299
-4.093 6.652 1.686 1869
-4.100 6.663 1.665 2072
-4.114 6.687 1.647 1764
-4.520 7.346 1.770 1754
-4.474 7.271 1.728 2220
-4.472 7.268 1.702 2137
-4.523 7.351 1.694 2481
-4.526 7.355 1.669 2090
-4.769 7.751 1.724 3227
-4.771 7.755 1.698 4387
-4.774 7.758 1.671 3681
-4.760 7.736 1.640 3731
-4.770 7.753 1.616 4173
-4.781 7.770 1.592 4029
-4.783 7.773 1.566 2665
-4.793 7.790 1.541 1450
-4.959 8.060 1.562 1214
-4.962 8.064 1.535 1165
-4.964 8.067 1.507 788
-4.966 8.070 1.480 317
-1.178 1.936 1.769 3037
-1.181 1.940 1.763 6074
-1.183 1.944 1.756 6074
-1.186 1.948 1.750 5758
-1.185 1.947 1.738 5511
-1.237 2.033 1.801 4918
-1.240 2.038 1.794 7324
-1.242 2.042 1.787 7324
-1.245 2.046 1.781 7308
-1.247 2.050 1.774 7293
-1.243 2.043 1.758 5835
-1.239 2.036 1.742 5304
-1.268 2.084 1.771 8020
-1.267 2.083 1.760 11741
-1.273 2.092 1.757 12006
-1.276 2.097 1.750 12086
-1.275 2.095 1.739 11865
-1.277 2.099 1.732 9537
-1.290 2.120 1.738 8492
-1.292 2.124 1.731 7740
-1.291 2.122 1.719 7036
-1.294 2.126 1.712 5213
-1.282 2.107 1.688 3692
-1.326 2.179 1.732 3914
-1.322 2.172 1.716 4964
-1.324 2.176 1.709 4784
-1.326 2.180 1.701 4604
-1.329 2.184 1.694 3511
-1.394 2.291 1.762 3689
-1.397 2.295 1.754 4244
-1.399 2.299 1.746 4800
-1.395 2.292 1.730 4044
-1.386 2.278 1.711 3513
-1.399 2.299 1.715 4173
-1.416 2.327 1.724 4829
-1.422 2.336 1.720 5344
-1.428 2.346 1.716 5780
-1.430 2.350 1.708 5410
-1.433 2.354 1.700 3986
-1.463 2.405 1.724 3567
-1.466 2.409 1.716 3979
-1.468 2.413 1.708 4391
-1.474 2.422 1.703 4045
-1.498 2.462 1.718 4597
-1.504 2.472 1.714 5487
-1.503 2.470 1.702 4639
-1.545 2.539 1.735 3933
-1.555 2.555 1.734 4713
-1.557 2.559 1.726 4913
-1.559 2.563 1.717 4223
-1.562 2.566 1.709 4735
-1.546 2.540 1.682 5288
-1.545 2.538 1.669 5576
-1.605 2.638 1.719 6011
-1.615 2.654 1.718 8191
-1.607 2.640 1.698 8636
-1.613 2.650 1.693 10262
-1.619 2.660 1.687 10301
-1.628 2.676 1.685 9468
-1.627 2.673 1.673 9222
-1.648 2.708 1.682 8783
-1.657 2.724 1.679 10257
-1.660 2.727 1.670 8465
-1.684 2.768 1.682 7506
-1.694 2.784 1.679 7952
-1.704 2.800 1.677 7890
-1.706 2.804 1.667 5282
-1.727 2.838 1.675 3620
-1.726 2.836 1.662 5087
-1.765 2.901 1.686 6321
-1.768 2.905 1.676 7216
-1.751 2.878 1.650 7448
-1.806 2.968 1.686 7409
-1.808 2.972 1.676 10506
-1.811 2.975 1.666 11796
-1.813 2.979 1.656 8786
-1.819 2.989 1.649 4279
-1.919 3.154 1.721 4067
-1.914 3.146 1.704 3552
-1.943 3.193 1.715 3910
-1.946 3.197 1.704 5868
-1.948 3.201 1.693 7219
-1.946 3.199 1.680 7045
-1.960 3.221 1.678 6569
-1.963 3.225 1.667 8279
-1.965 3.229 1.656 6325
-2.009 3.302 1.678 4791
-2.011 3.305 1.667 5230
-2.052 3.372 1.685 4285
-2.054 3.376 1.673 3619
-2.114 3.474 1.705 4151
-2.117 3.478 1.693 6422
-2.119 3.482 1.682 5765
-2.144 3.524 1.687 4063
-2.112 3.471 1.650 4665
-2.134 3.506 1.652 6264
-2.147 3.529 1.648 7217
-2.150 3.533 1.637 6016
-2.148 3.530 1.622 4999
-2.212 3.635 1.653 4085
-2.300 3.779 1.699 5219
-2.298 3.777 1.684 6321
-2.308 3.793 1.676 5472
-2.342 3.848 1.684 5259
-2.344 3.852 1.671 4365
-2.292 3.766 1.622 2947
-2.419 3.975 1.691 3955
-2.417 3.972 1.675 4474
-2.478 4.073 1.699 5928
-2.477 4.070 1.682 6543
-2.479 4.074 1.669 4911
-2.474 4.065 1.650 2643
-2.527 4.152 1.667 2241
-2.533 4.163 1.656 2159
-2.657 4.367 1.715 2735
-2.671 4.390 1.707 3718
-2.678 4.400 1.694 3081
-2.684 4.411 1.682 3095
-2.698 4.434 1.674 3224
-2.712 4.457 1.665 2896
-2.750 4.519 1.670 3802
-2.756 4.530 1.657 4829
-2.775 4.559 1.650 5143
-2.785 4.576 1.639 3441
-2.882 4.736 1.675 2558
-2.940 4.831 1.689 5963
-2.942 4.835 1.672 6963
-2.949 4.845 1.658 6547
-2.955 4.856 1.643 6811
-2.949 4.846 1.623 7331
-2.951 4.850 1.607 5519
-3.125 5.135 1.675 2548
-3.139 5.159 1.664 3886
-3.150 5.176 1.650 3360
-3.156 5.186 1.634 2871
-3.170 5.209 1.622 2500
-3.296 5.417 1.663 3390
-3.299 5.421 1.644 2230
-3.281 5.391 1.617 2631
-3.375 5.546 1.640 2486
-3.394 5.577 1.628 2712
-3.464 5.692 1.639 1775
-3.583 5.887 1.670 2226
-3.585 5.891 1.650 2885
-3.607 5.928 1.638 2601
-3.674 6.038 1.645 2220
-3.676 6.041 1.624 2202
-3.804 6.250 1.654 1866
-3.721 6.115 1.599 1504
-4.038 6.635 1.701 1300
-4.061 6.673 1.686 1796
-4.067 6.683 1.665 2014
-4.081 6.707 1.647 1773
-4.484 7.368 1.770 1764
-4.438 7.292 1.728 2221
-4.436 7.290 1.702 2189
-4.487 7.373 1.694 2442
-4.489 7.377 1.669 2065
-4.731 7.774 1.724 3010
-4.733 7.778 1.698 4087
-4.736 7.782 1.671 3449
-4.722 7.759 1.640 3612
-4.732 7.776 1.616 3979
-4.742 7.793 1.592 3843
-4.745 7.797 1.566 2546
-4.755 7.813 1.541 1389
-4.920 8.084 1.562 1262
-4.922 8.088 1.535 1232
-4.924 8.091 1.507 832
-4.926 8.095 1.480 327
-1.182 1.941 1.774 3079
-1.185 1.946 1.767 6158
-1.187 1.950 1.761 6158
-1.186 1.948 1.750 5767
-1.185 1.947 1.738 5451
-1.238 2.033 1.801 4993
-1.240 2.037 1.794 7421
-1.243 2.041 1.787 7421
-1.245 2.046 1.781 7387
-1.248 2.050 1.774 7354
-1.244 2.043 1.758 5782
-1.239 2.035 1.742 5166
-1.269 2.084 1.771 8005
-1.268 2.083 1.760 11678
-1.274 2.092 1.757 12014
-1.276 2.096 1.750 12137
-1.275 2.095 1.739 11912
-1.278 2.099 1.732 9569
-1.290 2.119 1.738 8483
-1.293 2.123 1.731 7709
-1.292 2.122 1.719 6987
-1.294 2.126 1.712 5153
-1.283 2.107 1.688 3533
-1.327 2.179 1.732 4066
-1.322 2.172 1.716 5277
-1.325 2.176 1.709 5058
-1.327 2.179 1.701 4840
-1.329 2.183 1.694 3613
-1.391 2.285 1.758 3732
-1.397 2.295 1.754 4194
-1.400 2.299 1.746 4677
-1.399 2.297 1.735 3833
-1.397 2.295 1.723 3105
-1.403 2.305 1.719 4036
-1.416 2.326 1.724 5039
-1.422 2.336 1.720 5505
-1.428 2.346 1.716 5843
-1.431 2.350 1.708 5453
-1.437 2.360 1.704 4034
-1.464 2.405 1.724 3400
-1.466 2.408 1.716 3849
-1.469 2.412 1.708 4298
-1.475 2.422 1.703 3986
-1.499 2.461 1.718 4593
-1.505 2.471 1.714 5539
-1.500 2.463 1.698 4765
-1.495 2.455 1.682 4153
-1.555 2.554 1.734 4597
-1.558 2.558 1.726 4836
-1.556 2.556 1.714 4181
-1.562 2.566 1.709 4780
-1.547 2.540 1.682 5268
-1.545 2.538 1.669 5650
-1.610 2.644 1.723 6054
-1.612 2.648 1.714 8560
-1.607 2.640 1.698 9423
-1.609 2.643 1.689 11130
-1.615 2.653 1.684 10799
-1.629 2.675 1.685 9619
-1.628 2.673 1.673 9324
-1.648 2.707 1.682 8765
-1.658 2.723 1.679 10138
-1.660 2.727 1.670 8481
-1.681 2.761 1.678 7481
-1.695 2.783 1.679 7737
-1.704 2.799 1.677 7632
-1.703 2.797 1.664 5149
-1.739 2.856 1.685 3435
-1.726 2.835 1.662 4989
-1.766 2.900 1.686 6677
-1.768 2.904 1.676 7482
-1.752 2.877 1.650 7387
-1.807 2.967 1.686 7556
-1.809 2.971 1.676 10976
-1.811 2.975 1.666 12352
-1.814 2.979 1.656 9210
-1.820 2.989 1.649 4451
-1.920 3.154 1.721 4115
-1.915 3.145 1.704 3714
-1.944 3.193 1.715 3787
-1.946 3.197 1.704 5816
-1.949 3.201 1.693 7204
-1.947 3.198 1.680 7101
-1.957 3.214 1.675 6479
-1.963 3.225 1.667 8050
-1.962 3.222 1.653 6221
-2.006 3.295 1.675 4725
-2.012 3.305 1.667 5215
-2.053 3.372 1.685 4184
-2.055 3.375 1.673 3726
-2.115 3.474 1.705 3944
-2.117 3.478 1.693 5963
-2.120 3.481 1.682 5216
-2.145 3.523 1.687 3980
-2.113 3.470 1.650 5334
-2.134 3.506 1.652 6604
-2.148 3.528 1.648 7385
-2.150 3.532 1.637 6156
-2.149 3.529 1.622 5218
-2.213 3.635 1.653 4234
-2.301 3.779 1.699 5253
-2.299 3.776 1.684 6549
-2.309 3.793 1.676 5816
-2.343 3.848 1.684 5182
-2.349 3.858 1.674 4184
-2.297 3.772 1.625 2896
-2.420 3.975 1.691 3948
-2.418 3.972 1.675 4463
-2.479 4.072 1.699 5916
-2.478 4.069 1.682 6517
-2.480 4.073 1.669 4879
-2.514 4.129 1.674 2743
-2.528 4.152 1.667 2533
-2.534 4.162 1.656 2475
-2.658 4.366 1.715 2837
-2.672 4.389 1.707 3782
-2.679 4.400 1.694 3074
-2.685 4.410 1.682 3147
-2.695 4.427 1.671 3286
-2.713 4.456 1.665 2716
-2.751 4.519 1.670 3945
-2.757 4.529 1.657 5037
-2.772 4.552 1.648 5452
-2.786 4.575 1.639 3641
-2.947 4.840 1.709 2613
-2.941 4.831 1.689 6011
-2.943 4.834 1.672 7094
-2.950 4.845 1.658 6810
-2.952 4.848 1.641 6943
-2.950 4.846 1.623 7430
-2.953 4.849 1.607 5438
-3.122 5.128 1.673 2837
-3.136 5.151 1.662 3971
-3.151 5.175 1.650 3318
-3.157 5.185 1.634 2685
-3.291 5.406 1.679 2294
-3.298 5.416 1.663 3320
-3.296 5.413 1.642 2215
-3.286 5.397 1.619 2603
-3.373 5.539 1.638 2513
-3.395 5.576 1.628 2652
-3.465 5.692 1.639 1784
-3.584 5.887 1.670 2118
-3.590 5.897 1.651 2726
-3.613 5.934 1.640 2722
-3.680 6.043 1.646 2254
-3.678 6.040 1.624 2191
-3.805 6.249 1.654 1934
-3.723 6.114 1.599 1597
-4.044 6.641 1.702 1396
-4.062 6.672 1.686 1824
-4.068 6.682 1.665 2055
-4.083 6.706 1.647 1794
-4.490 7.374 1.772 1748
-4.439 7.291 1.728 2214
-4.438 7.289 1.702 2267
-4.489 7.372 1.694 2554
-4.491 7.376 1.669 2164
-4.733 7.773 1.724 2802
-4.735 7.777 1.698 3815
-4.737 7.781 1.671 3248
-4.723 7.758 1.640 3513
-4.734 7.775 1.616 3853
-4.744 7.792 1.592 3709
-4.746 7.796 1.566 2451
-4.757 7.812 1.541 1348
-4.922 8.083 1.562 1370
-4.924 8.087 1.535 1375
-4.926 8.090 1.507 921
-4.928 8.094 1.480 361
-1.181 1.942 1.774 3027
-1.184 1.946 1.767 6055
-1.186 1.950 1.761 6055
-1.185 1.949 1.750 5609
-1.184 1.947 1.738 5247
-1.237 2.034 1.801 4855
-1.240 2.038 1.794 7208
-1.242 2.042 1.787 7208
-1.245 2.046 1.781 7178
-1.247 2.050 1.774 7149
-1.243 2.043 1.758 5567
-1.238 2.036 1.742 4905
-1.268 2.085 1.771 7726
-1.267 2.083 1.760 11237
-1.273 2.093 1.757 11594
-1.275 2.097 1.750 11731
-1.274 2.095 1.739 11510
-1.277 2.099 1.732 9284
-1.290 2.120 1.738 8282
-1.292 2.124 1.731 7514
-1.291 2.122 1.719 6800
-1.293 2.126 1.712 4976
-1.282 2.107 1.688 3348
-1.326 2.180 1.732 3998
-1.321 2.172 1.716 5228
-1.324 2.176 1.709 4985
-1.326 2.180 1.701 4742
-1.328 2.184 1.694 3521
-1.390 2.286 1.758 3632
-1.393 2.290 1.750 4060
-1.399 2.299 1.746 4513
-1.398 2.298 1.735 3690
-1.397 2.296 1.723 2950
-1.402 2.306 1.719 4018
-1.415 2.327 1.724 5156
-1.421 2.337 1.720 5525
-1.427 2.346 1.716 5668
-1.433 2.356 1.712 5226
-1.436 2.360 1.704 3894
-1.463 2.405 1.724 3303
-1.465 2.409 1.716 3725
-1.468 2.413 1.708 4147
-1.474 2.423 1.703 3858
-1.498 2.462 1.718 4445
-1.504 2.472 1.714 5419
-1.499 2.464 1.698 4723
-1.494 2.456 1.682 4175
-1.554 2.555 1.734 4450
-1.557 2.559 1.726 4722
-1.555 2.557 1.714 4131
-1.558 2.561 1.705 4754
-1.546 2.541 1.682 5279
-1.544 2.539 1.669 5721
-1.612 2.650 1.727 5968
-1.611 2.648 1.714 8520
-1.606 2.640 1.698 9574
-1.608 2.644 1.689 11282
-1.614 2.654 1.684 10819
-1.628 2.676 1.685 9491
-1.626 2.674 1.673 9233
-1.647 2.708 1.682 8623
-1.657 2.724 1.679 9915
-1.659 2.728 1.670 8317
-1.680 2.762 1.678 7438
-1.694 2.784 1.679 7695
-1.703 2.800 1.677 7541
-1.702 2.798 1.664 5160
-1.741 2.863 1.688 3415
-1.744 2.867 1.679 4937
-1.765 2.901 1.686 6755
-1.767 2.905 1.676 7473
-1.751 2.878 1.650 7184
-1.805 2.968 1.686 7409
-1.808 2.972 1.676 10927
-1.810 2.976 1.666 12361
-1.812 2.980 1.656 9244
-1.819 2.990 1.649 4418
-1.919 3.155 1.721 4046
-1.914 3.146 1.704 3764
-1.943 3.193 1.715 3567
-1.945 3.197 1.704 5591
-1.944 3.195 1.690 6974
-1.946 3.199 1.680 6942
-1.956 3.215 1.675 6313
-1.958 3.219 1.664 7718
-1.960 3.223 1.653 6044
-2.005 3.296 1.675 4492
-2.011 3.306 1.667 4866
-2.051 3.372 1.685 4032
-2.050 3.370 1.671 3604
-2.114 3.475 1.705 3822
-2.116 3.478 1.693 5739
-2.118 3.482 1.682 4842
-2.144 3.524 1.687 3831
-2.111 3.471 1.650 5000
-2.137 3.513 1.655 6471
-2.147 3.529 1.648 7370
-2.149 3.533 1.637 6198
-2.147 3.530 1.622 5261
-2.212 3.636 1.653 4119
-2.299 3.780 1.699 5231
-2.298 3.777 1.684 6528
-2.308 3.794 1.676 5658
-2.341 3.849 1.684 5017
-2.347 3.859 1.674 4020
-2.295 3.773 1.625 2895
-2.418 3.975 1.691 3872
-2.417 3.973 1.675 4338
-2.478 4.073 1.699 5700
-2.476 4.070 1.682 6275
-2.478 4.074 1.669 4725
-2.512 4.130 1.674 2765
-2.526 4.153 1.667 2608
-2.532 4.163 1.656 2455
-2.656 4.367 1.715 2846
-2.671 4.390 1.707 3692
-2.677 4.401 1.694 2983
-2.683 4.411 1.682 3074
-2.693 4.428 1.671 3212
-2.712 4.458 1.665 2556
-2.749 4.520 1.670 3844
-2.756 4.530 1.657 5014
-2.770 4.553 1.648 5524
-2.784 4.577 1.639 3645
-2.945 4.841 1.709 2569
-2.939 4.832 1.689 5757
-2.941 4.836 1.672 6994
-2.948 4.846 1.658 6960
-2.954 4.856 1.643 6921
-2.948 4.847 1.623 7129
-2.951 4.851 1.607 5187
-3.120 5.129 1.673 2944
-3.130 5.146 1.660 3957
-3.149 5.176 1.650 3218
-3.155 5.186 1.634 2541
-3.289 5.407 1.679 2353
-3.295 5.417 1.663 3360
-3.298 5.421 1.644 2233
-3.284 5.399 1.619 2591
-3.370 5.541 1.638 2512
-3.393 5.577 1.628 2531
-3.463 5.693 1.639 1819
-3.578 5.882 1.668 2085
-3.588 5.899 1.651 2682
-3.610 5.935 1.640 2713
-3.677 6.045 1.646 2201
-3.800 6.247 1.675 2111
-3.802 6.251 1.654 1967
-3.720 6.116 1.599 1586
-4.041 6.643 1.702 1377
-4.059 6.673 1.686 1802
-4.066 6.684 1.665 2065
-4.339 7.132 1.743 1768
-4.487 7.376 1.772 1662
-4.436 7.293 1.728 2133
-4.435 7.290 1.702 2176
-4.486 7.374 1.694 2567
-4.488 7.378 1.669 2200
-4.729 7.775 1.724 2597
-4.732 7.779 1.698 3555
-4.734 7.783 1.671 3053
-4.720 7.760 1.640 3369
-4.731 7.777 1.616 3693
-4.741 7.794 1.592 3534
-4.743 7.797 1.566 2344
-4.753 7.814 1.541 1299
-4.918 8.085 1.562 1402
-4.920 8.089 1.535 1421
-4.923 8.092 1.507 948
-4.925 8.096 1.480 364
-1.180 1.943 1.774 3132
-1.183 1.947 1.767 6264
-1.185 1.951 1.761 6264
-1.184 1.949 1.750 5701
-1.183 1.948 1.738 5264
-1.236 2.034 1.801 4920
-1.239 2.038 1.794 7265
-1.241 2.043 1.787 7265
-1.244 2.047 1.781 7202
-1.246 2.051 1.774 7140
-1.242 2.044 1.758 5484
-1.237 2.037 1.742 4790
-1.267 2.085 1.771 7709
-1.266 2.084 1.760 11171
-1.272 2.093 1.757 11607
-1.274 2.097 1.750 11804
-1.273 2.096 1.739 11580
-1.276 2.100 1.732 9365
-1.288 2.121 1.738 8346
-1.291 2.125 1.731 7562
-1.290 2.123 1.719 6839
-1.292 2.127 1.712 4952
-1.281 2.108 1.688 3232
-1.325 2.180 1.732 4118
-1.324 2.179 1.720 5428
-1.323 2.177 1.709 5119
-1.325 2.181 1.701 4831
-1.327 2.185 1.694 3523
-1.389 2.286 1.758 3674
-1.395 2.296 1.754 4027
-1.397 2.300 1.746 4421
-1.396 2.298 1.735 3493
-1.399 2.302 1.727 2626
-1.401 2.306 1.719 3960
-1.414 2.328 1.724 5336
-1.420 2.337 1.720 5585
-1.426 2.347 1.716 5535
-1.432 2.357 1.712 5118
-1.434 2.361 1.704 3862
-1.458 2.400 1.720 3210
-1.464 2.410 1.716 3544
-1.467 2.414 1.708 3880
-1.472 2.424 1.703 3597
-1.489 2.451 1.711 4236
-1.495 2.461 1.706 5221
-1.494 2.459 1.694 4683
-1.489 2.451 1.678 4276
-1.549 2.550 1.731 4440
-1.552 2.554 1.722 4693
-1.554 2.558 1.714 4117
-1.556 2.562 1.705 4764
-1.544 2.542 1.682 5330
-1.543 2.539 1.669 5885
-1.611 2.651 1.727 6045
-1.610 2.649 1.714 8663
-1.605 2.641 1.698 9897
-1.607 2.645 1.689 11569
-1.613 2.655 1.684 10981
-1.626 2.677 1.685 9534
-1.625 2.675 1.673 9404
-1.646 2.709 1.682 8750
-1.655 2.725 1.679 9904
-1.658 2.729 1.670 8319
-1.679 2.763 1.678 7408
-1.692 2.785 1.679 7724
-1.702 2.801 1.677 7629
-1.700 2.799 1.664 5409
-1.740 2.864 1.688 3449
-1.750 2.880 1.685 5261
-1.763 2.902 1.686 7109
-1.766 2.906 1.676 7692
-1.749 2.879 1.650 7098
-1.804 2.969 1.686 7562
-1.806 2.973 1.676 11238
-1.809 2.977 1.666 12700
-1.811 2.981 1.656 9487
-1.817 2.991 1.649 4535
-1.913 3.149 1.718 4101
-1.912 3.147 1.704 3959
-1.941 3.195 1.715 3423
-1.939 3.192 1.701 5593
-1.942 3.196 1.690 7172
-1.944 3.200 1.680 7029
-1.954 3.216 1.675 6261
-1.956 3.220 1.664 7532
-1.955 3.218 1.650 5992
-2.003 3.297 1.675 4270
-2.009 3.307 1.667 4610
-2.050 3.373 1.685 4141
-2.044 3.365 1.668 3888
-2.112 3.476 1.705 3704
-2.118 3.486 1.696 5548
-2.078 3.420 1.653 4657
-2.100 3.456 1.656 3719
-2.110 3.472 1.650 5024
-2.135 3.514 1.655 6646
-2.145 3.530 1.648 7714
-2.147 3.534 1.637 6208
-2.146 3.531 1.622 5031
-2.210 3.637 1.653 4278
-2.301 3.787 1.702 5168
-2.296 3.778 1.684 6635
-2.306 3.795 1.676 5557
-2.343 3.856 1.687 5013
-2.291 3.771 1.638 4263
-2.293 3.774 1.625 3287
-2.416 3.977 1.691 3872
-2.415 3.974 1.675 4276
-2.475 4.074 1.699 5752
-2.474 4.072 1.682 6372
-2.476 4.076 1.669 4921
-2.510 4.131 1.674 2904
-2.524 4.154 1.667 2745
-2.530 4.164 1.656 2512
-2.654 4.368 1.715 2808
-2.664 4.385 1.705 3593
-2.675 4.402 1.694 2908
-2.681 4.412 1.682 3076
-2.691 4.429 1.671 3225
-2.709 4.459 1.665 2548
-2.747 4.521 1.670 3771
-2.753 4.532 1.657 4892
-2.767 4.555 1.648 5712
-2.781 4.578 1.639 3823
-2.875 4.732 1.673 2722
-2.937 4.833 1.689 5767
-2.939 4.837 1.672 7136
-2.945 4.847 1.658 7254
-2.947 4.851 1.641 7108
-2.946 4.848 1.623 7191
-2.948 4.852 1.607 5138
-3.117 5.131 1.673 3105
-3.124 5.141 1.658 3888
-3.146 5.178 1.650 3193
-3.152 5.188 1.634 2625
-3.286 5.409 1.679 2403
-3.292 5.419 1.663 3368
-3.295 5.423 1.644 2248
-3.281 5.400 1.619 2501
-3.363 5.536 1.636 2484
-3.386 5.572 1.626 2445
-3.460 5.695 1.639 1814
-3.575 5.883 1.668 2192
-3.585 5.900 1.651 2764
-3.607 5.937 1.640 2864
-3.610 5.941 1.620 2205
-3.793 6.243 1.673 2270
-3.799 6.253 1.654 2107
-4.015 6.608 1.717 1646
-4.033 6.638 1.701 1418
-4.056 6.675 1.686 1858
-4.062 6.686 1.665 2153
-4.077 6.710 1.647 1810
-4.261 7.012 1.690 1584
-4.433 7.296 1.728 2211
-4.431 7.293 1.702 2251
-4.482 7.377 1.694 2585
-4.484 7.380 1.669 2192
-4.725 7.777 1.724 2334
-4.728 7.781 1.698 3202
-4.726 7.779 1.670 2826
-4.712 7.756 1.638 3281
-4.722 7.773 1.615 3539
-4.737 7.796 1.592 3412
-4.739 7.800 1.566 2280
-4.749 7.817 1.541 1278
-4.914 8.088 1.562 1504
-4.916 8.091 1.535 1551
-4.918 8.095 1.507 1032
-4.920 8.098 1.480 396
-1.179 1.943 1.774 3059
-1.182 1.947 1.767 6119
-1.184 1.951 1.761 6119
-1.183 1.950 1.750 5517
-1.182 1.948 1.738 5048
-1.235 2.035 1.801 4769
-1.237 2.039 1.794 7037
-1.240 2.043 1.787 7037
-1.242 2.047 1.781 6986
-1.248 2.057 1.778 6948
-1.240 2.044 1.758 5259
-1.236 2.037 1.742 4506
-1.266 2.086 1.771 7452
-1.265 2.085 1.760 10736
-1.271 2.094 1.757 11175
-1.273 2.098 1.750 11370
-1.272 2.097 1.739 11143
-1.274 2.101 1.732 9053
-1.287 2.121 1.738 8114
-1.290 2.125 1.731 7332
-1.289 2.124 1.719 6604
-1.291 2.128 1.712 4773
-1.280 2.109 1.688 3096
-1.323 2.181 1.732 4067
-1.322 2.179 1.720 5383
-1.321 2.178 1.709 5044
-1.324 2.182 1.701 4742
-1.326 2.185 1.694 3430
-1.388 2.287 1.758 3620
-1.394 2.297 1.754 3894
-1.396 2.301 1.746 4215
-1.395 2.299 1.735 3256
-1.348 2.222 1.670 2385
-1.400 2.307 1.719 3812
-1.409 2.323 1.719 5336
-1.415 2.332 1.716 5447
-1.425 2.348 1.716 5246
-1.431 2.358 1.712 4828
-1.433 2.362 1.704 3725
-1.457 2.401 1.720 2965
-1.463 2.411 1.716 3178
-1.465 2.415 1.708 3406
-1.467 2.419 1.700 3300
-1.484 2.446 1.707 3967
-1.494 2.462 1.706 4867
-1.492 2.460 1.694 4420
-1.488 2.452 1.678 4073
-1.548 2.551 1.731 4349
-1.550 2.555 1.722 4614
-1.538 2.535 1.699 4164
-1.555 2.563 1.705 4665
-1.543 2.543 1.682 5296
-1.541 2.540 1.669 5909
-1.609 2.652 1.727 5974
-1.608 2.650 1.714 8515
-1.603 2.642 1.698 9724
-1.605 2.646 1.689 11353
-1.611 2.656 1.684 10800
-1.625 2.678 1.685 9398
-1.623 2.676 1.673 9322
-1.644 2.710 1.682 8635
-1.654 2.726 1.679 9600
-1.656 2.730 1.670 8083
-1.673 2.758 1.675 7115
-1.690 2.786 1.679 7419
-1.700 2.802 1.677 7438
-1.699 2.800 1.664 5344
-1.701 2.804 1.655 3352
-1.748 2.881 1.685 5290
-1.761 2.903 1.686 7082
-1.764 2.907 1.676 7599
-1.747 2.880 1.650 6901
-1.802 2.970 1.686 7485
-1.804 2.974 1.676 11187
-1.807 2.978 1.666 12606
-1.809 2.982 1.656 9402
-1.815 2.992 1.649 4492
-1.908 3.144 1.714 4027
-1.906 3.142 1.701 3958
-1.939 3.196 1.715 3292
-1.938 3.193 1.701 5481
-1.940 3.197 1.690 6960
-1.942 3.201 1.680 6747
-1.952 3.217 1.675 5976
-1.954 3.221 1.664 7253
-1.953 3.219 1.650 5879
-2.001 3.298 1.675 3980
-2.007 3.308 1.667 4265
-2.048 3.375 1.685 4302
-2.042 3.366 1.668 4166
-2.045 3.370 1.656 3635
-2.116 3.487 1.696 5340
-2.080 3.428 1.656 4635
-2.097 3.457 1.656 3771
-2.107 3.473 1.650 4941
-2.133 3.515 1.655 6601
-2.143 3.532 1.648 7714
-2.145 3.535 1.637 6109
-2.143 3.533 1.622 4882
-2.204 3.632 1.650 4300
-2.299 3.789 1.702 5074
-2.293 3.780 1.684 6518
-2.303 3.796 1.676 5450
-2.341 3.858 1.687 4975
-2.289 3.772 1.638 4104
-2.295 3.782 1.628 3271
-2.414 3.978 1.691 3773
-2.416 3.982 1.677 4155
-2.473 4.076 1.699 5644
-2.471 4.073 1.682 6264
-2.474 4.077 1.669 4858
-2.507 4.132 1.674 2914
-2.521 4.156 1.667 2855
-2.528 4.166 1.656 2555
-2.651 4.370 1.715 2791
-2.662 4.387 1.705 3520
-2.672 4.404 1.694 2885
-2.678 4.414 1.682 2971
-2.688 4.431 1.671 3041
-2.706 4.461 1.665 2424
-2.744 4.523 1.670 3697
-2.750 4.533 1.657 4846
-2.765 4.556 1.648 5876
-2.775 4.573 1.637 3866
-2.868 4.727 1.671 2686
-2.934 4.835 1.689 5649
-2.936 4.839 1.672 6996
-2.942 4.849 1.658 7422
-2.945 4.853 1.641 7278
-2.943 4.850 1.623 7084
-2.945 4.854 1.607 4938
-3.110 5.126 1.671 3123
-3.117 5.137 1.656 3759
-3.143 5.180 1.650 3108
-3.149 5.190 1.634 2543
-3.283 5.411 1.679 2370
-3.289 5.421 1.663 3291
-3.291 5.425 1.644 2245
-3.278 5.402 1.619 2431
-3.364 5.544 1.638 2449
-3.382 5.574 1.626 2509
-3.457 5.697 1.639 1853
-3.571 5.886 1.668 2198
-3.581 5.903 1.651 2778
-3.604 5.939 1.640 2830
-3.670 6.049 1.646 2182
-3.789 6.245 1.673 2163
-3.795 6.255 1.654 2009
-4.015 6.617 1.719 1714
-4.029 6.641 1.701 1496
-4.052 6.678 1.686 1736
-4.058 6.688 1.665 2028
-4.072 6.712 1.647 1763
-4.256 7.015 1.690 1591
-4.428 7.298 1.728 2192
-4.427 7.296 1.702 2258
-4.477 7.379 1.694 2581
-4.480 7.383 1.669 2202
-4.721 7.780 1.724 2125
-4.723 7.784 1.698 2923
-4.721 7.781 1.670 2629
-4.707 7.758 1.638 3115
-4.718 7.776 1.615 3367
-4.728 7.793 1.591 3252
-4.734 7.803 1.566 2167
-4.745 7.820 1.541 1218
-4.909 8.091 1.562 1532
-4.911 8.094 1.535 1589
-4.913 8.098 1.507 1056
-4.915 8.101 1.480 410
-4.917 8.105 1.452 256
-1.178 1.944 1.774 3040
-1.181 1.948 1.767 6080
-1.183 1.952 1.761 6080
-1.186 1.956 1.754 5431
-1.181 1.949 1.738 4914
-1.237 2.041 1.806 4685
-1.236 2.040 1.794 6867
-1.239 2.044 1.787 6867
-1.241 2.048 1.781 6789
-1.247 2.058 1.778 6738
-1.240 2.045 1.758 5116
-1.235 2.038 1.742 4471
-1.265 2.087 1.771 7330
-1.264 2.085 1.760 10554
-1.270 2.095 1.757 11022
-1.272 2.099 1.750 11247
-1.271 2.097 1.739 11026
-1.274 2.101 1.732 8938
-1.286 2.122 1.738 7952
-1.289 2.126 1.731 7185
-1.288 2.124 1.719 6475
-1.290 2.128 1.712 4649
-1.279 2.109 1.688 2950
-1.322 2.182 1.732 4099
-1.321 2.180 1.720 5410
-1.324 2.184 1.713 5038
-1.323 2.182 1.701 4703
-1.325 2.186 1.694 3375
-1.387 2.288 1.758 3626
-1.393 2.298 1.754 3845
-1.395 2.302 1.746 4111
-1.394 2.300 1.735 3119
-1.421 2.344 1.755 2407
-1.402 2.314 1.723 3761
-1.408 2.323 1.719 5442
-1.414 2.333 1.716 5479
-1.424 2.349 1.716 5131
-1.430 2.359 1.712 4671
-1.432 2.362 1.704 3615
-1.459 2.407 1.724 2700
-1.462 2.411 1.716 2994
-1.464 2.415 1.708 3289
-1.466 2.419 1.700 3270
-1.483 2.447 1.707 3917
-1.489 2.457 1.702 4770
-1.491 2.460 1.694 4356
-1.490 2.458 1.682 4005
-1.546 2.551 1.731 4337
-1.549 2.555 1.722 4568
-1.537 2.536 1.699 4138
-1.557 2.569 1.709 4518
-1.578 2.603 1.719 5206
-1.540 2.541 1.669 5711
-1.608 2.653 1.727 6000
-1.610 2.657 1.718 8578
-1.602 2.643 1.698 9817
-1.604 2.647 1.689 11389
-1.610 2.657 1.684 10713
-1.623 2.679 1.685 9188
-1.622 2.676 1.673 9209
-1.643 2.711 1.682 8471
-1.653 2.727 1.679 9286
-1.655 2.730 1.670 7818
-1.672 2.759 1.675 6906
-1.689 2.787 1.679 7035
-1.699 2.803 1.677 7060
-1.697 2.801 1.664 5120
-1.741 2.872 1.692 3320
-1.747 2.882 1.685 5324
-1.760 2.904 1.686 7021
-1.762 2.908 1.676 7497
-1.746 2.881 1.650 6728
-1.801 2.971 1.686 7515
-1.803 2.975 1.676 11253
-1.805 2.979 1.666 12635
-1.808 2.982 1.656 9401
-1.814 2.992 1.649 4454
-1.906 3.145 1.714 4049
-1.905 3.143 1.701 4040
-1.934 3.190 1.712 3180
-1.936 3.194 1.701 5384
-1.938 3.198 1.690 6832
-1.941 3.202 1.680 6618
-1.947 3.212 1.672 5828
-1.949 3.216 1.661 7041
-1.951 3.220 1.650 5831
-1.999 3.299 1.675 3986
-2.006 3.309 1.667 4271
-2.046 3.376 1.685 4205
-2.041 3.367 1.668 4050
-2.108 3.478 1.705 3430
-2.114 3.488 1.696 5104
-2.074 3.422 1.653 4431
-2.096 3.458 1.656 3771
-2.106 3.474 1.650 5023
-2.131 3.516 1.655 6653
-2.141 3.533 1.648 7854
-2.147 3.543 1.639 6203
-2.142 3.534 1.622 4921
-2.202 3.633 1.650 4289
-2.297 3.790 1.702 5075
-2.292 3.781 1.684 6543
-2.302 3.797 1.676 5437
-2.339 3.859 1.687 5059
-2.291 3.779 1.640 4377
-2.293 3.783 1.628 3467
-2.412 3.979 1.691 3775
-2.410 3.977 1.675 4111
-2.471 4.077 1.699 5489
-2.470 4.074 1.682 6070
-2.472 4.078 1.669 4752
-2.505 4.134 1.674 2894
-2.519 4.157 1.667 2965
-2.526 4.167 1.656 2733
-2.649 4.371 1.715 2834
-2.660 4.388 1.705 3497
-2.670 4.405 1.694 2890
-2.676 4.415 1.682 3012
-2.686 4.432 1.671 3062
-2.704 4.462 1.665 2306
-2.742 4.524 1.670 3607
-2.748 4.534 1.657 4764
-2.762 4.558 1.648 6041
-2.773 4.575 1.637 3998
-2.937 4.846 1.709 2582
-2.931 4.836 1.689 5619
-2.934 4.840 1.672 6832
-2.940 4.851 1.658 7237
-2.942 4.854 1.641 7097
-2.941 4.852 1.623 6994
-2.943 4.855 1.607 4837
-3.108 5.128 1.671 3228
-3.114 5.138 1.656 3750
-3.136 5.175 1.648 3095
-3.147 5.192 1.634 2508
-3.280 5.412 1.679 2312
-3.287 5.423 1.663 3251
-3.289 5.426 1.644 2230
-3.275 5.404 1.619 2381
-3.357 5.539 1.636 2355
-3.456 5.701 1.660 2435
-3.454 5.699 1.639 1794
-3.568 5.887 1.668 2160
-3.583 5.911 1.653 2751
-3.601 5.941 1.640 2956
-3.603 5.945 1.620 2235
-3.786 6.247 1.673 2182
-3.792 6.257 1.654 2006
-4.012 6.619 1.719 1764
-4.026 6.643 1.701 1457
-4.049 6.680 1.686 1676
-4.055 6.690 1.665 1988
-4.069 6.714 1.647 1781
-4.253 7.017 1.690 1546
-4.425 7.300 1.728 2209
-4.423 7.298 1.702 2258
-4.474 7.381 1.694 2608
-4.476 7.385 1.669 2203
-4.721 7.789 1.726 1992
-4.719 7.786 1.698 2692
-4.718 7.784 1.670 2442
-4.704 7.761 1.638 2972
-4.714 7.778 1.615 3211
-4.724 7.795 1.591 3131
-4.731 7.805 1.566 2094
-4.741 7.822 1.541 1186
-4.905 8.093 1.562 1556
-4.907 8.097 1.535 1622
-4.910 8.100 1.507 1072
-4.912 8.104 1.480 413
-4.914 8.107 1.452 262
-1.178 1.944 1.774 3060
-1.180 1.948 1.767 6120
-1.183 1.952 1.761 6120
-1.185 1.956 1.754 5442
-1.181 1.949 1.738 4890
-1.237 2.042 1.806 4720
-1.236 2.040 1.794 6869
-1.238 2.044 1.787 6869
-1.241 2.048 1.781 6781
-1.247 2.058 1.778 6728
-1.256 2.073 1.780 5072
-1.235 2.038 1.742 4303
-1.264 2.087 1.771 7231
-1.267 2.091 1.764 10362
-1.269 2.095 1.757 10853
-1.271 2.099 1.750 11089
-1.270 2.098 1.739 10859
-1.273 2.101 1.732 8833
-1.286 2.122 1.738 7884
-1.288 2.126 1.731 7099
-1.287 2.125 1.719 6366
-1.289 2.129 1.712 4551
-1.278 2.110 1.688 2873
-1.322 2.182 1.732 4186
-1.321 2.180 1.720 5552
-1.323 2.184 1.713 5151
-1.322 2.182 1.701 4753
-1.324 2.186 1.694 3372
-1.386 2.288 1.758 3633
-1.392 2.298 1.754 3822
-1.398 2.308 1.750 4065
-1.397 2.306 1.739 3093
-1.417 2.339 1.751 2477
-1.402 2.314 1.723 3869
-1.408 2.324 1.719 5655
-1.413 2.334 1.716 5595
-1.423 2.349 1.716 5052
-1.429 2.359 1.712 4545
-1.428 2.357 1.700 3566
-1.419 2.343 1.680 2681
-1.461 2.412 1.716 2964
-1.463 2.416 1.708 3382
-1.466 2.420 1.700 3336
-1.486 2.453 1.711 4046
-1.492 2.463 1.706 4840
-1.491 2.461 1.694 4472
-1.489 2.459 1.682 4189
-1.546 2.552 1.731 4226
-1.548 2.556 1.722 4456
-1.536 2.536 1.699 4102
-1.557 2.570 1.709 4448
-1.577 2.604 1.719 5169
-1.539 2.542 1.669 5622
-1.611 2.659 1.730 6049
-1.610 2.657 1.718 8690
-1.601 2.643 1.698 9938
-1.603 2.647 1.689 11514
-1.609 2.657 1.684 10731
-1.623 2.679 1.685 9056
-1.621 2.677 1.673 9117
-1.642 2.711 1.682 8275
-1.652 2.727 1.679 8919
-1.654 2.731 1.670 7568
-1.671 2.759 1.675 6792
-1.688 2.787 1.679 6815
-1.698 2.803 1.677 6875
-1.697 2.801 1.664 5049
-1.740 2.872 1.692 3315
-1.746 2.882 1.685 5443
-1.756 2.898 1.682 7012
-1.762 2.908 1.676 7425
-1.745 2.881 1.650 6555
-1.800 2.972 1.686 7592
-1.802 2.975 1.676 11387
-1.805 2.979 1.666 12724
-1.807 2.983 1.656 9449
-1.813 2.993 1.649 4397
-1.905 3.146 1.714 4022
-1.904 3.143 1.701 4097
-1.933 3.191 1.712 3073
-1.935 3.195 1.701 5230
-1.938 3.199 1.690 6623
-1.940 3.203 1.680 6443
-1.946 3.213 1.672 5754
-1.948 3.216 1.661 6982
-1.947 3.214 1.647 5889
-1.998 3.299 1.675 3742
-2.001 3.303 1.664 4134
-2.045 3.376 1.685 4163
-2.040 3.367 1.668 4034
-2.111 3.485 1.708 3283
-2.113 3.489 1.696 4822
-2.077 3.429 1.656 4312
-2.095 3.458 1.656 3745
-2.105 3.475 1.650 5030
-2.130 3.517 1.655 6785
-2.140 3.533 1.648 7932
-2.146 3.543 1.639 6247
-2.141 3.534 1.622 4904
-2.205 3.640 1.653 4419
-2.296 3.790 1.702 5101
-2.291 3.781 1.684 6571
-2.301 3.798 1.676 5388
-2.338 3.860 1.687 5062
-2.290 3.780 1.640 4181
-2.292 3.784 1.628 3515
-2.411 3.980 1.691 3710
-2.413 3.984 1.677 4034
-2.470 4.078 1.699 5534
-2.468 4.075 1.682 6102
-2.471 4.079 1.669 4757
-2.504 4.134 1.674 2917
-2.518 4.158 1.667 3019
-2.525 4.168 1.656 2811
-2.648 4.372 1.715 2780
-2.658 4.389 1.705 3391
-2.669 4.406 1.694 2808
-2.675 4.416 1.682 2952
-2.681 4.426 1.669 2960
-2.746 4.534 1.690 2291
-2.741 4.525 1.670 3698
-2.751 4.542 1.659 4957
-2.761 4.559 1.648 6328
-2.771 4.575 1.637 4104
-2.936 4.846 1.709 2713
-2.930 4.837 1.689 5662
-2.932 4.841 1.672 6965
-2.939 4.851 1.658 7308
-2.941 4.855 1.641 7004
-2.939 4.852 1.623 6755
-2.941 4.856 1.607 4657
-3.110 5.135 1.673 3365
-3.117 5.145 1.658 3775
-3.135 5.176 1.648 3114
-3.145 5.192 1.634 2491
-3.279 5.413 1.679 2362
-3.289 5.430 1.664 3228
-3.287 5.427 1.644 2217
-3.274 5.405 1.619 2350
-3.356 5.540 1.636 2279
-3.454 5.702 1.660 2395
-3.452 5.700 1.639 1722
-3.567 5.888 1.668 2136
-3.581 5.912 1.653 2737
-3.599 5.942 1.640 2933
-3.670 6.058 1.648 2277
-3.784 6.248 1.673 2181
-3.791 6.258 1.654 1987
-4.010 6.620 1.719 1800
-4.024 6.644 1.701 1473
-4.047 6.681 1.686 1731
-4.053 6.691 1.665 2016
-4.063 6.708 1.645 1758
-4.247 7.012 1.689 1551
-4.423 7.302 1.728 2218
-4.421 7.299 1.702 2246
-4.472 7.383 1.694 2608
-4.474 7.387 1.669 2246
-4.719 7.790 1.726 1849
-4.717 7.788 1.698 2483
-4.711 7.778 1.669 2307
-4.702 7.762 1.638 2867
-4.712 7.779 1.615 3095
-4.722 7.796 1.591 3015
-4.728 7.806 1.566 2014
-4.901 8.091 1.590 1216
-4.903 8.095 1.562 1620
-4.905 8.098 1.535 1694
-4.907 8.102 1.507 1121
-4.909 8.105 1.480 435
-4.911 8.108 1.452 272
-1.177 1.945 1.774 3093
-1.179 1.949 1.767 6186
-1.182 1.953 1.761 6186
-1.184 1.957 1.754 5457
-1.180 1.950 1.738 4819
-1.236 2.042 1.806 4690
-1.235 2.041 1.794 6756
-1.237 2.045 1.787 6756
-1.243 2.055 1.785 6647
-1.246 2.059 1.778 6579
-1.255 2.074 1.780 4989
-1.234 2.039 1.742 4182
-1.263 2.088 1.771 7134
-1.266 2.092 1.764 10207
-1.268 2.096 1.757 10719
-1.270 2.100 1.750 10983
-1.269 2.098 1.739 10750
-1.272 2.102 1.732 8751
-1.285 2.123 1.738 7772
-1.284 2.121 1.726 7005
-1.286 2.125 1.719 6282
-1.288 2.129 1.712 4454
-1.322 2.185 1.743 2798
-1.321 2.183 1.732 4211
-1.320 2.181 1.720 5631
-1.322 2.185 1.713 5238
-1.324 2.189 1.706 4844
-1.323 2.187 1.694 3351
-1.385 2.289 1.758 3611
-1.391 2.299 1.754 3769
-1.397 2.309 1.750 4009
-1.396 2.307 1.739 3099
-1.416 2.340 1.751 2551
-1.400 2.315 1.723 3995
-1.406 2.324 1.719 5826
-1.412 2.334 1.716 5647
-1.418 2.344 1.712 4954
-1.424 2.354 1.708 4415
-1.423 2.352 1.696 3559
-1.415 2.338 1.676 2930
-1.460 2.413 1.716 3018
-1.462 2.416 1.708 3568
-1.468 2.426 1.703 3514
-1.485 2.454 1.711 4270
-1.491 2.464 1.706 5009
-1.486 2.456 1.690 4709
-1.488 2.460 1.682 4512
-1.541 2.547 1.727 4125
-1.547 2.557 1.722 4329
-1.535 2.537 1.699 4166
-1.555 2.570 1.709 4328
-1.576 2.604 1.719 5194
-1.538 2.542 1.669 5451
-1.606 2.654 1.727 6105
-1.608 2.658 1.718 8755
-1.600 2.644 1.698 9877
-1.602 2.648 1.689 11356
-1.608 2.658 1.684 10504
-1.621 2.680 1.685 8814
-1.620 2.678 1.673 8972
-1.641 2.712 1.682 8198
-1.650 2.728 1.679 8770
-1.653 2.732 1.670 7513
-1.670 2.760 1.675 6766
-1.687 2.788 1.679 6656
-1.697 2.804 1.677 6738
-1.695 2.802 1.664 4988
-1.742 2.879 1.695 3416
-1.748 2.889 1.689 5580
-1.754 2.899 1.682 7119
-1.760 2.909 1.676 7425
-1.744 2.882 1.650 6417
-1.798 2.972 1.686 7636
-1.801 2.976 1.676 11494
-1.803 2.980 1.666 12804
-1.805 2.984 1.656 9517
-1.815 3.000 1.652 4418
-1.900 3.141 1.711 4127
-1.902 3.144 1.701 4307
-1.905 3.148 1.690 3186
-1.934 3.196 1.701 5097
-1.936 3.200 1.690 6527
-1.938 3.204 1.680 6370
-1.944 3.214 1.672 5595
-1.943 3.211 1.658 6737
-1.945 3.215 1.647 5886
-1.997 3.300 1.675 3705
-1.999 3.304 1.664 4151
-2.040 3.371 1.682 4031
-2.038 3.368 1.668 4146
-2.109 3.486 1.708 3156
-2.111 3.490 1.696 4605
-2.076 3.430 1.656 4413
-2.093 3.460 1.656 3940
-2.099 3.470 1.647 5148
-2.128 3.518 1.655 6659
-2.138 3.534 1.648 7756
-2.144 3.544 1.639 6326
-2.143 3.542 1.625 5037
-2.203 3.641 1.653 4295
-2.294 3.792 1.702 5028
-2.285 3.776 1.681 6880
-2.299 3.799 1.676 5653
-2.336 3.861 1.687 5095
-2.338 3.865 1.674 4214
-2.294 3.791 1.630 3481
-2.413 3.988 1.693 3738
-2.411 3.985 1.677 3988
-2.468 4.079 1.699 5456
-2.466 4.076 1.682 6005
-2.469 4.080 1.669 4762
-2.502 4.136 1.674 2962
-2.516 4.159 1.667 3091
-2.522 4.169 1.656 2779
-2.646 4.373 1.715 2735
-2.656 4.390 1.705 3248
-2.670 4.414 1.697 2687
-2.673 4.417 1.682 2886
-2.679 4.428 1.669 2860
-2.744 4.535 1.690 2247
-2.735 4.520 1.668 3626
-2.749 4.543 1.659 5042
-2.759 4.560 1.648 6573
-2.769 4.577 1.637 4214
-2.933 4.848 1.709 2856
-2.928 4.839 1.689 5703
-2.930 4.843 1.672 6857
-2.936 4.853 1.658 7324
-2.938 4.857 1.641 7071
-2.937 4.854 1.623 6744
-2.939 4.858 1.607 4650
-3.108 5.137 1.673 3546
-3.110 5.140 1.656 3915
-3.132 5.177 1.648 3171
-3.143 5.194 1.634 2488
-3.276 5.415 1.679 2369
-3.286 5.432 1.664 3138
-3.285 5.429 1.644 2214
-3.271 5.406 1.619 2472
-3.349 5.535 1.634 2284
-3.451 5.704 1.660 2334
-3.449 5.701 1.639 1639
-3.564 5.890 1.668 2020
-3.586 5.927 1.657 2684
-3.596 5.944 1.640 2968
-3.667 6.060 1.648 2318
-3.781 6.250 1.673 2197
-3.783 6.253 1.652 1944
-4.007 6.622 1.719 1821
-4.021 6.646 1.701 1516
-4.043 6.683 1.686 1706
-4.050 6.693 1.665 2011
-4.060 6.710 1.645 1789
-4.243 7.014 1.689 1597
-4.419 7.304 1.728 2233
-4.417 7.301 1.702 2183
-4.468 7.385 1.694 2689
-4.470 7.389 1.669 2322
-4.715 7.793 1.726 1735
-4.713 7.790 1.698 2325
-4.703 7.774 1.667 2195
-4.698 7.764 1.638 2710
-4.708 7.781 1.615 2949
-4.718 7.798 1.591 2907
-4.725 7.809 1.566 1946
-4.897 8.093 1.590 1215
-4.899 8.097 1.562 1658
-4.901 8.101 1.535 1747
-4.903 8.104 1.507 1155
-4.905 8.107 1.480 451
-4.907 8.111 1.452 291
-1.176 1.945 1.774 3095
-1.178 1.949 1.767 6190
-1.181 1.953 1.761 6190
-1.183 1.957 1.754 5425
-1.182 1.956 1.743 4737
-1.235 2.043 1.806 4609
-1.234 2.041 1.794 6582
-1.237 2.045 1.787 6582
-1.242 2.055 1.785 6470
-1.245 2.059 1.778 6388
-1.254 2.074 1.780 4894
-1.233 2.039 1.742 4127
-1.262 2.088 1.771 7019
-1.265 2.092 1.764 10030
-1.267 2.096 1.757 10529
-1.270 2.100 1.750 10786
-1.269 2.099 1.739 10555
-1.275 2.108 1.736 8609
-1.284 2.124 1.738 7619
-1.283 2.122 1.726 6871
-1.285 2.126 1.719 6144
-1.288 2.130 1.712 4338
-1.317 2.179 1.739 2722
-1.320 2.183 1.732 4224
-1.322 2.187 1.724 5726
-1.321 2.185 1.713 5333
-1.324 2.189 1.706 4946
-1.322 2.188 1.694 3352
-1.384 2.289 1.758 3575
-1.390 2.299 1.754 3704
-1.396 2.309 1.750 3936
-1.395 2.307 1.739 3111
-1.415 2.340 1.751 2606
-1.400 2.315 1.723 4134
-1.406 2.325 1.719 5989
-1.411 2.335 1.716 5707
-1.417 2.345 1.712 4953
-1.420 2.348 1.704 4430
-1.419 2.346 1.692 3718
-1.414 2.339 1.676 3216
-1.459 2.413 1.716 2971
-1.461 2.417 1.708 3551
-1.467 2.427 1.703 3466
-1.487 2.460 1.715 4369
-1.490 2.464 1.706 5176
-1.485 2.456 1.690 4840
-1.487 2.460 1.682 4639
-1.540 2.547 1.727 4036
-1.535 2.539 1.711 4278
-1.534 2.537 1.699 4301
-1.554 2.571 1.709 4256
-1.575 2.605 1.719 5201
-1.577 2.609 1.710 5301
-1.605 2.655 1.727 6076
-1.607 2.659 1.718 8724
-1.599 2.645 1.698 9866
-1.601 2.649 1.689 11330
-1.607 2.658 1.684 10320
-1.620 2.680 1.685 8463
-1.623 2.684 1.677 8667
-1.640 2.712 1.682 8141
-1.649 2.728 1.679 8744
-1.652 2.732 1.670 7597
-1.665 2.754 1.671 6788
-1.686 2.789 1.679 6377
-1.696 2.805 1.677 6422
-1.694 2.802 1.664 4808
-1.741 2.880 1.695 3434
-1.747 2.890 1.689 5658
-1.753 2.900 1.682 7202
-1.759 2.910 1.676 7457
-1.743 2.883 1.650 6325
-1.797 2.973 1.686 7689
-1.800 2.977 1.676 11579
-1.802 2.981 1.666 12852
-1.804 2.985 1.656 9535
-1.814 3.001 1.652 4396
-1.899 3.141 1.711 4261
-1.901 3.145 1.701 4458
-1.904 3.149 1.690 3344
-1.932 3.196 1.701 4989
-1.935 3.200 1.690 6371
-1.937 3.204 1.680 6179
-1.943 3.214 1.672 5350
-1.942 3.212 1.658 6424
-1.940 3.209 1.644 5737
-1.996 3.301 1.675 3599
-2.002 3.311 1.667 4091
-2.035 3.365 1.679 4105
-2.033 3.363 1.665 4423
-2.035 3.367 1.653 3104
-2.110 3.491 1.696 4420
-2.074 3.431 1.656 4344
-2.092 3.460 1.656 4008
-2.098 3.470 1.647 5278
-2.127 3.519 1.655 6522
-2.137 3.535 1.648 7621
-2.143 3.545 1.639 6282
-2.138 3.536 1.622 5036
-2.202 3.642 1.653 4251
-2.293 3.792 1.702 5045
-2.283 3.777 1.681 6889
-2.297 3.800 1.676 5586
-2.334 3.862 1.687 5048
-2.341 3.872 1.676 4206
-2.293 3.792 1.630 3604
-2.411 3.989 1.693 3712
-2.410 3.986 1.677 3922
-2.466 4.080 1.699 5335
-2.465 4.077 1.682 5845
-2.467 4.081 1.669 4678
-2.470 4.085 1.655 2873
-2.515 4.160 1.667 3062
-2.521 4.170 1.656 2791
-2.644 4.374 1.715 2720
-2.655 4.391 1.705 3152
-2.669 4.414 1.697 2632
-2.671 4.418 1.682 2879
-2.677 4.429 1.669 2868
-2.742 4.536 1.690 2267
-2.733 4.521 1.668 3680
-2.747 4.544 1.659 5070
-2.757 4.561 1.648 6577
-2.767 4.578 1.637 4278
-2.931 4.849 1.709 3003
-2.926 4.840 1.689 5687
-2.928 4.844 1.672 6812
-2.934 4.854 1.658 7224
-2.937 4.858 1.641 7038
-2.939 4.861 1.625 6749
-2.937 4.859 1.607 4597
-3.106 5.138 1.673 3626
-3.108 5.142 1.656 3839
-3.130 5.178 1.648 3139
-3.137 5.189 1.632 2508
-3.274 5.416 1.679 2441
-3.284 5.433 1.664 3070
-3.335 5.516 1.668 2279
-3.269 5.407 1.619 2424
-3.347 5.537 1.634 2324
-3.449 5.705 1.660 2196
-3.447 5.702 1.639 1523
-3.562 5.891 1.668 1886
-3.588 5.935 1.658 2676
-3.594 5.945 1.640 3012
-3.664 6.062 1.648 2393
-3.779 6.251 1.673 2282
-3.781 6.255 1.652 2036
-4.004 6.623 1.719 1845
-4.019 6.647 1.701 1521
-4.041 6.684 1.686 1713
-4.047 6.695 1.665 2054
-4.058 6.712 1.645 1790
-4.241 7.015 1.689 1562
-4.416 7.305 1.728 2200
-4.415 7.303 1.702 2140
-4.465 7.386 1.694 2626
-4.468 7.390 1.669 2304
-4.712 7.795 1.726 1611
-4.711 7.792 1.698 2145
-4.697 7.769 1.666 2078
-4.695 7.766 1.638 2537
-4.705 7.783 1.615 2801
-4.716 7.800 1.591 2832
-4.718 7.804 1.564 1924
-4.894 8.095 1.590 1237
-4.896 8.099 1.562 1702
-4.898 8.102 1.535 1799
-4.900 8.106 1.507 1185
-4.902 8.109 1.480 461
-4.904 8.112 1.452 304
-1.178 1.951 1.778 3107
-1.181 1.955 1.772 6215
-1.183 1.959 1.765 6215
-1.182 1.958 1.754 5398
-1.181 1.956 1.743 4657
-1.234 2.043 1.806 4600
-1.233 2.042 1.794 6499
-1.235 2.046 1.787 6499
-1.241 2.056 1.785 6373
-1.244 2.060 1.778 6266
-1.253 2.075 1.780 4807
