-1.296 3.008 1.699 9916
-1.298 3.013 1.690 13654
-1.299 3.017 1.680 14028
-1.304 3.027 1.674 9760
-1.326 3.078 1.688 4982
-1.376 3.194 1.735 2729
-1.377 3.198 1.725 4112
-1.376 3.196 1.712 4817
-1.381 3.206 1.705 4510
-1.343 3.118 1.650 3102
-1.365 3.168 1.663 3999
-1.372 3.186 1.659 4566
-1.374 3.190 1.649 3669
-1.439 3.340 1.709 3317
-1.392 3.231 1.645 4416
-1.394 3.235 1.635 4918
-1.438 3.339 1.671 4306
-1.449 3.364 1.670 4730
-1.453 3.374 1.663 4444
-1.455 3.378 1.652 4819
-1.460 3.389 1.645 4566
-1.557 3.615 1.733 3782
-1.562 3.626 1.725 4973
-1.529 3.550 1.678 4889
-1.531 3.554 1.667 5980
-1.535 3.564 1.659 4026
-1.563 3.629 1.673 2545
-1.638 3.803 1.734 2916
-1.640 3.807 1.722 5120
-1.633 3.791 1.702 6729
-1.623 3.768 1.678 7925
-1.628 3.779 1.669 5305
-1.676 3.892 1.702 5735
-1.658 3.848 1.670 6242
-1.665 3.866 1.664 4863
-1.705 3.959 1.687 6751
-1.710 3.970 1.677 5755
-1.730 4.015 1.681 4743
-1.728 4.012 1.665 5353
-1.724 4.003 1.647 4785
-1.788 4.151 1.689 4659
-1.790 4.155 1.676 5833
-1.792 4.159 1.663 4783
-1.796 4.170 1.653 4816
-1.801 4.181 1.642 4002
-1.850 4.296 1.669 2334
-1.861 4.320 1.663 2691
-1.869 4.338 1.654 2455
-1.891 4.391 1.657 4198
-1.893 4.395 1.643 6217
-1.895 4.399 1.630 5716
-1.935 4.493 1.646 3326
-1.931 4.483 1.628 2773
-1.969 4.571 1.641 2546
-1.983 4.603 1.636 3913
-1.993 4.627 1.628 4990
-1.998 4.638 1.616 3741
-2.087 4.845 1.666 3137
-2.092 4.856 1.653 3696
-2.099 4.874 1.642 3843
-2.107 4.892 1.631 3355
-2.160 5.015 1.652 2943
-2.289 5.313 1.724 5770
-2.296 5.331 1.712 7660
-2.298 5.336 1.695 6323
-2.300 5.340 1.678 4875
-2.308 5.358 1.665 5319
-2.316 5.376 1.653 4462
-2.357 5.472 1.661 2639
-2.428 5.638 1.689 2808
-2.427 5.635 1.669 2268
-2.520 5.851 1.709 3329
-2.479 5.756 1.664 3754
-2.533 5.880 1.677 3377
-2.532 5.877 1.657 3087
-2.634 6.115 1.699 3056
-2.636 6.119 1.679 3201
-2.546 5.910 1.607 1855
-2.642 6.134 1.642 1516
-2.638 6.124 1.620 1728
-2.640 6.128 1.600 2528
-2.644 6.139 1.583 4119
-2.646 6.143 1.563 7774
-2.648 6.147 1.544 10691
-2.652 6.157 1.526 10638
-2.654 6.161 1.507 8550
-2.652 6.158 1.486 5178
-3.102 7.202 1.692 3862
-3.101 7.199 1.668 4003
-3.106 7.210 1.647 3644
-3.111 7.222 1.625 4405
-3.112 7.226 1.603 5360
-3.114 7.229 1.580 4471
-3.110 7.219 1.554 3333
-2.633 6.113 1.316 3854
-2.631 6.109 1.295 3335
-2.630 6.105 1.275 4537
-2.634 6.115 1.257 7339
-2.635 6.118 1.238 8344
-2.634 6.114 1.217 6860
-2.635 6.117 1.198 4528
-2.639 6.127 1.180 2796
-2.640 6.130 1.160 2403
-2.638 6.125 1.140 2170
-2.639 6.128 1.120 2035
-2.641 6.130 1.101 2515
-2.645 6.140 1.083 2188
-2.649 6.150 1.065 1226
-2.653 6.160 1.046 598
-0.568 1.319 0.324 375
-2.643 6.135 1.003 257
-2.647 6.145 0.985 278
-2.648 6.147 0.966 256
-0.880 2.054 1.746 1719
-0.882 2.058 1.739 3439
-0.884 2.063 1.733 3439
-0.924 2.155 1.796 3672
-0.931 2.172 1.798 4379
-0.910 2.123 1.750 3452
-0.947 2.210 1.808 3243
-0.949 2.215 1.801 3243
-0.915 2.136 1.731 2895
-0.933 2.176 1.751 3584
-0.939 2.192 1.753 5597
-0.944 2.202 1.751 8148
-0.956 2.231 1.762 9261
-0.961 2.241 1.760 11555
-0.965 2.251 1.757 10002
-0.967 2.256 1.750 8294
-0.966 2.254 1.739 8028
-0.968 2.258 1.732 5469
-0.985 2.299 1.751 4591
-0.992 2.315 1.752 4011
-1.010 2.356 1.771 4632
-0.993 2.318 1.733 5396
-0.993 2.316 1.722 7576
-0.992 2.314 1.711 8067
-0.994 2.318 1.703 8642
-0.995 2.323 1.696 7270
-1.000 2.333 1.693 6029
-1.031 2.405 1.732 5517
-1.033 2.409 1.724 7757
-1.032 2.407 1.713 7436
-1.031 2.405 1.701 7239
-1.038 2.422 1.702 5596
-1.059 2.470 1.723 4681
-1.058 2.468 1.711 5455
-1.060 2.472 1.703 5347
-1.069 2.495 1.708 4279
-1.071 2.499 1.700 4364
-1.073 2.503 1.692 4954
-1.094 2.552 1.712 4213
-1.098 2.562 1.708 4950
-1.108 2.585 1.712 5762
-1.113 2.596 1.708 7423
-1.117 2.606 1.703 7337
-1.119 2.611 1.695 6064
-1.113 2.596 1.676 5516
-1.114 2.600 1.668 4652
-1.124 2.623 1.671 3128
-1.129 2.634 1.666 4010
-1.131 2.638 1.658 5030
-1.193 2.783 1.732 5705
-1.197 2.794 1.727 4730
-1.161 2.708 1.667 3034
-1.237 2.886 1.758 3559
-1.241 2.897 1.752 3200
-1.180 2.752 1.660 2545
-1.206 2.815 1.683 3522
-1.211 2.825 1.678 4043
-1.213 2.829 1.669 3470
-1.212 2.827 1.657 2401
-1.258 2.935 1.705 3404
-1.260 2.939 1.696 7223
-1.262 2.943 1.686 9263
-1.266 2.954 1.681 8128
-1.290 3.011 1.699 9259
-1.292 3.015 1.690 13412
-1.297 3.026 1.684 14184
-1.299 3.030 1.674 9939
-1.317 3.073 1.685 5068
-1.370 3.196 1.735 2841
-1.372 3.200 1.725 4354
-1.371 3.198 1.712 5302
-1.372 3.202 1.702 5109
-1.374 3.206 1.692 3165
-1.359 3.171 1.663 3663
-1.366 3.188 1.659 4268
-1.368 3.192 1.649 3485
-1.433 3.343 1.709 3426
-1.386 3.234 1.645 5101
-1.388 3.238 1.635 5668
-1.392 3.248 1.628 3898
-1.443 3.366 1.670 3932
-1.447 3.377 1.663 3486
-1.449 3.381 1.652 3924
-1.506 3.513 1.699 4125
-1.476 3.443 1.655 3989
-1.558 3.636 1.728 4405
-1.523 3.552 1.678 5095
-1.524 3.556 1.667 6494
-1.529 3.567 1.659 4526
-1.560 3.639 1.676 3499
-1.567 3.657 1.671 3013
-1.633 3.810 1.722 4905
-1.626 3.794 1.702 6525
-1.616 3.771 1.678 7602
-1.621 3.782 1.669 5137
-1.640 3.827 1.674 5028
-1.651 3.851 1.670 6570
-1.655 3.862 1.661 4997
-1.701 3.969 1.689 6349
-1.706 3.980 1.680 5399
-1.722 4.018 1.681 4521
-1.721 4.016 1.665 5436
-1.717 4.006 1.647 5000
-1.781 4.154 1.689 4821
-1.782 4.158 1.676 5947
-1.784 4.163 1.663 4746
-1.789 4.174 1.653 4818
-1.793 4.184 1.642 3944
-1.843 4.299 1.669 2622
-1.856 4.331 1.665 2893
-1.861 4.342 1.654 2668
-1.883 4.394 1.657 4109
-1.885 4.398 1.643 5831
-1.887 4.402 1.630 5512
-1.886 4.399 1.613 3353
-1.923 4.487 1.628 2919
-1.961 4.574 1.641 2732
-1.971 4.599 1.634 4117
-1.988 4.638 1.631 5043
-1.987 4.635 1.614 4502
-1.982 4.625 1.595 4238
-2.086 4.867 1.655 3705
-2.091 4.878 1.642 3866
-2.095 4.889 1.629 3252
-2.274 5.306 1.739 3219
-2.279 5.317 1.724 5965
-2.284 5.329 1.710 7870
-2.289 5.340 1.695 6185
-2.287 5.337 1.676 5112
-2.295 5.355 1.663 5804
-2.306 5.380 1.653 4695
-2.353 5.490 1.665 2760
-2.418 5.642 1.689 3038
-2.420 5.646 1.671 2575
-2.510 5.855 1.709 3401
-2.517 5.873 1.694 3664
-2.522 5.885 1.677 3807
-2.521 5.882 1.657 3537
-2.626 6.127 1.700 2428
-2.628 6.131 1.681 2667
-2.538 5.922 1.609 1963
-2.631 6.139 1.642 1849
-2.627 6.129 1.620 1576
-2.628 6.133 1.600 2100
-2.633 6.144 1.583 3733
-2.635 6.148 1.563 7844
-2.636 6.151 1.544 11009
-2.641 6.162 1.526 10604
-2.643 6.166 1.507 8215
-2.641 6.162 1.486 4996
-3.089 7.208 1.692 3630
-2.641 6.162 1.445 4019
-2.640 6.159 1.424 3833
-3.098 7.227 1.625 4149
-3.099 7.231 1.603 4992
-3.101 7.235 1.580 4086
-2.624 6.122 1.337 3437
-2.622 6.118 1.316 3796
-2.620 6.114 1.295 3604
-2.619 6.110 1.275 5571
-2.623 6.120 1.257 9386
-2.624 6.123 1.238 11044
-2.626 6.126 1.218 9551
-2.627 6.129 1.199 6399
-2.628 6.132 1.180 3710
-2.635 6.149 1.163 2794
-2.630 6.137 1.141 2099
-2.632 6.140 1.122 2550
-2.630 6.135 1.101 3641
-2.634 6.145 1.083 3189
-2.635 6.147 1.064 1791
-2.639 6.157 1.045 977
-2.634 6.145 1.024 723
-2.632 6.140 1.003 397
-2.633 6.142 0.984 264
-0.908 2.125 1.802 1743
-0.910 2.130 1.795 3487
-0.912 2.134 1.789 3487
-0.914 2.139 1.782 3884
-0.908 2.125 1.762 4526
-0.905 2.118 1.746 4268
-0.907 2.122 1.739 4229
-0.909 2.126 1.733 4229
-0.913 2.137 1.731 3939
-0.928 2.171 1.747 4409
-0.935 2.187 1.749 5966
-0.942 2.203 1.751 8301
-0.954 2.232 1.762 9572
-0.958 2.242 1.760 12217
-0.963 2.252 1.757 10720
-0.965 2.257 1.750 9073
-0.964 2.255 1.739 8787
-0.966 2.259 1.732 6130
-0.980 2.294 1.746 4961
-0.987 2.310 1.748 3962
-1.008 2.357 1.771 3789
-0.991 2.319 1.733 5140
-0.988 2.311 1.718 7335
-0.990 2.315 1.711 8165
-0.991 2.319 1.703 8995
-0.993 2.324 1.696 7747
-0.998 2.334 1.693 6730
-1.002 2.344 1.690 5686
-1.028 2.404 1.720 8093
-1.029 2.408 1.713 8091
-1.031 2.413 1.705 8089
-1.036 2.423 1.702 6032
-1.056 2.471 1.723 5171
-1.058 2.475 1.715 5872
-1.062 2.486 1.711 5806
-1.070 2.502 1.712 4860
-1.071 2.507 1.704 4834
-1.070 2.505 1.692 5379
-1.075 2.515 1.688 4478
-1.093 2.557 1.704 4090
-1.108 2.593 1.716 4991
-1.110 2.597 1.708 6615
-1.114 2.608 1.703 7024
-1.116 2.612 1.695 6508
-1.113 2.603 1.679 6035
-1.114 2.607 1.671 4752
-1.135 2.656 1.690 3683
-1.129 2.641 1.670 4470
-1.131 2.645 1.662 5261
-1.171 2.739 1.706 5477
-1.194 2.795 1.727 4290
-1.205 2.818 1.730 2910
-1.234 2.887 1.758 3732
-1.241 2.904 1.756 3557
-1.249 2.922 1.754 3131
-1.201 2.809 1.680 3386
-1.205 2.820 1.675 3907
-1.210 2.831 1.669 3524
-1.211 2.835 1.661 2474
-1.255 2.936 1.705 3555
-1.257 2.941 1.696 7485
-1.259 2.945 1.686 9726
-1.260 2.949 1.677 8650
-1.273 2.979 1.682 8443
-1.289 3.016 1.690 13193
-1.294 3.027 1.684 14542
-1.295 3.031 1.674 10276
-1.314 3.075 1.685 5007
-1.327 3.105 1.689 3066
-1.366 3.195 1.722 4578
-1.367 3.199 1.712 5692
-1.369 3.204 1.702 5674
-1.357 3.175 1.676 3473
-1.356 3.172 1.663 3189
-1.360 3.183 1.656 3802
-1.362 3.187 1.646 3441
-1.426 3.338 1.706 3422
-1.383 3.235 1.645 5837
-1.384 3.239 1.635 6463
-1.389 3.250 1.628 4355
-1.445 3.381 1.676 3062
-1.490 3.486 1.712 2812
-1.500 3.510 1.710 4216
-1.502 3.514 1.699 4950
-1.501 3.512 1.685 4022
-1.555 3.637 1.728 3464
-1.519 3.554 1.678 5471
-1.521 3.558 1.667 7019
-1.525 3.569 1.659 4939
-1.556 3.641 1.676 4418
-1.578 3.692 1.685 3604
-1.629 3.812 1.722 4194
-1.619 3.789 1.699 6210
-1.612 3.773 1.678 7120
-1.617 3.783 1.669 4957
-1.636 3.828 1.674 5248
-1.647 3.853 1.670 6561
-1.651 3.864 1.661 5152
-1.700 3.978 1.692 5463
-1.708 3.995 1.685 4849
-1.712 4.006 1.675 4258
-1.714 4.010 1.663 5536
-1.713 4.008 1.647 5025
-1.776 4.156 1.689 4906
-1.775 4.153 1.674 5950
-1.777 4.157 1.661 4415
-1.785 4.175 1.653 4269
-1.789 4.186 1.642 3413
-1.838 4.301 1.669 2806
-1.855 4.340 1.668 2818
-1.821 4.261 1.625 2748
-1.879 4.396 1.657 3871
-1.878 4.393 1.641 4805
-1.879 4.397 1.627 4998
-1.881 4.401 1.613 3732
-1.915 4.482 1.625 3045
-1.965 4.597 1.648 3032
-1.967 4.601 1.634 4209
-1.983 4.640 1.631 4924
-1.979 4.630 1.611 5366
-1.978 4.627 1.595 6174
-2.081 4.869 1.655 3738
-2.086 4.880 1.642 3636
-2.090 4.891 1.629 2877
-2.266 5.301 1.737 3488
-2.271 5.313 1.722 5645
-2.278 5.331 1.710 7204
-2.280 5.335 1.693 6840
-2.279 5.332 1.674 6591
-2.284 5.343 1.659 6459
-2.297 5.376 1.651 4913
-2.296 5.373 1.632 3142
-2.412 5.645 1.689 3233
-2.414 5.649 1.671 2944
-2.504 5.858 1.709 3356
-2.508 5.869 1.692 3869
-2.513 5.880 1.676 4188
-2.515 5.884 1.657 3974
-2.517 5.888 1.639 2529
-2.630 6.155 1.686 2481
-2.635 6.166 1.669 2363
-2.625 6.142 1.642 2207
-2.621 6.131 1.620 1424
-2.619 6.128 1.599 1560
-2.627 6.146 1.583 2958
-2.629 6.150 1.563 7255
-2.630 6.154 1.544 10520
-2.635 6.165 1.526 9733
-2.636 6.169 1.507 7024
-2.635 6.165 1.486 4423
-2.633 6.162 1.465 3577
-2.632 6.158 1.444 4635
-2.630 6.154 1.423 5236
-2.632 6.158 1.403 4413
-2.624 6.140 1.380 4316
-2.625 6.143 1.360 4967
-2.621 6.132 1.338 4009
-2.616 6.121 1.316 3769
-2.614 6.117 1.295 3949
-2.612 6.112 1.275 6670
-2.617 6.123 1.257 10900
-2.618 6.126 1.238 13134
-2.619 6.129 1.218 12208
-2.621 6.131 1.199 8448
-2.622 6.134 1.180 4749
-2.626 6.144 1.162 2903
-2.624 6.140 1.141 2522
-2.625 6.142 1.122 3942
-2.626 6.145 1.102 4861
-2.624 6.140 1.082 3936
-2.625 6.143 1.062 2269
-2.626 6.145 1.043 1439
-2.628 6.148 1.024 1172
-2.625 6.143 1.003 562
-2.623 6.138 0.983 268
-0.848 1.998 1.699 1937
-0.850 2.003 1.692 3875
-0.852 2.007 1.686 3875
-0.906 2.135 1.777 4205
-0.903 2.128 1.762 4989
-0.900 2.120 1.746 4992
-0.902 2.124 1.739 5244
-0.903 2.129 1.733 5244
-0.905 2.133 1.726 4840
-0.920 2.167 1.742 5210
-0.929 2.189 1.749 6343
-0.936 2.206 1.751 8380
-0.948 2.234 1.762 9851
-0.953 2.244 1.760 12730
-0.957 2.255 1.757 11206
-0.959 2.259 1.750 9517
-0.958 2.257 1.739 9200
-0.962 2.268 1.736 6553
-0.972 2.290 1.742 5191
-0.974 2.295 1.735 4202
-0.986 2.323 1.745 3446
-0.978 2.303 1.721 5136
-0.979 2.307 1.713 7060
-0.981 2.312 1.706 7952
-0.985 2.322 1.703 8873
-0.987 2.326 1.696 7707
-0.994 2.343 1.697 6873
-1.020 2.403 1.728 5822
-1.022 2.407 1.720 8255
-1.023 2.411 1.713 8302
-1.025 2.415 1.705 8349
-1.030 2.426 1.702 6081
-1.053 2.480 1.727 5391
-1.052 2.478 1.715 5986
-1.059 2.495 1.715 6028
-1.063 2.505 1.712 5240
-1.084 2.553 1.732 5244
-1.064 2.507 1.692 5644
-1.069 2.518 1.688 4585
-1.073 2.528 1.684 3564
-1.102 2.596 1.716 4502
-1.103 2.600 1.708 5963
-1.108 2.610 1.703 6733
-1.110 2.615 1.695 6806
-1.106 2.606 1.679 6416
-1.111 2.617 1.675 4953
-1.129 2.659 1.690 4584
-1.128 2.657 1.678 4817
-1.124 2.648 1.662 5218
-1.161 2.736 1.702 5827
-1.163 2.740 1.694 4569
-1.197 2.821 1.730 2956
-1.229 2.897 1.761 3835
-1.234 2.907 1.756 3812
-1.241 2.925 1.754 3642
-1.194 2.812 1.680 3309
-1.198 2.823 1.675 3785
-1.205 2.840 1.673 3496
-1.207 2.844 1.664 2529
-1.248 2.940 1.705 3387
-1.249 2.944 1.696 7468
-1.251 2.948 1.686 9915
-1.250 2.946 1.674 9020
-1.263 2.976 1.678 8285
-1.282 3.019 1.690 13290
-1.286 3.030 1.684 14952
-1.288 3.034 1.674 10569
-1.306 3.078 1.685 4974
-1.325 3.122 1.695 3921
-1.355 3.192 1.719 4726
-1.359 3.203 1.712 5799
-1.358 3.200 1.699 5899
-1.349 3.178 1.676 3856
-1.348 3.176 1.663 2979
-1.350 3.180 1.653 3407
-1.351 3.184 1.643 3368
-1.364 3.214 1.646 3405
-1.374 3.238 1.645 6050
-1.376 3.243 1.635 6729
-1.381 3.253 1.628 4469
-1.471 3.465 1.713 2943
-1.478 3.483 1.709 2902
-1.491 3.514 1.710 4422
-1.496 3.525 1.702 5430
-1.495 3.522 1.688 4243
-1.514 3.567 1.695 3147
-1.510 3.558 1.678 5422
-1.512 3.562 1.667 7179
-1.519 3.579 1.661 5333
-1.550 3.651 1.679 4640
-1.569 3.696 1.685 4095
-1.614 3.802 1.716 3627
-1.607 3.786 1.696 6058
-1.603 3.777 1.678 6816
-1.608 3.788 1.669 4836
-1.630 3.839 1.677 5229
-1.634 3.850 1.668 6530
-1.642 3.868 1.661 5193
-1.693 3.989 1.695 4881
-1.698 4.000 1.685 4611
-1.699 4.004 1.673 4165
-1.704 4.015 1.663 5292
-1.703 4.012 1.647 4530
-1.766 4.161 1.689 4923
-1.765 4.158 1.674 5921
-1.766 4.162 1.661 4211
-1.774 4.180 1.653 3770
-1.782 4.198 1.645 3136
-1.827 4.305 1.669 2749
-1.844 4.344 1.668 2860
-1.813 4.272 1.627 2907
-1.868 4.401 1.657 3479
-1.864 4.391 1.639 3896
-1.868 4.402 1.627 4200
-1.873 4.413 1.616 3664
-1.904 4.487 1.625 2883
-1.953 4.602 1.648 3352
-1.952 4.599 1.631 4064
-1.974 4.652 1.633 4490
-1.967 4.635 1.611 5439
-1.966 4.632 1.595 6598
-2.069 4.874 1.655 3805
-2.070 4.878 1.640 3583
-2.242 5.282 1.747 2867
-2.252 5.307 1.737 3645
-2.257 5.318 1.722 5169
-2.262 5.330 1.708 6208
-2.264 5.334 1.691 7111
-2.266 5.338 1.674 7480
-2.270 5.349 1.659 6565
-2.284 5.381 1.651 4990
-2.280 5.371 1.630 3550
-2.401 5.658 1.691 3175
-2.400 5.655 1.671 3007
-2.486 5.857 1.707 3309
-2.494 5.875 1.692 3949
-2.498 5.887 1.676 4196
-2.497 5.884 1.655 4099
-2.502 5.895 1.639 2794
-2.618 6.168 1.688 2380
-2.620 6.173 1.669 2433
-2.606 6.141 1.641 2375
-2.602 6.131 1.618 1525
-2.601 6.128 1.597 1348
-2.611 6.153 1.583 2419
-2.613 6.157 1.563 6496
-2.615 6.161 1.544 9614
-2.619 6.171 1.526 8650
-2.618 6.168 1.505 5924
-2.622 6.179 1.487 3789
-2.621 6.175 1.466 3636
-2.616 6.164 1.444 5076
-2.615 6.161 1.423 6213
-2.613 6.157 1.402 5629
-2.612 6.153 1.381 5571
-2.613 6.157 1.362 5908
-2.608 6.146 1.340 4581
-2.604 6.134 1.317 3754
-2.602 6.130 1.297 4050
-2.597 6.119 1.275 6688
-2.601 6.129 1.257 9918
-2.603 6.132 1.238 12013
-2.604 6.135 1.218 12003
-2.605 6.138 1.199 8627
-2.609 6.148 1.181 4407
-2.604 6.136 1.159 2593
-2.609 6.146 1.141 3546
-2.610 6.149 1.122 5566
-2.611 6.152 1.102 5232
-2.609 6.147 1.082 3508
-2.607 6.142 1.061 2426
-2.605 6.137 1.041 1895
-2.606 6.140 1.022 1329
-2.607 6.142 1.002 625
-2.605 6.137 0.982 318
-2.606 6.140 0.963 325
-2.607 6.142 0.943 289
-0.843 2.001 1.699 2208
-0.845 2.005 1.692 4416
-0.847 2.009 1.686 4416
-0.898 2.131 1.773 4584
-0.898 2.130 1.762 5356
-0.895 2.122 1.746 5710
-0.896 2.127 1.739 6338
-0.898 2.131 1.733 6338
-0.903 2.141 1.731 5840
-0.909 2.157 1.733 5977
-0.924 2.192 1.749 6370
-0.931 2.208 1.751 8160
-0.945 2.242 1.766 10094
-0.947 2.247 1.760 13206
-0.951 2.257 1.757 11689
-0.953 2.261 1.750 9977
-0.953 2.260 1.739 9637
-0.957 2.270 1.736 6974
-0.966 2.293 1.742 5389
-0.968 2.297 1.735 4604
-0.970 2.301 1.728 3820
-0.972 2.305 1.721 5333
-0.974 2.310 1.713 6846
-0.975 2.314 1.706 7883
-0.980 2.324 1.703 8924
-0.982 2.329 1.696 7855
-0.989 2.345 1.697 7315
-1.001 2.374 1.707 6068
-1.016 2.409 1.720 8227
-1.017 2.414 1.713 8245
-1.019 2.418 1.705 8263
-1.024 2.428 1.702 5953
-1.046 2.482 1.727 5498
-1.048 2.487 1.719 6022
-1.053 2.497 1.715 6249
-1.070 2.539 1.732 5729
-1.075 2.550 1.728 6056
-1.061 2.516 1.696 5832
-1.062 2.520 1.688 4592
-1.062 2.518 1.676 3383
-1.095 2.598 1.716 4052
-1.097 2.603 1.708 5284
-1.102 2.613 1.703 6319
-1.101 2.611 1.691 6957
-1.102 2.615 1.683 6736
-1.107 2.626 1.679 5263
-1.119 2.655 1.686 5351
-1.121 2.660 1.678 5080
-1.153 2.734 1.711 4761
-1.154 2.738 1.702 6107
-1.156 2.743 1.694 5098
-1.191 2.824 1.730 2892
-1.222 2.900 1.761 3693
-1.227 2.910 1.756 3794
-1.234 2.928 1.754 3869
-1.233 2.926 1.741 3408
-1.191 2.826 1.675 3655
-1.198 2.843 1.673 3592
-1.203 2.854 1.668 2709
-1.240 2.943 1.705 3631
-1.242 2.947 1.696 7559
-1.244 2.951 1.686 9851
-1.246 2.955 1.677 8972
-1.256 2.979 1.678 7927
-1.274 3.023 1.690 12615
-1.279 3.033 1.684 14391
-1.280 3.037 1.674 10274
-1.302 3.088 1.688 4992
-1.320 3.132 1.699 4941
-1.336 3.169 1.706 5206
-1.349 3.200 1.709 5657
-1.351 3.204 1.699 5716
-1.336 3.168 1.669 4720
-1.337 3.172 1.659 3316
-1.339 3.176 1.650 3344
-1.343 3.187 1.643 3416
-1.354 3.211 1.642 3601
-1.367 3.242 1.645 5980
-1.368 3.246 1.635 6662
-1.373 3.257 1.628 4216
-1.440 3.415 1.689 3337
-1.436 3.406 1.672 3737
-1.483 3.518 1.710 4384
-1.487 3.529 1.702 5693
-1.464 3.472 1.664 4355
-1.508 3.577 1.698 3489
-1.501 3.561 1.678 5501
-1.503 3.565 1.667 7170
-1.530 3.631 1.682 5704
-1.572 3.730 1.711 4898
-1.565 3.714 1.691 4888
-1.584 3.759 1.696 3686
-1.595 3.783 1.693 5960
-1.594 3.780 1.678 6693
-1.598 3.791 1.669 5032
-1.620 3.843 1.677 5174
-1.625 3.854 1.668 6420
-1.632 3.872 1.661 5472
-1.640 3.890 1.654 4897
-1.688 4.004 1.685 4320
-1.687 4.001 1.670 4228
-1.694 4.019 1.663 5097
-1.696 4.023 1.650 4042
-1.756 4.165 1.689 4652
-1.755 4.162 1.674 5668
-1.753 4.159 1.658 4157
-1.775 4.212 1.663 3631
-1.777 4.216 1.650 2951
-1.820 4.317 1.671 2712
-1.833 4.349 1.668 2868
-1.806 4.283 1.630 3049
-1.854 4.399 1.655 3031
-1.850 4.389 1.636 3257
-1.855 4.400 1.625 3569
-1.862 4.418 1.616 3387
-1.943 4.610 1.665 3102
-1.942 4.607 1.648 3667
-1.938 4.597 1.629 3937
-1.957 4.643 1.628 3888
-1.956 4.640 1.611 5113
-1.955 4.637 1.595 6344
-2.057 4.879 1.655 3672
-2.058 4.883 1.640 3440
-2.229 5.287 1.747 2830
-2.240 5.312 1.737 3545
-2.244 5.324 1.722 4309
-2.246 5.328 1.706 4619
-2.251 5.339 1.691 6648
-2.253 5.343 1.674 7433
-2.257 5.355 1.659 5758
-2.262 5.366 1.645 4984
-2.261 5.363 1.626 4043
-2.387 5.664 1.691 3140
-2.386 5.661 1.671 2973
-2.472 5.863 1.707 3348
-2.479 5.881 1.692 3851
-2.484 5.893 1.676 3862
-2.483 5.890 1.655 4078
-2.487 5.901 1.639 3081
-2.498 5.926 1.625 2196
-2.608 6.186 1.671 2312
-2.591 6.147 1.641 2252
-2.587 6.137 1.618 1531
-2.616 6.205 1.614 1234
-2.596 6.159 1.583 1821
-2.598 6.163 1.563 5323
-2.600 6.167 1.544 8093
-2.604 6.178 1.526 6962
-2.603 6.174 1.505 4504
-2.607 6.185 1.487 2994
-2.606 6.182 1.466 3390
-2.601 6.171 1.444 5199
-2.600 6.167 1.423 6695
-2.598 6.163 1.402 6487
-2.597 6.160 1.381 6653
-2.598 6.163 1.362 6599
-2.593 6.152 1.340 5014
-2.592 6.148 1.319 3598
-2.587 6.137 1.297 3761
-2.585 6.133 1.276 5728
-2.583 6.128 1.256 7188
-2.588 6.139 1.238 8456
-2.589 6.141 1.218 9192
-2.593 6.152 1.200 7111
-2.604 6.176 1.185 4399
-2.589 6.143 1.159 3394
-2.591 6.145 1.140 5189
-2.595 6.155 1.122 6982
-2.599 6.165 1.103 5568
-2.597 6.161 1.083 2928
-2.592 6.149 1.061 2712
-2.590 6.144 1.041 2505
-2.591 6.146 1.022 1508
-2.592 6.149 1.002 676
-2.593 6.151 0.983 401
-2.594 6.153 0.964 466
-2.598 6.163 0.945 459
-2.602 6.172 0.927 306
-0.841 2.002 1.699 2159
-0.842 2.006 1.692 4319
-0.844 2.010 1.686 4319
-0.895 2.133 1.773 4673
-0.895 2.131 1.762 5428
-0.892 2.123 1.746 6331
-0.893 2.128 1.739 7372
-0.895 2.132 1.733 7372
-0.900 2.142 1.731 6908
-0.904 2.153 1.728 6866
-0.913 2.175 1.735 6245
-0.930 2.215 1.755 8059
-0.942 2.244 1.766 10331
-0.944 2.248 1.760 13644
-0.948 2.258 1.757 12080
-0.950 2.263 1.750 10321
-0.949 2.261 1.739 9986
-0.954 2.271 1.736 7221
-0.963 2.294 1.742 5349
-0.965 2.298 1.735 4827
-0.972 2.315 1.736 4428
-0.969 2.307 1.721 5465
-0.970 2.311 1.713 6625
-0.972 2.315 1.706 7796
-0.977 2.326 1.703 9006
-0.978 2.330 1.696 8032
-0.985 2.346 1.697 7698
-0.995 2.369 1.703 6211
-1.012 2.411 1.720 7999
-1.014 2.415 1.713 7999
-1.016 2.419 1.705 7999
-1.020 2.430 1.702 5751
-1.043 2.484 1.727 5633
-1.045 2.488 1.719 6169
-1.052 2.505 1.719 6573
-1.067 2.541 1.732 6245
-1.074 2.558 1.732 6594
-1.057 2.518 1.696 5935
-1.059 2.522 1.688 4576
-1.058 2.520 1.676 3277
-1.092 2.600 1.716 3669
-1.093 2.604 1.708 4638
-1.098 2.615 1.703 5902
-1.097 2.612 1.691 6957
-1.099 2.617 1.683 6862
-1.103 2.627 1.679 5465
-1.116 2.657 1.686 5844
-1.117 2.661 1.678 5187
-1.149 2.736 1.711 4683
-1.151 2.740 1.702 6271
-1.155 2.751 1.697 5487
-1.168 2.781 1.704 3438
-1.218 2.901 1.761 3407
-1.223 2.912 1.756 3590
-1.227 2.923 1.750 3800
-1.226 2.921 1.738 3611
-1.190 2.834 1.678 3571
-1.197 2.851 1.677 3722
-1.207 2.875 1.678 3102
-1.239 2.951 1.708 3925
-1.238 2.949 1.696 7675
-1.240 2.953 1.686 9900
-1.242 2.957 1.677 8955
-1.252 2.981 1.678 7454
-1.270 3.024 1.690 11391
-1.274 3.035 1.684 13051
-1.273 3.033 1.671 9503
-1.278 3.043 1.665 5004
-1.316 3.133 1.699 5837
-1.329 3.164 1.702 6079
-1.311 3.122 1.669 5909
-1.315 3.133 1.663 6551
-1.328 3.163 1.666 6077
-1.333 3.174 1.659 3996
-1.332 3.171 1.646 3486
-1.339 3.189 1.643 3545
-1.349 3.213 1.642 3842
-1.362 3.244 1.645 6050
-1.364 3.248 1.635 6810
-1.368 3.259 1.628 4228
-1.421 3.383 1.673 3326
-1.425 3.394 1.666 4325
-1.478 3.520 1.710 4166
-1.482 3.531 1.702 5710
-1.459 3.474 1.664 4488
-1.503 3.580 1.698 3820
-1.505 3.584 1.687 5450
-1.526 3.635 1.696 7259
-1.525 3.633 1.682 6151
-1.567 3.732 1.711 5570
-1.566 3.729 1.697 5957
-1.576 3.754 1.693 4273
-1.587 3.779 1.690 6051
-1.588 3.783 1.678 6766
-1.593 3.794 1.669 5527
-1.615 3.846 1.677 5000
-1.619 3.857 1.668 6141
-1.627 3.874 1.661 5630
-1.634 3.892 1.654 5541
-1.639 3.903 1.645 4224
-1.681 4.003 1.670 4608
-1.686 4.014 1.660 5086
-1.693 4.032 1.653 3732
-1.750 4.167 1.689 4266
-1.746 4.158 1.671 5355
-1.745 4.155 1.656 4281
-1.775 4.228 1.668 3760
-1.771 4.218 1.650 3093
-1.814 4.319 1.671 2427
-1.815 4.324 1.658 2654
-1.800 4.286 1.630 3219
-1.816 4.325 1.628 2627
-1.844 4.391 1.636 2815
-1.848 4.402 1.625 2862
-1.859 4.427 1.618 2916
-1.937 4.612 1.665 3677
-1.936 4.610 1.648 4075
-1.931 4.600 1.629 4007
-1.945 4.632 1.624 3498
-1.946 4.636 1.609 4534
-1.948 4.640 1.595 5546
-2.047 4.875 1.653 3330
-2.049 4.879 1.637 3302
-2.221 5.290 1.747 2454
-2.229 5.309 1.735 3076
-2.234 5.320 1.720 3473
-2.227 5.303 1.697 3513
-2.240 5.335 1.689 5720
-2.245 5.347 1.674 6630
-2.250 5.358 1.659 4356
-2.251 5.362 1.643 4531
-2.253 5.366 1.626 4207
-2.382 5.674 1.693 2941
-2.375 5.657 1.669 2716
-2.460 5.859 1.705 3266
-2.468 5.878 1.690 3521
-2.473 5.889 1.674 3378
-2.474 5.893 1.655 3900
-2.479 5.904 1.639 3156
-2.526 6.015 1.647 2018
-2.599 6.190 1.671 1959
-2.580 6.144 1.639 1944
-2.575 6.134 1.616 1408
-2.610 6.216 1.616 1229
-2.591 6.170 1.584 1404
-2.589 6.167 1.563 3882
-2.591 6.171 1.544 5865
-2.596 6.181 1.526 4910
-2.597 6.185 1.507 3126
-2.980 7.097 1.687 2820
-2.982 7.102 1.664 3516
-2.593 6.175 1.444 4845
-2.588 6.164 1.421 6517
-2.586 6.160 1.400 6664
-2.588 6.163 1.381 6922
-2.589 6.167 1.362 6681
-2.585 6.156 1.340 5143
-2.586 6.159 1.320 3221
-2.575 6.133 1.295 2978
-2.577 6.136 1.276 4241
-2.578 6.139 1.257 4361
-2.579 6.142 1.238 4814
-2.580 6.145 1.218 5874
-2.591 6.170 1.203 5617
-2.595 6.180 1.185 4955
-2.584 6.154 1.160 3945
-2.582 6.149 1.140 5616
-2.589 6.166 1.123 7244
-2.593 6.176 1.105 5541
-2.591 6.171 1.084 2911
-2.586 6.159 1.062 3023
-2.584 6.155 1.042 2909
-2.582 6.150 1.022 1591
-2.580 6.145 1.001 679
-2.587 6.162 0.984 482
-2.588 6.164 0.965 604
-2.589 6.166 0.945 627
-2.593 6.176 0.927 398
-0.885 2.121 1.792 2015
-0.887 2.126 1.786 4031
-0.889 2.130 1.779 4031
-0.888 2.129 1.768 4773
-0.887 2.127 1.757 5592
-0.887 2.126 1.746 6945
-0.888 2.130 1.739 8389
-0.890 2.134 1.733 8389
-0.894 2.144 1.731 8056
-0.899 2.155 1.728 8038
-0.903 2.165 1.726 6799
-0.925 2.217 1.755 8235
-0.934 2.240 1.762 10538
-0.939 2.250 1.760 13962
-0.943 2.261 1.757 12221
-0.945 2.265 1.750 10365
-0.947 2.269 1.743 10117
-0.948 2.274 1.736 7352
-0.958 2.296 1.742 5324
-0.962 2.307 1.739 5079
-0.967 2.317 1.736 5076
-0.963 2.309 1.721 5467
-0.962 2.307 1.709 6304
-0.967 2.318 1.706 7562
-0.971 2.328 1.703 9041
-0.975 2.338 1.700 8165
-0.982 2.355 1.701 7969
-0.989 2.372 1.703 6214
-1.007 2.413 1.720 7571
-1.008 2.417 1.713 7457
-1.010 2.422 1.705 7343
-1.014 2.432 1.702 5310
-1.037 2.486 1.727 5584
-1.041 2.497 1.723 6124
-1.046 2.507 1.719 6651
-1.061 2.543 1.732 6627
-1.068 2.560 1.732 7093
-1.054 2.526 1.700 6101
-1.056 2.531 1.692 4527
-1.092 2.617 1.736 3109
-1.088 2.609 1.720 3365
-1.087 2.607 1.708 3877
-1.092 2.617 1.703 5397
-1.091 2.615 1.691 6879
-1.093 2.619 1.683 6938
-1.105 2.649 1.690 5738
-1.112 2.666 1.690 6330
-1.114 2.670 1.682 5437
-1.142 2.739 1.711 4501
-1.144 2.743 1.702 6235
-1.149 2.753 1.697 5718
-1.161 2.783 1.704 4044
-1.168 2.801 1.702 3412
-1.216 2.915 1.756 3053
-1.218 2.919 1.747 3401
-1.220 2.924 1.738 3637
-1.227 2.941 1.736 3707
-1.193 2.861 1.680 3875
-1.200 2.878 1.678 3336
-1.232 2.954 1.708 4488
-1.231 2.951 1.696 7781
-1.233 2.956 1.686 9689
-1.235 2.960 1.677 8574
-1.247 2.990 1.682 7007
-1.263 3.027 1.690 10196
-1.264 3.031 1.680 11635
-1.266 3.036 1.671 8732
-1.301 3.119 1.702 5149
-1.306 3.130 1.695 6643
-1.307 3.134 1.686 6571
-1.303 3.125 1.669 7119
-1.308 3.136 1.663 8158
-1.321 3.166 1.666 7818
-1.325 3.177 1.659 4947
-1.324 3.175 1.646 3557
-1.334 3.199 1.646 4009
-1.342 3.216 1.642 4266
-1.352 3.240 1.642 5872
-1.356 3.251 1.635 6595
-1.361 3.262 1.628 3912
-1.410 3.380 1.670 4458
-1.412 3.384 1.660 6045
-1.419 3.402 1.655 5350
-1.474 3.534 1.702 5392
-1.451 3.477 1.664 4360
-1.495 3.583 1.698 3997
-1.502 3.601 1.693 5638
-1.518 3.639 1.696 7936
-1.514 3.629 1.679 6523
-1.558 3.736 1.711 5887
-1.557 3.733 1.697 6852
-1.565 3.751 1.691 4906
-1.578 3.782 1.690 6378
-1.579 3.786 1.678 6901
-1.584 3.797 1.669 5841
-1.606 3.849 1.677 4650
-1.610 3.860 1.668 5689
-1.621 3.885 1.664 5753
-1.625 3.896 1.654 5982
-1.630 3.907 1.645 4386
-1.672 4.007 1.670 4635
-1.676 4.018 1.660 4902
-1.681 4.029 1.650 3245
-1.740 4.171 1.689 3924
-1.733 4.155 1.669 5099
-1.735 4.159 1.656 4324
-1.768 4.239 1.670 4061
-1.767 4.236 1.655 3301
-1.832 4.393 1.696 2159
-1.791 4.293 1.645 2348
-1.792 4.297 1.632 3161
-1.803 4.322 1.626 2352
-1.834 4.396 1.636 2841
-1.838 4.407 1.625 2382
-1.930 4.627 1.684 2714
-1.929 4.624 1.667 4090
-1.925 4.614 1.648 4367
-1.923 4.611 1.631 4049
-1.975 4.734 1.655 3553
-1.936 4.640 1.609 3742
-1.937 4.644 1.595 4144
-2.035 4.880 1.653 2775
-2.037 4.884 1.637 3102
-2.130 5.106 1.689 2620
-2.184 5.236 1.711 2789
-2.212 5.304 1.714 3329
-2.208 5.294 1.693 3575
-2.225 5.334 1.687 4740
-2.232 5.352 1.674 5227
-2.308 5.533 1.708 3502
-2.239 5.367 1.643 3512
-2.237 5.364 1.624 3930
-2.345 5.623 1.677 2961
-2.362 5.663 1.669 2466
-2.444 5.858 1.703 3200
-2.371 5.685 1.638 3166
-2.459 5.895 1.674 2798
-2.461 5.899 1.655 3515
-2.465 5.910 1.639 3071
-2.511 6.021 1.647 2147
-2.513 6.025 1.628 1750
-2.562 6.143 1.637 1630
-2.558 6.133 1.614 1215
-2.667 6.393 1.657 1066
-2.731 6.547 1.672 1313
-2.575 6.173 1.563 2413
-2.576 6.177 1.544 3668
-2.581 6.188 1.526 3209
-2.902 6.957 1.677 3018
-2.963 7.104 1.687 2899
-2.965 7.109 1.664 3551
-2.575 6.173 1.442 4206
-2.574 6.170 1.421 5730
-2.572 6.166 1.400 6049
-2.573 6.169 1.381 6255
-2.575 6.173 1.362 6025
-2.573 6.169 1.341 4796
-2.571 6.165 1.320 2638
-2.561 6.139 1.295 2028
-2.562 6.142 1.276 2839
-2.563 6.145 1.257 2991
-2.562 6.141 1.236 3522
-2.566 6.151 1.218 4573
-2.573 6.169 1.201 5294
-2.577 6.179 1.183 4728
-2.569 6.160 1.160 3361
-2.570 6.162 1.141 4481
-2.578 6.180 1.124 5749
-2.582 6.189 1.106 4400
-2.583 6.192 1.086 2844
-2.572 6.166 1.062 3116
-2.570 6.161 1.042 2998
-2.568 6.156 1.022 1616
-2.569 6.158 1.002 670
-2.576 6.175 0.985 500
-2.577 6.177 0.966 598
-2.578 6.180 0.946 590
-2.582 6.189 0.928 367
-0.835 2.011 1.703 2239
-0.837 2.015 1.697 4478
-0.838 2.019 1.691 4478
-0.882 2.124 1.763 4812
-0.884 2.129 1.757 5694
-0.883 2.127 1.746 7438
-0.885 2.131 1.739 9241
-0.887 2.136 1.733 9241
-0.891 2.146 1.731 9039
-0.893 2.150 1.724 8988
-0.897 2.160 1.722 7326
-0.924 2.225 1.760 7911
-0.931 2.241 1.762 10377
-0.935 2.252 1.760 13831
-0.939 2.262 1.757 12089
-0.944 2.273 1.754 10272
-0.943 2.271 1.743 10080
-0.945 2.275 1.736 7381
-0.954 2.298 1.742 5282
-0.958 2.308 1.739 5328
-0.965 2.325 1.741 5710
-0.959 2.311 1.721 5383
-0.959 2.309 1.709 5883
-0.963 2.319 1.706 7165
-0.967 2.330 1.703 8887
-0.972 2.340 1.700 8194
-0.978 2.357 1.701 8141
-0.985 2.373 1.703 6045
-1.003 2.415 1.720 6938
-1.004 2.419 1.713 6623
-1.006 2.423 1.705 6307
-1.008 2.427 1.698 4593
-1.036 2.494 1.731 5273
-1.037 2.499 1.723 5903
-1.042 2.509 1.719 6567
-1.057 2.545 1.732 6844
-1.064 2.562 1.732 7445
-1.068 2.572 1.728 6172
-1.080 2.602 1.736 4563
-1.090 2.625 1.740 3545
-1.084 2.611 1.720 3232
-1.083 2.608 1.708 3174
-1.087 2.619 1.703 4899
-1.086 2.617 1.691 6710
-1.088 2.621 1.683 6894
-1.101 2.651 1.690 5862
-1.108 2.668 1.690 6651
-1.112 2.678 1.685 5612
-1.135 2.734 1.707 4354
-1.140 2.745 1.702 6021
-1.144 2.755 1.697 5683
-1.156 2.785 1.704 4362
-1.161 2.796 1.699 3520
-1.165 2.807 1.694 2595
-1.210 2.915 1.743 2955
-1.215 2.926 1.738 3503
-1.222 2.943 1.736 4002
-1.226 2.954 1.730 4068
-1.231 2.965 1.725 3838
-1.227 2.956 1.708 4932
-1.229 2.960 1.699 7538
-1.228 2.958 1.686 9076
-1.232 2.968 1.681 7793
-1.245 2.999 1.685 6532
-1.258 3.029 1.690 9011
-1.262 3.040 1.684 10164
-1.261 3.038 1.671 7531
-1.296 3.121 1.702 5406
-1.300 3.132 1.695 7130
-1.299 3.130 1.682 7033
-1.298 3.127 1.669 7810
-1.306 3.144 1.666 9123
-1.316 3.169 1.666 9558
-1.323 3.186 1.663 6058
-1.330 3.203 1.659 4170
-1.332 3.208 1.649 4618
-1.336 3.218 1.642 4627
-1.349 3.249 1.645 5542
-1.351 3.253 1.635 5957
-1.355 3.264 1.628 3329
-1.404 3.382 1.670 5232
-1.406 3.387 1.660 7082
-1.411 3.397 1.652 6301
-1.471 3.543 1.705 5272
-1.445 3.480 1.664 4621
-1.489 3.586 1.698 4196
-1.510 3.637 1.708 6068
-1.512 3.641 1.696 8095
-1.508 3.632 1.679 6700
-1.552 3.738 1.711 5870
-1.551 3.736 1.697 7404
-1.519 3.658 1.651 5782
-1.571 3.785 1.690 6386
-1.573 3.789 1.678 6849
-1.578 3.800 1.669 6020
-1.599 3.852 1.677 4401
-1.604 3.863 1.668 5120
-1.614 3.888 1.664 5547
-1.619 3.899 1.654 6070
-1.623 3.910 1.645 4371
-1.665 4.010 1.670 4720
-1.670 4.021 1.660 4596
-1.688 4.067 1.663 2676
-1.736 4.181 1.692 3569
-1.726 4.158 1.669 4762
-1.725 4.155 1.653 4466
-1.761 4.242 1.670 4378
-1.763 4.246 1.657 3439
-1.822 4.389 1.694 2456
-1.812 4.366 1.670 2469
-1.785 4.300 1.632 2914
-1.822 4.388 1.648 2405
-1.826 4.399 1.636 3053
-1.877 4.521 1.663 2455
-1.922 4.630 1.684 2692
-1.924 4.634 1.670 4324
-1.926 4.638 1.655 4376
-1.916 4.614 1.631 4121
-1.967 4.737 1.655 3989
-1.969 4.742 1.641 3694
-1.929 4.647 1.595 2381
-2.027 4.883 1.653 2186
-2.029 4.887 1.637 2703
-2.121 5.109 1.689 2727
-2.173 5.233 1.709 2772
-2.204 5.308 1.714 4025
-2.203 5.305 1.695 4246
-2.216 5.337 1.687 4552
-2.221 5.348 1.672 4440
-2.299 5.536 1.708 3488
-2.221 5.350 1.637 3304
-2.323 5.594 1.687 3089
-2.333 5.620 1.675 3510
-2.353 5.666 1.669 2340
-2.434 5.862 1.703 3020
-2.362 5.689 1.638 2783
-2.449 5.899 1.674 2336
-2.454 5.910 1.657 3063
-2.458 5.921 1.640 2786
-2.507 6.039 1.651 2345
-2.506 6.036 1.630 1698
-2.549 6.140 1.635 1386
-2.545 6.130 1.613 1221
-2.707 6.519 1.686 1191
-2.711 6.530 1.667 1385
-2.882 6.942 1.741 1801
-2.887 6.953 1.721 2827
-2.889 6.958 1.699 3519
-2.890 6.962 1.677 3562
-2.892 6.966 1.655 3647
-2.894 6.970 1.633 3277
-2.565 6.178 1.442 3354
-2.563 6.174 1.421 4567
-2.562 6.170 1.400 4989
-2.563 6.174 1.381 5059
-2.565 6.177 1.362 4799
-2.563 6.173 1.341 4011
-2.564 6.176 1.322 2150
-3.388 8.160 1.678 2471
-3.387 8.157 1.651 2391
-2.553 6.149 1.257 2501
-2.551 6.145 1.236 3442
-2.556 6.155 1.218 4228
-2.560 6.166 1.200 4407
-2.564 6.176 1.182 3190
-2.577 6.207 1.168 2223
-2.563 6.174 1.142 3163
-2.564 6.177 1.123 3586
-2.563 6.172 1.102 2634
-2.564 6.175 1.083 2349
-2.565 6.177 1.064 2802
-2.560 6.165 1.042 2722
-2.558 6.160 1.022 1534
-2.559 6.163 1.002 611
-2.572 6.194 0.987 418
-2.570 6.189 0.967 441
-2.567 6.184 0.946 406
-2.574 6.200 0.929 260
-0.830 2.013 1.703 2739
-0.832 2.017 1.697 5479
-0.834 2.021 1.691 5479
-0.877 2.126 1.763 4734
-0.879 2.131 1.757 5650
-0.878 2.129 1.746 7723
-0.880 2.133 1.739 9821
-0.882 2.138 1.733 9821
-0.886 2.148 1.731 9774
-0.888 2.152 1.724 9797
-0.890 2.156 1.717 7902
-0.919 2.227 1.760 7600
-0.926 2.243 1.762 10126
-0.930 2.254 1.760 13511
-0.934 2.264 1.757 11790
-0.939 2.275 1.754 10052
-0.938 2.273 1.743 9898
-0.942 2.283 1.740 7290
-0.952 2.306 1.746 5262
-0.956 2.317 1.744 5640
-0.960 2.327 1.741 6315
-0.959 2.325 1.729 5488
-0.954 2.311 1.709 5381
-0.960 2.328 1.711 6724
-0.962 2.332 1.703 8531
-0.966 2.342 1.700 7944
-0.973 2.359 1.701 7949
-0.980 2.375 1.703 5741
-0.997 2.417 1.720 6330
-0.999 2.421 1.713 5665
-1.001 2.425 1.705 4999
-1.026 2.486 1.735 4215
-1.030 2.497 1.731 4838
-1.034 2.507 1.727 5563
-1.036 2.511 1.719 6293
-1.051 2.547 1.732 6895
-1.058 2.564 1.732 7659
-1.062 2.575 1.728 6433
-1.067 2.585 1.724 4909
-1.084 2.628 1.740 3939
-1.049 2.543 1.676 3330
-1.051 2.547 1.669 3416
-1.082 2.621 1.703 4380
-1.081 2.619 1.691 6311
-1.082 2.623 1.683 6611
-1.095 2.653 1.690 5853
-1.102 2.670 1.690 6888
-1.106 2.681 1.685 5812
-1.111 2.691 1.681 4467
-1.134 2.747 1.702 5741
-1.138 2.758 1.697 5543
-1.150 2.788 1.704 4414
-1.155 2.799 1.699 3388
-1.156 2.803 1.690 2550
-1.201 2.911 1.740 2592
-1.211 2.935 1.741 3339
-1.218 2.952 1.739 4282
-1.223 2.963 1.734 4656
-1.224 2.967 1.725 4670
-1.223 2.965 1.712 5356
-1.222 2.963 1.699 7077
-1.221 2.960 1.686 8123
-1.229 2.978 1.684 6964
-1.241 3.008 1.689 6110
-1.254 3.039 1.693 7843
-1.256 3.043 1.684 8755
-1.255 3.040 1.671 6538
-1.289 3.124 1.702 5464
-1.291 3.128 1.692 7255
-1.292 3.132 1.682 7143
-1.291 3.130 1.669 7911
-1.299 3.147 1.666 9216
-1.309 3.171 1.666 10700
-1.319 3.196 1.666 7022
-1.323 3.206 1.659 4786
-1.327 3.217 1.652 5230
-1.332 3.228 1.646 4973
-1.342 3.252 1.645 5313
-1.341 3.249 1.632 5199
-1.404 3.402 1.690 3520
-1.397 3.385 1.670 5987
-1.399 3.390 1.660 7936
-1.400 3.394 1.649 7089
-1.463 3.547 1.705 5243
-1.440 3.490 1.667 4591
-1.442 3.494 1.656 4038
-1.502 3.640 1.708 6134
-1.504 3.645 1.696 7865
-1.500 3.635 1.679 6904
-1.541 3.735 1.708 5850
-1.543 3.739 1.697 7702
-1.511 3.661 1.651 6321
-1.560 3.781 1.687 6281
-1.565 3.792 1.678 6847
-1.569 3.803 1.669 6199
-1.574 3.814 1.660 4439
-1.595 3.867 1.668 4342
-1.608 3.898 1.666 4804
-1.610 3.902 1.654 5398
-1.617 3.920 1.648 4094
-1.648 3.993 1.662 4425
-1.658 4.018 1.657 4268
-1.688 4.091 1.671 2760
-1.727 4.185 1.692 3373
-1.717 4.162 1.669 4477
-1.716 4.159 1.653 4548
-1.752 4.246 1.670 4607
-1.754 4.250 1.657 3429
-1.813 4.393 1.694 2762
-1.806 4.376 1.672 2750
-1.776 4.304 1.632 2514
-1.812 4.392 1.648 2524
-1.817 4.403 1.636 3200
-1.864 4.518 1.660 2816
-1.875 4.543 1.653 2661
-1.917 4.645 1.672 4463
-1.921 4.656 1.660 4423
-1.943 4.710 1.661 3931
-1.956 4.742 1.655 4123
-1.958 4.746 1.641 4053
-1.954 4.736 1.621 2576
-2.019 4.894 1.655 1877
-2.021 4.899 1.640 2574
-2.110 5.114 1.689 2734
-2.080 5.040 1.649 2962
-2.192 5.313 1.714 4736
-2.197 5.324 1.699 5436
-2.204 5.342 1.687 4897
-2.206 5.346 1.670 5180
-2.202 5.336 1.649 5407
-2.203 5.340 1.633 3855
-2.313 5.607 1.689 3272
-2.324 5.632 1.677 3894
-2.337 5.664 1.667 2386
-2.418 5.860 1.701 2896
-2.352 5.701 1.639 2402
-2.445 5.926 1.679 2200
-2.444 5.923 1.659 2934
-2.445 5.927 1.640 2609
-2.497 6.052 1.652 2519
-2.499 6.056 1.633 1705
-2.533 6.138 1.634 1302
-2.531 6.135 1.613 1254
-2.692 6.525 1.686 1405
-2.694 6.529 1.665 1536
-2.864 6.941 1.739 1984
-2.872 6.960 1.721 2892
-2.873 6.964 1.699 3548
-2.875 6.968 1.677 3797
-2.877 6.972 1.655 4086
-2.879 6.976 1.633 3562
-2.880 6.980 1.611 2812
-2.550 6.180 1.421 3408
-2.548 6.176 1.400 3819
-2.550 6.179 1.381 3637
-2.551 6.183 1.362 3394
-2.549 6.179 1.341 3096
-3.368 8.163 1.703 2543
-3.370 8.167 1.678 3153
-3.366 8.157 1.650 3018
-3.367 8.161 1.624 2726
-2.538 6.151 1.236 3143
-2.542 6.161 1.218 3559
-2.543 6.164 1.199 2919
-2.541 6.160 1.178 1879
-2.546 6.170 1.160 2378
-2.547 6.172 1.141 4059
-2.545 6.168 1.120 4358
-2.543 6.163 1.100 3449
-2.541 6.158 1.080 2151
-2.548 6.175 1.062 1966
-2.546 6.171 1.042 2126
-2.544 6.166 1.022 1384
-2.545 6.168 1.002 669
-2.552 6.185 0.985 465
-2.553 6.187 0.966 360
-0.283 0.687 0.114 250
-0.828 2.014 1.703 2773
-0.830 2.018 1.697 5546
-0.832 2.022 1.691 5546
-0.875 2.127 1.763 4532
-0.874 2.126 1.752 5622
-0.879 2.136 1.750 7990
-0.880 2.140 1.744 10366
-0.882 2.145 1.737 10366
-0.884 2.149 1.731 10487
-0.886 2.153 1.724 10608
-0.887 2.157 1.717 8676
-0.916 2.228 1.760 7360
-0.923 2.244 1.762 9819
-0.927 2.255 1.760 13037
-0.932 2.265 1.757 11258
-0.936 2.276 1.754 9558
-0.935 2.274 1.743 9442
-0.940 2.284 1.740 7017
-0.949 2.307 1.746 5196
-0.953 2.318 1.744 5880
-0.960 2.334 1.745 6834
-0.959 2.332 1.733 5778
-0.951 2.312 1.709 4910
-0.960 2.335 1.715 6453
-0.962 2.339 1.708 8142
-0.966 2.349 1.705 7575
-0.971 2.360 1.701 7451
-0.975 2.370 1.698 5224
-0.997 2.424 1.724 5531
-0.999 2.429 1.717 4609
-1.016 2.470 1.734 4050
-1.023 2.487 1.735 4052
-1.030 2.504 1.735 4386
-1.034 2.515 1.731 5110
-1.036 2.519 1.724 5853
-1.048 2.548 1.732 6801
-1.055 2.565 1.732 7740
-1.057 2.570 1.724 6600
-1.061 2.580 1.720 5182
-1.081 2.629 1.740 4070
-1.049 2.550 1.680 3977
-1.048 2.548 1.669 4226
-1.060 2.578 1.676 4320
-1.075 2.614 1.688 5737
-1.077 2.618 1.679 6134
-1.094 2.661 1.694 5625
-1.101 2.678 1.694 6944
-1.106 2.688 1.689 5871
-1.108 2.693 1.681 4463
-1.130 2.748 1.702 5223
-1.135 2.759 1.697 5135
-1.147 2.789 1.704 4163
-1.152 2.800 1.699 2973
-1.156 2.811 1.694 2372
-1.195 2.906 1.736 2164
-1.210 2.943 1.745 3261
-1.215 2.954 1.739 4497
-1.219 2.964 1.734 5157
-1.221 2.969 1.725 5367
-1.220 2.966 1.712 5697
-1.219 2.964 1.699 6552
-1.218 2.962 1.686 7169
-1.228 2.986 1.688 6327
-1.238 3.010 1.689 5720
-1.248 3.033 1.690 6480
-1.249 3.038 1.680 7054
-1.251 3.042 1.671 5215
-1.286 3.125 1.702 5219
-1.285 3.123 1.689 7253
-1.286 3.127 1.679 7382
-1.285 3.125 1.666 7899
-1.295 3.149 1.666 8780
-1.308 3.180 1.669 11524
-1.315 3.197 1.666 8035
-1.319 3.208 1.659 5383
-1.324 3.219 1.652 5848
-1.334 3.243 1.652 5417
-1.341 3.260 1.648 5165
-1.340 3.258 1.635 4573
-1.400 3.403 1.690 4154
-1.393 3.387 1.670 6829
-1.392 3.384 1.657 8883
-1.397 3.395 1.649 8054
-1.398 3.399 1.639 5717
-1.436 3.491 1.667 4593
-1.438 3.495 1.656 4390
-1.495 3.635 1.705 5961
-1.497 3.640 1.693 7172
-1.496 3.637 1.679 6642
-1.537 3.736 1.708 5719
-1.536 3.734 1.694 7718
-1.507 3.663 1.651 6410
-1.556 3.783 1.687 6077
-1.561 3.794 1.678 6494
-1.565 3.805 1.669 5818
-1.567 3.809 1.658 4230
-1.591 3.868 1.668 3811
-1.621 3.941 1.683 4207
-1.614 3.925 1.662 4453
-1.622 3.943 1.656 3759
-1.643 3.995 1.662 4329
-1.651 4.013 1.655 4038
-1.686 4.100 1.674 2913
-1.725 4.194 1.695 3049
-1.710 4.156 1.666 4150
-1.746 4.244 1.684 4550
-1.747 4.248 1.670 4815
-1.758 4.273 1.665 3707
-1.771 4.305 1.661 3262
-1.801 4.378 1.672 3443
-1.797 4.369 1.654 2616
-1.810 4.401 1.650 2555
-1.812 4.405 1.636 3060
-1.859 4.520 1.660 2937
-1.873 4.552 1.656 2787
-1.912 4.647 1.672 4303
-1.928 4.687 1.669 4756
-1.935 4.705 1.659 3810
-1.960 4.765 1.662 3945
-1.956 4.755 1.643 3848
-1.949 4.738 1.621 2775
-2.020 4.911 1.659 1887
-2.022 4.915 1.644 2448
-2.104 5.116 1.689 2439
-2.074 5.043 1.649 3297
-2.189 5.322 1.716 5236
-2.194 5.333 1.701 6414
-2.198 5.345 1.687 5312
-2.200 5.349 1.670 6111
-2.199 5.346 1.651 7277
-2.198 5.343 1.633 4365
-2.313 5.623 1.693 3403
-2.321 5.642 1.679 4066
-2.331 5.667 1.667 2550
-2.415 5.870 1.703 2718
-2.349 5.711 1.641 2152
-2.441 5.935 1.681 2587
-2.440 5.932 1.661 3084
-2.495 6.065 1.675 2740
-2.493 6.062 1.654 2646
-2.495 6.066 1.635 1660
-2.523 6.134 1.632 1301
-2.610 6.345 1.663 1379
-2.682 6.521 1.684 1611
-2.675 6.504 1.658 1943
-2.856 6.944 1.739 1965
-2.861 6.956 1.719 2661
-2.866 6.967 1.699 3296
-2.867 6.971 1.677 3732
-2.869 6.976 1.655 4167
-2.871 6.980 1.633 3575
-2.875 6.991 1.613 2734
-2.874 6.988 1.590 2299
-2.541 6.179 1.400 2463
-2.543 6.182 1.381 2174
-2.544 6.185 1.362 2058
-3.352 8.148 1.726 2231
-3.362 8.174 1.705 3258
-3.361 8.171 1.678 3823
-3.357 8.161 1.650 3637
-3.358 8.165 1.624 3242
-3.360 8.169 1.598 3490
-3.368 8.187 1.575 3183
-3.372 8.198 1.551 2328
-2.535 6.162 1.178 2119
-2.536 6.165 1.159 3557
-2.540 6.175 1.141 5229
-2.538 6.170 1.120 5773
-2.539 6.173 1.101 4526
-2.534 6.161 1.080 2093
-2.535 6.164 1.060 1182
-2.539 6.173 1.042 1463
-2.537 6.169 1.022 1235
-2.538 6.171 1.002 800
-2.542 6.180 0.984 608
-2.543 6.183 0.965 443
-0.280 0.680 0.121 274
-0.280 0.680 0.119 280
-0.280 0.680 0.117 294
-0.283 0.687 0.114 298
-0.283 0.687 0.112 285
-0.280 0.680 0.111 276
-0.823 2.016 1.703 2586
-0.825 2.020 1.697 5173
-0.827 2.024 1.691 5173
-0.870 2.129 1.763 4174
-0.869 2.128 1.752 5581
-0.873 2.138 1.750 8302
-0.875 2.142 1.744 11052
-0.877 2.147 1.737 11052
-0.878 2.151 1.731 11300
-0.880 2.155 1.724 11548
-0.880 2.154 1.713 9692
-0.881 2.158 1.706 7930
-0.918 2.247 1.762 9310
-0.922 2.257 1.760 12280
-0.926 2.268 1.757 10449
-0.930 2.278 1.754 8816
-0.932 2.282 1.747 8791
-0.934 2.287 1.740 6659
-0.946 2.316 1.751 5243
-0.950 2.326 1.748 6187
-0.954 2.337 1.745 7391
-0.953 2.335 1.733 6125
-0.970 2.376 1.752 5111
-0.957 2.343 1.719 6307
-0.956 2.341 1.708 7739
-0.960 2.352 1.705 7186
-0.965 2.362 1.701 6903
-0.969 2.373 1.698 4738
-0.994 2.433 1.728 4991
-1.003 2.456 1.733 4273
-1.010 2.473 1.734 4535
-1.017 2.490 1.735 3892
-1.029 2.519 1.743 3912
-1.031 2.523 1.735 4532
-1.032 2.528 1.728 5153
-1.042 2.551 1.732 6549
-1.049 2.568 1.732 7701
-1.050 2.572 1.724 6757
-1.050 2.570 1.712 5552
-1.046 2.562 1.696 4465
-1.043 2.553 1.680 4924
-1.044 2.557 1.673 5247
-1.051 2.574 1.672 5129
-1.066 2.610 1.684 5485
-1.070 2.621 1.679 5795
-1.090 2.670 1.698 5400
-1.097 2.687 1.697 7013
-1.099 2.691 1.689 6039
-1.101 2.695 1.681 4571
-1.124 2.751 1.702 4613
-1.128 2.762 1.697 4559
-1.146 2.805 1.711 3679
-1.166 2.855 1.728 2898
-1.165 2.852 1.716 2454
-1.204 2.948 1.758 2215
-1.206 2.952 1.749 3328
-1.207 2.957 1.739 4579
-1.212 2.967 1.734 5410
-1.214 2.972 1.725 5792
-1.215 2.976 1.715 5730
-1.217 2.980 1.706 5882
-1.222 2.991 1.700 6117
-1.226 3.002 1.695 6218
-1.233 3.019 1.692 5748
-1.240 3.037 1.690 5926
-1.239 3.034 1.677 6293
-1.241 3.038 1.667 4458
-1.275 3.122 1.698 4911
-1.274 3.120 1.685 7058
-1.276 3.124 1.676 7393
-1.275 3.121 1.663 7958
-1.290 3.159 1.669 8951
-1.300 3.183 1.669 12603
-1.307 3.200 1.666 8740
-1.314 3.218 1.662 5784
-1.316 3.222 1.652 6509
-1.326 3.246 1.652 6132
-1.336 3.270 1.651 5453
-1.351 3.308 1.657 4405
-1.391 3.407 1.690 5122
-1.382 3.384 1.667 7857
-1.384 3.388 1.657 10004
-1.388 3.399 1.649 9037
-1.390 3.403 1.639 6638
-1.427 3.495 1.667 4758
-1.432 3.506 1.659 5055
-1.483 3.632 1.702 5537
-1.485 3.637 1.690 6340
-1.487 3.641 1.679 6735
-1.525 3.733 1.705 5576
-1.524 3.731 1.691 7642
-1.497 3.667 1.651 6505
-1.544 3.780 1.685 5691
-1.551 3.798 1.678 5934
-1.556 3.809 1.669 5271
-1.580 3.868 1.680 4231
-1.579 3.865 1.665 3918
-1.611 3.945 1.683 4000
-1.616 3.956 1.673 4300
-1.617 3.960 1.661 4271
-1.622 3.971 1.651 4428
-1.635 4.003 1.649 3965
-1.679 4.111 1.676 3176
-1.714 4.198 1.695 2936
-1.719 4.209 1.684 3927
-1.735 4.248 1.684 4666
-1.737 4.252 1.670 4841
-1.750 4.284 1.667 4126
-1.760 4.309 1.661 4016
-1.790 4.383 1.672 3944
-1.789 4.380 1.656 3154
-1.799 4.405 1.650 2511
-1.804 4.416 1.639 2585
-1.848 4.525 1.660 2993
-1.861 4.557 1.656 3060
-1.903 4.659 1.674 4018
-1.916 4.691 1.669 5004
-1.920 4.703 1.657 3681
-1.951 4.777 1.665 4194
-1.947 4.767 1.645 3614
-1.940 4.750 1.624 2754
-2.010 4.923 1.662 2507
-2.012 4.927 1.646 2805
-2.060 5.044 1.665 3153
-2.062 5.048 1.649 3763
-2.179 5.335 1.718 5415
-2.180 5.339 1.701 6884
-2.185 5.350 1.687 5913
-2.187 5.354 1.670 7125
-2.185 5.351 1.651 8586
-2.187 5.355 1.635 5302
-2.302 5.636 1.695 3420
-2.306 5.647 1.679 4092
-2.320 5.680 1.669 2772
-2.403 5.883 1.705 2747
-2.419 5.923 1.696 2459
-2.424 5.934 1.679 3461
-2.425 5.938 1.661 3521
-2.482 6.078 1.677 2909
-2.481 6.075 1.656 2688
-2.433 5.958 1.607 1866
-2.511 6.148 1.634 1434
-2.591 6.345 1.661 1705
-2.593 6.349 1.641 1922
-2.659 6.510 1.658 2469
-2.722 6.665 1.673 2334
-2.726 6.676 1.654 2159
-2.848 6.974 1.699 2758
-2.850 6.979 1.677 3343
-2.852 6.983 1.655 3904
-2.853 6.987 1.633 3355
-2.858 6.998 1.613 2494
-3.030 7.419 1.678 2078
-3.193 7.819 1.736 2335
-3.192 7.816 1.710 2198
-3.265 7.994 1.720 2015
-3.334 8.164 1.728 2506
-3.342 8.182 1.705 4041
-3.340 8.179 1.678 4468
-3.336 8.169 1.650 4130
-3.338 8.173 1.624 3598
-3.339 8.177 1.598 3583
-3.347 8.196 1.575 3206
-3.351 8.207 1.551 2507
-2.519 6.169 1.178 2479
-2.520 6.171 1.159 3805
-2.524 6.181 1.141 5224
-2.523 6.177 1.120 5664
-2.524 6.179 1.101 4425
-2.525 6.182 1.082 2129
-2.517 6.163 1.059 1032
-2.518 6.165 1.040 1068
-2.522 6.175 1.022 1062
-2.523 6.177 1.002 878
-2.527 6.187 0.984 740
-2.528 6.189 0.965 577
-2.528 6.191 0.945 325
-0.278 0.681 0.123 297
-0.278 0.681 0.121 333
-0.278 0.681 0.119 340
-0.278 0.681 0.117 360
-0.281 0.688 0.114 357
-0.281 0.688 0.112 335
-0.278 0.680 0.111 322
-0.278 0.680 0.109 273
-0.833 2.026 1.713 3653
-0.835 2.030 1.706 7307
-0.837 2.034 1.700 7307
-0.838 2.038 1.694 5727
-0.874 2.126 1.752 5359
-0.878 2.136 1.750 8272
-0.880 2.140 1.744 11270
-0.882 2.145 1.737 11270
-0.884 2.149 1.731 11536
-0.883 2.147 1.719 11871
-0.885 2.151 1.713 10331
-0.887 2.156 1.706 8792
-0.923 2.244 1.762 8423
-0.927 2.255 1.760 11109
-0.932 2.265 1.757 9401
-0.936 2.276 1.754 7930
-0.938 2.280 1.747 8005
-0.942 2.291 1.745 6285
-0.951 2.313 1.751 5301
-0.956 2.324 1.748 6384
-0.960 2.334 1.745 7706
-0.962 2.339 1.738 6380
-0.976 2.374 1.752 5781
-0.963 2.341 1.719 6272
-0.965 2.345 1.712 7508
-0.969 2.356 1.709 6722
-0.973 2.366 1.706 6226
-0.975 2.370 1.698 4148
-1.002 2.437 1.733 4789
-1.012 2.460 1.737 4693
-1.016 2.470 1.734 5121
-1.020 2.481 1.730 3972
-1.035 2.517 1.743 3518
-1.037 2.521 1.735 3945
-1.041 2.531 1.732 4427
-1.048 2.548 1.732 6132
-1.052 2.559 1.728 7500
-1.054 2.563 1.720 6780
-1.051 2.555 1.704 5853
-1.050 2.553 1.692 5253
-1.049 2.551 1.680 5734
-1.051 2.555 1.673 6091
-1.055 2.565 1.668 5902
-1.070 2.601 1.680 5345
-1.077 2.618 1.679 5170
-1.100 2.674 1.702 5157
-1.104 2.684 1.697 6986
-1.108 2.695 1.693 6154
-1.145 2.783 1.733 4511
-1.133 2.755 1.706 4216
-1.148 2.791 1.716 4105
-1.163 2.828 1.726 3632
-1.170 2.845 1.724 3479
-1.172 2.850 1.716 3102
-1.214 2.951 1.761 2574
-1.216 2.956 1.752 3442
-1.215 2.954 1.739 4489
-1.217 2.958 1.730 5464
-1.218 2.962 1.721 5955
-1.223 2.973 1.715 5609
-1.230 2.990 1.713 5633
-1.245 3.027 1.721 6446
-1.239 3.012 1.701 6233
-1.243 3.023 1.696 5730
-1.248 3.034 1.690 5805
-1.247 3.031 1.677 6247
-1.248 3.035 1.667 4403
-1.283 3.119 1.698 4532
-1.282 3.116 1.685 7166
-1.283 3.121 1.676 7907
-1.282 3.118 1.663 8004
-1.301 3.162 1.673 8589
-1.308 3.180 1.669 13309
-1.315 3.197 1.666 9360
-1.322 3.215 1.662 6050
-1.324 3.219 1.652 7044
-1.334 3.243 1.652 6841
-1.355 3.294 1.664 6387
-1.359 3.305 1.657 5131
-1.397 3.396 1.687 6070
-1.390 3.380 1.667 8711
-1.392 3.384 1.657 10777
-1.396 3.395 1.649 9574
-1.398 3.399 1.639 7149
-1.439 3.498 1.670 4633
-1.438 3.496 1.656 5189
-1.492 3.629 1.702 5317
-1.491 3.626 1.687 5951
-1.493 3.630 1.676 6982
-1.498 3.641 1.668 6088
-1.530 3.720 1.688 7392
-1.537 3.738 1.682 5934
-1.548 3.763 1.679 5020
-1.558 3.787 1.676 5026
-1.565 3.805 1.669 4450
-1.592 3.871 1.682 4544
-1.588 3.862 1.665 3984
-1.624 3.948 1.686 3906
-1.628 3.959 1.676 5001
-1.630 3.963 1.664 5114
-1.632 3.967 1.651 4504
-1.645 3.999 1.649 3394
-1.689 4.107 1.676 3386
