-2.574 2.205 1.718 8777
-2.583 2.213 1.712 7653
-2.608 2.234 1.715 5751
-2.628 2.251 1.715 4176
-2.631 2.254 1.706 5110
-2.640 2.262 1.699 6373
-2.666 2.284 1.702 5720
-2.664 2.282 1.689 3830
-2.661 2.280 1.675 3735
-2.665 2.283 1.665 3873
-2.707 2.319 1.677 5517
-2.710 2.322 1.667 7379
-2.714 2.325 1.657 5900
-2.711 2.323 1.643 4054
-2.809 2.407 1.686 6512
-2.812 2.409 1.675 8348
-2.816 2.412 1.664 7490
-2.830 2.425 1.660 8284
-2.833 2.428 1.649 9871
-2.842 2.435 1.641 7871
-2.901 2.486 1.660 9634
-2.916 2.498 1.655 9451
-2.919 2.501 1.644 5401
-3.001 2.571 1.673 3671
-2.999 2.569 1.659 5707
-3.013 2.582 1.654 7695
-3.028 2.594 1.648 7705
-3.071 2.631 1.656 4673
-3.153 2.701 1.683 4599
-3.134 2.685 1.660 4745
-3.238 2.775 1.698 6509
-3.253 2.787 1.691 5539
-3.268 2.800 1.684 4792
-3.283 2.812 1.677 5291
-3.280 2.811 1.662 6681
-3.284 2.813 1.649 5643
-3.361 2.879 1.671 5246
-3.358 2.877 1.656 5092
-3.367 2.885 1.645 5065
-3.422 2.932 1.656 6575
-3.431 2.940 1.645 6607
-3.514 3.011 1.667 5911
-3.432 2.940 1.617 3679
-3.612 3.095 1.680 3231
-3.621 3.103 1.669 4558
-3.642 3.120 1.662 5041
-3.651 3.128 1.651 4563
-3.649 3.126 1.634 2880
-3.727 3.193 1.651 2717
-3.724 3.191 1.635 2658
-3.814 3.268 1.655 2227
-3.829 3.280 1.645 2335
-3.867 3.313 1.644 2363
-3.899 3.340 1.641 1897
-3.919 3.358 1.632 2770
-4.009 3.435 1.651 2738
-4.082 3.497 1.661 3038
-4.091 3.505 1.648 3230
-4.100 3.513 1.635 3719
-4.243 3.635 1.670 4368
-4.246 3.638 1.653 6438
-4.255 3.646 1.639 5194
-4.253 3.644 1.621 4799
-4.256 3.646 1.605 5429
-4.265 3.654 1.591 3425
-4.291 3.677 1.582 3544
-4.475 3.834 1.626 2392
-4.467 3.827 1.606 1980
-4.756 4.075 1.682 2510
-4.765 4.083 1.666 2302
-4.850 4.156 1.674 2680
-4.854 4.159 1.655 2321
-4.851 4.156 1.635 1665
-4.866 4.169 1.620 1947
-4.881 4.182 1.605 2228
-4.966 4.255 1.611 2186
-4.929 4.223 1.580 2331
-5.337 4.573 1.679 2425
-5.375 4.606 1.668 1956
-5.479 4.694 1.676 2302
-5.706 4.889 1.718 2845
-5.727 4.907 1.701 2455
-5.742 4.920 1.682 2285
-5.745 4.923 1.660 2042
-6.161 5.279 1.746 1793
-6.047 5.181 1.692 2211
-6.045 5.179 1.668 2244
-6.650 5.698 1.796 1912
-6.660 5.706 1.772 2532
-6.658 5.704 1.745 2613
-6.655 5.702 1.718 2744
-6.665 5.710 1.694 2670
-6.668 5.713 1.668 1887
-6.772 5.802 1.666 1175
-6.775 5.805 1.640 1300
-7.004 6.001 1.663 1117
-7.120 6.100 1.661 1075
-7.147 6.124 1.638 1092
-7.168 6.142 1.615 1223
-7.183 6.155 1.590 1005
-7.187 6.157 1.562 659
-7.190 6.160 1.535 464
-7.181 6.153 1.505 265
-1.698 1.463 1.750 3767
-1.702 1.466 1.744 7534
-1.705 1.469 1.737 7534
-1.709 1.472 1.731 6021
-1.712 1.475 1.725 4509
-1.745 1.503 1.746 5400
-1.768 1.523 1.757 7527
-1.772 1.526 1.751 7527
-1.775 1.529 1.744 7130
-1.759 1.515 1.719 7476
-1.792 1.544 1.740 7348
-1.801 1.551 1.738 8118
-1.804 1.554 1.731 5904
-1.818 1.566 1.733 3880
-1.831 1.577 1.735 4404
-1.850 1.593 1.741 5727
-1.848 1.592 1.730 5697
-1.847 1.590 1.718 6174
-1.850 1.593 1.711 6681
-1.859 1.601 1.709 5744
-1.922 1.656 1.754 7396
-1.926 1.659 1.746 10673
-1.930 1.662 1.739 13950
-1.943 1.674 1.740 13400
-1.952 1.681 1.737 13654
-1.950 1.680 1.726 12143
-1.944 1.674 1.710 11326
-1.947 1.677 1.703 9990
-1.950 1.680 1.695 8655
-2.025 1.745 1.746 7159
-2.034 1.752 1.742 8663
-2.038 1.755 1.735 10706
-2.041 1.758 1.727 12750
-2.045 1.761 1.719 12391
-2.053 1.769 1.715 10947
-2.057 1.772 1.708 7744
-2.071 1.783 1.708 4577
-2.162 1.862 1.768 4562
-2.161 1.861 1.756 4626
-2.164 1.864 1.747 4700
-2.168 1.867 1.739 4357
-2.166 1.866 1.727 4085
-2.170 1.869 1.719 5021
-2.168 1.867 1.707 4666
-2.239 1.929 1.749 4649
-2.243 1.932 1.740 4831
-2.247 1.935 1.732 5013
-2.255 1.943 1.727 5236
-2.291 1.973 1.741 6850
-2.299 1.980 1.736 8202
-2.303 1.983 1.727 7813
-2.312 1.991 1.722 6989
-2.320 1.999 1.717 6526
-2.324 2.002 1.708 7536
-2.322 2.000 1.696 6873
-2.400 2.067 1.738 6622
-2.420 2.084 1.739 6647
-2.434 2.096 1.737 8063
-2.438 2.099 1.728 8350
-2.436 2.098 1.715 7679
-2.493 2.147 1.741 7654
-2.491 2.146 1.728 8501
-2.489 2.144 1.715 8133
-2.482 2.138 1.699 9299
-2.491 2.145 1.693 8251
-2.570 2.213 1.731 7621
-2.568 2.212 1.718 8670
-2.577 2.220 1.712 7712
-2.602 2.241 1.715 5848
-2.622 2.258 1.715 4226
-2.625 2.261 1.706 5147
-2.634 2.269 1.699 6388
-2.660 2.291 1.702 5707
-2.658 2.289 1.689 3952
-2.656 2.287 1.675 3946
-2.659 2.290 1.665 4076
-2.701 2.326 1.677 5547
-2.704 2.329 1.667 7431
-2.708 2.332 1.657 5900
-2.705 2.330 1.643 4029
-2.803 2.414 1.686 6439
-2.806 2.417 1.675 8291
-2.809 2.420 1.664 7457
-2.824 2.432 1.660 8221
-2.827 2.435 1.649 9815
-2.836 2.443 1.641 7945
-2.895 2.493 1.660 9796
-2.909 2.506 1.655 9500
-2.913 2.509 1.644 5360
-2.994 2.579 1.673 3748
-2.992 2.577 1.659 5626
-3.007 2.590 1.654 7551
-3.021 2.602 1.648 7411
-3.069 2.644 1.659 4420
-3.140 2.704 1.681 4596
-3.127 2.693 1.660 4749
-3.231 2.783 1.698 6484
-3.246 2.796 1.691 5510
-3.261 2.808 1.684 4808
-3.270 2.816 1.674 5310
-3.273 2.819 1.662 6682
-3.276 2.822 1.649 5685
-3.348 2.883 1.668 5221
-3.351 2.886 1.656 5204
-3.360 2.894 1.645 5210
-3.414 2.941 1.656 6583
-3.423 2.949 1.645 6632
-3.506 3.020 1.667 5859
-3.424 2.949 1.617 3981
-3.604 3.104 1.680 3378
-3.613 3.112 1.669 4651
-3.628 3.125 1.660 5189
-3.643 3.138 1.651 4747
-3.635 3.131 1.632 2977
-3.718 3.203 1.651 2769
-3.716 3.201 1.635 2658
-3.805 3.277 1.655 2235
-3.820 3.290 1.645 2324
-3.858 3.323 1.644 2338
-3.890 3.350 1.641 1869
-3.911 3.368 1.632 2735
-4.000 3.445 1.651 2696
-4.073 3.508 1.661 3151
-4.082 3.516 1.648 3178
-4.091 3.524 1.635 3582
-4.233 3.646 1.670 4349
-4.236 3.649 1.653 6422
-4.246 3.657 1.639 5208
-4.243 3.655 1.621 4783
-4.241 3.652 1.603 5369
-4.255 3.665 1.591 3338
-4.282 3.688 1.582 3479
-4.459 3.841 1.625 2307
-4.457 3.839 1.606 1955
-4.745 4.087 1.682 2514
-4.755 4.095 1.666 2374
-4.839 4.168 1.674 2648
-4.843 4.171 1.655 2265
-4.840 4.169 1.635 1570
-4.861 4.187 1.622 1917
-4.870 4.195 1.605 2218
-4.955 4.268 1.611 2152
-4.918 4.236 1.580 2401
-5.319 4.581 1.677 2429
-5.364 4.620 1.668 1913
-5.467 4.708 1.676 2315
-5.693 4.903 1.718 2849
-5.714 4.921 1.701 2503
-5.729 4.935 1.682 2372
-5.733 4.937 1.660 2106
-6.148 5.295 1.746 1768
-6.034 5.197 1.692 2221
-6.031 5.195 1.668 2266
-6.635 5.715 1.796 1915
-6.645 5.723 1.772 2520
-6.643 5.721 1.745 2599
-6.640 5.719 1.718 2740
-6.650 5.727 1.694 2676
-6.653 5.730 1.668 1923
-6.757 5.820 1.666 1163
-6.760 5.823 1.640 1286
-6.988 6.019 1.663 1091
-7.104 6.119 1.661 1086
-7.125 6.137 1.637 1088
-7.152 6.160 1.615 1227
-7.167 6.173 1.590 995
-7.171 6.176 1.562 644
-7.174 6.179 1.535 457
-7.171 6.176 1.506 261
-1.696 1.465 1.750 3787
-1.700 1.468 1.744 7574
-1.703 1.471 1.737 7574
-1.707 1.474 1.731 6005
-1.711 1.477 1.725 4436
-1.743 1.505 1.746 5313
-1.766 1.525 1.757 7462
-1.770 1.528 1.751 7462
-1.759 1.518 1.731 7087
-1.757 1.517 1.719 7514
-1.790 1.546 1.740 7338
-1.799 1.553 1.738 8137
-1.802 1.556 1.731 6002
-1.821 1.572 1.737 4110
-1.834 1.584 1.739 4560
-1.848 1.595 1.741 5793
-1.851 1.598 1.734 5777
-1.845 1.593 1.718 6255
-1.848 1.596 1.711 6796
-1.852 1.599 1.705 5752
-1.920 1.658 1.754 7363
-1.924 1.661 1.746 10617
-1.928 1.664 1.739 13872
-1.941 1.676 1.740 13280
-1.950 1.683 1.737 13497
-1.948 1.682 1.726 11979
-1.942 1.676 1.710 11143
-1.945 1.679 1.703 9792
-1.948 1.682 1.695 8442
-2.023 1.747 1.746 7151
-2.032 1.754 1.742 8652
-2.036 1.757 1.735 10696
-2.039 1.760 1.727 12741
-2.043 1.764 1.719 12350
-2.051 1.771 1.715 10859
-2.055 1.774 1.708 7625
-2.069 1.786 1.708 4535
-2.160 1.865 1.768 4555
-2.158 1.864 1.756 4590
-2.162 1.867 1.747 4646
-2.166 1.870 1.739 4333
-2.195 1.895 1.751 4091
-2.167 1.871 1.719 4974
-2.166 1.870 1.707 4559
-2.237 1.931 1.749 4701
-2.241 1.935 1.740 4980
-2.244 1.938 1.732 5258
-2.253 1.945 1.727 5429
-2.288 1.976 1.741 6875
-2.297 1.983 1.736 8183
-2.301 1.986 1.727 7767
-2.309 1.994 1.722 6913
-2.329 2.011 1.724 6492
-2.322 2.004 1.708 7416
-2.320 2.003 1.696 6718
-2.398 2.070 1.738 6652
-2.417 2.087 1.739 6689
-2.432 2.099 1.737 8104
-2.435 2.102 1.728 8363
-2.433 2.101 1.715 7694
-2.490 2.150 1.741 7436
-2.489 2.148 1.728 8234
-2.519 2.175 1.736 7915
-2.479 2.141 1.699 8638
-2.483 2.144 1.690 7397
-2.567 2.217 1.731 7735
-2.565 2.215 1.718 8755
-2.574 2.223 1.712 7751
-2.600 2.244 1.715 5824
-2.619 2.261 1.715 4231
-2.623 2.264 1.706 5128
-2.632 2.272 1.699 6351
-2.657 2.294 1.702 5775
-2.655 2.292 1.689 4038
-2.653 2.290 1.675 4036
-2.656 2.293 1.665 4130
-2.698 2.329 1.677 5483
-2.701 2.332 1.667 7376
-2.705 2.335 1.657 5875
-2.708 2.338 1.647 4013
-2.800 2.417 1.686 6331
-2.803 2.420 1.675 8161
-2.807 2.423 1.664 7280
-2.821 2.435 1.660 8022
-2.824 2.438 1.649 9670
-2.833 2.446 1.641 7913
-2.892 2.497 1.660 9962
-2.907 2.509 1.655 9656
-2.910 2.512 1.644 5417
-2.997 2.587 1.676 3691
-2.989 2.581 1.659 5383
-3.009 2.598 1.656 7339
-3.018 2.606 1.648 7560
-3.061 2.642 1.656 4566
-3.137 2.708 1.681 4686
-3.123 2.697 1.660 4827
-3.228 2.787 1.698 6528
-3.243 2.799 1.691 5552
-3.257 2.812 1.684 4806
-3.272 2.825 1.677 5262
-3.270 2.823 1.662 6577
-3.273 2.826 1.649 5571
-3.344 2.887 1.668 5196
-3.348 2.890 1.656 5230
-3.357 2.898 1.645 5262
-3.411 2.945 1.656 6497
-3.420 2.953 1.645 6648
-3.503 3.024 1.667 5701
-3.421 2.953 1.617 3939
-3.601 3.109 1.680 3287
-3.610 3.116 1.669 4630
-3.625 3.129 1.660 5211
-3.639 3.142 1.651 4685
-3.637 3.140 1.634 2887
-3.715 3.207 1.651 2721
-3.712 3.205 1.635 2524
-3.801 3.282 1.655 2298
-3.816 3.295 1.645 2415
-3.854 3.327 1.644 2297
-3.886 3.355 1.641 1786
-3.907 3.373 1.632 2590
-3.996 3.450 1.651 2609
-4.069 3.513 1.661 3080
-4.084 3.526 1.650 3063
-4.087 3.528 1.635 3399
-4.223 3.646 1.667 4377
-4.232 3.654 1.653 6453
-4.241 3.662 1.639 5199
-4.239 3.660 1.621 4719
-4.236 3.657 1.603 5364
-4.251 3.670 1.591 3237
-4.277 3.693 1.582 3383
-4.455 3.846 1.625 2276
-4.458 3.849 1.607 1927
-4.740 4.093 1.682 2545
-4.750 4.101 1.666 2415
-4.835 4.174 1.674 2684
-4.844 4.182 1.657 2280
-4.835 4.175 1.635 1544
-4.856 4.193 1.622 1864
-4.953 4.276 1.632 2132
-4.945 4.269 1.609 2188
-4.913 4.241 1.580 2384
-5.314 4.588 1.677 2456
-5.358 4.626 1.668 1914
-5.461 4.715 1.676 2294
-5.693 4.915 1.719 2909
-5.708 4.928 1.701 2565
-5.723 4.941 1.682 2402
-5.733 4.949 1.662 2148
-6.142 5.302 1.746 1812
-6.027 5.204 1.692 2242
-6.025 5.202 1.668 2304
-6.629 5.723 1.796 1917
-6.638 5.731 1.772 2509
-6.636 5.729 1.745 2589
-6.634 5.727 1.718 2732
-6.643 5.735 1.694 2666
-6.646 5.738 1.668 1893
-6.750 5.828 1.666 1129
-6.753 5.831 1.640 1252
-6.981 6.027 1.663 1069
-7.097 6.127 1.661 1078
-7.124 6.151 1.638 1095
-7.145 6.169 1.615 1218
-7.160 6.182 1.590 991
-7.163 6.184 1.562 636
-7.166 6.187 1.535 436
-7.158 6.180 1.505 255
-1.698 1.473 1.755 3844
-1.701 1.476 1.749 7688
-1.705 1.479 1.742 7688
-1.703 1.478 1.731 6058
-1.707 1.481 1.725 4442
-1.740 1.509 1.746 5415
-1.763 1.529 1.757 7621
-1.766 1.532 1.751 7621
-1.770 1.535 1.744 7196
-1.754 1.521 1.719 7550
-1.787 1.550 1.740 7358
-1.790 1.553 1.733 8121
-1.799 1.560 1.731 5998
-1.812 1.572 1.733 4058
-1.825 1.584 1.735 4586
-1.844 1.600 1.741 5927
-1.842 1.598 1.730 5901
-1.841 1.597 1.718 6485
-1.844 1.600 1.711 7094
-1.848 1.603 1.705 5829
-1.916 1.663 1.754 7419
-1.920 1.666 1.746 10651
-1.924 1.669 1.739 13883
-1.937 1.681 1.740 13329
-1.946 1.688 1.737 13536
-1.944 1.687 1.726 12015
-1.937 1.681 1.710 11172
-1.941 1.684 1.703 9804
-1.944 1.687 1.695 8437
-2.019 1.752 1.746 7170
-2.028 1.759 1.742 8620
-2.031 1.762 1.735 10756
-2.035 1.765 1.727 12893
-2.038 1.768 1.719 12488
-2.047 1.776 1.715 10945
-2.050 1.779 1.708 7641
-2.064 1.791 1.708 4531
-2.156 1.870 1.768 4581
-2.154 1.869 1.756 4585
-2.157 1.872 1.747 4611
-2.161 1.875 1.739 4301
-2.191 1.901 1.751 4163
-2.163 1.876 1.719 4854
-2.161 1.875 1.707 4397
-2.233 1.937 1.749 4889
-2.236 1.940 1.740 5067
-2.240 1.943 1.732 5246
-2.248 1.951 1.727 5334
-2.283 1.981 1.741 6834
-2.292 1.989 1.736 8157
-2.296 1.992 1.727 7794
-2.304 1.999 1.722 6956
-2.324 2.016 1.724 6490
-2.317 2.010 1.708 7390
-2.315 2.008 1.696 6621
-2.393 2.076 1.738 6700
-2.412 2.093 1.739 6700
-2.426 2.105 1.737 8141
-2.430 2.108 1.728 8356
-2.428 2.107 1.715 7861
-2.485 2.156 1.741 7425
-2.483 2.155 1.728 8409
-2.514 2.181 1.736 8030
-2.474 2.147 1.699 8154
-2.478 2.150 1.690 6927
-2.562 2.223 1.731 7867
-2.560 2.221 1.718 8902
-2.569 2.229 1.712 7860
-2.594 2.251 1.715 5892
-2.614 2.268 1.715 4200
-2.617 2.271 1.706 5029
-2.626 2.278 1.699 6194
-2.662 2.310 1.708 5781
-2.649 2.299 1.689 4179
-2.647 2.297 1.675 4184
-2.651 2.300 1.665 4184
-2.692 2.336 1.677 5475
-2.696 2.339 1.667 7265
-2.699 2.342 1.657 5771
-2.702 2.345 1.647 3993
-2.794 2.424 1.686 6280
-2.797 2.427 1.675 8079
-2.801 2.430 1.664 7202
-2.815 2.442 1.660 7945
-2.818 2.445 1.649 9546
-2.827 2.453 1.641 7765
-2.886 2.504 1.660 9923
-2.900 2.516 1.655 9703
-2.904 2.519 1.644 5481
-2.990 2.595 1.676 3614
-2.983 2.588 1.659 5378
-3.003 2.605 1.656 7391
-3.012 2.613 1.648 7458
-3.054 2.650 1.656 4517
-3.136 2.721 1.683 4667
-3.117 2.704 1.660 4795
-3.221 2.795 1.698 6500
-3.236 2.807 1.691 5593
-3.250 2.820 1.684 4889
-3.265 2.833 1.677 5331
-3.263 2.831 1.662 6576
-3.266 2.834 1.649 5506
-3.337 2.895 1.668 5349
-3.341 2.898 1.656 5230
-3.350 2.906 1.645 5166
-3.404 2.953 1.656 6689
-3.413 2.961 1.645 6759
-3.495 3.033 1.667 5624
-3.414 2.962 1.617 3880
-3.593 3.117 1.680 3201
-3.602 3.125 1.669 4343
-3.623 3.143 1.662 4972
-3.632 3.151 1.651 4577
-3.629 3.149 1.634 2840
-3.707 3.216 1.651 2626
-3.704 3.214 1.635 2540
-3.793 3.291 1.655 2411
-3.802 3.299 1.643 2486
-3.840 3.332 1.642 2332
-3.878 3.364 1.641 1792
-3.898 3.382 1.632 2557
-3.988 3.460 1.651 2466
-4.060 3.523 1.661 2945
-4.075 3.535 1.650 3044
-4.078 3.538 1.635 3503
-4.220 3.661 1.670 4441
-4.223 3.664 1.653 6421
-4.232 3.672 1.639 5183
-4.230 3.670 1.621 4747
-4.227 3.668 1.603 5398
-4.242 3.680 1.591 3347
-4.268 3.703 1.582 3451
-4.451 3.862 1.626 2297
-4.449 3.860 1.607 1926
-4.730 4.104 1.682 2532
-4.740 4.112 1.666 2451
-4.824 4.186 1.674 2752
-4.834 4.194 1.657 2354
-4.825 4.186 1.635 1568
-4.840 4.199 1.620 1884
-4.855 4.212 1.605 2128
-4.934 4.281 1.609 2186
-4.908 4.258 1.582 2323
-5.303 4.601 1.677 2408
-5.347 4.639 1.668 1872
-5.450 4.728 1.676 2290
-5.675 4.924 1.718 2975
-5.696 4.942 1.701 2613
-5.711 4.955 1.682 2472
-5.721 4.963 1.662 2092
-6.129 5.317 1.746 1896
-6.015 5.218 1.692 2219
-6.012 5.216 1.668 2255
-6.615 5.739 1.796 1965
-6.624 5.747 1.772 2575
-6.622 5.745 1.745 2625
-6.620 5.743 1.718 2724
-6.629 5.751 1.694 2631
-6.632 5.754 1.668 1845
-6.736 5.844 1.666 1135
-6.739 5.847 1.640 1257
-6.967 6.044 1.663 1060
-7.082 6.144 1.661 1073
-7.109 6.168 1.638 1063
-7.130 6.186 1.615 1175
-7.145 6.199 1.590 961
-7.148 6.202 1.562 609
-7.151 6.205 1.535 418
-1.695 1.476 1.755 3831
-1.699 1.479 1.749 7663
-1.702 1.482 1.742 7663
-1.701 1.481 1.731 6096
-1.704 1.484 1.725 4540
-1.737 1.512 1.746 5584
-1.760 1.532 1.757 7766
-1.764 1.535 1.751 7766
-1.757 1.530 1.735 7317
-1.751 1.524 1.719 7487
-1.779 1.549 1.735 7226
-1.788 1.556 1.733 7829
-1.796 1.563 1.731 5776
-1.804 1.571 1.728 3829
-1.823 1.587 1.735 4708
-1.836 1.598 1.737 6357
-1.840 1.601 1.730 6333
-1.838 1.600 1.718 7213
-1.842 1.603 1.711 8068
-1.845 1.606 1.705 6282
-1.914 1.666 1.754 7448
-1.917 1.669 1.746 10657
-1.921 1.672 1.739 13867
-1.934 1.684 1.740 13364
-1.943 1.691 1.737 13606
-1.941 1.690 1.726 12142
-1.935 1.684 1.710 11306
-1.938 1.687 1.703 9885
-1.942 1.690 1.695 8463
-2.016 1.755 1.746 6997
-2.025 1.763 1.742 8378
-2.028 1.766 1.735 10590
-2.032 1.769 1.727 12801
-2.035 1.772 1.719 12418
-2.044 1.779 1.715 10907
-2.053 1.787 1.712 7589
-2.061 1.794 1.708 4585
-2.152 1.874 1.768 4595
-2.151 1.872 1.756 4606
-2.154 1.875 1.747 4637
-2.158 1.878 1.739 4282
-2.187 1.904 1.751 4121
-2.165 1.885 1.723 4740
-2.221 1.933 1.753 4373
-2.229 1.941 1.749 5077
-2.233 1.944 1.740 5119
-2.236 1.947 1.732 5161
-2.245 1.954 1.727 5177
-2.280 1.985 1.741 6820
-2.289 1.992 1.736 8156
-2.292 1.996 1.727 7824
-2.301 2.003 1.722 7021
-2.310 2.011 1.717 6559
-2.313 2.014 1.708 7474
-2.312 2.012 1.696 6630
-2.389 2.080 1.738 6596
-2.409 2.097 1.739 6664
-2.423 2.109 1.737 8274
-2.426 2.112 1.728 8583
-2.425 2.111 1.715 7941
-2.482 2.160 1.741 8453
-2.480 2.159 1.728 9462
-2.478 2.157 1.715 8039
-2.471 2.151 1.699 7522
-2.549 2.219 1.738 6734
-2.558 2.227 1.731 7855
-2.556 2.225 1.718 8946
-2.565 2.233 1.712 7947
-2.590 2.255 1.715 5892
-2.610 2.272 1.715 4065
-2.614 2.275 1.706 4794
-2.622 2.283 1.699 5948
-2.658 2.314 1.708 5700
-2.646 2.303 1.689 4205
-2.644 2.301 1.675 4305
-2.647 2.304 1.665 4411
-2.689 2.340 1.677 5507
-2.692 2.343 1.667 7227
-2.695 2.346 1.657 5764
-2.693 2.344 1.643 4059
-2.790 2.429 1.686 6139
-2.793 2.432 1.675 7881
-2.797 2.434 1.664 7104
-2.811 2.447 1.660 7958
-2.814 2.450 1.649 9532
-2.823 2.458 1.641 7655
-2.882 2.509 1.660 9632
-2.896 2.521 1.655 9439
-2.900 2.524 1.644 5365
-2.981 2.595 1.673 3680
-2.978 2.593 1.659 5504
-2.999 2.610 1.656 7512
-3.007 2.618 1.648 7441
-3.055 2.660 1.659 4496
-3.126 2.721 1.681 4714
-3.112 2.709 1.660 4932
-3.216 2.800 1.698 6402
-3.231 2.813 1.691 5554
-3.246 2.825 1.684 4949
-3.260 2.838 1.677 5415
-3.258 2.836 1.662 6621
-3.261 2.839 1.649 5530
-3.332 2.901 1.668 5348
-3.336 2.904 1.656 5113
-3.345 2.912 1.645 5119
-3.399 2.959 1.656 6652
-3.408 2.967 1.645 6689
-3.490 3.038 1.667 5448
-3.409 2.967 1.617 3962
-3.588 3.123 1.680 3305
-3.597 3.131 1.669 4433
-3.617 3.149 1.662 4863
-3.626 3.157 1.651 4403
-3.624 3.155 1.634 2832
-3.701 3.222 1.651 2662
-3.699 3.220 1.635 2632
-3.788 3.297 1.655 2449
-3.797 3.305 1.643 2553
-3.835 3.338 1.642 2355
-3.872 3.371 1.641 1776
-3.893 3.389 1.632 2648
-3.982 3.466 1.651 2435
-4.054 3.529 1.661 3118
-4.069 3.542 1.650 3111
-4.072 3.545 1.635 3538
-4.214 3.668 1.670 4408
-4.217 3.671 1.653 6282
-4.226 3.679 1.639 5162
-4.224 3.677 1.621 4830
-4.221 3.675 1.603 5440
-4.236 3.687 1.591 3456
-4.262 3.710 1.582 3564
-4.445 3.869 1.626 2336
-4.645 4.043 1.675 2069
-4.724 4.112 1.682 2496
-4.733 4.120 1.666 2462
-4.817 4.194 1.674 2843
-4.827 4.202 1.657 2539
-4.818 4.194 1.635 1763
-4.833 4.207 1.620 1983
-4.848 4.220 1.605 2204
-4.933 4.294 1.611 2209
-4.901 4.266 1.582 2271
-5.295 4.609 1.677 2328
-5.520 4.805 1.721 1869
-5.436 4.732 1.675 2275
-5.667 4.933 1.718 3042
-5.688 4.951 1.701 2667
-5.703 4.965 1.682 2456
-5.712 4.973 1.662 2070
-6.114 5.322 1.745 1903
-6.006 5.228 1.692 2221
-6.004 5.226 1.668 2200
-6.605 5.750 1.796 1926
-6.615 5.758 1.772 2540
-6.613 5.756 1.745 2622
-6.610 5.754 1.718 2736
-6.619 5.762 1.694 2620
-6.623 5.765 1.668 1841
-6.726 5.855 1.666 1146
-6.730 5.858 1.640 1276
-6.957 6.056 1.663 1050
-7.072 6.156 1.661 1075
-7.099 6.180 1.638 1070
-7.120 6.198 1.615 1191
-7.135 6.211 1.590 965
-7.138 6.214 1.562 601
-7.141 6.216 1.535 407
-1.687 1.475 1.750 3785
-1.691 1.478 1.744 7570
-1.694 1.481 1.737 7570
-1.698 1.485 1.731 6103
-1.701 1.488 1.725 4636
-1.734 1.516 1.746 5642
-1.757 1.536 1.757 7813
-1.760 1.539 1.751 7813
-1.754 1.534 1.735 7363
-1.748 1.528 1.719 7504
-1.771 1.549 1.731 7202
-1.784 1.560 1.733 7750
-1.792 1.568 1.731 5751
-1.796 1.571 1.724 3860
-1.814 1.587 1.730 4563
-1.833 1.603 1.737 6036
-1.831 1.601 1.725 5998
-1.835 1.604 1.718 6868
-1.838 1.607 1.711 7700
-1.846 1.615 1.709 6061
-1.910 1.670 1.754 7380
-1.913 1.673 1.746 10586
-1.917 1.676 1.739 13792
-1.931 1.688 1.740 13326
-1.939 1.696 1.737 13579
-1.938 1.694 1.726 12124
-1.931 1.689 1.710 11300
-1.934 1.692 1.703 9951
-1.938 1.695 1.695 8603
-1.946 1.702 1.692 7001
-2.021 1.767 1.742 8335
-2.024 1.770 1.735 10556
-2.028 1.773 1.727 12777
-2.031 1.776 1.719 12352
-2.040 1.784 1.715 10817
-2.049 1.791 1.712 7518
-2.057 1.799 1.708 4552
-2.148 1.879 1.768 4557
-2.147 1.877 1.756 4603
-2.150 1.880 1.747 4665
-2.154 1.883 1.739 4317
-2.178 1.905 1.747 4104
-2.161 1.890 1.723 4817
-2.216 1.938 1.753 4433
-2.220 1.941 1.745 5132
-2.228 1.949 1.740 5082
-2.232 1.952 1.732 5043
-2.241 1.959 1.727 5060
-2.276 1.990 1.741 6802
-2.284 1.998 1.736 8118
-2.288 2.001 1.727 7797
-2.297 2.008 1.722 7007
-2.316 2.025 1.724 6583
-2.309 2.019 1.708 7508
-2.307 2.017 1.696 6700
-2.385 2.085 1.738 6449
-2.404 2.102 1.739 6564
-2.418 2.115 1.737 8233
-2.422 2.118 1.728 8632
-2.420 2.116 1.715 7894
-2.477 2.166 1.741 8039
-2.475 2.164 1.728 8661
-2.473 2.163 1.715 8028
-2.466 2.156 1.699 8235
-2.474 2.164 1.693 6800
-2.553 2.233 1.731 7694
-2.546 2.226 1.715 8870
-2.560 2.239 1.712 7935
-2.585 2.261 1.715 5802
-2.605 2.278 1.715 4000
-2.608 2.281 1.706 4821
-2.617 2.289 1.699 6109
-2.653 2.320 1.708 5751
-2.640 2.309 1.689 4082
-2.638 2.307 1.675 4149
-2.636 2.305 1.662 4446
-2.683 2.346 1.677 5533
-2.687 2.349 1.667 7357
-2.690 2.352 1.657 5964
-2.688 2.350 1.643 4243
-2.784 2.435 1.686 6087
-2.788 2.438 1.675 7817
-2.791 2.441 1.664 7097
-2.805 2.453 1.660 8026
-2.809 2.456 1.649 9600
-2.818 2.464 1.641 7663
-2.876 2.515 1.660 9450
-2.890 2.528 1.655 9343
-2.894 2.531 1.644 5399
-2.975 2.601 1.673 3631
-2.973 2.600 1.659 5424
-2.993 2.617 1.656 7483
-3.001 2.625 1.648 7610
-3.044 2.662 1.656 4608
-3.120 2.728 1.681 4618
-3.112 2.721 1.663 4783
-3.210 2.807 1.698 6308
-3.225 2.820 1.691 5506
-3.239 2.833 1.684 4901
-3.254 2.846 1.677 5374
-3.252 2.844 1.662 6664
-3.255 2.847 1.649 5519
-3.326 2.908 1.668 5337
-3.329 2.911 1.656 5061
-3.338 2.919 1.645 5113
-3.392 2.966 1.656 6613
-3.401 2.974 1.645 6742
-3.484 3.046 1.667 5430
-3.402 2.975 1.617 3979
-3.581 3.131 1.680 3370
-3.590 3.139 1.669 4571
-3.605 3.152 1.660 4892
-3.619 3.165 1.651 4385
-3.617 3.163 1.634 2815
-3.700 3.235 1.653 2702
-3.692 3.228 1.635 2557
-3.780 3.306 1.655 2536
-3.789 3.314 1.643 2692
-3.827 3.347 1.642 2388
-3.865 3.380 1.641 1723
-3.879 3.393 1.630 2572
-3.974 3.475 1.651 2363
-4.046 3.538 1.661 3056
-4.061 3.551 1.650 3005
-4.064 3.554 1.635 3324
-4.205 3.678 1.670 4229
-4.209 3.681 1.653 6222
-4.218 3.689 1.639 5280
-4.215 3.686 1.621 4996
-4.213 3.684 1.603 5487
-4.228 3.697 1.591 3406
-4.254 3.720 1.582 3533
-4.436 3.879 1.626 2319
-4.434 3.877 1.607 1957
-4.714 4.123 1.682 2525
-4.723 4.131 1.666 2520
-4.808 4.205 1.674 2712
-4.817 4.213 1.657 2494
-4.809 4.205 1.635 1758
-4.824 4.218 1.620 2039
-4.838 4.231 1.605 2340
-4.853 4.244 1.590 2151
-4.886 4.272 1.580 2316
-5.284 4.621 1.677 2331
-5.509 4.818 1.721 1914
-5.425 4.744 1.675 2239
-5.656 4.946 1.718 3085
-5.677 4.964 1.701 2721
-5.692 4.978 1.682 2543
-5.695 4.981 1.660 2171
-6.102 5.336 1.745 1960
-5.994 5.242 1.692 2235
-5.992 5.240 1.668 2221
-6.592 5.765 1.796 1944
-6.602 5.773 1.772 2503
-6.599 5.771 1.745 2572
-6.597 5.769 1.718 2701
-6.606 5.777 1.694 2607
-6.610 5.780 1.668 1854
-6.713 5.871 1.666 1135
-6.716 5.873 1.640 1258
-6.943 6.072 1.663 1047
-7.058 6.172 1.661 1094
-7.085 6.196 1.638 1060
-7.112 6.219 1.616 1163
-7.121 6.227 1.590 957
-7.124 6.230 1.562 603
-7.127 6.233 1.535 411
-1.684 1.479 1.750 3762
-1.687 1.482 1.744 7525
-1.691 1.485 1.737 7525
-1.694 1.489 1.731 6080
-1.698 1.492 1.725 4634
-1.730 1.520 1.746 5598
-1.753 1.540 1.757 7722
-1.757 1.543 1.751 7722
-1.750 1.538 1.735 7321
-1.744 1.532 1.719 7517
-1.772 1.557 1.735 7174
-1.780 1.564 1.733 7733
-1.789 1.572 1.731 5634
-1.797 1.579 1.728 3629
-1.815 1.595 1.735 4276
-1.829 1.607 1.737 5712
-1.832 1.610 1.730 5702
-1.831 1.609 1.718 6307
-1.834 1.612 1.711 6902
-1.838 1.615 1.705 5828
-1.906 1.675 1.754 7250
-1.909 1.678 1.746 10430
-1.913 1.681 1.739 13610
-1.927 1.693 1.740 13180
-1.935 1.700 1.737 13453
-1.934 1.699 1.726 12041
-1.927 1.693 1.710 11310
-1.930 1.696 1.703 10007
-1.934 1.699 1.695 8705
-1.942 1.707 1.692 7081
-2.017 1.772 1.742 8405
-2.020 1.775 1.735 10601
-2.024 1.778 1.727 12798
-2.027 1.781 1.719 12333
-2.036 1.789 1.715 10789
-2.044 1.796 1.712 7507
-2.053 1.804 1.708 4479
-2.144 1.884 1.768 4563
-2.142 1.882 1.756 4616
-2.146 1.885 1.747 4677
-2.149 1.888 1.739 4339
-2.173 1.910 1.747 4077
-2.156 1.895 1.723 4924
-2.149 1.889 1.707 4578
-2.215 1.946 1.745 5083
-2.224 1.954 1.740 5035
-2.227 1.957 1.732 4990
-2.236 1.965 1.727 5056
-2.271 1.995 1.741 6776
-2.280 2.003 1.736 8066
-2.283 2.006 1.727 7751
-2.292 2.014 1.722 6976
-2.301 2.021 1.717 6520
-2.304 2.025 1.708 7531
-2.302 2.023 1.696 6784
-2.380 2.091 1.738 6292
-2.399 2.108 1.739 6531
-2.413 2.120 1.737 8207
-2.417 2.123 1.728 8633
-2.415 2.122 1.715 7776
-2.472 2.172 1.741 7629
-2.470 2.170 1.728 8075
-2.500 2.197 1.736 7818
-2.461 2.162 1.699 8495
-2.469 2.170 1.693 7221
-2.548 2.239 1.731 7605
-2.541 2.232 1.715 8851
-2.555 2.245 1.712 7924
-2.580 2.267 1.715 5771
-2.600 2.284 1.715 4026
-2.603 2.287 1.706 4854
-2.612 2.295 1.699 6151
-2.648 2.326 1.708 5665
-2.635 2.315 1.689 3948
-2.633 2.313 1.675 3943
-2.636 2.316 1.665 4341
-2.672 2.348 1.674 5655
-2.681 2.356 1.667 7536
-2.684 2.359 1.657 6080
-2.688 2.362 1.647 4244
-2.779 2.441 1.686 6062
-2.782 2.444 1.675 7788
-2.785 2.447 1.664 7085
-2.800 2.460 1.660 7998
-2.803 2.463 1.649 9528
-2.812 2.471 1.641 7579
-2.870 2.522 1.660 9514
-2.885 2.535 1.655 9346
-2.888 2.537 1.644 5444
-2.969 2.608 1.673 3583
-2.966 2.607 1.659 5412
-2.986 2.624 1.656 7652
-2.995 2.632 1.648 7795
-3.037 2.669 1.656 4647
-3.113 2.735 1.681 4532
-3.100 2.724 1.660 4831
-3.203 2.815 1.698 6246
-3.218 2.828 1.691 5508
-3.233 2.840 1.684 4848
-3.247 2.853 1.677 5281
-3.245 2.851 1.662 6636
-3.248 2.854 1.649 5510
-3.319 2.916 1.668 5302
-3.328 2.924 1.658 5096
-3.331 2.927 1.645 5212
-3.385 2.974 1.656 6577
-3.394 2.982 1.645 6662
-3.476 3.055 1.667 5497
-3.395 2.983 1.617 4073
-3.573 3.140 1.680 3200
-3.582 3.148 1.669 4383
-3.603 3.166 1.662 4768
-3.612 3.174 1.651 4307
-3.604 3.167 1.632 2769
-3.692 3.244 1.653 2688
-3.678 3.232 1.632 2514
-3.773 3.315 1.655 2405
-3.787 3.328 1.645 2695
-3.819 3.356 1.642 2320
-3.862 3.394 1.643 1708
-3.877 3.407 1.632 2758
-3.966 3.485 1.651 2523
-4.032 3.543 1.659 2938
-4.053 3.561 1.650 2947
-4.056 3.564 1.635 3407
-4.197 3.688 1.670 4212
-4.200 3.691 1.653 6414
-4.209 3.699 1.639 5357
-4.207 3.696 1.621 5011
-4.204 3.694 1.603 5565
-4.219 3.707 1.591 3296
-4.245 3.730 1.582 3434
-4.427 3.890 1.626 2286
-4.424 3.888 1.607 1939
-4.705 4.134 1.682 2493
-4.714 4.142 1.666 2440
-4.798 4.216 1.674 2776
-4.807 4.224 1.657 2497
-4.799 4.217 1.635 1746
-4.819 4.235 1.622 2050
-4.829 4.243 1.605 2351
-4.907 4.312 1.609 2216
-4.875 4.284 1.580 2419
-5.274 4.634 1.677 2349
-5.498 4.831 1.721 1915
-5.420 4.762 1.676 2290
-5.644 4.959 1.718 3119
-5.665 4.978 1.701 2629
-5.680 4.991 1.682 2386
-5.683 4.994 1.660 2075
-6.089 5.350 1.745 1923
-6.081 5.343 1.718 2226
-5.979 5.254 1.668 2216
-6.579 5.780 1.796 1915
-6.588 5.789 1.772 2517
-6.586 5.787 1.745 2616
-6.583 5.785 1.718 2750
-6.593 5.793 1.694 2662
-6.596 5.796 1.668 1897
-6.699 5.886 1.666 1143
-6.702 5.889 1.640 1258
-6.929 6.088 1.663 1053
-7.043 6.189 1.661 1063
-7.070 6.212 1.638 1053
-7.097 6.236 1.616 1191
-7.106 6.244 1.590 991
-7.109 6.247 1.562 629
-7.112 6.249 1.535 427
-7.109 6.247 1.506 250
-1.687 1.485 1.755 3813
-1.690 1.489 1.749 7626
-1.694 1.492 1.742 7626
-1.692 1.491 1.731 6114
-1.696 1.494 1.725 4608
-1.728 1.522 1.746 5555
-1.751 1.542 1.757 7704
-1.755 1.545 1.751 7704
-1.744 1.536 1.731 7318
-1.742 1.535 1.719 7613
-1.770 1.559 1.735 7299
-1.779 1.566 1.733 7937
-1.787 1.574 1.731 5728
-1.800 1.586 1.733 3726
-1.838 1.619 1.757 4532
-1.832 1.613 1.741 6092
-1.830 1.612 1.730 6057
-1.829 1.611 1.718 6534
-1.832 1.614 1.711 7046
-1.841 1.621 1.709 5852
-1.904 1.677 1.754 7218
-1.907 1.680 1.746 10377
-1.911 1.683 1.739 13537
-1.925 1.695 1.740 13089
-1.933 1.703 1.737 13346
-1.932 1.701 1.726 11919
-1.925 1.695 1.710 11284
-1.928 1.698 1.703 10015
-1.932 1.701 1.695 8745
-2.006 1.767 1.746 7088
-2.015 1.774 1.742 8600
-2.018 1.778 1.735 10767
-2.022 1.781 1.727 12935
-2.025 1.784 1.719 12468
-2.034 1.791 1.715 10915
-2.042 1.799 1.712 7605
-2.051 1.806 1.708 4509
-2.136 1.882 1.764 4641
-2.140 1.885 1.756 4665
-2.143 1.888 1.747 4689
-2.147 1.891 1.739 4359
-2.145 1.890 1.727 4063
-2.149 1.893 1.719 5030
-2.147 1.891 1.707 4674
-2.218 1.954 1.749 5180
-2.222 1.957 1.740 5184
-2.225 1.960 1.732 5189
-2.234 1.967 1.727 5300
-2.269 1.998 1.741 6871
-2.277 2.006 1.736 8177
-2.281 2.009 1.727 7827
-2.290 2.017 1.722 7034
-2.298 2.024 1.717 6571
-2.302 2.027 1.708 7619
-2.300 2.026 1.696 6903
-2.377 2.094 1.738 6270
-2.397 2.111 1.739 6567
-2.411 2.123 1.737 8178
-2.414 2.126 1.728 8618
-2.412 2.125 1.715 7744
-2.474 2.179 1.745 7716
-2.473 2.178 1.732 8225
-2.497 2.200 1.736 7946
-2.458 2.165 1.699 7984
-2.461 2.168 1.690 6751
-2.545 2.242 1.731 7751
-2.538 2.235 1.715 8949
-2.552 2.248 1.712 7957
-2.577 2.270 1.715 5773
-2.602 2.292 1.719 4125
-2.600 2.290 1.706 5033
-2.609 2.298 1.699 6374
-2.634 2.320 1.702 5707
-2.632 2.318 1.689 3975
-2.630 2.316 1.675 3989
-2.628 2.315 1.662 4329
-2.675 2.356 1.677 5660
-2.678 2.359 1.667 7564
-2.682 2.362 1.657 6159
-2.679 2.360 1.643 4392
-2.776 2.445 1.686 6089
-2.779 2.448 1.675 7763
-2.782 2.451 1.664 6971
-2.797 2.463 1.660 7854
-2.800 2.466 1.649 9387
-2.809 2.474 1.641 7451
-2.867 2.525 1.660 9554
-2.882 2.538 1.655 9270
-2.885 2.541 1.644 5363
-2.966 2.612 1.673 3450
-2.963 2.610 1.659 5259
-2.983 2.628 1.656 7518
-2.992 2.635 1.648 7733
-3.034 2.673 1.656 4550
-3.110 2.739 1.681 4548
-3.102 2.732 1.663 4964
-3.200 2.819 1.698 6375
-3.215 2.831 1.691 5652
-3.229 2.844 1.684 4806
-3.244 2.857 1.677 5184
-3.242 2.855 1.662 6633
-3.245 2.858 1.649 5489
-3.315 2.920 1.668 5216
-3.324 2.928 1.658 5046
-3.328 2.931 1.645 5199
-3.382 2.978 1.656 6512
-3.391 2.986 1.645 6740
-3.473 3.059 1.667 5567
-3.391 2.987 1.617 4063
-3.570 3.144 1.680 3119
-3.579 3.152 1.669 4283
-3.599 3.170 1.662 4688
-3.608 3.178 1.651 4309
-3.600 3.171 1.632 2837
-3.688 3.249 1.653 2625
-3.675 3.236 1.632 2465
-3.769 3.319 1.655 2419
-3.778 3.327 1.643 2722
-3.815 3.360 1.642 2323
-3.858 3.398 1.643 1703
-3.873 3.411 1.632 2795
-3.962 3.490 1.651 2516
-4.034 3.553 1.661 2856
-4.048 3.566 1.650 3008
-4.052 3.569 1.635 3604
-4.192 3.693 1.670 4289
-4.196 3.696 1.653 6432
-4.205 3.703 1.639 5301
-4.202 3.701 1.621 4892
-4.200 3.699 1.603 5494
-4.215 3.712 1.591 3293
-4.241 3.735 1.582 3284
-4.422 3.895 1.626 2292
-4.696 4.136 1.700 1931
-4.700 4.139 1.682 2521
-4.709 4.147 1.666 2454
-4.793 4.222 1.674 2741
-4.796 4.224 1.655 2492
-4.788 4.217 1.633 1766
-4.809 4.235 1.620 2019
-4.824 4.248 1.605 2320
-4.908 4.323 1.611 2192
-4.870 4.290 1.580 2314
-5.268 4.640 1.677 2330
-5.492 4.837 1.721 1896
-5.414 4.769 1.676 2285
-5.638 4.966 1.718 3121
-5.659 4.984 1.701 2659
-5.674 4.998 1.682 2431
-5.683 5.006 1.662 2083
-6.089 5.363 1.746 1866
-5.976 5.263 1.692 2240
-6.067 5.343 1.692 2255
-6.572 5.788 1.796 1963
-6.581 5.797 1.772 2547
-6.579 5.795 1.745 2595
-6.577 5.792 1.718 2716
-6.586 5.801 1.694 2664
-6.589 5.804 1.668 1911
-6.692 5.894 1.666 1114
-6.695 5.897 1.640 1249
-6.921 6.096 1.663 1044
-7.036 6.197 1.661 1068
-7.063 6.221 1.638 1040
-7.084 6.239 1.615 1167
-7.099 6.252 1.590 977
-7.102 6.255 1.562 634
-7.105 6.258 1.535 439
-7.102 6.255 1.506 255
-1.683 1.490 1.755 3854
-1.686 1.493 1.749 7709
-1.690 1.496 1.742 7709
-1.689 1.495 1.731 6136
-1.692 1.498 1.725 4601
-1.724 1.527 1.746 5558
-1.747 1.547 1.757 7708
-1.751 1.550 1.751 7708
-1.740 1.540 1.731 7289
-1.738 1.539 1.719 7585
-1.771 1.568 1.740 7283
-1.779 1.575 1.738 7915
-1.783 1.578 1.731 5722
-1.796 1.590 1.733 3647
-1.810 1.602 1.735 4541
-1.823 1.614 1.737 6213
-1.826 1.617 1.730 6194
-1.825 1.615 1.718 6923
-1.828 1.618 1.711 7634
-1.832 1.622 1.705 6042
-1.900 1.682 1.754 7155
-1.903 1.685 1.746 10266
-1.907 1.688 1.739 13378
-1.920 1.700 1.740 12951
-1.929 1.707 1.737 13183
-1.927 1.706 1.726 11777
-1.921 1.700 1.710 11175
-1.924 1.703 1.703 9909
-1.927 1.706 1.695 8642
-2.002 1.772 1.746 7077
-2.010 1.779 1.742 8592
-2.014 1.783 1.735 10812
-2.017 1.786 1.727 13033
-2.021 1.789 1.719 12547
-2.029 1.796 1.715 10932
-2.038 1.804 1.712 7600
-2.046 1.811 1.708 4517
-2.132 1.887 1.764 4718
-2.135 1.890 1.756 4734
-2.139 1.893 1.747 4750
-2.142 1.896 1.739 4405
-2.141 1.895 1.727 4105
-2.144 1.898 1.719 5081
-2.142 1.896 1.707 4738
-2.213 1.959 1.749 5194
-2.217 1.962 1.740 5257
-2.220 1.965 1.732 5321
-2.229 1.973 1.727 5401
-2.264 2.004 1.741 6919
-2.272 2.011 1.736 8210
-2.276 2.015 1.727 7833
-2.284 2.022 1.722 7064
-2.304 2.039 1.724 6701
-2.297 2.033 1.708 7679
-2.295 2.031 1.696 6945
-2.372 2.100 1.738 6326
-2.391 2.117 1.739 6590
-2.405 2.129 1.737 8161
-2.409 2.132 1.728 8522
-2.407 2.131 1.715 7864
-2.469 2.186 1.745 7299
-2.467 2.184 1.732 7995
-2.492 2.206 1.736 7984
-2.453 2.171 1.699 8371
-2.461 2.179 1.693 7161
-2.540 2.248 1.731 7868
-2.532 2.242 1.715 9058
-2.547 2.254 1.712 7914
-2.571 2.276 1.715 5761
-2.591 2.294 1.715 4151
-2.594 2.297 1.706 5111
-2.603 2.305 1.699 6414
-2.628 2.327 1.702 5640
-2.626 2.325 1.689 3790
-2.624 2.323 1.675 3726
-2.628 2.326 1.665 4107
-2.669 2.363 1.677 5817
-2.672 2.366 1.667 7715
-2.676 2.369 1.657 6186
-2.673 2.367 1.643 4263
-2.770 2.452 1.686 6131
-2.773 2.455 1.675 7754
-2.782 2.462 1.667 6887
-2.791 2.470 1.660 7740
-2.794 2.473 1.649 9310
-2.803 2.481 1.641 7420
-2.861 2.533 1.660 9536
-2.875 2.545 1.655 9234
-2.878 2.548 1.644 5310
-2.964 2.624 1.676 3448
-2.957 2.617 1.659 4983
-2.977 2.635 1.656 7249
-2.986 2.643 1.648 7641
-3.028 2.680 1.656 4605
-3.103 2.747 1.681 4677
-3.090 2.735 1.660 5033
-3.193 2.827 1.698 6387
-3.208 2.839 1.691 5650
-3.222 2.852 1.684 4755
-3.231 2.860 1.674 5114
-3.234 2.863 1.662 6637
-3.238 2.866 1.649 5607
-3.314 2.933 1.671 5178
-3.317 2.936 1.658 4985
-3.320 2.939 1.645 5050
-3.374 2.987 1.656 6536
-3.383 2.995 1.645 6696
-3.465 3.067 1.667 5617
-3.384 2.996 1.617 4126
-3.562 3.153 1.680 3243
-3.571 3.161 1.669 4371
-3.591 3.179 1.662 4717
-3.600 3.187 1.651 4327
-3.592 3.180 1.632 2909
-3.680 3.258 1.653 2531
-3.666 3.246 1.632 2372
-3.760 3.329 1.655 2441
-3.769 3.337 1.643 2777
-3.807 3.370 1.642 2287
-3.850 3.408 1.643 1694
-3.859 3.416 1.630 2727
-3.953 3.499 1.651 2481
-4.025 3.563 1.661 2684
-4.039 3.576 1.650 2958
-4.043 3.579 1.635 3674
-4.183 3.703 1.670 4229
-4.186 3.706 1.653 6279
-4.195 3.714 1.639 5372
-4.193 3.712 1.621 4964
-4.191 3.710 1.603 5363
-4.205 3.723 1.591 3324
-4.231 3.746 1.582 3348
-4.413 3.906 1.626 2319
-4.617 4.087 1.677 2009
-4.689 4.151 1.682 2338
-4.704 4.164 1.668 2324
-4.788 4.239 1.676 2689
-4.791 4.242 1.657 2449
-4.783 4.234 1.635 1673
-4.798 4.247 1.620 1978
-4.813 4.261 1.605 2278
-4.897 4.335 1.611 2253
-4.865 4.307 1.582 2395
-5.256 4.653 1.677 2317
-5.480 4.851 1.721 1890
-5.628 4.982 1.741 2292
-5.626 4.980 1.718 3096
-5.647 4.999 1.701 2625
-5.662 5.012 1.682 2413
-5.671 5.020 1.662 2076
-6.075 5.378 1.746 1858
-5.962 5.278 1.692 2188
-6.053 5.358 1.692 2248
-6.557 5.805 1.796 1984
-6.567 5.813 1.772 2531
-6.564 5.811 1.745 2567
-6.562 5.809 1.718 2692
-6.571 5.817 1.694 2641
-6.575 5.820 1.668 1881
-6.677 5.911 1.666 1101
-6.681 5.914 1.640 1230
-6.906 6.114 1.663 1052
-7.020 6.215 1.661 1074
-7.047 6.238 1.638 1055
-7.068 6.257 1.615 1167
-7.083 6.270 1.590 968
-7.086 6.273 1.562 612
-7.089 6.276 1.535 416
-1.679 1.494 1.755 3830
-1.683 1.497 1.749 7660
-1.686 1.500 1.742 7660
-1.685 1.499 1.731 6144
-1.688 1.502 1.725 4654
-1.721 1.531 1.746 5651
-1.744 1.551 1.757 7801
-1.747 1.554 1.751 7801
-1.736 1.544 1.731 7349
-1.735 1.543 1.719 7586
-1.767 1.572 1.740 7287
-1.776 1.580 1.738 7912
-1.784 1.587 1.735 5642
-1.797 1.599 1.737 3603
-1.806 1.606 1.735 4632
-1.824 1.622 1.741 6410
-1.822 1.621 1.730 6407
-1.821 1.620 1.718 7105
-1.824 1.623 1.711 7807
-1.828 1.626 1.705 6096
-1.896 1.686 1.754 7137
-1.899 1.689 1.746 10238
-1.903 1.693 1.739 13340
-1.916 1.705 1.740 12981
-1.925 1.712 1.737 13235
-1.923 1.711 1.726 11849
-1.916 1.705 1.710 11249
-1.920 1.708 1.703 9982
-1.923 1.711 1.695 8714
-1.932 1.718 1.692 7098
-2.006 1.784 1.742 8514
-2.009 1.787 1.735 10809
-2.013 1.791 1.727 13105
-2.016 1.794 1.719 12574
-2.025 1.801 1.715 10905
-2.033 1.809 1.712 7574
-2.042 1.816 1.708 4526
-2.127 1.892 1.764 4726
-2.131 1.895 1.756 4765
-2.134 1.898 1.747 4803
-2.138 1.902 1.739 4429
-2.136 1.900 1.727 4094
-2.139 1.903 1.719 5052
-2.138 1.902 1.707 4726
-2.208 1.964 1.749 5265
-2.212 1.968 1.740 5244
-2.215 1.971 1.732 5223
-2.224 1.978 1.727 5189
-2.259 2.009 1.741 6888
-2.262 2.012 1.732 8209
-2.271 2.020 1.727 7861
-2.279 2.028 1.722 7129
-2.299 2.045 1.724 6866
-2.292 2.039 1.708 7743
-2.290 2.037 1.696 6917
-2.367 2.106 1.738 6356
-2.386 2.123 1.739 6632
-2.400 2.135 1.737 8182
-2.404 2.138 1.728 8450
-2.402 2.137 1.715 7863
-2.458 2.187 1.741 7757
-2.456 2.185 1.728 8736
-2.481 2.207 1.733 8427
-2.447 2.177 1.699 8737
-2.456 2.185 1.693 7386
-2.534 2.254 1.731 7976
-2.527 2.248 1.715 9057
-2.541 2.261 1.712 7873
-2.566 2.283 1.715 5758
-2.585 2.300 1.715 4120
-2.589 2.303 1.706 5042
-2.598 2.311 1.699 6295
-2.633 2.343 1.708 5703
-2.621 2.331 1.689 3855
-2.619 2.329 1.675 3732
-2.622 2.332 1.665 4001
-2.663 2.369 1.677 5785
-2.667 2.372 1.667 7586
-2.670 2.375 1.657 6003
-2.668 2.373 1.643 4170
-2.764 2.458 1.686 6257
-2.767 2.461 1.675 7910
-2.770 2.464 1.664 7065
-2.784 2.477 1.660 7890
-2.788 2.480 1.649 9438
-2.797 2.488 1.641 7522
-2.855 2.539 1.660 9513
-2.869 2.552 1.655 9255
-2.872 2.555 1.644 5330
-2.958 2.631 1.676 3519
-2.950 2.625 1.659 4958
-2.970 2.642 1.656 7384
-2.979 2.650 1.648 7555
-3.021 2.688 1.656 4568
-3.096 2.754 1.681 4670
-3.083 2.743 1.660 5087
-3.186 2.834 1.698 6333
-3.201 2.847 1.691 5574
-3.215 2.860 1.684 4732
-3.224 2.868 1.674 5112
-3.227 2.871 1.662 6590
-3.231 2.874 1.649 5635
-3.307 2.942 1.671 5049
-3.310 2.944 1.658 4917
-3.313 2.947 1.645 4994
-3.367 2.995 1.656 6586
-3.376 3.003 1.645 6750
-3.458 3.076 1.667 5655
-3.377 3.004 1.617 4075
-3.554 3.162 1.680 3242
-3.563 3.170 1.669 4400
-3.583 3.188 1.662 4809
-3.592 3.196 1.651 4399
-3.584 3.189 1.632 2839
-3.672 3.267 1.653 2575
-3.664 3.260 1.635 2349
-3.752 3.338 1.655 2490
-3.761 3.346 1.643 2890
-3.799 3.379 1.642 2268
-3.841 3.417 1.643 1711
-3.850 3.425 1.630 2661
-3.945 3.509 1.651 2536
-4.016 3.573 1.661 2641
-4.036 3.591 1.652 2900
-4.034 3.589 1.635 3640
-4.174 3.713 1.670 4135
-4.177 3.716 1.653 6103
-4.186 3.724 1.639 5422
-4.184 3.722 1.621 4995
-4.187 3.725 1.605 5287
-4.202 3.738 1.593 3405
-4.222 3.756 1.582 3516
-4.403 3.917 1.626 2250
-4.607 4.098 1.677 2032
-4.679 4.163 1.682 2396
-4.688 4.171 1.666 2440
-4.778 4.250 1.676 2703
-4.775 4.248 1.655 2463
-4.767 4.241 1.633 1737
-4.788 4.259 1.620 1984
-4.802 4.272 1.605 2303
-4.886 4.347 1.611 2256
-4.849 4.314 1.580 2438
-5.245 4.666 1.677 2329
-5.468 4.864 1.721 1949
-5.390 4.795 1.676 2311
-5.614 4.994 1.718 3011
-5.634 5.012 1.701 2617
-5.649 5.026 1.682 2430
-5.659 5.034 1.662 2123
-6.062 5.393 1.746 1846
-5.950 5.293 1.692 2209
-6.040 5.373 1.692 2292
-6.543 5.821 1.796 1917
-6.552 5.829 1.772 2488
-6.550 5.827 1.745 2574
-6.548 5.825 1.718 2670
-6.557 5.833 1.694 2590
-6.560 5.836 1.668 1855
-6.663 5.927 1.666 1149
-6.666 5.930 1.640 1269
-6.891 6.130 1.663 1057
-7.005 6.232 1.661 1062
-7.032 6.256 1.638 1053
-7.059 6.279 1.616 1172
-7.068 6.287 1.590 963
-7.071 6.290 1.562 607
-7.074 6.293 1.535 420
-1.672 1.492 1.750 3719
-1.676 1.495 1.744 7439
-1.679 1.499 1.737 7439
-1.682 1.502 1.731 6311
-1.686 1.505 1.725 5182
-1.718 1.534 1.746 6597
-1.736 1.550 1.753 8822
-1.740 1.553 1.746 8822
-1.738 1.552 1.735 8031
-1.737 1.550 1.724 7494
-1.755 1.566 1.731 7223
-1.768 1.578 1.733 7451
-1.776 1.586 1.731 5274
-1.829 1.632 1.768 3455
-1.827 1.631 1.757 4623
-1.831 1.634 1.750 5842
-1.830 1.633 1.739 5835
-1.823 1.627 1.723 6281
-1.822 1.626 1.711 6964
-1.830 1.633 1.709 5499
-1.893 1.689 1.754 7236
-1.896 1.693 1.746 10389
-1.905 1.700 1.743 13557
-1.913 1.708 1.740 13598
-1.917 1.711 1.733 14172
-1.920 1.714 1.726 12862
-1.914 1.708 1.710 12199
-1.917 1.711 1.703 10722
-1.920 1.714 1.695 9246
-1.929 1.722 1.692 7573
-2.003 1.788 1.742 7865
-2.006 1.791 1.735 10380
-2.010 1.794 1.727 12896
-2.013 1.797 1.719 12400
-2.022 1.805 1.715 10855
-2.025 1.808 1.708 7402
-2.039 1.820 1.708 4302
-2.124 1.896 1.764 4718
-2.127 1.899 1.756 4847
-2.131 1.902 1.747 4977
-2.134 1.905 1.739 4517
-2.158 1.927 1.747 4280
-2.136 1.907 1.719 4898
-2.135 1.905 1.707 4772
-2.205 1.968 1.749 4992
-2.209 1.971 1.740 4670
-2.212 1.974 1.732 4348
-2.158 1.926 1.682 4579
-2.255 2.013 1.741 6320
-2.259 2.016 1.732 7885
-2.267 2.024 1.727 7650
-2.276 2.032 1.722 7355
-2.290 2.044 1.721 7331
-2.288 2.042 1.708 8274
-2.286 2.041 1.696 7333
-2.363 2.109 1.738 6495
-2.383 2.127 1.739 6560
-2.397 2.139 1.737 8097
-2.400 2.142 1.728 8410
-2.398 2.141 1.715 7712
-2.455 2.191 1.741 7669
-2.447 2.185 1.725 8783
-2.446 2.183 1.712 8079
-2.444 2.181 1.699 8906
-2.458 2.194 1.696 7866
-2.525 2.254 1.728 7450
-2.523 2.252 1.715 8917
-2.532 2.260 1.708 7872
-2.557 2.282 1.712 5754
-2.491 2.223 1.659 4615
-2.585 2.307 1.706 4505
-2.599 2.320 1.702 5686
-2.619 2.337 1.702 5362
-2.617 2.336 1.689 3731
-2.620 2.339 1.678 3593
-2.623 2.342 1.668 4221
-2.654 2.369 1.674 6192
-2.663 2.377 1.667 7229
-2.660 2.375 1.654 5783
-2.664 2.378 1.643 4182
-2.759 2.463 1.686 6585
-2.763 2.466 1.675 8226
-2.766 2.469 1.664 7452
-2.780 2.482 1.660 8442
-2.784 2.485 1.649 9844
-2.792 2.492 1.641 7579
-2.850 2.544 1.660 9188
-2.865 2.557 1.655 9096
-2.874 2.565 1.647 5245
-2.948 2.631 1.673 3610
-2.946 2.630 1.659 5296
-2.966 2.647 1.656 7837
-2.969 2.650 1.645 7821
-3.017 2.692 1.656 4926
-3.092 2.760 1.681 4541
-3.084 2.753 1.663 5059
-3.181 2.840 1.698 5765
-3.196 2.853 1.691 4990
-3.210 2.865 1.684 4664
-3.219 2.873 1.674 5205
-3.223 2.876 1.662 6425
-3.226 2.879 1.649 5717
-3.302 2.947 1.671 4674
-3.305 2.950 1.658 5021
-3.308 2.953 1.645 5302
-3.362 3.001 1.656 6905
-3.371 3.009 1.645 6793
-3.447 3.077 1.665 5412
-3.372 3.009 1.617 4393
-3.549 3.168 1.680 3315
-3.558 3.176 1.669 4502
-3.578 3.194 1.662 5044
-3.587 3.202 1.651 4843
-3.585 3.199 1.634 3024
-3.661 3.268 1.651 2778
-3.659 3.266 1.635 2565
-3.747 3.344 1.655 2578
-3.756 3.352 1.643 3085
-3.793 3.385 1.642 2615
-3.819 3.409 1.636 2077
-3.839 3.427 1.628 3158
-3.842 3.429 1.613 2400
-4.010 3.579 1.661 2480
-4.025 3.592 1.650 3020
-4.028 3.595 1.635 4032
-4.168 3.720 1.670 3825
-4.177 3.728 1.655 5528
-4.180 3.731 1.639 5913
-4.184 3.734 1.623 5640
-4.181 3.732 1.605 5167
-4.196 3.745 1.593 3708
-4.216 3.763 1.582 3842
-4.505 4.021 1.664 2265
-4.600 4.106 1.677 1962
-4.672 4.170 1.682 2381
-4.681 4.178 1.666 2308
-4.771 4.258 1.676 3098
-4.768 4.256 1.655 3078
-4.766 4.254 1.635 2260
-4.781 4.267 1.620 2338
-4.795 4.280 1.605 2489
-4.810 4.293 1.590 2178
-4.848 4.327 1.582 2344
-5.232 4.669 1.675 2183
-5.460 4.873 1.721 2059
-5.377 4.799 1.675 2133
-5.605 5.003 1.718 2851
-5.626 5.022 1.701 2479
-5.641 5.035 1.682 2401
-5.650 5.043 1.662 2125
-6.047 5.398 1.745 2009
-6.039 5.390 1.718 2638
-6.031 5.383 1.692 2580
-6.203 5.536 1.711 2183
-6.543 5.840 1.772 2357
-6.244 5.573 1.672 2642
-6.538 5.836 1.718 2444
-6.547 5.844 1.694 2282
-6.551 5.847 1.668 1664
-6.647 5.933 1.664 1295
-6.656 5.941 1.640 1393
-6.881 6.142 1.663 1126
-6.989 6.238 1.659 1037
-7.022 6.267 1.638 1036
-7.048 6.291 1.616 1126
-7.057 6.299 1.590 869
-7.060 6.302 1.562 498
-7.063 6.305 1.535 337
-1.659 1.487 1.741 3731
-1.663 1.490 1.734 7462
-1.666 1.494 1.728 7462
-1.674 1.501 1.726 6555
-1.683 1.508 1.725 5697
-1.715 1.537 1.746 7537
-1.728 1.549 1.748 9895
-1.732 1.552 1.742 9895
-1.735 1.555 1.735 8700
-1.738 1.558 1.728 7506
-1.747 1.566 1.726 7142
-1.755 1.573 1.724 6948
-1.763 1.581 1.722 4636
-1.830 1.641 1.773 3608
-1.824 1.635 1.757 4912
-1.827 1.638 1.750 6335
-1.826 1.637 1.739 6335
-1.820 1.631 1.723 6556
-1.818 1.630 1.711 7136
-1.822 1.633 1.705 5598
-1.884 1.689 1.749 7419
-1.893 1.697 1.746 10631
-1.901 1.704 1.743 13868
-1.905 1.707 1.736 14337
-1.913 1.715 1.733 15344
-1.917 1.718 1.726 13928
-1.910 1.712 1.710 13023
-1.913 1.715 1.703 11359
-1.917 1.718 1.695 9694
-1.925 1.726 1.692 8028
-1.999 1.792 1.742 7015
-2.003 1.795 1.735 9717
-2.006 1.798 1.727 12420
-2.009 1.801 1.719 11997
-2.018 1.809 1.715 10657
-2.026 1.816 1.712 7179
-2.040 1.829 1.712 4146
-2.120 1.900 1.764 4748
-2.123 1.903 1.756 4888
-2.127 1.907 1.747 5029
-2.130 1.910 1.739 4543
-2.154 1.931 1.747 4513
-2.132 1.911 1.719 4762
-2.125 1.905 1.703 5002
-2.196 1.968 1.745 4597
-2.204 1.976 1.740 4155
-2.135 1.914 1.678 3773
-2.154 1.931 1.682 4400
-2.168 1.943 1.681 5777
-2.255 2.021 1.732 7544
-2.263 2.029 1.727 7369
-2.272 2.036 1.722 7427
-2.280 2.044 1.717 7609
-2.284 2.047 1.708 8589
-2.282 2.046 1.696 7575
-2.359 2.114 1.738 6762
-2.378 2.132 1.739 6528
-2.392 2.144 1.737 7831
-2.401 2.152 1.732 8183
-2.346 2.103 1.684 8035
-2.360 2.116 1.682 8087
-2.443 2.190 1.725 8702
-2.436 2.183 1.708 8116
-2.439 2.186 1.699 9032
-2.458 2.204 1.700 8564
-2.467 2.211 1.694 8269
-2.513 2.253 1.711 8996
-2.527 2.265 1.708 8002
-2.483 2.225 1.669 6812
-2.486 2.228 1.659 5796
-2.494 2.236 1.653 5385
-2.600 2.330 1.705 5206
-2.608 2.338 1.699 5079
-2.612 2.341 1.689 3668
-2.615 2.344 1.678 3570
-2.624 2.352 1.672 4342
-2.649 2.374 1.674 6584
-2.652 2.377 1.664 6850
-2.655 2.380 1.654 5414
-2.659 2.383 1.643 4042
-2.754 2.469 1.686 6670
-2.758 2.472 1.675 8224
-2.761 2.475 1.664 7461
-2.775 2.488 1.660 8513
-2.784 2.495 1.652 9709
-2.787 2.498 1.641 7142
-2.845 2.550 1.660 8799
-2.859 2.563 1.655 8772
-2.868 2.571 1.647 5085
-2.943 2.638 1.673 3579
-2.946 2.641 1.662 5532
-2.960 2.653 1.656 8151
-2.964 2.656 1.645 8014
-3.011 2.699 1.656 5324
-3.080 2.761 1.678 4203
-3.073 2.754 1.660 4845
-3.175 2.846 1.698 5174
-3.190 2.859 1.691 4413
-3.204 2.872 1.684 4624
-3.208 2.875 1.672 5432
-3.222 2.888 1.665 6193
-3.225 2.891 1.652 5559
-3.295 2.954 1.671 4255
-3.299 2.957 1.658 4997
-3.302 2.960 1.645 5347
-3.356 3.008 1.656 7126
-3.359 3.011 1.643 6694
-3.435 3.079 1.662 5293
-3.365 3.017 1.617 4558
-3.542 3.175 1.680 3696
-3.551 3.183 1.669 4757
-3.571 3.201 1.662 5179
-3.580 3.209 1.651 4922
-3.578 3.207 1.634 2978
-3.654 3.276 1.651 3014
-3.657 3.278 1.637 2781
-3.728 3.342 1.650 2817
-3.743 3.355 1.641 3373
-3.786 3.393 1.642 3191
-3.812 3.417 1.636 2623
-3.826 3.430 1.626 3715
-3.835 3.438 1.613 3072
-4.003 3.588 1.661 2400
-4.017 3.601 1.650 2999
-4.021 3.604 1.635 4082
-4.166 3.734 1.672 3688
-4.169 3.737 1.655 4900
-4.172 3.740 1.639 6164
-4.176 3.743 1.623 5850
-4.179 3.746 1.607 4568
-4.188 3.754 1.593 3786
-4.208 3.772 1.582 3830
-4.497 4.031 1.664 2520
-4.580 4.105 1.673 2195
-4.652 4.170 1.678 2460
-4.678 4.193 1.668 2187
-4.762 4.268 1.676 3441
-4.759 4.266 1.655 3533
-4.757 4.264 1.635 2612
-4.772 4.277 1.620 2624
-4.786 4.290 1.605 2601
-4.795 4.298 1.588 2129
-4.839 4.337 1.582 2103
-5.222 4.681 1.675 2047
-5.450 4.885 1.721 2180
-5.453 4.888 1.699 2053
-5.595 5.015 1.718 2636
-5.616 5.034 1.701 2239
-5.630 5.047 1.682 2311
-5.640 5.055 1.662 2149
-6.036 5.410 1.745 2328
-6.028 5.403 1.718 3084
-6.031 5.406 1.695 2842
-6.179 5.539 1.708 2650
-6.177 5.537 1.683 2807
-6.233 5.587 1.672 3035
-6.236 5.590 1.647 2513
-6.535 5.858 1.694 1871
-6.689 5.996 1.704 1457
-6.640 5.952 1.666 1404
-6.644 5.955 1.640 1483
-6.868 6.156 1.663 1166
-6.883 6.170 1.639 987
-7.014 6.287 1.640 975
-7.041 6.311 1.617 1061
-7.044 6.314 1.590 756
-7.047 6.317 1.562 385
-7.050 6.319 1.535 264
-1.653 1.485 1.736 3733
-1.656 1.488 1.730 7467
-1.660 1.491 1.723 7467
-1.673 1.503 1.726 6788
-1.705 1.532 1.748 6276
-1.713 1.539 1.746 8613
-1.726 1.551 1.748 11258
-1.730 1.554 1.742 11258
-1.733 1.557 1.735 9433
-1.737 1.560 1.728 7608
-1.750 1.572 1.731 7033
-1.758 1.580 1.729 6588
-1.776 1.596 1.735 4566
-1.819 1.634 1.764 4119
-1.827 1.641 1.761 5220
-1.830 1.645 1.754 6432
-1.834 1.648 1.747 6495
-1.828 1.642 1.732 5905
-1.816 1.632 1.711 5908
-1.879 1.688 1.757 5349
-1.882 1.691 1.749 7964
-1.891 1.699 1.746 11155
-1.894 1.702 1.739 14422
-1.903 1.710 1.736 15465
-1.911 1.717 1.733 16921
-1.910 1.716 1.721 15286
-1.913 1.719 1.714 14020
-1.916 1.722 1.707 12047
-1.915 1.720 1.695 10102
-1.923 1.728 1.692 8514
-1.927 1.731 1.685 6956
-2.000 1.797 1.735 8470
-2.004 1.801 1.727 11258
-2.007 1.804 1.719 10889
-2.016 1.811 1.715 9875
-2.024 1.819 1.712 6709
-2.109 1.895 1.768 4228
-2.118 1.903 1.764 4947
-2.126 1.910 1.760 5029
-2.130 1.914 1.751 5196
-2.144 1.926 1.751 4662
