-1.606 1.728 1.776 4217
-1.609 1.732 1.769 4217
-1.604 1.726 1.753 6290
-1.607 1.729 1.747 8514
-1.610 1.733 1.740 7906
-1.618 1.741 1.738 7339
-1.630 1.754 1.740 7055
-1.642 1.767 1.742 7561
-1.645 1.770 1.735 8910
-1.648 1.774 1.728 10258
-1.651 1.777 1.721 10230
-1.655 1.780 1.714 8491
-1.662 1.789 1.711 7043
-1.670 1.797 1.709 5713
-1.673 1.800 1.702 4408
-1.694 1.823 1.712 3345
-1.725 1.856 1.731 4170
-1.728 1.859 1.723 6065
-1.731 1.862 1.716 7961
-1.734 1.866 1.709 7903
-1.732 1.864 1.697 7930
-1.740 1.872 1.694 5809
-1.748 1.881 1.691 3882
-1.760 1.894 1.692 4054
-1.768 1.902 1.689 4407
-1.831 1.970 1.735 4208
-1.834 1.973 1.727 4704
-1.832 1.972 1.715 4390
-1.831 1.970 1.703 3780
-1.839 1.978 1.700 3276
-1.846 1.987 1.696 5412
-1.854 1.995 1.692 7623
-1.862 2.003 1.688 8772
-1.865 2.007 1.680 10041
-1.873 2.015 1.676 8344
-1.895 2.039 1.684 8208
-1.898 2.042 1.676 7412
-1.952 2.101 1.711 7281
-1.960 2.109 1.706 7655
-1.959 2.108 1.694 8213
-1.962 2.111 1.686 8901
-1.965 2.114 1.678 7697
-1.963 2.112 1.666 5379
-1.966 2.116 1.657 4287
-2.060 2.216 1.720 4445
-2.072 2.230 1.719 6192
-2.080 2.238 1.713 6179
-2.088 2.247 1.708 6522
-2.101 2.260 1.707 7707
-2.104 2.264 1.698 7995
-2.112 2.272 1.693 6551
-2.110 2.270 1.680 6141
-2.099 2.258 1.661 8455
-2.111 2.272 1.659 8443
-2.129 2.291 1.660 9299
-2.132 2.294 1.651 9254
-2.144 2.307 1.649 9066
-2.157 2.321 1.647 7059
-2.267 2.439 1.714 6281
-2.280 2.453 1.711 6502
-2.288 2.462 1.705 6506
-2.301 2.476 1.702 8461
-2.309 2.484 1.695 9729
-2.317 2.493 1.689 8967
-2.315 2.491 1.676 6901
-2.342 2.520 1.682 6189
-2.345 2.524 1.673 5969
-2.398 2.580 1.695 5023
-2.401 2.583 1.685 6089
-2.404 2.586 1.675 5069
-2.427 2.611 1.677 4124
-2.444 2.630 1.677 3992
-2.462 2.649 1.676 6933
-2.470 2.658 1.668 8785
-2.478 2.667 1.661 6556
-2.516 2.707 1.672 7216
-2.529 2.721 1.667 7604
-2.542 2.735 1.663 7348
-2.575 2.771 1.670 5284
-2.583 2.779 1.662 6316
-2.581 2.777 1.648 6363
-2.664 2.867 1.684 5237
-2.682 2.886 1.682 6337
-2.690 2.895 1.673 7458
-2.693 2.898 1.662 6809
-2.747 2.955 1.679 6377
-2.755 2.964 1.670 6141
-2.758 2.967 1.659 4516
-2.766 2.976 1.650 4278
-2.839 3.055 1.677 5205
-2.842 3.058 1.665 4164
-2.866 3.084 1.664 4347
-2.874 3.092 1.654 5639
-2.877 3.095 1.642 4839
-2.900 3.120 1.641 4616
-3.005 3.233 1.681 3580
-2.952 3.176 1.640 3525
-3.016 3.245 1.658 4336
-3.024 3.254 1.648 4652
-3.063 3.295 1.653 3561
-3.066 3.299 1.640 4024
-3.063 3.296 1.625 4431
-3.066 3.299 1.612 3501
-3.243 3.490 1.682 3593
-3.257 3.504 1.673 3547
-3.260 3.508 1.660 2376
-3.232 3.478 1.631 2788
-3.240 3.486 1.620 2876
-3.294 3.545 1.630 4205
-3.292 3.543 1.614 4211
-3.409 3.668 1.650 2934
-3.406 3.665 1.634 3265
-3.404 3.663 1.617 3481
-3.598 3.872 1.685 2541
-3.570 3.842 1.657 4173
-3.579 3.851 1.644 4105
-3.659 3.937 1.661 3491
-3.673 3.952 1.650 3097
-3.629 3.905 1.615 2929
-3.658 3.936 1.610 2783
-3.796 4.084 1.649 2788
-3.788 4.076 1.629 4788
-3.791 4.080 1.613 5764
-3.805 4.094 1.601 4228
-3.922 4.221 1.629 2403
-3.920 4.218 1.610 2290
-4.226 4.547 1.707 1552
-4.213 4.534 1.683 1974
-4.206 4.526 1.661 2518
-4.204 4.523 1.641 2449
-4.296 4.622 1.655 2959
-4.283 4.609 1.631 3035
-4.328 4.657 1.628 2868
-4.331 4.660 1.609 2263
-4.538 4.884 1.660 1869
-4.605 4.955 1.662 1640
-4.828 5.196 1.715 1601
-4.837 5.205 1.696 1812
-4.803 5.168 1.663 2205
-4.811 5.177 1.645 1951
-4.846 5.214 1.634 2068
-5.350 5.757 1.767 1520
-5.353 5.760 1.744 2374
-5.362 5.769 1.723 3332
-5.370 5.778 1.701 2522
-5.638 6.066 1.755 2230
-5.646 6.075 1.732 2433
-5.729 6.164 1.730 2001
-5.727 6.162 1.705 2621
-5.836 6.279 1.709 3322
-5.839 6.283 1.684 4354
-5.842 6.286 1.659 4563
-5.845 6.289 1.634 3537
-6.076 6.538 1.667 2796
-6.079 6.541 1.641 2621
-6.231 6.705 1.651 3021
-6.234 6.708 1.625 2469
-6.237 6.711 1.598 1303
-6.245 6.720 1.573 994
-6.258 6.734 1.549 755
-6.261 6.737 1.522 506
-6.264 6.740 1.495 371
-2.849 3.066 -0.146 273
-2.849 3.065 -0.158 314
-2.843 3.059 -0.169 359
-2.842 3.058 -0.181 386
-2.847 3.063 -0.194 412
-2.846 3.062 -0.206 375
-2.840 3.056 -0.217 338
-2.839 3.055 -0.229 338
-2.839 3.054 -0.241 345
-2.838 3.053 -0.253 352
-2.832 3.047 -0.265 486
-2.831 3.046 -0.277 623
-2.830 3.045 -0.288 623
-2.829 3.044 -0.300 311
-1.562 1.686 1.792 2433
-1.566 1.690 1.786 4867
-1.569 1.693 1.779 4867
-1.572 1.697 1.773 3478
-1.540 1.662 1.729 2861
-1.600 1.727 1.783 3743
-1.599 1.726 1.771 5097
-1.602 1.729 1.765 5097
-1.601 1.728 1.753 7625
-1.604 1.732 1.747 10227
-1.608 1.735 1.740 9309
-1.615 1.743 1.738 8469
-1.627 1.756 1.740 7725
-1.635 1.764 1.737 7770
-1.643 1.773 1.735 9006
-1.646 1.776 1.728 10299
-1.649 1.779 1.721 10257
-1.652 1.783 1.714 8514
-1.664 1.796 1.716 7155
-1.667 1.799 1.709 5749
-1.670 1.803 1.702 4344
-1.701 1.835 1.721 4054
-1.717 1.853 1.726 4954
-1.725 1.862 1.723 6586
-1.728 1.865 1.716 8346
-1.731 1.868 1.709 8269
-1.734 1.872 1.701 8191
-1.737 1.875 1.694 5879
-1.745 1.883 1.691 3674
-1.757 1.896 1.692 3698
-1.765 1.905 1.689 3873
-1.823 1.968 1.730 3776
-1.826 1.971 1.723 3992
-1.830 1.974 1.715 4103
-1.833 1.978 1.707 3985
-1.836 1.981 1.700 3557
-1.844 1.990 1.696 5146
-1.847 1.993 1.688 6918
-1.854 2.001 1.684 8056
-1.862 2.010 1.680 9312
-1.870 2.018 1.676 7845
-1.892 2.041 1.684 8284
-1.899 2.050 1.680 7591
-1.945 2.099 1.707 8106
-1.957 2.112 1.706 8416
-1.960 2.115 1.698 8640
-1.963 2.119 1.690 8864
-1.966 2.122 1.682 7181
-1.965 2.120 1.669 4563
-2.034 2.195 1.714 4897
-2.052 2.214 1.716 5357
-2.069 2.233 1.719 6896
-2.077 2.241 1.713 6949
-2.089 2.255 1.712 7012
-2.102 2.269 1.710 7599
-2.100 2.267 1.698 7459
-2.108 2.275 1.693 6599
-2.111 2.279 1.684 6587
-2.100 2.266 1.664 8804
-2.108 2.275 1.659 8906
-2.125 2.294 1.660 8982
-2.128 2.297 1.651 8304
-2.141 2.311 1.649 8308
-2.159 2.329 1.651 6517
-2.263 2.443 1.714 6655
-2.281 2.462 1.714 7019
-2.284 2.465 1.705 7055
-2.297 2.479 1.702 8701
-2.305 2.488 1.695 9869
-2.308 2.491 1.686 9189
-2.311 2.494 1.676 7194
-2.334 2.519 1.679 5960
-2.342 2.527 1.673 6045
-2.330 2.515 1.653 4924
-2.392 2.581 1.682 5573
-2.405 2.595 1.678 4417
-2.423 2.615 1.677 3824
-2.441 2.634 1.677 3992
-2.458 2.653 1.676 7458
-2.466 2.662 1.668 9128
-2.474 2.670 1.661 6525
-2.512 2.711 1.672 6962
-2.525 2.725 1.667 7502
-2.543 2.744 1.666 7662
-2.566 2.769 1.667 5899
-2.579 2.783 1.662 6503
-2.582 2.786 1.651 6339
-2.670 2.881 1.690 5260
-2.683 2.895 1.685 7271
-2.681 2.893 1.671 8104
-2.689 2.902 1.662 6824
-2.742 2.959 1.679 6146
-2.750 2.968 1.670 6132
-2.758 2.977 1.662 4840
-2.771 2.991 1.655 4949
-2.835 3.059 1.677 5076
-2.838 3.063 1.665 4220
-2.861 3.088 1.664 4580
-2.864 3.091 1.652 5484
-2.872 3.100 1.642 4465
-2.890 3.119 1.638 4470
-3.000 3.237 1.681 3984
-2.947 3.180 1.640 3558
-3.011 3.249 1.658 4292
-3.014 3.253 1.645 3771
-3.063 3.305 1.656 3557
-3.061 3.303 1.640 3842
-3.059 3.301 1.625 4003
-3.056 3.298 1.609 3529
-3.238 3.495 1.682 3452
-3.252 3.509 1.673 3880
-3.255 3.512 1.660 2758
-3.227 3.482 1.631 2645
-3.230 3.486 1.618 2749
-3.289 3.550 1.630 4244
-3.287 3.547 1.614 4062
-3.403 3.673 1.650 2415
-3.401 3.670 1.634 2937
-3.394 3.662 1.615 3461
-3.598 3.883 1.688 2494
-3.560 3.841 1.655 4158
-3.568 3.850 1.642 3815
-3.648 3.937 1.659 3642
-3.667 3.957 1.650 3344
-3.618 3.904 1.613 2947
-3.657 3.947 1.613 2754
-3.847 4.152 1.672 2698
-3.850 4.155 1.656 4266
-3.853 4.158 1.639 4896
-3.856 4.161 1.623 3394
-3.854 4.159 1.605 2465
-3.857 4.162 1.588 2317
-3.964 4.278 1.611 1661
-4.134 4.461 1.656 1671
-4.126 4.453 1.634 2227
-4.197 4.529 1.641 2232
-4.294 4.634 1.657 2531
-4.302 4.643 1.640 2590
-4.316 4.658 1.626 3072
-4.319 4.661 1.607 2557
-4.537 4.896 1.662 1842
-4.592 4.956 1.660 1677
-4.810 5.191 1.711 1692
-4.803 5.183 1.687 1886
-4.795 5.175 1.663 2127
-4.809 5.190 1.646 1869
-4.844 5.227 1.636 2195
-5.152 5.560 1.709 1720
-5.345 5.768 1.744 2480
-5.353 5.777 1.723 3373
-5.362 5.786 1.701 2484
-5.629 6.075 1.755 2181
-5.637 6.084 1.732 2394
-5.720 6.173 1.730 1765
-5.829 6.290 1.735 2385
-5.826 6.288 1.709 3702
-5.830 6.291 1.684 4380
-5.833 6.294 1.659 4429
-5.836 6.298 1.634 3646
-6.067 6.547 1.667 3391
-6.070 6.550 1.641 3053
-6.221 6.714 1.651 2337
-6.224 6.717 1.625 1854
-6.089 6.571 1.566 1536
-6.092 6.574 1.540 1214
-6.094 6.577 1.514 671
-6.097 6.580 1.488 339
-6.254 6.749 1.495 257
-2.851 3.076 -0.134 288
-2.850 3.076 -0.146 351
-2.844 3.069 -0.158 400
-2.844 3.069 -0.170 452
-2.843 3.068 -0.182 483
-2.842 3.067 -0.194 515
-2.842 3.067 -0.206 491
-2.841 3.066 -0.218 467
-2.840 3.065 -0.230 467
-2.834 3.058 -0.241 420
-2.828 3.052 -0.253 395
-2.827 3.051 -0.265 493
-2.826 3.050 -0.277 590
-2.825 3.049 -0.288 590
-2.825 3.048 -0.300 295
-1.562 1.695 1.797 2485
-1.565 1.698 1.791 4970
-1.569 1.702 1.784 4970
-1.576 1.710 1.782 3472
-1.593 1.728 1.789 2794
-1.592 1.727 1.778 4281
-1.595 1.730 1.771 5871
-1.598 1.734 1.765 5871
-1.597 1.732 1.753 8673
-1.600 1.736 1.747 11552
-1.603 1.739 1.740 10387
-1.611 1.747 1.738 9312
-1.618 1.756 1.735 8156
-1.630 1.769 1.737 7714
-1.638 1.777 1.735 8839
-1.641 1.780 1.728 10107
-1.644 1.784 1.721 10065
-1.647 1.787 1.714 8363
-1.659 1.800 1.716 7115
-1.663 1.804 1.709 5683
-1.688 1.831 1.723 4691
-1.705 1.849 1.729 5328
-1.708 1.853 1.722 6110
-1.716 1.861 1.719 7264
-1.728 1.874 1.720 8801
-1.726 1.873 1.709 8709
-1.729 1.876 1.701 8632
-1.737 1.884 1.698 6064
-1.763 1.913 1.712 3618
-1.748 1.896 1.688 3407
-1.810 1.964 1.734 3502
-1.814 1.967 1.726 3530
-1.817 1.971 1.719 3558
-1.824 1.979 1.715 3967
-1.832 1.988 1.711 4478
-1.835 1.991 1.704 4067
-1.838 1.994 1.696 4929
-1.837 1.993 1.684 6081
-1.849 2.006 1.684 7208
-1.852 2.009 1.676 8510
-1.865 2.023 1.676 7296
-1.886 2.046 1.684 8246
-1.922 2.085 1.703 8048
-1.939 2.104 1.707 9089
-1.947 2.112 1.702 9273
-1.955 2.121 1.698 8980
-1.963 2.129 1.694 8906
-1.961 2.127 1.682 6699
-2.021 2.192 1.718 4639
-2.033 2.206 1.717 5930
-2.046 2.219 1.716 6494
-2.063 2.238 1.719 7570
-2.071 2.247 1.713 7602
-2.088 2.265 1.716 7437
-2.096 2.274 1.710 7532
-2.099 2.277 1.702 6931
-2.107 2.286 1.696 6906
-2.110 2.289 1.687 7255
-2.094 2.272 1.664 8940
-2.102 2.280 1.659 8955
-2.115 2.294 1.657 7976
-2.180 2.365 1.693 8101
-2.198 2.384 1.695 7596
-2.210 2.398 1.692 7135
-2.257 2.448 1.714 7026
-2.275 2.468 1.714 7757
-2.278 2.471 1.705 7346
-2.291 2.485 1.702 8193
-2.299 2.493 1.695 9165
-2.302 2.497 1.686 8653
-2.305 2.500 1.676 7134
-2.322 2.519 1.676 5749
-2.330 2.528 1.669 5825
-2.377 2.579 1.689 4846
-2.380 2.582 1.678 5238
-2.393 2.596 1.675 3809
-2.421 2.626 1.680 3740
-2.434 2.640 1.677 4336
-2.452 2.659 1.676 7546
-2.460 2.668 1.668 8613
-2.467 2.677 1.661 5962
-2.505 2.718 1.672 6898
-2.523 2.737 1.670 7351
-2.541 2.756 1.669 7781
-2.559 2.776 1.667 6335
-2.572 2.790 1.662 6580
-2.575 2.793 1.651 6284
-2.672 2.899 1.696 5438
-2.675 2.902 1.685 8066
-2.673 2.900 1.671 8639
-2.681 2.909 1.662 6589
-2.740 2.972 1.682 5931
-2.743 2.975 1.670 6256
-2.756 2.989 1.664 5619
-2.764 2.998 1.655 5990
-2.817 3.056 1.671 4842
-2.830 3.070 1.665 4140
-2.858 3.101 1.666 5111
-2.861 3.104 1.654 5640
-2.884 3.129 1.653 4395
-2.988 3.242 1.694 4198
-2.997 3.251 1.684 4313
-2.995 3.248 1.668 4034
-2.998 3.252 1.656 4582
-2.909 3.156 1.597 3597
-3.054 3.313 1.656 3415
-3.047 3.306 1.638 3522
-3.131 3.397 1.665 3991
-3.048 3.306 1.609 3366
-3.234 3.509 1.685 3281
-3.243 3.517 1.673 4073
-3.246 3.521 1.660 3034
-3.223 3.496 1.634 2612
-3.277 3.555 1.644 2922
-3.275 3.553 1.628 4107
-3.278 3.556 1.614 3754
-3.399 3.687 1.653 2247
-3.392 3.679 1.634 2579
-3.384 3.671 1.615 3283
-3.588 3.892 1.688 2460
-3.544 3.845 1.652 4295
-3.553 3.854 1.640 3775
-3.633 3.941 1.657 3720
-3.657 3.967 1.650 3588
-3.820 4.144 1.701 3236
-3.833 4.158 1.689 2832
-3.841 4.167 1.674 3261
-3.839 4.165 1.656 4562
-3.842 4.168 1.639 4977
-3.845 4.171 1.623 3895
-3.848 4.174 1.607 3217
-3.846 4.172 1.588 2948
-3.947 4.282 1.609 1810
-4.117 4.466 1.654 2062
-4.115 4.464 1.634 2598
-4.107 4.455 1.613 2115
-4.407 4.781 1.702 2298
-4.296 4.660 1.642 2301
-4.304 4.669 1.626 2984
-4.301 4.666 1.606 2580
-4.534 4.919 1.665 1841
-4.574 4.962 1.658 1738
-4.797 5.204 1.711 1768
-4.790 5.196 1.687 1912
-4.787 5.193 1.665 1984
-4.827 5.236 1.656 1883
-4.830 5.240 1.636 2310
-5.138 5.573 1.709 2027
-5.330 5.782 1.744 2444
-5.338 5.791 1.723 3261
-5.341 5.794 1.700 2348
-5.613 6.089 1.755 1972
-5.622 6.098 1.732 2198
-5.904 6.405 1.787 1617
-5.812 6.305 1.735 2573
-5.810 6.303 1.709 3887
-5.813 6.306 1.684 4195
-5.816 6.310 1.659 4096
-5.819 6.313 1.634 3651
-6.055 6.568 1.668 4002
-6.053 6.566 1.641 3550
-6.050 6.563 1.614 2539
-6.053 6.566 1.588 1823
-6.072 6.587 1.566 1807
-6.075 6.590 1.540 1420
-6.077 6.593 1.514 780
-6.075 6.590 1.487 403
-6.072 6.587 1.459 254
-2.846 3.087 -0.049 256
-2.845 3.087 -0.061 287
-2.840 3.081 -0.073 286
-2.839 3.080 -0.085 290
-2.833 3.074 -0.097 315
-2.838 3.079 -0.109 338
-2.838 3.078 -0.121 342
-2.843 3.084 -0.134 409
-2.842 3.083 -0.146 483
-2.836 3.077 -0.158 540
-2.836 3.076 -0.170 606
-2.835 3.075 -0.182 651
-2.834 3.075 -0.194 695
-2.834 3.074 -0.206 676
-2.833 3.073 -0.218 657
-2.832 3.072 -0.230 657
-2.831 3.072 -0.242 580
-2.825 3.065 -0.253 524
-2.819 3.058 -0.265 517
-2.818 3.057 -0.277 520
-2.818 3.057 -0.288 520
-2.817 3.056 -0.300 260
-1.559 1.697 1.797 2601
-1.563 1.701 1.791 5202
-1.566 1.704 1.784 5202
-1.578 1.717 1.787 3853
-1.590 1.730 1.789 3180
-1.589 1.729 1.778 4763
-1.592 1.733 1.771 6376
-1.595 1.736 1.765 6376
-1.594 1.735 1.753 9317
-1.597 1.738 1.747 12312
-1.600 1.742 1.740 10954
-1.608 1.750 1.738 9700
-1.615 1.758 1.735 8424
-1.627 1.771 1.737 7698
-1.635 1.780 1.735 8760
-1.638 1.783 1.728 10075
-1.641 1.787 1.721 10028
-1.644 1.790 1.714 8349
-1.656 1.803 1.716 7238
-1.659 1.806 1.709 5757
-1.698 1.849 1.736 5788
-1.702 1.852 1.729 6390
-1.705 1.856 1.722 6993
-1.712 1.864 1.719 7696
-1.725 1.877 1.720 9136
-1.728 1.881 1.713 9080
-1.731 1.884 1.706 9025
-1.734 1.887 1.698 6232
-1.760 1.916 1.712 3589
-1.763 1.919 1.704 3128
-1.807 1.967 1.734 3597
-1.806 1.966 1.722 3647
-1.809 1.969 1.715 3702
-1.826 1.987 1.719 4405
-1.829 1.991 1.711 5373
-1.832 1.994 1.704 4939
-1.830 1.992 1.692 4871
-1.833 1.996 1.684 5267
-1.841 2.004 1.680 6177
-1.849 2.012 1.676 7407
-1.875 2.041 1.688 6729
-1.883 2.049 1.684 8003
-1.918 2.088 1.703 8344
-1.931 2.102 1.703 9639
-1.943 2.115 1.702 9727
-1.951 2.124 1.698 8994
-1.964 2.137 1.697 8888
-1.962 2.136 1.685 6291
-2.017 2.195 1.718 5146
-2.029 2.209 1.717 6659
-2.042 2.223 1.716 7344
-2.059 2.242 1.719 8017
-2.072 2.255 1.717 8039
-2.084 2.269 1.716 7602
-2.092 2.278 1.710 7189
-2.095 2.281 1.702 6283
-2.103 2.290 1.696 7066
-2.102 2.288 1.684 7814
-2.090 2.275 1.664 9001
-2.098 2.284 1.659 8881
-2.163 2.355 1.696 7471
-2.176 2.369 1.693 8467
-2.194 2.388 1.695 8388
-2.202 2.396 1.689 7976
-2.253 2.452 1.714 7165
-2.275 2.477 1.718 8669
-2.278 2.480 1.708 8009
-2.286 2.489 1.702 7728
-2.294 2.497 1.695 7910
-2.297 2.501 1.686 7517
-2.305 2.509 1.679 6605
-2.313 2.518 1.673 5573
-2.321 2.527 1.666 5176
-2.368 2.578 1.685 4795
-2.376 2.586 1.678 4923
-2.379 2.590 1.668 3569
-2.416 2.630 1.680 3844
-2.429 2.644 1.677 4597
-2.447 2.664 1.676 7152
-2.455 2.672 1.668 7759
-2.483 2.702 1.673 5226
-2.500 2.722 1.672 6890
-2.518 2.741 1.670 7123
-2.536 2.761 1.669 7621
-2.549 2.775 1.664 6776
-2.567 2.794 1.662 6864
-2.570 2.797 1.651 6315
-2.672 2.909 1.699 5553
-2.675 2.912 1.688 8348
-2.668 2.905 1.671 8547
-2.676 2.913 1.662 5933
-2.734 2.977 1.682 5508
-2.742 2.985 1.673 6153
-2.750 2.994 1.664 6241
-2.758 3.003 1.655 6550
-2.792 3.039 1.660 4804
-2.800 3.048 1.651 3835
-2.858 3.111 1.669 5343
-2.861 3.114 1.657 5593
-2.879 3.134 1.653 4199
-2.983 3.247 1.694 4106
-2.991 3.256 1.684 4467
-2.984 3.248 1.666 4412
-2.992 3.257 1.656 4871
-2.995 3.260 1.643 3524
-3.023 3.291 1.643 3610
-3.128 3.405 1.681 3419
-3.126 3.402 1.665 4016
-3.118 3.395 1.646 3495
-3.167 3.448 1.655 3301
-3.236 3.523 1.673 4068
-3.239 3.526 1.660 3200
-3.273 3.563 1.660 2604
-3.266 3.555 1.641 3272
-3.269 3.558 1.628 3789
-3.287 3.578 1.621 3195
-3.392 3.693 1.653 2332
-3.385 3.685 1.634 2129
-3.378 3.677 1.615 2876
-3.550 3.865 1.674 2245
-3.528 3.840 1.648 4420
-3.531 3.843 1.633 3690
-3.621 3.942 1.655 3652
-3.655 3.979 1.652 3292
-3.818 4.156 1.703 3878
-3.826 4.165 1.689 3169
-3.834 4.174 1.674 3306
-3.837 4.177 1.658 4270
-3.840 4.180 1.641 4569
-3.854 4.195 1.629 4119
-3.841 4.181 1.607 3947
-3.839 4.179 1.588 3606
-4.106 4.470 1.671 1864
-4.109 4.473 1.654 2313
-4.107 4.471 1.634 2767
-4.105 4.468 1.615 2274
-4.399 4.789 1.702 2217
-4.407 4.798 1.685 2133
-4.290 4.670 1.624 2809
-4.293 4.674 1.606 2564
-4.531 4.932 1.667 1811
-4.565 4.970 1.658 1724
-4.793 5.218 1.713 1728
-4.786 5.210 1.689 1914
-4.784 5.207 1.667 1857
-4.818 5.245 1.656 2015
-4.826 5.254 1.637 2338
-5.128 5.582 1.709 2213
-5.126 5.580 1.685 2419
-5.328 5.800 1.723 3011
-5.337 5.809 1.701 2163
-5.608 6.104 1.756 1643
-5.611 6.108 1.732 1901
-5.893 6.415 1.787 1869
-5.807 6.321 1.737 2551
-5.799 6.313 1.709 3769
-5.802 6.316 1.684 3844
-5.805 6.320 1.659 3692
-5.893 6.415 1.656 4404
-6.044 6.579 1.668 4271
-6.041 6.576 1.641 3675
-6.044 6.579 1.615 2519
-6.047 6.583 1.589 1933
-6.055 6.591 1.564 2047
-6.063 6.600 1.540 1556
-6.066 6.603 1.514 799
-6.063 6.600 1.487 399
-2.842 3.093 -0.013 263
-2.841 3.093 -0.025 311
-2.841 3.092 -0.037 359
-2.841 3.092 -0.049 388
-2.840 3.092 -0.061 417
-2.840 3.091 -0.074 410
-2.834 3.085 -0.085 418
-2.834 3.084 -0.097 426
-2.833 3.084 -0.109 441
-2.833 3.083 -0.121 446
-2.837 3.089 -0.134 523
-2.837 3.088 -0.146 610
-2.836 3.087 -0.158 681
-2.830 3.081 -0.170 761
-2.830 3.080 -0.182 805
-2.829 3.080 -0.194 850
-2.828 3.079 -0.206 811
-2.828 3.078 -0.218 773
-2.827 3.077 -0.230 773
-2.826 3.076 -0.242 726
-2.825 3.076 -0.254 679
-2.819 3.069 -0.265 790
-2.818 3.068 -0.277 903
-2.818 3.067 -0.289 903
-2.817 3.066 -0.301 451
-1.555 1.701 1.797 2720
-1.559 1.705 1.791 5440
-1.562 1.708 1.784 5440
-1.574 1.721 1.787 4339
-1.581 1.729 1.785 3711
-1.585 1.733 1.778 5211
-1.583 1.732 1.767 6713
-1.587 1.735 1.760 6713
-1.590 1.739 1.753 9673
-1.593 1.742 1.747 12632
-1.596 1.746 1.740 11103
-1.604 1.754 1.738 9653
-1.611 1.762 1.735 8352
-1.619 1.770 1.733 7505
-1.626 1.779 1.730 8654
-1.634 1.787 1.728 10041
-1.637 1.790 1.721 9971
-1.640 1.794 1.714 8297
-1.652 1.807 1.716 7219
-1.660 1.815 1.713 5730
-1.694 1.853 1.736 6816
-1.697 1.856 1.729 7226
-1.700 1.860 1.722 7636
-1.708 1.868 1.719 7974
-1.720 1.881 1.720 9247
-1.723 1.885 1.713 9172
-1.726 1.888 1.706 9098
-1.729 1.891 1.698 6161
-1.755 1.920 1.712 3598
-1.758 1.923 1.704 3142
-1.798 1.966 1.730 4063
-1.801 1.970 1.722 4078
-1.804 1.973 1.715 4092
-1.821 1.992 1.719 4910
-1.824 1.995 1.711 6097
-1.827 1.998 1.704 5807
-1.826 1.997 1.692 4867
-1.870 2.045 1.720 4398
-1.836 2.008 1.680 5091
-1.900 2.078 1.724 6174
-1.903 2.081 1.716 6171
-1.878 2.054 1.684 7468
-1.914 2.093 1.703 8345
-1.926 2.106 1.703 9932
-1.938 2.120 1.702 9852
-1.946 2.128 1.698 8673
-1.963 2.147 1.701 8573
-1.976 2.161 1.700 5944
-2.016 2.205 1.722 5575
-2.029 2.219 1.721 7197
-2.037 2.228 1.716 7994
-2.054 2.246 1.719 8236
-2.067 2.260 1.717 8257
-2.079 2.274 1.716 7561
-2.087 2.282 1.710 6682
-2.090 2.286 1.702 5567
-2.098 2.294 1.696 7137
-2.096 2.293 1.684 8477
-2.090 2.285 1.668 9059
-2.093 2.289 1.659 8604
-2.158 2.360 1.696 7386
-2.171 2.374 1.693 8660
-2.183 2.388 1.691 8748
-2.196 2.402 1.689 8277
-2.271 2.484 1.731 7769
-2.274 2.487 1.721 9791
-2.273 2.485 1.708 8958
-2.276 2.489 1.698 7616
-2.284 2.497 1.692 6670
-2.291 2.506 1.686 6206
-2.304 2.520 1.682 6075
-2.307 2.523 1.673 5394
-2.310 2.527 1.663 4563
-2.362 2.583 1.685 5058
-2.365 2.587 1.675 5027
-2.363 2.584 1.662 4005
-2.351 2.572 1.642 4352
-2.359 2.580 1.636 5267
-2.436 2.664 1.672 6569
-2.449 2.678 1.668 6597
-2.506 2.740 1.692 5326
-2.494 2.728 1.672 6845
-2.512 2.747 1.670 6836
-2.530 2.767 1.669 7415
-2.543 2.781 1.664 7219
-2.555 2.795 1.659 7429
-2.563 2.803 1.651 6290
-2.666 2.915 1.699 5524
-2.669 2.919 1.688 8093
-2.662 2.911 1.671 8050
-2.670 2.920 1.662 5037
-2.732 2.988 1.685 5130
-2.735 2.992 1.673 6367
-2.744 3.000 1.664 7126
-2.751 3.009 1.655 7170
-2.759 3.018 1.646 4759
-2.787 3.049 1.648 3345
-2.851 3.118 1.669 5287
-2.854 3.121 1.657 5390
-2.842 3.108 1.637 3925
-2.980 3.259 1.696 3839
-2.983 3.263 1.684 4316
-2.976 3.255 1.666 4436
-2.979 3.258 1.653 4884
-3.008 3.289 1.653 3620
-3.021 3.304 1.645 4157
-3.034 3.318 1.638 3554
-3.118 3.410 1.665 3804
-3.105 3.396 1.644 3927
-3.083 3.372 1.618 3820
-3.228 3.531 1.673 3943
-3.231 3.534 1.660 3231
-3.219 3.520 1.639 2571
-3.258 3.563 1.641 3493
-3.261 3.566 1.628 3371
-3.284 3.591 1.623 3037
-3.282 3.589 1.607 2536
-3.346 3.659 1.620 1809
-3.359 3.674 1.610 2343
-3.531 3.862 1.670 2185
-3.519 3.848 1.648 4499
-3.516 3.846 1.631 3646
-3.586 3.922 1.644 3575
-3.620 3.959 1.642 3281
-3.808 4.165 1.703 4292
-3.816 4.174 1.689 3322
-3.830 4.188 1.676 2988
-3.827 4.186 1.658 3622
-3.836 4.195 1.643 3998
-3.844 4.204 1.629 4510
-3.836 4.196 1.609 4364
-3.829 4.187 1.588 3606
-4.096 4.479 1.671 2027
-4.099 4.483 1.654 2476
-4.096 4.480 1.634 2777
-4.089 4.472 1.613 2251
-4.222 4.617 1.642 2775
-4.235 4.632 1.628 2261
-4.280 4.680 1.624 2528
-4.376 4.786 1.638 2598
-4.369 4.778 1.616 2050
-4.554 4.980 1.658 1676
-4.781 5.229 1.713 1667
-4.784 5.232 1.692 1971
-4.803 5.253 1.677 1797
-4.806 5.256 1.656 2133
-4.814 5.265 1.637 2374
-5.115 5.594 1.709 2258
-5.113 5.592 1.685 2400
-5.315 5.813 1.723 2658
-5.323 5.822 1.701 2036
-5.337 5.837 1.682 1808
-5.345 5.846 1.660 1777
-5.873 6.423 1.785 2115
-5.792 6.334 1.737 2316
-5.790 6.332 1.710 3418
-5.903 6.456 1.715 3428
-5.885 6.437 1.684 3967
-5.878 6.428 1.656 5158
-5.886 6.437 1.632 4797
-6.026 6.590 1.641 3490
-6.029 6.593 1.615 2375
-6.032 6.597 1.589 1959
-6.040 6.606 1.564 2101
-6.048 6.614 1.540 1530
-6.051 6.617 1.514 769
-6.048 6.614 1.487 393
-2.840 3.106 -0.001 293
-2.840 3.106 -0.013 367
-2.834 3.099 -0.025 446
-2.834 3.099 -0.037 528
-2.833 3.099 -0.049 564
-2.833 3.098 -0.061 600
-2.833 3.098 -0.074 590
-2.827 3.092 -0.085 586
-2.826 3.091 -0.097 563
-2.826 3.090 -0.109 545
-2.825 3.090 -0.121 551
-2.830 3.095 -0.134 616
-2.830 3.095 -0.146 692
-2.829 3.094 -0.158 776
-2.823 3.087 -0.170 865
-2.822 3.087 -0.182 928
-2.822 3.086 -0.194 991
-2.821 3.085 -0.206 927
-2.820 3.085 -0.218 863
-2.820 3.084 -0.230 863
-2.819 3.083 -0.242 778
-2.818 3.082 -0.254 693
-2.812 3.075 -0.265 756
-2.811 3.075 -0.277 837
-2.810 3.074 -0.289 837
-2.810 3.073 -0.301 418
-1.551 1.705 1.797 2866
-1.554 1.709 1.791 5733
-1.557 1.712 1.784 5733
-1.565 1.721 1.782 4891
-1.572 1.729 1.780 4295
-1.575 1.733 1.773 5507
-1.579 1.736 1.767 6718
-1.582 1.740 1.760 6718
-1.585 1.743 1.753 9529
-1.588 1.747 1.747 12339
-1.591 1.750 1.740 10700
-1.599 1.758 1.738 9137
-1.606 1.767 1.735 8066
-1.614 1.775 1.733 7280
-1.621 1.783 1.730 8355
-1.629 1.791 1.728 9788
-1.632 1.795 1.721 9713
-1.635 1.798 1.714 8119
-1.647 1.811 1.716 7149
-1.686 1.854 1.744 6403
-1.689 1.857 1.736 7606
-1.692 1.861 1.729 7865
-1.695 1.864 1.722 8123
-1.707 1.878 1.723 8173
-1.715 1.886 1.720 9419
-1.723 1.894 1.717 9373
-1.726 1.898 1.710 9354
-1.729 1.901 1.703 6224
-1.745 1.919 1.708 3544
-1.780 1.958 1.729 3457
-1.788 1.966 1.726 4652
-1.796 1.975 1.722 4597
-1.803 1.983 1.719 4627
-1.816 1.997 1.719 5450
-1.819 2.000 1.711 6742
-1.817 1.998 1.700 6705
-1.820 2.002 1.692 4992
-1.869 2.056 1.724 4004
-1.886 2.074 1.728 4657
-1.894 2.083 1.724 5706
-1.897 2.086 1.716 5650
-1.872 2.059 1.684 6781
-1.908 2.098 1.703 8083
-1.920 2.112 1.703 9874
-1.928 2.120 1.699 9695
-1.940 2.134 1.698 8150
-1.962 2.158 1.705 8201
-1.974 2.171 1.704 5962
-2.010 2.211 1.722 5868
-2.023 2.225 1.721 7426
-2.031 2.233 1.716 8255
-2.048 2.252 1.719 8226
-2.060 2.266 1.717 8378
-2.073 2.280 1.716 7435
-2.081 2.288 1.710 6449
-2.079 2.286 1.698 5622
-2.087 2.295 1.693 7647
-2.085 2.293 1.680 9489
-2.083 2.291 1.668 9647
-2.091 2.300 1.662 8584
-2.147 2.361 1.692 7587
-2.159 2.375 1.690 8861
-2.177 2.394 1.691 8867
-2.185 2.402 1.685 8338
-2.264 2.490 1.731 8904
-2.267 2.494 1.721 11519
-2.271 2.497 1.711 10437
-2.274 2.500 1.702 8018
-2.277 2.504 1.692 5742
-2.304 2.534 1.699 5159
-2.307 2.537 1.689 6396
-2.315 2.546 1.682 6217
-2.323 2.554 1.676 4705
-2.355 2.590 1.685 4851
-2.411 2.652 1.711 4612
-2.400 2.639 1.691 4474
-2.403 2.643 1.680 5140
-2.352 2.587 1.636 5977
-2.429 2.671 1.672 5862
-2.436 2.679 1.665 4927
-2.503 2.753 1.695 5442
-2.491 2.740 1.675 6932
-2.504 2.754 1.670 6595
-2.522 2.774 1.669 7044
-2.530 2.782 1.661 7443
-2.543 2.796 1.656 7833
-2.556 2.811 1.651 5921
-2.658 2.923 1.699 5211
-2.661 2.926 1.688 7387
-2.654 2.918 1.671 7285
-2.652 2.916 1.656 4086
-2.724 2.996 1.685 4654
-2.727 2.999 1.673 6872
-2.735 3.008 1.664 8095
-2.738 3.011 1.653 7588
-2.751 3.025 1.646 4548
-2.844 3.128 1.684 2807
-2.847 3.131 1.672 4911
-2.840 3.123 1.654 5056
-2.828 3.110 1.634 4094
-2.861 3.146 1.638 3601
-2.869 3.155 1.628 4348
-2.967 3.263 1.666 3954
-2.970 3.267 1.653 4513
-3.004 3.303 1.656 3986
-3.012 3.312 1.645 4615
-3.030 3.332 1.640 3853
-3.108 3.418 1.665 3521
-3.091 3.399 1.641 4280
-3.074 3.380 1.618 4507
-3.219 3.539 1.673 3732
-3.222 3.543 1.660 3154
-3.209 3.529 1.639 2556
-3.248 3.572 1.641 3408
-3.261 3.586 1.632 2992
-3.284 3.612 1.628 3109
-3.277 3.604 1.609 2822
-3.407 3.747 1.652 1859
-3.410 3.750 1.637 2288
-3.418 3.759 1.625 2187
-3.508 3.858 1.648 4382
-3.511 3.861 1.633 3102
-3.570 3.926 1.642 3875
-3.604 3.963 1.639 3619
-3.797 4.175 1.703 4015
-3.805 4.184 1.689 3761
-3.813 4.193 1.674 2922
-3.816 4.196 1.658 3422
-3.819 4.200 1.641 4263
-3.827 4.209 1.627 5040
-3.825 4.206 1.609 4625
-3.817 4.198 1.588 2790
-4.032 4.434 1.652 2656
-4.086 4.494 1.654 2270
-4.089 4.497 1.636 2463
-4.206 4.625 1.660 2329
-4.214 4.634 1.644 3436
-4.222 4.643 1.628 2903
-4.381 4.818 1.664 2286
-4.363 4.798 1.638 2781
-4.355 4.790 1.616 2515
-4.535 4.987 1.656 1557
-4.761 5.236 1.711 1570
-4.770 5.245 1.692 1989
-4.794 5.272 1.679 1812
-4.797 5.275 1.658 2127
-4.805 5.284 1.639 2252
-5.100 5.608 1.709 1986
-5.097 5.606 1.685 2180
-5.304 5.833 1.724 2357
-5.312 5.842 1.703 2042
-5.326 5.857 1.683 2193
-5.329 5.860 1.660 2139
-5.641 6.203 1.725 2339
-5.649 6.212 1.702 2454
-5.772 6.348 1.710 2909
-5.880 6.467 1.714 3393
-5.868 6.453 1.684 4254
-5.865 6.450 1.657 5625
-5.868 6.454 1.632 5261
-6.013 6.613 1.642 3096
-6.184 6.801 1.658 2612
-6.187 6.804 1.631 2078
-6.022 6.622 1.564 1898
-6.030 6.631 1.540 1380
-6.032 6.634 1.514 691
-6.035 6.637 1.488 336
-2.843 3.127 0.071 283
-2.838 3.121 0.059 315
-2.838 3.121 0.047 301
-2.832 3.115 0.035 294
-2.832 3.114 0.023 289
-2.832 3.114 0.011 284
-2.831 3.114 -0.001 381
-2.831 3.113 -0.013 479
-2.825 3.107 -0.025 581
-2.825 3.107 -0.037 689
-2.825 3.106 -0.049 726
-2.824 3.106 -0.061 763
-2.824 3.106 -0.074 746
-2.824 3.105 -0.086 730
-2.818 3.099 -0.097 685
-2.817 3.098 -0.109 647
-2.822 3.104 -0.122 648
-2.822 3.103 -0.134 689
-2.821 3.102 -0.146 729
-2.820 3.102 -0.158 835
-2.815 3.095 -0.170 942
-2.814 3.095 -0.182 1035
-2.813 3.094 -0.194 1127
-2.813 3.093 -0.206 1054
-2.812 3.092 -0.218 982
-2.811 3.092 -0.230 982
-2.811 3.091 -0.242 820
-2.810 3.090 -0.254 658
-2.809 3.089 -0.266 579
-2.808 3.088 -0.278 501
-2.807 3.087 -0.290 501
-2.806 3.086 -0.302 250
-1.548 1.708 1.797 2920
-1.551 1.712 1.791 5840
-1.554 1.715 1.784 5840
-1.562 1.724 1.782 5274
-1.569 1.732 1.780 4826
-1.572 1.735 1.773 5645
-1.575 1.739 1.767 6463
-1.579 1.742 1.760 6463
-1.582 1.746 1.753 8975
-1.581 1.745 1.742 11510
-1.588 1.753 1.740 9858
-1.596 1.761 1.738 8262
-1.603 1.769 1.735 7634
-1.606 1.773 1.728 7221
-1.618 1.786 1.730 8111
-1.626 1.794 1.728 9515
-1.624 1.793 1.717 9447
-1.632 1.801 1.714 7889
-1.644 1.814 1.716 6924
-1.683 1.857 1.744 6673
-1.686 1.861 1.736 7804
-1.689 1.864 1.729 7927
-1.692 1.867 1.722 8050
-1.704 1.881 1.723 8044
-1.716 1.894 1.724 9400
-1.719 1.897 1.717 9254
-1.727 1.906 1.714 9168
-1.734 1.914 1.711 6143
-1.742 1.923 1.708 3545
-1.777 1.961 1.729 3812
-1.784 1.969 1.726 5025
-1.792 1.978 1.722 4848
-1.800 1.986 1.719 4825
-1.812 2.000 1.719 5643
-1.815 2.003 1.711 7000
-1.813 2.002 1.700 7253
-1.817 2.005 1.692 5239
-1.861 2.054 1.720 3574
-1.882 2.078 1.728 4086
-1.890 2.086 1.724 4983
-1.893 2.090 1.716 5006
-1.864 2.057 1.680 6129
-1.904 2.102 1.703 7641
-1.912 2.110 1.699 9492
-1.924 2.124 1.699 9178
-1.936 2.137 1.698 7441
-1.963 2.166 1.709 7617
-1.975 2.180 1.708 5799
-2.011 2.220 1.726 5918
-2.019 2.228 1.721 7303
-2.027 2.237 1.716 8161
-2.039 2.251 1.715 7968
-2.056 2.270 1.717 8201
-2.069 2.283 1.716 7076
-2.077 2.292 1.710 6065
-2.070 2.285 1.694 5706
-2.078 2.294 1.689 7838
-2.081 2.297 1.680 9933
-2.084 2.300 1.671 9843
-2.087 2.303 1.662 8546
-2.138 2.359 1.689 7874
-2.150 2.373 1.686 8772
-2.172 2.398 1.691 8446
-2.180 2.406 1.685 8004
-2.265 2.500 1.734 10134
-2.263 2.498 1.721 13272
-2.266 2.501 1.711 12003
-2.269 2.504 1.702 8699
-2.277 2.513 1.695 5217
-2.304 2.543 1.702 5087
-2.307 2.547 1.692 7003
-2.310 2.550 1.682 7830
-2.323 2.564 1.679 5208
-2.350 2.594 1.685 4268
-2.407 2.656 1.711 4983
-2.395 2.644 1.691 4969
-2.398 2.647 1.680 5898
-2.348 2.591 1.636 6254
-2.419 2.670 1.669 5624
-2.427 2.678 1.662 3975
-2.498 2.757 1.695 5338
-2.482 2.739 1.672 6810
-2.494 2.753 1.667 6274
-2.517 2.778 1.669 6639
-2.525 2.787 1.661 7497
-2.533 2.796 1.653 7874
-2.551 2.815 1.651 5253
-2.652 2.927 1.699 4742
-2.655 2.931 1.688 6503
-2.643 2.918 1.668 6452
-2.637 2.910 1.651 3606
-2.719 3.001 1.685 4648
-2.722 3.004 1.673 7834
-2.730 3.013 1.664 9026
-2.733 3.016 1.653 7533
-2.741 3.025 1.644 4065
-2.823 3.116 1.676 2842
-2.831 3.125 1.666 4164
-2.829 3.123 1.652 4549
-2.822 3.115 1.634 4223
-2.830 3.124 1.625 3611
-2.863 3.160 1.628 4722
-2.916 3.219 1.642 3764
-2.964 3.272 1.653 3998
-3.003 3.314 1.658 4331
-3.011 3.323 1.648 4706
-3.024 3.337 1.640 4097
-3.037 3.352 1.632 3928
-3.085 3.405 1.641 4090
-3.063 3.380 1.616 4733
-3.212 3.545 1.673 3457
-3.215 3.549 1.660 3055
-3.193 3.524 1.634 2704
-3.256 3.594 1.649 3248
-3.270 3.609 1.639 3149
-3.278 3.618 1.628 3360
-3.275 3.615 1.611 3042
-3.390 3.742 1.647 2137
-3.403 3.756 1.637 2804
-3.406 3.760 1.623 2613
-3.501 3.864 1.648 4038
-3.555 3.924 1.655 3279
-3.558 3.927 1.640 3885
-3.597 3.970 1.639 3784
-3.789 4.182 1.703 3756
-3.797 4.191 1.689 3763
-3.795 4.189 1.670 2922
-3.798 4.192 1.654 3744
-3.806 4.201 1.639 4703
-3.814 4.210 1.625 5093
-3.817 4.213 1.609 4218
-3.907 4.313 1.626 2472
-4.024 4.441 1.652 3137
-4.037 4.456 1.638 2107
-4.076 4.499 1.634 2097
-4.192 4.627 1.658 2660
-4.206 4.642 1.644 3820
-4.214 4.651 1.628 3241
-4.367 4.820 1.662 1826
-4.354 4.806 1.638 2639
-4.342 4.792 1.614 2682
-4.526 4.995 1.656 1338
-4.752 5.245 1.711 1610
-4.755 5.248 1.691 2070
-4.789 5.286 1.680 1827
-4.787 5.284 1.658 2106
-4.800 5.298 1.641 2154
-4.819 5.319 1.625 1728
-5.087 5.615 1.685 1940
-5.299 5.848 1.726 2103
-5.187 5.725 1.669 2106
-5.315 5.867 1.683 2454
-5.323 5.876 1.662 2368
-5.629 6.213 1.725 2704
-5.632 6.217 1.700 2834
-5.625 6.208 1.673 2464
-5.863 6.471 1.712 3212
-5.856 6.463 1.684 4193
-5.854 6.461 1.657 5642
-5.857 6.464 1.632 5357
-5.860 6.467 1.607 3135
-6.172 6.812 1.658 3258
-6.175 6.815 1.631 2578
-6.010 6.633 1.564 1598
-6.018 6.642 1.540 1136
-5.873 6.483 1.480 647
-6.181 6.822 1.523 375
-6.189 6.831 1.498 291
-2.838 3.132 0.096 279
-2.838 3.132 0.084 330
-2.838 3.132 0.071 426
-2.832 3.126 0.059 478
-2.832 3.126 0.047 460
-2.827 3.120 0.035 449
-2.826 3.119 0.023 404
-2.821 3.113 0.011 369
-2.820 3.113 -0.001 455
-2.825 3.119 -0.013 548
-2.825 3.118 -0.025 671
-2.820 3.112 -0.037 798
-2.824 3.117 -0.050 853
-2.824 3.117 -0.062 913
-2.818 3.111 -0.074 877
-2.818 3.110 -0.086 847
-2.812 3.104 -0.097 770
-2.812 3.103 -0.109 701
-2.817 3.109 -0.122 709
-2.816 3.108 -0.134 700
-2.815 3.107 -0.146 691
-2.815 3.107 -0.158 805
-2.814 3.106 -0.170 920
-2.814 3.105 -0.182 1051
-2.808 3.099 -0.194 1186
-2.807 3.098 -0.206 1129
-2.806 3.097 -0.218 1072
-2.806 3.097 -0.230 1072
-2.805 3.096 -0.242 895
-2.804 3.095 -0.254 718
-2.803 3.094 -0.266 590
-2.813 3.105 -0.280 480
-2.812 3.104 -0.292 480
-1.544 1.712 1.797 2965
-1.547 1.715 1.791 5930
-1.550 1.719 1.784 5930
-1.558 1.727 1.782 5528
-1.565 1.735 1.780 5192
-1.568 1.739 1.773 5639
-1.572 1.742 1.767 6086
-1.575 1.746 1.760 6086
-1.578 1.749 1.753 8283
-1.577 1.748 1.742 10585
-1.584 1.756 1.740 8958
-1.587 1.760 1.733 7436
-1.599 1.773 1.735 7232
-1.602 1.776 1.728 7234
-1.610 1.785 1.726 7913
-1.622 1.798 1.728 9179
-1.620 1.797 1.717 9121
-1.628 1.805 1.714 7682
-1.640 1.818 1.716 6820
-1.678 1.861 1.744 6712
-1.682 1.864 1.736 7729
-1.685 1.868 1.729 7791
-1.688 1.871 1.722 7854
-1.700 1.885 1.723 7938
-1.712 1.898 1.724 9472
-1.719 1.906 1.721 9189
-1.722 1.910 1.714 9118
-1.730 1.918 1.711 6219
-1.738 1.927 1.708 3578
-1.772 1.965 1.729 4124
-1.780 1.973 1.726 5270
-1.788 1.982 1.722 4892
-1.795 1.990 1.719 4725
-1.807 2.004 1.719 5687
-1.806 2.002 1.707 7178
-1.809 2.006 1.700 7705
-1.812 2.009 1.692 5683
-1.815 2.012 1.684 3655
-1.878 2.082 1.728 3753
-1.885 2.090 1.724 4560
-1.889 2.094 1.716 4653
-1.859 2.061 1.680 5736
-1.899 2.106 1.703 7140
-1.907 2.114 1.699 8787
-1.919 2.128 1.699 8464
-1.932 2.142 1.698 6790
-1.958 2.171 1.709 7160
-1.970 2.184 1.708 5677
-2.011 2.229 1.730 5764
-2.014 2.233 1.721 6964
-2.022 2.241 1.716 7832
-2.034 2.255 1.715 7632
-2.051 2.274 1.717 8013
-2.064 2.288 1.716 6788
-2.067 2.291 1.707 5825
-2.060 2.284 1.691 5899
-2.073 2.298 1.689 8016
-2.076 2.302 1.680 10235
-2.079 2.305 1.671 10092
-2.087 2.313 1.666 8573
-2.132 2.364 1.689 8123
-2.140 2.373 1.683 8526
-2.162 2.397 1.688 7690
-2.175 2.411 1.685 7516
-2.259 2.505 1.734 11022
-2.262 2.508 1.724 14396
-2.265 2.511 1.715 13102
-2.268 2.515 1.705 9897
-2.286 2.534 1.705 6147
-2.298 2.548 1.702 5468
-2.301 2.552 1.692 7768
-2.305 2.555 1.682 9074
-2.317 2.569 1.679 5641
-2.398 2.658 1.721 4410
-2.401 2.662 1.711 5287
-2.389 2.649 1.691 5361
-2.392 2.652 1.680 6507
-2.405 2.666 1.677 6134
-2.418 2.680 1.672 5524
-2.499 2.770 1.712 3649
-2.497 2.768 1.698 5264
-2.475 2.745 1.672 6676
-2.488 2.759 1.667 6156
-2.511 2.784 1.669 6305
-2.514 2.787 1.658 7459
-2.522 2.796 1.650 7891
-2.589 2.870 1.678 5515
-2.646 2.933 1.699 4295
-2.649 2.937 1.688 5536
-2.632 2.918 1.665 5658
-2.620 2.905 1.645 3513
-2.712 3.007 1.685 4724
-2.720 3.016 1.676 8680
-2.723 3.019 1.664 9710
-2.726 3.022 1.653 7281
-2.798 3.103 1.680 3765
-2.806 3.112 1.670 3732
-2.814 3.120 1.661 3916
-2.817 3.124 1.649 4198
-2.815 3.121 1.634 4515
-2.823 3.130 1.625 3911
-2.856 3.167 1.628 4943
-2.909 3.225 1.642 3822
-2.957 3.279 1.653 3720
-3.000 3.326 1.661 4672
-3.003 3.330 1.648 4701
-3.016 3.344 1.640 4121
-3.029 3.358 1.632 4104
-3.037 3.367 1.622 3885
-3.050 3.382 1.613 4531
-3.204 3.552 1.673 3135
-3.258 3.612 1.684 2966
-3.185 3.531 1.634 2782
-3.259 3.613 1.653 3552
-3.267 3.622 1.642 3515
-3.269 3.625 1.628 3440
-3.267 3.622 1.611 3202
-3.367 3.733 1.641 2631
-3.390 3.758 1.635 3181
-3.393 3.762 1.620 2890
-3.492 3.872 1.648 3751
-3.541 3.926 1.653 3264
-3.549 3.935 1.640 3752
-3.593 3.983 1.642 3782
-3.591 3.981 1.624 3915
-3.783 4.194 1.686 3615
-3.775 4.186 1.666 3704
-3.784 4.195 1.652 4129
-3.797 4.209 1.639 4955
-3.800 4.213 1.623 5219
-3.803 4.216 1.607 3989
-3.908 4.333 1.630 2547
-4.014 4.450 1.652 3489
-4.027 4.465 1.638 2168
-4.220 4.679 1.692 2076
-4.182 4.637 1.658 2790
-4.195 4.651 1.644 3981
-4.209 4.666 1.629 3320
-4.227 4.686 1.617 1708
-4.343 4.816 1.638 2468
-4.331 4.802 1.614 2599
-4.613 5.114 1.690 1331
-4.735 5.250 1.709 1614
-4.743 5.259 1.691 2040
-4.648 5.153 1.638 1892
-4.879 5.409 1.691 1995
-4.788 5.309 1.641 1928
-4.807 5.329 1.625 1603
-5.075 5.626 1.685 1710
-5.166 5.728 1.690 2235
-5.174 5.737 1.669 2350
-5.302 5.878 1.683 2479
-5.612 6.222 1.749 2469
-5.615 6.226 1.725 2846
-5.618 6.229 1.700 2987
-5.616 6.227 1.674 2623
-5.849 6.485 1.712 2899
-5.841 6.476 1.684 3854
-5.839 6.474 1.657 5332
-5.842 6.477 1.632 5191
-6.159 6.828 1.686 3855
-6.157 6.826 1.658 3749
-6.159 6.829 1.631 2925
-6.168 6.838 1.606 1700
-5.856 6.493 1.505 1004
-5.864 6.501 1.481 618
-6.165 6.836 1.523 499
-6.168 6.839 1.496 378
-2.836 3.145 0.144 276
-2.836 3.145 0.132 293
-2.836 3.145 0.120 309
-2.831 3.139 0.108 341
-2.831 3.139 0.096 376
-2.831 3.138 0.084 441
-2.831 3.138 0.071 566
-2.825 3.132 0.059 630
-2.825 3.132 0.047 611
-2.820 3.126 0.035 596
-2.819 3.126 0.023 506
-2.814 3.120 0.011 422
-2.819 3.125 -0.001 504
-2.819 3.125 -0.013 592
-2.818 3.125 -0.025 738
-2.813 3.118 -0.037 885
-2.817 3.124 -0.050 959
-2.817 3.123 -0.062 1034
-2.811 3.117 -0.074 984
-2.811 3.117 -0.086 948
-2.811 3.116 -0.098 842
-2.810 3.116 -0.110 745
-2.810 3.115 -0.122 755
-2.809 3.114 -0.134 704
-2.808 3.114 -0.146 653
-2.808 3.113 -0.158 726
-2.807 3.112 -0.170 798
-2.807 3.112 -0.182 956
-2.806 3.111 -0.194 1114
-2.805 3.110 -0.207 1110
-2.805 3.110 -0.219 1107
-2.804 3.109 -0.231 1107
-2.798 3.102 -0.242 963
-2.797 3.101 -0.254 820
-2.796 3.100 -0.266 672
-2.801 3.105 -0.279 532
-2.800 3.104 -0.291 532
-2.799 3.103 -0.303 266
-1.540 1.715 1.797 2961
-1.543 1.719 1.791 5922
-1.546 1.722 1.784 5922
-1.554 1.731 1.782 5681
-1.557 1.734 1.775 5505
-1.564 1.743 1.773 5503
-1.567 1.746 1.767 5540
-1.571 1.750 1.760 5540
-1.569 1.748 1.749 7277
-1.573 1.752 1.742 9120
-1.580 1.760 1.740 7609
-1.583 1.764 1.733 6244
-1.595 1.777 1.735 6505
-1.598 1.780 1.728 6971
-1.606 1.789 1.726 7532
-1.617 1.802 1.728 8589
-1.616 1.800 1.717 8548
-1.624 1.809 1.714 7236
-1.635 1.822 1.716 6496
-1.674 1.865 1.744 6518
-1.677 1.868 1.736 7393
-1.680 1.872 1.729 7486
-1.683 1.875 1.722 7579
-1.695 1.889 1.723 7791
-1.707 1.902 1.724 9565
-1.715 1.910 1.721 9242
-1.722 1.919 1.718 9176
-1.730 1.927 1.715 6341
-1.760 1.961 1.733 3664
-1.763 1.964 1.725 4550
-1.771 1.973 1.722 5546
-1.783 1.986 1.722 4933
-1.790 1.995 1.719 4581
-1.798 2.003 1.715 5701
-1.801 2.007 1.707 7448
-1.804 2.010 1.700 8273
-1.807 2.013 1.692 6361
-1.810 2.017 1.684 4198
-1.873 2.086 1.728 3429
-1.876 2.090 1.720 4134
-1.879 2.093 1.712 4435
-1.854 2.066 1.680 5376
-1.890 2.105 1.700 6843
-1.902 2.119 1.699 8146
-1.914 2.133 1.699 7712
-1.926 2.146 1.698 6083
-1.957 2.181 1.713 6689
-1.970 2.194 1.712 5553
-2.005 2.234 1.730 5528
-2.013 2.243 1.725 6542
-2.016 2.246 1.716 7326
-2.029 2.260 1.715 7199
-2.046 2.279 1.717 7787
-2.058 2.293 1.716 6510
-2.061 2.296 1.707 5683
-2.050 2.284 1.687 6453
-2.063 2.298 1.685 8353
-2.070 2.307 1.680 10502
-2.073 2.310 1.671 10351
-2.081 2.318 1.666 8891
-2.122 2.364 1.685 8380
-2.130 2.373 1.679 8248
-2.137 2.381 1.674 7092
-2.164 2.411 1.682 6975
-2.253 2.510 1.734 11418
-2.256 2.513 1.724 14909
-2.259 2.517 1.715 13758
-2.262 2.520 1.705 10786
-2.280 2.540 1.705 7075
-2.292 2.554 1.702 6002
-2.295 2.557 1.692 8220
-2.298 2.561 1.682 9706
-2.311 2.575 1.679 6183
-2.391 2.664 1.721 4435
-2.394 2.667 1.711 5427
-2.383 2.655 1.691 5515
-2.386 2.658 1.680 6737
-2.394 2.667 1.673 5993
-2.421 2.697 1.679 5452
-2.487 2.771 1.709 3627
-2.490 2.774 1.698 4971
-2.464 2.745 1.669 6139
-2.457 2.738 1.652 5914
-2.504 2.790 1.669 5918
-2.507 2.793 1.658 7388
-2.515 2.802 1.650 7608
-2.582 2.876 1.678 6264
-2.580 2.874 1.664 4069
-2.622 2.921 1.676 4669
-2.615 2.913 1.659 5030
-2.613 2.911 1.645 3458
-2.710 3.019 1.688 4994
-2.713 3.022 1.676 9689
-2.716 3.026 1.664 10585
-2.714 3.023 1.650 7090
-2.781 3.098 1.674 5458
-2.784 3.102 1.662 5601
-2.787 3.105 1.650 4356
-2.805 3.125 1.646 3967
-2.808 3.128 1.634 4512
-2.821 3.142 1.627 3966
-2.848 3.173 1.628 5055
-2.846 3.171 1.613 4028
-2.949 3.286 1.653 3854
-2.992 3.333 1.661 4863
-3.000 3.342 1.650 4436
-3.008 3.351 1.640 4091
-3.016 3.360 1.630 4453
-3.029 3.374 1.622 4037
-3.042 3.389 1.613 4491
-3.050 3.398 1.603 3149
-3.254 3.625 1.686 3044
-3.176 3.539 1.634 2932
-3.260 3.632 1.658 3772
-3.263 3.635 1.644 3709
-3.261 3.633 1.628 3375
-3.259 3.630 1.611 3367
-3.353 3.735 1.638 3333
-3.355 3.738 1.624 4209
-3.379 3.764 1.618 3312
-3.488 3.886 1.650 3580
-3.516 3.918 1.646 3079
-3.535 3.938 1.637 3413
-3.588 3.998 1.644 3567
-3.581 3.990 1.624 3538
-3.767 4.197 1.684 3216
-3.765 4.195 1.666 3337
-3.779 4.210 1.654 4226
-3.781 4.213 1.637 5146
-3.790 4.222 1.623 5138
-3.803 4.236 1.611 4043
-3.811 4.245 1.596 2737
-4.003 4.460 1.652 3680
-4.021 4.480 1.640 2292
-4.209 4.689 1.692 1960
-4.171 4.647 1.658 2744
-4.184 4.662 1.644 3821
-4.203 4.682 1.631 3226
-4.221 4.702 1.619 1995
-4.327 4.820 1.636 2345
-4.319 4.812 1.614 2462
-4.606 5.131 1.691 1569
-4.717 5.255 1.708 1642
-4.627 5.155 1.657 2130
-4.630 5.158 1.636 2056
-4.861 5.415 1.689 2131
-4.864 5.419 1.668 1871
-4.887 5.445 1.654 1664
-5.149 5.737 1.712 1552
-5.152 5.740 1.690 2446
-5.160 5.749 1.669 2481
-5.179 5.770 1.651 2460
-5.597 6.236 1.749 2462
-5.600 6.239 1.725 2879
-5.603 6.243 1.700 3000
-5.601 6.240 1.674 2574
-5.828 6.493 1.711 2556
-5.831 6.496 1.685 3310
-5.824 6.488 1.657 4754
-5.827 6.491 1.632 4825
-6.142 6.843 1.686 4378
-6.140 6.841 1.658 4098
-6.143 6.844 1.631 3151
-6.151 6.853 1.606 1854
-6.154 6.856 1.579 1120
-6.151 6.853 1.551 676
-6.149 6.850 1.523 603
-6.157 6.859 1.498 472
-6.165 6.868 1.472 279
-2.834 3.157 0.181 321
-2.834 3.157 0.169 381
-2.834 3.157 0.157 409
-2.829 3.151 0.144 447
-2.829 3.151 0.132 441
-2.829 3.151 0.120 435
-2.823 3.145 0.108 456
-2.823 3.145 0.096 486
-2.823 3.145 0.084 559
-2.823 3.145 0.071 708
-2.823 3.145 0.059 783
-2.817 3.139 0.047 766
-2.817 3.139 0.035 751
-2.817 3.138 0.023 613
-2.812 3.132 0.011 482
-2.811 3.132 -0.001 550
-2.811 3.132 -0.013 619
-2.811 3.131 -0.025 786
-2.810 3.131 -0.038 954
-2.810 3.131 -0.050 1039
-2.810 3.130 -0.062 1124
-2.809 3.130 -0.074 1075
-2.803 3.123 -0.086 1049
-2.803 3.123 -0.098 916
-2.803 3.122 -0.110 788
-2.802 3.122 -0.122 794
-2.802 3.121 -0.134 699
-2.806 3.126 -0.147 605
-2.806 3.126 -0.159 613
-2.805 3.125 -0.171 621
-2.799 3.119 -0.182 781
-2.799 3.118 -0.194 941
-2.798 3.117 -0.207 979
-2.797 3.116 -0.219 1017
-2.796 3.116 -0.231 1017
-2.790 3.109 -0.242 928
-2.790 3.108 -0.254 846
-2.789 3.107 -0.266 721
-2.788 3.106 -0.278 597
-2.787 3.105 -0.290 597
-2.786 3.104 -0.302 298
-1.535 1.719 1.797 2874
-1.539 1.723 1.791 5748
-1.542 1.726 1.784 5748
-1.549 1.735 1.782 5683
-1.553 1.738 1.775 5688
-1.560 1.746 1.773 5352
-1.563 1.750 1.767 5093
-1.566 1.754 1.760 5093
-1.561 1.747 1.744 6385
-1.564 1.751 1.737 7745
-1.571 1.759 1.735 6441
-1.579 1.768 1.733 5199
-1.591 1.781 1.735 5830
-1.594 1.784 1.728 6763
-1.601 1.793 1.726 7104
-1.613 1.806 1.728 7935
-1.612 1.804 1.717 7895
-1.624 1.818 1.718 6778
-1.631 1.826 1.716 6156
-1.669 1.869 1.744 6104
-1.673 1.872 1.736 6826
-1.676 1.876 1.729 7009
-1.674 1.874 1.718 7233
-1.691 1.893 1.723 7495
-1.703 1.906 1.724 9396
-1.710 1.915 1.721 8980
-1.722 1.928 1.722 9029
-1.725 1.931 1.715 6280
-1.755 1.965 1.733 4107
-1.758 1.968 1.725 4704
-1.766 1.977 1.722 5347
-1.778 1.991 1.722 4599
-1.786 1.999 1.719 4146
-1.793 2.008 1.715 5614
-1.796 2.011 1.707 7648
-1.799 2.014 1.700 8642
-1.802 2.018 1.692 6905
-1.810 2.026 1.688 4757
-1.813 2.030 1.680 3109
-1.871 2.094 1.720 3667
-1.874 2.098 1.712 4264
-1.849 2.070 1.680 5034
-1.885 2.110 1.700 6604
-1.897 2.123 1.699 7476
-1.904 2.132 1.695 7007
-1.949 2.182 1.721 5598
-1.952 2.185 1.713 6164
-1.964 2.199 1.712 5397
-2.005 2.244 1.733 5133
-2.008 2.248 1.725 6008
-2.011 2.251 1.716 6725
-2.028 2.270 1.719 6801
-2.040 2.284 1.717 7582
-2.053 2.298 1.716 6262
-2.051 2.296 1.703 5691
-2.040 2.284 1.683 6966
-2.057 2.303 1.685 8560
-2.065 2.312 1.680 10618
-2.068 2.315 1.671 10561
-2.075 2.323 1.666 9290
-2.116 2.369 1.685 8380
-2.124 2.378 1.679 7762
-2.127 2.381 1.670 6391
-2.253 2.523 1.751 6627
-2.247 2.515 1.734 11699
-2.250 2.519 1.724 15192
-2.253 2.522 1.715 14345
-2.261 2.531 1.708 11948
-2.274 2.545 1.705 8337
-2.281 2.554 1.699 6861
-2.289 2.563 1.692 8698
-2.297 2.571 1.686 10000
-2.305 2.580 1.679 6578
-2.385 2.670 1.721 4130
-2.388 2.673 1.711 5155
-2.376 2.660 1.691 5387
-2.375 2.658 1.677 6849
-2.387 2.673 1.673 5856
-2.434 2.725 1.691 5617
-2.432 2.723 1.678 3687
-2.483 2.780 1.698 4565
-2.438 2.729 1.657 5758
-2.451 2.743 1.652 6077
-2.492 2.790 1.666 5482
-2.495 2.794 1.655 6919
-2.503 2.802 1.647 7174
-2.570 2.877 1.675 7036
-2.568 2.875 1.661 4687
-2.610 2.922 1.673 4244
-2.608 2.920 1.659 4567
-2.606 2.918 1.645 3292
-2.702 3.025 1.688 5217
-2.705 3.029 1.676 10328
-2.713 3.038 1.667 11106
-2.711 3.035 1.653 6594
-2.774 3.105 1.674 6933
-2.777 3.108 1.662 7388
-2.775 3.106 1.647 4991
-2.782 3.115 1.638 3405
-2.800 3.135 1.634 4079
-2.833 3.172 1.638 3791
-2.846 3.186 1.631 4872
-2.839 3.178 1.613 4239
-2.946 3.298 1.656 4403
-2.984 3.341 1.661 4911
-2.992 3.350 1.650 4002
-3.000 3.358 1.640 3773
-3.008 3.367 1.630 4474
-3.011 3.371 1.617 4060
-3.029 3.391 1.611 4006
-3.047 3.411 1.605 3227
-3.245 3.633 1.686 3079
-3.163 3.541 1.631 3254
-3.161 3.538 1.615 4364
-3.259 3.649 1.646 3738
-3.252 3.641 1.628 3187
-3.250 3.638 1.611 3429
-3.344 3.743 1.638 4076
-3.346 3.746 1.624 5458
-3.359 3.761 1.614 3925
-3.479 3.894 1.650 3510
-3.492 3.909 1.640 3487
-3.520 3.941 1.635 3196
-3.584 4.012 1.646 3332
-3.526 3.947 1.605 4133
-3.529 3.950 1.589 3061
-3.755 4.204 1.666 3153
-3.773 4.224 1.656 4252
-3.776 4.228 1.639 5009
-3.784 4.237 1.625 4743
-3.792 4.246 1.611 4369
-3.800 4.255 1.596 3483
-3.992 4.469 1.652 3797
-4.011 4.490 1.640 2402
-4.029 4.510 1.629 2117
-4.165 4.663 1.660 2601
-4.173 4.672 1.644 3436
-4.191 4.692 1.631 2925
-4.215 4.718 1.620 2223
-4.315 4.831 1.636 2231
-4.590 5.139 1.711 2493
-4.593 5.142 1.691 1891
-4.699 5.261 1.706 1641
-4.615 5.166 1.657 2210
-4.618 5.170 1.636 2132
-4.848 5.427 1.689 2183
-4.851 5.430 1.668 2109
-4.874 5.457 1.654 2040
-5.135 5.749 1.712 1741
-5.133 5.747 1.688 2602
-5.147 5.762 1.669 2498
-5.165 5.782 1.651 2374
-5.577 6.244 1.747 2326
-5.585 6.253 1.725 2750
-5.594 6.262 1.702 2898
-5.586 6.254 1.674 2371
-5.589 6.257 1.650 2311
-6.111 6.842 1.765 3201
-5.808 6.502 1.657 4032
-6.118 6.849 1.711 4618
-6.126 6.858 1.686 4553
-6.124 6.855 1.658 4087
-6.126 6.859 1.631 3141
-6.135 6.868 1.606 1869
-6.137 6.871 1.579 1149
-6.135 6.868 1.551 727
-6.132 6.865 1.523 664
-6.135 6.868 1.496 521
-6.253 7.000 1.495 276
-2.831 3.170 0.193 317
-2.826 3.164 0.181 472
-2.826 3.164 0.169 545
-2.826 3.164 0.157 575
-2.821 3.158 0.144 617
-2.821 3.158 0.132 592
-2.821 3.158 0.120 566
-2.816 3.152 0.108 544
-2.810 3.146 0.096 550
-2.816 3.152 0.084 633
-2.815 3.152 0.071 813
-2.815 3.152 0.059 902
-2.810 3.146 0.047 875
-2.810 3.145 0.035 857
-2.809 3.145 0.023 696
-2.809 3.145 0.011 536
-2.804 3.139 -0.001 569
-2.803 3.138 -0.013 601
-2.803 3.138 -0.025 790
-2.803 3.138 -0.038 978
-2.802 3.137 -0.050 1078
-2.802 3.137 -0.062 1177
-2.802 3.136 -0.074 1131
-2.796 3.130 -0.086 1103
-2.795 3.130 -0.098 962
-2.795 3.129 -0.110 828
-2.794 3.128 -0.122 835
-2.794 3.128 -0.134 702
-2.799 3.133 -0.147 577
-2.798 3.133 -0.159 527
-2.798 3.132 -0.171 478
-2.792 3.125 -0.182 595
-2.791 3.125 -0.194 715
-2.790 3.124 -0.207 785
-2.790 3.123 -0.219 855
-2.789 3.122 -0.231 855
-2.783 3.116 -0.242 813
-2.782 3.115 -0.254 787
-2.781 3.114 -0.266 708
-2.781 3.113 -0.278 629
-2.780 3.112 -0.290 629
-2.779 3.111 -0.302 314
-1.532 1.722 1.797 2693
-1.535 1.726 1.791 5386
-1.538 1.729 1.784 5386
-1.541 1.733 1.777 5456
-1.549 1.741 1.775 5567
-1.548 1.740 1.764 5069
-1.547 1.739 1.753 4638
-1.550 1.742 1.746 4638
-1.553 1.746 1.740 5473
-1.560 1.754 1.737 6324
-1.568 1.762 1.735 5335
-1.571 1.766 1.729 4417
-1.583 1.779 1.731 5336
-1.590 1.787 1.728 6675
-1.597 1.796 1.726 6846
-1.609 1.809 1.728 7333
-1.608 1.808 1.717 7324
-1.620 1.821 1.718 6278
-1.627 1.829 1.716 5746
-1.666 1.872 1.744 5629
-1.669 1.876 1.736 6192
-1.672 1.879 1.729 6383
-1.670 1.878 1.718 6707
-1.687 1.896 1.723 6946
-1.703 1.915 1.729 8947
-1.711 1.923 1.726 8605
-1.723 1.937 1.727 8945
-1.726 1.940 1.719 6255
-1.751 1.969 1.733 4453
-1.754 1.972 1.725 4740
-1.757 1.976 1.718 5026
-1.774 1.994 1.722 4206
-1.781 2.003 1.719 3751
-1.789 2.011 1.715 5570
-1.788 2.010 1.703 7860
-1.795 2.018 1.700 8904
-1.798 2.021 1.692 7342
-1.806 2.030 1.688 5249
-1.809 2.033 1.680 3470
