1.146 3.768 1.736 2191
1.179 3.877 1.770 3508
1.231 4.045 1.842 2195
1.187 3.903 1.767 3879
1.234 4.057 1.832 3101
1.212 3.985 1.788 4516
1.172 3.851 1.732 1217
1.214 3.989 1.776 4899
1.254 4.123 1.831 999
1.232 4.050 1.787 5171
1.191 3.916 1.732 1813
1.268 4.168 1.821 3846
1.227 4.034 1.766 2525
1.246 4.095 1.777 3716
1.286 4.229 1.831 2084
1.251 4.113 1.770 3978
1.292 4.248 1.824 3010
1.294 4.252 1.811 3905
1.253 4.118 1.758 2411
1.304 4.285 1.810 4169
1.351 4.441 1.871 1920
1.309 4.304 1.802 4284
1.350 4.439 1.855 2981
1.313 4.316 1.792 3936
1.354 4.451 1.845 2585
1.314 4.320 1.779 2493
1.355 4.455 1.831 2188
1.357 4.460 1.818 3120
1.316 4.325 1.766 1228
1.356 4.458 1.802 3933
1.397 4.593 1.853 1243
1.357 4.462 1.788 2856
1.399 4.598 1.839 1128
1.385 4.553 1.806 3046
1.426 4.688 1.857 1765
1.367 4.493 1.769 3901
1.421 4.672 1.835 2689
1.420 4.669 1.818 4092
1.372 4.512 1.761 3400
1.459 4.796 1.848 4632
1.417 4.659 1.799 3083
1.465 4.815 1.838 6048
1.423 4.678 1.790 2929
1.473 4.841 1.831 5063
1.427 4.690 1.778 3215
1.505 4.946 1.852 3936
1.463 4.810 1.804 2570
1.510 4.965 1.842 5370
1.469 4.829 1.795 2966
1.510 4.963 1.825 3734
1.468 4.826 1.778 2966
1.526 5.018 1.827 3263
1.469 4.831 1.763 2339
1.523 5.008 1.807 2812
1.482 4.871 1.761 1531
1.527 5.020 1.794 1468
1.584 5.208 1.857 1433
1.599 5.256 1.855 2505
1.557 5.119 1.810 2031
1.600 5.261 1.839 5155
1.558 5.123 1.794 2573
1.604 5.273 1.826 6130
1.646 5.410 1.870 2746
1.614 5.306 1.819 5531
1.656 5.444 1.863 3964
1.646 5.412 1.835 5591
1.605 5.275 1.792 3082
1.652 5.432 1.823 4130
1.610 5.294 1.780 1938
1.629 5.356 1.782 4313
1.671 5.494 1.825 1817
1.662 5.463 1.797 2802
1.620 5.325 1.755 1241
1.661 5.460 1.779 2462
1.703 5.598 1.821 866
1.658 5.450 1.758 2004
1.700 5.588 1.799 776
1.657 5.447 1.739 1421
1.701 5.593 1.782 926
1.698 5.583 1.761 1211
1.636 5.379 1.701 791
1.691 5.558 1.736 1486
1.744 5.733 1.787 891
1.688 5.548 1.715 1121
1.748 5.745 1.771 970
1.751 5.757 1.756 712
1.687 5.545 1.696 693
1.797 5.908 1.780 537
1.693 5.564 1.683 535
1.750 5.751 1.717 376
1.919 6.308 1.871 338
1.820 5.983 1.762 318
1.923 6.320 1.854 312
1.616 5.313 1.561 364
1.545 5.078 1.498 259
1.620 5.324 1.547 603
1.548 5.089 1.484 358
1.623 5.335 1.533 812
1.552 5.100 1.471 462
1.620 5.325 1.513 841
1.550 5.097 1.454 513
1.623 5.336 1.499 829
1.554 5.108 1.440 587
1.555 5.111 1.425 649
1.627 5.347 1.485 571
1.556 5.115 1.409 663
1.643 5.402 1.481 379
1.642 5.399 1.463 576
1.557 5.119 1.394 535
1.641 5.395 1.445 887
1.560 5.129 1.380 303
1.640 5.391 1.427 997
1.634 5.373 1.406 1275
1.633 5.369 1.388 1914
2.544 8.361 2.091 739
1.632 5.365 1.370 2427
2.545 8.367 2.066 1181
1.633 5.368 1.353 2405
2.549 8.380 2.042 826
1.636 5.379 1.339 2307
2.555 8.400 2.020 1066
1.637 5.382 1.323 2291
2.552 8.390 1.991 1586
1.638 5.386 1.306 1543
2.554 8.395 1.966 1212
1.639 5.389 1.290 898
2.567 8.437 1.948 790
2.706 8.895 2.019 778
2.570 8.450 1.924 616
2.707 8.900 1.992 893
1.614 5.306 1.239 642
2.707 8.898 1.964 812
1.617 5.317 1.224 474
2.706 8.896 1.935 647
1.616 5.312 1.207 375
2.708 8.901 1.908 521
1.617 5.315 1.191 463
1.615 5.311 1.173 532
2.702 8.883 1.877 373
1.616 5.313 1.157 534
1.617 5.316 1.141 321
0.698 2.277 1.761 2485
0.709 2.313 1.777 5789
0.745 2.431 1.863 2712
0.714 2.330 1.779 9071
0.750 2.448 1.865 4306
0.719 2.347 1.781 7701
0.756 2.466 1.866 2707
0.727 2.370 1.788 7851
0.763 2.489 1.872 1560
0.741 2.419 1.812 8699
0.705 2.300 1.727 1341
0.745 2.430 1.809 12177
0.781 2.549 1.893 1095
0.748 2.441 1.806 12789
0.785 2.560 1.889 1308
0.751 2.452 1.803 14080
0.788 2.571 1.886 1294
0.755 2.463 1.800 15878
0.792 2.583 1.883 1285
0.756 2.467 1.793 13893
0.793 2.587 1.875 1088
0.758 2.472 1.785 11908
0.721 2.351 1.703 1064
0.759 2.476 1.778 9622
0.800 2.610 1.868 911
0.760 2.481 1.770 7336
0.798 2.602 1.852 1594
0.762 2.485 1.763 7336
0.799 2.607 1.844 2297
0.763 2.490 1.756 5970
0.800 2.611 1.836 2685
0.765 2.495 1.748 4590
0.802 2.616 1.828 3080
0.817 2.666 1.850 4946
0.764 2.493 1.736 3514
0.819 2.670 1.842 6969
0.763 2.491 1.725 2470
0.822 2.682 1.838 6854
0.785 2.559 1.759 2864
0.825 2.693 1.834 6771
0.788 2.570 1.756 3599
0.825 2.691 1.822 5262
0.787 2.568 1.744 2625
0.818 2.670 1.798 4161
0.856 2.793 1.876 1003
0.818 2.668 1.786 3793
0.856 2.791 1.863 2212
0.817 2.666 1.774 3494
0.855 2.790 1.851 3310
0.825 2.690 1.778 3321
0.863 2.814 1.855 3294
0.834 2.721 1.786 4147
0.872 2.845 1.862 2804
0.835 2.725 1.778 3908
0.873 2.849 1.854 2323
0.839 2.737 1.773 3708
0.877 2.861 1.849 1556
0.844 2.754 1.773 3921
0.892 2.911 1.868 998
0.846 2.759 1.765 4217
0.896 2.923 1.864 1198
0.849 2.770 1.761 3044
0.899 2.934 1.859 1432
0.852 2.781 1.756 1898
0.909 2.965 1.866 1827
0.900 2.937 1.837 2433
0.862 2.812 1.763 1840
0.902 2.942 1.828 3223
0.863 2.816 1.755 2140
0.897 2.927 1.808 3733
0.859 2.801 1.735 1275
0.897 2.925 1.796 4723
0.935 3.051 1.868 2047
0.900 2.936 1.791 5452
0.939 3.062 1.863 2333
0.907 2.961 1.793 5417
0.946 3.087 1.865 1914
0.913 2.978 1.792 4744
0.952 3.105 1.863 1312
0.914 2.983 1.783 3646
0.953 3.110 1.854 1593
0.942 3.074 1.822 2954
0.904 2.948 1.752 2134
0.946 3.086 1.817 2795
0.907 2.959 1.746 2031
0.951 3.104 1.815 2767
0.912 2.977 1.745 1775
0.947 3.088 1.795 2468
0.986 3.216 1.864 757
0.948 3.093 1.785 3376
0.987 3.221 1.855 899
0.954 3.111 1.783 4702
0.914 2.983 1.714 556
0.955 3.116 1.774 4641
0.994 3.244 1.842 1211
0.956 3.120 1.765 3956
0.996 3.248 1.833 1913
0.987 3.219 1.805 4118
0.947 3.091 1.737 1774
0.992 3.238 1.802 5128
0.953 3.109 1.735 2378
0.996 3.249 1.796 5644
0.956 3.120 1.729 2494
0.999 3.260 1.790 6340
0.960 3.131 1.724 2214
1.001 3.265 1.780 6321
1.040 3.394 1.846 1472
1.004 3.276 1.774 5613
1.044 3.406 1.840 1490
1.020 3.329 1.788 4878
0.981 3.199 1.723 2620
1.026 3.347 1.785 6330
0.986 3.217 1.720 2613
1.029 3.358 1.778 6917
1.078 3.516 1.856 2801
1.027 3.349 1.761 4878
1.075 3.507 1.839 3150
1.028 3.354 1.751 4545
1.074 3.505 1.825 3413
1.034 3.372 1.748 5976
1.080 3.523 1.821 3182
1.037 3.383 1.741 6211
1.081 3.528 1.811 4108
1.041 3.395 1.734 5221
1.081 3.525 1.797 5150
1.103 3.599 1.819 6032
1.050 3.427 1.737 4739
1.100 3.590 1.801 8313
1.060 3.459 1.740 5635
1.106 3.608 1.797 9066
1.066 3.477 1.736 4539
1.110 3.620 1.789 8153
1.069 3.488 1.729 2619
1.107 3.611 1.772 4287
1.149 3.749 1.836 1756
1.095 3.574 1.742 4228
1.159 3.782 1.837 1809
1.124 3.668 1.772 4346
1.165 3.800 1.832 2118
1.130 3.687 1.768 5972
1.171 3.819 1.827 2994
1.168 3.810 1.809 5678
1.127 3.677 1.750 3317
1.173 3.828 1.804 6543
1.133 3.696 1.745 1857
1.179 3.847 1.799 5593
1.136 3.707 1.737 2177
1.193 3.893 1.805 6366
1.153 3.761 1.747 2679
1.197 3.905 1.796 4609
1.156 3.772 1.739 2560
1.196 3.903 1.782 3924
1.239 4.043 1.842 2087
1.196 3.900 1.767 4526
1.243 4.055 1.832 2873
1.218 3.975 1.785 4428
1.178 3.842 1.729 1201
1.220 3.980 1.773 4832
1.261 4.113 1.828 1030
1.241 4.047 1.787 5203
1.282 4.181 1.842 1837
1.277 4.165 1.821 4073
1.236 4.031 1.766 2682
1.254 4.092 1.777 4214
1.295 4.226 1.831 1971
1.260 4.111 1.770 4277
1.303 4.252 1.827 3059
1.307 4.264 1.817 3948
1.266 4.129 1.763 2575
1.315 4.290 1.813 4592
1.274 4.155 1.759 1988
1.321 4.308 1.805 4768
1.362 4.443 1.858 2850
1.320 4.306 1.789 3893
1.361 4.441 1.842 2591
1.317 4.296 1.771 2383
1.367 4.460 1.834 1982
1.366 4.457 1.818 3069
1.325 4.322 1.766 1185
1.363 4.448 1.799 3866
1.405 4.583 1.850 1331
1.367 4.459 1.788 2906
1.408 4.595 1.839 1122
1.371 4.471 1.777 3119
1.434 4.678 1.854 1967
1.376 4.490 1.769 4160
1.431 4.669 1.835 2708
1.432 4.673 1.821 3739
1.380 4.502 1.758 3702
1.469 4.792 1.848 4855
1.427 4.656 1.799 2604
1.475 4.811 1.838 6397
1.433 4.675 1.790 2838
1.481 4.831 1.829 5204
1.439 4.694 1.781 3267
1.515 4.943 1.852 4057
1.473 4.807 1.804 2589
1.521 4.962 1.842 5374
1.479 4.826 1.795 2972
1.520 4.960 1.825 3693
1.478 4.823 1.778 3143
1.537 5.015 1.827 3021
1.478 4.820 1.761 2581
1.536 5.012 1.809 2644
1.481 4.832 1.749 1390
1.606 5.240 1.869 1591
1.547 5.046 1.804 1522
1.610 5.252 1.855 2516
1.568 5.115 1.810 2004
1.611 5.257 1.839 4811
1.569 5.120 1.794 2462
1.615 5.269 1.826 5839
1.657 5.406 1.870 3055
1.656 5.404 1.852 5758
1.614 5.267 1.808 4322
1.658 5.409 1.835 5718
1.616 5.271 1.792 3040
1.664 5.428 1.823 4244
1.622 5.290 1.780 2033
1.641 5.353 1.782 3941
1.683 5.491 1.825 2172
1.676 5.466 1.800 3263
1.633 5.328 1.757 1487
1.675 5.464 1.781 2676
1.717 5.602 1.823 958
1.672 5.454 1.760 2134
1.714 5.592 1.801 900
1.669 5.444 1.739 1426
1.711 5.582 1.780 990
1.708 5.572 1.759 1368
1.654 5.397 1.708 783
1.703 5.555 1.736 1663
1.756 5.730 1.787 875
1.700 5.544 1.715 1235
1.760 5.742 1.771 927
1.761 5.746 1.754 773
1.699 5.542 1.696 757
1.769 5.773 1.743 575
1.812 5.911 1.782 544
1.746 5.696 1.703 407
1.831 5.974 1.780 360
1.835 5.986 1.764 360
1.938 6.323 1.856 263
1.630 5.317 1.563 402
1.633 5.328 1.549 695
1.561 5.093 1.486 289
1.637 5.339 1.535 834
1.560 5.090 1.469 375
1.636 5.336 1.517 702
1.561 5.094 1.454 400
1.639 5.347 1.503 821
1.565 5.105 1.440 436
1.642 5.358 1.488 863
1.568 5.115 1.427 511
1.644 5.362 1.472 723
1.569 5.119 1.411 544
1.640 5.351 1.452 969
1.568 5.115 1.394 393
1.644 5.362 1.438 1105
1.323 4.315 1.182 294
1.647 5.373 1.424 1231
1.394 4.547 1.224 258
1.646 5.369 1.406 1429
2.517 8.210 2.083 326
1.645 5.365 1.388 1793
2.561 8.356 2.091 863
1.643 5.361 1.370 2374
2.563 8.361 2.066 1328
1.644 5.365 1.353 2554
2.565 8.367 2.040 1000
1.648 5.375 1.339 2525
2.571 8.387 2.018 1120
1.649 5.379 1.323 2487
2.570 8.385 1.991 1651
1.650 5.382 1.306 1615
2.572 8.390 1.966 1295
1.648 5.378 1.288 913
2.582 8.424 1.947 837
2.725 8.889 2.019 722
2.588 8.444 1.924 698
2.726 8.895 1.992 842
2.583 8.427 1.894 495
2.726 8.892 1.964 779
1.629 5.313 1.224 350
2.725 8.890 1.935 593
1.630 5.316 1.208 443
1.628 5.312 1.191 701
2.729 8.902 1.910 420
1.627 5.307 1.173 790
2.726 8.892 1.880 267
1.628 5.310 1.157 763
1.629 5.313 1.141 486
1.627 5.308 1.124 294
1.628 5.311 1.108 273
1.624 5.299 1.039 268
1.625 5.301 1.023 275
1.626 5.304 1.007 283
0.701 2.276 1.761 2517
0.712 2.312 1.777 5886
0.748 2.430 1.863 2706
0.717 2.329 1.779 9243
0.754 2.447 1.865 4292
0.723 2.346 1.781 7849
0.759 2.465 1.866 2732
0.730 2.369 1.788 7963
0.766 2.488 1.872 1641
0.745 2.418 1.812 8551
0.708 2.299 1.727 1408
0.748 2.429 1.809 11972
0.785 2.548 1.893 1056
0.751 2.440 1.806 12553
0.788 2.559 1.889 1242
0.755 2.451 1.803 13873
0.792 2.570 1.886 1206
0.758 2.461 1.800 15772
0.795 2.581 1.883 1194
0.760 2.466 1.793 13754
0.723 2.346 1.710 1082
0.761 2.471 1.785 11736
0.724 2.350 1.703 1095
0.762 2.475 1.778 9481
0.800 2.596 1.860 906
0.764 2.480 1.770 7227
0.801 2.601 1.852 1614
0.765 2.484 1.763 7227
0.803 2.606 1.844 2322
0.767 2.489 1.756 5876
0.804 2.610 1.836 2688
0.768 2.493 1.748 4513
0.806 2.615 1.828 3058
0.821 2.665 1.850 4859
0.767 2.492 1.736 3594
0.822 2.669 1.842 6907
0.767 2.490 1.725 2673
0.826 2.681 1.838 6842
0.788 2.558 1.759 2847
0.827 2.685 1.830 6842
0.789 2.563 1.751 3435
0.829 2.690 1.822 5408
0.791 2.567 1.744 2658
0.826 2.682 1.806 4085
0.788 2.559 1.728 1347
0.823 2.673 1.790 3632
0.861 2.797 1.867 2138
0.853 2.769 1.839 3679
0.815 2.646 1.761 3004
0.840 2.728 1.802 3578
0.878 2.852 1.879 1463
0.840 2.726 1.790 4619
0.878 2.850 1.866 2219
0.839 2.724 1.778 4128
0.877 2.848 1.854 2302
0.841 2.729 1.769 3662
0.879 2.853 1.845 1858
0.846 2.746 1.769 3596
0.884 2.871 1.845 1089
0.849 2.758 1.765 3735
0.898 2.915 1.860 1253
0.851 2.762 1.757 2687
0.901 2.926 1.855 1504
0.913 2.964 1.866 1866
0.856 2.780 1.756 1674
0.904 2.936 1.837 2583
0.866 2.811 1.763 1752
0.904 2.934 1.825 3410
0.865 2.809 1.751 1797
0.901 2.925 1.808 3866
0.862 2.800 1.735 1315
0.901 2.924 1.796 4689
0.939 3.049 1.868 1950
0.904 2.935 1.791 5534
0.943 3.061 1.863 2269
0.912 2.959 1.793 5456
0.950 3.086 1.865 1875
0.915 2.971 1.788 4630
0.954 3.097 1.860 1564
0.916 2.975 1.779 3619
0.955 3.102 1.850 1903
0.947 3.073 1.822 3126
0.908 2.946 1.752 2224
0.950 3.085 1.817 2948
0.911 2.957 1.746 2102
0.956 3.103 1.815 2878
0.917 2.975 1.745 1805
0.951 3.087 1.795 2469
0.990 3.215 1.864 764
0.952 3.092 1.785 3195
0.992 3.219 1.855 890
0.958 3.110 1.783 4410
0.919 2.982 1.714 532
0.959 3.114 1.774 4336
0.999 3.242 1.842 1244
0.961 3.119 1.765 3644
1.000 3.247 1.833 2003
0.991 3.218 1.805 4077
0.952 3.090 1.737 1796
0.997 3.236 1.802 5080
0.957 3.108 1.735 2430
1.000 3.248 1.796 5445
0.961 3.119 1.729 2672
1.004 3.259 1.790 6046
0.964 3.130 1.724 2357
1.005 3.264 1.780 6233
1.045 3.393 1.846 1529
1.009 3.275 1.774 5766
1.049 3.404 1.840 1563
1.025 3.327 1.788 4765
0.985 3.198 1.723 2809
1.031 3.345 1.785 6012
0.991 3.216 1.720 2604
1.034 3.357 1.778 6505
1.082 3.514 1.856 2834
1.031 3.348 1.761 4603
1.075 3.492 1.832 3364
1.033 3.352 1.751 4428
1.077 3.496 1.822 3724
1.038 3.371 1.748 5956
1.085 3.522 1.821 3436
1.042 3.382 1.741 6160
1.086 3.526 1.811 4216
1.083 3.517 1.793 5114
1.043 3.386 1.731 4984
1.108 3.597 1.819 5724
1.055 3.425 1.737 4724
1.105 3.588 1.801 7730
1.065 3.457 1.740 5663
1.111 3.607 1.797 8410
1.071 3.476 1.736 4593
1.115 3.618 1.789 7519
1.074 3.487 1.729 2652
1.112 3.609 1.772 3945
1.154 3.748 1.836 1811
1.100 3.572 1.742 4073
1.156 3.752 1.825 1856
1.129 3.667 1.772 4079
1.170 3.799 1.832 1994
1.135 3.685 1.768 5585
1.176 3.817 1.827 2912
1.173 3.808 1.809 5567
1.132 3.676 1.750 3037
1.179 3.827 1.804 6463
1.138 3.694 1.745 1654
1.184 3.845 1.799 5497
1.141 3.706 1.737 1912
1.199 3.892 1.805 6138
1.158 3.759 1.747 2616
1.202 3.903 1.796 4572
1.161 3.771 1.739 2507
1.202 3.901 1.782 4166
1.245 4.041 1.842 2020
1.203 3.906 1.770 4898
1.246 4.046 1.829 2870
1.226 3.980 1.788 4417
1.185 3.847 1.732 1291
1.243 4.034 1.796 4960
1.201 3.901 1.740 1366
1.246 4.046 1.787 5717
1.287 4.179 1.842 2175
1.282 4.163 1.821 4344
1.241 4.029 1.766 3103
1.260 4.090 1.777 4644
1.316 4.274 1.851 2036
1.266 4.109 1.770 4588
1.316 4.271 1.836 3121
1.315 4.269 1.820 4024
1.274 4.135 1.766 2738
1.321 4.288 1.813 4840
1.279 4.153 1.759 2096
1.327 4.307 1.805 5185
1.368 4.441 1.858 2828
1.326 4.304 1.789 4225
1.367 4.439 1.842 2448
1.323 4.295 1.771 2408
1.384 4.493 1.847 1928
1.372 4.455 1.818 3085
1.331 4.320 1.766 1213
1.372 4.453 1.802 3729
1.413 4.588 1.853 1225
1.373 4.458 1.788 2754
1.415 4.593 1.839 1215
1.374 4.462 1.775 3067
1.440 4.676 1.854 2186
1.382 4.488 1.769 4155
1.440 4.674 1.837 2693
1.386 4.500 1.758 3820
1.439 4.671 1.821 3291
1.478 4.798 1.850 4748
1.436 4.662 1.801 2651
1.481 4.809 1.838 6256
1.440 4.673 1.790 2902
1.485 4.821 1.826 5077
1.443 4.685 1.778 3364
1.522 4.941 1.852 4184
1.480 4.805 1.804 2489
1.526 4.953 1.840 5384
1.484 4.816 1.792 2624
1.492 4.842 1.785 3666
1.534 4.979 1.832 3190
1.544 5.013 1.827 2730
1.484 4.818 1.761 2640
1.543 5.010 1.809 2508
1.486 4.823 1.746 1468
1.551 5.036 1.801 1860
1.611 5.231 1.866 1711
1.593 5.171 1.829 2649
1.551 5.034 1.784 1511
1.619 5.255 1.839 4507
1.576 5.118 1.794 2473
1.622 5.267 1.826 5559
1.665 5.404 1.870 3235
1.664 5.402 1.852 5702
1.622 5.264 1.808 4137
1.665 5.407 1.835 5631
1.623 5.269 1.792 2992
1.671 5.426 1.823 4276
1.629 5.288 1.780 2124
1.679 5.452 1.814 4124
1.637 5.314 1.771 2222
1.683 5.464 1.800 3595
1.641 5.326 1.757 1462
1.685 5.469 1.783 2823
1.727 5.607 1.825 973
1.679 5.451 1.760 2119
1.722 5.590 1.801 1073
1.676 5.441 1.739 1295
1.719 5.580 1.780 1044
1.716 5.570 1.759 1528
1.662 5.395 1.708 758
1.710 5.552 1.736 1821
1.764 5.727 1.787 870
1.707 5.542 1.715 1358
1.766 5.732 1.769 872
1.706 5.539 1.696 818
1.767 5.736 1.752 800
1.777 5.770 1.743 668
1.712 5.558 1.683 536
1.776 5.767 1.723 463
1.858 6.030 1.796 368
1.841 5.977 1.762 357
1.769 5.742 1.698 306
1.635 5.307 1.561 436
1.249 4.055 1.222 251
1.638 5.318 1.547 726
1.571 5.099 1.488 265
1.644 5.337 1.535 875
1.567 5.088 1.469 353
1.643 5.334 1.517 730
1.568 5.091 1.454 332
1.646 5.345 1.503 1032
1.572 5.102 1.440 316
1.648 5.349 1.487 1319
1.575 5.113 1.427 353
1.649 5.352 1.470 1270
1.576 5.117 1.411 391
1.645 5.341 1.451 1543
1.575 5.113 1.394 301
1.644 5.338 1.433 1843
2.395 7.776 2.030 286
1.650 5.356 1.420 1950
2.397 7.781 2.006 336
1.651 5.359 1.404 1751
2.526 8.199 2.081 437
1.652 5.363 1.388 1679
2.573 8.352 2.091 910
1.651 5.359 1.370 2258
2.574 8.358 2.066 1373
1.652 5.362 1.353 2606
2.576 8.363 2.040 1113
1.655 5.373 1.339 2600
2.580 8.376 2.017 1131
1.656 5.377 1.323 2522
2.582 8.381 1.991 1597
1.657 5.380 1.306 1625
2.581 8.379 1.964 1300
1.656 5.376 1.288 900
2.592 8.413 1.945 857
2.605 8.456 1.928 683
2.737 8.886 2.019 653
2.736 8.883 1.991 760
2.590 8.409 1.891 445
2.736 8.881 1.962 716
1.638 5.318 1.226 324
1.637 5.314 1.208 559
2.737 8.886 1.935 520
1.635 5.309 1.191 841
2.743 8.906 1.911 329
1.634 5.305 1.173 912
1.635 5.308 1.157 823
1.634 5.303 1.140 533
1.634 5.306 1.124 389
1.635 5.309 1.108 360
1.634 5.304 1.090 265
1.633 5.302 1.057 294
1.632 5.297 1.039 372
1.630 5.292 1.022 403
1.631 5.294 1.006 405
1.631 5.297 0.990 359
1.632 5.299 0.974 256
0.705 2.275 1.761 2591
0.716 2.311 1.777 6116
0.753 2.429 1.863 2738
0.722 2.328 1.779 9636
0.758 2.446 1.865 4332
0.727 2.345 1.781 8188
0.764 2.463 1.866 2797
0.734 2.368 1.788 8260
0.771 2.487 1.872 1747
0.749 2.416 1.812 8473
0.712 2.297 1.727 1497
0.753 2.427 1.809 11851
0.790 2.546 1.893 1014
0.756 2.438 1.806 12396
0.793 2.558 1.889 1177
0.759 2.449 1.803 13733
0.797 2.569 1.886 1134
0.763 2.460 1.800 15731
0.800 2.580 1.883 1140
0.764 2.465 1.793 13630
0.727 2.345 1.710 1105
0.766 2.469 1.785 11528
0.728 2.349 1.703 1128
0.767 2.474 1.778 9332
0.804 2.594 1.860 967
0.768 2.478 1.770 7136
0.806 2.599 1.852 1689
0.770 2.483 1.763 7136
0.807 2.604 1.844 2411
0.771 2.488 1.756 5804
0.809 2.609 1.836 2745
0.773 2.492 1.748 4466
0.810 2.614 1.828 3076
0.826 2.663 1.850 4805
0.772 2.490 1.736 3698
0.827 2.668 1.842 6855
0.773 2.495 1.729 2924
0.831 2.679 1.838 6822
0.793 2.557 1.759 2919
0.832 2.684 1.830 6898
0.794 2.561 1.751 3541
0.834 2.688 1.822 5557
0.796 2.566 1.744 2709
0.833 2.687 1.810 4221
0.795 2.564 1.732 1656
0.830 2.678 1.794 3583
0.869 2.801 1.871 2000
0.856 2.761 1.835 4076
0.818 2.638 1.757 2507
0.847 2.733 1.806 4227
0.886 2.857 1.883 1101
0.847 2.731 1.794 5238
0.885 2.855 1.870 1670
0.846 2.729 1.782 4409
0.885 2.853 1.858 1871
0.846 2.727 1.769 3708
0.884 2.851 1.845 1906
0.851 2.745 1.769 3326
0.890 2.869 1.845 1149
0.855 2.756 1.765 3204
0.901 2.907 1.856 1393
0.856 2.761 1.757 2275
0.905 2.918 1.851 1663
0.908 2.929 1.846 1995
0.861 2.778 1.756 1419
0.908 2.928 1.833 2838
0.869 2.802 1.760 1553
0.909 2.932 1.825 3713
0.870 2.807 1.751 1792
0.907 2.924 1.808 4107
0.868 2.798 1.735 1371
0.906 2.922 1.796 4757
0.945 3.048 1.868 1842
0.909 2.933 1.791 5666
0.949 3.059 1.863 2182
0.917 2.958 1.793 5417
0.956 3.084 1.865 1873
0.921 2.969 1.788 4448
0.960 3.095 1.860 1571
0.922 2.973 1.779 3505
0.961 3.100 1.850 1952
0.952 3.071 1.822 3259
0.913 2.945 1.752 2272
0.956 3.083 1.817 3011
0.916 2.956 1.746 2129
0.961 3.101 1.815 2868
0.922 2.974 1.745 1771
0.957 3.085 1.795 2316
0.996 3.213 1.864 806
0.958 3.090 1.785 2785
0.998 3.218 1.855 894
0.964 3.108 1.783 3859
0.924 2.980 1.714 574
0.965 3.113 1.774 3734
1.005 3.241 1.842 1284
0.994 3.205 1.811 3258
0.954 3.077 1.743 1567
0.997 3.216 1.805 4101
0.957 3.088 1.737 1700
1.003 3.234 1.802 5035
0.963 3.106 1.735 2277
1.006 3.246 1.796 5211
0.967 3.117 1.729 2643
1.008 3.250 1.786 5910
0.968 3.121 1.720 2108
1.011 3.262 1.780 6316
1.051 3.391 1.846 1613
1.015 3.273 1.774 6078
1.055 3.402 1.840 1680
1.033 3.332 1.791 4854
0.993 3.203 1.726 3101
1.037 3.344 1.785 5805
0.997 3.214 1.720 2554
1.040 3.355 1.778 6210
1.089 3.512 1.856 2833
1.037 3.346 1.761 4458
1.080 3.483 1.829 3663
1.039 3.350 1.751 4297
1.083 3.494 1.822 3994
1.044 3.369 1.748 5627
1.089 3.513 1.818 3554
1.048 3.380 1.741 5833
1.093 3.524 1.811 4265
1.090 3.515 1.793 5153
1.049 3.384 1.731 4781
1.115 3.595 1.819 5250
1.074 3.465 1.757 4789
1.112 3.586 1.801 7084
1.071 3.455 1.740 5236
1.118 3.605 1.797 7800
1.077 3.474 1.736 4409
1.121 3.616 1.789 7140
1.081 3.485 1.729 2800
1.118 3.607 1.772 3880
1.161 3.745 1.836 1750
1.107 3.570 1.742 3840
1.161 3.743 1.821 1753
1.134 3.658 1.769 3867
1.175 3.790 1.829 1860
1.142 3.683 1.768 5243
1.183 3.815 1.827 2806
1.180 3.806 1.809 5552
1.139 3.674 1.750 2838
1.186 3.824 1.804 6413
1.145 3.692 1.745 1487
1.192 3.843 1.799 5268
1.151 3.711 1.740 1775
1.208 3.897 1.808 5732
1.167 3.764 1.750 2656
1.216 3.922 1.805 4446
1.175 3.789 1.748 3017
1.220 3.934 1.797 4255
1.179 3.801 1.740 1708
1.210 3.903 1.770 4807
1.254 4.044 1.829 2809
1.233 3.978 1.788 4426
1.192 3.845 1.732 1362
1.250 4.032 1.796 4960
1.209 3.898 1.740 1485
1.254 4.043 1.787 5767
1.295 4.177 1.842 2481
1.290 4.161 1.821 4615
1.249 4.027 1.766 3079
1.268 4.088 1.777 4962
1.324 4.271 1.851 2150
1.273 4.106 1.770 4546
1.324 4.269 1.836 3446
1.325 4.274 1.823 4218
1.283 4.139 1.769 2948
1.329 4.285 1.813 4970
1.287 4.151 1.759 1983
1.335 4.304 1.805 5247
1.376 4.439 1.858 2738
1.329 4.287 1.784 4010
1.371 4.422 1.836 2625
1.326 4.278 1.765 2428
1.392 4.491 1.847 1822
1.381 4.453 1.818 2992
1.339 4.318 1.766 1380
1.380 4.450 1.802 3524
1.422 4.586 1.853 1226
1.379 4.448 1.785 2709
1.421 4.583 1.836 1499
1.383 4.460 1.775 3259
1.449 4.673 1.854 2374
1.389 4.478 1.766 4414
1.451 4.678 1.840 2698
1.394 4.497 1.758 4069
1.450 4.676 1.823 2787
1.487 4.795 1.850 4805
1.445 4.659 1.801 2304
1.490 4.807 1.838 6382
1.448 4.671 1.790 2909
1.494 4.819 1.826 5228
1.452 4.683 1.778 3308
1.531 4.938 1.852 4310
1.489 4.802 1.804 2614
1.535 4.950 1.840 5386
1.493 4.814 1.792 2690
1.501 4.840 1.785 3735
1.543 4.976 1.832 3039
1.493 4.816 1.761 2641
1.553 5.010 1.827 2468
1.553 5.007 1.809 2496
1.492 4.813 1.744 1501
1.558 5.026 1.799 2236
1.619 5.221 1.864 1842
1.602 5.168 1.829 2874
1.555 5.016 1.779 1779
1.628 5.252 1.839 4247
1.586 5.115 1.794 2450
1.632 5.264 1.826 5308
1.675 5.401 1.870 3313
1.674 5.399 1.852 5567
1.631 5.261 1.808 3916
1.675 5.403 1.835 5636
1.633 5.266 1.792 2827
1.681 5.423 1.823 4443
1.639 5.285 1.780 2128
1.690 5.449 1.814 4351
1.647 5.311 1.771 2139
1.693 5.461 1.800 3825
1.651 5.323 1.757 1405
1.695 5.466 1.783 2891
1.737 5.604 1.825 1080
1.694 5.463 1.764 2103
1.737 5.601 1.806 1176
1.688 5.446 1.741 1191
1.731 5.584 1.782 1050
1.724 5.559 1.757 1650
1.672 5.392 1.708 698
1.721 5.549 1.736 1954
1.777 5.731 1.789 889
1.717 5.539 1.715 1416
1.776 5.729 1.769 902
1.778 5.733 1.752 882
1.717 5.536 1.696 850
1.786 5.759 1.741 748
1.720 5.548 1.681 510
1.787 5.764 1.723 508
1.853 5.976 1.782 348
1.777 5.732 1.696 383
1.850 5.966 1.760 330
1.642 5.297 1.559 403
2.135 6.885 1.990 318
1.650 5.323 1.549 652
1.342 4.326 1.282 324
1.654 5.334 1.535 871
1.286 4.146 1.221 306
1.653 5.331 1.517 923
1.280 4.127 1.203 284
1.654 5.334 1.501 1466
1.358 4.380 1.255 329
1.657 5.345 1.487 1946
1.418 4.574 1.290 305
1.656 5.342 1.469 1947
1.392 4.489 1.254 331
1.655 5.338 1.451 2186
2.408 7.766 2.054 309
1.654 5.334 1.433 2742
2.412 7.779 2.032 497
1.657 5.345 1.418 3006
2.414 7.784 2.008 505
1.659 5.349 1.402 2429
2.541 8.195 2.081 546
1.660 5.352 1.386 1704
2.588 8.348 2.091 963
1.661 5.356 1.370 2191
2.590 8.353 2.066 1443
1.662 5.359 1.353 2695
2.592 8.358 2.040 1232
1.665 5.370 1.339 2645
2.593 8.364 2.015 1169
1.666 5.373 1.323 2493
2.595 8.369 1.990 1544
1.667 5.377 1.306 1608
2.597 8.374 1.964 1306
1.666 5.373 1.288 910
2.607 8.409 1.945 906
2.627 8.473 1.932 818
2.749 8.866 2.016 578
2.751 8.871 1.989 730
2.633 8.493 1.910 570
2.750 8.869 1.961 717
1.648 5.315 1.226 418
1.644 5.303 1.207 721
2.751 8.874 1.934 486
1.645 5.306 1.191 1008
2.762 8.908 1.913 274
1.644 5.302 1.173 1074
1.643 5.297 1.156 961
1.643 5.300 1.140 676
1.642 5.295 1.122 536
1.643 5.298 1.106 439
1.644 5.301 1.090 292
1.644 5.303 1.074 288
1.643 5.299 1.057 369
1.639 5.286 1.038 485
1.640 5.289 1.022 577
1.643 5.299 1.007 597
1.641 5.293 0.990 520
1.642 5.296 0.974 381
1.643 5.298 0.958 274
0.708 2.274 1.761 2630
0.719 2.310 1.777 6201
0.756 2.428 1.863 2676
0.724 2.327 1.779 9799
0.761 2.445 1.865 4227
0.730 2.344 1.781 8332
0.767 2.462 1.866 2767
0.737 2.367 1.788 8407
0.774 2.486 1.872 1801
0.752 2.415 1.812 8244
0.715 2.297 1.727 1528
0.756 2.426 1.809 11518
0.793 2.546 1.893 962
0.759 2.437 1.806 12015
0.796 2.557 1.889 1091
0.762 2.448 1.803 13289
0.800 2.568 1.886 1034
0.766 2.459 1.800 15287
0.728 2.339 1.717 1093
0.767 2.464 1.793 13186
0.730 2.344 1.710 1122
0.769 2.468 1.785 11085
0.731 2.348 1.703 1150
0.770 2.473 1.778 9010
0.808 2.594 1.860 1027
0.771 2.478 1.770 6935
0.809 2.598 1.852 1706
0.773 2.482 1.763 6935
0.811 2.603 1.844 2385
0.774 2.487 1.756 5613
0.812 2.608 1.836 2714
0.776 2.491 1.748 4288
0.813 2.613 1.828 3020
0.829 2.662 1.850 4615
0.775 2.489 1.736 3690
0.830 2.667 1.842 6653
0.778 2.500 1.733 3090
0.834 2.678 1.838 6734
0.796 2.556 1.759 2983
0.835 2.683 1.830 6954
0.797 2.560 1.751 3638
0.837 2.687 1.822 5664
0.799 2.565 1.744 2767
0.838 2.692 1.814 4374
0.800 2.569 1.736 1897
0.844 2.710 1.814 3800
0.805 2.587 1.737 1388
0.859 2.760 1.835 4424
0.821 2.637 1.757 2426
0.851 2.732 1.806 4848
0.889 2.855 1.883 1054
0.850 2.730 1.794 5929
0.889 2.854 1.870 1610
0.850 2.728 1.782 4836
0.888 2.852 1.858 1833
0.849 2.726 1.769 3840
0.888 2.850 1.845 1911
0.854 2.744 1.769 3204
0.893 2.868 1.845 1183
0.858 2.755 1.765 2702
0.903 2.899 1.852 1502
0.859 2.760 1.757 1893
0.906 2.910 1.847 1796
0.912 2.928 1.846 2132
0.873 2.803 1.772 1272
0.911 2.927 1.833 3005
0.872 2.801 1.760 1513
0.913 2.931 1.825 3889
0.874 2.806 1.751 1825
0.910 2.923 1.808 4303
0.871 2.797 1.735 1433
0.909 2.921 1.796 4857
0.949 3.046 1.868 1742
0.913 2.932 1.791 5840
0.952 3.058 1.863 2075
0.919 2.950 1.789 5407
0.958 3.076 1.861 2029
0.924 2.968 1.788 4241
0.963 3.094 1.860 1531
0.923 2.966 1.775 3392
0.963 3.092 1.846 2270
0.956 3.070 1.822 3392
0.917 2.944 1.752 2345
0.960 3.082 1.817 3132
0.920 2.955 1.746 2167
0.965 3.100 1.815 2986
0.926 2.973 1.745 1758
0.960 3.084 1.795 2303
1.000 3.212 1.864 835
0.962 3.089 1.785 2607
1.002 3.216 1.855 886
0.967 3.107 1.783 3582
0.928 2.979 1.714 541
0.969 3.111 1.774 3434
1.009 3.239 1.842 1306
1.000 3.210 1.815 3195
0.960 3.082 1.747 1847
1.003 3.222 1.809 4063
0.963 3.093 1.741 1915
1.007 3.233 1.802 4881
0.967 3.105 1.735 2200
1.010 3.245 1.796 4862
0.970 3.116 1.729 2618
1.012 3.249 1.786 5643
0.972 3.120 1.720 2074
1.015 3.261 1.780 6148
1.055 3.390 1.846 1677
1.021 3.279 1.777 6132
1.061 3.408 1.843 1674
1.035 3.324 1.788 5043
0.995 3.195 1.723 2957
1.041 3.342 1.785 5674
1.000 3.213 1.720 2405
1.044 3.354 1.778 6009
1.085 3.483 1.843 2869
1.052 3.379 1.778 4429
1.093 3.509 1.842 3293
1.071 3.438 1.795 4563
1.030 3.308 1.731 3513
1.049 3.367 1.748 5396
1.091 3.504 1.815 3603
1.052 3.379 1.741 5478
1.095 3.516 1.807 4232
1.064 3.417 1.747 5252
1.105 3.548 1.810 3929
1.093 3.511 1.780 5136
1.134 3.642 1.842 3414
1.116 3.585 1.801 6493
1.076 3.454 1.740 4880
1.120 3.596 1.794 7192
1.079 3.465 1.733 4007
1.123 3.608 1.786 6694
1.083 3.477 1.725 2675
1.123 3.606 1.772 3790
1.166 3.744 1.836 1764
1.111 3.569 1.742 3458
1.165 3.742 1.821 1690
1.139 3.656 1.769 3910
1.180 3.788 1.829 1539
1.144 3.675 1.765 5065
1.185 3.807 1.824 2823
1.185 3.804 1.809 5343
1.143 3.672 1.750 2756
1.190 3.823 1.804 6212
1.149 3.691 1.745 1334
1.194 3.835 1.795 4954
1.153 3.702 1.737 1596
1.215 3.902 1.811 5273
1.174 3.769 1.754 2913
1.223 3.928 1.808 4579
1.182 3.795 1.751 3065
1.224 3.932 1.797 4751
1.183 3.799 1.740 1857
1.215 3.902 1.770 5448
1.259 4.042 1.829 2650
1.236 3.970 1.785 4196
1.195 3.836 1.729 1200
1.255 4.030 1.796 4893
1.213 3.897 1.740 1742
1.259 4.042 1.787 5822
1.300 4.176 1.842 2719
1.295 4.159 1.821 4940
1.253 4.025 1.766 3390
1.275 4.093 1.780 5025
1.329 4.270 1.851 2101
1.280 4.112 1.773 4712
1.329 4.267 1.836 3542
1.330 4.272 1.823 4302
1.288 4.138 1.769 2952
1.336 4.291 1.815 5134
1.294 4.156 1.762 1978
1.340 4.302 1.805 5676
1.382 4.437 1.858 2636
1.335 4.286 1.784 4354
1.376 4.420 1.836 2485
1.332 4.276 1.765 2554
1.374 4.411 1.817 1912
1.386 4.451 1.818 3090
1.344 4.316 1.766 1310
1.365 4.385 1.777 3640
1.416 4.548 1.839 2042
1.387 4.453 1.788 2727
1.429 4.589 1.839 1331
1.388 4.458 1.775 3380
1.455 4.672 1.854 2516
1.394 4.477 1.766 4576
1.456 4.676 1.840 2725
1.400 4.496 1.758 4197
1.455 4.674 1.823 2569
1.492 4.793 1.850 4651
1.399 4.493 1.742 2269
1.496 4.805 1.838 6230
1.454 4.669 1.790 2962
1.500 4.817 1.826 5209
1.457 4.681 1.778 3214
1.537 4.936 1.852 4504
1.495 4.800 1.804 2433
1.541 4.948 1.840 5430
1.498 4.812 1.792 2562
1.506 4.838 1.785 3765
1.549 4.974 1.832 2904
1.499 4.814 1.761 2669
1.541 4.950 1.807 2285
1.559 5.005 1.809 2556
1.498 4.811 1.744 1511
1.562 5.017 1.797 2621
1.625 5.219 1.864 1862
1.609 5.166 1.829 3002
1.559 5.007 1.777 2001
1.635 5.250 1.839 3964
1.592 5.113 1.794 2346
1.636 5.255 1.823 4999
1.679 5.392 1.868 3475
1.680 5.397 1.852 5404
1.638 5.259 1.808 3608
1.682 5.401 1.835 5577
1.639 5.264 1.792 2484
1.688 5.421 1.823 4430
1.645 5.283 1.780 2010
1.696 5.447 1.814 4319
1.653 5.309 1.771 2050
1.700 5.459 1.800 3809
1.657 5.321 1.757 1349
1.701 5.464 1.783 2817
1.744 5.601 1.825 1120
1.700 5.461 1.764 2046
1.743 5.599 1.806 1317
1.733 5.567 1.778 1154
1.690 5.429 1.737 1051
1.730 5.557 1.757 1717
1.782 5.724 1.806 604
1.727 5.547 1.736 1965
1.784 5.729 1.789 949
1.724 5.537 1.715 1413
1.783 5.726 1.769 922
1.750 5.622 1.721 975
1.794 5.760 1.760 776
1.793 5.757 1.741 830
1.727 5.546 1.681 529
1.794 5.762 1.723 541
1.860 5.974 1.782 421
1.784 5.730 1.696 411
1.827 5.869 1.734 361
1.649 5.295 1.559 397
2.143 6.883 1.990 341
1.657 5.321 1.549 618
1.658 5.325 1.533 925
1.284 4.123 1.215 293
1.657 5.321 1.515 1247
1.351 4.338 1.258 272
1.660 5.332 1.501 1990
1.704 5.472 1.537 283
1.662 5.336 1.485 2591
1.705 5.476 1.520 429
1.663 5.340 1.469 2593
1.706 5.480 1.504 330
1.659 5.329 1.449 2773
2.417 7.763 2.054 509
1.658 5.325 1.431 3603
2.421 7.776 2.032 747
1.662 5.336 1.416 4177
2.423 7.781 2.008 670
1.665 5.347 1.402 3269
2.553 8.199 2.083 645
1.666 5.350 1.386 1853
2.598 8.345 2.091 971
1.667 5.354 1.370 2116
2.600 8.350 2.066 1421
1.668 5.357 1.353 2678
2.602 8.355 2.040 1304
1.672 5.368 1.339 2602
2.603 8.361 2.015 1172
1.673 5.371 1.323 2404
2.605 8.366 1.990 1435
1.674 5.375 1.306 1562
2.607 8.371 1.964 1250
2.645 8.494 1.964 1084
1.672 5.371 1.288 925
2.642 8.485 1.935 1067
2.760 8.862 2.016 515
2.646 8.497 1.911 779
2.761 8.868 1.989 667
2.760 8.865 1.961 705
1.652 5.306 1.224 562
1.651 5.301 1.207 878
2.762 8.870 1.934 459
1.652 5.304 1.191 1140
2.775 8.912 1.914 253
1.650 5.300 1.173 1170
1.649 5.295 1.156 984
2.699 8.669 1.811 277
1.650 5.298 1.140 714
2.706 8.689 1.787 267
1.648 5.293 1.122 617
1.649 5.296 1.106 500
1.648 5.291 1.089 340
1.648 5.294 1.073 353
1.647 5.289 1.055 488
1.648 5.292 1.039 642
1.646 5.287 1.022 763
1.649 5.297 1.007 777
1.648 5.292 0.990 663
1.648 5.294 0.974 482
1.649 5.296 0.958 339
1.647 5.291 0.941 275
0.712 2.273 1.761 2691
0.723 2.308 1.777 6340
0.760 2.426 1.863 2642
0.729 2.325 1.779 10086
0.766 2.443 1.865 4179
0.734 2.342 1.781 8602
0.771 2.461 1.866 2771
0.741 2.366 1.788 8630
0.779 2.484 1.872 1875
0.757 2.414 1.812 8019
0.719 2.295 1.727 1596
0.760 2.425 1.809 11174
0.797 2.544 1.893 906
0.763 2.436 1.806 11608
0.801 2.555 1.889 999
0.767 2.447 1.803 12795
0.804 2.566 1.886 917
0.770 2.458 1.800 14776
0.733 2.338 1.717 1091
0.772 2.462 1.793 12708
0.734 2.342 1.710 1124
0.773 2.467 1.785 10641
0.736 2.347 1.703 1158
0.775 2.472 1.778 8696
0.812 2.592 1.860 1134
0.774 2.470 1.766 6755
0.812 2.590 1.848 2257
0.775 2.474 1.759 6755
0.813 2.595 1.840 2864
0.779 2.485 1.756 5416
0.817 2.606 1.836 2716
0.780 2.490 1.748 4080
0.818 2.611 1.828 2969
0.834 2.661 1.850 4430
0.782 2.494 1.741 3711
0.835 2.665 1.842 6431
0.783 2.499 1.733 3343
0.839 2.676 1.838 6610
0.801 2.554 1.759 3145
0.840 2.681 1.830 6944
0.802 2.559 1.751 3835
0.842 2.686 1.822 5753
0.803 2.563 1.744 2890
0.845 2.697 1.818 4582
0.807 2.574 1.740 2014
0.849 2.708 1.814 4279
0.810 2.585 1.737 1373
0.864 2.758 1.835 4886
0.826 2.635 1.757 2244
0.856 2.730 1.806 5652
0.894 2.854 1.883 1050
0.855 2.729 1.794 6824
0.894 2.852 1.870 1657
0.857 2.733 1.786 5541
0.895 2.857 1.862 1521
0.856 2.731 1.773 4331
0.895 2.855 1.849 1673
0.860 2.742 1.769 3272
0.898 2.867 1.845 1330
0.863 2.753 1.765 2326
0.908 2.897 1.852 1666
0.910 2.902 1.843 2028
0.866 2.764 1.761 1609
0.909 2.900 1.830 2428
0.870 2.776 1.756 1044
0.915 2.918 1.830 3264
0.875 2.793 1.756 1384
0.916 2.923 1.821 4164
0.877 2.798 1.747 1637
0.916 2.921 1.808 4588
0.876 2.796 1.735 1528
0.917 2.926 1.799 5134
0.878 2.800 1.727 1624
0.918 2.930 1.791 6095
0.958 3.056 1.863 1960
0.924 2.948 1.789 5418
0.964 3.074 1.861 1954
0.928 2.959 1.784 4033
0.967 3.086 1.856 1756
0.929 2.964 1.775 3271
0.969 3.090 1.846 2322
0.962 3.068 1.822 3525
0.922 2.942 1.752 2429
0.967 3.086 1.820 3281
0.928 2.960 1.750 2275
0.971 3.098 1.815 3209
0.931 2.971 1.745 1606
0.974 3.109 1.809 2457
0.935 2.982 1.740 1062
0.991 3.161 1.825 2517
0.951 3.033 1.756 1058
0.973 3.105 1.783 3208
0.933 2.977 1.714 592
0.975 3.110 1.774 3036
1.015 3.237 1.842 1339
1.006 3.208 1.815 3165
0.965 3.080 1.747 1748
1.009 3.220 1.809 4035
0.969 3.092 1.741 1786
1.013 3.231 1.802 4707
0.973 3.103 1.735 2118
1.014 3.236 1.793 4495
0.974 3.107 1.726 2361
1.018 3.247 1.786 5454
0.977 3.119 1.720 2122
1.023 3.265 1.784 6244
0.983 3.136 1.718 1614
1.029 3.284 1.781 6549
0.989 3.154 1.715 1835
1.039 3.315 1.785 5430
0.999 3.186 1.719 2909
1.047 3.340 1.785 5573
1.006 3.211 1.720 2310
1.051 3.352 1.778 5808
1.091 3.481 1.843 3118
1.076 3.432 1.805 4751
1.035 3.302 1.741 3069
1.077 3.436 1.795 5403
1.036 3.306 1.731 3562
1.055 3.365 1.748 4983
1.096 3.496 1.811 3838
1.071 3.418 1.761 5673
1.112 3.548 1.824 2693
1.073 3.422 1.751 5418
1.114 3.553 1.813 3201
1.098 3.503 1.776 5167
1.139 3.633 1.838 3637
1.121 3.576 1.798 5524
1.078 3.438 1.733 4050
1.127 3.594 1.794 6233
1.085 3.463 1.733 3461
1.132 3.613 1.789 6193
1.091 3.482 1.729 2668
1.138 3.631 1.785 3988
1.097 3.500 1.724 1640
1.116 3.560 1.739 3141
1.157 3.691 1.799 1875
1.145 3.654 1.769 4096
1.104 3.522 1.710 1504
1.151 3.673 1.765 5049
1.192 3.805 1.824 2560
1.192 3.802 1.809 4943
1.150 3.670 1.750 2775
1.198 3.821 1.804 5652
1.156 3.689 1.745 1311
1.201 3.832 1.795 4380
1.160 3.700 1.737 1556
1.224 3.907 1.814 4954
1.183 3.774 1.757 3160
1.230 3.925 1.808 4891
1.189 3.793 1.751 2812
1.232 3.930 1.797 5439
1.190 3.797 1.740 1847
1.224 3.907 1.773 5840
1.266 4.040 1.829 2543
1.243 3.967 1.785 4138
1.202 3.834 1.729 1462
1.260 4.021 1.793 5060
1.218 3.888 1.738 2186
1.266 4.040 1.787 6039
1.308 4.173 1.842 2967
1.303 4.157 1.821 5215
1.261 4.023 1.766 3817
1.282 4.091 1.780 5169
1.335 4.260 1.848 2172
1.286 4.103 1.770 4668
1.337 4.265 1.836 3836
1.338 4.269 1.823 4432
1.263 4.029 1.727 2764
1.346 4.295 1.818 5128
1.262 4.027 1.712 2127
1.348 4.300 1.805 5752
1.390 4.434 1.858 2504
1.340 4.276 1.781 4472
1.382 4.411 1.833 2319
1.371 4.373 1.804 2997
1.328 4.238 1.752 2663
1.372 4.378 1.791 3472
1.414 4.512 1.842 1670
1.373 4.382 1.777 3622
1.425 4.546 1.839 2131
1.393 4.444 1.785 2779
1.435 4.579 1.836 1694
1.396 4.455 1.775 3761
1.463 4.669 1.854 2601
1.402 4.474 1.766 4842
1.467 4.681 1.843 2783
1.408 4.493 1.758 4307
1.466 4.678 1.826 2418
1.501 4.790 1.850 4306
1.459 4.655 1.801 2403
1.505 4.802 1.838 5891
1.463 4.666 1.790 3150
1.509 4.814 1.826 4974
1.466 4.678 1.778 3289
1.546 4.933 1.852 4946
1.504 4.797 1.804 2343
1.550 4.945 1.840 5782
1.507 4.809 1.792 2389
1.549 4.943 1.822 3709
1.506 4.806 1.775 2933
1.508 4.811 1.761 2676
1.551 4.947 1.807 2196
1.570 5.010 1.812 2559
1.507 4.808 1.744 1653
1.569 5.007 1.794 3025
1.635 5.216 1.864 2031
1.620 5.170 1.831 3095
1.568 5.004 1.777 2207
1.622 5.175 1.816 3868
1.676 5.348 1.872 2528
1.646 5.252 1.823 4634
1.689 5.389 1.868 3392
1.690 5.394 1.852 5025
1.647 5.256 1.808 3174
1.692 5.398 1.835 5450
1.649 5.261 1.792 2079
1.696 5.410 1.821 4401
1.653 5.273 1.778 1817
1.706 5.444 1.814 4027
1.663 5.306 1.771 1940
1.710 5.456 1.800 3631
1.667 5.318 1.757 1203
1.711 5.460 1.783 2698
1.755 5.598 1.825 1322
1.711 5.458 1.764 1945
1.754 5.596 1.806 1625
1.742 5.557 1.776 1180
1.698 5.419 1.735 897
1.741 5.554 1.757 1726
1.793 5.721 1.806 686
1.738 5.544 1.736 1951
1.795 5.726 1.789 1016
1.759 5.614 1.738 1453
1.828 5.832 1.801 755
1.761 5.618 1.721 1030
1.804 5.757 1.760 836
1.803 5.754 1.741 963
1.735 5.535 1.679 462
1.805 5.758 1.723 577
1.871 5.970 1.782 401
1.795 5.726 1.696 424
1.838 5.865 1.734 421
1.659 5.292 1.559 439
1.837 5.862 1.714 344
1.664 5.310 1.547 574
1.318 4.205 1.251 273
1.668 5.322 1.533 1052
1.665 5.311 1.513 1803
1.368 4.365 1.266 296
1.668 5.322 1.499 2823
1.302 4.156 1.198 399
1.671 5.333 1.485 3508
1.715 5.473 1.520 591
1.673 5.337 1.469 3480
1.716 5.476 1.504 545
1.669 5.326 1.449 3551
2.432 7.759 2.054 670
1.668 5.322 1.431 4728
2.436 7.771 2.032 992
1.671 5.333 1.416 5750
2.440 7.784 2.010 871
1.673 5.337 1.400 4587
2.566 8.187 2.081 755
1.674 5.340 1.384 2340
2.614 8.340 2.091 951
1.675 5.343 1.368 2125
2.616 8.345 2.066 1380
1.678 5.354 1.353 2597
2.615 8.343 2.039 1419
1.682 5.365 1.339 2465
2.617 8.348 2.013 1193
1.683 5.368 1.323 2164
2.660 8.486 2.018 1447
2.664 8.499 1.993 1789
1.684 5.372 1.306 1408
2.663 8.497 1.966 1678
1.680 5.360 1.287 846
2.662 8.494 1.939 1543
2.744 8.754 1.994 475
2.662 8.492 1.911 1141
2.738 8.736 1.963 669
2.663 8.497 1.885 836
1.662 5.303 1.224 694
1.661 5.298 1.207 1000
2.744 8.754 1.911 450
1.662 5.301 1.191 1214
1.660 5.297 1.173 1212
1.659 5.292 1.156 971
2.718 8.672 1.812 280
1.660 5.295 1.140 762
2.722 8.684 1.787 284
1.658 5.290 1.122 732
1.659 5.293 1.106 559
1.657 5.288 1.089 361
1.658 5.291 1.073 430
1.657 5.286 1.055 671
1.658 5.289 1.039 844
1.656 5.284 1.022 1011
1.659 5.293 1.007 1033
1.658 5.288 0.990 866
1.658 5.291 0.974 641
1.659 5.293 0.958 487
1.657 5.288 0.941 399
1.656 5.283 0.924 325
0.716 2.272 1.761 2681
0.727 2.307 1.777 6365
0.764 2.425 1.863 2511
0.732 2.324 1.779 10203
0.769 2.442 1.865 3968
0.737 2.341 1.781 8696
0.775 2.460 1.866 2664
0.743 2.358 1.783 8667
0.780 2.477 1.868 1976
0.760 2.413 1.812 7679
0.723 2.294 1.727 1614
0.763 2.424 1.809 10689
0.801 2.543 1.893 833
0.767 2.435 1.806 11063
0.804 2.554 1.889 918
0.770 2.446 1.803 12145
0.808 2.565 1.886 815
0.774 2.457 1.800 14053
0.736 2.337 1.717 1086
0.775 2.461 1.793 12071
0.737 2.341 1.710 1133
0.777 2.466 1.785 10089
0.815 2.586 1.867 1209
0.778 2.470 1.778 8292
0.816 2.591 1.860 1209
0.778 2.469 1.766 6509
0.816 2.589 1.848 2361
0.779 2.473 1.759 6509
0.817 2.594 1.840 2964
0.782 2.484 1.756 5155
0.821 2.605 1.836 2763
0.784 2.489 1.748 3815
0.822 2.610 1.828 2996
0.836 2.653 1.846 4232
0.785 2.493 1.741 3631
0.839 2.664 1.842 6165
0.789 2.504 1.737 3448
0.843 2.675 1.838 6347
0.802 2.547 1.755 3222
0.844 2.680 1.830 6703
0.806 2.558 1.751 3918
0.846 2.685 1.822 5612
0.807 2.562 1.744 2931
0.849 2.696 1.818 4586
0.810 2.573 1.740 1986
0.853 2.707 1.814 4553
0.812 2.578 1.732 1380
0.866 2.750 1.830 5133
0.828 2.627 1.753 1752
0.860 2.729 1.806 6183
0.898 2.853 1.883 994
0.861 2.734 1.798 7384
0.900 2.857 1.874 1194
0.861 2.732 1.786 6035
0.899 2.856 1.862 1511
0.860 2.730 1.773 4691
0.899 2.854 1.849 1727
0.863 2.741 1.769 3474
0.902 2.865 1.845 1443
0.867 2.752 1.765 2368
0.912 2.896 1.852 1788
0.912 2.894 1.839 2201
0.872 2.770 1.765 1720
0.913 2.899 1.830 2652
0.874 2.774 1.756 1156
0.919 2.917 1.830 3405
0.879 2.792 1.756 1513
0.920 2.922 1.821 4287
0.881 2.796 1.747 1718
0.920 2.920 1.808 4745
0.880 2.794 1.735 1578
0.921 2.924 1.799 5309
0.882 2.799 1.727 1656
0.923 2.929 1.791 6246
0.962 3.055 1.863 1810
0.926 2.940 1.786 5468
0.966 3.066 1.857 1952
0.932 2.958 1.784 3945
0.971 3.084 1.856 1648
0.931 2.956 1.772 3246
0.971 3.082 1.843 2456
0.966 3.067 1.822 3538
0.926 2.941 1.752 2491
0.972 3.085 1.820 3321
0.932 2.958 1.750 2243
0.975 3.096 1.815 3294
0.935 2.969 1.745 1497
0.979 3.108 1.809 2574
0.939 2.981 1.740 974
0.995 3.159 1.825 2343
0.947 3.005 1.742 987
0.975 3.097 1.780 2771
0.935 2.969 1.711 483
0.979 3.108 1.774 2582
1.019 3.236 1.842 1321
1.010 3.207 1.815 3013
0.970 3.079 1.747 1687
1.014 3.218 1.809 3881
0.973 3.090 1.741 1710
1.017 3.230 1.802 4542
0.977 3.102 1.735 2053
1.019 3.234 1.793 4298
0.978 3.106 1.726 2345
1.022 3.246 1.786 5360
0.982 3.117 1.720 2113
1.028 3.264 1.784 6350
0.987 3.135 1.718 1663
1.036 3.289 1.784 6971
0.995 3.160 1.719 2422
1.044 3.314 1.785 5767
1.003 3.185 1.719 3020
1.052 3.339 1.785 5548
1.092 3.468 1.850 2395
1.057 3.357 1.782 5704
1.098 3.487 1.846 3022
1.080 3.430 1.805 5139
1.040 3.300 1.741 2864
1.082 3.435 1.795 5935
1.041 3.305 1.731 3249
1.083 3.439 1.785 5329
1.042 3.309 1.721 3439
1.078 3.423 1.764 5971
1.037 3.293 1.701 2101
1.086 3.448 1.764 5698
1.138 3.613 1.843 2796
1.103 3.501 1.776 5245
1.144 3.632 1.838 3439
1.126 3.574 1.798 4789
1.078 3.423 1.727 3494
1.132 3.593 1.794 5455
1.090 3.462 1.733 3019
1.137 3.611 1.789 5955
1.096 3.480 1.729 2493
1.143 3.630 1.785 4447
1.102 3.498 1.724 1641
1.147 3.641 1.777 3167
1.105 3.510 1.717 1271
1.148 3.646 1.766 4321
1.190 3.777 1.826 1332
1.154 3.664 1.761 5041
1.196 3.796 1.821 2531
1.197 3.801 1.809 4870
1.156 3.669 1.750 2785
1.201 3.812 1.801 5584
1.159 3.680 1.742 1152
1.204 3.824 1.792 4257
1.246 3.956 1.850 1439
1.232 3.912 1.817 4559
1.190 3.780 1.760 3248
1.236 3.924 1.808 4847
1.194 3.791 1.751 2600
1.237 3.928 1.797 5596
1.196 3.795 1.740 1872
1.230 3.905 1.773 6010
1.272 4.038 1.829 2415
1.229 3.902 1.758 4265
1.273 4.043 1.817 3173
1.268 4.026 1.796 4816
1.226 3.893 1.740 2773
1.272 4.038 1.787 5766
1.314 4.171 1.842 3037
1.309 4.155 1.821 5234
1.267 4.021 1.766 3989
1.288 4.089 1.780 5232
1.246 3.955 1.725 2054
1.292 4.101 1.770 4701
1.343 4.263 1.836 3562
1.344 4.268 1.823 4173
1.295 4.112 1.761 2740
1.352 4.293 1.818 4905
1.270 4.032 1.715 1703
1.356 4.305 1.808 5610
1.398 4.439 1.861 2180
1.344 4.267 1.778 4553
1.386 4.402 1.831 2230
1.377 4.371 1.804 3418
1.334 4.236 1.752 3118
1.376 4.369 1.788 3780
1.334 4.234 1.736 1701
1.380 4.380 1.777 3571
1.431 4.544 1.839 1968
1.399 4.442 1.785 2595
1.442 4.577 1.836 1580
1.403 4.453 1.775 3300
1.470 4.667 1.854 2546
1.411 4.479 1.769 4425
1.474 4.679 1.843 2746
1.415 4.491 1.758 3912
1.475 4.683 1.828 2284
1.508 4.788 1.850 3929
1.465 4.652 1.801 2657
1.512 4.800 1.838 5548
1.469 4.664 1.790 3220
1.516 4.812 1.826 4942
1.473 4.676 1.778 3117
1.553 4.931 1.852 5112
1.510 4.795 1.804 2360
1.557 4.943 1.840 5824
1.514 4.807 1.792 2336
1.556 4.941 1.822 3797
1.513 4.804 1.775 2983
1.515 4.809 1.761 2628
1.558 4.945 1.807 2374
1.579 5.015 1.814 2703
1.638 5.201 1.877 1516
1.576 5.005 1.794 3324
1.642 5.213 1.864 2092
1.628 5.168 1.831 3120
1.576 5.002 1.777 2331
1.629 5.172 1.816 4097
1.681 5.338 1.870 2462
1.651 5.242 1.821 4413
1.694 5.379 1.866 3321
1.698 5.391 1.852 4700
1.655 5.254 1.808 2906
1.700 5.396 1.835 5204
1.656 5.259 1.792 1849
1.703 5.408 1.821 4287
1.660 5.270 1.778 1754
1.714 5.441 1.814 3864
1.671 5.304 1.771 1884
1.718 5.453 1.800 3533
1.761 5.591 1.842 1223
1.719 5.458 1.783 2506
1.763 5.596 1.825 1424
1.759 5.586 1.804 1865
1.716 5.448 1.762 1683
1.759 5.583 1.785 1234
1.715 5.445 1.743 946
1.746 5.544 1.755 1750
1.801 5.719 1.806 815
1.745 5.541 1.736 1942
1.805 5.731 1.791 1168
1.767 5.611 1.738 1493
1.836 5.830 1.801 803
1.769 5.616 1.721 1098
1.812 5.754 1.760 844
1.809 5.744 1.739 995
1.743 5.533 1.679 490
1.808 5.741 1.719 607
1.852 5.880 1.758 397
1.803 5.724 1.696 458
1.849 5.870 1.736 414
1.668 5.297 1.561 467
1.912 6.072 1.772 348
1.672 5.308 1.547 609
1.673 5.312 1.531 1169
1.290 4.097 1.209 317
1.670 5.301 1.511 2149
1.294 4.107 1.199 366
1.676 5.320 1.499 3256
1.719 5.459 1.535 485
1.679 5.331 1.485 3964
1.723 5.470 1.520 766
1.680 5.334 1.469 4072
1.724 5.474 1.504 757
1.677 5.323 1.449 4141
2.443 7.755 2.054 845
1.676 5.320 1.431 5467
2.447 7.768 2.032 1236
1.679 5.331 1.416 6862
2.451 7.780 2.010 1043
1.680 5.334 1.400 5679
2.578 8.183 2.081 788
1.681 5.338 1.384 2824
2.626 8.336 2.091 882
1.682 5.341 1.368 2145
2.630 8.349 2.068 1325
1.686 5.352 1.353 2423
2.627 8.339 2.039 1442
1.689 5.363 1.339 2265
2.626 8.337 2.012 1147
1.690 5.366 1.323 1970
2.672 8.483 2.018 1785
2.676 8.495 1.993 2276
1.691 5.369 1.306 1297
2.677 8.500 1.968 2236
1.688 5.358 1.287 799
2.677 8.498 1.940 2013
2.754 8.742 1.992 602
2.676 8.496 1.913 1421
2.751 8.733 1.963 822
2.678 8.501 1.887 1049
1.670 5.300 1.224 842
1.668 5.296 1.207 1104
2.681 8.513 1.863 576
1.667 5.291 1.189 1265
2.685 8.525 1.838 295
1.665 5.287 1.172 1210
1.666 5.290 1.156 923
2.730 8.668 1.812 290
1.667 5.293 1.140 757
2.734 8.680 1.787 263
1.666 5.288 1.122 786
1.664 5.283 1.105 606
1.665 5.286 1.089 429
1.666 5.289 1.073 517
1.664 5.284 1.055 789
1.663 5.279 1.038 1013
1.663 5.281 1.022 1208
1.667 5.291 1.007 1223
1.665 5.286 0.990 1017
1.666 5.288 0.974 735
1.666 5.291 0.958 572
1.665 5.286 0.941 485
1.663 5.280 0.924 398
1.664 5.282 0.908 309
1.662 5.277 0.891 253
0.719 2.271 1.761 2707
0.730 2.306 1.777 6522
0.767 2.424 1.863 2422
0.735 2.323 1.779 10509
0.773 2.441 1.865 3831
0.741 2.340 1.781 8954
0.778 2.459 1.866 2618
0.746 2.357 1.783 8892
0.784 2.476 1.868 2027
0.763 2.412 1.812 7406
0.726 2.293 1.727 1683
0.767 2.423 1.809 10284
0.723 2.285 1.711 818
0.770 2.434 1.806 10581
0.808 2.553 1.889 842
0.774 2.445 1.803 11547
0.736 2.325 1.720 757
0.777 2.456 1.800 13387
0.739 2.336 1.717 1098
0.779 2.460 1.793 11442
0.741 2.340 1.710 1157
0.780 2.465 1.785 9497
0.818 2.585 1.867 1309
0.782 2.469 1.778 7818
0.820 2.590 1.860 1309
0.781 2.468 1.766 6171
0.819 2.588 1.848 2531
0.783 2.472 1.759 6171
0.821 2.593 1.840 3155
0.786 2.483 1.756 4826
0.824 2.604 1.836 2876
0.814 2.570 1.803 3784
0.775 2.449 1.723 2121
0.839 2.652 1.846 4076
0.789 2.492 1.741 3492
0.841 2.656 1.838 5950
0.792 2.503 1.737 3504
0.846 2.674 1.838 6099
0.806 2.546 1.755 3352
0.848 2.679 1.830 6467
0.809 2.557 1.751 4039
0.849 2.683 1.822 5445
0.811 2.561 1.744 3000
0.853 2.695 1.818 4520
0.814 2.572 1.740 1967
0.856 2.706 1.814 4775
0.816 2.576 1.732 1395
0.862 2.723 1.814 5442
0.823 2.600 1.737 965
0.864 2.728 1.806 6680
0.903 2.851 1.883 968
0.865 2.733 1.798 7918
0.904 2.856 1.874 1203
0.864 2.731 1.786 6473
0.904 2.854 1.862 1538
0.866 2.735 1.777 5052
0.905 2.859 1.853 1475
0.869 2.746 1.773 3767
0.909 2.870 1.849 1425
0.873 2.757 1.769 2685
0.916 2.895 1.852 1856
0.916 2.893 1.839 2357
0.876 2.769 1.765 2101
0.917 2.898 1.830 2890
0.878 2.773 1.756 1563
0.921 2.909 1.826 3567
0.881 2.784 1.752 1605
0.924 2.920 1.821 4426
0.885 2.795 1.747 1881
0.924 2.918 1.808 4925
0.884 2.793 1.735 1650
0.925 2.923 1.799 5508
0.886 2.798 1.727 1647
0.927 2.928 1.791 6449
0.967 3.053 1.863 1702
0.930 2.939 1.786 5647
0.970 3.065 1.857 1832
0.934 2.950 1.780 3994
0.974 3.076 1.852 1683
0.933 2.948 1.768 3334
0.973 3.074 1.839 2526
0.970 3.066 1.822 3605
0.930 2.939 1.752 2543
0.976 3.084 1.820 3440
0.936 2.957 1.750 2211
0.982 3.102 1.819 3502
0.942 2.975 1.749 1380
0.983 3.106 1.809 2904
0.943 2.979 1.740 826
0.978 3.091 1.789 2491
1.019 3.218 1.858 673
0.980 3.096 1.780 2846
1.020 3.223 1.848 470
0.983 3.107 1.774 2528
1.024 3.235 1.842 1345
1.015 3.206 1.815 2880
0.974 3.078 1.747 1619
1.018 3.217 1.809 3822
0.978 3.089 1.741 1512
1.022 3.228 1.802 4540
0.981 3.100 1.735 1870
1.023 3.233 1.793 4288
0.983 3.105 1.726 2261
1.027 3.244 1.786 5486
0.986 3.116 1.720 2079
1.033 3.263 1.784 6592
0.992 3.134 1.718 1689
1.041 3.287 1.784 7382
1.000 3.158 1.719 2452
1.046 3.306 1.781 6073
1.005 3.176 1.716 2846
1.056 3.337 1.785 5452
1.097 3.467 1.850 2527
1.067 3.369 1.788 5601
1.108 3.499 1.853 2588
1.085 3.428 1.805 5680
1.044 3.299 1.741 2851
1.087 3.433 1.795 6560
1.046 3.303 1.731 3152
1.088 3.438 1.785 5931
1.047 3.308 1.721 3322
1.083 3.422 1.764 6461
1.042 3.291 1.701 1902
1.091 3.447 1.764 6219
1.143 3.612 1.843 2719
1.106 3.493 1.773 5262
1.147 3.623 1.835 3241
1.129 3.566 1.795 4204
1.079 3.408 1.720 2920
1.137 3.591 1.794 4771
1.095 3.460 1.733 2564
1.145 3.616 1.793 6039
1.103 3.485 1.732 2573
1.148 3.628 1.785 4940
1.190 3.759 1.845 1791
1.152 3.639 1.777 3538
1.194 3.771 1.837 1502
1.153 3.644 1.766 4626
1.195 3.776 1.826 1290
1.159 3.662 1.761 5205
1.201 3.794 1.821 2231
