-5.839 1.095 1.566 3771
-5.979 1.121 1.582 3065
-5.976 1.120 1.562 3514
-5.866 1.100 1.518 2445
-6.014 1.128 1.534 1836
-6.345 1.190 1.592 1946
-6.569 1.232 1.623 1629
-6.581 1.234 1.605 1357
-6.539 1.226 1.576 1668
-6.863 1.287 1.626 1644
-6.875 1.289 1.608 2704
-6.887 1.291 1.589 2935
-6.891 1.292 1.569 2155
-7.383 1.384 1.649 1659
-7.746 1.452 1.700 1957
-7.758 1.455 1.679 2287
-7.762 1.455 1.656 2348
-7.767 1.456 1.633 2629
-7.909 1.483 1.636 3615
-7.890 1.479 1.608 4371
-7.894 1.480 1.585 3724
-7.913 1.484 1.565 3296
-7.910 1.483 1.540 2464
-7.891 1.480 1.513 1746
-9.276 1.739 1.727 1815
-9.280 1.740 1.699 2590
-9.285 1.741 1.672 2514
-9.289 1.742 1.645 2100
-9.293 1.742 1.617 1840
-9.297 1.743 1.590 1389
-9.302 1.744 1.562 748
-9.306 1.745 1.535 493
-9.310 1.746 1.507 379
-9.313 1.746 1.480 267
-0.992 0.186 0.216 265
-1.000 0.188 0.214 363
-1.001 0.188 0.211 444
-1.001 0.188 0.209 491
-1.001 0.188 0.206 489
-1.001 0.188 0.203 499
-1.001 0.188 0.200 545
-1.001 0.188 0.197 488
-1.002 0.188 0.194 383
-1.002 0.188 0.192 325
-1.002 0.188 0.189 260
-1.040 0.195 0.071 262
-1.039 0.195 0.068 281
-1.039 0.195 0.065 289
-1.039 0.195 0.062 278
-1.039 0.195 0.059 267
-2.189 0.416 1.741 6160
-2.194 0.417 1.734 12320
-2.198 0.417 1.728 12320
-2.203 0.418 1.722 9444
-2.214 0.420 1.720 6651
-2.294 0.436 1.769 7906
-2.305 0.438 1.767 9710
-2.310 0.439 1.760 9710
-2.321 0.441 1.758 8150
-2.332 0.443 1.756 6958
-2.343 0.445 1.753 9000
-2.354 0.447 1.751 11313
-2.365 0.449 1.749 9920
-2.376 0.451 1.746 8928
-2.394 0.454 1.748 7560
-2.411 0.458 1.750 6948
-2.409 0.457 1.739 7184
-2.420 0.460 1.736 7556
-2.431 0.462 1.733 8386
-2.449 0.465 1.735 8044
-2.467 0.468 1.736 8783
-2.478 0.470 1.733 10790
-2.489 0.473 1.731 13438
-2.500 0.475 1.728 11999
-2.511 0.477 1.724 10786
-2.522 0.479 1.721 7769
-2.560 0.486 1.735 6051
-2.564 0.487 1.728 6368
-2.575 0.489 1.724 6685
-2.587 0.491 1.721 6958
-2.598 0.493 1.718 7319
-2.675 0.508 1.755 5823
-2.687 0.510 1.751 5971
-2.698 0.512 1.748 5424
-2.716 0.516 1.748 5107
-2.721 0.517 1.740 4774
-2.718 0.516 1.728 4246
-2.723 0.517 1.720 4065
-2.727 0.518 1.712 5475
-2.732 0.519 1.704 6885
-2.811 0.534 1.739 6740
-2.822 0.536 1.735 8848
-2.833 0.538 1.731 10986
-2.852 0.541 1.730 11941
-2.863 0.544 1.726 10206
-2.874 0.546 1.721 10740
-2.886 0.548 1.716 11527
-2.883 0.547 1.704 11728
-2.874 0.546 1.688 12017
-2.879 0.547 1.680 12053
-2.890 0.549 1.675 11303
-2.908 0.552 1.674 9016
-2.919 0.554 1.669 6833
-2.931 0.556 1.664 8441
-2.949 0.560 1.663 10288
-2.960 0.562 1.658 10786
-2.964 0.563 1.650 9466
-2.969 0.564 1.641 7225
-2.980 0.566 1.636 6408
-2.984 0.567 1.627 5523
-3.023 0.574 1.636 5105
-3.035 0.576 1.631 4864
-3.053 0.580 1.629 4005
-3.106 0.590 1.644 5055
-3.110 0.591 1.635 5761
-3.318 0.630 1.724 5257
-3.316 0.630 1.711 6546
-3.306 0.628 1.695 8123
-3.318 0.630 1.689 10269
-3.329 0.632 1.682 12682
-3.334 0.633 1.673 11678
-3.345 0.635 1.666 8123
-3.413 0.648 1.686 4838
-3.418 0.649 1.676 6022
-3.422 0.650 1.666 6891
-3.426 0.651 1.656 6586
-3.523 0.669 1.687 9202
-3.528 0.670 1.677 9218
-3.525 0.669 1.663 7746
-3.515 0.667 1.647 7663
-3.519 0.668 1.636 7493
-3.524 0.669 1.626 5401
-3.564 0.677 1.631 5948
-3.575 0.679 1.623 7672
-3.587 0.681 1.616 6046
-3.605 0.684 1.611 4310
-3.595 0.683 1.595 4803
-3.599 0.683 1.584 5413
-3.603 0.684 1.574 3716
-3.687 0.700 1.595 3269
-3.684 0.699 1.581 2718
-4.073 0.773 1.722 3462
-4.092 0.777 1.716 3797
-4.111 0.780 1.709 2890
-3.678 0.698 1.530 2665
-4.120 0.782 1.685 2742
-4.146 0.787 1.681 2894
-4.143 0.787 1.666 3103
-4.177 0.793 1.665 3323
-4.239 0.805 1.674 3671
-4.258 0.808 1.667 3145
-4.410 0.837 1.707 4543
-4.429 0.841 1.700 5195
-4.463 0.847 1.697 4443
-4.489 0.852 1.692 5190
-4.501 0.855 1.681 4831
-4.557 0.865 1.686 4546
-4.576 0.869 1.677 5577
-4.625 0.878 1.679 5027
-4.688 0.890 1.685 3573
-4.707 0.894 1.676 4112
-4.712 0.895 1.662 4924
-4.709 0.894 1.646 4564
-4.720 0.896 1.634 4382
-4.732 0.898 1.623 3041
-4.818 0.915 1.635 3468
-4.837 0.918 1.625 3810
-4.864 0.923 1.618 3735
-5.002 0.950 1.644 3500
-4.992 0.948 1.625 4071
-5.093 0.967 1.639 4752
-5.097 0.968 1.624 3829
-4.997 0.949 1.579 2696
-5.285 1.003 1.646 4347
-5.282 1.003 1.628 5461
-5.324 1.011 1.623 4609
-5.411 1.027 1.630 5875
-5.415 1.028 1.614 9496
-5.427 1.030 1.601 8533
-5.536 1.051 1.613 5370
-5.533 1.050 1.595 6290
-5.552 1.054 1.582 4798
-5.744 1.091 1.615 5008
-5.718 1.086 1.590 3878
-5.707 1.084 1.569 4020
-5.832 1.107 1.583 4294
-5.829 1.107 1.564 4200
-5.969 1.133 1.580 3252
-5.973 1.134 1.562 3572
-6.053 1.149 1.562 2636
-6.065 1.151 1.546 1898
-6.342 1.204 1.592 1792
-6.574 1.248 1.625 1624
-6.570 1.247 1.604 1267
-6.536 1.241 1.576 1628
-6.860 1.302 1.626 1745
-6.872 1.305 1.608 3008
-6.884 1.307 1.589 3329
-6.880 1.306 1.567 2534
-7.372 1.400 1.647 1847
-7.742 1.470 1.700 2184
-7.755 1.472 1.679 2526
-7.759 1.473 1.656 2552
-7.763 1.474 1.633 2768
-7.913 1.502 1.638 3737
-7.902 1.500 1.611 4003
-7.898 1.500 1.587 3383
-7.910 1.502 1.565 3057
-7.914 1.503 1.541 2169
-9.267 1.759 1.754 1339
-9.272 1.760 1.727 1836
-9.276 1.761 1.699 2631
-9.281 1.762 1.672 2578
-9.285 1.763 1.645 2058
-9.289 1.764 1.617 1683
-9.293 1.764 1.590 1382
-9.298 1.765 1.562 791
-9.302 1.766 1.535 433
-9.306 1.767 1.507 337
-9.309 1.767 1.480 264
-1.000 0.190 0.214 347
-1.000 0.190 0.211 491
-1.000 0.190 0.209 616
-1.000 0.190 0.206 636
-0.993 0.189 0.202 620
-0.993 0.189 0.200 570
-1.001 0.190 0.197 467
-1.001 0.190 0.194 373
-0.994 0.189 0.191 302
-1.039 0.197 0.071 268
-1.039 0.197 0.068 291
-1.039 0.197 0.065 301
-1.039 0.197 0.062 297
-1.038 0.197 0.059 292
-1.038 0.197 0.056 272
-1.046 0.199 0.052 253
-2.188 0.420 1.741 6362
-2.193 0.421 1.734 12724
-2.198 0.422 1.728 12724
-2.202 0.423 1.722 9731
-2.213 0.425 1.720 6857
-2.293 0.440 1.769 7099
-2.304 0.442 1.767 8738
-2.309 0.443 1.760 8738
-2.320 0.445 1.758 7309
-2.337 0.449 1.760 6429
-2.349 0.451 1.758 8753
-2.360 0.453 1.755 11274
-2.371 0.455 1.753 10128
-2.382 0.457 1.751 9457
-2.393 0.459 1.748 8008
-2.410 0.462 1.750 7087
-2.408 0.462 1.739 7280
-2.419 0.464 1.736 7266
-2.437 0.468 1.738 7957
-2.448 0.470 1.735 8010
-2.466 0.473 1.736 8988
-2.477 0.475 1.733 10977
-2.488 0.477 1.731 13641
-2.499 0.480 1.728 12180
-2.510 0.482 1.724 11032
-2.521 0.484 1.721 7951
-2.559 0.491 1.735 6939
-2.563 0.492 1.728 6671
-2.561 0.491 1.716 6497
-2.586 0.496 1.721 6437
-2.590 0.497 1.713 6636
-2.674 0.513 1.755 5781
-2.686 0.515 1.751 6145
-2.697 0.518 1.748 5595
-2.722 0.522 1.752 5269
-2.720 0.522 1.740 5113
-2.717 0.521 1.728 4698
-2.722 0.522 1.720 4434
-2.733 0.524 1.716 5892
-2.738 0.525 1.708 7393
-2.810 0.539 1.739 6448
-2.821 0.541 1.735 8405
-2.839 0.545 1.734 10548
-2.851 0.547 1.730 11603
-2.855 0.548 1.722 10032
-2.873 0.551 1.721 10430
-2.885 0.554 1.716 11304
-2.882 0.553 1.704 10937
-2.873 0.551 1.688 10991
-2.877 0.552 1.680 11349
-2.889 0.554 1.675 10338
-2.907 0.558 1.674 8592
-2.918 0.560 1.669 7462
-2.929 0.562 1.664 9119
-2.948 0.566 1.663 10383
-2.959 0.568 1.658 10240
-2.963 0.569 1.650 9039
-2.968 0.569 1.641 7159
-2.979 0.572 1.636 6534
-2.983 0.572 1.627 5851
-3.008 0.577 1.629 5078
-3.103 0.595 1.665 4462
-3.108 0.596 1.656 3991
-3.105 0.596 1.644 4625
-3.109 0.597 1.635 5128
-3.317 0.636 1.724 5491
-3.314 0.636 1.711 6848
-3.312 0.636 1.698 8580
-3.316 0.636 1.689 10627
-3.328 0.639 1.682 12707
-3.332 0.639 1.673 11852
-3.337 0.640 1.663 8650
-3.341 0.641 1.653 5014
-3.423 0.657 1.679 3963
-3.428 0.658 1.669 4982
-3.503 0.672 1.691 6450
-3.522 0.676 1.687 9949
-3.526 0.677 1.677 10967
-3.516 0.675 1.660 9994
-3.521 0.676 1.650 9808
-3.518 0.675 1.636 9046
-3.522 0.676 1.626 6646
-3.562 0.684 1.631 7137
-3.567 0.684 1.620 8833
-3.578 0.687 1.613 6377
-3.604 0.692 1.611 3737
-3.594 0.690 1.595 4591
-3.598 0.690 1.584 5688
-3.602 0.691 1.574 4262
-3.686 0.707 1.595 2652
-4.059 0.779 1.731 2014
-4.071 0.781 1.722 3054
-4.083 0.783 1.713 3246
-4.102 0.787 1.707 2316
-3.670 0.704 1.527 2095
-4.118 0.790 1.685 2183
-4.137 0.794 1.679 2371
-4.141 0.795 1.666 2498
-4.182 0.803 1.668 2837
-4.238 0.813 1.674 3498
-4.264 0.818 1.670 3095
-4.408 0.846 1.707 4327
-4.427 0.850 1.700 4409
-4.461 0.856 1.697 3651
-4.487 0.861 1.692 4203
-4.499 0.863 1.681 4069
-4.555 0.874 1.686 4107
-4.582 0.879 1.680 4936
-4.623 0.887 1.679 4610
-4.686 0.899 1.685 3661
-4.706 0.903 1.676 4072
-4.717 0.905 1.664 4454
-4.707 0.903 1.646 3823
-4.711 0.904 1.632 3935
-4.730 0.908 1.623 2991
-4.816 0.924 1.635 3448
-4.828 0.926 1.623 3816
-4.862 0.933 1.618 3602
-5.015 0.962 1.649 2880
-5.079 0.975 1.652 3696
-5.091 0.977 1.639 5337
-5.095 0.978 1.624 4407
-4.995 0.958 1.579 3138
-5.276 1.012 1.644 3621
-5.288 1.015 1.630 4371
-5.322 1.021 1.623 4507
-5.364 1.029 1.618 5326
-5.420 1.040 1.617 7713
-5.424 1.041 1.601 7625
-5.451 1.046 1.591 6047
-5.523 1.060 1.593 6775
-5.535 1.062 1.578 5216
-5.735 1.100 1.613 4079
-5.709 1.095 1.588 3747
-5.705 1.095 1.569 3816
-5.823 1.117 1.581 4203
-5.827 1.118 1.564 4575
-5.846 1.122 1.550 3471
-5.979 1.147 1.564 3331
-6.058 1.163 1.564 2891
-6.070 1.165 1.548 1977
-6.339 1.216 1.592 1651
-6.579 1.262 1.626 1581
-6.613 1.269 1.614 1138
-6.542 1.255 1.578 1585
-6.857 1.316 1.626 1713
-6.869 1.318 1.608 3040
-6.881 1.320 1.589 3394
-6.878 1.320 1.567 2646
-7.369 1.414 1.647 1937
-7.740 1.485 1.700 2220
-7.752 1.487 1.679 2577
-7.756 1.488 1.656 2641
-7.760 1.489 1.633 2806
-7.910 1.518 1.638 3697
-7.906 1.517 1.613 3617
-7.903 1.517 1.588 2960
-7.907 1.517 1.565 2678
-7.919 1.520 1.543 1861
-9.264 1.778 1.754 1519
-9.268 1.778 1.727 1917
-9.273 1.779 1.699 2624
-9.277 1.780 1.672 2565
-9.282 1.781 1.645 2049
-9.286 1.782 1.617 1575
-9.290 1.783 1.590 1372
-9.294 1.783 1.562 873
-9.298 1.784 1.535 480
-9.302 1.785 1.507 376
-9.306 1.786 1.480 280
-0.999 0.192 0.217 286
-0.999 0.192 0.214 402
-1.000 0.192 0.211 491
-1.000 0.192 0.209 556
-0.992 0.190 0.205 584
-0.993 0.190 0.202 597
-1.000 0.192 0.200 618
-1.001 0.192 0.197 557
-1.001 0.192 0.194 439
-1.001 0.192 0.192 370
-1.001 0.192 0.189 315
-1.039 0.199 0.071 284
-1.039 0.199 0.068 307
-1.038 0.199 0.065 317
-1.038 0.199 0.062 315
-1.038 0.199 0.059 313
-1.038 0.199 0.056 292
-1.037 0.199 0.053 271
-2.188 0.424 1.741 6448
-2.192 0.425 1.734 12896
-2.197 0.426 1.728 12896
-2.201 0.427 1.722 9873
-2.212 0.429 1.720 7004
-2.293 0.445 1.769 6333
-2.304 0.447 1.767 7761
-2.308 0.448 1.760 7761
-2.326 0.451 1.762 6642
-2.343 0.455 1.765 6282
-2.354 0.457 1.762 8795
-2.359 0.458 1.755 11424
-2.370 0.460 1.753 10457
-2.381 0.462 1.751 9972
-2.392 0.464 1.748 8329
-2.403 0.466 1.746 7078
-2.407 0.467 1.739 7180
-2.418 0.469 1.736 6744
-2.436 0.473 1.738 7290
-2.447 0.475 1.735 7885
-2.458 0.477 1.732 9163
-2.476 0.480 1.733 10983
-2.487 0.482 1.731 13544
-2.498 0.485 1.728 12065
-2.509 0.487 1.724 10983
-2.527 0.490 1.726 7967
-2.564 0.497 1.739 7883
-2.562 0.497 1.728 7063
-2.554 0.495 1.712 6571
-2.578 0.500 1.717 6066
-2.589 0.502 1.713 5996
-2.673 0.519 1.755 5682
-2.685 0.521 1.751 6209
-2.689 0.522 1.743 5757
-2.707 0.525 1.744 5469
-2.712 0.526 1.736 5511
-2.716 0.527 1.728 5172
-2.721 0.528 1.720 4792
-2.739 0.531 1.720 6250
-2.743 0.532 1.712 7823
-2.741 0.532 1.700 6646
-2.827 0.548 1.739 7770
-2.838 0.551 1.734 9901
-2.849 0.553 1.730 11143
-2.854 0.554 1.722 9933
-2.872 0.557 1.721 10130
-2.883 0.559 1.716 11041
-2.888 0.560 1.708 10062
-2.879 0.559 1.692 9702
-2.876 0.558 1.680 10358
-2.888 0.560 1.675 9285
-2.906 0.564 1.674 8233
-2.917 0.566 1.669 8163
-2.928 0.568 1.664 9725
-2.946 0.572 1.663 10529
-2.958 0.574 1.658 9912
-2.962 0.575 1.650 8679
-2.966 0.576 1.641 7032
-2.978 0.578 1.636 6625
-3.072 0.596 1.673 6050
-3.091 0.600 1.671 5522
-3.102 0.602 1.665 5628
-3.106 0.603 1.656 4675
-3.104 0.602 1.644 4721
-3.108 0.603 1.635 5367
-3.316 0.643 1.724 5764
-3.313 0.643 1.711 7211
-3.311 0.642 1.698 8958
-3.315 0.643 1.689 10654
-3.327 0.645 1.682 12273
-3.331 0.646 1.673 11589
-3.335 0.647 1.663 8827
-3.340 0.648 1.653 5525
-3.344 0.649 1.643 4098
-3.476 0.674 1.691 5003
-3.495 0.678 1.688 7084
-3.521 0.683 1.687 10492
-3.525 0.684 1.677 12661
-3.515 0.682 1.660 12362
-3.519 0.683 1.650 11997
-3.524 0.684 1.639 10602
-3.528 0.684 1.629 7946
-3.554 0.689 1.628 8154
-3.565 0.692 1.620 9788
-3.569 0.693 1.610 6708
-3.574 0.693 1.599 3233
-3.585 0.696 1.592 4273
-3.596 0.698 1.584 5650
-3.601 0.699 1.574 4480
-3.612 0.701 1.566 2469
-3.406 0.661 1.472 1847
-4.069 0.789 1.722 2533
-4.081 0.792 1.713 2618
-4.100 0.795 1.707 1772
-3.676 0.713 1.530 1510
-4.116 0.799 1.685 1605
-4.135 0.802 1.679 1831
-3.833 0.744 1.552 2087
-4.188 0.813 1.671 2230
-4.251 0.825 1.680 3087
-4.402 0.854 1.720 2919
-4.406 0.855 1.707 3964
-4.418 0.857 1.697 3561
-4.452 0.864 1.695 2789
-4.486 0.870 1.692 3169
-4.490 0.871 1.679 3233
-4.553 0.883 1.686 3482
-4.580 0.889 1.680 4176
-4.614 0.895 1.676 4142
-4.685 0.909 1.685 3482
-4.704 0.913 1.676 3791
-4.716 0.915 1.664 3923
-4.698 0.911 1.643 3081
-4.709 0.914 1.632 3438
-4.751 0.922 1.630 3155
-4.807 0.933 1.632 3403
-4.819 0.935 1.620 3759
-4.868 0.944 1.620 3277
-4.879 0.947 1.608 2808
-5.077 0.985 1.652 3717
-5.082 0.986 1.637 5650
-5.086 0.987 1.622 4815
-4.985 0.967 1.576 3317
-5.004 0.971 1.566 2944
-5.398 1.047 1.662 3632
-5.395 1.047 1.644 4101
-5.361 1.040 1.618 4941
-5.418 1.051 1.617 6113
-5.437 1.055 1.605 7155
-5.449 1.057 1.591 7363
-5.521 1.071 1.593 6747
-5.525 1.072 1.576 5361
-5.484 1.064 1.548 3781
-5.707 1.107 1.588 3522
-5.703 1.106 1.569 3368
-5.820 1.129 1.581 4069
-5.824 1.130 1.564 4428
-5.836 1.132 1.548 3251
-5.976 1.159 1.564 3036
-6.056 1.175 1.564 2933
-6.075 1.179 1.550 1957
-6.572 1.275 1.646 1427
-6.584 1.277 1.628 1539
-6.618 1.284 1.616 1122
-6.699 1.300 1.613 1619
-6.741 1.308 1.601 1970
-6.760 1.312 1.585 3101
-6.878 1.334 1.589 3305
-6.882 1.335 1.569 2566
-7.366 1.429 1.647 1928
-7.737 1.501 1.700 2074
-7.749 1.503 1.679 2400
-7.753 1.504 1.656 2473
-7.925 1.538 1.665 2733
-7.914 1.535 1.639 3482
-7.903 1.533 1.613 3133
-7.900 1.533 1.588 2498
-7.912 1.535 1.566 2300
-9.255 1.796 1.782 1647
-9.260 1.797 1.754 1674
-9.265 1.797 1.727 1972
-9.269 1.798 1.699 2501
-9.274 1.799 1.672 2512
-9.278 1.800 1.645 2152
-9.282 1.801 1.617 1543
-9.286 1.802 1.590 1347
-9.290 1.802 1.562 1004
-9.294 1.803 1.535 652
-9.298 1.804 1.507 503
-9.302 1.805 1.480 316
-0.991 0.192 0.214 332
-0.992 0.192 0.211 420
-1.000 0.194 0.209 509
-1.000 0.194 0.206 553
-0.992 0.192 0.202 575
-1.000 0.194 0.200 574
-1.000 0.194 0.197 487
-1.000 0.194 0.194 392
-1.001 0.194 0.192 345
-1.001 0.194 0.189 300
-0.861 0.167 0.174 270
-0.861 0.167 0.172 331
-0.861 0.167 0.170 281
-1.031 0.200 0.071 290
-1.038 0.201 0.068 304
-1.038 0.201 0.065 309
-1.038 0.201 0.062 311
-1.038 0.201 0.059 313
-1.037 0.201 0.056 292
-1.045 0.203 0.052 272
-2.187 0.428 1.741 6465
-2.191 0.429 1.734 12931
-2.196 0.430 1.728 12931
-2.201 0.431 1.722 9909
-2.211 0.433 1.720 7073
-2.292 0.449 1.769 5715
-2.303 0.451 1.767 6889
-2.307 0.452 1.760 6889
-2.331 0.456 1.767 6127
-2.361 0.462 1.778 6818
-2.360 0.462 1.767 9029
-2.358 0.462 1.755 11471
-2.369 0.464 1.753 10690
-2.380 0.466 1.751 10382
-2.391 0.468 1.748 8578
-2.402 0.470 1.746 7051
-2.407 0.471 1.739 7075
-2.418 0.473 1.736 6262
-2.435 0.477 1.738 6527
-2.446 0.479 1.735 7615
-2.457 0.481 1.732 9251
-2.475 0.485 1.733 10785
-2.486 0.487 1.731 13155
-2.497 0.489 1.728 11696
-2.508 0.491 1.724 10697
-2.532 0.496 1.730 8027
-2.563 0.502 1.739 8847
-2.561 0.502 1.728 7621
-2.559 0.501 1.716 6999
-2.564 0.502 1.709 5991
-2.582 0.505 1.709 5516
-2.666 0.522 1.751 5601
-2.684 0.525 1.751 6218
-2.688 0.526 1.743 5923
-2.700 0.529 1.740 5721
-2.711 0.531 1.736 5942
-2.715 0.532 1.728 5636
-2.720 0.533 1.720 5093
-2.745 0.537 1.724 6547
-2.742 0.537 1.712 8044
-2.740 0.537 1.700 6773
-2.826 0.553 1.739 7099
-2.837 0.556 1.734 9090
-2.848 0.558 1.730 10511
-2.853 0.559 1.722 9714
-2.864 0.561 1.717 9867
-2.876 0.563 1.713 10674
-2.887 0.565 1.708 9183
-2.878 0.563 1.692 8483
-2.882 0.564 1.684 9411
-2.887 0.565 1.675 8325
-2.905 0.569 1.674 7976
-2.916 0.571 1.669 8887
-2.934 0.575 1.668 10320
-2.945 0.577 1.663 10659
-2.957 0.579 1.658 9673
-2.961 0.580 1.650 8451
-2.965 0.581 1.641 7049
-2.970 0.581 1.632 6869
-3.078 0.603 1.677 6278
-3.090 0.605 1.671 6198
-3.101 0.607 1.665 6403
-3.105 0.608 1.656 5212
-3.110 0.609 1.647 4922
-3.114 0.610 1.638 5275
-3.308 0.648 1.721 6023
-3.312 0.649 1.711 7559
-3.310 0.648 1.698 9164
-3.314 0.649 1.689 10321
-3.325 0.651 1.682 11427
-3.330 0.652 1.673 10891
-3.334 0.653 1.663 8623
-3.339 0.654 1.653 5715
-3.478 0.681 1.705 4800
-3.482 0.682 1.695 6114
-3.494 0.684 1.688 7698
-3.519 0.689 1.687 10867
-3.524 0.690 1.677 14072
-3.514 0.688 1.660 14341
-3.518 0.689 1.650 13851
-3.523 0.690 1.639 11959
-3.527 0.691 1.629 9028
-3.545 0.694 1.625 9073
-3.557 0.696 1.617 10560
-3.561 0.697 1.607 7170
-3.558 0.697 1.593 3508
-3.577 0.700 1.589 4028
-3.595 0.704 1.584 5240
-3.599 0.705 1.574 4319
-3.611 0.707 1.566 2464
-3.398 0.665 1.469 1805
-4.068 0.797 1.722 1950
-4.073 0.797 1.710 2001
-4.077 0.798 1.698 1300
-4.263 0.835 1.756 1258
-4.268 0.836 1.743 1306
-3.821 0.748 1.560 1637
-3.832 0.750 1.552 2017
-3.675 0.720 1.481 2145
-4.257 0.833 1.682 2714
-4.400 0.862 1.720 2795
-4.405 0.862 1.707 3425
-4.416 0.865 1.697 2720
-4.516 0.884 1.718 2056
-3.661 0.717 1.404 2765
-3.657 0.716 1.390 2617
-4.567 0.894 1.691 2876
-4.586 0.898 1.682 3497
-4.612 0.903 1.676 3785
-4.683 0.917 1.685 3108
-4.710 0.922 1.678 3403
-4.721 0.924 1.667 3471
-4.652 0.911 1.629 3073
-4.745 0.929 1.644 3539
-4.757 0.931 1.632 3481
-4.805 0.941 1.632 3359
-4.817 0.943 1.620 3746
-4.866 0.953 1.620 2751
-4.885 0.957 1.610 2900
-5.068 0.992 1.650 3759
-5.072 0.993 1.635 5752
-5.084 0.995 1.622 4983
-4.984 0.976 1.576 3162
-5.010 0.981 1.568 2883
-5.396 1.057 1.662 3394
-5.393 1.056 1.644 3656
-5.352 1.048 1.616 4240
-5.424 1.062 1.619 5013
-5.443 1.066 1.607 7358
-5.447 1.067 1.591 8376
-5.511 1.079 1.591 6330
-5.516 1.080 1.574 5120
-5.482 1.073 1.548 3818
-5.705 1.117 1.588 3189
-5.701 1.116 1.569 2906
-5.818 1.139 1.581 3789
-5.823 1.140 1.564 4115
-5.834 1.142 1.548 2841
-5.989 1.173 1.568 2669
-6.062 1.187 1.566 2880
-6.081 1.191 1.552 1985
-6.570 1.286 1.646 1490
-6.589 1.290 1.630 1489
-6.624 1.297 1.617 1151
-6.696 1.311 1.613 1749
-6.738 1.319 1.601 2263
-6.758 1.323 1.585 3332
-6.777 1.327 1.568 3089
-6.880 1.347 1.569 2350
-7.364 1.442 1.647 1843
-7.734 1.514 1.700 1811
-7.746 1.517 1.679 2111
-7.926 1.552 1.690 2443
-7.923 1.551 1.665 2717
-7.912 1.549 1.639 3183
-7.908 1.548 1.614 2699
-7.897 1.546 1.588 2114
-7.909 1.549 1.566 1949
-9.252 1.812 1.782 1719
-9.257 1.813 1.754 1821
-9.261 1.813 1.727 2036
-9.266 1.814 1.699 2404
-9.270 1.815 1.672 2570
-9.275 1.816 1.645 2366
-9.279 1.817 1.617 1582
-9.283 1.818 1.590 1327
-9.287 1.818 1.562 1141
-9.291 1.819 1.535 864
-9.295 1.820 1.507 667
-9.299 1.821 1.480 396
-0.999 0.196 0.211 352
-0.999 0.196 0.209 462
-0.999 0.196 0.206 502
-0.992 0.194 0.202 524
-0.992 0.194 0.200 505
-1.000 0.196 0.197 407
-1.000 0.196 0.194 322
-1.000 0.196 0.192 275
-0.853 0.167 0.174 251
-0.853 0.167 0.172 319
-0.846 0.166 0.169 291
-1.030 0.202 0.071 261
-1.038 0.203 0.068 280
-1.038 0.203 0.065 289
-1.037 0.203 0.062 288
-1.037 0.203 0.059 286
-1.037 0.203 0.056 263
-2.186 0.431 1.741 6407
-2.191 0.432 1.734 12814
-2.195 0.433 1.728 12814
-2.200 0.433 1.722 9855
-2.211 0.436 1.720 7114
-2.291 0.451 1.769 5208
-2.296 0.452 1.762 6119
-2.301 0.453 1.755 6119
-2.350 0.463 1.781 5976
-2.361 0.465 1.778 7307
-2.359 0.465 1.767 9372
-2.364 0.466 1.760 11438
-2.375 0.468 1.758 10756
-2.386 0.470 1.755 10667
-2.390 0.471 1.748 8656
-2.401 0.473 1.746 6925
-2.406 0.474 1.739 6915
-2.417 0.476 1.736 5927
-2.435 0.480 1.738 5833
-2.452 0.483 1.739 7325
-2.457 0.484 1.732 9268
-2.474 0.488 1.733 10469
-2.485 0.490 1.731 12553
-2.497 0.492 1.728 11117
-2.508 0.494 1.724 10189
-2.545 0.501 1.738 8308
-2.563 0.505 1.739 9627
-2.561 0.505 1.728 8271
-2.559 0.504 1.716 7593
-2.563 0.505 1.709 6182
-2.621 0.516 1.734 5534
-2.665 0.525 1.751 5549
-2.676 0.527 1.747 6201
-2.688 0.530 1.743 6027
-2.699 0.532 1.740 5984
-2.704 0.533 1.732 6364
-2.715 0.535 1.728 6103
-2.719 0.536 1.720 5441
-2.737 0.539 1.720 6746
-2.742 0.540 1.712 8111
-2.740 0.540 1.700 6781
-2.825 0.557 1.739 6461
-2.836 0.559 1.734 8294
-2.848 0.561 1.730 9935
-2.852 0.562 1.722 9606
-2.857 0.563 1.713 10020
-2.875 0.566 1.713 10822
-2.879 0.567 1.704 8843
-2.877 0.567 1.692 7780
-2.882 0.568 1.684 8820
-2.893 0.570 1.679 7611
-2.911 0.574 1.678 7917
-2.922 0.576 1.673 9711
-2.934 0.578 1.668 10949
-2.945 0.580 1.663 10918
-2.956 0.582 1.658 9735
-2.960 0.583 1.650 8431
-2.965 0.584 1.641 6998
-2.969 0.585 1.632 6869
-3.078 0.606 1.677 6205
-3.089 0.609 1.671 6198
-3.100 0.611 1.665 6526
-3.105 0.612 1.656 5337
-3.109 0.613 1.647 5259
-3.113 0.613 1.638 5624
-3.307 0.652 1.721 6199
-3.311 0.652 1.711 7783
-3.309 0.652 1.698 9158
-3.313 0.653 1.689 9658
-3.318 0.654 1.679 10202
-3.329 0.656 1.673 9803
-3.333 0.657 1.663 8049
-3.338 0.658 1.653 5621
-3.484 0.686 1.708 5381
-3.481 0.686 1.695 6821
-3.493 0.688 1.688 7926
-3.519 0.693 1.687 10938
-3.523 0.694 1.677 14943
-3.513 0.692 1.660 15659
-3.517 0.693 1.650 15151
-3.522 0.694 1.639 12935
-3.526 0.695 1.629 9808
-3.537 0.697 1.622 9729
-3.549 0.699 1.614 10941
-3.553 0.700 1.604 7448
-3.557 0.701 1.593 3725
-3.576 0.705 1.589 3931
-3.587 0.707 1.581 4595
-3.598 0.709 1.574 3899
-3.610 0.711 1.566 2307
-3.397 0.669 1.469 1772
-3.408 0.671 1.462 1642
-4.072 0.802 1.710 1419
-3.713 0.732 1.557 974
-4.262 0.840 1.756 1044
-4.267 0.841 1.743 1020
-3.820 0.753 1.560 1285
-3.831 0.755 1.552 1834
-3.675 0.724 1.481 2074
-4.263 0.840 1.685 2346
-4.399 0.867 1.720 2519
-4.396 0.866 1.705 2881
-4.415 0.870 1.697 2060
-3.664 0.722 1.417 1879
-3.660 0.721 1.404 3026
-3.664 0.722 1.393 2707
-4.573 0.901 1.693 2468
-4.599 0.906 1.687 3009
-4.611 0.909 1.676 3427
-4.689 0.924 1.687 2667
-4.709 0.928 1.678 2970
-4.728 0.931 1.669 3094
-4.747 0.935 1.660 2959
-4.751 0.936 1.646 3630
-4.756 0.937 1.632 3562
-4.804 0.947 1.632 3273
-4.809 0.947 1.618 3691
-4.872 0.960 1.622 2483
-4.891 0.964 1.612 3308
-5.052 0.995 1.645 3922
-5.064 0.998 1.632 5825
-5.075 1.000 1.620 4969
-5.080 1.001 1.605 3339
-5.166 1.018 1.614 2741
-5.402 1.064 1.664 2966
-5.384 1.061 1.642 3066
-5.351 1.054 1.616 3392
-5.423 1.068 1.619 4818
-5.442 1.072 1.607 7807
-5.446 1.073 1.591 9012
-5.428 1.069 1.569 6255
-5.514 1.086 1.574 4788
-5.481 1.080 1.548 3432
-5.696 1.122 1.586 2670
-5.700 1.123 1.569 2300
-5.817 1.146 1.581 3287
-5.821 1.147 1.564 3493
-5.825 1.148 1.547 2237
-6.003 1.183 1.571 2415
-6.060 1.194 1.566 2569
-6.079 1.198 1.552 1860
-6.568 1.294 1.646 1488
-6.588 1.298 1.630 1386
-6.304 1.242 1.546 1169
-6.702 1.321 1.615 1911
-6.737 1.327 1.601 2420
-6.764 1.333 1.586 3391
-6.776 1.335 1.568 3220
-6.863 1.352 1.566 2004
-7.370 1.452 1.649 1706
-7.732 1.523 1.700 1501
-7.744 1.526 1.679 1748
-7.924 1.561 1.690 2424
-7.921 1.561 1.665 2556
-7.917 1.560 1.640 2753
-8.449 1.665 1.716 2643
-8.446 1.664 1.690 1887
-7.907 1.558 1.566 1612
-9.250 1.823 1.782 1695
-9.255 1.823 1.754 1927
-9.259 1.824 1.727 2087
-9.264 1.825 1.699 2409
-9.268 1.826 1.672 2797
-9.273 1.827 1.645 2658
-9.277 1.828 1.617 1636
-9.281 1.829 1.590 1253
-9.285 1.829 1.562 1234
-9.289 1.830 1.535 1059
-9.293 1.831 1.507 822
-9.297 1.832 1.480 482
-9.301 1.833 1.452 283
-0.999 0.197 0.211 282
-0.999 0.197 0.209 373
-0.991 0.195 0.205 399
-0.992 0.195 0.202 420
-0.992 0.195 0.200 412
-0.992 0.195 0.197 326
-1.000 0.197 0.194 254
-0.876 0.173 0.173 261
-1.038 0.204 0.068 253
-1.037 0.204 0.065 260
-1.037 0.204 0.062 264
-1.037 0.204 0.059 269
-1.037 0.204 0.056 251
-2.185 0.437 1.741 6224
-2.190 0.438 1.734 12448
-2.194 0.439 1.728 12448
-2.199 0.440 1.722 9642
-2.210 0.442 1.720 7075
-2.284 0.457 1.764 4916
-2.282 0.456 1.753 5818
-2.287 0.457 1.746 5818
-2.348 0.470 1.781 6191
-2.353 0.471 1.774 7993
-2.358 0.471 1.767 9692
-2.362 0.472 1.760 11391
-2.373 0.475 1.758 10728
-2.384 0.477 1.755 10707
-2.395 0.479 1.753 8628
-2.407 0.481 1.750 6740
-2.405 0.481 1.739 6701
-2.422 0.484 1.740 5521
-2.440 0.488 1.742 5168
-2.451 0.490 1.739 7031
-2.455 0.491 1.732 9112
-2.473 0.495 1.733 9980
-2.484 0.497 1.731 11708
-2.495 0.499 1.728 10315
-2.506 0.501 1.724 9451
-2.550 0.510 1.742 8512
-2.561 0.512 1.739 10209
-2.559 0.512 1.728 8977
-2.557 0.511 1.716 8342
-2.568 0.514 1.713 6621
-2.613 0.522 1.730 6022
-2.657 0.531 1.747 5476
-2.668 0.534 1.743 6041
-2.686 0.537 1.743 6037
-2.691 0.538 1.736 6197
-2.702 0.540 1.732 6794
-2.713 0.543 1.728 6637
-2.718 0.543 1.720 5900
-2.736 0.547 1.720 7001
-2.747 0.549 1.716 8145
-2.745 0.549 1.704 6841
-2.830 0.566 1.743 5919
-2.835 0.567 1.734 7515
-2.846 0.569 1.730 9323
-2.844 0.569 1.718 9440
-2.855 0.571 1.713 10299
-2.867 0.573 1.709 11269
-2.871 0.574 1.700 9102
-2.882 0.576 1.696 7646
-2.887 0.577 1.687 8341
-2.891 0.578 1.679 7152
-2.909 0.582 1.678 8009
-2.921 0.584 1.673 10358
-2.932 0.586 1.668 11469
-2.950 0.590 1.667 11373
-2.954 0.591 1.658 10173
-2.959 0.592 1.650 8771
-2.963 0.593 1.641 7152
-2.967 0.593 1.632 6935
-2.972 0.594 1.624 5931
-3.094 0.619 1.675 5701
-3.098 0.620 1.665 6074
-3.103 0.620 1.656 5242
-3.107 0.621 1.647 5728
-3.118 0.624 1.642 6176
-3.305 0.661 1.721 6214
-3.309 0.662 1.711 7812
-3.314 0.663 1.702 9014
-3.311 0.662 1.689 8667
-3.316 0.663 1.679 8646
-3.320 0.664 1.669 8362
-3.332 0.666 1.663 7128
-3.336 0.667 1.653 5194
-3.482 0.696 1.708 5469
-3.486 0.697 1.698 6888
-3.491 0.698 1.688 7637
-3.517 0.703 1.687 10670
-3.521 0.704 1.677 15192
-3.511 0.702 1.660 16162
-3.515 0.703 1.650 15775
-3.520 0.704 1.639 13485
-3.524 0.705 1.629 10258
-3.535 0.707 1.622 10114
-3.547 0.709 1.614 10992
-3.551 0.710 1.604 7393
-3.555 0.711 1.593 3734
-3.567 0.713 1.586 3726
-3.585 0.717 1.581 3819
-3.596 0.719 1.574 3249
-3.608 0.721 1.566 2026
-3.402 0.680 1.472 1728
-3.406 0.681 1.462 1583
-3.700 0.740 1.566 1238
-3.704 0.741 1.555 880
-4.267 0.853 1.759 727
-4.272 0.854 1.746 676
-3.694 0.739 1.514 762
-3.822 0.764 1.549 1438
-3.680 0.736 1.484 1838
-4.268 0.853 1.688 1892
-4.397 0.879 1.720 2121
-4.394 0.879 1.705 2320
-3.688 0.737 1.438 1901
-3.662 0.732 1.417 2139
-3.658 0.732 1.404 3138
-3.662 0.732 1.393 2541
-4.578 0.915 1.696 2009
-4.611 0.922 1.692 2539
-4.609 0.922 1.676 2936
-4.687 0.937 1.687 2107
-4.706 0.941 1.678 2445
-4.732 0.946 1.672 2761
-4.752 0.950 1.663 3036
-4.749 0.950 1.646 3602
-4.753 0.950 1.632 3442
-4.802 0.960 1.632 3029
-4.806 0.961 1.618 3471
-4.877 0.975 1.625 2583
-4.926 0.985 1.624 3738
-5.034 1.007 1.641 4171
-5.039 1.008 1.626 6116
-5.065 1.013 1.618 4769
-5.159 1.032 1.629 3440
-5.171 1.034 1.616 3004
-5.040 1.008 1.562 2401
-5.284 1.057 1.615 2919
-5.318 1.063 1.607 2831
-5.427 1.085 1.621 5126
-5.439 1.088 1.607 8246
-5.443 1.088 1.591 9162
-5.432 1.086 1.571 6670
-5.511 1.102 1.574 4218
-5.478 1.095 1.548 2885
-5.700 1.140 1.588 2161
-5.471 1.094 1.512 1935
-5.821 1.164 1.583 2543
-5.810 1.162 1.562 2610
-5.988 1.197 1.587 1859
-6.007 1.201 1.573 2200
-6.049 1.210 1.564 2222
-6.295 1.259 1.603 1795
-6.481 1.296 1.627 1516
-6.425 1.285 1.594 1482
-6.437 1.287 1.576 1274
-6.699 1.339 1.615 2021
-6.726 1.345 1.600 2493
-6.760 1.352 1.586 3250
-6.772 1.354 1.568 3272
-6.761 1.352 1.545 1753
-7.381 1.476 1.652 1672
-7.400 1.480 1.633 1647
-7.907 1.581 1.712 1754
-7.920 1.584 1.690 2333
-7.924 1.585 1.667 2332
-8.440 1.688 1.741 2518
-8.444 1.689 1.716 2760
-8.441 1.688 1.690 1966
-7.903 1.580 1.566 1343
-8.901 1.780 1.720 1638
-9.250 1.850 1.754 1925
-9.254 1.851 1.727 2103
-9.259 1.851 1.699 2482
-9.263 1.852 1.672 3063
-9.267 1.853 1.645 2895
-9.272 1.854 1.617 1672
-9.276 1.855 1.590 1163
-9.280 1.856 1.562 1306
-9.284 1.856 1.535 1254
-9.288 1.857 1.507 972
-9.292 1.858 1.480 554
-9.296 1.859 1.452 309
-0.991 0.198 0.208 264
-0.991 0.198 0.205 288
-0.991 0.198 0.202 315
-0.991 0.198 0.200 313
-0.991 0.198 0.197 251
-2.184 0.441 1.741 5935
-2.189 0.442 1.734 11870
-2.193 0.443 1.728 11870
-2.198 0.444 1.722 9312
-2.209 0.446 1.720 7006
-2.251 0.455 1.741 5185
-2.268 0.458 1.744 6334
-2.273 0.459 1.737 6334
-2.347 0.474 1.781 6286
-2.352 0.475 1.774 8527
-2.357 0.476 1.767 9913
-2.361 0.477 1.760 11299
-2.372 0.479 1.758 10549
-2.384 0.481 1.755 10554
-2.395 0.484 1.753 8497
-2.406 0.486 1.750 6562
-2.404 0.485 1.739 6476
-2.428 0.490 1.745 5255
-2.439 0.492 1.742 4787
-2.450 0.495 1.739 6811
-2.454 0.496 1.732 8897
-2.472 0.499 1.733 9381
-2.483 0.501 1.731 10649
-2.494 0.504 1.728 9317
-2.512 0.507 1.729 8533
-2.549 0.515 1.742 8603
-2.560 0.517 1.739 10619
-2.558 0.517 1.728 9679
-2.556 0.516 1.716 9180
-2.567 0.518 1.713 7206
-2.612 0.527 1.730 6801
-2.629 0.531 1.730 5435
-2.667 0.539 1.743 5838
-2.679 0.541 1.739 6013
-2.690 0.543 1.736 6452
-2.701 0.545 1.732 7149
-2.712 0.548 1.728 7119
-2.717 0.549 1.720 6374
-2.735 0.552 1.720 7165
-2.739 0.553 1.712 8048
-2.744 0.554 1.704 6792
-2.741 0.554 1.692 5674
-2.834 0.572 1.734 6799
-2.845 0.575 1.730 8643
-2.843 0.574 1.718 9140
-2.854 0.576 1.713 10478
-2.859 0.577 1.705 11837
-2.863 0.578 1.697 9846
-2.881 0.582 1.696 7922
-2.886 0.583 1.687 8077
-2.897 0.585 1.683 6808
-2.908 0.587 1.678 8259
-2.919 0.590 1.673 11111
-2.931 0.592 1.668 12081
-2.949 0.595 1.667 12108
-2.953 0.596 1.658 10915
-2.958 0.597 1.650 9495
-2.955 0.597 1.637 7744
-2.966 0.599 1.632 7298
-2.970 0.600 1.624 6157
-3.093 0.625 1.675 5203
-3.104 0.627 1.669 5777
-3.109 0.628 1.660 5512
-3.113 0.629 1.651 6599
-3.117 0.629 1.642 6779
-3.304 0.667 1.721 5943
-3.308 0.668 1.711 7559
-3.313 0.669 1.702 8646
-3.310 0.668 1.689 7415
-3.315 0.669 1.679 6786
-3.319 0.670 1.669 6635
-3.330 0.672 1.663 5876
-3.427 0.692 1.695 5342
-3.431 0.693 1.685 5145
-3.485 0.704 1.698 6179
-3.490 0.705 1.688 6719
-3.515 0.710 1.687 9957
-3.520 0.711 1.677 14669
-3.510 0.709 1.660 15794
-3.514 0.710 1.650 15678
-3.518 0.710 1.639 13518
-3.523 0.711 1.629 10287
-3.534 0.714 1.622 10118
-3.538 0.714 1.611 10629
-3.543 0.715 1.601 7030
-3.554 0.718 1.593 3609
-3.565 0.720 1.586 3488
-3.577 0.722 1.578 3017
-3.595 0.726 1.574 2433
-3.397 0.686 1.482 1726
-3.408 0.688 1.475 1690
-3.412 0.689 1.465 1555
-3.698 0.747 1.566 1191
-3.702 0.748 1.555 793
-3.801 0.767 1.580 860
-3.805 0.768 1.569 708
-3.692 0.746 1.514 825
-3.689 0.745 1.500 1297
-3.686 0.744 1.487 1534
-3.682 0.744 1.473 1597
-4.402 0.889 1.723 1627
-3.682 0.744 1.449 2115
-3.686 0.744 1.438 2314
-3.661 0.739 1.417 2263
-3.664 0.740 1.406 2976
-3.675 0.742 1.398 2360
-3.657 0.738 1.379 1686
-3.653 0.738 1.366 2607
-3.656 0.738 1.356 2889
-3.645 0.736 1.340 2441
-4.711 0.951 1.681 1889
-4.731 0.955 1.672 2336
-4.750 0.959 1.663 2864
-4.747 0.958 1.646 3279
-4.751 0.959 1.632 3089
-4.800 0.969 1.632 2773
-4.804 0.970 1.618 3179
-4.883 0.986 1.627 2818
-4.917 0.993 1.621 4025
-5.025 1.015 1.638 4432
-5.029 1.016 1.624 6420
-5.048 1.019 1.613 4400
-5.164 1.043 1.631 3567
-5.169 1.044 1.616 3154
-5.038 1.017 1.562 2799
-5.289 1.068 1.617 2727
-5.308 1.072 1.605 2715
-5.425 1.095 1.621 5664
-5.437 1.098 1.607 8408
-5.441 1.099 1.591 9075
-5.445 1.099 1.575 7418
-5.442 1.099 1.557 3844
-5.491 1.109 1.552 2698
-5.487 1.108 1.534 2530
-5.476 1.106 1.514 2111
-5.480 1.107 1.498 2054
-5.951 1.202 1.597 1895
-5.971 1.206 1.583 2099
-6.005 1.213 1.573 1967
-6.327 1.277 1.631 1933
-6.308 1.274 1.607 1867
-6.411 1.294 1.611 1683
-6.430 1.298 1.595 1767
-6.442 1.301 1.578 1546
-6.704 1.354 1.616 2080
-6.723 1.358 1.600 2448
-6.757 1.365 1.586 2876
-6.769 1.367 1.568 3061
-6.750 1.363 1.543 1707
-7.386 1.491 1.654 1809
-7.398 1.494 1.633 1848
-7.409 1.496 1.613 1813
-7.909 1.597 1.689 2166
-7.921 1.599 1.667 1987
-8.436 1.704 1.741 2574
-8.441 1.704 1.716 2717
-8.438 1.704 1.690 1939
-8.885 1.794 1.745 1448
-8.897 1.797 1.720 1628
-9.246 1.867 1.754 1822
-9.251 1.868 1.727 1992
-9.255 1.869 1.699 2539
-9.260 1.870 1.672 3345
-9.264 1.871 1.645 3095
-9.268 1.871 1.617 1709
-9.272 1.872 1.590 1109
-9.276 1.873 1.562 1360
-9.280 1.874 1.535 1378
-9.284 1.875 1.507 1085
-9.288 1.876 1.480 628
-9.292 1.876 1.452 365
-0.860 0.174 0.172 262
-2.184 0.444 1.741 5522
-2.188 0.445 1.734 11045
-2.193 0.446 1.728 11045
-2.204 0.449 1.726 8850
-2.208 0.449 1.720 6912
-2.257 0.459 1.746 6088
-2.268 0.462 1.744 7590
-2.272 0.463 1.737 7590
-2.283 0.465 1.735 7375
-2.345 0.477 1.769 9163
-2.356 0.480 1.767 10012
-2.361 0.481 1.760 11041
-2.372 0.483 1.758 10239
-2.389 0.486 1.760 10386
-2.394 0.487 1.753 8349
-2.411 0.491 1.754 6529
-2.416 0.492 1.747 6429
-2.427 0.494 1.745 5226
-2.445 0.498 1.746 4692
-2.449 0.499 1.739 6663
-2.460 0.501 1.736 8667
-2.471 0.503 1.733 8653
-2.482 0.505 1.731 9328
-2.500 0.509 1.732 8132
-2.511 0.511 1.729 7386
-2.548 0.519 1.742 8495
-2.560 0.521 1.739 10829
-2.558 0.521 1.728 10351
-2.562 0.522 1.720 10126
-2.573 0.524 1.717 7958
-2.604 0.530 1.726 7793
-2.622 0.534 1.726 5786
-2.660 0.541 1.739 5584
-2.678 0.545 1.739 5925
-2.689 0.547 1.736 6701
-2.700 0.550 1.732 7421
-2.711 0.552 1.728 7473
-2.716 0.553 1.720 6750
-2.734 0.557 1.720 7158
-2.738 0.557 1.712 7742
-2.743 0.558 1.704 6518
-2.828 0.576 1.743 5357
-2.833 0.577 1.734 6224
-2.844 0.579 1.730 7962
-2.842 0.579 1.718 8703
-2.853 0.581 1.713 10661
-2.858 0.582 1.705 12649
-2.862 0.583 1.697 11011
-2.880 0.586 1.696 8882
-2.885 0.587 1.687 8500
-2.896 0.590 1.683 7152
-2.907 0.592 1.678 8947
-2.919 0.594 1.673 12126
-2.930 0.596 1.668 12980
-2.948 0.600 1.667 13299
-2.952 0.601 1.658 12219
-2.957 0.602 1.650 10829
-2.954 0.601 1.637 8773
-2.958 0.602 1.629 7906
-2.969 0.604 1.624 6399
-3.092 0.629 1.675 4688
-3.103 0.632 1.669 5560
-3.108 0.633 1.660 5859
-3.112 0.633 1.651 7399
-3.123 0.636 1.645 7282
-3.135 0.638 1.639 6203
-3.314 0.675 1.715 7029
-3.319 0.676 1.705 8016
-3.316 0.675 1.692 6016
-3.166 0.644 1.609 5256
-3.318 0.675 1.669 4742
-3.428 0.698 1.709 4561
-3.426 0.697 1.695 5459
-3.416 0.695 1.679 5589
-3.413 0.695 1.666 5864
-3.481 0.709 1.684 5192
-3.514 0.715 1.687 8783
-3.519 0.716 1.677 13388
-3.509 0.714 1.660 14497
-3.513 0.715 1.650 14705
-3.517 0.716 1.639 12817
-3.522 0.717 1.629 9773
-3.533 0.719 1.622 9648
-3.537 0.720 1.611 9857
-3.534 0.719 1.598 6492
-3.553 0.723 1.593 3544
-3.564 0.726 1.586 3368
-3.395 0.691 1.505 2840
-3.399 0.692 1.495 2369
-3.403 0.693 1.485 1590
-3.407 0.694 1.475 1605
-3.411 0.694 1.465 1485
-3.697 0.753 1.566 1046
-3.716 0.756 1.560 753
-3.800 0.773 1.580 1123
-3.796 0.773 1.566 1207
-3.815 0.777 1.560 1193
-3.826 0.779 1.552 1429
-3.685 0.750 1.487 1331
-3.688 0.751 1.476 1536
-3.685 0.750 1.462 1872
-3.689 0.751 1.452 2534
-3.685 0.750 1.438 2642
-3.667 0.746 1.419 2266
-3.663 0.746 1.406 2539
-3.674 0.748 1.398 2344
-3.656 0.744 1.379 2281
-3.652 0.743 1.366 3237
-3.655 0.744 1.356 3403
-3.651 0.743 1.342 2767
-3.647 0.742 1.329 1976
-3.651 0.743 1.318 1847
-4.748 0.967 1.663 2367
-4.745 0.966 1.646 2650
-4.750 0.967 1.632 2538
-4.791 0.975 1.630 2315
-4.803 0.978 1.618 2643
-4.888 0.995 1.629 2915
-4.915 1.000 1.621 3970
-5.016 1.021 1.636 4572
-5.028 1.023 1.624 6267
-5.024 1.023 1.607 3865
-5.170 1.052 1.633 3608
-5.167 1.052 1.616 3123
-5.037 1.025 1.562 2989
-5.288 1.076 1.617 2488
-5.307 1.080 1.605 2685
-5.416 1.102 1.619 5758
-5.427 1.105 1.605 8174
-5.447 1.109 1.593 8998
-5.443 1.108 1.575 8458
-5.447 1.109 1.559 4661
-5.489 1.117 1.552 3887
-5.485 1.117 1.534 3699
-5.489 1.117 1.518 2660
-5.486 1.117 1.500 2653
-5.950 1.211 1.597 2259
-5.969 1.215 1.583 2160
-6.320 1.287 1.649 1847
-6.332 1.289 1.633 2129
-6.329 1.288 1.612 2075
-6.409 1.305 1.611 1825
-6.428 1.308 1.595 1969
-6.440 1.311 1.578 1645
-6.701 1.364 1.616 2068
-6.721 1.368 1.600 2291
-6.755 1.375 1.586 2425
-6.767 1.378 1.568 2685
-7.379 1.502 1.676 1702
-7.391 1.505 1.655 1986
-7.395 1.505 1.633 2042
-7.415 1.509 1.615 2042
-7.388 1.504 1.587 2042
-8.429 1.716 1.766 1870
-8.434 1.717 1.741 2508
-8.438 1.718 1.716 2556
-8.695 1.770 1.738 2252
-8.691 1.769 1.710 1625
-8.895 1.811 1.720 1548
-9.243 1.882 1.754 1664
-9.248 1.882 1.727 1822
-9.252 1.883 1.699 2564
-9.257 1.884 1.672 3545
-9.261 1.885 1.645 3205
-9.265 1.886 1.617 1731
-9.269 1.887 1.590 1090
-9.274 1.888 1.562 1422
-9.278 1.889 1.535 1480
-9.281 1.889 1.507 1161
-9.285 1.890 1.480 647
-9.289 1.891 1.452 374
-2.183 0.447 1.741 5031
-2.188 0.448 1.734 10062
-2.192 0.449 1.728 10062
-2.203 0.451 1.726 8264
-2.214 0.454 1.725 6715
-2.256 0.462 1.746 7058
-2.267 0.464 1.744 8906
-2.272 0.465 1.737 8906
-2.283 0.468 1.735 8892
-2.332 0.478 1.760 9630
-2.349 0.481 1.762 9966
-2.360 0.484 1.760 10581
-2.371 0.486 1.758 9738
-2.389 0.489 1.760 10077
-2.400 0.492 1.757 8132
-2.417 0.495 1.759 6519
-2.415 0.495 1.747 6420
-2.433 0.498 1.749 5192
-2.444 0.501 1.746 4652
-2.455 0.503 1.744 6442
-2.460 0.504 1.736 8250
-2.471 0.506 1.733 7806
-2.488 0.510 1.735 7976
-2.499 0.512 1.732 6942
-2.510 0.514 1.729 6185
-2.548 0.522 1.742 8012
-2.559 0.524 1.739 10507
-2.557 0.524 1.728 10576
-2.561 0.525 1.720 10781
-2.579 0.528 1.721 8661
-2.604 0.533 1.726 8693
-2.621 0.537 1.726 6216
-2.652 0.543 1.735 5421
-2.670 0.547 1.735 5822
-2.688 0.551 1.736 6802
-2.693 0.552 1.728 7478
-2.704 0.554 1.724 7526
-2.715 0.556 1.720 6831
-2.726 0.559 1.716 6970
-2.738 0.561 1.712 7250
-2.742 0.562 1.704 6037
-2.828 0.579 1.743 5290
-2.832 0.580 1.734 5877
-2.843 0.583 1.730 7238
-2.841 0.582 1.718 7937
-2.846 0.583 1.710 10364
-2.850 0.584 1.701 12792
-2.861 0.586 1.697 11418
-2.880 0.590 1.696 9395
-2.884 0.591 1.687 8768
-2.895 0.593 1.683 7427
-2.913 0.597 1.682 9510
-2.918 0.598 1.673 12501
-2.929 0.600 1.668 13465
-2.947 0.604 1.667 14440
-2.952 0.605 1.658 13704
-2.956 0.606 1.650 12286
-2.953 0.605 1.637 9702
-2.958 0.606 1.629 8336
-2.969 0.608 1.624 6546
-3.098 0.635 1.678 4239
-3.102 0.636 1.669 5383
-3.107 0.636 1.660 6032
-3.111 0.637 1.651 7790
-3.122 0.640 1.645 7478
-3.141 0.643 1.643 6394
-3.313 0.679 1.715 6375
-3.318 0.680 1.705 7418
-3.154 0.646 1.615 6401
-3.165 0.648 1.609 6050
-3.162 0.648 1.597 5001
-3.434 0.704 1.712 4344
-3.425 0.702 1.695 5482
-3.415 0.700 1.679 6044
-3.405 0.698 1.662 6775
-3.409 0.699 1.652 5860
-3.513 0.720 1.687 7360
-3.518 0.721 1.677 11580
-3.508 0.719 1.660 12508
-3.512 0.720 1.650 12940
-3.524 0.722 1.642 11501
-3.521 0.721 1.629 8778
-3.532 0.724 1.622 8735
-3.536 0.724 1.611 8611
-3.533 0.724 1.598 5690
-3.430 0.703 1.543 3848
-3.563 0.730 1.586 3259
-3.402 0.697 1.508 2859
-3.398 0.696 1.495 2201
-3.402 0.697 1.485 1421
-3.413 0.699 1.478 1468
-3.417 0.700 1.468 1343
-3.696 0.757 1.566 885
-4.048 0.829 1.690 969
-3.799 0.778 1.580 1087
-3.795 0.778 1.566 1301
-3.807 0.780 1.558 1408
-3.818 0.782 1.549 1419
-3.829 0.785 1.541 1233
-3.680 0.754 1.473 1647
-3.684 0.755 1.462 2118
-3.688 0.755 1.452 2632
-3.691 0.756 1.441 2617
-3.673 0.753 1.422 2018
-3.669 0.752 1.409 2135
-3.673 0.753 1.398 2321
-3.655 0.749 1.379 2583
-3.651 0.748 1.366 3358
-3.654 0.749 1.356 3512
-3.650 0.748 1.342 2854
-3.646 0.747 1.329 1975
-3.650 0.748 1.318 1893
-3.661 0.750 1.310 2106
-4.744 0.972 1.646 1992
-4.756 0.974 1.635 1934
-4.790 0.981 1.630 1812
-4.794 0.982 1.616 2069
-4.887 1.001 1.629 2837
-4.914 1.007 1.621 3629
-5.015 1.027 1.636 4316
-5.019 1.028 1.621 5586
-5.023 1.029 1.607 3314
-5.169 1.059 1.633 3270
-5.173 1.060 1.618 2853
-5.035 1.032 1.562 2739
-5.219 1.069 1.598 2607
-5.343 1.095 1.616 3066
-5.414 1.109 1.619 5626
-5.426 1.112 1.605 7640
-5.445 1.116 1.593 8712
-5.449 1.116 1.577 9159
-5.453 1.117 1.561 6006
-5.480 1.123 1.550 5420
-5.484 1.124 1.534 4684
-5.488 1.124 1.518 3194
-5.492 1.125 1.502 2997
-5.948 1.219 1.597 2361
-5.779 1.184 1.537 2352
-6.319 1.294 1.649 2069
-6.330 1.297 1.633 2254
-6.335 1.298 1.614 2216
-6.331 1.297 1.593 2057
-6.434 1.318 1.597 2052
-6.317 1.294 1.551 1626
-6.700 1.373 1.616 1812
-6.719 1.377 1.600 1961
-6.754 1.384 1.586 1947
-6.758 1.384 1.566 2274
-7.385 1.513 1.677 1780
-7.389 1.514 1.655 2236
-7.401 1.516 1.635 2215
-7.413 1.519 1.615 2163
-7.387 1.513 1.587 1891
-8.427 1.726 1.766 1946
-8.431 1.727 1.741 2368
-8.688 1.780 1.763 2516
-8.685 1.779 1.736 2575
-8.689 1.780 1.710 1922
-8.526 1.747 1.655 1398
-8.981 1.840 1.709 1591
-8.985 1.841 1.682 1763
-9.250 1.895 1.699 2541
-9.254 1.896 1.672 3666
-9.259 1.897 1.645 3245
-9.263 1.898 1.617 1753
-9.267 1.899 1.590 1071
-9.271 1.899 1.562 1382
-9.275 1.900 1.535 1458
-9.279 1.901 1.507 1160
-9.283 1.902 1.480 645
-9.287 1.903 1.452 364
-2.182 0.453 1.741 4530
-2.186 0.454 1.734 9060
-2.191 0.455 1.728 9060
-2.202 0.457 1.726 7604
-2.232 0.463 1.738 6959
-2.255 0.468 1.746 8066
-2.266 0.470 1.744 10253
-2.271 0.471 1.737 10253
-2.281 0.473 1.735 10434
-2.299 0.477 1.737 11263
-2.348 0.487 1.762 9894
-2.352 0.488 1.755 10039
-2.370 0.492 1.758 9089
-2.387 0.495 1.760 9583
-2.398 0.498 1.757 7861
-2.416 0.501 1.759 6499
-2.420 0.502 1.752 6434
-2.432 0.505 1.749 5236
-2.449 0.508 1.751 4723
-2.454 0.509 1.744 6221
-2.458 0.510 1.736 7718
-2.469 0.512 1.733 6912
-2.487 0.516 1.735 6668
-2.498 0.518 1.732 5832
-2.509 0.521 1.729 5055
-2.546 0.528 1.742 7343
-2.558 0.531 1.739 9893
-2.556 0.530 1.728 10537
-2.560 0.531 1.720 11185
-2.584 0.536 1.725 9295
-2.602 0.540 1.726 9446
-2.613 0.542 1.722 6654
-2.651 0.550 1.735 5423
-2.669 0.554 1.735 5753
-2.687 0.557 1.736 6806
-2.691 0.558 1.728 7395
-2.703 0.561 1.724 7368
-2.707 0.562 1.716 6664
-2.725 0.565 1.716 6672
-2.730 0.566 1.708 6757
-2.741 0.569 1.704 5440
-2.819 0.585 1.739 5295
-2.831 0.587 1.734 5742
-2.835 0.588 1.726 6689
-2.840 0.589 1.718 7184
-2.844 0.590 1.710 10131
-2.849 0.591 1.701 13078
-2.860 0.593 1.697 11905
-2.878 0.597 1.696 10144
-2.883 0.598 1.687 9447
-2.901 0.602 1.686 8011
-2.919 0.606 1.685 10122
-2.916 0.605 1.673 12792
-2.928 0.607 1.668 13907
-2.946 0.611 1.667 15647
-2.950 0.612 1.658 15325
-2.954 0.613 1.650 13831
-2.952 0.612 1.637 10617
-2.956 0.613 1.629 8770
-2.960 0.614 1.620 6834
-2.971 0.617 1.615 4170
-3.101 0.643 1.669 5461
-3.105 0.644 1.660 6262
-3.117 0.647 1.654 7966
-3.128 0.649 1.648 7510
-3.139 0.651 1.643 6605
-3.143 0.652 1.634 5849
-3.323 0.690 1.708 6786
-3.152 0.654 1.615 6870
-3.163 0.656 1.609 6556
-3.160 0.656 1.597 5460
-3.432 0.712 1.712 4339
-3.423 0.710 1.695 5426
-3.406 0.707 1.676 6430
-3.403 0.706 1.662 7492
-3.401 0.706 1.649 6577
-3.369 0.699 1.623 6765
-3.516 0.730 1.677 9631
-3.506 0.727 1.660 10257
-3.517 0.730 1.653 10823
-3.522 0.731 1.642 9827
-3.526 0.732 1.632 7507
-3.523 0.731 1.619 7579
-3.527 0.732 1.608 7234
-3.410 0.707 1.547 5207
-3.435 0.713 1.546 4331
-3.482 0.723 1.553 3205
-3.400 0.705 1.508 2718
-3.534 0.733 1.550 2100
-3.538 0.734 1.540 1280
-3.412 0.708 1.478 1251
-3.415 0.709 1.468 1137
-4.034 0.837 1.699 1106
-4.046 0.840 1.690 1249
-4.050 0.840 1.678 1200
-3.793 0.787 1.566 1121
-3.797 0.788 1.555 1261
-3.809 0.790 1.547 1134
-3.674 0.762 1.484 1159
-3.678 0.763 1.473 1653
-3.682 0.764 1.462 2108
-3.686 0.765 1.452 2448
-3.690 0.766 1.441 2335
-3.679 0.763 1.425 1712
-3.668 0.761 1.409 1908
-3.664 0.760 1.395 2381
-3.645 0.756 1.377 2672
-3.649 0.757 1.366 3115
-3.652 0.758 1.356 3330
-3.648 0.757 1.342 2901
-3.652 0.758 1.332 1829
-3.655 0.758 1.321 1805
-3.659 0.759 1.310 2119
-3.662 0.760 1.299 1870
-4.753 0.986 1.635 1333
-3.728 0.773 1.296 1394
-4.888 1.014 1.646 1741
-4.885 1.014 1.629 2465
-4.911 1.019 1.621 3063
-5.012 1.040 1.636 3771
-5.016 1.041 1.621 4599
-5.013 1.040 1.604 2687
-5.166 1.072 1.633 2733
-5.178 1.074 1.620 2384
-5.406 1.122 1.669 2270
-5.216 1.082 1.598 2732
-5.347 1.110 1.618 3374
-5.397 1.120 1.614 5655
-5.393 1.119 1.597 7250
-5.450 1.131 1.595 8188
-5.447 1.130 1.577 9142
-5.458 1.133 1.563 6967
-5.477 1.136 1.550 6442
-5.481 1.137 1.534 5287
-5.485 1.138 1.518 3600
-5.489 1.139 1.502 3100
-5.772 1.198 1.554 2385
-5.776 1.198 1.537 2641
-6.308 1.309 1.648 2405
-6.327 1.313 1.633 2386
-6.331 1.314 1.614 2299
-6.328 1.313 1.593 2253
-6.431 1.334 1.597 2006
-6.525 1.354 1.599 1726
-6.522 1.353 1.578 1807
-6.519 1.353 1.557 1658
-6.735 1.397 1.583 1548
-6.739 1.398 1.563 1925
-7.381 1.531 1.677 1870
-7.393 1.534 1.657 2471
-7.397 1.535 1.635 2358
-7.417 1.539 1.616 2241
-7.383 1.532 1.587 1652
-8.430 1.749 1.767 1931
-8.427 1.749 1.741 2150
-8.683 1.802 1.763 2581
-8.680 1.801 1.736 2821
-8.967 1.861 1.762 2205
-8.972 1.862 1.735 1502
-8.976 1.862 1.709 1721
-8.981 1.863 1.682 1988
-9.245 1.918 1.699 2440
-9.249 1.919 1.672 3642
-9.254 1.920 1.645 3180
-9.258 1.921 1.617 1754
-9.262 1.922 1.590 1007
-9.266 1.923 1.562 1205
-9.270 1.924 1.535 1296
-9.274 1.924 1.507 1077
-9.278 1.925 1.480 610
-9.282 1.926 1.452 316
-5.001 1.038 0.382 269
-5.002 1.038 0.367 266
-2.187 0.460 1.746 3970
-2.192 0.460 1.739 7940
-2.196 0.461 1.733 7940
-2.220 0.466 1.740 7116
-2.237 0.470 1.743 7408
-2.260 0.475 1.750 9067
-2.265 0.476 1.744 11508
-2.269 0.477 1.737 11508
-2.280 0.479 1.735 11829
-2.291 0.481 1.733 12814
-2.340 0.492 1.758 9867
-2.351 0.494 1.755 9578
-2.369 0.498 1.758 8374
-2.392 0.503 1.764 9094
-2.404 0.505 1.761 7614
-2.421 0.509 1.763 6485
-2.419 0.508 1.752 6422
-2.430 0.511 1.749 5210
-2.454 0.516 1.755 4702
-2.452 0.515 1.744 5848
-2.457 0.516 1.736 6999
-2.468 0.519 1.733 6002
-2.492 0.524 1.739 5665
-2.497 0.525 1.732 5056
-2.501 0.526 1.724 4448
-2.545 0.535 1.742 6741
-2.550 0.536 1.735 9361
-2.554 0.537 1.728 10454
-2.559 0.538 1.720 11548
-2.583 0.543 1.725 9943
-2.601 0.546 1.726 10105
-2.612 0.549 1.722 7085
-2.650 0.557 1.735 5505
-2.661 0.559 1.731 5756
-2.679 0.563 1.732 6756
-2.690 0.565 1.728 7148
-2.701 0.568 1.724 6963
-2.706 0.568 1.716 6271
-2.717 0.571 1.712 6232
-2.721 0.572 1.704 6239
-2.733 0.574 1.700 4899
-2.818 0.592 1.739 5317
-2.829 0.594 1.734 5822
-2.834 0.595 1.726 6412
-2.832 0.595 1.714 6527
-2.843 0.597 1.710 9700
-2.847 0.598 1.701 12923
-2.859 0.601 1.697 11745
-2.877 0.604 1.696 10194
-2.881 0.605 1.687 9659
-2.899 0.609 1.686 8468
-2.917 0.613 1.685 10787
-2.915 0.612 1.673 12875
-2.926 0.615 1.668 14388
-2.944 0.619 1.667 16860
-2.948 0.620 1.658 16888
-2.953 0.620 1.650 15339
-2.950 0.620 1.637 11560
-2.954 0.621 1.629 9262
-2.959 0.622 1.620 7128
-2.970 0.624 1.615 4410
-3.099 0.651 1.669 5519
-3.104 0.652 1.660 6351
-3.115 0.654 1.654 7876
-3.126 0.657 1.648 7350
-3.137 0.659 1.643 6575
-3.149 0.662 1.637 5792
-3.321 0.698 1.708 6140
-3.150 0.662 1.615 7023
-3.154 0.663 1.606 6881
-3.159 0.664 1.597 5884
-3.438 0.722 1.715 4380
-3.421 0.719 1.695 5248
-3.404 0.715 1.676 6492
-3.394 0.713 1.659 7811
-3.385 0.711 1.643 6956
-3.368 0.708 1.623 7012
-3.507 0.737 1.673 7728
-3.511 0.738 1.663 8078
-3.523 0.740 1.656 8690
-3.527 0.741 1.645 8123
-3.524 0.740 1.632 6307
-3.507 0.737 1.613 6523
-3.518 0.739 1.605 5988
-3.408 0.716 1.547 5194
-3.441 0.723 1.549 4783
-3.480 0.731 1.553 3973
-3.520 0.740 1.558 2845
-3.532 0.742 1.550 2326
-3.536 0.743 1.540 1375
-3.446 0.724 1.492 1112
-4.035 0.848 1.713 1020
-4.032 0.847 1.699 1346
-4.044 0.850 1.690 1479
-4.056 0.852 1.681 1409
-3.487 0.733 1.450 1444
-3.490 0.733 1.440 1359
-3.494 0.734 1.429 1053
-3.672 0.772 1.484 1117
-3.676 0.772 1.473 1617
-3.680 0.773 1.462 2018
-3.684 0.774 1.452 2192
-3.688 0.775 1.441 1982
-3.677 0.773 1.425 1436
-3.666 0.770 1.409 1688
-3.662 0.769 1.395 2175
-3.643 0.766 1.377 2416
-3.654 0.768 1.369 2756
-3.650 0.767 1.356 3001
-3.647 0.766 1.342 2772
-3.650 0.767 1.332 1874
-3.653 0.768 1.321 1645
-3.657 0.768 1.310 1839
-3.660 0.769 1.299 1740
-3.671 0.771 1.291 1244
-3.726 0.783 1.296 1336
-3.707 0.779 1.279 1351
-4.889 1.027 1.631 1902
-4.901 1.030 1.619 2390
-5.002 1.051 1.634 2991
-5.014 1.053 1.621 3349
-3.678 0.773 1.211 3053
-3.681 0.773 1.200 2228
-5.190 1.091 1.624 1901
-5.217 1.096 1.615 2002
-5.213 1.095 1.598 2488
-5.345 1.123 1.618 3245
-5.386 1.132 1.612 5790
-5.375 1.129 1.592 7415
-5.455 1.146 1.597 7304
-5.451 1.145 1.579 8539
-5.455 1.146 1.563 7703
-5.474 1.150 1.550 6994
-5.478 1.151 1.534 5640
-5.482 1.152 1.518 3800
-5.486 1.153 1.502 2901
-5.776 1.214 1.556 2808
-5.773 1.213 1.537 2758
-6.297 1.323 1.646 2776
-6.309 1.326 1.629 2507
-6.328 1.330 1.614 2244
-6.378 1.340 1.606 2384
-6.420 1.349 1.595 1934
-6.514 1.369 1.597 1728
-6.519 1.370 1.578 1768
-6.515 1.369 1.557 1490
-6.504 1.367 1.534 1310
-6.735 1.415 1.563 1663
