-1.852 4.267 1.645 3983
-1.883 4.340 1.656 2753
-1.894 4.365 1.650 2550
-1.944 4.480 1.675 2439
-1.907 4.394 1.630 1832
-1.993 4.592 1.682 2873
-1.997 4.603 1.670 3470
-2.002 4.614 1.657 3181
-2.001 4.611 1.641 3102
-2.051 4.726 1.662 2893
-2.053 4.731 1.647 2979
-2.139 4.930 1.695 3734
-2.135 4.920 1.675 2936
-2.176 5.015 1.687 3250
-2.169 4.998 1.665 3444
-2.231 5.142 1.692 2558
-2.227 5.132 1.672 2218
-2.290 5.276 1.697 2494
-2.291 5.280 1.681 5508
-2.293 5.284 1.664 5059
-2.469 5.689 1.762 2757
-2.470 5.693 1.744 3860
-2.439 5.620 1.705 4033
-2.434 5.610 1.683 4563
-2.439 5.621 1.667 3286
-2.527 5.823 1.703 2996
-2.538 5.848 1.690 4396
-2.552 5.880 1.679 5390
-2.566 5.913 1.668 3404
-2.546 5.867 1.637 2382
-2.720 6.267 1.719 2264
-2.722 6.272 1.699 2906
-2.723 6.276 1.679 2745
-2.728 6.287 1.661 2334
-2.779 6.404 1.668 1443
-2.778 6.401 1.647 1799
-2.777 6.398 1.625 1850
-2.824 6.509 1.629 1896
-2.854 6.577 1.623 1638
-3.001 6.915 1.677 2219
-2.999 6.912 1.654 2413
-3.112 7.172 1.688 2152
-3.120 7.191 1.668 2133
-3.351 7.723 1.756 1923
-3.353 7.727 1.732 2462
-3.355 7.731 1.707 3262
-3.354 7.728 1.682 3500
-3.523 8.118 1.733 4248
-3.522 8.115 1.706 5271
-3.526 8.126 1.682 5581
-3.531 8.138 1.658 4971
-3.539 8.156 1.634 2724
-3.644 8.396 1.651 1633
-3.642 8.393 1.624 1252
-3.762 8.670 1.645 690
-2.662 6.134 1.182 517
-2.666 6.144 1.164 938
-2.664 6.140 1.143 1247
-2.665 6.142 1.124 1074
-2.667 6.145 1.105 635
-2.668 6.147 1.085 290
-0.871 2.023 1.722 3804
-0.873 2.028 1.716 7608
-0.874 2.032 1.709 7608
-0.881 2.048 1.712 6144
-0.901 2.093 1.738 5351
-0.905 2.104 1.737 6843
-0.912 2.120 1.739 8865
-0.914 2.124 1.733 8865
-0.919 2.134 1.731 7198
-0.923 2.145 1.728 5832
-0.950 2.209 1.767 4822
-0.958 2.225 1.769 5831
-0.957 2.223 1.758 8484
-0.959 2.228 1.751 11175
-0.963 2.238 1.748 9740
-0.965 2.242 1.741 8389
-0.967 2.246 1.734 8427
-0.969 2.251 1.727 5615
-0.999 2.322 1.768 4441
-0.993 2.308 1.748 5745
-0.995 2.312 1.741 7118
-0.997 2.317 1.733 6159
-1.015 2.357 1.752 5884
-1.001 2.325 1.719 5967
-1.002 2.329 1.712 6734
-1.004 2.333 1.705 6622
-1.006 2.338 1.697 6511
-1.010 2.348 1.694 5340
-1.039 2.414 1.728 5812
-1.049 2.437 1.733 5269
-1.056 2.454 1.734 5929
-1.063 2.470 1.735 6290
-1.068 2.481 1.731 7554
-1.069 2.485 1.723 7619
-1.071 2.489 1.715 7507
-1.076 2.500 1.712 5980
-1.080 2.510 1.708 5281
-1.082 2.514 1.700 6018
-1.087 2.525 1.696 5453
-1.094 2.542 1.696 5080
-1.096 2.546 1.688 5961
-1.097 2.550 1.680 6821
-1.096 2.548 1.668 6625
-1.101 2.558 1.664 5355
-1.108 2.575 1.664 4758
-1.151 2.675 1.713 4371
-1.153 2.679 1.705 5871
-1.157 2.689 1.700 6364
-1.170 2.719 1.707 5563
-1.183 2.749 1.714 4709
-1.182 2.747 1.701 4175
-1.209 2.809 1.726 4328
-1.208 2.807 1.713 5421
-1.212 2.817 1.708 4503
-1.225 2.847 1.714 3869
-1.227 2.852 1.705 4166
-1.262 2.933 1.739 4558
-1.262 2.931 1.727 6163
-1.263 2.936 1.717 7497
-1.265 2.940 1.708 7100
-1.270 2.950 1.703 6690
-1.272 2.955 1.693 6639
-1.282 2.978 1.695 6639
-1.295 3.009 1.699 6078
-1.299 3.019 1.693 5829
-1.301 3.024 1.684 7009
-1.303 3.028 1.674 5513
-1.336 3.104 1.702 4962
-1.335 3.102 1.689 5933
-1.337 3.106 1.679 6431
-1.338 3.110 1.669 5478
-1.363 3.167 1.686 6683
-1.359 3.158 1.669 9871
-1.364 3.169 1.663 7754
-1.371 3.186 1.659 5491
-1.376 3.197 1.652 5792
-1.386 3.221 1.652 6267
-1.414 3.285 1.670 7941
-1.418 3.296 1.663 6814
-1.429 3.320 1.662 5876
-1.439 3.344 1.661 6956
-1.444 3.355 1.654 8336
-1.448 3.365 1.646 7761
-1.456 3.383 1.642 6451
-1.524 3.542 1.700 4228
-1.509 3.505 1.671 3198
-1.542 3.584 1.693 4373
-1.532 3.561 1.670 4750
-1.549 3.599 1.673 4306
-1.553 3.610 1.665 4277
-1.590 3.695 1.688 4756
-1.569 3.645 1.654 3895
-1.603 3.724 1.673 2845
-1.651 3.836 1.707 2771
-1.659 3.854 1.700 3958
-1.681 3.906 1.707 5407
-1.686 3.917 1.698 4882
-1.691 3.928 1.688 4084
-1.692 3.932 1.676 6033
-1.697 3.943 1.666 8034
-1.699 3.947 1.654 6111
-1.757 4.082 1.692 4808
-1.758 4.086 1.679 5091
-1.757 4.083 1.663 3108
-1.800 4.183 1.687 3119
-1.814 4.215 1.684 4012
-1.819 4.226 1.673 5484
-1.838 4.271 1.675 6541
-1.837 4.269 1.659 6253
-1.839 4.273 1.645 3657
-1.867 4.339 1.654 2424
-1.926 4.475 1.686 2823
-1.933 4.493 1.677 3074
-1.950 4.531 1.675 1970
-1.976 4.591 1.679 2654
-1.996 4.637 1.679 3575
-2.000 4.648 1.667 4020
-1.987 4.617 1.641 3341
-2.040 4.740 1.665 2718
-2.039 4.737 1.647 2790
-2.127 4.943 1.697 3967
-2.123 4.933 1.677 2947
-2.152 5.000 1.681 2424
-2.148 4.990 1.661 3118
-2.146 4.988 1.643 2414
-2.257 5.244 1.703 2467
-2.268 5.269 1.693 2845
-2.272 5.280 1.679 5506
-2.274 5.284 1.662 4991
-2.454 5.703 1.764 2927
-2.453 5.701 1.744 3852
-2.419 5.620 1.703 3479
-2.421 5.624 1.685 4041
-2.425 5.636 1.669 3006
-2.512 5.837 1.705 3668
-2.520 5.856 1.690 5277
-2.531 5.881 1.677 5320
-2.530 5.878 1.657 3705
-2.525 5.868 1.635 3780
-2.527 5.872 1.616 2656
-2.703 6.280 1.699 2717
-2.704 6.284 1.679 2641
-2.706 6.288 1.659 2407
-2.760 6.413 1.668 1467
-2.762 6.417 1.648 1811
-2.843 6.606 1.671 2357
-2.845 6.610 1.650 1994
-2.871 6.671 1.642 1779
-2.980 6.924 1.677 1709
-3.083 7.163 1.707 2033
-3.088 7.175 1.686 2064
-3.102 7.207 1.669 1953
-3.165 7.354 1.677 1885
-3.330 7.737 1.732 2486
-3.328 7.734 1.706 3347
-3.330 7.738 1.682 3429
-3.498 8.129 1.733 4695
-3.500 8.133 1.708 5471
-3.502 8.137 1.682 5948
-3.510 8.156 1.659 5384
-3.518 8.174 1.636 3050
-3.618 8.407 1.651 1590
-3.620 8.411 1.625 1229
-3.628 8.430 1.601 611
-3.636 8.448 1.577 376
-2.648 6.152 1.164 318
-2.649 6.155 1.145 494
-2.650 6.157 1.125 489
-2.651 6.160 1.106 325
-2.659 6.179 0.950 313
-0.868 2.025 1.722 3998
-0.869 2.029 1.716 7997
-0.871 2.033 1.709 7997
-0.878 2.049 1.712 6297
-0.898 2.095 1.738 5542
-0.902 2.105 1.737 7027
-0.909 2.121 1.739 9159
-0.911 2.125 1.733 9159
-0.915 2.136 1.731 7543
-0.922 2.152 1.733 6304
-0.927 2.162 1.731 5005
-0.957 2.232 1.773 5605
-0.953 2.225 1.758 7996
-0.955 2.229 1.751 10462
-0.960 2.239 1.748 8999
-0.961 2.244 1.741 7726
-0.963 2.248 1.734 7746
-0.968 2.258 1.732 5284
-0.985 2.299 1.751 4461
-0.990 2.309 1.748 5897
-0.991 2.314 1.741 7375
-0.993 2.318 1.733 6415
-1.008 2.353 1.748 6299
-0.997 2.327 1.719 6185
-0.999 2.331 1.712 6915
-1.001 2.335 1.705 6365
-1.002 2.339 1.697 5815
-1.039 2.424 1.744 4732
-1.038 2.422 1.733 5634
-1.045 2.439 1.733 5624
-1.049 2.449 1.730 6371
-1.057 2.466 1.730 6679
-1.064 2.482 1.731 7745
-1.066 2.487 1.723 7488
-1.067 2.491 1.715 6971
-1.072 2.501 1.712 5510
-1.076 2.512 1.708 4970
-1.081 2.522 1.704 5796
-1.083 2.527 1.696 5343
-1.087 2.537 1.692 4952
-1.089 2.541 1.684 5917
-1.093 2.552 1.680 6848
-1.095 2.556 1.672 6725
-1.097 2.560 1.664 5497
-1.104 2.577 1.664 4705
-1.147 2.676 1.713 4696
-1.149 2.681 1.705 6276
-1.153 2.691 1.700 6863
-1.166 2.721 1.707 5971
-1.176 2.744 1.710 5024
-1.178 2.749 1.701 4254
-1.207 2.817 1.730 4228
-1.206 2.815 1.717 5100
-1.211 2.826 1.712 4329
-1.251 2.920 1.754 3959
-1.256 2.931 1.749 4214
-1.261 2.942 1.743 3767
-1.257 2.933 1.727 4736
-1.259 2.937 1.717 6277
-1.261 2.942 1.708 6146
-1.265 2.952 1.703 6438
-1.270 2.963 1.697 6955
-1.283 2.993 1.701 7164
-1.290 3.011 1.699 6808
-1.295 3.021 1.693 6633
-1.297 3.026 1.684 7856
-1.298 3.030 1.674 6081
-1.331 3.106 1.702 4525
-1.330 3.104 1.689 5255
-1.335 3.115 1.682 5811
-1.368 3.192 1.709 5991
-1.361 3.176 1.689 7138
-1.357 3.167 1.673 9294
-1.359 3.171 1.663 7205
-1.366 3.188 1.659 4820
-1.371 3.199 1.652 5403
-1.378 3.216 1.649 6159
-1.409 3.287 1.670 8056
-1.416 3.305 1.666 6881
-1.426 3.329 1.665 6185
-1.434 3.346 1.661 7450
-1.436 3.350 1.650 8810
-1.440 3.361 1.643 7984
-1.451 3.385 1.642 6396
-1.455 3.396 1.634 4088
-1.506 3.515 1.674 2989
-1.540 3.593 1.696 4440
-1.538 3.590 1.681 4544
-1.543 3.601 1.673 4263
-1.548 3.612 1.665 4267
-1.599 3.731 1.702 4547
-1.630 3.803 1.719 3650
-1.667 3.889 1.741 2753
-1.645 3.839 1.707 2729
-1.653 3.857 1.700 4275
-1.672 3.902 1.705 5098
-1.683 3.927 1.701 4062
-1.684 3.931 1.688 3559
-1.686 3.935 1.676 5755
-1.688 3.939 1.664 7403
-1.693 3.950 1.654 5519
-1.750 4.084 1.692 5404
-1.752 4.088 1.679 5652
-1.792 4.182 1.700 3996
-1.794 4.186 1.687 4353
-1.804 4.211 1.681 4409
-1.800 4.201 1.663 5274
-1.832 4.274 1.675 5877
-1.830 4.272 1.659 5571
-1.832 4.276 1.645 3206
-1.905 4.446 1.691 3024
-1.919 4.478 1.686 3259
-1.926 4.496 1.677 3528
-1.940 4.527 1.672 2166
-1.957 4.566 1.670 2479
-1.991 4.647 1.681 3872
-1.996 4.658 1.669 4672
-1.998 4.662 1.654 3187
-1.985 4.631 1.628 2324
-2.118 4.942 1.712 2841
-2.120 4.946 1.697 4049
-2.121 4.951 1.681 3139
-2.132 4.976 1.672 2455
-2.137 4.987 1.659 2966
-2.136 4.984 1.641 2498
-2.258 5.268 1.710 2948
-2.256 5.266 1.691 3661
-2.261 5.277 1.676 5771
-2.266 5.288 1.662 5486
-2.259 5.271 1.639 3009
-2.444 5.704 1.744 3371
-2.443 5.702 1.725 2900
-2.412 5.628 1.685 3197
-2.510 5.858 1.729 3471
-2.503 5.841 1.705 4661
-2.508 5.852 1.688 6152
-2.519 5.878 1.676 5607
-2.511 5.861 1.652 4660
-2.516 5.872 1.635 5034
-2.518 5.876 1.616 3339
-2.693 6.284 1.699 2406
-2.652 6.189 1.655 2566
-2.696 6.292 1.659 2195
-2.665 6.218 1.621 1602
-2.828 6.599 1.690 1803
-2.833 6.610 1.671 2652
-2.837 6.621 1.652 2109
-2.860 6.675 1.642 1819
-3.039 7.093 1.714 1652
-3.069 7.161 1.706 1813
-3.104 7.244 1.700 1852
-3.149 7.348 1.698 1950
-3.154 7.359 1.677 1854
-3.318 7.742 1.732 2361
-3.316 7.739 1.706 3206
-3.490 8.144 1.762 3434
-3.486 8.134 1.733 4893
-3.487 8.138 1.708 5261
-3.489 8.143 1.682 5753
-3.497 8.161 1.659 5368
-3.505 8.179 1.636 3327
-3.605 8.413 1.651 1872
-3.607 8.417 1.625 1300
-3.618 8.443 1.602 657
-3.623 8.454 1.577 454
-3.519 8.213 1.509 321
-3.620 8.447 1.521 265
-2.644 6.169 1.067 256
-3.765 8.786 0.622 259
-3.765 8.787 0.595 313
-3.766 8.788 0.567 310
-3.766 8.789 0.539 255
-0.861 2.028 1.722 4149
-0.863 2.032 1.716 8299
-0.864 2.036 1.709 8299
-0.871 2.052 1.712 6341
-0.891 2.098 1.738 5789
-0.895 2.108 1.737 7223
-0.902 2.124 1.739 9349
-0.904 2.129 1.733 9349
-0.910 2.145 1.735 7800
-0.915 2.155 1.733 6685
-0.919 2.165 1.731 5192
-0.949 2.236 1.773 5267
-0.943 2.222 1.753 7356
-0.948 2.232 1.751 9554
-0.949 2.237 1.744 8187
-0.954 2.247 1.741 6947
-0.956 2.251 1.734 6946
-0.960 2.262 1.732 4944
-0.977 2.302 1.751 4462
-0.979 2.307 1.744 5981
-0.984 2.317 1.741 7549
-0.985 2.321 1.733 6600
-1.000 2.356 1.748 6578
-0.989 2.330 1.719 6335
-0.991 2.334 1.712 7018
-0.993 2.338 1.705 6078
-0.994 2.343 1.697 5139
-1.030 2.427 1.744 4512
-1.032 2.432 1.737 5299
-1.037 2.442 1.733 5819
-1.041 2.453 1.730 6714
-1.046 2.463 1.726 6880
-1.053 2.480 1.727 7821
-1.054 2.484 1.719 7363
-1.059 2.495 1.715 6636
-1.063 2.505 1.712 5231
-1.071 2.522 1.712 4698
-1.072 2.526 1.704 5478
-1.074 2.530 1.696 5159
-1.076 2.534 1.688 4840
-1.080 2.545 1.684 5864
-1.085 2.555 1.680 6861
-1.086 2.560 1.672 6774
-1.091 2.570 1.668 5593
-1.095 2.580 1.664 4806
-1.138 2.680 1.713 5149
-1.140 2.685 1.705 6830
-1.144 2.695 1.700 7463
-1.157 2.725 1.707 6487
-1.167 2.748 1.710 5508
-1.168 2.753 1.701 4703
-1.198 2.821 1.730 4222
-1.199 2.826 1.721 4935
-1.201 2.830 1.712 4201
-1.239 2.918 1.750 4143
-1.243 2.929 1.745 4328
-1.220 2.875 1.703 3454
-1.219 2.872 1.691 3701
-1.246 2.935 1.714 4865
-1.251 2.946 1.708 4851
-1.258 2.963 1.706 5897
-1.262 2.974 1.700 7173
-1.273 2.998 1.701 7468
-1.277 3.009 1.696 7199
-1.282 3.019 1.690 7168
-1.286 3.030 1.684 8357
-1.288 3.034 1.674 6347
-1.318 3.104 1.698 4752
-1.320 3.108 1.689 5538
-1.352 3.185 1.715 6294
-1.357 3.196 1.709 6657
-1.353 3.187 1.692 7514
-1.346 3.171 1.673 8586
-1.348 3.175 1.663 6413
-1.353 3.186 1.656 4051
-1.360 3.204 1.652 4839
-1.367 3.221 1.649 5940
-1.400 3.299 1.673 7954
-1.408 3.316 1.669 6958
-1.415 3.334 1.665 6724
-1.420 3.344 1.658 8122
-1.424 3.355 1.650 9301
-1.429 3.366 1.643 8209
-1.436 3.383 1.639 6235
-1.444 3.401 1.634 4131
-1.500 3.533 1.680 2985
-1.527 3.598 1.696 4368
-1.529 3.602 1.684 4446
-1.534 3.613 1.676 4211
-1.541 3.631 1.671 4187
-1.586 3.737 1.702 4698
-1.614 3.802 1.716 3715
-1.656 3.902 1.744 3263
-1.641 3.865 1.715 2975
-1.642 3.869 1.703 4618
-1.656 3.901 1.702 4703
-1.669 3.932 1.701 3133
-1.674 3.943 1.691 3274
-1.673 3.941 1.676 5583
-1.674 3.945 1.664 6728
-1.679 3.956 1.654 4807
-1.736 4.090 1.692 5877
-1.738 4.094 1.679 5984
-1.781 4.195 1.702 5070
-1.782 4.199 1.689 5550
-1.784 4.203 1.676 5103
-1.786 4.207 1.663 5482
-1.802 4.246 1.662 5117
-1.816 4.278 1.659 5091
-1.818 4.282 1.645 2957
-1.890 4.452 1.691 3497
-1.901 4.477 1.684 3573
-1.911 4.502 1.677 3899
-1.925 4.534 1.672 2404
-1.941 4.573 1.670 2527
-1.975 4.654 1.681 3951
-1.983 4.672 1.671 4983
-1.985 4.676 1.657 3373
-1.969 4.638 1.628 2395
-2.101 4.949 1.712 2931
-2.103 4.954 1.697 3864
-2.105 4.958 1.681 3468
-2.118 4.990 1.674 3478
-2.123 5.001 1.661 3406
-2.122 4.998 1.643 2442
-2.240 5.276 1.710 3563
-2.238 5.273 1.691 4706
-2.243 5.284 1.676 5996
-2.245 5.289 1.660 5735
-2.244 5.286 1.641 3899
-2.248 5.297 1.627 2987
-2.421 5.703 1.723 2431
-2.489 5.862 1.748 2811
-2.490 5.867 1.729 3968
-2.483 5.850 1.705 5327
-2.485 5.854 1.687 6636
-2.493 5.872 1.672 6120
-2.491 5.869 1.652 5469
-2.496 5.880 1.635 5894
-2.498 5.884 1.616 3930
-2.590 6.101 1.651 2602
-2.628 6.191 1.653 2392
-2.633 6.202 1.635 2021
-2.643 6.227 1.621 1765
-2.805 6.608 1.690 2024
-2.813 6.627 1.673 2969
-2.815 6.631 1.652 2322
-2.838 6.685 1.642 1758
-3.015 7.103 1.714 2194
-3.017 7.107 1.691 1930
-3.016 7.104 1.667 1970
-3.017 7.108 1.645 2324
-3.019 7.112 1.623 2098
-3.446 8.118 1.807 2176
-3.290 7.750 1.706 2896
-3.459 8.149 1.760 3388
-3.458 8.146 1.733 4870
-3.460 8.150 1.708 5107
-3.461 8.154 1.682 5452
-3.469 8.173 1.659 5176
-3.477 8.191 1.636 3442
-3.576 8.425 1.651 2056
-3.578 8.429 1.625 1356
-3.592 8.462 1.603 607
-3.594 8.466 1.577 438
-3.696 8.707 1.590 329
-3.588 8.452 1.520 298
-2.624 6.181 0.988 272
-0.858 2.029 1.722 4244
-0.859 2.033 1.716 8489
-0.861 2.038 1.709 8489
-0.865 2.048 1.708 6326
-0.887 2.099 1.738 6038
-0.892 2.110 1.737 7347
-0.898 2.126 1.739 9351
-0.900 2.130 1.733 9351
-0.907 2.146 1.735 7929
-0.911 2.156 1.733 6954
-0.913 2.161 1.726 5276
-0.946 2.237 1.773 4851
-0.940 2.223 1.753 6684
-0.942 2.228 1.746 8629
-0.946 2.238 1.744 7302
-0.950 2.248 1.741 6127
-0.952 2.253 1.734 6102
-0.957 2.263 1.732 4612
-0.974 2.304 1.751 4512
-0.976 2.308 1.744 6115
-0.980 2.319 1.741 7747
-0.982 2.323 1.733 6820
-0.997 2.358 1.748 6861
-0.985 2.332 1.719 6545
-0.987 2.336 1.712 7199
-0.989 2.340 1.705 5913
-0.993 2.350 1.701 4632
-1.027 2.429 1.744 4198
-1.028 2.433 1.737 4953
-1.033 2.444 1.733 5855
-1.037 2.454 1.730 6882
-1.042 2.465 1.726 6948
-1.049 2.481 1.727 7748
-1.051 2.486 1.719 7279
-1.052 2.490 1.711 6452
-1.054 2.494 1.704 5208
-1.067 2.524 1.712 4570
-1.071 2.534 1.708 5244
-1.070 2.532 1.696 4982
-1.072 2.536 1.688 4794
-1.076 2.547 1.684 5770
-1.081 2.557 1.680 6808
-1.083 2.561 1.672 6729
-1.087 2.572 1.668 5650
-1.091 2.582 1.664 4921
-1.134 2.682 1.713 5498
-1.135 2.686 1.705 7189
-1.140 2.697 1.700 7818
-1.152 2.727 1.707 6966
-1.162 2.750 1.710 6005
-1.161 2.748 1.697 5419
-1.193 2.823 1.730 4266
-1.195 2.827 1.721 4886
-1.197 2.832 1.712 4019
-1.234 2.920 1.750 4219
-1.239 2.931 1.745 4345
-1.221 2.890 1.711 3634
-1.218 2.881 1.694 4143
-1.217 2.879 1.682 4408
-1.213 2.870 1.666 3739
-1.253 2.965 1.706 5206
-1.261 2.983 1.704 7346
-1.271 3.006 1.705 7584
-1.272 3.011 1.696 7395
-1.277 3.021 1.690 7654
-1.282 3.032 1.684 8773
-1.283 3.036 1.674 6586
-1.310 3.100 1.695 4372
-1.317 3.117 1.692 5129
-1.344 3.181 1.712 6660
-1.349 3.192 1.706 7128
-1.351 3.196 1.696 7793
-1.344 3.180 1.676 7780
-1.343 3.178 1.663 5509
-1.393 3.295 1.707 3590
-1.363 3.226 1.662 4151
-1.365 3.230 1.652 5602
-1.395 3.301 1.673 7789
-1.402 3.318 1.669 6940
-1.410 3.336 1.665 7080
-1.414 3.347 1.658 8666
-1.419 3.357 1.650 9538
-1.424 3.368 1.643 8261
-1.431 3.386 1.639 5966
-1.438 3.403 1.634 4000
-1.494 3.535 1.680 3084
-1.525 3.607 1.699 4120
-1.524 3.605 1.684 4186
-1.531 3.622 1.679 3935
-1.547 3.660 1.682 4123
-1.583 3.746 1.705 4644
-1.608 3.805 1.716 3677
-1.650 3.904 1.744 3824
-1.638 3.874 1.718 3549
-1.639 3.879 1.706 5118
-1.647 3.896 1.699 4512
-1.663 3.935 1.701 2762
-1.668 3.946 1.691 3723
-1.667 3.943 1.676 5529
-1.668 3.947 1.664 6062
-1.670 3.951 1.651 4101
-1.730 4.093 1.692 6227
-1.732 4.097 1.679 6203
-1.771 4.191 1.700 5755
-1.776 4.202 1.689 6356
-1.778 4.206 1.676 5766
-1.779 4.210 1.663 5632
-1.790 4.235 1.657 4693
-1.812 4.287 1.661 4800
-1.814 4.292 1.648 2902
-1.883 4.455 1.691 3820
-1.891 4.473 1.681 3635
-1.904 4.505 1.677 3979
-1.900 4.495 1.658 2553
-1.934 4.576 1.670 2687
-1.971 4.664 1.684 3953
-1.979 4.682 1.674 5204
-1.983 4.693 1.661 3653
-1.962 4.641 1.628 2282
-2.093 4.953 1.712 2716
-2.095 4.957 1.697 3412
-2.100 4.968 1.683 3725
-2.113 5.000 1.677 4668
-2.118 5.011 1.663 4048
-2.120 5.015 1.647 2450
-2.231 5.280 1.710 4118
-2.230 5.277 1.691 5540
-2.235 5.288 1.676 6078
-2.237 5.292 1.660 5860
-2.238 5.296 1.643 4673
-2.243 5.307 1.629 3644
-2.412 5.707 1.723 1952
-2.473 5.852 1.744 2681
-2.481 5.871 1.729 3915
-2.474 5.854 1.705 5367
-2.476 5.858 1.687 6699
-2.481 5.869 1.670 6338
-2.488 5.887 1.655 5743
-2.487 5.884 1.635 6239
-2.492 5.895 1.618 4326
-2.580 6.105 1.651 2607
-2.579 6.102 1.630 2357
-2.719 6.434 1.690 2141
-2.775 6.566 1.701 1878
-2.795 6.613 1.690 2118
-2.800 6.624 1.671 2992
-2.804 6.635 1.652 2357
-2.999 7.096 1.735 2142
-3.001 7.101 1.712 2670
-3.003 7.105 1.690 2406
-3.002 7.102 1.666 2491
-3.003 7.106 1.644 2891
-3.008 7.117 1.623 2659
-3.434 8.124 1.807 1988
-3.278 7.756 1.706 2424
-3.443 8.147 1.759 3159
-3.445 8.151 1.733 4443
-3.447 8.156 1.708 4430
-3.449 8.160 1.682 4580
-3.457 8.178 1.659 4528
-3.461 8.189 1.634 3192
-3.566 8.438 1.653 1952
-3.565 8.435 1.625 1282
-3.576 8.460 1.602 619
-3.577 8.464 1.575 431
-3.683 8.713 1.590 389
-3.578 8.465 1.521 305
-2.607 6.168 1.065 264
-3.722 8.806 0.595 291
-3.722 8.807 0.567 292
-0.851 2.032 1.722 4134
-0.853 2.036 1.716 8268
-0.855 2.040 1.709 8268
-0.857 2.044 1.703 6153
-0.881 2.102 1.738 6283
-0.885 2.112 1.737 7481
-0.892 2.128 1.739 9312
-0.894 2.133 1.733 9312
-0.900 2.149 1.735 8000
-0.905 2.159 1.733 7112
-0.907 2.164 1.726 5330
-0.939 2.240 1.773 4386
-0.930 2.220 1.749 6042
-0.935 2.231 1.746 7734
-0.936 2.235 1.739 6508
-0.941 2.245 1.737 5381
-0.943 2.250 1.730 5377
-0.960 2.290 1.749 4455
-0.967 2.307 1.751 4665
-0.968 2.311 1.744 6335
-0.973 2.322 1.741 8013
-0.975 2.326 1.733 7090
-0.989 2.361 1.748 7119
-0.978 2.335 1.719 6780
-0.977 2.333 1.708 7417
-0.982 2.343 1.705 5839
-0.983 2.347 1.697 4287
-1.022 2.438 1.748 3917
-1.023 2.443 1.741 4688
-1.025 2.447 1.733 5867
-1.030 2.457 1.730 7053
-1.034 2.468 1.726 6993
-1.041 2.485 1.727 7642
-1.043 2.489 1.719 7175
-1.045 2.493 1.711 6387
-1.044 2.491 1.700 5488
-1.059 2.527 1.712 4512
-1.063 2.537 1.708 5055
-1.062 2.535 1.696 4824
-1.061 2.533 1.684 4753
-1.068 2.550 1.684 5665
-1.073 2.560 1.680 6724
-1.075 2.565 1.672 6567
-1.079 2.575 1.668 5555
-1.086 2.592 1.668 5051
-1.125 2.686 1.713 5554
-1.127 2.690 1.705 7131
-1.131 2.700 1.700 7753
-1.147 2.737 1.711 7350
-1.151 2.747 1.706 6471
-1.153 2.752 1.697 6121
-1.157 2.762 1.693 4472
-1.189 2.838 1.724 4907
-1.191 2.842 1.716 3922
-1.222 2.917 1.747 4257
-1.227 2.928 1.741 4348
-1.215 2.900 1.714 4076
-1.211 2.891 1.698 4592
-1.210 2.889 1.685 4714
-1.207 2.880 1.669 3574
-1.249 2.982 1.713 4820
-1.254 2.993 1.707 7488
-1.261 3.010 1.705 7548
-1.266 3.021 1.699 7418
-1.268 3.025 1.690 7793
-1.272 3.036 1.684 8698
-1.274 3.040 1.674 6358
-1.300 3.104 1.695 4106
-1.308 3.121 1.692 4947
-1.334 3.185 1.712 6799
-1.339 3.196 1.706 7338
-1.344 3.207 1.699 8023
-1.337 3.191 1.679 7183
-1.333 3.182 1.663 4721
-1.371 3.273 1.695 3791
-1.370 3.270 1.681 4239
-1.383 3.301 1.684 5545
-1.388 3.312 1.677 7407
-1.392 3.323 1.669 6760
-1.402 3.347 1.668 7481
-1.404 3.351 1.658 9194
-1.409 3.362 1.650 9842
-1.413 3.373 1.643 8324
-1.420 3.390 1.639 5643
-1.510 3.603 1.721 3813
-1.483 3.540 1.680 3217
-1.513 3.612 1.699 3646
-1.515 3.616 1.687 3782
-1.528 3.647 1.688 3732
-1.536 3.665 1.682 4061
-1.574 3.758 1.708 4498
-1.599 3.816 1.719 3808
-1.638 3.909 1.744 4303
-1.628 3.886 1.721 4398
-1.630 3.891 1.708 5781
-1.638 3.908 1.702 4600
-1.654 3.947 1.703 3286
-1.655 3.951 1.691 4430
-1.654 3.948 1.676 5449
-1.656 3.952 1.664 5238
-1.715 4.094 1.704 4313
-1.720 4.105 1.694 6674
-1.719 4.102 1.679 6298
-1.758 4.196 1.700 6080
-1.763 4.207 1.689 6630
-1.767 4.218 1.679 5959
-1.766 4.216 1.663 5330
-1.768 4.220 1.650 4092
-1.805 4.307 1.666 4503
-1.803 4.304 1.650 2915
-1.869 4.461 1.691 4026
-1.877 4.479 1.681 3677
-1.893 4.518 1.679 3932
-1.901 4.536 1.670 2574
-1.920 4.582 1.670 2708
-1.957 4.670 1.684 3938
-1.964 4.688 1.674 5197
-1.969 4.699 1.661 3769
-1.962 4.682 1.640 2109
-2.078 4.959 1.712 2459
-2.080 4.963 1.697 2927
-2.087 4.982 1.686 3981
-2.098 5.007 1.677 5768
-2.105 5.025 1.665 4528
-2.110 5.036 1.652 2438
-2.215 5.286 1.710 4536
-2.217 5.291 1.693 6123
-2.221 5.302 1.679 6041
-2.220 5.299 1.660 5957
-2.222 5.303 1.643 5500
-2.227 5.314 1.629 4168
-2.329 5.558 1.679 2205
-2.428 5.796 1.726 3280
-2.430 5.800 1.708 4159
-2.456 5.861 1.705 4965
-2.458 5.865 1.687 6276
-2.462 5.877 1.670 6019
-2.470 5.895 1.655 5325
-2.472 5.899 1.637 6011
-2.473 5.903 1.618 4526
-2.561 6.113 1.651 2397
-2.700 6.445 1.712 2453
-2.702 6.449 1.692 2319
-2.755 6.575 1.701 2192
-2.774 6.622 1.690 2046
-2.779 6.633 1.671 2822
-2.784 6.644 1.652 2293
-2.974 7.098 1.733 2530
-2.979 7.110 1.712 3076
-2.978 7.107 1.688 2875
-2.979 7.111 1.666 3071
-2.981 7.115 1.644 3410
-2.983 7.119 1.621 3101
-2.987 7.130 1.600 2188
-3.257 7.773 1.707 2041
-3.418 8.158 1.759 2830
-3.420 8.162 1.733 3865
-3.419 8.159 1.706 3825
-3.423 8.170 1.682 3818
-3.431 8.189 1.659 3950
-3.436 8.200 1.634 3004
-3.540 8.449 1.653 1737
-3.542 8.453 1.626 1079
-3.426 8.176 1.551 688
-3.442 8.216 1.531 482
-3.652 8.717 1.589 392
-2.589 6.180 1.145 351
-2.587 6.175 1.124 327
-2.592 6.185 1.106 259
-2.589 6.178 1.045 250
-3.660 8.736 0.618 250
-3.661 8.737 0.591 292
-3.661 8.738 0.563 297
-0.843 2.028 1.717 3881
-0.845 2.032 1.711 7763
-0.847 2.037 1.705 7763
-0.849 2.041 1.699 5877
-0.875 2.104 1.738 6576
-0.879 2.115 1.737 7639
-0.886 2.131 1.739 9198
-0.888 2.135 1.733 9198
-0.895 2.151 1.735 7953
-0.899 2.162 1.733 7119
-0.901 2.166 1.726 5355
-0.920 2.212 1.751 3994
-0.924 2.223 1.749 5474
-0.926 2.227 1.742 6971
-0.928 2.231 1.735 5774
-0.935 2.248 1.737 4706
-0.934 2.246 1.725 4691
-0.954 2.293 1.749 4379
-0.961 2.309 1.751 4900
-0.962 2.314 1.744 6620
-0.967 2.324 1.741 8339
-0.968 2.329 1.733 7378
-0.983 2.364 1.748 7371
-0.972 2.337 1.719 6967
-0.971 2.335 1.708 7559
-0.976 2.346 1.705 5779
-0.980 2.356 1.701 4045
-1.015 2.441 1.748 3670
-1.017 2.445 1.741 4464
-1.019 2.450 1.733 5852
-1.021 2.454 1.726 7240
-1.025 2.464 1.722 7020
-1.035 2.487 1.727 7473
-1.034 2.485 1.715 7031
-1.035 2.490 1.707 6342
-1.037 2.494 1.700 5688
-1.052 2.530 1.712 4489
-1.056 2.540 1.708 4876
-1.058 2.544 1.700 4701
-1.055 2.536 1.684 4785
-1.064 2.559 1.688 5612
-1.069 2.570 1.684 6702
-1.070 2.574 1.676 6324
-1.075 2.584 1.672 5326
-1.079 2.595 1.668 5178
-1.118 2.689 1.713 5422
-1.120 2.693 1.705 6888
-1.124 2.703 1.700 7485
-1.139 2.740 1.711 7517
-1.144 2.750 1.706 6762
-1.146 2.755 1.697 6622
-1.150 2.765 1.693 5264
-1.181 2.841 1.724 4821
-1.189 2.858 1.723 3867
-1.215 2.921 1.747 4292
-1.219 2.931 1.741 4345
-1.207 2.903 1.714 4540
-1.206 2.901 1.702 5043
-1.206 2.899 1.689 4881
-1.205 2.896 1.677 3517
-1.244 2.992 1.717 5004
-1.249 3.003 1.711 7533
-1.253 3.014 1.705 7287
-1.258 3.024 1.699 7338
-1.260 3.029 1.690 7816
-1.264 3.039 1.684 8364
-1.266 3.044 1.674 5982
-1.292 3.107 1.695 3563
-1.322 3.178 1.719 4658
-1.323 3.182 1.709 6872
-1.331 3.199 1.706 7362
-1.335 3.210 1.699 8044
-1.331 3.201 1.682 6686
-1.327 3.192 1.666 4039
-1.360 3.269 1.691 4244
-1.361 3.274 1.681 4934
-1.372 3.298 1.680 5712
-1.379 3.315 1.677 6941
-1.386 3.333 1.672 6507
-1.393 3.351 1.668 7630
-1.395 3.355 1.658 9402
-1.400 3.365 1.650 10000
-1.404 3.376 1.643 8342
-1.409 3.387 1.636 5324
-1.500 3.607 1.721 3922
-1.474 3.544 1.680 3210
-1.552 3.731 1.749 3269
-1.508 3.627 1.690 3363
-1.519 3.651 1.688 3635
-1.529 3.676 1.685 4064
-1.567 3.769 1.711 4431
-1.589 3.821 1.719 4038
-1.630 3.920 1.747 4675
-1.618 3.891 1.721 5212
-1.620 3.895 1.708 6452
-1.636 3.933 1.710 5503
-1.643 3.951 1.703 4607
-1.645 3.955 1.691 5240
-1.647 3.960 1.679 5527
-1.646 3.957 1.664 4560
-1.705 4.099 1.704 4872
-1.709 4.110 1.694 7160
-1.711 4.114 1.681 6249
-1.747 4.201 1.700 5818
-1.752 4.212 1.689 6250
-1.756 4.223 1.679 5795
-1.755 4.220 1.663 4998
-1.806 4.342 1.692 4003
-1.793 4.312 1.666 4360
-1.792 4.309 1.650 3032
-1.857 4.466 1.691 4066
-1.862 4.477 1.679 3707
-1.881 4.523 1.679 3838
-1.889 4.541 1.670 2560
-1.908 4.587 1.670 2613
-1.944 4.675 1.684 4000
-1.952 4.693 1.674 5076
-1.959 4.711 1.663 3780
-1.961 4.715 1.649 2087
-2.027 4.874 1.683 2231
-2.064 4.962 1.695 2288
-2.080 5.001 1.690 4061
-2.085 5.012 1.677 6469
-2.092 5.030 1.665 4759
-2.100 5.049 1.654 2521
-2.201 5.292 1.710 4895
-2.203 5.296 1.693 6403
-2.207 5.308 1.679 5824
-2.206 5.305 1.660 5684
-2.249 5.408 1.672 5923
-2.215 5.327 1.631 4223
-2.314 5.565 1.679 2483
-2.410 5.795 1.724 4053
-2.412 5.800 1.706 5430
-2.411 5.797 1.686 5119
-2.442 5.872 1.687 5394
-2.447 5.883 1.670 5223
-2.457 5.909 1.657 4617
-2.459 5.913 1.639 5466
-2.461 5.917 1.620 4591
-2.471 5.942 1.607 2476
-2.683 6.452 1.712 2783
-2.685 6.456 1.692 2365
-2.737 6.582 1.701 2482
-2.754 6.622 1.689 1876
-2.762 6.640 1.671 2444
-2.766 6.651 1.652 2115
-2.955 7.106 1.733 2758
-2.957 7.110 1.711 3352
-2.959 7.115 1.688 3342
-2.961 7.119 1.666 3594
-2.962 7.123 1.644 3777
-2.964 7.127 1.621 3408
-2.969 7.138 1.600 2480
-3.350 8.054 1.763 2234
-3.393 8.159 1.758 2561
-3.395 8.164 1.732 3372
-3.397 8.168 1.706 3302
-3.402 8.179 1.682 2898
-3.413 8.205 1.660 3423
-3.408 8.195 1.632 3009
-3.401 8.177 1.602 1701
-3.399 8.174 1.575 1072
-3.404 8.185 1.551 847
-3.421 8.225 1.531 461
-3.627 8.720 1.587 384
-2.573 6.187 1.145 317
-2.571 6.182 1.124 296
-2.575 6.192 1.106 277
-2.576 6.195 1.086 275
-0.840 2.030 1.717 3551
-0.842 2.034 1.711 7103
-0.843 2.038 1.705 7103
-0.872 2.107 1.750 6338
-0.874 2.112 1.743 7176
-0.878 2.122 1.741 8038
-0.882 2.132 1.739 9235
-0.884 2.137 1.733 9235
-0.888 2.147 1.731 8010
-0.895 2.163 1.733 7192
-0.897 2.168 1.726 5436
-0.916 2.214 1.751 3730
-0.918 2.218 1.744 5070
-0.920 2.223 1.737 6409
-0.922 2.227 1.730 5289
-0.928 2.243 1.732 4194
-0.928 2.242 1.721 4188
-0.950 2.295 1.749 4377
-0.954 2.305 1.746 5272
-0.958 2.316 1.744 6969
-0.963 2.326 1.741 8721
-0.964 2.330 1.733 7684
-0.979 2.365 1.748 7686
-0.968 2.339 1.719 7110
-0.967 2.337 1.708 7625
-0.971 2.347 1.705 5711
-0.976 2.358 1.701 3859
-1.008 2.436 1.744 3442
-1.013 2.447 1.741 4255
-1.014 2.451 1.733 5854
-1.016 2.456 1.726 7454
-1.021 2.466 1.722 7080
-1.030 2.489 1.727 7376
-1.029 2.487 1.715 6906
-1.028 2.485 1.703 6304
-1.030 2.489 1.696 5968
-1.042 2.519 1.704 4610
-1.052 2.542 1.708 4678
-1.051 2.540 1.696 4527
-1.050 2.538 1.684 4712
-1.062 2.567 1.692 5476
-1.064 2.571 1.684 6636
-1.066 2.576 1.676 5968
-1.073 2.593 1.676 5109
-1.075 2.597 1.668 5259
-1.113 2.690 1.713 5245
-1.115 2.695 1.705 6626
-1.120 2.705 1.700 7288
-1.135 2.742 1.711 7732
-1.139 2.752 1.706 7054
-1.141 2.757 1.697 7040
-1.145 2.767 1.693 5893
-1.152 2.784 1.691 4821
-1.197 2.892 1.741 4309
-1.201 2.903 1.736 4454
-1.214 2.934 1.741 4352
-1.205 2.912 1.718 5048
-1.204 2.910 1.705 5471
-1.200 2.901 1.689 4981
-1.202 2.905 1.680 3606
-1.239 2.994 1.717 5705
-1.244 3.005 1.711 7754
-1.248 3.016 1.705 7108
-1.253 3.027 1.699 7280
-1.257 3.037 1.693 7804
-1.259 3.042 1.684 7922
-1.260 3.046 1.674 5513
-1.284 3.103 1.692 3443
-1.316 3.180 1.719 4642
-1.318 3.184 1.709 6675
-1.325 3.202 1.706 7174
-1.329 3.213 1.699 7899
-1.328 3.210 1.686 6186
-1.352 3.268 1.702 4142
-1.357 3.279 1.695 5054
-1.359 3.283 1.684 5894
-1.366 3.300 1.680 6086
-1.376 3.325 1.680 6585
-1.380 3.335 1.672 6332
-1.390 3.360 1.671 7845
-1.392 3.364 1.661 9436
-1.394 3.368 1.650 9728
-1.398 3.379 1.643 7931
-1.492 3.606 1.732 4757
-1.494 3.610 1.721 3905
-1.468 3.547 1.680 3234
-1.548 3.741 1.752 3335
-1.505 3.636 1.693 2934
-1.512 3.654 1.688 3366
-1.522 3.679 1.685 3735
-1.561 3.771 1.711 4319
-1.585 3.830 1.722 4440
-1.624 3.923 1.747 5030
-1.611 3.893 1.721 5858
-1.613 3.898 1.708 6923
-1.632 3.943 1.713 6880
-1.636 3.954 1.703 5928
-1.638 3.958 1.691 6002
-1.640 3.962 1.679 5813
-1.676 4.049 1.698 4604
-1.697 4.102 1.704 5609
-1.702 4.113 1.694 7815
-1.704 4.117 1.681 6345
-1.740 4.204 1.700 5248
-1.741 4.208 1.687 5535
-1.746 4.219 1.676 5331
-1.751 4.230 1.665 4448
-1.795 4.338 1.690 4506
-1.789 4.322 1.669 4347
-1.784 4.312 1.650 3135
-1.850 4.469 1.691 3941
-1.854 4.480 1.679 3479
-1.873 4.526 1.679 3498
-1.881 4.544 1.670 2400
-1.900 4.590 1.670 2516
-1.936 4.678 1.684 4056
-1.944 4.696 1.674 4639
-1.951 4.715 1.663 3529
-2.014 4.866 1.696 2229
-2.018 4.877 1.683 2333
-2.023 4.888 1.670 1863
-2.074 5.012 1.692 4249
-2.076 5.016 1.677 6887
-2.083 5.034 1.665 4815
-2.091 5.052 1.654 2643
-2.192 5.296 1.710 4824
-2.196 5.307 1.695 6134
-2.204 5.326 1.683 5546
-2.200 5.316 1.662 5473
-2.240 5.412 1.672 6412
-2.244 5.423 1.657 4409
-2.305 5.569 1.679 2771
-2.400 5.800 1.724 4970
-2.402 5.804 1.706 6840
-2.398 5.794 1.684 6884
-2.399 5.798 1.666 5171
-2.448 5.916 1.677 4312
-2.450 5.920 1.659 3894
-2.452 5.924 1.640 5027
-2.456 5.935 1.624 4800
-2.464 5.953 1.609 3008
-2.672 6.457 1.712 3063
-2.674 6.461 1.692 2371
-2.726 6.587 1.701 2551
-2.728 6.591 1.680 1780
-2.750 6.645 1.671 1886
-2.938 7.100 1.754 2069
-2.943 7.111 1.733 2914
-2.945 7.116 1.711 3497
-2.947 7.120 1.688 3544
-2.948 7.124 1.666 3820
-2.950 7.128 1.644 3874
-2.952 7.132 1.621 3477
-2.956 7.143 1.600 2583
-3.339 8.068 1.764 2707
-3.358 8.115 1.748 2488
-3.381 8.170 1.732 2876
-3.380 8.167 1.705 2687
-3.381 8.171 1.679 2161
-3.392 8.197 1.658 2709
-3.388 8.186 1.629 2888
-3.378 8.161 1.598 2073
-3.382 8.173 1.574 1347
-3.387 8.184 1.549 1061
-3.391 8.195 1.525 430
-3.417 8.256 1.509 450
-3.412 8.245 1.481 402
-3.417 8.256 1.456 345
-3.421 8.267 1.431 325
-3.420 8.263 1.404 257
-0.863 2.103 1.774 3217
-0.865 2.107 1.767 6435
-0.866 2.112 1.761 6435
-0.868 2.116 1.754 7146
-0.868 2.114 1.743 7940
-0.872 2.125 1.741 8538
-0.876 2.135 1.739 9372
-0.878 2.139 1.733 9372
-0.882 2.150 1.731 8236
-0.886 2.160 1.728 7445
-0.888 2.164 1.722 5589
-0.880 2.144 1.697 3952
-0.911 2.221 1.744 4684
-0.911 2.219 1.733 5962
-0.910 2.218 1.722 5014
-0.912 2.222 1.715 4118
-0.913 2.226 1.708 4087
-0.945 2.304 1.753 4385
-0.947 2.308 1.746 5685
-0.951 2.318 1.744 7315
-0.956 2.329 1.741 9058
-0.957 2.333 1.733 7938
-0.972 2.368 1.748 7923
-0.961 2.342 1.719 7188
-0.960 2.340 1.708 7600
-0.964 2.350 1.705 5645
-0.969 2.361 1.701 3744
-1.001 2.440 1.744 3305
-1.003 2.444 1.737 4125
-1.007 2.454 1.733 5904
-1.009 2.459 1.726 7705
-1.013 2.469 1.722 7177
-1.023 2.492 1.727 7366
-1.022 2.490 1.715 6769
-1.021 2.488 1.703 6167
-1.023 2.492 1.696 6137
-1.032 2.516 1.700 5008
-1.047 2.551 1.712 4608
-1.041 2.537 1.692 4534
-1.069 2.604 1.724 4655
-1.060 2.583 1.700 5497
-1.062 2.587 1.692 6554
-1.066 2.598 1.688 5650
-1.068 2.602 1.680 5089
-1.069 2.606 1.672 5394
-1.105 2.694 1.713 4828
-1.107 2.698 1.705 6037
-1.111 2.709 1.700 6760
-1.126 2.745 1.711 7810
-1.131 2.756 1.706 7267
-1.132 2.760 1.697 7294
-1.137 2.771 1.693 6205
-1.144 2.788 1.691 5151
-1.188 2.896 1.741 4697
-1.193 2.907 1.736 4828
-1.205 2.937 1.741 4363
-1.194 2.909 1.714 5576
-1.198 2.920 1.709 5806
-1.205 2.937 1.707 4856
-1.212 2.954 1.705 4654
-1.230 2.998 1.717 6498
-1.235 3.009 1.711 7986
-1.242 3.026 1.708 7023
-1.246 3.037 1.702 7369
-1.248 3.041 1.693 7704
-1.252 3.052 1.687 7314
-1.254 3.056 1.678 4989
-1.275 3.107 1.692 3114
-1.306 3.184 1.719 4710
-1.308 3.188 1.709 6415
-1.315 3.206 1.706 6786
-1.320 3.217 1.699 7304
-1.322 3.221 1.689 5440
-1.345 3.278 1.705 4796
-1.347 3.283 1.695 6128
-1.349 3.287 1.684 7037
-1.353 3.298 1.677 6540
-1.366 3.329 1.680 6367
-1.370 3.340 1.672 6217
-1.380 3.364 1.671 7932
-1.382 3.368 1.661 9156
-1.386 3.379 1.654 9198
-1.388 3.383 1.643 7243
-1.481 3.610 1.732 4586
-1.483 3.615 1.721 3718
-1.457 3.551 1.680 3377
-1.537 3.745 1.752 3194
-1.533 3.736 1.734 2634
-1.498 3.652 1.685 3003
-1.559 3.799 1.734 3133
-1.552 3.783 1.714 4118
-1.574 3.835 1.722 5132
-1.612 3.928 1.747 5223
-1.597 3.891 1.718 6304
-1.612 3.930 1.720 7315
-1.620 3.948 1.713 7948
-1.624 3.959 1.703 6831
-1.626 3.963 1.691 6518
-1.628 3.967 1.679 6106
-1.663 4.054 1.698 4926
-1.685 4.107 1.704 6257
-1.690 4.118 1.694 8333
-1.694 4.129 1.684 6474
-1.727 4.209 1.700 4629
-1.726 4.206 1.684 4761
-1.733 4.224 1.676 4860
-1.783 4.347 1.706 4164
-1.779 4.337 1.687 5067
-1.775 4.327 1.669 4256
-1.774 4.324 1.653 3184
-1.836 4.475 1.691 3557
-1.841 4.486 1.679 3190
-1.859 4.532 1.679 3108
-1.853 4.515 1.658 2241
-1.886 4.596 1.670 2344
-1.922 4.684 1.684 4102
-1.927 4.695 1.671 4166
-1.940 4.727 1.666 3275
-1.999 4.872 1.696 2394
-2.004 4.883 1.683 2572
-2.005 4.887 1.668 2072
-2.059 5.018 1.692 4359
-2.061 5.022 1.677 6909
-2.068 5.040 1.665 4493
-2.079 5.066 1.656 2576
-2.176 5.303 1.710 4458
-2.180 5.314 1.695 5641
-2.188 5.332 1.683 5672
-2.193 5.344 1.668 5657
-2.223 5.418 1.672 6233
-2.228 5.430 1.657 4518
-2.288 5.576 1.679 3014
-2.383 5.807 1.724 5772
-2.381 5.804 1.704 8116
-2.380 5.801 1.684 8567
-2.382 5.805 1.666 6443
-2.436 5.937 1.681 3789
-2.444 5.956 1.666 3602
-2.437 5.939 1.642 4961
-2.441 5.950 1.625 5195
-2.446 5.961 1.609 3498
-2.653 6.465 1.712 3209
-2.654 6.469 1.692 2270
-2.706 6.595 1.701 2525
-2.705 6.592 1.679 1808
-2.912 7.097 1.774 1340
-2.917 7.109 1.754 1883
-2.922 7.120 1.733 2814
-2.923 7.125 1.711 3335
-2.925 7.129 1.688 3498
-2.927 7.133 1.666 3822
-2.928 7.137 1.644 3712
-2.930 7.141 1.621 3267
-3.318 8.088 1.793 3055
-3.317 8.085 1.766 3172
-3.325 8.104 1.743 2568
-3.339 8.137 1.723 2439
-3.349 8.163 1.702 2364
-3.345 8.152 1.674 2322
-3.361 8.192 1.655 2656
-3.354 8.175 1.625 3134
-3.353 8.172 1.598 2527
-3.355 8.176 1.573 1738
-3.362 8.194 1.549 1393
-3.370 8.212 1.526 622
-3.386 8.252 1.506 579
-3.387 8.256 1.481 474
-3.392 8.266 1.456 395
-3.393 8.270 1.430 372
-3.404 8.295 1.407 286
-0.859 2.104 1.774 3778
-0.861 2.109 1.767 7557
-0.863 2.113 1.761 7557
-0.865 2.118 1.754 8305
-0.866 2.122 1.748 9052
-0.868 2.126 1.741 9274
-0.872 2.137 1.739 9721
-0.874 2.141 1.733 9721
-0.878 2.151 1.731 8668
-0.882 2.161 1.728 7862
-0.884 2.166 1.722 5923
-0.876 2.146 1.697 4314
-0.905 2.217 1.740 4407
-0.904 2.215 1.728 5661
-0.906 2.219 1.722 4880
-0.908 2.223 1.715 4100
-0.907 2.222 1.703 4078
-0.941 2.305 1.753 4573
-0.943 2.310 1.746 6269
-0.947 2.320 1.744 7828
-0.951 2.331 1.741 9561
-0.956 2.341 1.738 8358
-0.968 2.370 1.748 8264
-0.957 2.343 1.719 7326
-0.958 2.348 1.712 7580
-0.960 2.352 1.705 5628
-0.964 2.362 1.701 3714
-0.994 2.435 1.740 3267
-0.996 2.439 1.733 4161
-1.003 2.456 1.733 5997
-1.005 2.460 1.726 7965
-1.011 2.477 1.726 7349
-1.018 2.494 1.727 7552
-1.017 2.492 1.715 6739
-1.019 2.496 1.707 6006
-1.021 2.501 1.700 6213
-1.028 2.517 1.700 5385
-1.035 2.534 1.700 4655
-1.036 2.539 1.692 4661
-1.064 2.606 1.724 5426
-1.063 2.604 1.712 6070
-1.062 2.602 1.700 7085
-1.067 2.613 1.696 6257
-1.079 2.642 1.703 5799
-1.067 2.615 1.676 5751
-1.067 2.612 1.664 4619
-1.102 2.700 1.705 5072
-1.112 2.724 1.708 5991
-1.122 2.747 1.711 7715
-1.126 2.758 1.706 7346
-1.128 2.762 1.697 7354
-1.132 2.773 1.693 6231
-1.136 2.783 1.688 5178
-1.186 2.905 1.745 4950
-1.185 2.902 1.732 5314
-1.171 2.868 1.702 5129
-1.188 2.911 1.714 6213
-1.193 2.922 1.709 5981
-1.203 2.946 1.710 5115
-1.207 2.956 1.705 5829
-1.219 2.987 1.710 7443
-1.229 3.011 1.711 8153
-1.236 3.028 1.708 6976
-1.243 3.046 1.706 7521
-1.243 3.043 1.693 7489
-1.247 3.054 1.687 6621
-1.249 3.058 1.678 4416
-1.307 3.202 1.739 3494
-1.304 3.193 1.722 4766
-1.303 3.190 1.709 5854
-1.310 3.208 1.706 6259
-1.314 3.219 1.699 6486
-1.316 3.223 1.689 4655
-1.342 3.287 1.708 5647
-1.344 3.292 1.698 7410
-1.343 3.289 1.684 8151
-1.347 3.300 1.677 7038
-1.363 3.338 1.683 6106
-1.373 3.362 1.682 6182
-1.374 3.366 1.671 7945
-1.376 3.370 1.661 8831
-1.380 3.381 1.654 8790
-1.382 3.385 1.643 6653
-1.478 3.620 1.735 4354
-1.474 3.610 1.718 3421
-1.448 3.547 1.677 3599
-1.441 3.530 1.657 3265
-1.524 3.732 1.731 2380
-1.489 3.648 1.682 2650
-1.552 3.802 1.734 3029
-1.557 3.813 1.725 4109
-1.567 3.838 1.722 6119
-1.571 3.849 1.713 5984
-1.590 3.894 1.718 6582
-1.608 3.940 1.722 7263
-1.616 3.958 1.716 8285
-1.617 3.962 1.703 7019
-1.619 3.966 1.691 6508
-1.621 3.970 1.679 6318
-1.656 4.057 1.698 5396
-1.678 4.110 1.704 6759
-1.685 4.128 1.697 8763
-1.690 4.139 1.687 6728
-1.720 4.212 1.700 4178
-1.710 4.189 1.676 4392
-1.723 4.221 1.673 4670
-1.776 4.350 1.706 5005
-1.772 4.340 1.687 5628
-1.768 4.330 1.669 4400
-1.770 4.334 1.655 3443
-1.831 4.485 1.693 3160
-1.833 4.489 1.679 3000
-1.852 4.535 1.679 2730
-1.845 4.518 1.658 2419
-1.906 4.669 1.693 2424
-1.911 4.680 1.681 4084
-1.915 4.692 1.669 3715
-1.934 4.738 1.668 3106
-1.939 4.749 1.655 2441
-1.995 4.887 1.683 2721
-2.048 5.017 1.708 2576
-2.050 5.022 1.692 4535
-2.052 5.026 1.677 6680
-2.056 5.037 1.663 4252
-2.073 5.076 1.658 2855
-2.164 5.299 1.708 3811
-2.168 5.311 1.693 4828
-2.181 5.343 1.685 5264
-2.183 5.347 1.668 5248
-2.217 5.429 1.674 5307
-2.218 5.434 1.657 4146
-2.368 5.800 1.740 3437
-2.372 5.811 1.724 6272
-2.371 5.808 1.704 8732
-2.370 5.805 1.684 9619
-2.372 5.809 1.666 7490
-2.376 5.821 1.649 4047
-2.433 5.960 1.666 4245
-2.432 5.957 1.646 5390
-2.434 5.961 1.627 5501
-2.435 5.965 1.609 3783
-2.539 6.219 1.651 3049
-2.687 6.581 1.718 2033
-2.694 6.599 1.701 2267
-2.690 6.589 1.677 1684
-2.642 6.472 1.628 1328
-2.907 7.121 1.755 1476
-2.909 7.125 1.733 2442
-2.911 7.130 1.711 2872
-2.913 7.134 1.688 3160
-2.914 7.138 1.666 3547
-2.913 7.135 1.642 3277
-2.918 7.146 1.621 2789
-3.304 8.093 1.793 3654
-3.306 8.098 1.767 3620
-3.305 8.095 1.740 2681
-3.324 8.142 1.723 2245
-3.332 8.161 1.701 2558
-3.334 8.165 1.675 3164
-3.332 8.162 1.648 3282
-3.334 8.166 1.623 3423
-3.336 8.170 1.597 2918
-3.343 8.189 1.574 2176
-3.345 8.192 1.548 1671
-3.352 8.211 1.525 675
-3.377 8.272 1.509 610
-3.370 8.254 1.479 522
-3.368 8.251 1.452 457
-3.402 8.334 1.439 327
-3.401 8.330 1.412 385
-3.399 8.326 1.385 295
-0.850 2.101 1.769 4196
-0.852 2.106 1.763 8393
-0.854 2.110 1.756 8393
-0.858 2.120 1.754 9123
-0.860 2.125 1.748 9876
-0.861 2.129 1.741 9736
-0.866 2.139 1.739 9905
-0.867 2.144 1.733 9905
-0.871 2.154 1.731 8924
-0.876 2.164 1.728 8079
-0.877 2.169 1.722 6135
-0.872 2.155 1.702 4530
-0.886 2.189 1.717 4262
-0.895 2.212 1.724 5450
-0.897 2.216 1.717 4718
-0.901 2.226 1.715 3998
-0.900 2.224 1.703 3992
-0.934 2.308 1.753 4752
-0.936 2.313 1.746 6732
-0.940 2.323 1.744 8223
-0.944 2.334 1.741 9934
-0.948 2.344 1.738 8663
-0.958 2.367 1.743 8540
-0.952 2.353 1.723 7402
-0.951 2.351 1.712 7485
-0.953 2.355 1.705 5556
-0.957 2.365 1.701 3680
-0.984 2.432 1.736 3206
-0.988 2.442 1.733 4206
-0.995 2.459 1.733 6021
-0.999 2.470 1.730 8143
-1.004 2.480 1.726 7487
-1.010 2.497 1.727 7752
-1.012 2.502 1.719 6746
-1.011 2.500 1.707 5855
-1.013 2.504 1.700 6104
-1.022 2.527 1.704 5497
-1.024 2.531 1.696 4765
-1.054 2.605 1.732 4943
-1.056 2.610 1.724 5866
-1.058 2.614 1.716 6629
-1.054 2.605 1.700 7632
-1.061 2.622 1.700 7040
-1.068 2.639 1.699 6794
-1.062 2.624 1.679 6216
-1.061 2.622 1.668 4600
-1.094 2.703 1.705 4125
-1.111 2.746 1.719 5642
-1.116 2.757 1.715 7479
-1.117 2.761 1.706 7169
-1.119 2.766 1.697 7116
-1.123 2.776 1.693 5961
-1.128 2.787 1.688 4955
-1.177 2.908 1.745 4987
-1.163 2.874 1.714 5714
-1.162 2.871 1.702 6088
-1.179 2.915 1.714 6639
-1.181 2.919 1.705 5811
-1.193 2.949 1.710 4940
-1.198 2.960 1.705 6573
-1.207 2.984 1.706 8430
-1.214 3.002 1.704 8446
-1.227 3.032 1.708 7062
-1.234 3.050 1.706 7565
-1.236 3.054 1.696 6914
-1.237 3.058 1.687 5697
-1.242 3.069 1.681 3918
-1.297 3.206 1.739 3898
-1.293 3.197 1.722 4709
-1.292 3.195 1.709 5299
-1.300 3.212 1.706 5592
-1.304 3.223 1.699 5575
-1.314 3.247 1.699 4281
-1.332 3.292 1.708 6331
-1.336 3.303 1.701 8382
-1.335 3.300 1.688 8927
-1.334 3.298 1.674 7383
-1.352 3.342 1.683 5776
-1.362 3.366 1.682 6193
-1.364 3.371 1.671 7668
-1.368 3.381 1.664 8187
-1.370 3.386 1.654 8041
-1.371 3.390 1.643 5947
-1.466 3.624 1.735 4019
-1.490 3.683 1.748 3490
-1.495 3.694 1.740 4489
-1.430 3.535 1.657 3569
-1.506 3.723 1.726 2398
-1.544 3.816 1.752 2902
-1.540 3.807 1.734 3045
-1.545 3.818 1.725 4180
-1.557 3.850 1.725 6914
-1.562 3.861 1.716 6650
-1.575 3.892 1.715 6505
-1.596 3.945 1.722 6524
-1.603 3.963 1.716 7506
-1.605 3.967 1.703 6278
-1.607 3.971 1.691 5932
-1.606 3.968 1.676 6293
-1.644 4.062 1.698 5847
-1.665 4.115 1.704 6868
-1.672 4.133 1.697 8861
-1.677 4.144 1.687 7049
-1.676 4.141 1.671 4108
-1.697 4.194 1.676 4385
-1.707 4.219 1.671 5174
-1.759 4.348 1.703 5032
-1.755 4.339 1.685 5772
-1.757 4.343 1.671 4625
-1.762 4.354 1.660 4118
-1.758 4.344 1.642 3391
-1.819 4.495 1.679 2805
-1.826 4.513 1.670 2428
-1.828 4.517 1.656 2488
-1.889 4.668 1.691 2457
-1.896 4.686 1.681 4006
-1.898 4.691 1.667 3539
-1.922 4.751 1.670 2936
-1.927 4.762 1.658 2613
-1.977 4.886 1.681 2664
-2.033 5.024 1.708 2800
-2.034 5.028 1.692 4307
-2.036 5.032 1.677 6038
-2.038 5.036 1.661 3865
-2.117 5.231 1.703 3867
-2.130 5.264 1.695 3704
-2.146 5.303 1.689 4079
-2.165 5.350 1.685 4649
-2.163 5.347 1.666 4563
-2.159 5.337 1.645 4117
-2.195 5.426 1.653 3438
-2.349 5.807 1.740 3597
-2.354 5.818 1.724 6264
-2.353 5.816 1.704 8349
-2.352 5.813 1.684 9483
-2.356 5.824 1.668 7839
-2.361 5.835 1.651 4690
-2.412 5.961 1.664 4510
-2.361 5.836 1.613 5572
-2.415 5.969 1.627 5302
-2.417 5.973 1.609 3637
-2.522 6.234 1.653 2988
-2.417 5.973 1.569 1780
-2.674 6.608 1.701 1879
-2.661 6.576 1.672 1538
-2.723 6.731 1.686 1483
-2.719 6.721 1.662 1458
-2.887 7.134 1.733 1949
-2.888 7.139 1.711 2205
-2.887 7.136 1.687 2546
-2.892 7.147 1.666 3019
-2.890 7.144 1.642 2698
-2.892 7.148 1.620 2266
-3.276 8.097 1.791 3934
-3.278 8.101 1.766 3782
-3.276 8.098 1.739 2673
-3.261 8.059 1.705 2398
-3.309 8.179 1.702 2737
-3.308 8.176 1.675 3750
-3.307 8.173 1.648 3589
-3.308 8.177 1.623 3396
-3.310 8.181 1.597 3018
-3.314 8.192 1.573 2350
-3.319 8.203 1.548 1794
-3.323 8.214 1.524 744
-3.363 8.312 1.514 567
-3.356 8.294 1.484 811
-3.357 8.298 1.458 597
-3.362 8.308 1.433 350
-3.372 8.334 1.411 310
-0.847 2.103 1.769 4507
-0.849 2.107 1.763 9015
-0.850 2.111 1.756 9015
-0.855 2.122 1.754 9616
-0.856 2.126 1.748 10364
-0.858 2.130 1.741 9992
-0.865 2.147 1.744 10044
-0.866 2.151 1.737 10044
-0.868 2.155 1.731 9115
-0.872 2.166 1.728 8232
-0.874 2.170 1.722 6305
-0.868 2.156 1.702 4673
-0.882 2.191 1.717 4418
-0.889 2.207 1.719 5355
-0.893 2.217 1.717 4624
-0.897 2.228 1.715 3911
-0.896 2.226 1.703 3910
-0.930 2.310 1.753 4884
-0.932 2.314 1.746 7037
-0.936 2.324 1.744 8486
-0.940 2.335 1.741 10189
-0.947 2.352 1.742 8922
-0.954 2.368 1.743 8774
-0.953 2.366 1.732 7524
-0.947 2.352 1.712 7333
-0.949 2.356 1.705 5476
-0.953 2.367 1.701 3689
-0.968 2.402 1.715 3195
-0.984 2.444 1.733 4201
-0.991 2.461 1.733 6004
-0.995 2.471 1.730 8240
-1.002 2.488 1.730 7577
-1.006 2.499 1.727 7908
-1.008 2.503 1.719 6779
-1.007 2.501 1.707 5697
-1.012 2.512 1.704 5904
-1.036 2.573 1.732 5721
-1.041 2.584 1.728 4780
-1.050 2.607 1.732 5259
-1.052 2.611 1.724 6127
-1.053 2.616 1.716 7030
-1.053 2.613 1.704 8092
-1.059 2.630 1.703 7875
-1.064 2.641 1.699 7768
-1.063 2.639 1.687 6898
-1.059 2.630 1.671 4757
-1.100 2.731 1.720 3596
-1.107 2.748 1.719 5548
-1.111 2.759 1.715 7333
-1.113 2.763 1.706 7055
-1.115 2.767 1.697 6898
-1.116 2.772 1.689 5681
-1.123 2.789 1.688 4704
-1.172 2.910 1.745 4876
-1.158 2.875 1.714 6305
-1.160 2.880 1.705 6901
-1.172 2.910 1.711 6956
-1.174 2.914 1.702 5653
-1.189 2.951 1.710 4556
-1.193 2.962 1.705 7086
-1.200 2.980 1.703 9508
-1.202 2.984 1.693 9193
-1.225 3.041 1.712 7186
-1.226 3.045 1.702 7583
-1.231 3.056 1.696 6426
-1.235 3.067 1.690 5083
-1.239 3.077 1.684 3789
-1.292 3.208 1.739 4098
-1.291 3.206 1.725 4506
-1.290 3.203 1.712 4664
-1.295 3.214 1.706 4843
-1.302 3.232 1.702 4626
-1.325 3.289 1.718 4515
-1.329 3.300 1.711 6996
-1.331 3.305 1.701 9270
-1.330 3.302 1.688 9458
-1.329 3.300 1.674 7543
-1.350 3.351 1.686 5458
-1.354 3.362 1.679 6010
-1.358 3.373 1.671 7138
-1.363 3.384 1.664 7493
-1.367 3.395 1.657 7319
-1.369 3.399 1.646 5336
-1.466 3.640 1.741 3637
-1.484 3.685 1.748 3914
-1.489 3.696 1.740 5222
-1.491 3.701 1.728 4496
-1.492 3.705 1.717 3023
-1.541 3.825 1.755 3246
-1.534 3.809 1.734 3171
-1.541 3.827 1.728 4390
-1.551 3.852 1.725 7490
-1.556 3.863 1.716 6979
-1.569 3.895 1.715 6359
-1.576 3.913 1.708 5648
-1.597 3.965 1.716 6119
-1.602 3.976 1.706 5168
-1.598 3.967 1.688 5236
-1.599 3.971 1.676 6306
-1.637 4.065 1.698 5903
-1.658 4.118 1.704 6827
-1.666 4.136 1.697 8686
-1.670 4.147 1.687 7055
-1.669 4.144 1.671 4327
-1.693 4.204 1.679 4894
-1.698 4.215 1.668 6271
-1.702 4.226 1.658 5133
-1.749 4.341 1.685 5571
-1.759 4.366 1.679 4788
-1.757 4.364 1.663 4886
-1.756 4.361 1.647 3946
-1.809 4.491 1.677 2661
-1.816 4.509 1.667 2452
-1.820 4.520 1.656 2500
-1.879 4.664 1.689 2514
-1.886 4.682 1.679 4049
-1.888 4.687 1.664 3712
-1.918 4.761 1.673 2812
-1.919 4.765 1.658 2820
-1.969 4.889 1.681 2491
-2.022 5.020 1.706 2775
-2.026 5.031 1.692 3888
-2.031 5.043 1.679 5217
-2.050 5.089 1.676 3815
-2.111 5.242 1.705 4789
-2.116 5.253 1.691 4198
-2.129 5.286 1.683 3731
-2.156 5.353 1.685 3840
-2.155 5.351 1.666 3793
-2.148 5.333 1.643 3161
-2.181 5.416 1.649 2918
-2.343 5.818 1.742 3443
-2.345 5.822 1.724 5862
-2.344 5.819 1.704 7249
-2.343 5.816 1.684 8338
-2.347 5.828 1.668 7507
-2.352 5.839 1.651 4954
-2.402 5.964 1.664 4383
-2.352 5.840 1.613 5309
-2.406 5.973 1.627 4790
-2.407 5.977 1.609 3222
-2.513 6.238 1.653 2839
-2.630 6.529 1.703 1677
-2.631 6.533 1.682 1650
-2.645 6.566 1.668 1471
-2.713 6.735 1.686 1644
-2.712 6.732 1.663 1550
-2.875 7.139 1.733 1471
-2.874 7.136 1.709 1553
-2.873 7.133 1.685 1860
-2.880 7.152 1.666 2356
-2.853 7.084 1.628 2111
-2.858 7.095 1.608 1845
-3.263 8.102 1.791 4091
-3.265 8.106 1.766 3828
-3.255 8.082 1.735 2835
-3.248 8.064 1.705 3108
-3.296 8.184 1.702 2946
-3.295 8.181 1.675 4019
-3.291 8.171 1.647 3655
-3.292 8.175 1.621 3112
-3.294 8.179 1.596 2880
-3.301 8.197 1.573 2457
-3.306 8.208 1.548 1864
-3.310 8.219 1.524 745
-3.353 8.325 1.515 867
-3.348 8.314 1.487 766
-3.347 8.310 1.459 464
-3.357 8.335 1.437 340
-3.350 8.317 1.407 322
-3.357 8.335 1.383 310
-3.367 8.360 1.361 329
-3.368 8.363 1.334 278
-0.839 2.105 1.769 4715
-0.841 2.110 1.763 9430
-0.843 2.114 1.756 9430
-0.845 2.119 1.750 9971
-0.849 2.129 1.748 10656
-0.853 2.139 1.746 10150
-0.857 2.150 1.744 10189
-0.859 2.154 1.737 10189
-0.860 2.158 1.731 9317
-0.865 2.169 1.728 8459
-0.864 2.167 1.717 6482
-0.861 2.159 1.702 4739
-0.875 2.194 1.717 4496
-0.881 2.210 1.719 5246
-0.885 2.220 1.717 4488
-0.887 2.225 1.710 3817
-0.889 2.229 1.703 3813
-0.924 2.319 1.758 5071
-0.926 2.323 1.751 7279
-0.930 2.334 1.748 8710
-0.935 2.344 1.745 10451
-0.939 2.355 1.742 9245
-0.945 2.372 1.743 9066
-0.945 2.370 1.732 7730
-0.939 2.356 1.712 7224
-0.943 2.366 1.709 5464
-0.945 2.370 1.701 3739
-0.959 2.406 1.715 3234
-0.973 2.441 1.728 4176
-0.982 2.464 1.733 6017
-0.987 2.475 1.730 8363
-0.993 2.492 1.730 7716
-0.998 2.502 1.727 7989
-0.999 2.507 1.719 6741
-1.001 2.511 1.711 5557
-1.020 2.560 1.732 6244
-1.027 2.577 1.732 5937
-1.031 2.587 1.728 4796
-1.043 2.617 1.736 5461
-1.042 2.615 1.724 6226
-1.044 2.619 1.716 7274
-1.043 2.617 1.704 8399
-1.050 2.634 1.703 8619
-1.054 2.645 1.699 8718
-1.056 2.649 1.691 7718
-1.055 2.647 1.679 5186
-1.095 2.748 1.728 3797
-1.100 2.759 1.723 5594
-1.101 2.763 1.715 7119
-1.106 2.774 1.710 6864
-1.105 2.771 1.697 6533
-1.106 2.776 1.689 5278
-1.111 2.786 1.684 4359
-1.164 2.921 1.749 4614
-1.148 2.879 1.714 6671
-1.152 2.890 1.709 7387
-1.162 2.914 1.711 6954
-1.163 2.918 1.702 5364
-1.178 2.956 1.710 4245
-1.183 2.966 1.705 7494
-1.187 2.977 1.699 10549
-1.189 2.981 1.690 10182
-1.190 2.986 1.681 7676
-1.216 3.049 1.702 7599
