0.732 3.331 1.765 8335
0.733 3.336 1.755 7607
0.732 3.334 1.742 6118
0.732 3.331 1.728 5830
0.734 3.343 1.722 5344
0.766 3.487 1.779 6108
0.770 3.506 1.775 6880
0.770 3.504 1.762 8058
0.765 3.480 1.738 8747
0.767 3.492 1.731 7308
0.773 3.518 1.731 6910
0.774 3.522 1.720 7513
0.778 3.541 1.716 6229
0.787 3.581 1.722 4242
0.814 3.706 1.765 3663
0.817 3.717 1.757 4586
0.791 3.601 1.693 3593
0.794 3.613 1.686 2812
0.835 3.802 1.755 3953
0.836 3.807 1.744 5436
0.837 3.811 1.732 5043
0.862 3.923 1.766 4609
0.850 3.871 1.731 4715
0.850 3.868 1.716 3811
0.890 4.052 1.779 4114
0.890 4.049 1.764 5671
0.889 4.047 1.749 5957
0.890 4.051 1.737 7367
0.891 4.056 1.725 8791
0.894 4.068 1.716 5936
0.901 4.101 1.715 4519
0.918 4.178 1.731 7300
0.917 4.175 1.716 9284
0.918 4.180 1.703 7749
0.926 4.213 1.702 8126
0.927 4.218 1.689 7542
0.926 4.215 1.674 6192
0.927 4.219 1.662 4883
0.963 4.384 1.707 3393
0.974 4.432 1.710 3147
0.999 4.546 1.736 3455
1.005 4.572 1.730 4042
1.006 4.577 1.717 4874
1.008 4.589 1.706 5337
1.012 4.608 1.697 4805
1.013 4.612 1.684 3430
1.013 4.609 1.668 3958
1.017 4.628 1.659 5322
1.019 4.640 1.648 5388
1.059 4.821 1.691 6067
1.060 4.826 1.677 6852
1.063 4.837 1.665 5332
1.111 5.056 1.719 3687
1.110 5.053 1.701 4865
1.121 5.102 1.700 5617
1.123 5.114 1.687 6588
1.126 5.126 1.674 6970
1.125 5.123 1.657 11020
1.126 5.127 1.642 13057
1.127 5.131 1.627 9942
1.128 5.135 1.611 7137
1.129 5.139 1.596 6381
1.148 5.226 1.604 6306
1.149 5.230 1.589 4348
1.233 5.615 1.679 4474
1.234 5.619 1.662 4213
1.232 5.608 1.641 3060
1.238 5.635 1.631 3430
1.347 6.133 1.744 2807
1.350 6.145 1.728 3765
1.358 6.180 1.718 3426
1.347 6.132 1.686 2506
1.394 6.347 1.721 2389
1.420 6.464 1.730 2698
1.421 6.468 1.710 2875
1.420 6.465 1.689 3685
1.420 6.462 1.668 3487
1.422 6.474 1.651 2333
1.488 6.772 1.700 2088
1.490 6.784 1.682 1721
1.558 7.091 1.730 1498
1.559 7.095 1.709 1559
1.628 7.410 1.756 2478
1.632 7.429 1.737 3057
1.688 7.684 1.768 2607
1.691 7.696 1.747 3979
1.690 7.693 1.723 4962
1.689 7.690 1.698 4976
1.689 7.686 1.674 5343
1.690 7.691 1.651 4226
1.692 7.703 1.630 2399
1.698 7.730 1.611 2410
1.869 8.510 1.735 1876
1.874 8.529 1.712 1717
1.848 8.412 1.665 1293
1.916 8.721 1.694 1292
1.917 8.725 1.668 1420
1.960 8.920 1.675 1333
1.964 8.940 1.651 1228
1.915 8.715 1.587 888
1.983 9.025 1.611 539
1.982 9.021 1.583 371
2.026 9.224 1.587 286
2.029 9.236 1.561 311
2.028 9.232 1.532 253
0.322 1.466 0.226 326
0.322 1.466 0.222 399
0.322 1.466 0.218 498
0.322 1.467 0.213 571
0.322 1.467 0.209 588
0.322 1.467 0.205 551
0.322 1.467 0.201 482
0.322 1.467 0.196 429
0.322 1.468 0.192 365
0.322 1.468 0.188 261
0.913 4.158 0.034 313
0.915 4.165 0.021 394
0.915 4.165 0.009 476
0.915 4.165 -0.003 543
0.913 4.157 -0.015 612
0.913 4.156 -0.027 635
0.913 4.156 -0.040 658
0.913 4.155 -0.052 621
0.914 4.162 -0.065 584
0.913 4.154 -0.076 516
0.912 4.153 -0.089 448
0.912 4.153 -0.101 369
0.912 4.152 -0.113 288
0.914 4.159 -0.126 290
0.502 2.263 1.807 3798
0.503 2.267 1.800 7597
0.504 2.272 1.793 7597
0.502 2.264 1.777 8792
0.503 2.269 1.771 10091
0.504 2.274 1.764 7700
0.520 2.341 1.803 7410
0.521 2.346 1.796 7410
0.522 2.351 1.790 8644
0.523 2.355 1.783 9879
0.522 2.354 1.771 9097
0.523 2.358 1.764 8571
0.523 2.357 1.753 7777
0.523 2.355 1.742 7070
0.524 2.359 1.735 5130
0.539 2.428 1.772 4482
0.538 2.426 1.761 4300
0.544 2.450 1.767 4107
0.545 2.455 1.759 4408
0.549 2.472 1.761 3708
0.557 2.509 1.775 3626
0.558 2.514 1.768 5248
0.562 2.532 1.769 7042
0.567 2.556 1.774 6646
0.574 2.587 1.784 6735
0.572 2.578 1.768 8116
0.573 2.583 1.760 9566
0.574 2.587 1.753 7760
0.574 2.585 1.741 6064
0.575 2.590 1.733 3795
0.593 2.674 1.775 3438
0.596 2.685 1.771 3629
0.606 2.729 1.788 4887
0.607 2.734 1.780 5147
0.609 2.745 1.776 5426
0.622 2.803 1.800 5379
0.623 2.808 1.792 7489
0.620 2.793 1.772 9635
0.622 2.804 1.767 11355
0.625 2.815 1.763 13169
0.626 2.820 1.755 11353
0.627 2.825 1.747 9537
0.629 2.836 1.742 7925
0.632 2.847 1.738 4280
0.666 3.000 1.814 3821
0.667 3.005 1.805 6518
0.666 3.003 1.792 8689
0.669 3.015 1.787 8248
0.670 3.019 1.778 8519
0.671 3.024 1.770 9127
0.672 3.029 1.761 7071
0.676 3.047 1.759 5173
0.676 3.045 1.747 5200
0.693 3.125 1.778 5191
0.696 3.136 1.772 4504
0.698 3.148 1.767 3441
0.709 3.194 1.779 6191
0.710 3.198 1.770 8701
0.712 3.210 1.764 10125
0.718 3.235 1.765 9580
0.725 3.267 1.769 11092
0.726 3.272 1.760 11680
0.729 3.284 1.754 9025
0.740 3.337 1.768 10076
0.741 3.342 1.758 9451
0.743 3.346 1.748 7581
0.739 3.330 1.728 7057
0.741 3.341 1.722 6422
0.775 3.493 1.782 6524
0.776 3.498 1.772 7388
0.774 3.488 1.755 8589
0.772 3.479 1.738 9814
0.774 3.490 1.731 8665
0.780 3.516 1.731 8479
0.781 3.520 1.720 8967
0.785 3.539 1.716 7343
0.794 3.579 1.722 4578
0.798 3.598 1.718 3748
0.826 3.723 1.760 4298
0.799 3.599 1.693 3805
0.801 3.611 1.686 3264
0.843 3.801 1.755 3811
0.844 3.805 1.744 4994
0.845 3.810 1.732 4840
0.837 3.771 1.703 4704
0.860 3.876 1.734 5176
0.858 3.866 1.716 3739
0.897 4.043 1.776 4206
0.898 4.048 1.764 6022
0.898 4.045 1.749 6578
0.899 4.050 1.737 8279
0.900 4.054 1.725 9656
0.902 4.066 1.716 6920
0.906 4.085 1.709 5253
0.928 4.183 1.734 8208
0.926 4.173 1.716 9357
0.927 4.178 1.703 8031
0.936 4.218 1.705 9409
0.935 4.216 1.689 8576
0.936 4.220 1.677 7310
0.937 4.224 1.665 6376
0.945 4.258 1.663 4142
1.007 4.539 1.750 3626
1.007 4.537 1.733 4165
1.011 4.556 1.725 4682
1.014 4.568 1.714 5342
1.018 4.587 1.706 4693
1.022 4.606 1.697 4335
1.021 4.603 1.681 3178
1.060 4.776 1.724 3576
1.061 4.781 1.710 4786
1.065 4.800 1.701 4415
1.068 4.812 1.689 5173
1.069 4.816 1.675 5809
1.073 4.835 1.665 4178
1.079 4.862 1.658 3616
1.121 5.051 1.701 4546
1.133 5.107 1.702 5864
1.136 5.119 1.689 6936
1.138 5.131 1.677 7066
1.136 5.120 1.657 9882
1.137 5.124 1.642 11258
1.138 5.129 1.627 8125
1.139 5.133 1.611 6052
1.140 5.137 1.596 5775
1.159 5.223 1.604 4663
1.231 5.548 1.678 4426
1.244 5.604 1.676 4837
1.245 5.609 1.660 4514
1.244 5.606 1.641 3471
1.250 5.632 1.631 4092
1.252 5.644 1.616 3269
1.370 6.173 1.736 3514
1.371 6.177 1.718 3169
1.362 6.137 1.688 2220
1.408 6.344 1.721 2205
1.434 6.461 1.730 2145
1.435 6.465 1.710 2291
1.434 6.462 1.689 2837
1.435 6.467 1.670 2528
1.498 6.750 1.717 1855
1.504 6.777 1.702 2322
1.508 6.796 1.685 1763
1.514 6.823 1.670 1611
1.513 6.820 1.648 1852
1.643 7.406 1.756 2171
1.648 7.426 1.737 2911
1.654 7.453 1.720 2754
1.705 7.685 1.746 3823
1.708 7.697 1.724 4602
1.706 7.686 1.698 4829
1.707 7.690 1.676 5683
1.706 7.687 1.651 4940
1.708 7.699 1.630 2742
1.713 7.719 1.610 2041
1.887 8.506 1.735 2051
1.895 8.540 1.715 2018
1.861 8.385 1.660 1274
1.934 8.717 1.694 1317
1.935 8.721 1.668 1328
1.936 8.726 1.642 1218
1.983 8.936 1.651 1189
1.985 8.948 1.626 865
2.032 9.158 1.633 546
2.001 9.017 1.583 349
2.049 9.235 1.590 321
2.050 9.239 1.562 277
0.325 1.465 0.226 281
0.325 1.466 0.222 348
0.325 1.466 0.218 424
0.325 1.466 0.213 463
0.325 1.466 0.209 459
0.325 1.466 0.205 449
0.325 1.467 0.201 421
0.325 1.467 0.196 385
0.326 1.467 0.192 325
0.922 4.156 0.046 292
0.922 4.156 0.034 379
0.924 4.163 0.021 471
0.924 4.163 0.009 567
0.924 4.163 -0.003 648
0.922 4.155 -0.015 732
0.922 4.154 -0.027 764
0.922 4.154 -0.040 796
0.922 4.153 -0.052 752
0.923 4.160 -0.065 711
0.921 4.152 -0.076 630
0.921 4.151 -0.089 552
0.921 4.151 -0.101 452
0.921 4.150 -0.113 350
0.922 4.157 -0.126 352
0.922 4.156 -0.138 275
0.509 2.268 1.811 3734
0.510 2.272 1.805 7469
0.511 2.277 1.798 7469
0.509 2.269 1.782 8395
0.509 2.268 1.771 9646
0.510 2.272 1.764 7245
0.525 2.340 1.803 7346
0.526 2.345 1.796 7346
0.527 2.349 1.790 8508
0.528 2.354 1.783 9670
0.528 2.352 1.771 8858
0.529 2.357 1.764 8291
0.528 2.355 1.753 7655
0.528 2.354 1.742 7100
0.530 2.364 1.739 5175
0.544 2.427 1.772 4913
0.543 2.419 1.756 4857
0.548 2.442 1.762 4263
0.550 2.454 1.759 4389
0.553 2.465 1.757 4135
0.557 2.482 1.758 4198
0.564 2.513 1.768 5590
0.566 2.524 1.765 7528
0.574 2.561 1.779 7077
0.576 2.566 1.771 6962
0.577 2.570 1.764 8319
0.579 2.581 1.760 9753
0.579 2.580 1.748 7934
0.580 2.584 1.741 6191
0.579 2.582 1.729 3895
0.599 2.672 1.775 3427
0.600 2.677 1.767 3445
0.612 2.728 1.788 4466
0.613 2.733 1.780 4904
0.607 2.704 1.752 5441
0.630 2.808 1.804 5447
0.630 2.807 1.792 8010
0.628 2.798 1.776 10341
0.629 2.803 1.767 12182
0.631 2.814 1.763 14113
0.632 2.818 1.755 12353
0.633 2.823 1.747 10592
0.636 2.834 1.742 8461
0.637 2.839 1.734 4278
0.674 3.006 1.818 4453
0.674 3.004 1.805 7235
0.673 3.002 1.792 9390
0.676 3.013 1.787 8726
0.677 3.018 1.778 8510
0.678 3.022 1.770 8901
0.679 3.027 1.761 6916
0.683 3.045 1.759 4845
0.684 3.050 1.750 4744
0.701 3.123 1.778 4779
0.703 3.134 1.772 4044
0.686 3.057 1.720 3186
0.718 3.199 1.783 5063
0.719 3.203 1.773 7373
0.720 3.208 1.764 8648
0.727 3.240 1.768 8572
0.733 3.266 1.769 10791
0.734 3.270 1.760 11466
0.739 3.296 1.760 9296
0.748 3.335 1.768 12021
0.749 3.340 1.758 11494
0.750 3.344 1.748 9235
0.748 3.335 1.732 8263
0.751 3.347 1.725 7296
0.783 3.491 1.782 6710
0.783 3.489 1.769 7876
0.782 3.486 1.755 9302
0.780 3.477 1.738 10824
0.784 3.495 1.735 10096
0.788 3.514 1.731 9996
0.789 3.519 1.720 10240
0.793 3.537 1.716 8416
0.802 3.577 1.722 4855
0.807 3.596 1.718 4181
0.836 3.728 1.763 4066
0.805 3.590 1.690 4121
0.803 3.581 1.673 4009
0.799 3.564 1.654 3735
0.855 3.810 1.747 4639
0.857 3.822 1.738 5153
0.855 3.812 1.721 5389
0.871 3.881 1.737 5800
0.872 3.886 1.725 4099
0.906 4.041 1.776 4280
0.907 4.045 1.764 6325
0.907 4.043 1.749 6988
0.908 4.047 1.737 8630
0.911 4.059 1.728 9883
0.912 4.064 1.716 7384
0.916 4.083 1.709 5951
0.939 4.188 1.736 8686
0.939 4.186 1.721 9041
0.943 4.205 1.714 8341
0.946 4.216 1.705 10551
0.947 4.221 1.692 9496
0.946 4.218 1.677 8348
0.947 4.222 1.665 7623
0.953 4.248 1.660 4882
1.018 4.537 1.750 4171
1.017 4.534 1.733 4834
1.021 4.553 1.725 5678
1.024 4.565 1.714 6070
1.023 4.562 1.698 4435
1.024 4.567 1.685 3927
1.030 4.593 1.679 3140
1.071 4.774 1.724 3923
1.072 4.778 1.710 4997
1.074 4.790 1.698 4482
1.079 4.809 1.689 4449
1.080 4.814 1.675 4628
1.084 4.833 1.665 3319
1.088 4.852 1.656 3746
1.131 5.041 1.699 4117
1.145 5.104 1.702 5791
1.151 5.131 1.694 7032
1.152 5.135 1.679 7351
1.148 5.118 1.657 8402
1.149 5.122 1.642 8884
1.150 5.126 1.627 5911
1.152 5.138 1.614 4588
1.152 5.134 1.596 4654
1.243 5.541 1.695 4350
1.245 5.552 1.681 4521
1.256 5.602 1.676 5151
1.257 5.606 1.660 4952
1.258 5.610 1.643 3921
1.263 5.629 1.631 4478
1.265 5.641 1.616 3412
1.386 6.177 1.738 3288
1.385 6.174 1.718 2795
1.376 6.133 1.688 2005
1.370 6.108 1.662 1933
1.427 6.360 1.705 2019
1.431 6.379 1.690 1983
1.450 6.466 1.691 2052
1.500 6.689 1.724 2093
1.518 6.769 1.722 2229
1.519 6.773 1.702 2315
1.524 6.793 1.685 1587
1.528 6.812 1.668 1760
1.529 6.816 1.648 2137
1.660 7.402 1.756 1705
1.667 7.430 1.739 2700
1.671 7.449 1.720 2992
1.723 7.681 1.746 3559
1.726 7.693 1.724 4056
1.725 7.690 1.700 4634
1.724 7.687 1.676 5980
1.725 7.691 1.653 5381
1.726 7.695 1.630 2958
1.727 7.699 1.607 1839
1.909 8.509 1.736 2076
1.916 8.544 1.716 2250
1.873 8.350 1.655 1354
1.954 8.712 1.694 1265
1.955 8.717 1.668 1126
1.956 8.721 1.642 1073
1.949 8.687 1.610 1105
2.006 8.943 1.626 873
2.055 9.161 1.635 605
2.061 9.188 1.611 429
2.070 9.230 1.590 360
0.329 1.465 0.218 300
0.329 1.465 0.213 357
0.327 1.458 0.209 377
0.329 1.466 0.205 360
0.329 1.466 0.201 334
0.329 1.466 0.196 309
0.329 1.466 0.192 262
0.934 4.162 0.058 252
0.932 4.154 0.046 354
0.932 4.154 0.034 459
0.933 4.161 0.021 568
0.933 4.161 0.009 682
0.933 4.161 -0.003 771
0.931 4.152 -0.015 862
0.931 4.152 -0.027 900
0.931 4.152 -0.040 937
0.931 4.151 -0.052 887
0.933 4.158 -0.065 838
0.931 4.150 -0.076 750
0.931 4.149 -0.089 664
0.931 4.149 -0.101 549
0.930 4.148 -0.113 432
0.932 4.155 -0.126 435
0.932 4.154 -0.138 336
0.518 2.279 1.821 3637
0.520 2.283 1.814 7275
0.521 2.288 1.807 7275
0.517 2.274 1.787 7830
0.516 2.266 1.771 8874
0.518 2.277 1.769 6720
0.532 2.338 1.803 7092
0.533 2.343 1.796 7092
0.534 2.348 1.790 8197
0.535 2.352 1.783 9302
0.535 2.351 1.771 8413
0.536 2.355 1.764 7697
0.536 2.354 1.753 7223
0.535 2.352 1.742 6845
0.554 2.433 1.788 5087
0.552 2.425 1.772 5251
0.550 2.417 1.756 5277
0.552 2.428 1.753 4471
0.558 2.452 1.759 4278
0.560 2.463 1.757 4492
0.563 2.474 1.754 5016
0.588 2.582 1.815 6053
0.572 2.516 1.760 7587
0.581 2.553 1.774 6800
0.582 2.557 1.767 6656
0.584 2.569 1.764 7759
0.587 2.580 1.760 8955
0.587 2.578 1.748 7202
0.586 2.576 1.737 5496
0.587 2.580 1.729 3465
0.606 2.664 1.771 3914
0.609 2.675 1.767 3734
0.620 2.726 1.788 4131
0.612 2.691 1.756 4820
0.613 2.696 1.748 6038
0.614 2.700 1.740 5514
0.640 2.811 1.796 8218
0.636 2.796 1.776 10671
0.637 2.801 1.767 12565
0.640 2.812 1.763 14582
0.641 2.817 1.755 12905
0.642 2.821 1.747 11228
0.644 2.832 1.742 8675
0.645 2.837 1.734 4192
0.682 2.997 1.814 4798
0.683 3.002 1.805 7523
0.682 2.999 1.792 9577
0.685 3.011 1.787 8779
0.688 3.022 1.782 8268
0.687 3.020 1.770 8491
0.687 3.018 1.757 6713
0.691 3.036 1.755 4536
0.706 3.102 1.780 4494
0.710 3.121 1.778 4385
0.716 3.146 1.780 3843
0.695 3.055 1.720 3455
0.729 3.203 1.786 4418
0.728 3.201 1.773 5995
0.731 3.213 1.767 7070
0.738 3.245 1.772 7436
0.743 3.263 1.769 9879
0.744 3.268 1.760 10570
0.757 3.328 1.778 10268
0.758 3.333 1.768 13595
0.759 3.338 1.758 13032
0.760 3.342 1.748 10393
0.758 3.333 1.732 8976
0.761 3.344 1.725 7792
0.794 3.489 1.782 6494
0.793 3.486 1.769 8062
0.791 3.477 1.752 9594
0.791 3.474 1.738 11433
0.795 3.493 1.735 11413
0.799 3.512 1.731 11339
0.802 3.523 1.724 11262
0.804 3.535 1.716 9313
0.812 3.568 1.719 5239
0.816 3.586 1.714 4589
0.812 3.569 1.694 4862
0.812 3.567 1.681 5503
0.809 3.557 1.664 6152
0.810 3.561 1.654 6085
0.813 3.573 1.646 5129
0.872 3.834 1.745 5619
0.868 3.817 1.724 5866
0.884 3.886 1.740 6273
0.885 3.890 1.728 4750
0.919 4.038 1.776 4146
0.920 4.043 1.764 6349
0.921 4.047 1.752 7087
0.922 4.052 1.740 8349
0.923 4.056 1.728 9295
0.926 4.068 1.719 7051
0.928 4.080 1.709 5898
0.952 4.185 1.736 8513
0.953 4.190 1.724 8752
0.958 4.209 1.717 8683
0.959 4.213 1.705 10710
0.960 4.218 1.692 9406
0.961 4.222 1.680 8698
0.962 4.227 1.667 8443
0.964 4.238 1.657 5406
1.030 4.527 1.747 4284
1.031 4.531 1.733 4991
1.035 4.550 1.725 6281
1.038 4.562 1.714 6460
1.037 4.559 1.698 4493
1.038 4.564 1.685 4337
1.039 4.568 1.671 3200
1.087 4.778 1.727 4093
1.088 4.782 1.713 4886
1.089 4.787 1.698 4379
1.092 4.798 1.687 3812
1.093 4.803 1.672 3561
1.097 4.822 1.663 3008
1.101 4.841 1.653 4086
1.101 4.838 1.637 4096
1.162 5.108 1.705 5233
1.167 5.127 1.694 6929
1.169 5.139 1.681 7135
1.165 5.121 1.659 6698
1.166 5.126 1.644 6474
1.167 5.130 1.629 4105
1.168 5.134 1.614 3317
1.167 5.131 1.596 3322
1.261 5.544 1.697 4053
1.262 5.549 1.681 4297
1.272 5.590 1.674 5182
1.275 5.602 1.660 5072
1.276 5.606 1.643 3986
1.280 5.626 1.631 4377
1.283 5.637 1.616 3062
1.406 6.180 1.740 2886
1.407 6.185 1.721 2303
1.391 6.114 1.684 1829
1.387 6.096 1.660 1879
1.448 6.363 1.707 1924
1.452 6.382 1.692 1808
1.530 6.725 1.755 1806
1.521 6.684 1.724 2011
1.539 6.764 1.722 2509
1.542 6.776 1.704 2217
1.544 6.788 1.685 1336
1.549 6.807 1.668 1747
1.550 6.812 1.648 2235
1.644 7.224 1.718 1627
1.691 7.432 1.740 2688
1.694 7.444 1.720 3381
1.746 7.675 1.746 3140
1.749 7.687 1.724 3431
1.748 7.684 1.700 4250
1.748 7.681 1.676 5848
1.749 7.686 1.653 5397
1.750 7.690 1.630 2933
1.749 7.686 1.605 1700
1.847 8.116 1.663 2002
1.943 8.538 1.716 2343
1.899 8.345 1.655 1413
1.983 8.714 1.696 1171
2.022 8.886 1.699 991
1.973 8.669 1.634 1031
1.975 8.681 1.610 1065
2.084 9.158 1.663 918
2.085 9.162 1.636 661
2.091 9.189 1.612 534
2.093 9.201 1.586 390
0.333 1.464 0.213 263
0.331 1.457 0.209 283
0.333 1.465 0.205 252
0.946 4.159 0.058 266
0.945 4.151 0.046 379
0.944 4.151 0.034 493
0.946 4.158 0.021 612
0.946 4.158 0.009 737
0.946 4.158 -0.003 830
0.944 4.150 -0.015 924
0.944 4.149 -0.027 972
0.944 4.149 -0.040 1019
0.944 4.148 -0.052 980
0.945 4.155 -0.065 945
0.944 4.147 -0.076 842
0.943 4.146 -0.089 745
0.943 4.146 -0.101 621
0.943 4.145 -0.113 493
0.945 4.152 -0.126 497
0.944 4.151 -0.138 393
0.946 4.158 -0.151 292
0.524 2.277 1.821 3589
0.525 2.282 1.814 7178
0.526 2.287 1.807 7178
0.527 2.292 1.801 7573
0.522 2.271 1.775 8112
0.532 2.314 1.796 6773
0.536 2.331 1.799 6758
0.537 2.336 1.792 6758
0.540 2.347 1.790 7796
0.541 2.351 1.783 8874
0.540 2.350 1.771 7922
0.541 2.354 1.764 7037
0.541 2.352 1.753 6707
0.541 2.351 1.742 6486
0.558 2.426 1.784 5210
0.557 2.424 1.772 5562
0.557 2.422 1.761 5662
0.558 2.427 1.753 4708
0.562 2.444 1.755 4234
0.565 2.455 1.752 4787
0.569 2.473 1.754 5708
0.595 2.587 1.819 6601
0.595 2.586 1.807 7906
0.596 2.590 1.800 6762
0.588 2.556 1.767 6407
0.590 2.567 1.764 7072
0.593 2.578 1.760 7904
0.594 2.583 1.753 6335
0.596 2.594 1.749 4769
0.608 2.645 1.771 4075
0.612 2.662 1.771 4813
0.613 2.667 1.763 4264
0.625 2.718 1.784 3950
0.618 2.690 1.756 5092
0.620 2.694 1.748 6456
0.621 2.699 1.740 5808
0.646 2.810 1.796 8243
0.643 2.794 1.776 10636
0.645 2.806 1.771 12619
0.646 2.810 1.763 14664
0.647 2.815 1.755 13145
0.648 2.820 1.747 11626
0.651 2.831 1.742 8759
0.652 2.835 1.734 4227
0.689 2.995 1.814 4997
0.690 3.000 1.805 7539
0.689 2.998 1.792 9417
0.692 3.009 1.787 8563
0.695 3.021 1.782 7854
0.694 3.019 1.770 7875
0.694 3.017 1.757 6397
0.695 3.021 1.748 4330
0.713 3.101 1.780 4366
0.716 3.112 1.774 4127
0.731 3.179 1.798 4560
0.734 3.190 1.792 4503
0.735 3.195 1.783 4522
0.736 3.200 1.773 4845
0.738 3.211 1.767 5670
0.749 3.257 1.779 6228
0.750 3.262 1.769 8694
0.749 3.259 1.756 9595
0.766 3.333 1.781 11697
0.768 3.338 1.771 14898
0.769 3.343 1.762 14134
0.768 3.340 1.748 11105
0.769 3.345 1.738 9451
0.770 3.349 1.729 8067
0.802 3.487 1.782 5954
0.800 3.477 1.765 7830
0.799 3.475 1.752 9315
0.800 3.480 1.742 11452
0.804 3.498 1.738 12490
0.807 3.510 1.731 12148
0.810 3.521 1.724 11673
0.814 3.540 1.720 9771
0.820 3.566 1.719 5875
0.821 3.570 1.708 5479
0.819 3.560 1.691 6638
0.816 3.551 1.675 7960
0.817 3.555 1.664 9087
0.817 3.552 1.650 9000
0.819 3.564 1.643 7669
0.881 3.832 1.745 6072
0.877 3.815 1.724 6086
0.895 3.891 1.743 6403
0.896 3.895 1.731 5029
0.902 3.921 1.729 4044
0.929 4.041 1.764 6123
0.930 4.045 1.752 6924
0.931 4.050 1.740 7539
0.932 4.054 1.728 7955
0.933 4.059 1.716 6007
0.938 4.078 1.709 5256
0.964 4.190 1.739 7753
0.965 4.195 1.727 8337
0.967 4.207 1.717 8613
0.968 4.211 1.705 10395
0.969 4.216 1.692 9172
0.972 4.227 1.682 8829
0.971 4.224 1.667 8580
0.974 4.236 1.657 5335
1.040 4.524 1.747 4124
1.041 4.529 1.733 4654
1.046 4.548 1.725 6393
1.048 4.560 1.714 6454
1.049 4.564 1.701 4738
1.049 4.561 1.685 4838
1.050 4.566 1.671 3500
1.098 4.775 1.727 4185
1.099 4.780 1.713 4543
1.100 4.784 1.698 3958
1.104 4.803 1.689 3223
1.105 4.808 1.675 2763
1.110 4.827 1.665 2959
1.113 4.838 1.653 4337
1.112 4.835 1.637 4357
1.174 5.106 1.705 4369
1.178 5.125 1.694 6432
1.181 5.137 1.681 6520
1.179 5.126 1.661 4978
1.178 5.123 1.644 4410
1.244 5.409 1.711 3979
1.241 5.399 1.691 3090
1.241 5.396 1.673 3053
1.284 5.586 1.710 3612
1.275 5.546 1.681 3603
1.285 5.587 1.674 5017
1.287 5.599 1.660 4947
1.290 5.611 1.645 3762
1.295 5.630 1.633 4168
1.388 6.038 1.723 2650
1.420 6.177 1.740 2387
1.428 6.211 1.729 2039
1.433 6.231 1.714 1675
1.401 6.093 1.660 1672
1.464 6.367 1.709 1966
1.465 6.372 1.690 1701
1.546 6.721 1.755 1659
1.555 6.763 1.744 1980
1.556 6.768 1.724 2658
1.557 6.772 1.704 2062
1.602 6.965 1.727 1540
1.564 6.804 1.668 1607
1.565 6.808 1.648 2075
1.660 7.220 1.718 1523
1.710 7.436 1.742 2699
1.711 7.440 1.720 3622
1.708 7.430 1.695 2809
1.767 7.683 1.724 2950
1.766 7.680 1.700 3798
1.765 7.677 1.676 5360
1.766 7.682 1.653 4969
1.767 7.686 1.630 2653
1.869 8.130 1.691 1531
1.912 8.316 1.702 2239
1.912 8.313 1.675 2350
1.963 8.538 1.691 1462
2.043 8.884 1.727 1106
2.026 8.813 1.687 1120
2.031 8.832 1.664 1088
1.995 8.677 1.610 964
2.105 9.153 1.663 953
2.109 9.172 1.638 684
2.114 9.192 1.613 559
2.120 9.219 1.590 384
0.956 4.157 0.058 274
0.954 4.149 0.046 391
0.954 4.149 0.034 510
0.956 4.156 0.021 630
0.956 4.156 0.009 760
0.956 4.156 -0.003 868
0.954 4.147 -0.015 977
0.954 4.147 -0.027 1027
0.953 4.146 -0.040 1077
0.953 4.146 -0.052 1034
0.955 4.153 -0.065 996
0.953 4.145 -0.076 898
0.953 4.144 -0.089 806
0.953 4.143 -0.101 675
0.953 4.143 -0.113 538
0.954 4.150 -0.126 543
0.954 4.149 -0.138 428
0.956 4.156 -0.151 313
0.528 2.276 1.821 3486
0.529 2.281 1.814 6972
0.531 2.292 1.812 6999
0.531 2.291 1.801 7462
0.532 2.295 1.794 7952
0.536 2.313 1.796 6783
0.540 2.330 1.799 6326
0.541 2.335 1.792 6326
0.542 2.339 1.785 7322
0.543 2.344 1.778 8319
0.545 2.349 1.771 7270
0.547 2.360 1.769 6246
0.545 2.351 1.753 6041
0.545 2.350 1.742 5970
0.562 2.425 1.784 5384
0.562 2.423 1.772 5861
0.561 2.421 1.761 6034
0.562 2.426 1.753 4948
0.566 2.443 1.755 4238
0.569 2.454 1.752 4982
0.573 2.472 1.754 6142
0.600 2.586 1.819 6962
0.601 2.591 1.812 8388
0.602 2.596 1.804 6838
0.591 2.548 1.763 6349
0.593 2.560 1.759 6677
0.598 2.577 1.760 7231
0.599 2.582 1.753 5872
0.603 2.600 1.753 4644
0.613 2.644 1.771 4875
0.617 2.661 1.771 5667
0.618 2.666 1.763 4784
0.621 2.677 1.759 4010
0.622 2.682 1.752 5352
0.624 2.693 1.748 6767
0.625 2.698 1.740 6143
0.651 2.809 1.796 8016
0.649 2.800 1.780 10348
0.650 2.805 1.771 12373
0.651 2.809 1.763 14397
0.652 2.814 1.755 13015
0.653 2.818 1.747 11633
0.656 2.830 1.742 8611
0.657 2.834 1.734 4245
0.694 2.994 1.814 4869
0.695 2.999 1.805 7069
0.696 3.003 1.796 8675
0.697 3.008 1.787 7904
0.700 3.020 1.782 7148
0.700 3.017 1.770 7026
0.699 3.015 1.757 5955
0.699 3.013 1.744 4253
0.719 3.100 1.780 4160
0.736 3.173 1.807 4205
0.737 3.177 1.798 5309
0.738 3.182 1.788 5564
0.739 3.187 1.779 4726
0.743 3.205 1.777 3757
0.746 3.217 1.771 4177
0.768 3.311 1.807 5291
0.769 3.316 1.797 8663
0.771 3.327 1.791 9746
0.773 3.332 1.781 12844
0.774 3.337 1.771 15624
0.775 3.341 1.762 14567
0.776 3.346 1.752 11345
0.775 3.344 1.738 9541
0.778 3.355 1.732 8067
0.779 3.360 1.722 5333
0.806 3.476 1.765 7055
0.805 3.474 1.752 8346
0.806 3.478 1.742 10819
0.811 3.497 1.738 13082
0.813 3.508 1.731 12321
0.816 3.520 1.724 11375
0.820 3.539 1.720 9794
0.825 3.557 1.715 6558
0.826 3.562 1.705 6743
0.825 3.559 1.691 8565
0.823 3.549 1.675 10585
0.824 3.554 1.664 12038
0.825 3.558 1.654 11949
0.826 3.562 1.643 10277
0.829 3.574 1.636 7318
0.892 3.849 1.739 6052
0.902 3.889 1.743 6236
0.906 3.908 1.737 5160
0.909 3.920 1.729 4673
0.936 4.039 1.764 5589
0.937 4.043 1.752 6434
0.939 4.048 1.740 6293
0.940 4.053 1.728 6129
0.941 4.057 1.716 4624
0.947 4.083 1.712 4324
0.971 4.189 1.739 6609
0.974 4.200 1.730 7635
0.975 4.205 1.717 7988
0.976 4.209 1.705 9224
0.977 4.214 1.692 8287
0.980 4.225 1.682 8644
0.981 4.230 1.670 8441
0.982 4.234 1.657 5058
1.047 4.515 1.744 3638
1.051 4.534 1.736 3909
1.054 4.546 1.725 5919
1.057 4.558 1.714 5942
1.058 4.562 1.701 4782
1.057 4.559 1.685 5092
1.106 4.769 1.741 3790
1.107 4.773 1.727 4116
1.108 4.778 1.713 3961
1.105 4.768 1.694 3389
1.122 4.838 1.701 2962
1.119 4.828 1.682 2538
1.119 4.825 1.665 3058
1.120 4.829 1.651 4305
1.121 4.833 1.637 4301
1.122 4.838 1.622 3374
1.188 5.123 1.694 5640
1.190 5.134 1.681 5508
1.188 5.124 1.661 3442
1.187 5.121 1.644 2940
1.254 5.407 1.711 3592
1.249 5.389 1.689 3222
1.251 5.393 1.673 3400
1.296 5.591 1.712 3463
1.304 5.625 1.703 3695
1.297 5.592 1.676 4716
1.299 5.604 1.662 4782
1.306 5.631 1.651 4240
1.307 5.635 1.635 3941
1.399 6.035 1.723 2707
1.393 6.010 1.697 2628
1.441 6.216 1.731 1932
1.444 6.228 1.714 1655
1.443 6.225 1.694 1439
1.477 6.372 1.711 1861
1.445 6.234 1.657 1408
1.558 6.719 1.755 1480
1.567 6.761 1.744 2040
1.570 6.773 1.726 2793
1.571 6.777 1.705 2245
1.614 6.962 1.727 1749
1.615 6.967 1.706 1709
1.578 6.805 1.648 1819
1.673 7.217 1.718 1584
1.723 7.433 1.742 2691
1.724 7.437 1.720 3754
1.722 7.426 1.695 2975
1.782 7.688 1.726 2623
1.780 7.677 1.700 3303
1.779 7.674 1.676 4602
1.780 7.678 1.653 4250
1.781 7.683 1.630 2282
1.933 8.339 1.732 1660
1.929 8.320 1.703 2445
1.927 8.310 1.675 2466
1.979 8.534 1.691 1468
2.063 8.896 1.730 1056
2.042 8.809 1.687 1268
2.045 8.821 1.662 1180
2.124 9.160 1.693 1035
2.123 9.157 1.664 992
2.129 9.184 1.641 777
2.130 9.188 1.613 604
2.131 9.192 1.586 364
0.182 0.786 0.134 254
0.963 4.155 0.058 260
0.962 4.147 0.046 375
0.962 4.147 0.034 490
0.963 4.155 0.021 612
0.963 4.154 0.009 741
0.963 4.154 -0.003 852
0.961 4.146 -0.015 965
0.961 4.145 -0.027 1018
0.961 4.145 -0.040 1071
0.961 4.144 -0.052 1027
0.963 4.151 -0.065 987
0.961 4.143 -0.076 897
0.960 4.142 -0.089 811
0.960 4.142 -0.101 683
0.960 4.141 -0.113 550
0.962 4.148 -0.126 555
0.962 4.147 -0.138 435
0.963 4.154 -0.151 316
0.535 2.275 1.821 3316
0.536 2.279 1.814 6632
0.539 2.290 1.812 6685
0.540 2.295 1.805 7241
0.540 2.294 1.794 7817
0.542 2.305 1.792 6758
0.546 2.322 1.794 6028
0.547 2.327 1.787 6028
0.548 2.331 1.781 6946
0.550 2.336 1.774 7864
0.552 2.347 1.771 6632
0.555 2.358 1.769 5557
0.553 2.350 1.753 5347
0.552 2.348 1.742 5408
0.569 2.416 1.779 5571
0.570 2.421 1.772 6072
0.569 2.419 1.761 6278
0.570 2.424 1.753 5106
0.574 2.441 1.755 4246
0.577 2.452 1.752 5186
0.581 2.470 1.754 6648
0.585 2.487 1.755 7072
0.609 2.589 1.812 8441
0.610 2.594 1.804 6644
0.599 2.547 1.763 5676
0.602 2.558 1.759 5855
0.604 2.569 1.756 6250
0.609 2.586 1.757 5114
0.620 2.637 1.778 4740
0.623 2.648 1.775 5542
0.626 2.659 1.771 6503
0.627 2.664 1.763 5493
0.629 2.675 1.759 4525
0.631 2.680 1.752 5851
0.632 2.684 1.744 7177
0.633 2.689 1.736 6436
0.660 2.806 1.796 7570
0.658 2.798 1.780 9842
0.659 2.803 1.771 11879
0.660 2.807 1.763 13917
0.662 2.812 1.755 12617
0.663 2.816 1.747 11317
0.664 2.821 1.738 8259
0.666 2.832 1.734 4226
0.704 2.992 1.814 4541
0.705 2.996 1.805 6348
0.706 3.001 1.796 7667
0.707 3.006 1.787 7008
0.710 3.017 1.782 6276
0.711 3.022 1.773 6063
0.709 3.013 1.757 5400
0.708 3.011 1.744 4215
0.729 3.097 1.780 3945
0.746 3.170 1.807 4754
0.747 3.175 1.798 5960
0.748 3.180 1.788 6514
0.748 3.177 1.775 5697
0.758 3.223 1.787 3652
0.758 3.221 1.774 3551
0.778 3.308 1.807 5281
0.781 3.320 1.801 9190
0.782 3.325 1.791 10742
0.783 3.329 1.781 13640
0.784 3.334 1.771 15932
0.786 3.339 1.762 14489
0.787 3.343 1.752 11142
0.788 3.348 1.742 9304
0.789 3.352 1.732 7893
0.791 3.364 1.725 5072
0.816 3.466 1.762 5893
0.817 3.471 1.752 6959
0.819 3.483 1.745 10003
0.822 3.494 1.738 13446
0.826 3.513 1.734 12074
0.829 3.524 1.727 10582
0.832 3.536 1.720 9336
0.836 3.554 1.715 7138
0.836 3.552 1.702 8158
0.835 3.549 1.688 10484
0.834 3.546 1.675 13052
0.835 3.551 1.664 14835
0.836 3.555 1.654 14794
0.837 3.559 1.643 12809
0.840 3.571 1.636 9209
0.905 3.846 1.739 5799
0.916 3.893 1.746 5752
0.920 3.912 1.740 5135
0.922 3.917 1.729 4975
0.918 3.900 1.708 5977
0.949 4.033 1.749 5869
0.952 4.045 1.740 4909
0.953 4.049 1.728 4092
0.959 4.076 1.724 3508
0.962 4.087 1.715 3789
0.986 4.193 1.742 5262
0.988 4.197 1.730 6616
0.987 4.194 1.714 6960
0.990 4.206 1.705 7710
0.994 4.225 1.698 7480
0.995 4.229 1.685 8403
0.994 4.227 1.670 7729
1.019 4.333 1.694 4470
1.022 4.344 1.684 4045
1.066 4.531 1.736 3023
1.071 4.550 1.728 5066
1.072 4.554 1.714 5022
1.073 4.559 1.701 4468
1.072 4.556 1.685 4988
1.121 4.765 1.741 3828
1.121 4.762 1.724 3854
1.099 4.671 1.678 3633
1.119 4.757 1.691 2852
1.139 4.842 1.703 3057
1.140 4.846 1.689 2930
1.136 4.828 1.668 3213
1.135 4.825 1.651 4155
1.136 4.830 1.637 4057
1.137 4.834 1.622 3262
1.204 5.119 1.694 4733
1.207 5.130 1.681 4491
1.205 5.120 1.661 2406
1.267 5.383 1.723 2585
1.269 5.395 1.709 3233
1.267 5.385 1.689 3280
1.268 5.389 1.673 3503
1.316 5.594 1.714 3326
1.324 5.628 1.706 4421
1.318 5.603 1.681 4655
1.321 5.615 1.666 4895
1.326 5.634 1.653 4919
1.325 5.631 1.635 3709
1.417 6.023 1.721 2398
1.413 6.005 1.697 2654
1.412 6.002 1.677 1916
1.464 6.223 1.714 1588
1.462 6.213 1.692 1601
1.463 6.217 1.674 2025
1.466 6.229 1.657 1470
1.535 6.526 1.709 1452
1.591 6.763 1.746 2015
1.592 6.768 1.726 2913
1.595 6.780 1.707 2581
1.637 6.957 1.727 1834
1.638 6.961 1.706 1880
1.643 6.981 1.689 1865
1.697 7.211 1.718 1949
1.747 7.427 1.742 2513
1.749 7.431 1.720 3680
1.746 7.421 1.695 3048
1.807 7.682 1.726 2372
1.807 7.679 1.701 2884
1.806 7.676 1.677 3883
1.807 7.680 1.654 3534
1.808 7.684 1.631 1952
1.959 8.325 1.731 1816
1.956 8.314 1.703 2599
1.954 8.303 1.675 2456
1.956 8.315 1.652 1437
2.072 8.805 1.715 1176
2.073 8.810 1.688 1406
2.074 8.814 1.662 1235
2.154 9.153 1.693 1149
2.153 9.150 1.664 1020
2.161 9.184 1.642 866
2.160 9.181 1.613 557
2.159 9.178 1.585 284
0.975 4.144 0.046 352
0.975 4.144 0.034 457
0.977 4.151 0.021 573
0.977 4.151 0.009 695
0.977 4.151 -0.003 807
0.975 4.143 -0.015 921
0.975 4.142 -0.027 977
0.974 4.142 -0.040 1034
0.974 4.141 -0.052 997
0.976 4.148 -0.065 966
0.974 4.140 -0.076 871
0.974 4.139 -0.089 782
0.974 4.139 -0.101 650
0.974 4.138 -0.113 517
0.975 4.145 -0.126 519
0.975 4.144 -0.138 413
0.977 4.151 -0.151 309
0.538 2.274 1.821 3087
0.539 2.279 1.814 6174
0.542 2.290 1.812 6234
0.543 2.294 1.805 6919
0.544 2.299 1.798 7604
0.545 2.304 1.792 6753
0.540 2.283 1.767 6265
0.541 2.288 1.760 6265
0.550 2.324 1.776 6771
0.551 2.329 1.769 7622
0.554 2.340 1.767 6005
0.559 2.363 1.773 4919
0.560 2.368 1.766 4649
0.572 2.417 1.791 5475
0.572 2.416 1.779 5637
0.573 2.420 1.772 6156
0.572 2.418 1.761 6380
0.575 2.429 1.758 5150
0.577 2.440 1.755 4185
0.580 2.452 1.752 5199
0.586 2.475 1.758 6965
0.588 2.487 1.755 7153
0.614 2.595 1.816 8130
0.617 2.606 1.813 6423
0.622 2.630 1.818 5709
0.605 2.557 1.759 4682
0.609 2.575 1.760 4924
0.612 2.586 1.757 4378
0.625 2.643 1.783 4957
0.626 2.647 1.775 6119
0.627 2.652 1.767 7281
0.630 2.663 1.763 6110
0.631 2.668 1.755 4977
0.634 2.679 1.752 6072
0.635 2.684 1.744 7231
0.636 2.688 1.736 6456
0.664 2.806 1.796 6988
0.662 2.797 1.780 9071
0.663 2.802 1.771 11087
0.664 2.806 1.763 13103
0.665 2.811 1.755 11842
0.666 2.815 1.747 10581
0.667 2.820 1.738 7615
0.670 2.831 1.734 4113
0.708 2.991 1.814 4038
0.709 2.996 1.805 5450
0.708 2.993 1.792 6498
0.711 3.005 1.787 5985
0.714 3.016 1.782 5293
0.715 3.021 1.773 5036
0.713 3.012 1.757 4710
0.711 3.003 1.741 4215
0.733 3.096 1.780 3838
0.750 3.169 1.807 5266
0.751 3.174 1.798 6505
0.752 3.179 1.788 7216
0.750 3.170 1.772 6776
0.759 3.209 1.780 3847
0.765 3.234 1.781 3496
0.784 3.314 1.811 5063
0.785 3.319 1.801 9375
0.786 3.324 1.791 11394
0.788 3.329 1.781 14122
0.789 3.333 1.771 15868
0.790 3.338 1.762 13911
0.791 3.342 1.752 10480
0.792 3.347 1.742 8772
0.795 3.358 1.735 7532
0.796 3.363 1.725 4651
0.818 3.458 1.759 4679
0.823 3.477 1.755 5576
0.825 3.489 1.748 9401
0.828 3.500 1.741 13709
0.831 3.512 1.734 11423
0.834 3.523 1.727 9206
0.836 3.535 1.720 8634
0.839 3.546 1.712 7839
0.840 3.551 1.702 9621
0.839 3.548 1.688 12077
0.839 3.545 1.675 15180
0.840 3.550 1.664 17278
0.841 3.554 1.654 17279
0.842 3.558 1.643 15053
0.845 3.570 1.636 10929
0.844 3.567 1.622 6875
0.923 3.899 1.749 5089
0.932 3.940 1.752 5154
0.926 3.916 1.729 4673
0.922 3.899 1.708 6188
0.954 4.032 1.749 5201
0.955 4.037 1.737 3628
0.970 4.099 1.748 3009
0.966 4.082 1.727 3622
0.970 4.100 1.721 4344
0.993 4.199 1.745 3895
0.994 4.203 1.732 5302
0.989 4.179 1.709 5650
0.993 4.198 1.702 5610
1.001 4.231 1.700 6538
1.000 4.228 1.685 7953
1.000 4.225 1.670 6918
1.028 4.346 1.700 5138
1.031 4.358 1.689 4727
1.025 4.333 1.666 3221
1.076 4.548 1.728 4072
1.101 4.655 1.750 3925
1.078 4.557 1.701 3874
1.078 4.555 1.685 4602
1.125 4.756 1.738 3641
1.109 4.688 1.700 3747
1.107 4.677 1.681 4371
1.111 4.696 1.672 3112
1.145 4.840 1.703 3051
1.146 4.845 1.689 3257
1.142 4.827 1.668 3375
1.141 4.824 1.651 3767
1.142 4.828 1.637 3524
1.145 4.840 1.625 3023
1.211 5.117 1.694 3831
1.214 5.129 1.681 3653
1.234 5.215 1.690 2303
1.235 5.219 1.675 2476
1.274 5.386 1.707 2849
1.274 5.383 1.689 3247
1.296 5.477 1.698 3550
1.321 5.585 1.712 3375
1.331 5.627 1.706 5021
1.327 5.609 1.683 5207
1.333 5.636 1.672 5252
1.334 5.640 1.655 5421
1.334 5.637 1.637 3505
1.428 6.036 1.725 2009
1.420 6.003 1.697 2522
1.420 6.000 1.677 2059
1.502 6.349 1.747 1790
1.470 6.211 1.692 1796
1.469 6.208 1.672 2256
1.472 6.220 1.655 1536
1.544 6.524 1.709 1591
1.600 6.761 1.746 1975
1.603 6.773 1.727 2866
1.604 6.778 1.707 2745
1.646 6.955 1.727 1839
1.647 6.959 1.706 2045
1.651 6.979 1.689 2444
1.654 6.991 1.670 2524
1.709 7.221 1.698 2219
1.758 7.429 1.720 3371
1.755 7.419 1.695 2882
1.819 7.687 1.727 2293
1.818 7.684 1.703 2641
1.816 7.673 1.677 3322
1.817 7.678 1.654 2916
1.818 7.682 1.631 1668
1.969 8.322 1.731 1925
1.967 8.312 1.703 2644
1.966 8.309 1.677 2362
1.967 8.313 1.652 1515
1.966 8.310 1.626 1300
2.084 8.807 1.688 1464
2.083 8.804 1.661 1238
2.163 9.143 1.692 1192
2.166 9.155 1.666 955
2.172 9.182 1.642 857
2.172 9.178 1.613 496
0.980 4.143 0.046 299
0.980 4.143 0.034 396
0.980 4.142 0.022 504
0.982 4.150 0.009 620
0.982 4.149 -0.003 719
0.980 4.141 -0.015 821
0.980 4.141 -0.027 871
0.980 4.140 -0.040 922
0.979 4.140 -0.052 894
0.981 4.147 -0.065 870
0.979 4.139 -0.076 791
0.979 4.138 -0.089 715
0.979 4.137 -0.101 607
0.979 4.137 -0.113 495
0.980 4.144 -0.126 499
0.980 4.143 -0.138 399
0.982 4.150 -0.151 299
0.545 2.272 1.821 2849
0.546 2.277 1.814 5699
0.549 2.288 1.812 5753
0.550 2.293 1.805 6584
0.550 2.291 1.794 7425
0.551 2.296 1.787 6802
0.547 2.282 1.767 6803
0.548 2.286 1.760 6803
0.551 2.297 1.758 6964
0.555 2.315 1.760 7545
0.558 2.325 1.758 5606
0.566 2.362 1.773 4338
0.574 2.392 1.784 4207
0.579 2.416 1.791 5400
0.580 2.420 1.784 5515
0.580 2.418 1.772 6057
0.581 2.423 1.765 6356
0.582 2.428 1.758 5175
0.585 2.439 1.755 4106
0.588 2.450 1.752 5081
0.596 2.487 1.767 7183
0.597 2.491 1.759 7359
0.622 2.593 1.816 7644
0.626 2.611 1.817 6346
0.630 2.628 1.818 5782
0.630 2.627 1.806 4331
0.620 2.586 1.769 3767
0.631 2.630 1.786 4080
0.633 2.641 1.783 5103
0.634 2.645 1.775 6324
0.636 2.650 1.767 7545
0.638 2.661 1.763 6130
0.639 2.666 1.755 4780
0.642 2.677 1.752 5761
0.643 2.682 1.744 6776
0.644 2.686 1.736 6282
0.671 2.797 1.792 6307
0.669 2.788 1.776 8140
0.671 2.800 1.771 10095
0.673 2.804 1.763 12073
0.674 2.809 1.755 10841
0.675 2.813 1.747 9608
0.676 2.818 1.738 6843
0.677 2.823 1.730 3950
0.678 2.827 1.722 3823
0.718 2.993 1.805 4571
0.717 2.991 1.792 5359
0.720 3.003 1.787 4930
0.723 3.014 1.782 4250
0.704 2.937 1.728 4364
0.709 2.955 1.727 4642
0.718 2.994 1.737 4138
0.744 3.101 1.783 3692
0.760 3.167 1.807 5460
0.761 3.172 1.798 6576
0.760 3.169 1.785 7444
0.758 3.160 1.768 7616
0.757 3.158 1.755 4407
0.775 3.232 1.781 3534
0.794 3.312 1.811 4693
0.795 3.317 1.801 9250
0.797 3.321 1.791 11768
0.798 3.326 1.781 14345
0.799 3.331 1.771 15510
0.800 3.335 1.762 12958
0.801 3.340 1.752 9478
0.804 3.351 1.745 8131
0.807 3.363 1.739 7142
0.808 3.368 1.729 4194
0.827 3.449 1.755 4164
0.835 3.481 1.758 5117
0.838 3.493 1.751 9653
0.839 3.498 1.741 14010
0.840 3.502 1.731 10731
0.844 3.521 1.727 7620
0.847 3.532 1.720 7799
0.848 3.537 1.709 8547
0.849 3.541 1.699 10791
0.850 3.546 1.688 13013
0.850 3.543 1.675 16454
0.851 3.547 1.664 18758
0.852 3.551 1.654 18714
0.853 3.556 1.643 16369
0.856 3.567 1.636 11991
0.855 3.564 1.622 7715
0.941 3.925 1.761 4768
0.944 3.937 1.752 5564
0.938 3.913 1.729 4478
0.934 3.896 1.708 6036
0.935 3.900 1.697 4662
0.945 3.940 1.699 3241
0.981 4.088 1.745 3187
0.978 4.079 1.727 4875
0.983 4.097 1.721 5589
0.987 4.116 1.714 3785
1.009 4.207 1.735 4089
0.993 4.140 1.695 5346
0.990 4.130 1.677 6084
1.045 4.358 1.749 5773
1.015 4.232 1.688 7279
1.013 4.222 1.670 5797
1.043 4.350 1.702 5870
1.044 4.354 1.689 5387
1.038 4.330 1.666 3791
1.064 4.436 1.689 3376
1.116 4.652 1.750 4370
1.115 4.649 1.734 4334
1.092 4.551 1.685 3984
1.126 4.694 1.718 4555
1.125 4.692 1.702 4181
1.121 4.674 1.681 5163
1.126 4.693 1.672 4021
1.160 4.837 1.703 2739
1.161 4.841 1.689 3246
1.159 4.831 1.670 3461
1.156 4.820 1.651 3450
1.157 4.825 1.637 3018
1.162 4.844 1.627 2832
1.225 5.106 1.692 3310
1.227 5.118 1.679 3390
1.218 5.078 1.650 3147
1.217 5.075 1.633 3560
1.218 5.079 1.618 4356
1.219 5.083 1.603 3920
1.313 5.473 1.698 3846
1.219 5.084 1.570 3554
1.349 5.623 1.706 5266
1.342 5.597 1.681 5350
1.352 5.639 1.674 5395
1.352 5.636 1.655 6006
1.351 5.633 1.637 3631
1.447 6.032 1.725 1830
1.441 6.007 1.699 2347
1.440 6.004 1.679 2107
1.522 6.344 1.747 1958
1.489 6.207 1.692 1917
1.488 6.203 1.672 2356
1.491 6.215 1.655 1494
1.560 6.504 1.706 1581
1.620 6.756 1.746 1860
1.623 6.768 1.727 2677
1.624 6.773 1.707 2650
1.634 6.815 1.696 1941
1.670 6.962 1.708 2113
1.673 6.974 1.689 2955
1.675 6.986 1.670 3155
1.678 6.997 1.650 2618
1.780 7.424 1.720 2860
1.778 7.413 1.695 2513
1.844 7.689 1.729 2186
1.843 7.686 1.705 2605
1.841 7.675 1.679 3187
1.842 7.680 1.656 2580
1.950 8.130 1.720 1555
1.995 8.316 1.731 2052
1.994 8.313 1.705 2636
1.993 8.310 1.678 2217
1.992 8.307 1.652 1622
1.991 8.303 1.626 1467
2.109 8.793 1.687 1331
2.188 9.124 1.718 1312
2.191 9.136 1.692 1263
2.194 9.148 1.666 908
2.199 9.167 1.641 739
2.198 9.164 1.612 403
0.993 4.140 0.046 253
0.993 4.140 0.034 341
0.995 4.147 0.021 429
0.995 4.147 0.009 523
0.994 4.146 -0.003 613
0.993 4.138 -0.015 706
0.992 4.138 -0.027 759
0.992 4.137 -0.040 813
0.992 4.137 -0.052 793
0.994 4.144 -0.065 777
0.992 4.136 -0.076 707
0.992 4.135 -0.089 640
0.992 4.134 -0.101 541
0.991 4.134 -0.113 439
0.993 4.141 -0.126 442
0.993 4.140 -0.138 349
0.993 4.139 -0.150 257
0.551 2.271 1.821 2582
0.553 2.275 1.814 5165
0.555 2.286 1.812 5212
0.555 2.285 1.801 6173
0.556 2.290 1.794 7181
0.556 2.288 1.783 6849
0.555 2.286 1.771 7136
0.556 2.291 1.765 7136
0.558 2.296 1.758 7219
0.562 2.313 1.760 7557
0.563 2.317 1.753 5426
0.573 2.360 1.773 3879
0.582 2.396 1.789 3883
0.586 2.414 1.791 5168
0.587 2.419 1.784 5268
0.589 2.423 1.776 5827
0.588 2.421 1.765 6276
0.589 2.426 1.758 5166
0.592 2.437 1.755 4102
0.604 2.487 1.778 5063
0.605 2.491 1.771 7233
0.605 2.489 1.759 7442
0.606 2.494 1.752 7686
0.634 2.609 1.817 6225
0.636 2.620 1.813 5803
0.638 2.625 1.806 4385
0.635 2.617 1.790 3146
0.640 2.634 1.790 4064
0.644 2.652 1.791 5264
0.644 2.650 1.779 6454
0.643 2.648 1.767 7709
0.646 2.659 1.763 6317
0.647 2.664 1.755 4990
0.650 2.675 1.752 5930
0.651 2.680 1.744 6938
0.652 2.684 1.736 6435
0.679 2.795 1.792 5692
0.677 2.786 1.776 7234
0.678 2.791 1.767 9066
0.681 2.802 1.763 10954
0.682 2.807 1.755 9721
0.683 2.811 1.747 8488
0.684 2.816 1.738 6094
0.685 2.821 1.730 3900
0.686 2.825 1.722 4101
0.725 2.985 1.801 3800
0.726 2.989 1.792 4380
0.729 3.001 1.787 3997
0.713 2.938 1.741 3491
0.715 2.942 1.732 4957
0.717 2.953 1.727 5023
0.725 2.985 1.733 4046
0.766 3.153 1.813 3686
0.769 3.165 1.807 5361
0.770 3.169 1.798 6302
0.768 3.160 1.781 7397
0.767 3.158 1.768 8196
0.767 3.156 1.755 5013
0.759 3.126 1.728 3723
0.804 3.310 1.811 4224
0.805 3.314 1.801 8879
0.804 3.312 1.788 11940
0.806 3.317 1.778 14342
0.808 3.328 1.771 14983
0.810 3.333 1.762 11887
0.812 3.345 1.755 8508
0.815 3.356 1.749 7562
0.820 3.375 1.745 7042
0.824 3.393 1.742 4019
0.837 3.446 1.755 4377
0.848 3.493 1.765 5911
0.848 3.491 1.751 10783
0.849 3.495 1.741 14409
0.850 3.500 1.731 10541
0.853 3.511 1.724 6764
0.856 3.523 1.716 7378
0.858 3.534 1.709 9274
0.859 3.539 1.699 11533
0.861 3.543 1.688 13119
0.860 3.540 1.675 16688
0.861 3.545 1.664 19057
0.862 3.549 1.654 18884
0.863 3.553 1.643 16572
0.864 3.558 1.632 12291
0.865 3.562 1.622 8081
0.953 3.922 1.761 4827
0.955 3.934 1.752 5954
0.948 3.903 1.726 4813
0.945 3.893 1.708 5662
0.950 3.912 1.702 4395
0.979 4.031 1.737 3337
0.987 4.064 1.736 3982
0.990 4.076 1.727 6114
0.994 4.095 1.721 6822
0.999 4.113 1.714 4231
1.023 4.212 1.738 3195
1.003 4.130 1.692 5334
1.002 4.127 1.677 6771
1.058 4.355 1.749 6173
1.027 4.229 1.688 6547
1.028 4.234 1.675 4946
1.056 4.347 1.702 6391
1.057 4.351 1.689 5686
1.049 4.319 1.663 4606
1.077 4.433 1.689 3904
1.129 4.648 1.750 4482
1.128 4.646 1.734 4654
1.138 4.687 1.732 4079
1.141 4.698 1.721 5132
1.140 4.696 1.705 4208
1.136 4.678 1.683 5532
1.139 4.690 1.672 4607
1.140 4.694 1.658 2982
1.145 4.713 1.649 3694
1.174 4.835 1.672 3509
1.172 4.824 1.653 3218
1.171 4.821 1.637 2534
1.229 5.061 1.695 2997
1.237 5.095 1.689 3294
1.231 5.070 1.665 3826
1.232 5.074 1.650 4579
1.232 5.071 1.633 5359
1.233 5.075 1.618 6331
1.234 5.080 1.603 5756
1.235 5.084 1.588 5398
1.234 5.080 1.570 5363
1.365 5.619 1.706 5067
1.358 5.593 1.681 5149
1.369 5.635 1.674 5214
1.370 5.639 1.657 6129
1.369 5.636 1.639 3540
1.421 5.849 1.677 2060
1.463 6.025 1.705 2207
1.457 5.999 1.679 1967
1.540 6.340 1.747 1965
1.506 6.202 1.692 1951
1.506 6.199 1.672 2394
1.561 6.428 1.709 1646
1.577 6.492 1.704 1419
1.638 6.744 1.744 1715
1.643 6.763 1.727 2356
1.644 6.768 1.707 2328
1.654 6.810 1.696 1954
1.655 6.814 1.675 2290
1.693 6.969 1.689 3225
1.695 6.981 1.670 3545
1.698 6.993 1.650 3168
1.699 6.997 1.629 2800
1.699 6.994 1.607 2010
1.866 7.684 1.729 2132
1.865 7.681 1.705 2677
1.865 7.678 1.680 3244
1.866 7.682 1.657 2471
2.015 8.298 1.754 1760
2.018 8.311 1.731 2057
2.018 8.307 1.705 2405
2.017 8.304 1.678 2056
2.018 8.309 1.653 1699
2.015 8.298 1.626 1550
2.066 8.507 1.637 1266
2.213 9.110 1.716 1431
2.215 9.122 1.690 1278
2.222 9.149 1.667 865
2.223 9.153 1.640 671
2.224 9.158 1.612 362
1.005 4.137 0.034 251
1.007 4.144 0.021 328
1.006 4.144 0.009 410
1.006 4.144 -0.003 493
1.004 4.135 -0.015 576
1.004 4.135 -0.027 632
1.004 4.134 -0.040 688
1.004 4.134 -0.052 669
1.006 4.141 -0.065 653
1.004 4.133 -0.076 589
1.004 4.132 -0.089 528
1.003 4.132 -0.101 443
1.003 4.131 -0.113 357
1.005 4.138 -0.126 358
1.005 4.137 -0.138 282
0.555 2.270 1.821 2265
0.557 2.275 1.814 4530
0.559 2.286 1.812 4551
0.559 2.284 1.801 5668
0.560 2.289 1.794 6805
0.560 2.287 1.783 6820
0.559 2.286 1.771 7347
0.560 2.290 1.765 7347
0.562 2.295 1.758 7354
0.564 2.306 1.756 7563
0.567 2.317 1.753 5406
0.577 2.359 1.773 3540
0.586 2.395 1.789 3497
0.592 2.419 1.795 4851
0.592 2.418 1.784 4933
0.593 2.422 1.776 5611
0.592 2.420 1.765 6128
0.593 2.425 1.758 5112
0.596 2.436 1.755 4070
0.621 2.537 1.813 5025
0.609 2.490 1.771 6666
0.609 2.488 1.759 6870
0.610 2.493 1.752 7133
0.638 2.608 1.817 6018
0.641 2.619 1.813 5791
0.640 2.617 1.802 4415
0.619 2.531 1.735 3606
0.644 2.633 1.790 4132
0.649 2.651 1.791 5586
0.648 2.649 1.779 6687
0.648 2.647 1.767 8025
0.649 2.652 1.759 6740
0.650 2.656 1.751 5455
0.653 2.667 1.748 6172
0.654 2.672 1.740 6910
0.657 2.683 1.736 6072
0.684 2.794 1.792 5146
0.680 2.779 1.772 6387
0.683 2.790 1.767 8068
0.685 2.801 1.763 9853
0.687 2.806 1.755 8614
0.689 2.817 1.751 7412
0.690 2.822 1.742 5687
0.690 2.819 1.730 4211
0.691 2.824 1.722 4445
0.692 2.828 1.713 3334
0.729 2.981 1.789 3665
0.732 2.993 1.784 3313
0.719 2.936 1.741 3894
0.720 2.941 1.732 5438
0.722 2.952 1.727 5296
0.728 2.977 1.730 3964
0.771 3.152 1.813 3606
0.774 3.163 1.807 5076
0.777 3.175 1.801 5846
0.773 3.159 1.781 7223
0.771 3.150 1.765 8523
0.770 3.148 1.752 5618
0.766 3.132 1.732 4440
0.791 3.233 1.772 4274
0.809 3.306 1.797 8398
0.810 3.311 1.788 11885
0.811 3.315 1.778 14097
0.814 3.327 1.771 14320
0.815 3.332 1.762 10847
0.818 3.343 1.755 7611
0.823 3.362 1.752 7217
0.827 3.380 1.749 7256
0.830 3.392 1.742 4319
0.845 3.452 1.759 4980
0.853 3.485 1.762 7200
0.854 3.489 1.751 12162
0.855 3.494 1.741 14829
0.854 3.491 1.727 10782
0.857 3.503 1.720 6918
0.860 3.514 1.713 7632
0.864 3.533 1.709 9817
0.866 3.537 1.699 11705
0.865 3.535 1.685 12507
0.864 3.532 1.671 15985
0.867 3.543 1.664 18307
0.868 3.548 1.654 17965
0.869 3.552 1.643 15872
0.870 3.556 1.632 12084
0.871 3.560 1.622 8098
0.904 3.693 1.665 5021
0.962 3.932 1.752 6149
0.953 3.894 1.723 5049
0.952 3.891 1.708 4993
0.959 3.917 1.705 3986
0.988 4.036 1.740 3509
0.992 4.055 1.733 4798
0.997 4.074 1.727 6868
1.002 4.093 1.721 7696
1.006 4.112 1.714 4688
1.032 4.217 1.741 2844
1.008 4.121 1.690 5041
1.009 4.125 1.677 6974
1.010 4.129 1.665 6196
1.072 4.380 1.744 6240
1.071 4.377 1.728 5184
1.061 4.338 1.700 6769
1.064 4.350 1.689 5890
1.055 4.310 1.661 5616
1.084 4.431 1.689 4343
1.139 4.654 1.753 4525
1.136 4.644 1.734 4914
1.143 4.670 1.727 4695
1.149 4.697 1.721 5621
1.150 4.701 1.707 4248
1.146 4.683 1.686 5706
1.149 4.695 1.674 5453
1.150 4.699 1.660 4149
1.153 4.711 1.649 5354
1.157 4.730 1.639 4530
1.180 4.822 1.653 3267
1.235 5.047 1.708 2520
1.236 5.052 1.693 3472
1.234 5.041 1.674 3955
1.238 5.061 1.663 4657
1.241 5.072 1.650 5886
1.240 5.069 1.633 7063
1.241 5.073 1.618 8105
1.242 5.077 1.603 7347
1.243 5.082 1.588 6975
1.243 5.078 1.570 6976
1.244 5.082 1.555 5327
1.361 5.561 1.672 4575
1.380 5.640 1.676 4869
1.381 5.644 1.659 5999
1.382 5.649 1.643 3393
1.432 5.854 1.679 2209
1.424 5.821 1.652 2228
1.480 6.049 1.692 1784
1.487 6.076 1.680 1956
1.552 6.342 1.728 1949
1.516 6.197 1.672 2183
1.574 6.433 1.710 1847
1.581 6.460 1.697 1433
1.648 6.734 1.742 1661
1.654 6.761 1.727 2002
1.655 6.765 1.707 1932
1.666 6.807 1.696 1743
1.665 6.804 1.674 2314
1.705 6.966 1.689 3290
1.707 6.978 1.670 3621
1.710 6.990 1.650 3438
1.711 6.994 1.629 3179
1.711 6.991 1.607 2336
1.879 7.681 1.729 2067
1.877 7.670 1.703 2874
1.878 7.674 1.680 3476
1.879 7.679 1.657 2628
2.030 8.295 1.754 1912
2.033 8.307 1.731 2021
2.034 8.312 1.706 2173
2.033 8.308 1.680 2045
2.034 8.313 1.655 1931
2.031 8.302 1.627 1644
2.188 8.943 1.715 1409
2.228 9.106 1.716 1485
2.231 9.118 1.690 1256
2.184 8.925 1.630 882
2.239 9.150 1.640 668
2.240 9.154 1.612 378
0.263 1.076 0.156 255
0.263 1.076 0.153 274
0.263 1.076 0.150 261
1.014 4.143 0.021 252
1.014 4.142 0.009 322
1.013 4.142 -0.003 386
1.011 4.134 -0.015 452
1.011 4.133 -0.027 489
1.011 4.133 -0.040 525
1.011 4.132 -0.052 515
1.013 4.139 -0.065 505
1.011 4.131 -0.076 460
1.011 4.130 -0.089 415
1.011 4.130 -0.101 347
1.010 4.129 -0.113 280
1.012 4.136 -0.126 280
0.562 2.268 1.821 2000
0.563 2.273 1.814 4000
0.564 2.278 1.807 4000
0.565 2.282 1.801 5205
0.566 2.287 1.794 6410
0.566 2.286 1.783 6687
0.566 2.284 1.771 7361
0.567 2.289 1.765 7361
0.568 2.293 1.758 7349
0.571 2.304 1.756 7536
0.573 2.315 1.753 5409
0.574 2.319 1.746 3311
0.596 2.407 1.798 3074
0.599 2.418 1.795 4515
0.598 2.416 1.784 4526
0.599 2.421 1.776 5290
0.601 2.425 1.769 5933
0.600 2.423 1.758 4972
0.627 2.531 1.820 4128
0.629 2.542 1.817 5530
0.631 2.547 1.810 6956
0.616 2.487 1.759 6146
0.615 2.485 1.748 6280
0.645 2.606 1.817 5838
0.647 2.611 1.809 5822
0.648 2.615 1.802 4535
0.626 2.529 1.735 3865
0.652 2.631 1.790 4376
0.656 2.649 1.791 6076
0.656 2.647 1.779 6920
0.653 2.639 1.763 8063
0.655 2.643 1.755 6699
0.656 2.648 1.747 5336
0.660 2.666 1.748 5681
0.661 2.670 1.740 6073
0.666 2.688 1.740 5178
0.686 2.772 1.780 4854
0.688 2.777 1.772 5736
0.690 2.788 1.767 7113
0.693 2.799 1.763 8789
0.696 2.810 1.759 7562
0.697 2.815 1.751 6481
0.698 2.820 1.742 5479
0.698 2.817 1.730 4605
0.699 2.822 1.722 4732
0.700 2.826 1.713 3484
0.736 2.972 1.785 3342
0.737 2.977 1.776 3012
0.727 2.934 1.741 4387
0.728 2.939 1.732 5951
0.731 2.950 1.727 5550
0.737 2.975 1.730 3812
0.780 3.150 1.813 3366
0.783 3.161 1.807 4578
0.786 3.173 1.801 5153
0.780 3.150 1.777 6965
0.780 3.148 1.765 8713
0.777 3.139 1.748 6364
0.775 3.130 1.732 5271
0.800 3.230 1.772 5112
0.818 3.304 1.797 7884
0.819 3.309 1.788 11542
0.820 3.313 1.778 13619
0.822 3.318 1.768 13647
0.824 3.329 1.762 9936
0.827 3.341 1.755 6855
0.837 3.380 1.762 7116
0.836 3.378 1.749 7516
0.850 3.431 1.762 4685
0.854 3.450 1.759 5653
0.862 3.482 1.762 8386
0.863 3.487 1.751 13299
0.863 3.484 1.738 15276
0.864 3.489 1.727 11548
0.865 3.493 1.717 7855
0.868 3.505 1.710 8261
0.874 3.530 1.709 10011
0.875 3.535 1.699 11332
0.875 3.532 1.685 11270
0.874 3.529 1.671 14543
0.877 3.541 1.664 16774
0.878 3.545 1.654 16244
0.879 3.549 1.643 14433
0.880 3.554 1.632 11348
0.881 3.558 1.622 7802
0.914 3.690 1.665 5069
0.964 3.894 1.737 6209
0.964 3.891 1.723 5510
0.963 3.889 1.708 4633
0.971 3.922 1.708 3711
1.017 4.105 1.769 3715
1.004 4.052 1.733 5293
1.010 4.078 1.730 7089
1.013 4.090 1.721 8050
1.018 4.109 1.714 4940
1.042 4.207 1.738 2883
1.020 4.118 1.690 4566
1.021 4.122 1.677 6681
1.022 4.127 1.665 6278
1.084 4.377 1.744 6207
1.083 4.374 1.728 5397
1.073 4.335 1.700 6897
1.069 4.318 1.679 6287
1.067 4.307 1.661 6658
1.066 4.304 1.645 4959
1.150 4.643 1.750 4362
1.146 4.626 1.729 5122
1.154 4.660 1.725 5195
1.162 4.693 1.721 5918
