3.092 5.196 1.759 1977
3.190 5.360 1.811 787
3.090 5.194 1.740 2089
2.993 5.029 1.688 770
3.085 5.185 1.718 1579
2.967 4.987 1.657 792
3.079 5.175 1.697 1389
2.946 4.951 1.629 906
3.117 5.238 1.697 1086
2.948 4.955 1.612 946
3.123 5.249 1.681 1640
2.998 5.038 1.619 1430
3.126 5.253 1.663 1851
2.957 4.969 1.580 1777
2.959 4.973 1.564 2101
3.132 5.263 1.648 1857
3.138 5.274 1.632 1883
2.988 5.022 1.560 1453
2.995 5.033 1.545 1522
3.136 5.271 1.612 1361
2.993 5.030 1.526 1140
4.001 6.723 1.998 1037
4.007 6.735 1.977 1138
4.082 6.861 2.011 987
4.081 6.859 1.986 1534
3.935 6.613 1.920 1079
4.080 6.857 1.961 1607
3.934 6.611 1.896 1535
4.130 6.941 1.959 1430
4.296 7.219 2.033 1111
4.129 6.939 1.934 1463
4.298 7.224 2.009 1281
4.147 6.970 1.918 1285
4.301 7.229 1.984 1257
4.304 7.233 1.960 1482
4.454 7.486 2.024 1405
4.469 7.511 2.003 1816
4.307 7.238 1.935 1553
4.480 7.529 1.981 2063
4.591 7.715 2.027 1148
4.498 7.560 1.962 2041
4.621 7.766 2.012 1293
4.501 7.564 1.937 1723
4.616 7.758 1.983 1468
4.674 7.856 1.979 1652
4.508 7.575 1.913 1514
4.669 7.847 1.949 2364
4.518 7.593 1.890 1022
4.672 7.851 1.923 2556
4.596 7.724 1.894 940
4.670 7.849 1.895 1788
2.468 4.148 1.062 524
4.673 7.853 1.868 1043
2.470 4.151 1.048 439
4.687 7.878 1.846 888
2.463 4.140 1.031 450
4.690 7.882 1.819 1394
2.468 4.149 1.019 542
4.688 7.880 1.791 1303
2.466 4.144 1.004 739
2.463 4.139 0.988 1004
4.691 7.884 1.765 819
2.464 4.142 0.974 1093
4.701 7.901 1.741 482
2.462 4.137 0.959 1047
4.708 7.912 1.715 260
2.463 4.139 0.945 791
2.460 4.134 0.930 652
2.457 4.130 0.915 848
2.458 4.131 0.901 961
2.455 4.127 0.886 684
2.453 4.122 0.871 539
2.450 4.117 0.856 664
2.447 4.112 0.841 528
2.440 4.100 0.825 335
2.441 4.102 0.811 333
2.442 4.104 0.797 306
2.443 4.105 0.783 287
2.448 4.114 0.771 324
2.445 4.108 0.756 253
1.198 2.006 1.821 2513
1.136 1.902 1.731 359
1.200 2.011 1.814 5027
1.138 1.906 1.725 719
1.216 2.037 1.826 5886
1.154 1.932 1.737 1148
1.218 2.041 1.819 6938
1.156 1.936 1.731 1015
1.224 2.051 1.817 7997
1.162 1.946 1.729 1002
1.223 2.049 1.806 6329
1.161 1.944 1.718 755
1.262 2.115 1.849 5003
1.199 2.009 1.762 1510
1.265 2.119 1.842 5003
1.202 2.013 1.755 1510
1.261 2.112 1.826 6706
1.198 2.006 1.740 1068
1.263 2.116 1.819 8646
1.200 2.010 1.733 1198
1.269 2.126 1.816 8404
1.206 2.020 1.731 972
1.272 2.130 1.809 8373
1.335 2.237 1.895 1064
1.277 2.140 1.807 7467
1.341 2.247 1.892 1291
1.280 2.144 1.800 6789
1.344 2.251 1.884 1797
1.282 2.148 1.792 6789
1.346 2.255 1.877 1808
1.288 2.158 1.790 5888
1.352 2.265 1.873 2589
1.311 2.196 1.809 7313
1.375 2.304 1.892 489
1.310 2.195 1.797 8499
1.374 2.302 1.880 1078
1.306 2.187 1.781 9969
1.370 2.295 1.864 2607
1.339 2.243 1.813 9165
1.274 2.135 1.731 1203
1.341 2.247 1.805 8727
1.406 2.355 1.887 761
1.340 2.245 1.794 7618
1.405 2.354 1.875 1272
1.343 2.250 1.786 6525
1.408 2.358 1.867 1582
1.349 2.259 1.783 4762
1.414 2.368 1.864 1387
1.382 2.315 1.813 4956
1.317 2.206 1.733 551
1.385 2.319 1.806 4370
1.319 2.210 1.726 475
1.394 2.335 1.806 3937
1.329 2.226 1.727 725
1.386 2.322 1.786 3887
1.452 2.432 1.865 698
1.385 2.320 1.774 4133
1.451 2.430 1.853 1061
1.426 2.388 1.812 5155
1.360 2.278 1.733 909
1.425 2.386 1.800 6436
1.359 2.276 1.722 515
1.434 2.402 1.800 8098
1.368 2.292 1.722 704
1.436 2.406 1.792 10153
1.503 2.517 1.870 807
1.439 2.411 1.784 10536
1.505 2.521 1.861 929
1.441 2.415 1.776 10919
1.508 2.526 1.853 1052
1.444 2.419 1.768 11142
1.510 2.530 1.844 1169
1.443 2.417 1.756 10004
1.509 2.528 1.832 1732
1.445 2.421 1.748 8821
1.512 2.533 1.823 1827
1.451 2.431 1.744 6081
1.518 2.543 1.819 2459
1.485 2.488 1.771 3850
1.552 2.600 1.846 1502
1.530 2.563 1.810 3685
1.459 2.445 1.731 3522
1.536 2.573 1.805 4328
1.462 2.449 1.723 3269
1.517 2.542 1.773 5567
1.450 2.429 1.700 2030
1.520 2.546 1.765 6457
1.587 2.658 1.838 1384
1.533 2.568 1.768 6211
1.600 2.681 1.841 1612
1.571 2.631 1.797 4668
1.503 2.518 1.725 3885
1.577 2.641 1.792 6790
1.506 2.522 1.716 3494
1.579 2.645 1.784 7086
1.511 2.532 1.712 2533
1.578 2.644 1.771 6472
1.510 2.530 1.700 865
1.577 2.642 1.758 5747
1.645 2.756 1.829 921
1.583 2.652 1.753 4146
1.651 2.766 1.824 1560
1.585 2.656 1.744 2910
1.654 2.770 1.815 2281
1.584 2.654 1.732 3200
1.656 2.774 1.805 2354
1.669 2.796 1.807 2810
1.590 2.664 1.727 2528
1.675 2.807 1.801 3207
1.607 2.692 1.732 1660
1.671 2.799 1.785 4724
1.602 2.684 1.716 1228
1.666 2.791 1.768 6981
1.735 2.906 1.836 787
1.650 2.764 1.741 6680
1.755 2.940 1.845 1028
1.649 2.762 1.728 6730
1.718 2.878 1.796 1510
1.691 2.833 1.758 6355
1.760 2.949 1.825 2081
1.705 2.856 1.759 7055
1.774 2.971 1.826 2953
1.718 2.878 1.760 7903
1.649 2.762 1.693 3462
1.728 2.894 1.757 6526
1.658 2.778 1.691 3090
1.737 2.910 1.754 4475
1.814 3.039 1.827 2686
1.795 3.006 1.796 2881
1.725 2.890 1.731 1558
1.801 3.017 1.789 5493
1.731 2.900 1.724 905
1.807 3.027 1.783 9048
1.737 2.910 1.718 1460
1.824 3.056 1.786 7411
1.754 2.939 1.722 2347
1.841 3.084 1.789 7818
1.771 2.967 1.725 3589
1.847 3.095 1.782 6851
1.777 2.977 1.719 3446
1.861 3.117 1.782 8414
1.787 2.994 1.715 2987
1.867 3.128 1.774 8860
1.797 3.010 1.712 1897
1.840 3.082 1.738 5716
1.910 3.200 1.800 2959
1.842 3.086 1.727 3596
1.927 3.229 1.802 3178
1.934 3.239 1.794 3922
1.856 3.109 1.727 2532
1.936 3.243 1.783 5810
1.858 3.113 1.716 1962
1.935 3.241 1.769 5794
2.005 3.359 1.830 1634
1.982 3.320 1.796 4297
1.911 3.202 1.736 1956
1.988 3.330 1.788 5117
1.917 3.212 1.729 1715
2.013 3.372 1.796 3829
1.931 3.235 1.727 1411
2.038 3.414 1.803 3621
1.967 3.295 1.744 1371
2.025 3.393 1.779 2956
2.096 3.512 1.838 2474
2.091 3.504 1.820 3320
2.020 3.384 1.762 2946
2.011 3.370 1.741 2804
2.090 3.501 1.805 2488
2.066 3.462 1.772 2926
2.145 3.594 1.835 1500
2.103 3.522 1.788 5943
2.174 3.642 1.844 1621
2.113 3.539 1.782 8236
2.184 3.659 1.838 2585
2.119 3.550 1.773 6321
2.190 3.669 1.829 3161
2.159 3.617 1.790 4704
2.087 3.497 1.734 1882
2.154 3.608 1.772 3745
2.226 3.728 1.827 1983
2.228 3.733 1.815 3231
2.156 3.612 1.760 3050
2.227 3.730 1.799 4890
2.155 3.610 1.745 2952
2.233 3.741 1.789 6305
2.161 3.620 1.736 2260
2.236 3.745 1.777 6358
2.311 3.872 1.833 1701
2.238 3.749 1.764 5213
2.314 3.876 1.820 2314
2.241 3.753 1.752 5341
2.362 3.957 1.840 2939
2.247 3.764 1.742 4770
2.372 3.974 1.833 2819
2.409 4.036 1.844 3400
2.299 3.851 1.765 3218
2.427 4.066 1.841 3863
2.305 3.861 1.754 3116
2.372 3.974 1.787 4494
2.445 4.095 1.838 2521
2.375 3.978 1.774 5052
2.447 4.100 1.824 1751
2.385 3.995 1.766 3509
2.507 4.200 1.850 2483
2.483 4.159 1.818 4344
2.399 4.018 1.760 2711
2.516 4.215 1.824 4499
2.409 4.035 1.752 2650
2.522 4.225 1.813 4695
2.415 4.045 1.741 2012
2.540 4.255 1.809 3816
2.467 4.133 1.760 1901
2.547 4.266 1.797 3867
2.474 4.144 1.749 1925
2.553 4.277 1.785 3492
2.480 4.154 1.737 1487
2.555 4.281 1.771 2839
3.114 5.216 2.131 1289
2.558 4.285 1.756 1682
3.129 5.241 2.121 1103
2.599 4.353 1.766 1714
3.081 5.162 2.072 1346
2.601 4.358 1.752 1227
3.150 5.277 2.095 1023
3.153 5.281 2.077 922
3.075 5.152 2.029 766
3.082 5.163 2.015 1162
2.637 4.417 1.741 927
3.089 5.174 1.999 2899
2.616 4.382 1.712 600
3.092 5.179 1.982 7401
3.611 6.049 2.294 481
3.094 5.184 1.965 13051
3.199 5.359 2.027 637
3.097 5.188 1.947 18122
3.206 5.370 2.011 871
3.100 5.193 1.930 23936
3.259 5.460 2.022 1423
3.102 5.197 1.912 27270
3.340 5.595 2.049 2026
3.101 5.195 1.892 27566
3.269 5.475 1.988 2479
3.104 5.199 1.875 27006
3.271 5.480 1.969 2990
3.106 5.204 1.857 23246
3.274 5.485 1.951 2477
3.109 5.208 1.840 18655
3.269 5.476 1.928 1654
3.111 5.212 1.822 12077
3.279 5.494 1.914 1706
3.114 5.216 1.805 4861
3.282 5.498 1.895 1983
3.101 5.194 1.779 1883
3.289 5.509 1.879 1431
3.099 5.192 1.759 1828
3.205 5.369 1.815 755
3.102 5.196 1.742 2115
3.196 5.353 1.791 780
3.092 5.180 1.718 1596
3.198 5.358 1.773 822
3.087 5.171 1.697 1372
2.953 4.947 1.629 864
3.128 5.241 1.699 1109
2.971 4.977 1.620 921
3.131 5.244 1.681 1631
3.005 5.034 1.619 1253
2.960 4.958 1.579 1872
3.133 5.248 1.663 1772
2.962 4.962 1.562 2115
3.139 5.259 1.648 1747
3.145 5.269 1.632 1847
2.992 5.012 1.558 1299
3.002 5.028 1.545 1525
3.144 5.266 1.612 1413
3.004 5.032 1.528 1146
4.010 6.718 1.998 1083
4.017 6.729 1.977 1103
4.092 6.855 2.011 939
4.091 6.853 1.986 1368
3.945 6.608 1.920 1050
4.149 6.950 1.988 1502
3.943 6.606 1.896 1430
4.144 6.941 1.961 1452
4.306 7.213 2.033 1091
4.142 6.939 1.936 1477
4.309 7.218 2.009 1266
4.157 6.964 1.918 1432
4.312 7.223 1.984 1153
4.465 7.480 2.024 1354
4.314 7.227 1.960 1295
4.480 7.504 2.003 1729
4.317 7.232 1.935 1405
4.494 7.529 1.983 1997
4.598 7.702 2.026 1183
4.509 7.553 1.962 2102
4.584 7.680 1.993 1261
4.512 7.558 1.937 1778
4.623 7.744 1.981 1486
4.518 7.569 1.913 1524
4.630 7.756 1.957 1312
4.684 7.847 1.951 1448
4.533 7.593 1.892 1094
4.683 7.845 1.923 2093
4.607 7.718 1.894 911
4.681 7.842 1.895 2154
2.474 4.145 1.062 626
4.684 7.847 1.868 1858
2.476 4.147 1.048 486
4.691 7.858 1.843 1320
2.473 4.143 1.033 419
4.709 7.889 1.822 1319
2.474 4.145 1.019 560
4.704 7.880 1.793 1107
2.472 4.141 1.004 788
2.469 4.136 0.988 1025
4.702 7.877 1.765 822
2.466 4.131 0.973 1073
4.713 7.894 1.741 557
2.467 4.133 0.959 1001
4.715 7.898 1.714 310
2.469 4.135 0.945 741
2.466 4.131 0.930 624
2.463 4.126 0.915 834
2.464 4.128 0.901 911
2.465 4.130 0.887 622
2.458 4.118 0.871 489
2.455 4.113 0.856 595
2.453 4.108 0.841 439
2.446 4.097 0.825 269
2.447 4.098 0.811 287
2.448 4.100 0.797 261
2.453 4.110 0.771 268
1.202 2.004 1.821 2552
1.140 1.900 1.731 386
1.205 2.008 1.814 5104
1.142 1.904 1.725 773
1.220 2.034 1.826 5974
1.158 1.930 1.737 1269
1.223 2.038 1.819 7028
1.160 1.934 1.731 1062
1.229 2.048 1.817 8114
1.166 1.943 1.729 971
1.228 2.047 1.806 6384
1.165 1.942 1.718 726
1.267 2.112 1.849 4702
1.204 2.007 1.762 1608
1.269 2.116 1.842 4702
1.206 2.011 1.755 1608
1.265 2.109 1.826 6715
1.202 2.004 1.740 1090
1.268 2.113 1.819 8837
1.204 2.008 1.733 1200
1.270 2.118 1.812 8673
1.334 2.224 1.898 964
1.276 2.127 1.809 8738
1.340 2.234 1.895 1040
1.279 2.132 1.802 7705
1.343 2.238 1.887 1587
1.285 2.141 1.800 6916
1.349 2.248 1.884 1817
1.287 2.146 1.792 6916
1.351 2.252 1.877 1833
1.293 2.155 1.790 5906
1.357 2.262 1.873 2630
1.316 2.193 1.809 6893
1.380 2.301 1.892 487
1.315 2.192 1.797 7983
1.379 2.299 1.880 1101
1.310 2.185 1.781 9468
1.375 2.292 1.864 2659
1.347 2.246 1.817 9013
1.282 2.138 1.735 1757
1.346 2.244 1.805 8614
1.411 2.352 1.887 775
1.345 2.243 1.794 7442
1.410 2.351 1.875 1282
1.348 2.247 1.786 6312
1.413 2.355 1.867 1592
1.354 2.256 1.783 4745
1.419 2.365 1.864 1350
1.387 2.312 1.813 5024
1.322 2.203 1.733 514
1.389 2.316 1.806 4280
1.324 2.207 1.726 415
1.399 2.332 1.806 3748
1.333 2.223 1.727 647
1.391 2.319 1.786 3538
1.457 2.428 1.865 679
1.432 2.387 1.824 3664
1.366 2.277 1.745 1199
1.431 2.385 1.812 4898
1.365 2.275 1.733 844
1.430 2.383 1.800 6439
1.364 2.273 1.722 504
1.439 2.399 1.800 8110
1.373 2.289 1.722 728
1.442 2.403 1.792 10346
1.508 2.514 1.870 774
1.444 2.407 1.784 10430
1.511 2.518 1.861 893
1.447 2.412 1.776 10514
1.513 2.522 1.853 1011
1.449 2.416 1.768 10788
1.516 2.527 1.844 1183
1.448 2.414 1.756 9886
1.515 2.525 1.832 1801
1.450 2.418 1.748 8845
1.517 2.529 1.823 1903
1.456 2.428 1.744 6125
1.523 2.539 1.819 2599
1.490 2.485 1.771 4192
1.558 2.597 1.846 1402
1.521 2.536 1.794 3877
1.454 2.424 1.720 2739
1.538 2.564 1.801 4439
1.467 2.446 1.723 3087
1.523 2.538 1.773 5889
1.455 2.426 1.700 1829
1.529 2.548 1.769 6929
1.596 2.661 1.842 1315
1.538 2.564 1.768 6675
1.606 2.677 1.841 1826
1.541 2.568 1.759 5020
1.608 2.681 1.832 2997
1.586 2.644 1.796 6878
1.507 2.513 1.713 3320
1.585 2.642 1.784 7103
1.517 2.529 1.712 2380
1.580 2.634 1.767 6807
1.648 2.748 1.839 690
1.579 2.632 1.755 6452
1.647 2.746 1.826 1040
1.578 2.630 1.742 4616
1.646 2.744 1.813 1825
1.591 2.652 1.744 3145
1.659 2.766 1.815 2299
1.590 2.650 1.732 3393
1.662 2.771 1.805 2361
1.675 2.793 1.807 2879
1.596 2.660 1.727 2676
1.681 2.803 1.801 3281
1.613 2.688 1.732 1758
1.677 2.795 1.785 4616
1.608 2.680 1.716 1275
1.668 2.781 1.765 6660
1.599 2.666 1.696 661
1.656 2.761 1.741 6868
1.761 2.937 1.845 864
1.655 2.759 1.728 7014
1.724 2.874 1.796 1221
1.697 2.830 1.758 6400
1.767 2.945 1.825 2059
1.711 2.852 1.759 7170
1.780 2.967 1.826 2802
1.720 2.868 1.756 7877
1.651 2.752 1.690 3024
1.734 2.890 1.757 6336
1.664 2.775 1.691 3103
1.744 2.907 1.754 4126
1.821 3.035 1.827 2722
1.801 3.003 1.796 3016
1.731 2.886 1.731 1605
1.804 3.007 1.786 5664
1.734 2.890 1.721 1079
1.810 3.017 1.779 9180
1.740 2.900 1.715 1431
1.834 3.058 1.789 7860
1.764 2.941 1.725 2607
1.848 3.080 1.789 8292
1.778 2.964 1.725 3231
1.854 3.091 1.782 7029
1.784 2.974 1.719 3079
1.868 3.113 1.782 8090
1.794 2.990 1.715 2639
1.874 3.124 1.774 8514
1.803 3.006 1.712 1703
1.843 3.072 1.735 6028
1.913 3.190 1.796 3026
1.849 3.082 1.727 3575
1.934 3.225 1.802 2960
1.941 3.235 1.794 3988
1.866 3.111 1.730 2240
1.943 3.239 1.783 5978
1.872 3.121 1.723 1758
1.942 3.237 1.769 5910
2.013 3.355 1.830 1686
1.989 3.316 1.796 4325
1.918 3.198 1.736 2027
1.995 3.326 1.788 5152
1.924 3.208 1.729 1733
2.005 3.343 1.783 3600
1.934 3.224 1.724 1290
2.023 3.372 1.785 3273
2.098 3.497 1.846 1048
2.029 3.382 1.776 2719
2.100 3.501 1.835 2298
2.024 3.374 1.759 3195
2.095 3.493 1.817 3071
2.022 3.372 1.745 3307
2.098 3.497 1.805 2204
2.078 3.463 1.775 3028
2.006 3.344 1.718 1566
2.110 3.518 1.788 5873
2.182 3.637 1.844 1626
2.120 3.535 1.782 7920
2.192 3.654 1.838 2579
2.126 3.545 1.773 5988
2.198 3.665 1.829 3084
2.167 3.612 1.790 4626
2.095 3.492 1.734 1795
2.162 3.604 1.772 3804
2.234 3.724 1.827 2013
2.232 3.722 1.812 3307
2.160 3.601 1.757 2951
2.235 3.726 1.799 4999
2.163 3.605 1.745 2782
2.241 3.736 1.789 6282
2.169 3.616 1.736 2148
2.244 3.740 1.777 6494
2.320 3.867 1.833 1751
2.242 3.738 1.762 5616
2.322 3.871 1.820 2527
2.245 3.742 1.749 5609
2.367 3.946 1.838 3233
2.255 3.759 1.742 4808
2.377 3.963 1.830 2980
2.418 4.031 1.844 3323
2.307 3.846 1.765 3172
2.436 4.060 1.841 4117
2.313 3.856 1.754 3144
2.377 3.962 1.784 4465
2.450 4.084 1.835 3162
2.383 3.973 1.774 5192
2.456 4.094 1.824 2031
2.393 3.990 1.766 3418
2.520 4.201 1.853 2438
2.492 4.154 1.818 4176
2.407 4.013 1.760 2634
2.525 4.209 1.824 4403
2.413 4.023 1.749 2513
2.531 4.220 1.813 4515
2.424 4.040 1.741 1892
2.545 4.244 1.806 3646
2.472 4.121 1.758 1704
2.556 4.261 1.797 3622
2.482 4.138 1.749 1922
2.562 4.271 1.785 3248
2.489 4.149 1.737 1471
2.565 4.275 1.771 2600
3.125 5.210 2.131 1302
2.567 4.279 1.756 1559
3.140 5.234 2.121 1051
2.608 4.348 1.766 1735
3.092 5.155 2.072 1277
2.614 4.358 1.754 1267
3.099 5.166 2.057 998
3.160 5.268 2.075 908
3.086 5.145 2.029 865
2.646 4.412 1.741 1068
3.089 5.150 2.012 996
3.100 5.168 1.999 2234
2.649 4.416 1.726 624
3.103 5.172 1.982 6391
3.527 5.879 2.236 491
3.105 5.177 1.965 11722
3.211 5.352 2.027 642
3.108 5.181 1.947 16500
3.217 5.363 2.011 879
3.111 5.186 1.930 21856
3.271 5.453 2.022 1405
3.113 5.190 1.912 24986
3.352 5.588 2.049 2084
3.112 5.188 1.892 26388
3.280 5.468 1.988 2777
3.115 5.193 1.875 27412
3.283 5.473 1.969 3359
3.117 5.197 1.857 25433
3.286 5.478 1.951 2696
3.120 5.201 1.840 22079
3.010 5.018 1.779 2134
3.123 5.205 1.822 15185
3.291 5.487 1.914 1875
3.125 5.210 1.805 6730
3.294 5.491 1.895 2388
3.128 5.214 1.787 2513
3.300 5.502 1.879 1757
3.130 5.218 1.769 1909
3.216 5.362 1.815 704
3.132 5.222 1.752 2353
3.207 5.347 1.791 774
3.135 5.226 1.734 1743
3.210 5.351 1.773 814
3.098 5.164 1.697 1204
3.267 5.447 1.782 865
3.140 5.234 1.699 1141
2.966 4.945 1.612 889
3.142 5.238 1.681 1567
3.020 5.034 1.621 1251
2.970 4.952 1.579 1917
3.144 5.242 1.663 1639
2.973 4.956 1.562 2075
3.150 5.252 1.648 1646
3.157 5.262 1.632 1797
2.975 4.959 1.545 1127
3.155 5.259 1.612 1396
3.012 5.022 1.545 1341
3.015 5.025 1.528 1121
4.025 6.709 1.998 1088
4.039 6.734 1.980 1098
4.114 6.859 2.015 854
4.161 6.937 2.012 1241
4.054 6.758 1.963 1138
4.164 6.941 1.988 1623
3.957 6.597 1.896 1365
4.162 6.939 1.963 1514
4.325 7.211 2.035 1053
4.161 6.937 1.938 1598
4.328 7.215 2.010 1194
4.172 6.955 1.918 1630
4.327 7.213 1.984 1095
4.485 7.477 2.025 1274
4.326 7.211 1.958 1191
4.500 7.501 2.005 1734
4.332 7.222 1.935 1209
4.510 7.519 1.983 2047
4.610 7.685 2.024 1188
4.525 7.544 1.962 2177
4.601 7.670 1.993 1324
4.532 7.555 1.938 1846
4.640 7.734 1.981 1419
4.535 7.559 1.913 1597
4.642 7.739 1.955 1298
4.697 7.830 1.949 2157
4.553 7.590 1.893 1214
4.700 7.835 1.923 2465
4.624 7.708 1.894 899
4.698 7.832 1.895 2318
2.483 4.140 1.062 645
4.697 7.830 1.867 2061
2.489 4.149 1.050 483
4.715 7.861 1.846 1572
2.482 4.137 1.033 394
4.722 7.872 1.821 1706
2.483 4.140 1.019 543
4.725 7.876 1.794 1219
2.481 4.135 1.004 747
2.478 4.131 0.988 926
4.723 7.874 1.766 782
2.475 4.126 0.973 998
4.729 7.884 1.741 584
2.476 4.128 0.959 957
4.732 7.888 1.714 365
2.478 4.130 0.945 683
2.475 4.126 0.930 570
2.472 4.121 0.915 774
2.473 4.123 0.901 807
2.474 4.125 0.887 537
2.467 4.113 0.871 417
2.464 4.108 0.856 482
2.461 4.103 0.841 339
1.203 2.003 1.821 2632
1.141 1.899 1.731 387
1.206 2.007 1.814 5265
1.143 1.903 1.725 775
1.221 2.033 1.826 6041
1.159 1.929 1.737 1305
1.224 2.038 1.819 7095
1.161 1.933 1.731 1056
1.230 2.047 1.817 8170
1.167 1.943 1.729 927
1.229 2.046 1.806 6424
1.166 1.941 1.718 654
1.232 2.050 1.799 4699
1.295 2.155 1.886 559
1.234 2.054 1.792 4699
1.297 2.160 1.879 636
1.263 2.103 1.821 6751
1.200 1.997 1.735 868
1.269 2.113 1.819 8955
1.206 2.007 1.733 1145
1.272 2.117 1.812 8783
1.335 2.223 1.898 944
1.277 2.127 1.809 8748
1.341 2.233 1.895 1029
1.280 2.131 1.802 7650
1.344 2.237 1.887 1553
1.286 2.141 1.800 6748
1.350 2.247 1.884 1778
1.288 2.145 1.792 6748
1.353 2.252 1.877 1797
1.291 2.149 1.785 5768
1.355 2.256 1.869 3030
1.320 2.198 1.813 6440
1.256 2.091 1.730 635
1.320 2.197 1.802 7446
1.384 2.304 1.885 826
1.346 2.241 1.825 9159
1.281 2.133 1.742 2914
1.348 2.245 1.817 8804
1.284 2.137 1.735 1913
1.347 2.243 1.805 8531
1.412 2.351 1.887 771
1.347 2.242 1.794 7354
1.412 2.350 1.875 1265
1.349 2.246 1.786 6214
1.414 2.354 1.867 1565
1.355 2.256 1.783 4831
1.420 2.364 1.864 1298
1.385 2.306 1.809 5151
1.320 2.197 1.729 445
1.391 2.316 1.806 4232
1.325 2.206 1.726 440
1.400 2.331 1.806 3502
1.335 2.222 1.727 547
1.431 2.381 1.832 3215
1.365 2.272 1.753 1680
1.437 2.391 1.828 3318
1.371 2.282 1.749 1155
1.432 2.384 1.812 4612
1.366 2.274 1.733 774
1.431 2.383 1.800 6267
1.365 2.272 1.722 467
1.437 2.392 1.796 7992
1.503 2.503 1.874 636
1.443 2.402 1.792 10298
1.509 2.513 1.870 752
1.446 2.407 1.784 10328
1.512 2.517 1.861 886
1.448 2.411 1.776 10358
1.515 2.522 1.853 1019
1.451 2.415 1.768 10577
1.517 2.526 1.844 1272
1.449 2.413 1.756 9769
1.516 2.524 1.832 1991
1.452 2.417 1.748 8858
1.519 2.528 1.823 2091
1.458 2.427 1.744 6264
1.525 2.539 1.819 2767
1.488 2.478 1.767 4437
1.556 2.590 1.842 1616
1.526 2.541 1.798 4108
1.459 2.429 1.724 3048
1.539 2.563 1.801 4775
1.469 2.445 1.723 2938
1.528 2.543 1.777 6266
1.460 2.431 1.703 2047
1.530 2.547 1.769 7392
1.598 2.660 1.842 1371
1.540 2.563 1.768 7150
1.608 2.676 1.841 1940
1.542 2.567 1.759 5413
1.610 2.680 1.832 3317
1.588 2.643 1.796 7354
1.520 2.530 1.724 3208
1.586 2.641 1.784 7447
1.518 2.528 1.712 2304
1.582 2.633 1.767 7286
1.650 2.747 1.839 742
1.581 2.631 1.755 7056
1.649 2.745 1.826 1074
1.579 2.629 1.742 5037
1.648 2.743 1.813 1841
1.593 2.651 1.744 3127
1.661 2.765 1.815 2278
1.595 2.655 1.736 3186
1.664 2.770 1.805 2323
1.681 2.798 1.811 2860
1.597 2.659 1.727 2542
1.683 2.802 1.801 3236
1.614 2.687 1.732 1738
1.682 2.800 1.788 4450
1.613 2.685 1.720 1503
1.670 2.780 1.765 6185
1.601 2.665 1.696 725
1.658 2.760 1.741 7091
1.727 2.875 1.809 1039
1.657 2.758 1.728 7421
1.726 2.873 1.796 1390
1.699 2.829 1.758 6292
1.768 2.944 1.825 2007
1.712 2.851 1.759 7170
1.782 2.966 1.826 2700
1.722 2.867 1.756 7667
1.653 2.751 1.690 3149
1.732 2.883 1.754 5945
1.662 2.767 1.688 2970
1.745 2.906 1.754 3818
1.822 3.034 1.827 2860
1.803 3.001 1.796 3184
1.733 2.885 1.731 1807
1.805 3.006 1.786 5756
1.735 2.889 1.721 1226
1.812 3.016 1.779 9114
1.742 2.899 1.715 1423
1.836 3.057 1.789 8427
1.766 2.940 1.725 2579
1.850 3.079 1.789 8705
1.780 2.962 1.725 2645
1.856 3.090 1.782 7111
1.786 2.973 1.719 2486
1.873 3.118 1.785 7670
1.795 2.989 1.715 2159
1.879 3.129 1.778 8050
1.809 3.011 1.715 1672
1.845 3.071 1.735 6010
1.915 3.188 1.796 2842
1.851 3.081 1.727 3466
1.940 3.230 1.805 2787
1.946 3.240 1.798 4044
1.864 3.104 1.727 2079
1.945 3.238 1.783 6172
1.874 3.120 1.723 1689
1.947 3.242 1.773 6169
2.018 3.360 1.833 1483
1.954 3.252 1.765 4527
2.025 3.371 1.825 1859
1.997 3.325 1.788 4979
1.926 3.207 1.729 1817
2.003 3.335 1.780 3288
1.932 3.217 1.721 1321
2.025 3.371 1.785 2656
2.096 3.489 1.843 973
2.027 3.375 1.773 2295
2.102 3.500 1.835 2029
2.022 3.366 1.756 3240
2.094 3.485 1.814 2899
2.025 3.370 1.745 3473
2.096 3.489 1.802 2130
2.080 3.462 1.775 3557
2.008 3.343 1.718 1671
2.109 3.510 1.785 5497
2.180 3.630 1.841 1791
2.122 3.533 1.782 7071
2.194 3.653 1.838 2750
2.129 3.544 1.773 5336
2.201 3.663 1.829 3157
2.169 3.611 1.790 4516
2.086 3.472 1.726 1795
2.164 3.602 1.772 3707
2.236 3.722 1.827 1985
2.235 3.720 1.812 3203
2.163 3.600 1.757 2832
2.237 3.724 1.799 4907
2.165 3.604 1.745 2584
2.243 3.735 1.789 6294
2.171 3.614 1.736 1989
2.246 3.739 1.777 6757
2.318 3.859 1.830 2016
2.245 3.737 1.762 6149
2.325 3.870 1.820 2861
2.243 3.734 1.746 6176
2.369 3.944 1.838 3326
2.253 3.751 1.739 5170
2.379 3.961 1.830 2993
2.313 3.851 1.767 3623
2.420 4.029 1.844 3218
2.438 4.059 1.841 4170
2.315 3.855 1.754 3646
2.375 3.955 1.782 4199
2.448 4.076 1.833 3690
2.382 3.965 1.771 5007
2.455 4.086 1.822 2562
2.396 3.988 1.766 3295
2.523 4.199 1.853 2351
2.494 4.152 1.818 3637
2.406 4.005 1.757 2449
2.531 4.214 1.827 4044
2.416 4.022 1.749 2145
2.538 4.225 1.815 4141
2.426 4.039 1.741 1681
2.548 4.242 1.806 3494
2.475 4.120 1.758 1924
2.554 4.253 1.794 3335
2.481 4.130 1.746 1752
2.565 4.270 1.785 2904
2.491 4.147 1.737 1382
2.567 4.274 1.771 2291
3.128 5.208 2.131 1290
2.573 4.284 1.759 1356
3.139 5.226 2.118 991
2.611 4.346 1.766 1679
3.095 5.153 2.072 1167
2.617 4.357 1.754 1270
3.095 5.152 2.052 1023
3.093 5.150 2.032 1058
2.643 4.400 1.754 889
2.649 4.410 1.741 1103
3.166 5.271 2.057 907
3.099 5.159 1.997 1614
3.173 5.282 2.042 863
3.106 5.170 1.982 5154
3.180 5.294 2.026 631
3.109 5.175 1.965 9835
3.214 5.350 2.027 689
3.111 5.180 1.947 13986
3.224 5.368 2.013 906
3.114 5.184 1.930 18592
3.356 5.587 2.070 1350
3.117 5.188 1.912 21372
3.355 5.585 2.049 2148
3.115 5.186 1.892 24253
3.284 5.466 1.988 2917
3.118 5.191 1.875 27369
3.286 5.471 1.969 3622
3.121 5.195 1.857 27601
3.011 5.012 1.796 3248
3.123 5.199 1.840 25656
3.013 5.016 1.779 2621
3.126 5.204 1.822 18373
3.295 5.485 1.914 1990
3.132 5.214 1.807 8808
3.301 5.496 1.897 2677
3.135 5.218 1.789 3464
3.304 5.500 1.879 1960
3.137 5.223 1.771 2351
3.220 5.360 1.815 770
3.140 5.227 1.754 2675
3.214 5.351 1.793 798
3.138 5.224 1.734 2088
3.213 5.349 1.773 819
3.140 5.228 1.716 1300
3.271 5.445 1.782 889
3.147 5.239 1.701 1163
3.265 5.436 1.760 875
3.094 5.150 1.656 1484
3.019 5.025 1.619 1049
2.973 4.950 1.579 1880
3.088 5.141 1.635 1555
2.972 4.947 1.560 2021
3.086 5.138 1.615 1375
3.160 5.260 1.632 1582
3.085 5.135 1.596 1228
3.115 5.185 1.592 1477
3.019 5.027 1.547 1334
4.029 6.707 1.998 1145
3.018 5.024 1.528 1101
4.047 6.738 1.982 1118
4.158 6.923 2.033 874
4.165 6.934 2.012 1334
4.054 6.749 1.961 1244
4.168 6.939 1.988 1733
3.961 6.595 1.896 1224
4.167 6.937 1.963 1552
4.330 7.208 2.035 1021
4.165 6.935 1.938 1662
4.333 7.213 2.010 1152
4.176 6.952 1.918 1830
4.335 7.217 1.986 1110
4.179 6.957 1.894 1383
4.330 7.209 1.958 1191
4.504 7.498 2.005 1692
4.333 7.213 1.934 1128
4.515 7.516 1.983 2080
4.611 7.676 2.022 1167
4.530 7.541 1.962 2214
4.606 7.667 1.993 1385
4.536 7.552 1.938 1835
4.640 7.725 1.980 1408
4.539 7.557 1.913 1563
4.639 7.723 1.952 1393
4.702 7.827 1.949 2016
4.562 7.594 1.895 1303
4.704 7.832 1.923 2708
4.628 7.705 1.894 905
4.703 7.829 1.895 2770
2.486 4.138 1.062 694
4.706 7.834 1.868 2507
2.491 4.147 1.050 487
4.716 7.851 1.844 1889
2.488 4.143 1.034 348
4.723 7.862 1.819 2133
2.490 4.145 1.020 537
4.725 7.867 1.793 1672
2.483 4.134 1.004 726
4.728 7.871 1.766 953
2.480 4.129 0.988 831
2.478 4.125 0.973 883
4.734 7.881 1.741 605
2.479 4.127 0.959 838
4.737 7.885 1.714 380
2.480 4.129 0.945 579
4.739 7.889 1.687 258
2.477 4.124 0.930 513
2.478 4.126 0.916 687
2.476 4.121 0.901 663
2.477 4.123 0.887 425
2.470 4.111 0.871 325
2.467 4.107 0.856 345
1.205 2.002 1.821 2695
1.143 1.898 1.731 374
1.208 2.006 1.814 5390
1.145 1.902 1.725 749
1.224 2.032 1.826 6089
1.161 1.928 1.737 1260
1.226 2.036 1.819 7176
1.163 1.932 1.731 1006
1.229 2.041 1.812 8263
1.166 1.936 1.725 752
1.231 2.045 1.806 6513
1.168 1.940 1.718 624
1.234 2.049 1.799 4764
1.297 2.154 1.886 628
1.236 2.053 1.792 4764
1.300 2.158 1.879 726
1.265 2.102 1.821 6799
1.202 1.996 1.735 849
1.268 2.106 1.814 9122
1.204 2.000 1.728 851
1.274 2.116 1.812 8971
1.338 2.222 1.898 929
1.280 2.125 1.809 8969
1.344 2.232 1.895 1013
1.282 2.130 1.802 7832
1.346 2.236 1.887 1515
1.288 2.139 1.800 6891
1.352 2.246 1.884 1729
1.291 2.143 1.792 6891
1.355 2.250 1.877 1755
1.293 2.148 1.785 5785
1.357 2.255 1.869 2998
1.323 2.197 1.813 6165
1.258 2.090 1.730 712
1.342 2.229 1.828 7157
1.278 2.122 1.745 2999
1.348 2.239 1.825 8903
1.283 2.132 1.742 3002
1.351 2.243 1.817 8619
1.286 2.136 1.735 1958
1.350 2.242 1.805 8458
1.415 2.350 1.887 737
1.349 2.240 1.794 7266
1.414 2.349 1.875 1205
1.351 2.244 1.786 6095
1.417 2.353 1.867 1478
1.357 2.254 1.783 4865
1.423 2.363 1.864 1241
1.387 2.304 1.809 5218
1.322 2.195 1.729 584
1.390 2.308 1.802 4217
1.456 2.417 1.882 422
1.406 2.336 1.811 3299
1.340 2.226 1.731 650
1.433 2.380 1.832 3032
1.367 2.271 1.753 1588
1.439 2.390 1.828 2988
1.373 2.280 1.749 923
1.431 2.377 1.808 4393
1.365 2.267 1.729 596
1.430 2.375 1.796 6146
1.496 2.485 1.874 405
1.440 2.391 1.796 7860
1.506 2.501 1.874 615
1.446 2.401 1.792 10157
1.379 2.290 1.715 731
1.448 2.405 1.784 10044
1.515 2.516 1.861 860
1.451 2.409 1.776 9931
1.517 2.520 1.853 996
1.453 2.413 1.768 10210
1.520 2.524 1.844 1308
1.452 2.411 1.756 9605
1.519 2.523 1.832 2077
1.454 2.415 1.748 8788
1.521 2.527 1.823 2174
1.460 2.425 1.744 6324
1.527 2.537 1.819 2832
1.473 2.447 1.747 4501
1.541 2.559 1.822 3134
1.533 2.545 1.802 4258
1.465 2.433 1.727 3216
1.531 2.544 1.790 5050
1.464 2.431 1.715 2350
1.530 2.542 1.777 6658
1.463 2.429 1.703 1771
1.533 2.546 1.769 7876
1.601 2.658 1.842 1443
1.539 2.556 1.764 7570
1.607 2.669 1.837 2188
1.545 2.566 1.759 5626
1.613 2.679 1.832 3659
1.590 2.641 1.796 7661
1.511 2.510 1.713 2963
1.589 2.639 1.784 7695
1.521 2.526 1.712 2105
1.584 2.632 1.767 7538
1.653 2.745 1.839 797
1.580 2.624 1.751 7347
1.652 2.743 1.826 1140
1.582 2.628 1.742 5253
1.651 2.742 1.813 1851
1.595 2.650 1.744 3255
1.664 2.764 1.815 2270
1.598 2.654 1.736 3304
1.670 2.774 1.809 2336
1.683 2.796 1.811 2879
1.600 2.658 1.727 2579
1.690 2.806 1.805 3170
1.621 2.692 1.736 1872
1.685 2.798 1.788 4268
1.616 2.684 1.720 1586
1.669 2.772 1.761 5758
1.600 2.657 1.693 738
1.661 2.758 1.741 7152
1.730 2.873 1.809 1547
1.659 2.756 1.728 7523
1.729 2.871 1.796 1971
1.702 2.827 1.758 6156
1.771 2.942 1.825 1987
1.715 2.849 1.759 7025
1.785 2.965 1.826 2603
1.725 2.865 1.756 7178
1.656 2.750 1.690 3063
1.731 2.875 1.750 5474
1.662 2.760 1.684 2655
1.752 2.910 1.758 3558
1.822 3.026 1.823 3074
1.806 3.000 1.796 3484
1.736 2.883 1.731 2263
1.808 3.004 1.786 6222
1.738 2.887 1.721 1793
1.815 3.014 1.779 9778
1.745 2.897 1.715 1791
1.839 3.055 1.789 9274
1.769 2.938 1.725 2636
1.853 3.077 1.789 9258
1.783 2.961 1.725 1992
1.859 3.088 1.782 7400
1.789 2.971 1.719 1795
1.876 3.116 1.785 7521
1.798 2.987 1.715 1609
1.883 3.127 1.778 7772
1.953 3.244 1.840 1308
1.848 3.069 1.735 6155
1.919 3.186 1.796 2574
1.854 3.079 1.727 3512
1.943 3.228 1.805 2736
1.950 3.238 1.798 3933
1.860 3.089 1.720 2077
1.948 3.236 1.783 5889
1.877 3.118 1.723 1766
1.951 3.240 1.773 5874
2.022 3.358 1.833 1565
2.006 3.331 1.806 4374
1.935 3.213 1.746 2877
2.001 3.323 1.788 4830
1.929 3.205 1.729 1939
2.007 3.333 1.780 3167
1.936 3.215 1.721 1502
2.028 3.369 1.785 2189
1.942 3.225 1.713 924
2.023 3.360 1.767 2100
2.102 3.491 1.832 1759
2.022 3.358 1.753 3581
2.093 3.477 1.811 2754
2.024 3.362 1.741 3985
2.096 3.481 1.799 2353
2.083 3.460 1.775 3927
2.012 3.341 1.718 1919
2.112 3.508 1.785 5156
2.184 3.627 1.841 1855
2.126 3.531 1.782 6408
2.198 3.651 1.838 2879
2.132 3.541 1.773 4866
2.204 3.661 1.829 3247
2.176 3.615 1.793 4288
2.085 3.464 1.723 1853
2.168 3.600 1.772 3429
2.240 3.720 1.827 1914
2.239 3.718 1.812 3037
2.166 3.598 1.757 2702
2.241 3.722 1.799 4636
2.169 3.602 1.745 2466
2.247 3.733 1.789 5821
2.175 3.612 1.736 1868
2.250 3.737 1.777 6476
2.322 3.857 1.830 2366
2.248 3.734 1.762 6157
2.325 3.861 1.817 3383
2.251 3.738 1.749 6053
2.354 3.910 1.824 3465
2.257 3.749 1.739 5015
2.383 3.959 1.830 2916
2.317 3.848 1.767 3973
2.421 4.020 1.841 3104
2.442 4.056 1.841 4091
2.323 3.859 1.757 3978
2.372 3.939 1.776 4195
2.445 4.061 1.827 3881
2.386 3.963 1.771 4832
2.459 4.084 1.822 2612
2.450 4.069 1.800 3220
2.531 4.203 1.855 2261
2.495 4.143 1.815 3317
2.410 4.003 1.757 2272
2.536 4.212 1.827 3728
2.416 4.013 1.746 1864
2.542 4.222 1.815 3873
2.430 4.036 1.741 1445
2.549 4.233 1.804 3348
2.475 4.111 1.755 1651
2.559 4.250 1.794 3000
2.485 4.128 1.746 1740
2.569 4.267 1.785 2492
2.495 4.145 1.737 1355
2.572 4.271 1.771 1886
3.134 5.205 2.131 1227
2.578 4.282 1.759 1155
3.144 5.223 2.118 870
2.619 4.350 1.769 1610
3.097 5.144 2.069 988
2.625 4.361 1.756 1245
3.100 5.148 2.052 1046
3.103 5.153 2.034 1227
2.651 4.403 1.756 984
2.654 4.407 1.741 1184
3.102 5.151 2.015 1111
3.101 5.150 1.995 1295
3.175 5.273 2.039 1018
3.111 5.167 1.982 3867
3.185 5.290 2.026 717
3.114 5.172 1.965 7786
3.223 5.353 2.029 609
3.117 5.176 1.947 11148
3.230 5.365 2.013 899
3.119 5.181 1.930 14833
3.362 5.584 2.070 1338
3.118 5.179 1.910 17458
3.365 5.589 2.051 2104
3.121 5.183 1.892 22114
3.007 4.994 1.828 2872
3.123 5.188 1.875 27336
3.014 5.005 1.813 4124
3.130 5.198 1.859 29434
3.016 5.009 1.796 3816
3.129 5.196 1.840 28422
3.019 5.013 1.779 3103
3.131 5.200 1.822 20708
3.300 5.481 1.914 2029
3.138 5.211 1.807 10319
3.307 5.492 1.897 2864
3.140 5.215 1.789 4283
3.309 5.497 1.879 2099
3.146 5.226 1.774 2812
3.229 5.363 1.817 830
3.145 5.223 1.754 2994
3.220 5.348 1.793 899
3.147 5.227 1.736 2412
3.222 5.352 1.775 866
3.146 5.225 1.716 1471
3.276 5.441 1.782 924
3.152 5.235 1.701 1144
3.271 5.432 1.760 896
3.099 5.147 1.656 1395
2.976 4.943 1.595 1018
2.979 4.947 1.579 1796
3.097 5.144 1.636 1524
2.977 4.944 1.560 1857
3.096 5.142 1.617 1466
3.106 5.158 1.604 1798
2.983 4.954 1.545 1029
3.116 5.175 1.590 1579
3.025 5.024 1.547 1218
4.036 6.703 1.998 1111
3.023 5.020 1.528 1075
4.058 6.740 1.984 1082
4.165 6.918 2.033 861
4.172 6.930 2.012 1363
4.061 6.745 1.961 1309
4.175 6.934 1.988 1782
4.056 6.736 1.935 1314
4.174 6.932 1.963 1571
4.058 6.740 1.912 1034
4.177 6.937 1.939 1688
4.340 7.208 2.010 1129
4.183 6.948 1.918 1967
4.343 7.213 1.986 1163
4.186 6.952 1.894 1546
4.338 7.204 1.958 1218
4.512 7.494 2.005 1684
4.189 6.957 1.871 1136
4.527 7.518 1.985 2065
4.619 7.671 2.022 1149
4.538 7.536 1.962 2195
4.613 7.662 1.993 1350
4.544 7.547 1.938 1782
4.624 7.680 1.970 1411
4.551 7.559 1.914 1474
4.643 7.711 1.950 1448
4.706 7.816 1.948 1972
4.574 7.596 1.896 1367
4.712 7.827 1.923 2566
4.604 7.647 1.881 974
4.711 7.825 1.895 2870
2.490 4.136 1.062 681
4.710 7.822 1.867 2674
2.495 4.144 1.050 441
4.728 7.853 1.846 1829
2.493 4.140 1.034 333
4.731 7.857 1.819 2158
2.494 4.142 1.020 549
4.729 7.855 1.791 1832
2.487 4.131 1.004 659
4.732 7.859 1.765 1047
2.485 4.127 0.988 685
2.486 4.129 0.974 726
4.742 7.876 1.741 634
2.487 4.131 0.961 675
4.745 7.880 1.714 434
2.484 4.126 0.945 452
4.751 7.891 1.689 327
2.481 4.121 0.930 441
2.483 4.123 0.916 585
2.480 4.119 0.901 527
2.481 4.121 0.887 339
2.474 4.109 0.871 264
2.471 4.104 0.856 252
1.208 2.000 1.821 2780
1.145 1.897 1.731 397
1.211 2.004 1.814 5561
1.148 1.901 1.725 795
1.223 2.025 1.821 6159
1.160 1.921 1.733 1329
1.229 2.035 1.819 7289
1.166 1.930 1.731 1059
1.231 2.039 1.812 8426
1.168 1.934 1.725 713
1.234 2.043 1.806 6663
1.171 1.938 1.718 557
1.240 2.053 1.803 4931
1.303 2.158 1.890 727
1.242 2.057 1.796 4931
1.306 2.162 1.883 864
1.265 2.094 1.817 6918
1.201 1.989 1.731 692
1.271 2.104 1.814 9378
1.207 1.998 1.728 860
1.277 2.114 1.812 9179
1.341 2.220 1.898 883
1.279 2.118 1.805 9147
1.343 2.224 1.890 1211
1.285 2.128 1.802 7829
1.349 2.234 1.887 1426
1.291 2.138 1.800 6685
1.355 2.244 1.884 1627
1.293 2.142 1.792 6685
1.358 2.248 1.877 1654
1.296 2.146 1.785 5673
1.361 2.253 1.869 2868
1.326 2.195 1.813 5900
1.261 2.088 1.730 751
1.345 2.227 1.828 6904
1.280 2.120 1.745 3055
1.351 2.237 1.825 8578
1.286 2.130 1.742 3085
1.354 2.241 1.817 8398
1.289 2.134 1.735 2013
1.353 2.240 1.805 8358
1.418 2.348 1.887 707
1.352 2.238 1.794 7150
1.417 2.347 1.875 1142
1.354 2.243 1.786 5962
1.420 2.351 1.867 1390
1.364 2.258 1.787 4851
1.429 2.367 1.868 927
1.390 2.302 1.809 5264
1.325 2.194 1.729 779
1.393 2.306 1.802 4253
1.327 2.197 1.721 511
1.392 2.305 1.790 3266
1.458 2.414 1.869 822
1.436 2.378 1.832 2844
1.370 2.269 1.753 1469
1.442 2.388 1.828 2659
1.376 2.278 1.749 772
1.434 2.375 1.808 4210
1.368 2.265 1.729 563
1.433 2.373 1.796 6091
1.500 2.483 1.874 369
1.443 2.389 1.796 7603
1.509 2.499 1.874 577
1.449 2.399 1.792 9782
1.382 2.289 1.715 738
1.451 2.403 1.784 9566
1.518 2.514 1.861 836
1.454 2.407 1.776 9351
1.521 2.518 1.853 987
1.456 2.411 1.768 9710
1.523 2.522 1.844 1347
1.459 2.415 1.760 9387
1.526 2.526 1.836 1708
1.461 2.419 1.752 8706
1.528 2.531 1.827 2000
1.464 2.423 1.744 6362
1.531 2.535 1.819 2880
1.477 2.445 1.747 4771
1.544 2.557 1.822 3148
1.536 2.543 1.802 4469
1.468 2.431 1.727 3198
1.539 2.547 1.793 5469
1.471 2.435 1.719 2377
1.534 2.540 1.777 7018
1.466 2.427 1.703 1681
1.536 2.544 1.769 8215
1.604 2.656 1.842 1528
1.542 2.554 1.764 7856
1.610 2.666 1.837 2264
1.548 2.564 1.759 5799
1.616 2.676 1.832 3807
1.594 2.639 1.796 7805
1.515 2.508 1.713 3008
1.593 2.637 1.784 7922
1.524 2.524 1.712 2118
1.584 2.623 1.763 7879
1.653 2.737 1.835 817
1.583 2.622 1.751 7713
1.655 2.741 1.826 1164
1.586 2.626 1.742 5588
1.654 2.739 1.813 1835
1.599 2.648 1.744 3423
1.668 2.761 1.815 2223
1.601 2.652 1.736 3401
1.674 2.772 1.809 2356
1.684 2.788 1.807 2880
1.607 2.662 1.730 2586
1.693 2.804 1.805 3076
1.624 2.690 1.736 2078
1.689 2.796 1.788 4132
1.620 2.681 1.720 1738
1.669 2.764 1.757 5451
1.739 2.879 1.826 824
1.664 2.756 1.741 7074
1.734 2.871 1.809 1900
1.663 2.754 1.728 7451
1.733 2.869 1.796 2337
1.673 2.770 1.726 5943
1.742 2.885 1.793 2799
1.723 2.853 1.762 6928
1.653 2.737 1.696 2791
1.729 2.863 1.756 7100
1.659 2.747 1.690 3020
1.732 2.867 1.747 5460
1.662 2.751 1.681 2267
1.760 2.914 1.761 3776
1.830 3.030 1.827 3169
1.814 3.003 1.799 3736
1.744 2.887 1.734 2689
1.813 3.001 1.786 6578
1.742 2.885 1.721 2231
1.815 3.005 1.776 10106
1.745 2.889 1.711 1885
1.843 3.052 1.789 9519
1.773 2.936 1.725 2669
1.853 3.069 1.786 9583
1.783 2.952 1.722 1253
1.860 3.079 1.779 7481
1.789 2.962 1.715 1075
1.881 3.114 1.785 7351
1.806 2.991 1.719 1165
1.887 3.124 1.778 7450
1.816 3.007 1.715 1295
1.852 3.066 1.735 6461
1.923 3.184 1.796 2486
1.854 3.070 1.724 3514
1.948 3.225 1.805 2619
1.954 3.235 1.798 3666
1.864 3.087 1.720 1865
1.953 3.233 1.783 5413
1.882 3.115 1.723 1778
1.955 3.237 1.773 5591
2.026 3.355 1.833 1627
2.010 3.328 1.806 4883
1.939 3.210 1.746 2960
2.009 3.326 1.792 4875
1.938 3.208 1.732 2126
2.011 3.330 1.780 3177
1.940 3.212 1.721 1572
2.021 3.347 1.775 2140
1.946 3.222 1.713 1016
2.024 3.351 1.764 2047
2.099 3.476 1.825 1486
2.026 3.355 1.753 3487
2.098 3.474 1.811 2589
2.029 3.359 1.741 3981
2.101 3.478 1.799 2353
2.088 3.457 1.775 3844
2.016 3.338 1.718 1983
2.113 3.499 1.782 4957
2.185 3.618 1.838 1955
2.131 3.528 1.782 6003
2.203 3.648 1.838 3015
2.183 3.614 1.808 4846
2.111 3.495 1.752 2414
2.181 3.612 1.793 4130
2.090 3.461 1.723 1881
2.173 3.597 1.772 3214
2.245 3.717 1.827 1958
2.244 3.715 1.812 3098
2.171 3.595 1.757 2467
2.246 3.719 1.799 4537
2.174 3.599 1.745 2099
2.252 3.729 1.789 5534
2.180 3.609 1.736 1591
2.255 3.734 1.777 6244
2.328 3.854 1.830 2506
2.254 3.731 1.762 6061
2.330 3.858 1.817 3495
2.252 3.729 1.746 5948
2.360 3.907 1.824 3513
2.258 3.739 1.736 4878
2.335 3.866 1.791 2987
2.326 3.851 1.770 4145
2.422 4.010 1.838 3015
2.329 3.856 1.757 4069
2.448 4.053 1.841 3792
2.377 3.936 1.776 4282
2.450 4.057 1.827 3541
2.391 3.959 1.771 4822
2.464 4.081 1.822 2548
2.455 4.066 1.800 3317
2.536 4.200 1.855 2125
2.470 4.089 1.794 3148
2.543 4.210 1.844 2494
2.538 4.202 1.824 3442
2.422 4.010 1.746 1694
2.548 4.219 1.815 3556
2.440 4.039 1.743 1396
2.551 4.223 1.801 3168
2.477 4.101 1.753 1305
2.565 4.246 1.794 2632
2.491 4.124 1.746 1671
2.575 4.263 1.785 2080
2.501 4.141 1.737 1407
2.527 4.184 1.738 1574
3.141 5.200 2.131 1139
2.588 4.284 1.761 949
3.148 5.212 2.116 744
2.625 4.346 1.769 1538
3.096 5.126 2.064 920
2.635 4.363 1.759 1277
3.103 5.138 2.049 1080
3.110 5.149 2.034 1382
2.653 4.393 1.754 1018
3.113 5.154 2.017 1447
2.660 4.404 1.741 1198
3.112 5.152 1.997 1264
3.186 5.275 2.042 1140
3.118 5.163 1.982 2881
3.193 5.286 2.026 845
3.121 5.167 1.965 5924
3.195 5.291 2.008 675
3.124 5.172 1.947 8516
3.237 5.360 2.013 863
3.123 5.170 1.927 11454
3.373 5.586 2.072 1262
3.125 5.174 1.910 14243
3.372 5.584 2.051 1967
3.128 5.179 1.892 20434
3.014 4.990 1.828 3070
3.130 5.183 1.875 27363
3.020 5.001 1.813 4463
3.137 5.194 1.859 30779
3.023 5.005 1.796 4186
3.136 5.192 1.840 30214
3.025 5.009 1.779 3352
3.138 5.196 1.822 22119
3.028 5.013 1.762 2125
3.145 5.207 1.807 11166
3.314 5.488 1.897 2787
3.147 5.211 1.789 4717
3.317 5.492 1.879 2045
3.154 5.222 1.774 3061
3.237 5.359 1.817 895
3.152 5.219 1.754 3115
3.227 5.343 1.793 952
3.155 5.223 1.736 2492
3.230 5.348 1.775 812
3.157 5.227 1.718 1550
3.288 5.443 1.784 884
3.159 5.231 1.701 1056
3.084 5.106 1.663 974
3.106 5.143 1.656 1345
3.277 5.425 1.740 911
2.985 4.943 1.579 1558
3.104 5.140 1.636 1461
2.984 4.940 1.560 1753
3.103 5.137 1.617 1492
3.113 5.154 1.604 1937
3.037 5.029 1.568 1158
3.119 5.164 1.588 1644
3.036 5.026 1.549 1216
4.045 6.697 1.998 1160
3.030 5.016 1.528 989
4.067 6.735 1.984 1058
4.175 6.913 2.033 852
4.182 6.924 2.012 1343
4.070 6.739 1.961 1340
4.185 6.929 1.988 1780
4.065 6.730 1.935 1377
4.187 6.933 1.965 1585
4.068 6.735 1.912 1056
4.186 6.931 1.939 1695
4.350 7.202 2.010 1081
4.193 6.942 1.918 2041
4.353 7.207 1.986 1174
4.195 6.947 1.894 1680
4.347 7.198 1.958 1261
4.522 7.488 2.005 1640
4.198 6.951 1.871 1252
4.537 7.512 1.985 2050
4.629 7.665 2.022 1167
4.548 7.530 1.962 2121
4.628 7.663 1.995 1415
4.555 7.541 1.938 1704
4.639 7.681 1.972 1606
4.654 7.705 1.950 1583
4.561 7.552 1.914 1446
4.716 7.809 1.948 2081
4.584 7.590 1.896 1442
4.719 7.814 1.921 2696
4.615 7.641 1.881 976
4.722 7.818 1.895 3010
4.625 7.658 1.859 705
4.720 7.816 1.867 2812
2.501 4.141 1.050 433
4.739 7.847 1.846 1862
2.498 4.137 1.034 315
4.742 7.851 1.819 2153
2.500 4.139 1.020 492
4.740 7.848 1.791 1908
2.493 4.128 1.004 565
4.743 7.853 1.765 1102
2.490 4.123 0.988 582
4.753 7.870 1.741 648
2.492 4.125 0.974 637
2.493 4.127 0.961 598
4.752 7.867 1.713 494
2.490 4.123 0.945 393
4.758 7.878 1.687 374
2.487 4.118 0.930 383
2.488 4.120 0.916 505
2.485 4.115 0.901 442
2.491 4.124 0.888 273
1.212 1.998 1.821 2889
1.149 1.894 1.731 424
1.215 2.002 1.814 5779
1.152 1.898 1.725 849
1.227 2.023 1.821 6296
1.164 1.919 1.733 1445
1.233 2.032 1.819 7426
1.170 1.928 1.731 1116
1.236 2.036 1.812 8599
1.172 1.932 1.725 692
1.241 2.046 1.810 6809
1.178 1.941 1.723 578
1.244 2.050 1.803 5083
1.308 2.155 1.890 842
1.246 2.054 1.796 5083
1.310 2.160 1.883 985
1.269 2.092 1.817 7297
1.205 1.987 1.731 666
1.275 2.102 1.814 9813
1.211 1.996 1.728 825
1.281 2.111 1.812 9478
1.345 2.217 1.898 867
1.283 2.115 1.805 9410
1.348 2.221 1.890 1189
1.289 2.125 1.802 7893
1.354 2.231 1.887 1358
1.295 2.135 1.800 6706
1.360 2.241 1.884 1525
1.298 2.139 1.792 6706
1.362 2.246 1.877 1554
1.300 2.143 1.785 5662
1.365 2.250 1.869 2732
1.330 2.192 1.813 5815
1.265 2.085 1.730 780
1.350 2.225 1.828 6681
1.285 2.117 1.745 2960
1.356 2.235 1.825 8279
1.291 2.127 1.742 2995
1.358 2.239 1.817 8091
1.293 2.131 1.735 1952
1.357 2.237 1.805 8032
1.423 2.345 1.887 667
1.360 2.241 1.798 6813
1.425 2.349 1.880 808
1.359 2.240 1.786 5623
1.425 2.348 1.867 1300
1.368 2.255 1.787 4767
1.434 2.364 1.868 880
1.395 2.299 1.809 5139
1.329 2.191 1.729 942
1.394 2.298 1.797 4173
1.460 2.407 1.877 548
1.393 2.296 1.785 3220
1.459 2.405 1.865 1043
1.438 2.369 1.828 2758
1.371 2.260 1.748 1228
1.440 2.374 1.820 2366
1.374 2.264 1.741 684
1.436 2.366 1.804 4066
1.369 2.257 1.725 430
1.435 2.365 1.792 5823
1.501 2.474 1.870 413
1.448 2.386 1.796 7130
1.381 2.276 1.718 590
1.454 2.396 1.792 9180
1.387 2.286 1.715 763
1.456 2.400 1.784 8854
1.523 2.511 1.861 796
1.462 2.410 1.780 8594
1.395 2.299 1.703 952
1.461 2.408 1.768 9081
1.528 2.519 1.844 1376
1.464 2.412 1.760 9159
1.531 2.523 1.836 1800
1.466 2.416 1.752 8683
1.534 2.528 1.827 2090
1.472 2.426 1.748 6418
1.540 2.538 1.823 2969
1.485 2.448 1.751 4960
1.553 2.559 1.826 2947
1.541 2.540 1.802 4708
1.473 2.428 1.727 3051
1.544 2.544 1.793 5855
1.476 2.432 1.719 2008
1.539 2.537 1.777 7153
1.471 2.424 1.703 1398
1.541 2.541 1.769 8256
1.610 2.653 1.842 1581
1.551 2.557 1.768 7971
1.619 2.669 1.841 2241
1.554 2.561 1.759 5989
1.622 2.673 1.832 3917
1.599 2.636 1.796 7921
1.531 2.523 1.724 2935
1.598 2.634 1.784 8078
1.530 2.521 1.712 2144
1.590 2.620 1.763 8075
1.662 2.739 1.839 806
1.589 2.618 1.751 7953
1.661 2.738 1.826 1127
1.591 2.622 1.742 5899
1.660 2.736 1.813 1783
1.604 2.644 1.744 3706
1.673 2.758 1.815 2159
1.607 2.648 1.736 3622
1.680 2.768 1.809 2380
1.638 2.700 1.756 2972
1.708 2.814 1.825 2114
1.655 2.728 1.761 3115
1.725 2.843 1.830 880
1.694 2.793 1.788 4059
1.625 2.678 1.720 1808
1.671 2.755 1.754 5326
1.741 2.869 1.822 1236
1.670 2.752 1.741 6890
1.740 2.867 1.809 2464
1.672 2.756 1.732 7193
1.742 2.871 1.799 2749
1.678 2.766 1.726 5834
1.748 2.882 1.793 3575
1.729 2.849 1.762 7001
1.659 2.734 1.696 2716
1.735 2.859 1.756 7072
1.665 2.744 1.690 3029
1.759 2.900 1.767 5613
1.689 2.784 1.701 4389
1.766 2.910 1.761 4326
1.836 3.026 1.827 3366
1.824 3.006 1.803 3827
1.753 2.890 1.738 3318
1.819 2.998 1.786 6699
1.748 2.881 1.721 2699
1.817 2.996 1.772 10533
1.747 2.879 1.708 1930
1.850 3.049 1.789 9915
1.779 2.932 1.725 3019
1.860 3.065 1.786 9795
1.789 2.948 1.722 1143
1.866 3.075 1.779 7586
1.937 3.192 1.842 885
1.887 3.110 1.785 7115
1.958 3.227 1.848 1134
1.893 3.120 1.778 7316
1.964 3.237 1.840 1265
1.858 3.063 1.735 6816
1.929 3.180 1.796 2501
1.861 3.067 1.724 3743
1.951 3.215 1.802 2530
1.957 3.225 1.794 3453
1.871 3.083 1.720 2174
1.963 3.236 1.787 4914
1.892 3.118 1.726 2056
1.962 3.233 1.773 5093
2.033 3.351 1.833 1675
2.017 3.324 1.806 5221
1.945 3.206 1.746 2927
2.016 3.322 1.792 4744
1.944 3.204 1.732 2082
2.018 3.326 1.780 3113
1.946 3.208 1.721 1612
2.028 3.343 1.775 2312
1.956 3.225 1.717 1190
2.031 3.347 1.764 2123
2.103 3.466 1.822 1284
2.037 3.357 1.756 3308
2.109 3.476 1.814 2294
2.036 3.355 1.741 3728
2.108 3.474 1.799 2534
2.099 3.459 1.778 4042
2.027 3.340 1.721 2114
2.101 3.463 1.767 5126
2.174 3.582 1.823 2376
2.138 3.524 1.782 5398
2.210 3.643 1.838 3140
2.190 3.610 1.808 5024
2.118 3.490 1.752 2272
2.193 3.614 1.796 4113
2.120 3.494 1.740 2174
2.180 3.593 1.772 3005
2.252 3.712 1.827 1914
2.247 3.704 1.809 3053
2.175 3.584 1.754 2266
2.250 3.708 1.796 4468
2.177 3.588 1.742 1836
2.260 3.725 1.789 5365
2.187 3.605 1.736 1376
2.262 3.729 1.777 6079
2.335 3.849 1.830 2667
2.261 3.727 1.762 5930
2.338 3.853 1.817 3675
2.260 3.724 1.746 5790
2.364 3.896 1.821 3532
2.266 3.735 1.736 4799
2.347 3.868 1.794 3228
2.342 3.859 1.776 4183
2.426 3.999 1.836 3131
2.336 3.851 1.757 3995
2.456 4.048 1.841 3565
2.381 3.925 1.774 4572
2.462 4.059 1.830 3190
2.399 3.954 1.771 4859
2.473 4.076 1.822 2310
2.468 4.067 1.803 3269
2.394 3.946 1.752 2246
2.478 4.084 1.794 3326
2.551 4.205 1.844 2314
2.542 4.190 1.822 3249
2.469 4.069 1.772 1674
2.557 4.214 1.815 3315
2.448 4.034 1.743 1478
2.559 4.218 1.801 3042
2.485 4.096 1.753 1167
2.569 4.235 1.792 2280
2.495 4.113 1.744 1287
2.529 4.168 1.750 1959
3.144 5.183 2.146 1194
2.535 4.179 1.738 1722
3.151 5.194 2.131 1022
2.631 4.337 1.783 850
3.092 5.096 2.074 641
2.634 4.341 1.769 1481
3.099 5.107 2.059 933
2.644 4.358 1.759 1206
3.109 5.125 2.047 1102
3.120 5.143 2.034 1476
2.666 4.394 1.756 1031
3.123 5.147 2.017 1714
2.669 4.398 1.741 1236
3.122 5.146 1.997 1509
3.196 5.268 2.042 1208
3.133 5.163 1.984 2354
3.207 5.286 2.029 766
3.131 5.161 1.965 4286
3.206 5.284 2.008 775
3.134 5.166 1.947 6003
3.248 5.354 2.013 841
3.133 5.164 1.927 8446
3.385 5.579 2.072 1249
3.136 5.168 1.910 11704
3.384 5.577 2.051 1879
3.138 5.173 1.892 19352
3.024 4.984 1.828 3197
3.145 5.183 1.877 27434
3.030 4.995 1.813 4677
3.147 5.188 1.859 31513
3.033 4.999 1.796 4426
3.146 5.185 1.840 30934
3.035 5.003 1.779 3564
3.149 5.190 1.822 22519
3.038 5.007 1.762 2259
3.155 5.200 1.807 11223
3.325 5.481 1.897 2767
3.158 5.205 1.789 4567
3.328 5.485 1.879 2048
3.164 5.215 1.774 2996
3.041 5.013 1.709 949
3.163 5.213 1.754 3107
3.238 5.337 1.793 965
3.165 5.217 1.736 2458
3.241 5.341 1.775 797
3.167 5.221 1.718 1518
3.092 5.096 1.681 1043
3.106 5.120 1.669 1312
3.182 5.244 1.707 821
3.113 5.130 1.654 1318
3.288 5.419 1.740 903
3.115 5.134 1.636 1484
2.995 4.937 1.579 1282
3.117 5.138 1.619 1521
2.994 4.934 1.560 1484
3.119 5.141 1.602 2080
3.043 5.016 1.566 1086
3.121 5.145 1.584 1822
3.046 5.020 1.549 1050
4.058 6.689 1.998 1083
2.992 4.931 1.506 792
2.518 4.151 1.273 1065
4.081 6.726 1.984 965
4.084 6.731 1.961 1339
4.196 6.915 2.012 1299
4.199 6.920 1.988 1780
4.083 6.729 1.937 1422
4.201 6.925 1.965 1588
4.085 6.733 1.914 1069
4.200 6.923 1.939 1677
4.364 7.193 2.010 963
4.207 6.934 1.918 2127
4.371 7.205 1.988 1124
4.209 6.938 1.894 1768
4.362 7.189 1.958 1222
4.537 7.479 2.005 1668
2.518 4.150 1.170 1316
4.552 7.503 1.985 2017
2.515 4.146 1.154 1131
4.563 7.521 1.962 1983
4.643 7.653 1.995 1430
4.654 7.671 1.972 1796
4.570 7.532 1.938 1600
4.665 7.689 1.949 1724
4.581 7.550 1.916 1389
4.724 7.786 1.944 2092
4.599 7.581 1.896 1503
4.735 7.804 1.921 2577
4.630 7.631 1.881 1018
4.738 7.809 1.895 3027
4.641 7.649 1.859 744
4.736 7.806 1.867 2821
4.660 7.680 1.838 441
4.755 7.837 1.846 1811
4.880 8.043 1.891 416
4.758 7.841 1.819 2110
2.508 4.134 1.020 452
4.756 7.839 1.791 1938
2.505 4.129 1.005 424
4.758 7.843 1.765 1114
2.499 4.118 0.988 471
4.769 7.860 1.741 616
2.500 4.120 0.974 568
2.501 4.122 0.961 499
4.771 7.864 1.714 476
4.774 7.868 1.687 391
2.498 4.118 0.945 321
2.499 4.120 0.931 311
2.497 4.115 0.916 374
2.494 4.110 0.901 304
1.215 1.996 1.821 2958
1.152 1.893 1.731 408
1.217 2.000 1.814 5916
1.154 1.897 1.725 816
1.230 2.021 1.821 6382
1.167 1.917 1.733 1395
1.236 2.031 1.819 7531
1.172 1.926 1.731 1057
1.238 2.035 1.812 8738
1.175 1.930 1.725 611
1.244 2.044 1.810 6931
1.308 2.149 1.898 567
1.247 2.049 1.803 5213
1.311 2.153 1.890 984
1.249 2.053 1.796 5213
1.313 2.158 1.883 1147
1.272 2.090 1.817 7446
1.208 1.985 1.731 643
1.278 2.100 1.814 9943
1.214 1.994 1.728 811
1.280 2.104 1.807 9606
1.345 2.210 1.893 948
1.286 2.114 1.805 9499
1.351 2.220 1.890 1134
1.292 2.123 1.802 7900
1.357 2.229 1.887 1260
1.298 2.133 1.800 6713
1.363 2.239 1.884 1394
1.301 2.137 1.792 6713
1.366 2.244 1.877 1424
1.303 2.141 1.785 5652
1.368 2.248 1.869 2552
1.333 2.190 1.813 5730
1.268 2.084 1.730 829
1.353 2.223 1.828 6417
1.288 2.116 1.745 2894
1.359 2.233 1.825 7992
1.293 2.125 1.742 2932
1.361 2.237 1.817 7873
1.296 2.129 1.735 1926
1.360 2.235 1.805 7922
1.295 2.128 1.723 645
1.360 2.234 1.794 6660
1.425 2.342 1.875 1018
1.362 2.238 1.786 5432
1.428 2.346 1.867 1222
1.371 2.253 1.787 4764
1.437 2.362 1.868 825
1.395 2.292 1.805 5115
1.329 2.183 1.724 953
1.397 2.296 1.797 4199
1.331 2.187 1.717 670
1.396 2.294 1.785 3327
