-0.698 2.473 1.703 10052
-0.701 2.484 1.699 10499
-0.702 2.488 1.692 8495
-0.703 2.493 1.685 6491
-0.727 2.575 1.726 4456
-0.719 2.547 1.698 3407
-0.753 2.669 1.764 3583
-0.754 2.674 1.756 5140
-0.756 2.678 1.748 6226
-0.751 2.663 1.728 8874
-0.751 2.661 1.716 10717
-0.752 2.665 1.708 8434
-0.753 2.670 1.700 6152
-0.760 2.694 1.704 5539
-0.763 2.705 1.700 5418
-0.781 2.769 1.727 5448
-0.779 2.760 1.711 7096
-0.778 2.758 1.699 7004
-0.778 2.756 1.687 5692
-0.779 2.760 1.678 4508
-0.780 2.764 1.670 3286
-0.830 2.943 1.760 3140
-0.798 2.827 1.684 3994
-0.833 2.952 1.742 4666
-0.842 2.983 1.748 6537
-0.845 2.995 1.743 8692
-0.839 2.972 1.719 8604
-0.838 2.970 1.707 9687
-0.837 2.967 1.694 9209
-0.840 2.979 1.689 6708
-0.861 3.051 1.716 7029
-0.862 3.055 1.707 8087
-0.863 3.060 1.698 6661
-0.880 3.119 1.717 5457
-0.883 3.130 1.711 5870
-0.884 3.134 1.701 7526
-0.886 3.139 1.692 7933
-0.914 3.239 1.731 8015
-0.917 3.251 1.724 8082
-0.918 3.255 1.715 7196
-0.920 3.259 1.705 7102
-0.919 3.257 1.692 6568
-0.920 3.261 1.682 5082
-0.974 3.453 1.762 4486
-0.981 3.478 1.761 6967
-0.992 3.517 1.767 7254
-0.998 3.536 1.763 8416
-1.005 3.561 1.762 7242
-1.014 3.593 1.764 7533
-1.021 3.619 1.763 5906
-1.032 3.658 1.768 6689
-1.037 3.677 1.763 12329
-1.039 3.682 1.752 16007
-1.042 3.693 1.744 16671
-1.043 3.698 1.733 13504
-1.045 3.702 1.722 8969
-1.048 3.713 1.714 8635
-1.047 3.711 1.700 8855
-1.048 3.715 1.689 8206
-1.095 3.882 1.746 8123
-1.049 3.717 1.664 7169
-1.102 3.905 1.729 7183
-1.107 3.924 1.723 9228
-1.110 3.935 1.714 7266
-1.122 3.975 1.716 6011
-1.125 3.987 1.707 5402
-1.136 4.027 1.709 7455
-1.137 4.031 1.697 8257
-1.137 4.028 1.682 7776
-1.140 4.040 1.673 7754
-1.141 4.044 1.661 6022
-1.183 4.192 1.703 4804
-1.170 4.146 1.672 3931
-1.189 4.215 1.683 3329
-1.194 4.233 1.676 5525
-1.198 4.245 1.666 7403
-1.199 4.249 1.653 5662
-1.300 4.606 1.766 4907
-1.301 4.611 1.753 6210
-1.304 4.623 1.741 5015
-1.306 4.627 1.727 4863
-1.305 4.624 1.711 5797
-1.304 4.622 1.695 4345
-1.350 4.785 1.735 3635
-1.351 4.790 1.720 3061
-1.326 4.700 1.675 2127
-1.387 4.915 1.729 3715
-1.386 4.912 1.712 3899
-1.400 4.960 1.712 2739
-1.393 4.935 1.687 2585
-1.433 5.078 1.716 2424
-1.434 5.083 1.701 2721
-1.433 5.080 1.683 2658
-1.474 5.223 1.710 2609
-1.487 5.271 1.708 2838
-1.489 5.276 1.692 2774
-1.525 5.405 1.713 3157
-1.555 5.512 1.726 3600
-1.563 5.538 1.716 5122
-1.566 5.550 1.701 7195
-1.567 5.555 1.685 6647
-1.568 5.559 1.668 4654
-1.570 5.563 1.651 3787
-1.677 5.943 1.736 3039
-1.678 5.948 1.719 2774
-1.721 6.100 1.740 3213
-1.722 6.104 1.721 2789
-1.765 6.257 1.741 2452
-1.767 6.261 1.722 2546
-1.759 6.236 1.696 3107
-1.752 6.211 1.670 2886
-1.810 6.415 1.700 2564
-1.847 6.546 1.712 1663
-1.865 6.609 1.706 1466
-1.916 6.792 1.728 2521
-1.920 6.804 1.709 3369
-1.934 6.853 1.699 3732
-1.935 6.857 1.679 5643
-1.936 6.862 1.658 6342
-1.937 6.866 1.637 3965
-1.928 6.833 1.608 3625
-2.072 7.344 1.696 4779
-2.073 7.349 1.674 6620
-2.075 7.353 1.652 4539
-2.078 7.365 1.631 4794
-2.081 7.376 1.611 6373
-2.082 7.380 1.588 4877
-2.086 7.392 1.568 2773
-2.305 8.168 1.693 1850
-2.308 8.180 1.670 1758
-2.313 8.199 1.648 2027
-2.315 8.203 1.623 1831
-2.487 8.815 1.707 1556
-2.552 9.045 1.720 1774
-2.545 9.019 1.688 2376
-2.544 9.016 1.659 2465
-2.552 9.043 1.636 1414
-2.557 9.062 1.611 886
-2.558 9.066 1.584 576
-2.559 9.070 1.556 327
-2.022 7.167 -0.480 301
-2.022 7.165 -0.501 410
-2.021 7.163 -0.523 420
-2.018 7.154 -0.544 431
-2.018 7.152 -0.565 417
-2.017 7.150 -0.587 403
-2.017 7.148 -0.608 403
-0.611 2.169 1.760 3078
-0.612 2.174 1.753 6157
-0.614 2.178 1.747 6157
-0.615 2.183 1.740 6551
-0.634 2.249 1.780 7263
-0.637 2.260 1.778 6957
-0.638 2.265 1.771 6674
-0.639 2.269 1.765 6674
-0.641 2.274 1.758 5639
-0.635 2.253 1.733 5120
-0.636 2.258 1.726 5534
-0.636 2.256 1.715 6026
-0.644 2.286 1.726 6796
-0.651 2.309 1.733 8803
-0.661 2.345 1.748 9964
-0.662 2.350 1.741 11244
-0.665 2.360 1.739 11395
-0.673 2.390 1.749 9497
-0.678 2.408 1.751 10798
-0.683 2.425 1.752 10055
-0.686 2.436 1.749 9748
-0.684 2.427 1.733 8333
-0.680 2.413 1.713 8060
-0.685 2.430 1.715 8485
-0.688 2.441 1.712 9232
-0.691 2.452 1.709 9376
-0.694 2.462 1.706 10013
-0.697 2.473 1.703 9993
-0.700 2.484 1.699 10462
-0.701 2.489 1.692 8435
-0.702 2.493 1.685 6408
-0.726 2.576 1.726 4420
-0.718 2.547 1.698 3329
-0.724 2.571 1.703 3608
-0.753 2.674 1.756 5092
-0.755 2.679 1.748 6280
-0.750 2.663 1.728 9015
-0.750 2.661 1.716 10859
-0.751 2.666 1.708 8538
-0.752 2.670 1.700 6218
-0.759 2.694 1.704 5510
-0.764 2.712 1.704 5315
-0.780 2.769 1.727 5442
-0.778 2.761 1.711 7166
-0.777 2.758 1.699 7181
-0.776 2.756 1.687 5781
-0.778 2.760 1.678 4506
-0.779 2.765 1.670 3276
-0.831 2.950 1.763 3257
-0.796 2.827 1.684 3924
-0.832 2.952 1.742 4690
-0.841 2.984 1.748 6635
-0.844 2.995 1.743 8782
-0.837 2.972 1.719 8744
-0.837 2.970 1.707 9883
-0.836 2.968 1.694 9446
-0.839 2.979 1.689 6850
-0.860 3.051 1.716 7200
-0.861 3.056 1.707 8400
-0.862 3.060 1.698 6834
-0.879 3.119 1.717 5492
-0.882 3.130 1.711 5892
-0.883 3.135 1.701 7493
-0.884 3.139 1.692 7948
-0.913 3.240 1.731 7732
-0.916 3.251 1.724 7857
-0.917 3.255 1.715 7032
-0.916 3.253 1.702 7016
-0.918 3.257 1.692 6513
-0.919 3.262 1.682 5061
-0.973 3.453 1.762 4479
-0.980 3.478 1.761 7008
-0.991 3.518 1.767 7259
-0.996 3.536 1.763 8454
-1.003 3.561 1.762 7175
-1.013 3.594 1.764 7358
-1.020 3.619 1.763 5860
-1.031 3.659 1.768 6557
-1.036 3.677 1.763 11924
-1.037 3.682 1.752 15416
-1.041 3.693 1.744 16087
-1.042 3.698 1.733 13000
-1.043 3.702 1.722 8661
-1.046 3.714 1.714 8589
-1.048 3.718 1.703 8753
-1.047 3.716 1.689 7870
-1.094 3.882 1.746 7953
-1.047 3.717 1.664 7177
-1.100 3.906 1.729 7111
-1.106 3.924 1.723 9134
-1.109 3.936 1.714 7181
-1.120 3.976 1.716 5997
-1.123 3.987 1.707 5411
-1.135 4.027 1.709 7405
-1.136 4.032 1.697 8383
-1.135 4.029 1.682 7910
-1.138 4.040 1.673 7923
-1.140 4.045 1.661 6164
-1.181 4.192 1.703 4916
-1.168 4.146 1.672 3968
-1.188 4.215 1.683 3281
-1.193 4.234 1.676 5465
-1.196 4.245 1.666 7380
-1.197 4.250 1.653 5670
-1.298 4.607 1.766 4827
-1.299 4.612 1.753 6024
-1.303 4.623 1.741 4798
-1.302 4.621 1.725 4765
-1.303 4.625 1.711 5885
-1.302 4.622 1.695 4369
-1.348 4.786 1.735 3644
-1.350 4.790 1.720 3107
-1.324 4.700 1.675 1999
-1.385 4.915 1.729 3737
-1.384 4.913 1.712 3972
-1.398 4.961 1.712 3100
-1.403 4.980 1.701 2926
-1.431 5.079 1.716 2395
-1.434 5.091 1.703 2618
-1.431 5.080 1.683 2558
-1.472 5.224 1.710 2680
-1.483 5.265 1.705 2828
-1.485 5.269 1.690 2797
-1.523 5.405 1.713 3220
-1.553 5.513 1.726 3697
-1.561 5.539 1.716 5154
-1.564 5.551 1.701 7285
-1.565 5.555 1.685 6709
-1.566 5.559 1.668 4730
-1.568 5.564 1.651 3926
-1.677 5.951 1.738 3113
-1.676 5.948 1.719 2845
-1.719 6.101 1.740 3211
-1.720 6.105 1.721 2843
-1.763 6.257 1.741 2453
-1.764 6.262 1.722 2574
-1.763 6.259 1.702 3142
-1.750 6.211 1.670 2779
-1.808 6.416 1.700 2547
-1.844 6.546 1.712 1665
-1.862 6.610 1.706 1457
-1.914 6.793 1.728 2406
-1.917 6.805 1.709 3263
-1.931 6.854 1.699 3656
-1.932 6.858 1.679 5618
-1.933 6.862 1.658 6394
-1.935 6.867 1.637 3984
-1.925 6.834 1.608 3445
-2.069 7.345 1.696 4791
-2.071 7.350 1.674 6677
-2.072 7.354 1.652 4568
-2.075 7.366 1.631 4692
-2.078 7.377 1.611 6278
-2.080 7.381 1.588 4860
-2.083 7.393 1.568 2769
-2.301 8.169 1.693 1785
-2.305 8.180 1.670 1723
-2.310 8.200 1.648 2018
-2.311 8.204 1.623 1829
-2.482 8.809 1.706 1537
-2.549 9.046 1.720 1665
-2.541 9.020 1.688 2268
-2.541 9.017 1.659 2427
-2.548 9.044 1.636 1384
-2.554 9.063 1.611 889
-2.555 9.067 1.584 578
-2.556 9.071 1.556 315
-2.018 7.163 -0.436 328
-2.018 7.162 -0.457 328
-2.019 7.168 -0.480 414
-2.019 7.166 -0.501 503
-2.018 7.164 -0.523 453
-2.016 7.155 -0.544 409
-2.013 7.145 -0.564 388
-2.008 7.128 -0.584 398
-2.008 7.126 -0.606 398
-0.610 2.170 1.760 3058
-0.611 2.174 1.753 6117
-0.613 2.179 1.747 6117
-0.614 2.183 1.740 6559
-0.633 2.250 1.780 7254
-0.636 2.260 1.778 6898
-0.637 2.265 1.771 6568
-0.638 2.270 1.765 6568
-0.640 2.274 1.758 5582
-0.634 2.254 1.733 5139
-0.635 2.258 1.726 5517
-0.635 2.256 1.715 5966
-0.643 2.286 1.726 6728
-0.657 2.335 1.751 8758
-0.660 2.345 1.748 10002
-0.661 2.350 1.741 11252
-0.664 2.361 1.739 11393
-0.672 2.391 1.749 9376
-0.677 2.408 1.751 10627
-0.682 2.425 1.752 9927
-0.685 2.436 1.749 9664
-0.683 2.428 1.733 8270
-0.679 2.413 1.713 7987
-0.683 2.430 1.715 8463
-0.687 2.441 1.712 9236
-0.690 2.452 1.709 9330
-0.693 2.463 1.706 9927
-0.696 2.474 1.703 9911
-0.699 2.485 1.699 10394
-0.700 2.489 1.692 8347
-0.701 2.493 1.685 6300
-0.724 2.576 1.726 4541
-0.716 2.548 1.698 3472
-0.723 2.572 1.703 3854
-0.752 2.674 1.756 4945
-0.752 2.672 1.744 6291
-0.749 2.664 1.728 9269
-0.749 2.662 1.716 11178
-0.750 2.666 1.708 8791
-0.751 2.670 1.700 6403
-0.758 2.695 1.704 5601
-0.763 2.712 1.704 5272
-0.779 2.770 1.727 5454
-0.776 2.761 1.711 7191
-0.776 2.759 1.699 7273
-0.775 2.756 1.687 5824
-0.776 2.761 1.678 4496
-0.778 2.765 1.670 3292
-0.830 2.950 1.763 3362
-0.795 2.827 1.684 3833
-0.832 2.959 1.746 4754
-0.839 2.984 1.748 6716
-0.842 2.995 1.743 8853
-0.836 2.973 1.719 8809
-0.835 2.971 1.707 9882
-0.835 2.968 1.694 9417
-0.838 2.979 1.689 6782
-0.858 3.052 1.716 7203
-0.859 3.056 1.707 8485
-0.861 3.060 1.698 6870
-0.877 3.119 1.717 5567
-0.880 3.131 1.711 5900
-0.882 3.135 1.701 7490
-0.883 3.139 1.692 7927
-0.911 3.240 1.731 7414
-0.914 3.251 1.724 7583
-0.916 3.256 1.715 6810
-0.917 3.260 1.705 6755
-0.916 3.258 1.692 6227
-0.917 3.262 1.682 4842
-0.971 3.453 1.762 4438
-0.978 3.479 1.761 7048
-0.989 3.518 1.767 7240
-0.995 3.536 1.763 8377
-1.002 3.562 1.762 7062
-1.011 3.594 1.764 7282
-1.018 3.620 1.763 5686
-1.029 3.659 1.768 6438
-1.034 3.678 1.763 11654
-1.036 3.682 1.752 14992
-1.039 3.694 1.744 15641
-1.040 3.698 1.733 12579
-1.041 3.703 1.722 8369
-1.045 3.714 1.714 8486
-1.046 3.719 1.703 8632
-1.045 3.716 1.689 7537
-1.092 3.883 1.746 7677
-1.046 3.718 1.664 7136
-1.099 3.906 1.729 6953
-1.104 3.925 1.723 8996
-1.107 3.936 1.714 7049
-1.120 3.983 1.719 5933
-1.122 3.988 1.707 5342
-1.133 4.028 1.709 7347
-1.134 4.032 1.697 8409
-1.133 4.029 1.682 7853
-1.136 4.041 1.673 7895
-1.138 4.045 1.661 6162
-1.179 4.193 1.703 4985
-1.168 4.154 1.674 3870
-1.186 4.216 1.683 3230
-1.191 4.234 1.676 5326
-1.194 4.246 1.666 7178
-1.195 4.250 1.653 5500
-1.296 4.608 1.766 4781
-1.297 4.612 1.753 5777
-1.298 4.617 1.739 4487
-1.300 4.621 1.725 4590
-1.301 4.626 1.711 5783
-1.302 4.630 1.697 4347
-1.346 4.787 1.735 3667
-1.347 4.791 1.720 3063
-1.363 4.846 1.723 1926
-1.379 4.902 1.725 3560
-1.382 4.913 1.712 3832
-1.395 4.961 1.712 3129
-1.403 4.988 1.704 2804
-1.429 5.080 1.716 2392
-1.434 5.099 1.705 2574
-1.431 5.088 1.685 2473
-1.469 5.224 1.710 2709
-1.483 5.273 1.708 2780
-1.484 5.277 1.692 2670
-1.520 5.406 1.713 3212
-1.551 5.513 1.726 3792
-1.558 5.540 1.716 5233
-1.563 5.559 1.703 7359
-1.563 5.556 1.685 6723
-1.564 5.560 1.668 4736
-1.565 5.564 1.651 3969
-1.674 5.952 1.738 3179
-1.673 5.949 1.719 2859
-1.716 6.101 1.740 3171
-1.717 6.106 1.721 2856
-1.700 6.044 1.686 2456
-1.761 6.263 1.722 2644
-1.760 6.260 1.702 3272
-1.747 6.212 1.670 2757
-1.805 6.417 1.700 2616
-1.841 6.547 1.712 1656
-1.859 6.611 1.706 1436
-1.911 6.794 1.728 2345
-1.914 6.806 1.709 3217
-1.928 6.855 1.699 3583
-1.929 6.859 1.679 5580
-1.930 6.863 1.658 6486
-1.931 6.868 1.637 4107
-1.922 6.834 1.608 3353
-2.066 7.346 1.696 4855
-2.067 7.350 1.674 6795
-2.068 7.355 1.652 4613
-2.072 7.366 1.631 4574
-2.075 7.378 1.611 6129
-2.076 7.382 1.588 4802
-2.079 7.394 1.568 2752
-2.298 8.170 1.693 1752
-2.301 8.182 1.670 1683
-2.306 8.201 1.648 2006
-2.308 8.205 1.623 1820
-2.478 8.810 1.706 1529
-2.544 9.047 1.720 1723
-2.537 9.022 1.688 2291
-2.536 9.018 1.659 2418
-2.544 9.045 1.636 1412
-2.551 9.072 1.612 899
-2.550 9.069 1.584 565
-2.549 9.065 1.555 310
-2.019 7.180 -0.437 262
-2.019 7.178 -0.459 262
-2.020 7.184 -0.481 333
-2.020 7.182 -0.503 408
-2.022 7.188 -0.525 366
-2.025 7.201 -0.548 358
-2.018 7.176 -0.567 305
-2.009 7.144 -0.586 316
-2.009 7.142 -0.607 316
-0.607 2.164 1.755 3034
-0.609 2.168 1.749 6068
-0.610 2.173 1.742 6068
-0.613 2.184 1.740 6546
-0.632 2.250 1.780 7291
-0.635 2.261 1.778 6863
-0.638 2.272 1.776 6480
-0.639 2.276 1.769 6480
-0.639 2.274 1.758 5498
-0.633 2.254 1.733 5011
-0.634 2.258 1.726 5408
-0.634 2.257 1.715 5884
-0.642 2.286 1.726 6651
-0.657 2.341 1.755 8882
-0.659 2.346 1.748 10127
-0.660 2.350 1.741 11372
-0.663 2.361 1.739 11510
-0.671 2.391 1.749 9343
-0.676 2.408 1.751 10538
-0.681 2.425 1.752 9858
-0.684 2.436 1.749 9627
-0.682 2.428 1.733 8246
-0.678 2.413 1.713 7948
-0.682 2.431 1.715 8493
-0.685 2.441 1.712 9306
-0.688 2.452 1.709 9333
-0.692 2.463 1.706 9862
-0.695 2.474 1.703 9831
-0.698 2.485 1.699 10298
-0.699 2.489 1.692 8254
-0.700 2.494 1.685 6210
-0.723 2.576 1.726 4502
-0.715 2.548 1.698 3383
-0.722 2.572 1.703 3825
-0.751 2.675 1.756 4731
-0.750 2.673 1.744 6188
-0.748 2.664 1.728 9340
-0.747 2.662 1.716 11294
-0.749 2.666 1.708 8875
-0.752 2.677 1.704 6461
-0.757 2.695 1.704 5654
-0.762 2.713 1.704 5275
-0.776 2.763 1.723 5401
-0.775 2.761 1.711 7121
-0.775 2.759 1.699 7197
-0.774 2.757 1.687 5763
-0.775 2.761 1.678 4417
-0.776 2.765 1.670 3189
-0.830 2.957 1.767 3453
-0.830 2.955 1.755 3881
-0.831 2.960 1.746 4746
-0.838 2.985 1.748 6721
-0.841 2.996 1.743 8872
-0.835 2.973 1.719 8752
-0.834 2.971 1.707 9666
-0.833 2.969 1.694 9180
-0.837 2.980 1.689 6556
-0.857 3.052 1.716 7210
-0.858 3.056 1.707 8515
-0.859 3.061 1.698 6866
-0.876 3.120 1.717 5650
-0.879 3.131 1.711 6133
-0.880 3.136 1.701 7640
-0.881 3.140 1.692 8045
-0.910 3.240 1.731 7153
-0.913 3.252 1.724 7357
-0.914 3.256 1.715 6620
-0.913 3.254 1.702 6568
-0.915 3.258 1.692 6052
-0.916 3.262 1.682 4718
-0.970 3.454 1.762 4512
-0.977 3.479 1.761 7195
-0.986 3.511 1.764 7450
-0.993 3.537 1.763 8530
-0.998 3.555 1.759 7083
-1.009 3.595 1.764 7290
-1.014 3.613 1.760 5694
-1.027 3.660 1.768 6304
-1.033 3.678 1.763 11392
-1.034 3.683 1.752 14615
-1.037 3.694 1.744 15208
-1.038 3.699 1.733 12142
-1.040 3.703 1.722 8029
-1.043 3.715 1.714 8311
-1.044 3.719 1.703 8428
-1.043 3.717 1.689 7208
-1.090 3.883 1.746 7501
-1.044 3.718 1.664 7070
-1.097 3.907 1.729 6887
-1.102 3.925 1.723 8943
-1.105 3.937 1.714 6961
-1.118 3.984 1.719 5930
-1.120 3.988 1.707 5272
-1.131 4.028 1.709 7337
-1.132 4.033 1.697 8507
-1.131 4.030 1.682 7882
-1.135 4.041 1.673 7869
-1.136 4.046 1.661 6149
-1.175 4.186 1.700 5107
-1.166 4.155 1.674 3950
-1.184 4.216 1.683 3134
-1.189 4.235 1.676 5139
-1.192 4.246 1.666 6976
-1.193 4.251 1.653 5345
-1.294 4.608 1.766 4741
-1.295 4.613 1.753 5617
-1.296 4.617 1.739 4321
-1.298 4.622 1.725 4515
-1.299 4.626 1.711 5785
-1.298 4.623 1.695 4441
-1.344 4.787 1.735 3723
-1.345 4.792 1.720 3124
-1.363 4.854 1.725 1950
-1.376 4.902 1.725 3459
-1.380 4.914 1.712 3873
-1.393 4.962 1.712 3458
-1.398 4.981 1.701 3639
-1.389 4.949 1.675 2387
-1.432 5.099 1.705 2488
-1.429 5.089 1.685 2344
-1.465 5.218 1.708 2665
-1.480 5.273 1.708 2824
-1.480 5.270 1.690 2677
-1.518 5.407 1.713 3339
-1.548 5.514 1.726 3756
-1.555 5.540 1.716 5168
-1.561 5.560 1.703 7414
-1.560 5.557 1.685 6736
-1.561 5.561 1.668 4749
-1.562 5.565 1.651 4028
-1.671 5.953 1.738 3242
-1.670 5.950 1.719 2920
-1.713 6.102 1.740 3097
-1.714 6.107 1.721 2822
-1.699 6.052 1.688 2554
-1.758 6.263 1.722 2665
-1.760 6.268 1.704 3355
-1.746 6.220 1.672 2734
-1.802 6.417 1.700 2631
-1.838 6.548 1.712 1649
-1.773 6.315 1.635 1446
-1.908 6.795 1.728 2267
-1.913 6.814 1.711 3146
-1.925 6.856 1.699 3534
-1.926 6.860 1.679 5550
-1.927 6.864 1.658 6513
-1.928 6.868 1.637 4159
-1.919 6.835 1.608 3222
-2.063 7.347 1.696 4886
-2.064 7.351 1.674 6899
-2.065 7.356 1.652 4653
-2.068 7.367 1.631 4456
-2.072 7.379 1.611 6007
-2.073 7.383 1.588 4748
-2.076 7.395 1.568 2719
-2.294 8.171 1.693 1717
-2.297 8.183 1.670 1671
-2.303 8.202 1.648 2020
-2.304 8.206 1.623 1805
-2.476 8.819 1.707 1624
-2.540 9.048 1.720 1752
-2.533 9.023 1.688 2293
-2.532 9.020 1.659 2407
-2.540 9.046 1.636 1432
-2.545 9.066 1.611 906
-2.546 9.070 1.584 546
-2.545 9.066 1.555 309
-2.014 7.175 -0.502 321
-2.014 7.174 -0.523 299
-2.024 7.210 -0.549 321
-2.009 7.155 -0.565 311
-2.004 7.137 -0.585 364
-2.003 7.135 -0.607 364
-0.607 2.164 1.755 3116
-0.608 2.169 1.749 6232
-0.609 2.173 1.742 6232
-0.612 2.184 1.740 6732
-0.631 2.250 1.780 7490
-0.634 2.261 1.778 6958
-0.637 2.272 1.776 6516
-0.638 2.276 1.769 6516
-0.638 2.275 1.758 5481
-0.632 2.254 1.733 4845
-0.633 2.259 1.726 5307
-0.633 2.257 1.715 5864
-0.655 2.337 1.762 6729
-0.657 2.341 1.755 9105
-0.658 2.346 1.748 10330
-0.659 2.350 1.741 11555
-0.662 2.361 1.739 11697
-0.671 2.391 1.749 9363
-0.675 2.408 1.751 10513
-0.680 2.426 1.752 9879
-0.683 2.437 1.749 9687
-0.681 2.428 1.733 8323
-0.677 2.413 1.713 7998
-0.682 2.431 1.715 8602
-0.685 2.442 1.712 9449
-0.688 2.452 1.709 9389
-0.691 2.463 1.706 9835
-0.694 2.474 1.703 9827
-0.697 2.485 1.699 10317
-0.698 2.489 1.692 8284
-0.699 2.494 1.685 6251
-0.723 2.576 1.726 4541
-0.716 2.555 1.702 3465
-0.721 2.572 1.703 3962
-0.750 2.675 1.756 4529
-0.750 2.673 1.744 6082
-0.747 2.664 1.728 9392
-0.747 2.662 1.716 11388
-0.748 2.666 1.708 8937
-0.751 2.677 1.704 6520
-0.756 2.695 1.704 5654
-0.761 2.713 1.704 5155
-0.775 2.764 1.723 5323
-0.774 2.761 1.711 7020
-0.774 2.759 1.699 7181
-0.773 2.757 1.687 5719
-0.774 2.761 1.678 4343
-0.776 2.766 1.670 3057
-0.829 2.958 1.767 3577
-0.829 2.956 1.755 4002
-0.830 2.960 1.746 4798
-0.837 2.985 1.748 6775
-0.840 2.996 1.743 8940
-0.834 2.973 1.719 8825
-0.833 2.971 1.707 9607
-0.833 2.969 1.694 9071
-0.836 2.980 1.689 6446
-0.856 3.052 1.716 7174
-0.857 3.057 1.707 8418
-0.858 3.061 1.698 6694
-0.875 3.120 1.717 5923
-0.878 3.131 1.711 6515
-0.879 3.136 1.701 8048
-0.883 3.147 1.696 8442
-0.909 3.241 1.731 6944
-0.912 3.252 1.724 7163
-0.915 3.263 1.718 6493
-0.915 3.261 1.705 6470
-0.914 3.258 1.692 5948
-0.915 3.263 1.682 4627
-0.969 3.454 1.762 4538
-0.976 3.479 1.761 7242
-0.985 3.512 1.764 7590
-0.992 3.537 1.763 8684
-0.997 3.556 1.759 7131
-1.008 3.595 1.764 7172
-1.015 3.621 1.763 5713
-1.026 3.660 1.768 6226
-1.032 3.679 1.763 11120
-1.033 3.683 1.752 14191
-1.036 3.695 1.744 14761
-1.037 3.699 1.733 11699
-1.039 3.704 1.722 7723
-1.042 3.715 1.714 8252
-1.043 3.720 1.703 8408
-1.042 3.717 1.689 6978
-1.089 3.884 1.746 7372
-1.043 3.718 1.664 7090
-1.096 3.907 1.729 6858
-1.101 3.926 1.723 8935
-1.114 3.973 1.728 7039
-1.117 3.984 1.719 5945
-1.121 3.996 1.710 5178
-1.132 4.036 1.712 7348
-1.131 4.033 1.697 8598
-1.130 4.030 1.682 7921
-1.134 4.042 1.673 7890
-1.135 4.046 1.661 6131
-1.174 4.186 1.700 5243
-1.165 4.155 1.674 3907
-1.183 4.217 1.683 3111
-1.188 4.235 1.676 5049
-1.191 4.247 1.666 6846
-1.192 4.251 1.653 5222
-1.292 4.609 1.766 4732
-1.294 4.613 1.753 5523
-1.295 4.618 1.739 4260
-1.296 4.622 1.725 4464
-1.298 4.627 1.711 5748
-1.297 4.624 1.695 4493
-1.343 4.788 1.735 3823
-1.344 4.792 1.720 3234
-1.327 4.731 1.684 2112
-1.377 4.910 1.727 3462
-1.378 4.914 1.712 3691
-1.394 4.970 1.714 3446
-1.399 4.989 1.704 3534
-1.425 5.081 1.716 2322
-1.432 5.107 1.708 2515
-1.427 5.089 1.685 2256
-1.463 5.218 1.708 2785
-1.479 5.274 1.708 2915
-1.480 5.278 1.692 2742
-1.516 5.407 1.713 3473
-1.547 5.514 1.726 3848
-1.554 5.541 1.716 5201
-1.559 5.560 1.703 7471
-1.558 5.557 1.685 6720
-1.560 5.561 1.668 4724
-1.561 5.566 1.651 4094
-1.670 5.953 1.738 3391
-1.671 5.958 1.721 3085
-1.672 5.962 1.703 3132
-1.667 5.944 1.679 2821
-1.702 6.067 1.692 2652
-1.757 6.264 1.722 2728
-1.758 6.268 1.704 3479
-1.745 6.221 1.672 2746
-1.800 6.418 1.700 2534
-1.799 6.415 1.679 1616
-1.771 6.315 1.635 1486
-1.908 6.803 1.730 2216
-1.911 6.814 1.711 3046
-1.923 6.856 1.699 3433
-1.924 6.860 1.679 5530
-1.925 6.865 1.658 6588
-1.926 6.869 1.637 4217
-1.919 6.843 1.610 3084
-2.061 7.348 1.696 4987
-2.062 7.352 1.674 7110
-2.063 7.356 1.652 4799
-2.066 7.368 1.631 4384
-2.070 7.380 1.611 5892
-2.071 7.384 1.588 4753
-2.074 7.395 1.568 2783
-2.292 8.171 1.693 1719
-2.295 8.183 1.670 1634
-2.300 8.202 1.648 2016
-2.302 8.207 1.623 1818
-2.473 8.819 1.707 1677
-2.538 9.049 1.720 1749
-2.531 9.023 1.688 2332
-2.530 9.020 1.659 2475
-2.537 9.047 1.636 1470
-2.543 9.066 1.611 928
-2.544 9.070 1.584 554
-2.545 9.074 1.556 304
-2.011 7.170 -0.480 296
-2.010 7.168 -0.501 376
-2.008 7.159 -0.522 313
-2.007 7.157 -0.544 258
-2.002 7.140 -0.564 280
-1.998 7.123 -0.584 331
-1.997 7.121 -0.605 331
-0.606 2.164 1.755 3098
-0.607 2.169 1.749 6197
-0.608 2.173 1.742 6197
-0.611 2.184 1.740 6695
-0.630 2.250 1.780 7582
-0.633 2.261 1.778 7036
-0.636 2.272 1.776 6580
-0.637 2.277 1.769 6580
-0.637 2.275 1.758 5508
-0.650 2.323 1.783 4772
-0.632 2.259 1.726 5183
-0.632 2.257 1.715 5805
-0.654 2.337 1.762 6820
-0.655 2.342 1.755 9248
-0.657 2.346 1.748 10451
-0.658 2.351 1.741 11655
-0.661 2.362 1.739 11785
-0.669 2.391 1.749 9305
-0.674 2.409 1.751 10408
-0.679 2.426 1.752 9816
-0.682 2.437 1.749 9667
-0.680 2.429 1.733 8326
-0.676 2.414 1.713 8013
-0.680 2.431 1.715 8685
-0.683 2.442 1.712 9593
-0.687 2.453 1.709 9453
-0.690 2.464 1.706 9820
-0.693 2.475 1.703 9811
-0.696 2.485 1.699 10298
-0.697 2.490 1.692 8301
-0.698 2.494 1.685 6304
-0.721 2.577 1.726 4600
-0.715 2.555 1.702 3529
-0.720 2.573 1.703 4057
-0.749 2.675 1.756 4368
-0.748 2.673 1.744 5965
-0.746 2.665 1.728 9351
-0.745 2.662 1.716 11374
-0.746 2.667 1.708 8907
-0.749 2.678 1.704 6463
-0.754 2.696 1.704 5559
-0.761 2.720 1.708 5042
-0.774 2.764 1.723 5345
-0.773 2.762 1.711 7033
-0.772 2.760 1.699 7257
-0.772 2.757 1.687 5783
-0.773 2.762 1.678 4388
-0.774 2.766 1.670 3096
-0.828 2.958 1.767 3644
-0.827 2.956 1.755 4038
-0.829 2.960 1.746 4776
-0.836 2.985 1.748 6812
-0.839 2.996 1.743 8981
-0.832 2.974 1.719 8869
-0.832 2.972 1.707 9473
-0.831 2.969 1.694 8875
-0.834 2.980 1.689 6302
-0.856 3.060 1.719 7179
-0.856 3.057 1.707 8303
-0.859 3.068 1.701 6497
-0.873 3.121 1.717 5955
-0.877 3.132 1.711 6701
-0.878 3.136 1.701 8200
-0.881 3.147 1.696 8509
-0.907 3.241 1.731 6700
-0.910 3.253 1.724 6889
-0.913 3.264 1.718 6352
-0.913 3.261 1.705 6393
-0.912 3.259 1.692 5857
-0.913 3.263 1.682 4559
-0.967 3.455 1.762 4380
-0.974 3.480 1.761 7158
-0.985 3.519 1.767 7533
-0.990 3.538 1.763 8693
-0.995 3.556 1.759 7153
-1.006 3.596 1.764 7216
-1.013 3.621 1.763 5792
-1.025 3.661 1.768 6243
-1.030 3.679 1.763 10877
-1.031 3.684 1.752 13845
-1.034 3.695 1.744 14434
-1.035 3.700 1.733 11411
-1.039 3.711 1.725 7541
-1.040 3.716 1.714 8256
-1.041 3.720 1.703 8407
-1.040 3.717 1.689 6757
-1.087 3.884 1.746 7205
-1.041 3.719 1.664 7125
-1.094 3.908 1.729 6767
-1.099 3.926 1.723 8851
-1.112 3.973 1.728 7133
-1.115 3.985 1.719 5955
-1.118 3.996 1.710 5091
-1.130 4.036 1.712 7334
-1.129 4.034 1.697 8681
-1.128 4.031 1.682 7967
-1.131 4.042 1.673 7977
-1.133 4.047 1.661 6262
-1.172 4.187 1.700 5293
-1.163 4.155 1.674 3968
-1.180 4.217 1.683 3077
-1.186 4.236 1.676 4971
-1.189 4.247 1.666 6770
-1.190 4.252 1.653 5220
-1.290 4.609 1.766 4683
-1.291 4.614 1.753 5395
-1.293 4.618 1.739 4156
-1.292 4.616 1.722 4422
-1.295 4.627 1.711 5756
-1.294 4.624 1.695 4584
-1.340 4.788 1.735 3759
-1.341 4.793 1.720 3269
-1.316 4.703 1.675 2090
-1.372 4.903 1.725 3357
-1.376 4.915 1.712 3761
-1.389 4.963 1.712 3486
-1.396 4.989 1.704 3693
-1.422 5.081 1.716 2314
-1.430 5.108 1.708 2518
-1.427 5.097 1.688 2162
-1.461 5.219 1.708 2778
-1.476 5.275 1.708 2849
-1.512 5.404 1.729 2715
-1.514 5.408 1.713 3547
-1.544 5.515 1.726 3882
-1.551 5.542 1.716 5233
-1.556 5.561 1.703 7580
-1.558 5.565 1.687 6747
-1.557 5.562 1.668 4743
-1.558 5.566 1.651 4210
-1.666 5.954 1.738 3473
-1.668 5.959 1.721 3211
-1.669 5.963 1.703 3246
-1.664 5.945 1.679 2916
-1.700 6.075 1.694 2655
-1.753 6.265 1.722 2770
-1.755 6.269 1.704 3566
-1.743 6.229 1.674 2777
-1.797 6.419 1.700 2511
-1.762 6.297 1.651 1640
-1.768 6.316 1.635 1512
-1.904 6.804 1.730 2118
-1.908 6.815 1.711 2901
-1.919 6.857 1.699 3311
-1.920 6.861 1.679 5436
-1.922 6.866 1.658 6591
-1.923 6.870 1.637 4273
-1.916 6.844 1.610 3054
-2.057 7.349 1.696 5075
-2.058 7.353 1.674 7166
-2.059 7.357 1.652 4897
-2.062 7.369 1.631 4348
-2.066 7.381 1.611 5794
-2.067 7.385 1.588 4731
-2.070 7.396 1.568 2791
-2.321 8.293 1.716 1671
-2.293 8.192 1.671 1567
-2.296 8.204 1.648 1964
-2.297 8.208 1.623 1748
-2.467 8.813 1.706 1770
-2.533 9.050 1.720 1805
-2.526 9.025 1.688 2343
-2.525 9.022 1.659 2455
-2.532 9.048 1.636 1492
-2.538 9.068 1.611 986
-2.539 9.072 1.584 605
-2.540 9.076 1.556 321
-2.009 7.179 -0.480 285
-2.009 7.177 -0.502 338
-2.008 7.175 -0.523 280
-0.605 2.164 1.755 3088
-0.606 2.169 1.749 6177
-0.608 2.174 1.742 6177
-0.611 2.184 1.740 6659
-0.629 2.251 1.780 7578
-0.632 2.261 1.778 7045
-0.635 2.272 1.776 6592
-0.637 2.277 1.769 6592
-0.636 2.275 1.758 5521
-0.650 2.324 1.783 4851
-0.632 2.259 1.726 5157
-0.631 2.257 1.715 5814
-0.653 2.337 1.762 6903
-0.655 2.342 1.755 9351
-0.656 2.346 1.748 10539
-0.657 2.351 1.741 11728
-0.660 2.362 1.739 11847
-0.669 2.392 1.749 9238
-0.674 2.409 1.751 10300
-0.678 2.426 1.752 9762
-0.681 2.437 1.749 9648
-0.679 2.429 1.733 8326
-0.671 2.401 1.705 8034
-0.680 2.431 1.715 8737
-0.683 2.442 1.712 9696
-0.686 2.453 1.709 9501
-0.689 2.464 1.706 9805
-0.692 2.475 1.703 9800
-0.695 2.486 1.699 10293
-0.696 2.490 1.692 8307
-0.697 2.494 1.685 6321
-0.721 2.577 1.726 4650
-0.716 2.562 1.706 3575
-0.719 2.573 1.703 4171
-0.748 2.675 1.756 4210
-0.747 2.673 1.744 5899
-0.745 2.665 1.728 9427
-0.744 2.663 1.716 11509
-0.746 2.667 1.708 9028
-0.749 2.678 1.704 6577
-0.754 2.696 1.704 5537
-0.761 2.720 1.708 4959
-0.773 2.764 1.723 5396
-0.772 2.762 1.711 7115
-0.772 2.760 1.699 7369
-0.771 2.757 1.687 5820
-0.772 2.762 1.678 4360
-0.773 2.766 1.670 3104
-0.827 2.958 1.767 3722
-0.828 2.963 1.758 4109
-0.828 2.961 1.746 4704
-0.835 2.985 1.748 6757
-0.838 2.997 1.743 8932
-0.832 2.974 1.719 8913
-0.831 2.972 1.707 9518
-0.830 2.969 1.694 8892
-0.833 2.981 1.689 6302
-0.855 3.060 1.719 7498
-0.855 3.057 1.707 8559
-0.858 3.069 1.701 6633
-0.873 3.121 1.717 5943
-0.876 3.132 1.711 6721
-0.877 3.136 1.701 8183
-0.880 3.148 1.696 8519
-0.906 3.241 1.731 6388
-0.909 3.253 1.724 6527
-0.913 3.264 1.718 6160
-0.912 3.262 1.705 6337
-0.911 3.259 1.692 5854
-0.911 3.257 1.679 4588
-0.966 3.455 1.762 4249
-0.973 3.480 1.761 7083
-0.984 3.519 1.767 7443
-0.989 3.538 1.763 8616
-0.994 3.556 1.759 7125
-1.005 3.596 1.764 7228
-1.013 3.621 1.763 5818
-1.024 3.661 1.768 6137
-1.029 3.679 1.763 10602
-1.030 3.684 1.752 13476
-1.033 3.696 1.744 14084
-1.035 3.700 1.733 11105
-1.038 3.712 1.725 7384
-1.039 3.716 1.714 8139
-1.040 3.720 1.703 8213
-1.039 3.718 1.689 6477
-1.086 3.885 1.746 7018
-1.040 3.719 1.664 7286
-1.093 3.908 1.729 6723
-1.098 3.926 1.723 8816
-1.111 3.973 1.728 7086
-1.114 3.985 1.719 5909
-1.117 3.997 1.710 5014
-1.129 4.037 1.712 7273
-1.128 4.034 1.697 8717
-1.127 4.031 1.682 8025
-1.130 4.043 1.673 8051
-1.131 4.047 1.661 6315
-1.171 4.187 1.700 5344
-1.164 4.163 1.677 3959
-1.179 4.218 1.683 3116
-1.184 4.236 1.676 4949
-1.188 4.248 1.666 6729
-1.189 4.252 1.653 5188
-1.289 4.610 1.766 4609
-1.290 4.614 1.753 5249
-1.291 4.619 1.739 4105
-1.291 4.616 1.722 4390
-1.294 4.628 1.711 5715
-1.293 4.625 1.695 4652
-1.339 4.789 1.735 3742
-1.340 4.793 1.720 3298
-1.315 4.703 1.675 2095
-1.373 4.911 1.727 3396
-1.374 4.915 1.712 3677
-1.390 4.971 1.714 3170
-1.395 4.990 1.704 3319
-1.421 5.082 1.716 2270
-1.428 5.108 1.708 2454
-1.425 5.098 1.688 2104
-1.459 5.219 1.708 2833
-1.475 5.275 1.708 2844
-1.511 5.404 1.729 2736
-1.512 5.408 1.713 3563
-1.542 5.516 1.726 3990
-1.550 5.542 1.716 5269
-1.555 5.561 1.703 7705
-1.556 5.566 1.687 6871
-1.555 5.563 1.668 4809
-1.556 5.567 1.651 4317
-1.665 5.955 1.738 3369
-1.666 5.959 1.721 3234
-1.667 5.964 1.703 3341
-1.662 5.946 1.679 3009
-1.699 6.076 1.694 2634
-1.752 6.265 1.722 2795
-1.753 6.270 1.704 3614
-1.765 6.311 1.694 2763
-1.795 6.419 1.700 2559
-1.761 6.298 1.651 1655
-1.766 6.317 1.635 1544
-1.902 6.804 1.730 2028
-1.906 6.816 1.711 2740
-1.917 6.858 1.699 3088
-1.919 6.862 1.679 5291
-1.920 6.866 1.658 6573
-1.921 6.870 1.637 4315
-1.914 6.845 1.610 3036
-2.055 7.349 1.696 5106
-2.056 7.354 1.674 7207
-2.057 7.358 1.652 4977
-2.061 7.370 1.631 4379
-2.064 7.381 1.611 5788
-2.065 7.385 1.588 4792
-2.068 7.397 1.568 2877
-2.319 8.293 1.716 1658
-2.291 8.193 1.671 1523
-2.294 8.204 1.648 1966
-2.295 8.209 1.623 1773
-2.464 8.814 1.706 1776
-2.531 9.051 1.720 1797
-2.521 9.018 1.686 2343
-2.523 9.022 1.659 2451
-2.530 9.049 1.636 1500
-2.535 9.068 1.611 1008
-2.537 9.072 1.584 635
-2.538 9.076 1.556 347
-2.007 7.179 -0.480 275
-2.005 7.170 -0.501 308
-2.002 7.161 -0.522 266
-0.603 2.165 1.755 3164
-0.605 2.170 1.749 6329
-0.606 2.174 1.742 6329
-0.609 2.185 1.740 6719
-0.627 2.251 1.780 7695
-0.630 2.262 1.778 7161
-0.633 2.273 1.776 6714
-0.635 2.277 1.769 6714
-0.634 2.276 1.758 5627
-0.648 2.324 1.783 5061
-0.630 2.260 1.726 5257
-0.629 2.258 1.715 5941
-0.652 2.338 1.762 7174
-0.653 2.342 1.755 9699
-0.654 2.347 1.748 10888
-0.655 2.351 1.741 12076
-0.658 2.362 1.739 12186
-0.665 2.386 1.745 9344
-0.672 2.409 1.751 10335
-0.676 2.427 1.752 9842
-0.679 2.438 1.749 9775
-0.677 2.429 1.733 8456
-0.669 2.402 1.705 8173
-0.678 2.432 1.715 8950
-0.681 2.443 1.712 10003
-0.684 2.454 1.709 9683
-0.687 2.464 1.706 9843
-0.690 2.475 1.703 9856
-0.693 2.486 1.699 10378
-0.694 2.491 1.692 8410
-0.695 2.495 1.685 6443
-0.718 2.578 1.726 4778
-0.716 2.569 1.711 3717
-0.717 2.573 1.703 4429
-0.720 2.584 1.699 4120
-0.745 2.674 1.744 5921
-0.743 2.665 1.728 9685
-0.742 2.663 1.716 11840
-0.745 2.674 1.712 9311
-0.747 2.679 1.704 6808
-0.752 2.696 1.704 5623
-0.758 2.721 1.708 4929
-0.771 2.765 1.723 5438
-0.770 2.763 1.711 7249
-0.769 2.760 1.699 7607
-0.769 2.758 1.687 5982
-0.770 2.762 1.678 4421
-0.771 2.767 1.670 3091
-0.825 2.959 1.767 4103
-0.826 2.964 1.758 4528
-0.825 2.961 1.746 5025
-0.832 2.986 1.748 6903
-0.835 2.997 1.743 8954
-0.829 2.975 1.719 8945
-0.828 2.972 1.707 9537
-0.828 2.970 1.694 8912
-0.831 2.981 1.689 6235
-0.853 3.060 1.719 7612
-0.852 3.058 1.707 8745
-0.855 3.069 1.701 6814
-0.870 3.121 1.717 6082
-0.873 3.133 1.711 6916
-0.874 3.137 1.701 8407
-0.878 3.148 1.696 8742
-0.906 3.249 1.734 6093
-0.907 3.253 1.724 6337
-0.910 3.265 1.718 6141
-0.909 3.262 1.705 6394
-0.909 3.260 1.692 5828
-0.908 3.257 1.679 4592
-0.963 3.456 1.762 4289
-0.970 3.481 1.761 7247
-0.981 3.520 1.767 7546
-0.986 3.539 1.763 8738
-0.991 3.557 1.759 7268
-1.002 3.597 1.764 6973
-1.010 3.622 1.763 5701
-1.019 3.655 1.765 6263
-1.026 3.680 1.763 10454
-1.027 3.685 1.752 13184
-1.030 3.696 1.744 13789
-1.032 3.701 1.733 10818
-1.035 3.712 1.725 7211
-1.038 3.724 1.717 8101
-1.037 3.721 1.703 8148
-1.036 3.719 1.689 6322
-1.036 3.716 1.675 6965
-1.037 3.720 1.664 7523
-1.089 3.909 1.729 6635
-1.095 3.927 1.723 8751
-1.108 3.974 1.728 7083
-1.111 3.986 1.719 5889
-1.112 3.990 1.707 4965
-1.125 4.038 1.712 7263
-1.125 4.035 1.697 8820
-1.124 4.032 1.682 8074
-1.127 4.044 1.673 8145
-1.128 4.048 1.661 6489
-1.167 4.188 1.700 5531
-1.161 4.164 1.677 4057
-1.174 4.211 1.681 3174
-1.181 4.237 1.676 4879
-1.184 4.249 1.666 6590
-1.185 4.253 1.653 5098
-1.285 4.611 1.766 4557
-1.286 4.615 1.753 5076
-1.288 4.620 1.739 4072
-1.287 4.617 1.722 4457
-1.290 4.629 1.711 5773
-1.289 4.626 1.695 4757
-1.335 4.790 1.735 3739
-1.336 4.794 1.720 3358
-1.360 4.879 1.732 1955
-1.367 4.905 1.725 3366
-1.368 4.909 1.710 3712
-1.384 4.965 1.712 3310
-1.391 4.991 1.704 3523
-1.409 5.054 1.707 2352
-1.424 5.109 1.708 2476
-1.421 5.099 1.688 2037
-1.455 5.220 1.708 2899
-1.471 5.276 1.708 2810
-1.504 5.398 1.727 2729
-1.508 5.410 1.713 3553
-1.538 5.517 1.726 4070
-1.545 5.543 1.716 5301
-1.550 5.562 1.703 7756
-1.552 5.567 1.687 6908
-1.551 5.564 1.668 4808
-1.552 5.568 1.651 4395
-1.660 5.956 1.738 3249
-1.661 5.960 1.721 3228
-1.663 5.965 1.703 3390
-1.658 5.947 1.679 3133
-1.694 6.077 1.694 2593
-1.749 6.274 1.724 2870
-1.758 6.308 1.713 3802
-1.759 6.313 1.694 2983
-1.790 6.421 1.700 2502
-1.756 6.299 1.651 1713
-1.761 6.318 1.635 1605
-1.897 6.806 1.730 1884
-1.900 6.818 1.711 2558
-1.912 6.859 1.699 2859
-1.913 6.863 1.679 5182
-1.914 6.868 1.658 6667
-1.915 6.872 1.637 4410
-1.908 6.846 1.610 2933
-2.049 7.351 1.696 5280
-2.050 7.355 1.674 7441
-2.049 7.352 1.650 5199
-2.055 7.371 1.631 4418
-2.058 7.383 1.611 5754
-2.059 7.387 1.588 4855
-2.062 7.399 1.568 2967
-2.314 8.303 1.717 1677
-2.284 8.194 1.671 1490
-2.287 8.206 1.648 1978
-2.456 8.811 1.732 1861
-2.457 8.816 1.706 1872
-2.523 9.053 1.720 1930
-2.514 9.020 1.686 2491
-2.515 9.024 1.659 2584
-2.523 9.051 1.636 1543
-2.528 9.070 1.611 993
-2.529 9.074 1.584 634
-2.530 9.079 1.556 376
-2.001 7.181 -0.480 255
-2.001 7.179 -0.502 265
-1.948 6.989 -0.570 334
-1.948 6.987 -0.591 334
-0.602 2.165 1.755 3155
-0.604 2.170 1.749 6310
-0.605 2.174 1.742 6310
-0.608 2.185 1.740 6662
-0.626 2.251 1.780 7636
-0.629 2.262 1.778 7105
-0.632 2.273 1.776 6659
-0.634 2.278 1.769 6659
-0.633 2.276 1.758 5580
-0.647 2.324 1.783 5063
-0.629 2.260 1.726 5174
-0.628 2.258 1.715 5815
-0.651 2.338 1.762 7160
-0.652 2.343 1.755 9678
-0.653 2.347 1.748 10827
-0.654 2.352 1.741 11977
-0.657 2.363 1.739 12073
-0.664 2.386 1.745 9136
-0.670 2.410 1.751 10074
-0.675 2.427 1.752 9648
-0.678 2.438 1.749 9627
-0.676 2.430 1.733 8341
-0.668 2.402 1.705 8048
-0.677 2.432 1.715 8844
-0.680 2.443 1.712 9900
-0.683 2.454 1.709 9525
-0.686 2.465 1.706 9598
-0.689 2.476 1.703 9646
-0.692 2.486 1.699 10200
-0.693 2.491 1.692 8302
-0.694 2.495 1.685 6404
-0.717 2.578 1.726 4853
-0.715 2.569 1.711 3809
-0.716 2.574 1.703 4497
-0.719 2.585 1.699 4156
-0.744 2.674 1.744 5801
-0.742 2.666 1.728 9637
-0.741 2.664 1.716 11774
-0.744 2.675 1.712 9264
-0.745 2.679 1.704 6775
-0.750 2.697 1.704 5536
-0.757 2.721 1.708 4827
-0.769 2.765 1.723 5320
-0.769 2.763 1.711 7131
-0.768 2.761 1.699 7549
-0.767 2.758 1.687 5939
-0.769 2.763 1.678 4379
-0.820 2.948 1.772 3068
-0.823 2.959 1.767 4245
-0.825 2.964 1.758 4670
-0.824 2.962 1.746 5143
-0.831 2.986 1.748 6965
-0.834 2.998 1.743 8958
-0.828 2.975 1.719 8941
-0.827 2.973 1.707 9539
-0.826 2.970 1.694 8924
-0.830 2.982 1.689 6243
-0.852 3.061 1.719 7674
-0.853 3.065 1.710 8794
-0.854 3.070 1.701 6841
-0.869 3.122 1.717 5979
-0.872 3.133 1.711 6808
-0.873 3.138 1.701 8311
-0.876 3.149 1.696 8684
-0.904 3.249 1.734 5777
-0.905 3.254 1.724 6101
-0.908 3.265 1.718 5903
-0.908 3.263 1.705 6125
-0.905 3.253 1.689 5658
-0.906 3.258 1.679 4564
-0.962 3.456 1.762 4269
-0.971 3.488 1.764 7266
-0.980 3.521 1.767 7641
-0.985 3.539 1.763 8851
-0.990 3.558 1.759 7317
-1.001 3.597 1.764 6797
-1.008 3.623 1.763 5473
-1.017 3.655 1.765 6042
-1.024 3.681 1.763 10076
-1.025 3.685 1.752 12630
-1.029 3.697 1.744 13213
-1.030 3.701 1.733 10329
-1.033 3.713 1.725 6896
-1.036 3.724 1.717 7883
-1.037 3.729 1.706 7904
-1.035 3.719 1.689 5965
-1.034 3.716 1.675 6784
-1.035 3.721 1.664 7497
-1.088 3.909 1.729 6500
-1.093 3.928 1.723 8591
-1.106 3.975 1.728 6969
-1.109 3.986 1.719 5773
-1.110 3.991 1.707 4818
-1.123 4.038 1.712 7125
-1.123 4.035 1.697 8746
-1.124 4.040 1.685 7908
-1.125 4.044 1.673 7938
-1.126 4.048 1.661 6316
-1.165 4.189 1.700 5613
-1.161 4.172 1.680 4055
-1.172 4.212 1.681 3164
-1.179 4.238 1.676 4691
-1.182 4.249 1.666 6299
-1.183 4.254 1.653 4826
-1.283 4.611 1.766 4502
-1.286 4.623 1.755 4913
-1.283 4.613 1.736 3882
-1.285 4.618 1.722 4308
-1.288 4.629 1.711 5594
-1.287 4.626 1.695 4693
-1.333 4.790 1.735 3649
-1.334 4.795 1.720 3347
-1.305 4.690 1.670 1944
-1.365 4.905 1.725 3208
-1.366 4.910 1.710 3576
-1.381 4.965 1.712 3048
-1.395 5.013 1.710 3214
-1.402 5.040 1.702 2414
-1.422 5.110 1.708 2418
-1.447 5.202 1.719 2034
-1.453 5.221 1.708 2948
-1.468 5.277 1.708 2732
-1.500 5.391 1.724 2694
-1.505 5.410 1.713 3499
-1.535 5.518 1.726 4042
-1.542 5.544 1.716 5246
-1.548 5.563 1.703 7675
-1.549 5.568 1.687 6867
-1.548 5.565 1.668 4800
-1.549 5.569 1.651 4429
-1.657 5.957 1.738 3196
-1.659 5.961 1.721 3224
-1.658 5.958 1.701 3413
-1.655 5.948 1.679 3159
-1.691 6.078 1.694 2580
-1.746 6.275 1.724 2827
-1.755 6.309 1.713 3865
-1.757 6.313 1.694 3034
-1.787 6.422 1.700 2447
-1.753 6.300 1.651 1728
-1.758 6.319 1.635 1629
-1.894 6.806 1.730 1790
-1.897 6.818 1.711 2486
-1.909 6.860 1.699 2786
-1.910 6.864 1.679 5095
-1.911 6.869 1.658 6641
-1.912 6.873 1.637 4457
-1.905 6.847 1.610 2920
-2.045 7.352 1.696 5318
-2.047 7.356 1.674 7501
-2.046 7.353 1.650 5343
-2.049 7.365 1.630 4407
-2.054 7.384 1.611 5602
-2.056 7.388 1.588 4779
-2.057 7.392 1.566 2950
-2.310 8.304 1.717 1687
-2.280 8.195 1.671 1415
-2.283 8.207 1.648 1940
-2.452 8.812 1.732 1873
-2.453 8.817 1.706 1894
-2.519 9.054 1.720 1926
-2.510 9.021 1.686 2495
-2.511 9.025 1.659 2589
-2.519 9.052 1.636 1523
-2.524 9.072 1.611 999
-2.525 9.076 1.584 661
-2.528 9.087 1.558 389
-1.943 6.983 -0.569 333
-1.942 6.981 -0.590 333
-0.602 2.165 1.755 3193
-0.603 2.170 1.749 6387
-0.604 2.175 1.742 6387
-0.607 2.185 1.740 6702
-0.626 2.252 1.780 7675
-0.629 2.262 1.778 7107
-0.632 2.273 1.776 6638
-0.633 2.278 1.769 6638
-0.633 2.276 1.758 5546
-0.646 2.325 1.783 5134
-0.628 2.260 1.726 5117
-0.628 2.258 1.715 5785
-0.650 2.338 1.762 7224
-0.651 2.343 1.755 9767
-0.652 2.347 1.748 10891
-0.654 2.352 1.741 12016
-0.657 2.363 1.739 12107
-0.663 2.386 1.745 9024
-0.670 2.410 1.751 9877
-0.675 2.427 1.752 9573
-0.678 2.438 1.749 9644
-0.675 2.430 1.733 8377
-0.668 2.402 1.705 8066
-0.676 2.432 1.715 8870
-0.679 2.443 1.712 9926
-0.682 2.454 1.709 9471
-0.685 2.465 1.706 9443
-0.688 2.476 1.703 9553
-0.691 2.487 1.699 10163
-0.692 2.491 1.692 8300
-0.693 2.495 1.685 6438
-0.716 2.578 1.726 4847
-0.714 2.569 1.711 3832
-0.715 2.574 1.703 4523
-0.718 2.585 1.699 4188
-0.743 2.675 1.744 5723
-0.741 2.666 1.728 9645
-0.740 2.664 1.716 11797
-0.743 2.675 1.712 9298
-0.745 2.679 1.704 6816
-0.749 2.697 1.704 5518
-0.756 2.721 1.708 4732
-0.767 2.759 1.719 5279
-0.766 2.757 1.707 7112
-0.767 2.761 1.699 7579
-0.767 2.759 1.687 5929
-0.768 2.763 1.678 4321
-0.819 2.948 1.772 3079
-0.822 2.960 1.767 4319
-0.824 2.964 1.758 4769
-0.823 2.962 1.746 5214
-0.830 2.987 1.748 7077
-0.833 2.998 1.743 9088
-0.829 2.982 1.723 9003
-0.826 2.973 1.707 9456
-0.826 2.971 1.694 8834
-0.827 2.975 1.685 6125
-0.851 3.061 1.719 7865
-0.850 3.059 1.707 9011
-0.853 3.070 1.701 7027
-0.868 3.122 1.717 6061
-0.871 3.133 1.711 6839
-0.872 3.138 1.701 8302
-0.875 3.149 1.696 8648
-0.903 3.250 1.734 5400
-0.904 3.254 1.724 5730
-0.907 3.266 1.718 5525
-0.905 3.256 1.702 5880
-0.904 3.254 1.689 5634
-0.905 3.258 1.679 4659
-0.962 3.463 1.765 4323
-0.970 3.489 1.764 7376
-0.978 3.521 1.767 7792
-0.984 3.540 1.763 9011
-0.989 3.558 1.759 7408
-1.000 3.597 1.764 6583
-1.007 3.623 1.763 5208
-1.016 3.655 1.765 5903
-1.023 3.681 1.763 9730
-1.024 3.686 1.752 12103
-1.027 3.697 1.744 12648
-1.029 3.702 1.733 9811
-1.032 3.713 1.725 6569
-1.035 3.725 1.717 7657
-1.036 3.729 1.706 7669
-1.036 3.726 1.692 5667
-1.033 3.717 1.675 6654
-1.034 3.721 1.664 7438
-1.086 3.910 1.729 6306
-1.092 3.928 1.723 8365
-1.105 3.975 1.728 6871
-1.110 3.994 1.722 5691
-1.111 3.998 1.710 4683
-1.122 4.038 1.712 7049
-1.122 4.036 1.697 8783
-1.123 4.040 1.685 7893
-1.124 4.044 1.673 7858
-1.125 4.049 1.661 6244
-1.164 4.189 1.700 5680
-1.167 4.201 1.690 4079
-1.171 4.212 1.681 3123
-1.178 4.238 1.676 4562
-1.181 4.250 1.666 6124
-1.182 4.254 1.653 4680
-1.282 4.612 1.766 4457
-1.285 4.623 1.755 4756
-1.282 4.613 1.736 3787
-1.283 4.618 1.722 4244
-1.287 4.630 1.711 5476
-1.286 4.627 1.695 4701
-1.331 4.791 1.735 3606
-1.333 4.795 1.720 3398
-1.308 4.705 1.675 2111
-1.363 4.906 1.725 3159
-1.365 4.910 1.710 3566
-1.378 4.958 1.709 3083
-1.391 5.007 1.708 3230
-1.399 5.033 1.700 2502
-1.422 5.118 1.710 2349
-1.446 5.203 1.719 2045
-1.451 5.222 1.708 2899
-1.467 5.277 1.708 2781
-1.498 5.392 1.724 2696
-1.504 5.411 1.713 3487
-1.533 5.518 1.726 4050
-1.541 5.544 1.716 5257
-1.546 5.564 1.703 7636
-1.547 5.568 1.687 6703
-1.547 5.565 1.668 4684
-1.548 5.569 1.651 4453
-1.547 5.566 1.633 3131
-1.657 5.962 1.721 3181
-1.656 5.959 1.701 3474
-1.653 5.948 1.679 3119
-1.689 6.078 1.694 2677
-1.744 6.275 1.724 2880
-1.753 6.310 1.713 3971
-1.755 6.314 1.694 3103
-1.785 6.422 1.700 2431
-1.753 6.308 1.652 1765
-1.758 6.327 1.637 1662
-1.892 6.807 1.730 1737
-1.897 6.826 1.713 2442
-1.907 6.861 1.699 2790
-1.908 6.865 1.679 5090
-1.907 6.862 1.656 6751
-1.910 6.873 1.637 4652
-1.907 6.863 1.613 2890
-2.043 7.353 1.696 5298
-2.044 7.357 1.674 7450
-2.044 7.354 1.650 5378
-2.047 7.365 1.630 4410
-2.052 7.385 1.611 5476
-2.053 7.389 1.588 4686
-2.054 7.393 1.566 2879
-2.308 8.304 1.717 1725
-2.309 8.309 1.692 1435
-2.281 8.208 1.648 1922
-2.449 8.813 1.732 1907
-2.450 8.818 1.706 1938
-2.516 9.055 1.720 1953
-2.507 9.022 1.686 2484
-2.508 9.026 1.659 2546
-2.516 9.053 1.636 1529
-2.521 9.072 1.611 1003
-2.522 9.076 1.584 632
-2.523 9.080 1.556 352
-1.943 6.991 -0.570 319
-1.942 6.989 -0.591 319
-0.601 2.166 1.755 3270
-0.602 2.170 1.749 6540
-0.603 2.175 1.742 6540
-0.606 2.186 1.740 6839
-0.624 2.252 1.780 7700
-0.627 2.263 1.778 7107
-0.630 2.274 1.776 6639
-0.632 2.278 1.769 6639
-0.633 2.283 1.762 5537
-0.645 2.325 1.783 5228
-0.627 2.261 1.726 5047
-0.626 2.259 1.715 5747
-0.648 2.339 1.762 7346
-0.650 2.343 1.755 9923
-0.651 2.348 1.748 11003
-0.652 2.352 1.741 12083
-0.655 2.363 1.739 12160
-0.662 2.387 1.745 8921
-0.670 2.417 1.755 9710
-0.673 2.428 1.752 9532
-0.676 2.439 1.749 9703
-0.676 2.437 1.738 8448
-0.666 2.403 1.705 8097
-0.675 2.433 1.715 8915
-0.678 2.444 1.712 9953
-0.681 2.454 1.709 9424
-0.684 2.465 1.706 9329
-0.687 2.476 1.703 9540
-0.690 2.487 1.699 10234
-0.691 2.491 1.692 8367
-0.692 2.496 1.685 6500
-0.715 2.578 1.726 4790
-0.713 2.570 1.711 3832
-0.714 2.574 1.703 4629
-0.717 2.585 1.699 4391
-0.742 2.675 1.744 5579
-0.739 2.666 1.728 9560
-0.739 2.664 1.716 11724
-0.742 2.675 1.712 9255
-0.743 2.680 1.704 6800
-0.748 2.697 1.704 5447
-0.755 2.722 1.708 4543
-0.767 2.766 1.723 5234
-0.765 2.757 1.707 7099
-0.766 2.761 1.699 7627
-0.765 2.759 1.687 5915
-0.766 2.763 1.678 4251
-0.818 2.949 1.772 3060
-0.821 2.960 1.767 4374
-0.822 2.965 1.758 4886
-0.823 2.969 1.750 5311
-0.828 2.987 1.748 7171
-0.831 2.998 1.743 9157
-0.827 2.983 1.723 9093
-0.825 2.974 1.707 9499
-0.824 2.971 1.694 8904
-0.825 2.976 1.685 6183
-0.849 3.062 1.719 7934
-0.850 3.066 1.710 9110
-0.851 3.070 1.701 7091
-0.866 3.123 1.717 6030
-0.869 3.134 1.711 6808
-0.870 3.138 1.701 8297
-0.873 3.150 1.696 8686
-0.876 3.161 1.690 5362
-0.903 3.255 1.724 5435
-0.904 3.259 1.715 5245
-0.903 3.257 1.702 5760
-0.902 3.254 1.689 5724
-0.904 3.258 1.679 4822
-0.960 3.464 1.765 4360
-0.968 3.489 1.764 7436
-0.977 3.522 1.767 7884
-0.982 3.540 1.763 9083
-0.987 3.559 1.759 7390
-0.998 3.598 1.764 6482
-1.005 3.624 1.763 5115
-1.014 3.656 1.765 5776
-1.021 3.682 1.763 9390
-1.024 3.693 1.755 11625
-1.025 3.698 1.744 12168
-1.027 3.702 1.733 9389
-1.030 3.714 1.725 6315
-1.033 3.725 1.717 7452
-1.034 3.730 1.706 7413
-1.033 3.727 1.692 5411
-1.031 3.717 1.675 6599
-1.032 3.721 1.664 7496
-1.033 3.726 1.653 6077
-1.089 3.929 1.723 8130
-1.102 3.976 1.728 6829
-1.108 3.995 1.722 5635
-1.109 3.999 1.710 4580
-1.120 4.039 1.712 6996
-1.119 4.036 1.697 8813
-1.120 4.041 1.685 7923
-1.122 4.045 1.673 7886
-1.123 4.049 1.661 6282
-1.162 4.190 1.700 5737
-1.165 4.201 1.690 4182
-1.168 4.213 1.681 3125
-1.173 4.232 1.673 4476
-1.179 4.250 1.666 5975
-1.180 4.255 1.653 4542
-1.279 4.612 1.766 4413
-1.282 4.624 1.755 4613
-1.279 4.614 1.736 3720
-1.279 4.611 1.720 4264
-1.284 4.630 1.711 5500
-1.283 4.627 1.695 4642
-1.327 4.784 1.732 3472
-1.330 4.796 1.720 3297
-1.305 4.706 1.675 2209
-1.361 4.907 1.725 3107
-1.362 4.911 1.710 3449
-1.379 4.974 1.714 3170
-1.386 5.000 1.706 3491
-1.394 5.026 1.698 2611
-1.419 5.118 1.710 2339
-1.443 5.203 1.719 2093
-1.448 5.222 1.708 2903
-1.464 5.278 1.708 2705
-1.493 5.385 1.722 2624
-1.501 5.412 1.713 3301
-1.530 5.519 1.726 4053
-1.540 5.553 1.718 5226
-1.543 5.564 1.703 7557
-1.544 5.569 1.687 6569
-1.545 5.573 1.670 4559
-1.545 5.570 1.651 4416
-1.587 5.722 1.675 3201
-1.653 5.963 1.721 3107
-1.653 5.960 1.701 3523
-1.650 5.949 1.679 3105
-1.686 6.079 1.694 2821
-1.740 6.276 1.724 2921
-1.750 6.311 1.713 4021
-1.751 6.315 1.694 3153
-1.781 6.423 1.700 2441
-1.749 6.309 1.652 1737
-1.755 6.328 1.637 1654
-1.888 6.808 1.730 1715
-1.893 6.827 1.713 2391
-1.903 6.862 1.699 2740
-1.904 6.866 1.679 5020
-1.903 6.863 1.656 6724
-1.906 6.875 1.637 4706
-1.905 6.871 1.615 2810
-2.039 7.354 1.696 5394
-2.040 7.358 1.674 7519
-2.039 7.355 1.650 5520
-2.043 7.367 1.630 4444
-2.048 7.386 1.611 5368
-2.049 7.390 1.588 4652
-2.050 7.394 1.566 2901
-2.303 8.306 1.717 1732
-2.363 8.520 1.732 1520
-2.276 8.209 1.648 1851
-2.444 8.815 1.732 1996
-2.445 8.819 1.706 2034
-2.511 9.057 1.720 1957
-2.502 9.023 1.686 2469
-2.503 9.028 1.659 2526
-2.511 9.054 1.636 1515
-2.518 9.081 1.612 986
-2.517 9.078 1.584 624
-2.518 9.082 1.556 368
-1.991 7.182 -0.589 289
-1.991 7.180 -0.611 289
-0.600 2.166 1.755 3336
-0.601 2.170 1.749 6673
-0.603 2.175 1.742 6673
-0.605 2.186 1.740 6931
-0.624 2.252 1.780 7675
-0.627 2.263 1.778 7055
-0.630 2.274 1.776 6574
-0.631 2.278 1.769 6574
-0.632 2.283 1.762 5497
-0.644 2.325 1.783 5317
-0.645 2.330 1.776 5089
-0.626 2.259 1.715 5731
-0.648 2.339 1.762 7461
-0.649 2.343 1.755 10060
-0.650 2.348 1.748 11106
-0.652 2.352 1.741 12153
-0.653 2.357 1.734 12223
-0.661 2.387 1.745 8849
-0.670 2.417 1.755 9590
-0.673 2.428 1.752 9487
-0.676 2.439 1.749 9723
-0.675 2.437 1.738 8459
-0.666 2.403 1.705 8026
-0.674 2.433 1.715 8901
-0.677 2.444 1.712 9964
-0.680 2.455 1.709 9431
-0.683 2.466 1.706 9349
-0.686 2.476 1.703 9573
-0.689 2.487 1.699 10280
-0.690 2.492 1.692 8388
-0.691 2.496 1.685 6495
-0.714 2.579 1.726 4849
-0.707 2.550 1.698 3917
-0.713 2.574 1.703 4744
-0.716 2.585 1.699 4513
-0.741 2.675 1.744 5417
-0.739 2.667 1.728 9472
-0.738 2.664 1.716 11659
-0.741 2.675 1.712 9194
-0.744 2.686 1.708 6771
-0.747 2.698 1.704 5370
-0.754 2.722 1.708 4386
-0.766 2.766 1.723 5199
-0.764 2.757 1.707 7056
-0.765 2.762 1.699 7588
-0.764 2.759 1.687 5830
-0.766 2.764 1.678 4131
-0.817 2.949 1.772 3090
-0.820 2.960 1.767 4481
-0.821 2.965 1.758 5033
-0.823 2.969 1.750 5407
-0.828 2.987 1.748 7270
-0.831 2.999 1.743 9254
-0.826 2.983 1.723 9200
-0.824 2.974 1.707 9399
-0.823 2.971 1.694 8720
-0.849 3.064 1.732 6033
-0.848 3.062 1.719 8045
-0.849 3.066 1.710 9218
-0.851 3.071 1.701 7149
-0.865 3.123 1.717 6109
-0.868 3.134 1.711 6846
-0.869 3.139 1.701 8316
-0.873 3.150 1.696 8657
-0.878 3.168 1.693 5317
-0.900 3.248 1.721 5412
-0.903 3.259 1.715 5256
-0.902 3.257 1.702 5731
-0.902 3.254 1.689 5651
-0.903 3.259 1.679 4765
-0.960 3.464 1.765 4326
-0.967 3.489 1.764 7444
-0.974 3.515 1.764 7829
-0.981 3.540 1.763 8931
-0.986 3.559 1.759 7217
-0.997 3.598 1.764 6191
-1.004 3.624 1.763 4988
-1.013 3.656 1.765 5658
-1.020 3.682 1.763 9110
-1.023 3.693 1.755 11217
-1.024 3.698 1.744 11729
-1.026 3.702 1.733 9002
-1.029 3.714 1.725 6108
-1.032 3.725 1.717 7331
-1.033 3.730 1.706 7275
-1.033 3.727 1.692 5187
-1.030 3.717 1.675 6480
-1.031 3.722 1.664 7506
-1.032 3.726 1.653 6176
-1.090 3.936 1.726 7942
-1.101 3.976 1.728 6786
-1.107 3.995 1.722 5547
-1.108 3.999 1.710 4458
-1.119 4.039 1.712 6957
-1.118 4.037 1.697 8801
-1.119 4.041 1.685 7833
-1.121 4.045 1.673 7756
-1.122 4.050 1.661 6223
-1.161 4.190 1.700 5782
-1.164 4.202 1.690 4261
-1.167 4.213 1.681 3138
-1.172 4.232 1.673 4396
-1.178 4.251 1.666 5739
-1.179 4.255 1.653 4320
-1.278 4.613 1.766 4344
-1.281 4.624 1.755 4481
-1.278 4.614 1.736 3648
-1.278 4.612 1.720 4246
-1.283 4.631 1.711 5491
-1.282 4.628 1.695 4695
-1.325 4.785 1.732 3463
-1.329 4.796 1.720 3381
-1.328 4.793 1.703 1891
-1.359 4.907 1.725 3002
-1.361 4.911 1.710 3383
-1.362 4.916 1.695 2966
-1.389 5.015 1.710 3358
-1.395 5.034 1.700 2669
-1.418 5.119 1.710 2257
-1.442 5.204 1.719 2075
-1.447 5.223 1.708 2801
-1.462 5.278 1.708 2763
-1.492 5.386 1.722 2735
-1.497 5.405 1.710 3317
-1.529 5.519 1.726 4115
-1.538 5.553 1.718 5232
-1.542 5.565 1.703 7492
-1.543 5.569 1.687 6464
-1.544 5.574 1.670 4531
-1.543 5.570 1.651 4476
-1.585 5.722 1.675 3160
-1.652 5.963 1.721 3062
