2.530 4.351 1.532 1447
2.722 4.681 1.639 1046
2.528 4.348 1.516 2257
2.720 4.678 1.621 585
2.530 4.352 1.501 3340
2.603 4.477 1.541 398
2.536 4.362 1.489 2746
2.609 4.487 1.528 330
2.542 4.372 1.476 1363
2.615 4.497 1.515 271
2.540 4.368 1.459 1393
2.613 4.494 1.498 269
2.542 4.372 1.445 1394
2.615 4.497 1.483 345
2.548 4.382 1.432 921
2.621 4.507 1.470 375
2.550 4.385 1.417 605
2.623 4.511 1.455 262
2.551 4.388 1.403 771
2.553 4.391 1.388 1185
2.555 4.394 1.373 1592
2.561 4.404 1.361 1914
2.563 4.407 1.346 2131
2.636 4.534 1.381 282
2.564 4.410 1.331 1905
2.638 4.537 1.366 529
2.566 4.413 1.316 1537
2.640 4.540 1.351 808
2.607 4.483 1.319 1585
2.604 4.479 1.303 1591
2.606 4.482 1.288 1417
2.608 4.485 1.273 1150
2.574 4.428 1.243 908
2.648 4.555 1.275 279
2.576 4.430 1.228 1280
2.665 4.584 1.266 350
2.578 4.433 1.213 1409
2.663 4.580 1.249 422
2.579 4.436 1.198 1295
2.673 4.597 1.237 343
2.581 4.438 1.183 1065
2.694 4.633 1.229 478
2.586 4.448 1.170 965
2.691 4.629 1.212 554
2.588 4.450 1.155 810
2.689 4.625 1.195 617
2.589 4.453 1.140 638
2.695 4.634 1.181 556
2.708 4.657 1.170 455
2.591 4.455 1.125 388
2.721 4.680 1.159 408
2.631 4.525 1.125 330
2.722 4.682 1.144 622
2.797 4.810 1.171 326
2.712 4.665 1.124 1030
2.787 4.792 1.151 443
2.714 4.667 1.108 1205
2.788 4.795 1.135 382
2.723 4.683 1.095 904
2.740 4.712 1.085 579
2.757 4.742 1.075 692
2.682 4.613 1.049 269
2.754 4.737 1.057 630
2.756 4.740 1.042 472
2.757 4.742 1.026 368
2.798 4.812 1.022 409
2.795 4.807 1.005 572
2.792 4.802 0.988 428
2.682 4.613 0.954 306
2.683 4.615 0.939 314
2.845 4.892 0.987 251
2.842 4.888 0.970 293
2.843 4.890 0.953 347
2.768 4.761 0.932 279
2.789 4.797 0.921 374
2.802 4.819 0.909 413
2.807 4.828 0.893 473
2.808 4.830 0.877 441
2.813 4.839 0.862 351
2.814 4.840 0.846 292
2.688 4.623 0.814 252
2.685 4.618 0.798 394
2.686 4.620 0.782 395
2.695 4.635 0.768 327
2.696 4.636 0.753 267
0.765 1.315 0.270 253
1.177 2.018 1.821 1794
1.116 1.914 1.731 665
1.180 2.023 1.814 3588
1.119 1.918 1.725 1330
1.202 2.060 1.835 4774
1.137 1.949 1.742 2480
1.204 2.064 1.828 6472
1.140 1.954 1.736 1957
1.207 2.069 1.822 8169
1.142 1.958 1.729 1435
1.222 2.095 1.833 6392
1.147 1.967 1.727 1171
1.238 2.122 1.845 6823
1.176 2.016 1.757 1076
1.240 2.126 1.838 6823
1.178 2.020 1.751 1076
1.239 2.125 1.826 7588
1.177 2.018 1.740 1065
1.242 2.129 1.819 8440
1.180 2.022 1.733 1277
1.244 2.133 1.812 7206
1.182 2.026 1.726 847
1.250 2.143 1.809 6065
1.312 2.250 1.895 904
1.252 2.147 1.802 5028
1.315 2.254 1.887 1305
1.255 2.151 1.795 3992
1.318 2.259 1.880 1706
1.257 2.155 1.788 3992
1.320 2.263 1.872 1706
1.303 2.233 1.838 4018
1.240 2.126 1.754 1508
1.289 2.209 1.809 4417
1.352 2.317 1.892 479
1.288 2.208 1.797 6185
1.351 2.316 1.880 921
1.284 2.201 1.781 8232
1.347 2.309 1.864 2185
1.289 2.210 1.778 8791
1.353 2.319 1.861 1820
1.292 2.214 1.771 9401
1.359 2.329 1.857 1977
1.294 2.219 1.764 7063
1.358 2.328 1.845 2828
1.317 2.257 1.782 6093
1.380 2.367 1.863 1439
1.356 2.325 1.821 4619
1.292 2.215 1.740 2510
1.359 2.329 1.813 5430
1.295 2.219 1.733 1011
1.361 2.333 1.806 5552
1.297 2.223 1.726 773
1.367 2.343 1.802 5719
1.303 2.233 1.722 661
1.363 2.336 1.786 5569
1.427 2.446 1.865 543
1.362 2.334 1.774 5816
1.426 2.445 1.853 923
1.401 2.402 1.812 4861
1.337 2.292 1.733 1306
1.404 2.407 1.804 5362
1.339 2.296 1.726 829
1.410 2.417 1.800 7213
1.345 2.305 1.722 859
1.412 2.421 1.792 9111
1.347 2.309 1.715 610
1.415 2.425 1.784 9591
1.480 2.536 1.861 679
1.414 2.423 1.772 10400
1.479 2.535 1.849 1089
1.416 2.427 1.764 10433
1.481 2.539 1.840 1115
1.418 2.431 1.756 9581
1.484 2.543 1.832 1141
1.421 2.435 1.748 8695
1.486 2.548 1.823 1274
1.423 2.439 1.740 5891
1.496 2.564 1.823 2705
1.498 2.568 1.814 3941
1.432 2.455 1.740 3386
1.507 2.584 1.814 4590
1.435 2.459 1.731 2924
1.513 2.594 1.809 5349
1.437 2.463 1.723 2463
1.512 2.593 1.797 4304
1.443 2.473 1.719 2545
1.490 2.555 1.761 5683
1.424 2.441 1.688 1155
1.493 2.559 1.752 6063
1.559 2.673 1.825 1495
1.537 2.635 1.790 5606
1.471 2.521 1.717 3818
1.543 2.645 1.785 7838
1.473 2.525 1.709 3610
1.549 2.655 1.780 8507
1.479 2.535 1.704 2499
1.551 2.659 1.771 7706
1.485 2.545 1.700 1052
1.554 2.663 1.762 6148
1.620 2.778 1.833 904
1.556 2.668 1.753 4816
1.623 2.782 1.824 773
1.587 2.720 1.774 4314
1.520 2.605 1.704 1085
1.589 2.724 1.765 4899
1.522 2.609 1.695 749
1.595 2.734 1.760 5594
1.662 2.849 1.829 1055
1.601 2.744 1.754 6385
1.668 2.860 1.823 1350
1.603 2.748 1.745 6249
1.671 2.864 1.814 2046
1.648 2.826 1.779 7156
1.581 2.710 1.711 1785
1.636 2.805 1.755 7091
1.704 2.921 1.823 1619
1.617 2.773 1.725 7489
1.685 2.889 1.792 3694
1.652 2.832 1.747 7055
1.720 2.948 1.814 3246
1.679 2.879 1.762 7479
1.611 2.762 1.696 3502
1.689 2.895 1.760 9945
1.621 2.778 1.693 3243
1.698 2.911 1.757 9665
1.630 2.795 1.691 2739
1.708 2.928 1.754 7346
1.790 3.069 1.834 2438
1.732 2.969 1.765 5122
1.804 3.092 1.834 2174
1.763 3.022 1.782 4878
1.680 2.880 1.704 1775
1.776 3.045 1.783 8896
1.686 2.890 1.698 1684
1.786 3.062 1.779 7919
1.714 2.938 1.712 1725
1.810 3.103 1.789 5538
1.741 2.985 1.725 2948
1.816 3.113 1.782 5410
1.747 2.995 1.719 3149
1.826 3.130 1.778 8676
1.757 3.012 1.715 2719
1.832 3.140 1.771 11283
1.901 3.258 1.833 2160
1.841 3.157 1.767 7462
1.910 3.275 1.829 2307
1.898 3.254 1.805 4661
1.826 3.130 1.740 3550
1.901 3.259 1.794 5149
1.828 3.134 1.730 2310
1.903 3.263 1.783 5693
1.834 3.144 1.723 1690
1.906 3.267 1.773 5185
1.975 3.386 1.833 1414
1.948 3.340 1.796 4558
1.879 3.221 1.736 1809
1.954 3.350 1.788 7412
1.885 3.231 1.729 1853
1.964 3.367 1.783 6798
1.894 3.248 1.724 1679
1.981 3.396 1.785 5932
2.051 3.516 1.843 1588
1.998 3.426 1.786 5143
1.928 3.306 1.727 3491
1.942 3.329 1.725 3543
2.012 3.449 1.783 2857
2.036 3.491 1.790 2986
1.963 3.364 1.729 2188
2.061 3.533 1.796 4690
1.991 3.413 1.739 1971
2.063 3.537 1.785 5621
2.133 3.657 1.841 1962
2.069 3.548 1.776 5327
2.140 3.668 1.832 2898
2.076 3.558 1.767 4167
2.146 3.679 1.823 3426
2.145 3.677 1.807 4378
2.074 3.556 1.752 3208
2.099 3.598 1.758 4269
2.169 3.719 1.813 2597
2.101 3.602 1.745 3448
2.187 3.749 1.812 2800
2.193 3.759 1.802 3939
2.111 3.619 1.739 2925
2.195 3.763 1.789 4612
2.124 3.642 1.736 1880
2.198 3.768 1.777 4663
2.298 3.940 1.853 1244
2.193 3.759 1.759 4147
2.327 3.989 1.859 1336
2.199 3.769 1.749 4410
2.288 3.923 1.815 2496
2.205 3.780 1.739 4431
2.298 3.940 1.808 3706
2.312 3.964 1.803 3465
2.211 3.790 1.729 2915
2.326 3.987 1.798 4426
2.254 3.865 1.746 2576
2.328 3.991 1.784 7314
2.429 4.165 1.857 2779
2.331 3.995 1.771 7849
2.417 4.143 1.832 3134
2.337 4.006 1.760 5100
2.419 4.148 1.818 3332
2.358 4.042 1.760 3041
2.490 4.268 1.852 2617
2.368 4.059 1.752 2928
2.470 4.234 1.822 2459
2.480 4.251 1.813 3853
2.370 4.063 1.738 2265
2.490 4.268 1.804 6098
2.561 4.391 1.852 1544
2.496 4.279 1.792 6590
2.568 4.402 1.840 1462
2.506 4.296 1.783 5047
2.578 4.419 1.830 944
2.531 4.339 1.783 5158
2.603 4.462 1.830 1112
2.575 4.414 1.796 4473
2.503 4.291 1.749 1755
2.589 4.438 1.788 3259
2.517 4.314 1.742 1251
2.595 4.449 1.776 2331
2.667 4.572 1.822 1336
2.719 4.661 1.838 3001
2.632 4.511 1.783 2015
2.718 4.659 1.820 4558
2.619 4.489 1.758 1690
2.720 4.663 1.804 6397
2.633 4.513 1.750 1312
2.726 4.674 1.791 9211
2.654 4.550 1.746 1297
2.725 4.672 1.773 10637
2.645 4.534 1.724 1004
2.727 4.676 1.757 9046
2.651 4.545 1.711 640
2.730 4.680 1.742 5427
2.531 4.339 1.624 377
2.736 4.690 1.728 3438
2.537 4.349 1.611 486
2.742 4.701 1.715 2395
2.555 4.379 1.606 670
2.733 4.685 1.692 1420
2.557 4.383 1.591 1050
2.724 4.669 1.670 1268
2.555 4.380 1.574 1195
2.538 4.351 1.549 1112
2.726 4.673 1.654 1097
2.536 4.348 1.532 1411
2.728 4.677 1.639 1084
2.534 4.345 1.516 2136
2.730 4.681 1.623 587
2.536 4.348 1.501 3274
2.609 4.473 1.541 498
2.542 4.358 1.489 2869
2.615 4.483 1.528 355
2.548 4.368 1.476 1654
2.550 4.371 1.461 1673
2.552 4.375 1.447 1648
2.554 4.378 1.432 1106
2.627 4.504 1.470 261
2.560 4.388 1.419 799
2.558 4.384 1.403 988
2.559 4.388 1.388 1330
2.633 4.514 1.424 269
2.561 4.391 1.373 1736
2.635 4.517 1.409 432
2.567 4.400 1.361 2038
2.641 4.527 1.396 346
2.569 4.404 1.346 2267
2.642 4.530 1.381 451
2.570 4.407 1.331 2022
2.644 4.533 1.366 593
2.572 4.410 1.316 1597
2.646 4.536 1.351 575
2.613 4.479 1.319 1885
2.615 4.482 1.304 2074
2.612 4.478 1.288 1883
2.614 4.481 1.273 1482
2.620 4.491 1.259 1097
2.582 4.427 1.228 1447
2.656 4.554 1.259 290
2.584 4.429 1.213 1567
2.674 4.583 1.251 281
2.589 4.439 1.200 1622
2.683 4.599 1.239 306
2.591 4.441 1.185 1530
2.685 4.602 1.223 393
2.592 4.444 1.170 1297
2.682 4.598 1.206 393
2.594 4.447 1.155 942
2.696 4.621 1.195 332
2.595 4.449 1.140 758
2.701 4.630 1.181 469
2.710 4.646 1.169 572
2.597 4.452 1.125 536
2.716 4.656 1.155 582
2.594 4.447 1.109 285
2.717 4.658 1.139 575
2.631 4.510 1.107 293
2.719 4.661 1.124 786
2.636 4.520 1.094 282
2.712 4.650 1.105 875
2.787 4.778 1.132 378
2.714 4.652 1.090 590
2.788 4.780 1.116 437
2.766 4.742 1.092 511
2.752 4.718 1.071 361
2.800 4.801 1.071 334
2.706 4.639 1.039 289
2.798 4.796 1.053 287
2.803 4.805 1.039 284
2.793 4.787 1.019 526
2.790 4.783 1.001 677
2.783 4.771 0.983 522
2.689 4.609 0.954 267
2.777 4.760 0.965 348
2.690 4.611 0.939 275
2.774 4.755 0.948 268
2.799 4.798 0.938 265
2.804 4.807 0.924 372
2.809 4.815 0.909 396
2.810 4.817 0.892 407
2.815 4.826 0.877 387
2.824 4.841 0.863 345
2.690 4.611 0.828 252
2.695 4.619 0.814 486
2.829 4.850 0.848 348
2.696 4.621 0.799 525
2.830 4.852 0.832 271
2.697 4.623 0.783 361
2.701 4.631 0.768 297
2.702 4.633 0.753 346
2.699 4.627 0.737 376
2.700 4.629 0.721 300
1.180 2.017 1.821 1815
1.119 1.912 1.731 686
1.183 2.021 1.814 3630
1.121 1.916 1.725 1373
1.205 2.058 1.835 4868
1.143 1.953 1.747 2642
1.207 2.063 1.828 6604
1.142 1.952 1.736 2074
1.210 2.067 1.822 8340
1.145 1.956 1.729 1517
1.222 2.088 1.829 6471
1.150 1.965 1.727 1188
1.241 2.120 1.845 6587
1.179 2.014 1.757 1102
1.243 2.124 1.838 6587
1.181 2.018 1.751 1102
1.242 2.123 1.826 7553
1.180 2.017 1.740 1023
1.245 2.127 1.819 8564
1.182 2.021 1.733 1202
1.247 2.131 1.812 7415
1.310 2.238 1.898 824
1.253 2.141 1.809 6341
1.316 2.248 1.895 934
1.255 2.145 1.802 4978
1.318 2.253 1.887 1332
1.258 2.150 1.795 3615
1.321 2.257 1.880 1730
1.260 2.154 1.788 3615
1.323 2.261 1.872 1730
1.306 2.232 1.838 3994
1.243 2.124 1.754 1430
1.308 2.236 1.831 4425
1.245 2.128 1.747 1716
1.291 2.206 1.797 5744
1.354 2.314 1.880 961
1.287 2.199 1.781 7792
1.350 2.307 1.864 2288
1.292 2.209 1.778 8361
1.356 2.317 1.861 1865
1.295 2.213 1.771 9025
1.362 2.327 1.857 2004
1.297 2.217 1.764 6809
1.361 2.326 1.845 2806
1.320 2.255 1.782 5786
1.384 2.365 1.863 1468
1.359 2.323 1.821 4647
1.295 2.213 1.740 2439
1.362 2.327 1.813 5636
1.298 2.217 1.733 939
1.364 2.331 1.806 5671
1.300 2.221 1.726 698
1.370 2.341 1.802 5768
1.306 2.231 1.722 580
1.366 2.334 1.786 5431
1.430 2.444 1.865 531
1.365 2.332 1.774 5539
1.429 2.443 1.853 897
1.405 2.400 1.812 4653
1.340 2.290 1.733 1324
1.407 2.405 1.804 5167
1.342 2.294 1.726 833
1.413 2.415 1.800 7185
1.348 2.304 1.722 887
1.415 2.419 1.792 9308
1.350 2.308 1.715 679
1.418 2.423 1.784 9764
1.353 2.311 1.707 682
1.417 2.421 1.772 10510
1.482 2.533 1.849 1069
1.419 2.425 1.764 10485
1.485 2.537 1.840 1085
1.422 2.429 1.756 9815
1.487 2.541 1.832 1102
1.424 2.433 1.748 9170
1.490 2.546 1.823 1300
1.426 2.437 1.740 6368
1.499 2.562 1.823 2777
1.436 2.453 1.740 3995
1.502 2.566 1.814 3979
1.511 2.582 1.814 4556
1.438 2.457 1.731 3175
1.513 2.586 1.805 5294
1.440 2.461 1.723 2354
1.495 2.555 1.773 4409
1.429 2.442 1.700 1902
1.494 2.553 1.761 6096
1.428 2.439 1.688 1083
1.496 2.557 1.752 6493
1.563 2.670 1.825 1596
1.544 2.639 1.794 5654
1.478 2.525 1.721 4108
1.547 2.643 1.785 7923
1.477 2.523 1.709 3710
1.553 2.653 1.780 8696
1.482 2.533 1.704 2578
1.555 2.657 1.771 8095
1.488 2.543 1.700 1069
1.554 2.655 1.758 6763
1.621 2.770 1.829 901
1.560 2.665 1.753 4993
1.627 2.780 1.824 779
1.594 2.724 1.778 4328
1.527 2.609 1.707 1235
1.593 2.722 1.765 4702
1.526 2.607 1.695 775
1.599 2.732 1.760 5410
1.666 2.847 1.829 1033
1.605 2.742 1.754 6151
1.672 2.857 1.823 1290
1.607 2.746 1.745 6179
1.675 2.862 1.814 1989
1.649 2.817 1.775 6666
1.581 2.702 1.707 1405
1.640 2.803 1.755 7050
1.708 2.919 1.823 1499
1.625 2.777 1.728 7884
1.693 2.893 1.796 3414
1.652 2.823 1.744 7158
1.720 2.940 1.811 3391
1.680 2.870 1.759 7485
1.748 2.987 1.826 3418
1.693 2.893 1.760 9900
1.625 2.776 1.693 3386
1.702 2.909 1.757 9585
1.634 2.792 1.691 2891
1.712 2.925 1.754 7098
1.795 3.067 1.834 2334
1.736 2.966 1.765 4850
1.808 3.090 1.834 2100
1.767 3.020 1.782 5093
1.684 2.878 1.704 2052
1.781 3.043 1.783 8871
1.690 2.888 1.698 1907
1.790 3.059 1.779 8100
1.721 2.942 1.715 1622
1.814 3.100 1.789 6128
1.745 2.983 1.725 2900
1.820 3.111 1.782 5356
1.751 2.993 1.719 3084
1.834 3.133 1.782 8148
1.765 3.015 1.719 2805
1.836 3.138 1.771 10876
1.905 3.256 1.833 2137
1.846 3.154 1.767 7313
1.915 3.272 1.829 2318
1.903 3.252 1.805 4672
1.830 3.127 1.740 3524
1.905 3.256 1.794 5376
1.832 3.131 1.730 2222
1.908 3.260 1.783 6101
1.838 3.141 1.723 1618
1.910 3.264 1.773 5574
1.980 3.383 1.833 1401
1.913 3.268 1.762 4595
1.982 3.387 1.822 2029
1.959 3.348 1.788 7073
1.889 3.228 1.729 1974
1.969 3.364 1.783 6570
1.899 3.245 1.724 1890
1.986 3.394 1.785 5791
1.916 3.274 1.726 1534
2.003 3.423 1.786 4854
1.933 3.303 1.727 3093
1.950 3.332 1.728 3292
2.020 3.452 1.786 2263
2.056 3.513 1.802 2794
1.971 3.368 1.732 2541
2.066 3.530 1.796 4442
1.996 3.410 1.739 2186
2.068 3.534 1.785 5812
2.139 3.654 1.841 1943
2.071 3.538 1.773 5672
2.141 3.659 1.829 2923
2.077 3.549 1.764 3987
2.147 3.669 1.820 3599
2.150 3.674 1.807 4428
2.079 3.553 1.752 2898
2.104 3.595 1.758 4034
2.175 3.716 1.813 2508
2.106 3.599 1.745 3293
2.192 3.746 1.812 2733
2.198 3.756 1.802 4085
2.116 3.616 1.739 2973
2.201 3.760 1.789 4884
2.130 3.639 1.736 1905
2.199 3.758 1.774 5139
2.304 3.937 1.853 1024
2.198 3.756 1.759 4834
2.329 3.980 1.856 1169
2.204 3.766 1.749 5021
2.294 3.920 1.815 2068
2.210 3.777 1.739 4950
2.308 3.943 1.811 3356
2.318 3.960 1.803 3284
2.216 3.787 1.729 3088
2.331 3.984 1.798 4258
2.260 3.862 1.746 2401
2.334 3.988 1.784 6923
2.435 4.161 1.857 2652
2.336 3.992 1.771 7324
2.430 4.153 1.838 2950
2.342 4.003 1.760 4739
2.429 4.151 1.821 3254
2.367 4.045 1.763 2942
2.496 4.265 1.852 2518
2.374 4.056 1.752 2882
2.476 4.230 1.822 2384
2.486 4.247 1.813 3885
2.376 4.060 1.738 2221
2.496 4.264 1.804 6051
2.567 4.387 1.852 1681
2.502 4.275 1.792 6425
2.574 4.398 1.840 1617
2.512 4.292 1.783 5017
2.584 4.415 1.830 1082
2.537 4.335 1.783 5043
2.609 4.458 1.830 1152
2.581 4.411 1.796 4572
2.509 4.287 1.749 1732
2.595 4.434 1.788 3110
2.523 4.311 1.742 1300
2.628 4.491 1.793 2236
2.723 4.653 1.853 1474
2.726 4.658 1.838 3501
2.630 4.495 1.778 2215
2.724 4.655 1.820 5565
2.625 4.486 1.758 1948
2.727 4.659 1.804 7594
2.639 4.509 1.750 1575
2.733 4.670 1.791 10585
2.660 4.546 1.746 1505
2.732 4.668 1.773 12067
2.651 4.531 1.724 1095
2.734 4.672 1.757 10088
2.657 4.541 1.711 659
2.736 4.676 1.742 5694
2.809 4.800 1.785 370
2.743 4.687 1.728 3269
2.559 4.372 1.620 401
2.749 4.697 1.715 2152
2.568 4.389 1.610 757
2.732 4.668 1.688 1101
2.567 4.386 1.593 1017
2.565 4.383 1.576 1143
2.723 4.652 1.666 1130
2.729 4.663 1.652 1043
2.544 4.347 1.549 922
2.538 4.338 1.530 1131
2.735 4.673 1.639 1103
2.540 4.341 1.516 1849
2.737 4.677 1.623 591
2.542 4.344 1.501 3027
2.616 4.470 1.541 604
2.548 4.354 1.489 2796
2.622 4.480 1.528 354
2.554 4.364 1.476 1794
2.556 4.368 1.461 1822
2.554 4.365 1.445 1709
2.628 4.490 1.483 300
2.560 4.374 1.432 1046
2.634 4.500 1.470 269
2.566 4.384 1.419 834
2.564 4.381 1.403 1232
2.637 4.507 1.439 262
2.566 4.384 1.388 1557
2.639 4.510 1.424 276
2.567 4.387 1.373 1887
2.641 4.513 1.409 337
2.573 4.397 1.361 2117
2.647 4.523 1.396 298
2.575 4.400 1.346 2330
2.649 4.526 1.381 349
2.573 4.396 1.329 2080
2.647 4.523 1.364 618
2.578 4.406 1.316 1697
2.652 4.532 1.351 753
2.619 4.475 1.319 1879
2.621 4.478 1.304 2267
2.623 4.481 1.289 2219
2.620 4.478 1.273 1863
2.626 4.487 1.259 1473
2.588 4.423 1.228 1663
2.671 4.563 1.263 325
2.590 4.426 1.213 1812
2.672 4.566 1.247 332
2.595 4.435 1.200 1911
2.678 4.576 1.234 300
2.597 4.438 1.185 1781
2.695 4.605 1.225 486
2.599 4.440 1.170 1485
2.700 4.615 1.211 541
2.600 4.443 1.155 1208
2.702 4.617 1.195 386
2.602 4.446 1.140 973
2.704 4.620 1.180 391
2.603 4.448 1.125 656
2.705 4.622 1.164 572
2.699 4.612 1.146 514
2.604 4.451 1.110 347
2.736 4.675 1.144 396
2.633 4.500 1.106 291
2.725 4.657 1.124 662
2.651 4.529 1.096 286
2.723 4.653 1.107 723
2.724 4.655 1.091 510
2.741 4.684 1.081 595
2.735 4.673 1.063 841
2.728 4.662 1.044 885
2.734 4.671 1.030 623
2.739 4.680 1.016 430
2.814 4.808 1.040 318
2.807 4.797 1.021 509
2.801 4.786 1.003 506
2.790 4.768 0.983 415
2.695 4.605 0.954 289
2.783 4.756 0.965 327
2.781 4.751 0.948 256
2.782 4.753 0.932 291
2.699 4.611 0.908 264
2.771 4.735 0.912 320
2.696 4.607 0.891 260
2.808 4.798 0.906 323
2.809 4.800 0.890 372
2.806 4.795 0.873 393
2.707 4.626 0.847 310
2.700 4.614 0.829 512
2.799 4.783 0.855 327
2.701 4.616 0.814 665
2.828 4.832 0.846 293
2.702 4.617 0.799 630
2.707 4.626 0.784 554
2.704 4.620 0.768 493
2.705 4.622 0.752 406
2.706 4.624 0.737 358
2.707 4.625 0.721 286
1.184 2.014 1.821 1838
1.123 1.910 1.731 704
1.187 2.019 1.814 3677
1.125 1.914 1.725 1409
1.209 2.056 1.835 4897
1.147 1.951 1.747 2737
1.211 2.060 1.828 6627
1.150 1.955 1.740 2107
1.214 2.064 1.822 8357
1.149 1.954 1.729 1488
1.229 2.091 1.833 6534
1.154 1.963 1.727 1136
1.242 2.112 1.840 6398
1.180 2.006 1.753 910
1.244 2.116 1.833 6398
1.182 2.010 1.746 910
1.247 2.120 1.826 7681
1.184 2.014 1.740 1026
1.249 2.124 1.819 8965
1.187 2.018 1.733 1141
1.252 2.129 1.812 7950
1.314 2.235 1.898 861
1.258 2.139 1.809 7037
1.320 2.245 1.895 1008
1.260 2.143 1.802 5361
1.323 2.250 1.887 1406
1.262 2.147 1.795 3685
1.326 2.254 1.880 1803
1.265 2.151 1.788 3685
1.328 2.259 1.872 1803
1.311 2.229 1.838 4102
1.247 2.121 1.754 1548
1.313 2.233 1.831 4659
1.250 2.125 1.747 1920
1.312 2.232 1.819 5747
1.249 2.124 1.736 1155
1.291 2.196 1.781 7096
1.355 2.304 1.864 2402
1.294 2.200 1.774 7753
1.358 2.309 1.856 2322
1.300 2.210 1.771 8480
1.367 2.324 1.857 2136
1.302 2.214 1.764 6470
1.366 2.323 1.845 2905
1.325 2.253 1.782 5533
1.389 2.362 1.863 1563
1.364 2.320 1.821 4715
1.300 2.211 1.740 2311
1.367 2.324 1.813 5853
1.302 2.215 1.733 802
1.369 2.328 1.806 5720
1.305 2.219 1.726 584
1.375 2.338 1.802 5679
1.310 2.228 1.722 488
1.374 2.337 1.790 4986
1.439 2.447 1.870 333
1.370 2.329 1.774 4806
1.435 2.440 1.853 852
1.410 2.397 1.812 4432
1.345 2.287 1.733 1352
1.409 2.396 1.800 4976
1.344 2.285 1.722 623
1.418 2.412 1.800 7072
1.353 2.301 1.722 936
1.421 2.416 1.792 9307
1.355 2.305 1.715 776
1.423 2.420 1.784 9677
1.358 2.309 1.707 763
1.422 2.418 1.772 10238
1.488 2.530 1.849 1053
1.424 2.422 1.764 10281
1.490 2.534 1.840 1066
1.427 2.426 1.756 9945
1.493 2.538 1.832 1079
1.429 2.430 1.748 9567
1.495 2.543 1.823 1371
1.435 2.440 1.744 6755
1.501 2.553 1.819 2940
1.444 2.456 1.743 4633
1.511 2.569 1.818 3979
1.513 2.573 1.810 4534
1.443 2.454 1.731 3315
1.519 2.583 1.805 5233
1.442 2.452 1.719 2079
1.500 2.552 1.773 4819
1.434 2.439 1.700 1758
1.499 2.550 1.761 6690
1.566 2.663 1.834 1128
1.505 2.560 1.756 7088
1.572 2.673 1.829 1513
1.550 2.636 1.794 5836
1.483 2.522 1.721 4083
1.556 2.646 1.789 8187
1.482 2.520 1.709 3633
1.558 2.650 1.780 8894
1.488 2.530 1.704 2537
1.561 2.654 1.771 8393
1.494 2.540 1.700 1063
1.559 2.652 1.758 7311
1.627 2.766 1.829 863
1.565 2.662 1.753 5133
1.633 2.777 1.824 819
1.600 2.720 1.778 4434
1.532 2.606 1.707 1138
1.602 2.725 1.769 4582
1.535 2.610 1.699 1031
1.605 2.729 1.760 5234
1.672 2.844 1.829 1034
1.607 2.733 1.750 5964
1.675 2.848 1.819 1534
1.613 2.743 1.745 6107
1.681 2.858 1.814 1928
1.644 2.795 1.765 6005
1.712 2.911 1.833 1088
1.628 2.769 1.737 6995
1.696 2.885 1.805 2480
1.631 2.773 1.728 8371
1.699 2.889 1.796 3278
1.655 2.814 1.740 7216
1.723 2.930 1.807 3538
1.689 2.873 1.762 7788
1.621 2.757 1.696 3812
1.699 2.889 1.760 10267
1.631 2.773 1.693 3427
1.709 2.905 1.757 9775
1.640 2.789 1.691 2972
1.718 2.922 1.754 6769
1.801 3.063 1.834 2337
1.742 2.963 1.765 4476
1.811 3.080 1.830 2166
1.774 3.016 1.782 5391
1.690 2.874 1.704 2327
1.783 3.033 1.779 9161
1.696 2.885 1.698 2121
1.800 3.061 1.782 8823
1.731 2.944 1.719 1665
1.817 3.090 1.786 7178
1.748 2.973 1.722 2338
1.823 3.101 1.779 5681
1.754 2.983 1.715 2424
1.840 3.130 1.782 7805
1.771 3.012 1.719 2570
1.843 3.134 1.771 10429
1.912 3.252 1.833 2182
1.849 3.144 1.764 7194
1.918 3.262 1.826 2944
1.910 3.248 1.805 4741
1.837 3.123 1.740 3415
1.912 3.252 1.794 5728
1.843 3.133 1.733 1884
1.915 3.256 1.783 6678
1.845 3.137 1.723 1420
1.917 3.260 1.773 6139
1.987 3.379 1.833 1534
1.919 3.264 1.762 5135
1.989 3.383 1.822 2350
1.966 3.343 1.788 7160
1.896 3.224 1.729 2204
1.976 3.360 1.783 6665
1.906 3.241 1.724 2147
1.993 3.389 1.785 5577
2.063 3.509 1.843 1489
2.003 3.406 1.779 4195
2.073 3.526 1.838 2273
1.968 3.347 1.738 3081
2.061 3.505 1.814 2046
1.978 3.364 1.732 3009
2.049 3.484 1.790 2523
2.077 3.532 1.799 3741
1.999 3.399 1.736 2409
2.076 3.530 1.785 5550
2.005 3.410 1.728 2150
2.078 3.534 1.773 5707
2.149 3.654 1.829 2991
2.077 3.532 1.758 3858
2.151 3.658 1.817 3657
2.161 3.675 1.810 4258
2.090 3.555 1.755 2791
2.160 3.673 1.795 3885
2.089 3.553 1.740 2921
2.114 3.595 1.745 3198
2.200 3.741 1.812 2912
2.202 3.745 1.799 4356
2.120 3.605 1.736 2813
2.208 3.756 1.789 5208
2.134 3.628 1.733 1682
2.207 3.753 1.774 5827
2.278 3.875 1.828 1213
2.206 3.751 1.759 5457
2.277 3.872 1.812 1545
2.212 3.762 1.749 5419
2.283 3.883 1.802 1716
2.218 3.772 1.739 5405
2.316 3.938 1.811 2656
2.220 3.776 1.726 3406
2.330 3.962 1.806 2805
2.340 3.979 1.798 4002
2.268 3.857 1.746 2707
2.342 3.983 1.784 6425
2.444 4.156 1.857 2389
2.345 3.987 1.771 6648
2.443 4.154 1.840 2974
2.351 3.998 1.760 4260
2.442 4.152 1.824 3429
2.380 4.047 1.765 2849
2.505 4.259 1.852 2529
2.386 4.057 1.754 2696
2.484 4.225 1.822 2574
2.491 4.236 1.810 4331
2.388 4.061 1.741 1961
2.501 4.253 1.801 6073
2.573 4.375 1.850 2034
2.511 4.270 1.792 6338
2.583 4.393 1.840 1921
2.521 4.287 1.783 4939
2.593 4.410 1.830 1576
2.546 4.330 1.783 4697
2.619 4.453 1.830 1148
2.591 4.405 1.796 4305
2.518 4.282 1.749 1487
2.604 4.429 1.788 2671
2.727 4.637 1.866 1280
2.641 4.492 1.795 2455
2.729 4.641 1.851 2036
2.732 4.645 1.835 4404
2.640 4.489 1.778 2580
2.734 4.650 1.820 7007
2.635 4.480 1.758 2190
2.737 4.654 1.804 9261
2.664 4.530 1.759 1759
2.743 4.664 1.791 12136
2.659 4.521 1.739 1597
2.741 4.662 1.773 12989
2.657 4.518 1.722 1135
2.744 4.666 1.757 10568
2.671 4.542 1.714 731
2.750 4.677 1.744 6047
2.677 4.552 1.701 486
2.752 4.681 1.728 2813
2.575 4.380 1.625 417
2.763 4.698 1.717 1519
2.574 4.377 1.608 695
2.730 4.643 1.681 1086
2.572 4.374 1.591 890
2.732 4.647 1.666 1039
2.566 4.364 1.572 980
2.742 4.664 1.654 1075
2.557 4.348 1.551 835
2.745 4.667 1.639 1172
2.551 4.339 1.532 892
2.546 4.329 1.513 1440
2.747 4.671 1.623 606
2.552 4.339 1.501 2733
2.625 4.464 1.541 670
2.557 4.349 1.489 2701
2.631 4.474 1.528 385
2.563 4.359 1.476 1720
2.565 4.362 1.461 1990
2.563 4.359 1.445 1841
2.637 4.485 1.483 321
2.569 4.369 1.432 1051
2.643 4.495 1.470 305
2.606 4.432 1.435 1021
2.777 4.723 1.521 319
2.573 4.375 1.403 1623
2.647 4.501 1.439 355
2.575 4.379 1.388 1961
2.777 4.723 1.487 282
2.577 4.382 1.373 2097
2.775 4.720 1.470 295
2.582 4.391 1.361 2219
2.584 4.394 1.346 2349
2.586 4.398 1.331 2031
2.660 4.524 1.366 309
2.588 4.400 1.316 1647
2.662 4.527 1.351 364
2.629 4.470 1.319 1814
2.630 4.473 1.304 2147
2.632 4.476 1.289 2076
2.630 4.472 1.273 1839
2.635 4.482 1.259 1572
2.598 4.418 1.228 1906
2.680 4.558 1.263 329
2.603 4.427 1.215 2136
2.678 4.554 1.246 328
2.605 4.430 1.200 2203
2.679 4.557 1.230 275
2.606 4.432 1.185 1962
2.701 4.593 1.223 350
2.608 4.435 1.170 1594
2.694 4.582 1.205 375
2.609 4.438 1.155 1339
2.696 4.585 1.189 429
2.611 4.440 1.140 1174
2.694 4.581 1.172 480
2.612 4.443 1.125 850
2.711 4.610 1.163 378
2.618 4.452 1.112 553
2.728 4.639 1.153 389
2.734 4.649 1.139 712
2.643 4.494 1.106 446
2.735 4.651 1.124 982
2.640 4.490 1.089 381
2.733 4.647 1.107 796
2.634 4.479 1.071 371
2.730 4.643 1.090 490
2.724 4.632 1.071 532
2.729 4.641 1.057 628
2.738 4.656 1.044 559
2.813 4.784 1.069 314
2.791 4.746 1.046 441
2.784 4.735 1.027 386
2.821 4.798 1.022 340
2.815 4.786 1.004 352
2.804 4.768 0.984 445
2.793 4.750 0.965 520
2.791 4.746 0.948 364
2.792 4.748 0.932 281
2.813 4.783 0.921 309
2.702 4.594 0.890 298
2.703 4.596 0.875 341
2.818 4.792 0.906 321
2.708 4.605 0.860 426
2.823 4.801 0.891 295
2.709 4.606 0.845 702
2.706 4.601 0.828 1030
2.707 4.603 0.813 1116
2.708 4.605 0.798 920
2.713 4.613 0.783 665
2.718 4.622 0.768 477
2.719 4.623 0.753 359
2.719 4.625 0.737 303
1.187 2.013 1.821 1844
1.126 1.908 1.731 718
1.190 2.017 1.814 3689
1.128 1.912 1.725 1437
1.212 2.054 1.835 4761
1.150 1.949 1.747 2725
1.214 2.058 1.828 6446
1.152 1.953 1.740 2059
1.217 2.063 1.822 8131
1.151 1.952 1.729 1407
1.213 2.056 1.806 6380
1.151 1.950 1.718 990
1.241 2.104 1.835 6121
1.179 1.999 1.748 795
1.244 2.109 1.828 6121
1.182 2.003 1.742 795
1.250 2.118 1.826 7659
1.187 2.012 1.740 1060
1.252 2.123 1.819 9203
1.190 2.016 1.733 1112
1.255 2.127 1.812 8244
1.318 2.233 1.898 856
1.261 2.137 1.809 7390
1.324 2.243 1.895 1014
1.263 2.141 1.802 5386
1.326 2.248 1.887 1392
1.262 2.139 1.791 3416
1.325 2.247 1.875 2102
1.275 2.161 1.797 3412
1.338 2.268 1.881 1154
1.314 2.227 1.838 4064
1.250 2.119 1.754 1523
1.316 2.231 1.831 4748
1.253 2.123 1.747 1945
1.319 2.236 1.823 5777
1.255 2.128 1.740 1564
1.331 2.257 1.829 7155
1.268 2.149 1.746 2582
1.297 2.198 1.774 7198
1.361 2.307 1.856 2345
1.303 2.208 1.771 7933
1.367 2.317 1.853 2180
1.305 2.212 1.764 6163
1.369 2.321 1.845 2920
1.328 2.251 1.782 5337
1.392 2.360 1.863 1586
1.368 2.318 1.821 4684
1.303 2.209 1.740 2188
1.370 2.322 1.813 5867
1.305 2.213 1.733 687
1.372 2.327 1.806 5677
1.308 2.217 1.726 498
1.378 2.336 1.802 5573
1.314 2.227 1.722 433
1.377 2.335 1.790 4684
1.442 2.445 1.870 317
1.373 2.327 1.774 4299
1.438 2.438 1.853 801
1.413 2.395 1.812 4245
1.348 2.285 1.733 1397
1.412 2.394 1.800 4976
1.347 2.283 1.722 626
1.418 2.404 1.796 7064
1.353 2.293 1.718 699
1.424 2.414 1.792 9316
1.358 2.303 1.715 833
1.426 2.418 1.784 9521
1.361 2.307 1.707 818
1.425 2.416 1.772 9840
1.491 2.528 1.849 978
1.428 2.420 1.764 9960
1.494 2.532 1.840 993
1.430 2.424 1.756 9865
1.496 2.536 1.832 1007
1.433 2.428 1.748 9651
1.499 2.540 1.823 1386
1.438 2.438 1.744 6894
1.505 2.551 1.819 3038
1.448 2.454 1.743 4908
1.514 2.567 1.818 4011
1.517 2.571 1.810 4615
1.447 2.452 1.731 3440
1.523 2.581 1.805 5284
1.446 2.450 1.719 2096
1.504 2.549 1.773 4972
1.437 2.437 1.700 1774
1.503 2.548 1.761 6869
1.570 2.661 1.834 1250
1.509 2.558 1.756 7301
1.576 2.671 1.829 1656
1.553 2.633 1.794 5871
1.487 2.520 1.721 3965
1.559 2.643 1.789 8270
1.485 2.518 1.709 3532
1.562 2.648 1.780 8917
1.491 2.528 1.704 2464
1.564 2.652 1.771 8560
1.497 2.538 1.700 1090
1.563 2.650 1.758 7681
1.631 2.764 1.829 829
1.569 2.660 1.753 5339
1.637 2.774 1.824 835
1.604 2.718 1.778 4241
1.536 2.604 1.707 1134
1.606 2.722 1.769 4169
1.538 2.608 1.699 1035
1.608 2.726 1.760 4785
1.676 2.841 1.829 1020
1.611 2.730 1.750 5553
1.679 2.846 1.819 1461
1.617 2.741 1.745 5820
1.685 2.856 1.814 1806
1.644 2.787 1.761 5626
1.712 2.903 1.829 1109
1.632 2.767 1.737 7053
1.700 2.882 1.805 2432
1.635 2.771 1.728 8523
1.703 2.887 1.796 3188
1.641 2.781 1.722 7365
1.716 2.909 1.797 4060
1.693 2.870 1.762 8022
1.625 2.754 1.696 3764
1.699 2.881 1.756 10342
1.631 2.764 1.690 3115
1.709 2.897 1.754 9595
1.640 2.781 1.688 2847
1.722 2.919 1.754 6426
1.802 3.054 1.830 2446
1.746 2.960 1.765 4055
1.815 3.077 1.830 2241
1.778 3.014 1.782 5798
1.694 2.872 1.704 2535
1.788 3.030 1.779 9732
1.697 2.876 1.694 2262
1.805 3.059 1.782 9651
1.735 2.942 1.719 1645
1.818 3.082 1.782 7975
1.749 2.964 1.719 1716
1.828 3.098 1.779 6066
1.758 2.980 1.715 2182
1.845 3.127 1.782 7564
1.775 3.009 1.719 2446
1.851 3.137 1.774 10088
1.920 3.255 1.837 1859
1.853 3.141 1.764 7114
1.923 3.259 1.826 2967
1.914 3.245 1.805 4786
1.841 3.121 1.740 3493
1.917 3.249 1.794 5908
1.847 3.131 1.733 1935
1.919 3.253 1.783 6905
1.849 3.135 1.723 1535
1.922 3.257 1.773 6270
1.992 3.376 1.833 1519
1.924 3.262 1.762 5290
1.994 3.380 1.822 2358
1.971 3.341 1.788 6767
1.901 3.222 1.729 2385
1.981 3.357 1.783 6417
1.910 3.238 1.724 2330
1.994 3.380 1.782 5103
2.065 3.500 1.840 1399
2.004 3.397 1.776 3730
2.074 3.516 1.835 1993
1.977 3.351 1.741 3015
2.058 3.489 1.808 1922
1.987 3.367 1.735 3120
2.057 3.487 1.793 2326
2.078 3.523 1.796 3417
2.008 3.403 1.739 2622
2.081 3.527 1.785 5571
2.010 3.407 1.728 2356
2.079 3.525 1.770 5922
2.150 3.645 1.826 3013
2.059 3.491 1.740 4103
2.156 3.655 1.817 3586
2.166 3.672 1.810 4153
2.095 3.552 1.755 2386
2.165 3.670 1.795 3781
2.094 3.550 1.740 2688
2.171 3.681 1.786 3042
2.100 3.560 1.731 2635
2.208 3.742 1.799 4414
2.125 3.602 1.736 2582
2.214 3.753 1.789 5142
2.131 3.612 1.727 1425
2.209 3.744 1.771 5932
2.280 3.865 1.825 1590
2.211 3.748 1.759 5945
2.283 3.869 1.812 1905
2.217 3.758 1.749 5803
2.289 3.880 1.802 1812
2.223 3.769 1.739 5456
2.325 3.942 1.813 2205
2.226 3.773 1.726 3407
2.339 3.965 1.808 2726
2.345 3.976 1.798 4022
2.273 3.854 1.746 2803
2.348 3.980 1.784 6080
2.450 4.153 1.857 2106
2.354 3.990 1.774 6102
2.452 4.157 1.843 2972
2.360 4.001 1.763 3980
2.451 4.155 1.826 3667
2.389 4.050 1.768 2729
2.511 4.256 1.852 2606
2.490 4.221 1.822 2554
2.395 4.060 1.757 2528
2.497 4.232 1.810 4352
2.398 4.064 1.743 1781
2.511 4.256 1.804 5769
2.583 4.378 1.852 1843
2.517 4.266 1.792 5953
2.589 4.389 1.840 2030
2.527 4.283 1.783 4653
2.599 4.406 1.830 1882
2.552 4.326 1.783 4370
2.625 4.449 1.830 1174
2.593 4.395 1.793 3956
2.520 4.272 1.746 1324
2.607 4.419 1.786 2327
2.733 4.633 1.866 1511
2.648 4.488 1.795 2438
2.736 4.637 1.851 2254
2.738 4.641 1.835 4642
2.646 4.485 1.778 2732
2.741 4.646 1.820 7245
2.641 4.477 1.758 2319
2.747 4.656 1.806 9629
2.674 4.533 1.762 1953
2.749 4.661 1.791 12397
2.665 4.517 1.739 1732
2.748 4.658 1.773 12624
2.663 4.515 1.722 1203
2.750 4.662 1.757 10651
2.677 4.538 1.714 742
2.757 4.673 1.744 6888
2.549 4.320 1.621 573
2.763 4.683 1.730 2949
2.555 4.330 1.609 626
2.765 4.687 1.715 1310
2.561 4.341 1.597 689
2.752 4.665 1.690 1339
2.574 4.364 1.589 840
2.751 4.662 1.672 987
2.573 4.361 1.572 892
2.753 4.666 1.657 1159
2.602 4.410 1.573 801
2.751 4.663 1.639 1196
2.561 4.342 1.534 790
2.598 4.404 1.539 1146
2.749 4.661 1.621 619
2.558 4.336 1.501 2256
2.631 4.460 1.541 736
2.564 4.346 1.489 2477
2.637 4.471 1.528 455
2.569 4.355 1.476 1799
2.571 4.359 1.461 2041
2.645 4.484 1.500 277
2.569 4.356 1.445 1885
2.643 4.481 1.483 288
2.575 4.365 1.432 1151
2.653 4.497 1.472 284
2.577 4.369 1.417 1154
2.651 4.494 1.455 407
2.579 4.372 1.403 1680
2.653 4.497 1.439 351
2.581 4.375 1.388 1889
2.655 4.501 1.424 323
2.583 4.378 1.373 1977
2.657 4.504 1.409 369
2.589 4.388 1.361 2075
2.663 4.514 1.396 267
2.590 4.391 1.346 2221
2.592 4.394 1.331 2030
2.666 4.520 1.366 319
2.594 4.397 1.316 1643
2.668 4.523 1.351 314
2.635 4.466 1.319 1594
2.637 4.469 1.304 1992
2.638 4.472 1.289 1872
2.636 4.468 1.273 1700
2.642 4.478 1.259 1613
2.604 4.414 1.228 1884
2.679 4.541 1.259 399
2.609 4.423 1.215 2263
2.684 4.550 1.246 518
2.611 4.426 1.200 2382
2.686 4.553 1.230 391
2.613 4.429 1.185 2124
2.711 4.596 1.225 384
2.614 4.431 1.170 1758
2.713 4.598 1.209 427
2.616 4.434 1.155 1518
2.726 4.621 1.198 434
2.617 4.436 1.140 1334
2.724 4.617 1.181 438
2.619 4.439 1.125 945
2.729 4.626 1.167 432
2.624 4.448 1.112 529
2.731 4.629 1.152 373
2.740 4.645 1.139 547
2.649 4.491 1.106 420
2.742 4.647 1.124 1042
2.651 4.493 1.091 390
2.739 4.643 1.107 1043
2.632 4.462 1.069 434
2.741 4.645 1.091 511
2.634 4.464 1.054 337
2.738 4.641 1.074 477
2.739 4.643 1.059 724
2.652 4.496 1.029 329
2.737 4.639 1.042 526
2.778 4.709 1.039 368
2.779 4.711 1.023 311
2.780 4.713 1.007 441
2.790 4.729 0.994 501
2.795 4.737 0.979 377
2.691 4.562 0.948 262
2.816 4.773 0.969 373
2.689 4.558 0.932 324
2.821 4.782 0.955 471
2.698 4.573 0.919 343
2.711 4.595 0.907 384
2.826 4.791 0.940 377
2.720 4.611 0.893 440
2.800 4.746 0.916 381
2.801 4.748 0.900 501
2.709 4.592 0.875 455
2.714 4.601 0.860 608
2.814 4.770 0.887 574
2.715 4.603 0.845 974
2.827 4.792 0.874 413
2.712 4.598 0.828 1294
2.852 4.834 0.864 370
2.713 4.599 0.813 1386
2.714 4.601 0.798 1143
2.806 4.757 0.820 272
2.719 4.609 0.783 789
2.724 4.618 0.768 613
2.725 4.619 0.753 515
2.722 4.614 0.737 485
2.719 4.609 0.720 351
1.178 1.988 1.802 1956
1.181 1.993 1.795 3913
1.242 2.097 1.884 580
1.219 2.057 1.840 4908
1.154 1.947 1.747 2754
1.218 2.056 1.828 6496
1.156 1.951 1.740 2053
1.221 2.060 1.822 8135
1.155 1.950 1.729 1364
1.217 2.053 1.806 6430
1.154 1.948 1.718 953
1.245 2.102 1.835 5940
1.183 1.997 1.748 856
1.248 2.106 1.828 5940
1.185 2.001 1.742 856
1.250 2.111 1.821 7713
1.188 2.005 1.735 805
1.256 2.120 1.819 9501
1.193 2.014 1.733 1044
1.259 2.125 1.812 8609
1.322 2.231 1.898 867
1.265 2.134 1.809 7812
1.328 2.241 1.895 1047
1.267 2.139 1.802 5548
1.330 2.245 1.887 1423
1.266 2.137 1.791 3378
1.330 2.244 1.875 2108
1.282 2.164 1.801 3376
1.346 2.271 1.885 900
1.318 2.225 1.838 4032
1.254 2.117 1.754 1579
1.321 2.229 1.831 4829
1.257 2.121 1.747 2071
1.326 2.239 1.828 5809
1.262 2.131 1.745 2177
1.336 2.254 1.829 7271
1.272 2.146 1.746 2799
1.301 2.196 1.774 6637
1.365 2.304 1.856 2397
1.307 2.206 1.771 7378
1.371 2.314 1.853 2301
1.309 2.210 1.764 5781
1.374 2.318 1.845 2953
1.332 2.248 1.782 5170
1.397 2.357 1.863 1580
1.372 2.315 1.821 4686
1.307 2.206 1.740 2077
1.371 2.314 1.809 5983
1.306 2.205 1.729 525
1.377 2.324 1.806 5717
1.312 2.214 1.726 473
1.383 2.334 1.802 5561
1.318 2.224 1.722 418
1.382 2.332 1.790 4473
1.447 2.442 1.870 310
1.377 2.325 1.774 3917
1.443 2.435 1.853 737
1.418 2.393 1.812 3945
1.352 2.282 1.733 1385
1.417 2.391 1.800 4735
1.351 2.281 1.722 598
1.423 2.401 1.796 6849
1.357 2.290 1.718 727
1.429 2.411 1.792 9089
1.363 2.300 1.715 921
1.428 2.409 1.780 9164
1.493 2.520 1.857 736
1.430 2.414 1.772 9308
1.496 2.525 1.849 946
1.432 2.418 1.764 9407
1.498 2.529 1.840 985
1.435 2.422 1.756 9461
1.501 2.533 1.832 1024
1.437 2.426 1.748 9416
1.503 2.538 1.823 1462
1.443 2.436 1.744 6826
1.509 2.548 1.819 3208
1.452 2.451 1.743 5041
1.519 2.564 1.818 4146
1.521 2.568 1.810 4797
1.451 2.450 1.731 3487
1.524 2.572 1.801 5447
1.450 2.448 1.719 2087
1.512 2.553 1.777 5186
1.445 2.440 1.703 1867
1.511 2.551 1.765 7176
1.578 2.664 1.838 1265
1.514 2.555 1.756 7665
1.581 2.668 1.829 1834
1.558 2.630 1.794 5975
1.491 2.517 1.721 3883
1.564 2.641 1.789 8393
1.490 2.515 1.709 3408
1.567 2.645 1.780 8946
1.500 2.531 1.708 2369
1.566 2.643 1.767 8670
1.498 2.529 1.696 893
1.568 2.647 1.758 7973
1.636 2.761 1.829 834
1.574 2.657 1.753 5589
1.642 2.771 1.824 858
1.605 2.709 1.774 4091
1.537 2.595 1.704 1039
1.615 2.725 1.772 3765
1.547 2.611 1.702 1350
1.614 2.723 1.760 4237
1.682 2.838 1.829 1042
1.616 2.727 1.750 4956
1.684 2.842 1.819 1409
1.622 2.737 1.745 5375
1.690 2.853 1.814 1761
1.631 2.754 1.743 5480
1.700 2.869 1.811 2184
1.637 2.764 1.737 7100
1.706 2.879 1.805 2548
1.640 2.768 1.728 8632
1.708 2.883 1.796 3309
1.657 2.796 1.733 7595
1.725 2.912 1.800 4155
1.695 2.861 1.759 8277
1.764 2.977 1.826 3324
1.705 2.877 1.756 10345
1.636 2.761 1.690 3041
1.714 2.894 1.754 9447
1.646 2.777 1.688 2867
1.728 2.916 1.754 6138
1.804 3.045 1.827 2600
1.748 2.951 1.762 3436
1.817 3.068 1.827 2311
1.784 3.010 1.782 5827
1.700 2.869 1.704 2835
1.793 3.027 1.779 9676
1.702 2.873 1.694 2487
1.810 3.055 1.782 9870
1.741 2.938 1.719 1849
1.824 3.078 1.782 8513
1.754 2.961 1.719 1562
1.833 3.095 1.779 6357
1.764 2.977 1.715 1872
1.854 3.130 1.785 7382
1.785 3.012 1.722 2358
1.857 3.134 1.774 9826
1.926 3.252 1.837 1837
1.848 3.119 1.754 7092
1.918 3.237 1.816 3922
1.920 3.241 1.805 4736
1.847 3.117 1.740 3595
1.923 3.246 1.794 5896
1.853 3.127 1.733 1973
1.925 3.250 1.783 6915
1.855 3.131 1.723 1676
1.928 3.254 1.773 6389
1.858 3.135 1.712 1724
1.930 3.258 1.762 5528
2.001 3.377 1.822 2562
1.977 3.337 1.788 6632
1.907 3.218 1.729 2610
1.987 3.354 1.783 6226
1.916 3.235 1.724 2500
1.997 3.370 1.778 4817
1.919 3.239 1.713 1404
2.007 3.387 1.773 3318
2.081 3.513 1.835 1743
1.983 3.347 1.741 2668
2.054 3.466 1.799 2198
1.993 3.364 1.735 2892
2.064 3.483 1.793 2267
2.085 3.519 1.796 3011
2.014 3.399 1.739 2696
2.087 3.523 1.785 5395
2.016 3.403 1.728 2463
2.086 3.521 1.770 5748
2.157 3.641 1.826 3002
2.073 3.500 1.746 3955
2.163 3.651 1.817 3495
2.173 3.668 1.810 4106
2.102 3.548 1.755 2342
2.172 3.666 1.795 3804
2.101 3.546 1.740 2564
2.208 3.727 1.809 3168
2.126 3.588 1.745 2713
2.211 3.731 1.796 4831
2.132 3.598 1.736 2396
2.217 3.742 1.787 5325
2.145 3.621 1.733 1431
2.216 3.740 1.771 6124
2.287 3.861 1.825 2026
2.218 3.744 1.759 6213
2.290 3.865 1.812 2422
2.224 3.754 1.749 5983
2.296 3.875 1.802 1813
2.227 3.758 1.736 5575
2.352 3.969 1.827 2300
2.233 3.769 1.726 3606
2.354 3.973 1.814 3096
2.353 3.971 1.798 4168
2.281 3.849 1.746 3025
2.355 3.975 1.784 5621
2.283 3.853 1.733 2409
2.361 3.986 1.774 5401
2.464 4.159 1.845 3047
2.459 4.150 1.826 3989
2.368 3.996 1.763 3792
2.465 4.161 1.815 2819
2.393 4.039 1.765 2587
2.498 4.217 1.822 2573
2.403 4.056 1.757 2257
2.505 4.227 1.810 4461
2.417 4.079 1.751 1672
2.519 4.251 1.804 5513
2.591 4.373 1.852 1828
2.525 4.261 1.792 5530
2.597 4.384 1.840 2225
2.546 4.298 1.790 4393
2.619 4.421 1.838 1549
2.560 4.321 1.783 4042
2.633 4.444 1.830 1184
2.605 4.397 1.796 3369
2.528 4.267 1.746 1228
2.615 4.414 1.786 2160
2.742 4.628 1.866 1684
2.656 4.483 1.795 2520
2.744 4.632 1.851 2459
2.747 4.636 1.835 4791
2.655 4.480 1.778 2892
2.749 4.640 1.820 7198
2.649 4.472 1.758 2455
2.756 4.651 1.806 9180
2.683 4.528 1.762 2141
2.758 4.655 1.791 11780
2.670 4.506 1.737 1847
2.757 4.653 1.773 11515
2.668 4.503 1.720 1305
2.759 4.657 1.757 9699
2.682 4.527 1.711 745
2.765 4.668 1.744 7112
2.557 4.315 1.621 958
2.772 4.678 1.730 3585
2.559 4.319 1.607 1121
2.766 4.669 1.710 1889
2.561 4.323 1.592 1160
2.761 4.660 1.690 1545
2.571 4.339 1.582 1081
2.604 4.395 1.585 1014
2.748 4.638 1.666 1009
2.762 4.661 1.657 1231
2.567 4.333 1.549 840
2.760 4.658 1.639 1157
2.562 4.324 1.530 639
2.603 4.393 1.537 943
2.762 4.662 1.623 542
2.613 4.410 1.526 1708
2.539 4.285 1.486 489
2.572 4.341 1.489 2078
2.646 4.466 1.528 464
2.578 4.351 1.476 1827
2.652 4.476 1.515 296
2.580 4.354 1.461 1972
2.654 4.479 1.500 387
2.578 4.351 1.445 1651
2.652 4.476 1.483 501
2.627 4.433 1.454 1297
2.552 4.308 1.416 253
2.628 4.436 1.439 1165
2.797 4.720 1.523 253
2.591 4.374 1.405 1503
2.666 4.499 1.441 365
2.589 4.370 1.388 1708
2.664 4.496 1.424 324
2.591 4.373 1.373 1880
2.677 4.519 1.415 368
2.597 4.383 1.361 2073
2.679 4.522 1.400 345
2.599 4.386 1.346 2139
2.673 4.512 1.381 329
2.600 4.389 1.331 1888
2.675 4.515 1.366 365
2.602 4.392 1.316 1536
2.677 4.518 1.351 325
2.647 4.468 1.321 1590
2.649 4.471 1.306 1777
2.647 4.467 1.289 1533
2.644 4.463 1.273 1342
2.650 4.473 1.259 1518
2.612 4.409 1.228 1689
2.687 4.536 1.259 312
2.618 4.418 1.215 2028
2.697 4.552 1.247 353
2.619 4.421 1.200 2282
2.621 4.424 1.185 2263
2.623 4.426 1.170 2010
2.624 4.429 1.155 1743
2.626 4.431 1.140 1438
2.709 4.572 1.172 344
2.627 4.434 1.125 1004
2.702 4.561 1.154 315
2.632 4.443 1.112 611
2.654 4.479 1.104 582
2.737 4.620 1.135 470
2.738 4.622 1.119 1017
2.651 4.475 1.088 562
2.740 4.624 1.104 1081
2.641 4.457 1.069 619
2.737 4.620 1.087 674
2.646 4.466 1.055 454
2.731 4.609 1.069 508
2.651 4.475 1.041 367
2.728 4.605 1.052 562
2.653 4.477 1.026 449
2.726 4.600 1.035 439
2.650 4.473 1.010 309
2.763 4.663 1.031 439
2.760 4.658 1.014 471
2.761 4.661 0.999 333
2.787 4.703 0.990 339
2.687 4.535 0.960 268
2.692 4.544 0.946 338
2.780 4.692 0.972 333
2.693 4.546 0.930 393
2.773 4.680 0.954 346
2.698 4.554 0.916 452
2.826 4.770 0.953 445
2.815 4.752 0.934 488
2.708 4.570 0.903 454
2.801 4.727 0.913 526
2.713 4.578 0.889 496
2.718 4.587 0.875 608
2.794 4.715 0.895 514
2.719 4.589 0.859 815
2.795 4.717 0.880 433
2.720 4.591 0.844 1272
2.796 4.719 0.864 394
2.721 4.592 0.828 1676
2.797 4.721 0.848 263
2.722 4.594 0.813 1852
2.723 4.596 0.798 1681
2.724 4.597 0.782 1153
2.733 4.613 0.768 677
2.738 4.621 0.754 461
2.735 4.616 0.737 395
2.732 4.610 0.721 296
2.739 4.623 0.254 265
1.181 1.987 1.802 2058
1.184 1.991 1.795 4116
1.246 2.095 1.884 553
1.222 2.055 1.840 5074
1.157 1.945 1.747 2695
1.221 2.054 1.828 6581
1.159 1.949 1.740 1987
1.224 2.058 1.822 8167
1.162 1.953 1.734 1279
1.220 2.052 1.806 6525
1.157 1.946 1.718 891
1.245 2.095 1.831 5716
1.183 1.989 1.744 751
1.248 2.099 1.824 5716
1.185 1.993 1.737 751
1.254 2.109 1.821 7645
1.191 2.003 1.735 831
1.256 2.113 1.814 9622
1.193 2.007 1.728 751
1.262 2.123 1.812 8742
1.325 2.229 1.898 864
1.268 2.132 1.809 7976
1.331 2.239 1.895 1063
1.267 2.131 1.798 5585
1.331 2.238 1.883 1681
1.283 2.158 1.808 3305
1.347 2.265 1.893 891
1.285 2.162 1.801 3305
1.349 2.269 1.885 924
1.322 2.222 1.838 3954
1.258 2.115 1.754 1594
1.324 2.227 1.831 4822
1.260 2.119 1.747 2121
1.333 2.242 1.832 5803
1.269 2.135 1.749 2774
1.339 2.252 1.829 7312
1.275 2.144 1.746 2816
1.338 2.251 1.817 6653
1.274 2.143 1.735 1663
1.310 2.204 1.771 6695
1.375 2.312 1.853 2366
1.333 2.242 1.789 5678
1.398 2.351 1.871 1191
1.336 2.246 1.782 5079
1.400 2.355 1.863 1571
1.376 2.313 1.821 4616
1.311 2.204 1.740 1922
1.375 2.312 1.809 5963
1.310 2.203 1.729 502
1.381 2.322 1.806 5648
1.315 2.212 1.726 482
1.386 2.332 1.802 5454
1.321 2.222 1.722 404
1.385 2.330 1.790 4228
1.320 2.220 1.711 297
1.378 2.317 1.770 3542
1.443 2.427 1.849 1017
1.421 2.391 1.812 3601
1.356 2.280 1.733 1359
1.420 2.389 1.800 4322
1.355 2.278 1.722 611
1.426 2.399 1.796 6349
1.361 2.288 1.718 761
1.432 2.409 1.792 8460
1.366 2.298 1.715 978
1.431 2.407 1.780 8488
1.497 2.518 1.857 702
1.434 2.411 1.772 8535
1.500 2.522 1.849 908
1.436 2.415 1.764 8780
1.502 2.527 1.840 994
1.439 2.419 1.756 9171
1.505 2.531 1.832 1080
1.441 2.423 1.748 9316
1.507 2.535 1.823 1513
1.447 2.433 1.744 6896
1.513 2.545 1.819 3218
1.456 2.449 1.743 5270
1.523 2.561 1.818 4071
1.522 2.560 1.806 4767
1.455 2.447 1.731 3501
1.528 2.570 1.801 5458
1.454 2.445 1.719 1930
1.516 2.550 1.777 5407
1.449 2.437 1.703 1740
1.515 2.548 1.765 7538
1.582 2.661 1.838 1379
1.518 2.552 1.756 8117
1.585 2.665 1.829 1930
1.563 2.628 1.794 5996
1.495 2.515 1.721 3768
1.569 2.638 1.789 8427
1.494 2.513 1.709 3226
1.571 2.642 1.780 8880
1.504 2.529 1.708 2266
1.570 2.640 1.767 8650
1.502 2.526 1.696 900
1.572 2.644 1.758 8054
1.640 2.758 1.829 842
1.578 2.654 1.753 5699
1.646 2.769 1.824 881
1.606 2.701 1.770 4175
1.538 2.586 1.700 964
1.580 2.656 1.732 3682
1.648 2.771 1.802 947
1.618 2.721 1.760 3975
1.686 2.835 1.829 1079
1.620 2.725 1.750 4629
1.689 2.840 1.819 1381
1.623 2.729 1.741 5154
1.691 2.844 1.810 2249
1.636 2.751 1.743 5341
1.704 2.866 1.811 2304
1.645 2.767 1.741 6999
1.714 2.883 1.809 2278
1.644 2.765 1.728 8484
1.713 2.881 1.796 3415
1.661 2.793 1.733 7677
1.730 2.909 1.800 4233
1.700 2.858 1.759 8505
1.769 2.974 1.826 3255
1.709 2.875 1.756 10464
1.640 2.759 1.690 2997
1.719 2.891 1.754 9437
1.650 2.775 1.688 2923
1.732 2.913 1.754 5920
1.809 3.042 1.827 2785
1.786 3.003 1.792 3036
1.695 2.850 1.707 2601
1.788 3.007 1.782 6051
1.704 2.866 1.704 3032
1.794 3.018 1.776 9823
1.707 2.870 1.694 2608
1.815 3.053 1.782 9985
1.746 2.936 1.719 2020
1.829 3.075 1.782 9025
1.759 2.958 1.719 1438
1.838 3.092 1.779 6790
1.769 2.974 1.715 1550
1.859 3.127 1.785 7273
1.789 3.009 1.722 2189
1.862 3.131 1.774 9452
1.932 3.248 1.837 1798
1.853 3.116 1.754 6913
1.923 3.234 1.816 3807
1.926 3.238 1.805 4674
1.852 3.114 1.740 3518
1.928 3.242 1.794 5845
1.858 3.124 1.733 1965
1.930 3.247 1.783 6769
1.860 3.128 1.723 1804
1.933 3.251 1.773 6306
1.863 3.132 1.712 1908
1.935 3.255 1.762 5659
2.006 3.373 1.822 2599
1.986 3.340 1.792 6073
1.915 3.221 1.732 3216
1.992 3.350 1.783 5801
1.922 3.232 1.724 2586
1.998 3.361 1.775 4531
1.924 3.236 1.713 1428
2.008 3.378 1.770 3037
2.079 3.497 1.829 1541
1.992 3.350 1.744 2786
2.063 3.469 1.802 2421
1.998 3.360 1.735 3075
2.069 3.480 1.793 2431
2.019 3.396 1.739 2847
2.090 3.516 1.796 2669
2.093 3.520 1.785 5050
2.022 3.400 1.728 2550
2.092 3.517 1.770 5490
2.163 3.637 1.826 3048
2.083 3.503 1.749 4068
2.169 3.648 1.817 3456
2.179 3.665 1.810 4089
2.093 3.519 1.743 2539
2.178 3.663 1.795 3816
2.106 3.542 1.740 2334
2.210 3.717 1.806 3231
2.131 3.584 1.745 2434
2.217 3.728 1.796 5096
2.137 3.595 1.736 2256
2.223 3.738 1.787 5281
2.140 3.599 1.724 1426
2.222 3.736 1.771 5706
2.297 3.863 1.828 2408
2.224 3.740 1.759 5852
2.296 3.861 1.812 2797
2.230 3.751 1.749 5953
2.302 3.872 1.802 1878
2.233 3.755 1.736 5658
2.377 3.997 1.841 2543
2.239 3.765 1.726 3650
2.364 3.976 1.816 3001
2.359 3.967 1.798 3816
2.287 3.846 1.746 3127
2.362 3.971 1.784 5011
2.289 3.850 1.733 2451
2.368 3.982 1.774 4694
2.471 4.155 1.845 3176
2.469 4.153 1.829 4211
2.378 3.999 1.766 3556
2.472 4.157 1.815 3049
2.388 4.016 1.757 2384
2.505 4.213 1.822 2551
2.413 4.058 1.759 1984
2.511 4.223 1.810 4488
2.435 4.095 1.759 1675
2.525 4.247 1.804 5115
2.598 4.369 1.852 1695
2.532 4.257 1.792 5038
2.604 4.380 1.840 2356
2.557 4.300 1.793 4129
2.630 4.423 1.840 1512
2.602 4.376 1.805 3769
2.529 4.253 1.758 1702
2.608 4.386 1.793 3135
2.535 4.263 1.746 1164
2.622 4.410 1.786 2116
2.745 4.617 1.864 1796
2.752 4.628 1.851 2559
2.667 4.485 1.798 2516
2.754 4.632 1.835 4741
2.662 4.476 1.778 3031
2.757 4.636 1.820 6806
2.656 4.467 1.758 2565
2.759 4.640 1.804 8340
2.686 4.517 1.759 2204
2.766 4.651 1.791 10792
2.677 4.501 1.737 1860
2.764 4.649 1.773 10425
2.671 4.492 1.717 1319
2.767 4.653 1.757 8652
2.561 4.307 1.636 1044
2.773 4.663 1.744 7176
2.564 4.311 1.621 1516
2.775 4.667 1.728 4350
2.566 4.315 1.607 1747
2.770 4.658 1.708 2312
2.568 4.319 1.592 1788
2.764 4.649 1.688 1539
2.570 4.322 1.578 1531
2.572 4.326 1.563 1333
2.755 4.633 1.666 1033
2.765 4.650 1.654 1204
2.570 4.323 1.547 1193
2.763 4.647 1.637 995
2.569 4.320 1.530 776
2.606 4.382 1.535 828
2.766 4.651 1.621 487
2.620 4.405 1.526 1405
2.545 4.281 1.486 472
2.579 4.337 1.489 1872
2.653 4.461 1.528 494
2.585 4.347 1.476 1814
2.659 4.471 1.515 261
2.587 4.350 1.461 1929
2.661 4.475 1.500 375
2.628 4.419 1.467 1636
2.634 4.429 1.454 2013
2.635 4.432 1.439 1602
2.602 4.376 1.407 1221
2.677 4.501 1.443 343
2.600 4.373 1.390 1552
2.675 4.498 1.426 280
2.602 4.376 1.375 1850
2.684 4.515 1.415 351
2.604 4.379 1.361 1927
2.678 4.504 1.396 347
2.606 4.382 1.346 1856
2.680 4.508 1.381 395
2.607 4.385 1.331 1658
2.682 4.511 1.366 501
2.652 4.461 1.336 1645
2.818 4.739 1.412 275
2.654 4.464 1.321 1678
2.656 4.467 1.306 1410
2.654 4.463 1.289 1061
2.729 4.589 1.322 250
2.655 4.466 1.274 1124
2.657 4.469 1.259 1418
2.619 4.405 1.228 1603
2.694 4.531 1.259 279
2.625 4.414 1.215 1943
2.700 4.541 1.246 365
2.626 4.417 1.200 2245
2.702 4.543 1.230 448
2.628 4.420 1.185 2290
2.703 4.546 1.215 487
2.630 4.422 1.170 2045
2.705 4.549 1.200 550
2.631 4.425 1.155 1795
2.706 4.552 1.185 535
2.633 4.427 1.140 1497
2.708 4.554 1.169 503
2.634 4.430 1.125 1041
2.710 4.557 1.154 461
2.639 4.439 1.112 599
2.739 4.606 1.149 471
2.740 4.609 1.133 844
2.657 4.468 1.103 604
2.742 4.611 1.118 1155
2.650 4.457 1.085 831
2.739 4.607 1.101 1026
2.648 4.453 1.069 820
2.733 4.596 1.083 820
2.653 4.462 1.055 560
2.754 4.632 1.074 666
2.658 4.471 1.041 454
2.755 4.634 1.059 514
2.664 4.480 1.028 507
2.745 4.616 1.039 468
2.661 4.475 1.011 386
2.742 4.612 1.022 321
2.666 4.484 0.998 305
2.803 4.715 1.026 281
2.672 4.493 0.984 280
2.749 4.623 0.992 337
2.825 4.750 1.016 252
2.694 4.531 0.960 356
2.695 4.533 0.944 419
2.696 4.535 0.929 432
2.706 4.550 0.916 487
2.786 4.685 0.939 256
2.715 4.566 0.903 482
2.799 4.707 0.927 462
2.800 4.709 0.911 724
2.720 4.574 0.889 524
2.793 4.697 0.893 685
2.717 4.569 0.872 621
2.726 4.585 0.859 916
2.802 4.713 0.880 473
2.727 4.586 0.844 1485
2.803 4.715 0.864 424
