-1.465 2.545 1.684 10889
-1.467 2.549 1.675 9072
-1.512 2.626 1.711 7221
-1.514 2.630 1.702 8744
-1.516 2.634 1.694 7605
-1.518 2.638 1.685 5568
-1.563 2.715 1.720 6185
-1.569 2.725 1.714 5861
-1.532 2.662 1.666 5779
-1.527 2.653 1.650 4903
-1.572 2.731 1.684 5300
-1.578 2.741 1.678 6082
-1.583 2.751 1.672 5527
-1.586 2.755 1.663 5588
-1.581 2.746 1.647 6987
-1.597 2.775 1.652 7081
-1.603 2.785 1.646 6647
-1.609 2.795 1.640 4937
-1.686 2.929 1.702 2725
-1.656 2.877 1.662 4401
-1.658 2.881 1.652 5693
-1.660 2.885 1.643 4719
-1.695 2.945 1.663 5226
-1.697 2.948 1.653 5551
-1.750 3.040 1.689 6311
-1.720 2.987 1.650 7095
-1.722 2.991 1.640 6066
-1.724 2.995 1.630 4386
-1.827 3.175 1.708 4944
-1.833 3.185 1.701 7868
-1.836 3.189 1.690 7687
-1.849 3.212 1.689 6461
-1.851 3.216 1.678 6887
-1.850 3.213 1.664 7762
-1.845 3.205 1.648 6824
-1.839 3.196 1.631 4736
-1.849 3.212 1.626 3350
-1.891 3.286 1.648 3173
-1.912 3.322 1.652 4249
-1.951 3.389 1.670 7636
-1.949 3.387 1.656 10412
-1.952 3.390 1.645 7372
-1.961 3.407 1.639 3944
-1.989 3.456 1.648 4241
-2.036 3.536 1.670 6756
-2.041 3.547 1.661 7957
-2.047 3.557 1.652 5930
-2.053 3.567 1.643 3772
-2.067 3.590 1.639 3343
-2.184 3.794 1.711 3379
-2.138 3.714 1.664 4702
-2.133 3.705 1.646 5103
-2.135 3.709 1.634 3141
-2.204 3.829 1.668 3246
-2.206 3.833 1.656 3996
-2.223 3.863 1.653 3343
-2.255 3.919 1.661 4691
-2.258 3.922 1.648 4544
-2.335 4.056 1.685 3566
-2.326 4.041 1.664 3893
-2.279 3.960 1.618 2450
-2.341 4.068 1.644 2270
-2.449 4.255 1.698 2936
-2.447 4.252 1.682 4520
-2.446 4.249 1.665 3921
-2.467 4.286 1.663 3778
-2.469 4.290 1.649 2873
-2.520 4.379 1.664 2186
-2.519 4.376 1.647 2504
-2.521 4.380 1.633 2107
-2.637 4.581 1.685 3184
-2.643 4.592 1.672 4565
-2.649 4.602 1.659 4497
-2.647 4.599 1.642 3415
-2.684 4.662 1.646 3458
-2.690 4.673 1.632 4514
-2.821 4.901 1.689 4409
-2.824 4.905 1.672 6334
-2.826 4.909 1.656 5147
-2.832 4.920 1.641 5015
-2.838 4.930 1.627 6672
-2.848 4.947 1.615 5954
-2.854 4.957 1.600 4056
-3.001 5.214 1.658 3027
-3.003 5.218 1.640 2437
-3.097 5.381 1.669 2883
-3.092 5.372 1.647 3944
-3.090 5.369 1.627 4264
-3.081 5.353 1.604 3463
-3.087 5.363 1.588 2234
-3.224 5.600 1.633 1954
-3.280 5.698 1.639 2254
-3.259 5.661 1.609 2050
-3.311 5.752 1.613 1800
-3.382 5.876 1.624 2349
-3.458 6.008 1.636 2857
-3.456 6.005 1.615 2620
-3.555 6.176 1.636 1912
-3.549 6.166 1.612 2401
-3.555 6.177 1.593 1611
-3.589 6.234 1.585 1469
-3.742 6.500 1.624 2107
-3.748 6.511 1.604 2281
-3.982 6.919 1.672 2236
-4.078 7.084 1.685 1950
-4.057 7.048 1.652 2141
-4.304 7.477 1.719 1969
-4.306 7.481 1.694 1731
-4.355 7.566 1.685 1653
-4.513 7.840 1.715 1796
-4.515 7.844 1.688 2489
-4.521 7.854 1.664 2820
-4.691 8.149 1.693 3326
-4.693 8.153 1.666 3305
-4.699 8.164 1.640 3317
-4.713 8.188 1.616 4689
-4.719 8.198 1.590 5230
-4.721 8.202 1.562 3762
-4.723 8.206 1.535 2282
-4.725 8.209 1.507 2117
-4.711 8.185 1.475 1807
-4.729 8.216 1.452 944
-4.731 8.219 1.425 753
-4.729 8.216 1.396 532
-1.147 2.006 1.802 2289
-1.150 2.011 1.795 4578
-1.152 2.015 1.789 4578
-1.158 2.025 1.787 4675
-1.163 2.034 1.785 5049
-1.162 2.033 1.773 3856
-1.197 2.093 1.812 3390
-1.199 2.097 1.806 3390
-1.195 2.090 1.790 3972
-1.198 2.094 1.783 4638
-1.168 2.042 1.731 4230
-1.173 2.052 1.729 4585
-1.218 2.129 1.780 4107
-1.220 2.134 1.773 5209
-1.226 2.143 1.770 5235
-1.228 2.148 1.763 4905
-1.227 2.146 1.752 4527
-1.229 2.150 1.745 5143
-1.232 2.154 1.738 5758
-1.234 2.158 1.731 4665
-1.236 2.162 1.723 3572
-1.239 2.166 1.716 2547
-1.281 2.240 1.760 2644
-1.280 2.238 1.749 4004
-1.282 2.242 1.741 5427
-1.274 2.229 1.721 7666
-1.277 2.233 1.714 10397
-1.279 2.237 1.707 9914
-1.285 2.246 1.703 9442
-1.297 2.268 1.709 7612
-1.302 2.278 1.705 7320
-1.305 2.282 1.698 5456
-1.337 2.339 1.727 5781
-1.336 2.337 1.715 7064
-1.339 2.341 1.707 8457
-1.341 2.345 1.700 9199
-1.350 2.360 1.700 8198
-1.355 2.370 1.696 6663
-1.361 2.380 1.692 5951
-1.391 2.432 1.716 6763
-1.376 2.406 1.688 6291
-1.375 2.404 1.676 6475
-1.373 2.402 1.665 4677
-1.413 2.472 1.699 3237
-1.412 2.470 1.687 3589
-1.421 2.486 1.687 4440
-1.430 2.502 1.686 5715
-1.440 2.518 1.685 5985
-1.452 2.540 1.688 8808
-1.454 2.543 1.680 10914
-1.460 2.553 1.675 9037
-1.504 2.630 1.711 7543
-1.506 2.634 1.702 9166
-1.505 2.632 1.690 7874
-1.511 2.642 1.685 5515
-1.552 2.713 1.716 7127
-1.561 2.729 1.714 6995
-1.567 2.740 1.709 5551
-1.520 2.658 1.650 4263
-1.568 2.741 1.687 4602
-1.566 2.739 1.675 5130
-1.554 2.718 1.651 4677
-1.603 2.802 1.688 5151
-1.608 2.813 1.682 7932
-1.600 2.798 1.662 7648
-1.599 2.795 1.650 7025
-1.601 2.799 1.640 5078
-1.656 2.896 1.682 2782
-1.644 2.875 1.659 4145
-1.650 2.885 1.652 5206
-1.645 2.877 1.636 4341
-1.687 2.949 1.663 4322
-1.689 2.953 1.653 4942
-1.741 3.045 1.689 6032
-1.740 3.042 1.675 6645
-1.724 3.015 1.649 5293
-1.726 3.019 1.639 4162
-1.819 3.180 1.708 4951
-1.824 3.190 1.701 7963
-1.830 3.201 1.693 7465
-1.843 3.224 1.692 6438
-1.842 3.221 1.678 6762
-1.841 3.219 1.664 7837
-1.836 3.210 1.648 6820
-1.827 3.195 1.628 4515
-1.880 3.287 1.659 3627
-1.904 3.329 1.666 3441
-1.906 3.333 1.655 4506
-1.938 3.388 1.667 7538
-1.940 3.392 1.656 10357
-1.942 3.396 1.645 7381
-1.951 3.413 1.639 3689
-2.023 3.538 1.682 3990
-2.026 3.542 1.670 7135
-2.031 3.552 1.661 8076
-2.041 3.569 1.655 5985
-2.043 3.573 1.643 3668
-2.056 3.596 1.639 3144
-2.173 3.800 1.711 3128
-2.127 3.720 1.664 4809
-2.126 3.717 1.649 5281
-2.128 3.721 1.636 3093
-2.197 3.842 1.671 3461
-2.192 3.833 1.653 4027
-2.212 3.869 1.653 3120
-2.244 3.925 1.661 4805
-2.250 3.935 1.650 4703
-2.323 4.063 1.685 3902
-2.314 4.047 1.664 4262
-2.313 4.045 1.648 2841
-2.315 4.048 1.634 2625
-2.437 4.261 1.698 3135
-2.435 4.259 1.682 4937
-2.434 4.256 1.665 4322
-2.455 4.293 1.663 3659
-2.457 4.297 1.649 2850
-2.512 4.393 1.667 2065
-2.525 4.416 1.659 2452
-2.539 4.440 1.651 2203
-2.624 4.589 1.685 3286
-2.626 4.592 1.670 4318
-2.632 4.603 1.657 4374
-2.638 4.613 1.644 3761
-2.671 4.670 1.646 3207
-2.676 4.680 1.632 4068
-2.807 4.909 1.689 4584
-2.810 4.913 1.672 6582
-2.808 4.911 1.654 5241
-2.814 4.921 1.639 5212
-2.824 4.938 1.627 7701
-2.834 4.955 1.615 6801
-2.839 4.965 1.600 4396
-2.979 5.209 1.654 2986
-2.985 5.219 1.638 2258
-3.082 5.390 1.669 2691
-3.077 5.380 1.647 4092
-3.075 5.378 1.627 5123
-3.066 5.361 1.604 4230
-3.072 5.372 1.588 2562
-3.078 5.382 1.571 1980
-3.283 5.741 1.648 2546
-3.243 5.671 1.609 2252
-3.348 5.855 1.637 1940
-3.354 5.866 1.619 2313
-3.441 6.017 1.636 3190
-3.439 6.014 1.615 2779
-3.538 6.186 1.636 1989
-3.532 6.176 1.612 2530
-3.538 6.187 1.593 1626
-3.579 6.258 1.588 1622
-3.723 6.511 1.624 2491
-3.725 6.515 1.602 2741
-3.963 6.930 1.672 2279
-4.054 7.089 1.683 1922
-4.037 7.059 1.652 2246
-4.039 7.063 1.629 1756
-4.308 7.533 1.702 1607
-4.322 7.558 1.681 1935
-4.336 7.582 1.660 1720
-4.655 8.141 1.745 2190
-4.658 8.145 1.718 3013
-4.668 8.163 1.693 3709
-4.670 8.166 1.666 3722
-4.680 8.184 1.641 4022
-4.690 8.201 1.616 5757
-4.696 8.212 1.590 5957
-4.698 8.215 1.562 3984
-4.700 8.219 1.535 2317
-4.686 8.195 1.503 2335
-4.688 8.199 1.475 2171
-4.694 8.209 1.449 1186
-4.708 8.232 1.425 844
-4.706 8.229 1.396 589
-1.153 2.003 1.802 2319
-1.156 2.007 1.795 4639
-1.158 2.011 1.789 4639
-1.164 2.021 1.787 4935
-1.169 2.031 1.785 5467
-1.169 2.029 1.773 4247
-1.168 2.028 1.762 3298
-1.170 2.032 1.755 3298
-1.198 2.081 1.785 3827
-1.201 2.085 1.778 4379
-1.177 2.044 1.735 4518
-1.179 2.048 1.729 4912
-1.224 2.126 1.780 3910
-1.226 2.130 1.773 5121
-1.232 2.140 1.770 5091
-1.238 2.150 1.768 4772
-1.234 2.142 1.752 4433
-1.239 2.152 1.749 4992
-1.242 2.156 1.742 5611
-1.244 2.160 1.735 4526
-1.246 2.164 1.728 3440
-1.248 2.168 1.721 2475
-1.287 2.236 1.760 2884
-1.286 2.234 1.749 4333
-1.289 2.238 1.741 5817
-1.281 2.225 1.721 8165
-1.283 2.229 1.714 11122
-1.286 2.233 1.707 10626
-1.291 2.242 1.703 10141
-1.304 2.264 1.709 7969
-1.309 2.274 1.705 7486
-1.339 2.325 1.730 5426
-1.344 2.335 1.727 5800
-1.343 2.333 1.715 7011
-1.345 2.337 1.707 8147
-1.348 2.341 1.700 8816
-1.360 2.362 1.704 8010
-1.366 2.372 1.700 6549
-1.372 2.382 1.696 5940
-1.398 2.428 1.716 7230
-1.383 2.402 1.688 6521
-1.385 2.406 1.680 6829
-1.381 2.398 1.665 5022
-1.417 2.461 1.695 3282
-1.420 2.465 1.687 3769
-1.429 2.481 1.687 4252
-1.438 2.497 1.686 5170
-1.451 2.519 1.689 5711
-1.456 2.529 1.684 8799
-1.462 2.539 1.680 10836
-1.464 2.543 1.671 8857
-1.508 2.620 1.707 7945
-1.511 2.624 1.699 9708
-1.513 2.628 1.690 8348
-1.557 2.705 1.725 5873
-1.556 2.703 1.712 8293
-1.565 2.719 1.711 8346
-1.571 2.729 1.705 6228
-1.577 2.739 1.700 3793
-1.576 2.737 1.687 3958
-1.564 2.716 1.664 4534
-1.563 2.714 1.651 4949
-1.611 2.798 1.688 5400
-1.617 2.808 1.682 8979
-1.615 2.805 1.669 8703
-1.610 2.797 1.653 7476
-1.613 2.801 1.644 5274
-1.651 2.867 1.668 3197
-1.653 2.870 1.659 4020
-1.655 2.874 1.649 4903
-1.650 2.866 1.633 4343
-1.735 3.013 1.699 3914
-1.698 2.948 1.653 4269
-1.750 3.040 1.689 5057
-1.749 3.037 1.675 5641
-1.751 3.041 1.665 5015
-1.753 3.045 1.655 4296
-1.828 3.175 1.708 5029
-1.838 3.191 1.704 7879
-1.847 3.208 1.699 7300
-1.853 3.218 1.692 6307
-1.855 3.222 1.681 6457
-1.854 3.219 1.667 7497
-1.849 3.211 1.651 6275
-1.891 3.284 1.673 4616
-1.890 3.282 1.659 4376
-1.910 3.317 1.663 3656
-1.916 3.328 1.655 4553
-1.948 3.382 1.667 7107
-1.946 3.380 1.653 9847
-1.952 3.390 1.645 7105
-1.958 3.400 1.636 3428
-2.038 3.539 1.685 4495
-2.036 3.536 1.670 7065
-2.046 3.553 1.664 7982
-2.052 3.563 1.655 5946
-2.058 3.573 1.646 3703
-2.097 3.642 1.661 3518
-2.110 3.665 1.657 3285
-2.138 3.714 1.664 4756
-2.133 3.705 1.646 5438
-2.139 3.715 1.636 3059
-2.208 3.835 1.671 3917
-2.203 3.826 1.653 4082
-2.224 3.862 1.653 2721
-2.260 3.925 1.663 4848
-2.262 3.928 1.650 4737
-2.332 4.049 1.682 4050
-2.330 4.047 1.666 4595
-2.329 4.044 1.650 3315
-2.342 4.068 1.644 3171
-2.446 4.248 1.696 2926
-2.448 4.252 1.682 4567
-2.447 4.249 1.665 4125
-2.468 4.286 1.663 3584
-2.462 4.276 1.644 2996
-2.529 4.392 1.669 2006
-2.542 4.415 1.661 2419
-2.552 4.432 1.651 2334
-2.630 4.568 1.681 3379
-2.636 4.578 1.668 3845
-2.646 4.595 1.657 3875
-2.656 4.612 1.646 3713
-2.684 4.662 1.646 2681
-2.690 4.672 1.632 3472
-2.826 4.908 1.691 4396
-2.824 4.905 1.672 6209
-2.823 4.902 1.654 5144
-2.829 4.913 1.639 5279
-2.839 4.930 1.627 7976
-2.848 4.947 1.615 7374
-2.854 4.957 1.600 4744
-2.987 5.187 1.650 3411
-2.996 5.204 1.636 2214
-3.098 5.381 1.669 2273
-3.093 5.371 1.647 4117
-3.091 5.368 1.627 5733
-3.082 5.352 1.604 4943
-3.088 5.362 1.588 3029
-3.094 5.373 1.571 2287
-3.304 5.737 1.649 3049
-3.260 5.661 1.609 2518
-3.366 5.845 1.637 2049
-3.368 5.849 1.617 2427
-3.459 6.007 1.636 3536
-3.457 6.004 1.615 3031
-3.552 6.169 1.634 2114
-3.550 6.166 1.612 2652
-3.556 6.176 1.593 1643
-3.601 6.254 1.589 1764
-3.747 6.507 1.626 2250
-3.745 6.504 1.602 2399
-3.980 6.911 1.671 2241
-4.071 7.070 1.682 2124
-4.058 7.047 1.652 2226
-4.060 7.051 1.629 1668
-4.334 7.527 1.704 1712
-4.344 7.545 1.681 2190
-4.354 7.562 1.659 1764
-4.680 8.127 1.745 2229
-4.682 8.131 1.718 3063
-4.692 8.149 1.693 3822
-4.694 8.152 1.666 3935
-4.704 8.170 1.641 4556
-4.714 8.187 1.616 6566
-4.720 8.198 1.590 6459
-4.722 8.201 1.562 4093
-4.724 8.205 1.535 2330
-4.723 8.202 1.506 2486
-4.717 8.191 1.476 2450
-4.719 8.195 1.449 1413
-4.732 8.218 1.425 919
-4.730 8.215 1.396 610
-1.150 2.005 1.802 2367
-1.153 2.009 1.795 4735
-1.155 2.013 1.789 4735
-1.161 2.023 1.787 5152
-1.166 2.033 1.785 5756
-1.165 2.031 1.773 4577
-1.164 2.030 1.762 3625
-1.167 2.034 1.755 3625
-1.169 2.038 1.749 4042
-1.168 2.036 1.737 4516
-1.174 2.046 1.735 4841
-1.176 2.050 1.729 5223
-1.185 2.065 1.731 3765
-1.223 2.132 1.773 4952
-1.232 2.147 1.775 4933
-1.234 2.152 1.768 4642
-1.230 2.144 1.752 4291
-1.236 2.154 1.749 4977
-1.238 2.158 1.742 5687
-1.240 2.162 1.735 4792
-1.243 2.166 1.728 3897
-1.245 2.170 1.721 2858
-1.284 2.238 1.760 3129
-1.286 2.242 1.753 4649
-1.289 2.246 1.746 6170
-1.278 2.227 1.721 8589
-1.280 2.231 1.714 11728
-1.282 2.235 1.707 11199
-1.288 2.245 1.703 10684
-1.300 2.266 1.709 8090
-1.306 2.276 1.705 7381
-1.335 2.327 1.730 5337
-1.337 2.331 1.723 5660
-1.340 2.335 1.715 6716
-1.342 2.339 1.707 7623
-1.347 2.349 1.704 8228
-1.360 2.370 1.708 7742
-1.362 2.374 1.700 6419
-1.368 2.384 1.696 6001
-1.394 2.430 1.716 7689
-1.390 2.422 1.700 7024
-1.381 2.408 1.680 7392
-1.380 2.406 1.668 5368
-1.413 2.464 1.695 3327
-1.419 2.474 1.691 3760
-1.425 2.484 1.687 3966
-1.434 2.500 1.686 4473
-1.447 2.522 1.689 5378
-1.452 2.531 1.684 8714
-1.455 2.535 1.676 10685
-1.460 2.545 1.671 8632
-1.504 2.622 1.707 8321
-1.503 2.620 1.695 10258
-1.505 2.624 1.686 8923
-1.550 2.701 1.721 6556
-1.548 2.699 1.709 9803
-1.554 2.709 1.703 9933
-1.563 2.725 1.702 7145
-1.573 2.741 1.700 3966
-1.575 2.745 1.691 3455
-1.556 2.712 1.660 4172
-1.562 2.722 1.655 5149
-1.607 2.800 1.688 5648
-1.609 2.804 1.678 9766
-1.611 2.808 1.669 9626
-1.606 2.799 1.653 8002
-1.612 2.809 1.647 5482
-1.646 2.869 1.668 3479
-1.645 2.867 1.655 4006
-1.647 2.871 1.646 4868
-1.646 2.868 1.633 4490
-1.734 3.022 1.702 4008
-1.747 3.045 1.702 3625
-1.745 3.042 1.689 4441
-1.741 3.034 1.672 5342
-1.743 3.038 1.662 5185
-1.745 3.041 1.652 4958
-1.827 3.184 1.711 5352
-1.833 3.194 1.704 7963
-1.842 3.211 1.699 7209
-1.852 3.227 1.695 6252
-1.850 3.225 1.681 6238
-1.852 3.229 1.670 7204
-1.858 3.239 1.663 6193
-1.882 3.281 1.670 5300
-1.885 3.285 1.659 4768
-1.909 3.327 1.666 3502
-1.911 3.331 1.655 4197
-1.939 3.379 1.664 6341
-1.941 3.383 1.653 8945
-1.943 3.387 1.642 6614
-2.037 3.551 1.702 3795
-2.036 3.548 1.687 4702
-2.034 3.546 1.673 6666
-2.040 3.556 1.664 7632
-2.050 3.573 1.658 5889
-2.078 3.622 1.665 4722
-2.087 3.638 1.658 4050
-2.093 3.649 1.649 3533
-2.133 3.717 1.664 4613
-2.124 3.702 1.643 5532
-2.204 3.841 1.686 3295
-2.202 3.839 1.671 4385
-2.197 3.830 1.653 4063
-2.214 3.859 1.651 2479
-2.254 3.928 1.663 4820
-2.260 3.939 1.653 4658
-2.325 4.053 1.682 4220
-2.324 4.050 1.666 5076
-2.322 4.048 1.650 3888
-2.339 4.078 1.647 3586
-2.409 4.199 1.677 2819
-2.438 4.249 1.679 4101
-2.440 4.253 1.665 3787
-2.457 4.283 1.660 3238
-2.456 4.280 1.644 2757
-2.522 4.396 1.669 1967
-2.535 4.419 1.661 2356
-2.602 4.535 1.685 2714
-2.615 4.558 1.677 3999
-2.625 4.576 1.666 4014
-2.639 4.599 1.657 3779
-2.648 4.616 1.646 3856
-2.745 4.785 1.685 2436
-2.751 4.796 1.671 3202
-2.818 4.912 1.691 4058
-2.817 4.909 1.672 5525
-2.811 4.900 1.652 4740
-2.817 4.910 1.637 4957
-2.831 4.934 1.627 7640
-2.841 4.951 1.615 7560
-2.846 4.961 1.600 4909
-2.978 5.191 1.650 4049
-2.981 5.195 1.633 2418
-3.002 5.232 1.625 1939
-3.081 5.369 1.645 3921
-3.079 5.367 1.625 5971
-3.073 5.357 1.604 5443
-3.079 5.367 1.588 3502
-3.085 5.378 1.571 2576
-3.295 5.743 1.649 3454
-3.251 5.666 1.609 2800
-3.357 5.851 1.637 2028
-3.355 5.848 1.616 2398
-3.449 6.012 1.636 3647
-3.448 6.010 1.615 3159
-3.542 6.174 1.634 2234
-3.541 6.172 1.612 2631
-3.601 6.276 1.615 1793
-3.676 6.408 1.624 2110
-3.736 6.512 1.626 1946
-3.738 6.516 1.604 2137
-3.969 6.918 1.671 2138
-4.060 7.077 1.682 2315
-4.047 7.054 1.652 2092
-4.119 7.179 1.654 1550
-4.330 7.548 1.707 1829
-4.332 7.551 1.681 2423
-4.339 7.562 1.657 1942
-4.667 8.134 1.745 2135
-4.669 8.138 1.718 2936
-4.679 8.156 1.693 3719
-4.681 8.160 1.666 3907
-4.691 8.177 1.641 4792
-4.701 8.195 1.616 6956
-4.707 8.205 1.590 6627
-4.709 8.209 1.562 4048
-4.712 8.212 1.535 2288
-4.710 8.209 1.506 2551
-4.704 8.199 1.476 2562
-4.710 8.209 1.450 1531
-4.715 8.219 1.424 947
-4.717 8.222 1.396 605
-1.146 2.007 1.802 2386
-1.148 2.011 1.795 4772
-1.151 2.016 1.789 4772
-1.156 2.025 1.787 5315
-1.162 2.035 1.785 6004
-1.161 2.034 1.773 4885
-1.160 2.032 1.762 3946
-1.162 2.036 1.755 3946
-1.165 2.040 1.749 4395
-1.164 2.039 1.737 4862
-1.169 2.049 1.735 5162
-1.175 2.058 1.733 5495
-1.180 2.068 1.731 3973
-1.222 2.140 1.777 4820
-1.227 2.150 1.775 4848
-1.230 2.154 1.768 4549
-1.229 2.153 1.756 4175
-1.231 2.157 1.749 5036
-1.233 2.161 1.742 5890
-1.236 2.165 1.735 5205
-1.238 2.169 1.728 4521
-1.240 2.173 1.721 3374
-1.276 2.235 1.756 3512
-1.281 2.245 1.753 4989
-1.284 2.249 1.746 6505
-1.276 2.235 1.726 8764
-1.275 2.234 1.714 11918
-1.277 2.238 1.707 11354
-1.283 2.247 1.703 10833
-1.295 2.269 1.709 8051
-1.301 2.279 1.705 7191
-1.326 2.324 1.726 5232
-1.332 2.334 1.723 5394
-1.334 2.338 1.715 6303
-1.337 2.342 1.707 6971
-1.346 2.358 1.708 7494
-1.355 2.373 1.708 7462
-1.357 2.377 1.700 6195
-1.380 2.417 1.716 6048
-1.389 2.433 1.716 8116
-1.384 2.425 1.700 7585
-1.376 2.411 1.680 7959
-1.378 2.415 1.672 5734
-1.405 2.461 1.691 3265
-1.414 2.477 1.691 3548
-1.419 2.487 1.687 3528
-1.432 2.509 1.690 3733
-1.438 2.519 1.685 5060
-1.443 2.529 1.681 8597
-1.446 2.533 1.672 10496
-1.451 2.542 1.668 8503
-1.495 2.619 1.704 8808
-1.497 2.623 1.695 10813
-1.500 2.627 1.686 9427
-1.544 2.704 1.721 7538
-1.542 2.702 1.709 11580
-1.548 2.712 1.703 11848
-1.550 2.716 1.694 8755
-1.549 2.714 1.682 5233
-1.548 2.712 1.669 4195
-1.550 2.716 1.660 4130
-1.559 2.732 1.658 5195
-1.600 2.804 1.688 5886
-1.603 2.808 1.678 10134
-1.605 2.812 1.669 10158
-1.607 2.815 1.660 8283
-1.613 2.825 1.654 5677
-1.636 2.867 1.665 3632
-1.635 2.864 1.652 4056
-1.641 2.874 1.646 4939
-1.639 2.872 1.633 4534
-1.727 3.026 1.702 4293
-1.726 3.023 1.689 3300
-1.728 3.027 1.679 3974
-1.730 3.031 1.669 5157
-1.736 3.041 1.662 5330
-1.807 3.165 1.712 5708
-1.812 3.175 1.705 6002
-1.829 3.204 1.707 8084
-1.839 3.221 1.703 7296
-1.848 3.238 1.698 6372
-1.850 3.242 1.687 6175
-1.853 3.245 1.677 7092
-1.858 3.256 1.669 6807
-1.871 3.279 1.667 5678
-1.877 3.289 1.659 4669
-1.901 3.331 1.666 3221
-1.904 3.335 1.655 3817
-1.928 3.377 1.661 5304
-1.930 3.381 1.650 7511
-1.936 3.391 1.642 5813
-2.029 3.555 1.702 4426
-2.028 3.553 1.687 4733
-2.023 3.544 1.670 6023
-2.032 3.561 1.664 6818
-2.046 3.584 1.660 5477
-2.070 3.626 1.665 5781
-2.076 3.637 1.656 4542
-2.082 3.647 1.646 3615
-2.102 3.683 1.648 4463
-2.112 3.700 1.641 5782
-2.195 3.846 1.686 3373
-2.194 3.844 1.671 4262
-2.185 3.828 1.650 3681
-2.247 3.936 1.679 2655
-2.249 3.940 1.666 4976
-2.251 3.944 1.653 4601
-2.316 4.058 1.682 4383
-2.315 4.056 1.666 5437
-2.317 4.059 1.653 4362
-2.330 4.083 1.647 3899
-2.400 4.204 1.677 2940
-2.428 4.254 1.679 3492
-2.431 4.258 1.665 3364
-2.448 4.288 1.660 2845
-2.446 4.285 1.644 2415
-2.508 4.395 1.667 1938
-2.533 4.438 1.666 2277
-2.592 4.541 1.685 3418
-2.601 4.558 1.674 4726
-2.611 4.575 1.664 4148
-2.625 4.598 1.655 3627
-2.634 4.615 1.644 3816
-2.633 4.613 1.626 2653
-2.741 4.802 1.671 3308
-2.811 4.925 1.693 3636
-2.806 4.916 1.672 4868
-2.797 4.899 1.650 4075
-2.806 4.917 1.637 3896
-2.824 4.947 1.629 6793
-2.833 4.964 1.617 7273
-2.836 4.968 1.600 4631
-2.963 5.191 1.648 4477
-2.969 5.202 1.633 2509
-2.998 5.252 1.629 1865
-3.069 5.376 1.645 3504
-3.067 5.373 1.625 5736
-3.062 5.364 1.604 5657
-3.067 5.374 1.588 3851
-3.073 5.384 1.571 2684
-3.282 5.750 1.649 3593
-3.234 5.666 1.607 2976
-3.240 5.677 1.590 1925
-3.438 6.023 1.658 2270
-3.436 6.020 1.636 3642
-3.435 6.017 1.615 3268
-3.529 6.182 1.634 2372
-3.531 6.186 1.613 2651
-3.591 6.291 1.617 1992
-3.666 6.422 1.625 2132
-3.660 6.413 1.601 1864
-3.724 6.524 1.604 1931
-4.046 7.088 1.707 2016
-4.044 7.086 1.682 2423
-4.031 7.062 1.652 1798
-4.103 7.188 1.654 1512
-4.314 7.557 1.707 1872
-4.316 7.561 1.681 2471
-4.318 7.565 1.656 2047
-4.649 8.145 1.745 1912
-4.651 8.149 1.718 2607
-4.661 8.166 1.693 3380
-4.663 8.170 1.666 3612
-4.673 8.188 1.641 4595
-4.683 8.205 1.616 6797
-4.685 8.209 1.589 6368
-4.688 8.212 1.561 3823
-4.693 8.223 1.535 2165
-4.692 8.219 1.506 2452
-4.690 8.216 1.478 2464
-4.692 8.219 1.450 1528
-4.697 8.229 1.424 869
-4.699 8.233 1.396 511
-1.143 2.009 1.802 2383
-1.145 2.013 1.795 4766
-1.148 2.017 1.789 4766
-1.153 2.027 1.787 5364
-1.155 2.031 1.780 6084
-1.158 2.035 1.773 5080
-1.157 2.034 1.762 4187
-1.159 2.038 1.755 4187
-1.162 2.042 1.749 4744
-1.164 2.046 1.742 5301
-1.169 2.056 1.740 5501
-1.172 2.060 1.733 5739
-1.177 2.070 1.731 4134
-1.222 2.148 1.782 4734
-1.224 2.152 1.775 4771
-1.226 2.156 1.768 4452
-1.229 2.160 1.761 4066
-1.228 2.159 1.749 5084
-1.230 2.163 1.742 6072
-1.232 2.167 1.735 5586
-1.235 2.171 1.728 5100
-1.234 2.169 1.716 3876
-1.272 2.237 1.756 3931
-1.278 2.247 1.753 5280
-1.280 2.251 1.746 6704
-1.273 2.237 1.726 8851
-1.272 2.235 1.714 11984
-1.274 2.239 1.707 11401
-1.279 2.249 1.703 10898
-1.292 2.271 1.709 7965
-1.297 2.281 1.705 6954
-1.316 2.314 1.718 5213
-1.325 2.330 1.719 5161
-1.331 2.340 1.715 5747
-1.333 2.344 1.707 6193
-1.346 2.365 1.712 6765
-1.351 2.375 1.708 7051
-1.353 2.379 1.700 5931
-1.376 2.419 1.716 5897
-1.385 2.435 1.716 8060
-1.384 2.433 1.704 7720
-1.376 2.419 1.684 8260
-1.378 2.423 1.676 6023
-1.401 2.463 1.691 3333
-1.413 2.485 1.695 3482
-1.419 2.495 1.690 3331
-1.428 2.511 1.690 3393
-1.434 2.521 1.685 4963
-1.440 2.531 1.681 8556
-1.442 2.535 1.672 10427
-1.444 2.539 1.664 8370
-1.491 2.621 1.704 9109
-1.490 2.619 1.691 11119
-1.496 2.629 1.686 9632
-1.536 2.701 1.718 8743
-1.535 2.698 1.705 13419
-1.541 2.709 1.700 13812
-1.543 2.712 1.691 10510
-1.545 2.716 1.682 6728
-1.540 2.708 1.666 5796
-1.536 2.700 1.650 4885
-1.559 2.740 1.662 5127
-1.596 2.806 1.688 6201
-1.598 2.810 1.678 10216
-1.601 2.814 1.669 10540
-1.606 2.824 1.663 8634
-1.612 2.834 1.657 5917
-1.632 2.869 1.665 3853
-1.698 2.985 1.715 4559
-1.633 2.870 1.642 5409
-1.635 2.874 1.633 4794
-1.719 3.022 1.699 4575
-1.721 3.026 1.689 3244
-1.720 3.024 1.676 3777
-1.726 3.034 1.669 5089
-1.728 3.038 1.659 5566
-1.802 3.168 1.712 7063
-1.804 3.172 1.702 7184
-1.824 3.207 1.707 8329
-1.834 3.224 1.703 7399
-1.843 3.240 1.698 6414
-1.845 3.244 1.687 6087
-1.851 3.255 1.680 7270
-1.857 3.265 1.672 7426
-1.867 3.281 1.667 6039
-1.869 3.285 1.656 4769
-1.860 3.270 1.636 3304
-1.899 3.338 1.655 3434
-1.915 3.367 1.656 4583
-1.925 3.384 1.650 5956
-1.931 3.394 1.642 4972
-2.024 3.558 1.702 4693
-2.026 3.562 1.690 4532
-2.014 3.540 1.667 5153
-2.027 3.564 1.664 5513
-2.070 3.638 1.682 5428
-2.068 3.636 1.668 6493
-2.070 3.640 1.656 4725
-2.076 3.650 1.646 3529
-2.093 3.680 1.645 4440
-2.106 3.703 1.641 6023
-2.108 3.707 1.628 3896
-2.192 3.853 1.674 4165
-2.190 3.851 1.658 3013
-2.241 3.939 1.679 3139
-2.239 3.936 1.663 4870
-2.245 3.947 1.653 4211
-2.310 4.062 1.682 4412
-2.313 4.066 1.669 5753
-2.318 4.076 1.658 4797
-2.324 4.086 1.647 3962
-2.397 4.215 1.679 3178
-2.414 4.245 1.675 3243
-2.420 4.255 1.663 2966
-2.438 4.285 1.658 2374
-2.440 4.289 1.644 2046
-2.457 4.319 1.639 1885
-2.526 4.442 1.666 2265
-2.585 4.544 1.685 3860
-2.591 4.555 1.672 5092
-2.604 4.579 1.664 3973
-2.614 4.596 1.653 3385
-2.624 4.613 1.642 3579
-2.626 4.616 1.626 2674
-2.730 4.799 1.669 3056
-2.751 4.836 1.663 3866
-2.791 4.906 1.668 4502
-2.774 4.877 1.641 4345
-2.773 4.874 1.623 3472
-2.820 4.958 1.631 5767
-2.826 4.968 1.617 6414
-2.953 5.192 1.665 4001
-2.955 5.196 1.648 4643
-2.958 5.200 1.631 2489
-3.009 5.290 1.638 2191
-3.061 5.381 1.645 2743
-3.055 5.371 1.623 5026
-3.054 5.368 1.604 5596
-3.059 5.379 1.588 4136
-3.062 5.382 1.570 2768
-3.273 5.755 1.649 3475
-3.226 5.671 1.607 3149
-3.262 5.735 1.604 1990
-3.429 6.028 1.658 2047
-3.427 6.025 1.636 3420
-3.426 6.022 1.615 3302
-3.523 6.194 1.636 2642
-3.522 6.191 1.613 2727
-3.581 6.296 1.617 2019
-3.572 6.280 1.591 1923
-3.639 6.398 1.596 1777
-3.776 6.638 1.628 1608
-4.035 7.094 1.707 2032
-4.038 7.098 1.683 2481
-4.021 7.068 1.652 1458
-4.084 7.180 1.651 1428
-4.302 7.563 1.707 1788
-4.305 7.567 1.681 2427
-4.303 7.565 1.655 2140
-4.293 7.548 1.625 1969
-4.639 8.156 1.718 2084
-4.649 8.173 1.693 2792
-4.651 8.177 1.666 3071
-4.669 8.208 1.643 4107
-4.671 8.212 1.616 6182
-4.673 8.216 1.589 5714
-4.675 8.219 1.561 3398
-4.681 8.230 1.535 1943
-4.679 8.226 1.506 2212
-4.677 8.223 1.478 2202
-4.679 8.226 1.450 1390
-4.685 8.236 1.424 732
-4.687 8.240 1.396 383
-1.138 2.012 1.802 2311
-1.141 2.016 1.795 4622
-1.143 2.020 1.789 4622
-1.148 2.030 1.787 5212
-1.151 2.034 1.780 5936
-1.153 2.038 1.773 5105
-1.152 2.037 1.762 4318
-1.155 2.041 1.755 4318
-1.157 2.045 1.749 5064
-1.162 2.055 1.747 5850
-1.165 2.059 1.740 5901
-1.167 2.063 1.733 5953
-1.173 2.072 1.731 4281
-1.217 2.151 1.782 4622
-1.219 2.155 1.775 4658
-1.222 2.159 1.768 4379
-1.224 2.163 1.761 4041
-1.223 2.161 1.749 5110
-1.225 2.165 1.742 6155
-1.228 2.170 1.735 5796
-1.230 2.174 1.728 5437
-1.229 2.172 1.716 4242
-1.264 2.234 1.752 4414
-1.273 2.249 1.753 5560
-1.275 2.254 1.746 6861
-1.268 2.240 1.726 8936
-1.266 2.238 1.714 12003
-1.269 2.242 1.707 11373
-1.274 2.252 1.703 10866
-1.287 2.274 1.709 7794
-1.295 2.289 1.709 6720
-1.308 2.311 1.714 5370
-1.313 2.321 1.711 4949
-1.322 2.337 1.711 5019
-1.331 2.353 1.711 5352
-1.344 2.374 1.716 5936
-1.346 2.378 1.708 6200
-1.345 2.377 1.696 5321
-1.384 2.446 1.732 5755
-1.380 2.438 1.716 8133
-1.378 2.436 1.704 8008
-1.370 2.422 1.684 8640
-1.373 2.426 1.676 6417
-1.375 2.430 1.668 3545
-1.408 2.488 1.695 3289
-1.413 2.498 1.690 3405
-1.419 2.508 1.686 3630
-1.425 2.518 1.682 5158
-1.430 2.528 1.677 8547
-1.436 2.538 1.672 10317
-1.438 2.542 1.664 8312
-1.482 2.619 1.700 9244
-1.484 2.623 1.691 11241
-1.490 2.633 1.686 9660
-1.530 2.704 1.718 9695
-1.529 2.702 1.705 14744
-1.534 2.712 1.700 15267
-1.537 2.716 1.691 12092
-1.535 2.714 1.678 8310
-1.534 2.711 1.666 7697
-1.529 2.703 1.650 5988
-1.581 2.793 1.690 5791
-1.586 2.804 1.684 6428
-1.592 2.814 1.678 9687
-1.594 2.818 1.669 10526
-1.600 2.828 1.663 8816
-1.606 2.838 1.657 5904
-1.625 2.873 1.665 3920
-1.691 2.989 1.715 5380
-1.630 2.880 1.646 5980
-1.699 3.003 1.699 5394
-1.712 3.026 1.699 4791
-1.714 3.030 1.689 3095
-1.713 3.028 1.676 3424
-1.715 3.031 1.666 4669
-1.717 3.035 1.656 5422
-1.791 3.165 1.709 8209
-1.797 3.176 1.702 8360
-1.817 3.211 1.707 8460
-1.830 3.234 1.706 7472
-1.836 3.245 1.698 6544
-1.842 3.255 1.690 6313
-1.844 3.259 1.680 7742
-1.850 3.269 1.672 7855
-1.855 3.279 1.664 5951
-1.854 3.277 1.650 4440
-1.853 3.274 1.636 3366
-1.909 3.374 1.670 3026
-1.908 3.371 1.656 4452
-1.913 3.382 1.647 4893
-1.926 3.405 1.645 4182
-2.016 3.563 1.702 4619
-2.018 3.567 1.690 4059
-2.002 3.538 1.664 4574
-2.012 3.555 1.658 4498
-2.065 3.649 1.685 5888
-2.060 3.640 1.668 6840
-2.062 3.644 1.656 4701
-2.068 3.655 1.646 3524
-2.085 3.684 1.645 4560
-2.094 3.701 1.638 6503
-2.096 3.705 1.626 4598
-2.187 3.865 1.676 3910
-2.229 3.940 1.692 3348
-2.228 3.938 1.676 3665
-2.230 3.942 1.663 4913
-2.236 3.952 1.653 3870
-2.301 4.067 1.682 4201
-2.303 4.071 1.669 5763
-2.305 4.075 1.655 5028
-2.315 4.092 1.647 3852
-2.388 4.220 1.679 3394
-2.401 4.244 1.672 3380
-2.407 4.254 1.660 2730
-2.428 4.291 1.658 1851
-2.501 4.420 1.688 1652
-2.492 4.404 1.667 1765
-2.516 4.447 1.666 2228
-2.575 4.550 1.685 3805
-2.581 4.561 1.672 4881
-2.590 4.578 1.661 3585
-2.604 4.602 1.653 3095
-2.606 4.605 1.637 3165
-2.608 4.609 1.622 2468
-2.715 4.799 1.667 2725
-2.744 4.849 1.665 4357
-2.753 4.866 1.653 5190
-2.759 4.877 1.639 5480
-2.761 4.881 1.623 4587
-2.831 5.004 1.643 5394
-2.818 4.981 1.619 5146
-2.938 5.192 1.663 4175
-2.940 5.196 1.646 4679
-2.938 5.193 1.627 2655
-2.993 5.290 1.636 2468
-3.029 5.354 1.636 2700
-3.043 5.378 1.623 4177
-3.041 5.375 1.604 5318
-3.047 5.386 1.588 4348
-3.049 5.389 1.570 2893
-3.260 5.762 1.649 3005
-3.213 5.679 1.607 3184
-3.253 5.750 1.606 2107
-3.263 5.767 1.590 1895
-3.417 6.040 1.638 3013
-3.412 6.030 1.615 3142
-3.509 6.202 1.636 2897
-3.508 6.199 1.613 2813
-3.567 6.304 1.617 1872
-3.642 6.436 1.625 1770
-3.625 6.406 1.596 1837
-3.619 6.396 1.572 1629
-4.019 7.104 1.707 1916
-4.022 7.108 1.683 2344
-4.181 7.389 1.719 1342
-4.064 7.183 1.650 1238
-4.285 7.573 1.707 1623
-4.287 7.577 1.681 2224
-4.282 7.568 1.653 2107
-4.276 7.558 1.625 2051
-4.371 7.725 1.632 1471
-4.630 8.184 1.693 2025
-4.633 8.188 1.666 2336
-4.650 8.219 1.643 3316
-4.652 8.222 1.616 5107
-4.658 8.233 1.590 4703
-4.657 8.230 1.561 2784
-4.662 8.240 1.535 1602
-4.661 8.237 1.506 1805
-4.659 8.234 1.478 1745
-4.661 8.237 1.450 1117
-4.666 8.247 1.424 561
-4.668 8.250 1.396 255
-1.135 2.013 1.802 2191
-1.138 2.017 1.795 4383
-1.140 2.022 1.789 4383
-1.142 2.026 1.782 4917
-1.148 2.036 1.780 5569
-1.150 2.040 1.773 4968
-1.165 2.066 1.785 4443
-1.168 2.071 1.778 4443
-1.157 2.052 1.753 5399
-1.163 2.062 1.751 6490
-1.162 2.060 1.740 6258
-1.164 2.064 1.733 6085
-1.170 2.074 1.731 4380
-1.214 2.152 1.782 4583
-1.216 2.157 1.775 4606
-1.222 2.166 1.772 4344
-1.221 2.165 1.761 4037
-1.220 2.163 1.749 5099
-1.222 2.167 1.742 6151
-1.221 2.166 1.731 5904
-1.223 2.170 1.723 5699
-1.226 2.174 1.716 4529
-1.261 2.236 1.752 5044
-1.269 2.251 1.753 5840
-1.272 2.255 1.746 6936
-1.264 2.242 1.726 8712
-1.263 2.240 1.714 11485
-1.265 2.244 1.707 10800
-1.271 2.254 1.703 10274
-1.283 2.276 1.709 7315
-1.292 2.291 1.709 6374
-1.301 2.307 1.710 5596
-1.306 2.317 1.706 5115
-1.312 2.327 1.703 4591
-1.331 2.361 1.715 4611
-1.340 2.376 1.716 4961
-1.336 2.369 1.700 5045
-1.324 2.349 1.676 5378
-1.380 2.448 1.732 5766
-1.379 2.446 1.720 8024
-1.375 2.438 1.704 7966
-1.370 2.430 1.688 8578
-1.372 2.434 1.680 6502
-1.375 2.438 1.672 3867
-1.377 2.442 1.664 3308
-1.410 2.500 1.690 3620
-1.412 2.504 1.682 4242
-1.421 2.520 1.682 5566
-1.427 2.530 1.677 8512
-1.432 2.540 1.672 10107
-1.434 2.544 1.664 8124
-1.478 2.621 1.700 9292
-1.480 2.625 1.691 11258
-1.486 2.635 1.686 9593
-1.522 2.700 1.714 10470
-1.525 2.704 1.705 15608
-1.530 2.714 1.700 16064
-1.533 2.718 1.691 12991
-1.531 2.716 1.678 9435
-1.530 2.714 1.666 9040
-1.525 2.705 1.650 6561
-1.573 2.790 1.686 6767
-1.579 2.800 1.681 6418
-1.584 2.810 1.675 8825
-1.590 2.820 1.669 10085
-1.596 2.830 1.663 8758
-1.647 2.921 1.701 5911
-1.681 2.981 1.722 4676
-1.687 2.992 1.715 6049
-1.625 2.883 1.646 6379
-1.695 3.006 1.699 5946
-1.704 3.022 1.696 4797
-1.710 3.033 1.689 2864
-1.705 3.024 1.672 3077
-1.707 3.028 1.662 4216
-1.784 3.164 1.720 5420
-1.786 3.168 1.709 8952
-1.792 3.178 1.702 9102
-1.812 3.214 1.707 8291
-1.825 3.237 1.706 7463
-1.831 3.247 1.698 6719
-1.837 3.258 1.690 6680
-1.839 3.262 1.680 8111
-1.845 3.272 1.672 7995
-1.851 3.282 1.664 5667
-1.882 3.337 1.677 4162
-1.848 3.277 1.636 3239
-1.904 3.377 1.670 3271
-1.906 3.381 1.659 4804
-1.912 3.391 1.650 4355
-1.925 3.414 1.648 3778
-2.011 3.566 1.702 4154
-2.002 3.550 1.682 3591
-1.993 3.535 1.662 4720
-1.995 3.539 1.650 4442
-2.059 3.653 1.685 5885
-2.058 3.650 1.670 6548
-2.060 3.654 1.658 4543
-2.062 3.658 1.646 3447
-2.079 3.687 1.645 4577
-2.089 3.704 1.638 6952
-2.091 3.708 1.626 5300
-2.188 3.881 1.681 4190
-2.220 3.937 1.689 4043
-2.222 3.941 1.676 4232
-2.221 3.938 1.661 5176
-2.226 3.949 1.650 3618
-2.295 4.070 1.682 3863
-2.297 4.074 1.669 5434
-2.303 4.085 1.658 4851
-2.309 4.095 1.647 3489
-2.385 4.230 1.681 3556
-2.395 4.247 1.672 3576
-2.397 4.251 1.658 2589
-2.421 4.294 1.658 1568
-2.446 4.338 1.658 1483
-2.482 4.401 1.664 1945
-2.506 4.445 1.663 2248
-2.568 4.554 1.685 3546
-2.574 4.565 1.672 4247
-2.580 4.575 1.659 2808
-2.597 4.605 1.653 2681
-2.595 4.603 1.635 2954
-2.597 4.606 1.620 2479
-2.704 4.796 1.664 2366
-2.740 4.860 1.667 4540
-2.746 4.870 1.653 5989
-2.756 4.887 1.641 6074
-2.758 4.891 1.625 5002
-2.824 5.008 1.643 5284
-2.822 5.006 1.625 4249
-2.930 5.196 1.663 4027
-2.928 5.193 1.644 4305
-2.927 5.191 1.625 2602
-2.974 5.275 1.631 2896
-2.976 5.278 1.613 3033
-3.031 5.376 1.622 3557
-3.033 5.380 1.604 4844
-3.039 5.390 1.588 4203
-3.041 5.394 1.570 2783
-3.199 5.673 1.624 2459
-3.201 5.677 1.606 3143
-3.245 5.754 1.606 1988
-3.250 5.765 1.588 1977
-3.408 6.045 1.638 2467
-3.399 6.028 1.613 2830
-3.500 6.207 1.636 2928
-3.502 6.211 1.615 2785
-3.539 6.276 1.609 1667
-3.632 6.442 1.625 1853
-3.615 6.412 1.596 1914
-3.610 6.402 1.572 1736
-4.009 7.110 1.707 1735
-4.011 7.114 1.683 2152
-4.170 7.395 1.719 1379
-4.226 7.494 1.715 1215
-4.274 7.580 1.707 1426
-4.276 7.584 1.681 1902
-4.267 7.567 1.652 1844
-4.265 7.564 1.625 1899
-4.359 7.731 1.632 1520
-4.361 7.735 1.606 1689
-4.620 8.195 1.666 1611
-4.638 8.226 1.643 2421
-4.640 8.229 1.616 3840
-4.646 8.240 1.590 3571
-4.644 8.237 1.561 2130
-4.646 8.240 1.534 1236
-4.648 8.244 1.506 1363
-4.646 8.240 1.478 1256
-4.648 8.244 1.450 800
-4.654 8.254 1.424 380
-1.131 2.016 1.802 2042
-1.133 2.020 1.795 4084
-1.135 2.024 1.789 4084
-1.138 2.028 1.782 4531
-1.143 2.038 1.780 5054
-1.146 2.042 1.773 4739
-1.157 2.063 1.780 4850
-1.160 2.068 1.774 4850
-1.159 2.066 1.762 5920
-1.158 2.065 1.751 7168
-1.160 2.069 1.744 6606
-1.159 2.067 1.733 6153
-1.165 2.077 1.731 4435
-1.209 2.155 1.782 4587
-1.211 2.159 1.775 4590
-1.217 2.169 1.772 4328
-1.216 2.167 1.761 4048
-1.215 2.166 1.749 5060
-1.217 2.170 1.742 6072
-1.216 2.168 1.731 5959
-1.219 2.172 1.723 5877
-1.221 2.176 1.716 4788
-1.256 2.238 1.752 5726
-1.261 2.248 1.749 6090
-1.270 2.264 1.750 6937
-1.259 2.245 1.726 8363
-1.258 2.243 1.714 10745
-1.264 2.253 1.711 10059
-1.266 2.257 1.703 9463
-1.278 2.278 1.709 6720
-1.290 2.300 1.713 6057
-1.296 2.310 1.710 5651
-1.298 2.314 1.702 5306
-1.304 2.324 1.699 4414
-1.326 2.364 1.715 3929
-1.335 2.379 1.716 3899
-1.320 2.354 1.688 4600
-1.316 2.346 1.672 5951
-1.325 2.361 1.672 6119
-1.374 2.449 1.720 8159
-1.373 2.447 1.708 8237
-1.368 2.439 1.692 8909
-1.370 2.443 1.684 6881
-1.369 2.441 1.672 4298
-1.371 2.445 1.664 3749
-1.404 2.503 1.690 3923
-1.406 2.507 1.682 5140
-1.412 2.517 1.678 6236
-1.421 2.533 1.677 8501
-1.423 2.537 1.669 9919
-1.429 2.547 1.664 7947
-1.472 2.624 1.700 9179
-1.474 2.628 1.691 11053
-1.480 2.638 1.686 9267
-1.517 2.704 1.714 10832
-1.519 2.708 1.705 15971
-1.524 2.718 1.700 16430
-1.527 2.722 1.691 13587
-1.525 2.719 1.678 10398
-1.524 2.717 1.666 9960
-1.523 2.715 1.653 6762
-1.567 2.793 1.686 7045
-1.572 2.803 1.681 6524
-1.575 2.807 1.671 8345
-1.580 2.817 1.666 9577
-1.586 2.827 1.660 8385
-1.644 2.931 1.705 6292
-1.674 2.985 1.722 5527
-1.680 2.995 1.715 6546
-1.623 2.893 1.649 6879
-1.685 3.003 1.696 6119
-1.690 3.013 1.689 4681
-1.640 2.923 1.630 3349
-1.698 3.028 1.672 3074
-1.697 3.025 1.659 4081
-1.777 3.168 1.720 5709
-1.779 3.172 1.709 9344
-1.785 3.182 1.702 9402
-1.805 3.218 1.707 8003
-1.818 3.241 1.706 7487
-1.827 3.258 1.701 6983
-1.830 3.262 1.690 7076
-1.832 3.266 1.680 8353
-1.838 3.276 1.672 7842
-1.868 3.331 1.685 5221
-1.874 3.341 1.677 4022
-1.869 3.332 1.660 2932
-1.897 3.381 1.670 3894
-1.906 3.398 1.664 5579
-1.915 3.414 1.659 4994
-1.932 3.444 1.659 4167
-2.003 3.570 1.702 3499
-1.976 3.523 1.668 3630
-1.982 3.533 1.659 5221
-1.984 3.537 1.647 4870
-2.051 3.657 1.685 5524
-2.050 3.655 1.670 5963
-2.059 3.671 1.664 4528
-2.065 3.682 1.654 3493
-2.075 3.699 1.648 4538
-2.080 3.709 1.638 7249
-2.083 3.713 1.626 5663
-2.183 3.892 1.684 4449
-2.211 3.942 1.689 4296
-2.213 3.946 1.676 4295
-2.208 3.937 1.658 5065
-2.214 3.947 1.648 3253
-2.282 4.069 1.680 3572
-2.288 4.079 1.669 4851
-2.294 4.090 1.658 4548
-2.300 4.100 1.647 3381
-2.372 4.229 1.679 3641
-2.389 4.259 1.675 3636
-2.388 4.256 1.658 2448
-2.416 4.306 1.660 1570
-2.433 4.337 1.656 1672
-2.472 4.407 1.664 2147
-2.496 4.450 1.663 2459
-2.554 4.553 1.683 3129
-2.560 4.564 1.670 3403
-2.573 4.587 1.661 2139
-2.594 4.624 1.657 2246
-2.585 4.608 1.635 2415
-2.591 4.619 1.622 2402
-2.615 4.662 1.620 2190
-2.729 4.866 1.667 4613
-2.735 4.876 1.653 6537
-2.745 4.894 1.641 6503
-2.751 4.904 1.627 5455
-2.817 5.021 1.645 4906
-2.819 5.025 1.629 3661
-2.918 5.203 1.663 3804
-2.917 5.200 1.644 3816
-2.915 5.197 1.625 2504
-2.962 5.281 1.631 3294
-3.010 5.365 1.636 3296
-3.023 5.389 1.623 3099
-3.021 5.386 1.604 4215
-3.024 5.390 1.586 3891
-3.029 5.400 1.570 2596
-3.182 5.673 1.623 2305
-3.188 5.684 1.606 2905
-3.194 5.694 1.588 1776
-3.238 5.772 1.588 2054
-3.395 6.052 1.638 1808
-3.382 6.029 1.611 2415
-3.486 6.215 1.636 2920
-3.489 6.219 1.615 2814
-3.521 6.277 1.607 1713
-3.618 6.450 1.625 1763
-3.601 6.420 1.596 1904
-3.596 6.410 1.572 1797
-3.989 7.112 1.705 1482
-3.995 7.122 1.683 1927
-4.154 7.404 1.719 1380
-4.209 7.504 1.715 1435
-4.105 7.317 1.650 1531
-4.259 7.593 1.681 1582
-4.250 7.576 1.652 1536
-4.245 7.567 1.624 1643
-4.342 7.741 1.632 1463
-4.344 7.744 1.606 1594
-4.346 7.748 1.580 1110
-4.620 8.236 1.643 1647
-4.622 8.240 1.616 2674
-4.628 8.250 1.590 2500
-4.626 8.247 1.561 1496
-4.628 8.251 1.534 882
-4.630 8.254 1.506 941
-4.632 8.258 1.479 835
-4.630 8.254 1.450 538
-1.126 2.019 1.802 1824
-1.128 2.023 1.795 3649
-1.131 2.027 1.789 3649
-1.133 2.031 1.782 3983
-1.138 2.041 1.780 4360
-1.147 2.056 1.783 4497
-1.152 2.066 1.780 5195
-1.155 2.070 1.774 5195
-1.154 2.069 1.762 6349
-1.156 2.073 1.756 7708
-1.155 2.071 1.744 6860
-1.154 2.070 1.733 6100
-1.160 2.080 1.731 4425
-1.204 2.158 1.782 4447
-1.206 2.162 1.775 4423
-1.211 2.172 1.772 4172
-1.211 2.170 1.761 3923
-1.210 2.169 1.749 4909
-1.212 2.173 1.742 5909
-1.211 2.171 1.731 5960
-1.213 2.175 1.723 6030
-1.245 2.232 1.755 5427
-1.247 2.236 1.748 6452
-1.252 2.246 1.745 6380
-1.265 2.267 1.750 6847
-1.254 2.248 1.726 7908
-1.253 2.246 1.714 9799
-1.258 2.256 1.711 9102
-1.260 2.260 1.703 8430
-1.276 2.287 1.713 6108
-1.288 2.309 1.718 5898
-1.290 2.313 1.710 5679
-1.289 2.311 1.698 5465
-1.295 2.321 1.695 4399
-1.320 2.367 1.715 3498
-1.342 2.406 1.732 3400
-1.308 2.345 1.680 4829
-1.310 2.349 1.672 6295
-1.319 2.365 1.672 6342
-1.368 2.453 1.720 8048
-1.367 2.451 1.708 8267
-1.362 2.443 1.692 9000
-1.365 2.446 1.684 7094
-1.363 2.444 1.672 4632
-1.366 2.448 1.664 4138
-1.395 2.501 1.687 4267
-1.400 2.511 1.682 5906
-1.406 2.521 1.678 6852
-1.411 2.531 1.673 8540
-1.420 2.547 1.672 9701
-1.423 2.551 1.664 7688
-1.466 2.628 1.700 8810
-1.464 2.626 1.688 10534
-1.474 2.642 1.686 8707
-1.510 2.707 1.714 10944
-1.512 2.711 1.705 15962
-1.518 2.721 1.700 16417
-1.517 2.719 1.687 13816
-1.519 2.723 1.678 11027
-1.521 2.727 1.669 10453
-1.516 2.719 1.653 6823
-1.563 2.803 1.690 7328
-1.562 2.801 1.677 6980
-1.568 2.811 1.671 8334
-1.573 2.821 1.666 9088
-1.576 2.825 1.656 7981
-1.637 2.935 1.705 6636
-1.664 2.983 1.719 6403
-1.673 2.999 1.715 6895
-1.616 2.897 1.649 7439
-1.621 2.907 1.643 6678
-1.634 2.929 1.643 5567
-1.633 2.927 1.630 3808
-1.691 3.032 1.672 2812
-1.686 3.023 1.656 3624
-1.769 3.172 1.720 5781
-1.772 3.176 1.709 9239
-1.774 3.180 1.699 9293
-1.797 3.222 1.707 7475
-1.814 3.252 1.709 7452
-1.819 3.262 1.701 7272
-1.822 3.266 1.690 7380
-1.824 3.270 1.680 8454
-1.830 3.280 1.672 7621
-1.857 3.329 1.682 4813
-1.863 3.339 1.674 3917
-1.868 3.350 1.666 3300
-1.888 3.386 1.670 4544
-1.901 3.409 1.667 6611
-1.914 3.432 1.665 6184
-1.924 3.449 1.659 4883
-1.929 3.459 1.651 3986
-1.967 3.527 1.668 3910
-1.970 3.531 1.656 5784
-1.975 3.542 1.647 5249
-2.043 3.662 1.685 4899
-2.045 3.666 1.673 5251
-2.054 3.683 1.666 4949
-2.056 3.687 1.654 3878
-2.066 3.704 1.648 4479
-2.071 3.714 1.638 7248
-2.074 3.718 1.626 5863
-2.174 3.898 1.684 4764
-2.202 3.947 1.689 4201
-2.200 3.945 1.674 4104
-2.195 3.936 1.656 5007
-2.197 3.939 1.643 3133
-2.269 4.068 1.677 3463
-2.278 4.085 1.669 4312
-2.284 4.095 1.658 4193
-2.290 4.106 1.647 3253
-2.362 4.235 1.679 3589
-2.379 4.265 1.675 3540
-2.374 4.256 1.656 2238
-2.409 4.319 1.663 1465
-2.507 4.494 1.709 1744
-2.461 4.413 1.664 2465
-2.485 4.456 1.663 2693
-2.543 4.559 1.683 2819
-2.553 4.577 1.672 2798
-2.584 4.633 1.675 2215
-2.587 4.637 1.659 1912
-2.566 4.601 1.631 1658
-2.591 4.645 1.629 2146
-2.760 4.948 1.709 2261
-2.718 4.872 1.667 4441
-2.724 4.883 1.653 6538
-2.733 4.900 1.641 6310
-2.739 4.911 1.627 5302
-2.804 5.028 1.645 4632
-2.807 5.032 1.629 3289
-2.906 5.210 1.663 3530
-2.900 5.200 1.642 3377
-2.947 5.285 1.648 2356
-2.950 5.288 1.631 3465
-3.000 5.379 1.638 3587
-2.950 5.289 1.594 2992
-3.012 5.400 1.606 3606
-3.010 5.397 1.586 3586
-3.016 5.408 1.570 2437
-3.169 5.681 1.623 2218
-3.174 5.691 1.606 2693
-3.293 5.904 1.640 1820
-3.224 5.780 1.588 2060
-3.343 5.993 1.621 1781
-3.364 6.031 1.610 2064
-3.471 6.224 1.636 2728
-3.473 6.227 1.615 2649
-3.491 6.258 1.601 1682
-3.606 6.465 1.627 1708
-3.585 6.428 1.596 1616
-3.580 6.418 1.572 1569
-3.798 6.809 1.636 1348
-3.982 7.139 1.685 1727
-4.135 7.415 1.719 1317
-4.191 7.514 1.715 1592
-4.091 7.334 1.651 1676
-4.097 7.345 1.628 1432
-4.110 7.369 1.608 1349
-4.222 7.570 1.623 1362
-4.323 7.751 1.632 1421
-4.325 7.755 1.606 1492
-4.327 7.759 1.580 1008
-4.592 8.233 1.641 1022
-4.602 8.251 1.616 1637
-4.604 8.255 1.589 1559
-4.606 8.258 1.561 950
-4.597 8.241 1.530 577
-4.610 8.265 1.506 578
-4.612 8.269 1.479 473
-4.610 8.265 1.450 285
-1.122 2.020 1.802 1549
-1.125 2.025 1.795 3098
-1.127 2.029 1.789 3098
-1.129 2.033 1.782 3268
-1.135 2.043 1.780 3449
-1.143 2.058 1.783 4268
-1.149 2.068 1.780 5557
-1.151 2.072 1.774 5557
-1.153 2.077 1.767 6826
-1.153 2.075 1.756 8321
-1.152 2.073 1.744 7142
-1.154 2.078 1.738 6042
-1.163 2.093 1.740 4501
-1.200 2.160 1.782 4376
-1.202 2.164 1.775 4280
-1.208 2.174 1.772 3967
-1.207 2.173 1.761 3726
-1.206 2.171 1.749 4635
-1.208 2.175 1.742 5571
-1.207 2.173 1.731 5797
-1.206 2.172 1.719 6099
-1.241 2.234 1.755 6163
-1.243 2.238 1.748 7317
-1.249 2.248 1.745 6756
-1.261 2.269 1.750 6642
-1.253 2.256 1.730 7334
-1.252 2.254 1.718 8609
-1.254 2.258 1.711 7896
-1.257 2.262 1.703 7183
-1.278 2.301 1.721 5751
-1.284 2.311 1.718 5973
-1.283 2.310 1.706 5781
-1.285 2.313 1.698 5653
-1.287 2.317 1.691 4373
-1.313 2.363 1.711 3347
-1.305 2.349 1.692 3408
-1.304 2.347 1.680 4945
-1.306 2.351 1.672 6323
-1.315 2.367 1.672 6305
-1.364 2.455 1.720 8198
-1.363 2.453 1.708 8471
-1.361 2.451 1.696 9092
-1.364 2.455 1.688 7315
-1.362 2.453 1.676 5027
-1.361 2.451 1.664 4562
-1.390 2.503 1.687 4492
-1.396 2.513 1.682 6455
-1.402 2.523 1.678 7263
-1.407 2.533 1.673 8368
-1.416 2.549 1.672 9257
-1.422 2.559 1.668 7306
-1.458 2.624 1.696 8255
-1.460 2.628 1.688 9843
-1.469 2.644 1.686 7915
-1.505 2.710 1.714 10897
-1.508 2.714 1.705 15682
-1.513 2.724 1.700 16070
-1.512 2.722 1.687 13671
-1.514 2.726 1.678 11249
-1.516 2.730 1.669 10406
-1.563 2.814 1.706 6701
-1.555 2.800 1.686 7391
-1.554 2.797 1.674 7708
-1.559 2.807 1.668 8812
-1.565 2.817 1.662 8777
-1.567 2.821 1.653 7650
-1.632 2.938 1.705 7019
-1.655 2.979 1.715 7305
-1.668 3.002 1.715 7239
-1.614 2.906 1.652 8330
-1.620 2.916 1.646 7759
-1.629 2.932 1.643 6661
-1.631 2.936 1.633 4138
-1.665 2.997 1.653 2601
-1.667 3.001 1.643 3267
-1.760 3.169 1.716 5353
-1.763 3.173 1.706 8415
-1.768 3.183 1.699 8557
-1.774 3.194 1.691 6879
-1.808 3.255 1.709 7341
-1.814 3.265 1.701 7519
-1.816 3.269 1.690 7726
-1.818 3.273 1.680 8405
-1.827 3.290 1.675 7233
-1.844 3.319 1.676 4599
-1.857 3.343 1.674 3753
-1.866 3.359 1.669 3796
-1.882 3.389 1.670 5082
-1.899 3.418 1.670 7551
-1.905 3.429 1.662 7241
-1.914 3.446 1.656 5450
-1.920 3.456 1.648 4638
-1.961 3.531 1.668 4035
-1.963 3.535 1.656 6259
-1.969 3.545 1.647 5612
-1.979 3.562 1.641 4278
-2.046 3.682 1.679 4488
-2.051 3.693 1.669 5499
-2.050 3.690 1.654 4434
-2.059 3.707 1.648 4572
-2.065 3.717 1.638 7356
-2.067 3.721 1.626 5811
-2.167 3.901 1.684 4736
-2.177 3.918 1.676 4123
-2.182 3.929 1.666 3793
-2.188 3.939 1.656 4793
-2.190 3.943 1.643 3073
-2.258 4.065 1.675 3219
-2.268 4.082 1.666 3590
-2.273 4.093 1.655 3632
-2.279 4.103 1.644 2977
-2.351 4.232 1.677 3349
-2.375 4.276 1.677 2986
-2.385 4.293 1.668 2046
-2.405 4.330 1.665 1488
-2.503 4.505 1.712 1987
-2.461 4.430 1.669 2728
-2.478 4.460 1.663 2812
-2.528 4.550 1.678 2645
-2.545 4.581 1.672 2587
-2.558 4.605 1.664 2386
-2.538 4.569 1.635 1886
-2.540 4.573 1.620 1740
-2.583 4.650 1.629 2205
-2.592 4.667 1.617 2365
-2.709 4.877 1.667 4146
-2.715 4.888 1.653 6189
-2.728 4.912 1.643 5812
-2.730 4.915 1.627 4914
-2.725 4.906 1.607 4615
-2.802 5.043 1.631 3121
-2.897 5.215 1.663 3065
-2.888 5.199 1.640 2763
-2.935 5.283 1.646 2413
-2.989 5.381 1.655 4170
-2.991 5.385 1.638 3920
-2.937 5.288 1.592 2984
-3.003 5.406 1.606 3049
-3.005 5.409 1.588 3371
-3.011 5.420 1.571 2292
-3.159 5.686 1.623 2069
-3.161 5.690 1.604 2347
-3.283 5.910 1.640 2077
-3.214 5.785 1.588 2067
-3.272 5.891 1.594 1946
-3.349 6.030 1.608 1724
-3.464 6.236 1.637 2392
-3.466 6.240 1.617 2436
-3.476 6.257 1.599 1750
-3.753 6.756 1.693 1600
-3.755 6.760 1.671 1588
-3.810 6.859 1.669 1696
-3.801 6.843 1.642 1703
-3.977 7.159 1.688 1512
-3.911 7.041 1.638 1442
-4.076 7.337 1.676 1658
-4.074 7.334 1.650 1758
-4.080 7.345 1.627 1482
-4.093 7.369 1.607 1405
-4.577 8.239 1.753 1088
-4.310 7.759 1.632 1333
-4.316 7.769 1.607 1341
-4.318 7.773 1.582 886
-4.574 8.234 1.640 609
-4.588 8.259 1.616 766
-4.590 8.262 1.589 713
-4.584 8.252 1.559 479
-4.586 8.256 1.531 320
-4.592 8.266 1.505 284
-1.081 1.956 1.746 1769
-1.083 1.960 1.739 3539
-1.086 1.964 1.733 3539
-1.088 1.968 1.726 2848
-1.072 1.938 1.692 2541
-1.142 2.066 1.787 4075
-1.145 2.071 1.780 5880
-1.147 2.075 1.774 5880
-1.149 2.079 1.767 7268
-1.148 2.077 1.756 8865
-1.151 2.081 1.749 7401
-1.150 2.080 1.738 5971
-1.162 2.101 1.744 4630
-1.192 2.157 1.777 4447
-1.198 2.167 1.775 4233
-1.200 2.171 1.768 3828
-1.202 2.175 1.761 3610
-1.205 2.179 1.753 4454
-1.207 2.183 1.746 5273
-1.203 2.176 1.731 5642
-1.202 2.174 1.719 6207
-1.236 2.236 1.755 7019
-1.239 2.240 1.748 8299
-1.241 2.244 1.740 7190
-1.253 2.266 1.746 6325
-1.249 2.258 1.730 6636
-1.248 2.257 1.718 7144
-1.250 2.261 1.711 6430
-1.255 2.271 1.708 5758
-1.274 2.304 1.721 5715
-1.276 2.308 1.713 6348
-1.278 2.312 1.706 6101
-1.280 2.316 1.698 5853
-1.283 2.320 1.691 4401
-1.305 2.360 1.707 3577
-1.307 2.364 1.700 3943
-1.302 2.356 1.684 4968
-1.301 2.354 1.672 6001
-1.313 2.376 1.676 6062
-1.359 2.458 1.720 8149
-1.358 2.456 1.708 8399
-1.360 2.460 1.700 8791
-1.359 2.458 1.688 7127
-1.357 2.456 1.676 5114
-1.356 2.453 1.664 4770
-1.382 2.500 1.683 4652
-1.387 2.510 1.678 6773
-1.396 2.526 1.678 7447
-1.402 2.536 1.673 8010
-1.411 2.552 1.672 8658
-1.420 2.568 1.671 6912
-1.452 2.627 1.696 7422
-1.455 2.631 1.688 8749
-1.467 2.654 1.690 6898
-1.500 2.713 1.714 10651
-1.502 2.717 1.705 15078
-1.508 2.727 1.700 15350
-1.510 2.731 1.691 13107
-1.509 2.729 1.678 11036
-1.511 2.733 1.669 9776
-1.557 2.817 1.706 6417
-1.546 2.796 1.683 7170
-1.545 2.794 1.670 8538
-1.554 2.811 1.668 9590
-1.559 2.821 1.662 8408
-1.561 2.825 1.653 7197
-1.629 2.947 1.708 7463
-1.649 2.983 1.715 8174
-1.658 2.999 1.712 7456
-1.608 2.909 1.652 8919
-1.617 2.925 1.649 8471
-1.623 2.936 1.643 7516
-1.625 2.939 1.633 4584
-1.659 3.000 1.653 3384
-1.657 2.998 1.640 3941
-1.754 3.173 1.716 4671
-1.756 3.177 1.706 6968
-1.758 3.181 1.695 7383
-1.760 3.185 1.685 6750
-1.801 3.259 1.709 7402
-1.807 3.269 1.701 7947
-1.809 3.273 1.690 8239
-1.815 3.283 1.683 8488
-1.821 3.294 1.675 7260
-1.834 3.317 1.673 4662
-1.843 3.333 1.668 3520
-1.856 3.357 1.666 4015
-1.876 3.393 1.670 5064
-1.892 3.422 1.670 7866
-1.898 3.433 1.662 7608
-1.907 3.449 1.656 5592
-1.913 3.460 1.648 4966
-1.954 3.535 1.668 3987
-1.956 3.539 1.656 6421
-1.958 3.543 1.644 5683
-1.971 3.566 1.641 4005
-2.042 3.693 1.681 4061
-2.044 3.697 1.669 6045
-2.042 3.694 1.654 4985
-2.063 3.731 1.656 4593
-2.057 3.722 1.638 6972
-2.060 3.726 1.626 5432
-2.163 3.912 1.687 4447
-2.169 3.923 1.676 3645
-2.124 3.842 1.630 3511
-2.177 3.937 1.653 4636
-2.230 4.033 1.675 3044
-2.239 4.050 1.667 2972
-2.256 4.080 1.664 3028
-2.261 4.091 1.653 3365
-2.264 4.095 1.639 2921
-2.339 4.230 1.674 3132
-2.322 4.201 1.648 3031
-2.383 4.311 1.672 2339
-2.389 4.321 1.660 1878
-2.494 4.511 1.712 1916
-2.455 4.442 1.671 2954
-2.465 4.459 1.661 2798
-2.511 4.542 1.674 2527
-2.539 4.593 1.674 2759
-2.545 4.603 1.661 2842
-2.536 4.587 1.640 2071
-2.612 4.724 1.668 2052
-2.577 4.661 1.631 2411
-2.579 4.665 1.615 2337
-2.703 4.889 1.670 3477
-2.709 4.900 1.655 5545
-2.718 4.917 1.643 5024
-2.720 4.921 1.627 4199
-2.719 4.918 1.609 4195
-2.799 5.063 1.635 2939
-2.849 5.154 1.644 2822
-2.851 5.157 1.626 2316
-2.924 5.289 1.646 2338
-2.978 5.387 1.655 4711
-2.980 5.391 1.638 4037
-2.926 5.293 1.592 2890
-2.995 5.418 1.607 2570
-2.997 5.422 1.589 3291
-3.000 5.426 1.571 2258
-3.143 5.686 1.621 1848
-3.258 5.893 1.655 2475
-3.263 5.903 1.637 2279
-3.202 5.792 1.588 2088
-3.260 5.897 1.594 1968
-3.397 6.145 1.635 1582
-3.451 6.243 1.637 1810
-3.457 6.254 1.618 2055
-3.549 6.421 1.636 1830
-3.743 6.771 1.695 1469
-3.790 6.856 1.691 1730
-3.796 6.867 1.669 2324
-3.791 6.857 1.644 2027
