3.548 1.706 1.773 3790
3.585 1.724 1.777 3845
3.447 1.658 1.713 2952
3.589 1.726 1.766 3747
3.464 1.666 1.708 3283
3.607 1.735 1.760 4730
3.481 1.674 1.703 4274
3.618 1.740 1.752 6635
3.492 1.680 1.695 3497
3.622 1.742 1.740 5048
3.496 1.682 1.684 2006
3.633 1.747 1.731 4524
3.758 1.808 1.787 2314
3.637 1.749 1.720 5596
3.763 1.810 1.775 2829
3.628 1.745 1.702 4507
3.787 1.821 1.772 3015
3.698 1.779 1.720 3567
3.824 1.839 1.774 2886
3.709 1.784 1.711 4670
3.835 1.845 1.765 2959
3.786 1.821 1.730 4935
3.926 1.888 1.789 4466
3.931 1.891 1.777 7021
3.784 1.820 1.715 4031
3.942 1.896 1.767 8155
3.815 1.835 1.714 2558
3.939 1.895 1.752 9204
4.066 1.956 1.804 1934
3.943 1.897 1.739 11843
4.071 1.958 1.791 1851
3.948 1.899 1.726 12428
4.075 1.960 1.778 1728
3.952 1.901 1.714 9565
4.133 1.988 1.787 3522
3.963 1.906 1.704 6743
4.137 1.990 1.774 5123
3.967 1.908 1.691 5466
4.148 1.995 1.763 4337
3.971 1.910 1.678 3278
4.159 2.000 1.752 3019
4.157 1.999 1.736 8157
4.285 2.061 1.786 1990
4.161 2.001 1.723 14092
4.289 2.063 1.772 2347
4.172 2.006 1.712 12012
4.300 2.068 1.761 3733
4.183 2.012 1.702 8929
4.311 2.073 1.750 5115
4.187 2.014 1.688 6342
4.329 2.082 1.741 5588
4.191 2.016 1.675 4579
4.340 2.087 1.730 4071
4.418 2.125 1.743 3855
4.188 2.014 1.659 3804
4.416 2.124 1.727 4563
4.544 2.186 1.774 2498
4.420 2.126 1.713 3852
4.549 2.188 1.759 3149
4.539 2.183 1.740 5077
4.404 2.118 1.691 1781
4.550 2.189 1.727 6155
4.421 2.126 1.682 1074
4.561 2.194 1.715 5606
4.813 2.315 1.803 1373
4.559 2.193 1.698 4113
4.831 2.324 1.792 2159
4.842 2.329 1.779 4092
4.570 2.198 1.686 2862
4.840 2.328 1.761 5869
4.594 2.210 1.678 2891
4.844 2.330 1.746 8636
4.564 2.195 1.652 1989
4.848 2.332 1.730 12326
4.554 2.190 1.633 1662
4.852 2.334 1.715 12906
4.558 2.192 1.618 1105
4.850 2.333 1.697 13391
5.014 2.412 1.750 1333
4.861 2.338 1.683 10544
5.018 2.414 1.734 2100
4.865 2.340 1.668 5535
5.022 2.416 1.718 2130
4.875 2.345 1.654 3175
5.033 2.421 1.704 2296
5.037 2.423 1.688 2965
5.175 2.489 1.730 2329
5.296 2.547 1.750 3616
5.042 2.425 1.672 2678
5.307 2.553 1.735 4342
5.176 2.490 1.695 2370
5.339 2.568 1.726 4367
5.470 2.631 1.765 1717
5.426 2.610 1.733 3792
5.295 2.547 1.695 1699
5.464 2.628 1.726 3719
5.313 2.555 1.682 2846
5.482 2.637 1.713 3994
5.337 2.567 1.671 2280
5.521 2.655 1.705 3704
5.390 2.592 1.667 2150
5.629 2.707 1.716 2560
5.850 2.814 1.779 2241
5.889 2.832 1.770 3156
5.647 2.716 1.702 2248
5.921 2.848 1.758 5483
5.768 2.775 1.716 2561
5.918 2.846 1.737 4058
5.780 2.780 1.700 2626
5.901 2.838 1.713 2925
6.179 2.972 1.787 2318
6.183 2.974 1.768 2451
5.892 2.834 1.690 2291
6.194 2.979 1.749 2102
5.951 2.862 1.686 1442
6.574 3.162 1.827 1687
6.303 3.031 1.756 1675
6.571 3.161 1.804 2383
6.300 3.030 1.734 1850
6.569 3.159 1.781 2034
6.297 3.029 1.712 1324
6.580 3.165 1.761 1918
6.294 3.027 1.690 1186
6.584 3.167 1.740 2002
7.023 3.378 1.848 1190
7.034 3.383 1.827 2364
6.644 3.196 1.732 1673
7.032 3.382 1.802 4464
6.655 3.201 1.713 1624
7.043 3.388 1.781 5432
6.911 3.324 1.750 1850
7.048 3.390 1.759 5159
7.201 3.464 1.794 2444
7.052 3.392 1.736 4671
7.205 3.466 1.771 3004
7.056 3.394 1.713 3963
7.210 3.468 1.748 3375
7.221 3.473 1.726 3328
7.067 3.399 1.692 2828
7.232 3.478 1.705 2760
7.071 3.401 1.669 2026
8.469 4.073 1.946 2633
8.007 3.851 1.846 2445
8.474 4.076 1.918 3535
8.018 3.857 1.822 3134
8.478 4.078 1.891 4418
8.023 3.859 1.796 3765
8.483 4.080 1.864 5131
8.027 3.861 1.770 3423
8.487 4.082 1.836 4976
8.031 3.863 1.745 2423
8.492 4.084 1.809 3768
8.042 3.868 1.720 1486
8.496 4.086 1.782 3181
8.039 3.867 1.693 1157
8.501 4.089 1.754 2962
8.043 3.869 1.667 1228
8.505 4.091 1.727 2194
8.047 3.871 1.641 1027
8.509 4.093 1.699 1168
8.051 3.873 1.615 650
8.513 4.095 1.672 349
8.055 3.874 1.589 293
2.044 0.979 1.769 1594
2.048 0.981 1.763 3189
2.158 1.034 1.851 414
2.053 0.983 1.756 3189
2.162 1.036 1.845 695
2.011 0.963 1.712 2828
2.121 1.016 1.801 1061
2.015 0.965 1.706 2977
2.125 1.018 1.794 803
2.100 1.006 1.764 2944
1.990 0.953 1.677 1697
2.105 1.008 1.757 4275
1.994 0.955 1.670 1544
2.109 1.010 1.751 4275
1.998 0.957 1.664 1576
2.125 1.018 1.753 6248
2.014 0.965 1.667 1771
2.135 1.023 1.751 8421
2.012 0.964 1.656 1667
2.139 1.025 1.744 8581
2.028 0.971 1.659 2382
2.149 1.029 1.742 8946
2.037 0.976 1.657 3474
2.153 1.031 1.735 6828
2.041 0.978 1.650 2948
2.158 1.033 1.728 4710
2.270 1.087 1.813 3310
2.162 1.035 1.722 4652
2.274 1.089 1.806 3310
2.166 1.037 1.715 4594
2.279 1.091 1.799 3505
2.164 1.037 1.703 4576
2.289 1.096 1.796 3791
2.174 1.041 1.701 4110
2.287 1.096 1.784 3970
2.238 1.072 1.738 4512
2.071 0.992 1.616 2175
2.296 1.100 1.770 4662
2.182 1.045 1.687 2822
2.300 1.102 1.762 5204
2.085 0.999 1.607 2558
2.304 1.104 1.755 4930
2.190 1.049 1.673 2399
2.261 1.083 1.713 4782
2.104 1.008 1.602 1733
2.277 1.091 1.715 4613
2.421 1.160 1.817 2224
2.281 1.093 1.708 4511
2.408 1.153 1.797 2885
2.285 1.095 1.700 3010
2.424 1.161 1.797 2837
2.489 1.192 1.832 2949
2.289 1.097 1.693 1510
2.487 1.191 1.820 3426
2.372 1.136 1.740 1623
2.486 1.191 1.807 4067
2.370 1.135 1.728 1818
2.496 1.196 1.804 5881
2.380 1.140 1.725 2372
2.500 1.198 1.796 7790
2.385 1.142 1.718 2606
2.511 1.203 1.792 9142
2.395 1.147 1.714 2120
2.521 1.208 1.788 10669
2.405 1.152 1.711 1545
2.520 1.207 1.776 8483
2.403 1.151 1.699 1104
2.518 1.206 1.764 6440
2.401 1.150 1.687 703
2.528 1.211 1.760 4234
2.411 1.155 1.684 765
2.582 1.237 1.784 3908
2.465 1.181 1.708 2253
2.592 1.242 1.780 3795
2.475 1.186 1.704 2271
2.603 1.247 1.775 5144
2.485 1.190 1.700 1571
2.607 1.249 1.767 6497
2.489 1.192 1.692 737
2.599 1.245 1.751 6881
2.717 1.301 1.825 1095
2.597 1.244 1.739 7721
2.715 1.300 1.813 1632
2.601 1.246 1.731 6984
2.719 1.303 1.804 3633
2.724 1.305 1.796 6924
2.605 1.248 1.722 4497
2.728 1.307 1.787 8214
2.609 1.250 1.714 2747
2.732 1.309 1.778 8250
2.614 1.252 1.706 2213
2.737 1.311 1.770 8286
2.618 1.254 1.697 1679
2.741 1.313 1.761 7827
2.622 1.256 1.689 1290
2.739 1.312 1.748 5891
2.858 1.369 1.820 1810
2.718 1.302 1.725 5333
2.838 1.359 1.796 3634
2.823 1.352 1.776 5975
2.703 1.295 1.705 3922
2.827 1.354 1.767 7612
2.707 1.297 1.696 2455
2.832 1.356 1.758 7107
2.711 1.299 1.688 1495
2.842 1.361 1.752 5306
2.722 1.304 1.683 1225
2.853 1.366 1.747 3674
2.973 1.424 1.816 1349
2.851 1.365 1.734 3606
2.971 1.423 1.803 1687
2.861 1.371 1.729 2556
2.988 1.431 1.800 2496
2.986 1.430 1.787 3270
2.865 1.373 1.719 2489
2.889 1.384 1.721 3622
3.010 1.442 1.789 2365
2.950 1.413 1.744 4287
3.072 1.471 1.811 1856
2.923 1.400 1.717 5587
3.050 1.461 1.787 3056
2.920 1.399 1.704 6423
3.055 1.463 1.777 3148
2.931 1.404 1.698 6160
3.053 1.462 1.764 2818
2.935 1.406 1.689 3998
3.057 1.464 1.754 3285
3.080 1.476 1.755 4861
2.958 1.417 1.690 1813
3.098 1.484 1.752 6564
2.975 1.425 1.687 2278
3.108 1.489 1.745 7349
2.986 1.430 1.681 2658
3.106 1.488 1.732 8505
3.229 1.547 1.796 2660
3.117 1.493 1.725 8959
3.240 1.552 1.789 2677
3.127 1.498 1.719 8056
3.250 1.557 1.782 2289
3.138 1.503 1.712 5946
3.274 1.568 1.782 2524
3.240 1.552 1.751 3586
3.116 1.493 1.689 1883
3.250 1.557 1.744 6746
3.127 1.498 1.682 1507
3.268 1.565 1.740 6860
3.144 1.506 1.679 879
3.291 1.577 1.740 6238
3.428 1.642 1.807 1255
3.296 1.579 1.729 5997
3.439 1.647 1.799 2034
3.306 1.584 1.722 6940
3.450 1.653 1.792 3805
3.310 1.586 1.711 6646
3.454 1.655 1.781 5209
3.400 1.628 1.741 5066
3.275 1.569 1.682 2664
3.397 1.627 1.727 5153
3.522 1.687 1.787 2290
3.494 1.673 1.760 4440
3.349 1.604 1.692 2358
3.511 1.682 1.755 4034
3.386 1.622 1.697 2649
3.588 1.719 1.777 4342
3.463 1.659 1.719 2961
3.592 1.721 1.766 4142
3.467 1.661 1.708 3308
3.609 1.729 1.760 4457
3.484 1.669 1.703 4326
3.620 1.734 1.752 6020
3.495 1.674 1.695 3371
3.625 1.736 1.740 4787
3.499 1.676 1.684 1796
3.635 1.741 1.731 4721
3.761 1.802 1.787 2225
3.640 1.743 1.720 6019
3.766 1.804 1.775 2648
3.630 1.739 1.702 4853
3.790 1.815 1.772 3152
3.807 1.824 1.766 3955
3.681 1.763 1.711 3215
3.812 1.826 1.753 4344
3.685 1.765 1.699 3778
3.789 1.815 1.730 4395
3.929 1.882 1.789 4069
3.934 1.884 1.777 6504
3.787 1.814 1.715 3577
3.945 1.889 1.767 7369
3.818 1.829 1.714 2427
3.942 1.888 1.752 8087
3.768 1.805 1.680 1915
3.946 1.890 1.739 10493
4.074 1.951 1.791 1870
3.951 1.892 1.726 11265
4.078 1.953 1.778 1970
3.955 1.894 1.714 8804
4.136 1.981 1.787 3854
3.966 1.900 1.704 6206
4.140 1.983 1.774 5386
3.970 1.902 1.691 5198
4.151 1.988 1.763 4142
3.974 1.903 1.678 3138
4.162 1.994 1.752 2749
4.160 1.993 1.736 8600
4.288 2.054 1.786 1717
4.164 1.995 1.723 15289
4.292 2.056 1.772 2233
4.175 2.000 1.712 13695
4.303 2.061 1.761 3915
4.186 2.005 1.702 10710
4.314 2.067 1.750 5281
4.190 2.007 1.688 7822
4.332 2.075 1.741 5675
4.194 2.009 1.675 5864
4.343 2.080 1.730 4154
4.191 2.008 1.659 4811
4.415 2.115 1.741 3788
4.419 2.117 1.727 4776
4.188 2.006 1.643 3056
4.430 2.122 1.715 3916
4.559 2.184 1.761 2804
4.543 2.176 1.740 4868
4.400 2.108 1.689 1819
4.554 2.181 1.727 5809
4.404 2.110 1.675 1156
4.558 2.183 1.713 5096
4.803 2.301 1.798 1321
4.569 2.189 1.701 3818
4.835 2.316 1.792 2027
4.846 2.321 1.779 3701
4.573 2.191 1.686 2533
4.843 2.320 1.761 5227
4.591 2.199 1.676 2468
4.848 2.322 1.746 7985
4.595 2.201 1.661 1851
4.852 2.324 1.730 11736
4.571 2.190 1.637 1203
4.856 2.326 1.715 12157
5.007 2.398 1.764 992
4.853 2.325 1.697 12649
5.011 2.400 1.748 1081
4.864 2.330 1.683 10091
5.015 2.402 1.732 2014
4.868 2.332 1.668 5260
5.019 2.404 1.716 2294
4.879 2.337 1.654 3106
5.037 2.413 1.704 2334
5.041 2.415 1.688 2808
5.179 2.481 1.730 2542
5.307 2.542 1.752 3813
5.176 2.479 1.712 2793
5.311 2.544 1.735 4988
5.180 2.481 1.695 2425
5.343 2.559 1.726 4619
5.474 2.622 1.765 1602
5.347 2.561 1.709 3827
5.478 2.624 1.748 2329
5.475 2.623 1.728 3581
5.317 2.547 1.682 3168
5.493 2.631 1.714 4633
5.321 2.549 1.665 2050
5.525 2.647 1.705 4079
5.705 2.733 1.756 2354
5.861 2.808 1.781 2738
5.550 2.658 1.693 2613
5.886 2.820 1.768 3192
5.713 2.737 1.719 2154
5.925 2.838 1.758 4959
5.780 2.769 1.718 3252
5.923 2.837 1.737 3712
5.784 2.771 1.700 3515
5.885 2.819 1.707 3296
6.184 2.962 1.787 2156
5.889 2.821 1.688 2784
6.188 2.964 1.768 2353
6.206 2.973 1.751 2052
5.886 2.820 1.668 1541
6.315 3.025 1.758 1681
6.579 3.151 1.827 1616
6.576 3.150 1.804 2303
6.312 3.023 1.736 1803
6.574 3.149 1.781 2045
6.302 3.019 1.712 1240
6.578 3.151 1.760 1976
6.710 3.214 1.792 1072
6.589 3.156 1.740 2044
7.035 3.370 1.849 1205
7.040 3.372 1.827 2450
6.649 3.185 1.732 1495
7.037 3.371 1.802 4686
6.863 3.287 1.761 1557
7.049 3.376 1.781 5657
7.202 3.450 1.817 1747
7.053 3.378 1.759 5322
7.207 3.452 1.794 2676
7.057 3.380 1.736 4934
7.211 3.454 1.771 3321
7.061 3.382 1.713 4223
7.215 3.456 1.748 3694
7.227 3.462 1.726 3723
7.072 3.388 1.692 2949
7.238 3.467 1.705 3175
7.077 3.390 1.669 2102
7.242 3.469 1.681 2658
8.476 4.060 1.946 2647
8.480 4.062 1.918 3681
8.024 3.844 1.822 2631
8.485 4.064 1.891 4685
8.029 3.846 1.796 3324
8.489 4.066 1.864 5443
8.026 3.844 1.769 3077
8.494 4.069 1.836 5313
8.037 3.850 1.745 2139
8.498 4.071 1.809 3982
8.049 3.855 1.720 1391
8.503 4.073 1.782 3287
8.046 3.854 1.693 1170
8.507 4.075 1.754 3134
8.050 3.856 1.667 1127
8.511 4.077 1.727 2438
8.061 3.861 1.642 895
8.515 4.079 1.699 1306
8.058 3.860 1.615 610
8.519 4.081 1.672 369
8.061 3.861 1.589 307
1.988 0.949 1.722 1508
2.098 1.001 1.811 782
1.992 0.951 1.716 3017
2.102 1.003 1.805 1564
1.997 0.953 1.709 3017
2.106 1.005 1.798 1564
2.006 0.957 1.708 3054
2.116 1.010 1.796 1159
2.011 0.959 1.701 3174
2.132 1.017 1.798 844
2.096 1.000 1.760 2855
1.986 0.947 1.672 1468
2.106 1.005 1.757 4149
1.995 0.952 1.670 1514
2.110 1.007 1.751 4149
1.999 0.954 1.664 1592
2.126 1.014 1.753 6290
2.009 0.959 1.662 1738
2.136 1.019 1.751 8686
2.013 0.961 1.656 1677
2.141 1.021 1.744 8970
2.029 0.968 1.659 2354
2.151 1.026 1.742 9358
2.039 0.973 1.657 3501
2.155 1.028 1.735 7034
2.043 0.975 1.650 2993
2.159 1.030 1.728 4711
2.271 1.084 1.813 3177
2.163 1.032 1.722 4688
2.276 1.086 1.806 3177
2.168 1.034 1.715 4666
2.280 1.088 1.799 3345
2.166 1.033 1.703 4645
2.291 1.093 1.796 3567
2.176 1.038 1.701 4065
2.289 1.092 1.784 3794
2.234 1.066 1.733 4333
2.073 0.989 1.616 2510
2.292 1.093 1.765 4526
2.076 0.991 1.609 2643
2.296 1.095 1.758 5054
2.080 0.992 1.603 2707
2.300 1.097 1.751 4587
2.186 1.043 1.669 2555
2.256 1.076 1.709 4737
2.112 1.008 1.607 1744
2.272 1.084 1.711 4397
2.423 1.156 1.817 2092
2.283 1.089 1.708 4318
2.403 1.147 1.792 2741
2.287 1.091 1.700 2885
2.420 1.154 1.793 2590
2.491 1.188 1.832 2653
2.230 1.064 1.651 1581
2.483 1.185 1.815 3203
2.368 1.130 1.736 1580
2.481 1.184 1.803 3944
2.323 1.108 1.695 1816
2.492 1.189 1.800 5830
2.376 1.134 1.721 2079
2.502 1.194 1.796 7861
2.386 1.139 1.718 2705
2.513 1.199 1.792 9348
2.397 1.143 1.714 2228
2.517 1.201 1.784 10944
2.401 1.145 1.706 1419
2.521 1.203 1.776 8880
2.405 1.147 1.699 1106
2.520 1.202 1.764 6967
2.403 1.146 1.687 623
2.524 1.204 1.756 4599
2.641 1.260 1.832 569
2.584 1.233 1.784 3313
2.466 1.177 1.708 2131
2.588 1.235 1.776 3120
2.471 1.179 1.700 1996
2.605 1.243 1.775 4666
2.487 1.187 1.700 1613
2.609 1.245 1.767 6202
2.727 1.301 1.842 837
2.601 1.241 1.751 6515
2.719 1.297 1.825 1198
2.599 1.240 1.739 7225
2.717 1.296 1.813 1736
2.603 1.242 1.731 6568
2.721 1.298 1.804 3856
2.726 1.300 1.796 7256
2.607 1.244 1.722 4332
2.730 1.302 1.787 8537
2.611 1.246 1.714 2751
2.734 1.305 1.778 8467
2.616 1.248 1.706 2202
2.739 1.307 1.770 8397
2.620 1.250 1.697 1653
2.743 1.309 1.761 8064
2.624 1.252 1.689 1286
2.741 1.308 1.748 6102
2.860 1.365 1.820 1787
2.720 1.298 1.725 5382
2.840 1.355 1.796 3562
2.825 1.348 1.776 6188
2.705 1.291 1.705 4001
2.829 1.350 1.767 8075
2.709 1.293 1.696 2437
2.834 1.352 1.758 7605
2.713 1.295 1.688 1407
2.838 1.354 1.749 5459
2.958 1.411 1.818 1186
2.849 1.359 1.743 3360
2.969 1.417 1.812 1445
2.853 1.361 1.734 3220
2.974 1.419 1.803 1556
2.863 1.366 1.729 2438
2.991 1.427 1.800 2418
2.893 1.380 1.734 3350
3.014 1.438 1.802 2571
2.891 1.379 1.721 4246
3.012 1.437 1.789 2334
2.908 1.387 1.719 4266
3.042 1.451 1.793 2295
2.925 1.395 1.717 5477
3.046 1.453 1.783 3203
2.922 1.394 1.704 6167
3.051 1.455 1.774 3349
2.933 1.399 1.698 5823
3.055 1.457 1.764 2704
2.937 1.401 1.689 3651
3.079 1.469 1.765 3178
3.083 1.471 1.755 4787
2.960 1.412 1.690 1560
3.100 1.479 1.752 6411
2.977 1.420 1.687 1955
3.111 1.484 1.745 7755
2.988 1.425 1.681 2202
3.115 1.486 1.735 9471
3.238 1.545 1.799 2265
3.119 1.488 1.725 9671
3.242 1.547 1.789 2568
3.130 1.493 1.719 8301
3.253 1.552 1.782 2001
3.140 1.498 1.712 6040
3.283 1.566 1.785 2189
3.164 1.509 1.712 3792
3.288 1.568 1.774 3009
3.253 1.552 1.744 6639
3.129 1.493 1.682 1631
3.270 1.560 1.740 6950
3.146 1.501 1.679 1021
3.287 1.568 1.736 6208
3.431 1.637 1.807 1270
3.298 1.573 1.729 5858
3.442 1.642 1.799 2000
3.315 1.582 1.725 7048
3.453 1.647 1.792 3711
3.313 1.581 1.711 6752
3.457 1.649 1.781 5252
3.402 1.623 1.741 5027
3.278 1.564 1.682 2486
3.400 1.622 1.727 4812
3.525 1.682 1.787 2129
3.490 1.665 1.757 5022
3.351 1.599 1.692 2174
3.507 1.673 1.752 4285
3.382 1.613 1.693 2257
3.597 1.716 1.780 4803
3.472 1.656 1.722 3018
3.601 1.718 1.769 4507
3.476 1.658 1.711 3555
3.487 1.663 1.703 4397
3.619 1.726 1.763 4231
3.630 1.732 1.755 5388
3.504 1.672 1.698 3377
3.627 1.731 1.740 4487
3.753 1.791 1.796 1813
3.638 1.736 1.731 4827
3.764 1.796 1.787 2172
3.642 1.738 1.720 6281
3.768 1.798 1.775 2474
3.640 1.736 1.705 5079
3.799 1.813 1.775 3260
3.810 1.818 1.766 4331
3.671 1.751 1.705 3207
3.815 1.820 1.753 4460
3.688 1.759 1.699 3776
3.812 1.819 1.738 3821
3.939 1.879 1.792 3587
3.937 1.878 1.777 6025
3.783 1.805 1.712 3179
3.948 1.883 1.767 6635
3.780 1.804 1.697 2361
3.945 1.882 1.752 6976
3.778 1.802 1.682 1974
3.949 1.884 1.739 9031
4.077 1.945 1.791 1939
3.954 1.886 1.726 9898
4.081 1.947 1.778 2195
3.958 1.888 1.714 7857
4.139 1.975 1.787 4110
4.150 1.980 1.776 5639
3.969 1.893 1.704 5607
3.973 1.895 1.691 4824
4.161 1.985 1.766 4104
3.984 1.900 1.681 2948
4.172 1.990 1.755 2849
4.163 1.986 1.736 9197
4.291 2.047 1.786 1461
4.167 1.988 1.723 16344
4.295 2.049 1.772 2087
4.178 1.993 1.712 15142
4.313 2.058 1.764 4069
4.189 1.998 1.702 12292
4.317 2.060 1.750 5371
4.193 2.000 1.688 9287
4.335 2.068 1.741 5653
4.197 2.002 1.675 7192
4.339 2.070 1.727 4184
4.194 2.001 1.659 5817
4.425 2.111 1.743 3837
4.422 2.110 1.727 4983
4.191 2.000 1.643 3652
4.433 2.115 1.715 3983
4.562 2.177 1.761 2565
4.553 2.172 1.742 4550
4.403 2.101 1.689 1833
4.557 2.174 1.727 5324
4.407 2.103 1.675 1246
4.561 2.176 1.713 4565
4.793 2.287 1.794 1283
4.572 2.181 1.701 3616
4.838 2.308 1.792 1855
4.850 2.314 1.779 3185
4.577 2.183 1.686 2395
4.847 2.312 1.761 4461
4.587 2.189 1.674 2130
4.851 2.315 1.746 7154
4.591 2.191 1.659 1807
4.862 2.320 1.732 10803
4.602 2.196 1.646 1146
4.860 2.319 1.715 11003
5.010 2.390 1.764 995
4.857 2.317 1.697 11393
5.015 2.392 1.748 947
4.868 2.322 1.683 9144
5.019 2.394 1.732 2030
4.872 2.324 1.668 4761
5.023 2.396 1.716 2452
4.883 2.330 1.654 2886
5.179 2.471 1.747 2448
5.183 2.473 1.730 2704
5.045 2.407 1.688 2648
5.311 2.534 1.752 3871
5.180 2.471 1.712 2844
5.315 2.536 1.735 5508
5.184 2.473 1.695 2391
5.340 2.548 1.724 4594
5.471 2.610 1.763 1820
5.351 2.553 1.709 3680
5.482 2.615 1.748 2388
5.493 2.621 1.732 3787
5.321 2.538 1.682 3285
5.497 2.623 1.714 5191
5.698 2.718 1.772 2210
5.515 2.631 1.701 4424
5.709 2.724 1.756 2655
5.859 2.795 1.779 3299
5.554 2.650 1.693 2570
5.884 2.807 1.766 3248
5.718 2.728 1.719 2386
5.930 2.829 1.758 4349
5.784 2.760 1.718 4040
5.788 2.762 1.700 4485
5.927 2.828 1.737 3295
5.890 2.810 1.707 3808
6.188 2.952 1.787 1954
5.887 2.808 1.687 3429
6.193 2.954 1.768 2144
5.814 2.774 1.648 2000
6.211 2.963 1.751 1891
6.326 3.018 1.760 1647
5.916 2.822 1.654 1529
6.581 3.140 1.804 2225
6.317 3.014 1.736 1783
6.579 3.139 1.781 2024
6.314 3.012 1.714 1230
6.583 3.141 1.760 1992
6.715 3.204 1.792 1138
6.594 3.146 1.740 2070
6.741 3.216 1.776 1202
7.045 3.361 1.827 2442
6.752 3.221 1.756 1361
7.043 3.360 1.802 4741
6.868 3.277 1.761 1682
7.054 3.365 1.781 5700
7.215 3.442 1.819 1941
7.058 3.367 1.759 5312
7.219 3.444 1.796 2921
7.062 3.369 1.736 5032
7.216 3.443 1.771 3596
7.067 3.371 1.713 4321
7.221 3.445 1.748 3947
7.232 3.450 1.726 4018
7.078 3.377 1.692 2976
7.243 3.456 1.705 3498
7.082 3.379 1.669 2139
7.247 3.458 1.681 3051
8.482 4.047 1.946 2590
8.487 4.049 1.918 3672
8.332 3.975 1.886 2464
8.491 4.051 1.891 4754
8.035 3.833 1.796 2871
8.496 4.053 1.864 5520
8.032 3.832 1.769 2679
8.500 4.055 1.836 5428
8.043 3.837 1.745 1818
8.505 4.057 1.809 4036
8.343 3.980 1.777 1661
8.509 4.060 1.782 3272
8.347 3.982 1.750 1373
8.513 4.062 1.754 3230
8.056 3.843 1.667 986
8.518 4.064 1.727 2622
8.067 3.849 1.642 760
8.522 4.066 1.699 1389
8.071 3.850 1.616 542
8.526 4.068 1.672 369
8.067 3.849 1.589 297
1.984 0.943 1.717 1532
2.093 0.995 1.807 826
1.988 0.945 1.711 3065
2.098 0.997 1.800 1653
1.992 0.947 1.705 3065
2.102 0.999 1.793 1653
2.002 0.951 1.703 3031
2.112 1.004 1.791 1271
2.012 0.956 1.701 3100
2.134 1.014 1.798 898
2.098 0.997 1.760 2962
1.987 0.944 1.672 1509
2.108 1.001 1.757 4131
1.997 0.949 1.670 1431
2.112 1.003 1.751 4131
2.001 0.951 1.664 1554
2.128 1.011 1.753 6391
2.011 0.955 1.662 1707
2.138 1.016 1.751 8991
2.009 0.955 1.651 1677
2.142 1.018 1.744 9321
2.031 0.965 1.659 2318
2.152 1.023 1.742 9680
2.041 0.969 1.657 3496
2.157 1.025 1.735 7157
2.045 0.971 1.650 3055
2.161 1.027 1.728 4633
2.273 1.080 1.813 3064
2.165 1.029 1.722 4654
2.278 1.082 1.806 3064
2.169 1.031 1.715 4675
2.282 1.084 1.799 3201
2.173 1.033 1.708 4634
2.286 1.086 1.791 3364
2.183 1.037 1.705 4057
2.297 1.091 1.788 3542
2.217 1.054 1.720 4341
2.074 0.985 1.616 2941
2.287 1.087 1.761 4414
2.078 0.987 1.609 3027
2.292 1.089 1.754 4903
2.082 0.989 1.603 3005
2.248 1.068 1.712 4465
2.092 0.994 1.600 2220
2.258 1.073 1.709 4802
2.108 1.001 1.602 1726
2.268 1.078 1.706 4265
2.431 1.155 1.821 1949
2.284 1.085 1.708 4084
2.399 1.140 1.788 2582
2.289 1.087 1.700 2714
2.403 1.142 1.780 2298
2.493 1.184 1.832 2263
2.365 1.124 1.743 1713
2.479 1.178 1.811 2953
2.333 1.109 1.711 1687
2.477 1.177 1.799 3859
2.331 1.108 1.699 1931
2.494 1.185 1.800 5741
2.378 1.130 1.721 2132
2.504 1.190 1.796 7874
2.388 1.135 1.718 2769
2.515 1.195 1.792 9554
2.399 1.140 1.714 2299
2.519 1.197 1.784 11401
2.403 1.142 1.706 1543
2.517 1.196 1.772 9481
2.401 1.141 1.695 922
2.515 1.195 1.760 7768
2.632 1.251 1.837 566
2.520 1.197 1.752 5216
2.637 1.253 1.828 729
2.493 1.184 1.724 2696
2.610 1.240 1.800 2277
2.497 1.186 1.716 2730
2.615 1.242 1.792 2597
2.607 1.238 1.775 4213
2.489 1.183 1.700 1709
2.611 1.241 1.767 5941
2.729 1.296 1.842 970
2.609 1.240 1.755 6166
2.727 1.296 1.829 1221
2.601 1.236 1.739 6714
2.719 1.292 1.813 1957
2.605 1.238 1.731 6159
2.723 1.294 1.804 4176
2.728 1.296 1.796 7645
2.609 1.240 1.722 4159
2.732 1.298 1.787 8894
2.613 1.242 1.714 2714
2.737 1.300 1.778 8686
2.618 1.244 1.706 2153
2.741 1.302 1.770 8477
2.622 1.246 1.697 1592
2.745 1.304 1.761 8324
2.626 1.248 1.689 1250
2.743 1.303 1.748 6402
2.863 1.360 1.820 1813
2.722 1.293 1.725 5402
2.842 1.350 1.796 3487
2.821 1.340 1.772 6424
2.701 1.283 1.701 3398
2.832 1.345 1.767 8472
2.711 1.288 1.696 2404
2.836 1.347 1.758 8026
2.716 1.290 1.688 1431
2.840 1.349 1.749 5680
2.961 1.407 1.818 1067
2.851 1.354 1.743 3173
2.971 1.412 1.812 1273
2.855 1.356 1.734 2881
2.976 1.414 1.803 1432
2.897 1.377 1.747 2757
3.018 1.434 1.815 1860
2.895 1.376 1.734 4101
3.016 1.433 1.802 2618
2.893 1.375 1.721 5001
3.014 1.432 1.789 2363
2.904 1.380 1.715 4574
3.038 1.443 1.790 2396
2.927 1.391 1.717 5397
3.049 1.448 1.783 3407
2.925 1.390 1.704 5996
3.047 1.447 1.770 3661
2.935 1.395 1.698 5492
3.057 1.453 1.764 2668
2.939 1.397 1.689 3253
3.081 1.464 1.765 3229
3.085 1.466 1.755 4747
3.208 1.524 1.820 1368
3.102 1.474 1.752 6278
2.980 1.416 1.687 1729
3.113 1.479 1.745 8285
2.990 1.421 1.681 1903
3.117 1.481 1.735 10693
3.240 1.539 1.799 2098
3.121 1.483 1.725 10615
3.245 1.542 1.789 2371
3.132 1.488 1.719 8771
3.288 1.562 1.799 1855
3.143 1.493 1.712 6275
3.292 1.564 1.788 1976
3.166 1.504 1.712 4084
3.290 1.563 1.774 2911
3.255 1.547 1.744 6306
3.131 1.488 1.682 1626
3.272 1.555 1.740 6789
3.149 1.496 1.679 1198
3.290 1.563 1.736 5862
3.433 1.631 1.807 1268
3.307 1.571 1.732 5498
3.438 1.633 1.796 1957
3.318 1.576 1.725 7196
3.455 1.642 1.792 3594
3.322 1.578 1.714 6883
3.460 1.644 1.781 5261
3.405 1.618 1.741 5095
3.280 1.558 1.682 2446
3.488 1.657 1.768 4619
3.363 1.598 1.709 2548
3.492 1.659 1.757 5400
3.347 1.590 1.689 1806
3.503 1.664 1.749 4516
3.628 1.724 1.807 2260
3.600 1.710 1.780 5342
3.474 1.651 1.722 2978
3.604 1.712 1.769 4979
3.479 1.653 1.711 3515
3.522 1.674 1.718 4247
3.648 1.733 1.775 4120
3.632 1.726 1.755 4750
3.507 1.666 1.698 3051
3.630 1.725 1.740 4098
3.756 1.785 1.796 1829
3.634 1.727 1.729 4814
3.760 1.787 1.784 2679
3.638 1.729 1.717 6412
3.765 1.789 1.772 2694
3.643 1.731 1.705 5264
3.802 1.807 1.775 3330
3.813 1.812 1.766 4595
3.667 1.742 1.702 3394
3.818 1.814 1.753 4460
3.691 1.754 1.699 3549
3.822 1.816 1.741 3480
3.949 1.876 1.795 2842
3.940 1.872 1.777 5327
3.786 1.799 1.712 2638
3.951 1.877 1.767 5664
3.783 1.798 1.697 2298
3.948 1.876 1.752 5670
3.781 1.796 1.682 1927
3.946 1.875 1.736 7397
4.073 1.935 1.789 2458
3.950 1.877 1.724 8270
4.077 1.937 1.776 2848
3.961 1.882 1.714 6878
4.142 1.968 1.787 4277
4.153 1.973 1.776 5817
3.972 1.887 1.704 5023
3.982 1.892 1.694 4369
4.164 1.979 1.766 4227
4.175 1.984 1.755 3372
3.993 1.897 1.684 2627
4.173 1.983 1.739 10098
4.045 1.922 1.689 1763
4.177 1.985 1.726 17468
4.305 2.046 1.775 1993
4.188 1.990 1.715 16661
4.323 2.054 1.766 4213
4.192 1.992 1.702 13964
4.327 2.056 1.753 5359
4.196 1.994 1.688 10791
4.338 2.061 1.741 5678
4.200 1.996 1.675 8538
4.349 2.067 1.730 4284
4.197 1.994 1.659 6853
4.422 2.101 1.741 3864
4.426 2.103 1.727 5020
4.195 1.993 1.643 4329
4.437 2.108 1.715 4034
4.566 2.169 1.761 2257
4.557 2.165 1.742 3985
4.407 2.094 1.689 1798
4.561 2.167 1.727 4572
4.418 2.099 1.677 1204
4.565 2.169 1.713 3980
4.783 2.273 1.789 1335
4.576 2.174 1.701 3516
4.842 2.301 1.792 1615
4.847 2.303 1.777 2553
4.580 2.176 1.686 2375
4.851 2.305 1.761 3505
4.584 2.178 1.671 1916
4.855 2.307 1.746 5977
4.595 2.183 1.659 1745
4.866 2.312 1.732 9344
4.606 2.188 1.646 1258
4.863 2.311 1.715 9257
5.014 2.382 1.764 1097
4.868 2.313 1.699 9415
5.019 2.384 1.748 1050
4.872 2.315 1.683 7660
5.023 2.386 1.732 2197
4.876 2.317 1.668 4099
5.027 2.388 1.716 2573
5.189 2.466 1.749 2595
4.887 2.322 1.654 2529
5.187 2.464 1.730 2733
5.386 2.559 1.792 2451
5.315 2.525 1.752 3718
5.184 2.463 1.712 2735
5.319 2.527 1.735 5877
5.188 2.465 1.695 2287
5.337 2.536 1.722 4631
5.468 2.598 1.761 2066
5.348 2.541 1.707 3508
5.493 2.610 1.750 2770
5.498 2.612 1.732 4298
5.325 2.530 1.682 3452
5.502 2.614 1.714 5648
5.709 2.713 1.774 2521
5.513 2.619 1.699 4885
5.714 2.715 1.756 3052
5.863 2.786 1.779 4050
5.482 2.605 1.671 2542
5.798 2.755 1.741 4224
5.930 2.817 1.777 2093
5.802 2.757 1.722 5228
5.934 2.820 1.758 3516
5.793 2.752 1.700 5595
5.925 2.815 1.736 2793
5.804 2.757 1.683 4917
5.936 2.820 1.718 2348
5.884 2.796 1.685 4449
6.204 2.948 1.769 1846
5.881 2.794 1.664 2759
6.215 2.953 1.751 1766
5.906 2.806 1.651 1742
6.338 3.011 1.762 1625
6.586 3.129 1.804 2120
6.328 3.007 1.738 1684
6.584 3.128 1.781 1968
6.326 3.005 1.716 1146
6.588 3.130 1.760 1965
6.721 3.193 1.792 1214
6.599 3.135 1.740 2059
6.732 3.198 1.773 1338
7.051 3.350 1.827 2272
6.764 3.214 1.758 1389
7.048 3.349 1.802 4549
6.873 3.266 1.761 1848
7.059 3.354 1.781 5566
7.220 3.430 1.819 2161
7.064 3.356 1.759 5148
7.225 3.433 1.796 3166
7.068 3.358 1.736 4964
7.222 3.431 1.771 3858
7.072 3.360 1.713 4352
7.226 3.433 1.748 4166
7.237 3.439 1.726 4230
7.083 3.365 1.692 2962
7.249 3.444 1.705 3728
7.087 3.367 1.669 2105
7.253 3.446 1.681 3365
8.488 4.033 1.946 2374
8.493 4.035 1.918 3568
8.339 3.962 1.886 2967
8.498 4.037 1.891 4743
8.350 3.967 1.860 2393
8.502 4.040 1.864 5482
8.038 3.819 1.769 2135
8.507 4.042 1.836 5433
8.352 3.968 1.805 1905
8.511 4.044 1.809 3981
8.349 3.967 1.777 1908
8.516 4.046 1.782 3137
8.361 3.972 1.752 1670
8.520 4.048 1.754 3247
8.386 3.984 1.729 1138
8.524 4.050 1.727 2746
8.390 3.986 1.702 973
8.528 4.052 1.699 1413
8.387 3.985 1.674 529
8.532 4.054 1.672 328
8.074 3.836 1.589 270
1.985 0.940 1.717 1392
2.095 0.992 1.807 816
1.989 0.942 1.711 2785
2.099 0.994 1.800 1633
1.994 0.944 1.705 2785
2.104 0.996 1.793 1633
2.003 0.948 1.703 2747
2.114 1.001 1.791 1335
2.013 0.953 1.701 2791
2.141 1.014 1.803 973
2.099 0.994 1.760 3095
1.988 0.941 1.672 1468
2.103 0.996 1.753 4203
1.992 0.943 1.666 1193
2.108 0.998 1.746 4203
1.996 0.945 1.660 1375
2.129 1.008 1.753 6350
2.012 0.953 1.662 1609
2.134 1.010 1.747 9012
2.010 0.952 1.651 1600
2.144 1.015 1.744 9300
2.032 0.962 1.659 2189
2.154 1.020 1.742 9621
2.042 0.967 1.657 3343
2.158 1.022 1.735 7044
2.046 0.969 1.650 3038
2.168 1.026 1.733 4494
2.056 0.973 1.648 3159
2.172 1.028 1.726 4488
2.060 0.975 1.642 2895
2.171 1.028 1.715 4504
2.284 1.081 1.799 3089
2.175 1.030 1.708 4493
2.288 1.083 1.791 3207
2.191 1.037 1.710 4063
2.304 1.091 1.793 3232
2.213 1.048 1.716 4532
2.081 0.985 1.620 3123
2.217 1.050 1.709 4726
2.073 0.982 1.605 3206
2.293 1.086 1.754 4948
2.077 0.983 1.598 3191
2.243 1.062 1.708 4638
2.081 0.985 1.592 2335
2.260 1.070 1.709 4694
2.109 0.998 1.602 1658
2.264 1.072 1.702 4064
2.378 1.126 1.783 1979
2.286 1.082 1.708 3779
2.401 1.137 1.788 2537
2.229 1.055 1.658 2596
2.393 1.133 1.772 2274
2.403 1.138 1.769 1922
2.233 1.057 1.651 1761
2.481 1.174 1.811 2772
2.335 1.105 1.711 1836
2.479 1.174 1.799 3832
2.333 1.104 1.699 2047
2.495 1.181 1.800 5634
2.380 1.127 1.721 2099
2.506 1.186 1.796 7805
2.390 1.131 1.718 2718
2.510 1.188 1.788 9677
2.394 1.133 1.710 2005
2.515 1.190 1.780 11549
2.398 1.135 1.702 1291
2.519 1.193 1.772 9882
2.402 1.137 1.695 892
2.517 1.192 1.760 8368
2.634 1.247 1.837 667
2.521 1.194 1.752 5687
2.638 1.249 1.828 796
2.501 1.184 1.728 2822
2.618 1.240 1.804 1767
2.499 1.183 1.716 2788
2.616 1.239 1.792 2186
2.608 1.235 1.775 3880
2.491 1.179 1.700 1726
2.613 1.237 1.767 5630
2.731 1.293 1.842 1064
2.611 1.236 1.755 5805
2.729 1.292 1.829 1325
2.603 1.232 1.739 6216
2.721 1.288 1.813 2185
2.607 1.234 1.731 5730
2.725 1.290 1.804 4412
2.723 1.289 1.792 7881
2.605 1.233 1.718 3670
2.734 1.294 1.787 9084
2.615 1.238 1.714 2655
2.738 1.296 1.778 8752
2.619 1.240 1.706 2083
2.743 1.298 1.770 8420
2.623 1.242 1.697 1511
2.747 1.300 1.761 8463
2.627 1.244 1.689 1208
2.745 1.299 1.748 6663
2.865 1.356 1.820 1767
2.724 1.290 1.725 5424
2.844 1.346 1.796 3328
2.817 1.333 1.768 6488
2.696 1.277 1.697 2744
2.827 1.338 1.763 8637
2.707 1.281 1.693 1899
2.831 1.340 1.754 8201
2.711 1.283 1.684 1040
2.836 1.342 1.745 5811
2.956 1.400 1.814 1240
2.846 1.347 1.740 3028
2.967 1.405 1.809 1450
2.933 1.389 1.777 2654
2.812 1.331 1.709 2072
2.899 1.373 1.747 3243
3.020 1.430 1.815 1824
2.897 1.372 1.734 4805
3.018 1.429 1.802 2545
2.895 1.370 1.721 5685
3.016 1.428 1.789 2307
2.905 1.375 1.715 4917
3.027 1.433 1.782 2503
2.929 1.387 1.717 5274
3.051 1.444 1.783 3573
2.927 1.385 1.704 5840
3.049 1.443 1.770 3963
2.937 1.390 1.698 5294
3.059 1.448 1.764 2766
3.083 1.460 1.765 3267
2.941 1.392 1.689 3122
3.087 1.462 1.755 4582
3.210 1.520 1.820 1405
3.104 1.470 1.752 6019
2.982 1.412 1.687 1380
3.122 1.478 1.749 8536
2.999 1.420 1.684 1761
3.119 1.477 1.735 11459
3.242 1.535 1.799 1975
3.123 1.479 1.725 11188
3.247 1.537 1.789 2200
3.134 1.484 1.719 9034
3.284 1.554 1.795 1861
3.145 1.489 1.712 6437
3.294 1.560 1.788 1936
3.175 1.503 1.715 4323
3.299 1.562 1.778 2806
3.264 1.545 1.748 6098
3.140 1.487 1.686 2083
3.281 1.553 1.744 6695
3.157 1.495 1.682 1503
3.292 1.558 1.736 5666
3.436 1.627 1.807 1223
3.303 1.564 1.729 5211
3.440 1.629 1.796 1874
3.320 1.572 1.725 7012
3.458 1.637 1.792 3511
3.324 1.574 1.714 6590
3.462 1.639 1.781 5320
3.447 1.632 1.760 5180
3.322 1.573 1.701 3618
3.484 1.649 1.765 4934
3.313 1.568 1.684 2260
3.495 1.654 1.757 5644
3.343 1.583 1.686 1583
3.505 1.660 1.749 4665
3.631 1.719 1.807 2333
3.602 1.705 1.780 5611
3.477 1.646 1.722 2997
3.606 1.707 1.769 5240
3.481 1.648 1.711 3503
3.637 1.722 1.769 4269
3.511 1.662 1.712 4114
3.641 1.724 1.758 4362
3.516 1.664 1.701 2956
3.639 1.723 1.743 3825
3.765 1.782 1.799 1555
3.637 1.722 1.729 4748
3.763 1.781 1.784 2615
3.641 1.724 1.717 6404
3.767 1.783 1.772 2580
3.645 1.726 1.705 5299
3.805 1.801 1.775 3303
3.816 1.806 1.766 4652
3.669 1.737 1.702 3348
3.820 1.808 1.753 4347
3.693 1.748 1.699 3380
3.824 1.810 1.741 3243
3.951 1.871 1.795 2470
3.942 1.866 1.777 4798
3.782 1.790 1.709 2169
3.953 1.872 1.767 4874
3.786 1.792 1.697 2182
3.951 1.870 1.752 4647
3.823 1.810 1.699 1931
3.948 1.869 1.736 6089
4.076 1.930 1.789 2594
3.952 1.871 1.724 6975
4.080 1.932 1.776 3146
3.963 1.876 1.714 6043
4.152 1.965 1.790 4321
4.156 1.968 1.776 5848
3.974 1.881 1.704 4533
4.167 1.973 1.766 4456
3.992 1.890 1.696 4002
4.185 1.981 1.758 4041
4.003 1.895 1.686 2480
4.176 1.977 1.739 10664
4.047 1.916 1.689 1830
4.180 1.979 1.726 17841
4.322 2.046 1.780 2123
4.191 1.984 1.715 17373
4.326 2.048 1.766 4292
4.195 1.986 1.702 14952
4.330 2.050 1.753 5203
4.199 1.988 1.688 11729
4.341 2.055 1.741 5413
4.203 1.990 1.675 9323
4.359 2.064 1.732 4257
4.200 1.988 1.659 7397
4.418 2.091 1.738 3876
4.429 2.097 1.727 4973
4.197 1.987 1.643 4657
4.440 2.102 1.715 3892
4.569 2.163 1.761 1952
4.560 2.159 1.742 3364
4.430 2.097 1.696 1678
4.557 2.157 1.725 3780
4.414 2.090 1.675 1250
4.568 2.163 1.713 3454
4.786 2.266 1.789 1324
4.579 2.168 1.701 3433
4.845 2.294 1.792 1399
4.576 2.166 1.684 2356
4.850 2.296 1.777 2053
4.847 2.295 1.759 2818
4.580 2.168 1.669 1728
4.858 2.300 1.746 4954
4.598 2.177 1.659 1647
4.869 2.305 1.732 7896
4.616 2.185 1.649 1328
4.867 2.304 1.715 7541
5.018 2.375 1.764 1254
4.871 2.306 1.699 7483
5.022 2.377 1.748 1236
4.875 2.308 1.683 6213
5.026 2.379 1.732 2353
4.879 2.310 1.668 3445
5.037 2.385 1.718 2600
5.193 2.458 1.749 2644
5.048 2.390 1.704 2254
5.190 2.457 1.730 2736
5.397 2.555 1.794 2499
5.318 2.518 1.752 3549
5.187 2.456 1.712 2565
5.323 2.520 1.735 6171
5.192 2.458 1.695 2017
5.341 2.528 1.722 4851
5.472 2.591 1.761 2116
5.345 2.530 1.705 3486
5.497 2.602 1.750 3120
5.501 2.604 1.732 4682
5.328 2.522 1.682 3702
5.512 2.610 1.716 5747
5.381 2.547 1.679 2729
5.509 2.608 1.697 5166
5.717 2.707 1.756 3170
5.867 2.778 1.779 4495
5.486 2.597 1.671 3170
5.802 2.747 1.741 5060
5.531 2.619 1.665 2203
5.806 2.749 1.722 6163
5.938 2.811 1.758 2839
5.797 2.744 1.700 6359
5.929 2.807 1.736 2497
5.815 2.753 1.685 5701
5.947 2.815 1.720 1730
5.888 2.788 1.685 5336
6.208 2.939 1.769 1578
5.885 2.786 1.664 3520
6.220 2.944 1.751 1637
5.903 2.795 1.649 2027
6.342 3.003 1.762 1556
6.598 3.123 1.805 1925
6.340 3.001 1.740 1608
6.588 3.119 1.781 1863
6.762 3.201 1.825 1108
6.592 3.121 1.760 1901
6.725 3.184 1.792 1212
6.603 3.126 1.740 1920
6.736 3.189 1.773 1410
7.048 3.337 1.825 2020
6.873 3.254 1.783 1458
7.053 3.339 1.802 4171
6.871 3.253 1.759 1953
7.064 3.344 1.781 5196
7.225 3.420 1.819 2207
7.075 3.350 1.760 4786
7.229 3.423 1.796 3230
7.072 3.348 1.736 4648
7.227 3.421 1.771 3951
7.231 3.423 1.748 4222
7.077 3.350 1.713 4153
7.242 3.429 1.726 4301
7.088 3.355 1.692 2789
7.253 3.434 1.705 3812
7.092 3.357 1.669 1959
7.257 3.436 1.681 3494
8.339 3.948 1.913 2541
8.499 4.023 1.918 3386
8.351 3.954 1.887 3312
8.503 4.026 1.891 4564
8.356 3.956 1.860 2690
8.508 4.028 1.864 5233
8.367 3.961 1.835 2191
8.512 4.030 1.836 5248
8.365 3.960 1.807 2057
8.517 4.032 1.809 3817
8.362 3.959 1.778 2013
8.521 4.034 1.782 2983
8.366 3.961 1.752 1841
8.526 4.036 1.754 3231
8.392 3.973 1.729 1374
8.530 4.038 1.727 2816
8.396 3.975 1.702 1233
8.534 4.040 1.699 1421
8.400 3.977 1.675 631
8.538 4.042 1.672 297
8.072 3.821 1.588 254
1.981 0.934 1.713 1093
2.114 0.996 1.821 822
1.985 0.936 1.706 2187
2.118 0.998 1.814 1644
1.989 0.938 1.700 2187
2.128 1.003 1.812 1665
1.999 0.942 1.699 2234
2.110 0.994 1.787 1574
2.085 0.983 1.757 2480
1.974 0.931 1.669 1123
2.095 0.987 1.755 3482
1.984 0.935 1.668 1180
2.099 0.989 1.748 4522
1.988 0.937 1.661 953
2.103 0.991 1.742 4522
1.992 0.939 1.655 1147
2.125 1.002 1.749 6309
2.014 0.949 1.662 1449
2.135 1.006 1.747 8943
2.012 0.948 1.651 1443
2.145 1.011 1.744 9146
2.034 0.959 1.659 1998
2.156 1.016 1.742 9440
2.043 0.963 1.657 3105
2.160 1.018 1.735 6875
2.047 0.965 1.650 3048
2.188 1.031 1.746 4516
2.075 0.978 1.662 4102
2.174 1.025 1.726 4362
2.061 0.972 1.642 3174
2.178 1.027 1.719 4293
2.065 0.973 1.635 2977
2.177 1.026 1.708 4261
2.290 1.079 1.791 3037
2.199 1.036 1.714 4305
2.085 0.983 1.631 3197
2.209 1.041 1.711 4971
2.083 0.982 1.620 3213
2.219 1.046 1.709 5305
2.075 0.978 1.605 3282
2.223 1.048 1.702 5650
2.073 0.977 1.594 3271
2.227 1.050 1.695 4985
2.083 0.982 1.592 2457
2.261 1.066 1.709 4597
2.087 0.983 1.585 1646
2.229 1.051 1.676 3919
2.344 1.105 1.757 2137
2.227 1.050 1.665 3559
2.384 1.124 1.775 2728
2.231 1.052 1.658 2656
2.389 1.126 1.768 2354
2.369 1.117 1.743 2152
2.235 1.054 1.651 1753
2.476 1.167 1.807 2760
2.337 1.101 1.711 1941
2.475 1.166 1.795 3998
2.341 1.103 1.703 2110
2.491 1.174 1.795 5656
2.375 1.120 1.717 2047
2.502 1.179 1.792 7884
2.386 1.124 1.713 2566
2.512 1.184 1.788 9961
2.396 1.129 1.710 2095
2.517 1.186 1.780 12051
2.400 1.131 1.702 1405
2.521 1.188 1.772 10470
2.404 1.133 1.695 950
2.519 1.187 1.760 9150
2.636 1.243 1.837 769
2.523 1.189 1.752 6295
2.641 1.245 1.828 885
2.503 1.180 1.728 2933
2.620 1.235 1.804 1585
2.501 1.179 1.716 2806
2.618 1.234 1.792 1844
2.604 1.228 1.771 3758
2.486 1.172 1.696 1475
2.615 1.232 1.767 5524
2.733 1.288 1.842 1168
2.613 1.232 1.755 5639
2.731 1.287 1.829 1481
2.611 1.231 1.743 5826
2.729 1.286 1.817 2110
2.702 1.274 1.789 5401
2.584 1.218 1.715 3635
2.726 1.285 1.792 8236
2.607 1.229 1.718 3429
2.736 1.290 1.787 9362
2.617 1.234 1.714 2534
2.741 1.292 1.778 8877
2.621 1.236 1.706 1940
2.745 1.294 1.770 8392
2.625 1.238 1.697 1346
2.749 1.296 1.761 8622
2.630 1.239 1.689 1101
2.747 1.295 1.748 6937
2.867 1.351 1.820 1727
2.726 1.285 1.725 5475
2.846 1.341 1.796 3135
2.819 1.329 1.768 6540
2.699 1.272 1.697 2663
2.829 1.334 1.763 8732
2.709 1.277 1.693 1879
2.834 1.336 1.754 8390
2.713 1.279 1.684 1053
2.838 1.338 1.745 6055
2.959 1.395 1.814 1178
2.848 1.343 1.740 3072
2.969 1.400 1.809 1354
2.936 1.384 1.777 2879
2.814 1.327 1.709 1964
2.908 1.371 1.750 3762
3.029 1.428 1.818 1595
2.899 1.367 1.734 5322
3.021 1.424 1.802 2555
2.897 1.366 1.721 6071
3.019 1.423 1.789 2337
2.908 1.371 1.715 5034
3.030 1.428 1.782 2732
2.931 1.382 1.717 5212
3.053 1.439 1.783 3932
2.935 1.384 1.707 5810
3.057 1.441 1.774 4366
2.939 1.386 1.698 5114
3.062 1.443 1.764 3217
3.085 1.454 1.765 3504
2.944 1.387 1.689 2904
3.090 1.456 1.755 4552
3.212 1.514 1.820 1457
3.113 1.467 1.755 5901
3.236 1.525 1.820 1307
3.124 1.473 1.749 8898
3.247 1.530 1.813 1472
3.122 1.471 1.735 12296
3.245 1.529 1.799 1957
3.126 1.473 1.725 11893
3.249 1.532 1.789 2056
3.137 1.478 1.719 9458
3.286 1.549 1.795 1808
3.147 1.483 1.712 6645
3.297 1.554 1.788 1970
3.178 1.498 1.715 4331
3.301 1.556 1.778 2830
3.267 1.540 1.748 5701
3.143 1.481 1.686 2079
3.284 1.548 1.744 6308
3.160 1.489 1.682 1602
3.295 1.553 1.736 5264
3.439 1.621 1.807 1127
3.305 1.558 1.729 4931
3.443 1.623 1.796 1725
3.323 1.566 1.725 6869
3.460 1.631 1.792 3351
3.327 1.568 1.714 6341
3.465 1.633 1.781 5227
3.449 1.626 1.760 5202
3.324 1.567 1.701 3431
3.486 1.643 1.765 5014
3.315 1.563 1.684 2173
3.497 1.648 1.757 5593
3.319 1.565 1.673 1518
3.508 1.654 1.749 4585
3.634 1.713 1.807 2393
3.605 1.699 1.780 5864
3.479 1.640 1.722 2904
3.616 1.704 1.772 5506
3.490 1.645 1.714 3805
3.640 1.716 1.769 4467
3.514 1.656 1.712 4014
3.644 1.718 1.758 4220
3.518 1.658 1.701 2622
3.642 1.717 1.743 3618
3.768 1.776 1.799 1528
3.633 1.712 1.726 4662
3.759 1.772 1.781 3202
3.644 1.717 1.717 6365
3.770 1.777 1.772 2591
3.648 1.719 1.705 5275
3.808 1.795 1.775 3347
3.819 1.800 1.766 4747
3.672 1.731 1.702 3333
3.830 1.805 1.756 4233
3.696 1.742 1.699 3177
3.854 1.817 1.753 3374
3.714 1.750 1.693 2003
3.939 1.856 1.774 4286
3.785 1.784 1.709 1733
3.956 1.865 1.767 4007
3.789 1.786 1.697 2107
3.954 1.864 1.752 3627
3.826 1.804 1.699 2244
3.951 1.863 1.736 4827
4.079 1.923 1.789 2685
3.956 1.864 1.724 5710
4.083 1.925 1.776 3369
3.967 1.870 1.714 5309
4.155 1.958 1.790 4228
4.159 1.960 1.776 5718
3.977 1.875 1.704 4216
4.177 1.969 1.768 4742
3.995 1.883 1.696 3790
4.181 1.971 1.755 4888
4.046 1.907 1.702 2498
4.179 1.970 1.739 11203
4.050 1.909 1.689 1828
4.183 1.972 1.726 18030
4.318 2.035 1.778 2290
4.194 1.977 1.715 17929
4.329 2.041 1.766 4290
4.198 1.979 1.702 15740
4.334 2.043 1.753 4952
4.202 1.981 1.688 12610
4.345 2.048 1.741 5235
4.206 1.983 1.675 10134
4.369 2.060 1.735 4171
4.204 1.981 1.659 7941
4.421 2.084 1.738 3884
4.201 1.980 1.643 5045
4.432 2.089 1.727 4875
4.443 2.094 1.715 3817
4.205 1.982 1.630 2114
4.488 2.116 1.715 2938
4.359 2.054 1.669 1383
4.554 2.146 1.723 3025
4.424 2.085 1.677 1238
4.565 2.152 1.710 3043
4.695 2.213 1.756 1385
4.583 2.160 1.701 3395
4.760 2.244 1.762 1439
4.580 2.159 1.684 2376
4.847 2.285 1.774 1472
4.844 2.283 1.757 2129
4.584 2.161 1.669 1596
4.862 2.292 1.746 3845
4.602 2.169 1.659 1564
4.873 2.297 1.732 6173
4.619 2.177 1.649 1368
4.877 2.299 1.717 5570
5.022 2.367 1.764 1408
4.875 2.298 1.699 5152
5.019 2.366 1.746 1537
4.879 2.300 1.683 4456
5.030 2.371 1.732 2705
5.041 2.376 1.718 2887
4.883 2.302 1.668 2726
5.197 2.450 1.749 2552
5.052 2.381 1.704 2351
5.194 2.448 1.730 2627
5.394 2.543 1.792 2574
5.316 2.506 1.750 3487
5.185 2.444 1.710 2195
5.327 2.511 1.735 6133
5.458 2.573 1.774 1974
5.338 2.516 1.720 4783
5.469 2.578 1.759 2307
5.411 2.551 1.723 3528
5.543 2.613 1.762 1680
5.506 2.595 1.732 4952
5.326 2.510 1.680 3861
5.517 2.600 1.716 5711
5.385 2.538 1.679 2623
5.514 2.599 1.697 5403
5.722 2.697 1.756 3198
5.872 2.768 1.779 4944
5.490 2.588 1.671 4031
5.807 2.737 1.741 5851
5.529 2.606 1.663 2380
5.811 2.739 1.722 7118
5.943 2.801 1.758 2185
5.808 2.738 1.702 6973
5.940 2.800 1.737 2087
5.896 2.779 1.705 6576
5.764 2.717 1.670 1861
5.886 2.774 1.683 6388
6.471 3.050 1.838 1449
5.890 2.776 1.664 4421
6.475 3.052 1.817 1626
5.901 2.781 1.647 2344
6.347 2.992 1.762 1519
6.603 3.112 1.805 1717
6.352 2.994 1.742 1599
6.593 3.108 1.781 1706
6.356 2.996 1.721 1112
6.500 3.064 1.735 1835
6.702 3.159 1.786 1435
6.609 3.115 1.740 1774
6.742 3.178 1.773 1594
7.054 3.325 1.825 1738
6.879 3.242 1.783 1631
7.058 3.327 1.802 3696
6.876 3.241 1.759 2089
7.077 3.336 1.783 4776
7.231 3.408 1.819 2188
7.081 3.338 1.760 4394
7.235 3.410 1.796 3169
7.078 3.336 1.736 4286
7.225 3.406 1.770 3934
7.237 3.411 1.748 4198
7.089 3.342 1.715 3991
7.248 3.416 1.726 4309
7.093 3.344 1.692 2601
7.259 3.422 1.705 3805
7.098 3.345 1.669 1712
7.263 3.424 1.681 3528
8.353 3.937 1.914 2800
8.358 3.939 1.887 3747
8.505 4.009 1.918 3135
8.510 4.011 1.891 4240
8.369 3.945 1.862 3089
8.515 4.013 1.864 4870
8.381 3.950 1.836 2470
8.519 4.016 1.836 5019
8.371 3.946 1.807 2161
8.524 4.018 1.809 3620
8.369 3.945 1.778 2064
8.528 4.020 1.782 2802
8.373 3.947 1.752 1983
8.532 4.022 1.754 3173
8.398 3.959 1.729 1654
8.537 4.024 1.727 2849
8.402 3.960 1.702 1565
8.541 4.026 1.699 1408
8.406 3.962 1.675 796
8.545 4.028 1.672 250
2.098 0.985 1.807 829
1.977 0.928 1.708 686
2.102 0.987 1.800 1658
1.975 0.927 1.697 1373
2.130 1.000 1.812 1676
1.979 0.929 1.691 1373
2.070 0.972 1.754 2307
1.960 0.920 1.666 769
2.075 0.974 1.748 3101
2.185 1.026 1.835 793
2.091 0.981 1.750 3889
1.980 0.929 1.663 916
2.101 0.986 1.748 4912
1.990 0.934 1.661 812
2.105 0.988 1.742 4912
1.994 0.936 1.655 962
2.127 0.998 1.749 6038
2.015 0.946 1.662 1269
2.137 1.003 1.747 8388
2.019 0.948 1.656 1246
2.147 1.008 1.744 8513
2.035 0.955 1.659 1768
2.157 1.013 1.742 8801
2.045 0.960 1.657 2751
2.167 1.017 1.740 6476
2.055 0.965 1.655 3236
2.183 1.025 1.742 4493
2.071 0.972 1.657 3797
2.188 1.027 1.735 4102
2.075 0.974 1.651 3405
2.180 1.023 1.719 3868
2.067 0.970 1.635 3180
2.184 1.025 1.712 3813
2.071 0.972 1.629 2986
2.200 1.033 1.714 4480
2.087 0.979 1.631 3010
2.210 1.038 1.711 5372
2.097 0.984 1.629 3068
2.221 1.042 1.709 5636
2.077 0.975 1.605 3060
2.225 1.044 1.702 6016
2.074 0.974 1.594 3104
2.229 1.046 1.695 5033
2.078 0.976 1.587 2424
2.203 1.034 1.666 4370
2.329 1.093 1.756 2162
2.225 1.044 1.672 3800
2.340 1.098 1.753 2144
2.235 1.049 1.669 3501
2.386 1.120 1.775 2575
2.233 1.048 1.658 2605
2.385 1.119 1.764 2370
2.365 1.110 1.739 2463
2.237 1.050 1.651 1710
2.478 1.163 1.807 2766
2.363 1.109 1.728 2108
2.477 1.162 1.795 4104
2.342 1.100 1.703 2141
2.493 1.170 1.795 5645
2.377 1.116 1.717 2122
2.504 1.175 1.792 7857
2.387 1.121 1.713 2608
2.514 1.180 1.788 10050
2.398 1.125 1.710 2158
2.519 1.182 1.780 12320
2.402 1.127 1.702 1493
2.517 1.181 1.768 10984
2.400 1.126 1.691 870
2.521 1.183 1.760 9760
2.638 1.238 1.837 856
2.525 1.185 1.752 6776
2.643 1.240 1.828 965
2.523 1.184 1.740 3130
2.641 1.240 1.816 1061
2.503 1.175 1.716 2817
2.620 1.230 1.792 1680
2.606 1.223 1.771 3770
2.488 1.168 1.696 1480
2.611 1.225 1.763 5457
2.729 1.281 1.838 1287
2.615 1.227 1.755 5489
2.733 1.283 1.829 1572
2.681 1.259 1.786 5640
2.563 1.203 1.712 2489
2.711 1.272 1.793 5883
2.592 1.217 1.719 3906
2.728 1.280 1.792 8435
2.609 1.225 1.718 3225
2.738 1.285 1.787 9458
2.619 1.229 1.714 2442
2.743 1.287 1.778 8847
2.623 1.231 1.706 1816
2.747 1.289 1.770 8236
2.627 1.233 1.697 1191
2.751 1.291 1.761 8627
2.632 1.235 1.689 1004
2.749 1.290 1.748 7111
2.869 1.347 1.820 1661
2.728 1.281 1.725 5513
2.848 1.337 1.796 2947
2.815 1.321 1.764 6595
2.694 1.265 1.694 2070
2.832 1.329 1.763 8750
2.711 1.273 1.693 1818
2.836 1.331 1.754 8544
2.715 1.274 1.684 1017
2.840 1.333 1.745 6307
2.961 1.390 1.814 1113
2.857 1.341 1.743 3344
2.978 1.398 1.812 948
2.931 1.376 1.774 3103
2.810 1.319 1.705 1797
2.910 1.366 1.750 4210
3.031 1.423 1.818 1586
2.908 1.365 1.737 5876
3.029 1.422 1.805 2243
2.906 1.364 1.725 6631
3.027 1.421 1.792 2181
2.910 1.366 1.715 5383
3.032 1.423 1.782 2917
2.933 1.377 1.717 5277
3.055 1.434 1.783 4116
2.931 1.376 1.704 5947
3.053 1.433 1.770 4859
2.935 1.378 1.695 5119
3.058 1.435 1.760 3551
3.088 1.449 1.765 3650
2.946 1.383 1.689 2904
3.092 1.451 1.755 4534
3.215 1.509 1.820 1484
3.116 1.462 1.755 5826
3.239 1.520 1.820 1398
3.126 1.467 1.749 9084
3.249 1.525 1.813 1611
3.124 1.466 1.735 12802
3.247 1.524 1.799 1870
3.128 1.468 1.725 12330
3.252 1.526 1.789 1765
3.139 1.473 1.719 9755
3.295 1.547 1.799 1667
3.150 1.478 1.712 6800
3.299 1.549 1.788 1987
3.180 1.493 1.715 4388
3.304 1.551 1.778 2812
3.275 1.537 1.751 5373
3.151 1.479 1.689 2502
3.286 1.543 1.744 6013
3.162 1.484 1.682 1681
3.297 1.548 1.736 5033
3.428 1.609 1.801 1064
3.308 1.553 1.729 4807
3.445 1.617 1.796 1511
3.325 1.561 1.725 6769
3.463 1.625 1.792 3097
3.329 1.563 1.714 6162
3.461 1.624 1.777 5173
3.458 1.623 1.763 5385
3.327 1.562 1.701 3429
3.489 1.638 1.765 5273
3.318 1.557 1.684 2236
3.500 1.643 1.757 5649
3.322 1.559 1.673 1471
3.511 1.648 1.749 4562
3.636 1.707 1.807 2326
3.608 1.693 1.780 5877
3.482 1.634 1.722 2888
3.619 1.699 1.772 5607
3.493 1.640 1.714 3752
3.643 1.710 1.769 4679
3.517 1.651 1.712 3832
3.647 1.712 1.758 4228
3.521 1.653 1.701 2362
3.645 1.711 1.743 3466
3.771 1.770 1.799 1475
3.629 1.703 1.723 4610
3.755 1.763 1.779 3666
3.640 1.709 1.714 6257
3.766 1.768 1.770 2951
3.651 1.714 1.705 5180
3.811 1.789 1.775 3282
3.828 1.797 1.769 4745
3.675 1.725 1.702 3251
3.839 1.802 1.759 4162
3.699 1.736 1.699 3058
3.857 1.810 1.753 3526
3.710 1.741 1.690 1976
3.875 1.819 1.746 3950
3.741 1.756 1.690 1287
3.953 1.855 1.764 3315
3.798 1.783 1.700 1920
4.044 1.898 1.788 3122
3.856 1.810 1.710 3066
4.049 1.900 1.775 4706
3.921 1.840 1.723 2607
4.060 1.906 1.765 4734
3.932 1.846 1.713 3574
3.970 1.863 1.714 4535
4.158 1.952 1.790 3957
4.162 1.954 1.776 5389
3.980 1.868 1.704 3864
4.180 1.962 1.768 4863
4.039 1.896 1.712 3753
4.185 1.964 1.755 5415
4.043 1.898 1.700 2485
4.182 1.963 1.739 11257
4.054 1.903 1.689 1730
4.186 1.965 1.726 17501
4.322 2.029 1.778 2345
4.197 1.970 1.715 17663
4.333 2.034 1.766 4129
4.201 1.972 1.702 15886
4.337 2.036 1.753 4610
4.205 1.974 1.688 13084
4.348 2.041 1.741 4976
4.210 1.976 1.675 10655
4.373 2.052 1.735 3914
4.207 1.975 1.659 8242
4.425 2.077 1.738 3857
4.204 1.973 1.643 5253
4.436 2.082 1.727 4697
4.447 2.087 1.715 3677
4.208 1.975 1.630 2260
4.492 2.108 1.715 2846
4.362 2.047 1.669 1423
4.544 2.133 1.718 2487
4.673 2.194 1.763 1176
4.555 2.138 1.706 2743
4.684 2.199 1.751 1717
4.579 2.149 1.698 3261
4.771 2.239 1.764 1500
4.501 2.113 1.656 2345
4.665 2.190 1.712 1937
4.786 2.247 1.736 1912
4.505 2.115 1.641 1596
4.866 2.284 1.746 2932
4.612 2.165 1.661 1570
4.877 2.289 1.732 4419
4.637 2.176 1.653 1466
4.881 2.291 1.717 3686
5.025 2.359 1.764 1485
4.885 2.293 1.701 3051
5.023 2.358 1.746 1812
5.034 2.363 1.732 3026
4.889 2.295 1.686 2850
5.052 2.371 1.720 3257
4.900 2.300 1.672 2160
5.063 2.376 1.706 2570
5.201 2.441 1.749 2431
5.198 2.440 1.730 2520
5.405 2.537 1.794 2414
5.313 2.494 1.748 3612
5.444 2.555 1.788 2257
5.324 2.499 1.733 5995
5.455 2.561 1.772 2169
5.342 2.508 1.720 4797
5.474 2.569 1.759 2404
5.415 2.542 1.723 3938
5.547 2.604 1.762 1606
5.510 2.586 1.732 5143
5.330 2.502 1.680 4040
5.521 2.591 1.716 5519
5.389 2.530 1.679 2611
5.518 2.590 1.697 5463
5.768 2.707 1.768 3054
5.876 2.758 1.779 5199
5.494 2.579 1.671 4961
5.811 2.728 1.741 6374
5.505 2.584 1.656 2764
5.815 2.730 1.722 7782
5.947 2.792 1.758 1633
5.813 2.728 1.702 7240
5.945 2.790 1.737 1871
5.893 2.766 1.704 7491
5.761 2.704 1.668 1442
5.890 2.765 1.683 7324
6.476 3.040 1.838 1382
5.894 2.767 1.664 5280
6.487 3.045 1.819 1524
5.905 2.772 1.647 2703
6.359 2.985 1.764 1476
6.363 2.987 1.743 1641
6.608 3.102 1.805 1405
6.598 3.097 1.781 1419
6.361 2.986 1.721 1164
6.505 3.053 1.735 1824
6.721 3.155 1.789 1442
6.733 3.160 1.769 1738
6.600 3.098 1.737 1501
6.877 3.228 1.781 1779
7.052 3.310 1.823 1402
7.071 3.319 1.804 3115
6.874 3.227 1.758 2262
7.082 3.324 1.783 4280
7.243 3.400 1.821 1992
7.086 3.326 1.760 3922
7.241 3.399 1.796 2932
