-0.401 0.651 0.080 529
-0.401 0.651 0.078 564
-0.396 0.644 0.077 583
-0.400 0.651 0.074 615
-0.400 0.651 0.072 600
-0.400 0.651 0.070 540
-0.396 0.644 0.069 477
-0.396 0.643 0.067 439
-0.396 0.643 0.065 374
-0.400 0.650 0.062 406
-1.187 1.931 1.769 3372
-1.189 1.935 1.763 6745
-1.192 1.939 1.756 6745
-1.194 1.943 1.750 6285
-1.194 1.942 1.738 5964
-1.247 2.028 1.801 4856
-1.249 2.032 1.794 7370
-1.252 2.036 1.787 7370
-1.254 2.040 1.781 7684
-1.253 2.039 1.769 8031
-1.249 2.032 1.753 6161
-1.238 2.013 1.729 4926
-1.278 2.079 1.771 7797
-1.280 2.083 1.764 11129
-1.283 2.087 1.757 11750
-1.285 2.091 1.750 11999
-1.284 2.089 1.739 11667
-1.290 2.099 1.736 9586
-1.296 2.108 1.733 8542
-1.302 2.118 1.731 7277
-1.304 2.122 1.723 6094
-1.307 2.126 1.716 5616
-1.306 2.124 1.705 5161
-1.319 2.145 1.711 5231
-1.328 2.160 1.712 6078
-1.334 2.170 1.709 5977
-1.336 2.174 1.701 5981
-1.339 2.178 1.694 4544
-1.362 2.216 1.712 3662
-1.396 2.272 1.742 4613
-1.399 2.276 1.734 6002
-1.401 2.280 1.726 5902
-1.397 2.272 1.711 5919
-1.399 2.276 1.703 6044
-1.405 2.285 1.699 5217
-1.429 2.324 1.716 4635
-1.438 2.340 1.716 5523
-1.441 2.344 1.708 5638
-1.447 2.353 1.704 4367
-1.478 2.404 1.728 4298
-1.480 2.408 1.720 4679
-1.483 2.412 1.712 5060
-1.489 2.422 1.707 4110
-1.506 2.449 1.715 3620
-1.512 2.459 1.710 4356
-1.514 2.463 1.702 4015
-1.564 2.544 1.743 3826
-1.570 2.554 1.738 4866
-1.572 2.558 1.730 5000
-1.575 2.561 1.721 4055
-1.573 2.559 1.709 4692
-1.557 2.534 1.682 5907
-1.560 2.537 1.673 6359
-1.603 2.607 1.705 6342
-1.609 2.617 1.700 7058
-1.615 2.627 1.694 6890
-1.621 2.637 1.689 8309
-1.623 2.640 1.680 7994
-1.640 2.668 1.685 6532
-1.643 2.672 1.677 6663
-1.664 2.706 1.685 9582
-1.670 2.716 1.679 11860
-1.672 2.720 1.670 10143
-1.689 2.748 1.675 8310
-1.707 2.776 1.679 9194
-1.716 2.792 1.677 10022
-1.719 2.796 1.667 7154
-1.751 2.849 1.685 4210
-1.761 2.865 1.682 4924
-1.763 2.868 1.672 5302
-1.758 2.860 1.656 5453
-1.757 2.858 1.643 5434
-1.823 2.966 1.689 5829
-1.825 2.970 1.679 7629
-1.828 2.973 1.669 8653
-1.830 2.977 1.659 6569
-1.848 3.006 1.661 3899
-1.934 3.146 1.721 4620
-1.932 3.143 1.707 4221
-1.954 3.178 1.712 4407
-1.960 3.188 1.704 6000
-1.962 3.192 1.693 6915
-1.961 3.190 1.680 6789
-1.971 3.206 1.675 6646
-1.977 3.216 1.667 8488
-1.979 3.220 1.656 6466
-2.020 3.286 1.675 4338
-2.022 3.290 1.664 4779
-2.025 3.294 1.653 3439
-2.073 3.373 1.676 2907
-2.130 3.465 1.705 3335
-2.132 3.469 1.693 6046
-2.135 3.472 1.682 6636
-2.133 3.470 1.667 4566
-2.128 3.461 1.650 4457
-2.153 3.503 1.655 6355
-2.159 3.513 1.646 7298
-2.162 3.516 1.634 5578
-2.160 3.514 1.619 4377
-2.201 3.581 1.634 3993
-2.317 3.769 1.699 5315
-2.319 3.773 1.686 6077
-2.325 3.783 1.676 4729
-2.359 3.838 1.684 4867
-2.365 3.848 1.674 4519
-2.364 3.845 1.658 3129
-2.449 3.983 1.698 3732
-2.447 3.981 1.682 3985
-2.497 4.061 1.699 5521
-2.495 4.059 1.682 6178
-2.493 4.056 1.666 4674
-2.488 4.047 1.648 2993
-2.585 4.205 1.691 2525
-2.595 4.222 1.682 2574
-2.625 4.271 1.684 3182
-2.644 4.300 1.679 3832
-2.559 4.162 1.613 3398
-2.561 4.166 1.599 3053
-2.722 4.428 1.676 3037
-2.728 4.438 1.663 3344
-2.770 4.507 1.670 3618
-2.777 4.517 1.657 3409
-2.827 4.599 1.668 4985
-2.829 4.602 1.652 3973
-2.903 4.723 1.675 2938
-2.962 4.818 1.689 4877
-2.964 4.822 1.672 6391
-3.002 4.884 1.674 6151
-3.005 4.888 1.658 5722
-2.979 4.846 1.627 5543
-2.973 4.837 1.607 3547
-3.016 4.906 1.610 2975
-3.174 5.164 1.669 4369
-3.177 5.168 1.652 3643
-3.171 5.159 1.631 3037
-3.250 5.287 1.649 2505
-3.313 5.389 1.659 3396
-3.396 5.524 1.677 2546
-3.386 5.508 1.653 2327
-3.432 5.584 1.654 2368
-3.431 5.581 1.633 3240
-3.417 5.558 1.607 2376
-3.609 5.871 1.670 1989
-3.620 5.888 1.653 3206
-3.634 5.912 1.638 3119
-3.754 6.107 1.666 1953
-3.886 6.322 1.698 2135
-3.888 6.326 1.676 2431
-4.053 6.594 1.719 1590
-4.060 6.604 1.698 1261
-4.009 6.522 1.655 1727
-3.999 6.506 1.628 1792
-4.103 6.675 1.644 1437
-4.464 7.262 1.751 1691
-4.593 7.471 1.772 1727
-4.644 7.555 1.763 1787
-4.740 7.712 1.770 2175
-4.747 7.722 1.745 2408
-4.749 7.726 1.719 2633
-4.756 7.737 1.694 2617
-4.762 7.747 1.669 3101
-4.761 7.744 1.641 3141
-4.755 7.735 1.612 2339
-4.761 7.745 1.587 1819
-4.775 7.769 1.564 1530
-4.790 7.792 1.541 1071
-4.780 7.775 1.511 828
-4.958 8.066 1.535 620
-4.960 8.069 1.507 588
-4.962 8.073 1.480 512
-4.964 8.076 1.452 354
-0.521 0.847 0.207 302
-0.521 0.847 0.204 384
-0.521 0.848 0.201 490
-0.521 0.848 0.199 655
-0.525 0.855 0.196 765
-0.525 0.855 0.194 737
-0.525 0.855 0.191 676
-0.526 0.855 0.188 618
-0.526 0.855 0.185 483
-0.522 0.848 0.182 379
-0.522 0.849 0.179 299
-0.397 0.645 0.087 337
-0.401 0.652 0.085 418
-0.401 0.652 0.082 458
-0.400 0.652 0.080 513
-0.400 0.651 0.078 547
-0.396 0.644 0.077 574
-0.396 0.644 0.075 617
-0.400 0.651 0.072 602
-0.400 0.651 0.070 543
-0.396 0.644 0.069 482
-0.396 0.644 0.067 446
-0.396 0.643 0.065 379
-0.400 0.650 0.062 412
-1.186 1.931 1.769 3370
-1.189 1.936 1.763 6740
-1.191 1.940 1.756 6740
-1.194 1.944 1.750 6252
-1.193 1.942 1.738 5899
-1.246 2.028 1.801 4872
-1.248 2.033 1.794 7385
-1.251 2.037 1.787 7385
-1.253 2.041 1.781 7691
-1.252 2.039 1.769 8024
-1.248 2.032 1.753 6097
-1.237 2.014 1.729 4811
-1.277 2.079 1.771 7754
-1.279 2.083 1.764 11044
-1.282 2.087 1.757 11668
-1.284 2.091 1.750 11930
-1.283 2.090 1.739 11593
-1.289 2.099 1.736 9549
-1.295 2.109 1.733 8506
-1.301 2.118 1.731 7274
-1.303 2.122 1.723 6122
-1.306 2.126 1.716 5563
-1.308 2.130 1.709 5003
-1.318 2.146 1.711 5230
-1.327 2.161 1.712 6150
-1.333 2.170 1.709 6036
-1.335 2.174 1.701 6044
-1.338 2.178 1.694 4552
-1.361 2.217 1.712 3625
-1.395 2.272 1.742 4552
-1.398 2.276 1.734 5912
-1.400 2.280 1.726 5713
-1.396 2.273 1.711 5619
-1.402 2.282 1.707 5760
-1.404 2.286 1.699 5035
-1.428 2.325 1.716 4704
-1.441 2.346 1.720 5515
-1.443 2.350 1.712 5611
-1.446 2.354 1.704 4328
-1.477 2.405 1.728 4119
-1.479 2.409 1.720 4531
-1.482 2.413 1.712 4943
-1.488 2.422 1.707 4052
-1.504 2.450 1.715 3599
-1.510 2.460 1.710 4300
-1.509 2.458 1.698 3900
-1.563 2.544 1.743 3660
-1.569 2.554 1.738 4733
-1.571 2.558 1.730 4944
-1.570 2.556 1.717 4068
-1.572 2.560 1.709 4736
-1.556 2.534 1.682 5771
-1.559 2.538 1.673 6212
-1.601 2.608 1.705 6366
-1.607 2.618 1.700 7044
-1.614 2.627 1.694 6971
-1.620 2.637 1.689 8425
-1.622 2.641 1.680 8063
-1.639 2.669 1.685 6508
-1.641 2.673 1.677 6678
-1.662 2.707 1.685 9614
-1.668 2.717 1.679 11781
-1.671 2.721 1.670 10047
-1.692 2.755 1.678 8245
-1.705 2.777 1.679 9271
-1.715 2.793 1.677 10035
-1.717 2.797 1.667 7153
-1.750 2.849 1.685 4149
-1.760 2.865 1.682 4962
-1.766 2.875 1.676 5299
-1.757 2.861 1.656 5408
-1.755 2.858 1.643 5376
-1.822 2.967 1.689 5875
-1.824 2.970 1.679 7792
-1.827 2.974 1.669 8849
-1.829 2.978 1.659 6736
-1.831 2.982 1.649 4038
-1.932 3.146 1.721 4621
-1.931 3.144 1.707 4305
-1.952 3.179 1.712 4201
-1.958 3.189 1.704 5834
-1.961 3.193 1.693 6841
-1.959 3.191 1.680 6887
-1.969 3.207 1.675 6784
-1.976 3.217 1.667 8569
-1.978 3.221 1.656 6587
-2.019 3.287 1.675 4183
-2.021 3.291 1.664 4524
-2.023 3.295 1.653 3159
-2.122 3.455 1.714 2685
-2.128 3.466 1.705 3346
-2.131 3.469 1.693 6086
-2.129 3.467 1.679 6698
-2.131 3.471 1.667 4700
-2.126 3.462 1.650 4606
-2.152 3.504 1.655 6360
-2.162 3.520 1.648 7391
-2.160 3.517 1.634 5714
-2.158 3.515 1.619 4506
-2.200 3.582 1.634 3852
-2.315 3.770 1.699 5267
-2.314 3.767 1.684 6154
-2.324 3.784 1.676 4698
-2.357 3.839 1.684 4919
-2.364 3.849 1.674 4584
-2.362 3.846 1.658 3015
-2.447 3.984 1.698 3741
-2.445 3.982 1.682 3917
-2.495 4.063 1.699 5518
-2.493 4.060 1.682 6148
-2.492 4.057 1.666 4600
-2.490 4.055 1.650 2859
-2.544 4.142 1.667 3869
-2.550 4.152 1.656 4124
-2.560 4.169 1.646 3722
-2.642 4.302 1.679 3898
-2.707 4.409 1.701 2931
-2.714 4.419 1.689 3022
-2.720 4.429 1.676 3061
-2.730 4.446 1.665 3180
-2.768 4.508 1.670 3704
-2.775 4.518 1.657 3538
-2.825 4.600 1.668 4988
-2.827 4.604 1.652 3981
-2.901 4.724 1.675 2953
-2.960 4.819 1.689 4953
-2.962 4.823 1.672 6311
-3.000 4.885 1.674 6071
-3.003 4.889 1.658 5724
-2.977 4.847 1.627 5707
-2.971 4.838 1.607 3785
-3.013 4.907 1.610 3060
-3.172 5.166 1.669 4392
-3.175 5.169 1.652 3597
-3.169 5.160 1.631 2935
-3.247 5.288 1.649 2495
-3.314 5.397 1.661 3205
-3.389 5.519 1.675 2421
-3.379 5.503 1.651 2149
-3.398 5.533 1.640 2263
-3.428 5.583 1.633 3020
-3.414 5.560 1.607 2339
-3.603 5.866 1.668 2056
-3.613 5.883 1.651 3263
-3.631 5.913 1.638 2991
-3.743 6.095 1.663 1961
-3.883 6.323 1.698 2073
-3.886 6.327 1.676 2290
-4.050 6.595 1.719 1618
-4.057 6.606 1.698 1333
-4.006 6.524 1.655 1659
-4.094 6.666 1.665 1813
-4.104 6.683 1.645 1540
-4.461 7.264 1.751 1661
-4.589 7.473 1.772 1633
-4.641 7.557 1.763 1706
-4.737 7.714 1.770 2172
-4.744 7.724 1.745 2418
-4.746 7.728 1.719 2662
-4.752 7.739 1.694 2647
-4.759 7.749 1.669 3101
-4.757 7.746 1.641 3148
-4.747 7.730 1.611 2393
-4.758 7.747 1.587 1882
-4.772 7.771 1.564 1524
-4.786 7.794 1.541 1054
-4.776 7.778 1.511 813
-4.955 8.068 1.535 631
-4.957 8.071 1.507 602
-4.959 8.075 1.480 526
-4.961 8.078 1.452 360
-0.520 0.847 0.207 289
-0.521 0.848 0.204 358
-0.521 0.848 0.201 444
-0.521 0.848 0.199 559
-0.525 0.855 0.196 647
-0.525 0.855 0.194 642
-0.525 0.855 0.191 624
-0.525 0.855 0.188 618
-0.525 0.855 0.185 522
-0.521 0.849 0.182 424
-0.521 0.849 0.179 343
-0.396 0.645 0.087 320
-0.400 0.652 0.085 397
-0.400 0.652 0.082 439
-0.400 0.652 0.080 502
-0.400 0.652 0.078 540
-0.396 0.645 0.077 563
-0.396 0.645 0.075 598
-0.400 0.651 0.072 584
-0.400 0.651 0.070 529
-0.395 0.644 0.069 476
-0.395 0.644 0.067 448
-0.395 0.644 0.065 380
-0.399 0.650 0.062 408
-1.185 1.932 1.769 3419
-1.188 1.936 1.763 6838
-1.190 1.940 1.756 6838
-1.193 1.944 1.750 6279
-1.192 1.943 1.738 5837
-1.245 2.029 1.801 4890
-1.247 2.033 1.794 7427
-1.250 2.037 1.787 7427
-1.252 2.041 1.781 7733
-1.251 2.040 1.769 8042
-1.247 2.033 1.753 6021
-1.236 2.015 1.729 4636
-1.276 2.080 1.771 7779
-1.278 2.084 1.764 11039
-1.284 2.094 1.761 11645
-1.283 2.092 1.750 11873
-1.282 2.090 1.739 11521
-1.288 2.100 1.736 9513
-1.294 2.110 1.733 8458
-1.300 2.119 1.731 7243
-1.302 2.123 1.723 6112
-1.305 2.127 1.716 5492
-1.307 2.131 1.709 4871
-1.317 2.146 1.711 5254
-1.326 2.161 1.712 6268
-1.332 2.171 1.709 6144
-1.334 2.175 1.701 6152
-1.337 2.179 1.694 4608
-1.360 2.217 1.712 3648
-1.394 2.273 1.742 4563
-1.397 2.277 1.734 5903
-1.399 2.281 1.726 5585
-1.394 2.273 1.711 5345
-1.400 2.283 1.707 5544
-1.403 2.287 1.699 4957
-1.427 2.326 1.716 4730
-1.440 2.347 1.720 5503
-1.442 2.351 1.712 5613
-1.445 2.355 1.704 4312
-1.472 2.400 1.724 4022
-1.478 2.409 1.720 4477
-1.480 2.413 1.712 4947
-1.486 2.423 1.707 4074
-1.503 2.451 1.715 3514
-1.509 2.460 1.710 4186
-1.508 2.458 1.698 3763
-1.561 2.545 1.743 3548
-1.567 2.555 1.738 4585
-1.570 2.559 1.730 4822
-1.569 2.557 1.717 3968
-1.575 2.567 1.712 4699
-1.555 2.535 1.682 5653
-1.557 2.539 1.673 6149
-1.600 2.608 1.705 6553
-1.606 2.618 1.700 7227
-1.612 2.628 1.694 7149
-1.618 2.638 1.689 8686
-1.621 2.642 1.680 8353
-1.634 2.664 1.682 6603
-1.640 2.674 1.677 6784
-1.661 2.708 1.685 9444
-1.667 2.718 1.679 11476
-1.669 2.721 1.670 9862
-1.687 2.750 1.675 8096
-1.704 2.778 1.679 8956
-1.714 2.794 1.677 9661
-1.716 2.797 1.667 6896
-1.752 2.856 1.688 4031
-1.758 2.866 1.682 4995
-1.761 2.870 1.672 5345
-1.755 2.862 1.656 5375
-1.758 2.865 1.646 5240
-1.820 2.967 1.689 5880
-1.823 2.971 1.679 8159
-1.825 2.975 1.669 9272
-1.827 2.979 1.659 6972
-1.830 2.983 1.649 4001
-1.931 3.147 1.721 4618
-1.926 3.139 1.704 4380
-1.951 3.180 1.712 4090
-1.957 3.190 1.704 5826
-1.959 3.194 1.693 6875
-1.958 3.192 1.680 6981
-1.968 3.208 1.675 6746
-1.974 3.218 1.667 8336
-1.973 3.215 1.653 6467
-2.017 3.288 1.675 4098
-2.019 3.292 1.664 4521
-2.064 3.365 1.685 3148
-2.120 3.456 1.714 2714
-2.127 3.467 1.705 3360
-2.129 3.470 1.693 6058
-2.131 3.474 1.682 6617
-2.130 3.472 1.667 4534
-2.124 3.463 1.650 4513
-2.150 3.505 1.655 6235
-2.160 3.521 1.648 7268
-2.158 3.518 1.634 5562
-2.157 3.516 1.619 4397
-2.202 3.589 1.637 3786
-2.313 3.771 1.699 5416
-2.312 3.769 1.684 6322
-2.322 3.785 1.676 5000
-2.356 3.840 1.684 5065
-2.362 3.850 1.674 4677
-2.360 3.848 1.658 2857
-2.445 3.986 1.698 3710
-2.439 3.977 1.680 3792
-2.493 4.064 1.699 5537
-2.495 4.068 1.685 6139
-2.490 4.059 1.666 4474
-2.488 4.056 1.650 2771
-2.534 4.130 1.663 2509
-2.591 4.224 1.682 2529
-2.633 4.293 1.691 3366
-2.636 4.296 1.677 4321
-2.642 4.307 1.664 3392
-2.708 4.414 1.686 3146
-2.718 4.431 1.676 3315
-2.728 4.447 1.665 2770
-2.766 4.509 1.670 3591
-2.773 4.520 1.657 3629
-2.823 4.601 1.668 4862
-2.829 4.612 1.654 3946
-2.899 4.726 1.675 2957
-2.957 4.821 1.689 4923
-2.960 4.824 1.672 6019
-2.998 4.887 1.674 6398
-3.000 4.891 1.658 6009
-2.974 4.849 1.627 5901
-2.969 4.839 1.607 3892
-3.011 4.908 1.610 3036
-3.170 5.167 1.669 4356
-3.168 5.164 1.650 3560
-3.166 5.161 1.631 3054
-3.241 5.283 1.647 2536
-3.308 5.392 1.659 3136
-3.386 5.520 1.675 2430
-3.377 5.504 1.651 2275
-3.395 5.534 1.640 2310
-3.426 5.584 1.633 2889
-3.412 5.562 1.607 2124
-3.600 5.868 1.668 2127
-3.610 5.885 1.651 3338
-3.629 5.915 1.638 3147
-3.740 6.097 1.663 1975
-3.880 6.325 1.698 2038
-3.883 6.329 1.676 2174
-4.047 6.597 1.719 1681
-4.054 6.608 1.698 1405
-4.003 6.526 1.655 1547
-4.095 6.675 1.666 1833
-4.097 6.679 1.644 1492
-4.457 7.266 1.751 1738
-4.504 7.343 1.742 1669
-4.511 7.353 1.719 1755
-4.733 7.716 1.770 2211
-4.740 7.727 1.745 2444
-4.738 7.724 1.717 2687
-4.749 7.741 1.694 2672
-4.755 7.752 1.669 3109
-4.753 7.749 1.641 3176
-4.748 7.739 1.612 2466
-4.750 7.743 1.586 1943
-4.768 7.773 1.564 1480
-4.770 7.776 1.538 1012
-4.768 7.773 1.510 804
-4.951 8.070 1.535 646
-4.953 8.074 1.507 628
-4.955 8.077 1.480 562
-4.957 8.080 1.452 385
-0.520 0.848 0.207 282
-0.524 0.855 0.205 363
-0.520 0.848 0.201 477
-0.524 0.855 0.199 646
-0.525 0.855 0.196 757
-0.525 0.855 0.194 739
-0.525 0.855 0.191 694
-0.525 0.855 0.188 632
-0.525 0.856 0.185 487
-0.521 0.849 0.182 376
-0.525 0.856 0.180 297
-0.396 0.646 0.087 315
-0.400 0.652 0.085 386
-0.400 0.652 0.082 426
-0.400 0.652 0.080 487
-0.400 0.652 0.078 523
-0.396 0.645 0.077 550
-0.395 0.645 0.075 591
-0.400 0.651 0.072 577
-0.399 0.651 0.070 523
-0.395 0.644 0.069 467
-0.395 0.644 0.067 434
-0.395 0.644 0.065 374
-0.399 0.650 0.062 411
-1.188 1.938 1.774 3468
-1.190 1.942 1.767 6936
-1.193 1.946 1.761 6936
-1.192 1.945 1.750 6034
-1.191 1.943 1.738 5222
-1.247 2.035 1.806 4808
-1.247 2.034 1.794 7024
-1.249 2.038 1.787 7024
-1.252 2.042 1.781 7043
-1.254 2.046 1.774 7062
-1.267 2.066 1.780 5021
-1.286 2.098 1.796 4224
-1.279 2.086 1.775 7002
-1.281 2.090 1.768 9880
-1.284 2.094 1.761 10459
-1.283 2.092 1.750 10491
-1.282 2.091 1.739 10127
-1.288 2.100 1.736 8397
-1.293 2.110 1.733 7214
-1.296 2.114 1.726 6264
-1.302 2.123 1.723 5457
-1.308 2.133 1.721 4447
-1.331 2.171 1.739 3627
-1.330 2.169 1.728 5231
-1.325 2.162 1.712 7112
-1.331 2.172 1.709 7069
-1.337 2.181 1.706 7117
-1.347 2.196 1.707 4943
-1.356 2.212 1.708 3648
-1.401 2.285 1.750 4327
-1.400 2.283 1.738 5278
-1.402 2.287 1.730 4402
-1.408 2.297 1.727 3563
-1.407 2.295 1.715 4455
-1.409 2.299 1.707 5396
-1.405 2.291 1.692 5014
-1.425 2.324 1.704 4303
-1.434 2.340 1.704 4202
-1.433 2.338 1.692 3256
-1.428 2.330 1.676 2366
-1.477 2.410 1.720 2810
-1.480 2.414 1.712 3284
-1.482 2.418 1.703 2939
-1.492 2.433 1.703 2905
-1.501 2.449 1.702 3699
-1.504 2.453 1.694 3730
-1.506 2.457 1.686 3761
-1.556 2.538 1.727 3772
-1.554 2.536 1.715 4406
-1.546 2.522 1.695 4410
-1.570 2.561 1.709 4597
-1.595 2.601 1.722 5990
-1.597 2.605 1.713 6468
-1.603 2.615 1.708 7051
-1.609 2.625 1.703 7762
-1.615 2.635 1.698 7948
-1.618 2.639 1.689 9582
-1.620 2.642 1.680 9049
-1.619 2.640 1.668 6883
-1.639 2.674 1.677 7660
-1.660 2.708 1.685 8755
-1.666 2.718 1.679 9485
-1.669 2.722 1.670 8293
-1.678 2.738 1.668 7198
-1.703 2.778 1.679 7484
-1.713 2.794 1.677 8198
-1.712 2.792 1.664 6179
-1.759 2.869 1.695 3749
-1.761 2.873 1.685 5406
-1.767 2.883 1.679 5524
-1.770 2.887 1.669 4857
-1.757 2.866 1.646 4702
-1.820 2.968 1.689 6145
-1.822 2.972 1.679 9066
-1.824 2.976 1.669 10169
-1.827 2.979 1.659 7785
-1.844 3.008 1.661 4951
-1.918 3.129 1.711 4569
-1.917 3.127 1.698 4971
-1.946 3.174 1.709 3687
-1.948 3.178 1.698 5670
-1.951 3.182 1.687 6883
-1.957 3.192 1.680 6482
-1.963 3.202 1.672 5575
-1.962 3.200 1.658 6710
-1.960 3.197 1.644 5899
-2.012 3.282 1.672 3489
-2.018 3.292 1.664 4122
-2.052 3.346 1.676 4466
-2.054 3.350 1.665 4588
-2.060 3.360 1.656 3160
-2.136 3.484 1.699 4958
-2.134 3.481 1.685 4621
-2.113 3.447 1.656 3958
-2.119 3.457 1.647 5383
-2.149 3.505 1.655 6212
-2.159 3.522 1.648 7372
-2.161 3.525 1.637 5685
-2.160 3.523 1.622 4433
-2.306 3.761 1.709 3640
-2.312 3.772 1.699 4832
-2.315 3.776 1.686 6258
-2.321 3.786 1.676 6041
-2.362 3.853 1.689 5141
-2.365 3.857 1.676 4551
-2.449 3.995 1.717 3374
-2.444 3.986 1.698 3239
-2.478 4.041 1.705 3636
-2.488 4.058 1.696 5147
-2.494 4.068 1.685 5412
-2.496 4.072 1.671 3465
-2.526 4.121 1.674 2651
-2.540 4.144 1.667 3126
-2.551 4.161 1.658 2399
-2.561 4.177 1.649 2662
-2.563 4.181 1.635 2562
-2.645 4.314 1.667 2059
-2.702 4.408 1.684 2370
-2.701 4.405 1.667 2414
-2.775 4.526 1.692 2920
-2.773 4.523 1.675 3657
-2.779 4.533 1.662 4429
-2.789 4.550 1.650 4633
-2.804 4.573 1.642 3844
-2.898 4.727 1.675 3074
-2.952 4.815 1.686 4436
-2.966 4.838 1.676 5499
-2.980 4.862 1.666 5958
-2.991 4.879 1.654 5995
-2.981 4.863 1.631 5813
-2.983 4.866 1.615 3846
-3.122 5.092 1.665 3744
-3.128 5.103 1.650 4110
-3.167 5.165 1.650 3441
-3.161 5.156 1.629 3287
-3.223 5.258 1.639 2380
-3.226 5.262 1.622 2628
-3.373 5.502 1.670 2863
-3.371 5.499 1.649 2614
-3.385 5.522 1.636 2317
-3.484 5.684 1.660 2469
-3.487 5.688 1.641 1864
-3.586 5.849 1.663 2138
-3.617 5.899 1.655 3274
-3.627 5.916 1.638 3405
-3.633 5.927 1.620 2222
-3.818 6.227 1.673 2285
-3.824 6.238 1.654 2163
-4.045 6.598 1.719 2157
-4.056 6.616 1.699 2028
-4.066 6.633 1.680 1393
-4.089 6.670 1.665 1810
-4.099 6.687 1.645 1555
-4.455 7.267 1.751 1851
-4.502 7.344 1.742 2132
-4.509 7.355 1.719 2414
-4.511 7.359 1.694 2410
-4.729 7.715 1.742 2714
-4.732 7.719 1.716 3237
-4.738 7.729 1.691 3447
-4.745 7.740 1.666 3310
-4.747 7.743 1.640 3150
-4.745 7.740 1.612 2841
-4.747 7.744 1.586 2419
-4.750 7.748 1.559 1687
-4.748 7.744 1.532 1288
-4.750 7.748 1.505 1004
-4.948 8.072 1.535 872
-4.950 8.075 1.507 905
-4.953 8.079 1.480 909
-4.955 8.082 1.452 620
-4.957 8.085 1.425 266
-0.528 0.862 0.202 272
-0.524 0.855 0.199 336
-0.524 0.855 0.196 373
-0.528 0.862 0.194 389
-0.529 0.862 0.191 400
-0.524 0.856 0.188 376
-0.529 0.862 0.186 301
-0.400 0.652 0.085 251
-0.400 0.652 0.082 281
-0.400 0.652 0.080 325
-0.400 0.652 0.078 353
-0.400 0.652 0.076 361
-0.399 0.652 0.074 379
-0.399 0.651 0.072 380
-0.399 0.651 0.070 355
-0.399 0.651 0.068 324
-0.399 0.651 0.066 303
-0.399 0.651 0.064 263
-0.399 0.650 0.062 296
-1.178 1.944 1.774 3352
-1.180 1.948 1.767 6704
-1.183 1.952 1.761 6704
-1.182 1.951 1.750 5792
-1.181 1.949 1.738 4970
-1.237 2.041 1.806 4752
-1.236 2.040 1.794 6838
-1.239 2.044 1.787 6838
-1.241 2.048 1.781 6809
-1.244 2.052 1.774 6779
-1.256 2.073 1.780 4762
-1.276 2.105 1.796 4067
-1.268 2.092 1.775 6649
-1.270 2.096 1.768 9361
-1.273 2.100 1.761 9926
-1.272 2.099 1.750 9952
-1.271 2.097 1.739 9599
-1.277 2.107 1.736 7990
-1.283 2.117 1.733 6879
-1.285 2.120 1.726 5982
-1.291 2.130 1.723 5227
-1.297 2.140 1.721 4287
-1.320 2.178 1.739 3496
-1.319 2.176 1.728 5200
-1.314 2.169 1.712 7127
-1.320 2.178 1.709 7064
-1.326 2.188 1.706 7122
-1.339 2.209 1.711 4963
-1.345 2.219 1.708 3571
-1.389 2.292 1.750 4203
-1.388 2.290 1.738 5069
-1.394 2.300 1.735 4194
-1.396 2.304 1.727 3347
-1.399 2.308 1.719 4324
-1.397 2.306 1.707 5412
-1.393 2.298 1.692 5115
-1.409 2.325 1.700 4214
-1.415 2.335 1.696 3999
-1.417 2.339 1.688 3195
-1.416 2.337 1.676 2433
-1.465 2.417 1.720 2676
-1.467 2.421 1.712 3156
-1.470 2.425 1.703 2844
-1.479 2.441 1.703 2759
-1.489 2.457 1.702 3448
-1.491 2.461 1.694 3497
-1.493 2.464 1.686 3547
-1.543 2.546 1.727 3645
-1.545 2.550 1.718 4202
-1.537 2.536 1.699 4198
-1.557 2.569 1.709 4494
-1.581 2.609 1.722 5879
-1.587 2.619 1.717 6375
-1.590 2.623 1.708 6951
-1.596 2.633 1.703 7638
-1.602 2.643 1.698 7828
-1.604 2.647 1.689 9405
-1.606 2.651 1.680 8889
-1.605 2.648 1.668 6801
-1.626 2.683 1.677 7620
-1.646 2.717 1.685 8585
-1.652 2.727 1.679 9171
-1.655 2.730 1.670 7971
-1.664 2.746 1.668 7016
-1.689 2.787 1.679 7313
-1.699 2.803 1.677 7966
-1.697 2.801 1.664 6055
-1.744 2.878 1.695 3704
-1.746 2.882 1.685 5497
-1.752 2.892 1.679 5673
-1.758 2.902 1.673 4918
-1.742 2.875 1.646 4455
-1.804 2.977 1.689 6052
-1.807 2.981 1.679 8890
-1.809 2.985 1.669 9992
-1.811 2.989 1.659 7651
-1.829 3.017 1.661 4848
-1.902 3.139 1.711 4686
-1.901 3.137 1.698 5176
-1.930 3.184 1.709 3762
-1.932 3.188 1.698 5681
-1.934 3.192 1.687 6936
-1.941 3.202 1.680 6417
-1.943 3.206 1.669 5410
-1.945 3.210 1.658 6522
-1.944 3.207 1.644 5838
-1.999 3.299 1.675 3494
-2.001 3.303 1.664 4106
-2.034 3.357 1.676 4446
-2.037 3.361 1.665 4682
-2.043 3.371 1.656 3311
-2.118 3.495 1.699 4771
-2.116 3.492 1.685 4377
-2.096 3.458 1.656 3974
-2.102 3.468 1.647 5263
-2.135 3.523 1.658 6080
-2.145 3.539 1.651 7214
-2.147 3.543 1.639 5600
-2.142 3.534 1.622 4398
-2.290 3.780 1.712 3518
-2.297 3.790 1.702 4586
-2.299 3.794 1.689 6044
-2.301 3.798 1.676 6057
-2.342 3.865 1.689 4938
-2.345 3.869 1.676 4391
-2.429 4.008 1.717 3286
-2.423 3.999 1.698 3102
-2.457 4.054 1.705 3672
-2.467 4.071 1.696 5120
-2.473 4.081 1.685 5237
-2.475 4.085 1.671 3310
-2.505 4.134 1.674 2666
-2.519 4.157 1.667 3034
-2.525 4.167 1.656 2452
-2.543 4.197 1.651 2622
-2.542 4.194 1.635 2517
-2.622 4.327 1.667 1955
-2.676 4.416 1.682 2103
-2.674 4.413 1.665 2311
-2.751 4.540 1.692 2998
-2.750 4.537 1.675 3657
-2.756 4.548 1.662 4546
-2.766 4.564 1.650 4853
-2.780 4.588 1.642 3812
-2.873 4.741 1.675 3064
-2.927 4.830 1.686 4269
-2.945 4.860 1.678 5040
-2.959 4.884 1.668 5669
-2.966 4.894 1.654 5687
-2.956 4.878 1.631 5493
-2.962 4.888 1.617 3738
-3.096 5.108 1.665 3776
-3.102 5.119 1.650 4010
-3.140 5.181 1.650 3442
-3.134 5.172 1.629 3342
-3.196 5.274 1.639 2349
-3.346 5.522 1.690 2595
-3.344 5.519 1.670 2877
-3.343 5.516 1.649 2497
-3.353 5.533 1.634 2264
-3.403 5.616 1.637 2215
-3.553 5.864 1.683 1978
-3.556 5.868 1.663 2208
-3.582 5.911 1.653 3020
-3.596 5.935 1.638 3205
-3.599 5.938 1.618 2232
-3.786 6.247 1.673 2231
-3.792 6.257 1.654 2137
-4.011 6.619 1.719 2121
-4.022 6.636 1.699 2038
-4.032 6.654 1.680 1402
-4.054 6.691 1.665 1794
-4.069 6.714 1.647 1549
-4.418 7.290 1.751 1830
-4.464 7.367 1.742 2127
-4.471 7.378 1.719 2415
-4.477 7.388 1.695 2382
-4.690 7.739 1.742 2694
-4.692 7.743 1.716 3252
-4.699 7.753 1.691 3448
-4.705 7.764 1.666 3260
-4.707 7.768 1.640 3084
-4.705 7.765 1.612 2803
-4.708 7.768 1.586 2412
-4.710 7.772 1.559 1705
-4.708 7.769 1.532 1311
-4.710 7.772 1.505 1015
-4.907 8.097 1.535 869
-4.909 8.101 1.507 909
-4.911 8.104 1.480 912
-4.913 8.107 1.452 608
-0.520 0.858 0.199 262
-0.524 0.865 0.197 306
-0.524 0.865 0.194 331
-0.524 0.865 0.191 327
-0.520 0.858 0.188 319
-0.524 0.865 0.186 270
-0.396 0.654 0.080 287
-0.396 0.654 0.078 318
-0.396 0.654 0.076 334
-0.396 0.654 0.074 354
-0.396 0.653 0.072 354
-0.396 0.653 0.070 331
-0.396 0.653 0.068 301
-0.396 0.653 0.066 279
-0.395 0.653 0.062 262
-1.177 1.945 1.774 3373
-1.179 1.949 1.767 6747
-1.182 1.953 1.761 6747
-1.181 1.951 1.750 5773
-1.180 1.950 1.738 4895
-1.236 2.042 1.806 4846
-1.235 2.041 1.794 6967
-1.237 2.045 1.787 6967
-1.240 2.049 1.781 6917
-1.242 2.053 1.774 6867
-1.255 2.074 1.780 4810
-1.274 2.106 1.796 4086
-1.266 2.093 1.775 6562
-1.269 2.097 1.768 9179
-1.271 2.101 1.761 9719
-1.274 2.105 1.754 9707
-1.269 2.098 1.739 9328
-1.275 2.108 1.736 7831
-1.281 2.117 1.733 6767
-1.284 2.121 1.726 5897
-1.289 2.131 1.723 5156
-1.295 2.141 1.721 4229
-1.318 2.179 1.739 3441
-1.317 2.177 1.728 5238
-1.316 2.175 1.716 7218
-1.322 2.185 1.713 7135
-1.328 2.195 1.710 7204
-1.337 2.210 1.711 5058
-1.347 2.226 1.712 3583
-1.391 2.299 1.754 4168
-1.386 2.291 1.738 4975
-1.392 2.301 1.735 4098
-1.395 2.305 1.727 3236
-1.397 2.309 1.719 4294
-1.396 2.307 1.707 5498
-1.391 2.299 1.692 5243
-1.404 2.321 1.696 4248
-1.413 2.336 1.696 3985
-1.412 2.334 1.684 3197
-1.415 2.338 1.676 2413
-1.467 2.424 1.724 2561
-1.466 2.422 1.712 2976
-1.468 2.426 1.703 2679
-1.477 2.442 1.703 2693
-1.487 2.458 1.702 3426
-1.489 2.462 1.694 3525
-1.492 2.466 1.686 3624
-1.541 2.547 1.727 3581
-1.540 2.545 1.715 4162
-1.535 2.537 1.699 4167
-1.555 2.570 1.709 4491
-1.579 2.610 1.722 5905
-1.585 2.620 1.717 6438
-1.588 2.624 1.708 6949
-1.597 2.640 1.707 7583
-1.600 2.644 1.698 7764
-1.602 2.648 1.689 9268
-1.604 2.652 1.680 8737
-1.603 2.650 1.668 6711
-1.624 2.684 1.677 7584
-1.644 2.718 1.685 8573
-1.650 2.728 1.679 9047
-1.653 2.732 1.670 7878
-1.662 2.748 1.668 6960
-1.687 2.788 1.679 7251
-1.693 2.798 1.673 7839
-1.695 2.802 1.664 6049
-1.746 2.885 1.698 3663
-1.748 2.889 1.689 5500
-1.750 2.893 1.679 5718
-1.756 2.903 1.673 5040
-1.740 2.876 1.646 4318
-1.802 2.979 1.689 6050
-1.804 2.982 1.679 8932
-1.807 2.986 1.669 10031
-1.809 2.990 1.659 7658
-1.823 3.012 1.658 4672
-1.900 3.141 1.711 4809
-1.899 3.138 1.698 5263
-1.927 3.186 1.709 3904
-1.930 3.190 1.698 5726
-1.932 3.193 1.687 6907
-1.938 3.204 1.680 6288
-1.941 3.207 1.669 5207
-1.939 3.205 1.655 6366
-1.941 3.209 1.644 5852
-1.997 3.300 1.675 3465
-1.999 3.304 1.664 4149
-2.032 3.358 1.676 4930
-2.034 3.362 1.665 5298
-2.040 3.372 1.656 3624
-2.115 3.496 1.699 4613
-2.068 3.418 1.651 4291
-2.093 3.460 1.656 4046
-2.099 3.470 1.647 5241
-2.140 3.537 1.663 6163
-2.142 3.541 1.651 7279
-2.144 3.544 1.639 5583
-2.143 3.542 1.625 4334
-2.288 3.781 1.712 3461
-2.294 3.792 1.702 4456
-2.296 3.795 1.689 5993
-2.299 3.799 1.676 6049
-2.340 3.867 1.689 5024
-2.342 3.871 1.676 4464
-2.426 4.009 1.717 3348
-2.424 4.007 1.701 3080
-2.454 4.056 1.705 3775
-2.464 4.073 1.696 5126
-2.470 4.083 1.685 5151
-2.473 4.087 1.671 3233
-2.502 4.136 1.674 2851
-2.516 4.159 1.667 3554
-2.526 4.176 1.658 3061
-2.536 4.192 1.649 3506
-2.535 4.190 1.632 4143
-2.533 4.187 1.616 3422
-2.531 4.184 1.599 2568
-2.722 4.499 1.694 2306
-2.744 4.535 1.690 2993
-2.746 4.539 1.675 3751
-2.753 4.550 1.662 4745
-2.763 4.566 1.650 5012
-2.773 4.583 1.639 3819
-2.870 4.743 1.675 3015
-2.924 4.832 1.686 4041
-2.942 4.862 1.678 4980
-2.956 4.886 1.668 5754
-2.962 4.896 1.654 5839
-2.953 4.880 1.631 5398
-2.959 4.890 1.617 3598
-3.096 5.117 1.667 3937
-3.098 5.121 1.650 3984
-3.136 5.184 1.650 3498
-3.131 5.174 1.629 3415
-3.193 5.277 1.639 2266
-3.342 5.524 1.690 2514
-3.341 5.521 1.670 2926
-3.339 5.518 1.649 2600
-3.349 5.535 1.634 2307
-3.543 5.856 1.701 2084
-3.545 5.860 1.681 2018
-3.552 5.870 1.663 2150
-3.578 5.914 1.653 3219
-3.592 5.937 1.638 3365
-3.599 5.948 1.620 2304
-3.781 6.250 1.673 2373
-3.791 6.267 1.655 2212
-4.007 6.622 1.719 2182
-4.017 6.639 1.699 2069
-4.027 6.656 1.680 1399
-4.046 6.687 1.663 1713
-4.281 7.076 1.728 1496
-4.413 7.293 1.751 1849
-4.459 7.370 1.742 2138
-4.466 7.381 1.719 2430
-4.472 7.392 1.695 2369
-4.684 7.742 1.742 2756
-4.687 7.746 1.716 3355
-4.693 7.757 1.691 3555
-4.699 7.767 1.666 3273
-4.702 7.771 1.640 3007
-4.700 7.768 1.612 2777
-4.702 7.772 1.586 2435
-4.704 7.775 1.559 1742
-4.702 7.772 1.532 1357
-4.704 7.776 1.505 1044
-4.889 8.080 1.531 887
-4.903 8.104 1.507 917
-4.905 8.107 1.480 919
-4.907 8.111 1.452 610
-0.519 0.858 0.199 295
-0.523 0.865 0.197 375
-0.523 0.865 0.194 353
-0.524 0.865 0.191 321
-0.524 0.865 0.188 313
-0.396 0.654 0.080 273
-0.396 0.654 0.078 300
-0.396 0.654 0.076 306
-0.396 0.654 0.074 319
-0.396 0.654 0.072 317
-0.395 0.654 0.070 293
-0.395 0.653 0.068 272
-0.395 0.653 0.066 255
-0.395 0.653 0.062 251
-1.176 1.945 1.774 3360
-1.178 1.949 1.767 6720
-1.181 1.953 1.761 6720
-1.183 1.958 1.754 5715
-1.179 1.951 1.738 4801
-1.235 2.043 1.806 4701
-1.234 2.041 1.794 6754
-1.236 2.045 1.787 6754
-1.239 2.050 1.781 6690
-1.241 2.054 1.774 6626
-1.254 2.074 1.780 4696
-1.273 2.106 1.796 4081
-1.265 2.094 1.775 6453
-1.268 2.098 1.768 9001
-1.270 2.102 1.761 9533
-1.273 2.106 1.754 9525
-1.268 2.099 1.739 9131
-1.274 2.108 1.736 7685
-1.280 2.118 1.733 6627
-1.282 2.122 1.726 5791
-1.288 2.132 1.723 5075
-1.294 2.141 1.721 4181
-1.317 2.179 1.739 3414
-1.316 2.178 1.728 5283
-1.315 2.176 1.716 7310
-1.321 2.186 1.713 7237
-1.327 2.195 1.710 7338
-1.336 2.211 1.711 5170
-1.345 2.226 1.712 3623
-1.390 2.299 1.754 4169
-1.385 2.292 1.738 4919
-1.391 2.302 1.735 4017
-1.393 2.306 1.727 3130
-1.396 2.310 1.719 4262
-1.395 2.308 1.707 5552
-1.390 2.300 1.692 5312
-1.403 2.321 1.696 4242
-1.409 2.331 1.692 3910
-1.411 2.335 1.684 3140
-1.413 2.339 1.676 2371
-1.466 2.425 1.724 2543
-1.464 2.423 1.712 2946
-1.467 2.427 1.703 2627
-1.476 2.443 1.703 2708
-1.486 2.458 1.702 3489
-1.488 2.462 1.694 3576
-1.490 2.466 1.686 3663
-1.540 2.547 1.727 3527
-1.535 2.540 1.711 4223
-1.530 2.531 1.695 4445
-1.550 2.565 1.705 4443
-1.578 2.611 1.722 5959
-1.584 2.621 1.717 6520
-1.586 2.625 1.708 6978
-1.596 2.641 1.707 7613
-1.598 2.645 1.698 7827
-1.601 2.649 1.689 9328
-1.603 2.653 1.680 8773
-1.602 2.650 1.668 6732
-1.622 2.684 1.677 7590
-1.643 2.719 1.685 8556
-1.649 2.729 1.679 8942
-1.651 2.732 1.670 7785
-1.654 2.736 1.661 6850
-1.686 2.789 1.679 7040
-1.695 2.805 1.677 7822
-1.694 2.803 1.664 6089
-1.744 2.886 1.698 3681
-1.747 2.890 1.689 5355
-1.749 2.894 1.679 5459
-1.755 2.904 1.673 4767
-1.739 2.877 1.646 4192
-1.801 2.979 1.689 5994
-1.803 2.983 1.679 8961
-1.805 2.987 1.669 10083
-1.811 2.997 1.662 7738
-1.821 3.013 1.658 4651
-1.895 3.135 1.708 4946
-1.897 3.139 1.698 5401
-1.926 3.187 1.709 3952
-1.928 3.191 1.698 5667
-1.931 3.194 1.687 6821
-1.937 3.205 1.680 6160
-1.939 3.208 1.669 5141
-1.938 3.206 1.655 6299
-1.936 3.203 1.641 5781
-1.991 3.295 1.672 3375
-1.998 3.305 1.664 4150
-2.030 3.359 1.676 5241
-2.033 3.363 1.665 5694
-2.039 3.373 1.656 3896
-2.114 3.497 1.699 4387
-2.066 3.419 1.651 4170
-2.091 3.461 1.656 3976
-2.098 3.471 1.647 5168
-2.138 3.538 1.663 6087
-2.140 3.542 1.651 7286
-2.143 3.545 1.639 5529
-2.187 3.619 1.657 4285
-2.286 3.782 1.712 3428
-2.292 3.793 1.702 4490
-2.294 3.797 1.689 6068
-2.297 3.800 1.676 6189
-2.338 3.868 1.689 5047
-2.340 3.872 1.676 4487
-2.424 4.011 1.717 3309
-2.310 3.822 1.627 3059
-2.452 4.057 1.705 3847
-2.462 4.074 1.696 5077
-2.468 4.084 1.685 5049
-2.471 4.088 1.671 3130
-2.496 4.130 1.672 2699
-2.510 4.154 1.665 2920
-2.520 4.170 1.656 2276
-2.538 4.200 1.651 2400
-2.541 4.204 1.637 2138
-2.676 4.428 1.701 1828
-2.670 4.419 1.682 2204
-2.716 4.494 1.692 2348
-2.746 4.543 1.692 3045
-2.748 4.547 1.677 3896
-2.750 4.551 1.662 4838
-2.761 4.568 1.650 5078
-2.771 4.585 1.639 3780
-2.864 4.738 1.673 2906
-2.925 4.840 1.689 4060
-2.939 4.864 1.678 5050
-2.954 4.887 1.668 5877
-2.960 4.897 1.654 5989
-2.954 4.888 1.633 5372
-2.956 4.892 1.617 3536
-3.097 5.125 1.669 4168
-3.100 5.129 1.652 4085
-3.134 5.185 1.650 3451
-3.128 5.176 1.629 3346
-3.190 5.278 1.639 2254
-3.335 5.519 1.689 2532
-3.338 5.523 1.670 2994
-3.336 5.520 1.649 2580
-3.346 5.537 1.634 2115
-3.452 5.712 1.662 2132
-3.546 5.868 1.683 1999
-3.545 5.865 1.661 2099
-3.579 5.922 1.655 2968
-3.589 5.939 1.638 3106
-3.596 5.949 1.620 2156
-3.778 6.251 1.673 2225
-3.788 6.268 1.655 2063
-4.003 6.624 1.719 2265
-4.014 6.641 1.699 2178
-4.024 6.658 1.680 1464
-4.042 6.689 1.663 1737
-4.278 7.078 1.728 1562
-4.409 7.295 1.751 1831
-4.456 7.373 1.742 2158
-4.462 7.383 1.719 2453
-4.468 7.394 1.695 2350
-4.680 7.744 1.742 2756
-4.683 7.748 1.716 3341
-4.689 7.759 1.691 3578
-4.696 7.770 1.666 3302
-4.698 7.773 1.640 2972
-4.696 7.770 1.612 2741
-4.698 7.774 1.586 2407
-4.700 7.778 1.559 1738
-4.699 7.774 1.532 1390
-4.701 7.778 1.505 1073
-4.885 8.083 1.531 912
-4.899 8.106 1.507 936
-4.901 8.110 1.480 928
-4.903 8.113 1.452 616
-4.905 8.116 1.425 255
-0.523 0.865 0.200 325
-0.523 0.865 0.197 381
-0.523 0.865 0.194 367
-0.523 0.866 0.191 352
-0.523 0.866 0.188 329
-0.523 0.866 0.186 254
-0.395 0.654 0.078 273
-0.395 0.654 0.076 279
-0.395 0.654 0.074 291
-0.395 0.654 0.072 285
-0.395 0.654 0.070 259
-1.175 1.946 1.774 3329
-1.177 1.950 1.767 6658
-1.180 1.954 1.761 6658
-1.182 1.958 1.754 5637
-1.181 1.957 1.743 4681
-1.234 2.043 1.806 4737
-1.233 2.042 1.794 6694
-1.235 2.046 1.787 6694
-1.238 2.050 1.781 6575
-1.240 2.054 1.774 6455
-1.253 2.075 1.780 4561
-1.272 2.107 1.796 4077
-1.268 2.100 1.780 6315
-1.267 2.098 1.768 8772
-1.269 2.103 1.761 9311
-1.272 2.107 1.754 9321
-1.268 2.099 1.739 8911
-1.273 2.109 1.736 7511
-1.279 2.119 1.733 6446
-1.282 2.123 1.726 5666
-1.287 2.132 1.723 4989
-1.293 2.142 1.721 4134
-1.316 2.180 1.739 3443
-1.315 2.178 1.728 5320
-1.314 2.177 1.716 7355
-1.320 2.186 1.713 7314
-1.326 2.196 1.710 7461
-1.335 2.211 1.711 5255
-1.344 2.227 1.712 3623
-1.385 2.294 1.750 4172
-1.384 2.292 1.738 4858
-1.390 2.302 1.735 3956
-1.392 2.306 1.727 3063
-1.395 2.310 1.719 4279
-1.394 2.308 1.707 5677
-1.389 2.300 1.692 5462
-1.395 2.310 1.688 4360
-1.408 2.332 1.692 3875
-1.410 2.336 1.684 3157
-1.409 2.333 1.673 2440
-1.465 2.426 1.724 2491
-1.463 2.424 1.712 2885
-1.466 2.428 1.703 2591
-1.479 2.449 1.707 2802
-1.485 2.459 1.702 3640
-1.487 2.463 1.694 3736
-1.489 2.467 1.686 3832
-1.535 2.542 1.723 3483
-1.534 2.540 1.711 4291
-1.529 2.532 1.695 4743
-1.549 2.566 1.705 4440
-1.577 2.612 1.722 5922
-1.583 2.622 1.717 6479
-1.585 2.626 1.708 6844
-1.595 2.642 1.707 7584
-1.597 2.646 1.698 7959
-1.600 2.649 1.689 9436
-1.598 2.647 1.677 8777
-1.601 2.651 1.668 6717
-1.621 2.685 1.677 7524
-1.642 2.719 1.685 8527
-1.648 2.729 1.679 8837
-1.650 2.733 1.670 7696
-1.649 2.731 1.658 6780
-1.688 2.796 1.683 6887
-1.694 2.806 1.677 7905
-1.693 2.803 1.664 6270
-1.743 2.887 1.698 3618
-1.745 2.891 1.689 5282
-1.748 2.895 1.679 5375
-1.754 2.905 1.673 4555
-1.737 2.878 1.646 4124
-1.799 2.980 1.689 6089
-1.802 2.984 1.679 9105
-1.804 2.988 1.669 10243
-1.810 2.998 1.662 7925
-1.820 3.014 1.658 4837
-1.893 3.136 1.708 5069
-1.896 3.140 1.698 5591
-1.925 3.187 1.709 4006
-1.927 3.191 1.698 5623
-1.929 3.195 1.687 6788
-1.935 3.205 1.680 6071
-1.938 3.209 1.669 5015
-1.936 3.207 1.655 6321
-1.935 3.204 1.641 5938
-1.990 3.296 1.672 3267
-1.996 3.306 1.664 4081
-2.029 3.360 1.676 5455
-2.031 3.364 1.665 5944
-2.037 3.374 1.656 3976
-2.112 3.498 1.699 4019
-2.065 3.420 1.651 4169
-2.090 3.461 1.656 3978
-2.096 3.472 1.647 5231
-2.137 3.539 1.663 5997
-2.139 3.543 1.651 7291
-2.141 3.546 1.639 5364
-2.186 3.620 1.657 4489
-2.284 3.783 1.712 3482
-2.291 3.794 1.702 4579
-2.293 3.798 1.689 6229
-2.295 3.801 1.676 6343
-2.336 3.869 1.689 5053
-2.339 3.873 1.676 4545
-2.422 4.012 1.717 3278
-2.308 3.823 1.627 3285
-2.450 4.058 1.705 3846
-2.460 4.075 1.696 5055
-2.467 4.085 1.685 5005
-2.473 4.095 1.673 3099
-2.495 4.131 1.672 2640
-2.509 4.155 1.665 2689
-2.515 4.165 1.653 2107
-2.533 4.195 1.649 2461
-2.535 4.198 1.635 2364
-2.619 4.338 1.669 1700
-2.669 4.420 1.682 2116
-2.667 4.417 1.665 2419
-2.744 4.544 1.692 3103
-2.746 4.548 1.677 4063
-2.749 4.552 1.662 5047
-2.759 4.569 1.650 5206
-2.769 4.586 1.639 3948
-2.818 4.668 1.649 2905
-2.923 4.841 1.689 4023
-2.937 4.865 1.678 4931
-2.948 4.882 1.666 5849
-2.954 4.892 1.652 5897
-2.952 4.889 1.633 5363
-2.954 4.893 1.617 3568
-3.095 5.126 1.669 4253
-3.125 5.176 1.666 4019
-3.132 5.187 1.650 3337
-3.126 5.177 1.629 3134
-3.188 5.280 1.639 2288
-3.333 5.520 1.689 2472
-3.335 5.524 1.670 2919
-3.338 5.528 1.651 2680
-3.344 5.538 1.634 2299
-3.542 5.866 1.703 2247
-3.544 5.870 1.683 2128
-3.542 5.867 1.661 2171
-3.581 5.930 1.657 2915
-3.587 5.941 1.638 3114
-3.593 5.951 1.620 2205
-3.771 6.246 1.672 2233
-3.774 6.250 1.650 2050
-4.000 6.626 1.719 2290
-4.011 6.643 1.699 2221
-4.017 6.653 1.678 1469
-4.040 6.690 1.663 1763
-4.275 7.080 1.728 1600
-4.241 7.024 1.690 1839
-4.453 7.374 1.742 2169
-4.459 7.385 1.719 2422
-4.465 7.396 1.695 2273
-4.677 7.746 1.742 2742
-4.680 7.750 1.716 3418
-4.686 7.761 1.691 3684
-4.692 7.772 1.666 3335
-4.695 7.775 1.640 2956
-4.693 7.772 1.612 2714
-4.691 7.769 1.585 2385
-4.697 7.780 1.559 1743
-4.695 7.776 1.532 1408
-4.697 7.780 1.505 1069
-4.882 8.085 1.531 958
-4.896 8.108 1.507 956
-4.898 8.112 1.480 952
-4.900 8.115 1.452 631
-4.902 8.118 1.425 257
-0.522 0.865 0.200 294
-0.523 0.865 0.197 343
-0.523 0.866 0.194 361
-0.523 0.866 0.191 366
-0.523 0.866 0.188 330
-0.523 0.866 0.186 251
-0.395 0.654 0.076 254
-0.395 0.654 0.074 272
-0.395 0.654 0.072 270
-1.174 1.954 1.778 3423
-1.177 1.958 1.772 6846
-1.179 1.962 1.765 6846
-1.182 1.966 1.759 5545
-1.184 1.970 1.752 4244
-1.226 2.040 1.801 4796
-1.229 2.044 1.794 6188
-1.231 2.048 1.787 6188
-1.234 2.053 1.781 5708
-1.236 2.057 1.774 5229
-1.249 2.078 1.780 3776
-1.265 2.104 1.791 4072
-1.267 2.108 1.784 5363
-1.270 2.112 1.777 6653
-1.272 2.116 1.770 6943
-1.268 2.109 1.754 6681
-1.267 2.107 1.743 6246
-1.269 2.111 1.736 5041
-1.272 2.115 1.729 3826
-1.277 2.125 1.726 3424
-1.300 2.163 1.745 3340
-1.309 2.179 1.746 3351
-1.315 2.188 1.743 3567
-1.314 2.187 1.732 5946
-1.317 2.191 1.724 8386
-1.323 2.200 1.721 8896
-1.325 2.204 1.714 9488
-1.331 2.214 1.711 6832
-1.337 2.224 1.708 4406
-1.349 2.245 1.713 4324
-1.352 2.249 1.705 4426
-1.382 2.299 1.730 4383
-1.384 2.303 1.723 5290
-1.390 2.313 1.719 6447
-1.393 2.317 1.711 7452
-1.395 2.321 1.704 6485
-1.394 2.319 1.692 3839
-1.438 2.393 1.732 2396
-1.441 2.397 1.724 2517
-1.464 2.436 1.740 2659
-1.449 2.411 1.712 2665
-1.451 2.415 1.704 2689
-1.454 2.419 1.696 2381
-1.470 2.446 1.703 2807
-1.476 2.456 1.699 3723
-1.482 2.466 1.694 4094
-1.485 2.470 1.686 4471
-1.487 2.474 1.678 3775
-1.518 2.525 1.700 4650
-1.520 2.529 1.691 6093
-1.523 2.533 1.683 5344
-1.575 2.621 1.726 5696
-1.578 2.625 1.717 6520
-1.580 2.629 1.708 6094
-1.601 2.663 1.718 6601
-1.599 2.661 1.705 7015
-1.594 2.653 1.689 8296
-1.597 2.656 1.680 8292
-1.599 2.660 1.671 6929
-1.620 2.694 1.680 8032
-1.633 2.717 1.682 8267
-1.646 2.739 1.683 7339
-1.645 2.736 1.670 6531
-1.640 2.728 1.654 6178
-1.686 2.805 1.686 5807
-1.688 2.809 1.677 6871
-1.691 2.813 1.667 6111
-1.737 2.890 1.698 3991
-1.743 2.900 1.692 5477
-1.746 2.904 1.682 5705
-1.752 2.914 1.676 4687
-1.784 2.968 1.692 4473
-1.793 2.984 1.689 6050
-1.800 2.994 1.682 9079
-1.802 2.998 1.672 10355
-1.804 3.002 1.662 8466
-1.814 3.018 1.658 6443
-1.883 3.134 1.705 6672
-1.890 3.144 1.698 7202
-1.918 3.191 1.709 5546
-1.920 3.195 1.698 5743
-1.919 3.193 1.684 6321
-1.925 3.203 1.677 5204
-1.909 3.175 1.651 4406
-1.915 3.185 1.643 5856
-1.928 3.208 1.641 5863
-1.983 3.300 1.672 3541
-2.001 3.329 1.673 4711
-2.015 3.352 1.670 7680
-2.021 3.362 1.662 8668
-2.023 3.366 1.651 5260
-2.048 3.407 1.656 3869
-2.058 3.424 1.651 3324
-2.087 3.472 1.659 4387
-2.089 3.476 1.647 5261
-2.122 3.530 1.658 5453
-2.132 3.547 1.651 6433
-2.180 3.627 1.672 5811
-2.186 3.637 1.662 5250
-2.192 3.647 1.653 4682
-2.283 3.798 1.702 4429
-2.285 3.802 1.689 5598
-2.288 3.806 1.676 5746
-2.332 3.880 1.692 4839
-2.342 3.897 1.684 4737
-2.302 3.830 1.643 4270
-2.304 3.834 1.630 4318
-2.442 4.063 1.705 3884
-2.444 4.067 1.691 4926
-2.451 4.077 1.680 4815
-2.472 4.113 1.678 3244
-2.475 4.117 1.664 2646
-2.461 4.095 1.641 2703
-2.557 4.254 1.684 2607
-2.551 4.245 1.665 2806
-2.663 4.430 1.716 2802
-2.665 4.434 1.701 2176
-2.699 4.490 1.705 1872
-2.701 4.494 1.689 2447
-2.727 4.537 1.688 2901
-2.733 4.547 1.675 4428
-2.739 4.558 1.662 5318
-2.753 4.581 1.653 5313
-2.764 4.598 1.642 3843
-2.817 4.686 1.654 3491
-2.917 4.854 1.691 3606
-2.932 4.877 1.681 4661
-2.938 4.888 1.666 5391
-2.940 4.891 1.650 4305
-2.942 4.895 1.633 3742
-3.091 5.142 1.691 3903
-3.065 5.100 1.659 4944
-3.060 5.090 1.638 4756
-3.129 5.206 1.654 2495
-3.112 5.177 1.627 2647
-3.264 5.431 1.681 2178
-3.318 5.520 1.687 2429
-3.324 5.531 1.670 2846
-3.327 5.535 1.651 2451
-3.329 5.538 1.633 1845
-3.530 5.873 1.703 2549
-3.528 5.870 1.681 2245
-3.523 5.861 1.658 1843
-3.577 5.951 1.660 2154
-3.579 5.954 1.640 2498
-3.581 5.958 1.620 2011
-3.755 6.247 1.670 2393
-3.757 6.251 1.649 2183
-3.987 6.634 1.719 2302
-3.994 6.644 1.698 2588
-3.992 6.641 1.674 2076
-4.258 7.085 1.752 2033
-4.261 7.089 1.728 2285
-4.263 7.093 1.704 1881
-4.434 7.377 1.741 2247
-4.440 7.387 1.717 2426
-4.655 7.745 1.767 2001
-4.662 7.756 1.742 2512
-4.664 7.760 1.716 3119
-4.670 7.770 1.691 3468
-4.673 7.774 1.665 3049
-4.864 8.093 1.699 2941
-4.673 7.775 1.611 2396
-4.675 7.779 1.585 2276
-4.678 7.782 1.558 1710
-4.680 7.786 1.532 1406
-4.863 8.091 1.559 1076
-4.865 8.095 1.531 1261
-4.880 8.118 1.507 1037
-4.882 8.122 1.480 945
-4.884 8.125 1.452 610
-1.164 1.960 1.778 3392
-1.166 1.964 1.772 6784
-1.169 1.968 1.765 6784
-1.171 1.972 1.759 5446
-1.174 1.976 1.752 4108
-1.216 2.047 1.801 4854
-1.218 2.051 1.794 6177
-1.221 2.055 1.787 6177
-1.223 2.059 1.781 5656
-1.225 2.063 1.774 5136
-1.238 2.084 1.780 3697
-1.254 2.111 1.791 4077
-1.256 2.115 1.784 5175
-1.262 2.124 1.782 6273
-1.261 2.123 1.770 6498
-1.260 2.121 1.759 6098
-1.256 2.114 1.743 5631
-1.258 2.118 1.736 4435
-1.260 2.122 1.729 3210
-1.266 2.132 1.726 2853
-1.292 2.176 1.749 3246
-1.298 2.185 1.746 3354
-1.304 2.195 1.743 3629
-1.306 2.199 1.736 6073
-1.305 2.197 1.724 8521
-1.311 2.207 1.721 9092
-1.317 2.217 1.718 9723
-1.323 2.227 1.715 7063
-1.328 2.236 1.712 4613
-1.338 2.252 1.713 4435
-1.340 2.256 1.705 4394
-1.370 2.306 1.730 4512
-1.372 2.310 1.723 5679
-1.378 2.320 1.719 6749
-1.380 2.324 1.711 7725
-1.383 2.328 1.704 6987
-1.385 2.332 1.696 4525
-1.384 2.330 1.684 2614
-1.428 2.405 1.724 2584
-1.431 2.409 1.716 2844
-1.426 2.401 1.700 2845
-1.421 2.393 1.684 3089
-1.438 2.420 1.692 2467
-1.458 2.454 1.703 2802
-1.467 2.470 1.702 3801
-1.469 2.474 1.694 4154
-1.472 2.478 1.686 4507
-1.474 2.481 1.678 3768
-1.505 2.533 1.700 4573
-1.507 2.537 1.691 6054
-1.509 2.541 1.683 5326
-1.565 2.635 1.730 5681
-1.564 2.633 1.717 6502
-1.566 2.637 1.708 5901
-1.587 2.671 1.718 6241
-1.589 2.675 1.709 6606
-1.577 2.655 1.685 7696
-1.583 2.665 1.680 7873
-1.585 2.669 1.671 6799
-1.605 2.703 1.680 7864
-1.619 2.725 1.682 7945
-1.632 2.747 1.683 6852
-1.634 2.751 1.674 6195
-1.625 2.737 1.654 5905
-1.668 2.808 1.683 5292
-1.674 2.818 1.677 6146
-1.676 2.822 1.667 5546
-1.722 2.899 1.698 3966
-1.728 2.910 1.692 5274
-1.730 2.913 1.682 5453
-1.740 2.930 1.679 4368
-1.764 2.971 1.689 4686
-1.774 2.987 1.686 6139
-1.780 2.997 1.679 8986
-1.782 3.001 1.669 10245
-1.788 3.011 1.662 8491
-1.798 3.027 1.658 6760
-1.867 3.143 1.705 6891
-1.873 3.154 1.698 7329
-1.901 3.201 1.709 5802
-1.904 3.205 1.698 5648
-1.902 3.203 1.684 5865
-1.905 3.207 1.674 4667
-1.892 3.185 1.651 4174
-1.898 3.195 1.643 5552
-1.911 3.218 1.641 5556
-1.962 3.304 1.669 3532
-1.983 3.339 1.673 4554
-1.997 3.362 1.670 7533
-2.003 3.372 1.662 8630
-2.005 3.376 1.651 5323
-2.030 3.418 1.656 3730
-2.036 3.428 1.648 3148
-2.072 3.489 1.662 4333
-2.078 3.499 1.653 5129
-2.107 3.548 1.660 5254
-2.117 3.564 1.654 6111
-2.165 3.645 1.675 5673
-2.171 3.655 1.665 5148
-2.173 3.659 1.653 4810
-2.267 3.817 1.704 4496
-2.265 3.814 1.689 5378
-2.268 3.818 1.676 5388
-2.312 3.892 1.692 4664
-2.322 3.909 1.684 4699
-2.282 3.842 1.643 4148
-2.284 3.846 1.630 4119
-2.421 4.076 1.705 3849
-2.423 4.080 1.691 4888
-2.429 4.090 1.680 4804
-2.447 4.120 1.676 3404
-2.453 4.130 1.664 2656
-2.440 4.108 1.641 2512
-2.531 4.261 1.682 2817
-2.533 4.265 1.668 3007
-2.640 4.444 1.716 2907
-2.642 4.448 1.701 2163
-2.679 4.511 1.707 1755
-2.681 4.515 1.692 2214
-2.699 4.545 1.685 2935
-2.705 4.555 1.672 4476
-2.719 4.578 1.664 4935
-2.729 4.595 1.653 4862
-2.739 4.612 1.642 3641
-2.788 4.695 1.652 3306
-2.896 4.876 1.693 3721
-2.910 4.899 1.683 5199
-2.912 4.903 1.666 5745
-2.918 4.913 1.652 4610
-2.921 4.917 1.635 3980
-3.064 5.158 1.691 3958
-3.035 5.109 1.657 4985
-3.033 5.106 1.638 4957
-3.039 5.117 1.623 2699
-3.084 5.193 1.627 2419
-3.236 5.448 1.681 2347
-3.293 5.544 1.689 2439
-3.295 5.548 1.670 2614
-3.302 5.559 1.653 2131
-3.493 5.881 1.721 1759
-3.499 5.891 1.703 2464
-3.501 5.895 1.683 2098
-3.492 5.879 1.658 1645
-3.545 5.969 1.660 1757
-3.548 5.973 1.640 2057
-3.550 5.977 1.620 1884
-3.722 6.267 1.670 2220
-3.641 6.131 1.615 2167
-3.952 6.654 1.719 2274
-3.959 6.665 1.698 2655
-3.957 6.662 1.674 2162
-4.221 7.107 1.752 2134
-4.224 7.111 1.728 2450
-4.226 7.115 1.704 2055
-4.395 7.400 1.741 2199
-4.401 7.410 1.717 2370
-4.615 7.769 1.767 2034
-4.621 7.780 1.742 2494
-4.623 7.784 1.716 3064
-4.630 7.795 1.691 3315
-4.632 7.799 1.665 2841
-4.822 8.118 1.699 3102
-4.824 8.122 1.672 2292
-4.635 7.803 1.585 2117
-4.641 7.813 1.559 1557
-4.639 7.810 1.532 1286
-4.821 8.116 1.559 1056
-4.823 8.120 1.531 1248
-4.837 8.144 1.507 995
-4.839 8.147 1.480 875
-4.841 8.150 1.452 557
-1.163 1.961 1.778 3323
-1.165 1.965 1.772 6647
-1.167 1.969 1.765 6647
-1.170 1.973 1.759 5354
-1.172 1.977 1.752 4061
-1.214 2.047 1.801 4883
-1.217 2.052 1.794 6152
-1.219 2.056 1.787 6152
-1.222 2.060 1.781 5604
-1.224 2.064 1.774 5056
-1.236 2.085 1.780 3682
-1.252 2.111 1.791 4117
-1.255 2.116 1.784 5056
-1.260 2.125 1.782 6036
-1.259 2.124 1.770 6169
-1.259 2.122 1.759 5686
-1.254 2.115 1.743 5180
-1.257 2.119 1.736 3998
-1.259 2.123 1.729 2778
-1.288 2.173 1.757 2641
-1.291 2.177 1.749 3325
-1.297 2.186 1.746 3469
-1.302 2.196 1.743 3770
-1.305 2.200 1.736 6189
-1.307 2.204 1.729 8608
-1.309 2.208 1.721 9165
-1.315 2.218 1.718 9798
-1.321 2.228 1.715 7122
-1.327 2.237 1.712 4647
-1.336 2.253 1.713 4481
-1.338 2.257 1.705 4424
-1.368 2.307 1.730 4616
-1.371 2.311 1.723 5961
-1.376 2.321 1.719 7015
-1.379 2.325 1.711 8107
-1.381 2.329 1.704 7651
-1.383 2.333 1.696 5362
-1.386 2.337 1.688 3396
-1.423 2.400 1.720 2675
-1.429 2.410 1.716 3034
-1.414 2.384 1.688 3093
-1.416 2.388 1.680 3338
-1.436 2.421 1.692 2430
-1.456 2.455 1.703 2799
-1.465 2.471 1.702 3733
-1.468 2.475 1.694 4198
-1.470 2.479 1.686 4664
-1.476 2.488 1.682 3893
-1.499 2.528 1.696 4686
-1.502 2.532 1.687 6183
-1.504 2.536 1.679 5524
-1.563 2.636 1.730 5602
-1.562 2.634 1.717 6402
-1.564 2.638 1.708 5653
-1.588 2.678 1.721 5971
-1.587 2.676 1.709 6344
-1.575 2.656 1.685 7413
-1.577 2.660 1.677 7711
-1.587 2.676 1.675 6877
-1.604 2.704 1.680 7819
-1.613 2.720 1.678 7652
-1.630 2.748 1.683 6186
-1.621 2.734 1.663 5871
-1.623 2.738 1.654 5767
-1.669 2.815 1.686 5432
-1.672 2.819 1.677 6457
-1.674 2.823 1.667 5982
-1.676 2.827 1.658 4130
-1.726 2.911 1.692 5196
-1.728 2.915 1.682 5377
-1.738 2.931 1.679 4285
-1.762 2.972 1.689 4899
-1.772 2.988 1.686 6183
-1.778 2.998 1.679 8967
-1.784 3.008 1.672 10266
-1.786 3.012 1.662 8575
-1.796 3.028 1.658 6696
-1.865 3.145 1.705 7160
-1.871 3.155 1.698 7629
-1.899 3.203 1.709 6347
-1.901 3.207 1.698 6049
-1.904 3.210 1.687 6050
-1.902 3.208 1.674 4772
-1.890 3.187 1.651 4073
-1.944 3.279 1.682 5250
-1.909 3.219 1.641 5203
-1.979 3.337 1.684 3481
-1.981 3.341 1.673 4388
-1.995 3.364 1.670 6973
-2.001 3.374 1.662 8166
-2.003 3.378 1.651 5212
-2.028 3.419 1.656 3909
-2.034 3.430 1.648 3281
-2.070 3.491 1.662 4533
-2.080 3.507 1.655 5308
-2.105 3.549 1.660 5319
-2.111 3.559 1.651 5862
-2.162 3.646 1.675 5595
-2.168 3.657 1.665 5110
-2.171 3.660 1.653 4985
-2.264 3.818 1.704 4504
-2.263 3.816 1.689 5144
-2.265 3.819 1.676 5061
-2.309 3.894 1.692 4489
-2.319 3.911 1.684 4589
-2.279 3.844 1.643 4090
-2.282 3.848 1.630 4071
-2.418 4.077 1.705 3851
-2.420 4.081 1.691 4924
-2.426 4.092 1.680 4893
-2.444 4.121 1.676 3510
-2.446 4.125 1.662 2720
-2.437 4.110 1.641 2522
-2.528 4.263 1.682 2890
-2.530 4.267 1.668 3161
-2.637 4.446 1.716 3219
-2.635 4.443 1.699 2422
-2.676 4.513 1.707 1817
-2.674 4.510 1.689 2151
-2.696 4.546 1.685 2868
-2.706 4.563 1.675 4397
-2.716 4.580 1.664 4917
-2.726 4.597 1.653 4967
-2.736 4.614 1.642 3618
-2.789 4.703 1.654 3790
-2.896 4.884 1.695 3772
-2.906 4.901 1.683 5430
-2.909 4.905 1.666 5673
-2.915 4.915 1.652 4298
-2.921 4.926 1.637 3828
-3.060 5.160 1.691 3955
-3.031 5.111 1.657 5016
-3.029 5.108 1.638 4992
-3.035 5.119 1.623 2755
-3.081 5.195 1.627 2414
-3.232 5.450 1.681 2386
-3.238 5.461 1.664 2540
-3.292 5.551 1.670 2783
-3.294 5.554 1.651 2365
-3.485 5.876 1.719 1746
-3.495 5.894 1.703 2466
-3.497 5.898 1.683 2136
-3.472 5.855 1.651 1510
