0.656 4.407 1.886 1763
0.637 4.280 1.821 4810
0.657 4.419 1.876 2111
0.639 4.293 1.812 3864
0.659 4.431 1.866 1847
0.670 4.502 1.879 3676
0.643 4.319 1.808 2997
0.670 4.507 1.866 4849
0.643 4.324 1.795 2294
0.655 4.402 1.811 3716
0.676 4.541 1.864 3136
0.656 4.407 1.798 5443
0.677 4.553 1.854 2610
0.657 4.419 1.788 4632
0.678 4.558 1.840 3033
0.678 4.556 1.824 4308
0.657 4.416 1.772 2281
0.676 4.546 1.806 3946
0.697 4.686 1.857 2675
0.695 4.669 1.836 4095
0.715 4.808 1.887 2663
0.696 4.681 1.825 3876
0.717 4.821 1.876 2998
0.697 4.686 1.811 3661
0.718 4.826 1.861 2422
0.698 4.690 1.797 3355
0.723 4.860 1.858 2293
0.722 4.850 1.838 3535
0.742 4.991 1.888 2223
0.722 4.855 1.824 3767
0.744 5.003 1.876 2287
0.735 4.942 1.838 2733
0.756 5.082 1.887 2559
0.735 4.939 1.821 4587
0.757 5.087 1.872 3666
0.736 4.944 1.807 6391
0.756 5.085 1.855 2897
0.737 4.956 1.795 6396
0.772 5.186 1.873 3286
0.773 5.199 1.860 4263
0.739 4.968 1.783 3679
0.775 5.211 1.847 3068
0.754 5.070 1.801 1701
0.763 5.127 1.803 2501
0.797 5.358 1.879 1768
0.777 5.221 1.817 3245
0.799 5.370 1.865 1803
0.779 5.233 1.804 2234
0.810 5.442 1.871 1876
0.816 5.484 1.867 2623
0.795 5.343 1.822 1675
0.818 5.497 1.854 2707
0.797 5.355 1.809 1754
0.819 5.502 1.837 2481
0.857 5.764 1.919 1641
0.819 5.507 1.821 2870
0.867 5.829 1.921 2189
0.873 5.871 1.915 2359
0.846 5.684 1.858 1979
0.874 5.877 1.898 2782
0.850 5.711 1.848 1436
0.867 5.829 1.865 2548
0.898 6.039 1.928 1594
0.900 6.052 1.912 1961
0.867 5.826 1.846 1568
0.900 6.049 1.892 1911
0.921 6.192 1.934 1324
0.919 6.175 1.910 1755
0.897 6.032 1.868 1522
0.921 6.188 1.894 2269
0.946 6.361 1.943 1535
0.922 6.200 1.878 2132
0.947 6.366 1.925 1793
0.957 6.432 1.923 1885
0.997 6.703 1.999 1509
0.959 6.444 1.906 2399
0.998 6.709 1.979 1693
1.019 6.850 1.997 2326
0.998 6.706 1.957 1987
1.019 6.848 1.974 2699
0.995 6.689 1.932 2326
0.997 6.702 1.914 2231
1.060 7.126 2.027 2133
1.061 7.131 2.006 3280
1.001 6.729 1.900 2283
1.062 7.136 1.985 4070
1.002 6.734 1.881 1592
1.061 7.134 1.962 3515
1.094 7.354 2.019 1631
1.062 7.139 1.942 2781
1.101 7.398 2.007 1497
1.110 7.464 2.001 1546
1.063 7.145 1.921 1420
1.146 7.705 2.037 2132
1.111 7.469 1.979 1313
1.148 7.718 2.017 2022
1.112 7.474 1.957 1128
1.149 7.723 1.994 1476
1.174 7.891 2.035 1277
1.206 8.110 2.062 1612
1.150 7.729 1.971 1376
1.207 8.115 2.039 1538
1.259 8.466 2.121 1522
1.197 8.044 1.997 1448
1.246 8.372 2.073 1156
1.261 8.477 2.071 975
1.312 8.821 2.150 955
1.261 8.475 2.045 1197
1.312 8.819 2.123 1147
1.294 8.695 2.068 1220
1.353 9.092 2.156 962
1.358 9.129 2.136 1506
1.331 8.945 2.096 1303
1.361 9.150 2.113 1972
1.332 8.951 2.070 1409
1.363 9.163 2.088 1521
1.332 8.956 2.044 1370
1.377 9.253 2.079 1548
1.336 8.977 2.020 1092
1.365 9.174 2.034 1927
1.336 8.982 1.994 912
1.371 9.218 2.015 1651
1.337 8.988 1.968 1034
1.376 9.246 1.992 962
1.338 8.993 1.941 677
1.378 9.259 1.967 884
1.356 9.113 1.938 391
1.378 9.265 1.940 1001
1.379 9.270 1.912 702
1.384 9.306 1.891 347
0.129 0.867 0.262 287
0.128 0.860 0.258 304
0.128 0.860 0.256 296
0.346 2.311 1.821 3366
0.329 2.191 1.731 262
0.347 2.316 1.814 6733
0.365 2.436 1.903 1025
0.350 2.333 1.817 7306
0.368 2.454 1.905 1272
0.351 2.338 1.810 7546
0.369 2.459 1.898 1903
0.350 2.337 1.798 7889
0.368 2.457 1.886 3169
0.351 2.341 1.792 6106
0.369 2.462 1.879 3387
0.352 2.346 1.785 4322
0.370 2.467 1.872 3738
0.352 2.351 1.778 4322
0.371 2.472 1.865 3872
0.371 2.477 1.858 3764
0.353 2.356 1.771 3553
0.373 2.489 1.855 3753
0.355 2.367 1.769 2955
0.374 2.494 1.848 3963
0.356 2.371 1.762 3655
0.358 2.389 1.764 4859
0.377 2.511 1.850 3787
0.359 2.394 1.758 4517
0.377 2.516 1.842 3140
0.360 2.398 1.751 4176
0.379 2.528 1.840 2549
0.360 2.403 1.744 3024
0.380 2.533 1.832 2549
0.381 2.544 1.829 3664
0.360 2.401 1.732 1892
0.383 2.555 1.826 4956
0.361 2.406 1.725 1882
0.388 2.586 1.837 4940
0.361 2.410 1.718 1150
0.390 2.598 1.833 6185
0.371 2.474 1.751 638
0.391 2.609 1.830 5913
0.373 2.485 1.748 766
0.394 2.627 1.831 5904
0.375 2.503 1.749 1497
0.384 2.560 1.776 6402
0.403 2.685 1.858 4122
0.386 2.571 1.773 7363
0.404 2.696 1.855 5485
0.404 2.695 1.842 6422
0.385 2.569 1.762 5295
0.404 2.693 1.830 7242
0.385 2.567 1.750 3156
0.404 2.691 1.818 5508
0.385 2.565 1.738 1709
0.403 2.689 1.806 3910
0.422 2.816 1.886 1576
0.410 2.734 1.824 4043
0.429 2.860 1.903 878
0.412 2.746 1.820 4268
0.431 2.872 1.899 858
0.414 2.764 1.820 5155
0.433 2.891 1.899 895
0.417 2.782 1.820 6224
0.436 2.909 1.899 947
0.418 2.787 1.812 7465
0.437 2.914 1.890 1224
0.419 2.792 1.804 8706
0.438 2.919 1.882 1502
0.420 2.803 1.800 6695
0.439 2.931 1.877 2622
0.423 2.821 1.800 5114
0.442 2.949 1.877 3597
0.442 2.948 1.864 4428
0.423 2.819 1.788 4220
0.443 2.953 1.856 5059
0.423 2.824 1.780 2404
0.443 2.958 1.847 4197
0.424 2.829 1.772 1326
0.445 2.969 1.843 2808
0.465 3.098 1.918 1166
0.447 2.981 1.838 2308
0.466 3.110 1.913 1267
0.450 2.999 1.837 3037
0.430 2.870 1.763 819
0.453 3.018 1.836 4051
0.433 2.888 1.762 797
0.456 3.043 1.839 5981
0.437 2.914 1.765 919
0.458 3.055 1.834 7835
0.439 2.925 1.761 614
0.460 3.067 1.829 10553
0.435 2.902 1.737 509
0.462 3.078 1.824 16944
0.436 2.907 1.729 746
0.462 3.083 1.815 20137
0.437 2.912 1.720 983
0.463 3.088 1.806 18534
0.437 2.916 1.712 921
0.463 3.086 1.793 13801
0.482 3.217 1.865 1160
0.462 3.084 1.781 11086
0.482 3.215 1.852 1888
0.464 3.096 1.776 11190
0.513 3.420 1.950 1961
0.465 3.100 1.767 10809
0.485 3.232 1.837 1980
0.466 3.105 1.758 10063
0.485 3.237 1.827 2096
0.466 3.110 1.749 7971
0.514 3.429 1.917 2045
0.468 3.121 1.743 4517
0.516 3.441 1.910 2606
0.517 3.446 1.900 3633
0.468 3.119 1.730 2887
0.519 3.458 1.894 4676
0.467 3.116 1.718 1871
0.519 3.463 1.884 4789
0.539 3.596 1.952 1593
0.520 3.468 1.874 4031
0.540 3.601 1.941 1812
0.533 3.557 1.906 3931
0.513 3.424 1.839 2580
0.533 3.555 1.892 5073
0.513 3.422 1.826 1806
0.535 3.568 1.885 5863
0.515 3.434 1.819 1683
0.537 3.580 1.878 6216
0.485 3.235 1.708 1358
0.540 3.599 1.875 6223
0.560 3.733 1.940 1732
0.540 3.604 1.864 6633
0.560 3.738 1.930 2274
0.554 3.693 1.895 5354
0.534 3.559 1.830 2211
0.555 3.699 1.884 4713
0.534 3.564 1.820 1357
0.554 3.696 1.870 4368
0.455 3.037 1.557 1182
0.555 3.701 1.859 5164
0.457 3.049 1.551 1346
0.557 3.714 1.852 7598
0.458 3.053 1.543 956
0.560 3.733 1.848 11865
0.539 3.597 1.785 658
0.561 3.745 1.840 10542
0.582 3.880 1.902 1414
0.570 3.800 1.852 5523
0.590 3.935 1.914 988
0.575 3.833 1.854 4150
0.554 3.697 1.792 894
0.571 3.809 1.830 3388
0.592 3.945 1.891 1665
0.586 3.907 1.860 4612
0.565 3.771 1.799 3248
0.584 3.898 1.842 5992
0.564 3.762 1.782 2267
0.585 3.903 1.831 6210
0.606 4.039 1.891 1844
0.591 3.944 1.835 5250
0.612 4.080 1.895 2754
0.583 3.891 1.799 4940
0.604 4.028 1.858 4648
0.599 3.997 1.831 4895
0.620 4.134 1.890 2396
0.593 3.958 1.801 5313
0.617 4.117 1.868 3653
0.595 3.970 1.792 4479
0.619 4.129 1.859 4323
0.622 4.149 1.854 3877
0.601 4.011 1.796 3068
0.628 4.190 1.856 4579
0.608 4.052 1.799 3361
0.629 4.195 1.844 5020
0.605 4.035 1.779 2248
0.632 4.214 1.838 4178
0.611 4.076 1.782 1756
0.636 4.241 1.834 4444
0.657 4.379 1.890 1803
0.640 4.268 1.831 4945
0.661 4.406 1.886 1810
0.643 4.287 1.824 5063
0.664 4.425 1.879 1778
0.645 4.299 1.815 4024
0.665 4.438 1.869 1741
0.675 4.501 1.879 3624
0.651 4.340 1.816 3203
0.676 4.506 1.866 4742
0.649 4.331 1.798 2325
0.660 4.401 1.811 3575
0.681 4.540 1.864 2973
0.661 4.406 1.798 5110
0.684 4.560 1.856 2699
0.662 4.418 1.788 4214
0.683 4.558 1.840 3276
0.682 4.548 1.822 4655
0.713 4.753 1.898 1966
0.681 4.545 1.806 4071
0.702 4.685 1.857 2482
0.700 4.668 1.836 3831
0.721 4.808 1.887 2852
0.717 4.783 1.862 4303
0.686 4.577 1.787 2807
0.716 4.773 1.843 3661
0.688 4.589 1.776 2270
0.703 4.690 1.797 3162
0.729 4.859 1.858 2139
0.726 4.842 1.836 3393
0.747 4.983 1.886 2285
0.728 4.854 1.824 3385
0.750 5.002 1.876 2290
0.741 4.941 1.838 2873
0.762 5.081 1.887 2531
0.740 4.938 1.821 4882
0.762 5.079 1.870 3630
0.741 4.943 1.807 6588
0.762 5.084 1.855 2935
0.743 4.955 1.795 6361
0.779 5.193 1.875 3352
0.779 5.198 1.860 4477
0.745 4.967 1.783 3574
0.780 5.203 1.845 2928
0.759 5.061 1.798 1768
0.767 5.118 1.800 2568
0.802 5.349 1.876 1966
0.783 5.220 1.817 3233
0.804 5.362 1.863 1983
0.785 5.232 1.804 2303
0.816 5.441 1.871 1815
0.822 5.484 1.867 2681
0.801 5.342 1.822 1955
0.821 5.474 1.846 2509
0.850 5.668 1.908 1477
0.835 5.568 1.858 2235
0.811 5.411 1.809 1776
0.827 5.513 1.824 2628
0.874 5.828 1.921 2208
0.867 5.780 1.888 2412
0.826 5.511 1.805 1723
0.873 5.823 1.882 2743
0.849 5.665 1.834 1326
0.874 5.828 1.865 2775
0.904 6.031 1.926 1436
0.907 6.051 1.912 1791
0.875 5.833 1.848 1677
0.906 6.041 1.890 1746
0.927 6.184 1.932 1594
0.926 6.174 1.910 1807
0.904 6.031 1.868 1495
0.925 6.171 1.889 2034
0.954 6.360 1.943 1466
0.954 6.365 1.925 1730
0.927 6.184 1.873 1709
0.965 6.438 1.925 1837
1.005 6.702 1.999 1690
0.967 6.451 1.908 2411
1.006 6.708 1.979 1825
1.027 6.849 1.997 2333
1.005 6.705 1.957 2298
1.028 6.854 1.977 2715
1.003 6.688 1.932 2409
1.005 6.700 1.914 2185
1.068 7.124 2.027 2093
1.069 7.130 2.006 3317
1.010 6.736 1.902 2486
1.070 7.135 1.985 3938
1.011 6.741 1.883 1692
1.069 7.133 1.962 3421
1.102 7.353 2.019 1851
1.070 7.138 1.942 2905
1.103 7.358 1.998 1732
1.071 7.143 1.921 1529
1.150 7.668 2.052 1458
1.155 7.703 2.037 2307
1.120 7.468 1.979 1080
1.157 7.717 2.017 2066
1.120 7.473 1.957 1005
1.159 7.730 1.996 1375
1.183 7.889 2.035 1361
1.216 8.108 2.062 1620
1.160 7.735 1.973 1359
1.255 8.373 2.100 1648
1.217 8.114 2.039 1612
1.205 8.035 1.995 1654
1.256 8.379 2.075 1327
1.271 8.476 2.071 1037
1.321 8.812 2.148 980
1.322 8.818 2.123 1204
1.271 8.474 2.045 1173
1.305 8.701 2.069 1268
1.263 8.426 2.008 1036
1.369 9.127 2.136 1673
1.341 8.944 2.096 1344
1.372 9.148 2.113 2198
1.342 8.949 2.070 1495
1.374 9.162 2.088 1777
1.344 8.962 2.045 1523
1.381 9.213 2.071 1687
1.346 8.975 2.020 1187
1.375 9.173 2.034 1944
1.347 8.981 1.994 918
1.382 9.216 2.015 1667
1.347 8.986 1.968 1020
1.385 9.237 1.991 897
1.348 8.991 1.941 677
1.388 9.258 1.967 883
1.366 9.112 1.938 327
1.389 9.263 1.940 1078
1.389 9.261 1.911 743
1.395 9.304 1.891 332
0.130 0.867 0.262 272
0.129 0.860 0.258 281
0.129 0.860 0.256 259
0.349 2.311 1.821 3154
0.350 2.315 1.814 6308
0.368 2.435 1.903 1024
0.353 2.333 1.817 6801
0.371 2.453 1.905 1272
0.353 2.338 1.810 7194
0.372 2.458 1.898 1908
0.352 2.330 1.794 7737
0.370 2.451 1.882 3802
0.354 2.341 1.792 6044
0.372 2.462 1.879 3427
0.355 2.346 1.785 4354
0.373 2.467 1.872 3813
0.355 2.350 1.778 4354
0.374 2.472 1.865 3944
0.374 2.477 1.858 3699
0.356 2.355 1.771 3447
0.377 2.495 1.860 3612
0.359 2.373 1.774 2794
0.377 2.493 1.848 3859
0.358 2.371 1.762 3427
0.362 2.395 1.769 4672
0.380 2.517 1.854 3297
0.362 2.393 1.758 4343
0.380 2.516 1.842 3197
0.362 2.398 1.751 4024
0.382 2.527 1.840 2722
0.378 2.500 1.810 3265
0.359 2.377 1.726 2196
0.385 2.550 1.834 3779
0.363 2.401 1.732 1819
0.386 2.555 1.826 5077
0.364 2.405 1.725 1808
0.391 2.586 1.837 4940
0.364 2.410 1.718 1128
0.393 2.597 1.833 6133
0.374 2.473 1.751 653
0.394 2.609 1.830 5839
0.375 2.484 1.748 749
0.397 2.627 1.831 5786
0.378 2.502 1.749 1447
0.387 2.559 1.776 6332
0.406 2.684 1.858 4004
0.389 2.571 1.773 7278
0.407 2.696 1.855 5367
0.407 2.694 1.842 6372
0.388 2.569 1.762 5230
0.407 2.692 1.830 7247
0.388 2.567 1.750 3093
0.407 2.691 1.818 5550
0.388 2.565 1.738 1662
0.412 2.729 1.832 4070
0.431 2.855 1.911 843
0.414 2.740 1.828 4247
0.433 2.867 1.907 806
0.415 2.745 1.820 4462
0.434 2.872 1.899 845
0.419 2.770 1.824 5329
0.438 2.897 1.903 818
0.420 2.782 1.820 6484
0.440 2.909 1.899 944
0.421 2.786 1.812 7736
0.440 2.914 1.890 1228
0.422 2.791 1.804 8987
0.441 2.919 1.882 1511
0.424 2.803 1.800 6905
0.443 2.930 1.877 2691
0.426 2.821 1.800 5211
0.446 2.949 1.877 3665
0.445 2.947 1.864 4546
0.426 2.819 1.788 4309
0.446 2.952 1.856 5193
0.427 2.824 1.780 2435
0.447 2.957 1.847 4315
0.427 2.828 1.772 1317
0.449 2.969 1.843 2992
0.468 3.097 1.918 1247
0.450 2.980 1.838 2614
0.470 3.109 1.913 1320
0.453 2.999 1.837 3350
0.434 2.870 1.763 742
0.456 3.017 1.836 4304
0.436 2.888 1.762 795
0.460 3.043 1.839 6177
0.440 2.913 1.765 1011
0.462 3.054 1.834 8017
0.440 2.911 1.753 629
0.463 3.066 1.829 10669
0.439 2.902 1.737 533
0.465 3.078 1.824 16827
0.439 2.907 1.729 740
0.466 3.083 1.815 19813
0.440 2.911 1.720 947
0.467 3.088 1.806 18168
0.441 2.916 1.712 875
0.466 3.086 1.793 13448
0.486 3.216 1.865 1158
0.466 3.083 1.781 10762
0.486 3.214 1.852 1843
0.468 3.095 1.776 11031
0.516 3.413 1.947 2039
0.468 3.100 1.767 10862
0.519 3.432 1.944 1969
0.469 3.104 1.758 10184
0.489 3.236 1.827 2153
0.470 3.109 1.749 8105
0.518 3.428 1.917 1996
0.472 3.121 1.743 4641
0.520 3.441 1.910 2654
0.521 3.446 1.900 3635
0.471 3.118 1.730 2989
0.523 3.458 1.894 4596
0.471 3.116 1.718 1960
0.523 3.463 1.884 4630
0.543 3.595 1.952 1693
0.524 3.468 1.874 3849
0.544 3.601 1.941 1876
0.538 3.557 1.906 4054
0.517 3.424 1.839 2592
0.538 3.562 1.896 5201
0.518 3.429 1.829 2340
0.539 3.567 1.885 5887
0.519 3.433 1.819 1882
0.541 3.579 1.878 6252
0.521 3.445 1.813 1412
0.544 3.598 1.875 6450
0.564 3.732 1.940 1663
0.545 3.603 1.864 6990
0.565 3.737 1.930 2184
0.554 3.665 1.881 5922
0.461 3.050 1.585 1274
0.556 3.677 1.874 5150
0.462 3.054 1.576 1102
0.559 3.696 1.870 4495
0.460 3.044 1.560 1102
0.559 3.701 1.859 5145
0.461 3.048 1.551 1270
0.561 3.713 1.852 7538
0.461 3.052 1.543 896
0.564 3.732 1.848 11681
0.544 3.597 1.785 682
0.566 3.744 1.840 10448
0.586 3.879 1.902 1392
0.573 3.792 1.849 5366
0.594 3.927 1.911 1083
0.579 3.832 1.854 3966
0.559 3.697 1.792 949
0.576 3.809 1.830 3197
0.596 3.945 1.891 1587
0.590 3.907 1.860 4246
0.570 3.771 1.799 2927
0.589 3.897 1.842 5856
0.568 3.761 1.782 2207
0.591 3.909 1.834 6417
0.616 4.074 1.907 1586
0.597 3.950 1.839 5772
0.618 4.087 1.898 2438
0.587 3.883 1.796 4735
0.609 4.027 1.858 4396
0.603 3.989 1.828 4903
0.624 4.126 1.887 2502
0.598 3.958 1.801 5314
0.622 4.116 1.868 3467
0.600 3.970 1.792 4329
0.624 4.128 1.859 4136
0.629 4.162 1.860 3615
0.608 4.025 1.802 3179
0.633 4.189 1.856 5449
0.612 4.051 1.799 3292
0.634 4.194 1.844 5993
0.606 4.013 1.770 2435
0.636 4.206 1.835 4532
0.609 4.032 1.764 1815
0.640 4.233 1.832 4531
0.661 4.371 1.887 1966
0.645 4.267 1.831 5096
0.666 4.405 1.886 1862
0.648 4.286 1.824 5177
0.669 4.425 1.879 1765
0.651 4.306 1.817 4133
0.672 4.444 1.872 1718
0.680 4.500 1.879 3496
0.656 4.340 1.816 3354
0.681 4.505 1.866 4487
0.654 4.330 1.798 2437
0.664 4.393 1.808 3463
0.685 4.532 1.861 2794
0.666 4.405 1.798 4743
0.689 4.559 1.856 2733
0.668 4.417 1.788 3906
0.689 4.557 1.840 3460
0.687 4.547 1.822 4871
0.717 4.745 1.896 1827
0.687 4.544 1.806 4131
0.708 4.684 1.857 2265
0.705 4.667 1.836 3458
0.726 4.807 1.887 2884
0.722 4.775 1.859 4517
0.693 4.583 1.790 2748
0.722 4.780 1.845 4079
0.693 4.588 1.776 2364
0.710 4.696 1.800 2916
0.735 4.866 1.861 1932
0.731 4.834 1.833 3249
0.752 4.974 1.883 2270
0.735 4.861 1.827 3002
0.756 5.001 1.876 2254
0.747 4.940 1.838 2753
0.768 5.081 1.887 2425
0.746 4.937 1.821 4713
0.768 5.078 1.870 3339
0.747 4.942 1.807 6436
0.768 5.083 1.855 2758
0.749 4.954 1.795 6249
0.785 5.192 1.875 3248
0.785 5.197 1.860 4521
0.751 4.967 1.783 3491
0.786 5.202 1.845 2836
0.765 5.061 1.798 1763
0.772 5.110 1.798 2442
0.807 5.341 1.874 1891
0.790 5.227 1.819 2967
0.811 5.368 1.865 1757
0.792 5.239 1.806 2250
0.822 5.440 1.871 1728
0.825 5.460 1.860 2711
0.804 5.318 1.815 1600
0.816 5.398 1.823 2673
0.837 5.540 1.868 2349
0.839 5.552 1.854 2167
0.818 5.410 1.809 1869
0.833 5.512 1.824 2352
0.885 5.857 1.930 2168
0.874 5.779 1.888 2577
0.833 5.510 1.805 1533
0.879 5.814 1.880 2840
0.857 5.672 1.837 1290
0.881 5.827 1.865 2875
0.911 6.030 1.926 1259
0.881 5.832 1.848 1734
0.916 6.057 1.915 1541
0.932 6.168 1.928 1601
0.896 5.927 1.857 1516
0.925 6.120 1.894 1679
0.903 5.977 1.853 1102
0.927 6.133 1.878 1974
0.961 6.359 1.943 1231
0.932 6.168 1.869 1681
0.962 6.364 1.925 1553
1.013 6.701 1.999 1823
0.956 6.324 1.893 1757
0.975 6.450 1.908 2352
1.014 6.706 1.979 1942
1.014 6.712 1.959 2567
1.036 6.855 1.999 2143
1.012 6.694 1.934 2664
1.036 6.853 1.977 2571
1.016 6.722 1.920 2391
1.077 7.123 2.027 1943
1.079 7.136 2.008 3191
1.017 6.727 1.900 2779
1.078 7.134 1.985 3687
1.019 6.740 1.883 1813
1.078 7.132 1.962 3181
1.111 7.352 2.019 1979
1.079 7.137 1.942 2806
1.112 7.357 1.998 1879
1.078 7.134 1.919 1590
1.158 7.659 2.050 1539
1.164 7.702 2.037 2411
1.197 7.923 2.092 995
1.166 7.715 2.017 2083
1.190 7.875 2.056 1034
1.192 7.888 2.035 1398
1.169 7.736 1.998 1356
1.225 8.107 2.062 1596
1.169 7.733 1.973 1448
1.213 8.028 2.019 1659
1.265 8.372 2.100 1481
1.214 8.034 1.995 1774
1.266 8.377 2.075 1339
1.268 8.390 2.052 1110
1.216 8.047 1.973 1016
1.270 8.403 2.029 1614
1.332 8.816 2.123 1165
1.316 8.707 2.071 1253
1.273 8.424 2.008 1091
1.379 9.126 2.136 1753
1.352 8.942 2.096 1363
1.382 9.147 2.113 2289
1.352 8.948 2.070 1528
1.384 9.160 2.088 1922
1.354 8.961 2.045 1603
1.392 9.211 2.071 1835
1.356 8.974 2.020 1230
1.386 9.171 2.034 1945
1.357 8.979 1.994 937
1.393 9.215 2.015 1625
1.358 8.985 1.968 1048
1.394 9.220 1.988 862
1.359 8.990 1.941 693
1.399 9.256 1.967 885
1.377 9.110 1.938 316
1.400 9.261 1.940 1123
1.399 9.259 1.911 757
1.405 9.295 1.890 316
0.352 2.310 1.821 2978
0.353 2.315 1.814 5956
0.371 2.435 1.903 1004
0.356 2.339 1.821 6364
0.338 2.219 1.733 922
0.355 2.331 1.805 6979
0.373 2.451 1.893 2389
0.355 2.329 1.794 7780
0.373 2.450 1.882 3786
0.357 2.340 1.792 6081
0.375 2.461 1.879 3452
0.357 2.345 1.785 4438
0.376 2.467 1.872 3872
0.358 2.350 1.778 4438
0.377 2.471 1.865 4005
0.377 2.476 1.858 3754
0.359 2.355 1.771 3352
0.380 2.494 1.860 3688
0.361 2.372 1.774 2615
0.380 2.493 1.848 3869
0.361 2.371 1.762 3243
0.365 2.395 1.769 4648
0.383 2.517 1.854 3212
0.366 2.399 1.762 4265
0.384 2.522 1.847 3010
0.365 2.397 1.751 3944
0.385 2.527 1.840 2808
0.381 2.499 1.810 3255
0.362 2.376 1.726 2124
0.388 2.550 1.834 3938
0.366 2.400 1.732 1741
0.389 2.555 1.826 5266
0.366 2.405 1.725 1727
0.394 2.586 1.837 4976
0.367 2.409 1.718 1100
0.396 2.597 1.833 6079
0.377 2.473 1.751 634
0.397 2.608 1.830 5795
0.378 2.484 1.748 739
0.399 2.620 1.827 5719
0.380 2.495 1.745 960
0.390 2.559 1.776 6324
0.409 2.684 1.858 3889
0.392 2.570 1.773 7257
0.411 2.695 1.855 5245
0.409 2.687 1.838 6352
0.390 2.562 1.757 4996
0.410 2.692 1.830 7288
0.391 2.566 1.750 3099
0.409 2.684 1.814 5633
0.390 2.558 1.734 1508
0.421 2.761 1.853 4493
0.401 2.635 1.773 2062
0.417 2.740 1.828 4602
0.437 2.866 1.907 809
0.418 2.745 1.820 4829
0.437 2.871 1.899 848
0.422 2.769 1.824 5709
0.403 2.643 1.746 808
0.424 2.781 1.820 6993
0.443 2.908 1.899 856
0.424 2.786 1.812 8280
0.444 2.913 1.890 1161
0.425 2.791 1.804 9567
0.445 2.918 1.882 1466
0.427 2.802 1.800 7306
0.446 2.930 1.877 2794
0.430 2.820 1.800 5391
0.449 2.948 1.877 3840
0.449 2.947 1.864 4843
0.429 2.818 1.788 4465
0.450 2.952 1.856 5580
0.430 2.823 1.780 2493
0.450 2.956 1.847 4610
0.431 2.828 1.772 1321
0.451 2.961 1.839 3285
0.471 3.090 1.914 1612
0.454 2.980 1.838 3016
0.474 3.109 1.913 1366
0.456 2.992 1.833 3709
0.475 3.121 1.908 947
0.458 3.003 1.829 4535
0.477 3.133 1.903 637
0.463 3.042 1.839 5918
0.444 2.913 1.765 1232
0.464 3.047 1.830 7664
0.444 2.917 1.757 716
0.467 3.066 1.829 10421
0.443 2.908 1.741 538
0.469 3.077 1.824 16588
0.443 2.906 1.729 719
0.470 3.082 1.815 19395
0.443 2.911 1.720 915
0.470 3.087 1.806 17709
0.444 2.915 1.712 844
0.470 3.085 1.793 13041
0.490 3.216 1.865 1210
0.469 3.076 1.777 10426
0.489 3.207 1.848 2244
0.471 3.094 1.776 10874
0.520 3.412 1.947 2189
0.472 3.099 1.767 10948
0.523 3.431 1.944 2050
0.473 3.104 1.758 10367
0.493 3.236 1.827 2251
0.474 3.109 1.749 8284
0.523 3.435 1.920 2135
0.475 3.120 1.743 4775
0.525 3.447 1.914 2812
0.525 3.445 1.900 3650
0.475 3.118 1.730 3187
0.527 3.457 1.894 4417
0.475 3.115 1.718 2128
0.527 3.462 1.884 4371
0.548 3.595 1.952 1851
0.529 3.474 1.877 3797
0.550 3.607 1.945 1730
0.542 3.556 1.906 4180
0.521 3.423 1.839 2578
0.541 3.554 1.892 5373
0.521 3.421 1.826 2072
0.543 3.566 1.885 5856
0.523 3.433 1.819 2084
0.545 3.578 1.878 6142
0.525 3.445 1.813 1550
0.548 3.597 1.875 6544
0.568 3.731 1.940 1588
0.550 3.609 1.868 7248
0.570 3.744 1.933 1751
0.558 3.664 1.881 6688
0.465 3.049 1.585 1420
0.560 3.676 1.874 5759
0.465 3.053 1.576 1227
0.561 3.681 1.863 4612
0.464 3.043 1.560 1153
0.564 3.700 1.859 4980
0.465 3.055 1.555 1202
0.566 3.712 1.852 7409
0.465 3.052 1.543 848
0.568 3.731 1.848 11734
0.548 3.596 1.785 652
0.570 3.743 1.840 10651
0.591 3.879 1.902 1401
0.575 3.777 1.842 5375
0.596 3.912 1.904 1298
0.579 3.803 1.841 3861
0.600 3.939 1.902 1162
0.580 3.808 1.830 3144
0.601 3.944 1.891 1534
0.594 3.899 1.857 3865
0.573 3.763 1.796 2383
0.594 3.897 1.842 5688
0.573 3.760 1.782 2062
0.595 3.909 1.834 6526
0.575 3.772 1.774 1537
0.602 3.949 1.839 6400
0.622 4.086 1.898 2304
0.601 3.947 1.824 5278
0.622 4.084 1.883 3043
0.602 3.952 1.812 5015
0.625 4.103 1.877 2974
0.603 3.957 1.801 5188
0.628 4.123 1.872 3334
0.605 3.969 1.792 4118
0.628 4.120 1.856 3864
0.635 4.169 1.863 3820
0.613 4.024 1.802 3201
0.638 4.188 1.856 6615
0.617 4.051 1.799 3285
0.639 4.193 1.844 7149
0.611 4.012 1.770 2605
0.641 4.205 1.835 5087
0.614 4.031 1.764 2060
0.643 4.217 1.826 4786
0.664 4.356 1.882 2204
0.650 4.266 1.831 5193
0.671 4.404 1.886 1927
0.653 4.285 1.824 5333
0.674 4.424 1.879 1760
0.656 4.305 1.817 4336
0.677 4.443 1.872 1723
0.661 4.339 1.816 3513
0.685 4.499 1.879 3243
0.685 4.497 1.863 4154
0.664 4.358 1.809 2494
0.669 4.392 1.808 3485
0.690 4.531 1.861 2630
0.671 4.404 1.798 4492
0.696 4.566 1.859 2924
0.693 4.549 1.838 3853
0.672 4.409 1.785 3471
0.693 4.546 1.822 5029
0.723 4.744 1.896 1759
0.693 4.551 1.808 4059
0.726 4.764 1.887 2009
0.711 4.666 1.836 3047
0.732 4.806 1.887 2886
0.727 4.774 1.859 4689
0.699 4.590 1.792 2772
0.728 4.779 1.845 4548
0.700 4.595 1.779 2492
0.729 4.784 1.832 2952
0.757 4.968 1.898 1954
0.733 4.811 1.825 3579
0.758 4.973 1.883 2304
0.731 4.801 1.806 3306
0.758 4.978 1.868 2421
0.752 4.939 1.838 2678
0.774 5.080 1.887 2401
0.752 4.936 1.821 4529
0.773 5.077 1.870 3143
0.753 4.941 1.807 6181
0.774 5.082 1.855 2535
0.754 4.946 1.793 5981
0.791 5.191 1.875 3244
0.792 5.196 1.860 4705
0.757 4.966 1.783 3261
0.791 5.194 1.843 2838
0.764 5.015 1.783 1789
0.777 5.102 1.796 2400
0.814 5.340 1.874 1735
0.797 5.233 1.822 2898
0.819 5.375 1.868 1524
0.798 5.238 1.806 2228
0.820 5.380 1.852 1707
0.829 5.444 1.855 2720
0.851 5.586 1.900 1735
0.822 5.397 1.823 2735
0.844 5.539 1.868 2321
0.849 5.574 1.861 2091
0.824 5.409 1.809 1948
0.877 5.758 1.900 2191
0.841 5.519 1.826 1906
0.880 5.778 1.888 2792
0.859 5.636 1.844 1268
0.885 5.806 1.877 3009
0.856 5.618 1.821 1259
0.888 5.826 1.865 2987
0.933 6.126 1.955 1135
0.888 5.831 1.848 1821
0.923 6.056 1.915 1401
0.939 6.167 1.928 1769
0.904 5.934 1.859 1357
0.932 6.119 1.894 1951
0.910 5.976 1.853 1003
0.934 6.132 1.878 2239
0.969 6.358 1.943 1100
0.939 6.167 1.869 1853
0.969 6.363 1.925 1465
0.963 6.323 1.893 1884
1.021 6.700 1.999 1774
0.982 6.448 1.908 2115
1.023 6.713 1.981 1993
1.022 6.710 1.959 2979
1.044 6.854 1.999 2231
1.020 6.693 1.934 3111
1.044 6.852 1.977 2600
1.022 6.706 1.916 2555
1.086 7.129 2.029 1636
1.087 7.135 2.008 2914
1.025 6.726 1.900 2908
1.087 7.133 1.985 3271
1.027 6.739 1.883 1939
1.086 7.130 1.962 2927
1.120 7.350 2.019 2117
1.087 7.136 1.942 2720
1.121 7.356 1.998 2023
1.165 7.650 2.049 1647
1.087 7.133 1.919 1582
1.172 7.693 2.035 2547
1.200 7.876 2.081 938
1.174 7.706 2.015 2101
1.200 7.874 2.056 1004
1.202 7.887 2.035 1426
1.178 7.734 1.998 1402
1.177 7.724 1.971 1597
1.235 8.105 2.062 1473
1.222 8.019 2.017 1718
1.289 8.461 2.121 1368
1.224 8.032 1.995 1899
1.276 8.376 2.075 1153
1.278 8.389 2.052 1235
1.226 8.045 1.973 1073
1.280 8.402 2.029 1650
1.343 8.814 2.123 1129
1.326 8.705 2.071 1270
1.282 8.415 2.006 1100
1.390 9.124 2.136 1862
1.362 8.940 2.096 1369
1.393 9.145 2.113 2443
1.364 8.954 2.071 1553
1.396 9.166 2.089 2180
1.365 8.959 2.045 1715
1.402 9.202 2.069 2026
1.366 8.965 2.019 1317
1.400 9.192 2.039 1995
1.368 8.978 1.994 944
1.402 9.205 2.013 1567
1.369 8.983 1.968 1031
1.402 9.203 1.985 841
1.369 8.988 1.941 670
1.410 9.255 1.967 857
1.332 8.740 1.865 268
1.411 9.260 1.940 1130
1.410 9.257 1.911 736
1.413 9.278 1.887 307
0.357 2.309 1.821 2775
0.339 2.190 1.731 289
0.358 2.314 1.814 5550
0.377 2.434 1.903 927
0.361 2.332 1.817 5744
0.379 2.452 1.905 1153
0.360 2.330 1.805 6639
0.379 2.451 1.893 2293
0.360 2.329 1.794 7675
0.379 2.449 1.882 3664
0.361 2.333 1.787 5957
0.380 2.454 1.875 3960
0.363 2.344 1.785 4315
0.381 2.466 1.872 4062
0.363 2.349 1.778 4315
0.382 2.471 1.865 4193
0.384 2.482 1.862 3816
0.365 2.360 1.776 3142
0.386 2.493 1.860 3667
0.367 2.371 1.774 2334
0.385 2.492 1.848 3660
0.367 2.370 1.762 2896
0.370 2.394 1.769 4443
0.389 2.516 1.854 2845
0.371 2.398 1.762 4061
0.390 2.521 1.847 2896
0.372 2.403 1.755 3678
0.392 2.532 1.844 2975
0.386 2.498 1.810 3092
0.406 2.622 1.894 2039
0.395 2.555 1.838 4220
0.371 2.399 1.732 1533
0.396 2.560 1.831 5598
0.371 2.397 1.721 1514
0.399 2.578 1.832 5112
0.373 2.409 1.718 1010
0.402 2.596 1.833 6004
0.382 2.472 1.751 603
0.403 2.607 1.830 5821
0.384 2.483 1.748 668
0.405 2.619 1.827 5783
0.386 2.494 1.745 836
0.396 2.558 1.776 6147
0.415 2.683 1.858 3626
0.397 2.569 1.773 7136
0.417 2.694 1.855 4911
0.416 2.686 1.838 6195
0.396 2.561 1.757 4910
0.415 2.684 1.826 7244
0.396 2.559 1.746 2818
0.415 2.683 1.814 5749
0.396 2.557 1.734 1499
0.426 2.754 1.848 5291
0.406 2.628 1.769 1963
0.424 2.739 1.828 5203
0.443 2.865 1.907 821
0.424 2.744 1.820 5435
0.444 2.870 1.899 866
0.428 2.769 1.824 6169
0.409 2.642 1.746 806
0.430 2.780 1.820 7491
0.450 2.907 1.899 818
0.431 2.785 1.812 8815
0.450 2.912 1.890 1150
0.432 2.790 1.804 10140
0.451 2.917 1.882 1482
0.433 2.801 1.800 7728
0.453 2.929 1.877 2902
0.436 2.819 1.800 5624
0.456 2.947 1.877 3971
0.456 2.946 1.864 4976
0.436 2.817 1.788 4591
0.456 2.951 1.856 5692
0.437 2.822 1.780 2505
0.457 2.955 1.847 4648
0.437 2.827 1.772 1343
0.450 2.906 1.807 3784
0.473 3.055 1.894 2605
0.461 2.979 1.838 3483
0.481 3.108 1.913 1417
0.463 2.991 1.833 4381
0.483 3.120 1.908 1003
0.463 2.995 1.825 5367
0.483 3.125 1.899 917
0.468 3.028 1.831 6177
0.448 2.898 1.758 1108
0.471 3.046 1.830 7490
0.451 2.916 1.757 785
0.474 3.065 1.829 9850
0.450 2.907 1.741 526
0.476 3.076 1.824 15643
0.449 2.905 1.729 674
0.477 3.081 1.815 18184
0.449 2.903 1.716 855
0.477 3.086 1.806 16574
0.524 3.388 1.972 811
0.477 3.084 1.793 12066
0.518 3.346 1.936 1305
0.477 3.082 1.781 9446
0.519 3.358 1.930 2080
0.478 3.093 1.776 10118
0.524 3.390 1.935 2363
0.479 3.098 1.767 10599
0.500 3.230 1.837 2297
0.480 3.103 1.758 10332
0.500 3.234 1.827 2450
0.481 3.107 1.749 8277
0.531 3.434 1.920 2436
0.481 3.112 1.740 4757
0.532 3.439 1.910 3029
0.534 3.451 1.904 3546
0.482 3.117 1.730 3221
0.535 3.456 1.894 4043
0.482 3.114 1.718 2204
0.535 3.461 1.884 4006
0.556 3.594 1.952 1935
0.537 3.473 1.877 3924
0.558 3.606 1.945 1742
0.548 3.541 1.899 4636
0.527 3.408 1.832 1936
0.550 3.553 1.892 6135
0.529 3.420 1.826 2232
0.551 3.565 1.885 6146
0.531 3.432 1.819 2307
0.553 3.577 1.878 6355
0.533 3.443 1.813 1712
0.555 3.589 1.872 7090
0.576 3.723 1.937 1596
0.557 3.601 1.864 8009
0.578 3.735 1.930 1643
0.567 3.663 1.881 7560
0.472 3.048 1.585 1630
0.568 3.675 1.874 6422
0.471 3.045 1.573 1462
0.569 3.680 1.863 4785
0.471 3.042 1.560 1266
0.572 3.699 1.859 4868
0.472 3.054 1.555 1120
0.574 3.711 1.852 7141
0.553 3.576 1.789 772
0.577 3.730 1.848 11210
0.556 3.595 1.785 632
0.578 3.735 1.837 10407
0.599 3.870 1.899 1387
0.581 3.754 1.832 5383
0.602 3.890 1.894 1586
0.588 3.802 1.841 3917
0.609 3.937 1.902 1171
0.590 3.814 1.833 3296
0.611 3.950 1.894 1308
0.593 3.833 1.828 3270
0.614 3.969 1.889 1499
0.603 3.895 1.842 5449
0.581 3.759 1.782 1937
0.606 3.914 1.837 6502
0.584 3.778 1.777 1825
0.612 3.955 1.842 7033
0.591 3.819 1.782 1901
0.611 3.953 1.827 6133
0.633 4.090 1.886 2532
0.612 3.958 1.816 5516
0.634 4.102 1.877 2616
0.612 3.955 1.801 4994
0.642 4.150 1.884 3339
0.637 4.119 1.856 3723
0.614 3.967 1.792 3650
0.646 4.175 1.866 4193
0.622 4.023 1.802 2962
0.648 4.187 1.856 8026
0.626 4.049 1.799 3001
0.648 4.192 1.844 8651
0.620 4.011 1.770 2769
0.650 4.204 1.835 5706
0.623 4.030 1.764 2187
0.651 4.209 1.823 5053
0.672 4.347 1.879 2258
0.659 4.257 1.828 4975
0.680 4.395 1.883 2015
0.664 4.291 1.827 5360
0.685 4.430 1.882 1745
0.667 4.311 1.820 4744
0.688 4.449 1.875 1782
0.671 4.337 1.816 3705
0.696 4.498 1.879 2981
0.695 4.496 1.863 3886
0.674 4.357 1.809 2416
0.680 4.398 1.811 3291
0.703 4.544 1.867 2447
0.681 4.403 1.798 3989
0.706 4.564 1.859 3260
0.703 4.547 1.838 4562
0.682 4.408 1.785 2887
0.703 4.545 1.822 5191
0.732 4.735 1.893 1736
0.704 4.549 1.808 3724
0.736 4.755 1.885 1844
0.740 4.782 1.879 2947
0.708 4.576 1.803 2453
0.738 4.772 1.859 4638
0.711 4.596 1.795 2829
0.739 4.777 1.845 4829
0.710 4.593 1.779 2678
0.741 4.790 1.834 3622
0.768 4.967 1.898 2021
0.743 4.802 1.823 4226
0.769 4.972 1.883 2241
0.742 4.799 1.806 3612
0.770 4.977 1.868 2636
0.764 4.937 1.838 2731
0.785 5.078 1.887 2397
0.763 4.935 1.821 4431
0.785 5.075 1.870 2985
0.764 4.940 1.807 5890
0.786 5.080 1.855 2332
0.765 4.944 1.793 5311
0.803 5.189 1.875 3350
0.803 5.194 1.860 4942
0.776 5.016 1.801 2962
0.804 5.199 1.845 2961
0.782 5.058 1.798 2149
0.789 5.100 1.796 2737
0.826 5.338 1.874 1967
0.810 5.239 1.824 2896
0.832 5.380 1.870 1599
0.811 5.244 1.809 2254
0.860 5.557 1.910 1907
0.830 5.368 1.832 2658
0.860 5.562 1.893 2440
0.835 5.395 1.823 2749
0.861 5.567 1.877 2055
0.864 5.587 1.865 2010
0.838 5.415 1.812 1981
0.890 5.756 1.900 2246
0.855 5.524 1.828 1772
0.894 5.776 1.888 3024
0.871 5.634 1.844 1467
0.898 5.804 1.877 3188
0.869 5.616 1.821 1489
0.901 5.824 1.865 3169
0.870 5.621 1.804 1370
0.903 5.836 1.850 2092
0.952 6.152 1.943 1293
0.954 6.164 1.928 1829
0.923 5.969 1.870 1379
0.945 6.109 1.892 2320
0.969 6.267 1.938 1113
0.947 6.122 1.876 2713
0.994 6.423 1.963 897
0.952 6.157 1.867 2110
0.982 6.345 1.920 1356
0.978 6.320 1.893 1872
1.021 6.599 1.971 1660
1.038 6.710 1.981 1941
0.997 6.446 1.908 1712
1.038 6.708 1.959 3328
1.060 6.852 1.999 2005
1.036 6.698 1.936 3511
1.059 6.849 1.977 2408
1.039 6.718 1.920 2665
1.091 7.051 2.009 1421
1.041 6.731 1.902 3083
1.103 7.132 2.008 2254
1.102 7.123 1.983 2576
1.042 6.736 1.883 2105
1.103 7.128 1.962 2355
1.137 7.348 2.019 2184
1.103 7.133 1.942 2422
1.137 7.353 1.998 2057
1.183 7.647 2.049 1693
1.104 7.138 1.921 1451
1.190 7.690 2.035 2589
1.167 7.546 2.000 926
1.192 7.703 2.015 1977
1.232 7.962 2.078 1021
1.220 7.884 2.035 1310
1.196 7.732 1.998 1289
1.194 7.722 1.971 1756
1.239 8.011 2.040 1269
1.240 8.017 2.017 1677
1.194 7.719 1.947 1572
1.242 8.030 1.995 1951
1.299 8.396 2.080 1170
1.298 8.394 2.054 1522
1.244 8.043 1.973 1181
1.300 8.407 2.031 1873
1.345 8.697 2.097 1047
1.346 8.702 2.071 1473
1.301 8.412 2.006 1372
1.411 9.121 2.136 1928
1.384 8.945 2.098 1374
1.413 9.134 2.111 2626
1.384 8.950 2.071 1602
1.417 9.163 2.089 2554
1.385 8.956 2.045 1847
1.419 9.176 2.064 2338
1.386 8.961 2.019 1355
1.420 9.181 2.037 2067
1.387 8.967 1.993 854
1.423 9.202 2.013 1456
1.389 8.980 1.968 927
1.423 9.200 1.985 844
1.391 8.993 1.943 601
1.430 9.244 1.965 859
1.432 9.257 1.940 1097
1.431 9.254 1.911 695
1.436 9.282 1.888 349
0.355 2.277 1.797 2631
0.356 2.282 1.791 5263
0.376 2.415 1.889 1261
0.362 2.325 1.812 5278
0.381 2.445 1.900 1450
0.362 2.323 1.801 6254
0.381 2.444 1.889 2657
0.363 2.328 1.794 7307
0.382 2.449 1.882 3517
0.364 2.333 1.787 5669
0.383 2.454 1.875 3809
0.383 2.459 1.867 4102
0.364 2.338 1.780 4030
0.384 2.464 1.860 4102
0.365 2.342 1.774 4030
0.387 2.482 1.862 3704
0.368 2.360 1.776 2922
0.389 2.493 1.860 3543
0.370 2.371 1.774 2105
0.388 2.491 1.848 3492
0.369 2.369 1.762 2610
0.374 2.400 1.773 4180
0.393 2.522 1.859 2181
0.375 2.404 1.766 3785
0.394 2.527 1.851 2554
0.375 2.403 1.755 3410
0.401 2.571 1.871 3008
0.384 2.466 1.788 3083
0.404 2.589 1.872 2879
0.398 2.555 1.838 4205
0.374 2.399 1.732 1399
0.399 2.560 1.831 5543
0.374 2.397 1.721 1385
0.402 2.578 1.832 5026
0.375 2.408 1.718 942
0.405 2.596 1.833 5752
0.378 2.426 1.720 587
0.406 2.607 1.830 5626
0.387 2.483 1.748 617
0.408 2.618 1.827 5609
0.389 2.494 1.745 793
0.399 2.558 1.776 5828
0.418 2.682 1.858 3381
0.400 2.569 1.773 6806
0.420 2.694 1.855 4589
0.419 2.686 1.838 5918
0.399 2.560 1.757 4677
0.418 2.684 1.826 6990
0.399 2.558 1.746 2687
0.418 2.682 1.814 5616
0.399 2.556 1.734 1435
0.429 2.753 1.848 5604
0.410 2.627 1.769 2016
0.428 2.745 1.832 5405
0.408 2.619 1.753 867
0.428 2.743 1.820 5612
0.447 2.870 1.899 870
0.432 2.768 1.824 6203
0.412 2.641 1.746 782
0.433 2.780 1.820 7455
0.453 2.906 1.899 832
0.434 2.784 1.812 8759
0.454 2.912 1.890 1148
0.435 2.789 1.804 10064
0.455 2.917 1.882 1464
0.437 2.801 1.800 7700
0.456 2.928 1.877 2870
0.439 2.819 1.800 5636
0.459 2.947 1.877 3908
0.459 2.945 1.864 4867
0.439 2.817 1.788 4562
0.461 2.957 1.860 5541
0.441 2.828 1.784 2641
0.461 2.955 1.847 4475
0.441 2.826 1.772 1309
0.453 2.906 1.807 3856
0.476 3.055 1.894 2653
0.456 2.924 1.807 3608
0.478 3.066 1.889 2208
0.465 2.983 1.829 4506
0.485 3.112 1.904 1300
0.467 2.995 1.825 5626
0.487 3.124 1.899 945
0.471 3.020 1.828 6231
0.451 2.891 1.754 947
0.474 3.039 1.826 7022
0.453 2.909 1.753 786
0.478 3.064 1.829 9127
0.454 2.914 1.745 538
0.479 3.076 1.824 14725
0.453 2.904 1.729 667
0.479 3.074 1.811 17176
0.452 2.902 1.716 834
0.481 3.085 1.806 15635
0.520 3.333 1.942 808
0.481 3.083 1.793 11315
0.521 3.345 1.936 1312
0.480 3.081 1.781 8754
0.522 3.350 1.927 2133
0.482 3.093 1.776 9543
0.521 3.341 1.909 2503
0.483 3.098 1.767 10192
0.503 3.229 1.837 2329
0.484 3.102 1.758 10042
0.504 3.234 1.827 2474
0.484 3.107 1.749 7977
0.535 3.433 1.920 2568
0.485 3.111 1.740 4480
0.536 3.438 1.910 3101
0.538 3.450 1.904 3423
0.486 3.116 1.730 2985
0.539 3.455 1.894 3728
0.485 3.114 1.718 2099
0.539 3.460 1.884 3679
0.560 3.593 1.952 1872
0.541 3.472 1.877 3882
0.562 3.605 1.945 1644
0.543 3.484 1.871 4923
0.564 3.617 1.938 1663
0.553 3.545 1.889 6378
0.532 3.412 1.822 1885
0.556 3.564 1.885 6185
0.535 3.431 1.819 2304
0.558 3.576 1.878 6356
0.537 3.443 1.813 1732
0.559 3.588 1.872 7395
0.580 3.722 1.937 1457
0.561 3.601 1.864 8463
0.582 3.734 1.930 1440
0.570 3.655 1.878 7790
0.475 3.048 1.585 1544
0.573 3.674 1.874 6556
0.475 3.045 1.573 1402
0.574 3.679 1.863 4749
0.475 3.049 1.564 1193
0.577 3.698 1.859 4703
0.476 3.053 1.555 995
0.578 3.710 1.852 6835
0.557 3.575 1.789 851
0.580 3.722 1.844 10642
0.601 3.857 1.907 620
0.582 3.734 1.837 9964
0.603 3.870 1.899 1312
0.584 3.746 1.829 5207
0.605 3.882 1.891 1560
0.593 3.801 1.841 3758
0.614 3.937 1.902 1136
0.597 3.827 1.839 3307
0.618 3.963 1.901 1169
0.597 3.832 1.828 3424
0.619 3.968 1.889 1514
0.607 3.894 1.842 5188
0.586 3.758 1.782 1800
0.610 3.914 1.837 6342
0.589 3.777 1.777 1788
0.616 3.955 1.842 7314
0.595 3.818 1.782 1968
0.616 3.952 1.827 6638
0.637 4.089 1.886 2312
0.618 3.964 1.819 5806
0.640 4.108 1.880 2390
0.616 3.955 1.801 4736
0.647 4.149 1.884 3260
0.642 4.118 1.856 3528
0.618 3.967 1.792 3299
0.651 4.174 1.866 4276
0.629 4.036 1.808 2881
0.653 4.186 1.856 8387
0.631 4.049 1.799 2845
0.653 4.191 1.844 9081
0.625 4.010 1.770 2702
0.655 4.203 1.835 5864
0.628 4.029 1.764 2197
0.656 4.208 1.823 4998
0.677 4.346 1.879 2181
0.664 4.256 1.828 4735
0.685 4.395 1.883 1891
0.669 4.290 1.827 5194
0.690 4.429 1.882 1730
0.672 4.310 1.820 4638
0.693 4.448 1.875 1779
0.676 4.337 1.816 3553
0.701 4.497 1.879 2746
0.701 4.495 1.863 3583
0.679 4.356 1.809 2345
0.684 4.390 1.808 3080
0.708 4.544 1.867 2321
0.685 4.395 1.795 3631
0.711 4.563 1.859 3274
0.709 4.546 1.838 4843
0.687 4.407 1.785 2593
0.708 4.544 1.822 5231
0.738 4.734 1.893 1606
0.709 4.549 1.808 3563
0.741 4.754 1.885 1865
0.744 4.774 1.876 2897
0.714 4.583 1.806 2481
0.744 4.771 1.859 4628
0.716 4.595 1.795 2786
0.745 4.776 1.845 4861
0.717 4.600 1.782 2725
0.747 4.789 1.834 3729
0.774 4.966 1.898 1932
0.748 4.801 1.823 4212
0.776 4.978 1.886 2162
0.748 4.798 1.806 3539
0.776 4.976 1.868 2656
0.770 4.936 1.838 2698
0.791 5.077 1.887 2287
0.769 4.934 1.821 4193
0.791 5.075 1.870 2964
0.770 4.939 1.807 5533
0.792 5.079 1.855 2292
0.771 4.943 1.793 4881
0.809 5.188 1.875 3579
0.810 5.193 1.860 5028
0.782 5.015 1.801 2782
0.810 5.198 1.845 2902
0.788 5.057 1.798 2319
0.794 5.091 1.793 2866
0.833 5.344 1.876 2044
0.817 5.238 1.824 2894
0.839 5.379 1.870 1688
0.817 5.243 1.809 2285
0.866 5.556 1.910 1989
0.835 5.359 1.829 2615
0.867 5.561 1.893 2546
0.840 5.387 1.821 2696
0.869 5.573 1.879 2011
0.872 5.593 1.868 1982
0.844 5.414 1.812 1953
0.911 5.845 1.928 2197
0.889 5.703 1.884 1824
0.900 5.775 1.888 2999
0.877 5.626 1.842 1523
0.905 5.803 1.877 3094
0.875 5.615 1.821 1581
0.909 5.830 1.867 3073
0.876 5.620 1.804 1425
0.911 5.843 1.852 2147
0.959 6.151 1.943 1266
0.961 6.163 1.928 1812
0.930 5.968 1.870 1317
0.952 6.108 1.892 2489
0.977 6.266 1.938 1147
0.954 6.121 1.876 2776
0.976 6.264 1.917 938
0.960 6.156 1.867 2062
0.990 6.352 1.922 1266
0.985 6.319 1.893 1775
1.029 6.598 1.971 1701
1.046 6.709 1.981 1856
0.986 6.324 1.875 1602
1.046 6.707 1.959 3356
1.068 6.850 1.999 1848
1.045 6.704 1.938 3570
1.068 6.848 1.977 2262
1.045 6.702 1.916 2656
1.084 6.952 1.983 1431
1.049 6.730 1.902 2904
1.112 7.131 2.008 1912
1.109 7.114 1.981 2229
1.050 6.735 1.883 2044
1.093 7.013 1.933 2129
1.144 7.339 2.017 2096
1.112 7.132 1.942 2111
1.145 7.344 1.996 2034
1.191 7.638 2.047 1683
1.113 7.137 1.921 1321
1.197 7.681 2.034 2607
1.164 7.469 1.981 965
1.199 7.694 2.013 1956
1.241 7.961 2.078 1009
1.205 7.730 1.998 1283
1.229 7.882 2.035 1237
1.204 7.720 1.971 1814
1.249 8.010 2.040 1183
1.203 7.718 1.947 1641
1.249 8.015 2.017 1570
1.251 8.028 1.995 1893
1.310 8.402 2.082 1319
1.309 8.400 2.056 1710
1.254 8.041 1.973 1234
1.310 8.405 2.031 2065
1.357 8.703 2.098 1066
1.356 8.701 2.071 1558
1.311 8.411 2.006 1366
1.422 9.119 2.136 1879
1.394 8.943 2.098 1332
1.424 9.132 2.111 2637
1.395 8.949 2.071 1573
1.428 9.161 2.089 2677
1.396 8.954 2.045 1822
1.430 9.174 2.064 2483
1.397 8.960 2.019 1328
1.431 9.180 2.037 2098
1.396 8.958 1.991 826
1.434 9.201 2.013 1411
1.400 8.978 1.968 873
1.434 9.198 1.985 835
1.402 8.991 1.943 570
1.441 9.242 1.965 830
1.443 9.255 1.940 1001
1.442 9.252 1.911 585
1.449 9.296 1.891 319
0.359 2.277 1.797 2963
0.359 2.282 1.791 5927
0.380 2.414 1.889 1178
0.360 2.286 1.784 5927
0.381 2.419 1.882 2356
0.366 2.323 1.801 6245
0.385 2.443 1.889 2562
0.367 2.328 1.794 7341
0.386 2.448 1.882 3439
0.367 2.332 1.787 5693
0.386 2.453 1.875 3834
0.387 2.458 1.867 4229
0.368 2.337 1.780 4045
0.388 2.463 1.860 4229
0.369 2.342 1.774 4045
0.391 2.481 1.862 3841
0.372 2.359 1.776 2836
0.392 2.486 1.855 3636
0.372 2.364 1.769 1799
0.392 2.491 1.848 3537
0.373 2.369 1.762 2367
0.379 2.406 1.778 4086
0.398 2.528 1.863 1733
0.380 2.410 1.771 3656
0.399 2.533 1.856 2443
0.406 2.577 1.875 3451
0.385 2.447 1.786 3238
0.407 2.582 1.868 3451
0.387 2.459 1.784 3098
0.403 2.561 1.843 4517
0.384 2.437 1.759 1324
0.403 2.559 1.831 5825
0.377 2.396 1.721 1260
0.406 2.577 1.832 5258
0.379 2.407 1.718 906
0.409 2.595 1.833 5748
0.382 2.425 1.720 635
0.411 2.606 1.830 5716
0.391 2.482 1.748 593
0.411 2.611 1.823 5750
0.431 2.736 1.905 684
0.403 2.557 1.776 5767
0.422 2.682 1.858 3122
0.405 2.568 1.773 6817
0.424 2.693 1.855 4260
0.422 2.678 1.834 5674
0.402 2.553 1.753 4328
0.423 2.683 1.826 6803
0.403 2.558 1.746 2740
0.430 2.728 1.844 5786
0.410 2.602 1.764 2269
0.434 2.753 1.848 6485
0.414 2.627 1.769 2280
0.432 2.744 1.832 6102
0.412 2.618 1.753 973
0.432 2.742 1.820 6196
0.452 2.869 1.899 892
0.435 2.761 1.820 6598
0.455 2.887 1.899 825
0.438 2.779 1.820 7729
0.458 2.906 1.899 955
0.438 2.784 1.812 9092
0.458 2.911 1.890 1273
0.439 2.788 1.804 10456
0.459 2.916 1.882 1591
0.441 2.800 1.800 8014
0.461 2.928 1.877 3001
0.444 2.818 1.800 5813
0.464 2.946 1.877 3979
0.464 2.944 1.864 4894
0.444 2.816 1.788 4650
0.466 2.956 1.860 5517
0.445 2.828 1.784 2619
0.465 2.954 1.847 4330
0.445 2.826 1.772 1306
0.458 2.905 1.807 4281
0.481 3.054 1.894 2866
0.459 2.916 1.803 4026
0.483 3.066 1.889 2370
0.470 2.982 1.829 4750
0.490 3.112 1.904 1518
0.472 2.994 1.825 6146
0.492 3.123 1.899 1232
0.475 3.013 1.824 6503
0.454 2.883 1.750 778
0.477 3.031 1.823 6507
0.457 2.901 1.749 744
0.484 3.070 1.833 8200
0.463 2.940 1.760 761
0.484 3.075 1.824 13664
0.508 3.226 1.908 751
0.485 3.080 1.815 16134
0.457 2.901 1.716 772
0.486 3.085 1.806 14680
0.510 3.236 1.889 853
0.487 3.089 1.797 10516
0.527 3.344 1.936 1349
0.486 3.087 1.785 7872
0.528 3.349 1.927 2306
0.488 3.099 1.779 8945
0.525 3.334 1.906 2952
0.489 3.104 1.770 10125
0.525 3.332 1.892 2786
0.490 3.108 1.761 10128
0.540 3.427 1.930 2267
0.490 3.113 1.752 7808
0.541 3.432 1.920 2909
0.490 3.111 1.740 4133
0.541 3.437 1.910 3348
0.542 3.442 1.900 3284
0.491 3.115 1.730 2642
0.544 3.454 1.894 3256
0.491 3.120 1.721 2057
0.544 3.452 1.880 3267
0.565 3.585 1.948 2144
0.547 3.471 1.877 3970
0.568 3.604 1.945 1583
0.550 3.490 1.874 5648
0.571 3.623 1.941 1449
0.557 3.537 1.885 7012
0.536 3.404 1.819 1746
0.560 3.556 1.882 6621
0.539 3.423 1.816 2133
0.563 3.576 1.878 6682
0.542 3.442 1.813 1833
0.565 3.588 1.872 8052
0.586 3.721 1.937 1259
0.567 3.600 1.864 9311
0.479 3.043 1.594 1275
0.576 3.654 1.878 8132
0.480 3.047 1.585 1391
0.579 3.673 1.874 6762
0.557 3.539 1.810 1574
0.579 3.678 1.863 4637
0.558 3.544 1.799 1324
0.580 3.683 1.853 4223
0.559 3.548 1.789 1125
0.584 3.709 1.852 6227
0.563 3.574 1.789 1113
0.587 3.728 1.848 10026
0.566 3.593 1.785 610
0.588 3.733 1.837 9713
0.609 3.869 1.899 1183
0.590 3.745 1.829 5277
0.611 3.881 1.891 1349
0.599 3.800 1.841 3781
0.620 3.936 1.902 1219
0.602 3.819 1.836 3577
0.623 3.955 1.897 1407
0.603 3.831 1.828 3779
0.625 3.967 1.889 1669
0.613 3.894 1.842 4717
0.592 3.757 1.782 1785
0.621 3.941 1.850 6036
0.599 3.805 1.790 2469
0.623 3.954 1.842 7824
0.601 3.817 1.782 2070
0.623 3.958 1.830 7674
0.645 4.095 1.889 2042
0.624 3.963 1.819 6600
0.647 4.107 1.880 2230
0.624 3.961 1.804 4609
0.653 4.148 1.884 3249
0.644 4.088 1.844 3534
0.622 3.951 1.786 2722
0.657 4.173 1.866 4740
0.636 4.035 1.808 2857
0.659 4.185 1.856 9464
0.638 4.048 1.799 2793
0.660 4.190 1.844 10311
0.631 4.009 1.770 2906
0.662 4.202 1.835 6464
0.634 4.028 1.764 2390
0.661 4.200 1.820 5166
0.683 4.338 1.876 2174
0.662 4.205 1.807 4506
0.684 4.343 1.863 2379
0.677 4.297 1.830 5209
0.699 4.435 1.885 1912
0.680 4.316 1.823 4681
0.702 4.454 1.878 1946
0.682 4.328 1.813 3295
0.704 4.467 1.868 2454
0.707 4.486 1.860 3106
0.679 4.311 1.792 1885
0.692 4.396 1.811 2833
0.717 4.550 1.870 2169
0.692 4.394 1.795 3440
0.717 4.555 1.856 3372
0.716 4.545 1.838 5414
0.694 4.406 1.785 2396
0.717 4.550 1.824 5471
0.746 4.733 1.893 1629
0.719 4.562 1.814 3311
0.747 4.746 1.882 1874
0.751 4.765 1.873 2783
0.724 4.596 1.811 2618
0.751 4.770 1.859 4486
0.725 4.601 1.798 2977
0.752 4.775 1.845 4935
0.724 4.598 1.782 3029
0.755 4.795 1.837 4194
0.725 4.603 1.768 2202
0.756 4.800 1.823 4541
0.784 4.977 1.886 2283
0.756 4.797 1.806 3520
0.784 4.975 1.868 2910
0.776 4.928 1.836 2780
0.798 5.068 1.885 2258
0.777 4.933 1.821 4070
0.799 5.073 1.870 3023
0.778 4.937 1.807 5208
0.800 5.078 1.855 2427
0.778 4.942 1.793 4448
0.818 5.194 1.878 3563
0.819 5.199 1.863 4973
0.790 5.014 1.801 2480
0.820 5.204 1.847 2883
0.798 5.063 1.801 2497
0.802 5.090 1.793 2931
0.842 5.343 1.876 2089
0.825 5.236 1.824 3052
0.847 5.378 1.870 1699
0.826 5.241 1.809 2260
0.875 5.554 1.910 2139
0.876 5.559 1.893 2757
0.843 5.351 1.827 2738
0.848 5.385 1.821 2874
0.879 5.579 1.882 1977
0.853 5.412 1.812 2111
0.881 5.592 1.868 2029
0.919 5.836 1.925 2191
0.882 5.597 1.851 1849
0.911 5.781 1.890 3013
0.885 5.617 1.840 1732
0.915 5.809 1.880 3005
0.884 5.614 1.821 1857
0.919 5.836 1.869 3140
0.885 5.619 1.804 1582
0.921 5.849 1.855 2333
0.970 6.157 1.946 1249
0.960 6.094 1.908 2024
0.987 6.267 1.958 1465
0.962 6.107 1.892 2611
0.987 6.265 1.938 1292
0.964 6.119 1.876 2761
0.933 5.924 1.820 1134
0.968 6.147 1.865 1987
0.999 6.343 1.920 1272
1.040 6.604 1.973 1753
0.995 6.318 1.893 1731
0.997 6.330 1.877 1598
1.052 6.677 1.973 1589
1.057 6.713 1.961 3261
1.086 6.894 2.011 1559
1.057 6.710 1.940 3558
1.080 6.854 1.979 1909
1.057 6.708 1.918 2488
1.097 6.965 1.987 1644
1.060 6.728 1.902 2527
1.100 6.985 1.970 2061
1.105 7.013 1.956 2381
1.062 6.741 1.885 1925
1.106 7.019 1.935 2347
1.156 7.337 2.017 1954
1.157 7.342 1.996 1912
1.123 7.130 1.942 1736
1.200 7.621 2.043 1580
1.159 7.355 1.976 1203
1.210 7.680 2.034 2530
1.169 7.421 1.969 1199
1.212 7.693 2.013 1916
1.255 7.966 2.080 1088
1.216 7.721 1.996 1300
1.256 7.972 2.057 1274
1.216 7.718 1.971 1903
1.261 8.008 2.040 1022
1.215 7.716 1.947 1752
1.333 8.462 2.123 1308
1.265 8.034 1.997 1744
1.324 8.407 2.084 1303
1.324 8.405 2.057 1572
1.266 8.039 1.973 1380
1.322 8.395 2.029 1779
1.370 8.701 2.098 1055
1.370 8.699 2.071 1621
1.323 8.401 2.005 1165
1.436 9.117 2.136 1860
1.408 8.941 2.098 1279
1.438 9.130 2.111 2711
1.409 8.947 2.071 1500
1.443 9.159 2.089 2939
1.410 8.952 2.045 1778
1.445 9.172 2.064 2828
1.411 8.958 2.019 1280
1.446 9.178 2.037 2217
1.409 8.948 1.989 773
1.449 9.198 2.013 1387
1.414 8.976 1.968 778
1.450 9.204 1.986 880
1.416 8.989 1.943 541
1.457 9.247 1.967 879
1.457 9.253 1.940 869
1.457 9.250 1.911 445
1.464 9.293 1.891 323
1.380 8.763 1.791 251
0.362 2.276 1.797 3215
0.362 2.281 1.791 6430
0.383 2.414 1.889 1074
0.363 2.286 1.784 6430
0.384 2.419 1.882 2149
0.368 2.316 1.796 6240
0.387 2.436 1.884 2698
0.369 2.321 1.789 7187
0.388 2.441 1.877 3593
0.370 2.332 1.787 5531
0.390 2.453 1.875 3641
0.390 2.458 1.867 4079
0.371 2.337 1.780 3932
0.392 2.469 1.865 4091
0.373 2.348 1.778 3962
0.393 2.474 1.858 3903
0.374 2.352 1.771 2741
0.395 2.485 1.855 3795
0.375 2.363 1.769 1791
0.396 2.490 1.848 3679
0.376 2.368 1.762 2213
0.382 2.405 1.778 4053
0.401 2.527 1.863 1843
0.383 2.410 1.771 3550
0.408 2.571 1.883 2657
0.409 2.576 1.875 3769
0.390 2.453 1.791 3378
0.410 2.581 1.868 3769
0.390 2.458 1.784 3255
0.408 2.567 1.847 4708
0.388 2.443 1.763 1553
0.407 2.565 1.835 5945
0.382 2.402 1.725 1138
0.410 2.583 1.837 5414
0.383 2.413 1.723 872
0.412 2.594 1.833 5663
0.385 2.425 1.720 646
0.414 2.606 1.830 5658
0.394 2.481 1.748 557
0.415 2.611 1.823 5755
0.434 2.735 1.905 621
0.407 2.563 1.781 5580
0.427 2.688 1.862 2569
0.408 2.568 1.773 6613
0.428 2.693 1.855 3823
0.423 2.665 1.825 5370
0.403 2.539 1.745 3242
0.425 2.676 1.822 6448
0.405 2.551 1.741 2398
0.434 2.734 1.848 6022
0.414 2.608 1.768 2494
0.437 2.752 1.848 6996
0.417 2.626 1.769 2406
0.436 2.744 1.832 6612
0.416 2.618 1.753 1035
0.436 2.742 1.820 6664
0.456 2.868 1.899 927
0.437 2.753 1.816 6810
0.457 2.880 1.895 991
0.441 2.778 1.820 7731
0.461 2.905 1.899 1042
0.442 2.783 1.812 9118
0.462 2.910 1.890 1347
0.443 2.788 1.804 10506
0.463 2.915 1.882 1652
0.445 2.799 1.800 8088
0.465 2.927 1.877 3020
0.448 2.818 1.800 5824
0.468 2.945 1.877 3941
0.468 2.944 1.864 4764
0.447 2.816 1.788 4593
0.469 2.955 1.860 5333
0.449 2.827 1.784 2495
0.469 2.954 1.847 4116
0.490 3.082 1.923 1309
0.461 2.904 1.807 4407
0.485 3.053 1.894 2852
0.463 2.916 1.803 4137
0.487 3.065 1.889 2402
0.474 2.982 1.829 4700
0.494 3.111 1.904 1730
0.475 2.993 1.825 6275
0.496 3.123 1.899 1505
0.477 3.005 1.820 6497
0.498 3.135 1.894 1169
0.481 3.030 1.823 5930
0.502 3.160 1.896 894
0.488 3.069 1.833 7250
0.467 2.940 1.760 850
0.488 3.074 1.824 12458
0.509 3.204 1.897 884
0.489 3.079 1.815 14888
0.513 3.230 1.899 845
0.490 3.084 1.806 13476
0.511 3.215 1.878 992
0.491 3.089 1.797 9515
0.511 3.220 1.869 1438
0.491 3.094 1.788 6965
0.532 3.349 1.927 2339
0.492 3.098 1.779 8339
0.529 3.333 1.906 3236
0.493 3.103 1.770 9812
0.529 3.331 1.892 3191
0.494 3.108 1.761 9862
0.544 3.426 1.930 2467
0.494 3.112 1.752 7420
0.545 3.431 1.920 3229
0.499 3.145 1.758 3679
0.546 3.437 1.910 3614
0.547 3.442 1.900 3152
0.501 3.156 1.752 2663
0.545 3.433 1.883 2799
0.500 3.147 1.736 2020
0.543 3.417 1.862 3198
0.565 3.556 1.934 2611
0.551 3.471 1.877 4063
0.508 3.198 1.739 1523
0.554 3.490 1.874 6306
0.514 3.238 1.747 1525
0.562 3.537 1.885 7579
