-0.342 3.360 1.689 5757
-0.345 3.385 1.689 6109
-0.345 3.390 1.679 6789
-0.346 3.402 1.673 6045
-0.348 3.420 1.669 3182
-0.365 3.583 1.731 4897
-0.365 3.588 1.720 7483
-0.367 3.606 1.716 8463
-0.369 3.625 1.712 7252
-0.370 3.637 1.705 6190
-0.368 3.613 1.682 9275
-0.369 3.625 1.675 11359
-0.370 3.636 1.667 8863
-0.371 3.641 1.657 6368
-0.388 3.812 1.716 9526
-0.389 3.824 1.708 8374
-0.390 3.836 1.700 4563
-0.401 3.943 1.731 4703
-0.407 3.998 1.740 4277
-0.406 3.988 1.723 3464
-0.410 4.029 1.726 2952
-0.410 4.027 1.711 4433
-0.410 4.024 1.697 5042
-0.425 4.175 1.742 5592
-0.424 4.165 1.724 4646
-0.428 4.207 1.726 4187
-0.429 4.219 1.717 6199
-0.431 4.238 1.710 5585
-0.434 4.265 1.706 5353
-0.434 4.262 1.691 6445
-0.434 4.266 1.679 8965
-0.435 4.278 1.669 7998
-0.437 4.290 1.659 6036
-0.439 4.309 1.652 7341
-0.444 4.358 1.655 6757
-0.444 4.363 1.643 4786
-0.441 4.337 1.620 4566
-0.455 4.468 1.650 4020
-0.485 4.764 1.736 6793
-0.487 4.783 1.727 9441
-0.488 4.795 1.716 10139
-0.489 4.800 1.702 7300
-0.488 4.797 1.686 7783
-0.489 4.801 1.672 9904
-0.488 4.791 1.653 10750
-0.489 4.803 1.641 11224
-0.489 4.807 1.628 9377
-0.489 4.804 1.611 6672
-0.489 4.808 1.597 5922
-0.490 4.812 1.583 4585
-0.491 4.824 1.572 2964
-0.522 5.130 1.647 2000
-0.517 5.074 1.615 2833
-0.517 5.078 1.600 4204
-0.517 5.083 1.585 4864
-0.519 5.094 1.573 3968
-0.557 5.470 1.662 4911
-0.558 5.482 1.648 4810
-0.567 5.570 1.655 4199
-0.569 5.590 1.643 4196
-0.571 5.609 1.631 4037
-0.588 5.781 1.659 3522
-0.579 5.686 1.617 4112
-0.578 5.683 1.598 4274
-0.643 6.313 1.742 2584
-0.653 6.417 1.748 3444
-0.654 6.429 1.732 4639
-0.655 6.434 1.713 2894
-0.662 6.507 1.711 1540
-0.657 6.451 1.677 1928
-0.666 6.539 1.679 2669
-0.665 6.536 1.658 3868
-0.667 6.548 1.640 3114
-0.672 6.599 1.632 2171
-0.703 6.910 1.682 2235
-0.704 6.915 1.662 3599
-0.704 6.919 1.642 3672
-0.704 6.916 1.620 3419
-0.762 7.483 1.719 2993
-0.751 7.379 1.675 2457
-0.767 7.538 1.685 3069
-0.768 7.542 1.663 3078
-0.771 7.570 1.646 3819
-0.770 7.567 1.622 4781
-0.771 7.571 1.600 3512
-0.824 8.093 1.677 2051
-0.876 8.609 1.750 1849
-0.877 8.613 1.725 3110
-0.877 8.618 1.699 3050
-0.895 8.793 1.705 3306
-0.898 8.821 1.683 3156
-0.891 8.755 1.645 3788
-0.892 8.760 1.620 2773
-0.893 8.772 1.596 1057
-0.945 9.281 1.653 912
-0.900 8.842 1.554 1321
-0.900 8.839 1.527 1791
-0.899 8.835 1.500 1315
-0.900 8.839 1.475 713
-0.899 8.835 1.448 352
-0.226 2.262 1.774 1548
-0.226 2.267 1.767 3097
-0.227 2.271 1.761 3097
-0.224 2.250 1.736 4230
-0.225 2.255 1.729 5467
-0.227 2.272 1.732 5689
-0.228 2.290 1.735 6482
-0.229 2.295 1.728 6482
-0.229 2.299 1.721 9251
-0.230 2.304 1.715 12020
-0.230 2.308 1.708 10764
-0.231 2.313 1.702 9509
-0.232 2.330 1.704 7600
-0.234 2.348 1.706 6567
-0.242 2.424 1.748 6171
-0.242 2.429 1.741 7229
-0.243 2.434 1.734 7184
-0.243 2.432 1.723 6906
-0.243 2.436 1.716 6584
-0.243 2.441 1.709 4903
-0.244 2.445 1.702 3222
-0.258 2.582 1.781 3224
-0.260 2.607 1.786 4313
-0.262 2.625 1.787 6124
-0.262 2.630 1.780 8153
-0.263 2.635 1.772 8258
-0.264 2.646 1.769 8369
-0.264 2.651 1.761 7607
-0.265 2.655 1.753 6845
-0.266 2.667 1.750 6130
-0.267 2.678 1.746 5692
-0.270 2.703 1.751 6707
-0.271 2.714 1.747 8558
-0.273 2.733 1.748 8878
-0.273 2.737 1.740 9609
-0.273 2.742 1.732 7913
-0.272 2.726 1.712 6388
-0.273 2.737 1.708 5898
-0.274 2.749 1.704 4013
-0.282 2.829 1.740 4293
-0.281 2.820 1.724 4199
-0.281 2.817 1.712 4674
-0.288 2.884 1.738 4290
-0.289 2.895 1.734 5013
-0.286 2.865 1.706 4979
-0.294 2.946 1.740 4501
-0.294 2.950 1.732 4637
-0.295 2.962 1.727 4374
-0.293 2.939 1.703 4195
-0.292 2.929 1.687 5073
-0.293 2.941 1.683 4821
-0.303 3.036 1.722 4677
-0.303 3.033 1.710 4741
-0.310 3.108 1.738 5825
-0.309 3.099 1.721 7440
-0.309 3.096 1.709 7262
-0.311 3.122 1.711 7752
-0.313 3.140 1.709 6954
-0.318 3.187 1.721 6836
-0.318 3.192 1.712 5903
-0.331 3.316 1.762 6204
-0.334 3.349 1.767 6349
-0.327 3.276 1.719 6029
-0.327 3.281 1.709 7795
-0.332 3.328 1.720 7163
-0.334 3.354 1.721 8837
-0.336 3.365 1.715 7583
-0.333 3.334 1.688 6911
-0.336 3.367 1.692 6597
-0.338 3.386 1.689 6647
-0.338 3.391 1.679 7208
-0.339 3.402 1.673 6239
-0.340 3.414 1.666 3196
-0.357 3.576 1.727 5446
-0.358 3.588 1.720 8368
-0.359 3.600 1.713 9373
-0.360 3.612 1.706 7770
-0.361 3.616 1.695 6298
-0.360 3.614 1.682 10907
-0.362 3.625 1.675 14033
-0.362 3.630 1.664 11020
-0.363 3.641 1.657 7842
-0.380 3.813 1.716 8943
-0.381 3.825 1.708 8219
-0.383 3.844 1.703 5086
-0.393 3.943 1.731 4289
-0.399 3.999 1.740 3980
-0.400 4.011 1.731 3288
-0.402 4.030 1.726 3193
-0.402 4.028 1.711 4602
-0.401 4.025 1.697 5968
-0.403 4.044 1.691 5635
-0.416 4.174 1.727 4367
-0.420 4.215 1.729 3844
-0.422 4.234 1.722 6013
-0.423 4.246 1.713 6230
-0.425 4.266 1.706 6035
-0.426 4.270 1.694 7391
-0.426 4.275 1.681 10185
-0.427 4.279 1.669 8738
-0.428 4.291 1.659 6636
-0.430 4.310 1.652 8888
-0.431 4.322 1.642 8228
-0.431 4.326 1.630 5937
-0.433 4.338 1.620 5757
-0.434 4.350 1.610 4509
-0.476 4.772 1.739 4819
-0.478 4.792 1.730 8038
-0.479 4.804 1.718 9471
-0.479 4.801 1.702 7339
-0.478 4.798 1.686 8578
-0.479 4.802 1.672 10582
-0.478 4.792 1.653 10959
-0.479 4.804 1.641 11637
-0.479 4.808 1.628 9524
-0.480 4.812 1.614 6543
-0.480 4.817 1.600 6073
-0.505 5.062 1.659 4941
-0.507 5.082 1.649 3893
-0.508 5.093 1.636 2586
-0.508 5.090 1.619 3039
-0.507 5.079 1.600 4506
-0.507 5.084 1.585 5704
-0.508 5.095 1.573 4534
-0.546 5.471 1.662 5449
-0.547 5.483 1.648 4704
-0.556 5.571 1.655 3646
-0.557 5.583 1.641 3337
-0.560 5.610 1.631 3305
-0.566 5.676 1.631 3454
-0.566 5.680 1.615 4228
-0.567 5.684 1.598 4246
-0.630 6.314 1.742 2707
-0.640 6.418 1.748 3752
-0.641 6.431 1.732 4936
-0.643 6.443 1.715 3353
-0.645 6.470 1.702 1860
-0.644 6.460 1.679 1844
-0.653 6.548 1.680 2216
-0.653 6.545 1.659 3137
-0.654 6.557 1.642 2713
-0.658 6.600 1.632 2173
-0.689 6.912 1.682 2257
-0.690 6.916 1.662 3762
-0.690 6.921 1.642 3724
-0.690 6.917 1.620 3409
-0.746 7.484 1.719 3370
-0.748 7.496 1.699 2555
-0.752 7.539 1.685 3652
-0.753 7.552 1.665 3838
-0.754 7.564 1.644 4430
-0.754 7.560 1.621 5466
-0.755 7.572 1.600 3903
-0.807 8.095 1.677 1997
-0.859 8.611 1.750 1770
-0.859 8.615 1.725 2999
-0.860 8.620 1.699 3192
-0.877 8.795 1.705 3559
-0.880 8.823 1.683 3637
-0.874 8.765 1.647 3370
-0.875 8.769 1.621 2419
-0.881 8.836 1.606 928
-0.882 8.840 1.580 684
-0.881 8.836 1.553 1056
-0.881 8.833 1.526 1623
-0.881 8.837 1.500 1325
-0.882 8.841 1.475 763
-0.881 8.837 1.448 369
-0.216 2.231 1.750 1432
-0.217 2.235 1.744 2865
-0.217 2.240 1.737 2865
-0.217 2.245 1.731 4229
-0.219 2.256 1.729 5602
-0.220 2.273 1.732 5696
-0.226 2.329 1.762 6670
-0.226 2.334 1.755 6670
-0.223 2.300 1.721 9081
-0.223 2.304 1.715 11768
-0.224 2.309 1.708 10497
-0.225 2.320 1.706 9252
-0.226 2.331 1.704 7561
-0.227 2.342 1.702 6547
-0.235 2.425 1.748 6262
-0.235 2.430 1.741 7392
-0.236 2.434 1.734 7331
-0.236 2.432 1.723 6978
-0.237 2.444 1.720 6631
-0.237 2.448 1.713 4988
-0.238 2.453 1.706 3346
-0.250 2.583 1.781 3180
-0.253 2.608 1.786 4172
-0.254 2.626 1.787 5763
-0.255 2.630 1.780 7586
-0.255 2.635 1.772 7691
-0.256 2.640 1.764 7795
-0.257 2.651 1.761 7107
-0.257 2.656 1.753 6470
-0.258 2.667 1.750 5767
-0.260 2.679 1.746 5369
-0.262 2.704 1.751 6697
-0.263 2.715 1.747 8986
-0.264 2.727 1.743 9402
-0.265 2.738 1.740 10103
-0.265 2.736 1.728 8300
-0.264 2.727 1.712 6499
-0.265 2.738 1.708 5698
-0.266 2.743 1.700 3843
-0.274 2.829 1.740 3680
-0.273 2.820 1.724 4120
-0.273 2.818 1.712 4848
-0.279 2.884 1.738 4325
-0.281 2.896 1.734 4993
-0.282 2.914 1.733 4413
-0.285 2.940 1.736 4091
-0.285 2.944 1.728 3873
-0.288 2.970 1.731 3691
-0.285 2.940 1.703 3569
-0.284 2.930 1.687 4735
-0.285 2.942 1.683 4536
-0.294 3.030 1.719 4824
-0.293 3.027 1.706 4730
-0.301 3.109 1.738 5828
-0.301 3.106 1.725 7330
-0.301 3.104 1.712 7461
-0.303 3.123 1.711 8258
-0.304 3.141 1.709 7331
-0.308 3.181 1.717 6242
-0.309 3.193 1.712 5055
-0.321 3.317 1.762 6329
-0.325 3.350 1.767 6210
-0.317 3.277 1.719 5435
-0.318 3.282 1.709 6946
-0.323 3.336 1.724 7969
-0.325 3.355 1.721 10272
-0.325 3.359 1.711 8903
-0.324 3.342 1.692 7953
-0.327 3.375 1.695 7253
-0.328 3.387 1.689 7083
-0.329 3.399 1.682 7555
-0.330 3.410 1.676 6368
-0.343 3.544 1.725 3497
-0.347 3.577 1.727 6028
-0.348 3.589 1.720 9036
-0.349 3.601 1.713 10271
-0.349 3.606 1.703 8727
-0.350 3.610 1.692 7036
-0.350 3.615 1.682 11962
-0.351 3.626 1.675 15856
-0.352 3.631 1.664 12839
-0.352 3.635 1.654 9258
-0.370 3.814 1.716 8180
-0.371 3.833 1.711 8016
-0.373 3.852 1.706 5620
-0.385 3.974 1.743 3864
-0.388 4.000 1.740 3639
-0.389 4.012 1.731 3308
-0.391 4.031 1.726 3779
-0.390 4.029 1.711 5000
-0.390 4.026 1.697 6360
-0.392 4.045 1.691 6366
-0.394 4.072 1.687 4731
-0.409 4.223 1.732 3526
-0.410 4.235 1.722 6036
-0.411 4.247 1.713 6884
-0.413 4.267 1.706 6565
-0.415 4.279 1.696 7967
-0.415 4.283 1.684 11035
-0.415 4.288 1.672 9399
-0.417 4.300 1.662 7360
-0.418 4.311 1.652 10248
-0.419 4.323 1.642 9736
-0.419 4.328 1.630 7432
-0.420 4.339 1.620 7218
-0.422 4.351 1.610 5314
-0.464 4.788 1.744 3410
-0.465 4.800 1.732 6923
-0.466 4.805 1.718 8634
-0.466 4.810 1.705 7301
-0.466 4.807 1.688 9156
-0.465 4.804 1.672 10752
-0.464 4.793 1.653 10521
-0.466 4.805 1.641 11207
-0.467 4.817 1.630 9069
-0.467 4.821 1.616 6170
-0.467 4.818 1.600 5762
-0.491 5.071 1.661 5373
-0.492 5.083 1.649 4907
-0.494 5.095 1.636 3262
-0.493 5.092 1.619 3477
-0.492 5.081 1.600 4848
-0.493 5.085 1.585 6244
-0.495 5.104 1.575 5087
-0.530 5.473 1.662 5457
-0.531 5.485 1.648 4361
-0.539 5.565 1.653 3288
-0.540 5.577 1.639 3024
-0.551 5.688 1.652 3366
-0.551 5.685 1.633 3529
-0.550 5.681 1.615 3989
-0.550 5.678 1.596 3681
-0.612 6.316 1.742 2771
-0.622 6.420 1.748 3793
-0.623 6.432 1.732 4888
-0.624 6.445 1.715 3756
-0.627 6.472 1.702 2405
-0.626 6.461 1.679 1749
-0.635 6.558 1.682 1992
-0.634 6.547 1.659 2524
-0.635 6.559 1.642 2283
-0.648 6.686 1.651 2386
-0.670 6.914 1.682 2168
-0.670 6.918 1.662 3716
-0.671 6.923 1.642 3576
-0.670 6.919 1.620 3182
-0.726 7.494 1.721 3859
-0.727 7.506 1.701 3028
-0.730 7.534 1.683 4003
-0.732 7.554 1.665 4335
-0.732 7.558 1.643 4781
-0.733 7.562 1.621 5829
-0.733 7.567 1.599 4059
-0.786 8.113 1.680 1960
-0.835 8.621 1.751 1756
-0.836 8.625 1.726 2878
-0.835 8.622 1.699 3218
-0.853 8.805 1.706 3632
-0.855 8.825 1.683 3938
-0.851 8.783 1.650 3018
-0.851 8.780 1.623 2060
-0.839 8.659 1.576 1013
-0.856 8.835 1.579 713
-0.854 8.815 1.549 946
-0.856 8.835 1.526 1431
-0.856 8.839 1.500 1287
-0.857 8.843 1.475 778
-0.856 8.839 1.448 358
-0.207 2.200 1.727 1465
-0.207 2.204 1.720 2931
-0.208 2.209 1.714 2931
-0.211 2.245 1.731 4170
-0.212 2.250 1.725 5608
-0.213 2.267 1.727 5650
-0.219 2.330 1.762 6886
-0.220 2.334 1.755 6886
-0.217 2.300 1.721 8786
-0.217 2.305 1.715 11319
-0.218 2.316 1.713 10088
-0.218 2.321 1.706 8866
-0.219 2.332 1.704 7366
-0.221 2.343 1.702 6418
-0.228 2.426 1.748 6256
-0.229 2.430 1.741 7433
-0.229 2.435 1.734 7341
-0.229 2.433 1.723 6988
-0.230 2.444 1.720 6714
-0.231 2.455 1.718 5110
-0.233 2.473 1.719 3599
-0.243 2.584 1.781 3166
-0.246 2.608 1.786 4038
-0.247 2.626 1.787 5403
-0.248 2.631 1.780 7007
-0.248 2.636 1.772 7100
-0.249 2.641 1.764 7193
-0.249 2.645 1.757 6556
-0.250 2.657 1.753 5976
-0.251 2.661 1.746 5364
-0.252 2.680 1.746 4922
-0.255 2.711 1.755 6556
-0.256 2.723 1.751 9208
-0.257 2.727 1.743 9698
-0.258 2.739 1.740 10373
-0.258 2.737 1.728 8505
-0.257 2.728 1.712 6360
-0.258 2.739 1.708 5289
-0.258 2.744 1.700 3568
-0.266 2.830 1.740 3524
-0.266 2.828 1.727 4188
-0.266 2.826 1.715 5042
-0.272 2.885 1.738 4347
-0.273 2.904 1.738 4992
-0.275 2.922 1.737 4638
-0.277 2.940 1.736 4278
-0.277 2.945 1.728 4027
-0.281 2.984 1.738 3883
-0.283 3.010 1.741 3317
-0.276 2.931 1.687 4168
-0.287 3.054 1.742 3997
-0.285 3.031 1.719 5041
-0.285 3.028 1.706 5321
-0.293 3.110 1.738 5971
-0.292 3.107 1.725 7387
-0.292 3.105 1.712 7597
-0.295 3.130 1.714 8523
-0.296 3.142 1.709 7659
-0.299 3.175 1.714 5976
-0.311 3.299 1.765 4933
-0.312 3.311 1.759 6529
-0.313 3.330 1.756 6124
-0.308 3.271 1.715 4961
-0.309 3.282 1.709 5826
-0.315 3.344 1.727 8623
-0.316 3.356 1.721 11153
-0.316 3.353 1.708 9816
-0.315 3.343 1.692 8775
-0.318 3.376 1.695 7639
-0.319 3.388 1.689 7281
-0.320 3.400 1.682 7724
-0.321 3.411 1.676 6405
-0.334 3.545 1.725 4289
-0.337 3.578 1.727 6680
-0.338 3.590 1.720 9535
-0.338 3.595 1.710 11095
-0.339 3.599 1.700 9951
-0.339 3.604 1.689 8162
-0.340 3.616 1.682 13027
-0.341 3.620 1.671 17450
-0.341 3.624 1.661 14124
-0.342 3.629 1.650 10395
-0.359 3.815 1.716 7265
-0.361 3.834 1.711 7736
-0.363 3.861 1.709 5905
-0.365 3.872 1.701 3798
-0.377 4.001 1.740 3265
-0.378 4.013 1.731 3362
-0.380 4.032 1.726 4236
-0.380 4.037 1.714 5305
-0.379 4.027 1.697 6255
-0.381 4.046 1.691 6389
-0.383 4.065 1.685 5181
-0.383 4.070 1.673 4162
-0.399 4.244 1.725 5935
-0.400 4.249 1.713 7153
-0.402 4.268 1.706 6775
-0.403 4.280 1.696 8142
-0.403 4.284 1.684 11235
-0.404 4.296 1.674 9681
-0.405 4.301 1.662 7992
-0.406 4.312 1.652 11372
-0.407 4.324 1.642 11068
-0.408 4.336 1.632 8932
-0.409 4.340 1.620 8704
-0.410 4.352 1.610 6177
-0.452 4.805 1.749 3218
-0.453 4.809 1.735 6179
-0.453 4.814 1.721 7890
-0.454 4.818 1.707 7252
-0.453 4.808 1.688 9340
-0.452 4.805 1.672 10398
-0.451 4.794 1.653 9426
-0.452 4.806 1.641 9852
-0.454 4.818 1.630 8051
-0.455 4.837 1.621 6042
-0.455 4.834 1.604 5620
-0.478 5.080 1.663 5555
-0.479 5.084 1.649 5429
-0.479 5.089 1.634 3738
-0.479 5.093 1.619 3958
-0.478 5.082 1.600 4976
-0.479 5.086 1.585 6448
-0.481 5.113 1.577 5712
-0.515 5.474 1.662 4887
-0.516 5.486 1.648 3742
-0.524 5.567 1.653 3246
-0.534 5.677 1.666 3724
-0.536 5.690 1.652 4085
-0.537 5.709 1.639 3559
-0.535 5.683 1.615 3661
-0.535 5.680 1.596 3079
-0.595 6.318 1.742 2611
-0.604 6.422 1.748 3545
-0.606 6.434 1.732 4503
-0.608 6.454 1.717 3907
-0.609 6.474 1.702 2940
-0.609 6.471 1.681 1871
-0.616 6.544 1.679 1807
-0.616 6.549 1.659 2062
-0.620 6.591 1.649 1830
-0.630 6.696 1.653 2667
-0.631 6.708 1.635 2443
-0.651 6.920 1.662 3345
-0.651 6.917 1.640 3239
-0.705 7.491 1.743 3520
-0.706 7.496 1.721 4309
-0.707 7.508 1.701 3651
-0.709 7.536 1.683 4216
-0.711 7.556 1.665 4511
-0.712 7.560 1.643 4756
-0.712 7.564 1.621 5743
-0.712 7.569 1.599 4033
-0.764 8.115 1.680 1917
-0.812 8.631 1.753 1688
-0.812 8.628 1.726 2659
-0.812 8.624 1.699 3103
-0.830 8.815 1.708 3471
-0.831 8.827 1.683 3908
-0.828 8.801 1.652 2826
-0.827 8.790 1.624 1723
-0.816 8.669 1.578 1173
-0.831 8.829 1.578 813
-0.830 8.818 1.549 863
-0.832 8.837 1.526 1172
-0.832 8.841 1.500 1112
-0.833 8.845 1.475 681
-0.832 8.834 1.447 312
-0.202 2.200 1.727 1496
-0.202 2.205 1.720 2992
-0.203 2.209 1.714 2992
-0.206 2.246 1.731 4019
-0.207 2.250 1.725 5464
-0.207 2.255 1.718 5508
-0.214 2.330 1.762 6945
-0.214 2.335 1.755 6945
-0.212 2.307 1.726 8250
-0.212 2.312 1.719 10585
-0.213 2.317 1.713 9444
-0.213 2.321 1.706 8302
-0.214 2.332 1.704 7012
-0.215 2.343 1.702 6153
-0.223 2.426 1.748 6089
-0.223 2.431 1.741 7316
-0.223 2.429 1.730 7217
-0.223 2.434 1.723 6928
-0.225 2.451 1.725 6845
-0.226 2.462 1.722 5216
-0.227 2.474 1.719 3771
-0.237 2.584 1.781 3222
-0.239 2.602 1.782 3942
-0.241 2.627 1.787 5053
-0.242 2.632 1.780 6431
-0.242 2.636 1.772 6497
-0.242 2.641 1.764 6564
-0.243 2.646 1.757 5953
-0.243 2.651 1.749 5342
-0.244 2.655 1.742 4871
-0.243 2.646 1.726 4518
-0.249 2.719 1.759 6260
-0.250 2.723 1.751 9123
-0.250 2.728 1.743 9688
-0.251 2.739 1.740 10394
-0.251 2.737 1.728 8483
-0.250 2.728 1.712 6027
-0.251 2.733 1.704 4792
-0.251 2.737 1.696 3312
-0.260 2.838 1.743 3840
-0.260 2.835 1.731 4504
-0.260 2.833 1.719 5291
-0.264 2.879 1.734 4417
-0.267 2.904 1.738 5001
-0.269 2.929 1.741 5092
-0.270 2.941 1.736 4911
-0.270 2.946 1.728 4815
-0.274 2.985 1.738 4489
-0.276 3.010 1.741 3764
-0.268 2.925 1.684 3635
-0.280 3.054 1.742 3908
-0.278 3.024 1.715 5188
-0.278 3.029 1.706 5536
-0.285 3.110 1.738 5647
-0.286 3.115 1.729 6817
-0.286 3.112 1.716 7388
-0.287 3.131 1.714 8660
-0.288 3.136 1.705 7709
-0.289 3.147 1.700 5362
-0.302 3.293 1.761 5136
-0.304 3.312 1.759 6905
-0.305 3.323 1.753 6523
-0.300 3.271 1.715 4550
-0.301 3.276 1.706 4498
-0.307 3.345 1.727 8964
-0.308 3.356 1.721 11532
-0.308 3.354 1.708 10428
-0.307 3.344 1.692 9262
-0.311 3.384 1.699 7817
-0.312 3.396 1.692 7392
-0.313 3.408 1.686 7706
-0.314 3.419 1.679 6337
-0.326 3.553 1.728 5148
-0.328 3.579 1.727 7376
-0.330 3.591 1.720 9882
-0.330 3.596 1.710 11875
-0.330 3.600 1.700 11489
-0.331 3.605 1.689 9480
-0.332 3.616 1.682 13766
-0.332 3.621 1.671 18333
-0.333 3.625 1.661 14696
-0.332 3.622 1.647 10606
-0.333 3.627 1.637 7227
-0.353 3.842 1.714 7581
-0.354 3.861 1.709 5997
-0.356 3.881 1.704 3632
-0.367 3.995 1.737 2831
-0.366 3.985 1.720 3312
-0.370 4.033 1.726 4280
-0.371 4.038 1.714 5467
-0.370 4.028 1.697 6163
-0.371 4.047 1.691 6022
-0.373 4.059 1.682 5028
-0.373 4.063 1.670 4045
-0.390 4.245 1.725 5621
-0.390 4.249 1.713 7109
-0.392 4.269 1.706 6714
-0.393 4.281 1.696 7819
-0.393 4.285 1.684 10634
-0.394 4.297 1.674 9506
-0.395 4.302 1.662 8439
-0.396 4.313 1.652 12204
-0.397 4.325 1.642 12161
-0.398 4.337 1.632 10331
-0.399 4.349 1.622 10160
-0.400 4.353 1.610 7185
-0.441 4.806 1.749 3363
-0.442 4.818 1.737 5556
-0.443 4.822 1.723 7224
-0.443 4.827 1.709 7255
-0.442 4.816 1.691 9156
-0.441 4.806 1.672 9463
-0.440 4.795 1.653 7828
-0.441 4.807 1.641 7949
-0.443 4.827 1.632 6978
-0.445 4.854 1.625 7030
-0.446 4.858 1.611 6898
-0.467 5.089 1.666 5501
-0.467 5.085 1.649 5490
-0.467 5.090 1.634 4012
-0.468 5.102 1.621 4553
-0.467 5.083 1.600 4967
-0.468 5.095 1.587 6596
-0.469 5.114 1.577 6552
-0.470 5.126 1.564 4168
-0.515 5.609 1.682 3214
-0.511 5.568 1.653 3487
-0.520 5.671 1.664 4340
-0.522 5.691 1.652 4652
-0.524 5.710 1.639 3824
-0.523 5.699 1.619 3410
-0.544 5.925 1.659 3295
-0.543 5.922 1.640 2698
-0.589 6.423 1.748 3041
-0.591 6.435 1.732 3791
-0.592 6.455 1.717 3827
-0.594 6.475 1.702 3266
-0.597 6.510 1.690 2103
-0.599 6.530 1.675 1750
-0.600 6.542 1.658 1770
-0.616 6.716 1.678 2078
-0.615 6.705 1.655 2863
-0.616 6.717 1.637 2736
-0.635 6.921 1.662 2863
-0.635 6.918 1.640 2787
-0.688 7.493 1.743 3794
-0.689 7.505 1.722 4669
-0.689 7.510 1.701 4253
-0.692 7.537 1.683 4338
-0.694 7.557 1.665 4408
-0.694 7.562 1.643 4422
-0.694 7.558 1.619 5329
-0.694 7.563 1.597 3782
-0.746 8.124 1.682 1874
-0.793 8.640 1.754 1560
-0.793 8.637 1.727 2322
-0.792 8.626 1.699 2883
-0.809 8.817 1.708 3152
-0.810 8.829 1.683 3612
-0.809 8.818 1.655 2662
-0.855 9.320 1.714 1686
-0.796 8.671 1.578 1274
-0.811 8.839 1.579 891
-0.811 8.835 1.552 763
-0.811 8.839 1.526 914
-0.812 8.843 1.500 895
-0.811 8.839 1.473 560
-0.811 8.836 1.447 267
-0.509 5.544 -0.241 250
-0.508 5.535 -0.257 287
-0.508 5.534 -0.273 287
-0.508 5.533 -0.289 299
-0.508 5.531 -0.305 312
-0.508 5.530 -0.321 296
-0.507 5.529 -0.337 280
-0.507 5.527 -0.353 256
-0.196 2.201 1.727 1565
-0.197 2.205 1.720 3130
-0.197 2.210 1.714 3130
-0.200 2.240 1.726 3870
-0.201 2.251 1.725 5188
-0.201 2.255 1.718 5311
-0.208 2.331 1.762 6900
-0.208 2.335 1.755 6900
-0.206 2.308 1.726 7607
-0.206 2.312 1.719 9620
-0.207 2.317 1.713 8581
-0.207 2.322 1.706 7543
-0.208 2.333 1.704 6485
-0.209 2.344 1.702 5737
-0.217 2.427 1.748 5711
-0.217 2.431 1.741 6992
-0.217 2.429 1.730 6947
-0.217 2.434 1.723 6759
-0.219 2.452 1.725 6970
-0.220 2.463 1.722 5363
-0.221 2.474 1.719 3936
-0.231 2.585 1.781 3323
-0.232 2.596 1.778 3863
-0.234 2.628 1.787 4653
-0.235 2.632 1.780 5803
-0.235 2.637 1.772 5896
-0.236 2.642 1.764 5988
-0.236 2.647 1.757 5353
-0.237 2.651 1.749 4718
-0.236 2.649 1.737 4497
-0.236 2.647 1.726 4536
-0.243 2.719 1.759 5802
-0.243 2.724 1.751 8671
-0.244 2.735 1.748 9429
-0.244 2.740 1.740 10198
-0.244 2.738 1.728 8289
-0.243 2.729 1.712 5528
-0.244 2.733 1.704 4151
-0.253 2.840 1.756 3395
-0.253 2.838 1.743 4417
-0.253 2.836 1.731 4974
-0.253 2.841 1.723 5615
-0.256 2.866 1.727 4546
-0.259 2.905 1.738 4770
-0.261 2.930 1.741 5516
-0.262 2.942 1.736 5554
-0.264 2.953 1.732 5612
-0.266 2.986 1.738 4992
-0.269 3.011 1.741 4104
-0.261 2.925 1.684 3296
-0.269 3.020 1.724 3839
-0.270 3.025 1.715 5419
-0.270 3.022 1.702 5950
-0.270 3.027 1.694 5790
-0.278 3.116 1.729 6486
-0.278 3.113 1.716 7401
-0.279 3.132 1.714 8629
-0.280 3.136 1.705 7640
-0.280 3.141 1.696 5279
-0.293 3.287 1.758 5439
-0.296 3.312 1.759 7285
-0.297 3.324 1.753 7015
-0.298 3.336 1.747 4717
-0.298 3.341 1.737 4464
-0.298 3.345 1.727 8944
-0.299 3.350 1.718 11428
-0.299 3.347 1.705 10732
-0.299 3.352 1.695 9464
-0.303 3.392 1.702 7901
-0.306 3.425 1.706 7788
-0.306 3.430 1.696 7951
-0.306 3.434 1.686 6394
-0.317 3.554 1.728 5794
-0.319 3.573 1.724 7955
-0.320 3.585 1.717 10131
-0.320 3.589 1.707 12587
-0.321 3.594 1.696 13383
-0.321 3.598 1.686 10955
-0.322 3.610 1.679 13622
-0.323 3.622 1.671 17971
-0.324 3.626 1.661 14566
-0.323 3.623 1.647 10580
-0.323 3.620 1.634 7631
-0.344 3.851 1.717 7724
-0.345 3.862 1.709 6005
-0.325 3.641 1.605 3629
-0.353 3.952 1.719 2604
-0.355 3.978 1.717 3234
-0.359 4.027 1.723 4010
-0.360 4.039 1.714 5415
-0.360 4.036 1.699 6042
-0.361 4.041 1.688 5671
-0.362 4.052 1.679 4493
-0.376 4.212 1.726 3692
-0.378 4.231 1.720 5245
-0.379 4.250 1.713 6631
-0.381 4.270 1.706 6344
-0.383 4.289 1.699 7318
-0.382 4.286 1.684 9591
-0.383 4.298 1.674 9020
-0.384 4.303 1.662 8668
-0.385 4.314 1.652 12552
-0.387 4.334 1.645 12827
-0.388 4.345 1.635 11518
-0.388 4.350 1.622 11470
-0.388 4.354 1.610 8342
-0.389 4.358 1.597 3994
-0.430 4.819 1.737 4932
-0.430 4.823 1.723 6642
-0.431 4.828 1.709 7338
-0.431 4.825 1.693 8728
-0.430 4.815 1.674 8322
-0.429 4.804 1.655 6090
-0.429 4.808 1.641 5788
-0.431 4.835 1.635 6196
-0.434 4.862 1.628 8573
-0.434 4.867 1.613 9262
-0.435 4.878 1.602 8240
-0.436 4.890 1.590 7184
-0.437 4.902 1.578 5416
-0.456 5.110 1.624 5060
-0.454 5.092 1.602 4855
-0.455 5.096 1.587 6698
-0.457 5.123 1.579 7079
-0.458 5.135 1.566 4439
-0.501 5.618 1.684 3490
-0.502 5.622 1.668 4051
-0.505 5.665 1.662 5269
-0.507 5.677 1.648 5447
-0.508 5.696 1.635 3887
-0.528 5.922 1.677 3481
-0.529 5.926 1.659 4081
-0.529 5.931 1.642 3615
-0.573 6.425 1.748 2433
-0.574 6.437 1.732 3031
-0.576 6.457 1.717 3470
-0.578 6.477 1.702 3241
-0.580 6.504 1.688 2309
-0.600 6.724 1.720 1991
-0.601 6.736 1.703 1915
-0.599 6.717 1.678 2320
-0.599 6.714 1.656 3008
-0.600 6.726 1.639 3021
-0.602 6.746 1.622 2953
-0.603 6.758 1.604 2964
-0.669 7.495 1.743 3868
-0.670 7.507 1.722 4820
-0.670 7.511 1.701 4697
-0.673 7.539 1.683 4278
-0.674 7.559 1.665 4078
-0.675 7.563 1.643 3852
-0.675 7.560 1.619 4727
-0.675 7.564 1.597 3515
-0.708 7.940 1.646 1975
-0.772 8.650 1.756 1545
-0.771 8.639 1.727 2149
-0.771 8.636 1.701 2725
-0.787 8.819 1.708 2630
-0.788 8.831 1.683 3059
-0.787 8.820 1.655 2331
-0.832 9.330 1.715 2219
-0.834 9.342 1.689 1800
-0.789 8.841 1.579 875
-0.836 9.375 1.638 675
-0.790 8.849 1.527 652
-0.789 8.845 1.500 641
-0.789 8.841 1.473 409
-0.494 5.534 -0.289 283
-0.494 5.533 -0.305 324
-0.494 5.531 -0.321 376
-0.494 5.538 -0.338 435
-0.494 5.537 -0.354 494
-0.494 5.535 -0.370 553
-0.494 5.534 -0.386 553
-0.494 5.532 -0.402 572
-0.493 5.530 -0.418 590
-0.493 5.529 -0.434 295
-0.193 2.201 1.727 1674
-0.193 2.205 1.720 3348
-0.193 2.210 1.714 3348
-0.196 2.240 1.726 3782
-0.197 2.251 1.725 4930
-0.197 2.256 1.718 5068
-0.204 2.331 1.762 6734
-0.204 2.336 1.755 6734
-0.204 2.334 1.744 6877
-0.202 2.313 1.719 8501
-0.203 2.317 1.713 7603
-0.203 2.322 1.706 6706
-0.204 2.333 1.704 5913
-0.205 2.344 1.702 5306
-0.212 2.421 1.744 5262
-0.213 2.432 1.741 6608
-0.213 2.430 1.730 6599
-0.214 2.441 1.727 6581
-0.215 2.459 1.729 7096
-0.216 2.470 1.726 5503
-0.217 2.475 1.719 4056
-0.226 2.585 1.781 3437
-0.227 2.590 1.773 3799
-0.230 2.628 1.787 4260
-0.231 2.639 1.784 5249
-0.231 2.637 1.772 5399
-0.231 2.642 1.764 5591
-0.232 2.647 1.757 4929
-0.232 2.652 1.749 4267
-0.231 2.643 1.733 4396
-0.232 2.647 1.726 4623
-0.239 2.726 1.763 5386
-0.239 2.731 1.755 8135
-0.239 2.736 1.748 9007
-0.240 2.740 1.740 9879
-0.240 2.738 1.728 8033
-0.239 2.729 1.712 5065
-0.239 2.727 1.700 3614
-0.249 2.841 1.756 3745
-0.248 2.839 1.743 4941
-0.248 2.836 1.731 5394
-0.249 2.841 1.723 5909
-0.250 2.859 1.723 4845
-0.255 2.919 1.745 4447
-0.257 2.938 1.745 5965
-0.257 2.942 1.736 6154
-0.258 2.954 1.732 6358
-0.259 2.965 1.727 5321
-0.263 3.005 1.737 4204
-0.255 2.919 1.680 3156
-0.264 3.014 1.720 3965
-0.264 3.018 1.711 5757
-0.264 3.023 1.702 6349
-0.264 3.020 1.690 6440
-0.273 3.123 1.732 6132
-0.272 3.114 1.716 7500
-0.274 3.132 1.714 8742
-0.274 3.137 1.705 7639
-0.275 3.148 1.700 5218
-0.287 3.280 1.754 5765
-0.290 3.313 1.759 7579
-0.291 3.325 1.753 7439
-0.292 3.337 1.747 5211
-0.292 3.334 1.734 4784
-0.293 3.346 1.727 8629
-0.293 3.350 1.718 10937
-0.293 3.348 1.705 10641
-0.293 3.352 1.695 9396
-0.297 3.400 1.705 8136
-0.299 3.419 1.702 8532
-0.299 3.423 1.692 8213
-0.301 3.442 1.689 6302
-0.311 3.554 1.728 5926
-0.313 3.573 1.724 8166
-0.314 3.585 1.717 10115
-0.314 3.590 1.707 12893
-0.314 3.594 1.696 14846
-0.315 3.599 1.686 12722
-0.316 3.610 1.679 13700
-0.317 3.622 1.671 17243
-0.317 3.627 1.661 14230
-0.317 3.624 1.647 10596
-0.317 3.621 1.634 8414
-0.337 3.851 1.717 8207
-0.338 3.863 1.709 6173
-0.318 3.634 1.602 3570
-0.346 3.952 1.719 2801
-0.347 3.972 1.714 3361
-0.352 4.028 1.723 3641
-0.353 4.039 1.714 5124
-0.353 4.037 1.699 5965
-0.354 4.041 1.688 5546
-0.361 4.127 1.707 4519
-0.365 4.175 1.712 4079
-0.366 4.187 1.703 5027
-0.372 4.251 1.713 5547
-0.374 4.270 1.706 5678
-0.375 4.290 1.699 6727
-0.375 4.287 1.684 8586
-0.375 4.291 1.672 8297
-0.376 4.303 1.662 8531
-0.378 4.315 1.652 12283
-0.379 4.334 1.645 12925
-0.381 4.354 1.637 12307
-0.381 4.350 1.622 12414
-0.382 4.362 1.612 9579
-0.382 4.366 1.600 4994
-0.422 4.820 1.737 4282
-0.422 4.824 1.723 6086
-0.422 4.829 1.709 7248
-0.422 4.826 1.693 8295
-0.422 4.823 1.677 7471
-0.420 4.805 1.655 4847
-0.421 4.809 1.641 4120
-0.424 4.844 1.637 5900
-0.425 4.863 1.628 9996
-0.426 4.875 1.616 11424
-0.427 4.879 1.602 10501
-0.428 4.891 1.590 9350
-0.429 4.903 1.578 6945
-0.448 5.119 1.626 5459
-0.446 5.100 1.604 4795
-0.447 5.105 1.590 6690
-0.448 5.124 1.579 7204
-0.450 5.143 1.568 4351
-0.492 5.626 1.686 3997
-0.492 5.623 1.668 5049
-0.495 5.658 1.660 6066
-0.495 5.662 1.643 6525
-0.496 5.667 1.627 4658
-0.518 5.923 1.677 3711
-0.519 5.927 1.659 4539
-0.519 5.932 1.642 4317
-0.520 5.944 1.627 2509
-0.553 6.323 1.703 2351
-0.566 6.465 1.719 2928
-0.567 6.485 1.704 3027
-0.569 6.505 1.688 2502
-0.569 6.502 1.668 2112
-0.589 6.729 1.701 2060
-0.588 6.726 1.679 2482
-0.588 6.723 1.658 3176
-0.589 6.735 1.640 3239
-0.590 6.747 1.622 3266
-0.591 6.759 1.604 3359
-0.656 7.496 1.743 3760
-0.657 7.508 1.722 4724
-0.657 7.513 1.701 4860
-0.659 7.533 1.682 4037
-0.661 7.560 1.665 3598
-0.661 7.557 1.641 3294
-0.661 7.553 1.618 4114
-0.661 7.558 1.596 3224
-0.695 7.942 1.646 2044
-0.757 8.651 1.756 1398
-0.755 8.633 1.726 1975
-0.756 8.637 1.701 2591
-0.816 9.325 1.798 2784
-0.773 8.833 1.683 2479
-0.809 9.241 1.727 2080
-0.818 9.347 1.718 2915
-0.818 9.352 1.690 2501
-0.820 9.372 1.666 1139
-0.820 9.376 1.638 1173
-0.819 9.365 1.609 893
-0.774 8.847 1.500 442
-0.774 8.843 1.473 285
-0.197 2.246 0.200 266
-0.197 2.246 0.194 270
-0.197 2.247 0.187 257
-0.485 5.545 -0.257 310
-0.485 5.544 -0.273 310
-0.485 5.543 -0.289 342
-0.485 5.541 -0.305 374
-0.485 5.540 -0.322 367
-0.485 5.539 -0.338 360
-0.484 5.537 -0.354 357
-0.484 5.536 -0.370 353
-0.484 5.534 -0.386 353
-0.484 5.533 -0.402 320
-0.484 5.531 -0.418 286
-0.193 2.201 1.727 1737
-0.193 2.205 1.720 3474
-0.193 2.210 1.714 3474
-0.195 2.234 1.722 3756
-0.197 2.251 1.725 4763
-0.197 2.256 1.718 4858
-0.204 2.331 1.762 6503
-0.204 2.336 1.755 6503
-0.204 2.334 1.744 6407
-0.202 2.313 1.719 7540
-0.203 2.317 1.713 6769
-0.204 2.328 1.711 6046
-0.204 2.333 1.704 5401
-0.205 2.344 1.702 4911
-0.212 2.421 1.744 4843
-0.212 2.425 1.737 6273
-0.213 2.430 1.730 6270
-0.214 2.441 1.727 6433
-0.215 2.459 1.729 7194
-0.216 2.470 1.726 5618
-0.217 2.475 1.719 4150
-0.226 2.585 1.781 3540
-0.227 2.590 1.773 3776
-0.230 2.628 1.787 4005
-0.231 2.639 1.784 4912
-0.231 2.644 1.776 5115
-0.231 2.642 1.764 5392
-0.232 2.647 1.757 4708
-0.231 2.638 1.741 4084
-0.231 2.643 1.733 4354
-0.232 2.647 1.726 4624
-0.239 2.733 1.767 5108
-0.239 2.731 1.755 7649
-0.239 2.736 1.748 8588
-0.240 2.740 1.740 9528
-0.240 2.738 1.728 7749
-0.239 2.729 1.712 4671
-0.238 2.720 1.696 3180
-0.248 2.834 1.752 3941
-0.248 2.839 1.743 5151
-0.249 2.843 1.735 5576
-0.249 2.841 1.723 6008
-0.250 2.859 1.723 5035
-0.257 2.933 1.753 4524
-0.257 2.938 1.745 6385
-0.257 2.942 1.736 6628
-0.258 2.954 1.732 6875
-0.259 2.958 1.723 5675
-0.263 3.005 1.737 4244
-0.255 2.919 1.680 3233
-0.264 3.014 1.720 4115
-0.264 3.018 1.711 6100
-0.264 3.023 1.702 6772
-0.264 3.020 1.690 6983
-0.265 3.025 1.681 5966
-0.273 3.121 1.720 7486
-0.274 3.132 1.714 8627
-0.274 3.137 1.705 7355
-0.275 3.141 1.696 4882
-0.287 3.280 1.754 5977
-0.290 3.313 1.759 7660
-0.291 3.325 1.753 7581
-0.291 3.329 1.743 5535
-0.291 3.327 1.730 5088
-0.293 3.346 1.727 8262
-0.294 3.358 1.721 10376
-0.293 3.348 1.705 10314
-0.293 3.352 1.695 9138
-0.298 3.407 1.709 8292
-0.299 3.419 1.702 8940
-0.299 3.423 1.692 8288
-0.301 3.442 1.689 6170
-0.311 3.554 1.728 5742
-0.313 3.573 1.724 8029
-0.314 3.585 1.717 9857
-0.313 3.582 1.704 12838
-0.314 3.587 1.693 15556
-0.315 3.599 1.686 13788
-0.316 3.610 1.679 13797
-0.317 3.622 1.671 16553
-0.317 3.619 1.658 13711
-0.316 3.616 1.644 10212
-0.317 3.621 1.634 8628
-0.337 3.851 1.717 8563
-0.338 3.863 1.709 6202
-0.318 3.634 1.602 3526
-0.345 3.945 1.716 3213
-0.347 3.964 1.711 3736
-0.352 4.028 1.723 3367
-0.353 4.032 1.711 4758
-0.353 4.037 1.699 5783
-0.361 4.122 1.719 6027
-0.361 4.127 1.707 5250
-0.365 4.175 1.712 4364
-0.366 4.180 1.700 5421
-0.372 4.251 1.713 4741
-0.374 4.278 1.709 5413
-0.375 4.290 1.699 6513
-0.375 4.287 1.684 7785
-0.376 4.299 1.674 7531
-0.377 4.311 1.665 8074
-0.378 4.322 1.655 11670
-0.379 4.334 1.645 12703
-0.381 4.354 1.637 12498
-0.381 4.350 1.622 12632
-0.382 4.362 1.612 10232
-0.382 4.366 1.600 5621
-0.413 4.722 1.705 3956
-0.422 4.824 1.723 5724
-0.422 4.829 1.709 7218
-0.423 4.833 1.695 8115
-0.422 4.823 1.677 7075
-0.421 4.812 1.658 4180
-0.421 4.809 1.641 3128
-0.424 4.851 1.639 5799
-0.425 4.863 1.628 10745
-0.426 4.875 1.616 12560
-0.427 4.879 1.602 11625
-0.428 4.891 1.590 10432
-0.429 4.903 1.578 7630
-0.448 5.126 1.628 5651
-0.450 5.138 1.615 4929
-0.447 5.105 1.590 6476
-0.448 5.124 1.579 6938
-0.450 5.143 1.568 4174
-0.492 5.626 1.686 4344
-0.493 5.631 1.670 5692
-0.494 5.650 1.658 6833
-0.495 5.655 1.641 7603
-0.495 5.659 1.625 5849
-0.518 5.923 1.677 3789
-0.519 5.927 1.659 4667
-0.519 5.932 1.642 4567
-0.521 5.951 1.629 2696
-0.521 5.956 1.611 2423
-0.566 6.473 1.721 2516
-0.568 6.493 1.705 2827
-0.568 6.498 1.687 2595
-0.568 6.494 1.666 2391
-0.589 6.729 1.701 2031
-0.588 6.726 1.679 2461
-0.589 6.730 1.660 3172
-0.589 6.735 1.640 3254
-0.590 6.747 1.622 3365
-0.591 6.759 1.604 3469
-0.656 7.496 1.743 3569
-0.656 7.500 1.721 4511
-0.657 7.513 1.701 4812
-0.659 7.533 1.682 3836
-0.661 7.560 1.665 3280
-0.661 7.557 1.641 2934
-0.661 7.553 1.618 3694
-0.661 7.558 1.596 3024
-0.694 7.934 1.645 2104
-0.733 8.380 1.705 1400
-0.756 8.641 1.727 1752
-0.816 9.328 1.826 2373
-0.816 9.325 1.798 3493
-0.816 9.322 1.769 2854
-0.816 9.327 1.742 2236
-0.818 9.347 1.718 3544
-0.818 9.352 1.690 3116
-0.820 9.372 1.666 1479
-0.820 9.376 1.638 1541
-0.819 9.365 1.609 1205
-0.820 9.369 1.581 584
-0.822 9.396 1.558 354
-0.823 9.408 1.531 269
-0.138 1.574 0.235 271
-0.138 1.582 0.231 264
-0.072 0.819 0.168 271
-0.071 0.811 0.165 261
-0.196 2.246 0.207 263
-0.197 2.246 0.200 302
-0.197 2.246 0.194 312
-0.197 2.247 0.187 298
-0.197 2.247 0.181 255
-0.486 5.558 -0.291 288
-0.486 5.549 -0.306 331
-0.485 5.548 -0.322 266
-0.193 2.201 1.727 1783
-0.193 2.205 1.720 3567
-0.193 2.210 1.714 3567
-0.195 2.234 1.722 3715
-0.197 2.251 1.725 4505
-0.197 2.256 1.718 4565
-0.204 2.331 1.762 6324
-0.204 2.336 1.755 6324
-0.204 2.334 1.744 6016
-0.202 2.313 1.719 6711
-0.203 2.324 1.717 6053
-0.204 2.328 1.711 5504
-0.204 2.333 1.704 4948
-0.205 2.344 1.702 4549
-0.212 2.421 1.744 4430
-0.213 2.432 1.741 6002
-0.213 2.430 1.730 6000
-0.214 2.441 1.727 6381
-0.215 2.459 1.729 7398
-0.216 2.470 1.726 5777
-0.217 2.481 1.723 4252
-0.226 2.585 1.781 3663
-0.227 2.590 1.773 3779
-0.230 2.628 1.787 3734
-0.231 2.639 1.784 4560
-0.231 2.644 1.776 4875
-0.231 2.642 1.764 5241
-0.232 2.647 1.757 4563
-0.231 2.638 1.741 4042
-0.231 2.643 1.733 4332
-0.232 2.647 1.726 4622
-0.239 2.733 1.767 5001
-0.240 2.738 1.759 7168
-0.239 2.736 1.748 8125
-0.240 2.740 1.740 9128
-0.240 2.738 1.728 7446
-0.239 2.729 1.712 4330
-0.251 2.870 1.784 2946
-0.248 2.834 1.752 4107
-0.248 2.832 1.740 5369
-0.248 2.836 1.731 5720
-0.249 2.848 1.727 6100
-0.250 2.859 1.723 5234
-0.257 2.933 1.753 4833
-0.258 2.944 1.749 6880
-0.258 2.949 1.740 7019
-0.258 2.947 1.728 7161
-0.259 2.958 1.723 5753
-0.263 3.012 1.741 4341
-0.255 2.919 1.680 3221
-0.264 3.014 1.720 4387
-0.263 3.011 1.707 6500
-0.264 3.023 1.702 7128
-0.264 3.020 1.690 7448
-0.265 3.032 1.685 6370
-0.272 3.107 1.712 7311
-0.274 3.132 1.714 8445
-0.274 3.137 1.705 7240
-0.275 3.141 1.696 4847
-0.286 3.273 1.751 6216
-0.290 3.313 1.759 7671
-0.291 3.332 1.756 7653
-0.291 3.329 1.743 5788
-0.290 3.320 1.727 5459
-0.293 3.346 1.727 7860
-0.294 3.358 1.721 9893
-0.294 3.355 1.708 9916
-0.294 3.360 1.698 8840
-0.298 3.407 1.709 8624
-0.299 3.419 1.702 9437
-0.299 3.423 1.692 8418
-0.301 3.442 1.689 5998
-0.312 3.562 1.731 5390
-0.313 3.573 1.724 7675
-0.314 3.585 1.717 9423
-0.313 3.582 1.704 12691
-0.314 3.587 1.693 16137
-0.315 3.599 1.686 14822
-0.316 3.610 1.679 13986
-0.316 3.615 1.668 16031
-0.317 3.619 1.658 13348
-0.316 3.616 1.644 10041
-0.317 3.621 1.634 8748
-0.336 3.844 1.714 8818
-0.338 3.863 1.709 6154
-0.317 3.626 1.599 3493
-0.345 3.945 1.716 3526
-0.346 3.957 1.708 4217
-0.347 3.962 1.696 3224
-0.353 4.032 1.711 4203
-0.353 4.037 1.699 5478
-0.361 4.122 1.719 6412
-0.361 4.127 1.707 5940
-0.365 4.168 1.709 4511
-0.366 4.180 1.700 5584
-0.366 4.185 1.688 4940
-0.374 4.278 1.709 5323
-0.376 4.297 1.702 6433
-0.375 4.287 1.684 6777
-0.376 4.299 1.674 6383
-0.377 4.311 1.665 7288
-0.378 4.322 1.655 10804
-0.380 4.342 1.647 12239
-0.381 4.354 1.637 12391
-0.381 4.350 1.622 12622
-0.382 4.362 1.612 10649
-0.382 4.366 1.600 6080
-0.413 4.722 1.705 3832
-0.422 4.824 1.723 5418
-0.422 4.829 1.709 7201
-0.423 4.833 1.695 8015
-0.423 4.830 1.679 6921
-0.424 4.850 1.670 4327
-0.425 4.862 1.658 3151
-0.425 4.859 1.642 5994
-0.426 4.870 1.630 11371
-0.426 4.875 1.616 13344
-0.428 4.887 1.604 12451
-0.428 4.891 1.590 11208
-0.429 4.903 1.578 8148
-0.448 5.126 1.628 5736
-0.450 5.138 1.615 5168
-0.447 5.105 1.590 6196
-0.448 5.124 1.579 6539
-0.451 5.151 1.571 3929
-0.492 5.626 1.686 4693
-0.493 5.631 1.670 6306
-0.494 5.650 1.658 7398
-0.495 5.655 1.641 8439
-0.494 5.652 1.623 6862
-0.519 5.931 1.679 3751
-0.519 5.935 1.661 4658
-0.519 5.932 1.642 4750
-0.521 5.951 1.629 2829
-0.521 5.956 1.611 2516
-0.567 6.481 1.722 2166
-0.569 6.501 1.707 2621
-0.568 6.498 1.687 2658
-0.568 6.494 1.666 2632
-0.567 6.483 1.643 1983
-0.588 6.726 1.679 2362
-0.589 6.730 1.660 3111
-0.598 6.835 1.663 3479
-0.590 6.747 1.622 3387
-0.591 6.759 1.604 3544
-0.656 7.496 1.743 3338
-0.656 7.500 1.721 4304
-0.657 7.513 1.701 4732
-0.658 7.525 1.680 3679
-0.661 7.560 1.665 2967
-0.661 7.557 1.641 2612
-0.661 7.553 1.618 3263
-0.693 7.922 1.666 3101
-0.694 7.934 1.645 2113
-0.734 8.388 1.706 1564
-0.756 8.641 1.727 1681
-0.816 9.328 1.826 2758
-0.816 9.325 1.798 4142
-0.816 9.322 1.769 3528
-0.817 9.335 1.744 2714
-0.818 9.355 1.719 4132
-0.818 9.352 1.690 3675
-0.820 9.372 1.666 1817
-0.820 9.368 1.637 1895
-0.819 9.365 1.609 1496
-0.819 9.361 1.580 728
-0.822 9.396 1.558 386
-0.823 9.408 1.531 280
-0.138 1.574 0.235 250
-0.072 0.827 0.168 255
-0.196 2.246 0.213 264
-0.196 2.246 0.207 294
-0.197 2.246 0.200 332
-0.197 2.246 0.194 339
-0.197 2.247 0.187 329
-0.197 2.247 0.181 287
-0.193 2.201 1.727 1847
-0.193 2.205 1.720 3694
-0.193 2.210 1.714 3694
-0.195 2.227 1.717 3705
-0.197 2.251 1.725 4317
-0.203 2.320 1.764 4571
-0.204 2.331 1.762 6149
-0.204 2.336 1.755 6149
-0.205 2.341 1.749 5622
-0.202 2.313 1.719 5809
-0.203 2.324 1.717 5298
-0.204 2.328 1.711 4871
-0.205 2.340 1.708 4472
-0.205 2.344 1.702 4154
-0.212 2.421 1.744 4087
-0.213 2.432 1.741 5831
-0.213 2.430 1.730 5816
-0.214 2.448 1.732 6390
-0.215 2.459 1.729 7561
-0.216 2.470 1.726 5903
-0.217 2.481 1.723 4346
-0.226 2.579 1.776 3794
-0.227 2.590 1.773 3802
-0.228 2.608 1.774 3613
-0.231 2.639 1.784 4203
-0.231 2.644 1.776 4645
-0.231 2.642 1.764 5117
-0.232 2.654 1.761 4480
-0.230 2.632 1.737 4071
-0.231 2.643 1.733 4290
-0.232 2.647 1.726 4573
-0.239 2.733 1.767 4964
-0.240 2.745 1.764 6702
-0.239 2.736 1.748 7654
-0.240 2.740 1.740 8729
-0.240 2.738 1.728 7158
-0.239 2.736 1.716 4028
-0.248 2.836 1.764 3055
-0.247 2.827 1.748 4227
-0.248 2.832 1.740 5462
-0.248 2.836 1.731 5733
-0.249 2.848 1.727 6037
-0.250 2.859 1.723 5290
-0.257 2.933 1.753 5094
-0.258 2.944 1.749 7258
-0.258 2.949 1.740 7195
-0.258 2.954 1.732 7133
-0.259 2.958 1.723 5606
-0.263 3.005 1.737 4446
-0.263 3.009 1.728 3366
-0.262 3.000 1.712 4628
-0.263 3.011 1.707 6639
-0.264 3.016 1.699 7290
-0.264 3.020 1.690 7793
-0.265 3.032 1.685 6874
-0.274 3.128 1.723 7019
-0.274 3.132 1.714 8060
-0.274 3.137 1.705 6902
-0.275 3.148 1.700 4705
-0.286 3.273 1.751 6400
-0.284 3.249 1.727 8049
-0.283 3.240 1.711 7795
-0.291 3.329 1.743 5879
-0.290 3.313 1.723 5815
-0.293 3.346 1.727 7413
-0.294 3.358 1.721 9438
-0.294 3.355 1.708 9596
-0.294 3.360 1.698 8655
-0.298 3.407 1.709 8939
-0.299 3.419 1.702 9866
-0.299 3.423 1.692 8463
-0.301 3.442 1.689 5790
-0.312 3.562 1.731 4893
-0.313 3.573 1.724 7136
-0.313 3.578 1.714 8856
-0.313 3.582 1.704 12340
-0.314 3.587 1.693 16554
-0.315 3.599 1.686 15764
-0.316 3.610 1.679 14103
-0.316 3.615 1.668 15433
-0.317 3.619 1.658 12943
-0.316 3.616 1.644 9961
-0.317 3.621 1.634 9016
-0.336 3.844 1.714 9238
-0.338 3.863 1.709 6179
-0.317 3.626 1.599 3380
-0.345 3.945 1.716 3825
-0.346 3.950 1.705 4659
-0.346 3.954 1.694 3582
-0.353 4.032 1.711 3587
-0.353 4.037 1.699 5043
-0.361 4.122 1.719 6721
-0.361 4.127 1.707 6519
-0.363 4.153 1.704 4608
-0.366 4.180 1.700 5498
-0.366 4.185 1.688 5177
-0.374 4.278 1.709 5261
-0.376 4.297 1.702 6393
-0.376 4.294 1.687 5995
-0.375 4.291 1.672 5233
-0.377 4.311 1.665 6372
-0.378 4.322 1.655 9820
-0.380 4.342 1.647 11792
-0.381 4.354 1.637 12264
-0.381 4.350 1.622 12533
-0.382 4.362 1.612 10990
-0.382 4.366 1.600 6455
-0.414 4.730 1.707 3701
-0.422 4.824 1.723 5114
-0.422 4.829 1.709 7159
-0.423 4.833 1.695 7958
-0.423 4.838 1.681 6937
-0.425 4.857 1.672 4960
-0.426 4.869 1.660 3888
-0.426 4.866 1.644 6388
-0.426 4.870 1.630 11771
-0.427 4.882 1.618 13773
-0.428 4.887 1.604 12914
-0.428 4.891 1.590 11680
-0.429 4.903 1.578 8446
-0.449 5.134 1.630 5658
-0.450 5.138 1.615 5208
-0.447 5.105 1.590 5708
-0.449 5.132 1.581 6124
-0.451 5.151 1.571 3782
-0.493 5.634 1.689 4999
-0.493 5.631 1.670 6751
-0.494 5.650 1.658 7963
-0.495 5.655 1.641 9336
-0.494 5.652 1.623 8050
-0.494 5.648 1.605 4456
-0.519 5.935 1.661 4596
-0.519 5.932 1.642 4751
-0.521 5.951 1.629 2917
-0.522 5.963 1.613 2604
-0.558 6.374 1.696 1954
-0.569 6.501 1.707 2413
-0.568 6.498 1.687 2728
-0.568 6.487 1.664 2923
-0.567 6.483 1.643 2258
-0.588 6.726 1.679 2250
-0.598 6.830 1.683 3391
-0.598 6.835 1.663 3914
-0.598 6.832 1.641 3538
-0.591 6.759 1.604 3560
-0.656 7.496 1.743 3048
-0.656 7.500 1.721 4004
-0.657 7.513 1.701 4543
-0.658 7.525 1.680 3514
-0.661 7.560 1.665 2665
-0.660 7.549 1.640 2392
-0.660 7.546 1.616 2968
-0.693 7.922 1.666 3067
-0.693 7.926 1.643 2050
-0.708 8.093 1.651 1463
-0.757 8.648 1.729 1688
-0.816 9.328 1.826 3065
-0.816 9.325 1.798 4647
-0.816 9.322 1.769 4095
-0.817 9.335 1.744 3158
-0.818 9.355 1.719 4668
-0.819 9.359 1.692 4194
-0.819 9.364 1.664 2170
-0.820 9.368 1.637 2283
-0.819 9.365 1.609 1846
-0.819 9.361 1.580 932
-0.822 9.396 1.558 491
-0.823 9.408 1.531 385
-0.823 9.412 1.504 293
-0.138 1.574 0.235 257
-0.073 0.835 0.168 310
-0.073 0.835 0.166 308
-0.196 2.246 0.207 309
-0.197 2.246 0.200 352
-0.197 2.246 0.194 366
-0.197 2.247 0.187 345
-0.197 2.247 0.181 294
-0.197 2.247 0.174 257
-0.193 2.201 1.727 1940
-0.193 2.205 1.720 3881
-0.193 2.210 1.714 3881
-0.194 2.221 1.712 3701
-0.201 2.296 1.757 4195
-0.203 2.320 1.764 4585
-0.204 2.331 1.762 5932
-0.204 2.336 1.755 5932
-0.205 2.341 1.749 5200
-0.209 2.390 1.774 5000
-0.203 2.324 1.717 4532
-0.204 2.335 1.715 4288
-0.205 2.340 1.708 4036
-0.206 2.351 1.706 3810
-0.212 2.427 1.748 3826
-0.213 2.432 1.741 5793
-0.213 2.430 1.730 5757
-0.214 2.448 1.732 6582
-0.215 2.459 1.729 7859
-0.216 2.470 1.726 6119
-0.217 2.481 1.723 4467
-0.226 2.579 1.776 3995
-0.227 2.590 1.773 3876
-0.228 2.601 1.770 3598
-0.232 2.646 1.788 3782
-0.231 2.644 1.776 4380
-0.231 2.642 1.764 5004
-0.232 2.654 1.761 4476
-0.230 2.632 1.737 4133
-0.231 2.636 1.729 4292
-0.232 2.647 1.726 4530
-0.239 2.733 1.767 4944
-0.241 2.751 1.768 6270
-0.239 2.736 1.748 7108
-0.240 2.740 1.740 8235
-0.240 2.738 1.728 6853
-0.239 2.736 1.716 3872
-0.248 2.829 1.760 3201
-0.247 2.827 1.748 4405
-0.247 2.825 1.736 5668
-0.248 2.836 1.731 5770
-0.249 2.848 1.727 5942
-0.250 2.859 1.723 5349
-0.257 2.940 1.757 5315
-0.258 2.944 1.749 7437
-0.258 2.949 1.740 7213
-0.258 2.954 1.732 6989
-0.259 2.965 1.727 5442
-0.263 3.005 1.737 4520
-0.263 3.002 1.725 3759
-0.262 3.000 1.712 5006
-0.263 3.011 1.707 6639
-0.264 3.016 1.699 7167
-0.264 3.020 1.690 7942
-0.265 3.032 1.685 7319
-0.274 3.135 1.727 6627
-0.274 3.132 1.714 7569
-0.274 3.137 1.705 6521
-0.275 3.141 1.696 4498
-0.286 3.273 1.751 6514
-0.284 3.242 1.724 8443
-0.283 3.240 1.711 8249
-0.289 3.308 1.733 6081
-0.290 3.313 1.723 6271
-0.291 3.332 1.720 6984
-0.294 3.358 1.721 9035
-0.294 3.355 1.708 9266
-0.294 3.360 1.698 8506
-0.298 3.407 1.709 9359
-0.299 3.419 1.702 10410
-0.300 3.430 1.696 8609
-0.301 3.442 1.689 5649
-0.312 3.569 1.735 4305
-0.313 3.573 1.724 6403
-0.313 3.578 1.714 8110
-0.313 3.582 1.704 11749
-0.314 3.587 1.693 16822
-0.315 3.599 1.686 16705
-0.315 3.603 1.676 14041
-0.316 3.615 1.668 14409
-0.317 3.619 1.658 12188
-0.316 3.609 1.641 9632
-0.317 3.621 1.634 9106
-0.336 3.844 1.714 10119
-0.337 3.856 1.706 6549
-0.343 3.919 1.719 3498
-0.345 3.945 1.716 4310
-0.345 3.942 1.702 5276
-0.345 3.947 1.691 4002
-0.345 3.944 1.676 3090
-0.354 4.044 1.702 4470
-0.361 4.122 1.719 6971
-0.361 4.127 1.707 7016
-0.363 4.146 1.701 4763
-0.365 4.173 1.697 5335
-0.365 4.177 1.685 5501
-0.374 4.278 1.709 5202
-0.375 4.290 1.699 6154
-0.376 4.294 1.687 5088
-0.375 4.284 1.669 3991
-0.378 4.318 1.667 5302
-0.379 4.330 1.657 8722
-0.380 4.342 1.647 11066
-0.381 4.354 1.637 11913
-0.381 4.358 1.625 12320
-0.382 4.362 1.612 11194
-0.382 4.366 1.600 6756
-0.414 4.730 1.707 3588
-0.422 4.824 1.723 4697
-0.422 4.829 1.709 7027
-0.423 4.833 1.695 7893
-0.424 4.845 1.684 7135
-0.425 4.857 1.672 5935
-0.426 4.869 1.660 5107
-0.426 4.874 1.646 7024
-0.426 4.870 1.630 11968
-0.427 4.882 1.618 13985
-0.428 4.887 1.604 13012
-0.428 4.891 1.590 11792
-0.428 4.895 1.576 8450
-0.449 5.134 1.630 5480
-0.450 5.138 1.615 5100
-0.447 5.112 1.592 5115
-0.450 5.139 1.583 5580
-0.451 5.151 1.571 3544
-0.493 5.634 1.689 5532
-0.493 5.638 1.672 7398
-0.494 5.650 1.658 8515
-0.495 5.655 1.641 10238
-0.494 5.652 1.623 9296
-0.494 5.648 1.605 5313
-0.519 5.935 1.661 4308
-0.520 5.939 1.644 4500
-0.521 5.951 1.629 2961
-0.522 5.963 1.613 2661
-0.558 6.374 1.696 1945
-0.560 6.401 1.683 2180
-0.568 6.490 1.685 2784
-0.568 6.487 1.664 3172
-0.567 6.483 1.643 2551
-0.599 6.849 1.708 2083
-0.598 6.830 1.683 3645
-0.598 6.835 1.663 4299
-0.598 6.832 1.641 3986
-0.599 6.844 1.623 3689
-0.616 7.041 1.645 2687
-0.656 7.500 1.721 3590
-0.657 7.513 1.701 4231
-0.658 7.525 1.680 3282
-0.680 7.769 1.707 3038
-0.680 7.773 1.684 2454
-0.660 7.546 1.616 2658
-0.692 7.914 1.665 3007
-0.693 7.926 1.643 1991
-0.708 8.093 1.651 1651
-0.757 8.648 1.729 1568
-0.816 9.328 1.826 3398
-0.816 9.325 1.798 5176
-0.816 9.322 1.769 4680
-0.817 9.335 1.744 3623
-0.818 9.355 1.719 5294
-0.819 9.359 1.692 4756
-0.820 9.372 1.666 2526
-0.820 9.376 1.638 2686
-0.819 9.365 1.609 2189
-0.819 9.361 1.580 1129
-0.822 9.396 1.558 582
-0.823 9.408 1.531 466
-0.823 9.412 1.504 341
-0.138 1.574 0.235 259
-0.196 2.246 0.219 271
-0.196 2.246 0.213 310
-0.196 2.246 0.207 340
-0.197 2.246 0.200 382
-0.197 2.246 0.194 394
-0.197 2.247 0.187 379
-0.196 2.239 0.181 336
-0.197 2.247 0.174 294
-0.193 2.201 1.727 2000
-0.193 2.205 1.720 4001
-0.193 2.210 1.714 4001
-0.194 2.221 1.712 3720
-0.201 2.296 1.757 4292
-0.202 2.314 1.760 4583
-0.204 2.331 1.762 5650
-0.204 2.336 1.755 5650
-0.205 2.341 1.749 4739
-0.209 2.390 1.774 5055
-0.210 2.402 1.771 4007
-0.204 2.335 1.715 3782
-0.205 2.346 1.713 3625
-0.206 2.351 1.706 3500
-0.212 2.427 1.748 3630
-0.213 2.432 1.741 5722
-0.213 2.436 1.734 5711
-0.214 2.448 1.732 6724
-0.215 2.459 1.729 8072
-0.216 2.470 1.726 6258
-0.224 2.561 1.775 4735
-0.226 2.579 1.776 4194
-0.227 2.590 1.773 3974
-0.228 2.601 1.770 3623
-0.232 2.646 1.788 3386
-0.231 2.644 1.776 4131
-0.232 2.649 1.769 4950
-0.233 2.660 1.765 4511
-0.237 2.705 1.783 4632
-0.237 2.710 1.775 4621
-0.238 2.715 1.767 4611
-0.239 2.726 1.763 4938
-0.241 2.751 1.768 5947
-0.240 2.742 1.752 6510
-0.240 2.740 1.740 7601
-0.240 2.738 1.728 6438
-0.239 2.736 1.716 3694
-0.247 2.822 1.756 3422
-0.247 2.820 1.744 4595
-0.247 2.818 1.732 5834
-0.248 2.836 1.731 5661
-0.249 2.841 1.723 5699
-0.250 2.859 1.723 5243
-0.258 2.947 1.761 5458
-0.258 2.944 1.749 7415
-0.258 2.949 1.740 7109
-0.258 2.954 1.732 6804
-0.259 2.965 1.727 5322
-0.262 2.998 1.733 4572
-0.262 2.995 1.721 4200
-0.262 3.000 1.712 5532
-0.263 3.004 1.704 6998
-0.264 3.016 1.699 7277
-0.264 3.020 1.690 7973
-0.266 3.039 1.689 7318
-0.274 3.135 1.727 6305
-0.275 3.139 1.718 7129
-0.275 3.144 1.709 6170
-0.276 3.155 1.703 4450
-0.286 3.266 1.747 6593
-0.284 3.242 1.724 8778
-0.283 3.240 1.711 8707
-0.289 3.301 1.729 6227
-0.290 3.313 1.723 6588
-0.291 3.332 1.720 6695
-0.294 3.365 1.724 8735
-0.294 3.362 1.711 8989
-0.296 3.381 1.708 8375
-0.298 3.407 1.709 9608
-0.299 3.419 1.702 10767
-0.300 3.430 1.696 8663
-0.301 3.442 1.689 5448
-0.302 3.447 1.679 3825
-0.313 3.573 1.724 5523
-0.313 3.578 1.714 7223
-0.313 3.582 1.704 10943
-0.314 3.587 1.693 16766
-0.315 3.599 1.686 17331
-0.315 3.603 1.676 13770
-0.316 3.615 1.668 13152
-0.316 3.612 1.655 11352
-0.316 3.609 1.641 9091
-0.317 3.621 1.634 8741
-0.336 3.837 1.711 10900
-0.337 3.848 1.703 6926
-0.343 3.919 1.719 3565
-0.345 3.938 1.713 4803
-0.345 3.942 1.702 5961
-0.345 3.947 1.691 4295
-0.345 3.944 1.676 3150
-0.361 4.125 1.734 4442
-0.361 4.122 1.719 7055
-0.361 4.127 1.707 7318
-0.361 4.131 1.695 4806
-0.365 4.173 1.697 5077
-0.365 4.177 1.685 5755
-0.374 4.270 1.706 5208
-0.375 4.290 1.699 6088
-0.376 4.294 1.687 4326
-0.371 4.239 1.653 4262
-0.378 4.325 1.670 4320
-0.379 4.330 1.657 7547
-0.380 4.342 1.647 9869
-0.381 4.354 1.637 11090
-0.381 4.358 1.625 11682
-0.382 4.362 1.612 10858
-0.382 4.366 1.600 6650
-0.414 4.730 1.707 3394
-0.422 4.824 1.723 4331
-0.422 4.829 1.709 6858
-0.423 4.833 1.695 7774
-0.424 4.845 1.684 7557
-0.425 4.857 1.672 7197
-0.426 4.869 1.660 6613
-0.426 4.874 1.646 7856
-0.427 4.878 1.632 11969
-0.427 4.882 1.618 13652
-0.428 4.887 1.604 12415
-0.428 4.891 1.590 11225
-0.428 4.895 1.576 7947
-0.449 5.134 1.630 5054
-0.450 5.138 1.615 4708
-0.449 5.135 1.598 4427
-0.450 5.139 1.583 4902
-0.451 5.151 1.571 3279
-0.493 5.634 1.689 5918
-0.493 5.638 1.672 7951
-0.494 5.650 1.658 8759
-0.495 5.655 1.641 10656
-0.494 5.652 1.623 9874
-0.494 5.648 1.605 5610
-0.519 5.935 1.661 3813
-0.520 5.939 1.644 3989
-0.521 5.951 1.629 2880
-0.522 5.963 1.613 2626
-0.558 6.374 1.696 1878
-0.560 6.401 1.683 2168
-0.567 6.482 1.683 2853
-0.568 6.487 1.664 3402
-0.567 6.483 1.643 2861
-0.601 6.864 1.711 2447
-0.598 6.830 1.683 3807
-0.598 6.835 1.663 4572
-0.598 6.832 1.641 4267
-0.599 6.844 1.623 3928
-0.599 6.848 1.603 2668
