-0.891 2.136 1.744 8835
-0.893 2.140 1.737 8835
-0.895 2.144 1.731 8105
-0.896 2.149 1.724 7376
-0.896 2.147 1.713 6640
-0.895 2.145 1.702 6079
-0.902 2.161 1.704 4406
-0.916 2.196 1.719 4213
-0.918 2.200 1.713 3430
-0.922 2.210 1.710 2670
-0.921 2.209 1.699 2658
-0.961 2.304 1.758 4354
-0.963 2.308 1.751 6337
-0.967 2.319 1.748 7713
-0.972 2.329 1.745 9331
-0.976 2.340 1.742 8747
-0.986 2.363 1.748 8966
-0.977 2.342 1.723 7993
-0.976 2.340 1.712 7994
-0.981 2.351 1.709 5975
-0.995 2.386 1.722 5552
-1.000 2.396 1.719 5097
-1.012 2.426 1.728 5128
-1.019 2.442 1.729 6249
-1.023 2.453 1.726 7940
-1.028 2.463 1.722 7234
-1.037 2.486 1.727 7755
-1.036 2.484 1.715 7178
-1.033 2.476 1.699 6599
-1.035 2.480 1.692 5541
-1.039 2.491 1.688 4442
-1.049 2.514 1.692 4100
-1.085 2.600 1.736 4840
-1.086 2.604 1.728 5989
-1.086 2.602 1.716 6179
-1.074 2.575 1.688 7331
-1.076 2.579 1.680 6073
-1.083 2.596 1.680 4668
-1.087 2.606 1.676 4876
-1.118 2.681 1.710 4733
-1.120 2.685 1.701 5955
-1.125 2.696 1.697 5688
-1.142 2.739 1.711 7772
-1.144 2.743 1.702 8726
-1.149 2.753 1.697 8608
-1.153 2.764 1.693 6972
-1.160 2.781 1.691 5556
-1.159 2.779 1.679 4094
-1.191 2.854 1.710 4851
-1.203 2.885 1.716 5469
-1.210 2.902 1.714 6766
-1.212 2.906 1.705 7039
-1.214 2.910 1.696 5695
-1.229 2.947 1.705 4959
-1.250 2.997 1.720 6387
-1.257 3.015 1.718 8349
-1.262 3.025 1.712 7411
-1.267 3.036 1.706 7527
-1.268 3.040 1.696 6919
-1.270 3.045 1.687 5617
-1.274 3.055 1.681 4252
-1.293 3.099 1.692 3511
-1.328 3.183 1.722 4457
-1.329 3.187 1.712 6193
-1.334 3.198 1.706 7164
-1.338 3.209 1.699 7712
-1.343 3.220 1.692 5873
-1.367 3.277 1.708 6157
-1.369 3.281 1.698 8201
-1.368 3.279 1.684 8554
-1.369 3.283 1.674 7297
-1.385 3.321 1.680 6351
-1.401 3.358 1.685 8408
-1.403 3.362 1.675 9371
-1.402 3.360 1.661 8581
-1.406 3.371 1.654 7791
-1.408 3.375 1.643 5475
-1.502 3.602 1.732 4690
-1.504 3.606 1.721 3412
-1.475 3.536 1.677 2930
-1.513 3.628 1.705 3022
-1.518 3.639 1.696 4845
-1.522 3.650 1.688 4178
-1.530 3.668 1.682 3131
-1.586 3.801 1.725 5316
-1.593 3.819 1.719 6905
-1.600 3.837 1.713 5385
-1.622 3.889 1.721 5236
-1.627 3.900 1.711 5191
-1.649 3.952 1.718 4678
-1.616 3.874 1.673 3964
-1.618 3.878 1.661 3092
-1.651 3.958 1.679 3812
-1.681 4.031 1.693 3796
-1.712 4.104 1.707 4692
-1.716 4.115 1.697 6194
-1.718 4.119 1.684 6013
-1.731 4.151 1.682 4916
-1.739 4.169 1.674 5263
-1.764 4.228 1.681 4089
-1.768 4.239 1.670 4968
-1.793 4.299 1.677 4835
-1.798 4.310 1.666 6643
-1.802 4.321 1.655 5165
-1.819 4.360 1.654 5199
-1.823 4.371 1.643 3787
-1.900 4.556 1.691 3547
-1.905 4.567 1.679 3766
-1.913 4.585 1.670 4007
-1.914 4.589 1.656 3990
-1.954 4.684 1.671 3228
-1.915 4.590 1.625 2449
-1.937 4.643 1.626 2823
-2.082 4.990 1.721 2278
-2.040 4.890 1.672 2876
-2.091 5.013 1.694 4485
-2.093 5.017 1.679 6522
-2.097 5.028 1.665 3903
-2.161 5.180 1.694 3052
-2.221 5.325 1.720 2812
-2.223 5.329 1.703 4478
-2.225 5.334 1.687 4825
-2.229 5.345 1.672 4707
-2.231 5.349 1.655 4358
-2.230 5.346 1.637 3332
-2.276 5.456 1.649 3014
-2.281 5.467 1.634 2170
-2.303 5.521 1.631 1472
-2.346 5.624 1.640 1175
-2.342 5.614 1.619 1219
-2.337 5.604 1.597 1130
-2.381 5.707 1.606 735
-2.385 5.718 1.589 916
-0.858 2.057 0.646 631
-2.406 5.768 1.564 570
-2.408 5.772 1.546 668
-2.240 5.370 1.429 639
-2.217 5.316 1.399 909
-2.216 5.312 1.381 930
-2.772 6.644 1.673 784
-2.773 6.648 1.652 1055
-2.772 6.645 1.629 1234
-2.197 5.268 1.301 1106
-2.823 6.768 1.613 1108
-2.795 6.700 1.576 1189
-2.204 5.284 1.253 1080
-2.206 5.287 1.237 2778
-2.207 5.290 1.220 5107
-2.208 5.293 1.203 8432
-2.209 5.296 1.187 12134
-2.210 5.299 1.170 14830
-2.211 5.302 1.154 15093
-2.213 5.304 1.137 10173
-2.217 5.314 1.122 6049
-2.218 5.317 1.105 6813
-2.216 5.312 1.087 7278
-2.217 5.315 1.070 6169
-2.218 5.317 1.054 4371
-2.216 5.312 1.036 2641
-2.217 5.315 1.019 1699
-2.212 5.303 1.000 1452
-2.210 5.298 0.982 1866
-2.211 5.300 0.966 2719
-2.212 5.302 0.949 2954
-2.207 5.290 0.930 4069
-2.204 5.285 0.913 5842
-2.205 5.287 0.896 6396
-2.641 6.332 1.027 6007
-2.642 6.335 1.007 7358
-2.643 6.337 0.987 7889
-2.641 6.332 0.966 7857
-2.645 6.341 0.947 7134
-2.425 5.814 0.861 7034
-2.426 5.815 0.843 8271
-2.427 5.817 0.825 8625
-2.427 5.819 0.806 8534
-2.428 5.821 0.788 8176
-2.429 5.823 0.770 6952
-2.430 5.824 0.752 5124
-2.430 5.826 0.733 3320
-2.431 5.828 0.715 2477
-2.431 5.829 0.697 1875
-2.435 5.838 0.679 879
-2.439 5.847 0.661 305
-2.438 5.844 0.588 263
-2.438 5.846 0.569 290
-0.420 1.008 0.120 259
-0.420 1.007 0.117 299
-0.420 1.007 0.114 341
-0.420 1.007 0.111 364
-0.420 1.007 0.108 380
-0.423 1.014 0.104 394
-0.423 1.014 0.101 378
-0.420 1.007 0.099 369
-0.420 1.007 0.096 331
-0.420 1.007 0.093 293
-0.279 0.669 0.078 258
-0.279 0.669 0.076 326
-0.279 0.669 0.074 379
-0.279 0.668 0.072 382
-0.279 0.668 0.070 387
-0.279 0.668 0.068 397
-0.279 0.668 0.066 550
-0.872 2.099 1.774 3965
-0.874 2.103 1.767 7930
-0.876 2.108 1.761 7930
-0.877 2.112 1.754 7656
-0.879 2.117 1.748 7383
-0.884 2.127 1.746 8005
-0.888 2.137 1.744 8858
-0.890 2.141 1.737 8858
-0.891 2.146 1.731 8052
-0.893 2.150 1.724 7245
-0.892 2.148 1.713 6597
-0.892 2.146 1.702 6039
-0.901 2.169 1.708 4446
-0.913 2.197 1.719 4091
-0.915 2.201 1.713 3271
-0.919 2.212 1.710 2467
-0.918 2.210 1.699 2459
-0.958 2.306 1.758 4413
-0.960 2.310 1.751 6653
-0.964 2.320 1.748 8012
-0.968 2.331 1.745 9666
-0.975 2.347 1.746 8992
-0.980 2.358 1.743 9067
-0.974 2.344 1.723 7930
-0.973 2.342 1.712 7816
-0.977 2.352 1.709 5926
-0.992 2.387 1.722 5535
-0.996 2.398 1.719 5216
-1.006 2.421 1.724 5218
-1.015 2.444 1.729 6099
-1.020 2.454 1.726 7742
-1.027 2.471 1.726 7167
-1.034 2.488 1.727 7711
-1.033 2.486 1.715 7072
-1.029 2.477 1.699 6518
-1.031 2.482 1.692 5754
-1.035 2.492 1.688 4900
-1.076 2.591 1.740 4633
-1.078 2.595 1.732 5720
-1.083 2.606 1.728 6846
-1.082 2.604 1.716 7247
-1.078 2.595 1.700 8006
-1.080 2.600 1.692 6393
-1.082 2.604 1.684 4978
-1.086 2.614 1.679 5246
-1.114 2.683 1.710 4267
-1.116 2.687 1.701 5543
-1.121 2.697 1.697 5428
-1.138 2.740 1.711 7872
-1.140 2.744 1.702 8795
-1.145 2.755 1.697 8808
-1.149 2.766 1.693 7285
-1.156 2.783 1.691 5787
-1.152 2.774 1.675 4402
-1.189 2.863 1.714 4949
-1.199 2.886 1.716 6041
-1.206 2.904 1.714 7276
-1.213 2.921 1.712 6838
-1.221 2.938 1.710 5316
-1.228 2.956 1.708 5807
-1.240 2.986 1.713 6864
-1.253 3.016 1.718 8240
-1.260 3.034 1.715 7686
-1.265 3.045 1.709 8254
-1.264 3.042 1.696 7214
-1.268 3.053 1.690 5525
-1.273 3.064 1.684 4185
-1.286 3.094 1.688 3426
-1.323 3.185 1.722 4513
-1.322 3.182 1.709 6074
-1.327 3.193 1.702 6687
-1.334 3.211 1.699 7129
-1.338 3.222 1.692 5483
-1.362 3.279 1.708 6897
-1.364 3.283 1.698 9145
-1.363 3.281 1.684 9256
-1.365 3.285 1.674 7311
-1.383 3.329 1.683 5948
-1.396 3.360 1.685 7596
-1.398 3.365 1.675 8700
-1.399 3.369 1.664 8003
-1.404 3.379 1.657 7077
-1.456 3.505 1.701 5088
-1.497 3.604 1.732 4609
-1.496 3.601 1.718 3471
-1.467 3.531 1.674 3035
-1.505 3.623 1.702 2839
-1.510 3.634 1.693 4345
-1.514 3.645 1.685 3828
-1.575 3.792 1.734 2871
-1.580 3.803 1.725 5637
-1.587 3.821 1.719 7875
-1.595 3.839 1.713 6409
-1.614 3.884 1.718 5206
-1.621 3.902 1.711 4934
-1.643 3.954 1.718 4369
-1.610 3.876 1.673 4533
-1.641 3.949 1.688 3385
-1.645 3.960 1.679 4434
-1.704 4.102 1.720 3996
-1.706 4.106 1.707 5152
-1.710 4.117 1.697 6393
-1.715 4.128 1.687 5365
-1.731 4.167 1.687 4338
-1.736 4.178 1.676 5203
-1.752 4.217 1.676 3984
-1.759 4.235 1.668 4520
-1.787 4.301 1.677 5217
-1.791 4.312 1.666 7168
-1.796 4.323 1.655 5537
-1.812 4.362 1.654 5267
-1.817 4.373 1.643 3541
-1.891 4.552 1.689 3360
-1.898 4.570 1.679 3530
-1.906 4.588 1.670 3664
-1.908 4.592 1.656 3561
-1.944 4.680 1.669 3253
-1.946 4.684 1.654 2570
-1.933 4.653 1.628 2879
-2.025 4.874 1.683 2473
-2.032 4.892 1.672 3505
-2.084 5.016 1.694 4224
-2.086 5.020 1.679 6296
-2.087 5.024 1.663 3863
-2.153 5.183 1.694 2529
-2.211 5.321 1.718 2539
-2.212 5.326 1.701 4399
-2.214 5.330 1.685 4803
-2.222 5.348 1.672 4325
-2.223 5.352 1.655 3161
-2.263 5.448 1.665 2196
-2.268 5.459 1.649 2975
-2.270 5.463 1.632 2322
-2.295 5.524 1.631 1503
-2.353 5.663 1.650 1417
-2.366 5.695 1.639 1315
-2.329 5.607 1.597 1100
-2.375 5.718 1.607 897
-2.377 5.722 1.589 1206
-2.381 5.733 1.573 776
-2.395 5.765 1.562 608
-2.331 5.612 1.506 704
-2.336 5.623 1.490 620
-2.233 5.376 1.413 584
-2.763 6.651 1.695 551
-2.762 6.648 1.673 758
-2.764 6.652 1.652 866
-2.191 5.275 1.319 1073
-2.190 5.271 1.301 1163
-2.813 6.772 1.613 1105
-2.809 6.762 1.588 1114
-2.811 6.765 1.567 948
-2.198 5.291 1.237 987
-2.199 5.293 1.220 2128
-2.200 5.296 1.203 3923
-2.201 5.299 1.187 6140
-2.203 5.302 1.170 7930
-2.204 5.305 1.154 8318
-2.205 5.308 1.137 5568
-2.209 5.317 1.122 3162
-2.210 5.320 1.105 3649
-2.208 5.315 1.087 3941
-2.209 5.318 1.070 3265
-2.210 5.320 1.054 2249
-2.208 5.316 1.036 1412
-2.209 5.318 1.019 1140
-2.207 5.313 1.001 1181
-2.202 5.301 0.982 1396
-2.203 5.303 0.966 1996
-2.204 5.305 0.949 2268
-2.199 5.293 0.930 3152
-2.197 5.288 0.913 4611
-2.198 5.290 0.896 5110
-2.195 5.285 0.879 4687
-2.633 6.338 1.007 5653
-2.634 6.341 0.987 6070
-2.632 6.336 0.966 6114
-2.636 6.345 0.947 5608
-2.417 5.817 0.861 6078
-2.417 5.819 0.843 7167
-2.418 5.821 0.825 7483
-2.419 5.823 0.806 7355
-2.420 5.824 0.788 7046
-2.420 5.826 0.770 6011
-2.421 5.828 0.752 4379
-2.422 5.830 0.733 2742
-2.422 5.831 0.715 2011
-2.423 5.833 0.697 1516
-2.427 5.841 0.679 726
-2.430 5.850 0.661 317
-2.426 5.841 0.587 268
-2.427 5.842 0.569 276
-0.419 1.008 0.120 265
-0.419 1.008 0.117 310
-0.419 1.008 0.114 362
-0.419 1.008 0.111 389
-0.422 1.015 0.107 414
-0.422 1.015 0.104 439
-0.422 1.015 0.101 424
-0.419 1.008 0.099 417
-0.419 1.007 0.096 372
-0.418 1.007 0.093 326
-0.418 1.007 0.090 273
-0.278 0.669 0.076 257
-0.278 0.669 0.074 303
-0.278 0.669 0.072 311
-0.278 0.669 0.070 325
-0.275 0.661 0.069 335
-0.278 0.668 0.066 461
-0.866 2.102 1.774 4215
-0.867 2.106 1.767 8431
-0.869 2.111 1.761 8431
-0.871 2.115 1.754 8235
-0.873 2.119 1.748 8039
-0.877 2.130 1.746 8351
-0.881 2.140 1.744 8974
-0.883 2.144 1.737 8974
-0.885 2.148 1.731 8081
-0.887 2.153 1.724 7188
-0.886 2.151 1.713 6606
-0.888 2.155 1.706 6113
-0.897 2.178 1.713 4723
-0.903 2.194 1.715 4338
-0.908 2.204 1.713 3340
-0.952 2.312 1.781 2475
-0.914 2.219 1.703 2442
-0.951 2.308 1.758 4499
-0.952 2.313 1.751 6849
-0.957 2.323 1.748 8211
-0.961 2.334 1.745 9918
-0.968 2.350 1.746 9185
-0.972 2.361 1.743 9127
-0.969 2.353 1.728 7772
-0.966 2.345 1.712 7553
-0.970 2.355 1.709 5750
-0.984 2.390 1.722 5331
-0.989 2.401 1.719 5125
-0.998 2.424 1.724 5161
-1.005 2.441 1.725 5856
-1.015 2.464 1.730 7490
-1.021 2.480 1.730 7145
-1.026 2.491 1.727 7695
-1.025 2.489 1.715 6891
-1.022 2.481 1.699 6197
-1.026 2.491 1.696 5726
-1.028 2.495 1.688 5248
-1.068 2.594 1.740 5278
-1.070 2.599 1.732 6349
-1.072 2.603 1.724 7421
-1.074 2.607 1.716 8036
-1.073 2.605 1.704 8819
-1.075 2.609 1.696 7205
-1.082 2.626 1.695 5724
-1.081 2.624 1.683 5723
-1.082 2.628 1.675 4526
-1.108 2.690 1.701 4987
-1.125 2.733 1.716 5221
-1.130 2.744 1.711 8032
-1.132 2.748 1.702 8888
-1.136 2.759 1.697 8817
-1.140 2.769 1.693 7130
-1.145 2.780 1.688 5605
-1.144 2.778 1.675 4428
-1.180 2.866 1.714 5084
-1.187 2.884 1.712 6270
-1.197 2.907 1.714 7142
-1.207 2.931 1.716 6757
-1.214 2.949 1.714 5650
-1.219 2.959 1.708 6374
-1.229 2.983 1.710 7370
-1.244 3.020 1.718 8134
-1.251 3.038 1.715 8179
-1.253 3.042 1.706 9002
-1.254 3.046 1.696 7266
-1.259 3.057 1.690 5245
-1.266 3.074 1.688 4086
-1.276 3.098 1.688 3494
-1.316 3.195 1.725 4307
-1.315 3.193 1.712 5218
-1.319 3.204 1.706 5830
-1.324 3.215 1.699 6235
-1.331 3.232 1.695 5068
-1.352 3.283 1.708 7645
-1.354 3.288 1.698 10063
-1.353 3.285 1.684 9871
-1.355 3.289 1.674 7439
-1.376 3.340 1.686 5810
-1.383 3.358 1.682 7102
-1.387 3.369 1.675 7985
-1.389 3.373 1.664 7358
-1.393 3.384 1.657 6579
-1.445 3.509 1.701 5321
-1.486 3.608 1.732 4301
-1.449 3.518 1.679 3720
-1.453 3.529 1.671 3350
-1.491 3.621 1.699 2863
-1.499 3.639 1.693 3987
-1.506 3.657 1.688 3485
-1.564 3.797 1.734 3449
-1.571 3.815 1.728 6099
-1.576 3.826 1.719 8701
-1.580 3.837 1.710 7121
-1.599 3.883 1.715 5092
-1.606 3.900 1.708 4476
-1.594 3.870 1.682 4362
-1.598 3.881 1.673 4782
-1.626 3.947 1.686 3815
-1.633 3.965 1.679 5003
-1.691 4.107 1.720 4163
-1.693 4.111 1.707 5413
-1.698 4.123 1.697 6246
-1.705 4.141 1.689 4701
-1.724 4.186 1.692 4318
-1.726 4.190 1.679 5611
-1.733 4.208 1.671 5059
-1.746 4.240 1.668 4611
-1.774 4.307 1.677 5319
-1.775 4.311 1.664 7244
-1.783 4.329 1.655 5603
-1.799 4.368 1.654 5329
-1.803 4.379 1.643 3529
-1.874 4.550 1.687 3170
-1.887 4.582 1.682 3299
-1.892 4.594 1.670 3159
-1.928 4.682 1.684 3365
-1.930 4.686 1.669 3383
-1.928 4.683 1.652 2900
-1.921 4.666 1.631 2807
-2.013 4.888 1.685 2754
-2.017 4.899 1.672 3890
-2.065 5.015 1.692 3716
-2.070 5.027 1.679 5734
-2.072 5.031 1.663 3826
-2.140 5.197 1.696 2153
-2.197 5.335 1.720 2489
-2.196 5.332 1.701 4126
-2.198 5.337 1.685 4788
-2.205 5.355 1.672 4096
-2.213 5.373 1.659 2549
-2.246 5.455 1.665 2649
-2.251 5.466 1.649 3114
-2.250 5.463 1.630 2511
-2.278 5.531 1.631 1635
-2.341 5.684 1.653 1922
-2.348 5.703 1.639 1858
-2.356 5.721 1.625 1178
-2.355 5.718 1.606 1191
-2.356 5.722 1.588 1560
-2.361 5.733 1.571 1110
-2.371 5.758 1.559 687
-2.317 5.626 1.508 691
-2.318 5.630 1.490 619
-2.217 5.383 1.413 420
-2.743 6.660 1.695 535
-2.744 6.664 1.675 766
-2.743 6.661 1.652 715
-2.175 5.282 1.319 954
-2.176 5.285 1.303 1154
-2.178 5.288 1.286 1128
-2.791 6.777 1.590 1085
-2.793 6.781 1.569 938
-2.806 6.814 1.554 672
-2.813 6.832 1.535 789
-2.184 5.303 1.203 1297
-2.185 5.306 1.187 2431
-2.186 5.309 1.170 3443
-2.187 5.312 1.154 3741
-2.188 5.314 1.137 2447
-2.190 5.317 1.120 1318
-2.191 5.320 1.104 1617
-2.192 5.322 1.087 1743
-2.193 5.325 1.070 1358
-2.191 5.320 1.052 859
-2.192 5.322 1.036 668
-2.196 5.332 1.020 850
-2.194 5.327 1.003 973
-2.189 5.315 0.984 1000
-2.187 5.310 0.966 1351
-2.188 5.312 0.949 1579
-2.183 5.300 0.930 2207
-2.180 5.295 0.913 3296
-2.181 5.297 0.896 3695
-2.179 5.292 0.879 3460
-2.614 6.346 1.007 4052
-2.614 6.349 0.987 4366
-2.612 6.344 0.966 4419
-2.616 6.353 0.947 4073
-2.399 5.825 0.861 4942
-2.399 5.826 0.843 5842
-2.400 5.828 0.825 6112
-2.401 5.830 0.806 5998
-2.402 5.832 0.788 5655
-2.402 5.834 0.770 4825
-2.403 5.835 0.752 3543
-2.404 5.837 0.733 2140
-2.404 5.839 0.715 1535
-2.405 5.840 0.697 1084
-2.412 5.856 0.680 497
-2.415 5.865 0.662 324
-2.626 6.377 0.688 250
-2.408 5.848 0.587 261
-2.406 5.842 0.568 269
-0.416 1.009 0.120 279
-0.416 1.009 0.117 326
-0.416 1.009 0.114 377
-0.416 1.009 0.111 405
-0.419 1.016 0.107 422
-0.419 1.016 0.104 437
-0.419 1.016 0.101 421
-0.415 1.009 0.099 412
-0.415 1.009 0.096 384
-0.415 1.009 0.093 355
-0.415 1.008 0.090 298
-0.276 0.669 0.068 250
-0.276 0.669 0.066 340
-0.859 2.097 1.769 4412
-0.861 2.102 1.763 8824
-0.863 2.106 1.756 8824
-0.865 2.111 1.750 8656
-0.869 2.121 1.748 8556
-0.873 2.131 1.746 8534
-0.877 2.141 1.744 8923
-0.879 2.146 1.737 8923
-0.881 2.150 1.731 7950
-0.883 2.154 1.724 6977
-0.884 2.159 1.717 6483
-0.884 2.157 1.706 6026
-0.893 2.179 1.713 4893
-0.900 2.196 1.715 4453
-0.901 2.200 1.708 3383
-0.948 2.314 1.781 2573
-0.912 2.227 1.708 2463
-0.946 2.310 1.758 4600
-0.948 2.315 1.751 6927
-0.953 2.325 1.748 8305
-0.959 2.342 1.749 10072
-0.964 2.352 1.746 9274
-0.968 2.363 1.743 9089
-0.965 2.355 1.728 7564
-0.961 2.347 1.712 7216
-0.966 2.357 1.709 5456
-0.983 2.398 1.727 5008
-0.984 2.403 1.719 4857
-0.994 2.426 1.724 4931
-1.001 2.442 1.725 5541
-1.010 2.465 1.730 7247
-1.017 2.482 1.730 7041
-1.021 2.493 1.727 7546
-1.020 2.491 1.715 6566
-1.020 2.489 1.703 5663
-1.024 2.499 1.700 5561
-1.023 2.497 1.688 5380
-1.064 2.596 1.740 5707
-1.065 2.601 1.732 6762
-1.067 2.605 1.724 7816
-1.069 2.609 1.716 8669
-1.068 2.607 1.704 9576
-1.072 2.618 1.700 8179
-1.077 2.628 1.695 6762
-1.076 2.626 1.683 6384
-1.080 2.637 1.679 4989
-1.103 2.692 1.701 4305
-1.123 2.742 1.719 5238
-1.125 2.746 1.711 8067
-1.127 2.750 1.702 8904
-1.131 2.761 1.697 8827
-1.135 2.771 1.693 6983
-1.137 2.776 1.684 5258
-1.139 2.780 1.675 4425
-1.183 2.888 1.725 5171
-1.188 2.899 1.720 6935
-1.192 2.910 1.714 7448
-1.202 2.933 1.716 5863
-1.209 2.951 1.714 5045
-1.216 2.968 1.712 6590
-1.223 2.985 1.710 7830
-1.238 3.023 1.718 8056
-1.245 3.040 1.715 8415
-1.247 3.044 1.706 9354
-1.249 3.048 1.696 7273
-1.256 3.066 1.694 5175
-1.260 3.077 1.688 4150
-1.270 3.101 1.688 3513
-1.310 3.198 1.725 4426
-1.309 3.195 1.712 4951
-1.314 3.206 1.706 5257
-1.318 3.217 1.699 5263
-1.344 3.282 1.718 4646
-1.349 3.292 1.711 8411
-1.351 3.297 1.701 11102
-1.350 3.294 1.688 10504
-1.349 3.292 1.674 7646
-1.370 3.343 1.686 5548
-1.374 3.354 1.679 6353
-1.381 3.371 1.675 6950
-1.386 3.382 1.667 6683
-1.387 3.386 1.657 5974
-1.442 3.519 1.704 5386
-1.441 3.516 1.690 4381
-1.442 3.520 1.679 4374
-1.444 3.525 1.668 3937
-1.512 3.692 1.728 2995
-1.486 3.628 1.687 3786
-1.555 3.796 1.746 3391
-1.560 3.807 1.737 4057
-1.564 3.818 1.728 6632
-1.569 3.829 1.719 9285
-1.573 3.840 1.710 7568
-1.592 3.885 1.715 5056
-1.591 3.883 1.700 4170
-1.590 3.880 1.685 4090
-1.594 3.891 1.676 4609
-1.616 3.943 1.683 4461
-1.623 3.961 1.676 5550
-1.627 3.972 1.666 4667
-1.686 4.114 1.707 5490
-1.690 4.126 1.697 5833
-1.698 4.144 1.689 4063
-1.719 4.196 1.695 4297
-1.721 4.200 1.681 6047
-1.725 4.212 1.671 6135
-1.736 4.236 1.665 5039
-1.763 4.303 1.675 5822
-1.767 4.314 1.664 7712
-1.772 4.325 1.653 5777
-1.791 4.371 1.654 5214
-1.792 4.375 1.640 3442
-1.863 4.547 1.684 2866
-1.879 4.586 1.682 3034
-1.886 4.604 1.672 2712
-1.917 4.678 1.681 3221
-1.918 4.682 1.667 3482
-1.920 4.686 1.652 3133
-1.916 4.676 1.633 2704
-2.004 4.891 1.685 2788
-2.008 4.902 1.672 3938
-2.016 4.921 1.662 3548
-2.061 5.030 1.679 4944
-2.065 5.042 1.665 3708
-2.096 5.116 1.671 2774
-2.196 5.360 1.727 2978
-2.186 5.336 1.701 3794
-2.185 5.333 1.683 4489
-2.201 5.373 1.676 3826
-2.212 5.398 1.665 3320
-2.237 5.459 1.665 3144
-2.238 5.463 1.647 3233
-2.237 5.460 1.628 2692
-2.268 5.535 1.631 1809
-2.333 5.696 1.655 2523
-2.338 5.707 1.639 2345
-2.346 5.725 1.625 1439
-2.344 5.722 1.606 1437
-2.346 5.726 1.588 1874
-2.350 5.737 1.571 1365
-2.358 5.755 1.557 728
-2.304 5.623 1.506 727
-2.308 5.634 1.490 594
-2.603 6.353 1.643 498
-2.610 6.371 1.626 506
-2.729 6.662 1.673 734
-2.619 6.394 1.590 798
-2.624 6.405 1.571 862
-2.167 5.289 1.303 1098
-2.168 5.292 1.286 1238
-2.169 5.295 1.270 1083
-2.783 6.794 1.570 910
-2.797 6.826 1.555 701
-2.804 6.844 1.537 943
-2.806 6.848 1.515 1066
-2.175 5.310 1.187 587
-2.177 5.313 1.170 1034
-2.178 5.316 1.154 1212
-2.179 5.318 1.137 782
-2.180 5.321 1.120 445
-2.181 5.324 1.104 586
-2.182 5.326 1.087 529
-2.183 5.329 1.070 315
-2.869 7.002 1.343 340
-2.188 5.341 1.038 593
-2.186 5.336 1.020 904
-2.184 5.331 1.003 958
-2.182 5.326 0.985 756
-2.180 5.321 0.967 791
-2.178 5.316 0.949 972
-2.173 5.304 0.930 1420
-2.171 5.299 0.913 2174
-2.172 5.301 0.896 2471
-2.169 5.295 0.879 2425
-2.602 6.351 1.007 2613
-2.603 6.354 0.987 2847
-2.601 6.348 0.966 2913
-2.387 5.827 0.879 2731
-2.388 5.829 0.861 3786
-2.389 5.831 0.843 4454
-2.390 5.833 0.825 4705
-2.390 5.835 0.806 4694
-2.391 5.836 0.788 4242
-2.392 5.838 0.770 3542
-2.392 5.840 0.752 2684
-2.393 5.841 0.733 1616
-2.394 5.843 0.715 1158
-2.397 5.852 0.697 760
-2.410 5.882 0.682 461
-2.408 5.877 0.663 383
-2.405 5.871 0.644 306
-2.406 5.872 0.625 269
-2.400 5.859 0.606 298
-2.398 5.853 0.587 356
-2.398 5.854 0.569 345
-2.396 5.848 0.550 301
-2.397 5.852 0.477 337
-2.398 5.852 0.458 373
-2.395 5.846 0.440 331
-2.392 5.839 0.421 255
-2.394 5.843 0.311 253
-2.394 5.844 0.293 253
-2.392 5.838 0.165 262
-2.392 5.838 0.147 297
-2.392 5.838 0.128 333
-2.392 5.838 0.110 341
-2.389 5.830 0.092 353
-2.392 5.838 0.074 346
-2.392 5.837 0.055 342
-2.391 5.837 0.037 317
-2.388 5.830 0.019 297
-0.417 1.017 0.117 320
-0.414 1.010 0.114 377
-0.414 1.010 0.111 402
-0.417 1.017 0.107 417
-0.417 1.017 0.104 430
-0.417 1.017 0.101 413
-0.414 1.010 0.099 402
-0.414 1.009 0.096 372
-0.414 1.009 0.093 342
-0.413 1.009 0.090 289
-0.274 0.670 0.066 283
-0.855 2.099 1.769 4485
-0.856 2.104 1.763 8971
-0.858 2.108 1.756 8971
-0.860 2.113 1.750 8953
-0.864 2.123 1.748 8942
-0.868 2.133 1.746 8621
-0.872 2.143 1.744 8859
-0.874 2.148 1.737 8859
-0.876 2.152 1.731 7809
-0.878 2.156 1.724 6758
-0.879 2.161 1.717 6254
-0.881 2.165 1.711 5751
-0.888 2.181 1.713 4893
-0.892 2.192 1.711 4427
-0.896 2.202 1.708 3307
-0.943 2.316 1.781 2710
-0.944 2.320 1.774 2541
-0.944 2.318 1.762 4689
-0.943 2.317 1.751 6888
-0.950 2.333 1.752 8335
-0.954 2.344 1.749 10153
-0.958 2.354 1.746 9286
-0.963 2.365 1.743 8972
-0.959 2.357 1.728 7364
-0.956 2.349 1.712 6939
-0.960 2.359 1.709 5146
-0.977 2.401 1.727 4538
-0.979 2.405 1.719 4434
-0.988 2.428 1.724 4640
-0.998 2.451 1.729 5280
-1.004 2.468 1.730 7080
-1.011 2.485 1.730 6895
-1.016 2.495 1.727 7248
-1.017 2.499 1.719 6153
-1.017 2.497 1.707 5164
-1.018 2.502 1.700 5325
-1.020 2.506 1.692 5399
-1.058 2.599 1.740 5942
-1.060 2.603 1.732 7001
-1.061 2.607 1.724 8060
-1.063 2.612 1.716 9141
-1.065 2.616 1.708 10223
-1.069 2.627 1.703 9205
-1.073 2.637 1.699 7878
-1.073 2.635 1.687 7121
-1.077 2.646 1.683 5547
-1.081 2.656 1.678 4316
-1.117 2.744 1.719 5393
-1.119 2.748 1.711 8052
-1.123 2.759 1.706 8832
-1.125 2.763 1.697 8633
-1.129 2.774 1.693 6562
-1.133 2.785 1.688 4784
-1.132 2.782 1.675 4397
-1.171 2.878 1.718 5301
-1.178 2.895 1.716 7190
-1.185 2.912 1.714 7327
-1.195 2.936 1.716 5598
-1.213 2.980 1.728 5593
-1.212 2.977 1.715 7967
-1.214 2.982 1.706 9618
-1.221 2.999 1.704 8822
-1.236 3.036 1.712 8802
-1.240 3.047 1.706 9747
-1.242 3.051 1.696 7280
-1.249 3.069 1.694 5104
-1.253 3.080 1.688 4222
-1.261 3.097 1.685 3528
-1.303 3.201 1.725 4182
-1.302 3.198 1.712 4483
-1.306 3.209 1.706 4613
-1.319 3.240 1.709 4435
-1.337 3.285 1.718 5053
-1.341 3.296 1.711 9015
-1.343 3.300 1.701 11831
-1.342 3.297 1.688 10817
-1.341 3.295 1.674 7476
-1.362 3.346 1.686 5008
-1.364 3.350 1.676 5415
-1.374 3.374 1.675 5829
-1.378 3.385 1.667 6036
-1.382 3.396 1.660 5584
-1.434 3.522 1.704 5066
-1.430 3.513 1.687 4541
-1.432 3.517 1.676 4922
-1.436 3.528 1.668 4513
-1.504 3.695 1.728 3820
-1.475 3.625 1.684 3698
-1.544 3.792 1.743 3848
-1.551 3.810 1.737 4564
-1.555 3.821 1.728 7103
-1.560 3.833 1.719 9672
-1.564 3.844 1.710 7848
-1.580 3.882 1.712 5069
-1.579 3.880 1.697 3913
-1.581 3.884 1.685 3547
-1.591 3.909 1.681 4333
-1.607 3.947 1.683 5329
-1.614 3.965 1.676 6165
-1.616 3.969 1.664 5093
-1.676 4.118 1.707 5453
-1.681 4.129 1.697 5174
-1.688 4.147 1.689 3415
-1.710 4.200 1.695 4361
-1.711 4.204 1.681 6887
-1.716 4.215 1.671 7606
-1.726 4.240 1.665 5982
-1.750 4.300 1.672 5983
-1.758 4.318 1.664 7265
-1.762 4.329 1.653 5363
-1.781 4.375 1.654 4829
-1.783 4.379 1.640 3327
-1.835 4.509 1.670 3020
-1.871 4.597 1.684 2669
-1.879 4.615 1.675 2375
-1.903 4.675 1.679 3143
-1.905 4.680 1.664 3547
-1.901 4.670 1.645 3334
-1.902 4.674 1.631 2526
-1.993 4.896 1.685 2688
-1.997 4.907 1.672 3711
-2.005 4.925 1.662 3361
-2.044 5.021 1.674 4126
-2.068 5.081 1.676 4265
-2.082 5.114 1.669 3725
-2.184 5.365 1.727 3586
-2.186 5.370 1.710 3779
-2.173 5.338 1.683 4260
-2.192 5.385 1.678 3689
-2.196 5.396 1.663 4030
-2.198 5.400 1.647 3792
-2.226 5.468 1.647 3364
-2.225 5.465 1.628 2745
-2.328 5.718 1.679 2145
-2.320 5.701 1.655 3105
-2.325 5.712 1.639 2646
-2.332 5.730 1.625 1645
-2.331 5.727 1.606 1702
-2.333 5.731 1.588 2220
-2.334 5.735 1.570 1703
-2.339 5.746 1.554 857
-2.198 5.400 1.450 712
-2.295 5.639 1.490 501
-2.591 6.366 1.645 463
-2.170 5.331 1.381 582
-2.714 6.668 1.673 685
-2.605 6.400 1.590 743
-2.615 6.425 1.575 790
-2.155 5.294 1.303 877
-2.156 5.297 1.286 1087
-2.157 5.300 1.270 1133
-2.159 5.303 1.253 846
-2.787 6.847 1.558 764
-2.791 6.858 1.538 1115
-2.790 6.854 1.515 1174
-2.794 6.865 1.495 582
-2.843 6.984 1.496 612
-2.847 6.995 1.476 500
-2.425 5.959 1.257 477
-2.427 5.962 1.239 357
-2.175 5.343 1.106 414
-2.173 5.338 1.088 489
-2.174 5.341 1.072 585
-2.175 5.343 1.055 721
-2.176 5.346 1.038 909
-2.174 5.341 1.020 1074
-2.175 5.343 1.004 974
-2.170 5.331 0.985 653
-2.171 5.333 0.968 462
-2.169 5.328 0.950 537
-2.161 5.309 0.930 760
-2.159 5.304 0.913 1102
-2.160 5.306 0.896 1236
-2.157 5.300 0.879 1292
-2.588 6.357 1.007 1375
-2.588 6.359 0.987 1516
-2.586 6.354 0.966 1600
-2.377 5.840 0.880 1773
-2.378 5.842 0.862 2629
-2.376 5.836 0.843 3027
-2.379 5.845 0.825 3257
-2.380 5.847 0.807 3482
-2.381 5.849 0.789 2892
-2.378 5.843 0.770 2245
-2.382 5.852 0.752 1780
-2.383 5.854 0.734 1148
-2.386 5.863 0.716 880
-2.396 5.886 0.700 756
-2.400 5.895 0.683 670
-2.397 5.889 0.663 525
-2.395 5.883 0.644 455
-2.392 5.877 0.625 353
-2.387 5.864 0.606 382
-2.387 5.865 0.588 535
-2.385 5.859 0.569 574
-2.385 5.860 0.550 495
-2.380 5.847 0.531 367
-2.380 5.848 0.513 305
-2.381 5.849 0.494 341
-2.384 5.857 0.477 443
-2.384 5.858 0.458 509
-2.382 5.851 0.440 494
-2.382 5.852 0.421 424
-2.382 5.853 0.403 357
-2.380 5.846 0.384 325
-2.380 5.847 0.366 301
-2.383 5.855 0.348 312
-2.380 5.848 0.330 317
-2.381 5.849 0.311 326
-2.381 5.849 0.293 336
-2.381 5.849 0.275 319
-2.381 5.850 0.256 293
-2.381 5.850 0.238 254
-2.381 5.851 0.183 331
-2.378 5.843 0.165 410
-2.378 5.843 0.147 453
-2.378 5.843 0.128 496
-2.378 5.843 0.110 492
-2.375 5.836 0.092 492
-2.378 5.843 0.074 474
-2.378 5.843 0.055 459
-2.378 5.843 0.037 431
-2.375 5.835 0.019 407
-2.375 5.835 0.001 368
-0.414 1.018 0.114 358
-0.411 1.011 0.111 384
-0.414 1.018 0.107 402
-0.414 1.018 0.104 416
-0.414 1.018 0.101 407
-0.411 1.011 0.099 402
-0.411 1.010 0.096 376
-0.411 1.010 0.093 350
-0.411 1.010 0.090 294
-0.848 2.102 1.769 4406
-0.850 2.106 1.763 8813
-0.852 2.111 1.756 8813
-0.854 2.115 1.750 8983
-0.855 2.119 1.743 9153
-0.860 2.130 1.741 8579
-0.866 2.146 1.744 8753
-0.868 2.150 1.737 8753
-0.870 2.155 1.731 7604
-0.871 2.159 1.724 6455
-0.876 2.169 1.722 6012
-0.877 2.174 1.715 5569
-0.884 2.190 1.717 4909
-0.886 2.194 1.711 4438
-0.890 2.204 1.708 3283
-0.936 2.318 1.781 2825
-0.938 2.323 1.774 2700
-0.937 2.321 1.762 4706
-0.939 2.326 1.755 6698
-0.943 2.336 1.752 8218
-0.947 2.347 1.749 10070
-0.951 2.357 1.746 9258
-0.956 2.368 1.743 8855
-0.955 2.366 1.732 7286
-0.949 2.351 1.712 6746
-0.953 2.362 1.709 4947
-0.970 2.404 1.727 3914
-0.974 2.414 1.723 3896
-0.981 2.431 1.724 4218
-0.990 2.454 1.729 4942
-1.000 2.477 1.734 6811
-1.007 2.494 1.735 6551
-1.011 2.504 1.731 6680
-1.010 2.502 1.719 5578
-1.030 2.551 1.740 5189
-1.037 2.568 1.740 5058
-1.046 2.591 1.744 5473
-1.050 2.602 1.740 5966
-1.052 2.606 1.732 7112
-1.054 2.610 1.724 8257
-1.055 2.615 1.716 9536
-1.057 2.619 1.708 10816
-1.061 2.630 1.703 10081
-1.066 2.640 1.699 8870
-1.065 2.638 1.687 7738
-1.069 2.649 1.683 6107
-1.071 2.653 1.675 4584
-1.112 2.754 1.723 5466
-1.113 2.758 1.715 8270
-1.115 2.762 1.706 9287
-1.117 2.767 1.697 8849
-1.118 2.771 1.689 6349
-1.123 2.781 1.684 4383
-1.124 2.786 1.675 4233
-1.168 2.894 1.725 5429
-1.173 2.905 1.720 7581
-1.177 2.916 1.714 7324
-1.187 2.940 1.716 5414
-1.204 2.983 1.728 6246
-1.203 2.981 1.715 9197
-1.202 2.979 1.703 11019
-1.204 2.983 1.693 9676
-1.227 3.040 1.712 9107
-1.231 3.051 1.706 10199
-1.233 3.055 1.696 7430
-1.243 3.079 1.697 5303
-1.245 3.083 1.688 4440
-1.252 3.101 1.685 3565
-1.296 3.211 1.729 3900
-1.298 3.216 1.719 4057
-1.308 3.240 1.719 4267
-1.320 3.271 1.722 4611
-1.327 3.288 1.718 5288
-1.332 3.299 1.711 9359
-1.336 3.310 1.704 12200
-1.333 3.301 1.688 10691
-1.329 3.292 1.671 6973
-1.352 3.350 1.686 4271
-1.354 3.354 1.676 4978
-1.364 3.378 1.675 5018
-1.371 3.396 1.670 5315
-1.373 3.400 1.660 5014
-1.429 3.540 1.710 4708
-1.420 3.517 1.687 4637
-1.424 3.528 1.679 5394
-1.426 3.532 1.668 5052
-1.493 3.700 1.728 4602
-1.495 3.704 1.717 3709
-1.527 3.783 1.737 3961
-1.540 3.815 1.737 4801
-1.544 3.826 1.728 7431
-1.549 3.837 1.719 9753
-1.553 3.848 1.710 7954
-1.558 3.859 1.701 5228
-1.568 3.884 1.697 3806
-1.570 3.888 1.685 3134
-1.588 3.934 1.690 4723
-1.595 3.952 1.683 6146
-1.600 3.963 1.673 6541
-1.604 3.974 1.664 5454
-1.664 4.123 1.707 5148
-1.666 4.127 1.694 4356
-1.696 4.201 1.708 2988
-1.706 4.226 1.702 4630
-1.702 4.216 1.684 7782
-1.704 4.220 1.671 8955
-1.714 4.245 1.665 6869
-1.735 4.298 1.670 6123
-1.742 4.316 1.661 6685
-1.750 4.334 1.653 4811
-1.768 4.380 1.654 4784
-1.767 4.377 1.638 3545
-1.822 4.514 1.670 3196
-1.821 4.512 1.653 2285
-1.879 4.656 1.686 2392
-1.887 4.674 1.677 3183
-1.891 4.685 1.664 3500
-1.884 4.668 1.643 3413
-1.886 4.672 1.628 2452
-1.939 4.803 1.654 2473
-1.983 4.913 1.672 3133
-2.007 4.973 1.675 3356
-2.021 5.006 1.668 4028
-2.056 5.095 1.678 4639
-2.064 5.113 1.667 4383
-2.171 5.379 1.729 3938
-2.173 5.383 1.712 3931
-2.175 5.387 1.695 4346
-2.179 5.399 1.680 4169
-2.181 5.403 1.663 4803
-2.180 5.400 1.645 4831
-2.207 5.468 1.645 3122
-2.209 5.472 1.628 2323
-2.311 5.725 1.679 2410
-2.304 5.708 1.655 3427
-2.306 5.712 1.638 2804
-2.316 5.737 1.625 1814
-2.315 5.734 1.606 1869
-2.316 5.738 1.588 2417
-2.318 5.742 1.570 1911
-2.319 5.746 1.552 945
-2.182 5.406 1.450 874
-2.184 5.409 1.433 651
-2.570 6.366 1.643 535
-2.571 6.370 1.623 608
-2.153 5.334 1.362 581
-2.586 6.407 1.590 741
-2.594 6.425 1.573 830
-2.604 6.451 1.558 712
-2.736 6.778 1.608 1051
-2.741 6.790 1.588 943
-2.143 5.309 1.253 920
-2.770 6.862 1.560 926
-2.771 6.866 1.538 1358
-2.770 6.862 1.515 1292
-2.148 5.321 1.187 677
-2.825 7.000 1.498 718
-2.830 7.011 1.477 594
-2.408 5.966 1.257 528
-2.155 5.339 1.122 450
-2.156 5.342 1.105 621
-2.157 5.345 1.088 814
-2.155 5.340 1.070 988
-2.159 5.350 1.055 1117
-2.157 5.345 1.037 1232
-2.158 5.347 1.020 1192
-2.159 5.350 1.004 910
-2.817 6.979 1.247 632
-2.847 7.054 1.237 555
-2.846 7.050 1.213 353
-2.145 5.315 0.930 365
-2.143 5.310 0.913 566
-2.144 5.312 0.896 645
-2.142 5.307 0.879 688
-2.143 5.309 0.862 699
-2.144 5.311 0.845 647
-2.568 6.362 0.966 654
-2.366 5.861 0.882 1013
-2.364 5.856 0.863 1655
-2.364 5.858 0.845 1860
-2.365 5.860 0.826 2029
-2.369 5.869 0.809 2444
-2.370 5.870 0.791 2120
-2.370 5.872 0.772 1427
-2.368 5.867 0.753 957
-2.375 5.883 0.736 798
-2.378 5.892 0.719 773
-2.379 5.893 0.700 846
-2.382 5.902 0.683 892
-2.380 5.896 0.663 734
-2.378 5.890 0.644 639
-2.375 5.884 0.625 497
-2.370 5.871 0.606 497
-2.370 5.872 0.588 718
-2.371 5.873 0.569 833
-2.368 5.867 0.550 777
-2.366 5.861 0.531 631
-2.366 5.862 0.513 521
-2.364 5.856 0.494 471
-2.367 5.864 0.477 496
-2.367 5.865 0.458 579
-2.368 5.866 0.440 621
-2.365 5.859 0.421 616
-2.365 5.860 0.403 558
-2.366 5.861 0.385 477
-2.363 5.854 0.366 393
-2.366 5.862 0.348 385
-2.363 5.855 0.330 383
-2.364 5.855 0.311 387
-2.364 5.856 0.293 392
-2.364 5.856 0.275 378
-2.364 5.857 0.256 359
-2.364 5.857 0.238 296
-2.364 5.857 0.202 259
-2.364 5.858 0.183 393
-2.361 5.850 0.165 512
-2.361 5.850 0.147 588
-2.361 5.850 0.128 664
-2.361 5.850 0.110 679
-2.358 5.843 0.092 699
-2.361 5.850 0.074 657
-2.361 5.850 0.055 621
-2.358 5.842 0.037 574
-2.358 5.842 0.019 535
-2.358 5.842 0.001 479
-2.358 5.841 -0.017 414
-2.358 5.841 -0.036 348
-0.411 1.019 0.107 361
-0.411 1.019 0.104 372
-0.411 1.019 0.101 367
-0.408 1.012 0.099 367
-0.408 1.012 0.096 346
-0.408 1.011 0.093 325
-0.408 1.011 0.090 270
-0.842 2.097 1.764 4175
-0.844 2.102 1.758 8351
-0.846 2.106 1.751 8351
-0.850 2.116 1.750 8737
-0.852 2.121 1.743 9135
-0.856 2.131 1.741 8409
-0.863 2.147 1.744 8601
-0.864 2.152 1.737 8601
-0.866 2.156 1.731 7345
-0.870 2.166 1.728 6133
-0.872 2.171 1.722 5806
-0.876 2.181 1.720 5586
-0.880 2.191 1.717 4996
-0.884 2.202 1.715 4456
-0.886 2.206 1.708 3240
-0.932 2.320 1.781 2922
-0.931 2.318 1.769 2824
-0.933 2.323 1.762 4620
-0.935 2.327 1.755 6414
-0.939 2.338 1.752 7935
-0.943 2.348 1.749 9797
-0.947 2.359 1.746 9115
-0.952 2.369 1.743 8652
-0.951 2.367 1.732 7227
-0.948 2.359 1.716 6627
-0.949 2.364 1.709 4810
-0.966 2.405 1.727 3162
-0.970 2.416 1.723 3262
-0.977 2.432 1.724 3809
-0.994 2.474 1.742 4738
-0.998 2.485 1.738 6582
-1.002 2.496 1.735 6223
-1.007 2.506 1.731 6182
-1.008 2.510 1.723 5112
-1.025 2.553 1.740 5370
-1.032 2.570 1.740 5307
-1.041 2.593 1.744 5581
-1.046 2.604 1.740 5856
-1.047 2.608 1.732 7112
-1.049 2.612 1.724 8368
-1.051 2.617 1.716 9696
-1.053 2.621 1.708 11025
-1.057 2.631 1.703 10620
-1.061 2.642 1.699 9620
-1.063 2.646 1.691 8339
-1.065 2.651 1.683 6472
-1.066 2.655 1.675 4700
-1.065 2.652 1.663 5772
-1.109 2.760 1.715 7995
-1.110 2.764 1.706 9255
-1.112 2.768 1.697 8835
-1.114 2.773 1.689 6165
-1.115 2.777 1.680 3914
-1.120 2.788 1.675 4004
-1.161 2.890 1.721 5403
-1.165 2.900 1.716 7538
-1.169 2.911 1.711 6928
-1.181 2.942 1.716 4973
-1.199 2.985 1.728 5869
-1.195 2.976 1.712 8807
-1.197 2.981 1.703 10531
-1.199 2.985 1.693 9082
-1.224 3.049 1.715 9369
-1.226 3.053 1.706 10567
-1.228 3.057 1.696 7608
-1.237 3.081 1.697 5619
-1.239 3.085 1.688 4784
-1.244 3.096 1.682 3657
-1.293 3.220 1.732 3512
-1.300 3.238 1.729 3968
-1.308 3.255 1.725 4603
-1.315 3.273 1.722 4983
-1.322 3.291 1.718 5797
-1.326 3.302 1.711 10190
-1.331 3.313 1.704 13153
-1.330 3.310 1.691 11090
-1.326 3.301 1.674 6768
-1.390 3.460 1.736 4230
-1.345 3.350 1.672 4933
-1.358 3.381 1.675 4330
-1.365 3.398 1.670 4559
-1.383 3.443 1.678 4796
-1.428 3.556 1.716 4677
-1.419 3.533 1.693 4615
-1.418 3.530 1.679 5575
-1.420 3.535 1.668 5277
-1.487 3.702 1.728 5156
-1.489 3.706 1.717 3813
-1.515 3.772 1.732 3946
-1.495 3.722 1.697 4830
-1.538 3.829 1.728 7482
-1.542 3.840 1.719 9550
-1.549 3.858 1.713 7985
-1.565 3.896 1.715 5676
-1.558 3.880 1.695 3871
-1.588 3.953 1.710 3532
-1.589 3.957 1.698 5860
-1.588 3.955 1.683 6864
-1.593 3.966 1.673 6730
-1.597 3.977 1.664 5593
-1.657 4.126 1.707 4611
-1.656 4.123 1.692 3647
-1.688 4.204 1.708 3280
-1.690 4.208 1.695 4900
-1.695 4.219 1.684 8337
-1.696 4.223 1.671 9889
-1.704 4.241 1.663 7645
-1.722 4.287 1.665 6160
-1.732 4.312 1.659 5979
-1.742 4.337 1.653 4111
-1.761 4.383 1.654 4475
-1.759 4.380 1.638 3394
-1.812 4.511 1.667 3257
-1.816 4.522 1.656 2123
-1.871 4.659 1.686 2230
-1.876 4.670 1.674 3156
-1.880 4.681 1.662 3370
-1.876 4.671 1.643 3322
-1.875 4.668 1.626 2806
-1.930 4.806 1.654 2473
-1.975 4.916 1.672 2554
-1.999 4.977 1.675 3469
-2.009 5.002 1.666 4257
-2.050 5.105 1.680 4407
-2.055 5.116 1.667 4365
-2.162 5.382 1.729 4073
-2.164 5.387 1.712 3869
-2.168 5.398 1.697 5065
-2.170 5.402 1.680 5005
-2.169 5.399 1.661 5359
-2.170 5.403 1.645 5346
-2.195 5.464 1.644 2794
-2.308 5.746 1.703 2025
-2.298 5.722 1.677 2523
-2.294 5.712 1.655 3561
-2.296 5.716 1.638 2792
-2.306 5.741 1.625 1780
-2.305 5.738 1.606 1908
-2.306 5.742 1.588 2490
-2.308 5.746 1.570 2025
-2.309 5.750 1.552 1009
-2.173 5.410 1.450 873
-2.177 5.420 1.435 691
-2.178 5.424 1.418 558
-2.180 5.427 1.401 654
-2.181 5.431 1.384 748
-2.575 6.412 1.590 721
-2.571 6.401 1.566 837
-2.564 6.383 1.542 725
-2.724 6.783 1.608 1023
-2.726 6.787 1.587 928
-2.134 5.313 1.253 788
-2.758 6.867 1.560 1061
-2.760 6.871 1.538 1523
-2.758 6.867 1.515 1316
-2.139 5.325 1.187 1024
-2.140 5.328 1.170 860
-2.821 7.023 1.479 650
-2.398 5.970 1.257 509
-2.146 5.343 1.122 568
-2.147 5.346 1.105 773
-2.145 5.341 1.087 1047
-2.146 5.344 1.070 1246
-2.147 5.346 1.054 1314
-2.148 5.349 1.037 1346
-2.149 5.351 1.020 1193
-2.150 5.353 1.004 848
-2.811 6.998 1.249 672
-2.835 7.059 1.237 628
-2.836 7.062 1.214 380
-2.794 6.956 1.176 324
-3.152 7.847 1.285 315
-3.147 7.835 1.258 397
-2.390 5.951 0.969 560
-2.391 5.954 0.950 720
-2.392 5.956 0.931 717
-2.381 5.929 0.909 718
-2.373 5.909 0.888 826
-2.362 5.882 0.866 1161
-2.363 5.884 0.847 1470
-2.364 5.886 0.829 1549
-2.365 5.887 0.811 1681
-2.365 5.889 0.792 1689
-2.366 5.891 0.774 1246
-2.370 5.900 0.756 676
-2.370 5.902 0.738 674
-2.368 5.896 0.719 800
-2.369 5.897 0.700 917
-2.372 5.906 0.683 1022
-2.370 5.900 0.663 890
-2.367 5.894 0.644 828
-2.368 5.896 0.626 674
-2.360 5.875 0.606 590
-2.357 5.869 0.587 861
-2.361 5.878 0.569 1043
-2.358 5.871 0.550 1055
-2.356 5.865 0.531 944
-2.356 5.866 0.513 820
-2.356 5.867 0.495 675
-2.354 5.861 0.476 553
-2.357 5.869 0.458 574
-2.358 5.870 0.440 656
-2.355 5.863 0.421 739
-2.355 5.864 0.403 732
-2.355 5.865 0.385 655
-2.356 5.865 0.366 524
-2.356 5.866 0.348 470
-2.356 5.866 0.330 457
-2.353 5.860 0.311 450
-2.354 5.860 0.293 439
-2.354 5.860 0.275 420
-2.354 5.861 0.256 413
-2.354 5.861 0.238 344
-2.354 5.861 0.220 275
-2.354 5.861 0.202 274
-2.351 5.854 0.183 421
-2.351 5.854 0.165 572
-2.351 5.854 0.147 696
-2.351 5.854 0.128 821
-2.351 5.854 0.110 851
-2.348 5.847 0.092 885
-2.351 5.854 0.074 840
-2.351 5.854 0.055 798
-2.351 5.854 0.037 731
-2.348 5.846 0.019 677
-2.348 5.846 0.001 606
-2.348 5.845 -0.017 526
-2.347 5.845 -0.036 447
-0.410 1.020 0.107 324
-0.410 1.020 0.104 334
-0.410 1.020 0.101 326
-0.407 1.012 0.099 320
-0.407 1.012 0.096 301
-0.407 1.012 0.093 283
-0.837 2.100 1.764 3862
-0.839 2.104 1.758 7725
-0.841 2.108 1.751 7725
-0.845 2.119 1.750 8284
-0.846 2.123 1.743 8923
-0.851 2.133 1.741 8099
-0.857 2.150 1.744 8359
-0.859 2.154 1.737 8359
-0.863 2.164 1.735 7026
-0.865 2.169 1.728 5777
-0.869 2.179 1.726 5550
-0.873 2.189 1.724 5534
-0.877 2.200 1.722 4911
-0.879 2.204 1.715 4338
-0.880 2.208 1.708 3103
-0.926 2.322 1.781 3023
-0.925 2.321 1.769 2968
-0.927 2.325 1.762 4525
-0.929 2.330 1.755 6099
-0.935 2.346 1.757 7590
-0.937 2.351 1.749 9398
-0.941 2.361 1.746 8927
-0.943 2.365 1.739 8492
-0.942 2.364 1.728 7240
-0.942 2.362 1.716 6559
-0.943 2.366 1.709 4726
-0.947 2.376 1.706 2926
-0.964 2.418 1.723 2634
-0.973 2.441 1.728 3428
-0.990 2.483 1.746 4728
-0.992 2.487 1.738 6431
-0.998 2.504 1.739 5868
-1.003 2.515 1.735 5672
-1.012 2.538 1.739 5114
-1.019 2.555 1.740 5401
-1.026 2.572 1.740 5417
-1.032 2.589 1.740 5631
-1.039 2.606 1.740 5656
-1.041 2.611 1.732 6938
-1.043 2.615 1.724 8221
-1.044 2.619 1.716 9570
-1.046 2.623 1.708 10920
-1.053 2.641 1.707 10876
-1.057 2.651 1.703 10064
-1.059 2.655 1.695 8729
-1.058 2.653 1.683 6566
-1.052 2.638 1.663 4599
-1.061 2.662 1.666 5815
-1.101 2.763 1.715 7780
-1.103 2.767 1.706 9284
-1.105 2.771 1.697 8883
-1.109 2.782 1.693 6047
-1.134 2.845 1.717 4155
-1.115 2.797 1.679 3998
-1.151 2.886 1.718 5365
-1.158 2.903 1.716 7369
-1.162 2.914 1.711 6490
-1.174 2.945 1.716 4931
-1.189 2.982 1.725 5393
-1.188 2.979 1.712 8103
-1.190 2.984 1.703 9403
-1.212 3.041 1.721 8046
-1.217 3.052 1.715 9587
-1.218 3.056 1.706 10894
-1.220 3.060 1.696 7810
-1.230 3.084 1.697 6047
-1.231 3.088 1.688 5201
-1.236 3.099 1.682 3729
-1.235 3.097 1.669 3188
-1.295 3.248 1.732 4060
-1.299 3.259 1.725 4987
-1.304 3.270 1.719 5366
-1.313 3.294 1.718 6043
-1.320 3.312 1.714 10419
-1.322 3.316 1.704 13301
-1.321 3.314 1.691 11080
-1.320 3.311 1.677 6211
-1.373 3.443 1.727 4841
-1.375 3.448 1.716 4424
-1.349 3.384 1.675 4046
-1.386 3.476 1.704 4309
-1.377 3.454 1.681 5175
-1.427 3.580 1.725 4813
-1.415 3.550 1.699 4491
-1.412 3.541 1.682 5791
-1.411 3.538 1.668 5274
-1.478 3.706 1.728 5110
-1.479 3.710 1.717 3579
-1.486 3.728 1.711 3947
-1.485 3.726 1.697 5051
-1.528 3.833 1.728 7143
-1.532 3.844 1.719 9114
-1.540 3.862 1.713 7956
-1.555 3.900 1.715 6072
-1.570 3.939 1.717 3925
-1.575 3.950 1.707 4265
-1.579 3.961 1.698 6861
-1.578 3.959 1.683 7369
-1.580 3.963 1.671 6777
-1.584 3.974 1.661 5561
-1.647 4.130 1.707 4075
-1.643 4.121 1.689 3260
-1.675 4.201 1.705 3884
-1.677 4.205 1.692 5357
-1.684 4.223 1.684 8484
-1.688 4.235 1.673 10164
-1.693 4.246 1.663 7991
-1.708 4.285 1.662 5784
-1.721 4.317 1.659 4892
-1.745 4.377 1.665 3771
-1.749 4.388 1.654 4303
-1.754 4.399 1.643 3112
-1.800 4.515 1.667 3262
-1.807 4.533 1.658 2074
-1.857 4.657 1.684 1983
-1.861 4.668 1.672 3124
-1.866 4.679 1.660 3153
-1.864 4.676 1.643 3089
-1.863 4.673 1.626 2951
-1.918 4.811 1.654 2365
-1.923 4.822 1.641 2158
-1.989 4.989 1.677 3207
-1.999 5.014 1.668 4137
-2.037 5.110 1.680 3930
-2.042 5.122 1.667 3954
-2.148 5.388 1.729 4154
-2.150 5.392 1.712 3623
-2.154 5.404 1.697 5785
-2.156 5.408 1.680 5824
-2.155 5.405 1.661 5656
-2.156 5.409 1.645 5688
-2.169 5.441 1.636 2537
-2.296 5.759 1.705 1818
-2.281 5.721 1.675 2507
-2.280 5.718 1.655 3347
-2.281 5.722 1.638 2473
-2.288 5.740 1.623 1541
-2.287 5.737 1.604 1670
-2.292 5.748 1.588 2209
-2.293 5.752 1.570 1803
-2.298 5.763 1.554 909
-2.162 5.422 1.452 959
-2.163 5.426 1.435 844
-2.165 5.429 1.418 622
-2.166 5.433 1.401 674
-2.167 5.436 1.384 793
-2.608 6.540 1.618 733
-2.612 6.552 1.599 686
-2.548 6.390 1.542 603
-2.704 6.783 1.607 1001
-2.709 6.794 1.587 951
-2.728 6.841 1.575 767
-2.741 6.874 1.560 1156
-2.742 6.878 1.538 1601
-2.741 6.874 1.515 1281
-2.125 5.330 1.187 1111
-2.126 5.333 1.170 1039
-2.127 5.336 1.154 921
-2.128 5.339 1.137 688
-2.132 5.349 1.122 617
-2.133 5.351 1.105 803
-2.132 5.347 1.087 1081
-2.133 5.349 1.070 1245
-2.134 5.352 1.054 1223
-2.135 5.354 1.037 1176
-2.136 5.356 1.020 993
-2.134 5.352 1.003 668
-2.793 7.005 1.249 638
-2.817 7.066 1.237 634
-2.818 7.069 1.214 381
-2.326 5.834 1.007 340
-2.327 5.836 0.989 294
-2.650 6.648 1.086 278
-2.651 6.650 1.066 461
-2.652 6.653 1.045 638
-2.653 6.655 1.024 738
-2.654 6.657 1.003 684
-2.355 5.908 0.887 729
-2.350 5.895 0.867 956
-2.351 5.897 0.848 1329
-2.352 5.899 0.830 1471
-2.353 5.901 0.811 1436
-2.353 5.903 0.793 1421
-2.351 5.897 0.774 1183
-2.355 5.906 0.756 752
-2.355 5.908 0.738 754
-2.353 5.902 0.719 971
-2.354 5.903 0.700 1093
-2.357 5.912 0.683 1064
-2.355 5.906 0.663 868
-2.352 5.900 0.644 869
-2.353 5.902 0.626 770
-2.348 5.888 0.606 650
-2.345 5.882 0.588 920
-2.346 5.883 0.569 1149
-2.343 5.877 0.550 1246
-2.344 5.878 0.532 1227
-2.344 5.879 0.514 1103
-2.342 5.873 0.495 901
-2.342 5.874 0.477 621
-2.342 5.875 0.458 533
-2.343 5.876 0.440 618
-2.343 5.877 0.422 782
-2.343 5.877 0.403 859
-2.341 5.871 0.385 804
-2.341 5.871 0.366 655
-2.341 5.872 0.348 555
-2.341 5.872 0.330 510
-2.341 5.873 0.311 465
-2.342 5.873 0.293 447
-2.339 5.866 0.275 419
-2.339 5.867 0.256 416
-2.339 5.867 0.238 355
-2.336 5.860 0.220 299
-2.336 5.860 0.201 286
-2.336 5.860 0.183 441
-2.336 5.860 0.165 609
-2.336 5.860 0.147 758
-2.336 5.860 0.128 908
-2.336 5.860 0.110 966
-2.333 5.853 0.092 1026
-2.336 5.860 0.074 1001
-2.336 5.860 0.055 979
-2.336 5.860 0.037 890
-2.333 5.852 0.019 819
-2.333 5.852 0.001 726
-2.333 5.851 -0.017 621
-2.333 5.851 -0.036 528
-2.332 5.850 -0.054 358
-0.407 1.021 0.104 282
-0.407 1.021 0.101 278
-0.404 1.013 0.099 278
-0.404 1.013 0.096 259
-2.332 5.850 -0.237 269
-2.335 5.856 -0.255 277
-2.334 5.855 -0.274 283
-2.334 5.854 -0.292 267
-2.333 5.853 -0.310 251
-0.833 2.101 1.764 3467
-0.835 2.106 1.758 6934
-0.837 2.110 1.751 6934
-0.841 2.120 1.750 7678
-0.842 2.125 1.743 8536
-0.846 2.135 1.741 7710
-0.853 2.151 1.744 8112
-0.855 2.156 1.737 8112
-0.859 2.166 1.735 6752
-0.860 2.170 1.728 5451
-0.867 2.187 1.731 5381
-0.871 2.197 1.729 5614
-0.873 2.201 1.722 4907
-0.877 2.212 1.719 4222
-0.920 2.320 1.788 3173
-0.919 2.318 1.776 3126
-0.918 2.316 1.765 3121
-0.923 2.327 1.762 4425
-0.927 2.337 1.759 5818
-0.931 2.348 1.757 7202
-0.935 2.359 1.754 8890
-0.937 2.363 1.746 8591
-0.939 2.367 1.739 8292
-0.938 2.365 1.728 7115
-0.937 2.363 1.716 6334
-0.939 2.368 1.709 4532
-0.940 2.372 1.701 2730
-0.979 2.470 1.757 2274
-0.979 2.468 1.745 3271
-0.985 2.485 1.746 4738
-0.989 2.496 1.742 6329
-0.994 2.506 1.739 5534
-1.003 2.530 1.743 5389
-1.010 2.547 1.743 5087
-1.014 2.557 1.740 5298
-1.023 2.581 1.744 5442
-1.027 2.591 1.740 5582
-1.032 2.602 1.736 5351
-1.036 2.613 1.732 6638
-1.038 2.617 1.724 7993
-1.039 2.621 1.716 9305
-1.043 2.632 1.712 10693
-1.048 2.643 1.707 10998
-1.052 2.653 1.703 10342
-1.054 2.657 1.695 8919
-1.055 2.662 1.687 6541
-1.054 2.659 1.675 4236
-1.056 2.664 1.666 5501
-1.096 2.765 1.715 7618
-1.098 2.769 1.706 9352
-1.100 2.773 1.697 8846
-1.104 2.784 1.693 5903
-1.129 2.847 1.717 4132
-1.110 2.799 1.679 4089
-1.145 2.888 1.718 5278
-1.149 2.899 1.712 7000
-1.154 2.910 1.707 5886
-1.171 2.953 1.719 4868
-1.183 2.984 1.725 5984
-1.182 2.982 1.712 8252
-1.184 2.986 1.703 8952
-1.207 3.043 1.721 7922
-1.211 3.054 1.715 9777
-1.213 3.058 1.706 11239
-1.214 3.062 1.696 8091
-1.224 3.087 1.697 6517
-1.225 3.091 1.688 5710
-1.230 3.102 1.682 3886
-1.290 3.253 1.746 3119
-1.291 3.257 1.735 4268
-1.293 3.261 1.725 5301
-1.297 3.272 1.719 5558
-1.307 3.297 1.718 6011
-1.311 3.308 1.711 10018
-1.316 3.319 1.704 12634
-1.317 3.323 1.694 10473
-1.314 3.314 1.677 5363
-1.364 3.439 1.724 5725
-1.365 3.443 1.713 4973
-1.337 3.373 1.668 4277
-1.377 3.472 1.701 4404
-1.368 3.449 1.678 5307
-1.423 3.589 1.728 4889
-1.409 3.553 1.699 4247
-1.405 3.543 1.682 5766
-1.404 3.541 1.668 5106
-1.473 3.716 1.731 4979
-1.475 3.720 1.720 3283
-1.490 3.758 1.723 3819
-1.481 3.735 1.700 4846
-1.523 3.842 1.731 6458
-1.528 3.853 1.722 8596
-1.532 3.865 1.713 7953
-1.548 3.903 1.715 6584
-1.560 3.935 1.714 4237
-1.567 3.953 1.707 4837
-1.572 3.964 1.698 7639
-1.571 3.962 1.683 7750
-1.572 3.966 1.671 6747
-1.577 3.977 1.661 5264
-1.639 4.133 1.707 3452
-1.635 4.124 1.689 2960
-1.664 4.197 1.702 4672
-1.669 4.209 1.692 5660
-1.676 4.227 1.684 8092
-1.680 4.238 1.673 9801
-1.685 4.249 1.663 7960
-1.695 4.274 1.657 5173
-1.710 4.313 1.656 3849
-1.739 4.387 1.668 3867
-1.741 4.391 1.654 3810
-1.745 4.402 1.643 2674
-1.792 4.519 1.667 3205
-1.799 4.537 1.658 2062
-1.837 4.632 1.675 1863
-1.849 4.664 1.670 3118
-1.854 4.676 1.657 2950
-1.855 4.680 1.643 2935
-1.857 4.684 1.628 3063
-1.906 4.808 1.652 2228
-1.913 4.826 1.641 2250
-1.982 5.000 1.679 2713
-1.992 5.025 1.670 3687
-1.994 5.029 1.654 3405
-2.029 5.118 1.664 3228
-2.138 5.392 1.729 3986
-2.140 5.396 1.712 3203
-2.144 5.408 1.697 6076
-2.146 5.412 1.680 6324
-2.145 5.409 1.661 5631
-2.146 5.413 1.645 5735
-2.190 5.524 1.657 2617
-2.189 5.521 1.638 1872
-2.264 5.711 1.671 2335
-2.266 5.715 1.653 2889
-2.270 5.726 1.638 2068
-2.278 5.744 1.623 1294
-2.276 5.741 1.604 1374
-2.281 5.752 1.588 1817
-2.282 5.756 1.570 1515
-2.287 5.767 1.554 814
-2.152 5.427 1.452 932
-2.153 5.430 1.435 852
-2.154 5.434 1.418 651
-2.156 5.437 1.401 646
-2.157 5.440 1.384 746
-2.598 6.553 1.619 736
-2.600 6.557 1.599 684
-2.704 6.820 1.636 627
-2.691 6.788 1.607 945
-2.696 6.799 1.587 941
-2.717 6.854 1.576 803
-2.727 6.879 1.560 1187
-2.729 6.883 1.538 1592
-2.728 6.879 1.515 1217
-2.115 5.334 1.187 863
-2.116 5.337 1.170 899
-2.117 5.340 1.154 852
-2.118 5.343 1.137 622
-2.122 5.353 1.122 499
-2.120 5.348 1.104 653
-2.121 5.351 1.087 875
-2.122 5.353 1.070 1016
-2.123 5.356 1.054 985
-2.124 5.358 1.037 868
-2.125 5.360 1.020 699
-2.767 6.978 1.266 537
-2.782 7.018 1.250 568
-2.804 7.072 1.237 588
-2.808 7.082 1.216 357
-2.315 5.838 1.007 290
-2.142 5.403 0.924 331
-2.143 5.405 0.908 378
-2.639 6.655 1.066 548
-2.640 6.658 1.045 795
-2.641 6.660 1.024 909
-2.642 6.663 1.003 876
-2.640 6.658 0.982 858
-2.643 6.667 0.962 869
-2.343 5.909 0.849 1186
-2.341 5.903 0.830 1406
-2.341 5.905 0.811 1417
-2.342 5.907 0.793 1282
-2.343 5.909 0.775 984
-2.346 5.918 0.757 666
-2.344 5.912 0.738 738
-2.342 5.906 0.719 996
-2.342 5.908 0.700 1223
-2.340 5.902 0.681 1247
-2.341 5.904 0.663 865
-2.341 5.905 0.644 695
-2.342 5.906 0.626 700
-2.339 5.900 0.607 641
-2.334 5.887 0.588 819
-2.332 5.881 0.569 1046
-2.332 5.882 0.550 1244
-2.332 5.883 0.532 1402
-2.333 5.884 0.514 1363
-2.330 5.878 0.495 1153
-2.331 5.878 0.477 783
-3.377 8.518 0.602 598
-3.378 8.519 0.576 570
-2.332 5.881 0.422 634
-2.332 5.882 0.403 753
-2.329 5.875 0.385 770
-2.330 5.876 0.366 712
-2.330 5.876 0.348 626
-2.330 5.877 0.330 537
-2.330 5.877 0.311 447
-2.330 5.878 0.293 420
-2.331 5.878 0.275 387
-2.328 5.871 0.256 394
-2.325 5.864 0.238 357
-2.325 5.864 0.220 330
-2.325 5.864 0.201 308
-2.325 5.865 0.183 460
-2.325 5.865 0.165 635
-2.325 5.865 0.147 806
-2.325 5.865 0.128 977
-2.325 5.865 0.110 1050
-2.322 5.857 0.092 1131
-2.325 5.864 0.074 1111
-2.325 5.864 0.055 1099
-2.325 5.864 0.037 1009
-2.322 5.856 0.019 936
-2.322 5.856 0.001 829
-2.322 5.856 -0.017 709
-2.321 5.855 -0.036 601
-2.321 5.855 -0.054 396
-2.321 5.854 -0.072 288
-2.321 5.855 -0.218 293
-2.321 5.854 -0.237 335
-2.324 5.861 -0.255 347
-2.323 5.859 -0.274 356
-2.323 5.858 -0.292 328
-2.322 5.857 -0.310 301
-2.322 5.856 -0.328 290
-2.318 5.847 -0.346 281
-2.318 5.846 -0.364 281
-2.320 5.852 -0.383 275
