0.931 3.573 1.836 4258
0.929 3.564 1.819 4700
0.894 3.432 1.755 2898
0.926 3.555 1.801 5979
0.961 3.687 1.864 2116
0.929 3.567 1.794 7646
0.964 3.699 1.856 2082
0.931 3.571 1.783 7341
0.965 3.704 1.845 2539
0.930 3.569 1.770 6176
0.965 3.702 1.831 3572
0.953 3.657 1.798 4828
0.918 3.525 1.736 1470
0.951 3.648 1.780 4181
0.985 3.781 1.841 2895
0.954 3.660 1.773 4786
0.988 3.793 1.833 2100
0.957 3.671 1.765 4976
0.992 3.805 1.825 2690
0.989 3.796 1.807 5723
0.954 3.662 1.748 2519
0.990 3.800 1.796 7174
1.025 3.934 1.855 2081
0.993 3.812 1.788 6268
1.028 3.946 1.846 2394
1.018 3.908 1.816 5389
0.984 3.774 1.758 2583
1.018 3.906 1.802 6564
1.055 4.047 1.863 3442
1.015 3.897 1.784 7868
1.060 4.066 1.857 5345
1.018 3.908 1.775 7686
1.065 4.085 1.850 6430
1.070 4.104 1.844 5478
1.022 3.920 1.767 4769
1.075 4.123 1.838 4889
1.030 3.953 1.767 2540
1.078 4.135 1.829 3757
1.033 3.965 1.758 1720
1.084 4.162 1.825 2753
1.120 4.297 1.880 1685
1.108 4.252 1.847 4703
1.073 4.116 1.792 2125
1.107 4.249 1.832 5644
1.072 4.114 1.777 2958
1.081 4.147 1.776 4035
1.125 4.319 1.845 3475
1.084 4.159 1.767 3537
1.127 4.323 1.832 2386
1.126 4.321 1.816 3827
1.091 4.185 1.763 2596
1.131 4.340 1.809 6015
1.095 4.204 1.756 1858
1.136 4.359 1.802 5005
1.186 4.553 1.876 2258
1.141 4.378 1.794 3499
1.208 4.637 1.893 3183
1.213 4.656 1.885 4478
1.153 4.426 1.797 4348
1.215 4.661 1.871 4440
1.155 4.431 1.784 3212
1.216 4.666 1.857 4527
1.158 4.442 1.774 2281
1.219 4.678 1.845 4416
1.166 4.476 1.771 2204
1.243 4.769 1.863 3938
1.207 4.632 1.813 3040
1.248 4.789 1.854 3584
1.212 4.651 1.804 1636
1.234 4.736 1.819 4063
1.270 4.873 1.868 1804
1.235 4.740 1.805 3695
1.271 4.878 1.854 2510
1.267 4.861 1.832 4027
1.231 4.723 1.783 1999
1.281 4.917 1.835 4377
1.240 4.757 1.779 2020
1.290 4.950 1.830 6617
1.326 5.089 1.878 1489
1.291 4.955 1.815 5321
1.327 5.093 1.863 1346
1.296 4.974 1.806 3825
1.353 5.193 1.879 1493
1.299 4.986 1.793 3975
1.336 5.125 1.840 1261
1.318 5.057 1.800 2981
1.354 5.195 1.846 1167
1.323 5.076 1.790 1849
1.287 4.937 1.744 949
1.330 5.103 1.782 2315
1.294 4.964 1.737 623
1.331 5.107 1.766 1944
1.295 4.968 1.722 455
1.353 5.192 1.777 1271
1.317 5.053 1.732 1125
1.354 5.197 1.761 1418
1.314 5.043 1.713 829
1.331 5.106 1.716 1199
1.367 5.245 1.759 1098
1.366 5.243 1.742 1297
1.326 5.089 1.694 1030
1.367 5.247 1.726 937
1.404 5.387 1.768 587
1.399 5.369 1.746 752
1.441 5.531 1.795 633
1.448 5.558 1.785 712
1.506 5.779 1.851 522
1.451 5.570 1.770 584
1.204 4.620 1.489 538
1.205 4.623 1.476 554
1.455 5.582 1.756 501
1.206 4.627 1.462 628
1.265 4.856 1.528 593
1.264 4.852 1.511 663
1.207 4.631 1.448 621
1.264 4.849 1.495 569
1.208 4.635 1.434 543
1.243 4.771 1.458 816
1.207 4.631 1.418 414
1.244 4.775 1.443 1117
1.208 4.634 1.404 372
1.249 4.794 1.433 819
1.209 4.638 1.391 473
1.266 4.856 1.435 824
1.210 4.641 1.377 558
1.268 4.868 1.422 702
1.212 4.652 1.365 591
1.213 4.656 1.351 569
1.254 4.812 1.392 385
1.214 4.659 1.337 455
1.288 4.942 1.411 373
1.283 4.923 1.390 578
1.215 4.663 1.323 321
1.280 4.911 1.372 675
1.281 4.915 1.357 464
1.423 5.462 1.477 271
1.280 4.911 1.340 265
1.302 4.996 1.346 259
1.305 5.007 1.333 275
1.441 5.529 1.423 492
1.442 5.533 1.407 1527
2.266 8.695 2.138 314
1.441 5.529 1.389 2634
2.269 8.708 2.114 516
1.444 5.540 1.374 2415
2.269 8.706 2.086 714
1.445 5.543 1.357 2884
2.270 8.712 2.060 888
1.447 5.554 1.342 5567
2.274 8.725 2.035 1014
1.448 5.558 1.326 6710
2.277 8.738 2.011 815
1.449 5.561 1.309 4845
2.341 8.983 2.036 782
1.452 5.572 1.294 3031
2.366 9.078 2.027 729
1.451 5.568 1.276 2064
2.367 9.084 2.000 787
1.452 5.571 1.259 1250
2.368 9.089 1.973 449
1.456 5.589 1.246 442
0.593 2.260 1.821 1449
0.562 2.143 1.731 669
0.594 2.265 1.814 2898
0.563 2.148 1.725 1339
0.595 2.270 1.807 2898
0.564 2.152 1.719 1339
0.593 2.262 1.791 4557
0.624 2.380 1.879 1590
0.594 2.267 1.785 6339
0.625 2.385 1.872 2570
0.597 2.278 1.783 5685
0.628 2.396 1.870 3780
0.626 2.388 1.854 5851
0.595 2.270 1.767 4869
0.628 2.393 1.847 5851
0.596 2.274 1.760 4869
0.630 2.404 1.844 6081
0.599 2.285 1.758 4977
0.609 2.321 1.774 6603
0.640 2.441 1.860 3947
0.612 2.332 1.771 5983
0.643 2.452 1.857 3053
0.613 2.337 1.764 5469
0.644 2.457 1.850 2944
0.614 2.341 1.758 3646
0.645 2.461 1.842 2183
0.615 2.346 1.751 1823
0.657 2.504 1.862 1819
0.658 2.509 1.854 1819
0.615 2.344 1.739 1137
0.651 2.482 1.825 4300
0.612 2.336 1.724 551
0.650 2.480 1.813 7152
0.614 2.340 1.717 548
0.652 2.485 1.806 11126
0.683 2.606 1.889 710
0.655 2.496 1.803 15241
0.686 2.618 1.886 857
0.656 2.501 1.796 13231
0.688 2.623 1.878 948
0.659 2.512 1.792 11251
0.691 2.634 1.874 992
0.658 2.510 1.781 7193
0.690 2.632 1.862 1654
0.681 2.599 1.829 4354
0.649 2.476 1.748 2668
0.683 2.603 1.821 4953
0.650 2.481 1.740 1794
0.684 2.608 1.813 5551
0.716 2.731 1.894 1417
0.687 2.619 1.810 4309
0.719 2.742 1.890 2502
0.717 2.734 1.874 3896
0.685 2.611 1.794 2721
0.720 2.746 1.870 5160
0.688 2.622 1.790 2474
0.721 2.751 1.862 6436
0.680 2.594 1.762 2524
0.723 2.756 1.853 6627
0.683 2.605 1.758 2189
0.722 2.754 1.841 6832
0.690 2.630 1.763 2113
0.722 2.752 1.829 6492
0.689 2.628 1.751 1594
0.721 2.750 1.817 6422
0.688 2.626 1.739 1165
0.726 2.768 1.817 7054
0.693 2.643 1.739 1246
0.727 2.773 1.808 8024
0.694 2.648 1.732 1255
0.730 2.784 1.804 7078
0.763 2.909 1.881 1873
0.733 2.795 1.800 5079
0.766 2.921 1.876 2630
0.734 2.800 1.792 3643
0.767 2.926 1.867 3116
0.765 2.917 1.851 3749
0.732 2.792 1.775 2689
0.766 2.922 1.842 3728
0.733 2.796 1.767 2236
0.768 2.927 1.833 4031
0.734 2.801 1.759 2109
0.767 2.925 1.821 4338
0.734 2.799 1.747 1662
0.770 2.937 1.816 3754
0.803 3.063 1.890 1863
0.773 2.948 1.811 4411
0.806 3.075 1.884 2614
0.776 2.959 1.806 5908
0.809 3.087 1.879 2533
0.783 2.984 1.809 6018
0.816 3.112 1.881 2271
0.786 2.996 1.804 5522
0.819 3.123 1.876 2175
0.785 2.994 1.791 3492
0.819 3.122 1.863 2596
0.818 3.120 1.850 4007
0.784 2.992 1.778 1480
0.816 3.111 1.833 5338
0.782 2.983 1.762 1095
0.822 3.136 1.835 4981
0.789 3.008 1.764 1386
0.829 3.161 1.837 5459
0.795 3.032 1.767 1023
0.832 3.173 1.831 7067
0.798 3.044 1.761 839
0.835 3.184 1.825 8619
0.801 3.055 1.756 1060
0.840 3.203 1.823 8479
0.806 3.073 1.754 1281
0.837 3.194 1.806 6479
0.803 3.064 1.738 705
0.839 3.198 1.797 5381
0.873 3.328 1.865 1952
0.843 3.217 1.795 6574
0.878 3.347 1.862 2149
0.868 3.310 1.831 5698
0.834 3.180 1.764 3655
0.869 3.315 1.821 5912
0.835 3.185 1.754 2142
0.854 3.258 1.780 4993
0.889 3.388 1.847 3208
0.875 3.338 1.809 4795
0.841 3.208 1.742 1411
0.873 3.329 1.792 4543
0.907 3.460 1.858 1760
0.872 3.327 1.778 5012
0.907 3.458 1.844 2776
0.875 3.338 1.772 5365
0.921 3.511 1.858 2533
0.895 3.412 1.796 4810
0.929 3.544 1.861 2512
0.894 3.410 1.783 6264
0.929 3.541 1.847 3879
0.899 3.428 1.779 6319
0.934 3.560 1.843 3835
0.902 3.440 1.772 4632
0.937 3.572 1.836 4008
0.931 3.549 1.812 4572
0.896 3.417 1.749 1787
0.932 3.554 1.801 6201
0.966 3.686 1.864 1939
0.935 3.565 1.794 7860
0.970 3.698 1.856 1997
0.936 3.570 1.783 7500
0.971 3.702 1.845 2484
0.937 3.574 1.773 6286
0.972 3.707 1.834 3195
0.959 3.656 1.798 4948
0.994 3.789 1.859 1649
0.956 3.647 1.780 4364
0.991 3.780 1.841 3053
0.959 3.658 1.773 5009
0.994 3.792 1.833 2138
0.962 3.670 1.765 5440
0.997 3.803 1.825 2592
0.993 3.787 1.804 5612
0.958 3.653 1.745 2428
0.996 3.799 1.796 7056
1.031 3.933 1.855 2148
0.999 3.810 1.788 6318
1.034 3.944 1.846 2390
1.026 3.914 1.819 4990
0.991 3.780 1.761 2800
1.026 3.912 1.805 6100
1.061 4.046 1.863 3450
1.021 3.895 1.784 7300
1.066 4.065 1.857 5407
1.024 3.907 1.775 7113
1.071 4.084 1.850 6126
1.076 4.103 1.844 5325
1.027 3.918 1.767 4416
1.079 4.115 1.835 4887
1.036 3.951 1.767 2601
1.080 4.120 1.823 3610
1.037 3.956 1.755 1855
1.091 4.160 1.825 2786
1.126 4.295 1.880 1890
1.114 4.250 1.847 4865
1.079 4.115 1.792 2093
1.114 4.248 1.832 5936
1.078 4.112 1.777 2856
1.087 4.145 1.776 4317
1.123 4.281 1.831 3406
1.090 4.157 1.767 3805
1.129 4.307 1.826 2188
1.131 4.312 1.813 3853
1.095 4.176 1.760 2520
1.136 4.331 1.806 5874
1.100 4.195 1.753 1687
1.143 4.357 1.802 4814
1.193 4.551 1.876 2444
1.148 4.376 1.794 3176
1.215 4.635 1.893 3109
1.220 4.654 1.885 4525
1.160 4.424 1.797 4000
1.222 4.659 1.871 4671
1.161 4.429 1.784 3222
1.223 4.664 1.857 4867
1.166 4.448 1.776 2687
1.224 4.669 1.843 4500
1.173 4.474 1.771 2797
1.248 4.760 1.861 3563
1.210 4.616 1.808 3267
1.255 4.787 1.854 3393
1.213 4.628 1.797 1740
1.243 4.741 1.822 3676
1.279 4.878 1.871 1766
1.242 4.738 1.805 3351
1.279 4.876 1.854 2661
1.276 4.866 1.834 4123
1.240 4.729 1.786 1926
1.287 4.907 1.832 4212
1.247 4.755 1.779 1963
1.298 4.948 1.830 5881
1.334 5.086 1.878 1452
1.299 4.953 1.815 4977
1.360 5.186 1.895 1536
1.304 4.973 1.806 3383
1.361 5.191 1.879 1970
1.309 4.992 1.796 3256
1.359 5.181 1.859 1317
1.325 5.055 1.800 3097
1.362 5.193 1.846 1198
1.330 5.074 1.790 2071
1.367 5.213 1.835 1046
1.336 5.093 1.779 2587
1.299 4.954 1.734 660
1.339 5.105 1.766 2123
1.302 4.966 1.722 529
1.361 5.190 1.777 1353
1.325 5.051 1.732 941
1.362 5.195 1.761 1481
1.399 5.334 1.805 647
1.371 5.229 1.755 1271
1.335 5.089 1.711 1072
1.372 5.233 1.739 1488
1.334 5.087 1.694 1032
1.375 5.245 1.726 1033
1.412 5.385 1.768 631
1.411 5.382 1.750 731
1.461 5.573 1.808 601
1.461 5.570 1.789 853
1.513 5.769 1.848 467
1.464 5.582 1.775 662
1.211 4.618 1.489 550
1.212 4.622 1.476 664
1.272 4.850 1.542 527
1.213 4.625 1.462 726
1.271 4.847 1.526 711
1.272 4.850 1.511 808
1.214 4.629 1.448 739
1.273 4.854 1.497 674
1.213 4.625 1.432 658
1.251 4.769 1.458 655
1.214 4.629 1.418 574
1.254 4.781 1.445 951
1.217 4.640 1.407 577
1.258 4.799 1.435 701
1.216 4.636 1.391 640
1.273 4.855 1.435 774
1.217 4.640 1.377 684
1.276 4.866 1.422 675
1.219 4.651 1.365 635
1.220 4.654 1.351 566
1.263 4.817 1.394 383
1.293 4.932 1.409 448
1.219 4.650 1.335 428
1.290 4.921 1.390 613
1.222 4.661 1.323 259
1.287 4.909 1.372 596
1.288 4.913 1.357 451
1.289 4.916 1.342 300
1.432 5.460 1.477 275
1.314 5.013 1.334 250
1.449 5.527 1.423 508
1.450 5.531 1.407 1555
2.279 8.692 2.138 258
1.449 5.527 1.389 2603
2.281 8.697 2.112 435
1.454 5.545 1.376 2476
2.282 8.703 2.086 629
1.455 5.549 1.359 2863
2.283 8.708 2.060 806
1.456 5.552 1.342 5299
2.287 8.721 2.035 852
1.457 5.555 1.326 6512
2.351 8.966 2.061 714
1.458 5.559 1.309 4863
2.353 8.972 2.034 732
1.458 5.562 1.293 3125
2.380 9.075 2.027 670
1.459 5.565 1.276 2137
2.381 9.080 2.000 706
1.460 5.569 1.259 1292
2.382 9.085 1.973 397
1.463 5.579 1.244 480
0.596 2.260 1.821 1520
0.565 2.142 1.731 616
0.597 2.264 1.814 3040
0.566 2.147 1.725 1232
0.600 2.275 1.812 3042
0.569 2.158 1.723 1448
0.596 2.261 1.791 4769
0.627 2.379 1.879 1531
0.598 2.266 1.785 6634
0.629 2.384 1.872 2450
0.600 2.277 1.783 5964
0.632 2.395 1.870 3603
0.630 2.388 1.854 5546
0.598 2.269 1.767 5051
0.631 2.392 1.847 5546
0.600 2.273 1.760 5051
0.607 2.303 1.771 5887
0.639 2.422 1.858 4477
0.612 2.320 1.774 6780
0.643 2.440 1.860 3709
0.615 2.331 1.771 6140
0.646 2.451 1.857 2875
0.616 2.336 1.764 5568
0.648 2.456 1.850 2796
0.617 2.340 1.758 3787
0.649 2.460 1.842 2148
0.618 2.345 1.751 2006
0.660 2.503 1.862 1816
0.661 2.508 1.854 1816
0.618 2.343 1.739 1292
0.653 2.475 1.821 4489
0.616 2.335 1.724 617
0.654 2.479 1.813 7450
0.617 2.339 1.717 616
0.655 2.484 1.806 11385
0.687 2.605 1.889 573
0.658 2.495 1.803 15553
0.690 2.617 1.886 659
0.659 2.500 1.796 13429
0.691 2.622 1.878 797
0.662 2.511 1.792 11420
0.694 2.633 1.874 884
0.662 2.509 1.781 7232
0.694 2.631 1.862 1550
0.685 2.598 1.829 4609
0.653 2.475 1.748 2532
0.686 2.602 1.821 5203
0.654 2.480 1.740 1711
0.688 2.607 1.813 5798
0.720 2.730 1.894 1370
0.691 2.618 1.810 4470
0.723 2.741 1.890 2387
0.695 2.636 1.811 3723
0.728 2.759 1.890 2891
0.724 2.745 1.870 5031
0.691 2.621 1.790 2591
0.725 2.750 1.862 6413
0.686 2.600 1.766 2499
0.726 2.754 1.853 6639
0.694 2.631 1.775 2314
0.726 2.753 1.841 6950
0.693 2.629 1.763 2179
0.725 2.751 1.829 6586
0.693 2.627 1.751 1572
0.725 2.749 1.817 6363
0.692 2.625 1.739 1072
0.730 2.767 1.817 6941
0.697 2.642 1.739 1264
0.731 2.772 1.808 7773
0.698 2.647 1.732 1310
0.734 2.783 1.804 6915
0.767 2.908 1.881 1736
0.737 2.794 1.800 5181
0.770 2.920 1.876 2375
0.738 2.799 1.792 4035
0.771 2.925 1.867 2867
0.743 2.817 1.791 3873
0.776 2.943 1.866 2709
0.748 2.835 1.791 4275
0.781 2.961 1.866 1824
0.770 2.919 1.829 4042
0.737 2.793 1.755 1940
0.769 2.917 1.817 4435
0.736 2.791 1.743 1480
0.772 2.929 1.812 3761
0.806 3.056 1.886 2095
0.777 2.947 1.811 4326
0.811 3.074 1.884 2668
0.780 2.958 1.806 5795
0.814 3.086 1.879 2478
0.787 2.983 1.809 5934
0.820 3.111 1.881 1992
0.788 2.988 1.800 5440
0.822 3.115 1.872 2086
0.789 2.993 1.791 3597
0.823 3.120 1.863 2313
0.822 3.118 1.850 3658
0.789 2.990 1.778 1730
0.820 3.110 1.833 4950
0.786 2.982 1.762 1288
0.828 3.142 1.839 4700
0.795 3.013 1.768 1676
0.833 3.160 1.837 5196
0.799 3.031 1.767 1061
0.836 3.171 1.831 6872
0.802 3.043 1.761 874
0.839 3.183 1.825 8430
0.805 3.054 1.756 1079
0.842 3.195 1.819 8180
0.808 3.065 1.750 1136
0.842 3.192 1.806 6423
0.876 3.322 1.875 730
0.843 3.197 1.797 5626
0.877 3.327 1.865 2035
0.848 3.216 1.795 6900
0.882 3.345 1.862 2196
0.873 3.309 1.831 5608
0.838 3.179 1.764 4175
0.874 3.314 1.821 5858
0.840 3.184 1.754 2491
0.859 3.257 1.780 5316
0.893 3.387 1.847 3060
0.880 3.337 1.809 5166
0.846 3.206 1.742 1565
0.878 3.328 1.792 4924
0.912 3.459 1.858 1733
0.879 3.333 1.782 5383
0.913 3.464 1.847 2470
0.880 3.337 1.772 5862
0.926 3.510 1.858 2532
0.883 3.349 1.765 4593
0.929 3.521 1.851 3230
0.899 3.409 1.783 5949
0.934 3.540 1.847 4044
0.904 3.427 1.779 6544
0.939 3.559 1.843 3693
0.905 3.432 1.769 4757
0.940 3.564 1.832 4042
0.936 3.548 1.812 4422
0.901 3.416 1.749 1988
0.937 3.552 1.801 6073
0.972 3.684 1.864 1780
0.940 3.564 1.794 7705
0.975 3.696 1.856 1937
0.941 3.569 1.783 7566
0.976 3.701 1.845 2425
0.942 3.573 1.773 6519
0.977 3.706 1.834 3038
0.964 3.655 1.798 4994
0.999 3.788 1.859 1788
0.961 3.645 1.780 4404
0.996 3.778 1.841 3182
0.966 3.664 1.776 5021
1.001 3.797 1.836 2044
0.967 3.669 1.765 5736
1.003 3.802 1.825 2348
0.998 3.786 1.804 5095
0.963 3.652 1.745 2740
1.001 3.797 1.796 6295
1.037 3.931 1.855 2107
1.005 3.809 1.788 5771
1.040 3.943 1.846 2322
1.032 3.912 1.819 4753
0.996 3.778 1.761 2664
1.031 3.910 1.805 5810
1.067 4.044 1.863 3340
1.027 3.894 1.784 6795
1.072 4.063 1.857 5205
1.030 3.905 1.775 6527
1.075 4.075 1.847 5467
1.082 4.101 1.844 4711
1.033 3.917 1.767 4087
1.085 4.113 1.835 4476
1.042 3.950 1.767 2603
1.073 4.068 1.802 3756
1.037 3.933 1.746 1511
1.072 4.066 1.787 2901
1.125 4.265 1.869 2454
1.120 4.249 1.847 4912
1.085 4.113 1.792 2103
1.120 4.246 1.832 6177
1.084 4.111 1.777 2770
1.093 4.144 1.776 4315
1.129 4.280 1.831 3460
1.096 4.156 1.767 3702
1.132 4.291 1.821 2202
1.135 4.303 1.811 4025
1.099 4.167 1.757 2259
1.140 4.322 1.803 5787
1.193 4.523 1.882 1442
1.145 4.341 1.796 4572
1.200 4.549 1.876 2403
1.205 4.569 1.868 3026
1.154 4.375 1.794 2709
1.229 4.660 1.887 4535
1.166 4.423 1.797 3370
1.228 4.657 1.871 4921
1.168 4.427 1.784 3039
1.230 4.662 1.857 5032
1.182 4.482 1.790 3032
1.233 4.674 1.845 4283
1.179 4.472 1.771 3187
1.215 4.607 1.805 3343
1.253 4.751 1.858 3186
1.252 4.749 1.841 3180
1.216 4.612 1.791 1795
1.252 4.746 1.824 3373
1.288 4.884 1.874 1688
1.251 4.744 1.808 3083
1.287 4.881 1.856 2462
1.283 4.865 1.834 3811
1.247 4.727 1.786 1839
1.292 4.898 1.830 3939
1.328 5.036 1.878 2227
1.305 4.947 1.830 5196
1.341 5.085 1.878 1467
1.306 4.951 1.815 4566
1.367 5.184 1.895 1783
1.309 4.963 1.803 3002
1.366 5.182 1.877 2298
1.331 5.048 1.815 3113
1.295 4.910 1.769 1876
1.333 5.053 1.800 3066
1.381 5.235 1.861 1409
1.332 5.050 1.783 2195
1.368 5.189 1.828 1361
1.341 5.084 1.777 2719
1.393 5.281 1.841 713
1.346 5.103 1.766 2152
1.394 5.286 1.825 750
1.368 5.188 1.777 1378
1.330 5.042 1.730 734
1.369 5.193 1.761 1418
1.406 5.332 1.805 637
1.378 5.227 1.755 1274
1.342 5.088 1.711 1029
1.380 5.231 1.739 1592
1.341 5.085 1.694 1013
1.379 5.228 1.721 1053
1.425 5.405 1.775 652
1.421 5.387 1.752 761
1.469 5.571 1.808 613
1.470 5.576 1.791 882
1.422 5.392 1.736 441
1.472 5.580 1.775 688
1.279 4.852 1.559 520
1.218 4.620 1.476 634
1.281 4.856 1.545 596
1.280 4.852 1.528 765
1.219 4.624 1.462 743
1.279 4.849 1.511 837
1.218 4.620 1.446 807
1.219 4.624 1.432 758
1.282 4.860 1.499 721
1.222 4.635 1.420 680
1.287 4.879 1.489 592
1.260 4.779 1.445 825
1.223 4.638 1.407 689
1.222 4.634 1.391 750
1.267 4.805 1.437 607
1.223 4.638 1.377 736
1.280 4.853 1.435 694
1.285 4.871 1.424 650
1.226 4.649 1.365 617
1.227 4.652 1.351 499
1.286 4.875 1.410 446
1.298 4.923 1.407 538
1.228 4.656 1.337 332
1.297 4.919 1.390 625
1.294 4.908 1.372 461
1.295 4.911 1.357 375
1.296 4.915 1.342 325
1.439 5.458 1.477 276
1.457 5.525 1.423 519
1.458 5.529 1.407 1500
1.457 5.525 1.389 2421
2.295 8.702 2.114 363
1.462 5.543 1.376 2476
2.294 8.700 2.086 503
1.463 5.547 1.359 2785
2.296 8.705 2.060 621
1.464 5.550 1.342 4747
2.299 8.718 2.035 659
1.465 5.553 1.326 5991
2.364 8.963 2.061 723
1.465 5.557 1.309 4700
2.365 8.969 2.034 722
1.466 5.560 1.293 3090
2.392 9.071 2.027 614
1.467 5.563 1.276 2085
2.394 9.077 2.000 619
1.468 5.566 1.259 1254
2.393 9.074 1.971 377
1.471 5.577 1.244 469
0.598 2.259 1.821 1578
0.567 2.142 1.731 557
0.600 2.264 1.814 3157
0.569 2.146 1.725 1114
0.602 2.274 1.812 3188
0.571 2.157 1.723 1317
0.599 2.261 1.791 4983
0.630 2.378 1.879 1489
0.600 2.265 1.785 6948
0.631 2.383 1.872 2336
0.603 2.276 1.783 6278
0.634 2.394 1.870 3428
0.606 2.287 1.780 5817
0.637 2.406 1.867 4297
0.607 2.292 1.774 5817
0.638 2.410 1.860 4297
0.610 2.302 1.771 6116
0.641 2.422 1.858 4288
0.614 2.320 1.774 6906
0.646 2.439 1.860 3516
0.617 2.331 1.771 6259
0.649 2.450 1.857 2749
0.619 2.335 1.764 5645
0.650 2.455 1.850 2717
0.620 2.340 1.758 3895
0.652 2.460 1.842 2187
0.621 2.344 1.751 2146
0.663 2.502 1.862 1800
0.649 2.450 1.815 1818
0.617 2.330 1.730 1246
0.655 2.474 1.821 4699
0.620 2.341 1.728 677
0.657 2.479 1.813 7681
0.621 2.345 1.721 675
0.658 2.483 1.806 11568
0.690 2.605 1.889 451
0.661 2.495 1.803 15776
0.693 2.616 1.886 475
0.662 2.499 1.796 13572
0.694 2.621 1.878 665
0.665 2.510 1.792 11557
0.697 2.632 1.874 792
0.666 2.515 1.785 7339
0.699 2.637 1.867 1272
0.688 2.597 1.829 4797
0.655 2.475 1.748 2425
0.689 2.602 1.821 5383
0.657 2.479 1.740 1642
0.690 2.606 1.813 5970
0.723 2.729 1.894 1350
0.695 2.624 1.814 4592
0.728 2.747 1.894 2102
0.700 2.642 1.815 4055
0.732 2.765 1.895 2326
0.727 2.744 1.870 4911
0.694 2.620 1.790 2725
0.728 2.749 1.862 6390
0.688 2.599 1.766 2621
0.728 2.747 1.849 6677
0.690 2.604 1.758 2283
0.729 2.752 1.841 7078
0.696 2.628 1.763 2257
0.729 2.750 1.829 6706
0.696 2.626 1.751 1658
0.728 2.748 1.817 6424
0.695 2.624 1.739 1125
0.733 2.766 1.817 6854
0.700 2.641 1.739 1443
0.734 2.771 1.808 7543
0.701 2.646 1.732 1505
0.737 2.782 1.804 6678
0.770 2.908 1.881 1637
0.740 2.794 1.800 5194
0.773 2.919 1.876 2154
0.741 2.798 1.792 4391
0.775 2.924 1.867 2630
0.746 2.816 1.791 4403
0.779 2.942 1.866 2553
0.751 2.834 1.791 4773
0.784 2.960 1.866 1740
0.773 2.919 1.829 4050
0.740 2.792 1.755 2078
0.771 2.910 1.813 4615
0.737 2.783 1.739 1291
0.770 2.908 1.800 3905
0.806 3.041 1.878 2391
0.780 2.946 1.811 4234
0.814 3.073 1.884 2710
0.783 2.957 1.806 5666
0.817 3.085 1.879 2428
0.790 2.982 1.809 5931
0.824 3.110 1.881 1708
0.791 2.987 1.800 5460
0.825 3.115 1.872 1771
0.792 2.992 1.791 3769
0.828 3.126 1.867 1996
0.817 3.084 1.831 3168
0.783 2.956 1.760 1287
0.822 3.102 1.829 4322
0.788 2.974 1.758 1247
0.834 3.147 1.842 4178
0.800 3.019 1.772 1891
0.837 3.159 1.837 4820
0.799 3.017 1.759 1142
0.840 3.171 1.831 6615
0.806 3.042 1.761 922
0.843 3.182 1.825 8215
0.809 3.053 1.756 1164
0.848 3.200 1.823 7932
0.814 3.071 1.754 1445
0.845 3.192 1.806 6308
0.880 3.321 1.875 839
0.852 3.217 1.808 5812
0.886 3.346 1.876 1148
0.852 3.215 1.795 7181
0.886 3.344 1.862 2215
0.855 3.226 1.789 5759
0.889 3.356 1.856 2407
0.878 3.313 1.821 5878
0.843 3.183 1.754 2740
0.862 3.256 1.780 5517
0.897 3.386 1.847 3044
0.884 3.336 1.809 5672
0.849 3.206 1.742 1644
0.883 3.334 1.795 5382
0.918 3.465 1.861 1579
0.883 3.332 1.782 5751
0.917 3.463 1.847 2519
0.886 3.343 1.775 6265
0.920 3.474 1.840 2629
0.887 3.348 1.765 4903
0.933 3.520 1.851 3416
0.903 3.408 1.783 5286
0.937 3.539 1.847 4176
0.908 3.426 1.779 6269
0.942 3.558 1.843 3415
0.909 3.431 1.769 4451
0.944 3.563 1.832 3561
0.939 3.546 1.812 4038
0.904 3.415 1.749 1932
0.939 3.544 1.798 5786
0.974 3.676 1.861 1619
0.944 3.563 1.794 7468
0.979 3.695 1.856 1895
0.945 3.567 1.783 7481
0.980 3.700 1.845 2442
0.946 3.572 1.773 6557
0.981 3.705 1.834 3005
0.968 3.654 1.798 5129
1.003 3.786 1.859 1935
0.965 3.644 1.780 4510
1.001 3.777 1.841 3383
0.970 3.663 1.776 5059
1.006 3.796 1.836 2386
0.971 3.668 1.765 5990
1.007 3.801 1.825 2569
1.002 3.785 1.804 4996
0.967 3.651 1.745 3091
1.006 3.796 1.796 6116
1.041 3.930 1.855 2166
1.009 3.808 1.788 5732
1.044 3.942 1.846 2321
1.012 3.820 1.779 4669
1.047 3.954 1.838 2757
1.035 3.909 1.805 5756
1.071 4.043 1.863 3156
1.029 3.885 1.781 6389
1.076 4.062 1.857 4939
1.034 3.904 1.775 5661
1.079 4.074 1.847 4791
1.086 4.100 1.844 4174
1.037 3.916 1.767 3597
1.087 4.105 1.832 4287
1.046 3.949 1.767 2552
1.077 4.067 1.802 4293
1.042 3.932 1.746 1520
1.077 4.065 1.787 3342
1.131 4.271 1.872 2586
1.125 4.247 1.847 5030
1.080 4.076 1.778 2003
1.124 4.245 1.832 6409
1.089 4.110 1.777 2461
1.097 4.143 1.776 4117
1.133 4.278 1.831 3435
1.102 4.162 1.770 3719
1.138 4.297 1.823 2323
1.140 4.302 1.811 4422
1.104 4.166 1.757 2363
1.145 4.321 1.803 6017
1.181 4.457 1.856 1586
1.148 4.333 1.793 4709
1.207 4.555 1.879 2426
1.210 4.567 1.868 3334
1.157 4.366 1.791 2524
1.234 4.658 1.887 4429
1.169 4.414 1.795 2916
1.233 4.656 1.871 5051
1.172 4.426 1.784 2735
1.235 4.661 1.857 5170
1.187 4.481 1.790 3674
1.238 4.673 1.845 4070
1.184 4.471 1.771 3691
1.218 4.598 1.803 3481
1.256 4.743 1.855 2835
1.258 4.748 1.841 2924
1.221 4.610 1.791 1947
1.259 4.752 1.827 3056
1.297 4.897 1.879 1740
1.256 4.743 1.808 2785
1.293 4.880 1.856 2383
1.292 4.878 1.839 3526
1.256 4.740 1.791 1863
1.297 4.897 1.830 3624
1.334 5.035 1.878 2270
1.318 4.974 1.840 4772
1.270 4.793 1.778 1400
1.313 4.957 1.818 4353
1.373 5.182 1.895 2008
1.314 4.962 1.803 2953
1.374 5.187 1.879 2651
1.339 5.054 1.818 3089
1.302 4.916 1.771 2238
1.338 5.051 1.800 3134
1.386 5.234 1.861 1779
1.337 5.049 1.783 2431
1.390 5.246 1.847 1508
1.346 5.083 1.777 2841
1.399 5.280 1.841 1028
1.351 5.102 1.766 2176
1.398 5.277 1.823 1112
1.374 5.187 1.777 1575
1.333 5.033 1.728 588
1.373 5.184 1.759 1441
1.412 5.331 1.805 583
1.384 5.225 1.755 1230
1.347 5.086 1.711 978
1.383 5.222 1.737 1678
1.346 5.083 1.694 980
1.385 5.227 1.721 1141
1.431 5.403 1.775 687
1.429 5.393 1.755 840
1.477 5.577 1.810 627
1.476 5.574 1.791 867
1.430 5.398 1.738 493
1.480 5.586 1.777 650
1.285 4.850 1.559 560
1.286 4.854 1.545 571
1.223 4.619 1.476 534
1.285 4.851 1.528 715
1.224 4.622 1.462 631
1.286 4.855 1.513 807
1.225 4.626 1.448 682
1.289 4.866 1.501 723
1.226 4.630 1.434 641
1.227 4.633 1.420 627
1.292 4.877 1.489 619
1.228 4.637 1.407 706
1.265 4.777 1.445 648
1.229 4.640 1.393 718
1.276 4.818 1.441 480
1.285 4.851 1.435 677
1.228 4.637 1.377 621
1.290 4.870 1.424 651
1.231 4.647 1.365 485
1.291 4.873 1.410 498
1.232 4.651 1.351 366
1.294 4.884 1.397 635
1.353 5.107 1.455 298
1.299 4.903 1.386 697
1.302 4.914 1.373 429
1.302 4.917 1.359 337
1.448 5.468 1.497 276
1.303 4.921 1.344 331
1.445 5.456 1.477 306
1.463 5.523 1.423 535
1.464 5.527 1.407 1438
1.461 5.516 1.387 2226
2.302 8.692 2.112 294
1.464 5.527 1.372 2504
2.304 8.697 2.086 397
1.467 5.538 1.357 2726
2.394 9.039 2.135 521
1.472 5.556 1.344 4084
2.398 9.052 2.109 682
1.471 5.552 1.326 5308
2.372 8.953 2.059 661
1.471 5.555 1.309 4375
2.375 8.966 2.034 656
1.472 5.558 1.293 2939
2.402 9.069 2.027 523
1.473 5.562 1.276 2025
2.404 9.074 2.000 501
1.474 5.565 1.259 1214
2.403 9.072 1.971 362
1.477 5.575 1.244 442
0.587 2.203 1.778 1661
0.588 2.207 1.772 3322
0.619 2.324 1.861 558
0.589 2.212 1.765 3322
0.620 2.329 1.854 1117
0.602 2.260 1.791 5161
0.633 2.378 1.879 1449
0.603 2.264 1.785 7214
0.635 2.382 1.872 2237
0.606 2.275 1.783 6538
0.638 2.394 1.870 3278
0.609 2.286 1.780 6120
0.640 2.405 1.867 4122
0.610 2.291 1.774 6120
0.642 2.410 1.860 4122
0.615 2.308 1.776 6267
0.646 2.427 1.862 3460
0.619 2.325 1.778 6983
0.651 2.444 1.864 2650
0.621 2.330 1.771 6319
0.652 2.449 1.857 2650
0.622 2.334 1.764 5655
0.654 2.454 1.850 2651
0.623 2.339 1.758 3960
0.655 2.459 1.842 2254
0.622 2.337 1.746 2288
0.655 2.457 1.831 1973
0.652 2.449 1.815 2203
0.620 2.329 1.730 1358
0.657 2.467 1.816 4907
0.625 2.346 1.732 784
0.658 2.472 1.809 7890
0.626 2.351 1.725 790
0.661 2.483 1.806 11648
0.629 2.361 1.723 476
0.664 2.494 1.803 15847
0.697 2.615 1.886 351
0.667 2.505 1.800 13610
0.700 2.626 1.882 529
0.668 2.509 1.792 11597
0.701 2.631 1.874 766
0.670 2.514 1.785 7431
0.702 2.636 1.867 1235
0.691 2.596 1.829 4887
0.659 2.474 1.748 2298
0.693 2.601 1.821 5419
0.660 2.478 1.740 1560
0.692 2.599 1.809 5956
0.725 2.722 1.890 1386
0.699 2.623 1.814 4618
0.731 2.746 1.894 2015
0.703 2.641 1.815 4331
0.736 2.764 1.895 2222
0.731 2.743 1.870 4775
0.698 2.620 1.790 2852
0.732 2.748 1.862 6302
0.692 2.598 1.766 2782
0.731 2.746 1.849 6660
0.698 2.622 1.771 2407
0.731 2.744 1.837 7062
0.698 2.620 1.759 2153
0.732 2.749 1.829 6670
0.699 2.625 1.751 1696
0.732 2.747 1.817 6315
0.699 2.623 1.739 1120
0.737 2.765 1.817 6683
0.703 2.641 1.739 1496
0.738 2.770 1.808 7277
0.705 2.645 1.732 1562
0.741 2.781 1.804 6466
0.774 2.907 1.881 1528
0.744 2.793 1.800 5259
0.777 2.918 1.876 1922
0.747 2.804 1.796 4770
0.780 2.930 1.871 2185
0.750 2.815 1.791 4932
0.783 2.941 1.866 2428
0.753 2.826 1.787 5226
0.786 2.953 1.862 2071
0.777 2.917 1.829 4277
0.743 2.791 1.755 2292
0.775 2.909 1.813 4908
0.741 2.782 1.739 1422
0.774 2.907 1.800 4175
0.808 3.034 1.874 2483
0.784 2.945 1.811 4232
0.818 3.072 1.884 2713
0.787 2.956 1.806 5646
0.821 3.084 1.879 2365
0.794 2.981 1.809 5911
0.828 3.109 1.881 1508
0.795 2.986 1.800 5435
0.829 3.113 1.872 1575
0.797 2.991 1.791 3931
0.840 3.152 1.882 1834
0.821 3.083 1.831 2987
0.787 2.955 1.760 1409
0.826 3.101 1.829 4042
0.792 2.973 1.758 1383
0.840 3.153 1.846 3853
0.802 3.011 1.768 1944
0.841 3.158 1.837 4541
0.803 3.016 1.759 1210
0.846 3.176 1.835 6254
0.812 3.047 1.765 1169
0.849 3.188 1.829 7680
0.815 3.059 1.760 1434
0.852 3.199 1.823 7316
0.818 3.070 1.754 1525
0.857 3.218 1.821 5897
0.823 3.088 1.752 1358
0.856 3.216 1.808 5740
0.891 3.345 1.876 1151
0.856 3.213 1.795 7176
0.890 3.343 1.862 2205
0.859 3.225 1.789 5813
0.894 3.355 1.856 2324
0.882 3.312 1.821 5746
0.847 3.182 1.754 2916
0.867 3.255 1.780 5748
0.902 3.385 1.847 2938
0.886 3.328 1.805 6018
0.852 3.198 1.739 1409
0.888 3.333 1.795 5695
0.922 3.463 1.861 1610
0.889 3.337 1.785 5926
0.924 3.468 1.851 2388
0.890 3.342 1.775 6481
0.925 3.473 1.840 2685
0.891 3.347 1.765 4993
0.937 3.519 1.851 3517
0.911 3.420 1.789 5241
0.946 3.552 1.854 3264
0.912 3.425 1.779 6529
0.947 3.556 1.843 3269
0.913 3.430 1.769 4740
0.949 3.561 1.832 3324
0.944 3.545 1.812 3597
0.909 3.413 1.749 2262
0.944 3.543 1.798 5234
0.979 3.675 1.861 1584
0.949 3.562 1.794 7137
0.984 3.694 1.856 1944
0.950 3.566 1.783 7311
0.985 3.699 1.845 2508
0.951 3.571 1.773 6479
0.986 3.703 1.834 2992
0.973 3.652 1.798 5068
1.008 3.785 1.859 1955
0.970 3.643 1.780 4550
1.006 3.776 1.841 3503
0.975 3.662 1.776 5068
1.011 3.795 1.836 2646
0.976 3.666 1.765 6084
1.012 3.799 1.825 2466
1.008 3.783 1.804 4264
0.972 3.650 1.745 3401
1.011 3.795 1.796 5099
1.046 3.929 1.855 2163
1.014 3.807 1.788 5024
1.050 3.940 1.846 2223
1.017 3.818 1.779 4503
1.053 3.952 1.838 2659
1.041 3.908 1.805 5680
1.077 4.042 1.863 3014
1.035 3.884 1.781 6242
1.080 4.054 1.854 4700
1.038 3.896 1.772 5109
1.085 4.073 1.847 4244
1.092 4.099 1.844 3652
1.056 3.964 1.788 3284
1.091 4.096 1.829 3999
1.051 3.947 1.767 2377
1.083 4.066 1.802 4651
1.047 3.931 1.746 1480
1.082 4.063 1.787 3780
1.137 4.269 1.872 2628
1.131 4.246 1.847 4903
1.083 4.068 1.775 2102
1.128 4.236 1.829 6364
1.092 4.101 1.774 1910
1.103 4.141 1.776 3987
1.139 4.277 1.831 3340
1.110 4.167 1.772 3756
1.146 4.303 1.826 2375
1.145 4.301 1.811 4803
1.109 4.165 1.757 2454
1.149 4.312 1.801 6194
1.185 4.448 1.854 2085
1.154 4.331 1.793 4864
1.213 4.554 1.879 2397
1.216 4.566 1.868 3426
1.163 4.365 1.791 2308
1.240 4.657 1.887 4205
1.175 4.412 1.795 2611
1.240 4.654 1.871 5067
1.178 4.424 1.784 2563
1.241 4.659 1.857 5237
1.193 4.479 1.790 4054
1.223 4.592 1.816 4187
1.187 4.455 1.766 3608
1.224 4.597 1.803 3700
1.261 4.734 1.853 2568
1.264 4.746 1.841 2665
1.228 4.609 1.791 2072
1.267 4.758 1.830 2839
1.306 4.902 1.881 1894
1.305 4.900 1.864 2506
1.269 4.763 1.815 2467
1.301 4.883 1.842 3312
1.254 4.709 1.781 1650
1.329 4.989 1.863 3489
1.292 4.852 1.815 2638
1.328 4.987 1.845 4685
1.278 4.798 1.780 1426
1.316 4.941 1.813 4195
1.380 5.181 1.895 2188
1.319 4.953 1.801 3005
1.381 5.186 1.879 2930
1.348 5.059 1.820 2925
1.311 4.921 1.774 2451
1.343 5.042 1.798 2994
1.393 5.232 1.861 2043
1.344 5.047 1.783 2409
1.399 5.251 1.850 1765
1.353 5.081 1.777 2776
1.404 5.270 1.839 1316
1.358 5.100 1.766 2200
1.405 5.275 1.823 1516
1.379 5.178 1.774 1664
1.416 5.317 1.819 651
1.378 5.175 1.757 1235
1.419 5.329 1.805 649
1.391 5.223 1.755 1174
1.354 5.084 1.711 902
1.391 5.221 1.737 1734
1.353 5.081 1.694 894
1.392 5.225 1.721 1221
1.439 5.401 1.775 727
1.436 5.391 1.755 891
1.487 5.582 1.812 632
1.484 5.572 1.791 875
1.437 5.396 1.738 536
1.487 5.584 1.777 686
1.291 4.848 1.559 500
1.487 5.581 1.758 553
1.290 4.845 1.542 513
1.292 4.849 1.528 684
1.231 4.621 1.462 482
1.293 4.853 1.513 814
1.232 4.624 1.448 546
1.296 4.864 1.501 751
1.231 4.621 1.432 514
1.299 4.875 1.489 624
1.234 4.632 1.420 502
1.235 4.635 1.407 564
1.272 4.776 1.445 481
1.236 4.639 1.393 576
1.281 4.809 1.439 396
1.292 4.850 1.435 550
1.235 4.635 1.377 495
1.299 4.875 1.426 618
1.237 4.646 1.365 356
1.300 4.879 1.412 544
1.302 4.890 1.399 666
1.360 5.105 1.455 308
1.305 4.901 1.386 710
1.306 4.904 1.372 406
1.311 4.923 1.361 361
1.456 5.466 1.497 289
1.310 4.919 1.344 397
1.453 5.454 1.477 335
1.309 4.915 1.328 280
1.469 5.514 1.422 552
1.472 5.525 1.407 1338
1.467 5.506 1.385 2102
1.468 5.510 1.369 2689
2.316 8.694 2.086 289
1.470 5.521 1.354 2794
2.407 9.036 2.135 516
1.479 5.554 1.344 3358
2.410 9.049 2.109 660
1.478 5.550 1.326 4518
2.384 8.950 2.059 657
1.477 5.546 1.308 4043
2.387 8.963 2.034 621
1.478 5.549 1.291 2772
2.385 8.953 2.004 441
1.481 5.560 1.276 1941
2.416 9.071 2.000 434
1.482 5.563 1.259 1156
2.415 9.068 1.971 360
1.478 5.551 1.240 418
0.589 2.202 1.778 1827
0.590 2.207 1.772 3655
0.622 2.324 1.861 600
0.592 2.211 1.765 3655
0.623 2.329 1.854 1200
0.604 2.259 1.791 5300
0.636 2.377 1.879 1399
0.606 2.264 1.785 7427
0.637 2.382 1.872 2142
0.609 2.275 1.783 6786
0.640 2.393 1.870 3148
0.611 2.285 1.780 6444
0.643 2.404 1.867 3986
0.613 2.290 1.774 6444
0.644 2.409 1.860 3986
0.617 2.307 1.776 6443
0.649 2.426 1.862 3370
0.622 2.324 1.778 7074
0.654 2.444 1.864 2549
0.623 2.329 1.771 6398
0.655 2.448 1.857 2571
0.624 2.334 1.764 5722
0.656 2.453 1.850 2592
0.626 2.338 1.758 4054
0.658 2.458 1.842 2354
0.652 2.438 1.817 2732
0.620 2.317 1.733 1812
0.653 2.442 1.810 2732
0.621 2.322 1.726 1262
0.660 2.466 1.816 5182
0.627 2.345 1.732 845
0.661 2.471 1.809 8086
0.629 2.350 1.725 867
0.664 2.482 1.806 11694
0.632 2.361 1.723 557
0.667 2.493 1.803 15867
0.699 2.614 1.886 295
0.670 2.504 1.800 13637
0.702 2.626 1.882 498
0.671 2.509 1.792 11604
0.704 2.631 1.874 749
0.672 2.513 1.785 7453
0.705 2.635 1.867 1226
0.693 2.589 1.825 4997
0.660 2.466 1.743 1735
0.694 2.594 1.817 5454
0.661 2.471 1.736 1159
0.695 2.598 1.809 5910
0.728 2.721 1.890 1343
0.700 2.616 1.810 4650
0.733 2.739 1.890 2073
0.706 2.640 1.815 4656
0.739 2.763 1.895 2096
0.711 2.658 1.815 4673
0.744 2.781 1.895 1785
0.733 2.741 1.857 6261
0.695 2.597 1.766 3057
0.734 2.745 1.849 6663
0.696 2.602 1.758 2566
0.734 2.744 1.837 7107
0.701 2.620 1.759 2233
0.735 2.748 1.829 6675
0.702 2.624 1.751 1809
0.735 2.747 1.817 6253
0.701 2.622 1.739 1227
0.740 2.764 1.817 6488
0.706 2.640 1.739 1662
0.741 2.769 1.808 6909
0.707 2.644 1.732 1705
0.744 2.780 1.804 6118
0.777 2.906 1.881 1422
0.747 2.792 1.800 5229
0.780 2.917 1.876 1683
0.748 2.796 1.792 5146
0.782 2.922 1.867 2135
0.753 2.814 1.791 5439
0.787 2.940 1.866 2262
0.756 2.826 1.787 5628
0.790 2.952 1.862 1952
0.780 2.917 1.829 4434
0.746 2.790 1.755 2388
0.778 2.908 1.813 5138
0.744 2.782 1.739 1502
0.777 2.906 1.800 4375
0.811 3.033 1.874 2527
0.788 2.944 1.811 4276
0.822 3.071 1.884 2660
0.792 2.962 1.810 5665
0.826 3.089 1.883 1877
0.797 2.980 1.809 5941
0.831 3.108 1.881 1305
0.799 2.985 1.800 5464
0.834 3.119 1.876 1389
0.800 2.990 1.791 4130
0.843 3.151 1.882 1734
0.824 3.082 1.831 2761
0.790 2.954 1.760 1580
0.829 3.100 1.829 3704
0.795 2.972 1.758 1540
0.843 3.152 1.846 3461
0.805 3.010 1.768 2073
0.846 3.164 1.841 4158
0.812 3.035 1.770 1342
0.849 3.175 1.835 5840
0.815 3.047 1.765 1337
0.853 3.187 1.829 7180
0.818 3.058 1.760 1576
0.857 3.205 1.827 6881
0.823 3.076 1.758 1886
0.851 3.183 1.803 5715
0.886 3.312 1.871 1080
0.855 3.194 1.797 5939
0.889 3.324 1.865 2155
0.859 3.212 1.795 7351
0.894 3.342 1.862 2083
0.861 3.217 1.785 5910
0.895 3.347 1.852 2706
0.886 3.311 1.821 5676
0.851 3.181 1.754 3091
0.870 3.254 1.780 5680
0.905 3.384 1.847 2697
0.890 3.327 1.805 6094
0.855 3.197 1.739 1571
0.891 3.332 1.795 5676
0.926 3.462 1.861 1697
0.893 3.336 1.785 5869
0.928 3.467 1.851 2509
0.894 3.341 1.775 6481
0.929 3.472 1.840 2861
0.897 3.352 1.769 5019
0.941 3.518 1.851 3720
0.918 3.433 1.796 5214
0.954 3.564 1.860 2099
0.918 3.431 1.782 6240
0.953 3.562 1.846 2714
0.919 3.435 1.772 4573
0.954 3.567 1.836 2873
0.920 3.440 1.762 3347
0.956 3.572 1.825 2810
0.948 3.542 1.798 4627
0.983 3.674 1.861 1594
0.953 3.561 1.794 6758
0.988 3.693 1.856 1943
0.954 3.565 1.783 7237
0.989 3.698 1.845 2581
0.955 3.570 1.773 6605
0.990 3.702 1.834 3090
0.977 3.651 1.798 4962
1.012 3.784 1.859 2029
0.974 3.642 1.780 4540
1.010 3.775 1.841 3620
0.979 3.661 1.776 4903
1.015 3.794 1.836 2765
0.980 3.665 1.765 5975
1.016 3.798 1.825 2284
0.980 3.663 1.751 4127
1.016 3.796 1.810 3588
1.015 3.794 1.796 4601
1.051 3.927 1.855 2253
1.018 3.805 1.788 4894
1.054 3.939 1.846 2212
1.021 3.817 1.779 4744
1.057 3.951 1.838 2600
1.045 3.906 1.805 5540
1.081 4.041 1.863 2888
1.039 3.883 1.781 6020
1.084 4.052 1.854 4423
1.042 3.895 1.772 4747
1.089 4.071 1.847 3714
1.066 3.984 1.796 3397
1.102 4.119 1.853 2470
1.096 4.095 1.829 3551
1.056 3.946 1.767 2330
1.087 4.064 1.802 5057
1.051 3.930 1.746 1460
1.087 4.062 1.787 4248
1.142 4.268 1.872 2657
1.136 4.245 1.847 4892
1.088 4.067 1.775 2261
1.133 4.235 1.829 6581
1.097 4.100 1.774 1864
1.130 4.226 1.811 4195
1.167 4.361 1.865 2623
1.114 4.166 1.772 3835
1.151 4.302 1.826 2502
1.150 4.299 1.811 5151
1.114 4.163 1.757 2487
1.153 4.311 1.801 6493
1.190 4.447 1.854 2484
1.158 4.330 1.793 5085
1.218 4.552 1.879 2429
1.221 4.564 1.868 3531
1.162 4.342 1.783 2253
1.245 4.655 1.887 4006
1.180 4.411 1.795 2321
1.245 4.653 1.871 5199
1.199 4.481 1.806 2473
1.248 4.665 1.859 5450
1.198 4.478 1.790 4295
1.226 4.583 1.814 4486
1.190 4.447 1.763 3268
1.227 4.588 1.800 3909
1.264 4.725 1.850 2430
1.269 4.744 1.841 2313
1.233 4.607 1.791 2210
1.278 4.778 1.837 2685
1.315 4.915 1.887 1937
1.310 4.899 1.864 2970
1.274 4.761 1.815 2242
1.308 4.889 1.844 3451
1.258 4.701 1.778 1640
1.334 4.988 1.863 3511
1.298 4.850 1.815 2447
1.338 5.000 1.850 4720
1.301 4.862 1.803 1534
1.327 4.961 1.820 4047
1.386 5.179 1.895 2346
1.325 4.951 1.801 3227
1.387 5.184 1.879 3165
1.355 5.065 1.822 2960
1.318 4.927 1.776 2682
1.349 5.041 1.798 2832
1.399 5.230 1.861 2280
1.348 5.038 1.780 2402
1.404 5.250 1.850 2032
1.361 5.087 1.779 2680
1.412 5.276 1.841 1598
1.362 5.091 1.764 2134
1.411 5.274 1.823 1850
1.385 5.176 1.774 1698
1.422 5.315 1.819 751
1.376 5.144 1.747 1194
1.425 5.327 1.805 754
1.387 5.185 1.743 1130
1.424 5.324 1.787 733
1.396 5.219 1.737 1741
1.359 5.080 1.694 790
1.397 5.224 1.721 1293
1.445 5.400 1.775 783
1.442 5.389 1.755 1057
1.491 5.573 1.810 585
1.490 5.570 1.791 814
1.443 5.394 1.738 646
1.495 5.590 1.779 648
1.297 4.847 1.559 499
1.491 5.572 1.756 581
1.296 4.844 1.542 492
1.297 4.848 1.528 648
1.490 5.569 1.737 413
1.298 4.851 1.513 780
1.237 4.623 1.448 375
1.301 4.863 1.501 729
1.238 4.627 1.434 324
1.306 4.881 1.491 619
1.237 4.623 1.418 286
1.311 4.900 1.480 437
1.240 4.634 1.407 390
1.241 4.637 1.393 401
1.294 4.837 1.447 355
1.297 4.848 1.435 496
1.240 4.634 1.377 301
1.306 4.881 1.428 576
1.305 4.878 1.412 560
1.308 4.889 1.399 725
1.367 5.111 1.457 295
1.309 4.892 1.384 770
1.312 4.903 1.372 393
1.321 4.936 1.364 394
1.462 5.464 1.497 312
1.317 4.925 1.346 427
1.461 5.460 1.478 339
1.314 4.913 1.328 290
1.458 5.449 1.458 267
1.459 5.453 1.442 273
1.466 5.479 1.431 303
1.469 5.490 1.416 625
1.474 5.508 1.403 1267
1.471 5.497 1.384 2101
1.472 5.501 1.367 3019
1.474 5.511 1.352 3028
2.417 9.033 2.135 522
1.477 5.522 1.337 2795
2.420 9.046 2.109 677
1.482 5.541 1.324 3793
2.392 8.940 2.058 713
1.481 5.537 1.306 3739
2.395 8.953 2.032 641
1.482 5.540 1.289 2592
2.392 8.943 2.002 548
1.487 5.558 1.276 1818
2.394 8.948 1.975 446
1.488 5.561 1.259 1074
2.427 9.073 1.973 337
1.477 5.519 1.234 472
0.592 2.201 1.778 2025
0.594 2.206 1.772 4051
0.625 2.323 1.861 660
0.595 2.210 1.765 4051
0.627 2.328 1.854 1320
0.608 2.258 1.791 5446
0.639 2.376 1.879 1362
0.609 2.263 1.785 7581
0.641 2.381 1.872 2043
0.612 2.274 1.783 6960
0.644 2.392 1.870 2963
0.615 2.285 1.780 6676
0.647 2.403 1.867 3762
0.616 2.289 1.774 6676
0.648 2.408 1.860 3762
0.621 2.306 1.776 6586
0.653 2.425 1.862 3213
0.627 2.330 1.783 7197
0.659 2.449 1.869 1822
0.628 2.334 1.776 6511
0.660 2.454 1.861 2143
0.630 2.339 1.769 5824
0.662 2.459 1.854 2464
0.629 2.337 1.758 4145
0.661 2.457 1.842 2468
0.656 2.437 1.817 3145
0.623 2.316 1.733 1918
0.657 2.441 1.810 3145
0.625 2.321 1.726 1336
0.663 2.465 1.816 5403
0.631 2.344 1.732 904
0.665 2.470 1.809 8200
0.632 2.349 1.725 934
0.668 2.481 1.806 11632
0.635 2.360 1.723 602
0.671 2.492 1.803 15742
0.703 2.613 1.886 324
0.674 2.503 1.800 13518
0.706 2.625 1.882 537
0.675 2.508 1.792 11444
0.708 2.629 1.874 785
0.676 2.512 1.785 7352
0.709 2.634 1.867 1204
0.696 2.588 1.825 5179
0.664 2.465 1.743 1706
0.698 2.592 1.817 5566
0.665 2.470 1.736 1128
0.699 2.597 1.809 5953
0.732 2.720 1.890 1298
0.704 2.615 1.810 4718
0.737 2.738 1.890 1952
0.712 2.645 1.819 4979
0.745 2.769 1.899 1543
0.715 2.657 1.815 4911
0.748 2.780 1.895 1655
0.737 2.739 1.857 6211
0.699 2.596 1.766 3252
0.739 2.744 1.849 6637
0.700 2.601 1.758 2640
0.738 2.743 1.837 7137
0.705 2.619 1.759 2199
0.739 2.747 1.829 6601
0.706 2.623 1.751 1828
0.741 2.752 1.821 6064
0.707 2.628 1.743 1458
0.744 2.763 1.817 6124
0.710 2.639 1.739 1742
0.745 2.768 1.808 6339
0.711 2.643 1.732 1759
0.748 2.779 1.804 5652
0.782 2.904 1.881 1347
0.751 2.791 1.800 5150
0.785 2.916 1.876 1485
0.752 2.795 1.792 5526
0.786 2.921 1.867 1874
0.757 2.813 1.791 6012
0.791 2.939 1.866 2066
0.760 2.824 1.787 6111
0.794 2.950 1.862 1812
0.761 2.829 1.778 4634
0.795 2.955 1.853 1832
0.782 2.907 1.813 5391
0.748 2.780 1.739 1509
0.782 2.905 1.800 4564
0.816 3.032 1.874 2539
0.792 2.943 1.811 4307
0.826 3.070 1.884 2563
0.797 2.961 1.810 5647
0.831 3.088 1.883 1740
0.802 2.979 1.809 5955
0.836 3.106 1.881 1088
0.803 2.984 1.800 5493
0.839 3.118 1.876 1168
0.804 2.988 1.791 4319
0.848 3.150 1.882 1550
0.807 3.000 1.786 2889
0.849 3.155 1.872 2129
0.832 3.092 1.826 3301
0.798 2.964 1.755 1472
0.834 3.097 1.816 3004
0.799 2.969 1.746 1182
0.851 3.162 1.841 3591
0.817 3.034 1.770 1530
0.854 3.174 1.835 5075
0.820 3.045 1.765 1497
0.859 3.192 1.833 6270
0.825 3.063 1.763 1856
0.864 3.211 1.830 6242
0.829 3.082 1.761 2182
0.865 3.215 1.821 5401
0.831 3.086 1.752 1536
0.859 3.193 1.797 6045
0.894 3.322 1.865 2143
0.862 3.204 1.791 7345
0.897 3.334 1.859 2474
0.866 3.216 1.785 5949
0.900 3.346 1.852 2484
0.889 3.303 1.818 5541
0.854 3.173 1.751 2998
0.875 3.252 1.780 5696
0.910 3.383 1.847 2380
0.895 3.326 1.805 5915
0.860 3.195 1.739 1700
0.896 3.330 1.795 5626
0.932 3.461 1.861 1740
0.899 3.342 1.789 6042
0.935 3.473 1.854 2449
0.901 3.347 1.779 6747
0.936 3.477 1.844 2973
0.902 3.351 1.769 5220
0.945 3.510 1.847 3857
0.926 3.439 1.799 5781
0.890 3.307 1.735 2023
0.923 3.429 1.782 6341
0.958 3.561 1.846 2414
0.924 3.434 1.772 4674
0.960 3.566 1.836 2398
0.926 3.439 1.762 3435
0.961 3.570 1.825 2268
0.953 3.540 1.798 4148
0.988 3.672 1.861 1676
0.958 3.559 1.794 6341
0.994 3.691 1.856 1978
0.959 3.564 1.783 7088
0.995 3.696 1.845 2717
0.960 3.568 1.773 6763
0.996 3.701 1.834 3265
0.977 3.629 1.788 5225
1.012 3.761 1.849 2717
0.980 3.640 1.780 4798
1.016 3.773 1.841 3609
0.985 3.659 1.776 4820
1.021 3.792 1.836 2735
0.986 3.664 1.765 5945
1.022 3.797 1.825 2082
0.985 3.661 1.751 4391
1.021 3.795 1.810 3063
1.023 3.799 1.799 3856
1.059 3.933 1.858 2201
1.024 3.804 1.788 4423
1.060 3.938 1.846 2292
1.052 3.907 1.819 4492
1.016 3.773 1.761 2668
1.051 3.905 1.805 5661
1.087 4.039 1.863 2691
1.045 3.881 1.781 5790
1.090 4.051 1.854 3946
1.069 3.971 1.805 4529
1.105 4.105 1.862 2533
1.070 3.975 1.793 3383
1.106 4.110 1.850 2286
1.092 4.058 1.814 3363
1.056 3.923 1.758 2172
1.094 4.063 1.802 5440
1.057 3.928 1.746 1394
1.093 4.060 1.787 4722
1.150 4.273 1.875 2520
1.142 4.243 1.847 4646
1.094 4.065 1.775 2407
1.138 4.226 1.826 6559
1.101 4.091 1.771 1478
1.137 4.224 1.811 4466
1.173 4.359 1.865 2829
1.123 4.171 1.775 3900
1.159 4.307 1.829 2665
1.155 4.290 1.808 5672
1.118 4.155 1.754 2288
1.160 4.309 1.801 6629
1.196 4.445 1.854 2728
1.165 4.328 1.793 5163
1.225 4.550 1.879 2427
1.228 4.562 1.868 3525
1.191 4.426 1.816 2972
1.252 4.653 1.887 3706
1.191 4.424 1.800 2451
1.252 4.651 1.871 5164
1.205 4.479 1.806 2769
1.255 4.663 1.859 5462
1.205 4.476 1.790 4586
1.233 4.582 1.814 4685
1.196 4.445 1.763 3230
1.234 4.586 1.800 4129
1.271 4.723 1.850 2261
1.241 4.613 1.794 2451
1.278 4.750 1.844 1949
1.286 4.776 1.837 2692
1.322 4.913 1.887 2028
1.316 4.889 1.862 3542
1.279 4.752 1.813 1981
1.315 4.887 1.844 4311
1.265 4.699 1.778 1511
1.315 4.884 1.827 3795
1.352 5.022 1.875 2371
1.345 4.998 1.850 4802
1.308 4.860 1.803 1478
1.335 4.959 1.820 3911
1.393 5.177 1.895 2348
1.332 4.949 1.801 3221
1.395 5.182 1.879 3156
1.365 5.070 1.825 3017
1.328 4.932 1.778 2394
1.364 5.068 1.807 2717
1.409 5.235 1.863 2454
1.355 5.036 1.780 2439
1.412 5.247 1.850 2304
1.369 5.084 1.779 2477
1.420 5.274 1.841 1965
1.391 5.169 1.790 2667
1.354 5.031 1.745 1367
1.393 5.174 1.774 1878
1.430 5.313 1.819 849
1.384 5.142 1.747 1088
1.421 5.281 1.791 909
1.421 5.278 1.773 1198
1.383 5.139 1.730 821
1.402 5.210 1.735 1694
1.365 5.070 1.692 666
1.405 5.221 1.721 1335
1.453 5.397 1.775 848
1.450 5.387 1.755 1184
1.407 5.226 1.706 558
1.453 5.399 1.741 762
1.499 5.568 1.791 757
1.504 5.587 1.779 659
1.441 5.352 1.709 520
1.499 5.570 1.756 630
1.305 4.849 1.545 459
1.306 4.853 1.530 589
1.498 5.567 1.737 497
1.305 4.850 1.513 719
1.547 5.748 1.771 416
1.308 4.861 1.501 675
1.315 4.887 1.493 607
1.318 4.898 1.480 434
1.311 4.872 1.457 337
1.304 4.846 1.435 413
1.313 4.879 1.428 524
1.312 4.876 1.412 563
1.315 4.887 1.399 750
1.375 5.109 1.457 295
1.316 4.890 1.384 754
1.319 4.901 1.372 348
1.328 4.934 1.364 395
1.470 5.462 1.497 309
1.325 4.923 1.346 443
1.467 5.451 1.477 321
1.322 4.911 1.328 293
1.476 5.484 1.433 327
1.475 5.480 1.415 719
1.478 5.491 1.400 1252
1.473 5.472 1.378 2279
1.478 5.491 1.365 3432
1.481 5.502 1.351 3407
2.430 9.030 2.135 470
1.484 5.513 1.336 2600
2.398 8.908 2.080 705
1.487 5.523 1.321 3338
2.401 8.921 2.054 866
1.488 5.527 1.304 3561
2.405 8.934 2.029 696
1.488 5.530 1.288 2442
2.406 8.939 2.002 693
1.493 5.548 1.274 1716
2.407 8.944 1.975 596
1.492 5.544 1.256 1036
2.407 8.942 1.947 340
1.485 5.517 1.234 610
1.486 5.520 1.217 293
0.596 2.200 1.778 2225
0.597 2.205 1.772 4450
0.629 2.322 1.861 688
0.598 2.209 1.765 4450
0.630 2.327 1.854 1376
0.610 2.251 1.787 5538
0.642 2.369 1.875 1408
0.613 2.262 1.785 7628
0.645 2.380 1.872 1912
0.616 2.273 1.783 7050
0.648 2.391 1.870 2754
0.618 2.284 1.780 6832
0.651 2.402 1.867 3529
0.620 2.288 1.774 6832
0.652 2.407 1.860 3529
0.624 2.305 1.776 6642
0.657 2.424 1.862 3066
0.631 2.329 1.783 7275
0.663 2.448 1.869 1730
0.632 2.333 1.776 6547
0.664 2.453 1.861 2088
0.633 2.338 1.769 5820
0.666 2.458 1.854 2447
0.633 2.336 1.758 4134
0.665 2.456 1.842 2570
0.660 2.436 1.817 3605
0.627 2.315 1.733 1904
0.661 2.440 1.810 3605
0.628 2.320 1.726 1310
0.666 2.458 1.812 5563
0.633 2.337 1.728 803
0.669 2.469 1.809 8138
0.636 2.348 1.725 909
0.672 2.480 1.806 11431
0.639 2.359 1.723 634
0.675 2.491 1.803 15523
0.707 2.612 1.886 401
0.678 2.502 1.800 13398
0.711 2.623 1.882 611
0.681 2.513 1.797 11389
0.714 2.635 1.879 766
0.680 2.511 1.785 7376
0.713 2.633 1.867 1234
0.701 2.587 1.825 5305
0.667 2.464 1.743 1735
0.702 2.591 1.817 5676
0.669 2.469 1.736 1139
0.703 2.596 1.809 6047
0.736 2.719 1.890 1248
0.708 2.614 1.810 4855
0.741 2.737 1.890 1849
0.716 2.644 1.819 5332
0.749 2.767 1.899 1462
0.719 2.656 1.815 5134
0.753 2.779 1.895 1541
0.742 2.738 1.857 6247
0.703 2.595 1.766 3358
0.741 2.737 1.845 6731
0.704 2.600 1.758 2687
0.742 2.741 1.837 7283
0.709 2.617 1.759 2185
0.744 2.746 1.829 6587
0.710 2.622 1.751 1883
0.745 2.751 1.821 5892
0.711 2.626 1.743 1581
0.746 2.756 1.812 5772
0.713 2.631 1.735 1622
0.749 2.767 1.808 5780
0.716 2.642 1.732 1810
0.752 2.778 1.804 5194
0.786 2.903 1.881 1308
0.755 2.789 1.800 5029
0.789 2.915 1.876 1370
0.759 2.801 1.796 5850
0.793 2.926 1.871 1513
0.762 2.812 1.791 6473
0.796 2.938 1.866 1875
0.765 2.823 1.787 6495
0.799 2.949 1.862 1656
0.766 2.828 1.778 4869
0.800 2.954 1.853 1679
0.787 2.906 1.813 5576
0.753 2.779 1.739 1523
0.786 2.904 1.800 4709
0.821 3.030 1.874 2525
0.797 2.942 1.811 4333
0.831 3.068 1.884 2449
0.802 2.960 1.810 5595
0.836 3.087 1.883 1613
0.806 2.978 1.809 5856
0.841 3.105 1.881 925
0.808 2.983 1.800 5385
0.844 3.117 1.876 978
0.811 2.994 1.795 4405
0.854 3.155 1.886 1361
0.812 2.999 1.786 3094
0.856 3.160 1.876 1778
0.815 3.010 1.781 2734
0.855 3.158 1.863 1693
0.837 3.089 1.813 2611
0.802 2.961 1.742 1084
0.856 3.161 1.841 3061
0.821 3.033 1.770 1700
0.859 3.173 1.835 4584
0.824 3.044 1.765 1633
0.864 3.191 1.833 5878
0.829 3.062 1.763 1988
0.869 3.209 1.830 5922
0.834 3.080 1.761 2344
0.870 3.214 1.821 5347
0.835 3.085 1.752 1671
0.864 3.192 1.797 6227
0.899 3.321 1.865 2073
0.867 3.203 1.791 7565
0.903 3.333 1.859 2252
0.865 3.194 1.774 6102
0.900 3.324 1.842 3956
0.894 3.301 1.818 5332
0.859 3.171 1.751 3021
0.895 3.306 1.808 5579
0.860 3.176 1.741 1257
0.900 3.324 1.805 6237
0.865 3.194 1.739 1636
0.902 3.329 1.795 5680
0.937 3.459 1.861 1780
0.905 3.340 1.789 5690
0.940 3.471 1.854 2509
0.908 3.352 1.782 6331
0.943 3.483 1.847 2885
0.909 3.357 1.772 4918
0.948 3.501 1.844 3892
0.931 3.437 1.799 5995
0.895 3.306 1.735 2158
0.928 3.428 1.782 6359
0.964 3.559 1.846 2240
0.930 3.433 1.772 4906
0.965 3.564 1.836 2178
0.931 3.437 1.762 3674
0.967 3.569 1.825 1977
0.958 3.539 1.798 3752
0.923 3.407 1.735 2033
0.962 3.551 1.791 5960
0.997 3.683 1.853 2293
0.965 3.562 1.783 6869
1.001 3.694 1.845 2933
0.966 3.567 1.773 6744
1.002 3.699 1.834 3483
0.980 3.620 1.785 5266
1.016 3.753 1.846 2858
0.986 3.639 1.780 4894
1.021 3.772 1.841 3715
0.994 3.671 1.782 4677
1.030 3.804 1.842 2570
0.992 3.662 1.765 5724
1.032 3.809 1.831 2034
0.991 3.660 1.751 4523
1.027 3.793 1.810 2545
1.029 3.798 1.799 3155
0.992 3.664 1.740 2283
1.030 3.802 1.788 3885
1.066 3.936 1.846 2376
1.058 3.906 1.819 4687
1.021 3.772 1.761 2650
1.057 3.903 1.805 5935
1.093 4.037 1.863 2435
1.049 3.873 1.778 5780
1.097 4.049 1.854 3431
1.075 3.969 1.805 4395
1.111 4.103 1.862 2706
1.057 3.903 1.764 3081
1.109 4.094 1.844 2370
1.099 4.056 1.814 3509
1.062 3.922 1.758 2048
1.100 4.061 1.802 5694
1.157 4.274 1.890 1252
1.099 4.059 1.787 5053
1.157 4.272 1.875 2389
1.137 4.198 1.830 4607
1.099 4.056 1.772 2574
1.142 4.217 1.823 6692
1.179 4.353 1.878 1592
