-1.586 4.577 1.818 3337
-1.681 4.852 1.920 1885
-1.602 4.624 1.819 2795
-1.654 4.772 1.874 2321
-1.660 4.791 1.864 2824
-1.611 4.650 1.813 2227
-1.677 4.839 1.865 3139
-1.620 4.676 1.806 1789
-1.683 4.857 1.855 3503
-1.637 4.723 1.807 1761
-1.690 4.876 1.845 3228
-1.643 4.742 1.798 2021
-1.691 4.881 1.830 2561
-1.746 5.037 1.885 1895
-1.693 4.886 1.815 2166
-1.755 5.063 1.877 1751
-1.759 5.075 1.864 2894
-1.712 4.940 1.818 1736
-1.763 5.087 1.851 4697
-1.716 4.952 1.805 1869
-1.767 5.099 1.838 3848
-1.814 5.234 1.883 1888
-1.813 5.232 1.865 2279
-1.766 5.096 1.820 2043
-1.768 5.101 1.804 1741
-1.815 5.237 1.849 1664
-1.839 5.306 1.854 1507
-1.886 5.442 1.898 1462
-1.850 5.339 1.847 1563
-1.917 5.532 1.909 1376
-1.887 5.444 1.862 1916
-1.939 5.594 1.910 1703
-1.943 5.607 1.896 2596
-1.891 5.456 1.848 1495
-1.942 5.604 1.876 2472
-1.989 5.740 1.919 2192
-1.988 5.738 1.899 2758
-1.929 5.566 1.846 2096
-1.983 5.721 1.875 2912
-2.030 5.858 1.917 1628
-1.987 5.733 1.859 2766
-2.034 5.870 1.901 2456
-2.021 5.832 1.870 2728
-2.088 6.026 1.928 2137
-2.102 6.067 1.920 2701
-2.050 5.916 1.875 1887
-2.112 6.093 1.908 2879
-2.159 6.230 1.948 1573
-2.143 6.185 1.914 3216
-2.058 5.940 1.843 1147
-2.147 6.197 1.897 3547
-2.303 6.645 2.025 1635
-2.149 6.202 1.878 3287
-2.302 6.643 2.003 2486
-2.176 6.279 1.880 2915
-2.304 6.648 1.983 1898
-2.210 6.378 1.886 3201
-2.331 6.725 1.982 2090
-2.372 6.846 1.993 2546
-2.209 6.375 1.865 1885
-2.377 6.859 1.974 2780
-2.316 6.685 1.927 1430
-2.389 6.893 1.961 2741
-2.476 7.146 2.028 1475
-2.388 6.890 1.938 4232
-2.508 7.239 2.029 2748
-2.389 6.895 1.917 5792
-2.508 7.237 2.005 4016
-2.391 6.900 1.896 4035
-2.510 7.242 1.983 2614
-2.393 6.905 1.874 2540
-2.569 7.414 2.003 1257
-2.394 6.910 1.853 2437
-2.526 7.288 1.948 1667
-2.525 7.286 1.924 2103
-2.580 7.446 1.963 1526
-2.580 7.444 1.938 2299
-2.527 7.291 1.901 1455
-2.581 7.449 1.916 1750
-2.900 8.368 2.136 1274
-2.894 8.352 2.105 1345
-2.838 8.191 2.067 855
-2.891 8.342 2.076 1069
-2.840 8.196 2.042 1025
-2.966 8.560 2.099 1223
-2.845 8.209 2.019 971
-2.966 8.558 2.071 1301
-3.042 8.777 2.121 825
-2.965 8.556 2.044 1345
-3.043 8.783 2.094 1157
-3.043 8.781 2.066 914
-2.969 8.568 2.019 824
-3.070 8.859 2.055 685
-2.986 8.617 2.002 393
-3.072 8.864 2.027 464
-2.990 8.630 1.977 264
-3.074 8.870 2.000 322
-2.151 6.206 1.399 305
-2.152 6.210 1.380 366
-2.153 6.213 1.361 386
-2.154 6.216 1.342 418
-2.155 6.220 1.323 422
-2.156 6.223 1.304 347
-2.160 6.234 1.286 257
-0.759 2.203 1.816 3025
-0.760 2.208 1.809 6051
-0.800 2.323 1.898 1062
-0.774 2.249 1.831 6328
-0.735 2.134 1.742 893
-0.778 2.260 1.828 6515
-0.818 2.375 1.917 1379
-0.779 2.264 1.822 6727
-0.819 2.380 1.909 2033
-0.785 2.281 1.824 6381
-0.825 2.397 1.911 1187
-0.791 2.298 1.826 6950
-0.831 2.414 1.913 1219
-0.793 2.303 1.819 6950
-0.833 2.419 1.906 1901
-0.792 2.301 1.808 7659
-0.832 2.418 1.894 2493
-0.794 2.306 1.801 8525
-0.834 2.422 1.887 2625
-0.795 2.310 1.794 8142
-0.836 2.427 1.879 2799
-0.820 2.383 1.836 10630
-0.780 2.266 1.751 2096
-0.824 2.394 1.834 9873
-0.784 2.276 1.749 1785
-0.828 2.404 1.831 9539
-0.787 2.287 1.746 998
-0.829 2.409 1.823 9539
-0.789 2.291 1.739 820
-0.833 2.420 1.821 7822
-0.874 2.538 1.904 906
-0.837 2.431 1.818 6363
-0.796 2.313 1.734 1294
-0.849 2.467 1.832 6826
-0.808 2.348 1.749 1902
-0.853 2.478 1.829 8000
-0.812 2.359 1.746 1690
-0.852 2.476 1.817 7809
-0.893 2.595 1.900 1624
-0.852 2.474 1.805 8012
-0.893 2.594 1.887 3051
-0.853 2.479 1.798 7659
-0.894 2.598 1.880 3359
-0.853 2.477 1.786 7412
-0.894 2.597 1.867 4411
-0.883 2.564 1.834 6654
-0.841 2.444 1.753 4285
-0.884 2.568 1.826 6198
-0.843 2.448 1.746 3900
-0.886 2.573 1.818 8403
-0.927 2.693 1.899 2796
-0.887 2.578 1.811 10607
-0.929 2.698 1.890 3828
-0.889 2.582 1.803 11892
-0.931 2.703 1.882 4841
-0.891 2.587 1.795 13177
-0.932 2.708 1.874 5854
-0.925 2.687 1.849 11123
-0.883 2.566 1.771 6488
-0.924 2.685 1.837 14065
-0.883 2.564 1.759 3424
-0.928 2.697 1.833 12962
-0.886 2.575 1.755 2717
-0.934 2.714 1.833 12478
-0.888 2.579 1.747 1602
-0.934 2.712 1.821 15633
-0.892 2.590 1.743 1551
-0.935 2.717 1.812 18875
-0.893 2.595 1.736 1589
-0.937 2.722 1.804 20447
-0.895 2.599 1.728 1094
-0.941 2.733 1.800 19019
-0.878 2.552 1.688 738
-0.942 2.737 1.792 14423
-0.878 2.549 1.676 653
-0.946 2.748 1.787 13036
-0.988 2.871 1.863 691
-0.950 2.759 1.783 13772
-0.992 2.883 1.858 837
-0.951 2.764 1.774 12957
-0.994 2.887 1.849 945
-0.953 2.768 1.766 12142
-0.996 2.892 1.840 1054
-0.957 2.779 1.762 9088
-0.999 2.903 1.835 1198
-0.965 2.803 1.765 6861
-1.008 2.927 1.838 1316
-0.964 2.801 1.752 7004
-1.007 2.926 1.825 1490
-0.975 2.832 1.759 5670
-1.018 2.956 1.832 1283
-0.981 2.850 1.758 6105
-1.024 2.974 1.830 1230
-0.985 2.861 1.753 4707
-1.028 2.986 1.825 1216
-1.013 2.944 1.790 3299
-0.970 2.819 1.718 2092
-1.010 2.935 1.773 4276
-1.054 3.061 1.844 2481
-1.021 2.966 1.779 4553
-1.064 3.092 1.850 2598
-1.023 2.971 1.770 4558
-1.066 3.097 1.841 3589
-1.011 2.936 1.739 4056
-1.061 3.081 1.820 3808
-1.060 3.079 1.807 4688
-1.014 2.947 1.734 3945
-1.062 3.084 1.798 5932
-1.018 2.958 1.729 3641
-1.045 3.035 1.759 5842
-1.088 3.162 1.828 2369
-1.044 3.033 1.747 7380
-1.088 3.160 1.815 4143
-1.041 3.024 1.730 8227
-1.085 3.151 1.798 5011
-1.077 3.129 1.774 8749
-1.033 3.002 1.707 6143
-1.083 3.147 1.772 13566
-1.039 3.019 1.705 6546
-1.085 3.151 1.762 16398
-1.041 3.024 1.696 4319
-1.089 3.162 1.756 16536
-1.045 3.035 1.690 3511
-1.090 3.167 1.747 13207
-1.044 3.032 1.677 4435
-1.038 3.016 1.658 8277
-1.092 3.171 1.737 7717
-1.042 3.027 1.652 10949
-1.091 3.169 1.724 6982
-1.044 3.031 1.643 11304
-1.095 3.180 1.718 7996
-1.047 3.042 1.637 9899
-1.099 3.191 1.711 7307
-1.105 3.209 1.708 7749
-1.049 3.046 1.628 6918
-1.111 3.227 1.705 7840
-1.048 3.044 1.615 4734
-1.115 3.238 1.699 7318
-1.049 3.048 1.606 3188
-1.100 3.195 1.666 6041
-1.051 3.052 1.597 2400
-1.101 3.199 1.656 5687
-1.050 3.049 1.584 2851
-1.049 3.046 1.571 4319
-1.105 3.210 1.650 3548
-1.048 3.043 1.559 5687
-1.109 3.221 1.643 3822
-1.047 3.040 1.546 5723
-1.113 3.232 1.637 5598
-1.112 3.229 1.624 5944
-1.046 3.037 1.534 5482
-1.113 3.233 1.614 5112
-1.047 3.041 1.525 5064
-1.315 3.821 1.872 3937
-1.048 3.045 1.516 3702
-1.338 3.887 1.889 4867
-1.050 3.049 1.506 2186
-1.340 3.892 1.877 6238
-1.048 3.046 1.494 1896
-1.339 3.890 1.862 6117
-1.047 3.043 1.482 1856
-1.353 3.929 1.865 4983
-1.398 4.060 1.924 1406
-1.359 3.948 1.859 4969
-1.404 4.079 1.917 1767
-1.389 4.036 1.884 8500
-1.344 3.904 1.826 2218
-1.393 4.047 1.874 8720
-1.446 4.200 1.941 1947
-1.414 4.108 1.886 4803
-1.459 4.239 1.943 1807
-1.420 4.126 1.879 2730
-1.375 3.994 1.823 1966
-1.413 4.103 1.855 3396
-1.463 4.249 1.917 1600
-1.417 4.115 1.845 4171
-1.467 4.261 1.907 3347
-1.473 4.280 1.900 4799
-1.421 4.127 1.836 2757
-1.485 4.313 1.898 4739
-1.439 4.180 1.843 1506
-1.489 4.324 1.888 4134
-1.443 4.192 1.833 1556
-1.483 4.308 1.866 3280
-1.529 4.441 1.920 1770
-1.526 4.432 1.901 3460
-1.480 4.299 1.847 2094
-1.532 4.451 1.893 3418
-1.486 4.318 1.840 2227
-1.498 4.350 1.838 3403
-1.543 4.484 1.890 2059
-1.506 4.376 1.833 3236
-1.552 4.510 1.885 2493
-1.518 4.409 1.830 3716
-1.564 4.543 1.882 2620
-1.551 4.505 1.852 3854
-1.597 4.639 1.903 2702
-1.579 4.587 1.867 3871
-1.526 4.432 1.808 2123
-1.581 4.592 1.853 3693
-1.535 4.458 1.803 1796
-1.582 4.597 1.839 3281
-1.536 4.463 1.789 1590
-1.579 4.587 1.820 3243
-1.672 4.856 1.920 1696
-1.593 4.627 1.819 2888
-1.642 4.769 1.871 2475
-1.651 4.795 1.864 3007
-1.599 4.646 1.810 2412
-1.667 4.842 1.865 3414
-1.611 4.679 1.806 1776
-1.673 4.861 1.855 3693
-1.627 4.726 1.807 1757
-1.680 4.880 1.845 3206
-1.633 4.745 1.798 2109
-1.681 4.884 1.830 2731
-1.733 5.034 1.883 1967
-1.683 4.889 1.815 2411
-1.732 5.031 1.865 2116
-1.719 4.993 1.835 2972
-1.824 5.300 1.940 1806
-1.752 5.091 1.851 4619
-1.706 4.955 1.805 1891
-1.757 5.103 1.838 3782
-1.803 5.238 1.883 1923
-1.802 5.236 1.865 2167
-1.756 5.100 1.820 2073
-1.760 5.112 1.806 1822
-1.806 5.248 1.851 1568
-1.872 5.438 1.896 1654
-1.823 5.295 1.849 1466
-1.874 5.443 1.879 1684
-1.921 5.579 1.923 1378
-1.878 5.455 1.865 2077
-1.925 5.591 1.908 1975
-1.929 5.603 1.893 2591
-1.879 5.460 1.848 1685
-1.931 5.608 1.876 2323
-1.977 5.745 1.919 2107
-1.977 5.742 1.899 2718
-1.917 5.570 1.846 1906
-1.971 5.725 1.875 2960
-2.018 5.862 1.917 1412
-1.975 5.737 1.859 2693
-2.022 5.874 1.901 2330
-2.036 5.915 1.894 2754
-1.982 5.757 1.846 2475
-2.092 6.078 1.922 2451
-2.038 5.920 1.875 1675
-2.109 6.127 1.916 2923
-2.156 6.264 1.956 1304
-2.133 6.197 1.916 3232
-2.046 5.944 1.843 1337
-2.137 6.209 1.900 3696
-2.287 6.642 2.023 1612
-2.139 6.213 1.880 3468
-2.288 6.647 2.003 2435
-2.160 6.276 1.878 2793
-2.233 6.486 1.936 2223
-2.197 6.382 1.886 2924
-2.314 6.723 1.980 2060
-2.358 6.851 1.993 2472
-2.311 6.713 1.956 2316
-2.363 6.863 1.974 3056
-2.315 6.726 1.937 1832
-2.372 6.890 1.959 3340
-2.462 7.152 2.028 1706
-2.374 6.895 1.938 4158
-2.494 7.244 2.029 2733
-2.375 6.900 1.917 4898
-2.493 7.242 2.005 3990
-2.377 6.905 1.896 3369
-2.495 7.247 1.983 2601
-2.381 6.917 1.876 2230
-2.552 7.412 2.001 1311
-2.380 6.915 1.853 2227
-2.511 7.293 1.948 1524
-2.510 7.291 1.924 2041
-2.563 7.444 1.961 1564
-2.564 7.449 1.938 2299
-2.512 7.296 1.901 1416
-2.563 7.447 1.914 1763
-2.792 8.111 2.073 1219
-2.877 8.357 2.105 1296
-2.789 8.102 2.045 941
-2.876 8.356 2.078 1037
-2.823 8.202 2.042 999
-2.949 8.566 2.099 1151
-2.828 8.215 2.019 1027
-2.948 8.564 2.071 1235
-3.024 8.783 2.121 928
-2.947 8.562 2.044 1314
-3.025 8.789 2.094 1278
-3.030 8.801 2.069 962
-2.952 8.574 2.019 789
-3.052 8.865 2.055 746
-3.004 8.726 2.024 381
-3.054 8.871 2.027 530
-3.006 8.731 1.998 275
-3.055 8.876 2.000 353
-3.002 8.722 1.968 285
-2.137 6.207 1.418 401
-2.138 6.211 1.399 548
-2.139 6.214 1.380 684
-2.140 6.218 1.361 761
-2.141 6.221 1.342 709
-2.143 6.224 1.323 572
-2.144 6.227 1.304 440
-2.145 6.231 1.284 334
-0.755 2.205 1.816 3045
-0.757 2.209 1.809 6091
-0.796 2.324 1.898 991
-0.781 2.280 1.854 6339
-0.742 2.165 1.765 1857
-0.774 2.261 1.828 6442
-0.814 2.376 1.917 1311
-0.776 2.266 1.822 6687
-0.816 2.381 1.909 1972
-0.782 2.282 1.824 6081
-0.821 2.398 1.911 1157
-0.788 2.299 1.826 6365
-0.827 2.415 1.913 1205
-0.789 2.304 1.819 6365
-0.829 2.420 1.906 1887
-0.789 2.302 1.808 7047
-0.829 2.419 1.894 2518
-0.790 2.307 1.801 7893
-0.830 2.424 1.887 2692
-0.815 2.379 1.843 8170
-0.775 2.262 1.758 2073
-0.817 2.384 1.836 10526
-0.776 2.267 1.751 1910
-0.820 2.395 1.834 9602
-0.780 2.277 1.749 1622
-0.824 2.406 1.831 9110
-0.784 2.288 1.746 926
-0.826 2.410 1.823 9110
-0.785 2.292 1.739 785
-0.829 2.421 1.821 7668
-0.789 2.303 1.737 892
-0.837 2.445 1.826 6794
-0.797 2.326 1.743 1881
-0.843 2.462 1.828 7014
-0.803 2.343 1.745 1774
-0.849 2.479 1.829 7991
-0.808 2.360 1.746 1529
-0.849 2.477 1.817 7800
-0.889 2.596 1.900 1628
-0.848 2.476 1.805 7771
-0.889 2.595 1.887 3067
-0.850 2.480 1.798 7531
-0.890 2.600 1.880 3386
-0.847 2.472 1.782 7384
-0.888 2.592 1.863 5105
-0.879 2.565 1.834 6525
-0.838 2.445 1.753 4400
-0.880 2.570 1.826 6033
-0.839 2.450 1.746 3989
-0.882 2.574 1.818 8256
-0.841 2.454 1.738 2829
-0.883 2.579 1.811 10480
-0.925 2.700 1.890 3638
-0.885 2.584 1.803 11699
-0.926 2.705 1.882 4621
-0.889 2.595 1.799 12948
-0.930 2.716 1.878 4411
-0.919 2.682 1.845 11080
-0.877 2.561 1.766 5220
-0.920 2.687 1.837 14182
-0.879 2.565 1.759 3170
-0.924 2.698 1.833 12952
-0.882 2.576 1.755 2671
-0.930 2.715 1.833 12342
-0.888 2.594 1.755 1895
-0.930 2.714 1.821 15502
-0.888 2.592 1.743 1674
-0.931 2.718 1.812 18698
-0.889 2.596 1.736 1463
-0.933 2.723 1.804 20183
-0.891 2.600 1.728 981
-0.936 2.734 1.800 18703
-0.874 2.553 1.688 707
-0.938 2.739 1.792 14105
-0.896 2.616 1.716 652
-0.942 2.750 1.787 12811
-0.984 2.873 1.863 679
-0.946 2.761 1.783 13680
-0.988 2.884 1.858 768
-0.947 2.765 1.774 12996
-0.990 2.889 1.849 817
-0.949 2.770 1.766 12313
-0.991 2.894 1.840 866
-0.952 2.781 1.762 9248
-0.995 2.905 1.835 1002
-0.961 2.805 1.765 6746
-1.003 2.929 1.838 1048
-0.960 2.803 1.752 6688
-1.003 2.927 1.825 1176
-0.973 2.840 1.763 5475
-1.015 2.965 1.836 1164
-0.977 2.851 1.758 5768
-1.019 2.976 1.830 1279
-0.980 2.862 1.753 4519
-1.023 2.987 1.825 1303
-1.009 2.946 1.790 3168
-0.966 2.820 1.718 2241
-1.006 2.937 1.773 3981
-1.049 3.062 1.844 2579
-1.017 2.968 1.779 4346
-1.060 3.094 1.850 2737
-1.018 2.972 1.770 4400
-1.061 3.098 1.841 3792
-1.056 3.083 1.820 4017
-1.004 2.930 1.736 3966
-1.058 3.088 1.811 4840
-1.014 2.961 1.741 3956
-1.057 3.086 1.798 6059
-1.014 2.959 1.729 3615
-1.058 3.090 1.788 5679
-1.013 2.957 1.716 3094
-1.042 3.041 1.750 6631
-1.085 3.168 1.818 3901
-1.036 3.026 1.730 7657
-1.080 3.153 1.798 5411
-1.072 3.130 1.774 9319
-1.029 3.003 1.707 5991
-1.078 3.148 1.772 13999
-1.035 3.021 1.705 6738
-1.080 3.153 1.762 16538
-1.036 3.025 1.696 4253
-1.081 3.157 1.753 16361
-1.038 3.030 1.686 2705
-1.085 3.169 1.747 12550
-1.037 3.027 1.674 4102
-1.034 3.018 1.658 8757
-1.087 3.173 1.737 6932
-1.037 3.029 1.652 11866
-1.081 3.157 1.717 5837
-1.039 3.033 1.643 12236
-1.088 3.175 1.714 6125
-1.043 3.044 1.637 10502
-1.096 3.200 1.715 5961
-1.042 3.041 1.624 7220
-1.100 3.211 1.708 6692
-1.106 3.229 1.705 6977
-1.041 3.039 1.612 5208
-1.110 3.240 1.699 6646
-1.045 3.049 1.606 3835
-1.095 3.196 1.666 6495
-1.046 3.053 1.597 3098
-1.096 3.201 1.656 5961
-1.045 3.051 1.584 3320
-1.044 3.048 1.571 4406
-1.098 3.205 1.646 3760
-1.043 3.045 1.559 5592
-1.104 3.223 1.643 4151
-1.108 3.234 1.637 5959
-1.040 3.035 1.543 5703
-1.107 3.231 1.624 6352
-1.041 3.039 1.534 5652
-1.108 3.235 1.614 5423
-1.042 3.043 1.525 5387
-1.044 3.047 1.516 4041
-1.312 3.830 1.875 3953
-1.335 3.896 1.892 4822
-1.045 3.050 1.506 2253
-1.334 3.894 1.877 6157
-1.044 3.047 1.494 1929
-1.333 3.892 1.862 5957
-1.043 3.044 1.482 2102
-1.347 3.931 1.865 4643
-1.044 3.048 1.472 1620
-1.353 3.950 1.859 4531
-1.398 4.081 1.917 1748
-1.383 4.038 1.884 8801
-1.338 3.906 1.826 2088
-1.385 4.043 1.871 8946
-1.430 4.174 1.929 2111
-1.386 4.047 1.859 4871
-1.441 4.207 1.928 2926
-1.386 4.045 1.844 2572
-1.447 4.226 1.921 2013
-1.404 4.099 1.852 3034
-1.456 4.251 1.917 1769
-1.408 4.110 1.843 3737
-1.460 4.263 1.907 3604
-1.467 4.282 1.900 5076
-1.412 4.122 1.833 2425
-1.478 4.315 1.898 4952
-1.433 4.182 1.843 1580
-1.482 4.327 1.888 4267
-1.437 4.194 1.833 1736
-1.477 4.311 1.866 3681
-1.522 4.443 1.920 1578
-1.521 4.441 1.903 3030
-1.476 4.308 1.850 2655
-1.487 4.341 1.848 3097
-1.533 4.474 1.901 2453
-1.489 4.346 1.835 3883
-1.534 4.479 1.887 1949
-1.497 4.371 1.830 3316
-1.545 4.512 1.885 2335
-1.511 4.411 1.830 3827
-1.557 4.545 1.882 2648
-1.546 4.514 1.854 3632
-1.592 4.648 1.906 2421
-1.548 4.519 1.841 3600
-1.606 4.688 1.905 2279
-1.574 4.594 1.853 3466
-1.528 4.460 1.803 1745
-1.575 4.599 1.839 3231
-1.529 4.465 1.789 1476
-1.577 4.604 1.825 3182
-1.664 4.858 1.920 1591
-1.586 4.630 1.819 2838
-1.634 4.771 1.871 2394
-1.643 4.797 1.864 3128
-1.592 4.648 1.810 2342
-1.659 4.844 1.865 3481
-1.601 4.674 1.804 1776
-1.666 4.863 1.855 3665
-1.610 4.700 1.797 1823
-1.672 4.882 1.845 3077
-1.626 4.747 1.798 2103
-1.674 4.887 1.830 2868
-1.720 5.022 1.878 2197
-1.676 4.892 1.815 2655
-1.724 5.034 1.865 2420
-1.741 5.082 1.864 3064
-1.694 4.946 1.818 1933
-1.745 5.093 1.851 4700
-1.698 4.958 1.805 1884
-1.749 5.105 1.838 3817
-1.795 5.241 1.883 1976
-1.750 5.110 1.822 2103
-1.797 5.246 1.867 1997
-1.752 5.115 1.806 1889
-1.857 5.422 1.908 1537
-1.864 5.441 1.896 1692
-1.812 5.291 1.847 1541
-1.865 5.446 1.879 1618
-1.912 5.582 1.923 1541
-1.914 5.587 1.906 2225
-1.867 5.451 1.862 1895
-1.920 5.606 1.893 2620
-1.871 5.463 1.848 1755
-1.922 5.611 1.876 2241
-1.969 5.748 1.919 1986
-1.968 5.745 1.899 2642
-1.909 5.573 1.846 1674
-1.962 5.728 1.875 2836
-2.009 5.865 1.917 1207
-1.966 5.740 1.859 2459
-2.016 5.884 1.903 2254
-2.027 5.918 1.894 2911
-1.973 5.760 1.846 2230
-2.083 6.082 1.922 2351
-2.034 5.937 1.880 1806
-2.102 6.137 1.919 2771
-2.033 5.935 1.859 987
-2.121 6.193 1.914 3168
-2.039 5.954 1.845 1400
-2.125 6.205 1.897 3632
-2.276 6.646 2.023 1386
-2.132 6.224 1.883 3407
-2.276 6.644 2.001 2116
-2.151 6.279 1.878 2681
-2.223 6.489 1.936 2437
-2.187 6.386 1.886 2620
-2.125 6.204 1.836 1899
-2.348 6.855 1.993 2480
-2.301 6.717 1.956 2004
-2.352 6.867 1.974 3333
-2.305 6.729 1.937 1726
-2.361 6.894 1.959 3888
-2.451 7.155 2.028 1786
-2.361 6.892 1.936 4194
-2.483 7.248 2.029 2605
-2.362 6.896 1.915 4104
-2.482 7.246 2.005 3793
-2.366 6.909 1.896 2887
-2.484 7.251 1.983 2527
-2.371 6.921 1.876 2082
-2.538 7.409 2.000 1448
-2.372 6.925 1.855 1876
-2.497 7.290 1.946 1362
-2.499 7.295 1.924 1830
-2.549 7.441 1.959 1610
-2.550 7.446 1.937 2238
-2.780 8.117 2.100 1412
-2.552 7.451 1.914 1718
-2.777 8.108 2.071 1262
-2.864 8.362 2.105 1281
-2.777 8.106 2.045 980
-2.861 8.353 2.076 1135
-2.811 8.206 2.042 962
-2.936 8.570 2.099 1140
-2.815 8.219 2.019 1013
-2.932 8.561 2.070 1178
-3.010 8.788 2.121 900
-3.015 8.801 2.096 1305
-2.934 8.566 2.044 1246
-3.019 8.813 2.071 1111
-2.938 8.579 2.019 770
-3.038 8.870 2.055 818
-2.991 8.731 2.024 387
-3.040 8.875 2.027 566
-2.126 6.207 1.437 434
-3.042 8.880 2.000 335
-2.127 6.210 1.418 589
-2.131 6.221 1.400 720
-2.130 6.217 1.380 859
-2.131 6.221 1.361 1010
-2.132 6.224 1.342 1061
-2.133 6.227 1.323 948
-2.134 6.231 1.304 719
-2.138 6.241 1.286 484
-2.136 6.237 1.265 325
-0.752 2.206 1.816 3036
-0.754 2.210 1.809 6072
-0.793 2.325 1.898 925
-0.778 2.281 1.854 6438
-0.739 2.166 1.765 2059
-0.772 2.262 1.828 6376
-0.811 2.377 1.917 1242
-0.773 2.267 1.822 6613
-0.813 2.382 1.909 1915
-0.777 2.277 1.819 5747
-0.816 2.393 1.907 1560
-0.787 2.306 1.831 5662
-0.826 2.422 1.918 904
-0.788 2.311 1.824 5662
-0.828 2.427 1.911 1445
-0.786 2.303 1.808 6343
-0.825 2.420 1.894 2533
-0.785 2.302 1.796 7195
-0.825 2.419 1.882 3210
-0.812 2.380 1.843 8191
-0.772 2.263 1.758 1902
-0.814 2.385 1.836 10374
-0.774 2.268 1.751 1747
-0.817 2.396 1.834 9264
-0.777 2.278 1.749 1500
-0.821 2.407 1.831 8606
-0.781 2.289 1.746 903
-0.823 2.411 1.823 8606
-0.782 2.293 1.739 791
-0.826 2.422 1.821 7486
-0.786 2.304 1.737 943
-0.834 2.446 1.826 7276
-0.794 2.327 1.743 1942
-0.840 2.463 1.828 7402
-0.800 2.344 1.745 1741
-0.844 2.474 1.825 8240
-0.803 2.355 1.742 1223
-0.845 2.478 1.817 7875
-0.886 2.597 1.900 1640
-0.847 2.483 1.810 7509
-0.888 2.602 1.892 2581
-0.846 2.481 1.798 7326
-0.887 2.601 1.880 3439
-0.846 2.480 1.786 7220
-0.887 2.599 1.867 4497
-0.875 2.566 1.834 6437
-0.834 2.446 1.753 4429
-0.877 2.571 1.826 5909
-0.836 2.451 1.746 3983
-0.879 2.576 1.818 8116
-0.837 2.455 1.738 2843
-0.878 2.574 1.806 10339
-0.919 2.695 1.886 3732
-0.882 2.585 1.803 11459
-0.923 2.706 1.882 4394
-0.885 2.596 1.799 12729
-0.927 2.717 1.878 4168
-0.915 2.683 1.845 11053
-0.874 2.562 1.766 4819
-0.915 2.682 1.833 14305
-0.873 2.560 1.755 2600
-0.921 2.699 1.833 12882
-0.879 2.577 1.755 2499
-0.925 2.710 1.829 12171
-0.883 2.588 1.751 2148
-0.926 2.715 1.821 15248
-0.884 2.593 1.743 1744
-0.928 2.720 1.812 18326
-0.886 2.597 1.736 1341
-0.929 2.724 1.804 19728
-0.887 2.601 1.728 937
-0.933 2.735 1.800 18205
-0.891 2.612 1.724 726
-0.935 2.740 1.792 13637
-0.893 2.617 1.716 716
-0.938 2.751 1.787 12480
-0.980 2.874 1.863 698
-0.942 2.762 1.783 13528
-0.984 2.885 1.858 729
-0.944 2.766 1.774 12944
-0.986 2.890 1.849 743
-0.947 2.777 1.770 12365
-0.905 2.654 1.696 708
-0.949 2.782 1.762 9353
-0.991 2.906 1.835 894
-0.957 2.806 1.765 6641
-1.000 2.930 1.838 832
-0.956 2.804 1.752 6303
-0.999 2.928 1.825 951
-0.971 2.848 1.767 5357
-1.014 2.972 1.839 1093
-0.975 2.859 1.762 5408
-1.018 2.984 1.834 1233
-0.977 2.863 1.753 4284
-1.019 2.988 1.825 1388
-1.007 2.953 1.793 2924
-0.965 2.828 1.722 2428
-1.002 2.938 1.773 3534
-1.045 3.064 1.844 2651
-1.013 2.969 1.779 4003
-1.056 3.095 1.850 2850
-1.051 3.080 1.829 4491
-1.008 2.954 1.759 3363
-1.054 3.091 1.824 4226
-1.000 2.932 1.736 3640
-1.054 3.089 1.811 4982
-1.011 2.963 1.741 3631
-1.053 3.087 1.798 6115
-1.010 2.960 1.729 3527
-1.064 3.118 1.803 5998
-1.020 2.992 1.734 3775
-1.068 3.129 1.797 7046
-1.024 3.003 1.729 4706
-1.062 3.114 1.777 7516
-1.019 2.987 1.709 4047
-1.068 3.132 1.774 9776
-1.025 3.005 1.707 5199
-1.072 3.143 1.768 14438
-1.029 3.016 1.701 5181
-1.076 3.154 1.762 16769
-1.032 3.027 1.696 3352
-1.077 3.159 1.753 16356
-1.032 3.024 1.683 1642
-1.079 3.163 1.743 12080
-1.031 3.022 1.670 3471
-1.030 3.019 1.658 8828
-1.081 3.168 1.734 6630
-1.034 3.030 1.652 12492
-1.077 3.158 1.717 5223
-1.037 3.041 1.646 13012
-1.100 3.224 1.738 4972
-1.039 3.045 1.637 10881
-1.101 3.228 1.728 4968
-1.038 3.043 1.624 7331
-1.093 3.205 1.705 5841
-1.090 3.196 1.689 6503
-1.037 3.040 1.612 5773
-1.092 3.200 1.679 6652
-1.038 3.044 1.602 4613
-1.091 3.198 1.666 6941
-1.040 3.048 1.593 3853
-1.092 3.202 1.656 6171
-1.041 3.052 1.584 3898
-1.040 3.049 1.571 4563
-1.094 3.206 1.646 4099
-1.039 3.046 1.559 5470
-1.097 3.217 1.640 4624
-1.101 3.228 1.633 6462
-1.036 3.036 1.543 5771
-1.103 3.232 1.624 6787
-1.035 3.033 1.531 5870
-1.104 3.236 1.614 5725
-1.038 3.044 1.525 5654
-1.040 3.048 1.516 4296
-1.307 3.831 1.875 4043
-1.330 3.898 1.892 4612
-1.041 3.052 1.506 2364
-1.329 3.896 1.877 5867
-1.038 3.042 1.491 2041
-1.328 3.894 1.862 5676
-1.039 3.045 1.482 2280
-1.342 3.933 1.865 4295
-1.040 3.049 1.472 1876
-1.374 4.028 1.893 4444
-1.329 3.896 1.835 2021
-1.378 4.040 1.884 9066
-1.333 3.908 1.826 1905
-1.380 4.044 1.871 9148
-1.434 4.204 1.941 2166
-1.381 4.049 1.859 5056
-1.436 4.209 1.928 3058
-1.380 4.047 1.844 2799
-1.444 4.235 1.924 2241
-1.399 4.100 1.852 2952
-1.451 4.253 1.917 1957
-1.455 4.265 1.907 3812
-1.403 4.112 1.843 3479
-1.461 4.284 1.900 5270
-1.404 4.117 1.830 2195
-1.473 4.317 1.898 5095
-1.427 4.184 1.843 1676
-1.477 4.329 1.888 4371
-1.431 4.196 1.833 1842
-1.471 4.312 1.866 4032
-1.516 4.445 1.920 1462
-1.475 4.324 1.856 3251
-1.520 4.457 1.909 2492
-1.481 4.343 1.848 3373
-1.527 4.476 1.901 2194
-1.483 4.348 1.835 4135
-1.529 4.481 1.887 1704
-1.489 4.366 1.827 3370
-1.540 4.514 1.885 2203
-1.505 4.413 1.830 3966
-1.551 4.547 1.882 2748
-1.541 4.516 1.854 3413
-1.586 4.650 1.906 2338
-1.545 4.528 1.843 3354
-1.600 4.690 1.905 2125
-1.568 4.596 1.853 3337
-1.522 4.462 1.803 1781
-1.570 4.601 1.839 3145
-1.524 4.467 1.789 1474
-1.574 4.613 1.828 3086
-1.660 4.867 1.922 1637
-1.580 4.632 1.819 2735
-1.628 4.773 1.871 2365
-1.642 4.813 1.869 3276
-1.589 4.658 1.813 2266
-1.653 4.847 1.865 3602
-1.598 4.683 1.806 1893
-1.660 4.866 1.855 3604
-1.604 4.702 1.797 1983
-1.698 4.977 1.878 3092
-1.623 4.757 1.800 2194
-1.668 4.889 1.830 2926
-1.714 5.024 1.878 2346
-1.672 4.901 1.818 2833
-1.718 5.036 1.865 2598
-1.734 5.084 1.864 3108
-1.810 5.305 1.940 1999
-1.738 5.096 1.851 4481
-1.784 5.231 1.897 1918
-1.742 5.107 1.838 3703
-1.789 5.243 1.883 2162
-1.788 5.241 1.865 2091
-1.741 5.105 1.820 2004
-1.745 5.117 1.806 1883
-1.804 5.288 1.863 1704
-1.803 5.286 1.844 1703
-1.857 5.444 1.896 1683
-1.903 5.577 1.921 1628
-1.800 5.276 1.824 1589
-1.907 5.589 1.906 2325
-1.860 5.453 1.862 1958
-1.911 5.601 1.891 2419
-1.864 5.465 1.848 1969
-1.915 5.614 1.876 2025
-1.961 5.750 1.919 1758
-1.961 5.748 1.899 2484
-1.902 5.575 1.846 1494
-1.955 5.731 1.875 2708
-2.002 5.868 1.917 1186
-1.993 5.844 1.890 2303
-1.947 5.707 1.849 1363
-2.022 5.928 1.896 2962
-1.975 5.791 1.855 1779
-2.075 6.084 1.922 2149
-2.029 5.947 1.882 2087
-2.097 6.147 1.921 2618
-2.030 5.952 1.864 1294
-2.113 6.195 1.914 3256
-2.032 5.957 1.845 1533
-2.117 6.207 1.897 3817
-2.164 6.345 1.937 1421
-2.124 6.227 1.883 3539
-2.215 6.494 1.958 2156
-2.215 6.492 1.936 2647
-2.145 6.289 1.880 2579
-2.179 6.388 1.886 2283
-2.295 6.729 1.980 1783
-2.337 6.850 1.991 2349
-2.290 6.712 1.954 1965
-2.343 6.870 1.974 3491
-2.296 6.732 1.937 1804
-2.350 6.890 1.957 4193
-2.439 7.151 2.027 1880
-2.352 6.895 1.936 4046
-2.473 7.251 2.029 2462
-2.354 6.899 1.915 3630
-2.473 7.249 2.005 3555
-2.358 6.912 1.896 2532
-2.474 7.254 1.983 2429
-2.362 6.924 1.876 1908
-2.528 7.412 2.000 1567
-2.363 6.928 1.855 1591
-2.530 7.417 1.977 1434
-2.537 7.437 1.958 1742
-2.489 7.298 1.924 1640
-2.541 7.449 1.937 2187
-2.770 8.121 2.100 1393
-2.540 7.447 1.912 1680
-2.767 8.112 2.071 1322
-2.854 8.365 2.105 1330
-2.766 8.110 2.045 1030
-2.848 8.349 2.075 1250
-2.801 8.210 2.042 896
-2.952 8.654 2.118 1121
-2.845 8.340 2.046 952
-2.922 8.565 2.070 1067
-2.997 8.784 2.120 839
-3.003 8.804 2.096 1274
-2.926 8.577 2.045 1083
-3.010 8.825 2.072 1209
-2.928 8.582 2.019 680
-3.027 8.874 2.055 922
-2.979 8.734 2.024 393
-3.029 8.879 2.027 667
-2.118 6.210 1.437 437
-3.031 8.884 2.000 407
-2.119 6.213 1.418 602
-2.123 6.224 1.400 804
-2.122 6.220 1.380 1016
-2.123 6.223 1.361 1190
-2.124 6.227 1.342 1188
-2.125 6.230 1.323 1030
-2.129 6.241 1.305 829
-2.127 6.237 1.284 624
-2.128 6.240 1.265 411
-0.751 2.206 1.816 3058
-0.752 2.211 1.809 6117
-0.792 2.326 1.898 864
-0.777 2.282 1.854 6445
-0.737 2.167 1.765 2300
-0.770 2.262 1.828 6267
-0.809 2.378 1.917 1183
-0.772 2.267 1.822 6468
-0.811 2.383 1.909 1869
-0.775 2.278 1.819 5409
-0.815 2.394 1.907 1534
-0.802 2.356 1.867 5103
-0.762 2.240 1.780 1450
-0.803 2.361 1.860 5103
-0.764 2.244 1.774 1450
-0.784 2.304 1.808 5682
-0.824 2.421 1.894 2523
-0.784 2.302 1.796 6581
-0.823 2.419 1.882 3202
-0.810 2.381 1.843 8145
-0.770 2.264 1.758 1752
-0.812 2.386 1.836 10189
-0.772 2.268 1.751 1603
-0.816 2.396 1.834 8919
-0.776 2.279 1.749 1375
-0.819 2.407 1.831 8122
-0.779 2.290 1.746 858
-0.821 2.412 1.823 8122
-0.781 2.294 1.739 754
-0.825 2.423 1.821 7280
-0.784 2.305 1.737 916
-0.833 2.446 1.826 7643
-0.792 2.328 1.743 1926
-0.836 2.457 1.823 7760
-0.796 2.338 1.740 1575
-0.842 2.474 1.825 8536
-0.802 2.355 1.742 1139
-0.844 2.479 1.817 7920
-0.884 2.598 1.900 1631
-0.845 2.484 1.810 7305
-0.886 2.603 1.892 2568
-0.847 2.488 1.802 7100
-0.888 2.608 1.884 2783
-0.844 2.480 1.786 7036
-0.885 2.600 1.867 4457
-0.874 2.567 1.834 6333
-0.833 2.447 1.753 4417
-0.875 2.572 1.826 5788
-0.834 2.451 1.746 3944
-0.875 2.570 1.814 7997
-0.916 2.690 1.894 2471
-0.876 2.574 1.806 10215
-0.917 2.695 1.886 3478
-0.880 2.585 1.803 11178
-0.921 2.706 1.882 4109
-0.884 2.596 1.799 12397
-0.925 2.718 1.878 3881
-0.894 2.626 1.808 11150
-0.853 2.505 1.729 864
-0.913 2.682 1.833 14180
-0.872 2.561 1.755 2314
-0.919 2.700 1.833 12648
-0.877 2.578 1.755 2383
-0.923 2.711 1.829 11963
-0.881 2.589 1.751 2405
-0.924 2.716 1.821 14931
-0.883 2.593 1.743 1859
-0.926 2.720 1.812 17900
-0.884 2.598 1.736 1313
-0.930 2.731 1.808 19249
-0.888 2.609 1.732 1179
-0.931 2.736 1.800 17711
-0.889 2.613 1.724 860
-0.933 2.740 1.792 13210
-0.891 2.617 1.716 829
-0.936 2.751 1.787 12124
-0.978 2.875 1.863 719
-0.940 2.763 1.783 13278
-0.982 2.886 1.858 703
-0.944 2.774 1.778 12792
-0.902 2.650 1.704 647
-0.945 2.778 1.770 12327
-0.903 2.654 1.696 717
-0.949 2.789 1.765 9358
-0.991 2.913 1.839 655
-0.960 2.820 1.772 6527
-1.002 2.944 1.846 586
-0.955 2.805 1.752 5901
-0.997 2.929 1.825 858
-0.969 2.848 1.767 5298
-1.012 2.973 1.839 1064
-0.973 2.859 1.762 5116
-1.043 3.063 1.880 1261
-0.975 2.864 1.753 4085
-1.017 2.989 1.825 1428
-1.005 2.954 1.793 2776
-0.963 2.829 1.722 2451
-1.000 2.939 1.773 3219
-1.043 3.064 1.844 2640
-1.013 2.976 1.783 3781
-1.056 3.102 1.854 2492
-1.051 3.087 1.833 4517
-1.008 2.961 1.763 3423
-1.052 3.092 1.824 4320
-0.998 2.932 1.736 3360
-1.052 3.090 1.811 5000
-1.009 2.963 1.741 3398
-1.051 3.088 1.798 6001
-1.008 2.961 1.729 3482
-1.061 3.119 1.803 6128
-1.018 2.992 1.734 3678
-1.065 3.130 1.797 7443
-1.022 3.003 1.729 3966
-1.060 3.115 1.777 7960
-1.017 2.988 1.709 3383
-1.066 3.133 1.774 10113
-1.023 3.005 1.707 4008
-1.070 3.144 1.768 14857
-1.027 3.016 1.701 3937
-1.074 3.155 1.762 17028
-1.030 3.027 1.696 2774
-1.073 3.153 1.749 16649
-1.030 3.025 1.683 1578
-1.077 3.164 1.743 12078
-1.024 3.009 1.663 3365
-1.028 3.020 1.658 8594
-1.078 3.168 1.734 6741
-1.032 3.031 1.652 12670
-1.075 3.159 1.717 4983
-1.035 3.042 1.646 13541
-1.097 3.224 1.738 4702
-1.037 3.046 1.637 11070
-1.099 3.229 1.728 4569
-1.036 3.043 1.624 7204
-1.080 3.172 1.688 5902
-1.083 3.183 1.682 6766
-1.035 3.041 1.612 6107
-1.089 3.201 1.679 7135
-1.036 3.045 1.602 5269
-1.089 3.199 1.666 7259
-1.038 3.049 1.593 4563
-1.090 3.203 1.656 6275
-1.039 3.053 1.584 4475
-1.038 3.050 1.571 4739
-1.089 3.200 1.643 4516
-1.037 3.047 1.559 5260
-1.095 3.218 1.640 5204
-1.099 3.229 1.633 7034
-1.034 3.037 1.543 5747
-1.100 3.233 1.624 7269
-1.033 3.034 1.531 5975
-1.102 3.237 1.614 6062
-1.036 3.045 1.525 5744
-1.038 3.049 1.516 4390
-1.304 3.832 1.875 4210
-1.327 3.899 1.892 4304
-1.039 3.052 1.506 2451
-1.326 3.897 1.877 5460
-1.035 3.042 1.491 2119
-1.326 3.895 1.862 5320
-1.034 3.039 1.479 2322
-1.337 3.927 1.862 3951
-1.040 3.057 1.475 1907
-1.371 4.029 1.893 4371
-1.046 3.074 1.472 1965
-1.375 4.041 1.884 8937
-1.048 3.078 1.463 2000
-1.377 4.045 1.871 9017
-1.422 4.177 1.929 2185
-1.378 4.050 1.859 5129
-1.435 4.217 1.931 3106
-1.380 4.055 1.847 2964
-1.442 4.236 1.924 2446
-1.393 4.094 1.849 2874
-1.448 4.254 1.917 2146
-1.452 4.266 1.907 3985
-1.400 4.113 1.843 3296
-1.456 4.278 1.897 5390
-1.399 4.111 1.827 2074
-1.470 4.318 1.898 5140
-1.424 4.185 1.843 1809
-1.471 4.323 1.885 4502
-1.426 4.190 1.831 1562
-1.468 4.313 1.866 4470
-1.513 4.446 1.920 1326
-1.472 4.325 1.856 3717
-1.517 4.458 1.909 2196
-1.476 4.337 1.845 3624
-1.521 4.470 1.898 2178
-1.480 4.349 1.835 4244
-1.525 4.482 1.887 1592
-1.486 4.367 1.827 3394
-1.539 4.522 1.887 2139
-1.502 4.414 1.830 4247
-1.548 4.548 1.882 2837
-1.540 4.525 1.857 3282
-1.494 4.391 1.806 2150
-1.541 4.529 1.843 3132
-1.597 4.691 1.905 1939
-1.565 4.598 1.853 3231
-1.519 4.463 1.803 1811
-1.569 4.609 1.842 3079
-1.523 4.475 1.792 1537
-1.573 4.621 1.831 2969
-1.657 4.869 1.922 1562
-1.577 4.633 1.819 2708
-1.627 4.781 1.874 2446
-1.639 4.815 1.869 3318
-1.586 4.659 1.813 2402
-1.650 4.848 1.865 3615
-1.594 4.685 1.806 2041
-1.656 4.867 1.855 3503
-1.603 4.710 1.799 2150
-1.694 4.978 1.878 3052
-1.617 4.751 1.798 2228
-1.664 4.890 1.830 2957
-1.710 5.026 1.878 2384
-1.668 4.902 1.818 3072
-1.714 5.037 1.865 2662
-1.731 5.085 1.864 3090
-1.685 4.949 1.818 2134
-1.737 5.104 1.853 4283
-1.691 4.968 1.807 2081
-1.739 5.109 1.838 3591
-1.785 5.244 1.883 2226
-1.784 5.242 1.865 2102
-1.738 5.106 1.820 1931
-1.803 5.297 1.865 1935
-1.742 5.118 1.806 1892
-1.799 5.287 1.844 1849
-1.851 5.438 1.893 1767
-1.796 5.278 1.824 1782
-1.899 5.579 1.921 1698
-1.903 5.591 1.906 2480
-1.856 5.454 1.862 1941
-1.907 5.603 1.891 2450
-1.860 5.466 1.848 2039
-1.908 5.608 1.874 2005
-1.955 5.744 1.917 1732
-1.954 5.742 1.897 2412
-1.898 5.576 1.846 1364
-1.951 5.732 1.875 2678
-1.997 5.869 1.917 1194
-1.989 5.845 1.890 2432
-1.943 5.708 1.849 1269
-2.018 5.929 1.896 2921
-1.971 5.792 1.855 1727
-2.025 5.949 1.882 2177
-2.074 6.093 1.925 2168
-2.093 6.148 1.921 2672
-2.026 5.953 1.864 1412
-2.107 6.189 1.912 3497
-2.025 5.951 1.843 1581
-2.113 6.209 1.897 4093
-2.160 6.346 1.937 1793
-2.120 6.228 1.883 3776
-2.211 6.496 1.958 2143
-2.210 6.494 1.936 2594
-2.153 6.327 1.890 2529
-2.212 6.499 1.916 2116
-2.165 6.361 1.878 2080
-2.332 6.852 1.991 2206
-2.285 6.714 1.954 1645
-2.336 6.864 1.972 3490
-2.289 6.726 1.935 1507
-2.345 6.891 1.957 4325
-2.432 7.146 2.025 2008
-2.345 6.889 1.934 3957
-2.434 7.151 2.003 2366
-2.346 6.894 1.913 3329
-2.468 7.250 2.005 3214
-2.350 6.906 1.894 2324
-2.469 7.256 1.983 2242
-2.523 7.414 2.000 1698
-2.357 6.925 1.876 1569
-2.525 7.419 1.977 1556
-2.448 7.193 1.920 1329
-2.532 7.438 1.958 1881
-2.484 7.300 1.924 1491
-2.536 7.451 1.937 2180
-2.764 8.123 2.100 1342
-2.535 7.448 1.912 1653
-2.761 8.114 2.071 1412
-2.848 8.367 2.105 1243
-2.761 8.111 2.045 1144
-2.845 8.358 2.076 1121
-2.944 8.651 2.144 823
-2.944 8.649 2.116 1210
-2.797 8.217 2.017 810
-2.916 8.567 2.070 978
-2.990 8.786 2.120 799
-2.997 8.807 2.096 1264
-2.917 8.572 2.044 974
-3.004 8.827 2.072 1271
-2.924 8.592 2.020 616
-3.021 8.876 2.055 921
-2.973 8.736 2.024 429
-3.023 8.881 2.027 680
-3.024 8.886 2.000 389
-2.114 6.211 1.437 373
-2.115 6.215 1.418 507
-2.119 6.225 1.400 623
-2.120 6.229 1.381 743
-2.119 6.225 1.361 880
-2.120 6.228 1.342 932
-2.121 6.232 1.323 843
-2.124 6.242 1.305 651
-2.126 6.245 1.286 467
-2.124 6.241 1.265 316
-0.744 2.208 1.816 3106
-0.746 2.213 1.809 6213
-0.785 2.328 1.898 770
-0.770 2.284 1.854 6546
-0.731 2.169 1.765 2847
-0.763 2.265 1.828 6071
-0.802 2.380 1.917 1115
-0.765 2.269 1.822 6116
-0.804 2.385 1.909 1807
-0.767 2.274 1.815 4753
-0.806 2.390 1.902 1974
-0.795 2.358 1.867 5134
-0.756 2.242 1.780 1835
-0.796 2.363 1.860 5134
-0.757 2.246 1.774 1835
-0.798 2.368 1.853 5729
-0.759 2.251 1.767 1609
-0.800 2.372 1.846 6324
-0.760 2.255 1.760 1382
-0.801 2.377 1.839 8145
-0.762 2.260 1.753 1212
-0.805 2.388 1.836 9981
-0.765 2.271 1.751 1425
-0.809 2.399 1.834 8396
-0.769 2.281 1.749 1253
-0.812 2.410 1.831 7326
-0.773 2.292 1.746 874
-0.814 2.414 1.823 7326
-0.774 2.296 1.739 789
-0.820 2.432 1.825 7114
-0.780 2.313 1.741 1272
-0.825 2.449 1.826 8429
-0.785 2.330 1.743 1957
-0.829 2.460 1.823 8794
-0.789 2.341 1.740 1518
-0.833 2.470 1.820 9602
-0.793 2.351 1.738 891
-0.836 2.481 1.817 8265
-0.877 2.601 1.900 1655
-0.840 2.492 1.814 7070
-0.880 2.612 1.896 2176
-0.840 2.491 1.802 6839
-0.880 2.610 1.884 2859
-0.864 2.565 1.842 6996
-0.824 2.445 1.760 4926
-0.866 2.569 1.834 6422
-0.826 2.449 1.753 4428
-0.868 2.574 1.826 5848
-0.827 2.454 1.746 3930
-0.869 2.579 1.818 7877
-0.829 2.458 1.738 2831
-0.871 2.583 1.811 9907
-0.912 2.704 1.890 2787
-0.874 2.594 1.807 10728
-0.915 2.715 1.886 2927
-0.878 2.605 1.803 12128
-0.919 2.727 1.882 2411
-0.886 2.629 1.808 12290
-0.845 2.508 1.729 1020
-0.894 2.653 1.812 14580
-0.853 2.531 1.734 919
-0.909 2.696 1.829 12230
-0.868 2.574 1.751 2034
-0.915 2.714 1.829 11567
-0.874 2.591 1.751 2956
-0.916 2.718 1.821 14364
-0.875 2.596 1.743 2294
-0.918 2.723 1.812 17162
-0.877 2.600 1.736 1632
-0.922 2.734 1.808 18417
-0.880 2.611 1.732 1584
-0.923 2.739 1.800 16794
-0.882 2.616 1.724 1184
-0.925 2.743 1.792 12428
-0.883 2.620 1.716 1031
-0.928 2.754 1.787 11510
-0.887 2.631 1.712 805
-0.934 2.772 1.787 13014
-0.976 2.895 1.862 641
-0.936 2.776 1.778 12524
-0.894 2.652 1.704 620
-0.940 2.787 1.774 12078
-0.898 2.663 1.700 830
-0.945 2.805 1.773 9393
-0.904 2.681 1.700 748
-0.956 2.836 1.780 6772
-0.914 2.711 1.707 582
-0.964 2.860 1.783 6196
-1.010 2.998 1.864 770
-0.963 2.858 1.771 5466
-1.016 3.016 1.862 1189
-0.965 2.862 1.762 4755
-1.034 3.066 1.880 1549
-0.966 2.867 1.753 3833
-1.035 3.071 1.870 1648
-0.999 2.964 1.797 2508
-0.954 2.832 1.722 2434
-1.025 3.041 1.829 2767
-0.951 2.823 1.706 2718
-1.038 3.079 1.839 3442
-0.995 2.953 1.768 2672
-1.042 3.090 1.833 4420
-0.999 2.964 1.763 2985
-1.043 3.095 1.824 4354
-0.987 2.929 1.732 3319
-1.043 3.093 1.811 4784
-1.000 2.966 1.741 3359
-1.040 3.084 1.794 5528
-0.997 2.957 1.725 3295
-1.055 3.129 1.806 6226
-1.012 3.002 1.738 4217
-1.056 3.133 1.797 8249
-1.013 3.006 1.729 4030
-1.051 3.118 1.777 9121
-1.008 2.991 1.709 2679
-1.057 3.136 1.774 11086
-1.014 3.008 1.707 3289
-1.061 3.147 1.768 15938
-1.018 3.019 1.701 3364
-1.062 3.151 1.759 18450
-1.019 3.024 1.692 2455
-1.062 3.149 1.746 18229
-1.012 3.001 1.669 2084
-1.063 3.154 1.736 13264
-1.013 3.005 1.660 3475
-1.064 3.158 1.727 7752
-1.017 3.016 1.654 7726
-1.023 3.034 1.652 11606
-1.066 3.162 1.717 5618
-1.026 3.045 1.646 12874
-1.086 3.221 1.735 5305
-1.028 3.049 1.637 10331
-1.085 3.218 1.722 4690
-1.027 3.046 1.624 6665
-1.070 3.175 1.688 6327
-1.074 3.186 1.682 7729
-1.024 3.037 1.608 6882
-1.078 3.197 1.676 8173
-1.025 3.041 1.599 6582
-1.079 3.202 1.666 7849
-1.026 3.045 1.590 6008
-1.078 3.199 1.653 6472
-1.028 3.049 1.581 5678
-1.077 3.196 1.640 5624
-1.029 3.053 1.571 5099
-1.086 3.221 1.640 6583
-1.026 3.043 1.556 4623
-1.089 3.232 1.633 8411
-1.022 3.033 1.540 5462
-1.091 3.236 1.624 8426
-1.024 3.037 1.531 5928
-1.092 3.240 1.614 6765
-1.027 3.048 1.525 5703
-1.295 3.843 1.878 4902
-1.029 3.052 1.516 4456
-1.295 3.841 1.864 3769
-1.030 3.056 1.506 2643
-1.315 3.901 1.877 4400
-1.029 3.052 1.494 2338
-1.316 3.906 1.865 4491
-1.361 4.037 1.924 2277
-1.323 3.924 1.859 3477
-1.146 3.399 1.626 2311
-1.362 4.040 1.896 4299
-1.147 3.403 1.616 2255
-1.363 4.045 1.884 8579
-1.036 3.074 1.460 2039
-1.365 4.049 1.871 8550
-1.409 4.181 1.929 2193
-1.367 4.054 1.859 5029
-1.423 4.221 1.931 3066
-1.368 4.059 1.847 3206
-1.429 4.240 1.924 2739
-1.374 4.077 1.840 2987
-1.435 4.259 1.917 2533
-1.439 4.270 1.907 4449
-1.385 4.110 1.840 2820
-1.443 4.282 1.897 5754
-1.387 4.115 1.827 1874
-1.457 4.322 1.898 5231
-1.412 4.189 1.843 2155
-1.459 4.327 1.885 4907
-1.414 4.194 1.831 1750
-1.455 4.318 1.866 5244
-1.500 4.451 1.920 1252
-1.459 4.329 1.856 4334
-1.504 4.463 1.909 1957
-1.463 4.341 1.845 3806
-1.508 4.475 1.898 2054
-1.467 4.353 1.835 4268
-1.512 4.487 1.887 1630
-1.483 4.400 1.838 3541
-1.528 4.534 1.890 2045
-1.489 4.419 1.830 4761
-1.535 4.552 1.882 3055
-1.534 4.550 1.865 3479
-1.489 4.416 1.814 3361
-1.533 4.548 1.849 3136
-1.488 4.414 1.798 1715
-1.551 4.602 1.853 2949
-1.501 4.454 1.798 1802
-1.560 4.628 1.847 3073
-1.515 4.494 1.797 1561
-1.564 4.640 1.836 2755
-1.643 4.873 1.922 1514
-1.613 4.786 1.874 2459
-1.568 4.652 1.824 2347
-1.625 4.819 1.869 3667
-1.577 4.677 1.818 2697
-1.633 4.845 1.862 3825
-1.583 4.696 1.809 2401
-1.642 4.872 1.855 3514
-1.597 4.736 1.807 2398
-1.680 4.983 1.878 3427
-1.601 4.748 1.795 2319
-1.684 4.995 1.865 3356
-1.729 5.130 1.912 2234
-1.654 4.907 1.818 3314
-1.726 5.121 1.892 2993
-1.716 5.090 1.864 3217
-1.670 4.954 1.818 2398
-1.722 5.109 1.853 3857
-1.768 5.245 1.899 2145
-1.721 5.107 1.835 3261
-1.767 5.242 1.881 2815
-1.769 5.247 1.865 2474
-1.720 5.104 1.817 1877
-1.792 5.316 1.870 2446
-1.727 5.123 1.806 1749
-1.786 5.300 1.847 2131
-1.832 5.436 1.891 1920
-1.781 5.283 1.824 2187
-1.827 5.419 1.868 1909
-1.889 5.604 1.908 2379
-1.843 5.467 1.865 1998
-1.888 5.601 1.889 2237
-1.842 5.465 1.846 2192
-1.844 5.469 1.829 1932
-1.890 5.606 1.872 1754
-1.937 5.748 1.897 2265
-1.984 5.884 1.939 1287
-1.937 5.745 1.877 2525
-1.983 5.882 1.919 1663
-1.972 5.851 1.890 2846
-2.045 6.067 1.955 1194
-2.003 5.942 1.898 3056
-2.049 6.080 1.939 1804
-2.007 5.954 1.882 2462
-2.053 6.092 1.922 1921
-2.077 6.162 1.923 2701
-2.004 5.945 1.859 1346
-2.084 6.181 1.908 3865
-2.130 6.319 1.948 1987
-2.092 6.208 1.895 4717
-2.139 6.345 1.935 2781
-2.101 6.234 1.883 4153
-2.192 6.502 1.958 2005
-2.137 6.341 1.892 2896
-2.191 6.500 1.936 2570
-2.190 6.498 1.914 2355
-2.139 6.345 1.872 2245
-2.312 6.859 1.991 1876
-2.190 6.496 1.892 1640
-2.314 6.864 1.970 3119
-2.267 6.726 1.933 1223
-2.320 6.883 1.953 3326
-2.409 7.145 2.023 2156
-2.324 6.896 1.934 2646
-2.410 7.151 2.001 2640
-2.414 7.163 1.981 2758
-2.319 6.879 1.907 2412
-2.419 7.175 1.961 2346
-2.320 6.884 1.886 1927
-2.501 7.421 2.000 1717
-2.423 7.188 1.941 1697
-2.503 7.426 1.977 1541
-2.424 7.193 1.919 1499
-2.510 7.446 1.958 1857
-2.461 7.300 1.922 1166
-2.512 7.451 1.935 2098
-2.741 8.131 2.100 1185
-2.513 7.456 1.912 1620
-2.738 8.122 2.071 1342
-2.821 8.368 2.104 1328
-2.737 8.120 2.045 1141
-2.820 8.367 2.076 1292
-2.919 8.660 2.144 989
-2.911 8.636 2.111 1348
-2.773 8.225 2.017 729
-2.960 8.781 2.116 936
-2.893 8.582 2.071 783
-2.971 8.815 2.096 1227
-2.892 8.580 2.044 721
-2.981 8.843 2.074 1378
-2.934 8.703 2.043 578
-2.995 8.885 2.055 1066
-2.948 8.745 2.024 452
-2.997 8.890 2.027 792
-2.998 8.895 2.000 485
-2.099 6.228 1.419 295
-3.000 8.900 1.973 268
-2.101 6.232 1.400 382
-2.099 6.228 1.380 466
-2.100 6.231 1.361 530
-2.104 6.242 1.343 533
-2.105 6.245 1.324 487
-2.106 6.248 1.305 393
-0.741 2.209 1.816 3012
-0.743 2.214 1.809 6024
-0.781 2.329 1.898 724
-0.767 2.285 1.854 6382
-0.728 2.170 1.765 3027
-0.760 2.266 1.828 5802
-0.721 2.150 1.740 1154
-0.760 2.264 1.817 5813
-0.798 2.380 1.905 2128
-0.763 2.275 1.815 4392
-0.802 2.391 1.902 1894
-0.791 2.359 1.867 4931
-0.752 2.243 1.780 1946
-0.793 2.364 1.860 4931
-0.754 2.248 1.774 1946
-0.795 2.369 1.853 5563
-0.755 2.252 1.767 1617
-0.796 2.374 1.846 6195
-0.757 2.257 1.760 1287
-0.798 2.378 1.839 7886
-0.758 2.261 1.753 1121
-0.799 2.383 1.832 9577
-0.760 2.265 1.746 955
-0.805 2.400 1.834 7906
-0.766 2.282 1.749 1171
-0.809 2.411 1.831 6759
-0.769 2.293 1.746 855
-0.810 2.416 1.823 6759
-0.771 2.297 1.739 769
-0.818 2.439 1.829 6889
-0.778 2.321 1.746 1694
-0.822 2.450 1.826 8455
-0.782 2.331 1.743 1868
-0.825 2.461 1.823 8950
-0.786 2.342 1.740 1419
-0.829 2.472 1.820 9848
-0.869 2.591 1.903 820
-0.833 2.483 1.817 8195
-0.873 2.602 1.900 1608
-0.836 2.494 1.814 6773
-0.877 2.613 1.896 2128
-0.836 2.492 1.802 6509
-0.876 2.612 1.884 2815
-0.861 2.566 1.842 6886
-0.820 2.446 1.760 4713
-0.862 2.571 1.834 6342
-0.822 2.450 1.753 4245
-0.864 2.575 1.826 5798
-0.823 2.455 1.746 3777
-0.865 2.580 1.818 7636
-0.825 2.459 1.738 2745
-0.867 2.585 1.811 9474
-0.908 2.706 1.890 2501
-0.871 2.596 1.807 10293
-0.911 2.717 1.886 2625
-0.877 2.613 1.807 11709
-0.917 2.734 1.886 1414
-0.882 2.630 1.808 12353
-0.842 2.509 1.729 1031
-0.888 2.648 1.808 14600
-0.847 2.526 1.730 773
-0.905 2.697 1.829 11601
-0.864 2.575 1.751 2078
-0.911 2.715 1.829 10959
-0.870 2.593 1.751 3215
-0.912 2.720 1.821 13675
-0.871 2.597 1.743 2518
-0.914 2.724 1.812 16391
-0.873 2.602 1.736 1822
-0.918 2.735 1.808 17591
-0.876 2.612 1.732 1758
-0.919 2.740 1.800 15977
-0.878 2.617 1.724 1299
-0.921 2.744 1.792 11773
-0.879 2.621 1.716 1126
-0.924 2.756 1.787 10946
-0.883 2.632 1.712 858
-0.930 2.773 1.787 12552
-0.974 2.903 1.866 640
-0.932 2.778 1.778 12031
-0.890 2.654 1.704 586
-0.935 2.789 1.774 11656
-0.894 2.665 1.700 779
-0.941 2.806 1.773 9163
-0.900 2.682 1.700 698
-0.954 2.844 1.784 6845
-0.912 2.719 1.711 637
-0.960 2.861 1.783 6479
-1.006 2.999 1.864 814
-0.961 2.866 1.774 5516
-1.012 3.017 1.862 1225
-0.961 2.864 1.762 4608
-1.029 3.068 1.880 1600
-0.962 2.868 1.753 3721
-1.031 3.073 1.870 1675
-0.950 2.833 1.722 2356
-0.995 2.965 1.797 2337
-1.021 3.043 1.829 2699
-0.947 2.824 1.706 2609
-1.033 3.080 1.839 3295
-0.991 2.954 1.768 2353
-1.037 3.092 1.833 4219
-0.995 2.966 1.763 2731
-1.039 3.096 1.824 4204
-0.981 2.923 1.728 3438
-1.038 3.094 1.811 4479
-0.996 2.968 1.741 3295
-1.035 3.086 1.794 5102
-0.993 2.959 1.725 3180
-1.050 3.130 1.806 6066
-1.007 3.003 1.738 4367
-1.049 3.128 1.793 8416
-1.007 3.001 1.725 3877
-1.046 3.119 1.777 9473
-1.004 2.992 1.709 2598
-1.052 3.137 1.774 11227
-1.010 3.010 1.707 3758
-1.056 3.148 1.768 15857
-1.013 3.021 1.701 4079
-1.058 3.153 1.759 18541
-1.015 3.025 1.692 2910
-1.057 3.151 1.746 18658
-1.009 3.009 1.672 2376
-1.058 3.155 1.736 13862
-1.009 3.007 1.660 3427
-1.060 3.160 1.727 8533
-1.012 3.018 1.654 6984
-1.018 3.035 1.652 10053
-1.061 3.164 1.717 6299
-1.022 3.046 1.646 11087
-1.081 3.222 1.735 5728
-1.023 3.050 1.637 8906
-1.078 3.213 1.718 4905
-1.063 3.170 1.685 6599
-1.020 3.041 1.621 6135
-1.067 3.181 1.679 7901
-1.019 3.038 1.608 7037
-1.073 3.199 1.676 8293
-1.021 3.042 1.599 6973
-1.075 3.203 1.666 7875
-1.022 3.046 1.590 6455
-1.074 3.201 1.653 6469
-1.023 3.050 1.581 5974
-1.073 3.198 1.640 5939
-1.025 3.054 1.571 4987
-1.081 3.223 1.640 6878
-1.021 3.045 1.556 4114
-1.085 3.234 1.633 8623
-1.018 3.035 1.540 5079
-1.086 3.238 1.624 8535
-1.019 3.039 1.531 5584
-1.087 3.242 1.614 6685
-1.023 3.049 1.525 5391
-1.290 3.845 1.878 5222
-1.024 3.053 1.516 4272
-1.289 3.843 1.864 3978
-1.025 3.057 1.506 2496
-1.309 3.903 1.877 3692
-1.022 3.047 1.491 2205
-1.311 3.907 1.865 3936
-1.355 4.039 1.924 2323
-1.317 3.926 1.859 3238
-1.141 3.400 1.626 2288
-1.356 4.042 1.896 4027
-1.142 3.404 1.616 2196
-1.357 4.047 1.884 7907
-1.143 3.408 1.605 1707
-1.359 4.051 1.871 7766
-1.403 4.183 1.929 2113
-1.361 4.056 1.859 4628
-1.417 4.223 1.931 2892
-1.362 4.061 1.847 3010
-1.423 4.242 1.924 2743
-1.371 4.086 1.843 2743
-1.429 4.261 1.917 2621
-1.433 4.273 1.907 4510
-1.379 4.112 1.840 2486
-1.437 4.284 1.897 5706
-1.372 4.089 1.815 1915
-1.451 4.324 1.898 5174
-1.406 4.191 1.843 2193
-1.452 4.329 1.885 4985
-1.408 4.196 1.831 1762
-1.449 4.320 1.866 5374
-1.153 3.437 1.509 1298
-1.453 4.332 1.856 4452
-1.498 4.465 1.909 1890
-1.457 4.343 1.845 3754
-1.502 4.477 1.898 1998
-1.459 4.348 1.832 4132
-1.503 4.482 1.885 1785
-1.477 4.402 1.838 3567
-1.522 4.536 1.890 2025
-1.483 4.421 1.830 4831
-1.528 4.555 1.882 3099
-1.527 4.552 1.865 3611
-1.482 4.418 1.814 3365
-1.529 4.557 1.851 3153
-1.484 4.423 1.800 1950
-1.542 4.597 1.851 2754
-1.495 4.456 1.798 1736
-1.553 4.630 1.847 2859
-1.508 4.496 1.797 1484
-1.560 4.649 1.838 2620
-1.636 4.876 1.922 1487
-1.575 4.696 1.840 2508
-1.621 4.831 1.889 1782
-1.620 4.829 1.872 3677
-1.567 4.673 1.815 2799
-1.626 4.848 1.862 3795
-1.576 4.699 1.809 2459
-1.635 4.874 1.855 3354
-1.590 4.739 1.807 2390
-1.675 4.993 1.880 3268
-1.594 4.750 1.795 2235
-1.679 5.004 1.868 3265
-1.724 5.140 1.915 2203
-1.649 4.917 1.820 3346
-1.719 5.123 1.892 3161
-1.708 5.092 1.864 3153
-1.658 4.943 1.813 2474
-1.712 5.104 1.851 3658
-1.758 5.240 1.897 2480
-1.714 5.109 1.835 3114
-1.759 5.245 1.881 2970
-1.761 5.250 1.865 2549
-1.713 5.107 1.817 1748
-1.784 5.319 1.870 2589
-1.722 5.133 1.809 1609
-1.779 5.302 1.847 2187
-1.824 5.439 1.891 1819
-1.773 5.285 1.824 2238
-1.819 5.422 1.868 1760
-1.881 5.606 1.908 2256
-1.835 5.470 1.865 1940
-1.836 5.474 1.848 2216
-1.882 5.611 1.891 2033
-1.838 5.479 1.831 1970
-1.884 5.616 1.874 1589
-1.931 5.758 1.899 2208
-1.977 5.895 1.941 1277
-1.931 5.755 1.879 2464
-1.977 5.892 1.921 1585
-1.964 5.854 1.890 2772
-2.036 6.070 1.955 1351
-1.994 5.945 1.898 3005
-2.040 6.083 1.939 1909
-1.998 5.957 1.882 2392
-2.044 6.095 1.922 1823
-2.068 6.165 1.923 2719
-2.114 6.302 1.963 1465
-2.074 6.184 1.908 4068
-2.121 6.322 1.948 2134
-2.081 6.204 1.893 4553
-2.127 6.341 1.933 3296
-2.122 6.324 1.907 4050
-2.075 6.187 1.868 3153
-2.128 6.344 1.892 2983
-2.082 6.206 1.853 2540
-2.125 6.334 1.868 2395
-2.181 6.501 1.914 2277
-2.134 6.361 1.855 1735
-2.302 6.862 1.991 1650
-2.304 6.867 1.970 2819
-2.394 7.136 2.043 1204
-2.310 6.887 1.953 2896
-2.398 7.149 2.023 2198
-2.400 7.154 2.001 2698
-2.297 6.848 1.921 2252
-2.404 7.166 1.981 2798
-2.306 6.875 1.905 2388
-2.408 7.179 1.961 2411
-2.310 6.887 1.886 1831
-2.412 7.191 1.941 1746
-2.491 7.425 2.000 1683
-2.414 7.196 1.919 1502
-2.492 7.430 1.977 1495
-2.499 7.450 1.958 1764
-2.450 7.303 1.922 1065
-2.501 7.455 1.935 1966
-2.729 8.135 2.100 1094
-2.502 7.459 1.912 1523
-2.726 8.126 2.071 1309
-2.804 8.358 2.100 1196
-2.728 8.131 2.047 1165
-2.805 8.363 2.075 1251
-2.906 8.664 2.144 1085
-2.901 8.647 2.113 1439
-2.795 8.332 2.041 967
-2.797 8.337 2.015 1009
-2.947 8.785 2.116 980
-2.959 8.820 2.096 1162
-2.801 8.350 1.991 755
-2.968 8.847 2.074 1347
-2.921 8.707 2.043 614
-2.982 8.889 2.055 987
-2.933 8.742 2.023 469
-2.984 8.894 2.027 699
-2.985 8.900 2.000 450
-2.987 8.905 1.973 284
-2.093 6.238 1.381 323
-2.091 6.234 1.361 400
-2.092 6.238 1.342 405
-2.096 6.248 1.324 360
-2.097 6.252 1.305 302
-0.737 2.211 1.816 3126
-0.736 2.209 1.805 6253
-0.774 2.325 1.893 937
-0.762 2.287 1.854 6428
-0.723 2.172 1.765 3631
-0.764 2.292 1.847 5655
-0.725 2.176 1.759 2455
-0.755 2.266 1.817 5530
-0.794 2.382 1.905 2088
-0.781 2.344 1.865 4111
-0.742 2.228 1.778 2349
-0.787 2.361 1.867 4895
-0.748 2.245 1.780 2255
-0.788 2.366 1.860 4895
-0.749 2.249 1.774 2255
-0.790 2.370 1.853 5602
-0.751 2.254 1.767 1764
-0.785 2.357 1.833 6333
-0.746 2.240 1.747 760
-0.793 2.380 1.839 7932
-0.754 2.263 1.753 1109
-0.794 2.385 1.832 9553
-0.755 2.267 1.746 945
-0.800 2.402 1.834 7636
-0.761 2.284 1.749 1172
-0.804 2.413 1.831 6293
-0.764 2.295 1.746 907
-0.805 2.417 1.823 6293
-0.766 2.299 1.739 798
-0.813 2.441 1.829 7002
-0.774 2.322 1.746 1703
-0.817 2.452 1.826 8967
-0.777 2.333 1.743 1824
-0.820 2.462 1.823 9748
-0.781 2.344 1.740 1345
-0.824 2.473 1.820 10926
-0.864 2.593 1.903 823
-0.826 2.478 1.813 8811
-0.865 2.597 1.895 1954
-0.829 2.489 1.810 6797
-0.869 2.609 1.892 2624
-0.831 2.494 1.802 6417
-0.871 2.613 1.884 2876
-0.855 2.568 1.842 7049
-0.815 2.448 1.760 4666
-0.857 2.572 1.834 6571
-0.817 2.452 1.753 4204
-0.863 2.590 1.835 6125
-0.823 2.469 1.754 4428
-0.860 2.582 1.818 7641
