-3.011 4.939 1.635 2514
-3.149 5.165 1.685 4004
-3.144 5.156 1.664 4737
-3.122 5.121 1.635 3584
-3.124 5.124 1.617 2431
-3.238 5.312 1.653 2731
-3.237 5.309 1.633 3331
-3.383 5.549 1.681 2739
-3.374 5.533 1.657 2062
-3.388 5.557 1.643 1888
-3.406 5.587 1.632 2183
-3.573 5.861 1.684 2293
-3.576 5.865 1.665 3124
-3.586 5.882 1.648 3723
-3.612 5.925 1.638 2666
-3.816 6.259 1.701 2178
-3.819 6.263 1.680 3497
-3.821 6.267 1.659 4546
-3.819 6.264 1.636 2818
-3.910 6.413 1.649 1653
-4.062 6.662 1.684 1772
-4.068 6.673 1.663 1944
-4.103 6.730 1.653 1526
-4.105 6.734 1.630 1744
-4.452 7.302 1.731 1810
-4.454 7.306 1.706 1881
-4.493 7.370 1.694 2268
-4.500 7.380 1.670 1850
-4.725 7.750 1.720 2960
-4.728 7.754 1.694 5384
-4.730 7.758 1.667 6155
-4.732 7.762 1.641 4471
-4.739 7.772 1.616 3046
-4.745 7.782 1.591 1959
-4.922 8.073 1.617 1436
-4.924 8.077 1.590 1038
-4.780 7.840 1.520 1011
-4.737 7.770 1.480 926
-4.751 7.793 1.457 982
-4.749 7.789 1.430 675
-4.743 7.779 1.401 266
-1.179 1.936 1.769 3613
-1.182 1.940 1.763 7226
-1.184 1.944 1.756 7226
-1.187 1.948 1.750 6497
-1.189 1.952 1.743 5769
-1.195 1.961 1.741 4403
-1.244 2.043 1.799 6102
-1.247 2.047 1.792 6102
-1.246 2.045 1.781 6415
-1.248 2.049 1.774 6793
-1.244 2.042 1.758 5313
-1.243 2.041 1.746 4214
-1.266 2.078 1.766 6670
-1.272 2.088 1.764 9824
-1.278 2.098 1.761 10402
-1.280 2.102 1.754 11196
-1.283 2.106 1.747 11225
-1.282 2.104 1.736 9461
-1.287 2.114 1.733 7752
-1.290 2.118 1.726 6494
-1.296 2.127 1.723 5261
-1.295 2.125 1.712 7039
-1.297 2.129 1.705 8843
-1.303 2.139 1.702 8156
-1.309 2.149 1.699 7951
-1.318 2.164 1.700 6714
-1.327 2.179 1.701 6204
-1.330 2.183 1.694 4635
-1.360 2.233 1.720 4370
-1.387 2.277 1.742 4891
-1.393 2.287 1.738 6005
-1.396 2.291 1.730 5336
-1.398 2.295 1.723 4667
-1.404 2.305 1.719 4374
-1.413 2.320 1.719 3874
-1.423 2.336 1.720 5145
-1.432 2.351 1.720 6532
-1.442 2.367 1.720 6362
-1.462 2.400 1.732 4737
-1.475 2.422 1.736 4155
-1.474 2.420 1.724 4809
-1.476 2.424 1.715 5469
-1.479 2.428 1.707 5096
-1.496 2.455 1.715 4369
-1.509 2.477 1.718 4981
-1.508 2.475 1.706 4359
-1.510 2.479 1.697 3862
-1.563 2.566 1.742 4577
-1.565 2.570 1.733 5501
-1.568 2.574 1.725 5031
-1.574 2.584 1.720 5252
-1.580 2.594 1.715 5586
-1.553 2.550 1.677 6345
-1.596 2.619 1.708 6299
-1.609 2.641 1.710 7632
-1.611 2.645 1.702 7813
-1.614 2.649 1.693 8784
-1.616 2.653 1.684 7787
-1.626 2.669 1.682 6007
-1.628 2.673 1.673 5952
-1.664 2.731 1.696 8400
-1.666 2.735 1.686 10691
-1.672 2.745 1.681 9301
-1.685 2.767 1.682 9330
-1.699 2.789 1.683 9198
-1.712 2.811 1.684 8912
-1.722 2.827 1.681 8596
-1.725 2.831 1.671 7563
-1.731 2.841 1.665 7229
-1.737 2.851 1.659 8014
-1.739 2.855 1.649 6752
-1.749 2.871 1.646 5021
-1.811 2.973 1.689 6992
-1.810 2.971 1.676 10129
-1.808 2.968 1.662 11015
-1.811 2.972 1.652 8050
-1.809 2.970 1.639 3560
-1.925 3.160 1.724 5161
-1.931 3.170 1.716 4574
-1.945 3.192 1.715 5186
-1.947 3.196 1.704 7679
-1.949 3.200 1.693 9218
-1.952 3.204 1.683 8653
-1.954 3.208 1.672 6721
-1.964 3.224 1.667 7262
-1.970 3.234 1.659 6323
-2.011 3.301 1.678 3936
-2.009 3.298 1.664 5482
-2.011 3.302 1.653 5149
-2.071 3.400 1.685 4900
-2.097 3.442 1.691 4008
-2.114 3.471 1.691 4901
-2.120 3.481 1.682 5141
-2.103 3.453 1.656 4204
-2.179 3.577 1.697 4545
-2.185 3.587 1.688 5576
-2.141 3.515 1.643 5569
-2.144 3.519 1.631 5315
-2.142 3.516 1.616 4590
-2.287 3.755 1.704 5378
-2.298 3.772 1.696 5362
-2.304 3.782 1.686 5475
-2.306 3.786 1.674 5447
-2.336 3.834 1.679 5086
-2.404 3.947 1.710 4345
-2.411 3.957 1.699 4228
-2.417 3.968 1.688 5520
-2.419 3.971 1.675 5227
-2.445 4.014 1.676 3299
-2.451 4.024 1.665 2998
-2.485 4.079 1.671 3488
-2.487 4.083 1.657 4696
-2.493 4.093 1.646 4311
-2.496 4.097 1.632 3845
-2.584 4.243 1.670 4005
-2.583 4.240 1.653 2586
-2.636 4.328 1.669 2998
-2.635 4.325 1.652 3230
-2.684 4.407 1.665 3665
-2.691 4.417 1.652 3309
-2.756 4.525 1.672 3407
-2.766 4.541 1.662 3641
-2.773 4.552 1.648 4458
-2.779 4.562 1.635 3317
-2.900 4.761 1.684 3923
-2.902 4.765 1.667 4433
-2.936 4.821 1.668 3930
-2.943 4.831 1.654 9599
-2.945 4.835 1.637 8392
-2.999 4.923 1.647 3023
-2.973 4.881 1.617 2621
-3.147 5.167 1.685 4039
-3.142 5.157 1.664 4849
-3.120 5.122 1.635 3549
-3.126 5.132 1.619 2417
-3.236 5.313 1.653 2684
-3.235 5.310 1.633 3355
-3.381 5.551 1.681 2642
-3.371 5.535 1.657 1930
-3.386 5.558 1.643 1814
-3.408 5.595 1.633 2113
-3.575 5.869 1.686 2392
-3.573 5.866 1.665 3168
-3.584 5.883 1.648 3696
-3.610 5.926 1.638 2700
-3.814 6.261 1.701 2258
-3.816 6.265 1.680 3593
-3.818 6.268 1.659 4570
-3.817 6.266 1.636 2798
-3.908 6.415 1.649 1605
-4.063 6.671 1.686 1768
-4.066 6.675 1.663 1979
-4.096 6.725 1.651 1557
-4.103 6.735 1.630 1777
-4.445 7.297 1.729 1815
-4.451 7.308 1.706 1846
-4.490 7.371 1.694 2222
-4.497 7.382 1.670 1840
-4.722 7.752 1.720 2979
-4.724 7.756 1.694 5404
-4.727 7.760 1.667 6223
-4.729 7.764 1.641 4538
-4.731 7.767 1.615 3060
-4.738 7.778 1.590 1937
-4.919 8.075 1.617 1519
-4.921 8.079 1.590 1094
-4.777 7.842 1.520 974
-4.734 7.771 1.480 970
-4.744 7.788 1.456 1032
-4.746 7.791 1.430 715
-4.740 7.781 1.401 287
-1.178 1.936 1.769 3585
-1.181 1.940 1.763 7171
-1.183 1.945 1.756 7171
-1.185 1.949 1.750 6439
-1.188 1.953 1.743 5708
-1.194 1.962 1.741 4342
-1.243 2.043 1.799 6120
-1.246 2.047 1.792 6120
-1.245 2.046 1.781 6402
-1.247 2.050 1.774 6767
-1.243 2.043 1.758 5227
-1.242 2.041 1.746 4114
-1.268 2.085 1.771 6544
-1.271 2.089 1.764 9623
-1.277 2.098 1.761 10185
-1.279 2.102 1.754 10917
-1.281 2.106 1.747 10925
-1.280 2.105 1.736 9097
-1.286 2.114 1.733 7313
-1.289 2.118 1.726 6134
-1.312 2.156 1.745 5142
-1.293 2.126 1.712 6753
-1.296 2.130 1.705 8551
-1.302 2.140 1.702 7857
-1.308 2.149 1.699 7586
-1.320 2.170 1.705 6298
-1.326 2.180 1.701 5776
-1.329 2.184 1.694 4369
-1.359 2.234 1.720 4375
-1.386 2.278 1.742 4849
-1.392 2.288 1.738 5947
-1.394 2.292 1.730 5192
-1.400 2.302 1.727 4485
-1.403 2.305 1.719 4193
-1.412 2.321 1.719 3870
-1.425 2.342 1.724 5183
-1.431 2.352 1.720 6518
-1.437 2.362 1.716 6340
-1.461 2.401 1.732 4574
-1.470 2.417 1.732 3962
-1.473 2.421 1.724 4598
-1.475 2.425 1.715 5234
-1.477 2.429 1.707 4911
-1.494 2.456 1.715 4240
-1.507 2.478 1.718 4890
-1.506 2.476 1.706 4335
-1.505 2.474 1.694 3935
-1.558 2.561 1.738 4555
-1.564 2.571 1.733 5463
-1.566 2.575 1.725 4987
-1.572 2.585 1.720 5303
-1.578 2.595 1.715 5675
-1.552 2.551 1.677 6346
-1.594 2.620 1.708 6347
-1.607 2.642 1.710 7720
-1.610 2.646 1.702 7916
-1.612 2.650 1.693 8910
-1.615 2.654 1.684 7904
-1.624 2.670 1.682 6080
-1.627 2.674 1.673 6011
-1.662 2.732 1.696 8229
-1.664 2.736 1.686 10491
-1.671 2.746 1.681 9190
-1.684 2.768 1.682 9233
-1.697 2.790 1.683 9001
-1.711 2.812 1.684 8760
-1.721 2.828 1.681 8471
-1.723 2.832 1.671 7550
-1.729 2.842 1.665 7336
-1.735 2.852 1.659 8158
-1.737 2.856 1.649 6746
-1.743 2.866 1.643 4881
-1.809 2.974 1.689 6985
-1.808 2.972 1.676 10074
-1.807 2.969 1.662 10971
-1.809 2.973 1.652 8068
-1.807 2.971 1.639 3628
-1.923 3.161 1.724 5118
-1.929 3.171 1.716 4429
-1.943 3.193 1.715 5093
-1.945 3.197 1.704 7695
-1.944 3.195 1.690 9327
-1.950 3.205 1.683 8738
-1.952 3.209 1.672 6782
-1.958 3.219 1.664 7165
-1.968 3.235 1.659 6126
-2.009 3.302 1.678 3853
-2.007 3.299 1.664 5507
-2.006 3.297 1.650 5109
-2.069 3.401 1.685 4618
-2.095 3.443 1.691 3969
-2.112 3.472 1.691 4659
-2.118 3.482 1.682 4663
-2.098 3.448 1.653 4010
-2.165 3.559 1.689 4519
-2.183 3.589 1.688 5541
-2.139 3.516 1.643 5577
-2.142 3.520 1.631 5236
-2.260 3.714 1.700 4506
-2.285 3.757 1.704 5300
-2.296 3.773 1.696 5185
-2.302 3.783 1.686 5356
-2.304 3.787 1.674 5444
-2.334 3.836 1.679 5104
-2.402 3.948 1.710 4254
-2.408 3.959 1.699 4153
-2.415 3.969 1.688 5492
-2.417 3.973 1.675 5232
-2.443 4.015 1.676 3337
-2.406 3.955 1.638 2939
-2.483 4.081 1.671 3536
-2.489 4.091 1.660 4741
-2.491 4.095 1.646 4250
-2.497 4.105 1.634 3800
-2.582 4.244 1.670 3931
-2.580 4.241 1.653 2641
-2.634 4.329 1.669 2940
-2.632 4.327 1.652 3187
-2.682 4.408 1.665 3694
-2.688 4.418 1.652 3365
-2.754 4.526 1.672 3315
-2.764 4.543 1.662 3820
-2.770 4.553 1.648 4827
-2.776 4.563 1.635 3369
-2.897 4.763 1.684 3835
-2.900 4.766 1.667 4332
-2.938 4.829 1.670 3998
-2.940 4.833 1.654 9539
-2.942 4.836 1.637 8374
-2.996 4.925 1.647 3141
-2.971 4.883 1.617 2784
-3.144 5.168 1.685 4056
-3.139 5.159 1.664 4904
-3.117 5.124 1.635 3525
-3.123 5.134 1.619 2312
-3.233 5.315 1.653 2668
-3.232 5.312 1.633 3363
-3.378 5.552 1.681 2593
-3.276 5.385 1.615 2064
-3.383 5.560 1.643 1747
-3.457 5.682 1.656 2026
-3.572 5.871 1.686 2445
-3.574 5.875 1.666 3205
-3.580 5.885 1.648 3728
-3.607 5.929 1.638 2737
-3.810 6.263 1.701 2262
-3.813 6.267 1.680 3591
-3.815 6.271 1.659 4598
-3.813 6.268 1.636 2833
-3.904 6.417 1.649 1742
-4.060 6.673 1.686 1829
-4.066 6.683 1.665 2049
-4.080 6.707 1.647 1613
-4.099 6.737 1.630 1751
-4.441 7.300 1.729 1854
-4.447 7.310 1.706 1874
-4.486 7.374 1.694 2227
-4.493 7.384 1.670 1836
-4.718 7.755 1.720 3025
-4.720 7.759 1.694 5481
-4.722 7.762 1.667 6344
-4.725 7.766 1.641 4667
-4.727 7.770 1.615 3130
-4.733 7.780 1.590 1926
-4.914 8.078 1.617 1559
-4.917 8.081 1.590 1137
-4.772 7.844 1.520 968
-4.730 7.774 1.480 1005
-4.740 7.791 1.456 1046
-4.742 7.794 1.430 714
-4.735 7.784 1.401 284
-1.177 1.937 1.769 3550
-1.180 1.941 1.763 7101
-1.182 1.945 1.756 7101
-1.185 1.949 1.750 6370
-1.187 1.953 1.743 5640
-1.236 2.034 1.801 4319
-1.242 2.044 1.799 6140
-1.245 2.048 1.792 6140
-1.247 2.052 1.785 6401
-1.246 2.051 1.774 6744
-1.242 2.043 1.758 5140
-1.241 2.042 1.746 4009
-1.267 2.085 1.771 6422
-1.270 2.089 1.764 9419
-1.276 2.099 1.761 9943
-1.278 2.103 1.754 10592
-1.281 2.107 1.747 10581
-1.280 2.105 1.736 8685
-1.285 2.115 1.733 6828
-1.288 2.119 1.726 5724
-1.311 2.157 1.745 4962
-1.293 2.127 1.712 6336
-1.295 2.131 1.705 8051
-1.301 2.140 1.702 7338
-1.307 2.150 1.699 7001
-1.319 2.171 1.705 5860
-1.325 2.180 1.701 5401
-1.328 2.184 1.694 4182
-1.358 2.234 1.720 4368
-1.385 2.279 1.742 4822
-1.391 2.288 1.738 5922
-1.397 2.298 1.735 5108
-1.399 2.302 1.727 4368
-1.405 2.312 1.723 4095
-1.415 2.327 1.724 4018
-1.424 2.343 1.724 5320
-1.430 2.353 1.720 6451
-1.436 2.363 1.716 6222
-1.460 2.402 1.732 4484
-1.469 2.417 1.732 3913
-1.472 2.421 1.724 4546
-1.474 2.425 1.715 5179
-1.477 2.429 1.707 4879
-1.493 2.457 1.715 4169
-1.506 2.478 1.718 4832
-1.505 2.476 1.706 4293
-1.504 2.474 1.694 3933
-1.557 2.561 1.738 4554
-1.559 2.565 1.730 5445
-1.565 2.575 1.725 4946
-1.571 2.585 1.720 5330
-1.577 2.595 1.715 5739
-1.551 2.551 1.677 6366
-1.593 2.621 1.708 6399
-1.606 2.643 1.710 7809
-1.609 2.647 1.702 7998
-1.611 2.651 1.693 8981
-1.614 2.655 1.684 7975
-1.623 2.670 1.682 6173
-1.626 2.674 1.673 6092
-1.661 2.733 1.696 8095
-1.663 2.737 1.686 10384
-1.669 2.746 1.681 8980
-1.683 2.769 1.682 8897
-1.696 2.791 1.683 8681
-1.710 2.813 1.684 8419
-1.720 2.829 1.681 8112
-1.726 2.839 1.675 7389
-1.728 2.843 1.665 7368
-1.738 2.859 1.662 8262
-1.736 2.856 1.649 6676
-1.791 2.946 1.686 4841
-1.808 2.975 1.689 7011
-1.807 2.973 1.676 10278
-1.805 2.970 1.662 11376
-1.808 2.974 1.652 8505
-1.806 2.972 1.639 3914
-1.922 3.161 1.724 5038
-1.848 3.041 1.651 4336
-1.942 3.194 1.715 5047
-1.944 3.198 1.704 7740
-1.942 3.196 1.690 9440
-1.949 3.206 1.683 8817
-1.951 3.210 1.672 6896
-1.957 3.220 1.664 7227
-1.967 3.236 1.659 6073
-2.007 3.303 1.678 3694
-2.006 3.300 1.664 5334
-2.004 3.298 1.650 4834
-2.068 3.402 1.685 4356
-2.093 3.444 1.691 3934
-2.111 3.473 1.691 4554
-2.117 3.483 1.682 4483
-2.096 3.449 1.653 4102
-2.164 3.560 1.689 4462
-2.182 3.589 1.688 5477
-2.138 3.517 1.643 5448
-2.140 3.521 1.631 5058
-2.142 3.525 1.619 4544
-2.288 3.764 1.707 5144
-2.294 3.774 1.696 5127
-2.300 3.784 1.686 5355
-2.299 3.782 1.671 5416
-2.332 3.837 1.679 4959
-2.401 3.949 1.710 4210
-2.411 3.966 1.702 4138
-2.413 3.970 1.688 5435
-2.415 3.974 1.675 5173
-2.441 4.016 1.676 3379
-2.404 3.956 1.638 2974
-2.481 4.082 1.671 3542
-2.487 4.092 1.660 4734
-2.489 4.096 1.646 4163
-2.496 4.106 1.634 3702
-2.580 4.245 1.670 3706
-2.579 4.243 1.653 2528
-2.632 4.330 1.669 2885
-2.631 4.328 1.652 3168
-2.680 4.409 1.665 3612
-2.686 4.420 1.652 3319
-2.752 4.527 1.672 3310
-2.762 4.544 1.662 3961
-2.768 4.554 1.648 5122
-2.770 4.558 1.633 3563
-2.896 4.764 1.684 3746
-2.898 4.768 1.667 4233
-2.936 4.830 1.670 4106
-2.938 4.834 1.654 9407
-2.940 4.838 1.637 8309
-2.990 4.920 1.645 3188
-2.969 4.884 1.617 2910
-3.142 5.170 1.685 4118
-3.137 5.160 1.664 5087
-3.115 5.125 1.635 3560
-3.121 5.135 1.619 2317
-3.231 5.316 1.653 2548
-3.230 5.313 1.633 3169
-3.376 5.554 1.681 2616
-3.274 5.386 1.615 2131
-3.444 5.667 1.672 1747
-3.455 5.684 1.656 2082
-3.573 5.879 1.688 2524
-3.572 5.876 1.666 3201
-3.578 5.887 1.648 3629
-3.604 5.930 1.638 2689
-3.808 6.264 1.701 2298
-3.810 6.268 1.680 3637
-3.812 6.272 1.659 4742
-3.811 6.269 1.636 2941
-3.906 6.425 1.651 1623
-4.057 6.675 1.686 1839
-4.059 6.678 1.663 2076
-4.082 6.715 1.648 1670
-4.096 6.739 1.630 1779
-4.438 7.301 1.729 1824
-4.444 7.312 1.706 1868
-4.483 7.376 1.694 2219
-4.486 7.380 1.669 1828
-4.715 7.757 1.720 3083
-4.717 7.760 1.694 5542
-4.719 7.764 1.667 6425
-4.722 7.768 1.641 4749
-4.724 7.772 1.615 3175
-4.730 7.782 1.590 1916
-4.911 8.080 1.617 1561
-4.913 8.083 1.590 1118
-4.769 7.846 1.520 942
-4.726 7.776 1.480 1026
-4.737 7.793 1.456 1068
-4.739 7.796 1.430 734
-4.732 7.786 1.401 296
-1.176 1.938 1.769 3515
-1.179 1.942 1.763 7031
-1.181 1.946 1.756 7031
-1.184 1.950 1.750 6301
-1.186 1.954 1.743 5570
-1.235 2.035 1.801 4324
-1.241 2.044 1.799 6123
-1.244 2.049 1.792 6123
-1.246 2.053 1.785 6362
-1.245 2.051 1.774 6669
-1.241 2.044 1.758 5033
-1.240 2.043 1.746 3899
-1.266 2.086 1.771 6278
-1.272 2.095 1.768 9196
-1.274 2.100 1.761 9686
-1.277 2.104 1.754 10252
-1.279 2.108 1.747 10232
-1.278 2.106 1.736 8270
-1.284 2.116 1.733 6334
-1.287 2.120 1.726 5318
-1.310 2.158 1.745 4704
-1.291 2.127 1.712 5903
-1.294 2.131 1.705 7504
-1.300 2.141 1.702 6751
-1.309 2.156 1.703 6347
-1.318 2.172 1.705 5508
-1.324 2.181 1.701 5171
-1.368 2.254 1.744 4093
-1.357 2.235 1.720 4362
-1.380 2.274 1.737 4792
-1.390 2.289 1.738 5893
-1.395 2.299 1.735 5006
-1.398 2.303 1.727 4199
-1.404 2.313 1.723 4063
-1.413 2.328 1.724 4205
-1.423 2.344 1.724 5462
-1.429 2.354 1.720 6425
-1.435 2.363 1.716 6132
-1.458 2.403 1.732 4420
-1.468 2.418 1.732 3908
-1.470 2.422 1.724 4519
-1.473 2.426 1.715 5130
-1.475 2.430 1.707 4839
-1.492 2.458 1.715 4194
-1.505 2.479 1.718 4874
-1.504 2.477 1.706 4325
-1.502 2.475 1.694 3966
-1.555 2.562 1.738 4536
-1.558 2.566 1.730 5407
-1.564 2.576 1.725 4865
-1.570 2.586 1.720 5328
-1.576 2.596 1.715 5802
-1.549 2.552 1.677 6423
-1.592 2.622 1.708 6465
-1.605 2.644 1.710 7949
-1.607 2.648 1.702 8148
-1.610 2.652 1.693 9104
-1.612 2.656 1.684 8063
-1.625 2.677 1.685 6246
-1.624 2.675 1.673 6186
-1.659 2.734 1.696 8186
-1.662 2.738 1.686 10523
-1.668 2.747 1.681 9098
-1.681 2.770 1.682 8918
-1.695 2.792 1.683 8499
-1.704 2.808 1.680 8103
-1.718 2.830 1.681 7834
-1.724 2.840 1.675 7276
-1.730 2.850 1.669 7366
-1.736 2.860 1.662 8313
-1.738 2.864 1.653 6640
-1.744 2.874 1.646 4759
-1.806 2.976 1.689 7034
-1.805 2.974 1.676 10564
-1.804 2.971 1.662 11748
-1.806 2.975 1.652 8795
-1.804 2.973 1.639 3822
-1.920 3.163 1.724 4947
-1.847 3.042 1.651 4574
-1.940 3.195 1.715 5023
-1.942 3.199 1.704 7820
-1.941 3.197 1.690 9657
-1.947 3.207 1.683 9078
-1.949 3.211 1.672 7167
-1.955 3.221 1.664 7423
-1.965 3.237 1.659 6088
-2.005 3.304 1.678 3612
-2.004 3.301 1.664 5399
-2.006 3.305 1.653 4712
-2.066 3.403 1.685 4354
-2.091 3.445 1.691 3868
-2.105 3.468 1.688 4462
-2.115 3.484 1.682 4279
-2.090 3.444 1.650 4136
-2.158 3.555 1.686 4465
-2.180 3.591 1.688 5292
-2.136 3.518 1.643 5405
-2.138 3.522 1.631 5006
-2.140 3.526 1.619 4579
-2.286 3.765 1.707 5059
-2.292 3.775 1.696 5081
-2.294 3.779 1.684 5349
-2.293 3.777 1.668 5484
-2.334 3.845 1.682 4779
-2.398 3.951 1.710 4078
-2.408 3.967 1.702 4023
-2.411 3.971 1.688 5348
-2.413 3.975 1.675 5128
-2.439 4.018 1.676 3410
-2.402 3.957 1.638 3013
-2.478 4.083 1.671 3542
-2.485 4.093 1.660 4748
-2.487 4.097 1.646 4113
-2.493 4.107 1.634 3637
-2.574 4.240 1.668 3587
-2.576 4.244 1.653 2436
-2.626 4.325 1.667 2858
-2.628 4.329 1.652 3195
-2.677 4.411 1.665 3640
-2.684 4.421 1.652 3416
-2.749 4.529 1.672 3474
-2.759 4.546 1.662 4139
-2.765 4.556 1.648 5289
-2.768 4.560 1.633 3572
-2.893 4.765 1.684 3752
-2.895 4.769 1.667 4248
-2.933 4.832 1.670 4154
-2.935 4.836 1.654 9336
-2.938 4.839 1.637 8344
-2.936 4.837 1.619 3217
-2.966 4.886 1.617 2893
-3.139 5.171 1.685 4125
-3.134 5.162 1.664 5097
-3.112 5.127 1.635 3492
-3.118 5.137 1.619 2260
-3.280 5.403 1.677 2570
-3.290 5.420 1.663 3143
-3.372 5.556 1.681 2487
-3.271 5.388 1.615 2078
-3.441 5.669 1.672 1683
-3.559 5.864 1.704 2063
-3.570 5.881 1.688 2652
-3.568 5.878 1.666 3263
-3.574 5.889 1.648 3572
-3.601 5.932 1.638 2758
-3.804 6.267 1.701 2351
-3.806 6.271 1.680 3685
-3.809 6.274 1.659 4781
-3.807 6.271 1.636 2933
-3.898 6.421 1.649 1638
-4.053 6.677 1.686 1889
-4.055 6.681 1.663 2128
-4.074 6.711 1.647 1660
-4.092 6.742 1.630 1730
-4.438 7.311 1.731 1851
-4.440 7.315 1.706 1917
-4.479 7.378 1.694 2260
-4.485 7.389 1.670 1870
-4.710 7.759 1.720 3114
-4.712 7.763 1.694 5571
-4.715 7.767 1.667 6464
-4.717 7.771 1.641 4788
-4.719 7.775 1.615 3192
-4.721 7.778 1.588 1913
-4.906 8.083 1.617 1612
-4.908 8.086 1.590 1125
-4.760 7.842 1.518 941
-4.726 7.785 1.481 1070
-4.732 7.796 1.456 1102
-4.734 7.799 1.430 756
-4.728 7.789 1.401 303
-1.175 1.938 1.769 3491
-1.177 1.942 1.763 6982
-1.180 1.946 1.756 6982
-1.182 1.950 1.750 6236
-1.185 1.954 1.743 5490
-1.234 2.036 1.801 4336
-1.240 2.045 1.799 6128
-1.242 2.049 1.792 6128
-1.245 2.053 1.785 6343
-1.244 2.052 1.774 6610
-1.240 2.045 1.758 4931
-1.239 2.043 1.746 3790
-1.265 2.087 1.771 6162
-1.271 2.096 1.768 9058
-1.273 2.100 1.761 9490
-1.276 2.104 1.754 9989
-1.278 2.108 1.747 9986
-1.277 2.107 1.736 7898
-1.283 2.116 1.733 5834
-1.285 2.120 1.726 4925
-1.308 2.158 1.745 4410
-1.290 2.128 1.712 5515
-1.293 2.132 1.705 7013
-1.298 2.142 1.702 6215
-1.308 2.157 1.703 5780
-1.317 2.172 1.705 5265
-1.323 2.182 1.701 5033
-1.367 2.255 1.744 4030
-1.355 2.236 1.720 4404
-1.379 2.274 1.737 4785
-1.388 2.290 1.738 5839
-1.394 2.300 1.735 4883
-1.397 2.304 1.727 4034
-1.402 2.313 1.723 4038
-1.412 2.329 1.724 4384
-1.421 2.345 1.724 5564
-1.427 2.354 1.720 6394
-1.433 2.364 1.716 6040
-1.457 2.403 1.732 4281
-1.466 2.419 1.732 3785
-1.469 2.423 1.724 4363
-1.471 2.427 1.715 4941
-1.474 2.431 1.707 4668
-1.490 2.458 1.715 4100
-1.504 2.480 1.718 4771
-1.502 2.478 1.706 4266
-1.501 2.476 1.694 3935
-1.554 2.563 1.738 4481
-1.556 2.567 1.730 5360
-1.562 2.577 1.725 4810
-1.568 2.587 1.720 5313
-1.574 2.597 1.715 5842
-1.548 2.553 1.677 6427
-1.590 2.623 1.708 6534
-1.603 2.645 1.710 8065
-1.606 2.649 1.702 8280
-1.608 2.653 1.693 9243
-1.610 2.656 1.684 8178
-1.620 2.672 1.682 6306
-1.622 2.676 1.673 6240
-1.658 2.735 1.696 8003
-1.660 2.739 1.686 10286
-1.666 2.748 1.681 8957
-1.680 2.771 1.682 8821
-1.693 2.793 1.683 8287
-1.703 2.809 1.680 7895
-1.716 2.831 1.681 7757
-1.722 2.841 1.675 7286
-1.728 2.851 1.669 7430
-1.734 2.861 1.662 8414
-1.737 2.865 1.653 6688
-1.743 2.875 1.646 4763
-1.805 2.977 1.689 7236
-1.803 2.975 1.676 10875
-1.802 2.972 1.662 11993
-1.804 2.976 1.652 9020
-1.806 2.980 1.642 3889
-1.918 3.164 1.724 4888
-1.845 3.043 1.651 4655
-1.938 3.196 1.715 4949
-1.936 3.194 1.701 7832
-1.939 3.198 1.690 9770
-1.945 3.208 1.683 9237
-1.947 3.212 1.672 7515
-1.953 3.222 1.664 7844
-1.959 3.232 1.656 6313
-1.981 3.267 1.660 3499
-2.002 3.302 1.664 5150
-2.004 3.306 1.653 4335
-2.064 3.405 1.685 4316
-2.085 3.440 1.688 3874
-2.103 3.469 1.688 4512
-2.078 3.429 1.656 4194
-2.088 3.445 1.650 4189
-2.156 3.556 1.686 4523
-2.128 3.510 1.652 5324
-2.134 3.520 1.643 5671
-2.136 3.523 1.631 5262
-2.138 3.527 1.619 4878
-2.283 3.767 1.707 4941
-2.293 3.783 1.699 5030
-2.292 3.781 1.684 5382
-2.290 3.778 1.668 5612
-2.331 3.846 1.682 4666
-2.396 3.952 1.710 3996
-2.406 3.969 1.702 4015
-2.408 3.973 1.688 5269
-2.411 3.977 1.675 5048
-2.432 4.013 1.674 3461
-2.400 3.958 1.638 3031
-2.476 4.085 1.671 3581
-2.482 4.095 1.660 4742
-2.485 4.099 1.646 4028
-2.491 4.109 1.634 3577
-2.571 4.242 1.668 3622
-2.574 4.246 1.653 2521
-2.623 4.327 1.667 2813
-2.621 4.324 1.650 3156
-2.675 4.412 1.665 3628
-2.681 4.423 1.652 3413
-2.746 4.530 1.672 3490
-2.757 4.547 1.662 4293
-2.763 4.558 1.648 5545
-2.765 4.561 1.633 3580
-2.890 4.767 1.684 3561
-2.892 4.771 1.667 4047
-2.930 4.833 1.670 4265
-2.932 4.837 1.654 9359
-2.935 4.841 1.637 8376
-2.933 4.838 1.619 3358
-2.963 4.888 1.617 3070
-3.132 5.167 1.683 4070
-3.131 5.164 1.664 5129
-3.109 5.128 1.635 3462
-3.119 5.145 1.621 2190
-3.277 5.405 1.677 2728
-3.287 5.422 1.663 3329
-3.369 5.558 1.681 2458
-3.272 5.397 1.617 2205
-3.270 5.394 1.597 1698
-3.556 5.866 1.704 2066
-3.566 5.883 1.688 2722
-3.565 5.880 1.666 3390
-3.567 5.884 1.646 3741
-3.601 5.941 1.640 2772
-3.800 6.269 1.701 2294
-3.803 6.273 1.680 3684
-3.805 6.277 1.659 4769
-3.803 6.274 1.636 2872
-3.894 6.423 1.649 1689
-4.049 6.679 1.686 1829
-4.056 6.690 1.665 2084
-4.070 6.714 1.647 1683
-4.088 6.744 1.630 1748
-4.433 7.313 1.731 1845
-4.436 7.317 1.706 1918
-4.475 7.381 1.694 2349
-4.481 7.392 1.670 1943
-4.706 7.762 1.720 3142
-4.708 7.766 1.694 5562
-4.710 7.770 1.667 6482
-4.713 7.774 1.641 4823
-4.715 7.777 1.615 3221
-4.717 7.781 1.588 1938
-4.902 8.086 1.617 1651
-4.904 8.089 1.590 1157
-4.756 7.845 1.518 962
-4.721 7.788 1.481 1106
-4.727 7.798 1.456 1132
-4.729 7.801 1.430 773
-4.723 7.791 1.401 319
-1.174 1.939 1.769 3456
-1.177 1.943 1.763 6912
-1.179 1.947 1.756 6912
-1.182 1.951 1.750 6159
-1.184 1.955 1.743 5405
-1.233 2.036 1.801 4343
-1.239 2.046 1.799 6125
-1.242 2.050 1.792 6125
-1.244 2.054 1.785 6314
-1.243 2.053 1.774 6545
-1.239 2.045 1.758 4837
-1.238 2.044 1.746 3694
-1.264 2.087 1.771 6020
-1.270 2.097 1.768 8889
-1.272 2.101 1.761 9284
-1.275 2.105 1.754 9757
-1.277 2.109 1.747 9799
-1.280 2.113 1.740 7605
-1.282 2.117 1.733 5447
-1.285 2.121 1.726 4627
-1.308 2.159 1.745 4207
-1.289 2.129 1.712 5215
-1.292 2.133 1.705 6623
-1.297 2.142 1.702 5816
-1.307 2.158 1.703 5393
-1.316 2.173 1.705 5089
-1.318 2.177 1.697 4938
-1.366 2.255 1.744 3974
-1.358 2.242 1.724 4444
-1.378 2.275 1.737 4815
-1.384 2.285 1.734 5878
-1.393 2.300 1.735 4867
-1.396 2.304 1.727 4007
-1.402 2.314 1.723 4028
-1.415 2.335 1.728 4482
-1.420 2.345 1.724 5598
-1.426 2.355 1.720 6302
-1.429 2.359 1.712 5942
-1.431 2.363 1.704 4239
-1.466 2.420 1.732 3494
-1.468 2.424 1.724 4030
-1.470 2.428 1.715 4565
-1.473 2.431 1.707 4320
-1.489 2.459 1.715 3987
-1.503 2.481 1.718 4748
-1.501 2.479 1.706 4349
-1.500 2.477 1.694 4114
-1.549 2.558 1.734 4456
-1.555 2.568 1.730 5321
-1.561 2.578 1.725 4740
-1.567 2.588 1.720 5273
-1.577 2.604 1.719 5861
-1.547 2.554 1.677 6492
-1.589 2.623 1.708 6587
-1.602 2.645 1.710 8147
-1.605 2.649 1.702 8369
-1.607 2.653 1.693 9388
-1.609 2.657 1.684 8365
-1.619 2.673 1.682 6468
-1.621 2.677 1.673 6391
-1.657 2.735 1.696 8043
-1.659 2.739 1.686 10356
-1.665 2.749 1.681 8908
-1.678 2.771 1.682 8594
-1.692 2.793 1.683 8035
-1.702 2.809 1.680 7641
-1.715 2.832 1.681 7593
-1.721 2.842 1.675 7219
-1.727 2.852 1.669 7450
-1.733 2.862 1.662 8473
-1.735 2.865 1.653 6742
-1.741 2.875 1.646 4808
-1.804 2.978 1.689 7356
-1.802 2.975 1.676 11115
-1.801 2.973 1.662 12324
-1.803 2.977 1.652 9207
-1.805 2.981 1.642 3808
-1.917 3.164 1.724 4845
-1.840 3.038 1.647 4487
-1.933 3.191 1.712 4890
-1.935 3.195 1.701 7821
-1.937 3.199 1.690 9743
-1.944 3.209 1.683 9154
-1.946 3.213 1.672 7499
-1.952 3.223 1.664 7801
-1.958 3.233 1.656 6068
-1.983 3.274 1.663 3441
-2.001 3.303 1.664 5103
-2.003 3.307 1.653 4198
-2.063 3.405 1.685 4071
-2.084 3.441 1.688 4057
-2.102 3.470 1.688 4558
-2.077 3.429 1.656 4199
-2.087 3.446 1.650 4092
-2.155 3.557 1.686 4518
-2.126 3.510 1.652 5138
-2.132 3.521 1.643 5395
-2.138 3.531 1.634 5103
-2.141 3.534 1.622 4846
-2.282 3.767 1.707 5013
-2.288 3.778 1.696 4971
-2.290 3.782 1.684 5277
-2.289 3.779 1.668 5581
-2.330 3.847 1.682 4646
-2.348 3.876 1.679 3975
-2.404 3.970 1.702 3866
-2.407 3.974 1.688 5124
-2.409 3.978 1.675 4942
-2.431 4.013 1.674 3473
-2.398 3.959 1.638 3022
-2.474 4.086 1.671 3578
-2.481 4.096 1.660 4718
-2.483 4.100 1.646 3942
-2.489 4.110 1.634 3532
-2.570 4.243 1.668 3503
-2.572 4.247 1.653 2437
-2.621 4.328 1.667 2761
-2.620 4.325 1.650 3150
-2.673 4.413 1.665 3590
-2.679 4.424 1.652 3272
-2.745 4.531 1.672 3457
-2.755 4.548 1.662 4454
-2.761 4.559 1.648 5905
-2.763 4.562 1.633 3862
-2.888 4.768 1.684 3635
-2.890 4.772 1.667 3991
-2.928 4.835 1.670 4306
-2.931 4.838 1.654 9403
-2.933 4.842 1.637 8437
-2.975 4.911 1.641 3600
-2.961 4.889 1.617 3175
-3.130 5.168 1.683 4154
-3.128 5.165 1.664 5221
-3.111 5.136 1.636 3458
-3.117 5.146 1.621 2312
-3.275 5.407 1.677 2736
-3.285 5.424 1.663 3307
-3.363 5.553 1.679 2382
-3.270 5.398 1.617 2224
-3.268 5.395 1.597 1701
-3.554 5.867 1.704 2045
-3.564 5.885 1.688 2714
-3.562 5.882 1.666 3385
-3.565 5.886 1.646 3702
-3.599 5.942 1.640 2770
-3.798 6.270 1.701 2329
-3.800 6.274 1.680 3784
-3.802 6.278 1.659 4828
-3.801 6.275 1.636 2830
-3.895 6.432 1.651 1626
-4.047 6.681 1.686 1817
-4.053 6.691 1.665 2069
-4.071 6.722 1.648 1732
-4.086 6.746 1.630 1762
-4.426 7.308 1.729 1906
-4.433 7.319 1.706 1945
-4.472 7.383 1.694 2465
-4.478 7.393 1.670 2028
-4.702 7.764 1.720 3134
-4.705 7.768 1.694 5530
-4.707 7.772 1.667 6509
-4.709 7.775 1.641 4867
-4.712 7.779 1.615 3229
-4.714 7.783 1.588 1938
-4.898 8.087 1.617 1701
-4.901 8.091 1.590 1169
-4.753 7.847 1.518 974
-4.718 7.790 1.481 1129
-4.724 7.800 1.456 1165
-4.726 7.803 1.430 804
-4.720 7.793 1.401 324
-1.173 1.939 1.769 3446
-1.176 1.943 1.763 6893
-1.178 1.948 1.756 6893
-1.181 1.952 1.750 6124
-1.183 1.956 1.743 5354
-1.235 2.042 1.806 4419
-1.238 2.046 1.799 6206
-1.240 2.051 1.792 6206
-1.243 2.055 1.785 6350
-1.242 2.053 1.774 6520
-1.238 2.046 1.758 4764
-1.237 2.045 1.746 3605
-1.263 2.088 1.771 5886
-1.269 2.097 1.768 8750
-1.275 2.107 1.766 9148
-1.277 2.111 1.759 9672
-1.276 2.110 1.747 9726
-1.279 2.114 1.740 7487
-1.281 2.118 1.733 5250
-1.283 2.122 1.726 4446
-1.306 2.160 1.745 4116
-1.292 2.135 1.716 4992
-1.294 2.139 1.709 6285
-1.300 2.149 1.706 5580
-1.309 2.164 1.708 5207
-1.311 2.168 1.700 4954
-1.317 2.178 1.697 4813
-1.365 2.256 1.744 3949
-1.357 2.243 1.724 4493
-1.377 2.276 1.737 4938
-1.383 2.286 1.734 6071
-1.392 2.301 1.735 5004
-1.394 2.305 1.727 4115
-1.404 2.321 1.727 4109
-1.413 2.336 1.728 4692
-1.419 2.346 1.724 5669
-1.422 2.350 1.716 6243
-1.427 2.360 1.712 5912
-1.426 2.358 1.700 4250
-1.464 2.420 1.732 3326
-1.467 2.424 1.724 3826
-1.469 2.428 1.715 4326
-1.471 2.432 1.707 4060
-1.492 2.466 1.718 3970
-1.501 2.482 1.718 4839
-1.500 2.480 1.706 4538
-1.499 2.478 1.694 4359
-1.548 2.559 1.734 4486
-1.550 2.563 1.726 5334
-1.556 2.573 1.721 4708
-1.569 2.595 1.724 5270
-1.575 2.604 1.719 5937
-1.545 2.554 1.677 6409
-1.591 2.630 1.712 6693
-1.601 2.646 1.710 8299
-1.603 2.650 1.702 8542
-1.606 2.654 1.693 9609
-1.608 2.658 1.684 8615
-1.617 2.674 1.682 6714
-1.620 2.678 1.673 6632
-1.652 2.730 1.692 8003
-1.658 2.740 1.686 10369
-1.664 2.750 1.681 8965
-1.677 2.772 1.682 8521
-1.690 2.794 1.683 7813
-1.704 2.817 1.684 7473
-1.713 2.833 1.681 7469
-1.720 2.843 1.675 7187
-1.726 2.853 1.669 7528
-1.732 2.863 1.662 8595
-1.734 2.866 1.653 6752
-1.781 2.944 1.682 4741
-1.802 2.979 1.689 7563
-1.800 2.976 1.676 11298
-1.799 2.974 1.662 12437
-1.801 2.978 1.652 9264
-1.804 2.982 1.642 3842
-1.911 3.159 1.721 4768
-1.838 3.039 1.647 4526
-1.931 3.192 1.712 4849
-1.933 3.196 1.701 7906
-1.936 3.200 1.690 9940
-1.942 3.210 1.683 9336
-1.944 3.214 1.672 7632
-1.950 3.224 1.664 7816
-1.956 3.234 1.656 5944
-1.981 3.275 1.663 3468
-1.999 3.304 1.664 5042
-2.001 3.308 1.653 4101
-2.061 3.406 1.685 3945
-2.082 3.442 1.688 4072
-2.100 3.471 1.688 4497
-2.075 3.431 1.656 4133
-2.085 3.447 1.650 4145
-2.153 3.559 1.686 4488
-2.124 3.512 1.652 5175
-2.130 3.522 1.643 5355
-2.136 3.532 1.634 5107
-2.139 3.536 1.622 4883
-2.276 3.762 1.704 5144
-2.286 3.779 1.696 4980
-2.284 3.776 1.681 5230
-2.287 3.780 1.668 5569
-2.328 3.848 1.682 4651
-2.346 3.878 1.679 4054
-2.406 3.978 1.704 3807
-2.405 3.975 1.688 5028
-2.407 3.979 1.675 4906
-2.429 4.015 1.674 3553
-2.396 3.961 1.638 3082
-2.476 4.093 1.673 3547
-2.478 4.097 1.660 4684
-2.477 4.094 1.643 3932
-2.487 4.111 1.634 3545
-2.567 4.244 1.668 3301
-2.507 4.144 1.616 2204
-2.619 4.330 1.667 2744
-2.617 4.327 1.650 3108
-2.671 4.415 1.665 3644
-2.677 4.425 1.652 3299
-2.742 4.533 1.672 3470
-2.752 4.550 1.662 4755
-2.758 4.560 1.648 6307
-2.761 4.564 1.633 4081
-2.885 4.770 1.684 3760
-2.888 4.774 1.667 4042
-2.926 4.836 1.670 4300
-2.928 4.840 1.654 9295
-2.930 4.844 1.637 8553
-2.972 4.913 1.641 3687
-2.958 4.891 1.617 3412
-3.127 5.170 1.683 4080
-3.126 5.167 1.664 5189
-3.108 5.138 1.636 3442
-3.110 5.142 1.619 2209
-3.272 5.408 1.677 2760
-3.282 5.425 1.663 3343
-3.284 5.429 1.644 2244
-3.267 5.400 1.617 2255
-3.265 5.397 1.597 1701
-3.554 5.876 1.706 2146
-3.561 5.887 1.688 2901
-3.559 5.884 1.666 3440
-3.565 5.894 1.648 3621
-3.596 5.944 1.640 2836
-3.794 6.272 1.701 2336
-3.797 6.276 1.680 3812
-3.799 6.280 1.659 4843
-3.797 6.277 1.636 2836
-3.892 6.434 1.651 1539
-4.043 6.683 1.686 1743
-4.049 6.694 1.665 2023
-4.068 6.724 1.648 1742
-4.078 6.741 1.628 1756
-4.422 7.311 1.729 1921
-4.429 7.321 1.706 1945
-4.467 7.385 1.694 2601
-4.470 7.389 1.669 2134
-4.698 7.767 1.720 3131
-4.700 7.770 1.694 5512
-4.703 7.774 1.667 6550
-4.705 7.778 1.641 4945
-4.707 7.782 1.615 3290
-4.710 7.785 1.588 1986
-4.894 8.090 1.617 1717
-4.896 8.094 1.590 1158
-4.744 7.843 1.517 982
-4.714 7.793 1.481 1148
-4.720 7.803 1.456 1166
-4.722 7.806 1.430 804
-4.716 7.796 1.401 342
-1.173 1.940 1.769 3399
-1.175 1.944 1.763 6799
-1.177 1.948 1.756 6799
-1.180 1.952 1.750 6018
-1.182 1.956 1.743 5238
-1.235 2.043 1.806 4403
-1.237 2.047 1.799 6149
-1.240 2.051 1.792 6149
-1.242 2.055 1.785 6246
-1.241 2.054 1.774 6370
-1.237 2.047 1.758 4631
-1.236 2.045 1.746 3482
-1.262 2.088 1.771 5685
-1.268 2.098 1.768 8525
-1.274 2.107 1.766 8956
-1.276 2.112 1.759 9523
-1.275 2.110 1.747 9601
-1.278 2.114 1.740 7402
-1.280 2.118 1.733 5174
-1.286 2.128 1.731 4327
-1.306 2.160 1.745 4078
-1.291 2.135 1.716 4739
-1.293 2.139 1.709 5910
-1.299 2.149 1.706 5313
-1.308 2.164 1.708 5009
-1.311 2.168 1.700 4730
-1.317 2.178 1.697 4519
-1.364 2.257 1.744 3906
-1.356 2.243 1.724 4547
-1.376 2.276 1.737 5012
-1.382 2.286 1.734 6177
-1.391 2.301 1.735 5064
-1.394 2.305 1.727 4151
-1.403 2.321 1.727 4239
-1.416 2.342 1.732 4968
-1.418 2.346 1.724 5766
-1.421 2.350 1.716 6172
-1.427 2.360 1.712 5855
-1.426 2.358 1.700 4264
-1.463 2.421 1.732 3268
-1.466 2.425 1.724 3783
-1.468 2.429 1.715 4297
-1.471 2.433 1.707 4048
-1.491 2.466 1.718 3964
-1.500 2.482 1.718 4846
-1.499 2.480 1.706 4528
-1.498 2.478 1.694 4326
-1.547 2.559 1.734 4480
-1.549 2.563 1.726 5332
-1.555 2.573 1.721 4680
-1.569 2.595 1.724 5299
-1.575 2.605 1.719 6003
-1.544 2.555 1.677 6169
-1.590 2.631 1.712 6770
-1.600 2.647 1.710 8417
-1.602 2.651 1.702 8660
-1.605 2.655 1.693 9722
-1.607 2.658 1.684 8753
-1.617 2.674 1.682 6921
-1.619 2.678 1.673 6813
-1.651 2.731 1.692 7653
-1.657 2.741 1.686 9857
-1.663 2.751 1.681 8559
-1.676 2.773 1.682 8258
-1.689 2.795 1.683 7717
-1.699 2.811 1.680 7359
-1.713 2.833 1.681 7103
-1.719 2.843 1.675 7011
-1.725 2.853 1.669 7641
-1.731 2.863 1.662 8699
-1.733 2.867 1.653 6700
-1.780 2.945 1.682 4692
-1.801 2.979 1.689 7608
-1.803 2.983 1.679 11286
-1.798 2.975 1.662 12345
-1.800 2.978 1.652 9219
-1.803 2.982 1.642 3908
-1.910 3.160 1.721 4725
-1.837 3.039 1.647 4629
-1.930 3.193 1.712 4800
-1.932 3.197 1.701 7932
-1.935 3.200 1.690 10025
-1.941 3.211 1.683 9347
-1.943 3.214 1.672 7630
-1.945 3.218 1.661 7853
-1.955 3.235 1.656 6019
-1.980 3.276 1.663 3366
-1.998 3.305 1.664 4923
-2.000 3.309 1.653 3975
-2.060 3.407 1.685 3978
-2.081 3.443 1.688 4029
-2.099 3.472 1.688 4247
-2.074 3.431 1.656 4168
-2.084 3.448 1.650 4127
-2.152 3.559 1.686 4408
-2.123 3.512 1.652 5136
-2.129 3.522 1.643 5178
-2.135 3.532 1.634 4955
-2.138 3.536 1.622 4826
-2.279 3.769 1.707 5076
-2.285 3.780 1.696 4857
-2.283 3.777 1.681 5157
-2.286 3.781 1.668 5595
-2.327 3.849 1.682 4532
-2.344 3.878 1.679 4151
-2.351 3.888 1.668 3737
-2.403 3.976 1.688 4923
-2.406 3.980 1.675 4892
-2.427 4.016 1.674 3562
-2.395 3.961 1.638 3086
-2.475 4.094 1.673 3536
-2.477 4.098 1.660 4599
-2.476 4.095 1.643 3831
-2.482 4.105 1.632 3491
-2.562 4.238 1.665 3098
-2.506 4.145 1.616 2145
-2.610 4.317 1.662 2675
-2.616 4.328 1.650 2985
-2.669 4.416 1.665 3600
-2.676 4.426 1.652 3337
-2.741 4.534 1.672 3480
-2.751 4.551 1.662 4977
-2.757 4.561 1.648 6562
-2.759 4.565 1.633 4142
-2.884 4.771 1.684 3688
-2.886 4.775 1.667 3904
-2.924 4.837 1.670 4382
-2.926 4.841 1.654 9363
-2.929 4.845 1.637 8630
-2.971 4.914 1.641 3804
-2.957 4.891 1.617 3466
-3.126 5.171 1.683 4118
-3.124 5.168 1.664 5260
-3.103 5.132 1.635 3409
-3.109 5.143 1.619 2106
-3.270 5.409 1.677 2593
-3.284 5.433 1.664 3200
-3.283 5.430 1.644 2267
-3.269 5.408 1.619 2366
-3.267 5.405 1.598 1727
-3.553 5.877 1.706 2126
-3.559 5.888 1.688 2900
-3.557 5.885 1.666 3416
-3.564 5.895 1.648 3552
-3.594 5.945 1.640 2902
-3.792 6.274 1.701 2311
-3.795 6.277 1.680 3748
-3.797 6.281 1.659 4776
-3.795 6.278 1.636 2810
-3.894 6.442 1.652 1437
-4.041 6.684 1.686 1734
-4.047 6.695 1.665 1990
-4.066 6.725 1.648 1746
-4.076 6.742 1.628 1739
-4.420 7.312 1.729 1907
-4.427 7.323 1.706 1941
-4.465 7.387 1.694 2717
-4.472 7.397 1.670 2230
-4.696 7.768 1.720 3127
-4.698 7.772 1.694 5481
-4.700 7.776 1.667 6554
-4.703 7.780 1.641 5022
-4.701 7.777 1.613 3371
-4.707 7.787 1.588 2034
-4.891 8.092 1.617 1739
-4.894 8.095 1.590 1154
-4.742 7.844 1.517 987
-4.712 7.794 1.481 1157
-4.718 7.804 1.456 1169
-4.720 7.807 1.430 801
-4.713 7.797 1.401 335
-1.175 1.946 1.774 3346
-1.177 1.950 1.767 6692
-1.180 1.954 1.761 6692
-1.182 1.958 1.754 5900
-1.184 1.962 1.748 5108
-1.234 2.043 1.806 4414
-1.236 2.048 1.799 6125
-1.239 2.052 1.792 6125
-1.241 2.056 1.785 6174
-1.240 2.054 1.774 6245
-1.236 2.047 1.758 4508
-1.235 2.046 1.746 3355
-1.261 2.089 1.771 5502
-1.270 2.104 1.773 8357
-1.273 2.108 1.766 8825
-1.275 2.112 1.759 9453
-1.274 2.111 1.747 9554
-1.277 2.115 1.740 7454
-1.279 2.119 1.733 5295
-1.285 2.128 1.731 4350
-1.304 2.161 1.745 3980
-1.293 2.142 1.721 4413
-1.295 2.146 1.713 5415
-1.301 2.156 1.711 5024
-1.307 2.165 1.708 4784
-1.309 2.169 1.700 4449
-1.315 2.179 1.697 4156
-1.359 2.252 1.740 3935
-1.355 2.244 1.724 4649
-1.371 2.271 1.733 5110
-1.380 2.287 1.734 6263
-1.390 2.302 1.735 5088
-1.396 2.312 1.731 4147
-1.402 2.322 1.727 4392
-1.411 2.338 1.728 5257
-1.417 2.347 1.724 5873
-1.419 2.351 1.716 6121
-1.425 2.361 1.712 5814
-1.424 2.359 1.700 4315
-1.412 2.339 1.676 3412
-1.464 2.426 1.724 3686
-1.467 2.430 1.715 4168
-1.469 2.434 1.707 3943
-1.486 2.461 1.715 3888
-1.499 2.483 1.718 4733
-1.494 2.475 1.702 4441
-1.496 2.479 1.694 4273
-1.545 2.560 1.734 4443
-1.548 2.564 1.726 5297
-1.525 2.526 1.691 4674
-1.567 2.596 1.724 5301
-1.573 2.606 1.719 6062
-1.543 2.556 1.677 6043
-1.589 2.632 1.712 6854
-1.598 2.648 1.710 8517
-1.601 2.652 1.702 8758
-1.603 2.656 1.693 9813
-1.605 2.659 1.684 8864
-1.615 2.675 1.682 7082
-1.617 2.679 1.673 6966
-1.649 2.732 1.692 7749
-1.655 2.742 1.686 9940
-1.661 2.752 1.681 8597
-1.671 2.768 1.678 8264
-1.688 2.796 1.683 7635
-1.697 2.812 1.680 7239
-1.711 2.834 1.681 6838
-1.717 2.844 1.675 6885
-1.723 2.854 1.669 7697
-1.729 2.864 1.662 8765
-1.731 2.868 1.653 6666
-1.778 2.946 1.682 4767
-1.799 2.980 1.689 7689
-1.801 2.984 1.679 11413
-1.796 2.976 1.662 12500
-1.799 2.979 1.652 9394
-1.801 2.983 1.642 3990
-1.908 3.161 1.721 4791
-1.835 3.041 1.647 4650
-1.928 3.194 1.712 4860
-1.930 3.198 1.701 7977
-1.933 3.202 1.690 10076
-1.939 3.212 1.683 9415
-1.941 3.216 1.672 7746
-1.943 3.219 1.661 7999
-1.953 3.236 1.656 6088
-1.978 3.277 1.663 3227
-1.996 3.306 1.664 4706
-2.002 3.316 1.656 3789
-2.054 3.402 1.682 3904
-2.079 3.444 1.688 3970
-2.096 3.473 1.688 4324
-2.072 3.432 1.656 4265
-2.082 3.449 1.650 4156
-2.149 3.561 1.686 4289
-2.121 3.514 1.652 4984
-2.123 3.517 1.640 4951
-2.133 3.534 1.634 4806
-2.135 3.538 1.622 4696
-2.276 3.771 1.707 5052
-2.279 3.775 1.694 4749
-2.281 3.779 1.681 5167
-2.279 3.776 1.666 5846
-2.328 3.857 1.684 4496
-2.342 3.880 1.679 4195
-2.348 3.890 1.668 3775
-2.401 3.977 1.688 4827
-2.403 3.981 1.675 4829
-2.425 4.017 1.674 3593
-2.392 3.963 1.638 3054
-2.472 4.096 1.673 3511
-2.475 4.099 1.660 4583
-2.473 4.097 1.643 3781
-2.483 4.113 1.634 3460
-2.560 4.240 1.665 3072
-2.503 4.147 1.616 2195
-2.599 4.306 1.657 2569
-2.609 4.323 1.647 2864
-2.667 4.417 1.665 3491
-2.673 4.428 1.652 3311
-2.738 4.536 1.672 3586
-2.748 4.552 1.662 5150
-2.754 4.563 1.648 6738
-2.753 4.560 1.631 4252
-2.881 4.772 1.684 3771
-2.879 4.770 1.665 3860
-2.925 4.845 1.672 4475
-2.927 4.849 1.656 9326
-2.926 4.847 1.637 8530
-2.964 4.909 1.639 4023
-2.954 4.893 1.617 3590
-3.122 5.173 1.683 4004
-3.121 5.170 1.664 5163
-3.099 5.134 1.635 3333
-3.106 5.145 1.619 2059
-3.267 5.411 1.677 2702
-3.277 5.428 1.663 3136
-3.212 5.320 1.613 2227
-3.262 5.403 1.617 2151
-3.423 5.671 1.670 1682
-3.549 5.879 1.706 2179
-3.555 5.890 1.688 2963
-3.554 5.887 1.666 3413
-3.560 5.897 1.648 3466
-3.590 5.948 1.640 2946
-3.789 6.276 1.701 2213
-3.791 6.280 1.680 3741
-3.793 6.284 1.659 4808
-3.791 6.281 1.636 2818
-3.890 6.444 1.652 1436
-4.037 6.687 1.686 1645
-4.043 6.697 1.665 1910
-4.061 6.728 1.648 1774
-4.405 7.298 1.751 1731
-4.416 7.315 1.729 1899
-4.422 7.325 1.706 1892
-4.461 7.389 1.694 2786
-4.467 7.400 1.670 2286
-4.691 7.771 1.720 3167
-4.693 7.775 1.694 5498
-4.696 7.779 1.667 6600
-4.698 7.782 1.641 5127
-4.696 7.779 1.613 3465
-4.698 7.783 1.587 2095
-4.886 8.095 1.617 1753
-4.889 8.098 1.590 1140
-4.737 7.847 1.517 987
-4.707 7.797 1.481 1163
-4.713 7.807 1.456 1176
-4.715 7.810 1.430 809
-4.713 7.807 1.402 334
-1.173 1.947 1.774 3331
-1.176 1.951 1.767 6662
-1.178 1.955 1.761 6662
-1.181 1.959 1.754 5857
-1.183 1.963 1.748 5052
-1.232 2.044 1.806 4452
-1.235 2.048 1.799 6139
-1.237 2.052 1.792 6139
-1.240 2.057 1.785 6143
-1.239 2.055 1.774 6165
-1.235 2.048 1.758 4429
-1.234 2.047 1.746 3276
-1.260 2.090 1.771 5401
-1.269 2.105 1.773 8333
-1.271 2.109 1.766 8834
-1.274 2.113 1.759 9546
-1.273 2.112 1.747 9671
-1.275 2.116 1.740 7719
-1.281 2.125 1.738 5704
-1.283 2.129 1.731 4533
-1.303 2.162 1.745 3854
-1.302 2.160 1.733 4164
-1.294 2.147 1.713 4963
-1.300 2.156 1.711 4816
-1.302 2.160 1.703 4733
-1.308 2.170 1.700 4283
-1.314 2.180 1.697 3919
-1.354 2.247 1.736 3984
-1.353 2.245 1.724 4723
-1.370 2.272 1.733 5174
-1.379 2.288 1.734 6291
-1.388 2.303 1.735 5060
-1.394 2.313 1.731 4101
-1.407 2.334 1.735 4550
-1.410 2.338 1.728 5545
-1.415 2.348 1.724 5994
-1.421 2.358 1.720 6117
-1.424 2.362 1.712 5824
-1.423 2.360 1.700 4392
-1.414 2.346 1.680 3506
-1.463 2.427 1.724 3616
-1.462 2.425 1.712 4130
-1.468 2.435 1.707 3934
-1.481 2.456 1.711 3887
-1.497 2.484 1.718 4716
-1.492 2.476 1.702 4498
-1.495 2.480 1.694 4390
-1.540 2.555 1.731 4424
-1.546 2.565 1.726 5260
-1.523 2.527 1.691 4742
-1.565 2.597 1.724 5287
-1.571 2.607 1.719 6113
-1.577 2.617 1.713 6140
-1.587 2.633 1.712 6941
-1.597 2.649 1.710 8626
-1.599 2.653 1.702 8884
-1.601 2.657 1.693 9987
-1.604 2.660 1.684 9089
-1.613 2.676 1.682 7336
-1.616 2.680 1.673 7171
-1.647 2.733 1.692 7683
-1.653 2.743 1.686 9841
-1.659 2.753 1.681 8519
-1.669 2.769 1.678 8107
-1.686 2.797 1.683 7301
-1.696 2.813 1.680 7015
-1.709 2.835 1.681 6717
-1.715 2.845 1.675 6788
-1.721 2.855 1.669 7565
-1.731 2.871 1.666 8649
-1.729 2.869 1.653 6494
-1.776 2.947 1.682 4621
-1.797 2.982 1.689 7786
-1.800 2.985 1.679 11667
-1.794 2.977 1.662 12783
-1.797 2.981 1.652 9598
-1.799 2.984 1.642 4082
-1.902 3.156 1.718 4893
-1.834 3.042 1.647 4542
-1.926 3.195 1.712 4874
-1.928 3.199 1.701 8027
-1.931 3.203 1.690 10134
-1.937 3.213 1.683 9453
-1.939 3.217 1.672 7742
-1.941 3.221 1.661 7885
-1.951 3.237 1.656 5797
-1.976 3.279 1.663 3117
-1.994 3.307 1.664 4586
-2.000 3.318 1.656 3814
-2.052 3.403 1.682 3736
-2.077 3.445 1.688 3860
-2.094 3.474 1.688 4268
-2.070 3.434 1.656 4601
-2.080 3.450 1.650 4541
-2.147 3.562 1.686 4391
-2.119 3.515 1.652 5058
-2.129 3.531 1.646 5037
-2.131 3.535 1.634 4910
-2.133 3.539 1.622 4825
-2.274 3.772 1.707 4915
-2.276 3.776 1.694 4617
-2.279 3.780 1.681 5261
-2.277 3.777 1.666 6068
-2.326 3.858 1.684 4488
-2.340 3.881 1.679 4217
-2.346 3.891 1.668 3742
-2.398 3.979 1.688 4705
-2.401 3.983 1.675 4781
-2.422 4.019 1.674 3691
-2.390 3.964 1.638 3050
-2.470 4.097 1.673 3549
-2.472 4.101 1.660 4593
-2.470 4.098 1.643 3738
-2.480 4.115 1.634 3440
-2.557 4.242 1.665 2908
-2.501 4.148 1.616 2298
-2.597 4.308 1.657 2552
-2.611 4.331 1.650 2839
-2.664 4.419 1.665 3483
-2.670 4.429 1.652 3318
-2.735 4.537 1.672 3646
-2.745 4.554 1.662 5386
-2.751 4.564 1.648 6994
-2.750 4.562 1.631 4363
-2.878 4.774 1.684 3725
-2.876 4.772 1.665 3827
-2.922 4.847 1.672 4392
-2.924 4.851 1.656 8925
-2.923 4.848 1.637 8139
-2.960 4.911 1.639 4159
-2.947 4.889 1.615 3957
-3.119 5.175 1.683 4044
-3.118 5.172 1.664 5363
-3.100 5.143 1.636 3230
-3.249 5.390 1.690 1858
-3.263 5.414 1.677 2794
-3.273 5.431 1.663 3214
-3.208 5.322 1.613 2230
-3.262 5.412 1.619 2208
-3.416 5.666 1.668 1668
-3.545 5.882 1.706 2235
-3.552 5.892 1.688 3092
-3.550 5.889 1.666 3505
-3.556 5.900 1.648 3514
-3.586 5.950 1.640 2969
-3.785 6.278 1.701 2126
-3.787 6.282 1.680 3662
-3.789 6.286 1.659 4744
-3.787 6.283 1.636 2776
-3.882 6.440 1.651 1481
-4.032 6.690 1.686 1614
-4.039 6.700 1.665 1881
-4.057 6.730 1.648 1790
-4.401 7.300 1.751 1734
-4.411 7.318 1.729 1897
-4.450 7.382 1.717 1895
-4.456 7.392 1.694 2863
-4.462 7.403 1.670 2405
-4.686 7.774 1.720 3232
-4.688 7.778 1.694 5545
-4.691 7.782 1.667 6672
-4.693 7.785 1.641 5257
-4.691 7.782 1.613 3564
-4.693 7.786 1.587 2151
-4.881 8.098 1.617 1814
-4.883 8.101 1.590 1163
-4.728 7.844 1.516 968
-4.702 7.800 1.481 1175
-4.708 7.810 1.456 1172
-4.710 7.813 1.430 807
-4.708 7.810 1.402 341
-1.177 1.945 1.774 2858
-1.179 1.949 1.767 5717
-1.182 1.953 1.761 5717
-1.184 1.957 1.754 4900
-1.186 1.961 1.748 4082
-1.235 2.042 1.806 4819
-1.238 2.046 1.799 6144
-1.241 2.050 1.792 6144
-1.243 2.055 1.785 5457
-1.245 2.059 1.778 4770
-1.255 2.074 1.780 3497
-1.274 2.106 1.796 2674
-1.277 2.110 1.789 5432
-1.276 2.109 1.777 8269
-1.278 2.113 1.770 8694
-1.281 2.117 1.763 9433
-1.280 2.115 1.752 9753
-1.282 2.119 1.745 7910
-1.288 2.129 1.742 6139
-1.287 2.127 1.731 4754
-1.306 2.159 1.745 3539
-1.295 2.141 1.721 4461
-1.297 2.145 1.713 5616
-1.303 2.154 1.711 5293
-1.306 2.158 1.703 5023
-1.312 2.168 1.700 3834
-1.335 2.206 1.718 3417
-1.354 2.239 1.732 3660
-1.357 2.243 1.724 4414
-1.366 2.258 1.725 4520
-1.379 2.280 1.730 5081
-1.396 2.307 1.739 4156
-1.412 2.334 1.747 3951
-1.411 2.332 1.735 5369
-1.410 2.330 1.724 6815
-1.416 2.340 1.720 6412
-1.418 2.344 1.712 5216
-1.424 2.354 1.708 4497
-1.426 2.358 1.700 3590
-1.425 2.356 1.688 2720
-1.467 2.424 1.724 2497
-1.462 2.416 1.708 3163
-1.468 2.426 1.703 3427
-1.477 2.442 1.703 4209
-1.487 2.458 1.702 5001
-1.489 2.462 1.694 5300
-1.492 2.466 1.686 5599
-1.541 2.547 1.727 4671
-1.529 2.527 1.703 5505
-1.527 2.525 1.691 6279
-1.530 2.529 1.683 5463
-1.583 2.616 1.726 5794
-1.585 2.620 1.717 6003
-1.595 2.636 1.716 6613
-1.605 2.652 1.714 8543
-1.603 2.650 1.702 8996
-1.602 2.648 1.689 10282
-1.608 2.658 1.684 9955
-1.621 2.680 1.685 9144
-1.624 2.684 1.677 9206
-1.648 2.724 1.689 7002
-1.658 2.740 1.686 8519
-1.664 2.750 1.681 7340
-1.677 2.772 1.682 6544
-1.690 2.794 1.683 5316
-1.697 2.804 1.677 4688
-1.699 2.808 1.667 4952
-1.701 2.812 1.658 6044
-1.733 2.865 1.675 7370
-1.739 2.875 1.669 8899
-1.738 2.872 1.656 6450
-1.777 2.938 1.679 4366
-1.806 2.985 1.692 8036
-1.804 2.982 1.679 12125
-1.803 2.980 1.666 13066
-1.802 2.978 1.652 9687
-1.830 3.025 1.665 4546
-1.889 3.122 1.702 5666
-1.891 3.126 1.691 5222
-1.924 3.179 1.706 4874
-1.926 3.183 1.695 7538
-1.928 3.187 1.684 9499
-1.938 3.204 1.680 8333
-1.944 3.214 1.672 7216
-1.943 3.211 1.658 7242
-1.941 3.209 1.644 4341
-1.985 3.282 1.666 2870
-1.995 3.298 1.661 4264
-2.024 3.346 1.670 4808
-2.030 3.356 1.662 3899
-2.078 3.435 1.685 3410
-2.077 3.433 1.671 3821
-2.079 3.437 1.659 4320
-2.093 3.460 1.656 4423
-2.107 3.482 1.653 4568
-2.121 3.505 1.649 5131
-2.123 3.509 1.637 4562
-2.141 3.538 1.637 4204
-2.147 3.548 1.627 4320
-2.276 3.762 1.704 3758
-2.275 3.760 1.689 3716
-2.277 3.764 1.676 4517
-2.279 3.767 1.663 5639
-2.285 3.778 1.653 4936
-2.350 3.884 1.681 4863
-2.348 3.881 1.666 4540
-2.312 3.821 1.627 4032
-2.419 3.998 1.682 4123
-2.425 4.008 1.671 4255
-2.349 3.883 1.608 3015
-2.484 4.106 1.678 3772
-2.486 4.110 1.664 4243
-2.485 4.107 1.648 3038
-2.530 4.182 1.660 3518
-2.513 4.154 1.635 3388
-2.593 4.287 1.667 2294
-2.670 4.414 1.697 2397
-2.665 4.404 1.677 3138
-2.667 4.408 1.662 3038
-2.681 4.432 1.654 2996
-2.746 4.539 1.675 4238
-2.753 4.550 1.662 7382
-2.759 4.560 1.648 8843
-2.765 4.570 1.635 5306
-2.941 4.861 1.713 2930
-2.935 4.852 1.693 4037
-2.930 4.843 1.672 4047
-2.936 4.853 1.658 7338
-2.934 4.850 1.639 7111
-2.964 4.900 1.637 4557
-2.955 4.884 1.615 4743
-3.124 5.163 1.681 3756
-3.126 5.167 1.664 5118
-3.128 5.171 1.646 2839
-3.246 5.365 1.684 2391
-3.264 5.395 1.673 2963
-3.286 5.432 1.664 2811
-3.293 5.442 1.648 2144
-3.219 5.321 1.595 1772
-3.341 5.522 1.631 1745
-3.551 5.869 1.704 2438
-3.557 5.880 1.686 3314
-3.559 5.884 1.666 3207
-3.562 5.887 1.646 2779
-3.596 5.944 1.640 2889
-3.594 5.941 1.618 2363
-3.793 6.270 1.678 3372
-3.795 6.273 1.657 4150
-3.802 6.284 1.637 2238
-3.724 6.155 1.585 1650
-3.826 6.324 1.602 1525
-4.050 6.694 1.665 1822
-4.064 6.717 1.647 1887
-4.288 7.087 1.705 1584
-4.423 7.311 1.729 1719
-4.433 7.328 1.707 1964
-4.468 7.385 1.694 2935
-4.474 7.396 1.670 2656
-4.699 7.766 1.720 2988
-4.697 7.764 1.692 4911
-4.703 7.774 1.667 6079
-4.706 7.778 1.641 5152
-4.704 7.775 1.613 3525
-4.706 7.779 1.587 2433
-4.894 8.090 1.617 2063
-4.897 8.094 1.590 1328
-4.712 7.789 1.508 984
-4.714 7.792 1.481 1029
-4.720 7.802 1.456 1025
-4.722 7.806 1.430 691
-4.907 8.111 1.452 357
-1.164 1.952 1.774 2579
-1.166 1.956 1.767 5159
-1.169 1.961 1.761 5159
-1.171 1.965 1.754 4390
-1.216 2.040 1.808 3874
-1.219 2.045 1.801 4903
-1.225 2.054 1.799 6097
-1.227 2.058 1.792 6097
-1.230 2.063 1.785 5188
-1.232 2.067 1.778 4280
-1.238 2.076 1.776 3220
-1.260 2.114 1.796 2642
-1.263 2.118 1.789 5273
-1.265 2.122 1.782 7904
-1.264 2.121 1.770 8223
-1.267 2.125 1.763 8834
-1.266 2.123 1.752 9067
-1.268 2.127 1.745 7281
-1.274 2.137 1.742 5545
-1.273 2.135 1.731 4695
-1.272 2.134 1.719 3970
-1.278 2.143 1.716 5205
-1.280 2.147 1.709 6473
-1.286 2.157 1.706 5915
-1.292 2.167 1.703 5600
-1.301 2.182 1.705 4049
-1.320 2.215 1.718 3838
-1.337 2.242 1.728 3743
-1.342 2.252 1.724 4468
-1.348 2.261 1.721 4464
-1.364 2.289 1.730 4832
-1.381 2.316 1.739 4407
-1.386 2.326 1.735 4343
-1.392 2.335 1.731 5691
-1.395 2.339 1.724 7055
-1.397 2.343 1.716 6210
-1.403 2.353 1.712 4867
-1.405 2.357 1.704 4287
-1.408 2.361 1.696 3796
-1.410 2.365 1.688 3304
-1.447 2.428 1.720 2886
-1.446 2.426 1.708 3543
-1.449 2.430 1.700 4014
-1.458 2.446 1.699 4838
-1.467 2.461 1.699 5448
-1.470 2.465 1.690 5794
-1.476 2.475 1.686 6146
-1.478 2.479 1.678 4741
-1.512 2.537 1.703 5649
-1.511 2.535 1.691 6843
-1.513 2.539 1.683 5942
-1.566 2.627 1.726 5576
-1.568 2.631 1.717 5780
-1.581 2.653 1.719 6309
-1.587 2.663 1.714 8060
-1.590 2.667 1.705 8336
-1.585 2.658 1.689 9615
-1.591 2.668 1.684 9675
-1.604 2.690 1.685 9452
-1.606 2.694 1.677 9516
-1.616 2.710 1.675 7140
-1.640 2.751 1.686 8086
-1.646 2.761 1.681 7038
-1.663 2.789 1.685 6050
-1.672 2.805 1.683 4753
-1.682 2.821 1.680 4252
-1.681 2.819 1.667 4689
-1.683 2.823 1.658 6128
-1.718 2.882 1.679 7286
-1.720 2.886 1.669 8953
-1.719 2.884 1.656 6437
-1.758 2.949 1.679 4627
-1.783 2.990 1.689 7915
-1.785 2.994 1.679 11966
-1.784 2.992 1.666 12760
-1.786 2.996 1.656 9436
-1.810 3.037 1.665 4867
