1.633 2.399 1.730 3599
1.714 2.518 1.798 6342
1.640 2.409 1.726 3091
1.721 2.527 1.794 6252
1.646 2.418 1.721 3130
1.727 2.537 1.789 6385
1.653 2.428 1.716 3230
1.738 2.553 1.787 7191
1.663 2.443 1.716 3028
1.740 2.557 1.778 6716
1.666 2.447 1.707 1616
1.731 2.543 1.758 5597
1.806 2.653 1.829 1736
1.754 2.576 1.768 5455
1.679 2.466 1.697 1130
1.760 2.586 1.763 6085
1.835 2.696 1.833 1064
1.763 2.590 1.754 6032
1.838 2.700 1.824 1237
1.769 2.599 1.749 4935
1.845 2.710 1.818 1141
1.812 2.661 1.776 5251
1.736 2.551 1.707 1093
1.810 2.659 1.763 5448
1.735 2.549 1.694 1164
1.813 2.663 1.754 5898
1.888 2.774 1.822 969
1.828 2.685 1.755 5654
1.903 2.796 1.823 937
1.838 2.700 1.753 5419
1.914 2.811 1.821 1764
1.825 2.681 1.729 6330
1.901 2.792 1.797 5742
1.824 2.679 1.717 6654
1.907 2.802 1.790 6252
1.826 2.682 1.707 5814
1.914 2.812 1.784 5537
1.853 2.722 1.719 4807
1.929 2.833 1.785 3816
1.948 2.861 1.789 5654
1.871 2.749 1.723 4288
1.942 2.853 1.772 7340
2.018 2.965 1.837 1854
1.941 2.851 1.759 8725
2.017 2.963 1.823 2972
1.944 2.855 1.749 8855
2.020 2.967 1.813 3113
1.962 2.882 1.752 6395
2.039 2.995 1.816 1542
1.977 2.904 1.752 7088
2.054 3.017 1.816 2150
1.988 2.920 1.749 7208
2.069 3.039 1.815 3407
1.986 2.918 1.735 5189
2.071 3.043 1.805 4668
2.078 3.053 1.797 4511
1.985 2.916 1.722 3443
2.069 3.039 1.777 5272
1.992 2.925 1.715 2523
2.071 3.043 1.766 6192
2.149 3.156 1.828 2032
2.082 3.059 1.762 5606
2.160 3.172 1.823 1835
2.105 3.092 1.767 6827
2.183 3.206 1.828 1724
2.112 3.102 1.760 5254
2.189 3.216 1.820 1866
2.155 3.166 1.781 4267
2.078 3.052 1.721 1243
2.183 3.206 1.788 4912
2.105 3.092 1.729 1831
2.181 3.204 1.774 5731
2.103 3.090 1.715 1576
2.180 3.202 1.760 4827
2.258 3.317 1.819 2109
2.240 3.290 1.792 4673
2.162 3.176 1.733 2489
2.251 3.307 1.786 3394
2.329 3.421 1.844 1502
2.274 3.341 1.790 2868
2.196 3.226 1.732 1948
2.277 3.345 1.778 4510
2.199 3.230 1.721 2113
2.267 3.330 1.758 4885
2.346 3.446 1.814 2773
2.266 3.328 1.743 3987
2.348 3.450 1.802 2978
2.339 3.435 1.781 3972
2.260 3.320 1.726 3311
2.337 3.433 1.767 5616
2.453 3.604 1.848 2108
2.336 3.431 1.752 4260
2.456 3.608 1.836 1911
2.380 3.496 1.769 1954
2.467 3.624 1.829 1169
2.441 3.585 1.796 1510
2.520 3.701 1.851 1157
2.443 3.589 1.784 3037
2.522 3.705 1.838 2621
2.525 3.709 1.825 4619
2.446 3.593 1.771 4173
2.532 3.720 1.815 5588
2.453 3.603 1.762 4410
2.535 3.724 1.802 4651
2.456 3.607 1.749 3413
2.533 3.722 1.786 3064
2.621 3.850 1.844 2231
2.628 3.861 1.833 3701
2.549 3.744 1.781 2652
2.568 3.772 1.779 3659
2.648 3.889 1.830 2604
2.575 3.783 1.768 3063
2.495 3.666 1.717 2392
2.578 3.786 1.755 3862
2.737 4.021 1.856 2962
2.580 3.790 1.742 5023
2.740 4.025 1.842 4300
2.739 4.023 1.825 3375
2.646 3.887 1.768 3368
2.653 3.897 1.757 3181
2.762 4.058 1.824 2793
2.782 4.087 1.820 4518
2.664 3.913 1.748 2630
2.789 4.097 1.809 5096
2.671 3.923 1.737 2501
2.796 4.107 1.797 3680
2.682 3.940 1.729 1998
2.853 4.192 1.815 3271
2.773 4.074 1.768 1840
2.928 4.301 1.843 3104
2.848 4.183 1.796 2980
2.931 4.305 1.828 3711
2.850 4.187 1.781 3183
2.946 4.328 1.820 5373
2.849 4.185 1.764 2354
2.953 4.338 1.807 5524
2.873 4.220 1.761 1517
2.952 4.336 1.790 3902
3.033 4.455 1.835 1205
2.955 4.340 1.775 3213
3.040 4.465 1.822 1740
2.970 4.363 1.766 2373
3.051 4.482 1.811 1920
2.981 4.379 1.756 2965
3.062 4.498 1.800 1675
2.980 4.377 1.738 3073
3.061 4.496 1.782 1723
3.059 4.493 1.764 2351
2.978 4.374 1.721 1722
3.062 4.497 1.748 2402
3.220 4.729 1.832 1744
3.227 4.740 1.818 1666
3.069 4.507 1.735 1559
3.229 4.744 1.801 1636
3.127 4.593 1.748 1131
3.228 4.741 1.782 1489
3.463 5.087 1.903 1234
3.235 4.752 1.768 1505
3.466 5.091 1.886 1315
3.465 5.089 1.866 1843
3.233 4.749 1.749 1389
3.467 5.093 1.848 2333
3.231 4.747 1.730 1108
3.470 5.098 1.830 2314
2.946 4.328 1.572 1491
3.477 5.108 1.814 1648
2.949 4.331 1.557 1201
3.127 4.594 1.627 1488
3.476 5.106 1.794 1020
3.130 4.597 1.611 1651
3.478 5.110 1.776 884
3.128 4.595 1.593 1082
3.481 5.114 1.758 755
3.130 4.598 1.577 720
3.850 5.656 1.910 649
3.750 5.508 1.843 757
3.240 4.760 1.610 545
3.748 5.506 1.822 777
3.234 4.751 1.589 693
4.096 6.017 1.957 1047
2.969 4.361 1.453 679
4.099 6.022 1.936 1599
2.967 4.358 1.436 896
4.102 6.026 1.915 2128
2.956 4.342 1.415 1023
4.105 6.030 1.894 2374
3.962 5.820 1.832 1277
4.108 6.034 1.872 2396
2.942 4.322 1.377 1123
4.111 6.039 1.851 1838
2.945 4.325 1.362 997
4.179 6.138 1.857 1046
2.942 4.322 1.345 710
4.182 6.142 1.836 758
2.940 4.318 1.328 538
4.245 6.236 1.839 767
4.128 6.064 1.791 443
4.248 6.240 1.817 690
4.000 5.876 1.718 516
2.950 4.333 1.285 608
4.255 6.250 1.796 418
2.956 4.342 1.271 810
4.258 6.254 1.775 409
2.954 4.339 1.254 813
3.341 4.908 1.402 372
2.955 4.341 1.239 608
3.335 4.898 1.382 325
2.966 4.357 1.227 579
3.415 5.017 1.394 298
2.968 4.359 1.212 745
4.264 6.263 1.685 337
2.969 4.362 1.197 940
4.266 6.267 1.663 373
2.971 4.365 1.181 1199
4.391 6.450 1.684 343
2.973 4.367 1.166 1432
4.385 6.441 1.659 410
2.970 4.363 1.149 1545
4.274 6.278 1.597 500
2.972 4.365 1.134 1486
4.294 6.307 1.581 477
2.973 4.368 1.119 1242
4.379 6.433 1.587 460
2.971 4.364 1.102 812
4.386 6.443 1.565 428
3.573 5.248 1.280 505
2.972 4.366 1.087 445
3.575 5.251 1.262 488
4.316 6.340 1.497 334
3.572 5.247 1.242 383
3.261 4.790 1.145 362
2.617 3.844 0.931 521
4.026 5.914 1.362 417
4.028 5.917 1.341 801
2.618 3.846 0.918 733
4.026 5.913 1.319 1110
2.619 3.848 0.904 914
4.028 5.916 1.299 1201
2.621 3.850 0.891 985
4.029 5.919 1.278 1101
3.700 5.434 1.184 1008
4.031 5.922 1.257 1265
3.697 5.430 1.164 1028
4.033 5.924 1.236 1800
3.699 5.433 1.145 1380
4.035 5.927 1.216 2258
3.700 5.435 1.126 1893
4.037 5.930 1.195 2240
3.702 5.438 1.107 2015
3.703 5.440 1.087 1939
4.043 5.939 1.175 1746
3.705 5.442 1.068 1943
3.277 4.814 0.960 1359
3.706 5.444 1.049 1817
3.278 4.816 0.943 1248
3.712 5.453 1.031 1460
3.284 4.824 0.928 923
3.714 5.455 1.012 977
3.290 4.833 0.912 703
3.715 5.457 0.993 570
3.287 4.828 0.894 541
2.554 3.752 0.711 669
3.717 5.459 0.974 398
2.555 3.753 0.698 847
3.718 5.461 0.955 289
2.556 3.755 0.685 849
3.295 4.840 0.844 349
2.561 3.763 0.673 796
3.291 4.835 0.826 436
2.562 3.764 0.659 658
3.292 4.836 0.809 482
3.294 4.838 0.792 460
2.563 3.765 0.646 382
3.295 4.840 0.775 423
3.724 5.471 0.859 296
3.296 4.841 0.759 378
3.721 5.466 0.839 267
3.292 4.836 0.741 267
1.317 1.930 1.821 2010
1.249 1.830 1.731 363
1.320 1.934 1.814 4021
1.252 1.834 1.725 726
1.330 1.949 1.817 4153
1.262 1.848 1.728 1052
1.337 1.958 1.815 3923
1.268 1.857 1.726 1078
1.343 1.967 1.812 3942
1.274 1.866 1.725 1173
1.342 1.966 1.801 3133
1.411 2.067 1.888 872
1.341 1.965 1.790 2453
1.410 2.066 1.877 1742
1.344 1.969 1.783 2453
1.413 2.070 1.869 1781
1.394 2.042 1.835 3819
1.325 1.940 1.749 1146
1.397 2.046 1.828 5266
1.327 1.944 1.742 846
1.400 2.050 1.821 4809
1.330 1.948 1.735 1028
1.402 2.054 1.814 4352
1.333 1.952 1.729 1209
1.394 2.042 1.793 3165
1.324 1.940 1.708 458
1.382 2.025 1.768 3293
1.452 2.127 1.853 869
1.385 2.028 1.761 2977
1.455 2.131 1.846 869
1.406 2.059 1.776 4904
1.484 2.174 1.869 550
1.420 2.080 1.782 8302
1.490 2.183 1.866 808
1.422 2.084 1.775 9644
1.493 2.187 1.858 1512
1.429 2.093 1.772 11053
1.500 2.197 1.855 1924
1.428 2.092 1.761 7969
1.499 2.196 1.843 2604
1.460 2.139 1.788 6224
1.389 2.035 1.706 1014
1.463 2.143 1.781 4673
1.534 2.248 1.862 915
1.492 2.186 1.803 4722
1.421 2.081 1.722 2774
1.495 2.190 1.796 5866
1.423 2.085 1.715 1921
1.498 2.194 1.788 7010
1.426 2.089 1.708 1068
1.508 2.209 1.789 7341
1.436 2.104 1.709 887
1.522 2.229 1.794 8858
1.442 2.113 1.706 701
1.528 2.239 1.790 8100
1.456 2.133 1.711 744
1.539 2.254 1.791 8055
1.467 2.148 1.712 1218
1.541 2.258 1.783 5695
1.469 2.152 1.704 942
1.578 2.312 1.812 4914
1.495 2.189 1.722 1427
1.577 2.311 1.800 4333
1.505 2.204 1.722 1076
1.565 2.292 1.776 4275
1.492 2.186 1.698 537
1.564 2.291 1.764 5461
1.636 2.397 1.841 422
1.566 2.294 1.756 6710
1.639 2.401 1.833 563
1.565 2.293 1.744 5219
1.638 2.400 1.820 1278
1.610 2.359 1.780 5701
1.537 2.251 1.704 1178
1.613 2.363 1.772 8067
1.540 2.255 1.696 1134
1.615 2.366 1.764 8877
1.689 2.474 1.839 1416
1.614 2.365 1.751 9692
1.688 2.472 1.826 2179
1.617 2.369 1.743 7207
1.691 2.477 1.818 2360
1.635 2.395 1.751 4799
1.709 2.503 1.825 2451
1.642 2.405 1.746 5013
1.716 2.513 1.820 3753
1.711 2.506 1.803 6115
1.636 2.397 1.730 3636
1.717 2.515 1.798 6409
1.643 2.407 1.726 2950
1.724 2.525 1.794 5969
1.650 2.416 1.721 2992
1.730 2.535 1.789 5754
1.656 2.426 1.716 3116
1.741 2.550 1.787 6568
1.666 2.441 1.716 2952
1.744 2.554 1.778 6386
1.669 2.445 1.707 1823
1.735 2.541 1.758 5807
1.809 2.650 1.829 1898
1.757 2.574 1.768 5730
1.682 2.464 1.697 1337
1.764 2.583 1.763 6504
1.839 2.693 1.833 1100
1.766 2.587 1.754 6325
1.841 2.697 1.824 1324
1.773 2.597 1.749 5165
1.848 2.707 1.818 1127
1.815 2.659 1.776 5518
1.740 2.549 1.707 1098
1.814 2.657 1.763 5482
1.738 2.547 1.694 1151
1.820 2.667 1.757 5617
1.745 2.556 1.689 1009
1.827 2.676 1.752 5628
1.903 2.787 1.820 1014
1.830 2.680 1.742 5460
1.906 2.791 1.810 2523
1.832 2.684 1.733 6758
1.908 2.795 1.800 5407
1.827 2.676 1.717 6608
1.911 2.799 1.790 5961
1.830 2.680 1.707 5517
1.918 2.809 1.784 5319
1.856 2.719 1.719 4348
1.932 2.831 1.785 3741
1.947 2.852 1.785 5734
1.871 2.741 1.720 3773
1.946 2.850 1.772 7506
2.022 2.962 1.837 2006
1.945 2.849 1.759 8409
2.021 2.961 1.823 3132
1.947 2.852 1.749 8092
2.024 2.965 1.813 3304
1.966 2.880 1.752 5991
2.043 2.992 1.816 1598
1.981 2.902 1.752 6875
2.058 3.014 1.816 2345
1.992 2.917 1.749 6947
2.073 3.036 1.815 3580
1.990 2.915 1.735 5117
2.079 3.046 1.808 4776
2.082 3.050 1.797 4491
1.989 2.913 1.722 3503
2.073 3.036 1.777 5180
1.995 2.923 1.715 2558
2.075 3.040 1.766 6037
2.153 3.153 1.828 1759
2.086 3.056 1.762 5507
2.164 3.169 1.823 1741
2.109 3.090 1.767 6720
2.187 3.203 1.828 1732
2.120 3.106 1.763 5194
2.198 3.219 1.823 1842
2.160 3.163 1.781 4133
2.082 3.050 1.721 1070
2.179 3.191 1.782 5030
2.101 3.077 1.723 1502
2.185 3.201 1.774 5902
2.107 3.087 1.715 1585
2.188 3.205 1.763 4948
2.266 3.320 1.822 1917
2.244 3.288 1.792 4722
2.166 3.173 1.733 2377
2.259 3.310 1.789 3562
2.338 3.424 1.847 1144
2.279 3.338 1.790 2718
2.200 3.223 1.732 1590
2.281 3.342 1.778 4340
2.203 3.227 1.721 1636
2.272 3.328 1.758 4790
2.350 3.443 1.814 2879
2.270 3.325 1.743 4051
2.353 3.447 1.802 2708
2.273 3.329 1.731 3658
2.351 3.445 1.787 3260
2.338 3.424 1.764 5529
2.458 3.600 1.848 1982
2.340 3.428 1.752 4230
2.461 3.605 1.836 1885
2.339 3.426 1.737 1623
2.451 3.590 1.815 1188
2.445 3.582 1.796 1588
2.524 3.698 1.851 1148
2.448 3.586 1.784 3135
2.527 3.702 1.838 2703
2.530 3.706 1.825 4726
2.451 3.590 1.771 4177
2.537 3.716 1.815 5602
2.458 3.600 1.762 4306
2.536 3.714 1.799 4590
2.456 3.598 1.746 3499
2.534 3.712 1.783 3288
2.626 3.847 1.844 2204
2.633 3.857 1.833 3733
2.554 3.741 1.781 2882
2.636 3.861 1.819 3774
2.556 3.745 1.768 2839
2.580 3.779 1.768 3068
2.660 3.896 1.819 2399
2.583 3.783 1.755 3963
2.742 4.017 1.856 2712
2.581 3.781 1.739 5220
2.741 4.015 1.839 3895
2.651 3.883 1.768 3534
2.744 4.019 1.825 3061
2.658 3.894 1.757 3342
2.763 4.048 1.822 2804
2.787 4.083 1.820 4249
2.661 3.897 1.743 2699
2.794 4.093 1.809 5004
2.676 3.920 1.737 2560
2.801 4.103 1.797 3650
2.687 3.936 1.729 2036
2.859 4.188 1.815 3378
2.778 4.070 1.768 1712
2.934 4.297 1.843 3166
2.853 4.180 1.796 2954
2.949 4.320 1.835 3806
2.856 4.184 1.781 3159
2.956 4.331 1.822 5533
2.854 4.181 1.764 2375
2.963 4.341 1.810 5690
2.883 4.222 1.764 1646
2.957 4.332 1.790 4068
3.068 4.494 1.852 985
2.960 4.336 1.775 3434
3.050 4.467 1.824 1436
2.976 4.359 1.766 2577
3.057 4.478 1.811 1535
2.987 4.375 1.756 3384
3.068 4.494 1.800 1537
2.985 4.373 1.738 3530
3.066 4.492 1.782 1733
3.065 4.489 1.764 2330
2.984 4.371 1.721 1872
3.067 4.493 1.748 2552
3.226 4.725 1.832 1865
3.074 4.503 1.735 1796
3.233 4.736 1.818 1782
3.235 4.740 1.801 1753
3.077 4.507 1.719 1139
3.234 4.737 1.782 1567
3.470 5.083 1.903 1144
3.241 4.747 1.768 1560
3.473 5.087 1.886 1265
3.471 5.085 1.866 1778
3.244 4.751 1.751 1478
3.474 5.089 1.848 2114
3.242 4.749 1.733 1095
3.477 5.093 1.830 2075
2.952 4.324 1.572 1457
3.484 5.103 1.814 1486
2.954 4.328 1.557 1239
3.133 4.590 1.627 1424
3.487 5.107 1.796 941
3.136 4.593 1.611 1581
3.485 5.105 1.776 804
3.134 4.591 1.593 1018
3.488 5.109 1.758 649
3.136 4.594 1.577 739
3.857 5.651 1.910 643
3.752 5.497 1.841 681
2.966 4.344 1.481 649
3.751 5.494 1.820 722
3.236 4.740 1.587 673
4.104 6.012 1.957 915
2.974 4.357 1.453 695
4.107 6.016 1.936 1438
2.972 4.354 1.436 908
4.110 6.021 1.915 1909
2.966 4.344 1.417 956
4.113 6.025 1.894 2185
3.970 5.815 1.832 1278
4.116 6.029 1.872 2275
2.948 4.319 1.377 1174
4.119 6.033 1.851 1723
2.950 4.322 1.362 1147
2.948 4.318 1.345 966
4.187 6.133 1.857 936
4.246 6.220 1.859 813
2.945 4.315 1.328 809
4.253 6.230 1.839 816
2.947 4.317 1.313 551
4.256 6.234 1.817 724
4.008 5.871 1.718 502
4.263 6.245 1.796 441
4.006 5.868 1.696 380
4.270 6.255 1.776 405
2.962 4.339 1.271 278
4.273 6.259 1.754 327
2.968 4.348 1.258 313
2.979 4.363 1.246 265
2.972 4.353 1.227 459
1.477 2.164 0.675 321
2.973 4.356 1.212 851
1.482 2.172 0.669 395
2.975 4.358 1.197 1141
1.483 2.173 0.661 426
2.977 4.361 1.181 1388
4.399 6.445 1.684 359
2.979 4.363 1.166 1542
4.393 6.436 1.659 441
2.976 4.359 1.149 1574
4.286 6.279 1.599 501
2.977 4.362 1.134 1403
4.297 6.295 1.580 461
2.975 4.358 1.117 1091
4.387 6.427 1.587 447
2.976 4.360 1.102 724
4.399 6.443 1.567 412
3.580 5.244 1.280 486
2.978 4.362 1.087 439
2.619 3.837 0.958 562
3.581 5.246 1.262 534
2.620 3.839 0.944 855
3.583 5.249 1.243 430
2.622 3.841 0.931 1196
4.034 5.909 1.362 336
2.623 3.842 0.918 1434
4.036 5.912 1.341 671
2.624 3.844 0.904 1462
4.033 5.908 1.319 979
2.626 3.846 0.891 1277
4.035 5.911 1.299 1096
4.037 5.914 1.278 1023
2.627 3.848 0.877 993
4.039 5.917 1.257 1216
3.704 5.426 1.164 802
4.041 5.919 1.236 1794
3.710 5.435 1.146 1093
4.043 5.922 1.216 2276
3.712 5.437 1.127 1467
4.044 5.924 1.195 2241
3.709 5.433 1.107 1540
4.051 5.933 1.175 1715
3.710 5.435 1.087 1500
3.712 5.437 1.068 1477
4.048 5.929 1.153 972
3.713 5.440 1.049 1331
3.285 4.812 0.943 670
3.719 5.448 1.031 1041
3.295 4.826 0.929 486
3.721 5.450 1.012 666
4.057 5.943 1.092 434
2.558 3.747 0.724 662
3.722 5.453 0.993 379
2.564 3.755 0.712 1024
3.728 5.461 0.975 271
2.560 3.750 0.698 1345
3.300 4.834 0.861 265
2.565 3.758 0.686 1459
3.301 4.835 0.844 392
2.566 3.759 0.673 1457
3.298 4.831 0.826 452
2.567 3.760 0.659 1331
3.299 4.832 0.809 443
2.568 3.762 0.646 1019
3.295 4.827 0.791 379
2.569 3.763 0.633 657
3.301 4.835 0.775 338
2.570 3.764 0.620 347
3.302 4.837 0.759 297
1.321 1.928 1.821 1919
1.252 1.828 1.731 343
1.324 1.932 1.814 3838
1.255 1.832 1.725 687
1.334 1.946 1.817 4015
1.265 1.846 1.728 1062
1.340 1.956 1.815 3839
1.271 1.855 1.726 1088
1.350 1.970 1.817 3949
1.281 1.869 1.729 1412
1.349 1.969 1.806 2998
1.280 1.868 1.718 731
1.392 2.032 1.849 2485
1.323 1.930 1.762 1345
1.395 2.036 1.842 2485
1.325 1.934 1.755 1345
1.398 2.040 1.835 3875
1.328 1.938 1.749 1095
1.400 2.044 1.828 5266
1.331 1.942 1.742 845
1.403 2.048 1.821 4879
1.333 1.946 1.735 1044
1.402 2.047 1.809 4534
1.332 1.944 1.724 1040
1.398 2.040 1.793 3657
1.327 1.937 1.708 460
1.386 2.022 1.768 3740
1.456 2.125 1.853 834
1.388 2.026 1.761 3360
1.459 2.129 1.846 834
1.428 2.084 1.799 5270
1.357 1.981 1.715 803
1.423 2.077 1.782 8517
1.494 2.181 1.866 867
1.430 2.087 1.780 9993
1.501 2.190 1.863 1348
1.432 2.091 1.772 11497
1.504 2.194 1.855 1934
1.435 2.095 1.765 8205
1.506 2.198 1.848 2194
1.464 2.137 1.788 6366
1.393 2.033 1.706 1026
1.467 2.141 1.781 4710
1.538 2.245 1.862 911
1.496 2.183 1.803 4740
1.424 2.079 1.722 2644
1.499 2.187 1.796 5886
1.427 2.083 1.715 1864
1.501 2.191 1.788 7032
1.430 2.086 1.708 1083
1.512 2.206 1.789 7152
1.440 2.101 1.709 922
1.526 2.227 1.794 8579
1.446 2.110 1.706 701
1.532 2.236 1.790 8078
1.460 2.131 1.711 694
1.543 2.251 1.791 8212
1.470 2.146 1.712 1104
1.545 2.255 1.783 5887
1.473 2.150 1.704 861
1.582 2.309 1.812 4737
1.498 2.187 1.722 1432
1.581 2.308 1.800 4225
1.509 2.202 1.722 1107
1.573 2.295 1.780 4342
1.500 2.189 1.702 532
1.568 2.288 1.764 5487
1.641 2.394 1.841 479
1.570 2.292 1.756 6716
1.643 2.398 1.833 633
1.573 2.296 1.748 5097
1.646 2.402 1.824 1101
1.614 2.356 1.780 5845
1.541 2.249 1.704 1166
1.617 2.360 1.772 8251
1.543 2.253 1.696 1121
1.620 2.364 1.764 9107
1.693 2.471 1.839 1487
1.618 2.362 1.751 9979
1.692 2.470 1.826 2226
1.621 2.366 1.743 7528
1.695 2.474 1.818 2231
1.639 2.392 1.751 5095
1.713 2.500 1.825 2431
1.646 2.402 1.746 5136
1.720 2.510 1.820 3776
1.715 2.503 1.803 6222
1.641 2.394 1.730 3555
1.722 2.512 1.798 6555
1.647 2.404 1.726 2755
1.728 2.522 1.794 5760
1.654 2.413 1.721 2783
1.735 2.532 1.789 5205
1.660 2.423 1.716 2965
1.745 2.547 1.787 6036
1.671 2.438 1.716 2860
1.748 2.551 1.778 6156
1.673 2.442 1.707 1959
1.735 2.532 1.755 6046
1.810 2.642 1.826 2546
1.761 2.571 1.768 5959
1.686 2.461 1.697 1562
1.768 2.580 1.763 6651
1.843 2.690 1.833 1091
1.771 2.584 1.754 6248
1.846 2.694 1.824 1335
1.817 2.652 1.785 5198
1.742 2.542 1.716 1327
1.820 2.656 1.776 6021
1.744 2.546 1.707 1134
1.822 2.660 1.767 5604
1.747 2.549 1.698 1385
1.825 2.664 1.757 5152
1.749 2.553 1.689 1047
1.832 2.673 1.752 5419
1.908 2.784 1.820 931
1.838 2.683 1.746 5848
1.914 2.794 1.813 2008
1.841 2.687 1.737 7290
1.917 2.798 1.804 4502
1.844 2.691 1.727 6774
1.920 2.802 1.794 5248
1.834 2.677 1.707 5149
1.927 2.812 1.788 4680
1.877 2.739 1.733 4496
1.953 2.851 1.799 3399
1.952 2.849 1.785 5725
1.876 2.737 1.720 4145
1.951 2.847 1.772 7475
2.027 2.959 1.837 2119
1.954 2.851 1.762 7965
2.030 2.963 1.827 2959
1.952 2.849 1.749 7042
2.029 2.961 1.813 3480
1.975 2.882 1.756 5604
2.052 2.995 1.820 1697
1.986 2.898 1.752 6901
2.063 3.011 1.816 2647
1.997 2.914 1.749 6953
2.078 3.032 1.815 3740
1.995 2.912 1.735 5072
2.085 3.042 1.808 4791
2.087 3.046 1.797 4528
1.994 2.910 1.722 3394
2.078 3.033 1.777 5510
2.000 2.919 1.715 2542
2.081 3.036 1.766 6295
2.158 3.150 1.828 1563
2.091 3.052 1.762 5538
2.169 3.166 1.823 1755
2.119 3.092 1.771 6871
2.041 2.979 1.710 1866
2.130 3.108 1.766 5416
2.052 2.994 1.706 1904
2.161 3.154 1.777 4097
2.054 2.998 1.695 1134
2.180 3.182 1.779 5246
2.258 3.296 1.839 1341
2.187 3.192 1.771 6064
2.265 3.306 1.830 1746
2.190 3.196 1.760 5068
2.268 3.310 1.819 2385
2.254 3.290 1.795 4888
2.176 3.175 1.736 2549
2.261 3.300 1.786 3864
2.339 3.414 1.844 1297
2.317 3.382 1.814 2682
2.218 3.237 1.741 1693
2.287 3.338 1.778 4329
2.366 3.453 1.835 1690
2.286 3.336 1.764 4957
2.364 3.451 1.820 2714
2.276 3.321 1.743 4105
2.359 3.443 1.802 2601
2.278 3.325 1.731 3767
2.357 3.440 1.787 2905
2.343 3.420 1.764 5868
2.464 3.596 1.848 1952
2.346 3.424 1.752 4374
2.463 3.594 1.833 1962
2.453 3.580 1.812 1490
2.357 3.440 1.745 1482
2.456 3.584 1.799 1796
2.535 3.700 1.853 1071
2.450 3.576 1.781 3260
2.529 3.692 1.835 2831
2.536 3.702 1.825 4848
2.457 3.586 1.771 4078
2.543 3.712 1.815 5553
2.464 3.596 1.762 4046
2.542 3.710 1.799 4521
2.462 3.594 1.746 3510
2.536 3.702 1.780 3523
2.633 3.842 1.844 2257
2.640 3.853 1.833 3843
2.556 3.730 1.778 2956
2.643 3.857 1.819 4107
2.563 3.740 1.768 2738
2.650 3.867 1.808 3205
2.570 3.750 1.758 2440
2.585 3.773 1.752 4175
2.690 3.926 1.819 2592
2.588 3.776 1.739 5461
2.748 4.010 1.839 3449
2.658 3.879 1.768 3752
2.751 4.014 1.825 2749
2.665 3.889 1.757 3579
2.770 4.043 1.822 2834
2.799 4.084 1.823 4003
2.667 3.893 1.743 2904
2.801 4.088 1.809 4961
2.683 3.915 1.737 2662
2.808 4.098 1.797 3755
2.685 3.919 1.724 2088
2.866 4.183 1.815 3389
2.786 4.065 1.768 1576
2.941 4.292 1.843 3131
2.860 4.175 1.796 2872
2.957 4.315 1.835 3934
2.863 4.179 1.781 3073
2.964 4.325 1.822 5794
2.866 4.183 1.766 2366
2.971 4.336 1.810 5937
2.890 4.217 1.764 1720
2.965 4.327 1.790 4110
3.076 4.489 1.852 936
2.968 4.331 1.775 3475
3.062 4.468 1.827 1139
2.983 4.354 1.766 2733
3.064 4.472 1.811 1123
2.999 4.376 1.758 3924
3.080 4.495 1.802 1452
2.997 4.374 1.740 4204
3.078 4.493 1.784 1826
3.073 4.484 1.764 2368
2.991 4.365 1.721 2100
3.075 4.488 1.748 2768
3.234 4.720 1.832 1951
3.082 4.498 1.735 2071
3.241 4.730 1.818 1892
3.244 4.734 1.801 1878
3.085 4.502 1.719 1205
3.242 4.732 1.782 1608
3.479 5.077 1.903 946
3.249 4.742 1.768 1569
3.481 5.081 1.886 1177
3.480 5.079 1.866 1782
3.256 4.752 1.754 1512
3.483 5.083 1.848 1985
3.250 4.743 1.733 1000
3.486 5.087 1.830 1821
2.959 4.319 1.572 1333
3.493 5.097 1.814 1269
2.962 4.323 1.557 1176
3.141 4.584 1.627 1277
3.495 5.101 1.796 809
3.144 4.588 1.611 1446
3.494 5.099 1.776 753
3.142 4.585 1.593 914
2.973 4.339 1.514 663
2.971 4.336 1.497 846
3.144 4.589 1.577 679
2.973 4.339 1.481 802
3.762 5.490 1.841 641
3.765 5.494 1.822 689
2.980 4.349 1.468 638
4.115 6.005 1.957 747
3.832 5.593 1.831 658
4.118 6.009 1.936 1202
3.935 5.743 1.856 818
4.120 6.014 1.915 1615
3.986 5.817 1.856 964
4.123 6.018 1.894 1913
3.976 5.802 1.830 1220
4.126 6.022 1.872 2016
2.956 4.313 1.377 1117
4.129 6.026 1.851 1476
2.958 4.316 1.362 1293
2.955 4.313 1.345 1253
4.197 6.126 1.857 720
2.957 4.316 1.330 1089
4.261 6.219 1.860 807
4.264 6.223 1.839 836
2.955 4.312 1.313 831
4.267 6.227 1.817 768
2.961 4.322 1.300 542
4.274 6.237 1.796 495
2.959 4.318 1.283 340
4.277 6.241 1.775 419
4.040 5.897 1.684 276
3.352 4.892 1.400 338
2.975 4.343 1.258 327
2.977 4.345 1.242 420
1.480 2.160 0.682 307
2.979 4.348 1.227 663
1.481 2.161 0.675 435
2.981 4.350 1.212 1078
1.486 2.169 0.669 525
2.983 4.353 1.197 1332
1.487 2.170 0.661 534
2.984 4.356 1.181 1484
1.492 2.178 0.655 436
2.986 4.358 1.166 1609
4.404 6.428 1.659 449
2.983 4.354 1.149 1568
4.301 6.278 1.600 501
2.985 4.356 1.134 1290
4.313 6.294 1.581 485
2.982 4.352 1.117 956
4.399 6.419 1.587 490
2.984 4.355 1.102 622
4.405 6.429 1.565 414
2.620 3.824 0.970 555
3.593 5.244 1.282 463
2.621 3.826 0.956 847
3.591 5.240 1.262 594
2.627 3.834 0.944 1091
3.592 5.243 1.243 515
2.624 3.830 0.930 1258
3.590 5.239 1.224 395
2.625 3.831 0.916 1323
4.046 5.905 1.341 549
2.631 3.840 0.904 1316
4.044 5.901 1.319 841
2.632 3.842 0.891 1197
4.045 5.904 1.299 971
2.633 3.843 0.877 978
4.047 5.907 1.278 892
4.049 5.910 1.257 1087
2.635 3.845 0.864 738
4.055 5.919 1.238 1667
3.719 5.428 1.146 760
4.053 5.915 1.216 2099
3.721 5.431 1.127 1023
4.055 5.917 1.195 2050
3.718 5.426 1.107 1061
4.061 5.926 1.175 1569
3.724 5.435 1.089 985
3.726 5.438 1.070 923
4.058 5.922 1.153 895
3.727 5.440 1.050 778
4.060 5.925 1.132 486
3.729 5.442 1.031 547
4.061 5.927 1.112 420
2.564 3.742 0.737 533
3.730 5.444 1.012 338
2.565 3.743 0.724 912
3.621 5.284 0.968 274
2.566 3.744 0.711 1426
3.626 5.293 0.950 271
2.567 3.746 0.698 1930
3.304 4.821 0.860 344
2.567 3.747 0.685 2138
3.305 4.823 0.843 486
2.573 3.755 0.673 2132
3.306 4.825 0.826 516
2.574 3.756 0.659 1940
3.307 4.827 0.809 468
2.574 3.757 0.646 1461
3.308 4.828 0.792 401
2.575 3.758 0.633 914
3.305 4.823 0.775 372
2.576 3.760 0.620 485
3.306 4.825 0.758 321
1.324 1.926 1.821 1861
1.255 1.826 1.731 326
1.326 1.930 1.814 3723
1.258 1.830 1.725 652
1.336 1.944 1.817 3947
1.267 1.844 1.728 1021
1.346 1.959 1.819 3813
1.277 1.859 1.731 1288
1.353 1.968 1.817 3980
1.284 1.868 1.729 1409
1.356 1.972 1.810 2990
1.286 1.871 1.723 899
1.395 2.030 1.849 2529
1.325 1.928 1.762 1228
1.398 2.034 1.842 2529
1.328 1.932 1.755 1228
1.401 2.038 1.835 3822
1.331 1.936 1.749 1051
1.403 2.042 1.828 5115
1.333 1.940 1.742 874
1.402 2.041 1.816 4812
1.332 1.939 1.731 932
1.405 2.045 1.809 4591
1.335 1.942 1.724 1046
1.401 2.038 1.793 4037
1.330 1.935 1.708 456
1.392 2.026 1.773 4027
1.463 2.128 1.857 634
1.402 2.040 1.775 3742
1.473 2.143 1.859 350
1.431 2.082 1.799 5664
1.360 1.979 1.715 837
1.430 2.081 1.787 8734
1.501 2.184 1.870 817
1.433 2.085 1.780 10253
1.504 2.188 1.863 1317
1.435 2.089 1.772 11761
1.507 2.192 1.855 1858
1.442 2.098 1.770 8350
1.513 2.202 1.852 1690
1.463 2.129 1.784 6413
1.392 2.025 1.702 619
1.470 2.139 1.781 4718
1.541 2.243 1.862 880
1.499 2.181 1.803 4636
1.427 2.077 1.722 2507
1.502 2.185 1.796 5777
1.430 2.081 1.715 1811
1.504 2.189 1.788 6919
1.433 2.084 1.708 1115
1.515 2.204 1.789 6901
1.443 2.099 1.709 965
1.529 2.225 1.794 8244
1.449 2.108 1.706 706
1.535 2.234 1.790 7971
1.463 2.129 1.711 681
1.546 2.249 1.791 8229
1.473 2.144 1.712 1014
1.545 2.248 1.779 5994
1.472 2.142 1.700 641
1.586 2.307 1.812 4437
1.505 2.190 1.726 1437
1.573 2.289 1.788 4100
1.500 2.183 1.710 897
1.576 2.293 1.780 4242
1.503 2.187 1.702 511
1.575 2.291 1.768 5295
1.648 2.398 1.845 422
1.574 2.289 1.756 6455
1.647 2.396 1.833 660
1.576 2.293 1.748 4834
1.650 2.400 1.824 1126
1.618 2.354 1.780 5814
1.544 2.247 1.704 1148
1.620 2.357 1.772 8186
1.547 2.250 1.696 1112
1.623 2.361 1.764 9021
1.697 2.469 1.839 1499
1.622 2.360 1.751 9901
1.696 2.467 1.826 2196
1.624 2.363 1.743 7554
1.702 2.477 1.822 2156
1.643 2.390 1.751 5219
1.717 2.498 1.825 2386
1.649 2.400 1.746 5174
1.723 2.508 1.820 3696
1.718 2.500 1.803 6126
1.644 2.392 1.730 3506
1.725 2.510 1.798 6454
1.651 2.402 1.726 2641
1.732 2.520 1.794 5458
1.657 2.411 1.721 2683
1.738 2.529 1.789 4710
1.664 2.421 1.716 2923
1.749 2.545 1.787 5557
1.674 2.436 1.716 2890
1.752 2.549 1.778 5964
1.677 2.440 1.707 2132
1.739 2.530 1.755 6236
1.814 2.639 1.826 2696
1.765 2.568 1.768 6250
1.690 2.459 1.697 1751
1.772 2.578 1.763 6881
1.847 2.687 1.833 1105
1.774 2.582 1.754 6259
1.850 2.691 1.824 1390
1.821 2.649 1.785 5452
1.745 2.539 1.716 1312
1.824 2.653 1.776 6046
1.748 2.543 1.707 1101
1.826 2.657 1.767 5396
1.750 2.547 1.698 1276
1.829 2.661 1.757 4602
1.753 2.551 1.689 986
1.840 2.677 1.755 5095
1.916 2.787 1.823 840
1.842 2.680 1.746 5956
1.918 2.791 1.813 1873
1.845 2.684 1.737 7362
1.921 2.795 1.804 4055
1.848 2.688 1.727 6729
1.924 2.799 1.794 4652
1.834 2.668 1.704 4867
1.931 2.809 1.788 4188
1.885 2.743 1.736 4307
1.962 2.854 1.802 3330
1.956 2.846 1.785 5604
1.880 2.735 1.720 3804
1.955 2.844 1.772 7349
2.032 2.956 1.837 2252
1.958 2.848 1.762 7571
2.034 2.960 1.827 3027
1.956 2.846 1.749 6245
2.033 2.958 1.813 3465
1.979 2.880 1.756 5322
1.902 2.767 1.692 1814
1.990 2.895 1.752 6825
2.071 3.014 1.819 2586
2.001 2.911 1.749 6953
2.082 3.029 1.815 3690
1.999 2.909 1.735 5063
2.093 3.045 1.811 4806
2.092 3.043 1.797 4563
2.002 2.913 1.725 3320
2.082 3.030 1.777 5365
2.005 2.917 1.715 2494
2.085 3.033 1.766 5921
2.163 3.147 1.828 1406
2.100 3.055 1.765 5111
2.178 3.169 1.827 1488
2.123 3.089 1.771 6580
2.045 2.976 1.710 1864
2.134 3.105 1.766 5345
2.056 2.991 1.706 2067
2.153 3.133 1.768 4205
2.231 3.246 1.828 1330
2.185 3.179 1.779 5369
2.263 3.292 1.839 1361
2.191 3.188 1.771 6077
2.270 3.302 1.830 1738
2.194 3.192 1.760 4994
2.273 3.307 1.819 2473
2.259 3.286 1.795 4942
2.180 3.172 1.736 2621
2.266 3.296 1.786 3955
2.344 3.411 1.844 1223
2.322 3.379 1.814 2817
2.244 3.264 1.757 1564
2.296 3.341 1.781 4316
2.375 3.455 1.838 1687
2.294 3.338 1.767 4953
2.373 3.453 1.823 2607
2.281 3.318 1.743 4121
2.368 3.445 1.805 2494
2.283 3.322 1.731 3900
2.362 3.437 1.787 2635
2.348 3.417 1.764 6187
2.469 3.593 1.848 1868
2.355 3.427 1.755 4620
2.468 3.591 1.833 1970
2.437 3.546 1.797 1798
2.358 3.431 1.743 1437
2.436 3.544 1.782 2225
2.532 3.684 1.848 1148
2.451 3.566 1.778 3526
2.535 3.688 1.835 2874
2.542 3.698 1.825 4886
2.462 3.582 1.771 3946
2.549 3.708 1.815 5490
2.469 3.592 1.762 3645
2.539 3.694 1.793 4632
2.459 3.578 1.741 3292
2.542 3.698 1.780 3911
2.453 3.569 1.723 2309
2.645 3.849 1.833 3902
2.557 3.720 1.776 3209
2.652 3.859 1.822 4491
2.572 3.743 1.771 2936
2.655 3.863 1.808 3500
2.575 3.747 1.758 2534
2.590 3.769 1.752 4152
2.692 3.916 1.816 2625
2.593 3.773 1.739 5376
2.673 3.890 1.789 3014
2.663 3.875 1.768 3780
2.761 4.017 1.828 2456
2.670 3.885 1.757 3588
2.776 4.039 1.822 2768
2.804 4.080 1.823 3736
2.673 3.889 1.743 3023
2.807 4.084 1.809 4795
2.684 3.905 1.735 2722
2.814 4.094 1.797 3888
2.687 3.909 1.721 2088
2.872 4.179 1.815 3400
2.791 4.061 1.768 1506
2.943 4.282 1.840 3059
2.862 4.164 1.793 2621
2.963 4.311 1.835 3975
2.873 4.181 1.783 2970
2.970 4.321 1.822 5812
2.889 4.203 1.776 2445
2.981 4.338 1.812 5939
2.900 4.220 1.766 1936
2.971 4.323 1.790 4017
3.078 4.478 1.850 886
2.974 4.327 1.775 3419
3.072 4.470 1.829 997
2.994 4.356 1.769 2788
3.075 4.474 1.813 988
3.005 4.372 1.758 4246
3.086 4.491 1.802 1519
3.003 4.370 1.740 4682
3.085 4.488 1.784 1880
3.002 4.367 1.723 2447
3.083 4.486 1.766 2318
3.082 4.484 1.748 2972
3.241 4.715 1.832 1967
3.089 4.494 1.735 2322
3.248 4.725 1.818 1904
3.250 4.729 1.801 1860
3.091 4.498 1.719 1267
3.249 4.727 1.782 1551
3.486 5.072 1.903 771
3.260 4.743 1.770 1542
3.489 5.076 1.886 1048
3.487 5.074 1.866 1689
3.263 4.747 1.754 1521
3.490 5.078 1.848 1789
3.261 4.745 1.735 887
3.497 5.088 1.832 1511
2.966 4.315 1.572 1063
3.500 5.092 1.814 990
2.968 4.318 1.557 967
3.152 4.586 1.629 1106
3.420 4.977 1.757 784
3.155 4.590 1.613 1256
3.427 4.987 1.742 679
3.148 4.581 1.593 741
2.975 4.328 1.512 660
2.977 4.332 1.497 1011
3.155 4.591 1.579 636
2.979 4.335 1.481 852
3.765 5.478 1.839 626
3.768 5.483 1.820 671
2.986 4.344 1.468 585
3.840 5.588 1.831 747
3.940 5.733 1.876 686
4.126 6.003 1.936 958
3.943 5.737 1.856 873
4.129 6.008 1.915 1315
3.994 5.811 1.856 983
4.132 6.012 1.894 1670
3.979 5.790 1.828 1193
4.135 6.016 1.872 1837
3.978 5.788 1.806 1124
4.138 6.020 1.851 1282
2.959 4.306 1.360 1266
2.961 4.309 1.345 1316
4.272 6.215 1.884 701
2.963 4.312 1.330 1248
4.270 6.213 1.860 797
2.965 4.314 1.315 1029
4.273 6.217 1.839 791
2.967 4.317 1.300 717
4.276 6.221 1.817 706
2.965 4.314 1.283 527
4.283 6.231 1.796 467
2.971 4.323 1.269 449
4.286 6.235 1.775 408
2.977 4.332 1.256 534
3.359 4.887 1.400 332
2.979 4.335 1.241 708
1.483 2.158 0.682 330
2.985 4.344 1.227 923
1.484 2.159 0.675 488
2.983 4.340 1.210 1184
1.489 2.167 0.669 581
2.989 4.349 1.197 1357
1.495 2.175 0.663 591
2.991 4.351 1.181 1455
1.495 2.176 0.655 505
2.992 4.354 1.166 1540
4.414 6.422 1.659 477
2.990 4.350 1.149 1447
4.310 6.272 1.600 550
2.991 4.352 1.134 1142
4.322 6.288 1.581 507
2.988 4.348 1.117 835
4.408 6.413 1.587 468
2.990 4.350 1.102 505
4.410 6.417 1.564 384
2.630 3.826 0.971 409
3.601 5.239 1.282 405
3.602 5.241 1.263 576
2.627 3.822 0.956 532
2.628 3.824 0.943 608
3.600 5.238 1.243 545
2.629 3.826 0.930 652
3.288 4.784 1.130 536
2.631 3.828 0.916 681
3.290 4.786 1.113 599
2.632 3.830 0.903 735
4.052 5.896 1.319 670
4.054 5.898 1.299 810
2.633 3.831 0.889 791
2.634 3.833 0.876 801
4.056 5.901 1.278 766
4.058 5.904 1.257 934
2.640 3.841 0.864 708
4.064 5.913 1.238 1432
3.785 5.507 1.162 674
4.061 5.909 1.216 1811
3.782 5.503 1.141 636
4.063 5.912 1.195 1769
3.784 5.505 1.122 595
4.069 5.921 1.175 1347
3.790 5.514 1.103 487
4.066 5.917 1.153 752
3.734 5.432 1.070 424
4.068 5.919 1.132 398
3.739 5.441 1.052 342
4.074 5.928 1.113 344
3.741 5.443 1.032 289
2.569 3.738 0.737 387
3.627 5.277 0.986 317
2.570 3.739 0.724 750
3.628 5.279 0.968 316
2.575 3.747 0.712 1305
3.745 5.449 0.975 327
2.572 3.742 0.698 1977
3.311 4.817 0.860 384
2.573 3.743 0.685 2524
3.312 4.818 0.843 496
2.578 3.751 0.673 2725
3.313 4.820 0.826 512
2.579 3.752 0.659 2683
3.314 4.822 0.809 438
2.580 3.754 0.646 2343
3.315 4.823 0.792 340
2.576 3.748 0.632 1689
3.316 4.825 0.775 302
2.577 3.750 0.619 995
3.317 4.826 0.759 261
2.578 3.751 0.606 458
1.327 1.924 1.821 1767
1.258 1.824 1.731 313
1.329 1.928 1.814 3534
1.260 1.828 1.725 626
1.343 1.948 1.821 3825
1.274 1.847 1.733 1217
1.349 1.957 1.819 3817
1.280 1.857 1.731 1320
1.356 1.966 1.817 4072
1.287 1.866 1.729 1466
1.359 1.970 1.810 3084
1.289 1.869 1.723 943
1.398 2.027 1.849 2590
1.328 1.926 1.762 1205
1.401 2.031 1.842 2590
1.331 1.930 1.755 1205
1.404 2.036 1.835 3762
1.334 1.934 1.749 1045
1.407 2.040 1.828 4934
1.336 1.938 1.742 885
1.406 2.038 1.816 4785
1.335 1.937 1.731 917
1.405 2.037 1.805 4788
1.334 1.935 1.720 803
1.404 2.036 1.793 4653
1.333 1.933 1.708 442
1.403 2.034 1.782 4673
1.473 2.137 1.866 370
1.409 2.044 1.779 4528
1.480 2.146 1.863 265
1.434 2.080 1.799 6202
1.363 1.977 1.715 893
1.437 2.084 1.791 9105
1.366 1.981 1.708 986
1.436 2.082 1.780 10627
1.507 2.186 1.863 1305
1.439 2.086 1.772 12141
1.510 2.190 1.855 1811
1.445 2.096 1.770 8588
1.517 2.199 1.852 1649
1.467 2.127 1.784 6377
1.395 2.023 1.702 602
1.469 2.131 1.776 4639
1.541 2.235 1.858 972
1.502 2.179 1.803 4608
1.431 2.074 1.722 2316
1.505 2.183 1.796 5745
1.433 2.078 1.715 1721
1.508 2.187 1.788 6882
1.436 2.082 1.708 1126
1.518 2.202 1.789 6788
1.446 2.097 1.709 1011
1.532 2.222 1.794 7984
1.460 2.117 1.714 764
1.539 2.232 1.790 7893
1.466 2.127 1.711 681
1.545 2.241 1.787 8217
1.473 2.136 1.708 711
1.548 2.245 1.779 6113
1.621 2.351 1.858 575
1.551 2.249 1.771 4009
1.624 2.355 1.849 690
1.577 2.286 1.788 3997
1.504 2.180 1.710 865
1.579 2.290 1.780 4235
1.506 2.184 1.702 517
1.578 2.289 1.768 5319
1.652 2.395 1.845 446
1.577 2.287 1.756 6534
1.651 2.394 1.833 672
1.584 2.297 1.752 4889
1.657 2.403 1.828 928
1.621 2.351 1.780 5935
1.548 2.244 1.704 1145
1.624 2.355 1.772 8288
1.550 2.248 1.696 1098
1.627 2.359 1.764 9049
1.701 2.466 1.839 1483
1.625 2.357 1.751 9839
1.699 2.464 1.826 2123
1.628 2.361 1.743 7633
1.710 2.480 1.825 2099
1.646 2.387 1.751 5453
1.721 2.495 1.825 2389
1.653 2.397 1.746 5327
1.727 2.505 1.820 3683
1.718 2.492 1.799 6061
1.644 2.384 1.726 3058
1.729 2.507 1.798 6326
1.654 2.399 1.726 2602
1.724 2.500 1.782 5126
1.649 2.391 1.710 1552
1.746 2.532 1.792 4153
1.671 2.424 1.720 3268
1.753 2.542 1.787 4995
1.678 2.433 1.716 2917
1.756 2.546 1.778 5690
1.681 2.437 1.707 2218
1.743 2.527 1.755 6279
1.818 2.636 1.826 2913
1.769 2.565 1.768 6419
1.694 2.456 1.697 1889
1.776 2.575 1.763 6980
1.851 2.685 1.833 1105
1.774 2.573 1.750 6216
1.850 2.683 1.820 1933
1.825 2.646 1.785 5801
1.749 2.537 1.716 1393
1.828 2.650 1.776 6200
1.752 2.540 1.707 1146
1.830 2.654 1.767 5331
1.754 2.544 1.698 1309
1.833 2.658 1.757 4014
1.757 2.548 1.689 1028
1.844 2.674 1.755 4620
1.768 2.563 1.687 881
1.850 2.683 1.749 5946
1.927 2.794 1.817 1375
1.853 2.687 1.740 7546
1.929 2.798 1.807 3004
1.856 2.691 1.731 7090
1.932 2.802 1.797 3803
1.858 2.695 1.721 5034
1.935 2.806 1.788 3627
1.889 2.740 1.736 4869
1.966 2.851 1.802 3094
1.904 2.761 1.737 6037
1.981 2.873 1.803 3744
1.959 2.841 1.772 7269
2.036 2.953 1.837 2385
1.962 2.845 1.762 7145
2.039 2.957 1.827 3119
1.961 2.843 1.749 5346
2.038 2.955 1.813 3488
1.984 2.877 1.756 5090
1.906 2.764 1.692 1974
1.994 2.892 1.752 6616
2.080 3.016 1.822 2708
2.005 2.908 1.749 6648
2.087 3.026 1.815 3760
2.098 3.042 1.811 4953
2.004 2.906 1.735 4797
2.096 3.040 1.797 4869
2.006 2.910 1.725 3064
2.087 3.026 1.777 5860
2.009 2.913 1.715 2343
2.090 3.030 1.766 6229
2.168 3.143 1.828 1310
2.101 3.046 1.762 5112
2.179 3.159 1.823 1719
2.128 3.086 1.771 6209
2.050 2.972 1.710 1821
2.139 3.102 1.766 5225
2.061 2.988 1.706 2082
2.158 3.129 1.768 4290
2.063 2.992 1.695 1401
2.190 3.175 1.779 5435
2.111 3.061 1.719 1395
2.196 3.185 1.771 6107
2.275 3.299 1.830 1597
2.199 3.189 1.760 4964
2.278 3.303 1.819 2420
2.264 3.283 1.795 4757
2.185 3.169 1.736 2649
2.271 3.293 1.786 3921
2.146 3.113 1.695 1279
2.327 3.375 1.814 2869
2.249 3.261 1.757 1782
2.301 3.337 1.781 4426
2.380 3.452 1.838 1802
2.300 3.335 1.767 5073
2.379 3.450 1.823 2825
2.290 3.321 1.746 4061
2.369 3.435 1.802 2540
2.343 3.397 1.770 4644
2.263 3.282 1.714 2394
2.354 3.413 1.764 7112
2.274 3.298 1.708 1749
2.361 3.423 1.755 5274
2.453 3.556 1.818 1978
2.443 3.542 1.797 2179
2.363 3.427 1.743 1786
2.441 3.540 1.782 2888
2.529 3.668 1.842 1171
2.448 3.550 1.772 4091
2.541 3.684 1.835 2920
2.548 3.694 1.825 4822
2.468 3.578 1.771 3845
2.550 3.698 1.812 5244
2.470 3.582 1.759 3196
2.540 3.684 1.790 4861
2.460 3.568 1.738 3146
2.547 3.694 1.780 4432
2.459 3.566 1.723 2316
2.656 3.851 1.836 4060
2.559 3.710 1.773 3672
2.658 3.855 1.822 4995
2.578 3.739 1.771 2887
2.653 3.847 1.803 4148
2.572 3.730 1.752 2405
2.596 3.765 1.752 4224
2.677 3.881 1.803 2759
2.599 3.769 1.739 5459
2.679 3.885 1.789 3268
2.674 3.877 1.770 3919
2.593 3.760 1.721 2668
2.676 3.881 1.757 3512
2.778 4.029 1.819 2834
2.811 4.076 1.823 3523
2.679 3.885 1.743 3061
2.818 4.086 1.811 4744
2.690 3.901 1.735 2780
2.820 4.090 1.797 4208
2.693 3.905 1.721 2067
2.879 4.174 1.815 3554
2.798 4.057 1.768 1665
2.945 4.271 1.838 2894
2.864 4.154 1.791 2578
2.970 4.306 1.835 3895
2.880 4.176 1.783 2898
2.981 4.323 1.825 5676
2.900 4.205 1.778 2659
2.988 4.333 1.812 5792
2.907 4.215 1.766 2093
2.978 4.318 1.790 3760
3.081 4.467 1.847 861
2.981 4.322 1.775 3307
3.079 4.465 1.829 951
3.000 4.351 1.769 2928
3.082 4.469 1.813 1097
3.012 4.367 1.758 4554
3.093 4.486 1.802 1678
3.010 4.365 1.740 5244
3.096 4.490 1.787 1899
3.013 4.369 1.725 2878
3.094 4.487 1.769 2296
3.089 4.479 1.748 3258
3.248 4.710 1.832 1958
3.096 4.489 1.735 2554
3.255 4.720 1.818 1886
3.258 4.724 1.801 1835
3.102 4.499 1.721 1243
3.261 4.728 1.785 1556
3.178 4.609 1.743 692
3.268 4.738 1.770 1534
3.497 5.071 1.886 906
3.499 5.075 1.868 1549
3.270 4.742 1.754 1465
3.502 5.079 1.850 1557
3.273 4.746 1.737 784
3.505 5.083 1.832 1226
2.977 4.317 1.575 761
3.512 5.093 1.816 785
2.975 4.314 1.557 773
3.159 4.581 1.629 930
3.428 4.971 1.757 756
3.162 4.585 1.613 1064
3.431 4.975 1.740 690
3.155 4.576 1.593 602
2.986 4.330 1.514 600
2.984 4.327 1.497 947
3.162 4.586 1.579 551
2.986 4.330 1.481 846
3.774 5.473 1.839 553
3.777 5.477 1.820 609
2.993 4.340 1.468 533
3.849 5.582 1.831 773
3.949 5.727 1.876 736
3.952 5.731 1.856 933
4.135 5.997 1.936 747
4.138 6.001 1.915 983
3.951 5.729 1.834 981
4.141 6.005 1.894 1320
3.984 5.777 1.827 1096
4.144 6.010 1.872 1518
3.982 5.775 1.804 1087
2.966 4.301 1.360 1119
4.147 6.014 1.851 1030
2.968 4.304 1.345 1348
4.281 6.208 1.884 709
2.970 4.307 1.330 1353
4.284 6.213 1.862 775
2.972 4.310 1.315 1187
4.283 6.210 1.839 744
2.974 4.313 1.300 925
4.285 6.214 1.817 648
2.976 4.315 1.285 754
4.288 6.218 1.795 434
2.978 4.318 1.269 735
4.295 6.229 1.775 372
2.980 4.321 1.254 838
3.362 4.875 1.399 318
2.986 4.330 1.241 1013
1.486 2.156 0.682 414
2.988 4.333 1.226 1204
1.487 2.157 0.675 578
2.989 4.335 1.210 1331
1.493 2.165 0.669 692
2.996 4.344 1.197 1354
1.494 2.166 0.661 713
2.997 4.347 1.181 1351
1.494 2.167 0.654 595
2.999 4.349 1.166 1405
4.327 6.274 1.625 472
2.996 4.345 1.149 1244
4.320 6.265 1.600 579
2.994 4.341 1.133 880
4.331 6.281 1.581 514
2.995 4.344 1.117 635
4.418 6.406 1.587 466
2.630 3.814 0.983 415
2.997 4.346 1.102 415
2.627 3.809 0.968 531
4.573 6.631 1.589 333
2.633 3.818 0.956 635
3.611 5.236 1.263 542
2.634 3.820 0.943 786
3.608 5.232 1.243 555
2.635 3.822 0.930 1048
3.295 4.779 1.130 509
2.637 3.824 0.916 1376
3.297 4.781 1.113 557
2.642 3.832 0.904 1607
3.782 5.484 1.238 585
2.639 3.827 0.889 1711
3.784 5.487 1.218 667
2.640 3.829 0.876 1633
3.785 5.489 1.199 654
2.646 3.837 0.864 1392
4.067 5.897 1.257 689
4.073 5.907 1.238 1119
2.647 3.839 0.850 1062
4.070 5.903 1.216 1456
2.648 3.841 0.837 749
4.072 5.905 1.195 1429
3.792 5.499 1.122 636
4.078 5.914 1.175 1062
3.794 5.502 1.102 520
4.076 5.910 1.153 576
3.373 4.891 0.977 439
3.743 5.429 1.050 421
3.374 4.893 0.960 361
3.745 5.431 1.031 531
3.634 5.269 1.005 331
3.746 5.433 1.012 518
3.635 5.271 0.986 371
3.748 5.435 0.993 470
2.576 3.735 0.724 442
2.581 3.743 0.712 809
3.754 5.443 0.975 456
2.582 3.744 0.699 1358
3.318 4.812 0.860 485
2.583 3.746 0.686 1887
3.319 4.813 0.843 570
2.584 3.747 0.673 2123
3.320 4.815 0.826 545
2.585 3.748 0.659 2222
3.321 4.817 0.809 431
2.586 3.750 0.646 2257
3.756 5.446 0.878 345
2.587 3.751 0.633 1970
3.757 5.448 0.859 296
2.587 3.752 0.620 1423
3.754 5.443 0.839 270
2.584 3.747 0.606 846
2.584 3.748 0.593 576
2.585 3.749 0.580 411
1.329 1.922 1.821 1645
1.260 1.822 1.731 306
1.332 1.926 1.814 3291
1.263 1.826 1.725 612
1.346 1.946 1.821 3645
1.277 1.846 1.733 1241
1.352 1.955 1.819 3747
1.283 1.855 1.731 1337
1.359 1.964 1.817 4092
1.289 1.864 1.729 1456
1.365 1.974 1.815 3180
1.295 1.873 1.727 1144
1.401 2.025 1.849 2517
1.331 1.925 1.762 1166
1.404 2.029 1.842 2517
1.334 1.928 1.755 1166
1.407 2.034 1.835 3566
1.337 1.932 1.749 1011
1.409 2.038 1.828 4615
1.339 1.936 1.742 857
1.409 2.036 1.816 4607
1.338 1.935 1.731 877
1.404 2.030 1.800 4865
1.333 1.928 1.715 562
1.407 2.034 1.793 5027
1.336 1.931 1.708 429
1.406 2.032 1.782 5244
1.476 2.134 1.866 405
1.412 2.041 1.779 5133
1.483 2.144 1.863 295
1.437 2.078 1.799 6640
1.366 1.975 1.715 910
1.440 2.082 1.791 9469
1.369 1.979 1.708 1004
1.443 2.086 1.784 10950
1.514 2.189 1.867 1117
1.445 2.090 1.777 12390
1.517 2.193 1.860 1505
1.448 2.094 1.770 8733
1.520 2.197 1.852 1611
1.470 2.125 1.784 6341
1.398 2.021 1.702 576
1.472 2.129 1.776 4608
1.544 2.233 1.858 946
1.506 2.177 1.803 4489
1.433 2.072 1.722 2122
1.508 2.181 1.796 5614
1.436 2.076 1.715 1632
1.511 2.185 1.788 6739
1.439 2.080 1.708 1143
1.521 2.199 1.789 6613
1.449 2.095 1.709 1053
1.536 2.220 1.794 7724
1.463 2.115 1.714 818
1.542 2.229 1.790 7802
1.469 2.124 1.711 643
1.549 2.239 1.787 8228
1.476 2.134 1.708 554
1.551 2.243 1.779 6191
1.624 2.348 1.858 559
1.554 2.247 1.771 4154
1.627 2.352 1.849 659
1.557 2.251 1.763 3913
1.630 2.357 1.841 792
1.583 2.288 1.780 4058
1.509 2.182 1.702 502
1.582 2.286 1.768 5136
1.655 2.393 1.845 451
1.580 2.285 1.756 6370
1.654 2.391 1.833 648
1.587 2.294 1.752 4779
1.661 2.401 1.828 880
1.625 2.349 1.780 5753
1.551 2.242 1.704 1121
1.627 2.353 1.772 8000
1.553 2.246 1.696 1060
1.630 2.357 1.764 8740
1.704 2.464 1.839 1415
1.629 2.355 1.751 9488
1.703 2.462 1.826 1979
1.635 2.364 1.747 7535
1.714 2.477 1.825 2024
1.650 2.385 1.751 5646
1.724 2.493 1.825 2375
1.660 2.400 1.750 5478
1.735 2.508 1.824 3260
1.722 2.489 1.799 6070
1.647 2.381 1.726 3040
1.733 2.505 1.798 6367
1.658 2.397 1.726 2466
1.727 2.497 1.782 5118
1.652 2.389 1.710 1586
1.730 2.501 1.773 3960
1.655 2.393 1.701 1344
1.757 2.540 1.787 4738
1.681 2.431 1.716 2825
1.759 2.544 1.778 5628
1.684 2.435 1.707 2223
1.742 2.519 1.751 6532
1.818 2.628 1.822 3514
1.777 2.569 1.772 6680
1.701 2.459 1.701 2259
1.779 2.573 1.763 7029
1.704 2.463 1.693 1238
1.778 2.571 1.750 6067
1.854 2.680 1.820 2029
1.833 2.650 1.789 5982
1.757 2.540 1.719 1571
1.831 2.648 1.776 6159
1.755 2.538 1.707 1117
1.834 2.652 1.767 5160
1.758 2.542 1.698 1221
1.837 2.656 1.757 3576
1.761 2.545 1.689 993
1.852 2.677 1.759 4645
1.775 2.566 1.691 989
1.854 2.681 1.749 6393
1.931 2.791 1.817 1285
1.857 2.685 1.740 7813
1.933 2.795 1.807 2595
1.860 2.688 1.731 7074
1.936 2.799 1.797 3242
1.862 2.692 1.721 4914
1.943 2.809 1.791 3131
1.897 2.743 1.740 5087
1.974 2.854 1.806 2672
1.908 2.758 1.737 6394
1.985 2.870 1.803 3273
1.963 2.838 1.772 6882
2.040 2.950 1.837 2422
1.966 2.842 1.762 6645
2.043 2.954 1.827 3106
1.977 2.858 1.759 4573
2.054 2.970 1.823 2212
1.988 2.874 1.756 4664
1.910 2.762 1.692 2106
2.003 2.895 1.756 6158
2.084 3.013 1.822 2715
2.009 2.905 1.749 6209
2.091 3.023 1.815 3623
2.102 3.039 1.811 4692
2.012 2.909 1.739 4504
2.097 3.031 1.794 4622
2.011 2.907 1.725 2913
2.091 3.023 1.777 5753
2.013 2.911 1.715 2247
2.090 3.021 1.763 6064
2.168 3.134 1.825 1506
2.105 3.043 1.762 4854
2.183 3.156 1.823 1778
2.136 3.089 1.774 5926
2.058 2.975 1.713 2015
2.147 3.104 1.769 5055
2.065 2.985 1.706 2122
2.162 3.126 1.768 4354
2.067 2.989 1.695 1425
2.194 3.172 1.779 5391
2.115 3.058 1.719 1295
2.201 3.182 1.771 5967
2.122 3.068 1.712 1533
2.204 3.186 1.760 4806
2.282 3.300 1.819 2364
2.269 3.280 1.795 4684
2.190 3.166 1.736 2491
2.271 3.284 1.783 4115
2.155 3.115 1.698 1339
2.332 3.372 1.814 2764
2.253 3.258 1.757 2162
2.306 3.334 1.781 4369
2.385 3.448 1.838 1858
2.304 3.332 1.767 5098
2.384 3.446 1.823 2956
2.303 3.329 1.752 4063
2.382 3.444 1.808 2616
2.347 3.394 1.770 5006
2.268 3.279 1.714 2206
2.354 3.404 1.761 7615
2.480 3.585 1.848 1610
2.365 3.420 1.755 5703
2.453 3.547 1.815 2161
2.444 3.533 1.794 2473
2.364 3.418 1.740 1978
2.442 3.531 1.779 3437
2.522 3.646 1.833 1248
2.453 3.547 1.772 4505
2.542 3.674 1.832 2958
2.553 3.691 1.825 4762
2.464 3.563 1.766 3785
2.556 3.695 1.812 5056
2.475 3.579 1.759 2937
2.546 3.680 1.790 5105
2.466 3.564 1.738 2896
2.553 3.690 1.780 4856
2.633 3.806 1.833 2279
2.661 3.847 1.836 4185
2.564 3.707 1.773 4027
2.664 3.851 1.822 5466
2.579 3.729 1.768 2784
2.658 3.843 1.803 4737
2.578 3.727 1.752 2358
2.602 3.761 1.752 4114
2.682 3.878 1.803 2820
2.604 3.765 1.739 5358
2.685 3.882 1.789 3297
2.679 3.873 1.770 3882
2.598 3.756 1.721 2647
2.682 3.877 1.757 3311
2.784 4.025 1.819 2828
2.816 4.072 1.823 3229
2.684 3.881 1.743 2965
2.824 4.082 1.811 4534
2.696 3.897 1.735 2747
2.826 4.086 1.797 4394
2.745 3.969 1.749 2122
2.880 4.164 1.813 3510
2.799 4.047 1.765 1821
2.951 4.267 1.838 2788
2.870 4.150 1.791 2571
2.976 4.302 1.835 3795
2.886 4.172 1.783 2779
2.987 4.318 1.825 5480
2.906 4.201 1.778 2715
2.994 4.329 1.812 5557
2.913 4.211 1.766 2044
2.988 4.320 1.792 3463
2.907 4.202 1.747 926
2.987 4.318 1.775 3081
3.086 4.461 1.829 923
3.007 4.347 1.769 2897
3.088 4.465 1.813 1260
3.018 4.363 1.758 4594
3.100 4.481 1.802 1831
3.021 4.367 1.743 5494
3.102 4.485 1.787 1904
3.019 4.365 1.725 3189
3.101 4.483 1.769 2283
3.095 4.474 1.748 3361
3.255 4.705 1.832 1841
3.102 4.485 1.735 2644
3.262 4.716 1.818 1792
3.265 4.720 1.801 1717
3.109 4.495 1.721 1210
3.267 4.724 1.785 1480
3.185 4.605 1.743 623
3.274 4.734 1.770 1435
3.504 5.066 1.886 867
3.507 5.070 1.868 1545
3.277 4.738 1.754 1288
3.510 5.074 1.850 1437
3.345 4.836 1.769 725
3.512 5.078 1.832 1001
3.352 4.846 1.754 678
3.454 4.994 1.785 710
3.372 4.875 1.745 548
3.170 4.583 1.631 797
3.431 4.960 1.755 709
3.168 4.580 1.613 855
3.434 4.964 1.737 684
2.988 4.320 1.512 632
3.436 4.968 1.720 521
2.986 4.316 1.495 868
3.757 5.432 1.848 527
2.984 4.313 1.478 609
3.773 5.455 1.835 498
3.850 5.566 1.849 568
3.959 5.724 1.898 471
3.861 5.583 1.833 792
3.958 5.722 1.876 760
3.960 5.726 1.856 939
3.864 5.587 1.814 748
3.963 5.730 1.836 960
4.147 5.995 1.915 700
4.150 6.000 1.894 1071
3.992 5.772 1.827 1033
4.153 6.004 1.872 1305
3.991 5.769 1.804 1053
2.972 4.297 1.360 879
4.156 6.008 1.851 833
2.974 4.300 1.345 1165
4.294 6.209 1.886 695
2.976 4.303 1.330 1230
4.293 6.206 1.862 731
2.978 4.306 1.315 1201
4.291 6.204 1.839 691
2.980 4.308 1.300 1040
4.294 6.208 1.817 613
2.982 4.311 1.285 916
4.297 6.212 1.795 410
2.988 4.320 1.271 957
4.308 6.229 1.776 317
2.986 4.317 1.254 1085
1.489 2.152 0.690 373
2.992 4.326 1.241 1204
1.490 2.153 0.682 503
2.994 4.328 1.226 1293
1.490 2.155 0.675 666
2.996 4.331 1.210 1271
1.496 2.162 0.669 758
3.002 4.340 1.197 1204
1.497 2.164 0.661 776
3.004 4.342 1.181 1187
1.497 2.165 0.654 660
3.001 4.338 1.165 1238
4.335 6.268 1.625 514
3.003 4.341 1.149 1029
4.320 6.246 1.597 597
3.000 4.337 1.133 659
4.336 6.269 1.580 497
3.001 4.339 1.117 479
3.382 4.890 1.243 466
3.384 4.892 1.226 485
2.640 3.816 0.985 410
2.641 3.819 0.971 599
3.381 4.888 1.207 416
2.643 3.820 0.958 702
3.618 5.231 1.263 471
2.644 3.822 0.944 680
3.615 5.227 1.243 509
2.645 3.824 0.931 608
3.617 5.230 1.225 468
2.647 3.826 0.918 594
3.792 5.483 1.258 443
2.652 3.835 0.905 600
3.790 5.479 1.238 565
3.791 5.481 1.218 671
2.654 3.836 0.892 538
3.793 5.484 1.199 669
2.650 3.832 0.877 450
3.795 5.486 1.180 650
4.075 5.892 1.257 485
4.082 5.901 1.238 814
3.801 5.495 1.162 636
4.083 5.903 1.217 1069
3.798 5.491 1.141 625
4.081 5.900 1.195 1038
3.800 5.494 1.122 623
4.082 5.902 1.174 760
3.802 5.496 1.102 521
3.745 5.415 1.068 580
4.084 5.904 1.153 415
3.747 5.417 1.049 730
3.319 4.798 0.945 444
3.753 5.425 1.031 779
3.315 4.793 0.927 417
3.754 5.428 1.012 674
3.643 5.266 0.986 384
3.751 5.423 0.992 549
2.581 3.732 0.724 473
2.582 3.733 0.711 765
3.757 5.432 0.974 502
2.583 3.734 0.698 1208
3.325 4.807 0.860 549
2.588 3.742 0.686 1606
3.326 4.809 0.843 578
2.589 3.743 0.673 1773
3.327 4.810 0.826 527
2.590 3.745 0.659 1790
3.328 4.812 0.809 405
2.591 3.746 0.646 1721
3.764 5.441 0.878 365
2.592 3.747 0.633 1479
3.765 5.443 0.859 319
2.593 3.748 0.620 1132
3.761 5.438 0.839 284
2.593 3.749 0.607 754
2.594 3.751 0.594 568
2.595 3.752 0.581 423
1.332 1.920 1.821 1467
1.263 1.820 1.731 295
1.335 1.924 1.814 2935
1.266 1.824 1.725 590
1.349 1.943 1.821 3292
1.280 1.844 1.733 1248
1.359 1.958 1.824 3520
1.290 1.858 1.736 1644
