-3.369 5.197 1.665 3038
-3.372 5.201 1.647 2553
-3.424 5.282 1.651 1789
-3.414 5.266 1.628 1843
-3.542 5.464 1.664 1728
-3.557 5.487 1.651 2982
-3.564 5.497 1.633 3596
-3.566 5.501 1.614 2243
-3.737 5.763 1.665 2515
-3.747 5.780 1.648 2866
-3.754 5.790 1.630 2057
-3.756 5.794 1.610 1841
-4.033 6.220 1.696 2016
-4.035 6.224 1.675 2681
-4.042 6.234 1.655 2091
-4.069 6.277 1.643 1657
-4.160 6.417 1.653 2006
-4.159 6.414 1.630 2120
-4.271 6.588 1.647 2387
-4.282 6.604 1.627 2171
-4.750 7.326 1.764 1926
-4.744 7.317 1.736 1650
-4.763 7.347 1.716 1732
-4.762 7.344 1.690 2045
-4.951 7.636 1.724 1742
-4.949 7.633 1.697 2923
-4.947 7.631 1.669 3084
-4.949 7.634 1.642 2376
-4.960 7.651 1.619 2941
-4.963 7.655 1.592 3604
-4.961 7.652 1.564 3275
-4.963 7.655 1.538 3085
-4.961 7.652 1.510 2643
-4.963 7.655 1.484 1613
-4.969 7.665 1.458 927
-4.967 7.662 1.431 630
-4.965 7.658 1.403 277
-0.587 0.906 0.237 296
-0.587 0.906 0.234 361
-0.587 0.906 0.231 430
-0.588 0.906 0.228 499
-0.583 0.900 0.224 507
-0.588 0.907 0.222 509
-0.588 0.907 0.219 488
-0.584 0.901 0.215 430
-0.584 0.901 0.213 364
-0.584 0.901 0.210 293
-0.467 0.721 0.068 251
-0.467 0.721 0.065 307
-0.467 0.720 0.063 315
-0.463 0.714 0.061 341
-0.463 0.713 0.059 368
-0.467 0.720 0.056 377
-0.462 0.713 0.055 371
-0.462 0.713 0.052 511
-1.229 1.905 1.769 1739
-1.231 1.909 1.763 3479
-1.234 1.913 1.756 3479
-1.236 1.917 1.750 3023
-1.225 1.899 1.725 2892
-1.266 1.962 1.769 3873
-1.272 1.972 1.767 4885
-1.275 1.976 1.760 4885
-1.291 2.001 1.771 4127
-1.308 2.027 1.783 4577
-1.311 2.031 1.776 4543
-1.313 2.035 1.769 4510
-1.309 2.028 1.753 5384
-1.304 2.021 1.737 6705
-1.314 2.036 1.739 7466
-1.320 2.046 1.737 8465
-1.319 2.044 1.725 8452
-1.325 2.053 1.723 6507
-1.334 2.068 1.725 5042
-1.337 2.072 1.718 4049
-1.343 2.082 1.715 3177
-1.346 2.086 1.708 3702
-1.348 2.089 1.701 4228
-1.365 2.116 1.711 5937
-1.367 2.120 1.703 8102
-1.374 2.129 1.700 6930
-1.383 2.144 1.701 6094
-1.386 2.148 1.694 4532
-1.410 2.186 1.712 3136
-1.398 2.167 1.688 3902
-1.404 2.176 1.685 4851
-1.410 2.186 1.681 4558
-1.457 2.258 1.723 5109
-1.456 2.256 1.711 4282
-1.495 2.317 1.744 3660
-1.498 2.321 1.736 3329
-1.482 2.296 1.708 3808
-1.480 2.294 1.696 4939
-1.486 2.304 1.692 5392
-1.489 2.308 1.684 5999
-1.544 2.393 1.731 5498
-1.542 2.391 1.719 5924
-1.545 2.395 1.711 6907
-1.551 2.404 1.707 5675
-1.557 2.414 1.702 3590
-1.563 2.423 1.698 3231
-1.573 2.439 1.697 3184
-1.583 2.454 1.697 3806
-1.590 2.464 1.692 4587
-1.596 2.474 1.687 4493
-1.633 2.530 1.712 4068
-1.654 2.564 1.722 4637
-1.660 2.573 1.717 4215
-1.617 2.507 1.664 4162
-1.623 2.516 1.660 3880
-1.660 2.573 1.683 4606
-1.670 2.589 1.682 6461
-1.680 2.604 1.680 7724
-1.694 2.626 1.682 7692
-1.700 2.636 1.677 8101
-1.718 2.663 1.682 9466
-1.728 2.679 1.679 11367
-1.739 2.695 1.677 9042
-1.756 2.723 1.682 8664
-1.774 2.750 1.686 11091
-1.781 2.760 1.680 11739
-1.791 2.776 1.678 9791
-1.805 2.798 1.678 8969
-1.815 2.813 1.675 8350
-1.818 2.817 1.666 8591
-1.820 2.821 1.656 6794
-1.881 2.916 1.696 4462
-1.887 2.925 1.689 3951
-1.866 2.893 1.659 4935
-1.876 2.909 1.656 6277
-1.875 2.906 1.643 5227
-1.936 3.001 1.680 4426
-1.943 3.011 1.673 4811
-2.008 3.113 1.713 4018
-2.003 3.104 1.696 3751
-2.009 3.114 1.689 4376
-2.016 3.124 1.681 4914
-2.022 3.134 1.674 5955
-2.044 3.169 1.678 5670
-2.051 3.178 1.670 7996
-2.061 3.195 1.665 7689
-2.075 3.217 1.663 6612
-2.090 3.239 1.661 4577
-2.152 3.335 1.694 4651
-2.162 3.352 1.688 5314
-2.169 3.362 1.679 4027
-2.203 3.415 1.691 6457
-2.206 3.419 1.679 9558
-2.208 3.423 1.667 7656
-2.227 3.451 1.667 5203
-2.233 3.461 1.658 4868
-2.255 3.496 1.659 4331
-2.262 3.506 1.650 4560
-2.264 3.510 1.638 3921
-2.279 3.532 1.634 3809
-2.313 3.586 1.643 4614
-2.413 3.740 1.694 4664
-2.415 3.744 1.681 3149
-2.446 3.792 1.687 3808
-2.449 3.795 1.674 4813
-2.451 3.799 1.661 5295
-2.462 3.816 1.653 4398
-2.525 3.914 1.677 4058
-2.532 3.924 1.666 4585
-2.534 3.928 1.653 3490
-2.565 3.976 1.656 3883
-2.584 4.005 1.652 3118
-2.606 4.040 1.651 3277
-2.613 4.050 1.639 3227
-2.685 4.162 1.665 3657
-2.691 4.172 1.653 3611
-2.727 4.226 1.657 2696
-2.733 4.237 1.645 2022
-2.805 4.349 1.669 2634
-2.812 4.359 1.656 2405
-2.868 4.445 1.670 1428
-2.866 4.443 1.653 2503
-2.877 4.459 1.642 3753
-2.883 4.469 1.629 2623
-3.043 4.716 1.694 2134
-3.058 4.739 1.684 2095
-3.068 4.756 1.672 2421
-3.079 4.773 1.660 5082
-3.081 4.776 1.643 4537
-3.063 4.748 1.617 2442
-3.194 4.951 1.663 2964
-3.159 4.897 1.628 3136
-3.157 4.894 1.609 4396
-3.160 4.898 1.592 2548
-3.324 5.153 1.650 2740
-3.360 5.208 1.647 2335
-3.412 5.289 1.651 2239
-3.515 5.448 1.677 2190
-3.526 5.465 1.662 1675
-3.545 5.495 1.651 2965
-3.551 5.505 1.633 3704
-3.554 5.509 1.614 2221
-3.724 5.772 1.665 2479
-3.734 5.789 1.648 3055
-3.741 5.799 1.630 2190
-3.748 5.809 1.611 1913
-4.014 6.222 1.695 2157
-4.021 6.233 1.675 2644
-4.023 6.237 1.653 2012
-4.038 6.260 1.636 1414
-4.142 6.420 1.652 1885
-4.140 6.417 1.628 2045
-4.260 6.604 1.648 2452
-4.271 6.620 1.628 2024
-4.733 7.337 1.764 1821
-4.664 7.229 1.715 1685
-4.667 7.233 1.690 1790
-4.745 7.355 1.690 2159
-4.933 7.647 1.724 1558
-4.932 7.644 1.697 2913
-4.926 7.635 1.667 3214
-4.928 7.639 1.641 2288
-4.943 7.662 1.619 2944
-4.946 7.666 1.592 3847
-4.944 7.663 1.564 3529
-4.942 7.660 1.537 3303
-4.944 7.663 1.510 2823
-4.946 7.666 1.484 1724
-4.948 7.670 1.457 1049
-4.946 7.666 1.430 796
-4.939 7.656 1.401 389
-0.585 0.907 0.237 313
-0.585 0.907 0.234 393
-0.585 0.907 0.231 476
-0.586 0.908 0.228 558
-0.586 0.908 0.225 577
-0.586 0.908 0.222 586
-0.586 0.908 0.219 555
-0.582 0.902 0.215 504
-0.582 0.902 0.213 445
-0.586 0.909 0.210 356
-0.582 0.902 0.207 255
-0.461 0.715 0.061 265
-0.461 0.714 0.059 286
-0.461 0.714 0.057 289
-0.461 0.714 0.055 284
-0.461 0.714 0.052 393
-1.226 1.906 1.769 2266
-1.229 1.910 1.763 4532
-1.231 1.914 1.756 4532
-1.234 1.918 1.750 3715
-1.223 1.900 1.725 3141
-1.263 1.964 1.769 3989
-1.270 1.973 1.767 4899
-1.272 1.977 1.760 4899
-1.289 2.003 1.771 4218
-1.305 2.029 1.783 4698
-1.308 2.033 1.776 4728
-1.310 2.037 1.769 4759
-1.310 2.036 1.758 5295
-1.301 2.023 1.737 6245
-1.311 2.038 1.739 7185
-1.317 2.047 1.737 8450
-1.316 2.046 1.725 8389
-1.322 2.055 1.723 6564
-1.332 2.070 1.725 5057
-1.338 2.080 1.722 4041
-1.344 2.089 1.719 3216
-1.346 2.093 1.712 3684
-1.353 2.102 1.709 4168
-1.366 2.123 1.715 5966
-1.368 2.127 1.708 7939
-1.374 2.136 1.705 6651
-1.381 2.146 1.701 5694
-1.387 2.155 1.698 4247
-1.407 2.188 1.712 3089
-1.395 2.169 1.688 3615
-1.401 2.178 1.685 4406
-1.407 2.188 1.681 4157
-1.410 2.191 1.674 4010
-1.445 2.247 1.703 3639
-1.492 2.319 1.744 4129
-1.495 2.323 1.736 3717
-1.479 2.298 1.708 4073
-1.477 2.296 1.696 5239
-1.483 2.306 1.692 5503
-1.486 2.310 1.684 5933
-1.492 2.319 1.680 5428
-1.539 2.393 1.719 5647
-1.542 2.397 1.711 6756
-1.548 2.406 1.707 5692
-1.554 2.416 1.702 3693
-1.564 2.431 1.702 3054
-1.574 2.447 1.701 2968
-1.584 2.462 1.700 4092
-1.590 2.472 1.696 5362
-1.597 2.482 1.691 5416
-1.625 2.527 1.709 4539
-1.651 2.566 1.722 5078
-1.657 2.576 1.717 4727
-1.614 2.509 1.664 3979
-1.620 2.518 1.660 3645
-1.664 2.587 1.691 4467
-1.671 2.597 1.685 6619
-1.677 2.607 1.680 8033
-1.691 2.628 1.682 8030
-1.697 2.638 1.677 8361
-1.715 2.666 1.682 9639
-1.725 2.681 1.679 11563
-1.735 2.697 1.677 9145
-1.749 2.719 1.678 8364
-1.775 2.759 1.690 10681
-1.777 2.762 1.680 11285
-1.791 2.784 1.681 9437
-1.805 2.806 1.682 9041
-1.811 2.816 1.675 8715
-1.814 2.820 1.666 9175
-1.816 2.823 1.656 7502
-1.826 2.839 1.653 4462
-1.884 2.928 1.689 4123
-1.878 2.919 1.672 5203
-1.877 2.917 1.659 6915
-1.875 2.915 1.646 5581
-1.932 3.004 1.680 4727
-1.935 3.008 1.670 5390
-1.933 3.005 1.657 4787
-1.999 3.107 1.696 3968
-2.005 3.117 1.689 4646
-2.011 3.127 1.681 5197
-2.022 3.143 1.677 6360
-2.028 3.153 1.669 6103
-2.046 3.181 1.670 7479
-2.057 3.197 1.665 6607
-2.071 3.219 1.663 6026
-2.089 3.248 1.664 4809
-2.140 3.326 1.688 4747
-2.158 3.354 1.688 5104
-2.168 3.371 1.682 3890
-2.199 3.418 1.691 6979
-2.201 3.422 1.679 9961
-2.204 3.425 1.667 7655
-2.222 3.454 1.667 5204
-2.233 3.470 1.660 5351
-2.251 3.499 1.659 4594
-2.261 3.515 1.653 4178
-2.220 3.450 1.611 3641
-2.274 3.535 1.634 3741
-2.309 3.589 1.643 4854
-2.408 3.743 1.694 4491
-2.366 3.678 1.653 3177
-2.441 3.795 1.687 3499
-2.444 3.799 1.674 4613
-2.450 3.809 1.663 5342
-2.457 3.819 1.653 4301
-2.524 3.923 1.680 4068
-2.526 3.927 1.666 4616
-2.533 3.937 1.655 3554
-2.560 3.979 1.656 4450
-2.578 4.008 1.652 3363
-2.601 4.043 1.651 3055
-2.608 4.054 1.639 3144
-2.680 4.165 1.665 3594
-2.690 4.182 1.656 3731
-2.721 4.230 1.657 2738
-2.732 4.246 1.647 2083
-2.796 4.346 1.667 2587
-2.806 4.362 1.656 2330
-2.858 4.443 1.668 2168
-2.860 4.446 1.653 3099
-2.867 4.457 1.640 4143
-2.878 4.473 1.629 2779
-3.041 4.727 1.696 2629
-3.052 4.743 1.684 2759
-3.054 4.747 1.668 3097
-3.069 4.770 1.658 6291
-3.075 4.780 1.643 5271
-3.123 4.855 1.649 2671
-3.109 4.833 1.625 3551
-3.103 4.823 1.604 3195
-3.155 4.904 1.611 3916
-3.153 4.902 1.592 2284
-3.318 5.157 1.650 2482
-3.353 5.213 1.647 1980
-3.410 5.300 1.653 2370
-3.508 5.453 1.677 2371
-3.415 5.308 1.617 1629
-3.538 5.499 1.651 2930
-3.536 5.497 1.630 3715
-3.547 5.513 1.614 2109
-3.716 5.777 1.665 2362
-3.727 5.793 1.648 3027
-3.734 5.804 1.630 2152
-3.744 5.820 1.613 1960
-4.006 6.228 1.695 2140
-4.013 6.238 1.675 2466
-4.011 6.235 1.652 1913
-4.236 6.585 1.713 1576
-4.222 6.562 1.684 1972
-4.132 6.422 1.628 1995
-4.256 6.616 1.650 2265
-4.267 6.632 1.630 2062
-4.619 7.179 1.728 1707
-4.621 7.183 1.703 1865
-4.657 7.239 1.690 1824
-4.736 7.361 1.690 2210
-4.725 7.345 1.660 1850
-4.918 7.644 1.695 2763
-4.912 7.635 1.666 3177
-4.889 7.599 1.632 2330
-4.933 7.668 1.619 2822
-4.936 7.672 1.592 3870
-4.934 7.669 1.564 3583
-4.932 7.666 1.537 3300
-4.930 7.663 1.509 2835
-4.932 7.666 1.483 1756
-4.934 7.669 1.456 1128
-4.936 7.673 1.430 931
-4.929 7.662 1.401 490
-0.584 0.908 0.237 316
-0.584 0.908 0.234 403
-0.584 0.908 0.231 482
-0.584 0.908 0.228 573
-0.580 0.902 0.224 616
-0.585 0.909 0.222 637
-0.585 0.909 0.219 596
-0.581 0.903 0.215 546
-0.585 0.909 0.213 495
-0.585 0.910 0.210 395
-0.581 0.903 0.207 276
-0.460 0.714 0.052 322
-1.221 1.910 1.769 2805
-1.224 1.914 1.763 5611
-1.226 1.917 1.756 5611
-1.229 1.921 1.750 4511
-1.238 1.936 1.752 3534
-1.258 1.967 1.769 4086
-1.268 1.982 1.771 4855
-1.270 1.986 1.765 4855
-1.283 2.007 1.771 4271
-1.300 2.032 1.783 4771
-1.302 2.037 1.776 4829
-1.305 2.041 1.769 4886
-1.308 2.045 1.762 5152
-1.296 2.026 1.737 5586
-1.313 2.052 1.748 6806
-1.312 2.051 1.737 8205
-1.314 2.055 1.730 8200
-1.317 2.059 1.723 6471
-1.326 2.074 1.725 5025
-1.332 2.083 1.722 4022
-1.338 2.093 1.719 3267
-1.344 2.102 1.716 3779
-1.354 2.117 1.718 4524
-1.360 2.127 1.715 6179
-1.363 2.131 1.708 7837
-1.369 2.140 1.705 6372
-1.378 2.155 1.706 5313
-1.381 2.159 1.698 4007
-1.398 2.186 1.708 3106
-1.389 2.172 1.688 3314
-1.392 2.176 1.680 3887
-1.398 2.186 1.677 3655
-1.404 2.195 1.674 3628
-1.483 2.319 1.752 3534
-1.486 2.323 1.744 4629
-1.488 2.327 1.736 4129
-1.469 2.296 1.704 4342
-1.467 2.295 1.692 5407
-1.474 2.304 1.688 5377
-1.480 2.314 1.684 5527
-1.486 2.323 1.680 5008
-1.533 2.397 1.719 5162
-1.535 2.401 1.711 6330
-1.542 2.410 1.707 5476
-1.551 2.426 1.706 3665
-1.569 2.453 1.713 2995
-1.579 2.469 1.713 2701
-1.581 2.472 1.704 4082
-1.587 2.482 1.700 5922
-1.590 2.486 1.691 6324
-1.619 2.531 1.709 5087
-1.640 2.564 1.719 5606
-1.646 2.574 1.713 5263
-1.649 2.578 1.705 3684
-1.651 2.582 1.696 3314
-1.661 2.598 1.694 4812
-1.664 2.601 1.685 7058
-1.670 2.611 1.680 8428
-1.684 2.633 1.682 8425
-1.690 2.642 1.677 8679
-1.708 2.670 1.682 9657
-1.718 2.686 1.679 11517
-1.724 2.696 1.674 9170
-1.738 2.717 1.675 8026
-1.767 2.763 1.690 9931
-1.770 2.767 1.680 10449
-1.784 2.789 1.681 8746
-1.798 2.811 1.682 8941
-1.804 2.821 1.675 8942
-1.806 2.824 1.666 9559
-1.809 2.828 1.656 8048
-1.819 2.844 1.653 4903
-1.880 2.939 1.692 4238
-1.874 2.931 1.676 5938
-1.873 2.928 1.662 7571
-1.875 2.932 1.652 6082
-1.924 3.009 1.680 5126
-1.927 3.013 1.670 5996
-1.921 3.004 1.654 5561
-1.920 3.002 1.640 4272
-1.997 3.122 1.689 4891
-2.011 3.144 1.687 5611
-2.013 3.148 1.677 6679
-2.024 3.164 1.672 6380
-2.034 3.180 1.667 6827
-2.044 3.196 1.662 5870
-2.059 3.219 1.660 5483
-2.085 3.260 1.667 4977
-2.107 3.294 1.670 5040
-2.149 3.360 1.688 4704
-2.155 3.370 1.679 3796
-2.190 3.424 1.691 7143
-2.192 3.428 1.679 9973
-2.194 3.431 1.667 7514
-2.217 3.466 1.669 5095
-2.227 3.482 1.663 5692
-2.242 3.505 1.659 4913
-2.256 3.528 1.656 4761
-2.210 3.456 1.611 3708
-2.357 3.685 1.696 4208
-2.299 3.595 1.643 5058
-2.398 3.750 1.694 4215
-2.360 3.691 1.655 3539
-2.431 3.801 1.687 3303
-2.434 3.805 1.674 4385
-2.440 3.815 1.663 5250
-2.467 3.857 1.665 4296
-2.510 3.924 1.677 4066
-2.512 3.928 1.664 4589
-2.535 3.963 1.663 3583
-2.549 3.986 1.656 4897
-2.564 4.009 1.650 3586
-2.595 4.057 1.653 2776
-2.601 4.067 1.641 3022
-2.668 4.172 1.665 3470
-2.679 4.189 1.656 3700
-2.714 4.244 1.660 2643
-2.720 4.254 1.647 2091
-2.780 4.347 1.665 2458
-2.848 4.453 1.685 2577
-2.846 4.450 1.668 2924
-2.845 4.448 1.651 3750
-2.851 4.458 1.637 4557
-2.862 4.474 1.626 2870
-3.028 4.735 1.696 2892
-3.035 4.745 1.682 3240
-3.041 4.755 1.668 3533
-3.056 4.778 1.658 7013
-3.058 4.782 1.641 5729
-3.106 4.857 1.647 3423
-3.096 4.841 1.625 4608
-3.094 4.838 1.606 3669
-3.142 4.913 1.611 3233
-3.277 5.123 1.656 1846
-3.349 5.237 1.671 2231
-3.348 5.234 1.651 1818
-3.396 5.309 1.653 2495
-3.493 5.462 1.677 2455
-3.409 5.330 1.620 1762
-3.519 5.502 1.649 2923
-3.513 5.493 1.626 3748
-3.544 5.542 1.620 2001
-3.701 5.787 1.665 2270
-3.707 5.797 1.646 2928
-3.718 5.814 1.630 2136
-3.733 5.837 1.615 2181
-3.739 5.847 1.596 2119
-3.992 6.242 1.673 2255
-3.999 6.252 1.653 1809
-4.214 6.589 1.712 1715
-4.204 6.574 1.684 1940
-4.115 6.434 1.628 1807
-4.242 6.634 1.651 2459
-4.245 6.637 1.628 2147
-4.599 7.192 1.728 1862
-4.602 7.195 1.703 1975
-4.642 7.258 1.691 1982
-4.716 7.374 1.690 2218
-4.710 7.364 1.661 2048
-4.893 7.651 1.694 2646
-4.891 7.648 1.666 3085
-4.873 7.619 1.633 2462
-4.913 7.682 1.619 2611
-4.915 7.685 1.592 3694
-4.913 7.682 1.564 3432
-4.911 7.679 1.537 3071
-4.909 7.676 1.509 2651
-4.911 7.679 1.483 1677
-4.913 7.682 1.456 1188
-4.911 7.679 1.428 1042
-4.909 7.676 1.401 582
-4.911 7.679 1.374 282
-0.582 0.909 0.237 313
-0.582 0.910 0.234 401
-0.582 0.910 0.231 486
-0.582 0.910 0.228 581
-0.582 0.910 0.225 623
-0.582 0.910 0.222 645
-0.582 0.911 0.219 601
-0.578 0.904 0.215 555
-0.583 0.911 0.213 512
-0.583 0.911 0.210 409
-0.579 0.905 0.207 283
-0.651 1.019 0.198 274
-0.656 1.025 0.195 284
-1.218 1.911 1.769 3308
-1.221 1.915 1.763 6616
-1.223 1.919 1.756 6616
-1.229 1.929 1.754 5229
-1.235 1.938 1.752 3991
-1.255 1.969 1.769 4058
-1.265 1.984 1.771 4728
-1.267 1.988 1.765 4728
-1.291 2.025 1.785 4323
-1.297 2.035 1.783 4822
-1.299 2.039 1.776 4851
-1.302 2.043 1.769 4881
-1.308 2.052 1.766 4951
-1.332 2.089 1.786 5734
-1.317 2.066 1.757 6561
-1.312 2.058 1.741 7801
-1.315 2.062 1.734 7747
-1.317 2.066 1.727 6256
-1.323 2.076 1.725 4887
-1.329 2.085 1.722 3978
-1.335 2.095 1.719 3309
-1.345 2.110 1.721 4031
-1.351 2.119 1.718 5130
-1.357 2.129 1.715 6454
-1.363 2.138 1.712 7888
-1.369 2.148 1.709 6372
-1.379 2.163 1.710 5443
-1.385 2.173 1.707 4281
-1.394 2.188 1.708 3520
-1.390 2.180 1.692 3163
-1.385 2.173 1.676 3261
-1.394 2.188 1.677 3121
-1.401 2.197 1.674 3296
-1.476 2.316 1.748 3752
-1.479 2.320 1.740 5083
-1.485 2.329 1.736 4406
-1.461 2.293 1.700 4653
-1.460 2.291 1.688 5717
-1.466 2.301 1.684 5613
-1.472 2.310 1.680 5682
-1.482 2.326 1.680 4578
-1.529 2.399 1.719 4505
-1.532 2.403 1.711 5642
-1.538 2.413 1.707 4996
-1.551 2.434 1.710 3448
-1.558 2.444 1.706 2639
-1.605 2.518 1.743 2824
-1.585 2.487 1.712 3996
-1.587 2.490 1.703 6298
-1.590 2.494 1.695 7020
-1.592 2.498 1.686 5574
-1.636 2.567 1.719 5888
-1.642 2.577 1.713 5783
-1.645 2.581 1.705 4393
-1.651 2.590 1.700 3872
-1.657 2.600 1.694 5193
-1.660 2.604 1.685 7378
-1.666 2.614 1.680 8646
-1.680 2.635 1.682 8721
-1.686 2.645 1.677 8951
-1.704 2.673 1.682 9656
-1.714 2.689 1.679 11379
-1.720 2.698 1.674 9192
-1.726 2.708 1.668 7694
-1.763 2.766 1.690 8898
-1.765 2.770 1.680 9361
-1.783 2.798 1.684 7837
-1.797 2.820 1.685 8776
-1.800 2.823 1.675 9000
-1.798 2.821 1.662 9656
-1.804 2.831 1.656 8296
-1.814 2.847 1.653 5291
-1.875 2.942 1.692 4283
-1.874 2.940 1.679 6648
-1.868 2.931 1.662 8405
-1.871 2.935 1.652 6770
-1.916 3.006 1.677 4873
-1.922 3.016 1.670 5810
-1.913 3.001 1.651 6065
-1.903 2.986 1.631 4687
-1.992 3.125 1.689 4927
-2.006 3.148 1.687 5868
-2.012 3.157 1.680 6477
-2.023 3.174 1.675 5957
-2.029 3.184 1.667 5749
-2.035 3.193 1.659 4957
-2.050 3.216 1.657 4560
-2.080 3.263 1.667 4715
-2.102 3.298 1.670 5440
-2.104 3.301 1.659 4493
-2.150 3.374 1.679 3787
-2.180 3.421 1.688 6885
-2.187 3.431 1.679 9419
-2.185 3.428 1.664 7163
-2.223 3.488 1.678 4849
-2.222 3.486 1.663 5982
-2.232 3.502 1.657 5295
-2.255 3.537 1.658 5783
-2.257 3.541 1.646 4279
-2.351 3.689 1.696 4932
-2.294 3.599 1.643 5281
-2.296 3.602 1.631 4082
-2.355 3.694 1.655 3874
-2.417 3.793 1.682 3204
-2.428 3.809 1.674 4081
-2.434 3.819 1.663 4904
-2.461 3.861 1.665 4828
-2.499 3.921 1.675 3661
-2.506 3.932 1.664 4157
-2.528 3.967 1.663 3711
-2.543 3.990 1.656 5031
-2.557 4.013 1.650 3616
-2.588 4.061 1.653 2560
-2.595 4.071 1.641 2997
-2.666 4.183 1.668 3375
-2.672 4.193 1.656 3683
-2.720 4.267 1.667 2735
-2.767 4.341 1.677 2184
-2.769 4.345 1.662 2267
-2.841 4.457 1.685 2984
-2.839 4.455 1.668 3467
-2.838 4.452 1.651 4217
-2.844 4.462 1.637 4706
-2.846 4.466 1.622 2743
-3.021 4.740 1.696 2809
-3.027 4.750 1.682 3179
-3.034 4.760 1.668 3768
-3.044 4.777 1.656 7654
-3.047 4.780 1.639 6187
-3.094 4.855 1.645 4240
-3.089 4.846 1.625 5277
-3.087 4.843 1.606 3810
-3.242 5.086 1.662 3304
-3.248 5.096 1.646 1991
-3.345 5.249 1.673 2536
-3.385 5.311 1.671 1945
-3.392 5.321 1.655 2268
-3.485 5.468 1.677 2263
-3.400 5.335 1.620 1830
-3.498 5.488 1.643 2920
-3.500 5.492 1.624 3735
-3.499 5.489 1.604 2022
-3.692 5.792 1.665 2255
-3.698 5.803 1.646 2915
-3.701 5.806 1.626 2127
-3.728 5.849 1.616 2244
-3.730 5.853 1.596 2360
-3.945 6.190 1.659 1932
-3.993 6.265 1.655 1639
-4.200 6.589 1.710 1666
-4.194 6.580 1.684 1813
-4.105 6.440 1.628 1686
-4.228 6.634 1.650 1719
-4.235 6.644 1.628 2041
-4.588 7.199 1.728 2042
-4.591 7.203 1.703 2143
-4.635 7.272 1.692 2164
-4.700 7.374 1.688 2041
-4.703 7.378 1.663 2181
-4.877 7.652 1.692 2454
-4.875 7.649 1.665 2860
-4.861 7.626 1.633 2552
-4.901 7.689 1.619 2405
-4.899 7.686 1.591 3469
-4.901 7.690 1.564 3110
-4.899 7.687 1.537 2606
-4.897 7.683 1.509 2257
-4.895 7.680 1.481 1495
-4.901 7.690 1.456 1209
-4.899 7.687 1.428 1126
-4.897 7.683 1.401 657
-5.097 7.997 1.425 337
-0.580 0.910 0.237 285
-0.580 0.910 0.234 359
-0.580 0.911 0.231 437
-0.581 0.911 0.228 535
-0.581 0.911 0.225 596
-0.581 0.911 0.222 635
-0.581 0.911 0.219 595
-0.577 0.905 0.215 549
-0.581 0.912 0.213 504
-0.581 0.912 0.210 403
-0.577 0.906 0.207 279
-0.747 1.173 0.212 275
-0.752 1.180 0.208 260
-1.213 1.915 1.769 3686
-1.215 1.919 1.763 7372
-1.218 1.923 1.756 7372
-1.224 1.932 1.754 5709
-1.233 1.947 1.757 4229
-1.249 1.973 1.769 3927
-1.262 1.993 1.776 4602
-1.265 1.997 1.769 4602
-1.285 2.029 1.785 4405
-1.291 2.038 1.783 4855
-1.293 2.042 1.776 4804
-1.296 2.046 1.769 4752
-1.302 2.056 1.766 4699
-1.325 2.093 1.786 6153
-1.325 2.092 1.775 6438
-1.313 2.073 1.750 7284
-1.308 2.066 1.734 7179
-1.311 2.070 1.727 5844
-1.317 2.080 1.725 4620
-1.323 2.089 1.722 3881
-1.329 2.099 1.719 3288
-1.346 2.125 1.729 4450
-1.345 2.123 1.718 5726
-1.351 2.133 1.715 6719
-1.357 2.142 1.712 7955
-1.366 2.158 1.713 6609
-1.376 2.173 1.714 5967
-1.378 2.177 1.707 4932
-1.384 2.186 1.703 4053
-1.387 2.190 1.696 3277
-1.375 2.171 1.672 2673
-1.392 2.198 1.681 2802
-1.398 2.207 1.678 3120
-1.466 2.314 1.743 4074
-1.468 2.318 1.736 5566
-1.478 2.334 1.736 4670
-1.455 2.297 1.700 4199
-1.454 2.295 1.688 4844
-1.460 2.305 1.684 4910
-1.466 2.315 1.680 5135
-1.472 2.324 1.676 4303
-1.489 2.351 1.684 3891
-1.525 2.407 1.711 4576
-1.531 2.417 1.707 4179
-1.552 2.450 1.718 3273
-1.506 2.378 1.660 2505
-1.594 2.517 1.739 3126
-1.592 2.515 1.727 4145
-1.580 2.495 1.703 6513
-1.582 2.499 1.695 7690
-1.585 2.503 1.686 6485
-1.629 2.572 1.719 6178
-1.635 2.581 1.713 6301
-1.633 2.579 1.701 5160
-1.655 2.613 1.710 4636
-1.653 2.611 1.698 5710
-1.652 2.609 1.685 7790
-1.658 2.619 1.680 8981
-1.672 2.640 1.682 9187
-1.678 2.650 1.677 9310
-1.696 2.678 1.682 9525
-1.706 2.694 1.679 11026
-1.708 2.697 1.670 9075
-1.707 2.695 1.658 7546
-1.755 2.771 1.690 7688
-1.757 2.775 1.680 8066
-1.779 2.809 1.688 6747
-1.789 2.825 1.685 8158
-1.791 2.829 1.675 8685
-1.790 2.826 1.662 9468
-1.796 2.836 1.656 8281
-1.806 2.852 1.653 5601
-1.866 2.947 1.692 4222
-1.865 2.945 1.679 7056
-1.860 2.937 1.662 8991
-1.862 2.940 1.652 7259
-1.903 3.005 1.674 4533
-1.909 3.015 1.667 5250
-1.904 3.007 1.651 5782
-1.895 2.992 1.631 4661
-1.987 3.137 1.692 5124
-1.993 3.147 1.684 6070
-1.999 3.157 1.677 5993
-2.013 3.179 1.675 5117
-2.020 3.189 1.667 4767
-2.022 3.193 1.656 4329
-2.021 3.191 1.642 4293
-2.094 3.306 1.684 4410
-2.096 3.310 1.673 6043
-2.095 3.308 1.659 5479
-2.140 3.380 1.679 3671
-2.170 3.427 1.688 6010
-2.177 3.437 1.679 8119
-2.175 3.435 1.664 6715
-2.174 3.432 1.650 4725
-2.208 3.486 1.660 5997
-2.218 3.502 1.654 5373
-2.244 3.544 1.658 6569
-2.250 3.554 1.649 5000
-2.341 3.696 1.696 5666
-2.351 3.712 1.689 5571
-2.353 3.716 1.676 4536
-2.348 3.707 1.658 3559
-2.398 3.787 1.676 3205
-2.417 3.816 1.674 3678
-2.427 3.832 1.666 4636
-2.449 3.868 1.665 5268
-2.484 3.922 1.672 3100
-2.494 3.939 1.664 3675
-2.517 3.974 1.663 3750
-2.531 3.997 1.656 4851
-2.546 4.020 1.650 3573
-2.512 3.966 1.615 2637
-2.587 4.085 1.644 2660
-2.654 4.191 1.668 2969
-2.660 4.201 1.656 3353
-2.707 4.275 1.667 2908
-2.791 4.407 1.698 2325
-2.756 4.353 1.662 2013
-2.828 4.466 1.685 3086
-2.826 4.463 1.668 3759
-2.825 4.460 1.651 4527
-2.831 4.471 1.637 4769
-2.829 4.468 1.620 2779
-3.007 4.748 1.696 2493
-3.013 4.759 1.682 2943
-3.024 4.775 1.670 3658
-3.030 4.786 1.656 7340
-3.033 4.789 1.639 6226
-3.080 4.864 1.645 4791
-3.078 4.861 1.627 5656
-3.216 5.079 1.675 3921
-3.223 5.089 1.660 4125
-3.229 5.099 1.644 2703
-3.334 5.265 1.674 2812
-3.349 5.288 1.662 2055
-3.380 5.338 1.657 2097
-3.387 5.348 1.640 2014
-3.385 5.345 1.620 1970
-3.478 5.492 1.642 2796
-3.484 5.502 1.624 3517
-3.487 5.506 1.606 2151
-3.671 5.797 1.663 2243
-3.677 5.807 1.645 2432
-3.642 5.752 1.610 1918
-3.715 5.866 1.618 2155
-3.717 5.870 1.598 2504
-3.906 6.168 1.650 1846
-3.979 6.283 1.656 1479
-4.181 6.602 1.710 1698
-4.175 6.592 1.684 1645
-4.086 6.452 1.628 1513
-4.217 6.659 1.653 1908
-4.386 6.926 1.689 1926
-4.567 7.212 1.728 2002
-4.570 7.216 1.703 2083
-4.618 7.292 1.694 2317
-4.683 7.395 1.690 1762
-4.681 7.392 1.663 2075
-4.850 7.659 1.691 2226
-4.844 7.650 1.662 2603
-4.838 7.641 1.633 2571
-4.870 7.690 1.616 2241
-4.876 7.701 1.591 3172
-4.879 7.704 1.564 2645
-5.061 7.992 1.590 2325
-5.063 7.995 1.562 1817
-5.065 7.999 1.535 1552
-4.879 7.704 1.456 1119
-4.877 7.701 1.428 1088
-5.072 8.009 1.452 791
-5.074 8.012 1.425 439
-0.578 0.912 0.234 299
-0.578 0.912 0.231 367
-0.578 0.913 0.228 459
-0.578 0.913 0.225 522
-0.578 0.913 0.222 568
-0.574 0.907 0.218 535
-0.574 0.907 0.215 491
-0.579 0.914 0.213 450
-0.579 0.914 0.210 365
-0.575 0.907 0.207 261
-0.757 1.195 0.213 265
-0.757 1.195 0.209 311
-1.202 1.921 1.769 3872
-1.205 1.925 1.763 7744
-1.207 1.929 1.756 7744
-1.210 1.933 1.750 5886
-1.223 1.954 1.757 4192
-1.235 1.974 1.764 3722
-1.258 2.011 1.785 4563
-1.261 2.015 1.778 4563
-1.274 2.036 1.785 4509
-1.280 2.045 1.783 4874
-1.282 2.049 1.776 4698
-1.285 2.053 1.769 4523
-1.308 2.091 1.789 4672
-1.314 2.100 1.786 6342
-1.313 2.099 1.775 6555
-1.305 2.086 1.754 6740
-1.301 2.079 1.739 6490
-1.303 2.083 1.732 5350
-1.309 2.092 1.729 4256
-1.312 2.096 1.722 3714
-1.335 2.134 1.741 3634
-1.334 2.132 1.729 4852
-1.337 2.136 1.722 6128
-1.343 2.146 1.719 6840
-1.349 2.155 1.716 7939
-1.358 2.171 1.717 7076
-1.364 2.180 1.714 6848
-1.367 2.184 1.707 5802
-1.373 2.194 1.703 4887
-1.375 2.197 1.696 3734
-1.399 2.236 1.713 2732
-1.384 2.211 1.685 2859
-1.386 2.215 1.678 3080
-1.453 2.322 1.743 4079
-1.456 2.326 1.736 5430
-1.465 2.342 1.736 4475
-1.479 2.363 1.740 3253
-1.445 2.309 1.692 3364
-1.447 2.313 1.684 3434
-1.453 2.322 1.680 3609
-1.459 2.332 1.676 3634
-1.476 2.359 1.684 3662
-1.515 2.421 1.715 3748
-1.514 2.419 1.703 3524
-1.494 2.388 1.672 3385
-1.497 2.392 1.664 2787
-1.580 2.525 1.739 3471
-1.579 2.523 1.727 4378
-1.567 2.504 1.703 6704
-1.565 2.501 1.691 8474
-1.568 2.505 1.683 7461
-1.615 2.580 1.719 6221
-1.621 2.590 1.713 6567
-1.620 2.588 1.701 5673
-1.644 2.628 1.714 5228
-1.651 2.638 1.709 5988
-1.638 2.618 1.685 7867
-1.644 2.627 1.680 9025
-1.658 2.649 1.682 9449
-1.664 2.659 1.677 9467
-1.681 2.687 1.682 9084
-1.691 2.703 1.679 10276
-1.694 2.706 1.670 8699
-1.688 2.698 1.654 7597
-1.691 2.702 1.645 6690
-1.742 2.784 1.680 6536
-1.768 2.825 1.691 5531
-1.778 2.841 1.688 7343
-1.772 2.832 1.672 8321
-1.775 2.836 1.662 9119
-1.781 2.846 1.656 8028
-1.791 2.862 1.653 5748
-1.851 2.957 1.692 4267
-1.849 2.955 1.679 7170
-1.852 2.959 1.669 8960
-1.850 2.956 1.656 7178
-1.845 2.948 1.639 4414
-1.886 3.013 1.661 4637
-1.880 3.004 1.644 5422
-1.879 3.002 1.631 4522
-1.970 3.148 1.692 5390
-1.976 3.158 1.684 6386
-1.979 3.162 1.674 5780
-2.000 3.196 1.678 4030
-2.007 3.206 1.670 3807
-2.005 3.204 1.656 3821
-2.000 3.195 1.639 3895
-2.076 3.317 1.684 4140
-2.078 3.321 1.673 6536
-2.077 3.319 1.659 6611
-2.083 3.329 1.651 4364
-2.125 3.395 1.668 5341
-2.154 3.443 1.676 6519
-2.157 3.446 1.664 6192
-2.159 3.450 1.653 4852
-2.189 3.498 1.660 5641
-2.199 3.514 1.654 5114
-2.225 3.556 1.658 6631
-2.235 3.572 1.652 5123
-2.321 3.708 1.696 5858
-2.331 3.725 1.689 5865
-2.329 3.722 1.673 4880
-2.328 3.720 1.658 3677
-2.346 3.749 1.656 3132
-2.396 3.829 1.674 3050
-2.410 3.852 1.668 4369
-2.429 3.881 1.665 5360
-2.431 3.885 1.652 3306
-2.477 3.958 1.666 2943
-2.507 4.007 1.670 3552
-2.510 4.011 1.656 4632
-2.528 4.040 1.652 3581
-2.486 3.973 1.612 2626
-2.565 4.099 1.644 2075
-2.631 4.205 1.668 2528
-2.686 4.292 1.684 3156
-2.684 4.289 1.667 3123
-2.767 4.422 1.698 2594
-2.733 4.368 1.662 1856
-2.804 4.481 1.685 2904
-2.798 4.472 1.666 3759
-2.801 4.475 1.651 4437
-2.807 4.486 1.637 4460
-2.805 4.483 1.620 2638
-2.852 4.558 1.628 2377
-2.992 4.781 1.684 2496
-3.002 4.798 1.672 3898
-3.005 4.802 1.656 6588
-3.007 4.805 1.639 5436
-3.054 4.880 1.645 4851
-3.052 4.878 1.627 5335
-3.189 5.096 1.675 4363
-3.191 5.100 1.658 4787
-3.194 5.103 1.640 3431
-3.302 5.276 1.673 2967
-3.308 5.287 1.656 2133
-3.421 5.466 1.689 1838
-3.358 5.366 1.640 1877
-3.360 5.370 1.622 1885
-3.448 5.510 1.642 2576
-3.455 5.521 1.624 3214
-3.457 5.524 1.606 2221
-3.521 5.626 1.613 1887
-3.605 5.761 1.628 2484
-3.607 5.765 1.608 2213
-3.684 5.886 1.618 1977
-3.686 5.890 1.598 2229
-3.869 6.183 1.649 1840
-3.810 6.088 1.604 1412
-3.956 6.321 1.638 1685
-3.962 6.332 1.618 1713
-3.919 6.263 1.579 1393
-4.346 6.945 1.713 1840
-4.344 6.942 1.688 2230
-4.528 7.236 1.728 1907
-4.514 7.214 1.697 1955
-4.579 7.317 1.694 2396
-4.581 7.321 1.669 1494
-4.650 7.430 1.666 1816
-4.809 7.685 1.691 1973
-4.803 7.676 1.662 2421
-4.802 7.673 1.635 2586
-4.816 7.696 1.612 2291
-4.831 7.720 1.590 2947
-5.012 8.009 1.616 3245
-5.014 8.012 1.589 2908
-5.020 8.022 1.562 2256
-5.023 8.026 1.535 1913
-5.025 8.029 1.507 1269
-4.835 7.727 1.428 996
-5.029 8.036 1.452 947
-5.031 8.039 1.425 528
-0.573 0.915 0.231 307
-0.573 0.916 0.228 388
-0.573 0.916 0.225 447
-0.573 0.916 0.222 486
-0.569 0.910 0.218 458
-0.569 0.910 0.215 417
-0.574 0.917 0.213 389
-0.574 0.917 0.210 331
-0.570 0.910 0.207 251
-1.198 1.924 1.769 3868
-1.201 1.928 1.763 7736
-1.204 1.932 1.756 7736
-1.206 1.936 1.750 5793
-1.215 1.951 1.752 3947
-1.228 1.971 1.760 3514
-1.258 2.019 1.790 4581
-1.260 2.023 1.783 4581
-1.270 2.038 1.785 4592
-1.276 2.048 1.783 4876
-1.278 2.052 1.776 4564
-1.281 2.056 1.769 4252
-1.304 2.093 1.789 4702
-1.310 2.103 1.786 6344
-1.309 2.101 1.775 6514
-1.305 2.094 1.759 6286
-1.300 2.087 1.743 5900
-1.303 2.091 1.736 4954
-1.309 2.101 1.733 4077
-1.332 2.138 1.752 3701
-1.331 2.137 1.741 3998
-1.330 2.135 1.729 5072
-1.332 2.139 1.722 6316
-1.338 2.148 1.719 6816
-1.348 2.164 1.720 7827
-1.354 2.173 1.717 7578
-1.360 2.183 1.714 7726
-1.362 2.187 1.707 6616
-1.368 2.196 1.703 5636
-1.374 2.206 1.700 4286
-1.391 2.233 1.709 3579
-1.422 2.283 1.735 3052
-1.424 2.287 1.727 3588
-1.430 2.296 1.723 4409
-1.437 2.306 1.719 5369
-1.432 2.298 1.704 4579
-1.431 2.296 1.692 4011
-1.437 2.306 1.688 3975
-1.443 2.316 1.684 3772
-1.452 2.331 1.684 3848
-1.462 2.347 1.684 4015
-1.468 2.356 1.680 4151
-1.514 2.430 1.719 3334
-1.509 2.423 1.703 3084
-1.490 2.391 1.672 3210
-1.496 2.401 1.668 2849
-1.571 2.523 1.735 3734
-1.574 2.526 1.727 4432
-1.558 2.501 1.700 6766
-1.560 2.505 1.691 9070
-1.563 2.508 1.683 8215
-1.609 2.584 1.719 6165
-1.612 2.588 1.710 6764
-1.614 2.591 1.701 5928
-1.643 2.637 1.718 5611
-1.645 2.641 1.709 6316
-1.633 2.621 1.685 7730
-1.639 2.631 1.680 8873
-1.652 2.653 1.682 9521
-1.659 2.662 1.677 9404
-1.676 2.690 1.682 8439
-1.686 2.706 1.679 9356
-1.688 2.710 1.670 8144
-1.683 2.702 1.654 7464
-1.685 2.705 1.645 6813
-1.695 2.721 1.643 5914
-1.701 2.731 1.637 5240
-1.772 2.844 1.688 6354
-1.767 2.836 1.672 7719
-1.769 2.840 1.662 8441
-1.771 2.843 1.653 7388
-1.785 2.865 1.653 5423
-1.845 2.961 1.692 4184
-1.847 2.965 1.682 7197
-1.846 2.962 1.669 8856
-1.844 2.960 1.656 7050
-1.843 2.958 1.642 4664
-1.856 2.980 1.642 4269
-1.866 2.996 1.638 5079
-1.873 3.006 1.631 3946
-1.963 3.152 1.692 5325
-1.966 3.156 1.681 6410
-1.968 3.159 1.670 5818
-1.951 3.132 1.645 4389
-2.046 3.285 1.706 3735
-2.002 3.214 1.659 3865
-1.997 3.206 1.642 3546
-2.069 3.322 1.684 4145
-2.068 3.319 1.670 7125
-2.070 3.323 1.659 7785
-2.076 3.333 1.651 5460
-2.114 3.393 1.665 5289
-2.136 3.428 1.668 5416
-2.150 3.451 1.664 5825
-2.156 3.461 1.655 4950
-2.178 3.496 1.658 5337
-2.188 3.512 1.651 4960
-2.222 3.567 1.661 6286
-2.228 3.577 1.652 4786
-2.313 3.713 1.696 5786
-2.320 3.723 1.686 5829
-2.322 3.727 1.673 5062
-2.320 3.725 1.658 3827
-2.342 3.760 1.658 3161
-2.345 3.764 1.645 2858
-2.406 3.863 1.671 4312
-2.413 3.873 1.660 5565
-2.419 3.883 1.650 3844
-2.477 3.976 1.671 2582
-2.503 4.018 1.672 3419
-2.502 4.016 1.656 4204
-2.520 4.045 1.652 3421
-2.478 3.978 1.612 2507
-2.497 4.008 1.608 1976
-2.671 4.287 1.696 2208
-2.673 4.291 1.681 3288
-2.748 4.411 1.708 3320
-2.754 4.421 1.695 2895
-2.724 4.373 1.662 1829
-2.791 4.480 1.683 2566
-2.789 4.477 1.666 3413
-2.792 4.481 1.651 3997
-2.798 4.491 1.637 3903
-2.840 4.560 1.644 2960
-2.843 4.563 1.628 3109
-2.849 4.574 1.615 2559
-2.993 4.804 1.672 4074
-2.995 4.808 1.656 6037
-2.997 4.812 1.639 5016
-3.044 4.887 1.645 4292
-3.047 4.890 1.629 4558
-3.179 5.102 1.675 4475
-3.181 5.106 1.658 5050
-3.179 5.103 1.638 3838
-3.287 5.277 1.671 3033
-3.293 5.287 1.654 2228
-3.410 5.473 1.689 1828
-3.347 5.373 1.640 1758
-3.349 5.376 1.622 1880
-3.441 5.524 1.643 2291
-3.448 5.534 1.626 2904
-3.450 5.538 1.607 2459
-3.628 5.823 1.663 1966
-3.593 5.768 1.628 2541
-3.596 5.772 1.608 2322
-3.672 5.894 1.618 1737
-3.670 5.891 1.596 2091
-3.852 6.184 1.647 1830
-3.797 6.095 1.604 1604
-3.943 6.329 1.638 1615
-3.945 6.333 1.616 1662
-3.906 6.271 1.579 1236
-4.332 6.954 1.713 2045
-4.330 6.951 1.688 2396
-4.493 7.213 1.721 1916
-4.496 7.216 1.696 1926
-4.568 7.333 1.695 2313
-4.673 7.502 1.705 1555
-4.647 7.459 1.670 1723
-4.790 7.688 1.690 1701
-4.788 7.686 1.662 2222
-4.790 7.689 1.636 2547
-4.987 8.005 1.669 2829
-4.989 8.008 1.642 3424
-4.995 8.019 1.616 3861
-4.998 8.022 1.589 3531
-5.004 8.033 1.562 2730
-5.006 8.036 1.535 2325
-5.008 8.039 1.507 1585
-5.010 8.043 1.480 1035
-5.012 8.046 1.452 1089
-5.014 8.049 1.425 593
-0.571 0.917 0.228 260
-0.571 0.917 0.225 329
-0.567 0.911 0.221 362
-0.567 0.911 0.218 359
-0.567 0.911 0.215 361
-0.572 0.918 0.213 329
-1.194 1.926 1.769 3734
-1.197 1.930 1.763 7469
-1.199 1.934 1.756 7469
-1.202 1.938 1.750 5518
-1.201 1.937 1.738 3646
-1.224 1.974 1.760 3305
-1.257 2.027 1.794 4598
-1.259 2.031 1.787 4598
-1.265 2.041 1.785 4632
-1.271 2.050 1.783 4809
-1.274 2.055 1.776 4354
-1.280 2.064 1.773 3907
-1.300 2.096 1.789 4658
-1.305 2.106 1.786 6244
-1.305 2.104 1.775 6388
-1.304 2.103 1.763 5929
-1.296 2.090 1.743 5420
-1.302 2.099 1.740 4716
-1.328 2.143 1.764 4181
-1.327 2.141 1.752 4231
-1.330 2.145 1.745 4296
-1.329 2.143 1.733 5200
-1.328 2.142 1.722 6379
-1.334 2.151 1.719 6731
-1.343 2.167 1.720 7837
-1.349 2.176 1.717 8165
-1.355 2.186 1.714 8719
-1.358 2.190 1.707 7520
-1.364 2.199 1.703 6480
-1.377 2.220 1.709 5061
-1.386 2.236 1.709 4711
-1.417 2.286 1.735 3866
-1.420 2.290 1.727 5043
-1.422 2.294 1.719 5737
-1.424 2.297 1.711 6388
-1.427 2.301 1.704 6092
-1.429 2.305 1.696 5007
-1.432 2.309 1.688 4176
-1.441 2.325 1.688 4068
-1.451 2.340 1.688 4544
-1.457 2.350 1.684 5204
-1.459 2.354 1.676 5554
-1.469 2.369 1.676 4001
-1.482 2.391 1.680 2929
-1.488 2.400 1.676 3209
-1.494 2.410 1.671 2913
-1.566 2.526 1.735 3829
-1.568 2.530 1.727 4301
-1.553 2.504 1.700 7036
-1.551 2.502 1.687 9664
-1.557 2.512 1.683 8843
-1.600 2.581 1.715 6089
-1.606 2.591 1.710 6888
-1.609 2.595 1.701 6057
-1.641 2.647 1.721 5853
-1.643 2.650 1.712 6571
-1.627 2.624 1.685 7261
-1.633 2.634 1.680 8323
-1.647 2.656 1.682 9242
-1.653 2.666 1.677 9082
-1.670 2.694 1.682 7652
-1.680 2.710 1.679 8181
-1.682 2.713 1.670 7376
-1.673 2.699 1.651 7294
-1.680 2.709 1.645 6868
-1.689 2.725 1.643 6434
-1.695 2.735 1.637 5574
-1.769 2.854 1.692 5357
-1.761 2.840 1.672 7046
-1.763 2.843 1.662 7563
-1.765 2.847 1.653 6593
-1.779 2.869 1.653 5050
-1.785 2.879 1.646 4156
-1.841 2.969 1.682 6891
-1.839 2.966 1.669 8422
-1.834 2.958 1.652 6803
-1.832 2.955 1.639 4899
-1.850 2.984 1.642 4450
-1.937 3.124 1.701 4579
-1.943 3.134 1.693 3716
-1.961 3.162 1.695 5153
-1.959 3.160 1.681 6378
-1.954 3.151 1.664 6180
-1.948 3.143 1.648 4506
-2.039 3.289 1.706 4038
-2.003 3.231 1.665 3982
-2.013 3.247 1.660 3426
-2.062 3.326 1.684 4231
-2.061 3.324 1.670 7915
-2.063 3.327 1.659 9146
-2.069 3.337 1.651 6719
-2.107 3.398 1.665 4924
-2.124 3.426 1.665 4528
-2.142 3.455 1.664 5810
-2.153 3.472 1.658 5460
-2.167 3.494 1.655 5067
-2.181 3.517 1.651 4500
-2.214 3.571 1.661 6089
-2.221 3.581 1.652 4849
-2.305 3.718 1.696 5457
-2.253 3.633 1.646 5535
-2.314 3.732 1.673 4581
-2.312 3.730 1.658 3770
-2.334 3.765 1.658 3146
-2.341 3.775 1.648 2726
-2.398 3.868 1.671 4433
-2.405 3.878 1.660 5725
-2.407 3.882 1.647 4374
-2.409 3.886 1.634 2672
-2.495 4.024 1.672 2946
-2.493 4.021 1.656 3479
-2.515 4.057 1.655 3168
-2.514 4.054 1.639 2481
-2.488 4.013 1.608 1978
-2.662 4.293 1.696 1982
-2.664 4.297 1.681 3206
-2.742 4.423 1.710 3870
-2.745 4.427 1.695 3327
-2.743 4.424 1.678 1983
-2.777 4.479 1.681 2286
-2.776 4.477 1.664 2869
-2.782 4.487 1.651 3297
-2.816 4.543 1.653 3325
-2.831 4.566 1.644 3632
-2.837 4.576 1.630 3625
-2.839 4.580 1.615 2748
-2.982 4.810 1.672 4346
-2.985 4.814 1.656 5327
-2.987 4.818 1.639 4336
-3.034 4.893 1.645 3392
-3.036 4.897 1.629 3686
-3.164 5.103 1.673 4247
-3.170 5.113 1.658 4781
-3.168 5.110 1.638 3812
-3.272 5.277 1.669 3082
-3.278 5.287 1.653 2437
-3.272 5.278 1.631 1880
-3.275 5.282 1.613 1635
-3.342 5.390 1.624 1739
-3.434 5.538 1.645 2003
-3.436 5.542 1.626 2746
-3.438 5.545 1.607 2610
-3.615 5.831 1.663 2314
-3.618 5.835 1.643 2774
-3.612 5.826 1.620 2303
-3.765 6.073 1.661 1853
-3.771 6.083 1.642 1992
-3.782 6.100 1.625 1824
-3.784 6.103 1.604 1787
-3.782 6.100 1.581 1522
-3.936 6.348 1.618 1534
-4.311 6.953 1.735 1377
-4.317 6.963 1.713 2157
-4.316 6.960 1.688 2360
-4.474 7.216 1.719 1917
-4.476 7.219 1.694 1753
-4.556 7.349 1.697 2196
-4.559 7.353 1.672 1625
-4.635 7.476 1.671 1705
-4.773 7.699 1.690 1329
-4.776 7.702 1.664 1994
-4.774 7.699 1.636 2500
-4.970 8.015 1.669 3501
-4.972 8.019 1.642 3985
-4.974 8.023 1.615 4415
-4.976 8.026 1.587 4170
-4.987 8.043 1.562 3286
-4.989 8.047 1.535 2842
-4.991 8.050 1.507 1972
-4.993 8.053 1.480 1239
-4.995 8.057 1.452 1194
-4.997 8.060 1.425 635
-0.569 0.918 0.222 287
-0.570 0.919 0.219 302
-0.570 0.919 0.216 316
-0.566 0.912 0.213 324
-0.566 0.912 0.210 250
-1.190 1.929 1.769 3481
-1.193 1.933 1.763 6962
-1.195 1.937 1.756 6962
-1.194 1.936 1.745 5109
-1.197 1.940 1.738 3370
-1.253 2.031 1.806 3319
-1.253 2.030 1.794 4542
-1.255 2.034 1.787 4542
-1.261 2.044 1.785 4590
-1.267 2.053 1.783 4686
-1.269 2.057 1.776 4130
-1.282 2.078 1.782 3663
-1.295 2.099 1.789 4561
-1.301 2.108 1.786 6062
-1.300 2.107 1.775 6178
-1.303 2.111 1.768 5624
-1.295 2.098 1.747 5045
-1.304 2.113 1.749 4715
-1.320 2.140 1.759 4820
-1.323 2.144 1.752 4649
-1.329 2.154 1.749 4484
-1.324 2.146 1.733 5255
-1.323 2.144 1.722 6357
-1.333 2.160 1.723 6627
-1.342 2.175 1.724 8014
-1.348 2.185 1.721 8778
-1.351 2.189 1.714 9693
-1.353 2.193 1.707 8409
-1.359 2.202 1.703 7313
-1.372 2.223 1.709 5966
-1.381 2.239 1.709 5708
-1.409 2.283 1.730 4467
-1.415 2.293 1.727 5823
-1.417 2.297 1.719 6265
-1.420 2.300 1.711 6567
-1.422 2.304 1.704 6352
-1.428 2.314 1.700 5090
-1.434 2.324 1.696 4126
-1.465 2.374 1.720 4474
-1.471 2.384 1.716 5618
-1.452 2.353 1.684 5912
-1.454 2.357 1.676 6663
-1.457 2.360 1.668 4971
-1.481 2.400 1.684 3039
-1.487 2.409 1.679 3052
-1.507 2.443 1.690 2958
-1.564 2.535 1.739 3773
-1.567 2.539 1.731 4101
-1.544 2.501 1.696 7495
-1.546 2.505 1.687 10257
-1.548 2.509 1.679 9320
-1.595 2.584 1.715 5877
-1.597 2.588 1.706 6846
-1.603 2.598 1.701 5949
-1.635 2.650 1.721 5949
-1.638 2.654 1.712 6693
-1.640 2.658 1.703 6614
-1.639 2.656 1.691 7578
-1.645 2.666 1.685 8578
-1.647 2.669 1.677 8386
-1.661 2.691 1.678 6781
-1.674 2.713 1.679 6792
-1.677 2.717 1.670 6415
-1.668 2.703 1.651 7035
-1.678 2.719 1.648 6933
-1.687 2.734 1.646 6984
-1.693 2.744 1.640 5816
-1.752 2.839 1.682 4450
-1.751 2.837 1.669 6500
-1.753 2.841 1.659 6746
-1.759 2.851 1.653 5808
-1.773 2.873 1.653 4658
-1.783 2.889 1.650 4284
-1.838 2.979 1.685 6502
-1.837 2.976 1.672 7947
-1.843 2.986 1.665 6546
-1.830 2.966 1.642 5216
-1.844 2.988 1.642 4620
-1.934 3.134 1.704 4935
-1.948 3.156 1.703 3949
-1.954 3.166 1.695 5126
-1.952 3.164 1.681 6254
-1.951 3.162 1.667 6431
-1.946 3.153 1.651 4640
-2.036 3.300 1.709 4131
-2.008 3.254 1.674 4113
-2.018 3.270 1.669 4254
-2.040 3.305 1.673 4480
-2.054 3.328 1.670 8432
-2.056 3.332 1.659 10000
-2.058 3.335 1.648 7390
-2.099 3.402 1.665 4828
-2.113 3.425 1.662 3963
-2.139 3.466 1.667 5883
-2.149 3.483 1.661 5878
-2.159 3.499 1.655 4744
-2.169 3.515 1.648 3634
-2.211 3.582 1.664 5183
-2.295 3.719 1.708 4403
-2.243 3.634 1.658 5138
-2.245 3.638 1.646 5719
-2.310 3.743 1.676 3879
-2.308 3.741 1.661 3763
-2.319 3.757 1.653 3304
-2.360 3.825 1.666 2590
-2.390 3.873 1.671 4564
-2.396 3.883 1.660 5721
-2.399 3.887 1.647 4630
-2.401 3.891 1.634 3348
-2.399 3.888 1.618 2670
-2.481 4.020 1.654 2712
-2.507 4.062 1.655 2825
-2.505 4.060 1.639 2448
-2.480 4.018 1.608 1705
-2.490 4.035 1.599 2014
-2.655 4.302 1.681 2991
-2.733 4.429 1.710 4317
-2.735 4.432 1.695 3679
-2.730 4.423 1.676 2211
-2.740 4.440 1.665 2152
-2.750 4.457 1.655 2407
-2.772 4.493 1.651 2523
-2.815 4.561 1.657 3604
-2.821 4.572 1.644 4115
-2.827 4.582 1.630 3909
-2.974 4.819 1.691 2962
-2.972 4.817 1.672 4785
-2.975 4.820 1.656 5077
-2.977 4.824 1.639 4064
-2.987 4.841 1.627 2739
-3.066 4.969 1.649 3222
-3.153 5.109 1.673 3835
-3.163 5.126 1.660 4268
-3.157 5.117 1.638 3447
-3.261 5.284 1.669 2941
-3.263 5.288 1.651 2517
-3.261 5.285 1.631 2267
-3.255 5.275 1.609 1842
-3.266 5.292 1.595 1541
-3.426 5.552 1.647 1684
-3.444 5.582 1.635 2461
-3.430 5.559 1.609 2731
-3.603 5.839 1.663 2525
-3.605 5.843 1.643 2999
-3.599 5.833 1.620 2546
-3.752 6.081 1.661 1991
-3.758 6.091 1.642 2109
-3.769 6.108 1.625 1916
-3.771 6.111 1.604 1867
-3.769 6.108 1.581 1686
-3.922 6.357 1.618 1410
-4.296 6.962 1.735 1386
-4.302 6.972 1.713 2013
-4.301 6.970 1.688 2077
-4.295 6.960 1.661 1776
-4.297 6.964 1.637 1571
-4.541 7.359 1.697 2023
-4.543 7.363 1.672 1631
-4.623 7.492 1.672 1713
-4.933 7.994 1.748 1601
-4.759 7.712 1.664 1801
-4.958 8.035 1.699 2768
-4.952 8.026 1.669 4144
-4.955 8.030 1.642 4492
-4.957 8.033 1.615 4910
-4.959 8.037 1.587 4733
-4.970 8.054 1.562 3797
-4.972 8.057 1.535 3341
-4.974 8.061 1.507 2346
-4.976 8.064 1.480 1446
-4.978 8.067 1.452 1300
-4.980 8.071 1.425 667
-4.982 8.074 1.397 265
-1.186 1.931 1.769 3215
-1.189 1.935 1.763 6430
-1.191 1.939 1.756 6430
-1.190 1.938 1.745 4756
-1.193 1.942 1.738 3112
-1.249 2.034 1.806 3340
-1.252 2.038 1.799 4433
-1.254 2.042 1.792 4433
-1.257 2.046 1.785 4475
-1.259 2.050 1.778 4517
-1.265 2.060 1.776 3908
-1.278 2.081 1.782 3522
-1.287 2.096 1.784 4490
-1.297 2.111 1.786 5905
-1.296 2.110 1.775 5995
-1.298 2.114 1.768 5423
-1.294 2.106 1.752 4823
-1.303 2.122 1.753 4898
-1.313 2.137 1.755 5352
-1.319 2.147 1.752 4940
-1.328 2.162 1.754 4670
-1.320 2.149 1.733 5213
-1.319 2.147 1.722 6241
-1.332 2.168 1.728 6528
-1.338 2.178 1.724 8076
-1.344 2.187 1.721 9241
-1.346 2.191 1.714 10435
-1.352 2.201 1.711 9156
-1.354 2.205 1.703 8081
-1.367 2.226 1.709 6833
-1.377 2.241 1.709 6573
-1.400 2.280 1.726 5151
-1.406 2.290 1.723 6697
-1.412 2.299 1.719 6819
-1.415 2.303 1.711 6825
-1.417 2.307 1.704 6557
-1.427 2.323 1.704 5337
-1.433 2.332 1.700 4388
-1.457 2.371 1.716 5267
-1.463 2.381 1.712 6748
-1.451 2.362 1.688 6585
-1.449 2.360 1.676 7522
-1.452 2.363 1.668 5798
-1.479 2.408 1.688 3285
-1.485 2.418 1.683 2978
-1.502 2.446 1.690 3154
-1.512 2.461 1.690 3956
-1.522 2.477 1.689 4610
-1.535 2.499 1.692 8074
-1.537 2.503 1.684 10754
-1.543 2.512 1.679 9647
-1.575 2.564 1.700 5825
-1.592 2.592 1.706 6752
-1.594 2.596 1.697 5727
-1.633 2.659 1.725 6078
-1.636 2.663 1.716 7074
-1.642 2.673 1.711 6670
-1.641 2.671 1.698 6878
-1.639 2.669 1.685 7657
-1.642 2.673 1.677 7401
-1.651 2.689 1.675 5848
-1.665 2.711 1.676 5398
-1.664 2.708 1.663 5484
-1.658 2.700 1.647 6784
-1.676 2.728 1.652 7144
-1.682 2.738 1.646 7431
-1.688 2.748 1.640 6003
-1.735 2.825 1.671 4559
-1.745 2.841 1.669 5921
-1.747 2.845 1.659 6035
-1.750 2.848 1.649 5069
-1.767 2.877 1.653 4005
-1.777 2.893 1.650 4001
-1.832 2.983 1.685 6408
-1.834 2.986 1.675 7963
-1.841 2.996 1.668 6848
-1.828 2.975 1.646 5668
-1.845 3.004 1.648 5104
-1.927 3.138 1.704 5463
-1.945 3.166 1.706 4358
-1.951 3.177 1.698 5035
-1.942 3.162 1.678 6019
-1.944 3.166 1.667 6562
-1.954 3.182 1.663 5286
-2.030 3.304 1.709 4022
-2.009 3.271 1.680 4141
-2.011 3.274 1.669 4911
-2.033 3.309 1.673 4946
-2.047 3.332 1.670 8631
-2.049 3.336 1.659 10441
-2.051 3.340 1.648 7869
-2.073 3.375 1.651 4416
-2.133 3.473 1.682 3711
-2.136 3.477 1.670 6167
-2.142 3.487 1.661 6262
-2.152 3.503 1.655 4279
-2.205 3.589 1.679 3803
-2.207 3.593 1.666 4618
-2.287 3.724 1.708 3956
-2.235 3.639 1.658 5440
-2.237 3.643 1.646 6262
-2.306 3.754 1.678 3288
-2.312 3.765 1.668 3851
-2.307 3.756 1.650 3370
-2.356 3.836 1.669 2710
-2.386 3.884 1.673 4710
-2.388 3.888 1.660 5686
-2.391 3.892 1.647 4942
-2.393 3.896 1.634 4071
-2.391 3.893 1.618 3131
-2.437 3.967 1.632 2644
-2.498 4.067 1.655 2717
-2.501 4.071 1.641 2539
-2.483 4.043 1.615 1428
-2.485 4.046 1.602 1992
-2.646 4.308 1.681 2662
-2.728 4.441 1.713 4497
-2.726 4.438 1.695 3825
-2.717 4.423 1.674 2431
-2.727 4.439 1.663 2217
-2.737 4.456 1.652 2201
-2.803 4.563 1.672 2159
-2.805 4.567 1.657 3821
-2.812 4.577 1.644 4358
-2.818 4.588 1.630 3817
-2.956 4.812 1.686 3781
-2.962 4.823 1.672 5472
-2.965 4.827 1.656 5195
-2.967 4.830 1.639 4048
-2.973 4.841 1.625 3158
-3.056 4.975 1.649 2899
-3.142 5.116 1.673 3246
-3.153 5.133 1.660 3441
-3.147 5.123 1.638 2855
-3.242 5.277 1.665 2715
-3.252 5.294 1.651 2532
-3.246 5.285 1.629 2447
-3.236 5.269 1.606 1975
-3.247 5.286 1.591 1594
-3.536 5.756 1.701 1690
-3.433 5.589 1.635 2225
-3.419 5.566 1.609 2631
-3.421 5.570 1.590 2092
-3.589 5.843 1.641 2070
-3.592 5.847 1.621 2411
-3.740 6.088 1.661 2129
-3.746 6.099 1.642 2122
-3.756 6.115 1.625 1977
-3.763 6.126 1.605 2011
-3.765 6.129 1.585 1777
-3.913 6.371 1.619 1353
-4.326 7.043 1.752 1448
-4.174 6.796 1.671 1819
-4.278 6.965 1.685 1793
-4.252 6.922 1.651 1798
-4.254 6.926 1.627 1706
-4.526 7.368 1.697 1775
-4.528 7.372 1.672 1512
-4.698 7.648 1.702 1887
-4.917 8.004 1.748 1805
-4.923 8.015 1.722 1810
-4.942 8.045 1.699 3133
-4.936 8.036 1.669 4633
-4.938 8.040 1.642 4855
-4.941 8.043 1.615 5246
-4.943 8.047 1.587 5136
-4.953 8.064 1.562 4211
-4.955 8.067 1.535 3777
-4.958 8.071 1.507 2679
-4.960 8.074 1.480 1616
-4.962 8.078 1.452 1369
-4.964 8.081 1.425 680
-4.966 8.084 1.397 256
-0.683 1.111 0.196 255
-1.180 1.928 1.764 2898
-1.183 1.932 1.758 5797
-1.185 1.936 1.751 5797
-1.187 1.940 1.745 4320
-1.190 1.944 1.738 2843
-1.246 2.036 1.806 3273
-1.249 2.040 1.799 4224
-1.251 2.044 1.792 4224
-1.254 2.048 1.785 4256
-1.256 2.052 1.778 4288
-1.262 2.062 1.776 3710
-1.278 2.088 1.787 3465
-1.284 2.098 1.784 4488
-1.290 2.107 1.782 5862
-1.296 2.117 1.779 5899
-1.295 2.116 1.768 5306
-1.291 2.108 1.752 4755
-1.300 2.124 1.753 5084
-1.309 2.139 1.755 5761
-1.315 2.149 1.752 5085
-1.325 2.164 1.754 4695
-1.317 2.151 1.733 5042
-1.316 2.149 1.722 5953
-1.332 2.176 1.732 6366
-1.338 2.186 1.729 8128
-1.340 2.189 1.721 9520
-1.343 2.193 1.714 10911
-1.349 2.203 1.711 9710
-1.355 2.213 1.708 8666
-1.364 2.228 1.709 7382
-1.370 2.238 1.705 7038
-1.397 2.282 1.726 5802
-1.403 2.292 1.723 7485
-1.405 2.296 1.715 7470
-1.411 2.305 1.711 7164
-1.414 2.309 1.704 6943
-1.427 2.331 1.708 6074
-1.429 2.335 1.700 5085
-1.453 2.374 1.716 5996
-1.459 2.383 1.712 7574
-1.451 2.370 1.692 7278
-1.449 2.368 1.680 8146
-1.452 2.371 1.672 6362
-1.479 2.417 1.691 3605
-1.482 2.420 1.683 3054
-1.499 2.448 1.690 3303
-1.508 2.464 1.690 4153
-1.518 2.479 1.689 5143
-1.527 2.495 1.688 8635
-1.533 2.505 1.684 11080
-1.539 2.515 1.679 9719
-1.567 2.560 1.696 5971
-1.581 2.582 1.699 6651
-1.583 2.586 1.690 5674
-1.629 2.662 1.725 6458
-1.632 2.666 1.716 7871
-1.642 2.682 1.714 7473
-1.648 2.692 1.709 6924
-1.639 2.677 1.689 6205
-1.641 2.681 1.680 5811
-1.647 2.691 1.675 4641
-1.657 2.707 1.672 4143
-1.656 2.705 1.660 4763
-1.654 2.702 1.647 6576
-1.672 2.731 1.652 7364
-1.678 2.740 1.646 7668
-1.684 2.750 1.640 5999
-1.731 2.827 1.671 5216
-1.741 2.843 1.669 5495
-1.743 2.847 1.659 5323
-1.745 2.851 1.649 4296
-1.823 2.978 1.705 3657
-1.829 2.988 1.699 3848
-1.831 2.991 1.689 6078
-1.834 2.995 1.678 7473
-1.832 2.993 1.665 6677
-1.831 2.991 1.652 6190
-1.841 3.007 1.648 5579
-1.926 3.147 1.707 6040
-1.944 3.176 1.709 4899
-1.950 3.186 1.701 5030
-1.937 3.165 1.678 5610
-1.940 3.168 1.667 6299
-1.953 3.191 1.666 5925
-1.971 3.220 1.667 4108
-2.004 3.274 1.680 3926
-2.006 3.277 1.669 4934
-2.028 3.313 1.673 5166
-2.038 3.329 1.667 8548
-2.040 3.333 1.656 10455
-2.046 3.343 1.648 7943
-2.064 3.372 1.648 4183
-2.132 3.483 1.685 4243
-2.130 3.480 1.670 6501
-2.141 3.497 1.664 6705
-2.185 3.570 1.682 4289
-2.199 3.593 1.679 4020
-2.206 3.603 1.669 4265
-2.208 3.607 1.657 3831
-2.230 3.642 1.658 5831
-2.232 3.646 1.646 6890
-2.238 3.656 1.636 3344
-2.315 3.781 1.674 4774
-2.336 3.817 1.674 3526
-2.386 3.897 1.692 2601
-2.380 3.888 1.673 4483
-2.383 3.892 1.660 5396
-2.385 3.896 1.647 5138
-2.387 3.899 1.634 4685
-2.389 3.903 1.621 3520
-2.431 3.971 1.632 2623
-2.492 4.071 1.655 2798
-2.498 4.081 1.643 2596
-2.517 4.111 1.639 1493
-2.479 4.050 1.602 1867
-2.719 4.441 1.728 2619
-2.721 4.445 1.713 4513
-2.719 4.442 1.695 3922
-2.706 4.420 1.671 2897
-2.708 4.424 1.656 2389
-2.726 4.454 1.650 2026
-2.796 4.568 1.672 2142
-2.799 4.571 1.657 3880
-2.805 4.582 1.644 4451
-2.807 4.585 1.628 3678
-2.945 4.810 1.684 4744
-2.951 4.821 1.670 6090
-2.953 4.824 1.654 5439
-2.960 4.835 1.639 4227
-2.966 4.845 1.625 3647
-2.996 4.894 1.623 2951
-3.139 5.127 1.675 2731
-3.145 5.137 1.660 2734
-3.219 5.259 1.677 2359
-3.234 5.282 1.665 2272
-3.248 5.306 1.653 2353
-3.238 5.290 1.629 2507
-3.225 5.267 1.604 2107
-3.355 5.481 1.644 1792
-3.527 5.761 1.701 1636
-3.537 5.778 1.685 2067
-3.411 5.571 1.609 2359
