-4.288 3.581 1.670 3776
-4.297 3.589 1.655 5675
-4.306 3.597 1.641 4909
-4.310 3.600 1.625 5032
-4.307 3.597 1.607 5446
-4.528 3.782 1.665 3403
-4.508 3.765 1.640 3044
-4.523 3.778 1.626 4016
-4.520 3.775 1.607 2778
-4.813 4.020 1.684 2529
-4.828 4.032 1.670 1773
-4.926 4.114 1.681 1541
-4.923 4.112 1.661 2703
-4.927 4.115 1.642 3093
-4.936 4.122 1.625 2081
-5.188 4.333 1.681 2111
-5.197 4.341 1.663 2853
-5.189 4.334 1.640 2037
-5.370 4.485 1.672 2418
-5.380 4.493 1.653 1945
-5.751 4.803 1.736 1770
-5.773 4.821 1.719 1973
-5.937 4.958 1.741 2329
-5.809 4.852 1.683 2780
-5.813 4.855 1.662 3224
-5.816 4.858 1.640 2180
-6.213 5.189 1.718 2490
-6.223 5.197 1.696 2603
-6.363 5.315 1.707 2428
-6.367 5.318 1.683 2160
-6.442 5.380 1.676 1911
-6.457 5.393 1.654 2162
-6.467 5.401 1.631 2666
-6.464 5.399 1.605 2720
-6.467 5.401 1.581 2132
-7.064 5.899 1.687 1207
-7.247 6.053 1.699 1360
-7.244 6.050 1.671 1029
-7.236 6.043 1.641 714
-7.239 6.046 1.613 681
-7.260 6.064 1.590 482
-1.703 1.427 1.736 4267
-1.707 1.430 1.730 8534
-1.710 1.433 1.723 8534
-1.729 1.448 1.731 6750
-1.757 1.472 1.748 5374
-1.761 1.475 1.741 6711
-1.789 1.498 1.757 8377
-1.793 1.502 1.751 8377
-1.801 1.509 1.749 7549
-1.750 1.466 1.692 7112
-1.813 1.519 1.740 6488
-1.797 1.505 1.715 6595
-1.845 1.546 1.749 5450
-1.854 1.553 1.746 5677
-1.868 1.564 1.748 6018
-1.876 1.572 1.746 6887
-1.880 1.575 1.739 6984
-1.868 1.565 1.718 6700
-1.867 1.564 1.707 7235
-1.870 1.567 1.700 6447
-1.940 1.625 1.749 6769
-1.949 1.632 1.746 10008
-1.952 1.635 1.739 13302
-1.956 1.638 1.732 14603
-1.964 1.646 1.729 16249
-1.968 1.648 1.721 16021
-1.972 1.651 1.714 15792
-1.975 1.654 1.707 17542
-1.984 1.662 1.703 19405
-1.987 1.665 1.696 16697
-1.996 1.672 1.693 14053
-1.999 1.675 1.685 9779
-2.013 1.686 1.686 5912
-2.079 1.742 1.727 6291
-2.088 1.749 1.724 6844
-2.097 1.756 1.720 5982
-2.111 1.768 1.720 6103
-2.109 1.767 1.708 6443
-2.107 1.765 1.696 5739
-2.111 1.768 1.688 5124
-2.125 1.780 1.688 5210
-2.139 1.791 1.688 5662
-2.158 1.808 1.692 4236
-2.183 1.828 1.699 3844
-2.202 1.845 1.702 4479
-2.237 1.874 1.717 4013
-2.241 1.877 1.709 3724
-2.223 1.862 1.685 4311
-2.227 1.865 1.677 5300
-2.321 1.944 1.732 5707
-2.325 1.947 1.724 6098
-2.333 1.955 1.719 6197
-2.337 1.958 1.710 5921
-2.346 1.965 1.705 6620
-2.349 1.968 1.696 6028
-2.428 2.034 1.738 6099
-2.443 2.046 1.736 7080
-2.457 2.058 1.734 8615
-2.466 2.066 1.728 8741
-2.410 2.019 1.680 8124
-2.419 2.026 1.675 8364
-2.499 2.093 1.714 7837
-2.486 2.082 1.695 8498
-2.506 2.099 1.696 9935
-2.531 2.120 1.700 9854
-2.540 2.128 1.694 10098
-2.576 2.158 1.705 9833
-2.585 2.166 1.698 8777
-2.550 2.136 1.665 7199
-2.559 2.144 1.659 6460
-2.568 2.151 1.653 6435
-2.588 2.168 1.653 5345
-2.636 2.208 1.669 5841
-2.645 2.215 1.663 4783
-2.631 2.204 1.643 3992
-2.668 2.235 1.652 4754
-2.682 2.247 1.649 5396
-2.714 2.273 1.654 4148
-2.750 2.304 1.663 3503
-2.832 2.372 1.696 4321
-2.835 2.375 1.686 6340
-2.839 2.378 1.675 7362
-2.848 2.386 1.667 6838
-2.851 2.388 1.657 7483
-2.860 2.396 1.649 7665
-2.931 2.455 1.674 7493
-2.935 2.458 1.663 7315
-2.961 2.480 1.664 6256
-2.975 2.492 1.659 4684
-2.967 2.486 1.642 3309
-3.027 2.536 1.659 4844
-3.036 2.543 1.651 6033
-3.051 2.556 1.645 5831
-3.066 2.568 1.639 4574
-3.137 2.628 1.661 5380
-3.123 2.616 1.641 4230
-3.178 2.662 1.654 3267
-3.181 2.665 1.642 4391
-3.185 2.668 1.630 3635
-3.314 2.776 1.677 3592
-3.323 2.783 1.667 4754
-3.321 2.781 1.652 6026
-3.318 2.779 1.637 6197
-3.362 2.816 1.643 4662
-3.451 2.891 1.669 5193
-3.466 2.903 1.661 5678
-3.481 2.916 1.653 3575
-3.548 2.972 1.667 3785
-3.453 2.892 1.612 3674
-3.468 2.905 1.603 2998
-3.662 3.067 1.671 3363
-3.677 3.080 1.662 4347
-3.686 3.087 1.651 4621
-3.689 3.090 1.637 3364
-3.756 3.146 1.649 3335
-3.777 3.164 1.642 3225
-3.821 3.201 1.643 3322
-3.813 3.194 1.625 3949
-3.810 3.192 1.608 2933
-3.924 3.287 1.636 2946
-3.921 3.285 1.619 3036
-3.942 3.302 1.611 2773
-3.969 3.325 1.605 3220
-4.165 3.489 1.661 2079
-4.139 3.467 1.635 2980
-4.289 3.592 1.672 3823
-4.298 3.600 1.658 5704
-4.307 3.608 1.643 4988
-4.310 3.611 1.627 5418
-4.308 3.609 1.609 6031
-4.305 3.606 1.591 3748
-4.502 3.771 1.640 2909
-4.523 3.789 1.628 3721
-4.703 3.940 1.669 2463
-4.783 4.007 1.676 2215
-4.828 4.044 1.671 1769
-4.920 4.121 1.681 1548
-4.917 4.119 1.661 2745
-4.915 4.117 1.640 2848
-4.924 4.125 1.624 1763
-5.188 4.345 1.683 2250
-5.191 4.348 1.663 3107
-5.189 4.346 1.642 2094
-5.376 4.503 1.675 2177
-5.379 4.506 1.655 1789
-5.738 4.807 1.734 1602
-5.760 4.825 1.718 1656
-5.924 4.962 1.739 2376
-5.814 4.870 1.687 2723
-5.812 4.868 1.663 3243
-6.202 5.195 1.742 2418
-6.200 5.193 1.717 3090
-6.197 5.191 1.692 2932
-6.356 5.324 1.707 3207
-6.359 5.327 1.683 3005
-6.434 5.390 1.676 2772
-6.444 5.397 1.653 2846
-6.453 5.405 1.630 2973
-6.456 5.408 1.605 2887
-6.459 5.411 1.581 2278
-7.055 5.910 1.687 1313
-7.238 6.063 1.699 1308
-7.242 6.066 1.672 934
-7.239 6.064 1.643 646
-7.248 6.072 1.617 581
-7.252 6.074 1.590 392
-1.695 1.427 1.731 4151
-1.699 1.430 1.725 8302
-1.702 1.433 1.719 8302
-1.720 1.448 1.726 6845
-1.729 1.455 1.725 5835
-1.757 1.479 1.741 7308
-1.780 1.499 1.753 9202
-1.784 1.502 1.746 9202
-1.797 1.513 1.749 8022
-1.806 1.520 1.747 7207
-1.805 1.519 1.735 6460
-1.793 1.509 1.715 6426
-1.842 1.550 1.749 5500
-1.850 1.558 1.746 6103
-1.859 1.565 1.744 6653
-1.873 1.576 1.746 7599
-1.876 1.579 1.739 7653
-1.865 1.569 1.718 7235
-1.863 1.568 1.707 7408
-1.866 1.571 1.700 6871
-1.936 1.630 1.749 7113
-1.945 1.637 1.746 10377
-1.948 1.640 1.739 13711
-1.952 1.643 1.732 15315
-1.960 1.650 1.729 17169
-1.964 1.653 1.721 16788
-1.968 1.656 1.714 16406
-1.971 1.659 1.707 17890
-1.980 1.666 1.703 19495
-1.983 1.669 1.696 16728
-1.992 1.677 1.693 14005
-1.995 1.680 1.685 9713
-2.009 1.691 1.686 5703
-2.075 1.747 1.727 5485
-2.084 1.754 1.724 6555
-2.092 1.761 1.720 6167
-2.106 1.773 1.720 6612
-2.105 1.772 1.708 6789
-2.108 1.775 1.700 5926
-2.106 1.773 1.688 5203
-2.126 1.789 1.692 5207
-2.134 1.797 1.688 5603
-2.169 1.826 1.703 4402
-2.184 1.838 1.703 4599
-2.198 1.850 1.702 5418
-2.233 1.880 1.717 4442
-2.236 1.883 1.709 4175
-2.219 1.868 1.685 3803
-2.222 1.870 1.677 4527
-2.236 1.882 1.676 5108
-2.320 1.953 1.724 5623
-2.323 1.956 1.715 6132
-2.332 1.963 1.710 6152
-2.341 1.971 1.705 6755
-2.345 1.974 1.696 6138
-2.418 2.035 1.734 6025
-2.438 2.052 1.736 6473
-2.458 2.069 1.737 7602
-2.467 2.076 1.732 7610
-2.405 2.025 1.680 8163
-2.414 2.032 1.675 8615
-2.493 2.099 1.714 7600
-2.481 2.088 1.695 8786
-2.500 2.105 1.696 10443
-2.526 2.126 1.700 11452
-2.535 2.134 1.694 11516
-2.571 2.164 1.705 9875
-2.580 2.172 1.698 8514
-2.551 2.147 1.669 7598
-2.559 2.154 1.662 7709
-2.568 2.162 1.656 7834
-2.583 2.174 1.653 6508
-2.625 2.209 1.666 6095
-2.639 2.222 1.663 4660
-2.648 2.229 1.656 3726
-2.663 2.241 1.652 4833
-2.677 2.253 1.649 5708
-2.697 2.270 1.648 4195
-2.750 2.315 1.666 4420
-2.765 2.327 1.662 4870
-2.830 2.382 1.686 6506
-2.833 2.385 1.675 7263
-2.842 2.392 1.667 6317
-2.851 2.400 1.660 6775
-2.855 2.403 1.649 6923
-2.925 2.462 1.674 7411
-2.929 2.465 1.663 7305
-2.949 2.482 1.661 6209
-2.964 2.495 1.656 4757
-2.961 2.493 1.642 3236
-3.021 2.543 1.659 4545
-3.030 2.551 1.651 6122
-3.045 2.563 1.645 5731
-3.065 2.580 1.642 4606
-3.131 2.635 1.661 4962
-3.117 2.624 1.641 3938
-3.172 2.670 1.654 3381
-3.169 2.668 1.639 4794
-3.178 2.675 1.630 4030
-3.307 2.784 1.677 3592
-3.316 2.791 1.667 4711
-3.314 2.789 1.652 6232
-3.311 2.787 1.637 6516
-3.315 2.790 1.624 4571
-3.444 2.899 1.669 4943
-3.459 2.912 1.661 5681
-3.480 2.929 1.655 3892
-3.437 2.893 1.622 3522
-3.440 2.896 1.609 3310
-3.461 2.913 1.603 3028
-3.648 3.071 1.669 3173
-3.669 3.089 1.662 3890
-3.684 3.101 1.653 4131
-3.711 3.123 1.649 3004
-3.754 3.160 1.651 3420
-3.746 3.153 1.632 3147
-3.813 3.210 1.643 4017
-3.811 3.208 1.627 4017
-3.913 3.294 1.651 2774
-3.928 3.306 1.641 3247
-3.919 3.299 1.621 3223
-3.940 3.317 1.613 3141
-3.961 3.334 1.605 4238
-4.040 3.401 1.618 2489
-4.131 3.477 1.635 3459
-4.286 3.608 1.674 3406
-4.289 3.610 1.658 5345
-4.298 3.618 1.643 5155
-4.302 3.621 1.627 5792
-4.299 3.619 1.609 6081
-4.302 3.622 1.593 3636
-4.493 3.782 1.640 2647
-4.690 3.948 1.687 3452
-4.694 3.951 1.669 3123
-4.738 3.989 1.665 2605
-4.706 3.962 1.636 1863
-4.833 4.069 1.657 1819
-4.902 4.126 1.659 2825
-4.905 4.129 1.640 2636
-5.156 4.340 1.697 1820
-5.177 4.358 1.683 2440
-5.186 4.366 1.665 3283
-5.178 4.359 1.642 2205
-5.377 4.526 1.679 2045
-5.605 4.718 1.722 1697
-5.466 4.601 1.661 1656
-5.914 4.978 1.763 1561
-5.912 4.976 1.739 2292
-5.803 4.884 1.687 2489
-5.800 4.882 1.663 2917
-6.189 5.210 1.742 2944
-6.187 5.208 1.717 3633
-6.185 5.206 1.692 3364
-6.343 5.339 1.707 3737
-6.352 5.347 1.684 3701
-6.421 5.405 1.676 3285
-6.430 5.413 1.653 2988
-6.440 5.421 1.630 2856
-6.443 5.424 1.605 2718
-6.440 5.421 1.580 2183
-6.874 5.786 1.650 1656
-6.877 5.789 1.624 1352
-7.227 6.083 1.672 878
-7.230 6.086 1.645 619
-7.234 6.089 1.617 491
-7.237 6.092 1.590 304
-1.678 1.417 1.717 4176
-1.682 1.420 1.711 8352
-1.685 1.423 1.705 8352
-1.718 1.451 1.726 6886
-1.727 1.458 1.725 6334
-1.755 1.482 1.741 7745
-1.773 1.497 1.748 9848
-1.777 1.500 1.742 9848
-1.790 1.512 1.744 8303
-1.804 1.523 1.747 7304
-1.797 1.518 1.731 6389
-1.786 1.508 1.711 6218
-1.834 1.549 1.744 5603
-1.848 1.560 1.746 6507
-1.856 1.568 1.744 7245
-1.865 1.575 1.741 8224
-1.869 1.578 1.734 8227
-1.857 1.568 1.714 7656
-1.861 1.571 1.707 7392
-1.864 1.574 1.700 7136
-1.933 1.633 1.749 7346
-1.942 1.640 1.746 10621
-1.946 1.643 1.739 13958
-1.949 1.646 1.732 15806
-1.958 1.653 1.729 17816
-1.961 1.656 1.721 17259
-1.965 1.659 1.714 16703
-1.968 1.662 1.707 17925
-1.977 1.669 1.703 19258
-1.981 1.672 1.696 16546
-1.984 1.675 1.689 13834
-1.993 1.683 1.685 9587
-2.001 1.690 1.682 5536
-2.077 1.754 1.731 4736
-2.081 1.757 1.724 6099
-2.095 1.769 1.724 6117
-2.104 1.776 1.720 6775
-2.102 1.775 1.708 6848
-2.105 1.778 1.700 5924
-2.104 1.776 1.688 5176
-2.118 1.788 1.688 5041
-2.126 1.795 1.684 5331
-2.172 1.834 1.707 4552
-2.181 1.841 1.703 5171
-2.195 1.853 1.702 6118
-2.209 1.865 1.702 4772
-2.234 1.886 1.709 4406
-2.264 1.911 1.719 3974
-2.272 1.919 1.715 4402
-2.244 1.895 1.684 4546
-2.312 1.952 1.720 5055
-2.320 1.959 1.715 5958
-2.324 1.962 1.706 6352
-2.338 1.974 1.705 6785
-2.342 1.977 1.696 6174
-2.415 2.039 1.734 5980
-2.429 2.051 1.732 5958
-2.454 2.073 1.737 6365
-2.463 2.080 1.732 6218
-2.397 2.024 1.677 8142
-2.405 2.031 1.671 8708
-2.458 2.075 1.693 7282
-2.472 2.087 1.691 8898
-2.503 2.113 1.699 10993
-2.523 2.130 1.700 12650
-2.531 2.138 1.694 12408
-2.540 2.145 1.688 9670
-2.577 2.176 1.698 8045
-2.553 2.155 1.672 7770
-2.556 2.158 1.662 8752
-2.565 2.166 1.656 9083
-2.579 2.178 1.653 7602
-2.610 2.204 1.660 6118
-2.630 2.221 1.659 4334
-2.645 2.233 1.656 3610
-2.659 2.245 1.652 4777
-2.674 2.258 1.649 5817
-2.688 2.270 1.645 4252
-2.747 2.319 1.666 5336
-2.767 2.336 1.665 5665
-2.826 2.386 1.686 6366
-2.824 2.384 1.672 7040
-2.822 2.383 1.658 5829
-2.853 2.409 1.663 5848
-2.851 2.407 1.649 5844
-2.921 2.467 1.674 6751
-2.925 2.470 1.663 6923
-2.945 2.487 1.661 6158
-2.954 2.494 1.653 4755
-2.957 2.497 1.642 2986
-3.012 2.543 1.656 4006
-3.026 2.555 1.651 5880
-3.041 2.568 1.645 5588
-3.061 2.585 1.642 4754
-3.127 2.640 1.661 4785
-3.107 2.624 1.638 3994
-3.167 2.675 1.654 3348
-3.165 2.673 1.639 5052
-3.169 2.675 1.627 4270
-3.297 2.784 1.674 3582
-3.306 2.792 1.665 4492
-3.310 2.795 1.652 5882
-3.307 2.793 1.637 6207
-3.310 2.795 1.624 4553
-3.434 2.900 1.666 4525
-3.454 2.917 1.661 5458
-3.481 2.939 1.658 4257
-3.444 2.908 1.627 3582
-3.453 2.916 1.617 2794
-3.462 2.923 1.606 2944
-3.644 3.077 1.669 3173
-3.659 3.089 1.660 3515
-3.702 3.126 1.663 3802
-3.746 3.163 1.665 3121
-3.750 3.166 1.651 3545
-3.805 3.213 1.658 3500
-3.808 3.216 1.643 4494
-3.806 3.214 1.627 4038
-3.913 3.304 1.653 3118
-3.928 3.317 1.643 3634
-3.920 3.310 1.624 3365
-3.982 3.362 1.631 3879
-3.962 3.345 1.607 5086
-4.035 3.407 1.618 2870
-4.120 3.478 1.632 3703
-4.216 3.560 1.651 3303
-4.284 3.617 1.658 4739
-4.293 3.625 1.643 5323
-4.296 3.628 1.627 6014
-4.299 3.630 1.611 5647
-4.297 3.628 1.593 3181
-4.488 3.789 1.640 2104
-4.684 3.955 1.687 4045
-4.694 3.963 1.671 3816
-4.732 3.996 1.665 2972
-4.830 4.078 1.677 2069
-4.833 4.081 1.659 2334
-4.895 4.133 1.659 2758
-4.899 4.136 1.640 2411
-5.143 4.343 1.695 1960
-5.176 4.371 1.685 2432
-5.180 4.374 1.665 3154
-5.177 4.372 1.644 2086
-5.435 4.589 1.698 1849
-5.598 4.727 1.722 1813
-5.453 4.605 1.660 1793
-5.900 4.982 1.762 1495
-5.898 4.980 1.738 2041
-5.795 4.893 1.687 2161
-5.798 4.896 1.665 2556
-6.181 5.220 1.742 3324
-6.179 5.218 1.717 4052
-6.177 5.215 1.692 3719
-6.341 5.354 1.708 3944
-6.344 5.357 1.684 3908
-6.413 5.415 1.676 3850
-6.422 5.423 1.653 3258
-6.432 5.431 1.630 2800
-6.435 5.433 1.605 2502
-6.432 5.431 1.580 1998
-6.871 5.801 1.652 2175
-6.874 5.804 1.626 1766
-6.883 5.812 1.601 973
-7.221 6.097 1.645 669
-7.224 6.100 1.617 447
-1.675 1.421 1.717 4142
-1.678 1.424 1.711 8284
-1.682 1.427 1.705 8284
-1.715 1.455 1.726 6832
-1.723 1.462 1.725 6576
-1.751 1.486 1.741 7969
-1.750 1.485 1.730 10408
-1.753 1.488 1.723 10408
-1.787 1.516 1.744 8496
-1.795 1.523 1.742 7449
-1.794 1.522 1.731 6419
-1.782 1.512 1.711 6159
-1.831 1.553 1.744 5499
-1.844 1.565 1.746 6624
-1.853 1.572 1.744 7584
-1.861 1.579 1.741 8719
-1.860 1.578 1.730 8696
-1.853 1.572 1.714 7993
-1.857 1.575 1.707 7451
-1.860 1.578 1.700 7457
-1.930 1.637 1.749 7509
-1.933 1.640 1.742 10796
-1.942 1.647 1.739 14097
-1.945 1.650 1.732 16061
-1.954 1.658 1.729 18140
-1.958 1.661 1.721 17350
-1.961 1.664 1.714 16561
-1.965 1.667 1.707 17524
-1.973 1.674 1.703 18602
-1.977 1.677 1.696 16013
-1.980 1.680 1.689 13425
-1.989 1.687 1.685 9288
-1.997 1.695 1.682 5331
-2.073 1.759 1.731 4148
-2.077 1.762 1.724 5658
-2.091 1.774 1.724 5943
-2.100 1.781 1.720 6753
-2.103 1.784 1.712 6743
-2.101 1.783 1.700 5719
-2.094 1.777 1.684 4992
-2.187 1.855 1.743 4921
-2.196 1.863 1.739 5355
-2.173 1.844 1.711 4585
-2.176 1.846 1.703 5215
-2.196 1.863 1.706 6309
-2.220 1.884 1.713 4902
-2.234 1.896 1.713 4721
-2.259 1.917 1.719 4995
-2.268 1.924 1.715 5428
-2.271 1.927 1.706 4810
-2.280 1.935 1.701 4968
-2.294 1.947 1.700 5793
-2.314 1.963 1.702 6560
-2.328 1.975 1.701 6803
-2.337 1.983 1.696 6134
-2.410 2.045 1.734 5988
-2.419 2.052 1.729 6054
-2.363 2.005 1.680 5800
-2.372 2.013 1.675 6028
-2.392 2.029 1.677 7905
-2.401 2.037 1.671 8593
-2.453 2.081 1.693 6943
-2.467 2.093 1.691 8655
-2.498 2.119 1.699 11419
-2.518 2.136 1.700 13431
-2.526 2.143 1.694 12928
-2.535 2.151 1.688 9703
-2.566 2.177 1.695 7437
-2.548 2.161 1.672 7811
-2.557 2.169 1.666 9630
-2.560 2.172 1.656 10101
-2.569 2.179 1.650 8558
-2.600 2.206 1.656 5991
-2.625 2.227 1.659 4017
-2.645 2.244 1.659 3592
-2.659 2.256 1.656 4713
-2.668 2.264 1.649 5822
-2.677 2.271 1.642 4253
-2.747 2.331 1.669 6397
-2.762 2.343 1.665 6708
-2.793 2.369 1.670 6538
-2.802 2.377 1.663 7185
-2.805 2.380 1.652 5829
-2.853 2.420 1.666 4765
-2.901 2.461 1.679 4829
-2.910 2.469 1.671 5729
-2.919 2.477 1.663 6390
-2.934 2.489 1.658 6405
-2.948 2.501 1.653 4775
-2.957 2.509 1.644 2454
-3.022 2.564 1.665 3230
-3.026 2.567 1.654 5306
-3.035 2.575 1.645 5474
-3.049 2.587 1.639 4875
-3.154 2.676 1.678 4680
-3.101 2.631 1.638 3609
-3.156 2.677 1.651 3165
-3.159 2.680 1.639 5030
-3.162 2.683 1.627 4458
-3.268 2.772 1.664 3757
-3.300 2.799 1.665 3964
-3.297 2.797 1.649 4889
-3.301 2.800 1.637 5097
-3.298 2.798 1.622 4158
-3.427 2.908 1.666 4133
-3.448 2.925 1.661 5223
-3.480 2.952 1.660 4643
-3.443 2.921 1.630 3662
-3.612 3.065 1.689 3280
-3.461 2.936 1.608 2829
-3.637 3.085 1.669 3168
-3.640 3.088 1.655 3237
-3.724 3.159 1.675 4232
-3.739 3.172 1.665 3448
-3.742 3.175 1.651 3726
-3.792 3.217 1.656 3569
-3.801 3.225 1.643 4638
-3.798 3.222 1.627 3859
-3.906 3.314 1.653 3182
-3.926 3.331 1.645 3773
-3.912 3.319 1.624 3495
-3.974 3.371 1.631 4312
-3.948 3.349 1.605 5446
-4.027 3.416 1.618 3086
-4.117 3.493 1.635 3726
-4.208 3.570 1.651 4246
-4.281 3.632 1.660 4165
-4.279 3.630 1.641 4931
-4.288 3.638 1.627 5533
-4.291 3.640 1.611 4972
-4.417 3.747 1.637 2855
-4.654 3.948 1.699 2542
-4.675 3.966 1.687 4634
-4.678 3.969 1.669 4350
-4.723 4.007 1.665 2887
-4.820 4.089 1.677 2261
-4.823 4.092 1.659 2732
-4.880 4.140 1.657 2558
-4.895 4.153 1.642 2246
-5.122 4.345 1.692 1936
-5.166 4.383 1.685 2322
-5.170 4.386 1.665 2862
-5.332 4.524 1.692 2131
-5.589 4.742 1.745 1943
-5.592 4.745 1.724 1951
-5.437 4.612 1.658 1874
-5.446 4.620 1.639 1557
-5.887 4.994 1.738 1709
-5.896 5.002 1.717 2053
-5.787 4.910 1.665 2148
-6.163 5.229 1.740 3507
-6.161 5.227 1.715 4241
-6.164 5.230 1.692 3950
-6.328 5.369 1.708 4103
-6.331 5.372 1.684 4019
-6.400 5.430 1.676 3896
-6.404 5.433 1.651 3111
-6.348 5.385 1.613 2740
-6.416 5.443 1.604 2158
-6.860 5.820 1.679 2014
-6.863 5.823 1.653 2836
-6.866 5.825 1.627 2372
-6.876 5.833 1.602 1376
-7.207 6.114 1.645 731
-7.001 5.940 1.574 474
-7.010 5.948 1.549 262
-1.672 1.425 1.717 4040
-1.675 1.428 1.711 8081
-1.679 1.431 1.705 8081
-1.711 1.459 1.726 6779
-1.720 1.466 1.725 6682
-1.728 1.473 1.723 8116
-1.746 1.489 1.730 10646
-1.750 1.492 1.723 10646
-1.758 1.499 1.721 8572
-1.792 1.527 1.742 7272
-1.770 1.509 1.713 6277
-1.774 1.512 1.706 5903
-1.827 1.557 1.744 5263
-1.841 1.569 1.746 6568
-1.844 1.572 1.739 7742
-1.853 1.579 1.737 9016
-1.856 1.582 1.730 9002
-1.850 1.577 1.714 8139
-1.853 1.580 1.707 7362
-1.857 1.583 1.700 7596
-1.855 1.581 1.689 7850
-1.929 1.645 1.742 10782
-1.933 1.648 1.735 14089
-1.942 1.655 1.732 15987
-1.950 1.662 1.729 18049
-1.954 1.665 1.721 16947
-1.957 1.668 1.714 15845
-1.961 1.671 1.707 16611
-1.969 1.679 1.703 17507
-1.973 1.682 1.696 15137
-1.976 1.685 1.689 12766
-1.985 1.692 1.685 8862
-1.993 1.699 1.682 5137
-2.064 1.759 1.727 3872
-2.073 1.767 1.724 5150
-2.087 1.779 1.724 5631
-2.095 1.786 1.720 6561
-2.099 1.789 1.712 6494
-2.102 1.792 1.704 5408
-2.090 1.782 1.684 4721
-2.188 1.865 1.747 4973
-2.191 1.868 1.739 5397
-2.169 1.849 1.711 4479
-2.177 1.856 1.707 4906
-2.191 1.868 1.706 6123
-2.216 1.889 1.713 4905
-2.230 1.901 1.713 4874
-2.255 1.922 1.719 5845
-2.263 1.929 1.715 6314
-2.262 1.928 1.702 5473
-2.270 1.935 1.697 5433
-2.285 1.947 1.696 5886
-2.304 1.964 1.699 6719
-2.324 1.981 1.701 6717
-2.332 1.988 1.696 6009
-2.405 2.050 1.734 6099
-2.414 2.058 1.729 6493
-2.359 2.011 1.680 5964
-2.368 2.018 1.675 5927
-2.382 2.030 1.673 7611
-2.391 2.038 1.667 8400
-2.383 2.031 1.651 6676
-2.462 2.099 1.691 8127
-2.493 2.125 1.699 11671
-2.513 2.142 1.700 13803
-2.521 2.149 1.694 13083
-2.530 2.157 1.688 9467
-2.561 2.183 1.695 6593
-2.548 2.172 1.675 7375
-2.551 2.175 1.666 9752
-2.555 2.178 1.656 10370
-2.564 2.185 1.650 9001
-2.589 2.207 1.653 5663
-2.614 2.229 1.656 3731
-2.634 2.245 1.656 3575
-2.654 2.262 1.656 4578
-2.663 2.270 1.649 5763
-2.733 2.329 1.677 4286
-2.742 2.337 1.669 7194
-2.762 2.354 1.668 7496
-2.782 2.371 1.667 7190
-2.791 2.379 1.660 7838
-2.794 2.382 1.649 6448
-2.803 2.389 1.642 4155
-2.895 2.468 1.679 4333
-2.904 2.476 1.671 4755
-2.908 2.479 1.660 5713
-2.928 2.496 1.658 6649
-2.937 2.503 1.650 4724
-3.058 2.607 1.700 2035
-3.050 2.600 1.682 3478
-3.025 2.579 1.656 4901
-3.040 2.591 1.651 5173
-3.145 2.681 1.690 4858
-3.148 2.684 1.678 4778
-3.101 2.643 1.641 3076
-3.149 2.685 1.651 2971
-3.153 2.687 1.639 4694
-3.156 2.690 1.627 4335
-3.261 2.780 1.664 3854
-3.270 2.788 1.654 3312
-3.285 2.800 1.647 3800
-3.288 2.803 1.634 3928
-3.286 2.801 1.619 3503
-3.432 2.925 1.671 3826
-3.447 2.938 1.663 4994
-3.473 2.960 1.660 4972
-3.465 2.953 1.642 3941
-3.605 3.073 1.689 3657
-3.603 3.071 1.672 2807
-3.629 3.094 1.669 2844
-3.707 3.160 1.686 3440
-3.711 3.163 1.672 4718
-3.726 3.176 1.663 3730
-3.735 3.183 1.651 3833
-3.738 3.186 1.637 3389
-3.787 3.228 1.641 4508
-3.785 3.226 1.625 3569
-3.886 3.313 1.649 3056
-3.919 3.340 1.645 3654
-3.910 3.333 1.626 3462
-3.972 3.385 1.633 4321
-3.940 3.359 1.605 5208
-4.019 3.426 1.618 3127
-4.196 3.577 1.667 3979
-4.199 3.580 1.651 4859
-4.203 3.583 1.635 3871
-4.270 3.640 1.641 4671
-4.273 3.643 1.625 5018
-4.405 3.755 1.653 4456
-4.286 3.653 1.595 2628
-4.639 3.954 1.697 2914
-4.666 3.977 1.687 4877
-4.669 3.980 1.669 4634
-4.696 4.003 1.659 2693
-4.811 4.101 1.677 2404
-4.814 4.103 1.659 2906
-4.817 4.106 1.640 2627
-4.897 4.174 1.646 2198
-5.076 4.327 1.681 1933
-5.156 4.395 1.685 2238
-5.165 4.403 1.667 2592
-5.321 4.536 1.692 2114
-5.578 4.755 1.745 2046
-5.587 4.763 1.726 2059
-5.420 4.620 1.656 1941
-5.429 4.628 1.637 1600
-5.627 4.797 1.670 1700
-5.884 5.016 1.717 2083
-5.894 5.024 1.696 2290
-6.151 5.243 1.740 3469
-6.149 5.241 1.715 4148
-6.152 5.244 1.692 3929
-6.315 5.383 1.708 4051
-6.325 5.391 1.686 3925
-6.388 5.445 1.676 3617
-6.332 5.397 1.637 2785
-6.335 5.400 1.613 2977
-6.843 5.833 1.705 2144
-6.852 5.841 1.680 2604
-6.855 5.844 1.654 3423
-6.859 5.846 1.628 3007
-6.868 5.854 1.603 1914
-6.871 5.857 1.577 1019
-6.987 5.956 1.574 678
-6.883 5.867 1.526 408
-6.886 5.870 1.500 280
-1.670 1.426 1.717 3910
-1.674 1.429 1.711 7821
-1.677 1.432 1.705 7821
-1.715 1.464 1.731 6692
-1.718 1.468 1.725 6761
-1.727 1.475 1.723 8213
-1.745 1.490 1.730 10734
-1.749 1.493 1.723 10734
-1.752 1.496 1.717 8641
-1.790 1.529 1.742 6801
-1.764 1.506 1.708 6143
-1.768 1.509 1.702 5659
-1.826 1.559 1.744 5030
-1.834 1.566 1.742 6481
-1.843 1.574 1.739 7782
-1.851 1.581 1.737 9144
-1.850 1.580 1.725 9133
-1.848 1.578 1.714 8131
-1.852 1.581 1.707 7141
-1.850 1.580 1.696 7649
-1.854 1.583 1.689 8202
-1.928 1.646 1.742 10521
-1.931 1.649 1.735 13800
-1.940 1.657 1.732 15553
-1.949 1.664 1.729 17575
-1.952 1.667 1.721 16197
-1.951 1.666 1.710 14845
-1.959 1.673 1.707 15405
-1.968 1.680 1.703 16120
-1.971 1.683 1.696 14080
-1.975 1.686 1.689 12040
-1.983 1.694 1.685 8438
-1.992 1.701 1.682 5041
-2.062 1.761 1.727 3994
-2.071 1.769 1.724 4652
-2.085 1.781 1.724 5227
-2.094 1.788 1.720 6187
-2.097 1.791 1.712 6066
-2.101 1.794 1.704 5061
-2.183 1.864 1.755 4700
-2.181 1.862 1.743 5052
-2.184 1.865 1.735 5450
-2.172 1.855 1.715 4453
-2.176 1.858 1.707 4673
-2.190 1.870 1.706 5917
-2.214 1.891 1.713 4803
-2.244 1.916 1.724 5067
-2.253 1.924 1.719 6505
-2.262 1.931 1.715 7015
-2.265 1.934 1.706 5984
-2.269 1.937 1.697 5749
-2.283 1.949 1.696 5745
-2.302 1.966 1.699 6659
-2.322 1.983 1.701 6481
-2.336 1.995 1.700 5831
-2.404 2.053 1.734 6182
-2.412 2.060 1.729 6962
-2.427 2.072 1.727 6165
-2.366 2.020 1.675 5661
-2.374 2.028 1.669 7247
-2.389 2.040 1.667 8140
-2.381 2.034 1.651 6671
-2.460 2.101 1.691 7492
-2.491 2.127 1.699 11917
-2.511 2.144 1.700 13952
-2.520 2.152 1.694 13108
-2.523 2.155 1.684 9355
-2.565 2.190 1.698 5816
-2.546 2.174 1.675 6804
-2.550 2.177 1.666 9516
-2.553 2.180 1.656 10384
-2.562 2.188 1.650 9330
-2.582 2.205 1.650 5472
-2.618 2.236 1.659 3672
-2.621 2.238 1.650 3832
-2.652 2.265 1.656 4566
-2.661 2.272 1.649 5856
-2.664 2.275 1.639 4479
-2.745 2.344 1.672 7520
-2.759 2.357 1.668 8005
-2.779 2.374 1.667 7834
-2.783 2.376 1.657 8600
-2.792 2.384 1.649 7473
-2.795 2.387 1.639 4360
-2.893 2.471 1.679 4067
-2.891 2.469 1.665 4308
-2.900 2.476 1.657 5324
-2.926 2.498 1.658 6863
-2.935 2.506 1.650 4689
-3.039 2.595 1.691 2250
-3.048 2.603 1.682 3864
-3.046 2.601 1.668 4773
-3.038 2.594 1.651 4759
-3.137 2.679 1.687 5030
-3.140 2.682 1.675 4842
-3.098 2.646 1.641 3032
-3.220 2.750 1.687 2961
-3.150 2.690 1.639 4360
-3.154 2.693 1.627 4265
-3.253 2.778 1.661 3879
-3.268 2.791 1.654 3148
-3.277 2.798 1.644 3270
-3.382 2.889 1.679 3234
-3.375 2.882 1.661 2921
-3.372 2.880 1.645 3731
-3.450 2.946 1.666 4816
-3.470 2.963 1.660 5048
-3.462 2.956 1.642 4119
-3.603 3.076 1.689 3808
-3.600 3.074 1.672 2809
-3.604 3.077 1.659 2574
-3.704 3.163 1.686 3814
-3.702 3.161 1.670 4848
-3.711 3.169 1.658 3917
-3.726 3.182 1.649 3802
-3.741 3.195 1.639 3316
-3.785 3.232 1.641 4177
-3.782 3.230 1.625 3349
-3.855 3.292 1.637 3622
-3.916 3.344 1.645 3381
-3.907 3.337 1.626 3564
-3.974 3.394 1.635 4096
-3.931 3.357 1.603 4828
-4.010 3.424 1.616 2976
-4.193 3.581 1.667 4602
-4.190 3.578 1.648 5086
-4.200 3.586 1.635 3736
-4.244 3.624 1.633 4230
-4.264 3.642 1.623 4349
-4.401 3.759 1.653 4123
-4.492 3.836 1.667 2496
-4.641 3.963 1.699 3108
-4.662 3.981 1.687 5018
-4.660 3.979 1.667 4909
-4.651 3.972 1.646 2815
-4.801 4.100 1.675 2357
-4.816 4.113 1.661 2732
-4.814 4.111 1.640 2645
-4.899 4.184 1.648 2144
-5.072 4.332 1.681 1916
-5.158 4.405 1.687 2111
-5.308 4.533 1.711 2327
-5.311 4.536 1.690 2095
-5.574 4.760 1.745 2062
-5.583 4.768 1.726 2120
-5.410 4.620 1.655 2054
-5.419 4.628 1.636 1770
-5.617 4.797 1.668 1849
-5.880 5.021 1.717 2075
-5.889 5.029 1.696 2423
-6.146 5.249 1.740 3235
-6.144 5.247 1.715 3891
-6.148 5.250 1.692 3752
-6.311 5.389 1.708 3911
-6.320 5.397 1.686 3772
-6.365 5.435 1.672 3190
-6.327 5.403 1.637 2879
-6.330 5.406 1.613 3094
-6.843 5.844 1.707 2842
-6.847 5.847 1.680 3239
-6.850 5.850 1.654 3996
-6.859 5.858 1.629 3641
-6.863 5.861 1.603 2517
-6.866 5.863 1.577 1435
-6.982 5.962 1.574 874
-6.878 5.874 1.526 659
-6.881 5.876 1.500 457
-1.661 1.427 1.713 3660
-1.665 1.430 1.706 7320
-1.668 1.433 1.700 7320
-1.711 1.469 1.731 6498
-1.714 1.472 1.725 6727
-1.723 1.480 1.723 8138
-1.736 1.491 1.725 10547
-1.739 1.494 1.719 10547
-1.743 1.497 1.712 8553
-1.732 1.487 1.692 6585
-1.755 1.507 1.704 5992
-1.758 1.510 1.697 5407
-1.821 1.564 1.744 4779
-1.830 1.572 1.742 6358
-1.838 1.579 1.739 7725
-1.842 1.582 1.732 9146
-1.845 1.585 1.725 9125
-1.844 1.584 1.714 8008
-1.842 1.582 1.703 6873
-1.846 1.585 1.696 7718
-1.849 1.588 1.689 8563
-1.923 1.652 1.742 10080
-1.927 1.655 1.735 13294
-1.935 1.662 1.732 14892
-1.944 1.670 1.729 16872
-1.947 1.673 1.721 15235
-1.946 1.671 1.710 13640
-1.954 1.679 1.707 14058
-1.963 1.686 1.703 14666
-1.966 1.689 1.696 12949
-1.970 1.692 1.689 11232
-1.978 1.699 1.685 7930
-1.987 1.707 1.682 4831
-2.052 1.763 1.723 4154
-2.066 1.775 1.724 4173
-2.080 1.786 1.724 4779
-2.089 1.794 1.720 5722
-2.097 1.801 1.716 5638
-2.158 1.854 1.752 4969
-2.177 1.870 1.755 4841
-2.170 1.864 1.739 5181
-2.174 1.867 1.731 5627
-2.162 1.857 1.711 4454
-2.186 1.878 1.718 4162
-2.184 1.876 1.706 5310
-2.209 1.897 1.713 4412
-2.244 1.927 1.728 5035
-2.247 1.930 1.719 6657
-2.256 1.938 1.715 7203
-2.260 1.941 1.706 6106
-2.258 1.939 1.694 5838
-2.272 1.951 1.693 5561
-2.297 1.973 1.699 6499
-2.311 1.985 1.697 6272
-2.330 2.001 1.700 5555
-2.398 2.059 1.734 6325
-2.401 2.062 1.725 7469
-2.416 2.075 1.723 7117
-2.424 2.082 1.717 5680
-2.369 2.034 1.669 6624
-2.383 2.047 1.667 7639
-2.375 2.040 1.651 6447
-2.454 2.108 1.691 6660
-2.485 2.134 1.699 11903
-2.499 2.146 1.696 13766
-2.513 2.159 1.694 12836
-2.517 2.162 1.684 9156
-2.553 2.193 1.695 5072
-2.545 2.186 1.679 6196
-2.543 2.184 1.666 8838
-2.552 2.192 1.659 9945
-2.556 2.195 1.650 9143
-2.570 2.207 1.646 5062
-2.611 2.243 1.659 3678
-2.615 2.246 1.650 3956
-2.646 2.272 1.656 4455
-2.655 2.280 1.649 5978
-2.658 2.283 1.639 4792
-2.738 2.352 1.672 7460
-2.753 2.364 1.668 8253
-2.773 2.381 1.667 8293
-2.776 2.384 1.657 9215
-2.785 2.392 1.649 8345
-2.788 2.395 1.639 5139
-2.886 2.479 1.679 4063
-2.878 2.472 1.662 4645
-2.882 2.475 1.651 5434
-2.919 2.507 1.658 6833
-2.927 2.514 1.650 4450
-3.026 2.599 1.688 2730
-3.040 2.611 1.682 4185
-3.044 2.614 1.671 4796
-3.086 2.651 1.679 4605
-3.118 2.678 1.681 5298
-3.121 2.681 1.669 4966
-3.102 2.664 1.646 2849
-3.213 2.759 1.687 3716
-3.143 2.699 1.639 3805
-3.146 2.702 1.627 4101
-3.245 2.787 1.661 3827
-3.260 2.800 1.654 3113
-3.269 2.808 1.644 3575
-3.261 2.801 1.626 3284
-3.366 2.891 1.661 2983
-3.426 2.943 1.674 3697
-3.441 2.956 1.666 4776
-3.473 2.983 1.665 5017
-3.454 2.966 1.642 3941
-3.588 3.082 1.686 3865
-3.586 3.080 1.670 2831
-3.681 3.161 1.695 3003
-3.695 3.174 1.686 4031
-3.687 3.167 1.667 4816
-3.691 3.170 1.653 4137
-3.717 3.192 1.649 3658
-3.738 3.210 1.642 3163
-3.775 3.243 1.641 3557
-3.790 3.255 1.631 3308
-3.839 3.298 1.635 4095
-3.837 3.296 1.618 3649
-3.898 3.348 1.626 3618
-3.907 3.356 1.613 3903
-3.916 3.363 1.600 4535
-4.000 3.436 1.616 2616
-4.177 3.587 1.664 4571
-4.180 3.590 1.648 4742
-4.265 3.663 1.662 3494
-4.227 3.631 1.631 4060
-4.248 3.649 1.621 3684
-4.391 3.771 1.653 3706
-4.272 3.669 1.595 2463
-4.630 3.977 1.699 3140
-4.645 3.990 1.685 4825
-4.643 3.987 1.665 4903
-4.634 3.980 1.644 3147
-4.784 4.108 1.673 2220
-4.804 4.126 1.661 2293
-4.802 4.124 1.640 2477
-4.893 4.202 1.649 1980
-4.890 4.200 1.629 1905
-5.145 4.419 1.687 2089
-5.295 4.548 1.711 2165
-5.299 4.551 1.690 1895
-5.560 4.775 1.745 2017
-5.569 4.783 1.726 2101
-5.403 4.640 1.656 2016
-5.406 4.643 1.636 1811
-5.597 4.808 1.667 1899
-5.877 5.048 1.720 2116
-5.875 5.046 1.696 2435
-6.132 5.266 1.740 2838
-6.129 5.264 1.715 3438
-6.133 5.267 1.692 3380
-6.289 5.402 1.707 3643
-6.305 5.415 1.686 3361
-6.338 5.443 1.669 3047
-6.317 5.426 1.639 2893
-6.829 5.865 1.734 3065
-6.833 5.868 1.708 3578
-6.836 5.871 1.682 3969
-6.839 5.874 1.656 4567
-6.843 5.877 1.629 4163
-6.846 5.880 1.603 3018
-6.849 5.883 1.577 1817
-6.965 5.982 1.574 1100
-6.861 5.893 1.526 953
-6.864 5.896 1.500 705
-6.862 5.893 1.472 345
-1.660 1.429 1.713 3336
-1.663 1.432 1.706 6672
-1.667 1.435 1.700 6672
-1.714 1.475 1.736 6275
-1.713 1.474 1.725 6669
-1.726 1.486 1.727 8132
-1.734 1.493 1.725 10348
-1.738 1.496 1.719 10348
-1.741 1.499 1.712 8419
-1.745 1.502 1.706 6490
-1.753 1.509 1.704 5780
-1.757 1.512 1.697 5090
-1.820 1.566 1.744 4546
-1.828 1.574 1.742 6206
-1.832 1.577 1.735 7603
-1.840 1.584 1.732 9050
-1.839 1.583 1.721 9025
-1.842 1.586 1.714 7804
-1.841 1.584 1.703 6593
-1.844 1.587 1.696 7655
-1.847 1.590 1.689 8717
-1.921 1.654 1.742 9493
-1.925 1.657 1.735 12587
-1.934 1.664 1.732 14047
-1.942 1.672 1.729 16012
-1.946 1.675 1.721 14122
-1.949 1.678 1.714 12233
-1.953 1.681 1.707 12432
-1.961 1.688 1.703 12775
-1.965 1.691 1.696 11444
-1.968 1.694 1.689 10113
-1.977 1.701 1.685 7189
-2.037 1.753 1.723 5109
-2.040 1.756 1.715 4382
-2.064 1.777 1.724 3759
-2.078 1.789 1.724 4302
-2.092 1.801 1.724 5218
-2.147 1.848 1.756 5368
-2.151 1.851 1.748 5041
-2.175 1.872 1.755 4843
-2.158 1.857 1.731 5338
-2.161 1.860 1.723 5962
-2.160 1.859 1.711 4600
-2.189 1.885 1.722 3708
-2.188 1.883 1.710 4591
-2.244 1.931 1.740 4168
-2.242 1.930 1.728 4834
-2.245 1.933 1.719 6490
-2.254 1.940 1.715 7178
-2.258 1.943 1.706 6174
-2.256 1.942 1.694 5990
-2.265 1.949 1.689 5482
-2.295 1.975 1.699 6393
-2.309 1.987 1.697 6138
-2.381 2.050 1.736 5488
-2.390 2.057 1.730 6637
-2.399 2.065 1.725 7987
-2.413 2.077 1.723 8091
-2.422 2.085 1.717 6760
-2.393 2.060 1.687 6246
-2.381 2.049 1.667 6936
-2.373 2.043 1.651 6005
-2.458 2.115 1.695 5798
-2.483 2.137 1.699 11713
-2.497 2.149 1.696 13443
-2.506 2.157 1.690 12310
-2.514 2.164 1.684 8970
-2.545 2.191 1.692 4459
-2.543 2.189 1.679 5444
-2.541 2.187 1.666 7715
-2.550 2.195 1.659 9119
-2.559 2.202 1.653 8664
-2.567 2.210 1.646 4633
-2.615 2.251 1.663 3663
-2.607 2.244 1.646 3941
-2.649 2.280 1.659 4320
-2.652 2.283 1.649 6138
-2.655 2.286 1.639 5283
-2.741 2.360 1.676 7147
-2.750 2.367 1.668 8549
-2.770 2.384 1.667 8911
-2.774 2.387 1.657 10008
-2.782 2.395 1.649 9270
-2.791 2.403 1.642 6093
-2.883 2.482 1.679 4212
-2.870 2.471 1.659 5554
-2.873 2.473 1.648 5983
-2.921 2.515 1.661 6733
-2.919 2.513 1.647 4223
-3.006 2.588 1.679 3130
-3.032 2.610 1.679 4310
-3.069 2.642 1.685 4878
-3.084 2.654 1.679 5081
-3.104 2.672 1.676 5806
-3.113 2.679 1.667 5370
-3.206 2.760 1.699 3799
-3.210 2.763 1.687 4361
-3.207 2.761 1.672 3399
-3.137 2.701 1.625 4095
-3.231 2.781 1.656 3888
-3.251 2.799 1.651 3331
-3.266 2.811 1.644 4268
-3.269 2.814 1.632 3932
-3.363 2.895 1.661 2920
-3.423 2.947 1.674 3884
-3.438 2.959 1.666 4957
-3.458 2.977 1.660 4942
-3.479 2.994 1.655 3781
-3.579 3.081 1.684 3801
-3.571 3.074 1.665 2889
-3.683 3.170 1.698 3316
-3.692 3.178 1.686 4126
-3.684 3.171 1.667 4784
-3.687 3.174 1.653 4365
-3.714 3.197 1.649 3462
-3.734 3.214 1.642 2975
-3.778 3.252 1.643 2951
-3.787 3.259 1.631 3333
-3.836 3.302 1.635 4392
-3.833 3.300 1.618 3795
-3.894 3.352 1.626 3378
-3.903 3.360 1.613 3898
-3.907 3.363 1.598 4236
-3.916 3.370 1.585 2476
-4.173 3.592 1.664 4193
-4.171 3.590 1.646 4080
-4.272 3.677 1.666 3777
-4.224 3.635 1.631 3745
-4.262 3.668 1.627 3327
-4.282 3.686 1.617 3747
-4.297 3.699 1.605 2686
-4.620 3.977 1.697 3143
-4.641 3.995 1.685 4378
-4.633 3.988 1.663 4746
-4.613 3.970 1.638 3670
-4.756 4.094 1.666 2425
-4.876 4.197 1.685 2438
-4.792 4.124 1.639 2195
-4.888 4.208 1.649 1805
-4.886 4.206 1.629 1869
-5.141 4.425 1.687 2234
-5.150 4.433 1.669 2169
-5.288 4.552 1.689 1571
-5.555 4.781 1.745 1964
-5.564 4.790 1.726 2108
-5.392 4.641 1.655 2007
-5.401 4.649 1.636 1846
-5.580 4.803 1.663 1921
-5.878 5.059 1.722 2172
-5.869 5.052 1.696 2311
-6.126 5.273 1.740 2324
-6.123 5.271 1.715 2892
-6.127 5.274 1.692 2912
-6.284 5.409 1.707 3294
-6.299 5.422 1.686 2972
-6.326 5.445 1.667 2970
-6.819 5.870 1.760 3060
-6.823 5.873 1.734 3652
-6.826 5.876 1.708 4179
-6.830 5.879 1.682 4529
-6.833 5.882 1.656 4993
-6.836 5.885 1.629 4607
-6.840 5.887 1.603 3493
-6.849 5.895 1.578 2026
-6.959 5.990 1.574 1220
-6.855 5.901 1.526 998
-6.858 5.903 1.500 755
-6.861 5.906 1.473 405
-1.651 1.429 1.708 3012
-1.654 1.432 1.702 6025
-1.658 1.435 1.696 6025
-1.710 1.480 1.736 6079
-1.713 1.483 1.729 6544
-1.722 1.491 1.727 8149
-1.730 1.498 1.725 10151
-1.733 1.501 1.719 10151
-1.737 1.504 1.712 8284
-1.736 1.503 1.701 6427
-1.744 1.510 1.699 5574
-1.747 1.513 1.693 4731
-1.815 1.571 1.744 4342
-1.823 1.579 1.742 6016
-1.827 1.582 1.735 7401
-1.830 1.585 1.728 8785
-1.834 1.588 1.721 8767
-1.832 1.587 1.710 7473
-1.836 1.590 1.703 6162
-1.839 1.593 1.696 7384
-1.843 1.596 1.689 8607
-1.917 1.660 1.742 8939
-1.920 1.663 1.735 11894
-1.929 1.670 1.732 13107
-1.937 1.677 1.729 14917
-1.941 1.680 1.721 12830
-1.949 1.688 1.718 10748
-1.953 1.691 1.711 11088
-1.956 1.694 1.703 11427
-1.960 1.697 1.696 10350
-1.963 1.700 1.689 9273
-1.972 1.707 1.685 6654
-2.037 1.763 1.727 5412
-2.035 1.762 1.715 4372
-2.059 1.783 1.724 3261
-2.073 1.795 1.724 3765
-2.087 1.807 1.724 4692
-2.142 1.855 1.756 5424
-2.145 1.858 1.748 5100
-2.149 1.861 1.740 4776
-2.147 1.859 1.727 5603
-2.151 1.862 1.719 6515
-2.154 1.865 1.711 5173
-2.158 1.868 1.703 3627
-2.187 1.894 1.714 4167
-2.238 1.938 1.740 4000
-2.242 1.941 1.732 4660
-2.245 1.944 1.723 6292
-2.249 1.947 1.715 7055
-2.252 1.950 1.706 6186
-2.245 1.944 1.690 6025
-2.254 1.951 1.685 5389
-2.294 1.986 1.702 6265
-2.298 1.989 1.694 6056
-2.375 2.057 1.736 5611
-2.384 2.064 1.730 6931
-2.393 2.072 1.725 8289
-2.407 2.084 1.723 8728
-2.411 2.087 1.714 7539
-2.398 2.076 1.694 6032
-2.375 2.056 1.667 6197
-2.373 2.054 1.655 5463
-2.462 2.132 1.701 5287
-2.476 2.144 1.699 11514
-2.491 2.156 1.696 13029
-2.499 2.164 1.690 11878
-2.503 2.167 1.681 9041
-2.512 2.175 1.675 5232
-2.531 2.192 1.675 5054
-2.535 2.195 1.666 6397
-2.543 2.202 1.659 8004
-2.552 2.210 1.653 7967
-2.610 2.260 1.676 5336
-2.608 2.258 1.663 3633
-2.600 2.252 1.646 3711
-2.642 2.288 1.659 4237
-2.645 2.290 1.649 6428
-2.649 2.293 1.639 5956
-2.740 2.372 1.679 6848
-2.749 2.380 1.671 8596
-2.758 2.388 1.664 9299
-2.767 2.395 1.657 10491
-2.775 2.403 1.649 9883
-2.784 2.411 1.642 6923
-2.876 2.490 1.679 4699
-2.863 2.479 1.659 6799
-2.866 2.482 1.648 6690
-2.914 2.523 1.661 6775
-2.912 2.521 1.647 4301
-2.993 2.592 1.676 3578
-3.024 2.619 1.679 4499
-3.067 2.655 1.688 5089
-3.081 2.668 1.682 5520
-3.090 2.676 1.673 6413
-3.099 2.684 1.664 5689
-3.204 2.774 1.702 4531
-3.201 2.772 1.687 4775
-3.194 2.765 1.669 3635
-3.129 2.710 1.625 4276
-3.223 2.790 1.656 4124
-3.243 2.808 1.651 3694
-3.258 2.821 1.644 4902
-3.267 2.828 1.634 4648
-3.360 2.910 1.663 2758
-3.415 2.957 1.674 4017
-3.429 2.969 1.666 5115
-3.444 2.982 1.658 4804
-3.430 2.970 1.637 3559
-3.564 3.086 1.681 3862
-3.551 3.074 1.660 3209
-3.674 3.181 1.698 3266
-3.677 3.184 1.684 3943
-3.675 3.182 1.667 4550
-3.678 3.185 1.653 4216
-3.699 3.202 1.646 3176
-3.765 3.260 1.658 3015
-3.768 3.263 1.643 2587
-3.777 3.270 1.631 3308
-3.826 3.313 1.635 4558
-3.824 3.311 1.618 3761
-3.890 3.368 1.628 3231
-3.888 3.366 1.611 3782
-3.897 3.374 1.598 3927
-3.906 3.382 1.585 2461
-4.157 3.599 1.662 3604
-4.270 3.697 1.686 3574
-4.279 3.705 1.672 4311
-4.265 3.693 1.650 3394
-4.274 3.701 1.635 3688
-4.295 3.719 1.625 4876
-4.292 3.716 1.607 3619
-4.608 3.990 1.697 2949
-4.629 4.008 1.685 3785
-4.621 4.001 1.663 4617
-4.601 3.984 1.638 3999
-4.744 4.107 1.666 2828
-4.869 4.216 1.687 2984
-4.768 4.128 1.635 2200
-4.771 4.131 1.617 1972
-4.879 4.225 1.631 1670
-5.128 4.440 1.687 2287
-5.137 4.448 1.669 2164
-5.537 4.795 1.767 1374
-5.541 4.798 1.745 1783
-5.550 4.806 1.726 2009
-5.378 4.657 1.655 1883
-5.387 4.665 1.636 1791
-5.566 4.820 1.663 1950
-5.869 5.081 1.723 2201
-5.860 5.074 1.698 2136
-6.110 5.291 1.740 1768
-6.108 5.289 1.715 2318
-6.112 5.292 1.692 2362
-6.268 5.427 1.707 2910
-6.442 5.578 1.725 2608
-6.798 5.886 1.786 2920
-6.802 5.890 1.760 3261
-6.806 5.893 1.734 3913
-6.809 5.896 1.708 4473
-6.813 5.899 1.682 4847
-6.816 5.902 1.656 5127
-6.819 5.904 1.629 4645
-6.822 5.907 1.603 3684
-6.826 5.910 1.577 2261
-6.941 6.010 1.574 1289
-6.838 5.921 1.526 1154
-6.841 5.923 1.500 860
-6.838 5.921 1.472 441
-6.953 6.021 1.467 251
-1.437 1.244 0.370 267
-1.438 1.245 0.364 251
-1.701 1.479 1.760 2784
-1.704 1.482 1.753 5568
-1.708 1.485 1.747 5568
-1.706 1.484 1.736 5902
-1.710 1.487 1.729 6373
-1.718 1.495 1.727 8069
-1.722 1.498 1.721 9918
-1.725 1.501 1.714 9918
-1.729 1.504 1.708 8237
-1.727 1.502 1.697 6645
-1.736 1.510 1.695 5398
-1.744 1.517 1.693 4274
-1.811 1.576 1.744 4127
-1.820 1.583 1.742 5733
-1.823 1.586 1.735 7086
-1.827 1.589 1.728 8440
-1.825 1.588 1.717 8413
-1.829 1.591 1.710 7083
-1.832 1.594 1.703 5727
-1.836 1.597 1.696 7056
-1.839 1.600 1.689 8386
-1.913 1.664 1.742 8314
-1.916 1.667 1.735 11120
-1.925 1.674 1.732 12158
-1.933 1.682 1.729 13862
-1.937 1.685 1.721 11656
-1.946 1.692 1.718 9604
-1.949 1.695 1.711 9825
-1.952 1.698 1.703 10045
-1.956 1.701 1.696 9160
-1.959 1.704 1.689 8276
-1.968 1.712 1.685 5969
-2.033 1.768 1.727 5617
-2.026 1.762 1.711 4274
-2.096 1.823 1.756 3298
-2.100 1.826 1.748 3503
-2.129 1.852 1.760 4643
-2.133 1.855 1.752 5513
-2.136 1.858 1.744 5124
-2.145 1.866 1.740 4786
-2.143 1.864 1.727 5858
-2.141 1.863 1.715 7037
-2.145 1.866 1.707 5853
-2.154 1.873 1.703 3938
-2.188 1.903 1.718 4238
-2.234 1.943 1.740 3846
-2.237 1.946 1.732 4582
-2.241 1.949 1.723 6134
-2.244 1.952 1.715 6937
-2.248 1.955 1.706 6188
-2.240 1.949 1.690 6090
-2.244 1.952 1.682 5412
-2.290 1.991 1.702 6161
-2.293 1.994 1.694 6009
-2.371 2.062 1.736 5857
-2.374 2.065 1.727 7228
-2.388 2.077 1.725 8455
-2.403 2.090 1.723 9172
-2.406 2.093 1.714 8190
-2.404 2.091 1.701 6580
-2.375 2.066 1.671 5473
-2.368 2.060 1.655 4944
-2.463 2.142 1.705 5218
-2.471 2.150 1.699 10959
-2.486 2.162 1.696 12363
-2.494 2.170 1.690 11290
-2.498 2.173 1.681 9340
-2.501 2.176 1.671 6701
-2.515 2.188 1.669 5012
-2.530 2.200 1.666 4999
-2.538 2.208 1.659 6711
-2.591 2.253 1.679 8316
-2.605 2.266 1.676 6360
-2.619 2.278 1.672 3792
-2.601 2.262 1.650 3297
-2.637 2.294 1.659 4322
-2.640 2.296 1.649 6950
-2.644 2.299 1.639 6742
-2.735 2.379 1.679 6320
-2.743 2.386 1.671 8441
-2.752 2.394 1.664 9394
-2.761 2.402 1.657 10543
-2.770 2.409 1.649 10017
-2.779 2.417 1.642 7292
-2.865 2.492 1.676 5296
-2.857 2.485 1.659 7890
-2.861 2.488 1.648 7238
-2.914 2.534 1.664 6459
-2.906 2.528 1.647 4155
-2.987 2.598 1.676 3588
-2.991 2.601 1.665 4617
-3.061 2.662 1.688 5041
-3.075 2.675 1.682 5544
-3.084 2.683 1.673 6795
-3.088 2.686 1.661 5961
-3.197 2.781 1.702 4900
-3.195 2.779 1.687 4839
-3.182 2.767 1.666 3744
-3.118 2.712 1.622 4580
-3.239 2.817 1.666 4445
-3.237 2.815 1.651 4113
-3.251 2.828 1.644 5386
-3.260 2.836 1.634 5016
-3.365 2.927 1.669 2921
-3.402 2.959 1.671 4044
-3.423 2.977 1.666 5173
-3.437 2.990 1.658 4606
-3.407 2.963 1.630 3584
-3.552 3.089 1.679 3932
-3.544 3.082 1.660 3473
-3.519 3.061 1.634 3117
-3.670 3.192 1.684 3538
-3.668 3.190 1.667 4193
-3.671 3.193 1.653 3978
-3.691 3.211 1.646 3054
-3.757 3.268 1.658 3216
-3.869 3.366 1.687 2546
-3.770 3.279 1.631 3244
-3.819 3.322 1.635 4565
-3.816 3.319 1.618 3549
-3.883 3.377 1.628 2819
-3.880 3.375 1.611 3305
-3.889 3.383 1.598 3408
-3.904 3.396 1.588 2455
-4.149 3.608 1.662 3058
-4.261 3.707 1.686 4058
-4.271 3.714 1.672 5029
-4.262 3.707 1.652 4162
-4.271 3.715 1.637 4751
-4.280 3.723 1.623 5882
-4.284 3.726 1.607 4241
-4.599 4.000 1.697 2605
-4.614 4.013 1.683 3115
-4.606 4.006 1.662 4190
-4.592 3.994 1.638 4126
-4.735 4.118 1.666 3247
-4.860 4.227 1.687 3400
-4.753 4.134 1.633 2380
-4.756 4.137 1.615 2136
-5.114 4.448 1.706 1525
-5.118 4.451 1.687 2287
-5.127 4.459 1.669 2078
-5.357 4.660 1.716 1715
-5.361 4.663 1.696 1713
-5.539 4.818 1.726 1895
-5.654 4.918 1.736 1778
-5.377 4.677 1.636 1678
-5.883 5.117 1.754 2105
-5.869 5.105 1.726 2170
-5.849 5.087 1.698 1935
-6.321 5.498 1.799 1279
-6.096 5.302 1.715 1768
-6.252 5.438 1.731 1890
-6.256 5.441 1.707 2394
-6.429 5.592 1.725 2604
-6.785 5.902 1.786 2768
-6.789 5.905 1.760 3195
-6.792 5.908 1.734 3915
-6.796 5.911 1.708 4490
-6.799 5.914 1.682 5019
-6.803 5.917 1.656 5208
-6.806 5.920 1.629 4550
-6.809 5.923 1.603 3585
-6.818 5.930 1.578 2182
-6.928 6.026 1.574 1302
-6.824 5.936 1.526 1196
-6.828 5.939 1.500 916
-6.830 5.941 1.473 453
-6.940 6.036 1.467 258
-1.428 1.242 0.374 250
-1.434 1.248 0.370 277
-1.435 1.248 0.364 259
-1.698 1.482 1.760 2731
-1.701 1.486 1.753 5463
-1.705 1.489 1.747 5463
-1.708 1.492 1.740 5839
-1.707 1.491 1.729 6222
-1.715 1.498 1.727 7949
-1.719 1.501 1.721 9684
-1.722 1.504 1.714 9684
-1.721 1.503 1.703 8210
-1.724 1.506 1.697 6862
-1.728 1.509 1.690 5359
-1.736 1.516 1.688 4032
-1.808 1.579 1.744 3884
-1.817 1.586 1.742 5413
-1.815 1.585 1.730 6747
-1.819 1.588 1.724 8102
-1.822 1.591 1.717 8077
-1.821 1.590 1.705 6687
-1.829 1.597 1.703 5310
-1.833 1.600 1.696 6638
-1.836 1.603 1.689 7965
-1.910 1.667 1.742 7593
-1.908 1.666 1.731 10251
-1.922 1.678 1.732 11034
-1.930 1.685 1.729 12541
-1.934 1.688 1.721 10290
-1.947 1.700 1.722 8438
-1.951 1.703 1.715 8741
-1.954 1.706 1.708 9043
-1.958 1.709 1.700 8317
-1.961 1.712 1.693 7592
-1.965 1.715 1.685 5503
-2.034 1.776 1.731 5628
-2.022 1.766 1.711 4149
-2.093 1.827 1.756 3478
-2.101 1.835 1.752 3573
-2.125 1.856 1.760 4766
-2.129 1.859 1.752 5499
-2.133 1.862 1.744 5115
-2.141 1.870 1.740 4736
-2.140 1.868 1.727 6105
-2.138 1.867 1.715 7584
-2.141 1.870 1.707 6687
-2.150 1.877 1.703 4517
-2.185 1.908 1.718 4821
-2.193 1.915 1.713 4079
-2.233 1.950 1.732 4369
-2.237 1.953 1.723 5780
-2.240 1.956 1.715 6641
-2.239 1.955 1.702 6094
-2.231 1.948 1.686 6053
-2.235 1.951 1.678 5347
-2.312 2.019 1.721 6107
-2.289 1.999 1.694 5799
-2.367 2.067 1.736 6249
-2.370 2.070 1.727 7568
-2.384 2.082 1.725 8431
-2.398 2.094 1.723 9309
-2.402 2.097 1.714 8573
-2.400 2.096 1.701 6990
-2.371 2.071 1.671 4865
-2.369 2.069 1.658 4561
-2.464 2.151 1.708 5354
-2.473 2.159 1.702 10110
-2.482 2.167 1.696 11483
-2.490 2.174 1.690 10755
-2.494 2.177 1.681 9796
-2.497 2.180 1.671 8305
-2.495 2.179 1.659 5771
-2.520 2.200 1.662 3914
-2.572 2.246 1.682 6191
-2.586 2.258 1.679 9517
-2.595 2.266 1.673 7531
-2.615 2.283 1.672 4364
-2.624 2.291 1.666 3233
-2.627 2.294 1.656 4588
-2.636 2.301 1.649 7483
-2.645 2.309 1.642 7587
-2.735 2.389 1.682 5816
-2.739 2.391 1.671 8080
-2.742 2.394 1.661 9237
-2.757 2.407 1.657 10193
-2.765 2.415 1.649 9672
-2.780 2.427 1.645 7405
-2.860 2.497 1.676 5927
-2.853 2.491 1.659 8698
-2.856 2.494 1.648 7549
-2.909 2.540 1.664 6001
-2.901 2.533 1.647 3967
-2.977 2.599 1.673 3238
-2.980 2.602 1.662 4265
-3.056 2.668 1.688 4827
-3.070 2.681 1.682 5399
-3.079 2.689 1.673 6862
-3.077 2.687 1.658 5964
-3.192 2.787 1.702 4830
-3.190 2.785 1.687 4524
-3.165 2.764 1.661 3703
-3.107 2.713 1.619 4894
-3.234 2.823 1.666 5042
-3.231 2.822 1.651 4593
-3.246 2.834 1.644 5628
-3.255 2.842 1.634 4942
-3.365 2.938 1.671 3243
-3.397 2.966 1.671 4221
-3.417 2.984 1.666 5272
-3.426 2.991 1.655 4511
-3.401 2.970 1.630 3659
-3.540 3.091 1.676 4040
-3.532 3.084 1.658 3750
-3.524 3.077 1.639 3260
-3.664 3.199 1.684 3040
-3.661 3.197 1.667 3801
-3.665 3.200 1.653 3499
-3.685 3.218 1.646 2928
-3.723 3.250 1.646 3200
-3.863 3.373 1.687 2698
-3.843 3.356 1.663 3191
-3.807 3.324 1.633 4417
-3.804 3.322 1.616 3108
-3.888 3.395 1.632 2110
-3.868 3.377 1.609 2490
-4.118 3.595 1.687 2883
-4.133 3.608 1.676 2551
-4.142 3.616 1.662 2560
-4.254 3.715 1.686 4532
-4.263 3.723 1.672 5476
-4.255 3.716 1.652 4695
-4.259 3.718 1.635 5426
-4.273 3.731 1.623 6544
-4.271 3.729 1.605 4784
-4.274 3.732 1.588 2449
-4.549 3.972 1.664 2548
-4.593 4.010 1.660 3805
-4.584 4.003 1.638 4074
-4.727 4.127 1.666 3538
-4.857 4.241 1.689 3663
-4.733 4.133 1.629 2471
-4.748 4.146 1.615 2115
-5.100 4.453 1.704 1390
-5.103 4.456 1.685 2084
-4.903 4.281 1.604 1886
-5.349 4.670 1.716 2108
-5.352 4.673 1.696 2102
-5.635 4.920 1.756 1788
-5.644 4.929 1.736 1858
-5.531 4.830 1.681 1804
-5.873 5.128 1.754 2271
-5.900 5.152 1.738 2223
-5.845 5.104 1.699 1716
-6.311 5.510 1.799 1477
-5.700 4.977 1.615 1370
-6.248 5.455 1.732 1467
-6.245 5.453 1.707 1823
-6.419 5.604 1.725 2384
-6.774 5.915 1.786 2345
-6.777 5.918 1.760 2859
-6.781 5.921 1.734 3603
-6.784 5.924 1.708 4105
-6.788 5.927 1.682 4792
-6.791 5.930 1.656 5068
-6.800 5.938 1.631 4359
-6.798 5.936 1.603 3463
-6.801 5.938 1.577 2038
-6.922 6.044 1.575 1180
-6.813 5.949 1.526 900
-6.822 5.957 1.501 665
-6.931 6.052 1.495 445
-6.928 6.049 1.467 280
-1.432 1.250 0.370 262
-1.695 1.486 1.760 2751
-1.698 1.489 1.753 5502
-1.702 1.492 1.747 5502
-1.705 1.495 1.740 5883
-1.709 1.498 1.734 6264
-1.712 1.501 1.727 7887
-1.711 1.500 1.716 9548
-1.714 1.503 1.710 9548
-1.718 1.506 1.703 8299
-1.716 1.505 1.692 7111
-1.725 1.512 1.690 5376
-1.738 1.524 1.693 3914
-1.805 1.583 1.744 3795
-1.814 1.590 1.742 5297
-1.812 1.589 1.730 6614
-1.816 1.592 1.724 7931
-1.814 1.591 1.712 7924
-1.818 1.594 1.705 6473
-1.826 1.601 1.703 5047
-1.829 1.604 1.696 6205
-1.838 1.611 1.693 7389
-1.906 1.671 1.742 6875
-1.905 1.670 1.731 9464
-1.913 1.678 1.728 10007
-1.927 1.689 1.729 11157
-1.935 1.697 1.726 8997
-1.944 1.704 1.722 7391
-1.947 1.707 1.715 7909
-1.951 1.710 1.708 8426
-1.954 1.713 1.700 7809
-1.958 1.716 1.693 7191
-2.022 1.773 1.735 5316
-2.031 1.781 1.731 5288
-2.019 1.770 1.711 3737
-2.089 1.832 1.756 3652
-2.103 1.844 1.756 3720
-2.122 1.860 1.760 4872
-2.125 1.863 1.752 5404
-2.129 1.866 1.744 5018
-2.132 1.870 1.736 4632
-2.136 1.873 1.727 6246
-2.134 1.871 1.715 8006
-2.137 1.874 1.707 7473
-2.151 1.886 1.707 5301
-2.181 1.912 1.718 5792
-2.189 1.920 1.713 4624
-2.229 1.955 1.732 4093
-2.233 1.958 1.723 5246
-2.236 1.961 1.715 6101
-2.234 1.959 1.702 5813
-2.227 1.953 1.686 5911
-2.231 1.956 1.678 5293
-2.308 2.024 1.721 6093
-2.285 2.004 1.694 5670
-2.357 2.067 1.732 6631
-2.366 2.075 1.727 7791
-2.375 2.082 1.721 8269
-2.389 2.095 1.719 9162
-2.392 2.098 1.710 8756
-2.396 2.101 1.701 7234
-2.399 2.104 1.692 5011
-2.370 2.079 1.662 4827
-2.459 2.157 1.708 5505
-2.468 2.164 1.702 9149
-2.477 2.172 1.696 10552
-2.486 2.180 1.690 10412
-2.489 2.183 1.681 10456
-2.493 2.186 1.671 10151
-2.490 2.184 1.659 7336
-2.494 2.187 1.649 4915
-2.573 2.256 1.686 6626
-2.582 2.264 1.679 10100
-2.590 2.271 1.673 8269
-2.610 2.289 1.672 5120
-2.619 2.296 1.666 3942
-2.622 2.299 1.656 5048
-2.631 2.307 1.649 7985
-2.640 2.315 1.642 8449
-2.649 2.322 1.635 5048
-2.728 2.392 1.668 7538
-2.732 2.395 1.658 8953
-2.746 2.408 1.654 9590
-2.760 2.420 1.649 8838
-2.775 2.433 1.645 6937
-2.839 2.489 1.667 6756
-2.853 2.502 1.662 9418
-2.851 2.500 1.648 7737
-2.904 2.546 1.664 5509
-2.890 2.534 1.644 3894
-2.971 2.605 1.673 2698
-3.036 2.662 1.694 3597
-3.050 2.675 1.688 4519
-3.065 2.687 1.682 4942
-3.074 2.695 1.673 6247
-3.055 2.678 1.650 5514
-3.186 2.794 1.702 4353
-3.190 2.797 1.690 3886
-3.098 2.716 1.631 4214
-3.230 2.832 1.681 5457
-3.228 2.830 1.666 5778
-3.237 2.838 1.657 5079
-3.240 2.841 1.644 5597
-3.243 2.844 1.632 4477
-3.359 2.945 1.671 3601
-3.385 2.968 1.669 4120
-3.411 2.991 1.666 4912
-3.420 2.999 1.655 4064
-3.395 2.977 1.630 3479
