0.622 6.770 2.008 2773
0.597 6.494 1.911 3728
0.623 6.775 1.989 3032
0.623 6.780 1.969 3573
0.658 7.161 2.072 2322
0.622 6.771 1.945 3480
0.659 7.167 2.052 2937
0.659 7.172 2.031 2899
0.675 7.347 2.077 2048
0.660 7.178 2.010 3629
0.677 7.368 2.060 1283
0.661 7.191 1.991 3621
0.693 7.542 2.082 1387
0.661 7.188 1.968 2252
0.677 7.372 2.015 1872
0.678 7.377 1.993 1698
0.699 7.606 2.052 1660
0.700 7.612 2.029 1920
0.713 7.757 2.066 1237
0.700 7.617 2.007 2367
0.713 7.763 2.043 1729
0.699 7.607 1.981 1763
0.747 8.128 2.108 1457
0.755 8.218 2.105 1826
0.698 7.597 1.955 951
0.757 8.239 2.085 2065
0.744 8.094 2.050 1031
0.757 8.237 2.059 1894
0.775 8.437 2.105 1102
0.772 8.397 2.070 1188
0.788 8.573 2.111 1127
0.788 8.571 2.084 1400
0.803 8.733 2.121 970
0.804 8.754 2.099 1283
0.787 8.561 2.056 1126
0.796 8.659 2.051 1349
0.810 8.813 2.086 1338
0.810 8.819 2.060 1821
0.832 9.058 2.112 1240
0.812 8.832 2.036 1536
0.834 9.071 2.088 1188
0.856 9.316 2.112 1268
0.833 9.061 2.058 996
0.855 9.306 2.082 1403
0.834 9.075 2.033 731
0.855 9.304 2.053 994
0.835 9.088 2.008 510
0.855 9.302 2.024 582
0.834 9.078 1.978 429
0.856 9.315 1.999 316
0.213 2.284 1.812 5755
0.213 2.288 1.805 11511
0.225 2.415 1.899 408
0.214 2.293 1.799 11511
0.226 2.420 1.892 817
0.215 2.304 1.797 10276
0.226 2.425 1.886 2286
0.215 2.309 1.790 9124
0.227 2.430 1.879 3755
0.224 2.403 1.848 7145
0.213 2.282 1.760 3257
0.225 2.408 1.841 9006
0.213 2.287 1.754 2009
0.225 2.413 1.835 9006
0.214 2.292 1.747 2009
0.225 2.412 1.823 7969
0.214 2.290 1.736 1231
0.225 2.410 1.812 7434
0.236 2.533 1.898 1438
0.225 2.415 1.805 5966
0.237 2.544 1.896 2173
0.229 2.452 1.820 5723
0.240 2.575 1.906 2698
0.231 2.477 1.827 7131
0.243 2.600 1.913 2473
0.232 2.488 1.824 9073
0.244 2.611 1.910 2829
0.233 2.493 1.817 9073
0.244 2.616 1.902 2956
0.234 2.511 1.819 7930
0.246 2.635 1.903 1898
0.236 2.529 1.820 8507
0.224 2.405 1.736 2011
0.238 2.547 1.822 7803
0.249 2.671 1.906 2389
0.240 2.578 1.832 8585
0.252 2.702 1.916 2162
0.242 2.596 1.834 7524
0.231 2.471 1.750 1567
0.244 2.614 1.835 7146
0.232 2.489 1.752 1855
0.244 2.619 1.827 6860
0.233 2.494 1.745 1304
0.245 2.624 1.820 6573
0.256 2.749 1.902 1314
0.246 2.642 1.821 6109
0.258 2.768 1.903 1417
0.248 2.653 1.818 5944
0.259 2.779 1.899 1471
0.248 2.658 1.810 5422
0.260 2.784 1.891 1743
0.248 2.663 1.802 4901
0.260 2.790 1.883 2015
0.249 2.668 1.795 4602
0.261 2.795 1.875 2478
0.249 2.673 1.787 4304
0.262 2.806 1.871 3046
0.262 2.811 1.863 4081
0.250 2.684 1.783 3511
0.263 2.816 1.855 5116
0.251 2.689 1.776 2750
0.260 2.788 1.826 4566
0.274 2.942 1.921 2301
0.260 2.786 1.814 4614
0.274 2.941 1.909 2654
0.267 2.865 1.851 3835
0.255 2.737 1.773 2005
0.271 2.904 1.863 3333
0.259 2.775 1.786 2675
0.276 2.963 1.887 3402
0.264 2.834 1.810 2946
0.277 2.975 1.883 4335
0.265 2.839 1.802 2929
0.277 2.973 1.870 5185
0.265 2.844 1.794 2984
0.278 2.978 1.862 6622
0.266 2.849 1.785 2479
0.281 3.010 1.869 7433
0.269 2.881 1.793 2631
0.282 3.022 1.864 7716
0.270 2.892 1.789 1859
0.283 3.034 1.859 8166
0.295 3.164 1.934 1518
0.283 3.039 1.851 7509
0.296 3.169 1.925 2575
0.285 3.051 1.846 6917
0.297 3.181 1.920 3252
0.285 3.056 1.837 6922
0.297 3.186 1.911 3054
0.285 3.060 1.828 6348
0.298 3.191 1.902 3066
0.286 3.065 1.819 5568
0.298 3.196 1.892 3276
0.296 3.174 1.868 5320
0.284 3.043 1.795 2691
0.297 3.179 1.859 7583
0.309 3.310 1.931 1640
0.297 3.184 1.850 8094
0.309 3.315 1.921 1855
0.298 3.196 1.844 7317
0.310 3.327 1.916 2234
0.299 3.208 1.839 7034
0.312 3.340 1.910 2475
0.299 3.205 1.826 5993
0.311 3.338 1.896 2792
0.300 3.217 1.820 4354
0.312 3.350 1.890 2582
0.302 3.236 1.818 4106
0.290 3.104 1.748 1829
0.311 3.339 1.860 3373
0.299 3.206 1.791 2844
0.311 3.337 1.847 2819
0.299 3.204 1.778 2363
0.295 3.160 1.743 2483
0.312 3.342 1.837 2309
0.295 3.157 1.730 2927
0.312 3.347 1.827 1745
0.324 3.478 1.882 2829
0.294 3.155 1.718 2622
0.324 3.469 1.865 5174
0.295 3.159 1.709 2700
0.323 3.467 1.851 6597
0.336 3.601 1.919 3193
0.324 3.472 1.841 5855
0.336 3.606 1.908 3553
0.338 3.626 1.905 6551
0.326 3.491 1.838 5080
0.339 3.638 1.898 9896
0.327 3.503 1.832 5234
0.342 3.664 1.898 11075
0.328 3.515 1.825 4846
0.343 3.676 1.890 10034
0.330 3.541 1.825 3462
0.343 3.681 1.880 6291
0.293 3.141 1.621 1469
0.341 3.658 1.856 6241
0.357 3.822 1.934 2264
0.342 3.663 1.845 6038
0.357 3.827 1.923 3246
0.342 3.668 1.834 5049
0.357 3.832 1.911 4313
0.349 3.744 1.857 6673
0.362 3.880 1.920 2149
0.350 3.756 1.850 8066
0.363 3.893 1.912 3080
0.360 3.862 1.885 7658
0.348 3.726 1.822 4953
0.361 3.867 1.874 7955
0.348 3.730 1.812 4186
0.362 3.879 1.866 6568
0.349 3.742 1.804 4043
0.366 3.927 1.874 7889
0.352 3.769 1.803 4647
0.367 3.932 1.862 6019
0.352 3.774 1.792 4053
0.375 4.024 1.889 5118
0.363 3.887 1.829 3158
0.376 4.029 1.877 4976
0.363 3.892 1.817 2928
0.377 4.041 1.869 4319
0.364 3.904 1.809 2829
0.382 4.097 1.879 5745
0.369 3.959 1.820 2846
0.381 4.088 1.861 5750
0.368 3.950 1.802 1791
0.382 4.092 1.849 6295
0.395 4.231 1.908 1241
0.382 4.097 1.837 6968
0.395 4.236 1.895 2586
0.383 4.110 1.828 4946
0.396 4.248 1.886 3535
0.395 4.231 1.865 4112
0.382 4.093 1.807 2188
0.395 4.229 1.849 6291
0.407 4.368 1.906 1972
0.396 4.241 1.840 8013
0.409 4.380 1.897 2277
0.396 4.246 1.828 5586
0.409 4.385 1.884 2032
0.405 4.339 1.851 5803
0.392 4.200 1.795 2195
0.405 4.336 1.835 5418
0.418 4.476 1.890 1251
0.404 4.327 1.817 4244
0.417 4.466 1.872 1590
0.410 4.390 1.827 3604
0.423 4.530 1.881 1792
0.415 4.447 1.834 4634
0.432 4.631 1.905 1354
0.415 4.444 1.819 3935
0.431 4.621 1.886 2048
0.414 4.442 1.803 4899
0.429 4.604 1.864 3098
0.415 4.447 1.790 5320
0.428 4.587 1.843 3869
0.426 4.562 1.818 5620
0.442 4.740 1.884 2665
0.440 4.715 1.860 4385
0.426 4.567 1.805 3456
0.441 4.727 1.849 4906
0.426 4.565 1.789 1922
0.444 4.762 1.846 3459
0.431 4.621 1.795 2387
0.450 4.826 1.853 5436
0.435 4.663 1.795 1993
0.451 4.831 1.839 5535
0.464 4.973 1.890 1431
0.451 4.836 1.825 3854
0.464 4.978 1.875 2440
0.466 4.990 1.863 2879
0.451 4.834 1.809 2357
0.467 5.003 1.851 3872
0.451 4.839 1.795 1876
0.468 5.015 1.839 4368
0.482 5.172 1.893 2152
0.485 5.199 1.886 2897
0.468 5.012 1.822 2493
0.485 5.204 1.870 3992
0.472 5.062 1.823 1289
0.485 5.202 1.853 3593
0.499 5.344 1.900 2578
0.500 5.356 1.887 3404
0.486 5.214 1.840 3067
0.500 5.361 1.872 4039
0.487 5.219 1.825 2371
0.501 5.367 1.856 4751
0.487 5.224 1.810 1526
0.502 5.379 1.843 3262
0.488 5.236 1.797 1002
0.506 5.429 1.841 2105
0.539 5.782 1.953 885
0.509 5.457 1.833 2288
0.541 5.795 1.939 1008
0.507 5.439 1.810 3321
0.540 5.793 1.920 1033
0.508 5.444 1.794 3851
0.539 5.775 1.896 2213
0.540 5.788 1.881 3092
0.510 5.464 1.783 2431
0.542 5.808 1.869 2391
0.559 5.989 1.924 1339
0.544 5.828 1.857 1692
0.559 5.987 1.904 1494
0.561 6.015 1.893 2314
0.580 6.219 1.953 1632
0.562 6.027 1.878 3409
0.580 6.217 1.933 1801
0.563 6.032 1.860 1970
0.598 6.411 1.969 1756
0.626 6.712 2.035 2736
0.599 6.424 1.953 1689
0.627 6.725 2.017 2751
0.601 6.445 1.938 2508
0.605 6.488 1.930 3821
0.631 6.761 2.006 2648
0.606 6.493 1.911 3494
0.631 6.759 1.985 2996
0.631 6.764 1.965 3807
0.668 7.160 2.072 2588
0.632 6.770 1.945 3905
0.668 7.166 2.052 3154
0.669 7.171 2.031 3166
0.685 7.346 2.077 2258
0.670 7.184 2.012 3853
0.688 7.375 2.062 1462
0.671 7.190 1.991 3583
0.703 7.541 2.082 1410
0.670 7.187 1.968 2228
0.688 7.371 2.015 1811
0.689 7.384 1.995 1523
0.703 7.537 2.034 1291
0.703 7.534 2.010 1694
0.720 7.718 2.056 1124
0.710 7.609 2.005 2066
0.723 7.754 2.041 1472
0.707 7.583 1.976 1755
0.758 8.127 2.108 1503
0.767 8.217 2.105 1755
0.707 7.581 1.952 1058
0.769 8.238 2.085 2065
0.755 8.093 2.050 1187
0.768 8.236 2.059 1853
0.787 8.436 2.105 1128
0.783 8.395 2.070 1287
0.798 8.557 2.108 1080
0.799 8.570 2.084 1364
0.813 8.716 2.118 935
0.808 8.660 2.078 1336
0.822 8.807 2.111 968
0.808 8.666 2.053 1505
0.823 8.820 2.087 1299
0.823 8.826 2.062 1731
0.845 9.057 2.112 1186
0.824 8.831 2.036 1479
0.846 9.070 2.088 1113
0.869 9.315 2.112 1255
0.846 9.068 2.059 888
0.867 9.297 2.080 1420
0.846 9.073 2.033 653
0.868 9.303 2.053 1007
0.847 9.079 2.006 481
0.867 9.293 2.023 562
0.847 9.077 1.978 410
0.868 9.306 1.997 286
0.217 2.290 1.816 5710
0.205 2.170 1.726 256
0.217 2.295 1.810 11420
0.206 2.174 1.720 512
0.218 2.299 1.803 11420
0.230 2.426 1.897 778
0.218 2.304 1.797 9914
0.230 2.425 1.886 2223
0.219 2.315 1.795 8443
0.231 2.436 1.883 3167
0.228 2.403 1.848 7008
0.216 2.282 1.760 2898
0.228 2.408 1.841 8887
0.216 2.287 1.754 1732
0.228 2.413 1.835 8887
0.217 2.291 1.747 1732
0.228 2.412 1.823 7898
0.240 2.534 1.910 1203
0.228 2.410 1.812 7316
0.240 2.532 1.898 1385
0.229 2.421 1.809 5941
0.241 2.544 1.896 2120
0.232 2.452 1.820 5893
0.244 2.575 1.906 2631
0.234 2.476 1.827 7351
0.246 2.599 1.913 2535
0.236 2.488 1.824 9289
0.247 2.611 1.910 2958
0.236 2.493 1.817 9289
0.248 2.616 1.902 3095
0.238 2.510 1.819 7912
0.249 2.634 1.903 2037
0.239 2.528 1.820 8102
0.228 2.404 1.736 1963
0.244 2.573 1.840 7477
0.232 2.448 1.756 1880
0.245 2.584 1.837 8256
0.256 2.709 1.920 1803
0.246 2.595 1.834 7439
0.234 2.471 1.750 1571
0.247 2.614 1.835 7247
0.236 2.489 1.752 1768
0.248 2.618 1.827 6939
0.260 2.744 1.910 1253
0.248 2.623 1.820 6630
0.260 2.749 1.902 1448
0.250 2.641 1.821 6174
0.262 2.767 1.903 1507
0.251 2.653 1.818 6129
0.263 2.779 1.899 1573
0.252 2.658 1.810 5705
0.264 2.784 1.891 1825
0.253 2.669 1.807 5296
0.265 2.796 1.887 1877
0.253 2.668 1.795 4771
0.265 2.794 1.875 2402
0.253 2.672 1.787 4261
0.266 2.806 1.871 2836
0.266 2.811 1.863 3949
0.254 2.684 1.783 3390
0.265 2.796 1.842 5127
0.278 2.937 1.930 1790
0.264 2.787 1.826 4754
0.279 2.942 1.921 2224
0.264 2.785 1.814 4695
0.278 2.940 1.909 2657
0.272 2.871 1.855 3809
0.260 2.743 1.777 2292
0.274 2.896 1.859 3399
0.261 2.761 1.777 2531
0.280 2.962 1.887 3261
0.268 2.834 1.810 2840
0.282 2.974 1.883 3988
0.269 2.839 1.802 2832
0.281 2.972 1.870 4799
0.269 2.843 1.794 2835
0.283 2.984 1.866 6305
0.270 2.855 1.789 2462
0.285 3.010 1.869 7375
0.273 2.880 1.793 2539
0.286 3.022 1.864 7735
0.274 2.892 1.789 1825
0.287 3.033 1.859 8227
0.299 3.163 1.934 1604
0.288 3.038 1.851 7468
0.300 3.168 1.925 2689
0.289 3.050 1.846 6870
0.301 3.180 1.920 3408
0.289 3.055 1.837 6895
0.302 3.186 1.911 3214
0.290 3.067 1.832 6238
0.303 3.198 1.905 2913
0.290 3.065 1.819 5408
0.303 3.196 1.892 3072
0.301 3.180 1.872 5246
0.289 3.049 1.799 3235
0.301 3.178 1.859 7949
0.288 3.047 1.786 1448
0.301 3.183 1.850 8768
0.314 3.315 1.921 1685
0.303 3.195 1.844 7866
0.315 3.327 1.916 2059
0.304 3.207 1.839 7459
0.316 3.339 1.910 2207
0.304 3.212 1.829 6318
0.317 3.344 1.900 2291
0.305 3.217 1.820 4646
0.317 3.349 1.890 2506
0.306 3.236 1.818 4337
0.294 3.103 1.748 2140
0.306 3.234 1.805 3619
0.319 3.366 1.875 2164
0.306 3.231 1.792 2935
0.319 3.364 1.861 1870
0.299 3.159 1.743 2375
0.316 3.334 1.834 1994
0.299 3.157 1.730 2830
0.329 3.473 1.892 1561
0.329 3.478 1.882 2662
0.300 3.168 1.725 2489
0.328 3.462 1.861 5143
0.340 3.595 1.929 2482
0.328 3.467 1.851 6687
0.341 3.601 1.919 3081
0.329 3.472 1.841 6018
0.341 3.606 1.908 3422
0.343 3.625 1.905 6491
0.330 3.491 1.838 5361
0.345 3.644 1.901 9887
0.332 3.503 1.832 5604
0.347 3.664 1.898 11252
0.333 3.515 1.825 5225
0.348 3.676 1.890 10279
0.335 3.541 1.825 3642
0.348 3.674 1.876 6072
0.297 3.140 1.621 1485
0.346 3.657 1.856 5611
0.362 3.821 1.934 2334
0.347 3.662 1.845 5573
0.362 3.826 1.923 3255
0.347 3.667 1.834 4900
0.363 3.832 1.911 4281
0.354 3.744 1.857 6275
0.367 3.880 1.920 2219
0.356 3.756 1.850 7657
0.368 3.892 1.912 3160
0.366 3.861 1.885 7911
0.353 3.725 1.822 4851
0.366 3.866 1.874 8202
0.353 3.730 1.812 4141
0.367 3.879 1.866 6648
0.354 3.742 1.804 4143
0.372 3.927 1.874 7612
0.357 3.768 1.803 4704
0.372 3.932 1.862 5735
0.357 3.773 1.792 4021
0.381 4.023 1.889 4756
0.368 3.886 1.829 3083
0.382 4.036 1.881 4722
0.369 3.898 1.821 2848
0.383 4.048 1.872 4077
0.369 3.896 1.806 2666
0.388 4.096 1.879 5956
0.375 3.959 1.820 2813
0.387 4.087 1.861 5961
0.374 3.949 1.802 1873
0.387 4.085 1.846 6464
0.400 4.223 1.904 1242
0.388 4.097 1.837 6738
0.401 4.235 1.895 2491
0.389 4.109 1.828 4770
0.402 4.247 1.886 3645
0.395 4.172 1.841 4161
0.408 4.311 1.898 1110
0.400 4.228 1.849 5972
0.413 4.367 1.906 1935
0.401 4.241 1.840 7928
0.415 4.379 1.897 2348
0.402 4.246 1.828 5803
0.415 4.385 1.884 2227
0.411 4.338 1.851 5529
0.398 4.199 1.795 2396
0.411 4.336 1.835 5203
0.397 4.197 1.780 1202
0.410 4.333 1.820 3872
0.423 4.473 1.874 1401
0.415 4.382 1.824 3633
0.428 4.522 1.879 1919
0.420 4.439 1.831 4181
0.438 4.630 1.905 1322
0.421 4.444 1.819 3741
0.438 4.628 1.889 2135
0.420 4.441 1.803 4971
0.437 4.611 1.867 3095
0.421 4.446 1.790 5440
0.434 4.586 1.843 3900
0.431 4.554 1.816 5991
0.449 4.739 1.884 2889
0.448 4.729 1.865 4451
0.432 4.567 1.805 3824
0.448 4.734 1.851 5090
0.432 4.564 1.789 2190
0.441 4.658 1.808 3922
0.454 4.799 1.859 3479
0.457 4.826 1.853 5510
0.441 4.663 1.795 2273
0.457 4.831 1.839 5492
0.471 4.972 1.890 1364
0.458 4.836 1.825 3822
0.471 4.977 1.875 2550
0.472 4.989 1.863 3196
0.457 4.826 1.806 2507
0.474 5.002 1.851 3923
0.457 4.830 1.792 1881
0.475 5.014 1.839 4089
0.490 5.171 1.893 2225
0.492 5.198 1.886 3000
0.475 5.019 1.825 2311
0.492 5.196 1.868 4211
0.478 5.054 1.820 1311
0.492 5.201 1.853 3794
0.506 5.343 1.900 2725
0.506 5.348 1.885 3711
0.493 5.206 1.838 2745
0.508 5.361 1.872 4137
0.494 5.218 1.825 2095
0.508 5.366 1.856 4673
0.495 5.223 1.810 1364
0.508 5.371 1.840 3372
0.495 5.228 1.795 814
0.507 5.353 1.818 2028
0.548 5.789 1.956 861
0.517 5.463 1.835 2288
0.549 5.794 1.939 1074
0.515 5.438 1.810 3209
0.547 5.777 1.915 1401
0.515 5.443 1.794 3597
0.547 5.775 1.896 2252
0.548 5.787 1.881 2883
0.517 5.463 1.783 2194
0.550 5.807 1.869 2182
0.568 5.996 1.926 1382
0.554 5.850 1.863 1636
0.567 5.994 1.906 1428
0.569 6.014 1.893 2265
0.553 5.840 1.842 1590
0.571 6.027 1.878 3359
0.586 6.193 1.926 1598
0.571 6.032 1.860 1983
0.608 6.418 1.971 1537
0.635 6.704 2.033 2820
0.602 6.355 1.933 1661
0.637 6.725 2.017 2858
0.609 6.436 1.936 2077
0.615 6.495 1.932 3636
0.639 6.753 2.004 2646
0.615 6.500 1.913 3301
0.640 6.758 1.985 2958
0.640 6.756 1.963 3851
0.678 7.159 2.072 2673
0.641 6.769 1.945 4027
0.679 7.172 2.054 3250
0.680 7.178 2.033 3303
0.696 7.353 2.079 2347
0.680 7.183 2.012 3885
0.698 7.374 2.062 1565
0.681 7.189 1.991 3365
0.714 7.540 2.082 1476
0.681 7.194 1.970 2144
0.698 7.377 2.017 1660
0.713 7.536 2.034 1503
0.699 7.383 1.995 1385
0.713 7.533 2.010 1931
0.731 7.717 2.056 1140
0.714 7.539 1.988 2228
0.731 7.723 2.034 1602
0.717 7.575 1.974 1808
0.769 8.126 2.108 1507
0.779 8.224 2.107 1628
0.718 7.580 1.952 1125
0.781 8.245 2.086 2035
0.766 8.092 2.050 1106
0.780 8.235 2.059 1782
0.799 8.435 2.105 1096
0.795 8.394 2.070 1190
0.809 8.540 2.104 1036
0.811 8.561 2.083 1331
0.824 8.707 2.116 915
0.820 8.659 2.078 1367
0.834 8.805 2.111 952
0.820 8.665 2.053 1488
0.836 8.826 2.089 1275
0.836 8.832 2.063 1665
0.857 9.055 2.112 1143
0.836 8.830 2.036 1397
0.858 9.061 2.086 1057
0.882 9.313 2.112 1201
0.868 9.167 2.081 884
0.880 9.296 2.080 1358
0.858 9.065 2.031 546
0.881 9.302 2.053 954
0.859 9.078 2.006 452
0.872 9.207 2.005 511
0.858 9.060 1.975 387
0.882 9.313 1.999 255
0.222 2.289 1.816 5584
0.222 2.294 1.810 11169
0.210 2.174 1.720 478
0.223 2.299 1.803 11169
0.235 2.426 1.897 731
0.223 2.304 1.797 9567
0.235 2.424 1.886 2161
0.224 2.315 1.795 7970
0.236 2.436 1.883 3093
0.233 2.403 1.848 6973
0.221 2.281 1.760 2612
0.233 2.408 1.841 8917
0.221 2.286 1.754 1484
0.234 2.413 1.835 8917
0.222 2.291 1.747 1484
0.233 2.411 1.823 7973
0.245 2.533 1.910 1257
0.233 2.409 1.812 7313
0.245 2.532 1.898 1414
0.234 2.421 1.809 6141
0.246 2.543 1.896 2148
0.237 2.451 1.820 6374
0.249 2.574 1.906 2578
0.239 2.469 1.822 7878
0.251 2.592 1.908 3250
0.240 2.481 1.820 9850
0.252 2.604 1.905 3956
0.241 2.486 1.813 9850
0.253 2.609 1.898 4062
0.242 2.503 1.814 8068
0.254 2.627 1.899 2833
0.245 2.528 1.820 7640
0.259 2.671 1.918 1958
0.250 2.579 1.844 7341
0.238 2.454 1.760 2254
0.250 2.583 1.837 7942
0.262 2.708 1.920 1893
0.252 2.602 1.838 7412
0.240 2.477 1.755 1909
0.253 2.613 1.835 7439
0.241 2.488 1.752 1783
0.253 2.618 1.827 7137
0.266 2.743 1.910 1380
0.254 2.623 1.820 6836
0.266 2.748 1.902 1597
0.256 2.641 1.821 6371
0.268 2.767 1.903 1575
0.257 2.652 1.818 6470
0.269 2.778 1.899 1673
0.257 2.657 1.810 6197
0.270 2.784 1.891 1892
0.258 2.669 1.807 5979
0.271 2.795 1.887 1996
0.258 2.667 1.795 5136
0.270 2.794 1.875 2302
0.259 2.672 1.787 4349
0.272 2.805 1.871 2582
0.269 2.777 1.842 4134
0.257 2.650 1.763 1841
0.270 2.789 1.838 5376
0.284 2.936 1.930 1631
0.270 2.787 1.826 4995
0.285 2.941 1.921 2140
0.270 2.785 1.814 4837
0.285 2.946 1.913 2649
0.278 2.871 1.855 3904
0.266 2.743 1.777 2230
0.280 2.889 1.855 3611
0.267 2.761 1.777 2429
0.280 2.894 1.847 3175
0.293 3.023 1.924 2272
0.288 2.974 1.883 3595
0.275 2.845 1.806 2762
0.288 2.972 1.870 4355
0.275 2.843 1.794 2717
0.290 2.997 1.874 6050
0.278 2.868 1.798 2575
0.291 3.009 1.869 7477
0.279 2.880 1.793 2459
0.292 3.021 1.864 8041
0.280 2.891 1.789 1814
0.294 3.033 1.859 8676
0.306 3.163 1.934 1665
0.294 3.038 1.851 7716
0.307 3.168 1.925 2776
0.295 3.050 1.846 6947
0.308 3.180 1.920 3537
0.296 3.054 1.837 7000
0.308 3.185 1.911 3345
0.297 3.066 1.832 6266
0.310 3.197 1.905 2970
0.297 3.064 1.819 5335
0.309 3.195 1.892 3051
0.308 3.180 1.872 5341
0.295 3.048 1.799 3284
0.308 3.178 1.859 8231
0.295 3.046 1.786 1573
0.308 3.183 1.850 9221
0.321 3.314 1.921 1569
0.309 3.195 1.844 8033
0.322 3.326 1.916 1890
0.310 3.206 1.839 7330
0.323 3.338 1.910 1930
0.311 3.211 1.829 6247
0.324 3.344 1.900 2160
0.311 3.216 1.820 4857
0.324 3.349 1.890 2480
0.313 3.228 1.814 4726
0.325 3.361 1.884 2271
0.312 3.226 1.802 3982
0.325 3.359 1.871 2340
0.313 3.231 1.792 3218
0.300 3.098 1.723 1979
0.314 3.243 1.786 2568
0.301 3.109 1.718 1812
0.306 3.156 1.730 2870
0.336 3.472 1.892 1581
0.307 3.168 1.725 2723
0.336 3.470 1.879 2576
0.335 3.461 1.861 5111
0.306 3.165 1.712 2374
0.335 3.459 1.848 6739
0.348 3.593 1.915 2955
0.336 3.471 1.841 6071
0.350 3.612 1.912 3197
0.351 3.624 1.905 6358
0.338 3.490 1.838 5597
0.353 3.644 1.901 9862
0.339 3.502 1.832 5987
0.355 3.663 1.898 11445
0.340 3.514 1.825 5645
0.356 3.675 1.890 10560
0.343 3.540 1.825 3883
0.356 3.673 1.876 5711
0.369 3.815 1.945 1538
0.354 3.657 1.856 4738
0.370 3.821 1.934 2443
0.355 3.662 1.845 4930
0.370 3.826 1.923 3302
0.355 3.667 1.834 4717
0.371 3.831 1.911 4275
0.362 3.743 1.857 5691
0.376 3.879 1.920 2319
0.363 3.748 1.846 7133
0.376 3.884 1.909 3913
0.373 3.853 1.881 8178
0.360 3.717 1.819 4056
0.374 3.866 1.874 8492
0.361 3.729 1.812 4169
0.375 3.878 1.866 6857
0.362 3.741 1.804 4381
0.380 3.926 1.874 7475
0.364 3.760 1.800 4809
0.381 3.931 1.862 5461
0.365 3.772 1.792 4012
0.390 4.030 1.892 4448
0.377 3.893 1.832 3149
0.391 4.035 1.881 4535
0.377 3.890 1.817 2710
0.395 4.083 1.888 4341
0.376 3.888 1.803 2574
0.397 4.096 1.879 6199
0.383 3.958 1.820 3080
0.396 4.086 1.861 6238
0.382 3.948 1.802 2075
0.395 4.084 1.846 6738
0.409 4.222 1.904 1089
0.397 4.096 1.837 6530
0.410 4.234 1.895 2240
0.398 4.108 1.828 4553
0.411 4.247 1.886 3536
0.403 4.164 1.838 4314
0.417 4.303 1.895 1272
0.409 4.227 1.849 5125
0.423 4.366 1.906 1960
0.411 4.240 1.840 6955
0.424 4.379 1.897 2541
0.411 4.245 1.828 5359
0.424 4.384 1.884 2618
0.420 4.337 1.851 5121
0.406 4.198 1.795 2616
0.420 4.335 1.835 4795
0.406 4.196 1.780 1378
0.419 4.333 1.820 3615
0.433 4.472 1.874 1369
0.424 4.382 1.824 3857
0.438 4.521 1.879 1927
0.429 4.431 1.829 3863
0.443 4.570 1.883 1506
0.429 4.435 1.816 3729
0.448 4.627 1.889 2228
0.429 4.433 1.800 5350
0.446 4.610 1.867 3126
0.430 4.438 1.787 5791
0.443 4.578 1.840 4098
0.441 4.553 1.816 6231
0.459 4.738 1.884 3099
0.459 4.736 1.868 4658
0.442 4.566 1.805 4023
0.458 4.733 1.851 5327
0.442 4.563 1.789 2534
0.451 4.657 1.808 4644
0.466 4.812 1.865 3368
0.467 4.825 1.853 5477
0.451 4.662 1.795 2685
0.468 4.837 1.842 5416
0.482 4.978 1.892 1263
0.469 4.842 1.828 3724
0.483 4.983 1.878 2767
0.483 4.988 1.863 3665
0.469 4.847 1.814 2586
0.483 4.993 1.849 4215
0.499 5.150 1.903 1964
0.485 5.006 1.837 3998
0.501 5.170 1.893 2449
0.503 5.197 1.886 3067
0.486 5.018 1.825 2231
0.503 5.195 1.868 4283
0.489 5.053 1.820 1356
0.503 5.200 1.853 3915
0.517 5.342 1.900 2871
0.518 5.347 1.885 4065
0.504 5.205 1.838 2615
0.519 5.360 1.872 4185
0.505 5.217 1.825 1898
0.519 5.365 1.856 4475
0.505 5.215 1.808 1422
0.518 5.347 1.833 3642
0.504 5.204 1.788 688
0.519 5.360 1.820 2347
0.533 5.502 1.865 985
0.519 5.364 1.804 2554
0.533 5.507 1.849 1732
0.521 5.384 1.794 3159
0.559 5.776 1.915 1655
0.527 5.442 1.794 3307
0.559 5.773 1.896 2302
0.561 5.794 1.884 2662
0.575 5.937 1.927 2032
0.561 5.799 1.867 1969
0.575 5.942 1.910 1393
0.571 5.894 1.877 1888
0.585 6.038 1.920 959
0.578 5.967 1.880 2356
0.564 5.824 1.838 1657
0.583 6.018 1.876 3206
0.600 6.192 1.926 1440
0.584 6.030 1.860 2047
0.648 6.689 2.050 1381
0.650 6.710 2.035 2941
0.632 6.528 1.983 1786
0.650 6.716 2.015 3097
0.633 6.534 1.964 2270
0.632 6.524 1.941 3803
0.653 6.744 2.002 2638
0.630 6.506 1.916 3380
0.653 6.749 1.982 2953
0.653 6.747 1.961 4005
0.694 7.165 2.074 2860
0.655 6.767 1.945 4100
0.694 7.171 2.054 3418
0.695 7.176 2.033 3435
0.712 7.352 2.079 2433
0.696 7.189 2.014 3864
0.714 7.372 2.062 1785
0.697 7.195 1.993 3130
0.730 7.538 2.082 1492
0.696 7.193 1.970 2029
0.714 7.376 2.017 1525
0.729 7.534 2.034 1662
0.752 7.771 2.094 1508
0.729 7.532 2.010 2081
0.748 7.723 2.058 1250
0.730 7.537 1.988 2360
0.748 7.721 2.034 1511
0.733 7.566 1.972 1899
0.787 8.132 2.110 1463
0.796 8.222 2.107 1478
0.733 7.571 1.950 1220
0.798 8.243 2.086 1994
0.783 8.082 2.048 1084
0.797 8.234 2.059 1700
0.817 8.433 2.105 1008
0.813 8.393 2.070 1104
0.798 8.247 2.036 1030
0.829 8.560 2.083 1284
0.843 8.706 2.116 922
0.838 8.658 2.078 1472
0.852 8.804 2.111 966
0.839 8.663 2.053 1577
0.855 8.832 2.091 1267
0.856 8.838 2.065 1591
0.877 9.054 2.112 1047
0.856 8.836 2.038 1353
0.877 9.059 2.086 951
0.902 9.312 2.112 1111
0.887 9.165 2.081 981
0.900 9.294 2.080 1260
0.857 8.847 1.986 509
0.900 9.300 2.053 870
0.879 9.076 2.006 376
0.890 9.197 2.004 545
0.876 9.050 1.974 359
0.225 2.289 1.816 5286
0.226 2.294 1.810 10573
0.214 2.173 1.720 430
0.226 2.299 1.803 10573
0.239 2.425 1.897 676
0.227 2.303 1.797 8983
0.238 2.424 1.886 2064
0.227 2.308 1.790 7394
0.239 2.429 1.879 3453
0.236 2.402 1.848 6793
0.224 2.281 1.760 2383
0.237 2.407 1.841 8728
0.225 2.286 1.754 1280
0.237 2.412 1.835 8728
0.225 2.290 1.747 1280
0.237 2.411 1.823 7824
0.249 2.533 1.910 1341
0.237 2.409 1.812 7097
0.249 2.531 1.898 1490
0.239 2.427 1.814 6157
0.251 2.549 1.900 2148
0.241 2.451 1.820 6548
0.253 2.574 1.906 2518
0.243 2.469 1.822 8075
0.255 2.592 1.908 3285
0.244 2.480 1.820 10031
0.256 2.604 1.905 4065
0.244 2.485 1.813 10031
0.257 2.609 1.898 4181
0.246 2.503 1.814 8064
0.258 2.627 1.899 2967
0.248 2.521 1.816 7225
0.260 2.645 1.900 2039
0.254 2.585 1.849 7249
0.242 2.460 1.765 2632
0.255 2.590 1.841 7713
0.242 2.465 1.758 1981
0.256 2.601 1.838 7392
0.244 2.476 1.755 1950
0.257 2.613 1.835 7523
0.245 2.488 1.752 1751
0.257 2.618 1.827 7176
0.270 2.743 1.910 1453
0.258 2.622 1.820 6828
0.270 2.748 1.902 1690
0.259 2.634 1.817 6379
0.271 2.760 1.898 1730
0.261 2.652 1.818 6536
0.273 2.778 1.899 1738
0.261 2.657 1.810 6376
0.274 2.783 1.891 1927
0.262 2.668 1.807 6308
0.275 2.795 1.887 2061
0.262 2.667 1.795 5270
0.275 2.800 1.879 2242
0.263 2.671 1.787 4323
0.276 2.805 1.871 2422
0.273 2.777 1.842 4230
0.261 2.649 1.763 1845
0.274 2.788 1.838 5473
0.289 2.936 1.930 1427
0.273 2.780 1.822 5046
0.289 2.941 1.921 1983
0.274 2.785 1.814 4789
0.290 2.946 1.913 2540
0.282 2.870 1.855 3907
0.270 2.742 1.777 2140
0.284 2.889 1.855 3749
0.271 2.760 1.777 2283
0.284 2.887 1.843 3298
0.297 3.015 1.920 2245
0.292 2.973 1.883 3290
0.280 2.844 1.806 2644
0.292 2.971 1.870 4069
0.280 2.842 1.794 2560
0.295 2.997 1.874 5888
0.282 2.868 1.798 2430
0.296 3.009 1.869 7454
0.283 2.879 1.793 2322
0.297 3.020 1.864 8054
0.284 2.891 1.789 1755
0.298 3.025 1.855 8736
0.310 3.155 1.930 2024
0.299 3.037 1.851 7579
0.311 3.167 1.925 2889
0.300 3.049 1.846 6582
0.313 3.179 1.920 3669
0.300 3.054 1.837 6643
0.313 3.184 1.911 3459
0.302 3.066 1.832 5989
0.314 3.197 1.905 2978
0.302 3.071 1.823 5121
0.315 3.202 1.896 2639
0.313 3.179 1.872 5481
0.300 3.048 1.799 3206
0.312 3.177 1.859 8812
0.300 3.046 1.786 1572
0.313 3.182 1.850 10022
0.300 3.051 1.778 1498
0.314 3.194 1.844 8441
0.327 3.326 1.916 1745
0.315 3.206 1.839 7332
0.328 3.338 1.910 1732
0.316 3.211 1.829 6227
0.329 3.343 1.900 2069
0.316 3.216 1.820 5062
0.329 3.348 1.890 2429
0.317 3.228 1.814 5106
0.304 3.095 1.745 2582
0.317 3.226 1.802 4353
0.304 3.093 1.732 2319
0.318 3.230 1.792 3382
0.305 3.097 1.723 2447
0.309 3.144 1.736 2739
0.340 3.459 1.899 1546
0.310 3.156 1.730 3036
0.341 3.471 1.892 1574
0.311 3.167 1.725 3079
0.341 3.462 1.875 2593
0.340 3.460 1.861 5108
0.311 3.165 1.712 2625
0.340 3.458 1.848 6741
0.307 3.120 1.678 3410
0.341 3.470 1.841 6065
0.307 3.125 1.669 3422
0.357 3.631 1.908 6342
0.343 3.489 1.838 5652
0.358 3.643 1.901 10035
0.344 3.501 1.832 6098
0.360 3.662 1.898 11620
0.346 3.513 1.825 5780
0.361 3.675 1.890 10685
0.348 3.540 1.825 3916
0.361 3.673 1.876 5364
0.374 3.808 1.941 1557
0.360 3.656 1.856 3921
0.376 3.820 1.934 2449
0.360 3.661 1.845 4235
0.376 3.825 1.923 3253
0.361 3.666 1.834 4266
0.377 3.830 1.911 4198
0.367 3.735 1.854 5182
0.381 3.871 1.917 2922
0.369 3.747 1.846 6552
0.382 3.883 1.909 3841
0.379 3.853 1.881 8155
0.366 3.717 1.819 3838
0.379 3.858 1.870 8489
0.366 3.721 1.808 3405
0.381 3.877 1.866 6828
0.368 3.741 1.804 4261
0.386 3.925 1.874 7228
0.370 3.760 1.800 4613
0.387 3.930 1.862 5175
0.371 3.772 1.792 3745
0.396 4.029 1.892 4191
0.383 3.892 1.832 3037
0.397 4.034 1.881 4329
0.383 3.890 1.817 2728
0.402 4.083 1.888 4462
0.382 3.887 1.803 2484
0.403 4.095 1.879 6195
0.389 3.957 1.820 3228
0.402 4.086 1.861 6385
0.388 3.948 1.802 2135
0.402 4.083 1.846 6943
0.415 4.221 1.904 1064
0.403 4.095 1.837 6273
0.416 4.234 1.895 2150
0.405 4.115 1.831 4274
0.418 4.253 1.889 2969
0.409 4.164 1.838 4250
0.423 4.302 1.895 1313
0.411 4.183 1.832 5051
0.428 4.351 1.900 2277
0.417 4.239 1.840 6654
0.431 4.378 1.897 2658
0.417 4.244 1.828 5340
0.431 4.383 1.884 2884
0.427 4.337 1.851 4691
0.413 4.198 1.795 2665
0.426 4.334 1.835 4426
0.413 4.195 1.780 1429
0.429 4.361 1.831 3340
0.443 4.501 1.886 1044
0.430 4.374 1.821 4109
0.444 4.513 1.876 2086
0.432 4.393 1.814 3670
0.446 4.533 1.868 1998
0.436 4.435 1.816 3651
0.455 4.626 1.889 2179
0.436 4.432 1.800 5459
0.453 4.602 1.864 3063
0.436 4.437 1.787 5809
0.450 4.577 1.840 3915
0.448 4.553 1.816 5955
0.466 4.737 1.884 3224
0.466 4.735 1.868 4818
0.448 4.558 1.802 3826
0.465 4.733 1.851 5551
0.449 4.562 1.789 2424
0.458 4.656 1.808 4937
0.474 4.819 1.867 3369
0.475 4.832 1.856 5413
0.458 4.661 1.795 2821
0.476 4.836 1.842 5212
0.490 4.978 1.892 1309
0.479 4.871 1.838 3701
0.493 5.012 1.888 2108
0.491 4.988 1.863 3818
0.477 4.846 1.814 2536
0.491 4.993 1.849 4228
0.507 5.157 1.905 2060
0.492 5.005 1.837 3760
0.508 5.162 1.890 2629
0.511 5.197 1.886 3155
0.494 5.025 1.827 2122
0.511 5.194 1.868 4317
0.497 5.052 1.820 1391
0.512 5.207 1.855 4023
0.526 5.349 1.903 2801
0.526 5.346 1.885 4231
0.512 5.204 1.838 2524
0.527 5.359 1.872 4164
0.512 5.209 1.823 1783
0.527 5.356 1.854 4265
0.513 5.214 1.808 1461
0.525 5.339 1.831 3785
0.552 5.609 1.917 753
0.528 5.366 1.822 2536
0.542 5.509 1.868 960
0.527 5.364 1.804 2666
0.542 5.507 1.849 1886
0.529 5.384 1.794 3267
0.568 5.775 1.915 1886
0.534 5.434 1.792 3080
0.568 5.780 1.898 2312
0.570 5.793 1.884 2336
0.584 5.936 1.927 1976
0.569 5.790 1.865 1717
0.590 6.002 1.928 1421
0.580 5.893 1.877 2093
0.594 6.037 1.920 1120
0.587 5.967 1.880 2256
0.573 5.823 1.838 1612
0.591 6.009 1.873 2918
0.608 6.183 1.924 1368
0.591 6.014 1.856 1921
0.640 6.507 1.998 1357
0.660 6.709 2.035 2899
0.642 6.527 1.983 1888
0.660 6.715 2.015 3332
0.643 6.540 1.966 2539
0.642 6.530 1.943 3824
0.662 6.728 1.998 2878
0.643 6.535 1.924 3252
0.663 6.741 1.980 3201
0.663 6.746 1.961 4090
0.705 7.164 2.074 2983
0.665 6.766 1.945 3978
0.706 7.177 2.056 3648
0.706 7.183 2.035 3536
0.723 7.351 2.079 2454
0.707 7.188 2.014 3776
0.725 7.371 2.062 1894
0.708 7.201 1.995 2889
0.725 7.369 2.038 1554
0.707 7.192 1.970 1853
0.725 7.375 2.017 1502
0.764 7.770 2.094 1836
0.741 7.533 2.034 1737
0.741 7.531 2.010 2179
0.762 7.753 2.066 1373
0.741 7.536 1.988 2443
0.759 7.720 2.034 1425
0.743 7.557 1.970 1915
0.800 8.131 2.110 1445
0.812 8.252 2.114 1400
0.744 7.570 1.950 1202
0.811 8.242 2.086 1908
0.768 7.805 1.982 1101
0.810 8.232 2.059 1603
0.828 8.424 2.104 903
0.813 8.269 2.042 1015
0.855 8.691 2.140 987
0.842 8.558 2.083 1241
0.856 8.704 2.116 969
0.851 8.656 2.078 1473
0.866 8.802 2.111 947
0.852 8.662 2.053 1526
0.869 8.831 2.091 1262
0.870 8.844 2.067 1483
0.855 8.698 2.035 1013
0.869 8.835 2.038 1200
0.915 9.304 2.139 921
0.914 9.295 2.109 1017
0.900 9.148 2.077 894
0.914 9.293 2.080 1166
0.870 8.845 1.986 473
0.914 9.298 2.053 822
0.892 9.067 2.005 364
0.904 9.196 2.004 545
0.890 9.049 1.974 330
0.230 2.288 1.816 5125
0.230 2.293 1.810 10251
0.218 2.173 1.720 404
0.231 2.298 1.803 10251
0.243 2.419 1.892 669
0.231 2.303 1.797 8666
0.243 2.424 1.886 1984
0.232 2.308 1.790 7082
0.244 2.429 1.879 3300
0.241 2.402 1.848 6690
0.229 2.281 1.760 2163
0.241 2.407 1.841 8657
0.229 2.285 1.754 1081
0.242 2.412 1.835 8657
0.254 2.533 1.922 1199
0.242 2.410 1.823 7816
0.254 2.532 1.910 1469
0.242 2.415 1.816 7070
0.255 2.537 1.903 1537
0.243 2.426 1.814 6363
0.256 2.549 1.900 2197
0.246 2.451 1.820 6906
0.258 2.573 1.906 2446
0.248 2.468 1.822 8442
0.260 2.591 1.908 3329
0.249 2.480 1.820 10402
0.261 2.603 1.905 4191
0.249 2.485 1.813 10402
0.262 2.608 1.898 4316
0.251 2.503 1.814 8193
0.263 2.626 1.899 3112
0.259 2.586 1.860 6960
0.247 2.462 1.776 3605
0.259 2.584 1.849 7244
0.247 2.460 1.765 2782
0.260 2.589 1.841 7550
0.247 2.465 1.758 2182
0.261 2.601 1.838 7470
0.248 2.476 1.755 2109
0.262 2.612 1.835 7753
0.250 2.487 1.752 1835
0.263 2.617 1.827 7322
0.275 2.742 1.910 1535
0.263 2.622 1.820 6890
0.276 2.747 1.902 1788
0.264 2.633 1.817 6466
0.277 2.759 1.898 1755
0.266 2.652 1.818 6689
0.279 2.777 1.899 1806
0.266 2.656 1.810 6710
0.279 2.783 1.891 1970
0.268 2.668 1.807 6867
0.280 2.794 1.887 2146
0.268 2.673 1.799 5586
0.281 2.799 1.879 2223
0.268 2.671 1.787 4430
0.281 2.804 1.871 2300
0.278 2.769 1.838 4466
0.265 2.642 1.758 1481
0.279 2.781 1.834 5738
0.292 2.915 1.917 1300
0.279 2.779 1.822 5252
0.295 2.940 1.921 1839
0.279 2.784 1.814 4883
0.295 2.945 1.913 2453
0.288 2.870 1.855 3881
0.275 2.742 1.777 2115
0.289 2.881 1.851 3857
0.276 2.753 1.773 2073
0.290 2.886 1.843 3495
0.302 3.015 1.920 2147
0.290 2.891 1.834 3111
0.303 3.020 1.911 2454
0.298 2.971 1.870 3744
0.285 2.842 1.794 2429
0.301 2.996 1.874 5717
0.288 2.867 1.798 2317
0.302 3.008 1.869 7473
0.289 2.879 1.793 2224
0.303 3.020 1.864 8197
0.290 2.890 1.789 1712
0.303 3.025 1.855 9014
0.316 3.155 1.930 2131
0.305 3.037 1.851 7693
0.318 3.167 1.925 2965
0.306 3.049 1.846 6570
0.319 3.179 1.920 3706
0.306 3.053 1.837 6621
0.319 3.184 1.911 3434
0.307 3.065 1.832 5854
0.321 3.196 1.905 2953
0.308 3.070 1.823 4947
0.321 3.201 1.896 2684
0.319 3.178 1.872 5605
0.306 3.047 1.799 3191
0.319 3.177 1.859 9304
0.305 3.045 1.786 1646
0.319 3.182 1.850 10727
0.306 3.050 1.778 1591
0.320 3.193 1.844 8860
0.334 3.325 1.916 1657
0.322 3.205 1.839 7402
0.335 3.337 1.910 1598
0.322 3.210 1.829 6258
0.335 3.342 1.900 2004
0.323 3.215 1.820 5390
0.336 3.347 1.890 2319
0.323 3.220 1.811 5666
0.310 3.088 1.741 2511
0.324 3.225 1.802 4905
0.310 3.092 1.732 2602
0.315 3.139 1.745 3969
0.335 3.342 1.850 1538
0.315 3.143 1.736 3101
0.329 3.277 1.805 1359
0.317 3.155 1.730 3140
0.350 3.485 1.899 1472
0.317 3.160 1.721 3428
0.347 3.462 1.875 2658
0.346 3.453 1.858 5207
0.317 3.157 1.709 2964
0.347 3.458 1.848 6837
0.313 3.119 1.678 4037
0.348 3.470 1.841 6195
0.313 3.124 1.669 4120
0.364 3.630 1.908 6405
0.350 3.489 1.838 5874
0.365 3.642 1.901 10155
0.351 3.501 1.832 6361
0.367 3.655 1.894 11802
0.352 3.513 1.825 6054
0.369 3.674 1.890 10821
0.354 3.532 1.822 4039
0.369 3.679 1.880 5249
0.356 3.544 1.815 1710
0.366 3.648 1.852 3320
0.383 3.819 1.934 2392
0.366 3.653 1.842 3792
0.384 3.824 1.923 3096
0.368 3.665 1.834 4117
0.385 3.837 1.915 4002
0.373 3.720 1.847 4778
0.387 3.856 1.910 3735
0.376 3.747 1.846 6042
0.390 3.883 1.909 3642
0.386 3.852 1.881 7892
0.373 3.716 1.819 3594
0.387 3.857 1.870 8262
0.373 3.721 1.808 3242
0.389 3.876 1.866 6618
0.375 3.740 1.804 4218
0.394 3.925 1.874 6989
0.377 3.759 1.800 4515
0.393 3.922 1.859 5045
0.378 3.771 1.792 3584
0.404 4.028 1.892 3786
0.390 3.891 1.832 3069
0.405 4.033 1.881 3893
0.391 3.896 1.821 2830
0.409 4.082 1.888 4386
0.396 3.945 1.828 2543
0.411 4.094 1.879 6079
0.397 3.957 1.820 3676
0.410 4.092 1.864 6551
0.397 3.954 1.805 2525
0.410 4.082 1.846 7150
0.423 4.220 1.904 1144
0.411 4.095 1.837 6156
0.425 4.233 1.895 2050
0.413 4.114 1.831 4181
0.427 4.252 1.889 2724
0.418 4.163 1.838 4335
0.431 4.301 1.895 1445
0.420 4.182 1.832 5104
0.436 4.343 1.897 2440
0.425 4.238 1.840 6107
0.439 4.377 1.897 2724
0.426 4.243 1.828 5221
0.440 4.382 1.884 3070
0.435 4.336 1.851 4235
0.421 4.197 1.795 2835
0.435 4.334 1.835 4062
0.421 4.194 1.780 1559
0.437 4.360 1.831 3596
0.451 4.500 1.886 1202
0.439 4.373 1.821 4449
0.453 4.512 1.876 2100
0.440 4.385 1.812 3683
0.454 4.525 1.866 2100
0.445 4.434 1.816 3631
0.464 4.625 1.889 1968
0.445 4.431 1.800 5868
0.461 4.594 1.862 3021
0.445 4.436 1.787 6081
0.459 4.576 1.840 4200
0.457 4.552 1.816 6319
0.475 4.736 1.884 3379
0.475 4.734 1.868 5122
0.457 4.557 1.802 4002
0.475 4.732 1.851 5930
0.458 4.561 1.789 2486
0.468 4.663 1.811 5437
0.483 4.818 1.867 3271
0.485 4.831 1.856 5205
0.467 4.660 1.795 3058
0.485 4.836 1.842 4821
0.499 4.977 1.892 1317
0.489 4.878 1.841 3671
0.475 4.736 1.791 1890
0.500 4.979 1.861 4050
0.485 4.838 1.811 2209
0.501 4.992 1.849 4249
0.517 5.156 1.905 2239
0.502 5.004 1.837 3382
0.518 5.161 1.890 2876
0.521 5.196 1.886 3233
0.504 5.024 1.827 1928
0.521 5.193 1.868 4332
0.535 5.335 1.916 1330
0.522 5.206 1.855 4147
0.536 5.348 1.903 2790
0.536 5.345 1.885 4359
0.522 5.203 1.838 2449
0.537 5.350 1.869 4057
0.522 5.208 1.823 1702
0.536 5.340 1.849 3964
0.521 5.198 1.803 1393
0.535 5.338 1.831 3832
0.563 5.608 1.917 893
0.538 5.365 1.822 2770
0.564 5.621 1.903 1179
0.538 5.363 1.804 2844
0.552 5.505 1.849 2052
0.540 5.382 1.794 3425
0.579 5.774 1.915 1870
0.545 5.432 1.792 2945
0.580 5.779 1.898 2299
0.580 5.784 1.881 2181
0.596 5.942 1.929 1775
0.580 5.782 1.862 1629
0.603 6.016 1.933 1479
0.591 5.892 1.877 2241
0.605 6.036 1.920 1272
0.598 5.958 1.878 2336
0.583 5.814 1.835 1574
0.600 5.978 1.865 2654
0.620 6.182 1.924 1276
0.600 5.983 1.847 1776
0.671 6.687 2.050 1296
0.673 6.708 2.035 2727
0.655 6.526 1.983 1984
0.673 6.713 2.015 3293
0.655 6.531 1.964 2952
0.655 6.529 1.943 4067
0.674 6.719 1.996 3278
0.675 6.724 1.976 3562
0.656 6.542 1.926 3486
0.676 6.737 1.959 4091
0.719 7.170 2.077 2972
0.679 6.765 1.945 3800
0.720 7.176 2.056 3793
0.720 7.182 2.035 3615
0.737 7.349 2.079 2501
0.722 7.195 2.016 3637
0.739 7.362 2.060 2137
0.722 7.200 1.995 2648
0.738 7.360 2.036 1840
0.722 7.198 1.972 1695
0.740 7.373 2.017 1651
0.779 7.761 2.092 2323
0.756 7.532 2.034 1833
0.756 7.537 2.012 2265
0.778 7.751 2.066 1718
0.757 7.542 1.990 2482
0.774 7.718 2.034 1310
0.758 7.555 1.970 1914
0.816 8.130 2.110 1369
0.828 8.250 2.114 1491
0.759 7.568 1.950 1199
0.827 8.240 2.086 1845
0.783 7.804 1.982 1270
0.825 8.223 2.057 1470
0.809 8.062 2.019 845
0.870 8.674 2.136 1020
0.830 8.275 2.044 1016
0.858 8.557 2.083 1215
0.873 8.703 2.116 945
0.859 8.562 2.058 1516
0.877 8.747 2.099 979
0.870 8.668 2.055 1481
0.886 8.829 2.091 1241
0.887 8.843 2.067 1412
0.872 8.696 2.035 934
0.886 8.833 2.038 1105
0.932 9.295 2.137 935
0.920 9.170 2.082 1072
0.935 9.316 2.114 909
0.932 9.291 2.080 1098
0.917 9.144 2.049 475
0.923 9.204 2.034 816
0.938 9.351 2.064 330
0.922 9.194 2.004 552
0.908 9.047 1.974 302
0.233 2.288 1.816 4765
0.234 2.293 1.810 9531
0.221 2.173 1.720 369
0.234 2.298 1.803 9531
0.246 2.418 1.892 678
0.235 2.303 1.797 8022
0.247 2.423 1.886 1903
0.235 2.307 1.790 6512
0.247 2.428 1.879 3128
0.245 2.401 1.848 6428
0.232 2.280 1.760 1901
0.245 2.406 1.841 8327
0.233 2.285 1.754 889
0.246 2.411 1.835 8327
0.258 2.533 1.922 1283
0.246 2.410 1.823 7515
0.258 2.532 1.910 1572
0.246 2.415 1.816 6733
0.259 2.537 1.903 1658
0.247 2.426 1.814 6355
0.260 2.549 1.900 2202
0.250 2.450 1.820 7104
0.262 2.573 1.906 2345
0.252 2.468 1.822 8633
0.264 2.591 1.908 3313
0.253 2.479 1.820 10561
0.265 2.603 1.905 4238
0.253 2.484 1.813 10561
0.266 2.608 1.898 4371
0.254 2.496 1.810 8204
0.267 2.619 1.895 3932
0.264 2.592 1.865 6978
0.252 2.468 1.781 4155
0.264 2.590 1.853 7102
0.251 2.466 1.769 3326
0.264 2.589 1.841 7262
0.251 2.464 1.758 2352
0.265 2.600 1.838 7429
0.252 2.476 1.755 2253
0.266 2.612 1.835 7857
0.253 2.487 1.752 1934
0.267 2.617 1.827 7369
0.279 2.742 1.910 1571
0.267 2.622 1.820 6882
0.280 2.747 1.902 1842
0.268 2.633 1.817 6453
0.281 2.759 1.898 1759
0.270 2.651 1.818 6673
0.283 2.777 1.899 1842
0.271 2.656 1.810 6809
0.284 2.782 1.891 1997
0.272 2.667 1.807 7115
0.285 2.800 1.891 2239
0.272 2.672 1.799 5715
0.285 2.799 1.879 2218
0.272 2.670 1.787 4405
0.285 2.797 1.867 2247
0.282 2.769 1.838 4666
0.269 2.642 1.758 1489
0.283 2.780 1.834 5896
0.297 2.914 1.917 1245
0.283 2.779 1.822 5360
0.299 2.933 1.917 1737
0.284 2.784 1.814 4899
0.300 2.945 1.913 2387
0.292 2.869 1.855 3831
0.279 2.741 1.777 2073
0.294 2.881 1.851 3868
0.281 2.753 1.773 1977
0.294 2.886 1.843 3556
0.307 3.014 1.920 2052
0.295 2.891 1.834 3186
0.308 3.019 1.911 2364
0.303 2.970 1.870 3570
0.290 2.841 1.794 2295
0.305 2.996 1.874 5497
0.292 2.867 1.798 2174
0.307 3.008 1.869 7217
0.293 2.878 1.793 2082
0.308 3.019 1.864 7977
0.295 2.890 1.789 1610
0.308 3.024 1.855 8821
0.321 3.154 1.930 2192
0.309 3.036 1.851 7355
0.323 3.166 1.925 3000
0.311 3.048 1.846 6010
0.324 3.178 1.920 3696
0.311 3.053 1.837 6094
0.324 3.183 1.911 3388
0.312 3.065 1.832 5429
0.326 3.195 1.905 2895
0.313 3.070 1.823 4648
0.326 3.200 1.896 2661
0.324 3.178 1.872 5538
0.311 3.047 1.799 3051
0.324 3.176 1.859 9492
0.310 3.045 1.786 1607
0.324 3.181 1.850 11079
0.311 3.050 1.778 1573
0.325 3.193 1.844 9008
0.339 3.325 1.916 1587
0.327 3.205 1.839 7255
0.340 3.337 1.910 1494
0.326 3.203 1.826 6099
0.340 3.335 1.896 2058
0.328 3.215 1.820 5470
0.341 3.347 1.890 2280
0.328 3.220 1.811 6021
0.315 3.087 1.741 2700
0.319 3.134 1.754 5267
0.333 3.266 1.823 2473
0.320 3.138 1.745 4374
0.351 3.446 1.905 1512
0.318 3.122 1.725 3372
0.332 3.255 1.794 2040
0.321 3.155 1.730 3147
0.359 3.526 1.921 1528
0.323 3.166 1.725 3536
0.353 3.461 1.875 2468
0.352 3.452 1.858 4884
0.322 3.164 1.712 3140
0.352 3.457 1.848 6461
0.318 3.119 1.678 4205
0.354 3.469 1.841 5926
0.318 3.123 1.669 4379
0.370 3.630 1.908 6378
0.356 3.488 1.838 5823
0.371 3.642 1.901 10146
0.357 3.500 1.832 6441
0.372 3.654 1.894 11751
0.358 3.512 1.825 6116
0.374 3.666 1.887 10773
0.359 3.524 1.818 4063
0.375 3.678 1.880 5189
0.361 3.543 1.815 1703
0.372 3.648 1.852 2837
0.388 3.811 1.930 2329
0.372 3.653 1.842 3360
0.390 3.824 1.923 2946
0.374 3.672 1.838 3855
0.391 3.836 1.915 3814
0.378 3.713 1.844 4595
0.392 3.848 1.907 3865
0.391 3.839 1.889 5645
0.377 3.703 1.826 4090
0.392 3.844 1.878 7507
0.378 3.708 1.816 2887
0.393 3.856 1.870 7838
0.379 3.720 1.808 3026
0.395 3.876 1.866 6221
0.381 3.739 1.804 3968
0.399 3.917 1.870 6704
0.383 3.759 1.800 4228
0.399 3.915 1.856 4930
0.384 3.771 1.792 3279
0.410 4.028 1.892 3450
0.397 3.891 1.832 3164
0.411 4.033 1.881 3642
0.397 3.896 1.821 3048
0.416 4.081 1.888 4354
0.402 3.944 1.828 2732
0.417 4.094 1.879 5953
0.403 3.956 1.820 4004
0.417 4.091 1.864 6581
0.403 3.954 1.805 2775
0.417 4.089 1.849 7198
0.403 3.951 1.791 1075
0.417 4.094 1.837 6002
0.431 4.232 1.895 2096
0.419 4.113 1.831 4084
0.433 4.252 1.889 2721
0.424 4.162 1.838 4436
0.438 4.301 1.895 1659
0.426 4.182 1.832 5200
0.443 4.342 1.897 2538
0.432 4.238 1.840 5751
0.446 4.376 1.897 2728
0.432 4.235 1.825 5149
0.446 4.374 1.881 3401
0.442 4.335 1.851 3840
0.428 4.196 1.795 2917
0.442 4.340 1.838 3794
0.428 4.201 1.783 1860
0.444 4.360 1.831 3676
0.459 4.499 1.886 1323
0.446 4.372 1.821 4550
0.460 4.512 1.876 2152
0.447 4.384 1.812 3653
0.461 4.524 1.866 2182
0.451 4.426 1.813 3506
0.465 4.566 1.866 1841
0.452 4.431 1.800 5927
0.468 4.593 1.862 2746
0.452 4.436 1.787 6112
0.466 4.576 1.840 4161
0.464 4.551 1.816 6375
0.482 4.728 1.882 3389
0.482 4.733 1.868 5166
0.464 4.556 1.802 4150
0.482 4.731 1.851 5971
0.466 4.568 1.792 2789
0.476 4.669 1.814 5988
0.492 4.825 1.870 3280
0.492 4.830 1.856 5141
0.475 4.659 1.795 3306
0.493 4.835 1.842 4462
0.507 4.976 1.892 1396
0.497 4.877 1.841 3507
0.483 4.736 1.791 1859
0.507 4.978 1.861 3966
0.493 4.837 1.811 2072
0.509 4.991 1.849 4156
0.525 5.147 1.903 2496
0.509 4.996 1.834 3191
0.525 5.152 1.888 3150
0.529 5.195 1.886 3318
0.513 5.038 1.832 1931
0.529 5.192 1.868 4241
0.515 5.050 1.820 1432
0.530 5.197 1.853 4109
0.544 5.339 1.900 2993
0.545 5.344 1.885 4340
0.530 5.202 1.838 2436
0.545 5.350 1.869 3915
0.531 5.207 1.823 1707
0.543 5.332 1.846 3859
0.529 5.190 1.800 1359
0.544 5.337 1.831 3827
0.571 5.607 1.917 1027
0.547 5.364 1.822 2909
0.572 5.612 1.901 1477
0.546 5.362 1.804 2862
0.573 5.625 1.887 2143
0.548 5.382 1.794 3396
0.588 5.773 1.915 1979
0.553 5.424 1.789 2739
0.589 5.778 1.898 2326
0.589 5.783 1.881 2049
0.606 5.941 1.929 1600
0.614 6.022 1.935 1599
0.588 5.773 1.860 1498
0.601 5.899 1.879 2344
0.616 6.042 1.922 1229
0.606 5.949 1.875 2404
0.592 5.806 1.833 1275
0.608 5.969 1.862 2589
0.642 6.302 1.959 1378
0.610 5.982 1.847 1743
0.644 6.323 1.945 1356
0.684 6.707 2.035 2612
0.665 6.525 1.983 1836
0.684 6.712 2.015 3277
0.666 6.530 1.964 3084
0.666 6.536 1.945 4188
0.685 6.718 1.996 3356
0.685 6.723 1.976 3812
0.667 6.541 1.926 3676
0.686 6.728 1.957 4184
0.731 7.169 2.077 2953
0.731 7.175 2.056 3849
0.689 6.764 1.945 3529
0.732 7.180 2.035 3624
0.749 7.348 2.079 2466
0.733 7.193 2.016 3566
0.750 7.361 2.060 2279
0.734 7.207 1.997 2520
0.750 7.359 2.036 2104
0.790 7.754 2.115 1932
0.751 7.372 2.017 1845
0.790 7.752 2.090 2784
0.767 7.530 2.034 1815
0.768 7.536 2.012 2233
0.790 7.750 2.066 2063
0.769 7.541 1.990 2460
0.786 7.717 2.034 1195
0.770 7.554 1.970 1871
0.829 8.136 2.112 1303
0.842 8.264 2.118 1485
0.771 7.567 1.950 1163
0.840 8.239 2.086 1720
0.794 7.795 1.981 1380
0.838 8.222 2.057 1395
0.794 7.792 1.956 1007
0.883 8.665 2.134 1059
0.844 8.281 2.045 912
0.883 8.663 2.107 1270
0.846 8.302 2.025 822
0.872 8.561 2.058 1511
0.892 8.753 2.101 964
0.883 8.666 2.055 1342
0.900 8.828 2.091 1165
0.902 8.849 2.068 1226
0.919 9.018 2.106 988
0.947 9.293 2.137 1038
0.920 9.032 2.081 960
0.934 9.168 2.082 1025
0.949 9.315 2.114 910
0.947 9.289 2.080 976
0.932 9.143 2.049 494
0.938 9.202 2.034 779
0.953 9.349 2.064 351
0.937 9.193 2.004 544
0.952 9.339 2.034 277
0.237 2.281 1.812 4544
0.238 2.286 1.805 9089
0.250 2.406 1.895 419
0.238 2.291 1.799 9089
0.251 2.411 1.888 839
0.239 2.302 1.797 7589
0.252 2.423 1.886 1880
0.240 2.307 1.790 6115
0.252 2.428 1.879 3020
0.250 2.401 1.848 6308
0.237 2.280 1.760 1756
0.250 2.400 1.837 8136
0.262 2.521 1.925 952
0.250 2.404 1.830 8136
0.263 2.526 1.917 1586
0.251 2.409 1.823 7253
0.263 2.531 1.910 1707
0.251 2.414 1.816 6369
0.264 2.536 1.903 1829
0.253 2.432 1.818 6366
0.266 2.554 1.905 2161
0.255 2.450 1.820 7315
0.267 2.572 1.906 2297
0.257 2.468 1.822 8897
0.269 2.591 1.908 3344
0.258 2.479 1.820 10825
0.271 2.602 1.905 4320
0.258 2.484 1.813 10825
0.271 2.607 1.898 4461
0.259 2.495 1.810 8353
0.272 2.619 1.895 4013
0.269 2.591 1.865 7074
0.257 2.467 1.781 4377
0.269 2.590 1.853 6991
0.256 2.466 1.769 3532
0.269 2.588 1.841 6895
0.256 2.464 1.758 2534
0.270 2.600 1.838 7357
0.257 2.475 1.755 2407
0.272 2.611 1.835 7986
0.259 2.486 1.752 2044
0.272 2.616 1.827 7491
0.285 2.741 1.910 1609
0.273 2.621 1.820 6996
0.286 2.746 1.902 1887
0.274 2.632 1.817 6541
0.287 2.758 1.898 1760
0.275 2.644 1.813 6700
0.288 2.770 1.895 1893
0.276 2.655 1.810 6980
0.289 2.782 1.891 2037
0.277 2.667 1.807 7465
0.291 2.800 1.891 2381
0.278 2.672 1.799 5967
0.291 2.798 1.879 2282
0.278 2.670 1.787 4502
0.291 2.797 1.867 2337
0.288 2.768 1.838 4956
0.275 2.641 1.758 1526
0.289 2.780 1.834 6156
0.302 2.907 1.913 1289
0.289 2.778 1.822 5560
0.304 2.926 1.913 1738
0.289 2.783 1.814 4990
0.306 2.944 1.913 2420
0.298 2.869 1.855 3897
0.285 2.741 1.777 2112
0.299 2.874 1.847 4047
0.312 3.002 1.924 1787
0.300 2.885 1.843 3843
0.313 3.014 1.920 1945
0.301 2.890 1.834 3524
0.314 3.019 1.911 2255
0.309 2.970 1.870 3376
0.295 2.841 1.794 2190
0.311 2.995 1.874 5297
0.298 2.866 1.798 2051
0.313 3.007 1.869 6955
0.299 2.878 1.793 1956
0.314 3.019 1.864 7833
0.327 3.148 1.939 1568
0.314 3.024 1.855 8807
0.328 3.153 1.930 2365
0.316 3.036 1.851 7308
0.329 3.166 1.925 3130
0.317 3.047 1.846 5900
0.330 3.178 1.920 3777
0.317 3.052 1.837 5992
0.331 3.183 1.911 3389
0.319 3.064 1.832 5308
0.332 3.195 1.905 2769
0.319 3.069 1.823 4474
0.333 3.200 1.896 2516
0.330 3.177 1.872 5238
0.317 3.046 1.799 3012
0.330 3.175 1.859 9472
0.317 3.044 1.786 1647
0.331 3.180 1.850 11244
0.317 3.049 1.778 1586
0.331 3.185 1.840 9053
0.345 3.317 1.912 1663
0.333 3.204 1.839 7063
0.347 3.336 1.910 1461
0.333 3.202 1.826 5957
0.347 3.334 1.896 2034
0.333 3.207 1.816 5615
0.347 3.339 1.887 2284
0.335 3.219 1.811 6401
0.321 3.086 1.741 2822
0.326 3.140 1.758 5720
0.340 3.273 1.827 2024
0.326 3.138 1.745 4792
0.358 3.438 1.901 1782
0.325 3.121 1.725 3677
0.338 3.254 1.794 1858
0.327 3.147 1.727 3006
0.367 3.526 1.921 1681
0.329 3.165 1.725 3333
0.359 3.454 1.871 2363
0.359 3.451 1.858 4675
0.323 3.107 1.684 3226
0.359 3.456 1.848 6224
0.324 3.111 1.675 4290
0.360 3.461 1.838 5750
0.324 3.116 1.666 4568
0.377 3.629 1.908 6266
0.363 3.488 1.838 5758
0.379 3.641 1.901 9951
0.364 3.500 1.832 6439
0.380 3.653 1.894 11570
0.365 3.512 1.825 6093
0.381 3.665 1.887 10737
0.366 3.523 1.818 4040
0.382 3.678 1.880 5280
0.368 3.543 1.815 1668
0.382 3.675 1.866 2527
0.396 3.811 1.930 2262
0.382 3.673 1.852 3033
0.398 3.823 1.923 2756
0.382 3.671 1.838 3589
0.399 3.835 1.915 3522
0.385 3.705 1.840 4298
0.399 3.840 1.904 3702
0.399 3.838 1.889 5365
0.385 3.702 1.826 3769
0.400 3.843 1.878 7096
0.385 3.707 1.816 2605
0.401 3.856 1.870 7329
0.387 3.719 1.808 2755
0.403 3.875 1.866 5764
0.389 3.739 1.804 3698
0.407 3.916 1.870 6388
0.391 3.765 1.803 3954
0.407 3.914 1.856 4810
0.392 3.770 1.792 2971
0.405 3.897 1.835 3315
0.419 4.034 1.895 2971
0.406 3.902 1.824 3361
0.420 4.039 1.884 3161
0.424 4.080 1.888 4197
0.410 3.943 1.828 3087
0.426 4.093 1.879 5752
0.411 3.955 1.820 4437
0.425 4.090 1.864 6669
0.411 3.953 1.805 3178
0.425 4.088 1.849 7414
0.411 3.950 1.791 1254
0.426 4.100 1.840 6093
0.441 4.238 1.898 1772
0.428 4.113 1.831 4238
0.442 4.251 1.889 2569
0.433 4.161 1.838 4434
0.447 4.300 1.895 1797
0.435 4.181 1.832 5125
0.451 4.334 1.894 2597
0.441 4.244 1.843 5476
0.456 4.383 1.899 2313
0.440 4.234 1.825 5044
0.455 4.373 1.881 3310
0.439 4.225 1.807 3719
0.454 4.364 1.862 3153
0.450 4.332 1.835 3724
0.436 4.193 1.780 1674
0.453 4.359 1.831 3760
0.468 4.498 1.886 1553
0.455 4.371 1.821 4657
0.469 4.511 1.876 2297
0.456 4.383 1.812 3708
0.470 4.523 1.866 2299
0.460 4.425 1.813 3495
0.475 4.565 1.866 1921
0.460 4.422 1.797 6053
0.474 4.562 1.850 2767
0.461 4.435 1.787 6162
0.476 4.575 1.840 3962
0.473 4.550 1.816 6267
0.492 4.727 1.882 3447
0.492 4.732 1.868 5252
0.474 4.555 1.802 4270
0.486 4.671 1.830 6172
0.471 4.530 1.778 2177
0.486 4.676 1.816 6434
0.502 4.824 1.870 3163
0.502 4.829 1.856 4953
0.485 4.666 1.797 3423
0.503 4.841 1.845 4012
0.518 4.982 1.895 1365
0.507 4.876 1.841 3484
0.492 4.735 1.791 1736
0.518 4.977 1.861 3960
0.503 4.836 1.811 2101
0.519 4.990 1.849 3880
0.534 5.139 1.900 2694
0.535 5.144 1.885 3335
0.520 5.002 1.837 2904
0.540 5.194 1.886 3271
0.525 5.044 1.835 2023
0.539 5.184 1.865 4025
