-1.778 2.361 1.716 5658
-1.764 2.342 1.692 5400
-1.758 2.335 1.676 6788
-1.765 2.344 1.671 6159
-1.789 2.376 1.682 5506
-1.800 2.390 1.680 6313
-1.866 2.478 1.727 6706
-1.873 2.487 1.721 7922
-1.880 2.497 1.716 9161
-1.879 2.495 1.703 8684
-1.899 2.521 1.709 6920
-1.910 2.536 1.707 8133
-1.913 2.540 1.698 9283
-1.920 2.549 1.692 10728
-1.927 2.558 1.686 10978
-1.934 2.567 1.681 9061
-1.953 2.594 1.685 7318
-1.960 2.603 1.679 5600
-1.989 2.641 1.690 5698
-1.992 2.644 1.681 5184
-1.973 2.619 1.655 6300
-1.984 2.634 1.652 5975
-2.082 2.764 1.715 4488
-2.089 2.774 1.709 5921
-2.092 2.777 1.699 6036
-2.073 2.752 1.673 3837
-2.088 2.773 1.672 4759
-2.100 2.788 1.669 6883
-2.129 2.826 1.678 6557
-2.136 2.836 1.671 7032
-2.156 2.862 1.673 7934
-2.167 2.878 1.669 10189
-2.174 2.887 1.662 11810
-2.173 2.885 1.649 9531
-2.228 2.958 1.675 5734
-2.244 2.979 1.674 5005
-2.273 3.018 1.681 8106
-2.276 3.021 1.670 7686
-2.274 3.019 1.656 5079
-2.285 3.034 1.651 6309
-2.306 3.061 1.652 7322
-2.317 3.077 1.647 6224
-2.315 3.074 1.633 4632
-2.314 3.072 1.619 4329
-2.418 3.211 1.673 5836
-2.425 3.220 1.665 4440
-2.455 3.259 1.670 5345
-2.457 3.263 1.658 6439
-2.465 3.272 1.649 5028
-2.467 3.276 1.637 4197
-2.474 3.285 1.628 4451
-2.477 3.289 1.616 4394
-2.605 3.459 1.680 4768
-2.603 3.456 1.665 4205
-2.601 3.454 1.649 3266
-2.712 3.601 1.700 2106
-2.755 3.658 1.710 3267
-2.740 3.638 1.687 5550
-2.725 3.618 1.663 7054
-2.727 3.621 1.650 5410
-2.775 3.685 1.662 4332
-2.782 3.694 1.651 5096
-2.866 3.806 1.682 4639
-2.864 3.803 1.666 6246
-2.872 3.813 1.655 4733
-2.892 3.841 1.651 3897
-2.986 3.965 1.684 3400
-2.971 3.944 1.660 5516
-2.969 3.942 1.644 6502
-2.976 3.951 1.632 3939
-2.992 3.973 1.625 2442
-2.995 3.976 1.610 2089
-3.130 4.156 1.661 2852
-3.059 4.062 1.610 2769
-3.140 4.169 1.633 1845
-3.138 4.166 1.616 1863
-3.255 4.322 1.654 2594
-3.262 4.331 1.641 2948
-3.352 4.450 1.665 7320
-3.354 4.454 1.649 12022
-3.362 4.464 1.635 9518
-3.364 4.467 1.619 9590
-3.367 4.471 1.603 9852
-3.369 4.474 1.587 5432
-3.612 4.796 1.673 5456
-3.615 4.799 1.656 5721
-3.617 4.803 1.638 5609
-3.620 4.806 1.621 4590
-3.618 4.804 1.602 3648
-3.755 4.985 1.638 3748
-3.766 5.001 1.624 3265
-3.890 5.164 1.653 2540
-3.985 5.291 1.670 2828
-3.988 5.295 1.651 3518
-4.055 5.384 1.656 2962
-4.058 5.388 1.637 1893
-4.261 5.657 1.691 1351
-4.403 5.846 1.721 1946
-4.406 5.850 1.699 2231
-4.506 5.983 1.713 2558
-4.504 5.981 1.689 2369
-4.414 5.860 1.636 1696
-4.729 6.279 1.720 1807
-4.736 6.289 1.698 2867
-4.744 6.299 1.677 2582
-4.934 6.551 1.714 1650
-5.231 6.946 1.784 1360
-5.234 6.949 1.758 1677
-5.368 7.127 1.773 2279
-5.371 7.131 1.747 2019
-5.359 7.116 1.717 1316
-5.465 7.257 1.722 1763
-5.464 7.254 1.694 2090
-5.584 7.414 1.700 1849
-5.586 7.417 1.674 1786
-5.566 7.390 1.640 1581
-5.559 7.381 1.611 1970
-5.688 7.553 1.617 1381
-5.691 7.556 1.590 1286
-5.693 7.560 1.562 916
-5.578 7.406 1.506 645
-5.698 7.566 1.507 567
-5.701 7.569 1.480 487
-5.703 7.572 1.452 308
-1.367 1.816 1.774 2818
-1.370 1.820 1.767 5636
-1.372 1.824 1.761 5636
-1.375 1.828 1.754 6460
-1.378 1.831 1.748 7283
-1.385 1.840 1.746 6616
-1.388 1.844 1.739 5990
-1.390 1.848 1.733 5990
-1.397 1.857 1.731 7634
-1.408 1.871 1.733 9686
-1.426 1.895 1.744 9697
-1.433 1.904 1.742 11791
-1.436 1.908 1.735 9344
-1.446 1.922 1.737 6935
-1.453 1.931 1.735 6027
-1.456 1.935 1.728 5141
-1.455 1.933 1.717 5083
-1.461 1.942 1.714 4820
-1.472 1.956 1.716 4768
-1.479 1.965 1.713 4065
-1.490 1.980 1.715 3833
-1.528 2.031 1.746 3689
-1.535 2.040 1.743 4597
-1.542 2.049 1.740 4904
-1.553 2.064 1.741 5733
-1.564 2.078 1.742 6780
-1.570 2.087 1.739 8650
-1.577 2.096 1.736 9468
-1.580 2.100 1.728 10390
-1.579 2.098 1.717 8823
-1.582 2.102 1.709 7387
-1.593 2.116 1.710 6499
-1.608 2.136 1.715 6844
-1.610 2.140 1.707 8379
-1.613 2.144 1.699 9186
-1.616 2.147 1.692 8132
-1.618 2.151 1.684 5819
-1.621 2.155 1.676 3830
-1.665 2.213 1.708 4444
-1.672 2.222 1.704 5760
-1.687 2.242 1.708 5607
-1.694 2.251 1.704 6315
-1.697 2.255 1.696 5689
-1.745 2.319 1.730 4109
-1.744 2.317 1.718 4599
-1.755 2.332 1.717 5215
-1.766 2.347 1.716 6186
-1.777 2.362 1.716 5682
-1.763 2.343 1.692 5477
-1.757 2.336 1.676 6850
-1.764 2.345 1.671 6152
-1.788 2.376 1.682 5404
-1.803 2.397 1.684 6228
-1.865 2.479 1.727 6762
-1.872 2.488 1.721 8056
-1.879 2.498 1.716 9239
-1.878 2.496 1.703 8732
-1.897 2.522 1.709 6870
-1.909 2.537 1.707 8061
-1.911 2.540 1.698 9267
-1.918 2.550 1.692 10924
-1.925 2.559 1.686 11335
-1.937 2.574 1.684 9420
-1.952 2.595 1.685 7367
-1.955 2.598 1.676 5431
-1.992 2.647 1.694 5395
-1.965 2.611 1.661 4926
-1.972 2.620 1.655 6148
-1.983 2.635 1.652 5821
-2.081 2.765 1.715 4333
-2.088 2.775 1.709 5796
-2.090 2.778 1.699 5991
-2.071 2.753 1.673 3928
-2.087 2.774 1.672 4794
-2.094 2.783 1.666 6850
-2.127 2.827 1.678 6515
-2.134 2.837 1.671 6962
-2.155 2.863 1.673 7732
-2.166 2.879 1.669 9896
-2.173 2.888 1.662 11497
-2.171 2.886 1.649 9419
-2.227 2.959 1.675 5633
-2.238 2.974 1.670 4903
-2.272 3.019 1.681 8243
-2.274 3.022 1.670 7890
-2.272 3.020 1.656 5130
-2.284 3.035 1.651 6278
-2.304 3.062 1.652 7171
-2.316 3.078 1.647 6057
-2.314 3.075 1.633 4507
-2.419 3.214 1.688 4538
-2.417 3.212 1.673 6384
-2.424 3.221 1.665 4649
-2.440 3.243 1.662 4512
-2.447 3.252 1.653 5671
-2.454 3.262 1.644 4782
-2.466 3.277 1.637 4788
-2.477 3.292 1.631 4358
-2.534 3.367 1.652 4188
-2.603 3.460 1.680 4486
-2.602 3.458 1.665 3952
-2.600 3.455 1.649 3126
-2.710 3.602 1.700 2002
-2.753 3.659 1.710 3307
-2.738 3.639 1.687 5496
-2.723 3.619 1.663 6970
-2.726 3.622 1.650 5390
-2.773 3.686 1.662 4272
-2.781 3.695 1.651 5003
-2.865 3.807 1.682 4536
-2.863 3.805 1.666 6120
-2.870 3.814 1.655 4719
-2.891 3.842 1.651 3968
-2.898 3.851 1.639 3324
-2.969 3.945 1.660 5346
-2.967 3.943 1.644 6364
-2.974 3.953 1.632 3958
-2.990 3.974 1.625 2585
-2.993 3.978 1.610 2225
-3.128 4.157 1.661 3028
-3.131 4.160 1.646 2748
-3.138 4.170 1.633 1867
-3.337 4.435 1.711 1799
-3.253 4.323 1.654 2529
-3.260 4.333 1.641 2988
-3.350 4.452 1.665 7510
-3.353 4.456 1.649 12500
-3.360 4.465 1.635 9889
-3.362 4.469 1.619 9824
-3.365 4.472 1.603 10026
-3.367 4.475 1.587 5388
-3.610 4.797 1.673 4928
-3.612 4.801 1.656 5249
-3.620 4.811 1.640 5240
-3.618 4.808 1.621 4248
-3.616 4.805 1.602 3358
-3.752 4.987 1.638 3617
-3.764 5.003 1.624 3189
-3.883 5.160 1.651 2646
-3.983 5.293 1.670 2799
-3.985 5.296 1.651 3407
-4.053 5.386 1.656 3036
-4.056 5.390 1.637 1895
-4.258 5.659 1.691 1387
-4.400 5.848 1.721 1978
-4.408 5.858 1.701 2240
-4.504 5.985 1.713 2528
-4.502 5.983 1.689 2363
-4.411 5.862 1.636 1754
-4.726 6.281 1.720 1813
-4.734 6.291 1.698 2864
-4.741 6.301 1.677 2572
-4.931 6.553 1.714 1671
-5.228 6.948 1.784 1317
-5.226 6.946 1.757 1609
-5.365 7.130 1.773 2252
-5.363 7.127 1.746 2005
-5.352 7.112 1.716 1396
-5.462 7.259 1.722 1841
-5.460 7.257 1.694 2131
-5.580 7.416 1.700 1873
-5.583 7.420 1.674 1778
-5.562 7.392 1.640 1583
-5.555 7.383 1.611 2034
-5.563 7.393 1.585 1404
-5.688 7.559 1.590 1254
-5.572 7.406 1.533 958
-5.580 7.415 1.507 747
-5.695 7.569 1.507 548
-5.697 7.572 1.480 477
-5.700 7.575 1.452 304
-1.365 1.817 1.774 2845
-1.368 1.821 1.767 5691
-1.371 1.825 1.761 5691
-1.374 1.829 1.754 6504
-1.377 1.832 1.748 7317
-1.383 1.841 1.746 6610
-1.386 1.845 1.739 5920
-1.389 1.849 1.733 5920
-1.400 1.863 1.735 7571
-1.406 1.872 1.733 9600
-1.425 1.896 1.744 9517
-1.431 1.905 1.742 11523
-1.434 1.909 1.735 9119
-1.445 1.923 1.737 6752
-1.452 1.932 1.735 5948
-1.454 1.936 1.728 5155
-1.453 1.934 1.717 5094
-1.460 1.943 1.714 4777
-1.471 1.957 1.716 4643
-1.477 1.966 1.713 3944
-1.488 1.981 1.715 3702
-1.531 2.037 1.751 3645
-1.534 2.041 1.743 4539
-1.541 2.050 1.740 4837
-1.551 2.065 1.741 5603
-1.562 2.079 1.742 6668
-1.569 2.088 1.739 8558
-1.576 2.097 1.736 9354
-1.579 2.101 1.728 10272
-1.577 2.099 1.717 8596
-1.580 2.103 1.709 7062
-1.595 2.123 1.714 6279
-1.606 2.137 1.715 6705
-1.609 2.141 1.707 8291
-1.612 2.145 1.699 9179
-1.614 2.148 1.692 8124
-1.617 2.152 1.684 5805
-1.620 2.156 1.676 3842
-1.664 2.214 1.708 4583
-1.670 2.223 1.704 5912
-1.686 2.243 1.708 5674
-1.692 2.252 1.704 6381
-1.695 2.256 1.696 5757
-1.744 2.321 1.730 4129
-1.746 2.324 1.722 4556
-1.753 2.333 1.717 5246
-1.764 2.348 1.716 6271
-1.775 2.363 1.716 5648
-1.762 2.344 1.692 5311
-1.752 2.331 1.672 6714
-1.759 2.340 1.668 5983
-1.786 2.378 1.682 5264
-1.802 2.398 1.684 6102
-1.864 2.480 1.727 6640
-1.871 2.489 1.721 7922
-1.878 2.499 1.716 9027
-1.876 2.497 1.703 8465
-1.896 2.523 1.709 6532
-1.907 2.538 1.707 7897
-1.910 2.542 1.698 9268
-1.917 2.551 1.692 11106
-1.924 2.560 1.686 11622
-1.935 2.575 1.684 9705
-1.950 2.596 1.685 7406
-1.953 2.600 1.676 5291
-1.986 2.643 1.690 5074
-1.963 2.612 1.661 4872
-1.966 2.616 1.651 6158
-1.981 2.637 1.652 5770
-2.083 2.772 1.719 4096
-2.086 2.776 1.709 5577
-2.084 2.774 1.696 5860
-2.070 2.754 1.673 4038
-2.085 2.775 1.672 4849
-2.092 2.785 1.666 6859
-2.125 2.829 1.678 6563
-2.132 2.838 1.671 7050
-2.153 2.865 1.673 7728
-2.164 2.880 1.669 9747
-2.171 2.889 1.662 11255
-2.169 2.887 1.649 9279
-2.225 2.961 1.675 5712
-2.236 2.976 1.670 5033
-2.269 3.020 1.681 8375
-2.268 3.018 1.667 8006
-2.275 3.028 1.659 5121
-2.282 3.037 1.651 6209
-2.302 3.064 1.652 6976
-2.314 3.079 1.647 5838
-2.312 3.077 1.633 4223
-2.421 3.222 1.691 4734
-2.415 3.214 1.673 6815
-2.417 3.217 1.662 5124
-2.433 3.239 1.659 4197
-2.445 3.254 1.653 5567
-2.456 3.269 1.646 3716
-2.477 3.297 1.646 2652
-2.506 3.336 1.650 3675
-2.527 3.363 1.649 4289
-2.601 3.462 1.680 4183
-2.599 3.459 1.665 3625
-2.597 3.457 1.649 2942
-2.703 3.598 1.697 1952
-2.751 3.661 1.710 3237
-2.736 3.641 1.687 5306
-2.720 3.621 1.663 6849
-2.723 3.624 1.650 5451
-2.771 3.688 1.662 4150
-2.783 3.703 1.654 4957
-2.862 3.809 1.682 4470
-2.860 3.807 1.666 5970
-2.867 3.816 1.655 4664
-2.884 3.838 1.648 3982
-2.895 3.853 1.639 3173
-2.966 3.948 1.660 5172
-2.964 3.945 1.644 6270
-2.971 3.955 1.632 4045
-2.983 3.970 1.622 2736
-2.990 3.980 1.610 2381
-3.125 4.159 1.661 3108
-3.128 4.163 1.646 2839
-3.135 4.172 1.633 1946
-3.133 4.170 1.616 1919
-3.250 4.325 1.654 2518
-3.257 4.335 1.641 3036
-3.347 4.454 1.665 7655
-3.349 4.458 1.649 12655
-3.357 4.467 1.635 10093
-3.359 4.471 1.619 10142
-3.362 4.474 1.603 10406
-3.364 4.478 1.587 5546
-3.606 4.800 1.673 4509
-3.609 4.803 1.656 4862
-3.616 4.813 1.640 4999
-3.610 4.804 1.619 4030
-3.612 4.808 1.602 3139
-3.744 4.983 1.636 3512
-3.761 5.005 1.624 3055
-3.879 5.163 1.651 2686
-3.979 5.296 1.670 2726
-3.982 5.299 1.651 3300
-4.049 5.389 1.656 3072
-4.052 5.393 1.637 1912
-4.259 5.668 1.692 1409
-4.396 5.851 1.721 1982
-4.404 5.861 1.701 2271
-4.499 5.988 1.713 2475
-4.497 5.986 1.689 2384
-4.407 5.865 1.636 1770
-4.722 6.284 1.720 1782
-4.729 6.294 1.698 2770
-4.737 6.304 1.677 2486
-4.921 6.550 1.713 1694
-4.891 6.510 1.679 1309
-5.226 6.955 1.758 1556
-5.360 7.133 1.773 2239
-5.358 7.131 1.746 2008
-5.347 7.116 1.716 1486
-5.457 7.263 1.722 1905
-5.455 7.260 1.694 2152
-5.575 7.420 1.700 1882
-5.578 7.424 1.674 1740
-5.552 7.390 1.639 1539
-5.550 7.387 1.611 2004
-5.558 7.397 1.585 1374
-5.682 7.563 1.590 1226
-5.567 7.410 1.533 939
-5.579 7.425 1.508 804
-5.690 7.573 1.507 542
-5.692 7.576 1.480 483
-5.694 7.579 1.452 292
-1.364 1.818 1.774 2864
-1.367 1.822 1.767 5728
-1.370 1.826 1.761 5728
-1.373 1.830 1.754 6579
-1.379 1.838 1.752 7430
-1.382 1.842 1.746 6664
-1.385 1.846 1.739 5898
-1.388 1.850 1.733 5898
-1.398 1.864 1.735 7557
-1.405 1.873 1.733 9546
-1.423 1.897 1.744 9388
-1.430 1.906 1.742 11321
-1.433 1.910 1.735 8955
-1.444 1.924 1.737 6611
-1.450 1.933 1.735 5885
-1.453 1.937 1.728 5164
-1.456 1.940 1.721 5102
-1.459 1.944 1.714 4757
-1.469 1.958 1.716 4582
-1.476 1.967 1.713 3883
-1.487 1.982 1.715 3668
-1.525 2.033 1.746 3631
-1.532 2.042 1.743 4516
-1.539 2.051 1.740 4783
-1.550 2.066 1.741 5513
-1.561 2.080 1.742 6604
-1.568 2.089 1.739 8518
-1.574 2.098 1.736 9329
-1.577 2.102 1.728 10266
-1.576 2.100 1.717 8523
-1.579 2.104 1.709 6919
-1.594 2.124 1.714 6174
-1.605 2.139 1.715 6637
-1.607 2.142 1.707 8305
-1.610 2.146 1.699 9285
-1.613 2.150 1.692 8226
-1.615 2.153 1.684 5843
-1.618 2.157 1.676 3831
-1.666 2.221 1.712 4654
-1.669 2.224 1.704 5970
-1.684 2.244 1.708 5776
-1.691 2.254 1.704 6537
-1.694 2.257 1.696 5892
-1.742 2.322 1.730 3964
-1.745 2.325 1.722 4302
-1.756 2.340 1.721 5047
-1.763 2.349 1.716 6127
-1.774 2.364 1.716 5527
-1.760 2.346 1.692 5200
-1.750 2.332 1.672 6674
-1.757 2.342 1.668 5900
-1.785 2.379 1.682 5362
-1.796 2.394 1.680 6209
-1.862 2.481 1.727 6547
-1.869 2.491 1.721 7943
-1.876 2.500 1.716 9014
-1.874 2.498 1.703 8388
-1.898 2.530 1.712 6682
-1.905 2.539 1.707 8189
-1.908 2.543 1.698 9428
-1.915 2.552 1.692 11248
-1.922 2.562 1.686 11861
-1.933 2.577 1.684 9929
-1.949 2.597 1.685 7379
-1.951 2.601 1.676 5117
-1.988 2.650 1.694 4842
-1.957 2.608 1.657 4834
-1.964 2.617 1.651 6103
-1.979 2.638 1.652 5649
-1.991 2.653 1.649 4021
-2.084 2.777 1.709 5423
-2.082 2.775 1.696 5803
-2.068 2.756 1.673 4040
-2.083 2.777 1.672 4968
-2.095 2.792 1.669 7008
-2.123 2.830 1.678 6736
-2.130 2.840 1.671 7186
-2.151 2.866 1.673 7625
-2.162 2.882 1.669 9528
-2.169 2.891 1.662 11030
-2.167 2.889 1.649 9090
-2.223 2.962 1.675 5828
-2.234 2.977 1.670 5195
-2.267 3.022 1.681 8561
-2.266 3.020 1.667 8282
-2.273 3.029 1.659 5253
-2.280 3.039 1.651 6260
-2.287 3.048 1.643 6981
-2.312 3.081 1.647 5866
-2.416 3.220 1.702 4397
-2.419 3.224 1.691 4990
-2.417 3.221 1.676 7056
-2.420 3.225 1.665 5516
-2.449 3.264 1.670 4927
-2.456 3.273 1.661 6921
-2.454 3.271 1.646 5578
-2.457 3.275 1.635 3832
-2.535 3.379 1.669 3608
-2.529 3.371 1.652 4300
-2.594 3.458 1.677 4009
-2.592 3.455 1.662 3469
-2.595 3.459 1.649 2780
-2.701 3.600 1.697 2029
-2.748 3.663 1.710 3110
-2.733 3.643 1.687 5183
-2.713 3.617 1.661 6981
-2.721 3.626 1.650 5596
-2.768 3.690 1.662 4060
-2.780 3.705 1.654 5006
-2.859 3.811 1.682 4410
-2.858 3.809 1.666 5856
-2.865 3.818 1.655 4634
-2.881 3.840 1.648 4020
-2.893 3.855 1.639 3071
-2.963 3.950 1.660 5055
-2.961 3.947 1.644 6029
-2.969 3.957 1.632 4120
-2.980 3.972 1.622 2966
-2.987 3.982 1.610 2524
-3.122 4.161 1.661 3140
-3.125 4.165 1.646 2876
-3.132 4.174 1.633 1903
-3.130 4.172 1.616 1894
-3.247 4.328 1.654 2489
-3.254 4.337 1.641 2879
-3.344 4.457 1.665 7603
-3.346 4.460 1.649 12614
-3.354 4.470 1.635 10121
-3.356 4.473 1.619 10182
-3.359 4.477 1.603 10490
-3.361 4.480 1.587 5674
-3.608 4.808 1.675 4161
-3.606 4.806 1.656 4515
-3.613 4.816 1.640 4702
-3.606 4.807 1.619 3792
-3.738 4.982 1.654 2938
-3.741 4.986 1.636 3553
-3.757 5.008 1.624 3035
-3.875 5.165 1.651 2675
-3.975 5.298 1.670 2662
-3.978 5.302 1.651 3204
-4.045 5.392 1.656 3085
-4.048 5.395 1.637 1920
-4.255 5.671 1.692 1360
-4.392 5.854 1.721 1977
-4.400 5.864 1.701 2333
-4.495 5.991 1.713 2431
-4.493 5.989 1.689 2354
-4.403 5.868 1.636 1781
-4.718 6.288 1.720 1769
-4.725 6.298 1.698 2794
-4.732 6.307 1.677 2520
-4.917 6.553 1.713 1666
-4.887 6.514 1.679 1344
-5.217 6.953 1.757 1462
-5.355 7.137 1.773 2207
-5.353 7.135 1.746 1985
-5.445 7.257 1.747 1453
-5.452 7.267 1.722 1926
-5.450 7.264 1.694 2105
-5.570 7.424 1.700 1837
-5.577 7.434 1.675 1624
-5.547 7.394 1.639 1397
-5.545 7.391 1.611 1820
-5.674 7.563 1.617 1295
-5.677 7.567 1.590 1195
-5.567 7.420 1.534 955
-5.574 7.429 1.508 873
-5.576 7.432 1.481 534
-5.687 7.580 1.480 461
-5.689 7.583 1.452 293
-1.363 1.819 1.774 2827
-1.366 1.822 1.767 5655
-1.369 1.826 1.761 5655
-1.372 1.830 1.754 6578
-1.375 1.834 1.748 7500
-1.382 1.843 1.746 6674
-1.384 1.846 1.739 5855
-1.387 1.850 1.733 5855
-1.398 1.864 1.735 7477
-1.404 1.873 1.733 9403
-1.423 1.898 1.744 9227
-1.429 1.907 1.742 11104
-1.432 1.910 1.735 8788
-1.443 1.925 1.737 6482
-1.450 1.934 1.735 5816
-1.452 1.937 1.728 5155
-1.451 1.936 1.717 5095
-1.458 1.945 1.714 4713
-1.469 1.959 1.716 4511
-1.479 1.973 1.718 3834
-1.490 1.988 1.719 3661
-1.525 2.034 1.746 3596
-1.532 2.043 1.743 4507
-1.538 2.052 1.740 4821
-1.549 2.066 1.741 5544
-1.560 2.081 1.742 6606
-1.567 2.090 1.739 8529
-1.574 2.099 1.736 9331
-1.576 2.103 1.728 10271
-1.579 2.106 1.721 8473
-1.578 2.105 1.709 6815
-1.593 2.125 1.714 6127
-1.604 2.139 1.715 6646
-1.607 2.143 1.707 8326
-1.609 2.146 1.699 9302
-1.612 2.150 1.692 8192
-1.615 2.154 1.684 5805
-1.617 2.157 1.676 3824
-1.665 2.221 1.712 4652
-1.668 2.225 1.704 5946
-1.683 2.245 1.708 5811
-1.690 2.254 1.704 6644
-1.693 2.258 1.696 6103
-1.691 2.256 1.684 4128
-1.744 2.326 1.722 4231
-1.755 2.341 1.721 5105
-1.762 2.350 1.716 6258
-1.773 2.365 1.716 5544
-1.755 2.341 1.688 5167
-1.749 2.333 1.672 6692
-1.756 2.342 1.668 5944
-1.784 2.379 1.682 5411
-1.795 2.394 1.680 6184
-1.861 2.482 1.727 6401
-1.868 2.491 1.721 7795
-1.875 2.501 1.716 8799
-1.873 2.499 1.703 8096
-1.897 2.531 1.712 6762
-1.904 2.540 1.707 8405
-1.907 2.544 1.698 9602
-1.918 2.559 1.696 11450
-1.921 2.562 1.686 12132
-1.932 2.577 1.684 10235
-1.948 2.598 1.685 7419
-1.946 2.596 1.672 4951
-1.987 2.651 1.694 4579
-1.956 2.609 1.657 4831
-1.963 2.618 1.651 6052
-1.978 2.639 1.652 5499
-1.990 2.654 1.649 3943
-2.083 2.778 1.709 5308
-2.081 2.776 1.696 5784
-2.067 2.757 1.673 4083
-2.082 2.777 1.672 5020
-2.094 2.793 1.669 7076
-2.122 2.831 1.678 6798
-2.125 2.835 1.668 7205
-2.150 2.867 1.673 7427
-2.161 2.882 1.669 9246
-2.168 2.892 1.662 10804
-2.166 2.889 1.649 8961
-2.221 2.963 1.675 5765
-2.233 2.978 1.670 5224
-2.266 3.023 1.681 8732
-2.265 3.021 1.667 8573
-2.272 3.030 1.659 5400
-2.279 3.039 1.651 6356
-2.299 3.066 1.652 7141
-2.310 3.082 1.647 6026
-2.415 3.221 1.702 4549
-2.417 3.224 1.691 5127
-2.416 3.222 1.676 6955
-2.418 3.226 1.665 5607
-2.452 3.271 1.673 5908
-2.459 3.280 1.664 8106
-2.457 3.278 1.649 6333
-2.456 3.275 1.635 4627
-2.467 3.291 1.628 4172
-2.528 3.372 1.652 4212
-2.593 3.459 1.677 3648
-2.591 3.456 1.662 3316
-2.594 3.460 1.649 2724
-2.700 3.601 1.697 2163
-2.747 3.664 1.710 3039
-2.732 3.644 1.687 4954
-2.712 3.617 1.661 6555
-2.719 3.627 1.650 5316
-2.767 3.691 1.662 4023
-2.779 3.706 1.654 5172
-2.858 3.812 1.682 4303
-2.856 3.810 1.666 5710
-2.863 3.819 1.655 4607
-2.880 3.841 1.648 4128
-2.891 3.856 1.639 3015
-2.962 3.951 1.660 4928
-2.960 3.948 1.644 5963
-2.967 3.958 1.632 4217
-2.979 3.973 1.622 3131
-2.986 3.983 1.610 2677
-3.121 4.162 1.661 3211
-3.123 4.166 1.646 2933
-3.130 4.175 1.633 1946
-3.129 4.173 1.616 1982
-3.245 4.329 1.654 2529
-3.253 4.338 1.641 2849
-3.342 4.458 1.665 7464
-3.345 4.461 1.649 12428
-3.352 4.471 1.635 10180
-3.355 4.474 1.619 10147
-3.357 4.478 1.603 10259
-3.360 4.481 1.587 5570
-3.606 4.810 1.675 3852
-3.604 4.807 1.656 4216
-3.611 4.817 1.640 4489
-3.605 4.808 1.619 3504
-3.736 4.984 1.654 2969
-3.739 4.987 1.636 3562
-3.755 5.009 1.624 2940
-3.874 5.167 1.651 2748
-3.969 5.294 1.668 2600
-4.032 5.377 1.672 3197
-4.044 5.393 1.656 3146
-4.046 5.397 1.637 1969
-4.077 5.437 1.628 1332
-4.390 5.856 1.721 1975
-4.397 5.865 1.701 2381
-4.493 5.993 1.713 2413
-4.491 5.990 1.689 2380
-4.401 5.870 1.636 1805
-4.715 6.289 1.720 1770
-4.723 6.299 1.698 2797
-4.730 6.309 1.677 2512
-4.915 6.555 1.713 1649
-4.885 6.515 1.679 1420
-5.219 6.961 1.758 1395
-5.352 7.139 1.773 2206
-5.355 7.143 1.747 1982
-5.433 7.246 1.744 1536
-5.445 7.263 1.720 1916
-5.448 7.266 1.694 2047
-5.567 7.426 1.700 1765
-5.575 7.436 1.675 1482
-5.521 7.364 1.633 1344
-5.543 7.393 1.611 1705
-5.672 7.565 1.617 1271
-5.674 7.569 1.590 1175
-5.559 7.415 1.533 982
-5.567 7.425 1.507 864
-5.682 7.578 1.507 493
-5.684 7.582 1.480 453
-5.686 7.585 1.452 286
-1.363 1.819 1.774 2840
-1.366 1.823 1.767 5680
-1.369 1.827 1.761 5680
-1.372 1.830 1.754 6922
-1.374 1.834 1.748 8163
-1.381 1.843 1.746 7045
-1.384 1.847 1.739 5941
-1.387 1.850 1.733 5941
-1.393 1.859 1.731 7061
-1.404 1.873 1.733 8602
-1.418 1.893 1.740 8571
-1.429 1.907 1.742 9828
-1.428 1.905 1.731 7898
-1.474 1.967 1.773 7122
-1.477 1.971 1.766 6318
-1.452 1.938 1.728 6203
-1.451 1.936 1.717 6147
-1.454 1.940 1.710 5053
-1.460 1.949 1.707 3984
-1.507 2.011 1.748 3303
-1.502 2.004 1.732 3963
-1.516 2.023 1.738 3912
-1.531 2.043 1.743 4856
-1.538 2.052 1.740 5416
-1.545 2.061 1.737 6190
-1.556 2.076 1.738 6374
-1.566 2.090 1.739 7939
-1.573 2.099 1.736 8504
-1.580 2.108 1.733 9304
-1.583 2.112 1.725 7239
-1.590 2.121 1.722 5300
-1.601 2.136 1.722 6242
-1.603 2.139 1.715 7583
-1.606 2.143 1.707 9371
-1.613 2.152 1.703 10350
-1.616 2.156 1.696 8598
-1.614 2.154 1.684 5915
-1.617 2.158 1.676 3994
-1.665 2.222 1.712 5107
-1.668 2.225 1.704 6426
-1.683 2.245 1.708 6809
-1.690 2.255 1.704 8106
-1.692 2.258 1.696 8040
-1.691 2.256 1.684 6820
-1.694 2.260 1.676 5578
-1.759 2.347 1.725 5639
-1.761 2.350 1.716 7093
-1.777 2.371 1.719 5891
-1.754 2.341 1.688 4991
-1.749 2.333 1.672 6465
-1.756 2.343 1.668 5729
-1.783 2.380 1.682 5542
-1.795 2.395 1.680 6286
-1.801 2.404 1.675 5750
-1.863 2.486 1.718 7328
-1.870 2.496 1.712 7977
-1.869 2.494 1.700 6829
-1.897 2.531 1.712 5869
-1.904 2.540 1.707 7734
-1.911 2.550 1.701 9733
-1.918 2.559 1.696 13526
-1.925 2.568 1.690 15589
-1.936 2.583 1.688 13344
-1.943 2.593 1.682 8501
-1.933 2.579 1.662 4933
-2.025 2.703 1.724 5265
-2.028 2.706 1.715 5616
-1.954 2.607 1.644 6236
-1.978 2.639 1.652 5022
-1.993 2.660 1.652 3843
-2.043 2.727 1.679 3971
-2.055 2.742 1.676 5410
-2.062 2.751 1.669 4786
-2.082 2.778 1.672 5450
-2.097 2.799 1.672 7357
-2.122 2.831 1.678 7341
-2.125 2.835 1.668 7673
-2.145 2.862 1.670 5816
-2.160 2.883 1.669 7434
-2.163 2.886 1.659 9279
-2.166 2.890 1.649 8114
-2.216 2.958 1.672 5343
-2.224 2.967 1.664 5675
-2.266 3.023 1.681 8916
-2.264 3.021 1.667 9934
-2.271 3.030 1.659 5922
-2.278 3.040 1.651 5555
-2.307 3.079 1.658 6719
-2.310 3.082 1.647 6105
-2.308 3.080 1.633 5547
-2.306 3.077 1.619 5843
-2.428 3.240 1.685 6340
-2.427 3.238 1.670 4571
-2.483 3.313 1.693 3968
-2.450 3.269 1.658 4885
-2.452 3.272 1.646 4062
-2.553 3.407 1.695 4309
-2.556 3.410 1.683 3251
-2.523 3.366 1.649 3554
-2.579 3.441 1.669 2259
-2.582 3.445 1.657 2621
-2.633 3.514 1.673 2882
-2.618 3.494 1.650 2320
-2.742 3.659 1.708 2984
-2.749 3.668 1.697 4414
-2.711 3.618 1.661 5428
-2.732 3.646 1.658 5466
-2.838 3.787 1.702 4155
-2.787 3.719 1.659 5463
-2.857 3.813 1.682 3604
-2.851 3.804 1.664 4518
-2.881 3.844 1.664 4967
-2.883 3.847 1.651 4918
-2.963 3.954 1.677 2801
-2.957 3.945 1.658 4668
-2.959 3.949 1.644 5914
-2.962 3.952 1.630 5531
-2.969 3.962 1.618 4775
-2.981 3.977 1.608 3558
-3.115 4.157 1.659 3185
-3.122 4.167 1.646 3098
-3.125 4.170 1.631 2292
-3.128 4.173 1.616 2399
-3.235 4.317 1.650 2963
-3.348 4.467 1.686 3451
-3.337 4.452 1.663 7983
-3.344 4.462 1.649 12689
-3.347 4.465 1.633 10886
-3.349 4.469 1.617 10536
-3.356 4.479 1.603 10444
-3.359 4.482 1.587 5545
-3.518 4.694 1.638 3406
-3.635 4.851 1.669 2989
-3.670 4.897 1.665 3419
-3.668 4.895 1.646 3317
-3.740 4.991 1.656 3149
-3.743 4.994 1.638 3631
-3.745 4.998 1.620 2847
-3.868 5.161 1.649 2744
-4.019 5.362 1.688 2530
-4.026 5.372 1.671 4027
-4.038 5.388 1.655 3439
-4.115 5.490 1.663 2061
-4.256 5.680 1.694 1392
-4.394 5.863 1.722 1831
-4.396 5.866 1.701 2410
-4.394 5.864 1.678 2061
-4.402 5.873 1.659 2551
-4.483 5.983 1.664 2091
-4.481 5.980 1.641 2095
-4.721 6.300 1.698 2689
-4.729 6.310 1.677 2266
-4.909 6.550 1.711 1435
-4.888 6.522 1.680 1968
-4.905 6.545 1.661 1698
-5.351 7.140 1.773 1707
-5.419 7.231 1.767 2170
-5.427 7.241 1.742 2487
-5.434 7.251 1.717 2208
-5.442 7.261 1.692 1705
-5.566 7.427 1.700 1628
-5.517 7.362 1.659 1889
-5.524 7.372 1.634 2561
-5.532 7.381 1.608 2784
-5.539 7.391 1.583 1671
-5.546 7.401 1.557 973
-5.549 7.404 1.530 955
-5.551 7.407 1.503 686
-5.549 7.404 1.475 354
-5.683 7.583 1.480 275
-1.352 1.827 1.774 2747
-1.355 1.831 1.767 5494
-1.358 1.835 1.761 5494
-1.361 1.838 1.754 6704
-1.364 1.842 1.748 7914
-1.370 1.851 1.746 6818
-1.373 1.855 1.739 5758
-1.376 1.859 1.733 5758
-1.382 1.868 1.731 6768
-1.393 1.882 1.733 8231
-1.407 1.901 1.740 8223
-1.418 1.915 1.742 9344
-1.417 1.914 1.731 7572
-1.462 1.976 1.773 6956
-1.465 1.979 1.766 6205
-1.441 1.946 1.728 6176
-1.443 1.950 1.721 6120
-1.442 1.948 1.710 4964
-1.449 1.957 1.707 3817
-1.495 2.020 1.748 3250
-1.490 2.013 1.732 3910
-1.512 2.043 1.746 3852
-1.519 2.052 1.743 4780
-1.526 2.061 1.740 5384
-1.532 2.070 1.737 6131
-1.543 2.085 1.738 6230
-1.554 2.100 1.739 7742
-1.561 2.109 1.736 8274
-1.568 2.118 1.733 9046
-1.570 2.122 1.725 6976
-1.577 2.131 1.722 5072
-1.588 2.145 1.722 6079
-1.591 2.149 1.715 7397
-1.593 2.153 1.707 9125
-1.600 2.162 1.703 10075
-1.603 2.165 1.696 8309
-1.601 2.164 1.684 5690
-1.608 2.173 1.680 3867
-1.652 2.231 1.712 5075
-1.654 2.235 1.704 6340
-1.669 2.255 1.708 6780
-1.676 2.265 1.704 8100
-1.679 2.268 1.696 8107
-1.677 2.266 1.684 6949
-1.680 2.270 1.676 5693
-1.745 2.357 1.725 5609
-1.747 2.361 1.716 7072
-1.763 2.381 1.719 5795
-1.740 2.351 1.688 4880
-1.735 2.344 1.672 6280
-1.742 2.353 1.668 5579
-1.769 2.390 1.682 5448
-1.776 2.400 1.677 6145
-1.787 2.415 1.675 5533
-1.848 2.497 1.718 7317
-1.855 2.507 1.712 7995
-1.854 2.505 1.700 6961
-1.882 2.542 1.712 5636
-1.889 2.552 1.707 7386
-1.896 2.561 1.701 9426
-1.903 2.570 1.696 13336
-1.909 2.580 1.690 15481
-1.921 2.595 1.688 13225
-1.928 2.604 1.682 8434
-1.917 2.591 1.662 4819
-2.009 2.715 1.724 5222
-2.012 2.718 1.715 5500
-1.938 2.618 1.644 6160
-1.966 2.657 1.655 4994
-1.978 2.672 1.652 3820
-2.027 2.739 1.679 4111
-2.034 2.748 1.673 5460
-2.045 2.763 1.669 4731
-2.065 2.790 1.672 5251
-2.089 2.823 1.678 7291
-2.105 2.844 1.678 7492
-2.108 2.848 1.668 7744
-2.123 2.869 1.667 5614
-2.148 2.901 1.672 7034
-2.146 2.899 1.659 8771
-2.148 2.903 1.649 7667
-2.199 2.971 1.672 5222
-2.210 2.986 1.667 5540
-2.248 3.037 1.681 8747
-2.246 3.034 1.667 9725
-2.253 3.044 1.659 5670
-2.264 3.059 1.654 5151
-2.289 3.092 1.658 6325
-2.296 3.102 1.650 5825
-2.294 3.099 1.636 5449
-2.288 3.091 1.619 5715
-2.409 3.255 1.685 5760
-2.416 3.264 1.676 4017
-2.458 3.321 1.690 3976
-2.430 3.283 1.658 5704
-2.433 3.287 1.646 5700
-2.528 3.416 1.692 4418
-2.535 3.425 1.683 3280
-2.498 3.375 1.646 3452
-2.448 3.307 1.602 2660
-2.561 3.460 1.657 2702
-2.612 3.530 1.673 2875
-2.593 3.503 1.647 2327
-2.720 3.675 1.708 2830
-2.727 3.685 1.697 4215
-2.690 3.634 1.661 5137
-2.715 3.668 1.660 5343
-2.816 3.804 1.702 4094
-2.765 3.735 1.659 5460
-2.835 3.830 1.682 3492
-2.824 3.815 1.661 4336
-2.858 3.861 1.664 4960
-2.860 3.865 1.651 4967
-2.935 3.965 1.675 2854
-2.933 3.963 1.658 4593
-2.936 3.966 1.644 5856
-2.938 3.970 1.630 5750
-2.945 3.979 1.618 4993
-2.957 3.995 1.608 3563
-3.090 4.175 1.659 3070
-3.098 4.185 1.646 3031
-3.100 4.189 1.631 2418
-3.103 4.192 1.616 2555
-3.210 4.336 1.650 2942
-3.321 4.487 1.686 3464
-3.310 4.472 1.663 7829
-3.317 4.482 1.649 12374
-3.320 4.485 1.633 10745
-3.322 4.489 1.617 10566
-3.330 4.498 1.603 10456
-3.332 4.502 1.587 5612
-3.348 4.524 1.576 3439
-3.606 4.872 1.669 3011
-3.641 4.919 1.665 3279
-3.639 4.917 1.646 3181
-3.710 5.013 1.656 3132
-3.713 5.016 1.638 3537
-3.715 5.020 1.620 2816
-3.837 5.184 1.649 2510
-3.987 5.386 1.688 2476
-3.994 5.396 1.671 4069
-4.006 5.412 1.655 3364
-4.086 5.521 1.665 2029
-4.222 5.705 1.694 1342
-4.359 5.889 1.722 1773
-4.361 5.892 1.701 2330
-4.189 5.659 1.618 2060
-4.367 5.900 1.659 2553
-4.448 6.009 1.664 2108
-4.441 6.000 1.640 2032
-4.684 6.328 1.698 2637
-4.691 6.338 1.677 2209
-4.870 6.579 1.711 1340
-4.849 6.551 1.680 1958
-4.866 6.574 1.661 1733
-5.373 7.259 1.793 1666
-5.376 7.263 1.767 2233
-5.383 7.273 1.742 2434
-5.391 7.283 1.717 2092
-5.398 7.293 1.692 1548
-5.503 7.435 1.695 1575
-5.473 7.395 1.659 2006
-5.481 7.404 1.634 2580
-5.488 7.414 1.608 2741
-5.500 7.430 1.584 1585
-5.507 7.440 1.558 869
-5.509 7.443 1.531 837
-5.516 7.453 1.506 651
-5.514 7.450 1.478 353
-1.351 1.828 1.774 2753
-1.354 1.832 1.767 5507
-1.357 1.835 1.761 5507
-1.360 1.839 1.754 6733
-1.362 1.843 1.748 7960
-1.369 1.852 1.746 6838
-1.372 1.856 1.739 5762
-1.375 1.859 1.733 5762
-1.381 1.868 1.731 6737
-1.392 1.883 1.733 8181
-1.406 1.902 1.740 8152
-1.413 1.911 1.738 9170
-1.415 1.915 1.731 7479
-1.461 1.976 1.773 7044
-1.464 1.980 1.766 6320
-1.439 1.947 1.728 6282
-1.442 1.951 1.721 6235
-1.441 1.949 1.710 4997
-1.448 1.958 1.707 3754
-1.498 2.026 1.752 3359
-1.488 2.014 1.732 4083
-1.503 2.033 1.738 3975
-1.518 2.053 1.743 4862
-1.524 2.062 1.740 5455
-1.531 2.071 1.737 6172
-1.542 2.086 1.738 6199
-1.553 2.100 1.739 7636
-1.559 2.110 1.736 8136
-1.566 2.119 1.733 8899
-1.573 2.128 1.729 6830
-1.580 2.137 1.726 4951
-1.587 2.146 1.722 6109
-1.589 2.150 1.715 7493
-1.596 2.159 1.711 9215
-1.599 2.163 1.703 10116
-1.602 2.166 1.696 8276
-1.600 2.165 1.684 5637
-1.652 2.234 1.724 3927
-1.654 2.238 1.716 5089
-1.653 2.236 1.704 6275
-1.668 2.256 1.708 6749
-1.675 2.266 1.704 8094
-1.678 2.269 1.696 8171
-1.676 2.267 1.684 7161
-1.683 2.277 1.679 5971
-1.743 2.358 1.725 5775
-1.746 2.362 1.716 7295
-1.761 2.382 1.719 5894
-1.739 2.352 1.688 4957
-1.733 2.345 1.672 6256
-1.740 2.354 1.668 5588
-1.768 2.391 1.682 5470
-1.775 2.401 1.677 6140
-1.844 2.495 1.727 5435
-1.847 2.498 1.718 7400
-1.854 2.508 1.712 8115
-1.852 2.506 1.700 7118
-1.880 2.543 1.712 5580
-1.887 2.553 1.707 7325
-1.894 2.562 1.701 9298
-1.901 2.572 1.696 13268
-1.908 2.581 1.690 15534
-1.919 2.596 1.688 13361
-1.926 2.605 1.682 8591
-1.916 2.592 1.662 4704
-2.008 2.716 1.724 5262
-2.010 2.720 1.715 5561
-1.937 2.620 1.644 6304
-1.965 2.658 1.655 5101
-1.980 2.679 1.656 3939
-2.030 2.746 1.682 3898
-2.037 2.755 1.676 5414
-2.044 2.765 1.669 4672
-2.064 2.791 1.672 5101
-2.088 2.824 1.678 7203
-2.103 2.845 1.678 7464
-2.106 2.849 1.668 7685
-2.122 2.870 1.667 5475
-2.146 2.903 1.672 6908
-2.144 2.900 1.659 8607
-2.147 2.904 1.649 7473
-2.201 2.978 1.675 5191
-2.208 2.987 1.667 5581
-2.246 3.038 1.681 8752
-2.244 3.036 1.667 9745
-2.251 3.045 1.659 5643
-2.262 3.061 1.654 5066
-2.287 3.094 1.658 6176
-2.294 3.103 1.650 5771
-2.288 3.095 1.633 5500
-2.286 3.092 1.619 5868
-2.407 3.256 1.685 5241
-2.419 3.272 1.679 3600
-2.456 3.323 1.690 3781
-2.428 3.285 1.658 5774
-2.431 3.288 1.646 6263
-2.526 3.417 1.692 4576
-2.533 3.427 1.683 3320
-2.496 3.377 1.646 3175
-2.446 3.308 1.602 2182
-2.568 3.474 1.662 2665
-2.610 3.531 1.673 2939
-2.591 3.505 1.647 2370
-2.718 3.677 1.708 2794
-2.725 3.686 1.697 4201
-2.723 3.684 1.681 5100
-2.713 3.669 1.660 5464
-2.813 3.806 1.702 4070
-2.767 3.743 1.661 5723
-2.783 3.765 1.655 3804
-2.821 3.817 1.661 4305
-2.855 3.863 1.664 5075
-2.858 3.866 1.651 5077
-2.933 3.967 1.675 2808
-2.931 3.964 1.658 4458
-2.933 3.968 1.644 5728
-2.936 3.972 1.630 5811
-2.943 3.981 1.618 5138
-2.955 3.997 1.608 3652
-3.088 4.177 1.659 3101
-3.095 4.187 1.646 3113
-3.098 4.190 1.631 2469
-3.100 4.194 1.616 2593
-3.207 4.338 1.650 2770
-3.318 4.489 1.686 3343
-3.307 4.474 1.663 7397
-3.315 4.484 1.649 11630
-3.317 4.487 1.633 10221
-3.320 4.491 1.617 10010
-3.327 4.500 1.603 9756
-3.329 4.504 1.587 5227
-3.350 4.532 1.578 3456
-3.599 4.868 1.667 3040
-3.638 4.921 1.665 3335
-3.636 4.919 1.646 3236
-3.707 5.015 1.656 2983
-3.710 5.019 1.638 3577
-3.717 5.028 1.622 2831
-3.834 5.187 1.649 2574
-3.837 5.190 1.631 2444
-3.995 5.404 1.672 4061
-4.002 5.414 1.655 3368
-4.083 5.523 1.665 2106
-4.219 5.707 1.694 1374
-4.042 5.468 1.608 1760
-4.358 5.895 1.701 2296
-4.356 5.892 1.678 2049
-4.363 5.902 1.659 2588
-4.444 6.012 1.664 2072
-4.438 6.003 1.640 2029
-4.680 6.331 1.698 2582
-4.687 6.341 1.677 2147
-4.861 6.576 1.710 1321
-4.845 6.554 1.680 1987
-4.862 6.577 1.661 1827
-5.369 7.263 1.793 1740
-5.372 7.267 1.767 2335
-5.379 7.277 1.742 2428
-5.387 7.287 1.717 2034
-5.389 7.290 1.691 1450
-5.494 7.432 1.694 1644
-5.469 7.398 1.659 2221
-5.476 7.408 1.634 2841
-5.483 7.417 1.608 2996
-5.490 7.427 1.583 1864
-5.498 7.437 1.557 1115
-5.495 7.434 1.529 1094
-5.502 7.443 1.503 844
-5.500 7.440 1.475 385
-1.350 1.829 1.774 2744
-1.353 1.832 1.767 5488
-1.356 1.836 1.761 5488
-1.359 1.840 1.754 6798
-1.361 1.844 1.748 8108
-1.368 1.853 1.746 6950
-1.371 1.857 1.739 5829
-1.374 1.860 1.733 5829
-1.380 1.869 1.731 6703
-1.391 1.883 1.733 8059
-1.405 1.903 1.740 8037
-1.412 1.912 1.738 8991
-1.414 1.916 1.731 7357
-1.460 1.977 1.773 7063
-1.463 1.981 1.766 6357
-1.438 1.948 1.728 6287
-1.441 1.952 1.721 6242
-1.440 1.950 1.710 4964
-1.446 1.959 1.707 3669
-1.496 2.027 1.752 3430
-1.491 2.020 1.736 4190
-1.502 2.034 1.738 4052
-1.517 2.054 1.743 4893
-1.523 2.063 1.740 5487
-1.530 2.072 1.737 6164
-1.541 2.087 1.738 6063
-1.552 2.101 1.739 7415
-1.558 2.111 1.736 7905
-1.565 2.120 1.733 8683
-1.572 2.129 1.729 6672
-1.579 2.138 1.726 4851
-1.585 2.147 1.722 6068
-1.588 2.151 1.715 7462
-1.595 2.160 1.711 9189
-1.598 2.164 1.703 10063
-1.600 2.167 1.696 8190
-1.599 2.166 1.684 5562
-1.654 2.241 1.728 4010
-1.653 2.239 1.716 5093
-1.652 2.237 1.704 6201
-1.667 2.257 1.708 6740
-1.673 2.267 1.704 8144
-1.676 2.270 1.696 8272
-1.675 2.268 1.684 7315
-1.682 2.278 1.679 6150
-1.742 2.359 1.725 5887
-1.745 2.363 1.716 7444
-1.760 2.383 1.719 5998
-1.738 2.353 1.688 5013
-1.732 2.346 1.672 6226
-1.743 2.361 1.671 5603
-1.766 2.392 1.682 5537
-1.773 2.402 1.677 6200
-1.780 2.411 1.672 5425
-1.845 2.499 1.718 7349
-1.852 2.509 1.712 8026
-1.851 2.507 1.700 7065
-1.879 2.545 1.712 5501
-1.886 2.554 1.707 7235
-1.893 2.563 1.701 9278
-1.899 2.573 1.696 13317
-1.906 2.582 1.690 15584
-1.918 2.597 1.688 13351
-1.924 2.606 1.682 8696
-1.914 2.593 1.662 4871
-2.006 2.717 1.724 5477
-2.009 2.721 1.715 5789
-1.935 2.621 1.644 6444
-1.963 2.659 1.655 5119
-1.979 2.680 1.656 4049
-2.028 2.747 1.682 3984
-2.031 2.751 1.673 5617
-2.042 2.766 1.669 4805
-2.062 2.793 1.672 5045
-2.086 2.825 1.678 7148
-2.102 2.846 1.678 7408
-2.104 2.850 1.668 7624
-2.107 2.854 1.658 5382
-2.144 2.904 1.672 6755
-2.147 2.908 1.662 8405
-2.145 2.905 1.649 7302
-2.195 2.973 1.672 4948
-2.207 2.989 1.667 5434
-2.244 3.039 1.681 8636
-2.242 3.037 1.667 9652
-2.249 3.047 1.659 5682
-2.261 3.062 1.654 5157
-2.285 3.095 1.658 6139
-2.292 3.104 1.650 5753
-2.286 3.096 1.633 5503
-2.284 3.094 1.619 5814
-2.405 3.258 1.685 5305
-2.417 3.273 1.679 3379
-2.454 3.324 1.690 3799
-2.431 3.292 1.661 6024
-2.429 3.290 1.646 7149
-2.432 3.293 1.635 5585
-2.430 3.291 1.620 3719
-2.499 3.384 1.649 2987
-2.492 3.376 1.631 2012
-2.566 3.475 1.662 2861
-2.604 3.527 1.671 3073
-2.589 3.506 1.647 2447
-2.716 3.678 1.708 2720
-2.723 3.688 1.697 4110
-2.686 3.637 1.661 5072
-2.710 3.671 1.660 5435
-2.811 3.807 1.702 4083
-2.765 3.745 1.661 5848
-2.781 3.766 1.655 3911
-2.819 3.818 1.661 4316
-2.853 3.864 1.664 5116
-2.856 3.868 1.651 5083
-2.930 3.969 1.675 2714
-2.928 3.966 1.658 4203
-2.931 3.970 1.644 5430
-2.934 3.973 1.630 5635
-2.941 3.983 1.618 5106
-2.952 3.998 1.608 3743
-3.086 4.179 1.659 3001
-3.093 4.189 1.646 2972
-3.095 4.192 1.631 2448
-3.098 4.196 1.616 2600
-3.204 4.340 1.650 2534
-3.316 4.491 1.686 3307
-3.305 4.476 1.663 7246
-3.312 4.486 1.649 11263
-3.315 4.489 1.633 9965
-3.317 4.493 1.617 9792
-3.324 4.502 1.603 9446
-3.327 4.506 1.587 5146
-3.347 4.534 1.578 3606
-3.596 4.870 1.667 3013
-3.635 4.923 1.665 3095
-3.629 4.915 1.644 3073
-3.704 5.017 1.656 2888
-3.707 5.021 1.638 3596
-3.714 5.030 1.622 2832
-3.831 5.189 1.649 2411
-3.980 5.391 1.688 2426
-3.987 5.401 1.671 4114
-3.999 5.417 1.655 3313
-4.080 5.526 1.665 2109
-4.216 5.710 1.694 1294
-4.039 5.471 1.608 1765
-4.354 5.897 1.701 2256
-4.352 5.895 1.678 2031
-4.360 5.905 1.659 2548
-4.441 6.014 1.664 2109
-4.434 6.005 1.640 2095
-4.676 6.334 1.698 2531
-4.684 6.344 1.677 2074
-4.922 6.666 1.731 1286
-4.841 6.557 1.680 1966
-4.858 6.580 1.661 1864
-5.365 7.266 1.793 1865
-5.367 7.270 1.767 2455
-5.375 7.280 1.742 2422
-5.382 7.290 1.717 1978
-5.385 7.293 1.691 1368
-5.485 7.429 1.693 1692
-5.469 7.407 1.661 2287
-5.472 7.411 1.634 2741
-5.474 7.414 1.607 2739
-5.486 7.430 1.583 1652
-5.493 7.440 1.557 962
-5.491 7.437 1.529 948
-5.493 7.440 1.502 718
-5.491 7.437 1.474 435
-5.489 7.434 1.446 305
-1.350 1.829 1.774 2704
-1.352 1.833 1.767 5408
-1.355 1.837 1.761 5408
-1.358 1.840 1.754 6762
-1.361 1.844 1.748 8117
-1.367 1.853 1.746 6955
-1.370 1.857 1.739 5836
-1.373 1.861 1.733 5836
-1.380 1.870 1.731 6610
-1.390 1.884 1.733 7889
-1.404 1.903 1.740 7887
-1.411 1.912 1.738 8763
-1.414 1.916 1.731 7178
-1.459 1.978 1.773 7075
-1.462 1.982 1.766 6390
-1.438 1.948 1.728 6295
-1.440 1.952 1.721 6257
-1.439 1.951 1.710 4923
-1.501 2.034 1.768 3564
-1.496 2.027 1.752 3462
-1.491 2.020 1.736 4132
-1.501 2.035 1.738 3989
-1.516 2.055 1.743 4811
-1.523 2.064 1.740 5446
-1.525 2.067 1.733 6114
-1.536 2.082 1.734 5862
-1.551 2.102 1.739 7122
-1.558 2.111 1.736 7620
-1.564 2.120 1.733 8425
-1.571 2.129 1.729 6508
-1.578 2.139 1.726 4762
-1.585 2.148 1.722 6047
-1.591 2.157 1.719 7491
-1.594 2.161 1.711 9176
-1.597 2.164 1.703 9980
-1.600 2.168 1.696 8049
-1.598 2.166 1.684 5414
-1.654 2.241 1.728 4176
-1.652 2.239 1.716 5141
-1.651 2.238 1.704 6151
-1.666 2.258 1.708 6735
-1.673 2.267 1.704 8190
-1.675 2.271 1.696 8360
-1.674 2.269 1.684 7430
-1.681 2.278 1.679 6275
-1.741 2.360 1.725 5882
-1.744 2.364 1.716 7442
-1.759 2.384 1.719 6009
-1.737 2.354 1.688 5062
-1.731 2.346 1.672 6279
-1.742 2.361 1.671 5661
-1.766 2.393 1.682 5626
-1.772 2.402 1.677 6256
-1.842 2.496 1.727 5425
-1.845 2.500 1.718 7380
-1.851 2.509 1.712 8019
-1.850 2.507 1.700 6974
-1.878 2.545 1.712 5292
-1.885 2.555 1.707 7021
-1.892 2.564 1.701 9119
-1.899 2.573 1.696 13291
-1.906 2.583 1.690 15627
-1.917 2.598 1.688 13326
-1.924 2.607 1.682 8668
-1.914 2.593 1.662 4897
-2.005 2.718 1.724 5495
-2.008 2.722 1.715 5731
-1.934 2.621 1.644 6483
-1.967 2.665 1.659 4928
-1.978 2.680 1.656 3917
-2.027 2.748 1.682 4285
-2.030 2.751 1.673 5748
-2.041 2.767 1.669 4765
-2.087 2.828 1.692 4974
-2.085 2.826 1.678 7285
-2.101 2.847 1.678 7554
-2.103 2.851 1.668 7679
-2.106 2.854 1.658 5304
-2.143 2.905 1.672 6593
-2.146 2.908 1.662 8190
-2.144 2.906 1.649 7094
-2.147 2.909 1.638 4748
-2.206 2.989 1.667 5275
-2.243 3.040 1.681 8580
-2.241 3.038 1.667 9666
-2.248 3.047 1.659 5707
-2.260 3.063 1.654 5019
-2.284 3.096 1.658 5935
-2.291 3.105 1.650 5600
-2.285 3.097 1.633 5426
-2.283 3.094 1.619 5796
-2.400 3.252 1.682 5544
-2.407 3.262 1.673 3330
-2.453 3.325 1.690 3663
-2.430 3.293 1.661 6125
-2.428 3.291 1.646 7873
-2.430 3.294 1.635 6555
-2.429 3.292 1.620 4306
-2.436 3.301 1.611 2730
-2.566 3.478 1.677 2078
-2.565 3.476 1.662 3033
-2.607 3.534 1.673 3077
-2.588 3.507 1.647 2522
-2.715 3.679 1.708 2668
-2.722 3.689 1.697 3974
-2.720 3.686 1.681 4853
-2.709 3.672 1.660 5244
-2.810 3.808 1.702 4038
-2.764 3.746 1.661 5886
-2.780 3.767 1.655 3999
-2.818 3.819 1.661 4265
-2.852 3.865 1.664 5134
-2.859 3.875 1.653 5126
-2.929 3.970 1.675 2794
-2.927 3.967 1.658 4168
-2.930 3.971 1.644 5334
-2.932 3.974 1.630 5564
-2.939 3.984 1.618 5022
-2.951 3.999 1.608 3649
-3.084 4.180 1.659 2945
-3.091 4.190 1.646 2898
-3.094 4.193 1.631 2387
-3.092 4.191 1.613 2560
-3.203 4.341 1.650 2458
-3.319 4.498 1.688 3444
-3.303 4.477 1.663 7161
-3.310 4.487 1.649 10890
-3.313 4.490 1.633 9706
-3.316 4.494 1.617 9584
-3.318 4.497 1.601 9190
-3.325 4.507 1.587 5032
-3.346 4.535 1.578 3593
-3.581 4.853 1.662 3182
-3.634 4.925 1.665 3075
-3.627 4.916 1.644 3059
-3.703 5.018 1.656 2746
-3.705 5.022 1.638 3503
-3.712 5.032 1.622 2772
-3.774 5.116 1.628 2338
-3.978 5.392 1.688 2343
-3.986 5.402 1.671 4080
-3.997 5.418 1.655 3331
-4.078 5.527 1.665 2052
-4.214 5.711 1.694 1263
-4.354 5.901 1.724 1697
-4.352 5.899 1.701 2272
-4.350 5.896 1.678 2060
-4.358 5.906 1.659 2549
-4.356 5.903 1.636 2058
-4.432 6.007 1.640 2093
-4.674 6.335 1.698 2473
-4.682 6.345 1.677 2024
-4.920 6.668 1.731 1285
-4.839 6.559 1.680 1992
-4.856 6.581 1.661 1893
-5.362 7.268 1.793 1926
-5.365 7.271 1.767 2537
-5.372 7.281 1.742 2462
-5.380 7.292 1.717 2062
-5.378 7.289 1.690 1359
-5.469 7.412 1.689 1700
-5.467 7.409 1.661 2362
-5.469 7.413 1.634 2815
-5.472 7.416 1.607 2713
-5.479 7.426 1.582 1629
-5.491 7.442 1.557 951
-5.489 7.439 1.529 900
-5.496 7.448 1.503 680
-5.507 7.464 1.479 363
-1.348 1.830 1.774 2740
-1.350 1.834 1.767 5480
-1.353 1.838 1.761 5480
-1.356 1.842 1.754 6894
-1.359 1.846 1.748 8308
-1.365 1.855 1.746 7116
-1.368 1.858 1.739 5995
-1.371 1.862 1.733 5995
-1.378 1.871 1.731 6622
-1.388 1.885 1.733 7820
-1.402 1.905 1.740 7873
-1.409 1.914 1.738 8656
-1.412 1.918 1.731 7113
-1.457 1.979 1.773 7384
-1.460 1.983 1.766 6696
-1.436 1.950 1.728 6520
-1.438 1.954 1.721 6487
-1.437 1.952 1.710 5048
-1.499 2.036 1.768 3792
-1.494 2.029 1.752 3721
-1.489 2.022 1.736 4386
-1.499 2.036 1.738 4168
-1.514 2.056 1.743 4901
-1.520 2.065 1.740 5592
-1.523 2.069 1.733 6302
-1.534 2.083 1.734 5951
-1.549 2.103 1.739 7124
-1.555 2.113 1.736 7573
-1.562 2.122 1.733 8365
-1.569 2.131 1.729 6479
-1.576 2.140 1.726 4771
-1.582 2.149 1.722 6213
-1.589 2.158 1.719 7792
-1.592 2.162 1.711 9508
-1.595 2.166 1.703 10279
-1.597 2.170 1.696 8220
-1.596 2.168 1.684 5480
-1.651 2.243 1.728 4474
-1.650 2.241 1.716 5295
-1.653 2.245 1.708 6188
-1.664 2.260 1.708 6805
-1.670 2.269 1.704 8301
-1.673 2.273 1.696 8555
-1.672 2.271 1.684 7682
-1.678 2.280 1.679 6535
-1.739 2.362 1.725 5855
-1.741 2.365 1.716 7449
-1.757 2.386 1.719 5976
-1.734 2.356 1.688 5032
-1.729 2.348 1.672 6162
-1.740 2.363 1.671 5632
-1.759 2.389 1.678 5774
-1.770 2.404 1.677 6370
-1.777 2.413 1.672 5428
-1.842 2.502 1.718 7532
-1.849 2.511 1.712 8161
-1.847 2.509 1.700 7225
-1.875 2.547 1.712 5305
-1.882 2.556 1.707 7004
-1.889 2.566 1.701 9194
-1.896 2.575 1.696 13697
-1.903 2.585 1.690 16271
-1.914 2.600 1.688 13888
-1.921 2.609 1.682 9021
-1.915 2.601 1.666 4877
-2.002 2.720 1.724 5502
-2.001 2.718 1.711 5726
-1.931 2.623 1.644 6542
-1.968 2.673 1.662 4889
-1.975 2.682 1.656 3970
-2.025 2.750 1.682 4704
-2.023 2.748 1.669 6162
-2.034 2.763 1.666 4958
-2.084 2.830 1.692 4988
-2.082 2.828 1.678 7274
-2.093 2.843 1.675 7575
-2.100 2.853 1.668 7751
-2.103 2.856 1.658 5348
-2.140 2.907 1.672 6544
-2.143 2.910 1.662 8055
-2.141 2.908 1.649 6974
-2.144 2.912 1.638 4726
-2.203 2.992 1.667 5230
-2.236 3.036 1.678 8595
-2.238 3.040 1.667 9858
-2.245 3.050 1.659 5948
-2.257 3.065 1.654 5129
-2.281 3.098 1.658 5827
-2.288 3.108 1.650 5538
-2.282 3.099 1.633 5481
-2.276 3.091 1.616 5982
-2.396 3.255 1.682 5736
-2.382 3.235 1.659 3596
-2.446 3.322 1.687 3363
-2.426 3.295 1.661 4781
-2.424 3.293 1.646 6793
-2.427 3.297 1.635 5546
-2.527 3.432 1.683 3799
-2.432 3.304 1.611 3537
-2.435 3.307 1.599 3309
-2.596 3.527 1.683 3078
-2.599 3.530 1.671 3087
-2.584 3.510 1.647 2609
-2.711 3.682 1.708 2568
-2.718 3.692 1.697 3936
-2.721 3.695 1.684 5117
-2.705 3.675 1.660 5355
-2.757 3.745 1.675 4109
-2.760 3.748 1.661 5848
-2.780 3.776 1.658 4140
-2.814 3.822 1.661 4273
-2.848 3.868 1.664 5270
-2.855 3.878 1.653 5320
-2.920 3.967 1.672 2954
-2.923 3.970 1.658 4360
-2.926 3.974 1.644 5670
-2.928 3.977 1.630 5769
-2.931 3.981 1.615 4919
-2.947 4.002 1.608 3474
-3.075 4.177 1.656 2857
-3.082 4.187 1.644 2847
-3.090 4.196 1.631 2417
-3.092 4.200 1.616 2563
-3.199 4.344 1.650 2470
-3.314 4.501 1.688 3434
-3.299 4.481 1.663 6832
-3.306 4.490 1.649 10482
-3.308 4.494 1.633 9468
-3.311 4.497 1.617 9170
-3.314 4.501 1.601 8684
-3.321 4.510 1.587 4676
-3.346 4.545 1.580 3613
-3.571 4.851 1.660 3427
-3.628 4.928 1.665 3061
-3.622 4.920 1.644 3102
-3.698 5.022 1.656 2798
-3.705 5.032 1.640 3622
-3.707 5.035 1.622 2833
-3.769 5.120 1.628 2420
-3.973 5.396 1.688 2399
-3.980 5.406 1.671 4106
-3.992 5.422 1.655 3247
-4.072 5.531 1.665 2217
-4.093 5.560 1.651 1489
-4.348 5.906 1.724 1678
-4.346 5.903 1.701 2237
-4.179 5.676 1.619 2074
-4.352 5.911 1.659 2572
-4.428 6.014 1.663 2124
-4.426 6.011 1.640 2137
-4.668 6.340 1.698 2449
-4.675 6.350 1.677 1946
-4.917 6.679 1.732 1299
-4.832 6.564 1.680 2021
-4.849 6.586 1.661 1935
-5.355 7.273 1.793 2056
-5.358 7.277 1.767 2686
-5.365 7.287 1.742 2594
-5.372 7.297 1.717 2199
-5.370 7.294 1.690 1389
-5.461 7.417 1.689 1631
-5.459 7.415 1.661 2237
-5.462 7.418 1.634 2815
-5.464 7.422 1.607 2840
-5.467 7.425 1.580 1742
-5.469 7.429 1.554 1036
-5.476 7.438 1.528 1013
-5.483 7.448 1.502 755
-5.490 7.457 1.477 440
-5.483 7.448 1.447 295
-1.347 1.831 1.774 2664
-1.350 1.835 1.767 5329
-1.353 1.839 1.761 5329
-1.355 1.842 1.754 6707
-1.358 1.846 1.748 8085
-1.365 1.855 1.746 6938
-1.368 1.859 1.739 5860
-1.370 1.863 1.733 5860
-1.377 1.872 1.731 6415
-1.391 1.891 1.737 7554
-1.402 1.905 1.740 7597
-1.408 1.914 1.738 8280
-1.411 1.918 1.731 6830
-1.456 1.980 1.773 7284
-1.459 1.984 1.766 6628
-1.435 1.950 1.728 6438
-1.438 1.954 1.721 6415
-1.436 1.953 1.710 4951
-1.498 2.036 1.768 3771
-1.493 2.029 1.752 3754
-1.488 2.022 1.736 4388
-1.498 2.037 1.738 4153
-1.513 2.057 1.743 4810
-1.520 2.066 1.740 5487
-1.522 2.070 1.733 6177
-1.533 2.084 1.734 5782
-1.548 2.104 1.739 6836
-1.555 2.113 1.736 7191
-1.561 2.122 1.733 7915
-1.568 2.132 1.729 6136
-1.575 2.141 1.726 4532
-1.582 2.150 1.722 6012
-1.588 2.159 1.719 7618
-1.591 2.163 1.711 9297
-1.594 2.166 1.703 10056
-1.596 2.170 1.696 8018
-1.595 2.168 1.684 5330
-1.651 2.244 1.728 4516
-1.649 2.242 1.716 5292
-1.652 2.245 1.708 6145
-1.663 2.260 1.708 6797
-1.670 2.269 1.704 8291
-1.672 2.273 1.696 8598
-1.675 2.277 1.688 7766
-1.678 2.280 1.679 6626
-1.738 2.362 1.725 5762
-1.741 2.366 1.716 7326
-1.743 2.370 1.708 5856
-1.729 2.351 1.684 4950
-1.728 2.349 1.672 5990
-1.739 2.364 1.671 5464
-1.758 2.390 1.678 5588
-1.769 2.405 1.677 6153
-1.838 2.499 1.727 5332
-1.841 2.503 1.718 7473
-1.844 2.506 1.709 8042
-1.847 2.510 1.700 7208
-1.874 2.548 1.712 5294
-1.881 2.557 1.707 6945
-1.888 2.567 1.701 9204
-1.895 2.576 1.696 13694
-1.902 2.585 1.690 16257
-1.913 2.600 1.688 13910
-1.920 2.610 1.682 9180
-1.914 2.602 1.666 4896
-1.997 2.715 1.721 5357
-2.000 2.719 1.711 5586
-1.930 2.624 1.644 6453
-1.967 2.674 1.662 4827
-1.974 2.683 1.656 3911
-2.023 2.751 1.682 4734
-2.022 2.748 1.669 6210
-2.033 2.764 1.666 4945
-2.083 2.831 1.692 4905
-2.085 2.835 1.682 7061
-2.092 2.844 1.675 7402
-2.099 2.854 1.668 7586
-2.102 2.857 1.658 5161
-2.139 2.908 1.672 6420
-2.142 2.911 1.662 7804
-2.140 2.909 1.649 6685
-2.143 2.912 1.638 4514
-2.201 2.993 1.667 5131
-2.234 3.037 1.678 8414
-2.237 3.041 1.667 9713
-2.244 3.050 1.659 5943
-2.255 3.066 1.654 5092
-2.280 3.099 1.658 5591
-2.287 3.108 1.650 5421
-2.281 3.100 1.633 5438
-2.279 3.098 1.619 5873
-2.395 3.256 1.682 5523
-2.380 3.236 1.659 3905
-2.440 3.317 1.684 3239
-2.429 3.302 1.664 4137
-2.423 3.294 1.646 5718
-2.518 3.423 1.692 5446
-2.525 3.433 1.683 3910
-2.427 3.298 1.608 2877
-2.438 3.314 1.602 3462
-2.591 3.522 1.681 3219
-2.598 3.531 1.671 3202
-2.587 3.517 1.650 2717
-2.599 3.532 1.643 2624
-2.717 3.693 1.697 3834
-2.719 3.696 1.684 5075
-2.704 3.676 1.660 5293
-2.756 3.746 1.675 4114
-2.758 3.749 1.661 5927
-2.774 3.771 1.655 4328
-2.813 3.823 1.661 4210
-2.846 3.869 1.664 5237
-2.854 3.879 1.653 5271
-2.919 3.968 1.672 2954
-2.921 3.971 1.658 4307
-2.924 3.975 1.644 5632
-2.927 3.978 1.630 5755
-2.929 3.982 1.615 4840
-2.945 4.004 1.608 3377
-3.074 4.178 1.656 2771
-3.081 4.188 1.644 2785
-3.088 4.198 1.631 2386
-3.091 4.201 1.616 2476
-3.197 4.346 1.650 2416
-3.312 4.503 1.688 3411
-3.297 4.482 1.663 6616
-3.304 4.491 1.649 10165
-3.307 4.495 1.633 9284
-3.309 4.498 1.617 9044
-3.312 4.502 1.601 8429
-3.319 4.512 1.587 4503
-3.344 4.546 1.580 3541
-3.569 4.852 1.660 3499
-3.627 4.930 1.665 3078
-3.620 4.921 1.644 3109
-3.696 5.024 1.656 2777
-3.698 5.027 1.638 3561
-3.705 5.037 1.622 2708
-3.767 5.121 1.628 2302
-3.971 5.398 1.688 2321
-3.978 5.408 1.671 3952
-3.990 5.424 1.655 3155
-4.070 5.533 1.665 2213
-4.096 5.568 1.653 1444
-4.346 5.908 1.724 1590
-4.344 5.905 1.701 2143
-4.177 5.678 1.619 2031
-4.349 5.912 1.659 2575
-4.426 6.016 1.663 2133
-4.424 6.013 1.640 2115
-4.665 6.342 1.698 2345
-4.673 6.352 1.677 1829
-4.915 6.681 1.732 1281
-4.830 6.566 1.680 1946
-4.846 6.588 1.661 1921
-5.352 7.275 1.793 2069
-5.355 7.279 1.767 2688
-5.362 7.289 1.742 2581
-5.370 7.299 1.717 2242
-5.368 7.296 1.690 1452
-5.458 7.420 1.689 1731
-5.456 7.417 1.661 2339
-5.459 7.420 1.634 2930
-5.461 7.424 1.607 2897
-5.464 7.427 1.580 1703
-5.471 7.437 1.555 971
-5.473 7.440 1.528 952
-5.481 7.450 1.502 726
-5.483 7.453 1.475 426
-5.476 7.443 1.446 302
-1.346 1.832 1.774 2632
-1.348 1.836 1.767 5265
-1.351 1.840 1.761 5265
