-1.960 4.498 1.682 2104
-1.950 4.474 1.658 4149
-1.892 4.342 1.613 1964
-1.954 4.485 1.646 3732
-2.012 4.617 1.691 2418
-2.002 4.593 1.667 4908
-1.944 4.461 1.623 2070
-2.003 4.597 1.653 4014
-1.946 4.465 1.609 1883
-2.005 4.601 1.638 4007
-1.948 4.469 1.595 1909
-2.010 4.612 1.626 3451
-2.067 4.744 1.669 1611
-2.054 4.713 1.643 2714
-1.996 4.581 1.600 1505
-2.074 4.759 1.641 3160
-2.016 4.627 1.599 2182
-2.079 4.770 1.629 3182
-2.140 4.910 1.672 2916
-2.138 4.907 1.655 3625
-2.081 4.774 1.613 2324
-2.134 4.897 1.635 3166
-2.076 4.764 1.594 1401
-2.139 4.908 1.622 3412
-2.209 5.069 1.671 2425
-2.198 5.045 1.646 5264
-2.140 4.912 1.606 2163
-2.197 5.042 1.628 8054
-2.255 5.175 1.668 1412
-2.223 5.102 1.629 6439
-2.281 5.235 1.668 1421
-2.222 5.099 1.611 6341
-2.283 5.239 1.652 2740
-2.208 5.067 1.585 8482
-2.291 5.257 1.639 4212
-2.216 5.085 1.573 5578
-2.287 5.247 1.619 5035
-2.291 5.258 1.604 6350
-2.386 5.476 1.665 3302
-2.293 5.262 1.587 6343
-2.391 5.487 1.650 4046
-2.289 5.251 1.567 4513
-2.396 5.498 1.635 3503
-2.296 5.269 1.554 4316
-2.391 5.488 1.613 2804
-2.298 5.273 1.538 3565
-2.452 5.626 1.632 1996
-2.450 5.622 1.612 2661
-2.552 5.855 1.674 2627
-2.547 5.845 1.652 3710
-2.452 5.626 1.594 1878
-2.549 5.849 1.633 4156
-2.491 5.715 1.599 1680
-2.557 5.867 1.618 2565
-2.492 5.719 1.580 1588
-2.580 5.921 1.612 2621
-2.685 6.161 1.672 1306
-2.690 6.172 1.655 1699
-2.588 5.939 1.597 1611
-2.630 6.035 1.601 1769
-2.695 6.184 1.637 1395
-2.632 6.039 1.581 2202
-2.737 6.280 1.639 1580
-2.741 6.291 1.621 2468
-2.630 6.035 1.561 1557
-2.740 6.288 1.600 3131
-2.833 6.500 1.650 1469
-2.742 6.291 1.580 2259
-2.841 6.519 1.632 2026
-2.799 6.423 1.589 2206
-3.007 6.899 1.697 1630
-2.798 6.420 1.567 2570
-3.008 6.903 1.676 2265
-3.013 6.914 1.655 2479
-3.088 7.085 1.693 1868
-3.012 6.911 1.632 2457
-3.089 7.089 1.671 2044
-3.011 6.908 1.608 2790
-3.128 7.179 1.666 1613
-3.012 6.912 1.587 2480
-3.121 7.162 1.639 1353
-3.207 7.358 1.656 2143
-2.672 6.132 1.402 1799
-3.211 7.369 1.635 2243
-2.664 6.114 1.378 2205
-2.660 6.103 1.356 2148
-3.216 7.380 1.613 1452
-2.661 6.106 1.337 2085
-3.520 8.077 1.726 1977
-2.653 6.088 1.313 2415
-3.519 8.074 1.699 2301
-2.664 6.112 1.298 2757
-3.523 8.085 1.675 2567
-2.662 6.108 1.277 3388
-3.525 8.089 1.650 2831
-2.654 6.090 1.254 4268
-3.527 8.093 1.624 2407
-2.655 6.093 1.235 4430
-3.526 8.090 1.597 2025
-2.660 6.103 1.217 3119
-3.527 8.094 1.571 1771
-2.664 6.113 1.199 3099
-3.532 8.105 1.547 1212
-2.665 6.116 1.180 4973
-3.534 8.109 1.521 603
-2.660 6.104 1.158 5292
-3.538 8.120 1.497 477
-2.658 6.100 1.137 3488
-3.543 8.130 1.472 443
-2.662 6.109 1.119 3286
-2.664 6.112 1.100 4568
-2.665 6.114 1.081 3958
-2.666 6.117 1.061 1877
-2.670 6.127 1.043 781
-2.668 6.122 1.023 627
-2.666 6.117 1.002 520
-2.670 6.126 0.984 465
-2.668 6.121 0.964 305
-0.867 2.004 1.708 2862
-0.917 2.122 1.802 711
-0.868 2.009 1.702 5725
-0.919 2.126 1.795 1422
-0.870 2.013 1.696 5725
-0.921 2.130 1.789 1422
-0.885 2.046 1.712 4595
-0.933 2.158 1.801 2057
-0.892 2.062 1.715 4835
-0.940 2.175 1.803 2358
-0.893 2.067 1.709 5013
-0.942 2.179 1.796 3134
-0.895 2.071 1.703 5192
-0.944 2.183 1.790 3910
-0.936 2.164 1.765 5133
-0.887 2.051 1.678 3234
-0.935 2.163 1.753 4932
-0.886 2.049 1.667 1818
-0.932 2.155 1.737 5294
-0.883 2.042 1.651 944
-0.936 2.165 1.735 4822
-0.887 2.052 1.650 841
-0.938 2.169 1.729 4384
-0.987 2.283 1.814 842
-0.963 2.228 1.762 6724
-0.914 2.114 1.677 2068
-0.965 2.232 1.755 9601
-0.915 2.118 1.671 2429
-0.969 2.242 1.753 8783
-0.920 2.128 1.668 2429
-0.974 2.253 1.750 8254
-0.924 2.138 1.666 2441
-0.976 2.257 1.743 8329
-0.926 2.142 1.660 1873
-0.975 2.255 1.732 5423
-0.925 2.140 1.648 830
-0.992 2.296 1.751 3501
-0.943 2.181 1.668 1362
-1.002 2.318 1.757 3161
-0.952 2.203 1.674 1915
-0.970 2.244 1.693 3624
-1.020 2.359 1.775 1382
-0.974 2.254 1.691 3365
-1.024 2.370 1.772 1517
-0.976 2.258 1.683 3134
-1.026 2.374 1.765 1991
-0.994 2.299 1.702 4305
-1.044 2.415 1.783 890
-0.998 2.309 1.699 6122
-1.049 2.426 1.780 1013
-1.003 2.320 1.696 6261
-1.053 2.436 1.776 923
-1.004 2.324 1.689 6411
-1.055 2.441 1.769 1063
-1.009 2.334 1.686 5498
-1.060 2.451 1.765 1261
-1.011 2.338 1.679 4642
-1.062 2.456 1.758 1604
-1.031 2.386 1.700 4909
-1.082 2.503 1.779 678
-1.036 2.396 1.697 6953
-1.087 2.514 1.775 581
-1.038 2.400 1.689 6499
-1.089 2.518 1.767 1329
-1.039 2.404 1.682 6045
-1.090 2.523 1.759 2077
-1.071 2.477 1.719 7070
-1.020 2.359 1.642 1295
-1.073 2.481 1.711 9209
-1.021 2.363 1.635 895
-1.074 2.485 1.704 9013
-1.023 2.367 1.627 645
-1.074 2.483 1.692 8437
-1.125 2.603 1.768 1519
-1.075 2.488 1.684 8250
-1.127 2.607 1.760 1785
-1.080 2.498 1.680 6920
-1.131 2.618 1.756 1336
-1.084 2.508 1.676 5930
-1.136 2.628 1.751 1261
-1.108 2.563 1.700 4872
-1.056 2.443 1.626 482
-1.115 2.580 1.700 5577
-1.063 2.460 1.626 512
-1.122 2.597 1.700 6830
-1.070 2.476 1.626 424
-1.124 2.601 1.691 7816
-1.185 2.740 1.776 629
-1.123 2.599 1.679 7509
-1.195 2.764 1.779 806
-1.128 2.609 1.675 5027
-1.188 2.749 1.759 1430
-1.152 2.664 1.697 4466
-1.204 2.785 1.770 1022
-1.151 2.662 1.685 4397
-1.203 2.783 1.757 2238
-1.183 2.736 1.718 6468
-1.130 2.615 1.647 4300
-1.182 2.734 1.706 7225
-1.129 2.613 1.635 4243
-1.184 2.738 1.697 7214
-1.131 2.617 1.627 3411
-1.197 2.768 1.704 8091
-1.144 2.646 1.633 2718
-1.199 2.773 1.695 8897
-1.146 2.650 1.625 1705
-1.200 2.777 1.686 8292
-1.147 2.654 1.617 1577
-1.205 2.787 1.681 5749
-1.258 2.910 1.750 1716
-1.226 2.837 1.698 4719
-1.156 2.675 1.608 1080
-1.231 2.847 1.693 4291
-1.284 2.970 1.761 1327
-1.269 2.936 1.730 4689
-1.207 2.793 1.652 2551
-1.274 2.946 1.725 4783
-1.209 2.797 1.643 2620
-1.273 2.944 1.712 4843
-1.219 2.821 1.645 2315
-1.272 2.942 1.699 7383
-1.218 2.818 1.632 1644
-1.276 2.953 1.693 9499
-1.223 2.829 1.627 1545
-1.278 2.957 1.684 11658
-1.224 2.833 1.618 1541
-1.280 2.961 1.675 12201
-1.226 2.837 1.609 1505
-1.287 2.978 1.672 10227
-1.341 3.103 1.738 2172
-1.295 2.995 1.670 11071
-1.349 3.120 1.735 2428
-1.297 2.999 1.661 9993
-1.351 3.124 1.725 2880
-1.301 3.010 1.655 6948
-1.355 3.135 1.719 3857
-1.348 3.119 1.699 5488
-1.294 2.994 1.635 3357
-1.350 3.124 1.689 5287
-1.296 2.998 1.626 2224
-1.329 3.075 1.653 5349
-1.383 3.200 1.715 2051
-1.357 3.138 1.673 7158
-1.302 3.013 1.610 2131
-1.361 3.149 1.666 10090
-1.307 3.023 1.604 1733
-1.360 3.147 1.653 7024
-1.415 3.273 1.714 2035
-1.376 3.184 1.659 4517
-1.431 3.310 1.720 1656
-1.364 3.155 1.633 5475
-1.418 3.281 1.694 2804
-1.391 3.219 1.652 6481
-1.446 3.345 1.712 2614
-1.416 3.276 1.667 7891
-1.361 3.149 1.607 3068
-1.392 3.220 1.629 7055
-1.458 3.373 1.701 2739
-1.460 3.378 1.690 5076
-1.397 3.231 1.622 3878
-1.453 3.362 1.670 7398
-1.514 3.502 1.735 1846
-1.452 3.359 1.657 8764
-1.522 3.520 1.730 1740
-1.454 3.363 1.646 8148
-1.509 3.491 1.704 3216
-1.458 3.374 1.639 7418
-1.522 3.522 1.705 4686
-1.489 3.445 1.658 6344
-1.544 3.573 1.715 2179
-1.494 3.456 1.650 4968
-1.549 3.584 1.707 2703
-1.536 3.554 1.681 4699
-1.481 3.426 1.625 2132
-1.541 3.565 1.673 6235
-1.474 3.410 1.605 1977
-1.557 3.603 1.676 7447
-1.613 3.731 1.732 1423
-1.559 3.607 1.665 5878
-1.615 3.736 1.720 2707
-1.561 3.611 1.653 4344
-1.617 3.740 1.708 3283
-1.604 3.710 1.682 4831
-1.548 3.581 1.628 2541
-1.609 3.721 1.673 5318
-1.553 3.592 1.619 1698
-1.625 3.759 1.676 5026
-1.569 3.630 1.622 1360
-1.636 3.784 1.672 6212
-1.691 3.913 1.725 1097
-1.637 3.788 1.660 7238
-1.693 3.917 1.713 2541
-1.648 3.812 1.657 5594
-1.704 3.942 1.709 3626
-1.685 3.898 1.677 5315
-1.629 3.768 1.626 1953
-1.681 3.889 1.660 6071
-1.625 3.759 1.608 1224
-1.683 3.893 1.648 4067
-1.739 4.022 1.698 2244
-1.729 3.999 1.675 5350
-1.673 3.869 1.625 2131
-1.728 3.997 1.660 4727
-1.784 4.127 1.710 1379
-1.765 4.083 1.679 3714
-1.691 3.911 1.613 1264
-1.767 4.087 1.666 3220
-1.823 4.217 1.715 1202
-1.810 4.187 1.689 3995
-1.739 4.022 1.627 1926
-1.821 4.212 1.684 4606
-1.764 4.081 1.635 2310
-1.823 4.216 1.670 5211
-1.766 4.085 1.622 2327
-1.827 4.227 1.660 4782
-1.771 4.096 1.612 2203
-1.844 4.266 1.659 6503
-1.787 4.135 1.612 1624
-1.843 4.263 1.643 4737
-1.899 4.394 1.690 1222
-1.833 4.239 1.620 3180
-1.913 4.426 1.686 1490
-1.891 4.375 1.652 2571
-1.834 4.243 1.606 2444
-1.890 4.372 1.636 3215
-1.947 4.503 1.682 1640
-1.936 4.480 1.658 4044
-1.993 4.611 1.703 1644
-1.983 4.588 1.679 3849
-1.926 4.456 1.635 2631
-1.985 4.592 1.665 5393
-1.892 4.377 1.593 1864
-1.990 4.603 1.653 3923
-1.933 4.471 1.609 1760
-1.991 4.607 1.638 3640
-1.934 4.475 1.595 1735
-1.996 4.618 1.626 3393
-2.053 4.750 1.669 1366
-2.043 4.726 1.645 2503
-1.986 4.594 1.602 1674
-2.060 4.765 1.641 2990
-2.003 4.633 1.599 2040
-2.128 4.923 1.675 3365
-2.062 4.769 1.626 2750
-2.127 4.920 1.657 4188
-2.066 4.780 1.613 1937
-2.119 4.903 1.635 3401
-2.062 4.770 1.594 1396
-2.124 4.914 1.622 3067
-2.188 5.061 1.667 2265
-2.180 5.044 1.644 4540
-2.123 4.911 1.604 1804
-2.182 5.048 1.628 6829
-2.240 5.181 1.668 1417
-2.205 5.101 1.627 5633
-2.148 4.968 1.588 1569
-2.204 5.098 1.609 5715
-2.298 5.316 1.672 2109
-2.193 5.074 1.585 7722
-2.294 5.306 1.651 3154
-2.201 5.092 1.573 5051
-2.295 5.310 1.635 3462
-2.282 5.279 1.608 4084
-2.367 5.476 1.663 2751
-2.277 5.268 1.587 4006
-2.378 5.501 1.652 3516
-2.374 5.491 1.631 3073
-2.276 5.265 1.569 2560
-2.366 5.474 1.608 2675
-2.284 5.283 1.556 2207
-2.526 5.844 1.688 2423
-2.285 5.287 1.539 1836
-2.531 5.856 1.672 3420
-2.434 5.630 1.612 2348
-2.530 5.853 1.652 4431
-2.469 5.711 1.615 1813
-2.532 5.857 1.633 4961
-2.474 5.722 1.599 2166
-2.540 5.875 1.618 2967
-2.472 5.719 1.579 1886
-2.566 5.935 1.614 2556
-2.667 6.169 1.672 1473
-2.672 6.180 1.655 1901
-2.592 5.996 1.609 1898
-2.612 6.043 1.601 2000
-2.673 6.184 1.635 1399
-2.614 6.046 1.581 2391
-2.718 6.288 1.639 1642
-2.720 6.292 1.620 2712
-2.612 6.043 1.561 1694
-2.721 6.296 1.600 3647
-2.817 6.516 1.651 1754
-2.723 6.299 1.580 2672
-2.821 6.527 1.632 2490
-2.777 6.424 1.587 1708
-2.986 6.908 1.697 1552
-2.776 6.421 1.566 2247
-2.988 6.912 1.676 2229
-2.993 6.923 1.655 2685
-3.070 7.101 1.695 1817
-2.991 6.920 1.632 2791
-3.068 7.098 1.671 2077
-2.990 6.917 1.608 3072
-3.107 7.188 1.666 1735
-2.992 6.921 1.587 2758
-3.094 7.156 1.636 1500
-3.185 7.367 1.656 2221
-2.990 6.918 1.563 1764
-3.187 7.372 1.633 2510
-2.643 6.114 1.377 1240
-2.641 6.111 1.356 1613
-3.491 8.076 1.750 1531
-3.496 8.087 1.726 2382
-3.341 7.730 1.656 1804
-3.498 8.091 1.701 2619
-3.343 7.734 1.631 1499
-3.500 8.096 1.675 2874
-2.642 6.113 1.297 1837
-3.501 8.100 1.650 3202
-2.638 6.102 1.275 2969
-2.636 6.098 1.254 4188
-3.503 8.104 1.624 2678
-2.634 6.093 1.234 4538
-3.502 8.101 1.597 2430
-2.635 6.096 1.214 4316
-3.506 8.112 1.573 2332
-2.640 6.106 1.196 4877
-3.508 8.115 1.547 1644
-2.644 6.116 1.178 6813
-3.510 8.119 1.521 850
-2.642 6.112 1.158 6813
-3.518 8.137 1.498 558
-2.643 6.115 1.139 3712
-3.519 8.141 1.472 470
-2.638 6.103 1.117 2352
-2.697 6.239 1.139 288
-2.645 6.120 1.100 4307
-2.643 6.115 1.080 4742
-2.645 6.118 1.060 2636
-2.646 6.120 1.041 1199
-2.647 6.122 1.022 803
-2.644 6.118 1.001 337
-0.865 2.012 1.713 3335
-0.913 2.123 1.802 739
-0.867 2.016 1.706 6671
-0.915 2.128 1.795 1479
-0.868 2.021 1.700 6671
-0.916 2.132 1.789 1479
-0.878 2.042 1.708 5108
-0.926 2.154 1.796 2365
-0.887 2.064 1.715 4755
-0.935 2.177 1.803 2444
-0.889 2.069 1.709 5020
-0.937 2.181 1.796 3286
-0.929 2.162 1.771 5466
-0.881 2.049 1.684 3728
-0.931 2.166 1.765 5466
-0.882 2.053 1.678 3445
-0.928 2.159 1.749 5283
-0.879 2.045 1.662 1600
-0.930 2.163 1.742 5485
-0.881 2.049 1.656 1426
-0.931 2.167 1.735 4866
-0.883 2.054 1.650 1015
-0.944 2.195 1.746 4313
-0.895 2.082 1.661 1190
-0.956 2.224 1.758 6419
-0.907 2.110 1.673 1777
-0.960 2.234 1.755 9170
-0.911 2.120 1.671 2291
-0.965 2.244 1.753 8323
-0.915 2.130 1.668 2203
-0.969 2.255 1.750 7843
-0.920 2.140 1.666 2171
-0.971 2.259 1.743 8024
-0.922 2.144 1.660 1693
-0.973 2.263 1.736 5207
-0.923 2.148 1.653 998
-0.988 2.298 1.751 3793
-0.938 2.183 1.668 1256
-0.995 2.314 1.752 3451
-0.945 2.199 1.670 1499
-0.968 2.252 1.698 3573
-1.018 2.368 1.779 1345
-1.001 2.329 1.742 3069
-0.951 2.213 1.660 1427
-1.013 2.358 1.752 2947
-0.963 2.242 1.671 2148
-0.999 2.326 1.719 3980
-0.949 2.209 1.638 492
-0.996 2.317 1.703 5546
-1.046 2.434 1.784 788
-0.998 2.322 1.696 5643
-1.048 2.439 1.776 987
-1.000 2.326 1.689 5740
-1.050 2.443 1.769 1185
-1.004 2.336 1.686 4995
-1.054 2.454 1.765 1271
-1.008 2.346 1.683 4364
-1.059 2.464 1.762 1292
-1.024 2.382 1.696 4981
-1.074 2.499 1.775 854
-1.031 2.398 1.697 6682
-1.081 2.516 1.775 500
-1.030 2.396 1.685 6247
-1.081 2.514 1.763 1706
-1.032 2.400 1.678 5823
-1.083 2.519 1.755 2668
-1.068 2.486 1.723 6650
-1.017 2.367 1.646 1838
-1.067 2.484 1.711 8540
-1.016 2.365 1.635 839
-1.069 2.488 1.704 8316
-1.120 2.607 1.780 600
-1.068 2.486 1.692 8028
-1.120 2.605 1.768 1502
-1.070 2.490 1.684 8202
-1.121 2.609 1.760 1809
-1.075 2.500 1.680 6722
-1.126 2.620 1.756 1327
-1.079 2.511 1.676 5564
-1.131 2.631 1.751 1171
-1.100 2.559 1.696 4650
-1.151 2.679 1.771 432
-1.104 2.569 1.692 5001
-1.156 2.690 1.766 479
-1.109 2.580 1.688 5927
-1.161 2.700 1.762 565
-1.116 2.597 1.688 7238
-1.179 2.743 1.776 769
-1.115 2.595 1.676 7396
-1.183 2.754 1.772 1002
-1.122 2.611 1.675 4843
-1.183 2.752 1.759 1704
-1.146 2.667 1.697 4711
-1.198 2.788 1.770 1124
-1.145 2.664 1.685 4867
-1.197 2.786 1.757 2544
-1.180 2.745 1.722 6647
-1.128 2.624 1.651 4970
-1.176 2.737 1.706 7106
-1.124 2.615 1.635 4351
-1.181 2.747 1.701 6992
-1.128 2.625 1.631 4092
-1.191 2.771 1.704 8039
-1.138 2.649 1.633 2839
-1.193 2.775 1.695 8868
-1.140 2.653 1.625 1754
-1.194 2.779 1.686 8013
-1.142 2.657 1.617 1609
-1.199 2.790 1.681 5205
-1.252 2.913 1.750 1523
-1.220 2.839 1.698 4112
-1.273 2.962 1.767 1098
-1.225 2.850 1.693 3934
-1.278 2.973 1.761 1484
-1.263 2.938 1.730 4889
-1.202 2.796 1.652 2754
-1.268 2.949 1.725 5080
-1.203 2.800 1.643 2787
-1.267 2.947 1.712 4894
-1.213 2.823 1.645 2329
-1.268 2.951 1.703 7178
-1.215 2.827 1.636 1820
-1.270 2.955 1.693 9601
-1.217 2.831 1.627 1599
-1.275 2.966 1.688 11570
-1.221 2.842 1.622 1794
-1.277 2.970 1.678 11775
-1.223 2.846 1.613 1756
-1.278 2.974 1.669 9922
-1.332 3.099 1.734 2512
-1.286 2.991 1.667 10425
-1.339 3.116 1.731 2882
-1.290 3.002 1.661 9252
-1.344 3.127 1.725 3005
-1.295 3.013 1.655 6539
-1.349 3.138 1.719 3849
-1.339 3.116 1.695 5348
-1.285 2.990 1.632 3019
-1.341 3.120 1.686 5114
-1.287 2.994 1.622 2119
-1.323 3.078 1.653 5061
-1.377 3.203 1.715 2127
-1.353 3.148 1.676 6924
-1.299 3.022 1.614 2322
-1.355 3.152 1.666 10404
-1.301 3.026 1.604 1619
-1.354 3.149 1.653 7277
-1.408 3.276 1.714 2247
-1.370 3.187 1.659 4952
-1.424 3.313 1.720 1791
-1.371 3.191 1.649 5997
-1.426 3.317 1.710 2972
-1.385 3.222 1.652 7314
-1.439 3.348 1.712 2942
-1.409 3.279 1.667 8751
-1.355 3.152 1.607 2861
-1.408 3.276 1.654 7254
-1.463 3.403 1.713 2324
-1.453 3.381 1.690 5657
-1.398 3.254 1.631 3824
-1.446 3.365 1.670 8160
-1.504 3.499 1.732 1852
-1.445 3.362 1.657 9727
-1.500 3.490 1.715 1880
-1.447 3.366 1.646 9145
-1.519 3.534 1.722 3151
-1.451 3.377 1.639 8336
-1.518 3.531 1.708 4800
-1.459 3.394 1.634 6495
-1.520 3.536 1.697 4326
-1.490 3.466 1.653 4708
-1.545 3.594 1.710 2979
-1.526 3.551 1.678 4779
-1.471 3.423 1.622 2031
-1.531 3.562 1.670 6369
-1.467 3.413 1.605 1913
-1.550 3.606 1.676 7542
-1.605 3.735 1.732 1308
-1.552 3.610 1.665 6504
-1.607 3.739 1.720 2260
-1.556 3.621 1.656 4766
-1.612 3.750 1.711 2714
-1.596 3.713 1.682 4893
-1.541 3.585 1.628 2228
-1.601 3.724 1.673 5348
-1.545 3.595 1.619 1645
-1.614 3.756 1.673 4262
-1.559 3.626 1.619 1314
-1.628 3.787 1.672 5723
-1.683 3.916 1.725 1188
-1.629 3.791 1.660 6860
-1.685 3.921 1.713 2527
-1.640 3.816 1.657 5396
-1.696 3.945 1.709 3395
-1.677 3.902 1.677 5649
-1.621 3.772 1.626 1644
-1.676 3.899 1.662 5649
-1.620 3.769 1.611 1211
-1.689 3.930 1.661 3377
-1.745 4.060 1.712 1181
-1.715 3.989 1.670 4818
-1.659 3.859 1.619 1444
-1.719 4.000 1.660 4358
-1.775 4.130 1.710 1194
-1.756 4.087 1.679 3827
-1.686 3.922 1.616 1320
-1.758 4.091 1.666 3444
-1.814 4.221 1.715 1240
-1.801 4.191 1.689 3942
-1.745 4.060 1.640 2459
-1.812 4.216 1.684 4489
-1.756 4.085 1.635 2213
-1.814 4.220 1.670 5752
-1.757 4.089 1.622 1889
-1.818 4.231 1.660 5434
-1.762 4.100 1.612 1937
-1.835 4.270 1.659 6804
-1.779 4.138 1.612 1627
-1.834 4.267 1.643 4775
-1.890 4.398 1.690 1085
-1.824 4.243 1.620 2910
-1.907 4.437 1.688 1334
-1.879 4.372 1.650 2561
-1.822 4.240 1.604 1796
-1.884 4.383 1.639 2905
-1.827 4.251 1.593 1277
-1.924 4.477 1.656 3901
-1.981 4.609 1.701 1805
-1.974 4.592 1.679 4087
-1.917 4.460 1.635 2811
-1.975 4.596 1.665 5570
-1.880 4.374 1.590 1964
-1.986 4.621 1.657 3539
-1.929 4.489 1.613 1786
-1.988 4.625 1.643 3272
-1.931 4.493 1.599 1591
-1.987 4.622 1.626 3316
-2.043 4.755 1.669 1515
-2.036 4.738 1.647 2366
-1.979 4.605 1.605 1816
-2.050 4.770 1.641 2606
-1.993 4.637 1.599 1874
-2.118 4.927 1.675 3508
-2.049 4.767 1.624 2042
-2.116 4.924 1.657 4373
-2.038 4.743 1.600 1482
-2.109 4.908 1.635 3693
-2.049 4.768 1.592 1117
-2.114 4.919 1.622 3120
-2.171 5.052 1.662 2493
-2.167 5.042 1.642 3796
-2.110 4.908 1.602 1678
-2.172 5.053 1.628 5248
-2.229 5.186 1.668 1239
-2.191 5.099 1.625 4964
-2.134 4.965 1.586 1513
-2.190 5.096 1.607 5090
-2.287 5.321 1.672 2049
-2.183 5.079 1.585 6144
-2.282 5.311 1.651 2919
-2.212 5.146 1.587 4020
-2.287 5.322 1.637 3228
-2.289 5.326 1.620 3060
-2.216 5.157 1.572 2180
-2.372 5.520 1.656 3147
-2.285 5.315 1.599 2598
-2.359 5.489 1.629 2581
-2.417 5.623 1.665 1863
-2.449 5.697 1.667 2596
-2.352 5.471 1.606 2554
-2.514 5.850 1.688 3266
-2.450 5.701 1.649 2632
-2.516 5.854 1.670 4447
-2.455 5.713 1.633 2369
-2.518 5.858 1.652 5639
-2.457 5.717 1.615 2329
-2.519 5.862 1.633 6436
-2.459 5.720 1.597 2474
-2.524 5.873 1.616 4418
-2.582 6.008 1.651 2111
-2.581 6.005 1.630 3070
-2.523 5.870 1.596 2382
-2.582 6.009 1.611 2483
-2.659 6.186 1.655 2044
-2.596 6.041 1.599 2116
-2.660 6.190 1.635 1609
-2.598 6.045 1.580 2452
-2.702 6.286 1.638 1573
-2.707 6.297 1.620 2824
-2.603 6.056 1.562 1766
-2.705 6.294 1.598 3907
-2.803 6.522 1.651 1951
-2.710 6.305 1.580 2858
-2.808 6.533 1.632 2813
-2.803 6.523 1.608 1748
-2.718 6.323 1.563 1644
-2.973 6.918 1.676 2056
-2.759 6.420 1.564 1945
-2.978 6.930 1.655 2689
-2.782 6.473 1.555 1826
-2.977 6.927 1.632 2865
-3.057 7.112 1.672 1823
-2.976 6.923 1.608 3029
-3.092 7.195 1.666 1737
-2.977 6.927 1.587 2729
-3.075 7.156 1.635 1590
-3.169 7.374 1.656 2184
-2.979 6.931 1.565 1768
-3.171 7.378 1.633 2714
-3.331 7.750 1.709 1193
-3.474 8.083 1.750 1630
-3.326 7.740 1.682 1554
-3.479 8.095 1.726 2521
-3.325 7.737 1.656 2149
-3.481 8.099 1.701 2677
-3.327 7.741 1.631 1893
-3.483 8.103 1.675 2968
-3.326 7.738 1.605 1574
-3.484 8.107 1.650 3473
-2.622 6.100 1.273 1671
-2.623 6.103 1.254 2935
-3.486 8.111 1.624 2930
-2.621 6.099 1.234 3607
-3.488 8.115 1.598 2737
-2.622 6.102 1.214 3218
-3.489 8.119 1.573 2655
-2.624 6.105 1.195 2673
-3.491 8.123 1.547 1801
-2.631 6.122 1.178 3366
-3.493 8.126 1.521 925
-2.632 6.125 1.159 3453
-3.504 8.152 1.499 624
-2.630 6.120 1.139 3051
-3.502 8.148 1.472 499
-2.628 6.116 1.118 3087
-3.497 8.137 1.444 280
-2.630 6.118 1.099 3041
-2.631 6.121 1.080 3057
-2.629 6.116 1.059 2241
-2.630 6.118 1.040 1255
-2.634 6.128 1.022 922
-2.635 6.130 1.002 465
-0.860 2.014 1.713 3757
-0.907 2.126 1.802 753
-0.862 2.019 1.706 7514
-0.909 2.130 1.795 1506
-0.863 2.023 1.700 7514
-0.911 2.135 1.789 1506
-0.870 2.039 1.703 5569
-0.918 2.151 1.791 2546
-0.880 2.061 1.711 4678
-0.928 2.173 1.798 3009
-0.884 2.071 1.709 4974
-0.932 2.183 1.796 3437
-0.924 2.164 1.771 5821
-0.876 2.051 1.684 3798
-0.926 2.168 1.765 5821
-0.877 2.055 1.678 3568
-0.922 2.161 1.749 5671
-0.874 2.048 1.662 1816
-0.924 2.165 1.742 5726
-0.876 2.052 1.656 1658
-0.926 2.169 1.735 4959
-0.877 2.056 1.650 1139
-0.938 2.198 1.746 4361
-0.889 2.084 1.661 1156
-0.948 2.220 1.753 6064
-0.899 2.106 1.668 1725
-0.952 2.230 1.751 8479
-0.903 2.116 1.666 2017
-0.959 2.247 1.753 7644
-0.910 2.132 1.668 1981
-0.963 2.257 1.750 7252
-0.914 2.142 1.666 1876
-0.965 2.261 1.743 7519
-0.916 2.146 1.660 1496
-0.967 2.266 1.736 5040
-0.918 2.150 1.653 922
-0.982 2.300 1.751 3962
-0.933 2.185 1.668 1145
-0.986 2.311 1.748 3697
-0.937 2.195 1.665 1173
-0.965 2.260 1.702 3717
-1.014 2.376 1.784 1235
-0.995 2.332 1.742 3507
-0.946 2.215 1.660 1396
-1.008 2.360 1.752 3584
-0.958 2.244 1.671 1843
-0.994 2.328 1.719 4332
-0.944 2.211 1.638 489
-0.993 2.326 1.708 5418
-1.043 2.443 1.788 612
-0.995 2.330 1.700 5269
-1.045 2.447 1.780 868
-0.996 2.334 1.693 5121
-1.047 2.452 1.773 1124
-0.998 2.339 1.686 4475
-1.048 2.456 1.765 1432
-1.008 2.361 1.691 4189
-1.058 2.479 1.770 943
-1.018 2.384 1.696 4967
-1.068 2.502 1.775 792
-1.022 2.394 1.693 6396
-1.073 2.513 1.771 654
-1.024 2.399 1.685 5896
-1.074 2.517 1.763 1618
-1.026 2.403 1.678 5395
-1.076 2.521 1.755 2582
-1.062 2.488 1.723 6200
-1.011 2.369 1.646 1842
-1.064 2.492 1.715 7683
-1.013 2.373 1.639 1016
-1.063 2.490 1.704 7223
-1.114 2.610 1.780 582
-1.062 2.488 1.692 7241
-1.113 2.608 1.768 1477
-1.064 2.492 1.684 7861
-1.115 2.612 1.760 1830
-1.068 2.503 1.680 6469
-1.120 2.623 1.756 1348
-1.076 2.520 1.680 5460
-1.127 2.640 1.755 923
-1.088 2.549 1.688 4698
-1.139 2.669 1.763 690
-1.093 2.560 1.684 4724
-1.144 2.680 1.758 894
-1.092 2.557 1.672 5640
-1.143 2.678 1.746 1594
-1.102 2.581 1.676 6790
-1.153 2.701 1.749 1179
-1.106 2.591 1.672 7177
-1.171 2.744 1.764 1215
-1.108 2.595 1.664 4774
-1.176 2.755 1.759 1919
-1.139 2.669 1.697 4980
-1.191 2.791 1.770 1194
-1.139 2.667 1.685 5386
-1.190 2.789 1.757 2770
-1.173 2.748 1.722 6778
-1.121 2.627 1.651 5020
-1.172 2.746 1.710 6919
-1.120 2.624 1.639 5135
-1.174 2.750 1.701 6688
-1.122 2.628 1.631 4106
-1.184 2.774 1.704 7583
-1.132 2.651 1.633 2913
-1.183 2.772 1.691 8343
-1.131 2.649 1.622 1678
-1.188 2.782 1.686 7298
-1.135 2.659 1.617 1656
-1.192 2.793 1.681 4451
-1.247 2.922 1.754 1457
-1.216 2.849 1.702 3486
-1.269 2.972 1.770 1102
-1.251 2.931 1.736 3676
-1.198 2.807 1.667 2915
-1.256 2.942 1.730 4729
-1.195 2.799 1.652 2995
-1.257 2.946 1.721 4995
-1.196 2.803 1.643 2930
-1.259 2.950 1.712 4667
-1.206 2.826 1.645 2315
-1.264 2.961 1.706 7098
-1.211 2.837 1.639 1950
-1.266 2.965 1.697 9972
-1.213 2.841 1.631 1701
-1.270 2.976 1.691 11612
-1.214 2.845 1.622 1853
-1.269 2.973 1.678 11281
-1.216 2.849 1.613 1912
-1.271 2.977 1.669 9167
-1.324 3.102 1.734 2565
-1.278 2.995 1.667 9289
-1.332 3.119 1.731 2978
-1.286 3.012 1.664 8127
-1.339 3.137 1.728 2744
-1.287 3.016 1.655 5884
-1.341 3.141 1.719 3774
-1.331 3.119 1.695 4904
-1.278 2.994 1.632 3018
-1.333 3.123 1.686 4472
-1.280 2.998 1.622 2150
-1.312 3.074 1.649 4370
-1.366 3.200 1.712 2414
-1.345 3.151 1.676 6532
-1.291 3.025 1.614 2042
-1.347 3.155 1.666 10309
-1.401 3.281 1.728 1377
-1.346 3.153 1.653 7517
-1.400 3.279 1.714 2399
-1.362 3.190 1.659 5171
-1.416 3.317 1.720 1897
-1.363 3.194 1.649 6401
-1.417 3.321 1.710 3225
-1.379 3.232 1.655 7919
-1.434 3.358 1.715 2937
-1.401 3.282 1.667 9520
-1.347 3.156 1.607 3014
-1.403 3.286 1.657 7593
-1.457 3.414 1.716 2328
-1.447 3.391 1.693 6192
-1.393 3.264 1.634 4036
-1.438 3.368 1.670 8769
-1.492 3.496 1.729 2009
-1.437 3.366 1.657 10652
-1.491 3.493 1.715 2041
-1.438 3.370 1.646 9947
-1.510 3.538 1.722 3246
-1.443 3.381 1.639 8831
-1.509 3.535 1.708 4943
-1.450 3.398 1.634 6826
-1.511 3.539 1.697 4625
-1.478 3.463 1.650 4403
-1.533 3.591 1.707 3628
-1.517 3.555 1.678 4943
-1.463 3.426 1.622 2454
-1.522 3.565 1.670 6352
-1.458 3.417 1.605 1910
-1.541 3.610 1.676 7480
-1.486 3.481 1.621 1427
-1.543 3.614 1.665 6845
-1.598 3.743 1.720 1888
-1.547 3.625 1.656 4912
-1.602 3.754 1.711 2563
-1.587 3.717 1.682 4805
-1.532 3.588 1.628 1916
-1.591 3.728 1.673 5097
-1.536 3.599 1.619 1616
-1.602 3.753 1.670 3422
-1.547 3.624 1.617 1339
-1.618 3.791 1.672 5101
-1.673 3.920 1.725 1329
-1.620 3.795 1.660 6297
-1.675 3.925 1.713 2317
-1.630 3.820 1.657 5186
-1.686 3.949 1.709 3017
-1.667 3.906 1.677 5956
-1.612 3.776 1.626 1434
-1.669 3.910 1.665 5542
-1.613 3.780 1.614 1239
-1.682 3.941 1.664 3543
-1.738 4.071 1.715 1173
-1.705 3.993 1.670 4404
-1.649 3.863 1.619 1362
-1.709 4.004 1.660 4056
-1.765 4.135 1.710 1078
-1.746 4.091 1.679 4082
-1.690 3.960 1.629 1412
-1.748 4.095 1.666 3891
-1.804 4.226 1.715 1230
-1.791 4.195 1.689 3706
-1.735 4.065 1.640 2774
-1.799 4.213 1.681 4338
-1.743 4.082 1.633 2352
-1.803 4.224 1.670 6362
-1.747 4.093 1.622 1743
-1.802 4.222 1.655 6169
-1.858 4.353 1.702 1714
-1.824 4.274 1.659 6608
-1.768 4.143 1.612 1611
-1.805 4.230 1.628 4692
-1.862 4.361 1.675 1473
-1.810 4.241 1.617 2706
-1.866 4.372 1.664 1278
-1.868 4.376 1.650 2521
-1.812 4.245 1.604 1557
-1.873 4.387 1.639 2673
-1.959 4.588 1.708 1223
-1.910 4.475 1.653 3713
-1.969 4.614 1.701 1805
-1.962 4.597 1.679 4079
-1.906 4.465 1.635 3065
-1.964 4.601 1.665 5403
-1.869 4.378 1.590 1907
-1.969 4.612 1.653 3222
-1.912 4.480 1.609 1299
-1.979 4.637 1.645 2913
-1.923 4.505 1.602 1101
-1.972 4.620 1.624 3230
-2.029 4.753 1.667 2031
-2.027 4.750 1.650 2341
-2.084 4.882 1.692 2100
-2.086 4.887 1.677 2489
-2.029 4.754 1.635 2051
-2.108 4.940 1.677 3303
-2.034 4.765 1.622 1595
-2.092 4.902 1.648 4075
-2.021 4.734 1.596 1603
-2.094 4.906 1.633 3602
-2.151 5.039 1.674 1810
-2.153 5.043 1.658 3273
-2.096 4.910 1.617 2913
-2.139 5.012 1.632 3760
-2.196 5.145 1.672 2570
-2.156 5.051 1.626 4037
-2.213 5.184 1.666 1376
-2.191 5.132 1.633 4617
-2.134 4.999 1.594 1700
-2.198 5.150 1.621 4499
-2.274 5.326 1.672 1990
-2.173 5.091 1.587 4265
-2.272 5.323 1.653 2715
-2.202 5.158 1.589 4284
-2.277 5.334 1.639 2931
-2.279 5.338 1.622 2536
-2.360 5.529 1.675 2491
-2.362 5.533 1.658 3514
-2.274 5.328 1.601 2054
-2.363 5.537 1.640 2575
-2.433 5.699 1.685 2414
-2.435 5.703 1.667 3285
-2.495 5.845 1.705 2333
-2.500 5.856 1.688 4196
-2.436 5.707 1.649 3494
-2.501 5.860 1.670 5669
-2.438 5.712 1.631 3162
-2.503 5.864 1.652 6986
-2.443 5.723 1.615 2805
-2.505 5.868 1.633 8128
-2.441 5.719 1.595 2571
-2.507 5.872 1.615 6398
-2.564 6.007 1.649 2532
-2.508 5.876 1.596 4270
-2.566 6.011 1.630 3457
-2.513 5.887 1.579 3111
-2.571 6.022 1.613 2806
-2.581 6.047 1.599 2111
-2.515 5.891 1.561 2022
-2.583 6.051 1.580 2294
-2.659 6.229 1.622 2128
-2.691 6.304 1.620 2867
-2.585 6.055 1.561 1656
-2.690 6.301 1.598 4035
-2.790 6.536 1.653 2126
-2.792 6.540 1.632 3057
-2.694 6.312 1.580 2955
-2.787 6.530 1.608 1957
-2.702 6.330 1.563 1832
-2.771 6.491 1.578 2099
-2.959 6.933 1.677 1736
-2.964 6.944 1.657 2510
-2.769 6.487 1.556 1953
-2.963 6.941 1.633 2727
-3.045 7.134 1.675 1582
-2.958 6.931 1.608 2755
-3.038 7.116 1.648 1766
-2.960 6.935 1.587 2449
-3.058 7.163 1.635 1602
-3.148 7.375 1.655 2145
-2.962 6.938 1.565 1574
-3.150 7.379 1.632 2836
-3.312 7.758 1.709 1268
-3.310 7.755 1.683 1672
-3.454 8.092 1.750 1555
-3.459 8.103 1.726 2385
-3.309 7.752 1.657 2375
-3.464 8.115 1.702 2517
-3.308 7.749 1.631 2221
-3.466 8.119 1.676 2958
-3.306 7.746 1.605 1819
-3.464 8.116 1.650 3525
-3.311 7.757 1.582 1601
-3.466 8.120 1.624 2974
-2.608 6.110 1.254 2182
-2.609 6.112 1.235 3183
-3.468 8.124 1.598 2871
-2.610 6.115 1.216 3052
-3.469 8.128 1.573 2780
-3.471 8.131 1.547 1820
-2.615 6.125 1.198 1767
-3.476 8.142 1.523 956
-2.625 6.150 1.182 906
-2.626 6.153 1.163 1197
-3.480 8.153 1.498 634
-2.609 6.112 1.136 2492
-3.482 8.157 1.472 500
-2.610 6.115 1.117 3447
-3.477 8.146 1.444 305
-2.611 6.117 1.098 2507
-2.609 6.113 1.077 1783
-2.610 6.115 1.058 1774
-2.614 6.125 1.040 1284
-2.615 6.127 1.021 721
-2.616 6.130 1.001 313
-0.857 2.016 1.713 4132
-0.904 2.127 1.802 734
-0.859 2.020 1.706 8265
-0.906 2.132 1.795 1469
-0.860 2.024 1.700 8265
-0.908 2.136 1.789 1469
-0.865 2.034 1.699 6065
-0.912 2.146 1.787 2512
-0.876 2.062 1.711 4622
-0.924 2.174 1.798 3023
-0.878 2.066 1.704 4929
-0.926 2.179 1.792 4082
-0.918 2.160 1.767 6112
-0.870 2.047 1.680 3203
-0.920 2.164 1.760 6112
-0.872 2.051 1.673 2995
-0.919 2.162 1.749 5955
-0.871 2.049 1.662 1968
-0.918 2.161 1.737 5928
-0.870 2.047 1.651 1497
-0.923 2.171 1.735 5101
-0.874 2.057 1.650 1199
-0.927 2.181 1.733 4481
-0.976 2.295 1.818 712
-0.939 2.209 1.744 5774
-0.891 2.095 1.659 1274
-0.949 2.232 1.751 7724
-0.900 2.117 1.666 1876
-0.953 2.242 1.748 6859
-0.904 2.127 1.664 1619
-0.960 2.259 1.750 6561
-0.911 2.144 1.666 1606
-0.964 2.269 1.747 6909
-0.915 2.154 1.664 1561
-0.969 2.279 1.745 4929
-0.920 2.164 1.662 1206
-0.978 2.302 1.751 4005
-0.929 2.186 1.668 1038
-0.980 2.306 1.744 3927
-0.931 2.190 1.661 899
-0.964 2.268 1.706 4092
-1.013 2.384 1.788 1100
-0.989 2.327 1.738 3939
-0.940 2.211 1.656 1081
-1.004 2.362 1.752 4132
-0.954 2.246 1.671 1637
-0.990 2.329 1.719 4864
-0.941 2.213 1.638 488
-0.992 2.334 1.712 5833
-1.042 2.451 1.792 459
-0.991 2.332 1.700 5185
-1.041 2.449 1.780 879
-0.993 2.336 1.693 4652
-1.043 2.453 1.773 1167
-0.997 2.346 1.690 4075
-1.047 2.464 1.769 1285
-1.007 2.369 1.695 4157
-1.057 2.487 1.774 797
-1.014 2.386 1.696 4942
-1.064 2.504 1.775 717
-1.018 2.396 1.693 6114
-1.069 2.514 1.771 560
-1.020 2.400 1.685 5472
-1.071 2.519 1.763 1509
-1.059 2.492 1.735 5156
-1.009 2.373 1.657 3042
-1.061 2.496 1.727 5857
-1.010 2.377 1.650 2352
-1.060 2.494 1.715 6726
-1.009 2.375 1.639 921
-1.062 2.498 1.708 6105
-1.011 2.379 1.631 545
-1.061 2.496 1.696 6322
-1.112 2.616 1.772 1055
-1.063 2.500 1.688 7383
-1.114 2.620 1.764 1397
-1.067 2.511 1.684 6223
-1.118 2.631 1.760 1062
-1.074 2.528 1.684 5422
-1.125 2.648 1.759 688
-1.082 2.544 1.684 5063
-1.133 2.665 1.759 925
-1.083 2.549 1.676 5131
-1.134 2.669 1.751 1412
-1.085 2.553 1.668 5935
-1.136 2.673 1.742 2109
-1.095 2.576 1.672 6499
-1.146 2.697 1.745 1783
-1.102 2.593 1.672 6881
-1.159 2.726 1.752 1471
-1.104 2.597 1.664 4820
-1.172 2.756 1.759 2072
-1.135 2.671 1.697 5244
-1.187 2.793 1.770 1241
-1.134 2.669 1.685 5773
-1.186 2.791 1.757 2897
-1.169 2.750 1.722 6806
-1.117 2.628 1.651 5004
-1.168 2.748 1.710 6743
-1.116 2.626 1.639 5090
-1.170 2.752 1.701 6328
-1.118 2.630 1.631 4057
-1.180 2.776 1.704 6753
-1.128 2.653 1.633 2949
-1.179 2.773 1.691 7412
-1.127 2.651 1.622 1735
-1.181 2.777 1.683 6278
-1.128 2.655 1.613 1451
-1.188 2.795 1.681 3665
-1.246 2.930 1.758 1572
-1.214 2.857 1.705 2979
-1.267 2.980 1.774 968
-1.247 2.933 1.736 3427
-1.191 2.803 1.664 2751
-1.248 2.937 1.727 4520
-1.190 2.800 1.652 3124
-1.250 2.941 1.717 4762
-1.192 2.804 1.643 2933
-1.249 2.939 1.705 4555
-1.197 2.815 1.638 2070
-1.259 2.963 1.706 7155
-1.207 2.839 1.639 1794
-1.264 2.973 1.700 10331
-1.211 2.849 1.634 1585
-1.266 2.978 1.691 11718
-1.210 2.847 1.622 1746
-1.265 2.975 1.678 10778
-1.212 2.851 1.613 1918
-1.266 2.979 1.669 7932
-1.319 3.104 1.734 2639
-1.276 3.003 1.670 7358
-1.330 3.128 1.735 2715
-1.281 3.014 1.664 6753
-1.334 3.139 1.728 2757
-1.283 3.018 1.655 5374
-1.336 3.143 1.719 3517
-1.284 3.022 1.645 4100
-1.338 3.147 1.709 3524
-1.292 3.039 1.642 3748
-1.356 3.191 1.719 3358
-1.305 3.070 1.646 3914
-1.358 3.196 1.709 2763
-1.340 3.153 1.676 6459
-1.287 3.027 1.614 1750
-1.342 3.157 1.666 10025
-1.396 3.284 1.728 1340
-1.349 3.175 1.663 7479
-1.403 3.301 1.724 1876
-1.357 3.192 1.659 5092
-1.411 3.319 1.720 2039
-1.359 3.196 1.649 6473
-1.412 3.323 1.710 3438
-1.374 3.234 1.655 8160
-1.428 3.360 1.715 2944
-1.396 3.285 1.667 9912
-1.342 3.158 1.607 2612
-1.398 3.289 1.657 7714
-1.452 3.416 1.716 2756
-1.439 3.386 1.690 6538
-1.385 3.259 1.631 4008
-1.430 3.364 1.667 9366
-1.484 3.491 1.726 2262
-1.432 3.368 1.657 11424
-1.486 3.495 1.715 2219
-1.433 3.372 1.646 10568
-1.508 3.547 1.725 3319
-1.438 3.383 1.639 9030
-1.507 3.544 1.711 4926
-1.445 3.400 1.634 6902
-1.505 3.542 1.697 4788
-1.456 3.424 1.632 4474
-1.527 3.593 1.707 3975
-1.512 3.557 1.678 4988
-1.457 3.428 1.622 2780
-1.516 3.568 1.670 6070
-1.577 3.710 1.731 2110
-1.535 3.612 1.676 7085
-1.481 3.484 1.621 1643
-1.537 3.617 1.665 6778
-1.592 3.745 1.720 1921
-1.542 3.627 1.656 4626
-1.597 3.756 1.711 2686
-1.584 3.727 1.685 4557
-1.529 3.597 1.631 1779
-1.586 3.731 1.673 4578
-1.531 3.601 1.619 1501
-1.625 3.823 1.698 3096
-1.550 3.646 1.625 1921
-1.612 3.793 1.672 4396
-1.667 3.923 1.725 1550
-1.614 3.798 1.660 5442
-1.669 3.927 1.713 2113
-1.625 3.822 1.657 4783
-1.680 3.952 1.709 2641
-1.664 3.915 1.680 6206
-1.609 3.785 1.628 1412
-1.669 3.926 1.671 5759
-1.613 3.796 1.619 1263
-1.676 3.944 1.664 4113
-1.732 4.074 1.715 1164
-1.696 3.989 1.667 3748
-1.640 3.859 1.617 1055
-1.703 4.007 1.660 3619
-1.779 4.186 1.729 1140
-1.737 4.087 1.676 3951
-1.682 3.956 1.626 1526
-1.742 4.098 1.666 3867
-1.686 3.967 1.617 1442
-1.782 4.191 1.687 3666
-1.726 4.060 1.638 3031
-1.792 4.216 1.681 4367
-1.733 4.078 1.630 3210
-1.794 4.220 1.668 6983
-1.738 4.089 1.620 1978
-1.796 4.224 1.655 6843
-1.851 4.356 1.702 1982
-1.818 4.277 1.659 5978
-1.762 4.145 1.612 1565
-1.793 4.219 1.623 4896
-1.849 4.350 1.670 1395
-1.801 4.236 1.615 2689
-1.892 4.451 1.691 1337
-1.841 4.331 1.633 2573
-1.900 4.469 1.681 1889
-1.901 4.473 1.667 2583
-1.828 4.300 1.607 1830
-1.900 4.471 1.651 3702
-1.959 4.610 1.698 1698
-1.952 4.593 1.677 3844
-1.896 4.461 1.632 3035
-1.957 4.604 1.665 4732
-1.901 4.472 1.621 1745
-1.962 4.615 1.653 2957
-1.905 4.483 1.609 975
-1.963 4.619 1.638 2794
-2.020 4.752 1.682 1578
-1.965 4.623 1.624 3157
-2.021 4.756 1.667 2314
-1.979 4.655 1.618 2745
-2.074 4.879 1.690 2255
-2.078 4.890 1.677 2919
-1.992 4.687 1.612 2463
-2.077 4.887 1.659 3125
-2.006 4.719 1.607 1561
-2.079 4.891 1.644 4059
-2.016 4.744 1.598 1543
-2.087 4.909 1.633 3493
-2.143 5.042 1.674 2396
-2.145 5.046 1.658 3887
-2.088 4.913 1.617 2907
-2.135 5.022 1.634 3940
-2.191 5.156 1.674 2684
-2.187 5.146 1.653 3740
-2.130 5.012 1.614 3396
-2.183 5.136 1.633 4515
-2.126 5.002 1.594 1615
-2.194 5.161 1.623 4500
-2.265 5.330 1.672 1881
-2.195 5.165 1.607 4402
-2.267 5.334 1.655 2353
-2.197 5.169 1.591 4421
-2.275 5.352 1.643 2641
-2.352 5.532 1.675 3456
-2.199 5.173 1.574 2597
-2.353 5.536 1.658 4438
-2.419 5.692 1.701 2017
-2.358 5.548 1.642 3085
-2.424 5.703 1.685 2781
-2.429 5.714 1.669 3639
-2.486 5.849 1.705 2704
-2.491 5.860 1.688 4895
-2.428 5.711 1.649 4027
-2.492 5.864 1.670 6615
-2.429 5.715 1.631 3850
-2.494 5.868 1.652 7974
-2.431 5.719 1.613 3178
-2.496 5.872 1.633 9350
-2.556 6.014 1.669 2863
-2.498 5.876 1.615 8005
-2.555 6.011 1.649 2807
-2.499 5.880 1.596 5931
-2.557 6.015 1.630 3738
-2.501 5.884 1.578 4295
-2.592 6.097 1.630 3164
-2.503 5.888 1.559 2585
-2.569 6.044 1.597 2008
-2.649 6.233 1.622 2653
-2.574 6.055 1.580 1942
-2.654 6.244 1.604 3009
-2.594 6.102 1.571 1583
-2.680 6.305 1.598 3932
-2.780 6.540 1.653 2128
-2.782 6.544 1.632 3097
-2.685 6.316 1.580 2915
-2.774 6.527 1.607 2053
-2.692 6.334 1.563 1947
-2.761 6.495 1.578 2410
-2.955 6.952 1.680 1494
-2.957 6.956 1.658 2268
-2.762 6.499 1.558 1992
-2.952 6.946 1.633 2477
-3.019 7.103 1.667 1766
-2.948 6.935 1.608 2427
-3.021 7.107 1.645 2254
-2.950 6.939 1.587 2123
-3.026 7.118 1.624 2006
-3.134 7.372 1.653 2061
-2.963 6.972 1.571 1391
-3.135 7.376 1.630 2692
-3.306 7.778 1.712 1269
-3.299 7.760 1.683 1689
-3.137 7.380 1.607 1557
-3.297 7.757 1.657 2434
-3.450 8.116 1.728 2049
-3.296 7.754 1.631 2425
-3.451 8.120 1.702 2231
-3.456 8.131 1.678 2898
-3.295 7.751 1.605 1926
-3.455 8.128 1.651 3445
-3.299 7.762 1.582 1557
-3.454 8.125 1.624 2804
-2.599 6.114 1.254 1973
-2.600 6.116 1.235 3153
-3.455 8.129 1.598 2735
-2.601 6.119 1.216 3225
-3.457 8.133 1.573 2683
-2.605 6.129 1.198 1872
-3.458 8.137 1.547 1736
-3.463 8.148 1.523 900
-2.607 6.132 1.178 782
-2.602 6.121 1.157 947
-3.486 8.202 1.505 547
-2.600 6.116 1.136 1998
-3.494 8.220 1.482 448
-2.598 6.112 1.116 2804
-3.498 8.230 1.457 275
-2.599 6.114 1.097 2170
-2.600 6.117 1.077 1404
-2.601 6.119 1.058 1270
-2.605 6.129 1.040 973
-2.606 6.131 1.021 482
-0.850 2.018 1.713 4464
-0.897 2.130 1.802 708
-0.852 2.023 1.706 8928
-0.899 2.135 1.795 1416
-0.854 2.027 1.700 8928
-0.901 2.139 1.789 1416
-0.855 2.031 1.694 6615
-0.905 2.149 1.787 2424
-0.867 2.059 1.706 4654
-0.914 2.172 1.794 3365
-0.911 2.164 1.778 5004
-0.864 2.051 1.691 4245
-0.911 2.163 1.767 6403
-0.863 2.050 1.680 3452
-0.913 2.167 1.760 6403
-0.865 2.054 1.673 3272
-0.912 2.165 1.749 6208
-0.864 2.052 1.662 2273
-0.911 2.164 1.737 6137
-0.863 2.050 1.651 1762
-0.915 2.174 1.735 5358
-0.867 2.060 1.650 1371
-0.920 2.184 1.733 4818
-0.968 2.298 1.818 694
-0.929 2.207 1.740 5599
-0.881 2.092 1.655 1020
-0.936 2.223 1.742 6967
-0.888 2.108 1.657 1312
-0.946 2.245 1.748 6010
-0.897 2.130 1.664 1454
-0.955 2.268 1.754 5796
-0.907 2.153 1.671 1553
-0.957 2.272 1.747 6224
-0.908 2.157 1.664 1391
-0.964 2.289 1.749 4733
-0.915 2.173 1.666 1327
-0.968 2.299 1.746 3887
-0.919 2.183 1.664 816
-0.970 2.303 1.739 4104
-0.921 2.187 1.657 686
-0.959 2.277 1.710 4607
-1.008 2.393 1.792 909
-0.976 2.318 1.729 4387
-0.927 2.202 1.648 604
-0.994 2.359 1.748 4557
-0.944 2.243 1.666 1578
-0.982 2.333 1.719 5530
-0.933 2.216 1.638 505
-0.984 2.337 1.712 6511
-1.033 2.454 1.792 423
-0.986 2.341 1.705 5409
-1.035 2.459 1.785 657
-0.985 2.339 1.693 4434
-1.035 2.457 1.773 1172
-0.995 2.362 1.698 3852
-1.044 2.480 1.778 741
-1.002 2.379 1.699 4137
-1.051 2.497 1.778 622
-1.006 2.389 1.696 4839
-1.056 2.507 1.775 633
-1.010 2.399 1.693 5790
-1.060 2.518 1.771 490
-1.041 2.472 1.730 4996
-0.991 2.354 1.653 1437
-1.048 2.489 1.731 5359
-0.998 2.370 1.653 2299
-1.050 2.493 1.723 5532
-1.000 2.374 1.646 1753
-1.054 2.504 1.719 5815
-1.004 2.385 1.643 1102
-1.056 2.508 1.712 5003
-1.006 2.389 1.635 654
-1.058 2.512 1.704 5377
-1.008 2.393 1.628 584
-1.054 2.504 1.688 6800
-1.105 2.624 1.764 1377
-1.062 2.521 1.688 5958
-1.112 2.641 1.764 823
-1.066 2.531 1.684 5412
-1.117 2.651 1.759 673
-1.073 2.548 1.684 5449
-1.124 2.668 1.759 1062
-1.075 2.552 1.676 5723
-1.126 2.673 1.751 1635
-1.076 2.556 1.668 6294
-1.127 2.677 1.742 2372
-1.084 2.573 1.668 6380
-1.135 2.694 1.742 2420
-1.091 2.590 1.668 6718
-1.142 2.711 1.741 1770
-1.095 2.600 1.664 5022
-1.146 2.722 1.736 2209
-1.126 2.675 1.697 5555
-1.178 2.797 1.770 1245
-1.126 2.673 1.685 6107
-1.177 2.795 1.757 2905
-1.160 2.754 1.722 6747
-1.108 2.632 1.651 5014
-1.159 2.752 1.710 6594
-1.107 2.630 1.639 5019
-1.161 2.756 1.701 6008
-1.109 2.634 1.631 4003
-1.168 2.773 1.700 5735
-1.116 2.650 1.630 2777
-1.170 2.777 1.691 6194
-1.118 2.654 1.622 1797
-1.171 2.781 1.683 5172
-1.120 2.658 1.613 1454
-1.170 2.779 1.670 3130
-1.222 2.902 1.740 1955
-1.213 2.881 1.716 2822
-1.161 2.757 1.647 1392
-1.237 2.937 1.736 3159
-1.177 2.794 1.657 2698
-1.239 2.941 1.727 4251
-1.181 2.804 1.652 3158
-1.238 2.939 1.714 4512
-1.183 2.808 1.643 2853
-1.239 2.943 1.705 4565
-1.187 2.819 1.638 1942
-1.249 2.967 1.706 7393
-1.197 2.843 1.639 1560
-1.254 2.978 1.700 10578
-1.202 2.853 1.634 1348
-1.256 2.982 1.691 11673
-1.200 2.851 1.622 1533
-1.257 2.986 1.682 10441
-1.205 2.861 1.616 1900
-1.256 2.984 1.669 6661
-1.309 3.108 1.734 2596
-1.272 3.021 1.677 5601
-1.325 3.146 1.742 1838
-1.274 3.025 1.667 5193
-1.327 3.150 1.732 2386
-1.270 3.016 1.651 4734
-1.323 3.141 1.715 3371
-1.272 3.020 1.642 4202
-1.344 3.192 1.729 3565
-1.279 3.037 1.639 3814
-1.346 3.196 1.719 3669
-1.328 3.154 1.686 3423
-1.275 3.028 1.623 2596
-1.330 3.158 1.676 6232
-1.277 3.032 1.614 1449
-1.334 3.169 1.669 9293
-1.388 3.295 1.731 1256
-1.328 3.153 1.650 7069
-1.381 3.279 1.711 2956
-1.343 3.190 1.656 4614
-1.397 3.317 1.717 2307
-1.348 3.201 1.649 6218
-1.401 3.328 1.710 3472
-1.364 3.238 1.655 8284
-1.417 3.365 1.715 2746
-1.385 3.289 1.667 10071
-1.332 3.162 1.607 2392
-1.387 3.293 1.657 7627
-1.440 3.421 1.716 3129
-1.425 3.385 1.687 6771
-1.372 3.257 1.628 3873
-1.416 3.362 1.664 9536
-1.469 3.489 1.723 2332
-1.417 3.366 1.654 11582
-1.471 3.494 1.712 2373
-1.422 3.377 1.646 10683
-1.496 3.552 1.725 3242
-1.427 3.387 1.639 8884
-1.495 3.549 1.711 4859
-1.434 3.405 1.634 6663
-1.494 3.547 1.697 5040
-1.441 3.423 1.629 4687
-1.495 3.551 1.686 4215
-1.500 3.562 1.678 4996
-1.446 3.433 1.622 3183
-1.516 3.600 1.681 5570
-1.570 3.729 1.737 2089
-1.523 3.618 1.676 6547
-1.469 3.489 1.621 1906
-1.525 3.622 1.665 6205
-1.579 3.751 1.720 2262
-1.533 3.639 1.659 4012
-1.587 3.768 1.714 2865
-1.572 3.732 1.685 4055
-1.517 3.603 1.631 1305
-1.573 3.736 1.673 3714
-1.519 3.607 1.619 1261
-1.612 3.829 1.698 3086
-1.538 3.651 1.625 1951
-1.629 3.867 1.700 4213
-1.545 3.669 1.619 1250
-1.601 3.803 1.660 4677
-1.656 3.933 1.713 2031
-1.612 3.828 1.657 4263
-1.667 3.958 1.709 2418
-1.654 3.928 1.683 6418
-1.599 3.797 1.631 1476
-1.659 3.938 1.673 6443
-1.604 3.808 1.622 1513
-1.663 3.949 1.664 4775
-1.718 4.080 1.715 1288
-1.668 3.960 1.654 3445
-1.723 4.091 1.704 1664
-1.719 4.081 1.686 2927
-1.664 3.951 1.636 2216
-1.721 4.086 1.674 4163
-1.665 3.955 1.624 1564
-1.725 4.097 1.663 3851
-1.780 4.228 1.713 1810
-1.768 4.197 1.687 4043
-1.712 4.066 1.638 3126
-1.778 4.222 1.681 4701
-1.720 4.084 1.630 3756
-1.777 4.219 1.665 7500
-1.722 4.088 1.617 2193
-1.779 4.223 1.652 7154
-1.834 4.355 1.700 2517
-1.774 4.214 1.634 5577
-1.830 4.345 1.681 3623
-1.779 4.225 1.623 5138
-1.835 4.356 1.670 1414
-1.822 4.326 1.644 2828
-1.766 4.194 1.598 1595
-1.826 4.337 1.633 3097
-1.888 4.483 1.684 2003
-1.889 4.487 1.670 2677
-1.825 4.334 1.617 1916
-1.882 4.470 1.649 3491
-1.938 4.602 1.694 1650
-1.937 4.599 1.677 3495
-1.881 4.467 1.632 3015
-1.942 4.610 1.665 3715
-1.886 4.478 1.621 1719
-1.946 4.622 1.653 2753
-2.002 4.754 1.697 815
-1.945 4.619 1.636 2997
-2.004 4.758 1.682 1727
-1.950 4.630 1.624 2995
-2.008 4.769 1.669 2458
-1.972 4.683 1.625 3282
-2.057 4.885 1.690 2233
-1.977 4.694 1.612 3214
-2.059 4.890 1.675 3139
-2.055 4.880 1.655 3592
-1.981 4.704 1.600 1914
-2.060 4.891 1.642 4118
-2.003 4.757 1.600 1618
-2.067 4.909 1.631 3239
-2.126 5.049 1.674 2675
-2.128 5.053 1.658 4188
-2.072 4.920 1.617 2754
-2.136 5.071 1.646 4169
-2.071 4.917 1.600 1726
-2.173 5.160 1.655 4699
-2.117 5.026 1.616 3346
-2.172 5.157 1.637 4342
-2.115 5.023 1.598 1928
-2.176 5.168 1.623 4567
-2.120 5.034 1.584 1705
-2.181 5.179 1.609 4958
-2.252 5.348 1.657 1998
-2.180 5.176 1.591 4386
-2.260 5.367 1.645 2518
-2.330 5.533 1.673 4436
-2.178 5.173 1.572 2559
-2.335 5.544 1.658 5654
-2.400 5.700 1.701 2205
-2.339 5.555 1.642 3937
-2.402 5.704 1.683 2843
-2.410 5.722 1.669 3540
-2.466 5.857 1.705 2773
-2.471 5.868 1.688 5167
-2.408 5.719 1.649 4145
-2.473 5.872 1.670 7117
-2.410 5.723 1.631 4324
-2.475 5.876 1.652 8326
-2.412 5.727 1.613 3428
-2.476 5.880 1.633 9779
-2.536 6.022 1.669 2932
-2.478 5.884 1.615 8891
-2.535 6.019 1.649 2820
-2.480 5.888 1.596 7005
-2.572 6.109 1.651 3911
-2.481 5.892 1.578 5066
-2.574 6.113 1.632 3582
-2.483 5.896 1.559 2874
-2.576 6.117 1.613 2025
-2.632 6.249 1.624 3120
-2.575 6.114 1.592 1689
-2.633 6.253 1.604 3371
-2.576 6.117 1.573 1801
-2.659 6.314 1.598 3638
-2.761 6.556 1.655 2033
-2.760 6.553 1.632 2940
-2.664 6.325 1.580 2617
-2.752 6.536 1.607 2032
-2.674 6.350 1.565 1918
-2.739 6.504 1.578 2506
-2.989 7.097 1.711 2078
-2.988 7.094 1.687 2604
-2.741 6.508 1.558 1990
-2.989 7.098 1.664 2667
-2.929 6.955 1.633 2158
-2.994 7.110 1.644 3114
-2.928 6.952 1.610 2081
-2.996 7.114 1.621 3016
-2.926 6.949 1.587 1786
-2.997 7.118 1.599 2066
-3.109 7.383 1.653 1925
-3.111 7.387 1.630 2408
-3.280 7.789 1.712 1274
-3.279 7.786 1.686 1660
-3.109 7.384 1.606 1642
-3.271 7.768 1.657 2298
-3.422 8.127 1.728 1553
-3.267 7.758 1.630 2500
-3.427 8.139 1.703 1885
-3.432 8.150 1.679 2764
-3.269 7.762 1.605 1950
-3.431 8.147 1.652 3170
-3.273 7.773 1.582 1423
-3.426 8.136 1.624 2342
-2.578 6.122 1.254 1478
-2.579 6.125 1.235 2377
-3.455 8.205 1.610 2298
-2.578 6.121 1.214 2388
-3.433 8.151 1.574 2191
-3.431 8.148 1.547 1438
-2.582 6.131 1.196 1321
-3.436 8.159 1.523 761
-3.670 8.714 1.617 723
-2.569 6.100 1.152 515
-3.459 8.213 1.505 503
-2.576 6.118 1.135 997
-3.466 8.231 1.482 419
-2.577 6.120 1.116 1504
-3.471 8.242 1.457 274
-2.575 6.116 1.095 1317
-2.576 6.118 1.076 970
-2.581 6.128 1.058 879
-2.585 6.138 1.040 670
-2.586 6.140 1.021 322
-0.846 2.020 1.713 4645
-0.892 2.132 1.802 682
-0.847 2.025 1.706 9291
-0.894 2.137 1.795 1364
-0.849 2.029 1.700 9291
-0.896 2.141 1.789 1364
-0.851 2.033 1.694 7019
-0.900 2.151 1.787 2310
-0.853 2.037 1.688 4747
-0.905 2.162 1.785 3548
-0.907 2.166 1.778 5022
-0.859 2.053 1.691 4392
-0.903 2.159 1.762 6648
-0.856 2.045 1.675 2962
-0.905 2.163 1.755 6648
-0.858 2.050 1.669 2804
-0.905 2.161 1.744 6441
-0.857 2.048 1.658 1984
-0.906 2.166 1.737 6352
-0.859 2.052 1.651 1984
-0.911 2.176 1.735 5628
-0.863 2.062 1.650 1525
-0.915 2.186 1.733 5174
-0.963 2.301 1.818 702
-0.922 2.203 1.735 5599
-0.874 2.088 1.650 824
-0.926 2.213 1.733 6414
-0.878 2.098 1.648 836
-0.941 2.247 1.748 5089
-0.893 2.132 1.664 1334
-0.953 2.276 1.759 5037
-0.904 2.161 1.675 1611
-0.954 2.280 1.752 5530
-0.906 2.165 1.668 1557
-0.959 2.291 1.749 4501
-0.910 2.175 1.666 1280
-0.963 2.301 1.746 3769
-0.915 2.185 1.664 777
-0.952 2.275 1.718 4280
-1.001 2.391 1.800 727
-0.957 2.285 1.715 5112
-1.005 2.402 1.797 722
-0.966 2.308 1.721 4987
-0.917 2.191 1.639 341
-0.973 2.325 1.722 5228
-0.924 2.208 1.641 458
-0.977 2.335 1.719 6231
-0.928 2.218 1.638 504
-0.979 2.339 1.712 7288
-1.028 2.456 1.792 390
-0.981 2.343 1.705 5795
-1.030 2.461 1.785 638
-0.980 2.341 1.693 4376
-1.029 2.459 1.773 1186
-0.992 2.370 1.703 3775
-1.041 2.488 1.782 547
-1.015 2.424 1.728 4224
-0.965 2.306 1.649 712
-1.022 2.441 1.729 5357
-0.972 2.323 1.651 784
-1.026 2.452 1.726 6616
-0.976 2.333 1.647 698
-1.033 2.468 1.726 5662
-0.983 2.350 1.648 1065
-1.040 2.485 1.727 5677
-0.990 2.366 1.649 1694
-1.045 2.496 1.723 5454
-0.995 2.376 1.646 1654
-1.049 2.506 1.719 5187
-0.999 2.387 1.643 997
-1.053 2.517 1.716 4261
-1.003 2.397 1.639 777
-1.055 2.521 1.708 4803
-1.005 2.401 1.632 731
-1.052 2.513 1.692 6349
-1.102 2.632 1.768 1066
-1.059 2.529 1.692 5890
-1.109 2.649 1.767 671
-1.063 2.540 1.688 5596
-1.113 2.660 1.763 600
-1.065 2.544 1.680 5946
-1.115 2.665 1.755 1236
-1.069 2.554 1.676 6381
-1.120 2.675 1.751 1798
-1.071 2.559 1.668 6740
-1.121 2.680 1.742 2594
-1.075 2.569 1.664 6446
-1.126 2.690 1.738 3008
-1.085 2.592 1.668 6662
-1.136 2.714 1.741 2010
-1.089 2.603 1.664 5334
-1.140 2.724 1.736 2347
-1.121 2.677 1.697 5755
-1.172 2.799 1.770 1238
-1.120 2.675 1.685 6266
-1.171 2.797 1.757 2836
-1.154 2.756 1.722 6682
-1.103 2.634 1.651 5025
-1.153 2.754 1.710 6570
-1.102 2.632 1.639 4929
-1.152 2.752 1.697 5938
-1.101 2.630 1.627 3233
-1.148 2.743 1.682 5293
-1.200 2.866 1.752 1082
-1.145 2.735 1.666 5432
-1.199 2.864 1.739 1593
-1.146 2.739 1.657 4712
-1.203 2.875 1.734 2201
-1.162 2.775 1.667 2905
-1.213 2.898 1.736 2468
-1.207 2.883 1.716 2888
-1.155 2.760 1.647 1782
-1.209 2.887 1.707 3111
-1.157 2.764 1.639 1780
-1.227 2.931 1.719 4078
-1.175 2.807 1.652 3117
-1.223 2.922 1.703 4428
-1.171 2.798 1.636 2393
-1.233 2.946 1.705 4483
-1.181 2.822 1.638 1829
-1.243 2.970 1.706 7765
-1.191 2.845 1.639 1438
-1.247 2.980 1.700 10900
-1.195 2.856 1.634 1255
-1.249 2.985 1.691 11795
-1.197 2.860 1.625 1414
-1.251 2.989 1.682 10657
-1.199 2.864 1.616 1855
-1.253 2.993 1.672 5938
-1.305 3.118 1.738 2376
-1.276 3.050 1.690 5311
-1.210 2.891 1.609 1493
-1.270 3.034 1.671 4268
-1.322 3.159 1.735 2112
-1.263 3.018 1.651 4237
-1.316 3.144 1.715 3051
-1.265 3.022 1.642 3998
-1.334 3.188 1.725 3714
-1.339 3.199 1.719 4065
-1.272 3.040 1.639 3762
-1.338 3.196 1.706 3755
-1.285 3.070 1.643 3122
-1.326 3.167 1.679 5985
-1.273 3.041 1.617 1471
-1.327 3.171 1.669 8368
-1.380 3.298 1.731 1353
-1.321 3.156 1.650 6426
-1.374 3.282 1.711 3038
-1.322 3.160 1.640 4169
-1.375 3.286 1.701 3726
-1.338 3.197 1.646 5623
-1.391 3.324 1.707 3665
-1.359 3.248 1.658 8197
-1.413 3.375 1.719 2281
-1.378 3.292 1.667 9809
-1.325 3.165 1.607 2108
-1.380 3.296 1.657 7176
-1.433 3.424 1.716 3220
-1.412 3.374 1.681 7015
-1.359 3.247 1.622 3424
-1.408 3.365 1.664 9655
-1.465 3.499 1.726 2296
-1.410 3.369 1.654 11547
-1.464 3.497 1.712 2384
-1.415 3.380 1.646 10531
-1.488 3.555 1.725 3114
-1.419 3.391 1.639 8558
-1.487 3.553 1.711 4712
-1.426 3.408 1.634 6307
-1.483 3.543 1.694 5172
-1.434 3.426 1.629 4528
-1.488 3.554 1.686 4451
-1.489 3.558 1.675 4813
-1.435 3.430 1.619 2964
-1.511 3.610 1.684 5203
-1.457 3.481 1.629 2193
-1.518 3.628 1.679 5961
-1.464 3.499 1.623 2278
