-1.510 3.031 1.705 6161
-1.516 3.042 1.699 7992
-1.521 3.052 1.692 8604
-1.523 3.056 1.682 6636
-1.547 3.105 1.696 4369
-1.588 3.187 1.725 6097
-1.587 3.185 1.711 7229
-1.586 3.182 1.698 6950
-1.591 3.193 1.691 6210
-1.615 3.242 1.703 6821
-1.611 3.233 1.686 6670
-1.603 3.218 1.666 6219
-1.609 3.228 1.659 5187
-1.617 3.245 1.655 4617
-1.625 3.262 1.650 3994
-1.696 3.404 1.704 4848
-1.701 3.414 1.696 8216
-1.703 3.418 1.685 11411
-1.712 3.435 1.680 9700
-1.779 3.571 1.728 5521
-1.781 3.575 1.717 5283
-1.800 3.612 1.720 4746
-1.805 3.623 1.711 4519
-1.830 3.673 1.720 5850
-1.832 3.677 1.708 6534
-1.834 3.681 1.696 5631
-1.876 3.765 1.718 5028
-1.878 3.769 1.706 4325
-1.900 3.813 1.710 3341
-1.902 3.817 1.698 4177
-1.897 3.808 1.680 4601
-1.936 3.885 1.698 4769
-1.944 3.902 1.690 6990
-1.950 3.913 1.681 7159
-1.958 3.930 1.673 4353
-2.010 4.035 1.700 5240
-2.009 4.032 1.684 6874
-2.081 4.177 1.725 4326
-2.083 4.181 1.712 5119
-2.085 4.185 1.698 7181
-2.091 4.196 1.687 11207
-2.093 4.200 1.674 13115
-2.091 4.197 1.658 9953
-2.097 4.208 1.647 7630
-2.095 4.205 1.631 6120
-2.215 4.445 1.701 6900
-2.224 4.463 1.691 7280
-2.229 4.474 1.679 8184
-2.234 4.484 1.667 7072
-2.233 4.482 1.650 6131
-2.235 4.485 1.636 6098
-2.237 4.489 1.621 4125
-2.330 4.677 1.668 3028
-2.325 4.667 1.648 3180
-2.426 4.868 1.697 2652
-2.424 4.866 1.679 3092
-2.487 4.992 1.702 3475
-2.493 5.003 1.688 3289
-2.611 5.239 1.743 3618
-2.616 5.250 1.729 4200
-2.618 5.255 1.712 4711
-2.620 5.259 1.695 4919
-2.632 5.283 1.684 4774
-2.651 5.322 1.677 3362
-2.770 5.559 1.727 3726
-2.714 5.446 1.675 3207
-2.784 5.588 1.696 3417
-2.783 5.585 1.676 3850
-2.785 5.589 1.658 2189
-2.886 5.793 1.694 1484
-2.953 5.927 1.710 2256
-2.962 5.945 1.695 2592
-2.971 5.963 1.679 2067
-2.994 6.009 1.671 2249
-3.099 6.220 1.704 2201
-3.101 6.224 1.684 2337
-3.055 6.131 1.639 2114
-3.060 6.142 1.621 1931
-3.293 6.610 1.713 1763
-3.213 6.448 1.652 1873
-3.318 6.660 1.680 2003
-3.396 6.816 1.693 1568
-3.395 6.813 1.669 1807
-3.397 6.817 1.647 2622
-3.399 6.821 1.625 3062
-3.397 6.818 1.602 2219
-3.708 7.442 1.711 2301
-3.762 7.550 1.709 2004
-3.792 7.610 1.696 2024
-3.832 7.691 1.687 1749
-3.785 7.597 1.642 2383
-3.787 7.601 1.618 2566
-3.859 7.744 1.620 2029
-3.805 7.636 1.574 1677
-3.803 7.633 1.548 1674
-3.805 7.637 1.523 1087
-3.894 7.815 1.529 736
-3.896 7.819 1.504 578
-3.887 7.801 1.475 360
-0.742 1.488 0.288 254
-0.745 1.496 0.284 261
-0.993 1.995 1.741 2298
-0.995 1.999 1.734 4597
-0.997 2.003 1.728 4597
-0.999 2.008 1.722 4607
-0.998 2.006 1.711 4634
-1.015 2.039 1.727 3939
-1.051 2.112 1.776 5358
-1.053 2.117 1.769 5358
-1.055 2.121 1.762 6610
-1.057 2.125 1.756 7862
-1.065 2.141 1.758 6664
-1.079 2.169 1.769 7211
-1.087 2.184 1.771 9474
-1.095 2.200 1.773 12962
-1.100 2.211 1.770 11630
-1.105 2.221 1.768 10693
-1.104 2.219 1.756 10745
-1.106 2.223 1.749 8614
-1.114 2.239 1.751 6696
-1.105 2.220 1.726 5714
-1.101 2.212 1.710 5879
-1.118 2.246 1.725 5241
-1.137 2.286 1.743 6433
-1.145 2.302 1.745 7378
-1.148 2.306 1.737 8647
-1.153 2.316 1.734 7166
-1.173 2.357 1.752 6489
-1.187 2.385 1.761 7244
-1.192 2.395 1.758 8936
-1.194 2.399 1.750 9018
-1.199 2.410 1.746 9102
-1.201 2.414 1.739 6939
-1.218 2.448 1.751 5514
-1.202 2.416 1.719 5123
-1.204 2.420 1.711 5003
-1.209 2.430 1.708 5196
-1.217 2.447 1.708 7228
-1.223 2.457 1.704 8983
-1.222 2.455 1.692 8536
-1.224 2.459 1.684 8151
-1.232 2.475 1.684 8475
-1.240 2.492 1.684 9047
-1.242 2.496 1.676 8833
-1.287 2.586 1.722 7941
-1.301 2.615 1.729 8301
-1.303 2.619 1.721 7030
-1.309 2.630 1.716 5826
-1.335 2.684 1.738 4757
-1.341 2.694 1.733 6053
-1.327 2.667 1.706 6947
-1.323 2.658 1.690 7941
-1.325 2.663 1.682 8136
-1.330 2.673 1.677 7233
-1.335 2.683 1.672 5872
-1.353 2.719 1.681 7809
-1.355 2.723 1.673 8535
-1.354 2.720 1.660 7057
-1.403 2.819 1.705 8480
-1.402 2.817 1.693 8918
-1.445 2.903 1.729 8901
-1.421 2.857 1.692 9967
-1.424 2.861 1.683 12735
-1.426 2.865 1.674 11437
-1.469 2.952 1.709 10170
-1.474 2.962 1.703 8112
-1.508 3.030 1.728 5909
-1.513 3.041 1.722 5237
-1.512 3.038 1.708 6058
-1.514 3.043 1.699 7970
-1.519 3.053 1.692 8398
-1.521 3.057 1.682 6342
-1.584 3.184 1.735 4090
-1.586 3.188 1.725 6137
-1.585 3.185 1.711 7004
-1.587 3.190 1.701 6668
-1.592 3.200 1.694 5931
-1.614 3.243 1.703 6236
-1.626 3.267 1.702 6182
-1.640 3.297 1.704 5909
-1.610 3.236 1.662 5729
-1.615 3.246 1.655 5092
-1.624 3.263 1.650 4347
-1.678 3.372 1.689 4799
-1.699 3.415 1.696 7929
-1.701 3.419 1.685 10724
-1.707 3.430 1.677 8981
-1.777 3.572 1.728 5468
-1.779 3.576 1.717 5154
-1.801 3.620 1.723 4433
-1.806 3.630 1.714 4364
-1.828 3.674 1.720 6629
-1.834 3.685 1.711 7401
-1.832 3.682 1.696 6034
-1.834 3.686 1.684 4801
-1.836 3.690 1.672 3673
-1.838 3.694 1.660 3576
-1.900 3.818 1.698 4321
-1.895 3.809 1.680 5296
-1.927 3.873 1.692 4932
-1.939 3.897 1.688 6925
-1.944 3.907 1.678 6850
-1.963 3.945 1.678 4374
-2.005 4.029 1.697 5672
-2.007 4.033 1.684 7417
-1.999 4.017 1.663 4291
-2.081 4.182 1.712 4537
-2.083 4.186 1.698 6448
-2.088 4.197 1.687 11256
-2.087 4.194 1.671 13880
-2.089 4.198 1.658 10867
-2.094 4.209 1.647 8424
-2.093 4.206 1.631 6541
-2.212 4.446 1.701 6526
-2.221 4.464 1.691 7195
-2.227 4.475 1.679 8206
-2.229 4.479 1.665 7697
-2.231 4.483 1.650 7190
-2.233 4.487 1.636 6950
-2.234 4.491 1.621 5087
-2.328 4.678 1.668 2585
-2.323 4.668 1.648 2776
-2.362 4.747 1.657 2261
-2.422 4.867 1.679 2682
-2.488 5.000 1.704 3300
-2.494 5.011 1.690 3276
-2.608 5.241 1.743 3528
-2.613 5.252 1.729 4438
-2.615 5.256 1.712 5763
-2.617 5.260 1.695 5958
-2.626 5.278 1.682 4641
-2.656 5.337 1.681 3472
-2.668 5.361 1.669 3611
-2.711 5.448 1.675 3125
-2.781 5.589 1.696 3271
-2.780 5.586 1.676 3570
-2.830 5.687 1.685 2320
-2.825 5.677 1.663 1887
-2.950 5.929 1.710 2157
-2.959 5.947 1.695 2300
-2.978 5.985 1.685 2066
-2.991 6.010 1.671 2503
-2.986 6.000 1.648 2352
-3.098 6.226 1.684 2620
-3.052 6.133 1.639 2097
-3.140 6.310 1.662 1979
-3.287 6.605 1.711 1630
-3.206 6.442 1.650 1558
-3.318 6.668 1.681 2024
-3.331 6.693 1.664 1717
-3.447 6.926 1.695 2235
-3.393 6.819 1.647 2419
-3.395 6.823 1.625 2803
-3.394 6.820 1.602 2007
-3.704 7.444 1.711 2043
-3.779 7.594 1.718 2050
-3.788 7.612 1.696 1999
-3.828 7.693 1.687 2002
-3.781 7.599 1.642 2609
-3.783 7.603 1.618 2578
-3.855 7.746 1.620 2350
-3.863 7.764 1.597 1883
-3.799 7.635 1.548 1604
-3.801 7.639 1.523 1003
-3.890 7.817 1.529 845
-3.892 7.821 1.504 651
-3.883 7.803 1.475 395
-0.978 1.974 1.722 1476
-0.980 1.978 1.716 2952
-0.982 1.982 1.709 2952
-0.992 2.004 1.717 3252
-1.043 2.106 1.789 4217
-1.048 2.116 1.787 5020
-1.050 2.120 1.780 5874
-1.052 2.124 1.774 5874
-1.052 2.123 1.762 6450
-1.054 2.127 1.756 7105
-1.061 2.143 1.758 6329
-1.078 2.176 1.773 8145
-1.080 2.181 1.766 9979
-1.088 2.197 1.768 12309
-1.090 2.201 1.761 10519
-1.095 2.211 1.759 8702
-1.094 2.209 1.747 8671
-1.096 2.213 1.740 7022
-1.101 2.224 1.738 5403
-1.098 2.216 1.722 5388
-1.097 2.214 1.710 5713
-1.116 2.254 1.729 5095
-1.130 2.282 1.739 7078
-1.138 2.298 1.740 7100
-1.143 2.308 1.737 7613
-1.148 2.318 1.734 5840
-1.174 2.371 1.760 5947
-1.182 2.387 1.761 8110
-1.187 2.397 1.758 10784
-1.190 2.401 1.750 10657
-1.195 2.412 1.746 10770
-1.200 2.422 1.743 7455
-1.214 2.451 1.751 5709
-1.216 2.455 1.743 5786
-1.224 2.471 1.744 6111
-1.229 2.481 1.740 6828
-1.237 2.498 1.740 7227
-1.242 2.508 1.736 7171
-1.248 2.518 1.732 6247
-1.219 2.461 1.684 6651
-1.230 2.484 1.688 7900
-1.235 2.494 1.684 9516
-1.274 2.572 1.723 8774
-1.282 2.589 1.722 9948
-1.297 2.618 1.729 9721
-1.302 2.628 1.725 7245
-1.307 2.638 1.720 5133
-1.331 2.686 1.738 4555
-1.333 2.690 1.730 5869
-1.316 2.657 1.699 8571
-1.318 2.661 1.690 10670
-1.320 2.665 1.682 10725
-1.322 2.669 1.673 8683
-1.330 2.686 1.672 6191
-1.342 2.708 1.674 6035
-1.344 2.712 1.665 7461
-1.339 2.704 1.650 6844
-1.429 2.885 1.741 7785
-1.437 2.902 1.739 9362
-1.439 2.906 1.729 9304
-1.416 2.859 1.692 10235
-1.418 2.863 1.683 11974
-1.420 2.867 1.674 9578
-1.470 2.967 1.716 11516
-1.472 2.971 1.707 10752
-1.474 2.975 1.697 7504
-1.511 3.050 1.725 6111
-1.510 3.048 1.712 7738
-1.508 3.045 1.699 9342
-1.514 3.056 1.692 8873
-1.516 3.060 1.682 5958
-1.575 3.180 1.732 3299
-1.581 3.191 1.725 4962
-1.583 3.195 1.714 6373
-1.581 3.192 1.701 6802
-1.583 3.197 1.691 5289
-1.624 3.279 1.719 5033
-1.626 3.283 1.708 5744
-1.622 3.274 1.691 6985
-1.611 3.252 1.668 7116
-1.609 3.249 1.655 5452
-1.618 3.266 1.650 4462
-1.668 3.368 1.686 5777
-1.687 3.405 1.690 6940
-1.698 3.429 1.688 8124
-1.704 3.439 1.680 6258
-1.709 3.450 1.672 5175
-1.737 3.507 1.684 4871
-1.801 3.636 1.729 3729
-1.813 3.660 1.726 5118
-1.822 3.677 1.720 8848
-1.827 3.688 1.711 9608
-1.829 3.692 1.699 7073
-1.831 3.696 1.687 4784
-1.876 3.787 1.711 3345
-1.884 3.804 1.705 4125
-1.890 3.815 1.695 4990
-1.898 3.832 1.688 6693
-1.910 3.856 1.684 8133
-1.922 3.880 1.680 7646
-1.927 3.891 1.670 5801
-1.972 3.982 1.692 4583
-1.998 4.033 1.697 5583
-1.996 4.030 1.682 6519
-1.988 4.014 1.661 3790
-2.067 4.172 1.707 3399
-2.079 4.197 1.701 4809
-2.081 4.201 1.687 9864
-2.079 4.198 1.671 14151
-2.078 4.195 1.655 12304
-2.083 4.206 1.644 9821
-2.089 4.217 1.633 6224
-2.208 4.457 1.703 4972
-2.213 4.468 1.691 5381
-2.215 4.472 1.677 6618
-2.217 4.476 1.663 7545
-2.222 4.487 1.650 7482
-2.224 4.491 1.636 7350
-2.226 4.495 1.621 6425
-2.228 4.498 1.607 3818
-2.358 4.761 1.677 3129
-2.364 4.772 1.664 3178
-2.366 4.776 1.648 2838
-2.479 5.005 1.704 2481
-2.593 5.234 1.758 3076
-2.592 5.232 1.739 4176
-2.594 5.236 1.722 4228
-2.609 5.268 1.714 5536
-2.611 5.272 1.697 5757
-2.603 5.255 1.674 3639
-2.608 5.266 1.659 3176
-2.661 5.373 1.671 3488
-2.701 5.453 1.675 2348
-2.771 5.594 1.696 2320
-2.814 5.681 1.701 3719
-2.816 5.685 1.683 3842
-2.842 5.737 1.677 3246
-2.840 5.734 1.657 2420
-2.887 5.828 1.662 2002
-2.968 5.991 1.685 2277
-2.966 5.988 1.663 3067
-2.965 5.985 1.642 3190
-3.087 6.231 1.684 2409
-3.126 6.311 1.682 2371
-3.128 6.315 1.662 2916
-3.254 6.569 1.701 2446
-3.239 6.538 1.672 2681
-3.241 6.542 1.650 2573
-3.263 6.588 1.639 2242
-3.434 6.933 1.695 3316
-3.436 6.937 1.672 2995
-3.338 6.739 1.605 1534
-3.723 7.516 1.750 1842
-3.725 7.520 1.726 2692
-3.485 7.036 1.600 2612
-3.487 7.040 1.577 2310
-3.817 7.707 1.688 2597
-3.823 7.718 1.665 3301
-3.828 7.728 1.641 3574
-3.837 7.746 1.619 3284
-3.846 7.764 1.596 3055
-3.844 7.761 1.570 1783
-3.912 7.898 1.569 976
-3.917 7.908 1.544 775
-3.919 7.912 1.519 529
-3.918 7.909 1.492 356
-0.980 1.980 1.727 1425
-0.982 1.984 1.720 2850
-0.984 1.988 1.714 2850
-1.040 2.102 1.796 3316
-1.042 2.106 1.789 4469
-1.047 2.116 1.787 5071
-1.049 2.120 1.780 5674
-1.051 2.125 1.774 5674
-1.051 2.123 1.762 5937
-1.053 2.127 1.756 6386
-1.064 2.149 1.762 5863
-1.077 2.177 1.773 8050
-1.079 2.181 1.766 9679
-1.084 2.191 1.764 11593
-1.086 2.195 1.757 9831
-1.091 2.205 1.754 8051
-1.091 2.204 1.743 7917
-1.093 2.208 1.736 6432
-1.098 2.218 1.733 5055
-1.097 2.216 1.722 5094
-1.096 2.214 1.710 5387
-1.119 2.260 1.733 4957
-1.129 2.282 1.739 6947
-1.137 2.299 1.740 6671
-1.143 2.309 1.737 6912
-1.148 2.319 1.734 5218
-1.173 2.371 1.760 5739
-1.181 2.387 1.761 8057
-1.187 2.398 1.758 10804
-1.189 2.402 1.750 10574
-1.194 2.412 1.746 10601
-1.199 2.422 1.743 7221
-1.213 2.451 1.751 5457
-1.218 2.461 1.748 5898
-1.223 2.472 1.744 6649
-1.228 2.482 1.740 7396
-1.236 2.498 1.740 7378
-1.241 2.509 1.736 6988
-1.247 2.519 1.732 6172
-1.218 2.462 1.684 6142
-1.229 2.484 1.688 7576
-1.234 2.494 1.684 9284
-1.273 2.573 1.723 8784
-1.281 2.589 1.722 9653
-1.296 2.618 1.729 9382
-1.301 2.628 1.725 6959
-1.306 2.639 1.720 4889
-1.329 2.686 1.738 4174
-1.313 2.653 1.707 5501
-1.315 2.657 1.699 8649
-1.317 2.661 1.690 11061
-1.319 2.665 1.682 11170
-1.321 2.669 1.673 8867
-1.329 2.686 1.672 6238
-1.337 2.703 1.670 5785
-1.339 2.707 1.662 7178
-1.338 2.704 1.650 6508
-1.428 2.885 1.741 7687
-1.436 2.902 1.739 8907
-1.438 2.907 1.729 8738
-1.415 2.860 1.692 10742
-1.417 2.864 1.683 12029
-1.422 2.874 1.677 9106
-1.469 2.968 1.716 11563
-1.471 2.972 1.707 10889
-1.476 2.982 1.701 7728
-1.506 3.044 1.722 5898
-1.508 3.048 1.712 7926
-1.511 3.052 1.702 9439
-1.513 3.056 1.692 8768
-1.515 3.060 1.682 5760
-1.574 3.181 1.732 2739
-1.579 3.191 1.725 4228
-1.578 3.189 1.711 5926
-1.577 3.187 1.698 6967
-1.576 3.184 1.684 5500
-1.626 3.286 1.722 5055
-1.628 3.290 1.711 5478
-1.617 3.268 1.688 6946
-1.609 3.252 1.668 6951
-1.611 3.256 1.658 5075
-1.620 3.273 1.654 4095
-1.664 3.362 1.683 5547
-1.679 3.393 1.684 6306
-1.697 3.429 1.688 7214
-1.702 3.440 1.680 5439
-1.704 3.444 1.669 4667
-1.739 3.514 1.687 4945
-1.757 3.551 1.691 3804
-1.815 3.667 1.729 4888
-1.820 3.678 1.720 8647
-1.825 3.689 1.711 9327
-1.828 3.693 1.699 6916
-1.830 3.697 1.687 4674
-1.881 3.801 1.717 3659
-1.883 3.805 1.705 4717
-1.891 3.822 1.698 4967
-1.897 3.833 1.688 6857
-1.912 3.863 1.687 8735
-1.917 3.874 1.677 7784
-1.926 3.892 1.670 5480
-1.974 3.989 1.694 4411
-1.999 4.040 1.700 5155
-1.995 4.031 1.682 5755
-1.987 4.015 1.661 3477
-2.065 4.173 1.707 3406
-2.074 4.191 1.698 5067
-2.076 4.195 1.685 9453
-2.078 4.199 1.671 13391
-2.077 4.196 1.655 12030
-2.082 4.207 1.644 9642
-2.087 4.217 1.633 5768
-2.206 4.458 1.703 4193
-2.211 4.469 1.691 4444
-2.213 4.473 1.677 5621
-2.215 4.477 1.663 6554
-2.221 4.488 1.650 6478
-2.223 4.491 1.636 6614
-2.225 4.495 1.621 6186
-2.227 4.499 1.607 3825
-2.357 4.762 1.677 3196
-2.365 4.779 1.666 3447
-2.371 4.790 1.653 3247
-2.366 4.781 1.633 2459
-2.591 5.235 1.758 3191
-2.590 5.233 1.739 4220
-2.588 5.230 1.720 4101
-2.601 5.255 1.709 4411
-2.603 5.259 1.693 4570
-2.601 5.256 1.674 3339
-2.607 5.267 1.659 3466
-2.612 5.278 1.644 3291
-2.614 5.282 1.626 2186
-2.789 5.636 1.708 2319
-2.808 5.675 1.699 3845
-2.810 5.679 1.681 3818
-2.843 5.745 1.679 3811
-2.838 5.735 1.657 2812
-2.885 5.829 1.662 2144
-2.965 5.992 1.685 2139
-2.960 5.982 1.662 3168
-2.956 5.972 1.639 3506
-3.084 6.232 1.684 2065
-3.124 6.313 1.682 2373
-3.126 6.317 1.662 2982
-3.252 6.570 1.701 2508
-3.236 6.540 1.672 3201
-3.238 6.544 1.650 3124
-3.261 6.589 1.639 2144
-3.431 6.934 1.695 3252
-3.433 6.938 1.672 2875
-3.335 6.740 1.605 1603
-3.720 7.517 1.750 1781
-3.722 7.521 1.726 2742
-3.483 7.037 1.600 2979
-3.484 7.041 1.577 2758
-3.815 7.708 1.688 2477
-3.820 7.719 1.665 3155
-3.825 7.730 1.641 3540
-3.834 7.748 1.619 3305
-3.843 7.766 1.596 3062
-3.838 7.755 1.568 1831
-3.909 7.899 1.569 992
-3.914 7.910 1.544 808
-3.916 7.914 1.519 579
-3.915 7.910 1.492 394
-2.994 6.050 1.132 338
-2.995 6.053 1.113 257
-0.985 1.992 1.736 1499
-0.987 1.996 1.730 2998
-0.989 2.000 1.723 2998
-1.042 2.108 1.801 3541
-1.044 2.112 1.794 4810
-1.046 2.117 1.787 5183
-1.048 2.121 1.780 5556
-1.050 2.125 1.774 5556
-1.053 2.129 1.767 5545
-1.052 2.128 1.756 5784
-1.074 2.173 1.780 5846
-1.076 2.177 1.773 8247
-1.078 2.182 1.766 9677
-1.083 2.192 1.764 11299
-1.085 2.196 1.757 9584
-1.087 2.200 1.750 7729
-1.089 2.204 1.743 7557
-1.092 2.209 1.736 6145
-1.097 2.219 1.733 4896
-1.096 2.217 1.722 4950
-1.095 2.215 1.710 5208
-1.129 2.285 1.751 5205
-1.128 2.283 1.739 6958
-1.136 2.299 1.740 6370
-1.141 2.309 1.737 6324
-1.146 2.319 1.734 4748
-1.172 2.372 1.760 5767
-1.180 2.388 1.761 8154
-1.185 2.398 1.758 10961
-1.187 2.403 1.750 10604
-1.193 2.413 1.746 10532
-1.201 2.429 1.747 7170
-1.212 2.452 1.751 5348
-1.217 2.462 1.748 6131
-1.222 2.472 1.744 7255
-1.227 2.482 1.740 8067
-1.235 2.499 1.740 7708
-1.240 2.509 1.736 6970
-1.245 2.520 1.732 6169
-1.250 2.530 1.728 5773
-1.228 2.485 1.688 7208
-1.233 2.495 1.684 8941
-1.269 2.567 1.719 8926
-1.280 2.590 1.722 9510
-1.294 2.619 1.729 9234
-1.299 2.629 1.725 6830
-1.305 2.639 1.720 4776
-1.328 2.687 1.738 3966
-1.309 2.648 1.703 5648
-1.314 2.658 1.699 8860
-1.316 2.662 1.690 11502
-1.318 2.666 1.682 11614
-1.320 2.670 1.673 9085
-1.328 2.687 1.672 6334
-1.336 2.703 1.670 5582
-1.338 2.707 1.662 6845
-1.337 2.705 1.650 6046
-1.423 2.880 1.737 7979
-1.435 2.903 1.739 8767
-1.431 2.895 1.722 8592
-1.414 2.860 1.692 11431
-1.419 2.871 1.686 12625
-1.421 2.875 1.677 9245
-1.467 2.968 1.716 11742
-1.469 2.973 1.707 11111
-1.474 2.983 1.701 7974
-1.505 3.045 1.722 5804
-1.507 3.049 1.712 8189
-1.509 3.053 1.702 9710
-1.514 3.064 1.696 8963
-1.513 3.061 1.682 5831
-1.509 3.052 1.666 2914
-1.574 3.186 1.721 3848
-1.573 3.183 1.708 5872
-1.569 3.174 1.691 7436
-1.571 3.178 1.681 6098
-1.628 3.293 1.725 5299
-1.626 3.291 1.711 5476
-1.616 3.269 1.688 6955
-1.611 3.260 1.671 6876
-1.610 3.257 1.658 4781
-1.651 3.340 1.684 3940
-1.662 3.363 1.683 5290
-1.671 3.380 1.678 5712
-1.695 3.430 1.688 6570
-1.701 3.441 1.680 4801
-1.699 3.438 1.666 4186
-1.737 3.515 1.687 5083
-1.756 3.552 1.691 3926
-1.813 3.668 1.729 4790
-1.818 3.679 1.720 8519
-1.824 3.690 1.711 9000
-1.826 3.694 1.699 6713
-1.828 3.698 1.687 4613
-1.885 3.815 1.722 4404
-1.881 3.806 1.705 5521
-1.890 3.823 1.698 5106
-1.898 3.840 1.691 6994
-1.910 3.864 1.687 9183
-1.915 3.875 1.677 7725
-1.921 3.886 1.667 5056
-1.972 3.990 1.694 4259
-2.017 4.081 1.715 4757
-1.989 4.025 1.679 5052
-2.021 4.089 1.689 3285
-2.066 4.181 1.709 3836
-2.072 4.192 1.698 5735
-2.074 4.196 1.685 9472
-2.076 4.200 1.671 12788
-2.074 4.197 1.655 11709
-2.080 4.208 1.644 9341
-2.088 4.225 1.635 5347
-2.204 4.459 1.703 3704
-2.209 4.470 1.691 3813
-2.211 4.474 1.677 4735
-2.213 4.478 1.663 5417
-2.215 4.482 1.648 5291
-2.220 4.493 1.636 5653
-2.222 4.497 1.621 5665
-2.224 4.500 1.607 3593
-2.354 4.763 1.677 3226
-2.363 4.781 1.666 3713
-2.372 4.798 1.655 3644
-2.363 4.782 1.633 2346
-2.585 5.230 1.756 3402
-2.584 5.227 1.737 4214
-2.582 5.225 1.718 4100
-2.591 5.242 1.705 4353
-2.596 5.253 1.690 4090
-2.598 5.257 1.674 2907
-2.607 5.275 1.661 3593
-2.609 5.279 1.644 3447
-2.778 5.620 1.722 2346
-2.790 5.645 1.710 2534
-2.806 5.676 1.699 3983
-2.808 5.680 1.681 3632
-2.840 5.747 1.679 4387
-2.835 5.737 1.657 3125
-2.882 5.830 1.662 2453
-2.959 5.987 1.683 2193
-2.954 5.977 1.660 3730
-2.953 5.974 1.639 4315
-2.954 5.978 1.620 2433
-3.121 6.314 1.682 2392
-3.123 6.318 1.662 3057
-3.248 6.572 1.701 2636
-3.233 6.541 1.672 3560
-3.232 6.538 1.649 3517
-3.237 6.549 1.629 2130
-3.428 6.936 1.695 3133
-3.430 6.940 1.672 2739
-3.336 6.749 1.607 1548
-3.716 7.519 1.750 1697
-3.718 7.523 1.726 2760
-3.479 7.039 1.600 3184
-3.481 7.043 1.577 3082
-3.483 7.046 1.554 2579
-3.816 7.721 1.665 3041
-3.822 7.732 1.641 3513
-3.830 7.750 1.619 3298
-3.836 7.761 1.595 2994
-3.834 7.757 1.568 1868
-3.905 7.901 1.569 965
-3.910 7.912 1.544 795
-3.912 7.916 1.519 571
-3.911 7.912 1.492 380
-2.994 6.059 1.133 326
-2.999 6.068 1.115 268
-0.984 1.992 1.736 1647
-0.986 1.996 1.730 3294
-0.988 2.001 1.723 3294
-1.041 2.108 1.801 3707
-1.043 2.113 1.794 5063
-1.048 2.123 1.792 5288
-1.051 2.127 1.785 5529
-1.053 2.131 1.778 5529
-1.052 2.130 1.767 5208
-1.048 2.122 1.751 5215
-1.073 2.173 1.780 5995
-1.076 2.178 1.773 8354
-1.081 2.188 1.771 9590
-1.083 2.192 1.764 10950
-1.085 2.196 1.757 9306
-1.087 2.200 1.750 7489
-1.086 2.199 1.739 7273
-1.091 2.209 1.736 5839
-1.096 2.219 1.733 4698
-1.095 2.217 1.722 4746
-1.094 2.215 1.710 4959
-1.129 2.285 1.751 5568
-1.128 2.283 1.739 6972
-1.136 2.299 1.740 6117
-1.141 2.310 1.737 5772
-1.149 2.326 1.738 4407
-1.172 2.372 1.760 5704
-1.180 2.388 1.761 8052
-1.182 2.393 1.753 10875
-1.187 2.403 1.750 10329
-1.192 2.413 1.746 10116
-1.203 2.436 1.751 6966
-1.208 2.446 1.747 5122
-1.216 2.462 1.748 6197
-1.221 2.472 1.744 7653
-1.226 2.483 1.740 8576
-1.234 2.499 1.740 7958
-1.240 2.510 1.736 6854
-1.245 2.520 1.732 5975
-1.253 2.536 1.732 5596
-1.227 2.485 1.688 6725
-1.232 2.495 1.684 8418
-1.268 2.567 1.719 8997
-1.279 2.590 1.722 9209
-1.294 2.619 1.729 8928
-1.299 2.629 1.725 6619
-1.307 2.646 1.724 4642
-1.324 2.681 1.734 3734
-1.308 2.648 1.703 5658
-1.313 2.658 1.699 8900
-1.315 2.662 1.690 11665
-1.317 2.666 1.682 11732
-1.319 2.670 1.673 9034
-1.324 2.681 1.668 6315
-1.332 2.697 1.667 5328
-1.334 2.701 1.658 6397
-1.414 2.863 1.739 5782
-1.423 2.880 1.737 8327
-1.428 2.891 1.732 8759
-1.424 2.882 1.715 8958
-1.413 2.861 1.692 12171
-1.418 2.871 1.686 13296
-1.423 2.882 1.681 9638
-1.466 2.969 1.716 11761
-1.472 2.979 1.710 11113
-1.474 2.983 1.701 8053
-1.501 3.039 1.718 5754
-1.506 3.049 1.712 8271
-1.508 3.053 1.702 9676
-1.513 3.064 1.696 8895
-1.515 3.068 1.686 5706
-1.508 3.053 1.666 3008
-1.513 3.063 1.660 3729
-1.569 3.177 1.705 5893
-1.568 3.175 1.691 7573
-1.570 3.179 1.681 6355
-1.627 3.293 1.725 5739
-1.629 3.298 1.714 5659
-1.611 3.263 1.685 6764
-1.610 3.260 1.671 6636
-1.612 3.264 1.661 4540
-1.647 3.333 1.681 3794
-1.661 3.364 1.683 5018
-1.670 3.381 1.678 5423
-1.698 3.437 1.691 5957
-1.697 3.435 1.677 4210
-1.692 3.426 1.660 3978
-1.736 3.515 1.687 5155
-1.755 3.552 1.691 4031
-1.815 3.675 1.731 4662
-1.817 3.679 1.720 8162
-1.823 3.690 1.711 8443
-1.825 3.694 1.699 6399
-1.827 3.698 1.687 4510
-1.885 3.815 1.722 5073
-1.880 3.806 1.705 6060
-1.889 3.823 1.698 5072
-1.897 3.841 1.691 6906
-1.909 3.865 1.687 9315
-1.914 3.876 1.677 7488
-1.920 3.886 1.667 4628
-2.017 4.084 1.731 4130
-2.016 4.082 1.715 4573
-1.988 4.026 1.679 4721
-2.020 4.090 1.689 3155
-2.065 4.181 1.709 4196
-2.067 4.185 1.696 6159
-2.073 4.196 1.685 9203
-2.075 4.200 1.671 11918
-2.073 4.198 1.655 11106
-2.079 4.208 1.644 8856
-2.097 4.246 1.643 5203
-2.116 4.284 1.641 3595
-2.208 4.470 1.691 3250
-2.210 4.474 1.677 3922
-2.212 4.478 1.663 4263
-2.214 4.482 1.648 4085
-2.219 4.493 1.636 4673
-2.221 4.497 1.621 5050
-2.223 4.501 1.607 3291
-2.350 4.757 1.675 3282
-2.362 4.781 1.666 3893
-2.370 4.799 1.655 4091
-2.413 4.885 1.665 2333
-2.580 5.224 1.754 3596
-2.579 5.221 1.735 4269
-2.581 5.225 1.718 4247
-2.583 5.229 1.701 5219
-2.585 5.233 1.684 4325
-2.597 5.258 1.674 2355
-2.609 5.283 1.663 3644
-2.604 5.273 1.642 3463
-2.780 5.628 1.724 2622
-2.799 5.666 1.716 2773
-2.801 5.670 1.697 3927
-2.796 5.660 1.675 3415
-2.835 5.740 1.677 4843
-2.940 5.951 1.714 3437
-2.877 5.824 1.660 2580
-2.951 5.973 1.679 2354
-2.949 5.971 1.658 4274
-2.951 5.974 1.639 4903
-2.953 5.978 1.620 2901
-3.119 6.315 1.682 2334
-3.121 6.319 1.662 3066
-3.247 6.573 1.701 2572
-3.231 6.542 1.672 3834
-3.233 6.546 1.650 3802
-3.235 6.550 1.629 2198
-3.423 6.930 1.693 2814
-3.428 6.941 1.672 2455
-3.334 6.749 1.607 1522
-3.477 7.039 1.647 1643
-3.479 7.043 1.624 2642
-3.477 7.040 1.600 3203
-3.479 7.044 1.577 3244
-3.481 7.047 1.554 2752
-3.814 7.722 1.665 2754
-3.823 7.740 1.642 3420
-3.828 7.751 1.619 3225
-3.834 7.762 1.595 2874
-3.829 7.751 1.567 1902
-3.827 7.748 1.541 1078
-3.908 7.913 1.544 744
-3.907 7.909 1.518 536
-3.909 7.913 1.492 370
-2.981 6.036 1.149 290
-2.989 6.052 1.132 306
-2.994 6.062 1.114 294
-2.989 6.050 1.092 302
-2.990 6.053 1.072 282
-2.994 6.062 1.054 263
-2.996 6.065 1.034 258
-0.978 2.002 1.741 1900
-0.980 2.006 1.734 3801
-0.983 2.010 1.728 3801
-1.035 2.118 1.805 3856
-1.037 2.123 1.798 5266
-1.040 2.127 1.792 5411
-1.042 2.131 1.785 5556
-1.044 2.136 1.778 5556
-1.046 2.140 1.771 4984
-1.039 2.127 1.751 4859
-1.067 2.184 1.785 6338
-1.069 2.188 1.778 8552
-1.071 2.192 1.771 9659
-1.073 2.196 1.764 10767
-1.075 2.201 1.757 9181
-1.078 2.205 1.750 7376
-1.077 2.203 1.739 7172
-1.079 2.207 1.732 5636
-1.087 2.223 1.733 4489
-1.086 2.222 1.722 4491
-1.120 2.291 1.762 4943
-1.119 2.290 1.751 5935
-1.118 2.288 1.739 6938
-1.126 2.304 1.740 5880
-1.131 2.314 1.737 5251
-1.148 2.349 1.751 4284
-1.159 2.371 1.756 5677
-1.167 2.387 1.757 7886
-1.172 2.398 1.753 10668
-1.177 2.408 1.750 9934
-1.182 2.418 1.746 9576
-1.193 2.441 1.751 6654
-1.198 2.451 1.747 4823
-1.206 2.467 1.748 6095
-1.211 2.478 1.744 7762
-1.216 2.488 1.740 8762
-1.221 2.498 1.736 7931
-1.229 2.515 1.736 6533
-1.237 2.531 1.736 5631
-1.242 2.542 1.732 5331
-1.244 2.546 1.724 6498
-1.222 2.500 1.684 7893
-1.257 2.573 1.719 8928
-1.268 2.595 1.722 8780
-1.283 2.624 1.729 8477
-1.288 2.635 1.725 6299
-1.296 2.651 1.724 4447
-1.279 2.618 1.693 3406
-1.297 2.653 1.703 5506
-1.299 2.658 1.695 8776
-1.304 2.668 1.690 11676
-1.306 2.672 1.682 11806
-1.308 2.676 1.673 9034
-1.313 2.686 1.668 6359
-1.321 2.703 1.667 5192
-1.323 2.707 1.658 6097
-1.402 2.869 1.739 6140
-1.410 2.886 1.737 8648
-1.413 2.890 1.728 8896
-1.408 2.882 1.712 9593
-1.404 2.873 1.696 13229
-1.406 2.877 1.686 14242
-1.411 2.888 1.681 10335
-1.457 2.981 1.720 11693
-1.459 2.985 1.710 11286
-1.461 2.990 1.701 8370
-1.463 2.994 1.691 6163
-1.493 3.056 1.712 8289
-1.495 3.060 1.702 9607
-1.500 3.070 1.696 8852
-1.506 3.081 1.689 5682
-1.495 3.059 1.666 3058
-1.497 3.063 1.656 3966
-1.553 3.177 1.702 5820
-1.555 3.181 1.691 7430
-1.557 3.185 1.681 6505
-1.613 3.300 1.725 5954
-1.615 3.304 1.714 5829
-1.598 3.269 1.685 6501
-1.596 3.267 1.671 6339
-1.598 3.271 1.661 4298
-1.604 3.281 1.654 3347
-1.647 3.371 1.683 4458
-1.678 3.434 1.699 4895
-1.683 3.444 1.691 5469
-1.679 3.435 1.674 3744
-1.726 3.532 1.705 3898
-1.721 3.523 1.687 5160
-1.740 3.560 1.691 4111
-1.800 3.683 1.731 4477
-1.802 3.687 1.720 7619
-1.807 3.698 1.711 7643
-1.809 3.702 1.699 5927
-1.811 3.706 1.687 4324
-1.868 3.823 1.722 5902
-1.867 3.821 1.707 6844
-1.872 3.831 1.698 5179
-1.884 3.856 1.694 6822
-1.893 3.873 1.687 9451
-1.898 3.884 1.677 7496
-1.903 3.894 1.667 4410
-2.000 4.093 1.731 3907
-2.002 4.097 1.718 4243
-1.971 4.034 1.679 4265
-2.000 4.092 1.687 3197
-2.048 4.190 1.709 4404
-2.050 4.194 1.696 6452
-2.055 4.205 1.685 8903
-2.057 4.209 1.671 11142
-2.056 4.206 1.655 10514
-2.061 4.217 1.644 8362
-2.079 4.255 1.643 5079
-2.098 4.293 1.641 3564
-2.103 4.303 1.630 3321
-2.191 4.484 1.677 3326
-2.193 4.488 1.663 3502
-2.198 4.499 1.650 3241
-2.197 4.496 1.634 3836
-2.202 4.506 1.621 4433
-2.208 4.517 1.609 3027
-2.329 4.767 1.675 3372
-2.345 4.798 1.668 3987
-2.353 4.816 1.657 4416
-2.389 4.888 1.663 2600
-2.558 5.235 1.754 3875
-2.557 5.232 1.735 4453
-2.556 5.229 1.716 4600
-2.561 5.240 1.701 6576
-2.563 5.244 1.684 5105
-2.565 5.248 1.667 2367
-2.587 5.294 1.663 3622
-2.582 5.284 1.642 3509
-2.759 5.646 1.726 2979
-2.775 5.678 1.716 2959
-2.777 5.682 1.697 3761
-2.809 5.748 1.696 3578
-2.811 5.752 1.677 5298
-2.915 5.964 1.714 3999
-2.852 5.836 1.660 2732
-2.922 5.979 1.677 2954
-2.924 5.983 1.658 5196
-2.926 5.987 1.639 5862
-2.924 5.984 1.618 3604
-3.093 6.328 1.682 2120
-3.094 6.332 1.662 2848
-3.219 6.586 1.701 2581
-3.204 6.556 1.672 4094
-3.206 6.560 1.650 4078
-3.208 6.564 1.629 2300
-3.393 6.944 1.693 2541
-3.399 6.955 1.672 2191
-3.305 6.764 1.607 1521
-3.447 7.054 1.647 1902
-3.449 7.058 1.624 2698
-3.448 7.054 1.600 3155
-3.449 7.058 1.577 3369
-3.451 7.062 1.554 2888
-3.782 7.738 1.665 2449
-3.790 7.756 1.642 3245
-3.796 7.767 1.619 3037
-3.801 7.778 1.595 2641
-3.796 7.767 1.567 1906
-3.794 7.764 1.541 1240
-3.803 7.782 1.518 816
-3.873 7.926 1.518 501
-3.875 7.929 1.492 334
-2.965 6.067 1.113 291
-2.966 6.070 1.093 398
-2.968 6.072 1.073 332
-0.977 2.003 1.741 2456
-0.979 2.007 1.734 4913
-0.982 2.011 1.728 4913
-1.034 2.119 1.805 4024
-1.036 2.123 1.798 5494
-1.038 2.128 1.792 5553
-1.041 2.132 1.785 5612
-1.043 2.136 1.778 5612
-1.045 2.141 1.771 4871
-1.070 2.191 1.801 5661
-1.069 2.190 1.789 7172
-1.068 2.188 1.778 9181
-1.070 2.193 1.771 9999
-1.072 2.197 1.764 10817
-1.074 2.201 1.757 9276
-1.074 2.200 1.746 7490
-1.073 2.198 1.734 7256
-1.078 2.208 1.732 5476
-1.100 2.254 1.755 4367
-1.105 2.264 1.752 4683
-1.119 2.292 1.762 6064
-1.118 2.290 1.751 6460
-1.120 2.295 1.743 6920
-1.125 2.305 1.740 5548
-1.130 2.315 1.737 4456
-1.147 2.349 1.751 4320
-1.157 2.372 1.756 5682
-1.165 2.388 1.757 7827
-1.170 2.398 1.753 10511
-1.175 2.408 1.750 9545
-1.181 2.419 1.746 8964
-1.177 2.411 1.730 6346
-1.173 2.403 1.715 4579
-1.202 2.462 1.743 5935
-1.210 2.478 1.744 7889
-1.212 2.482 1.736 8959
-1.220 2.499 1.736 7893
-1.225 2.509 1.732 6029
-1.236 2.532 1.736 5004
-1.244 2.548 1.736 4909
-1.243 2.546 1.724 6227
-1.242 2.544 1.712 7601
-1.253 2.567 1.715 8723
-1.267 2.596 1.722 8039
-1.281 2.625 1.729 7724
-1.286 2.635 1.725 5785
-1.294 2.652 1.724 4097
-1.275 2.612 1.689 3557
-1.292 2.648 1.700 5454
-1.297 2.658 1.695 8529
-1.302 2.669 1.690 11521
-1.304 2.673 1.682 11763
-1.306 2.677 1.673 8943
-1.311 2.687 1.668 6329
-1.320 2.704 1.667 4966
-1.322 2.708 1.658 5625
-1.401 2.870 1.739 6934
-1.406 2.881 1.734 9746
-1.408 2.885 1.725 9896
-1.404 2.876 1.708 11176
-1.403 2.874 1.696 14781
-1.405 2.878 1.686 15695
-1.410 2.888 1.681 11777
-1.455 2.982 1.720 11264
-1.454 2.980 1.707 11071
-1.460 2.990 1.701 8407
-1.471 3.014 1.701 6621
-1.492 3.056 1.712 8287
-1.494 3.061 1.702 9396
-1.502 3.078 1.699 8820
-1.504 3.082 1.689 5765
-1.493 3.060 1.666 3263
-1.495 3.064 1.656 4480
-1.551 3.178 1.702 5910
-1.553 3.182 1.691 7308
-1.555 3.186 1.681 6769
-1.611 3.301 1.725 6181
-1.613 3.305 1.714 6083
-1.596 3.270 1.685 5890
-1.598 3.274 1.675 5797
-1.600 3.278 1.664 4024
-1.602 3.282 1.654 3077
-1.607 3.293 1.646 3856
-1.638 3.356 1.663 4505
-1.682 3.445 1.691 4736
-1.738 3.561 1.731 3768
-1.727 3.539 1.708 4156
-1.723 3.530 1.690 5140
-1.738 3.561 1.691 4153
-1.798 3.684 1.731 4128
-1.800 3.688 1.720 6689
-1.805 3.699 1.711 6376
-1.807 3.703 1.699 5221
-1.809 3.707 1.687 4003
-1.866 3.824 1.722 6925
-1.865 3.822 1.707 7743
-1.874 3.839 1.701 5314
-1.882 3.856 1.694 6867
-1.891 3.874 1.687 9777
-1.896 3.885 1.677 7575
-1.898 3.889 1.665 4052
-1.998 4.094 1.731 3566
-1.977 4.051 1.700 4014
-1.969 4.035 1.679 4232
-1.991 4.079 1.681 3324
-2.046 4.191 1.709 4640
-2.044 4.188 1.693 6834
-2.050 4.199 1.682 8597
-2.055 4.210 1.671 9982
-2.053 4.207 1.655 9438
-2.059 4.218 1.644 7507
-2.084 4.269 1.648 5001
-2.096 4.294 1.641 3534
-2.101 4.304 1.630 3560
-2.192 4.492 1.679 3147
-2.194 4.496 1.665 3758
-2.200 4.506 1.653 3286
-2.195 4.497 1.634 3156
-2.200 4.508 1.621 3623
-2.209 4.525 1.611 2731
-2.324 4.761 1.672 3417
-2.346 4.806 1.670 4124
-2.351 4.817 1.657 5077
-2.383 4.882 1.661 2777
-2.552 5.229 1.752 4294
-2.551 5.226 1.733 4961
-2.553 5.231 1.716 5195
-2.558 5.242 1.701 8442
-2.560 5.246 1.684 6300
-2.559 5.243 1.665 3189
-2.574 5.274 1.657 3829
-2.580 5.285 1.642 3513
-2.756 5.648 1.726 3277
-2.772 5.679 1.716 3021
-2.774 5.683 1.697 3441
-2.806 5.750 1.696 4344
-2.808 5.754 1.677 5874
-2.912 5.965 1.714 4683
-2.910 5.962 1.693 3171
-2.919 5.980 1.677 3881
-2.921 5.984 1.658 6520
-2.923 5.988 1.639 6995
-2.921 5.985 1.618 4313
-2.923 5.989 1.599 2022
-3.091 6.334 1.662 2610
-2.927 5.997 1.560 2563
-3.200 6.557 1.672 4147
-3.202 6.561 1.650 4203
-3.201 6.558 1.628 2406
-2.937 6.018 1.484 2712
-2.939 6.022 1.465 2068
-3.302 6.765 1.607 1579
-3.444 7.055 1.647 2365
-3.445 7.059 1.624 2722
-3.444 7.056 1.600 2860
-3.446 7.060 1.577 3300
-3.448 7.064 1.554 2892
-3.784 7.754 1.667 2227
-3.790 7.765 1.644 3052
-3.792 7.769 1.619 2789
-3.794 7.773 1.594 2311
-3.792 7.769 1.567 1903
-3.794 7.773 1.542 1539
-3.799 7.784 1.518 1053
-3.801 7.787 1.493 602
-2.955 6.054 1.170 451
-2.953 6.050 1.149 381
-2.954 6.052 1.130 348
-2.959 6.062 1.111 330
-2.963 6.071 1.093 382
-2.968 6.081 1.074 277
-0.979 2.009 1.746 2717
-0.981 2.013 1.739 5434
-0.983 2.017 1.733 5434
-0.988 2.027 1.731 4361
-1.035 2.124 1.798 5567
-1.037 2.128 1.792 5550
-1.039 2.133 1.785 5533
-1.041 2.137 1.778 5533
-1.046 2.147 1.776 4780
-1.068 2.192 1.801 6132
-1.068 2.191 1.789 7633
-1.067 2.189 1.778 9421
-1.069 2.193 1.771 10010
-1.071 2.198 1.764 10599
-1.073 2.202 1.757 9124
-1.072 2.200 1.746 7387
-1.071 2.199 1.734 7159
-1.076 2.209 1.732 5169
-1.099 2.254 1.755 4726
-1.109 2.277 1.761 5176
-1.117 2.293 1.762 6730
-1.119 2.297 1.755 6692
-1.118 2.295 1.743 6718
-1.123 2.305 1.740 5246
-1.128 2.316 1.737 3889
-1.145 2.350 1.751 4481
-1.153 2.366 1.752 5872
-1.164 2.389 1.757 7814
-1.166 2.393 1.749 10386
-1.171 2.403 1.746 9340
-1.179 2.419 1.746 8552
-1.175 2.411 1.730 6363
-1.171 2.403 1.715 4909
-1.203 2.469 1.748 5854
-1.208 2.479 1.744 7791
-1.210 2.483 1.736 8831
-1.218 2.500 1.736 7588
-1.223 2.510 1.732 5504
-1.225 2.514 1.724 4652
-1.209 2.481 1.692 4855
-1.241 2.547 1.724 5988
-1.240 2.545 1.712 7453
-1.251 2.568 1.715 8493
-1.262 2.591 1.718 7420
-1.280 2.626 1.729 6929
-1.285 2.636 1.725 5173
-1.293 2.653 1.724 3650
-1.270 2.607 1.685 3583
-1.291 2.649 1.700 5228
-1.296 2.659 1.695 7971
-1.298 2.663 1.686 10880
-1.303 2.673 1.682 11158
-1.305 2.677 1.673 8464
-1.310 2.688 1.668 6015
-1.352 2.774 1.707 4833
-1.354 2.778 1.698 5265
-1.399 2.871 1.739 7534
-1.404 2.881 1.734 10634
-1.403 2.879 1.721 10905
-1.399 2.871 1.705 12459
-1.401 2.875 1.696 15780
-1.406 2.885 1.690 16688
-1.411 2.896 1.684 12816
-1.454 2.983 1.720 10673
-1.453 2.981 1.707 10687
-1.458 2.991 1.701 8228
-1.472 3.021 1.705 6723
-1.487 3.051 1.708 8124
-1.495 3.068 1.705 8985
-1.500 3.078 1.699 8546
-1.505 3.089 1.692 5632
-1.488 3.054 1.663 3274
-1.493 3.065 1.656 4485
-1.549 3.179 1.702 5784
-1.551 3.183 1.691 6768
-1.553 3.187 1.681 6589
-1.609 3.302 1.725 6241
-1.611 3.306 1.714 6217
-1.594 3.271 1.685 5165
-1.593 3.269 1.671 4989
-1.598 3.279 1.664 3668
-1.600 3.283 1.654 3023
-1.605 3.294 1.646 3746
-1.633 3.350 1.660 4245
-1.724 3.538 1.733 3965
-1.733 3.556 1.728 4135
-1.732 3.553 1.713 4315
-1.721 3.531 1.690 4822
-1.736 3.562 1.691 3991
-1.792 3.678 1.729 3941
-1.798 3.689 1.720 5974
-1.803 3.700 1.711 5390
-1.805 3.704 1.699 4683
-1.865 3.828 1.738 4119
-1.864 3.825 1.722 7331
-1.863 3.823 1.707 8189
-1.871 3.840 1.701 5519
-1.883 3.864 1.696 6758
-1.888 3.875 1.687 9793
-1.894 3.886 1.677 7660
-1.912 3.923 1.678 3837
-1.996 4.095 1.731 3380
-1.975 4.052 1.700 3950
-1.967 4.036 1.679 4218
-1.979 4.060 1.674 3464
-2.040 4.186 1.707 4624
-2.042 4.190 1.693 6809
-2.047 4.201 1.682 7937
-2.052 4.211 1.671 8737
-2.051 4.209 1.655 8238
-2.056 4.219 1.644 6538
-2.081 4.271 1.648 4796
-2.090 4.288 1.639 3491
-2.098 4.306 1.630 3642
-2.190 4.493 1.679 3424
-2.191 4.497 1.665 4638
-2.197 4.508 1.653 3911
-2.195 4.505 1.636 2937
-2.201 4.516 1.624 3066
-2.209 4.533 1.614 2614
-2.321 4.762 1.672 3124
-2.346 4.814 1.672 4252
-2.351 4.825 1.659 5534
-2.360 4.843 1.648 3002
-2.546 5.224 1.750 4702
-2.548 5.228 1.733 5414
-2.550 5.232 1.716 5499
-2.555 5.243 1.701 9220
-2.557 5.247 1.684 7006
-2.556 5.244 1.665 4000
-2.564 5.262 1.653 4326
-2.573 5.280 1.640 3393
-2.753 5.649 1.726 3250
-2.768 5.681 1.716 2953
-2.770 5.685 1.697 3019
-2.803 5.751 1.696 4779
-2.805 5.755 1.677 5993
-2.908 5.967 1.714 4957
-2.910 5.971 1.695 3376
-2.915 5.982 1.677 4469
-2.917 5.986 1.658 7549
-2.919 5.990 1.639 8047
-2.918 5.987 1.618 4965
-2.920 5.991 1.599 2409
-2.921 5.995 1.579 2352
-2.923 5.999 1.560 3646
-2.928 6.009 1.542 4856
-3.198 6.563 1.650 3929
-2.932 6.016 1.503 2745
-2.934 6.020 1.484 3683
-2.935 6.024 1.465 3074
-3.437 7.054 1.669 1787
-3.439 7.057 1.647 2670
-3.441 7.061 1.624 2650
-2.939 6.030 1.385 3148
-3.441 7.062 1.577 2974
-3.443 7.066 1.554 2610
-2.940 6.033 1.326 2309
-3.785 7.767 1.644 2849
-3.787 7.771 1.619 2465
-3.785 7.768 1.592 1943
-3.784 7.765 1.566 1860
-3.789 7.775 1.542 1791
-3.794 7.786 1.518 1247
-2.943 6.039 1.187 763
-2.941 6.035 1.166 624
-2.942 6.037 1.147 495
-2.940 6.033 1.126 350
-2.948 6.050 1.109 350
-2.949 6.052 1.090 315
-2.961 6.076 1.073 254
-2.965 6.085 1.055 253
-2.965 6.085 0.995 274
-0.978 2.009 1.746 2898
-0.980 2.014 1.739 5797
-0.982 2.018 1.733 5797
-0.987 2.028 1.731 4822
-1.034 2.124 1.798 5589
-1.036 2.129 1.792 5572
-1.038 2.133 1.785 5554
-1.040 2.137 1.778 5554
-1.045 2.147 1.776 4890
-1.067 2.193 1.801 6413
-1.067 2.191 1.789 7861
-1.069 2.195 1.782 9476
-1.068 2.194 1.771 9877
-1.070 2.198 1.764 10302
-1.072 2.202 1.757 8887
-1.071 2.201 1.746 7194
-1.070 2.199 1.734 6975
-1.075 2.209 1.732 4902
-1.101 2.261 1.759 5020
-1.108 2.277 1.761 5550
-1.116 2.293 1.762 7131
-1.118 2.297 1.755 6834
-1.120 2.302 1.748 6537
-1.122 2.306 1.740 5044
-1.124 2.310 1.733 3551
-1.144 2.350 1.751 4554
-1.152 2.367 1.752 5982
-1.160 2.383 1.753 7830
-1.165 2.393 1.749 10318
-1.170 2.404 1.746 9227
-1.175 2.414 1.742 8412
-1.171 2.406 1.726 6582
-1.170 2.404 1.715 5319
-1.202 2.469 1.748 5656
-1.207 2.479 1.744 7372
-1.209 2.484 1.736 8510
-1.214 2.494 1.732 7517
-1.219 2.504 1.728 5442
-1.221 2.509 1.720 4915
-1.208 2.482 1.692 5023
-1.240 2.548 1.724 6002
-1.239 2.546 1.712 7473
-1.250 2.568 1.715 8393
-1.258 2.585 1.715 7151
-1.278 2.626 1.729 6407
-1.284 2.637 1.725 4734
-1.292 2.653 1.724 3314
-1.269 2.608 1.685 3500
-1.277 2.624 1.684 5039
-1.295 2.660 1.695 7480
-1.297 2.664 1.686 10228
-1.302 2.674 1.682 10440
-1.304 2.678 1.673 7852
-1.312 2.695 1.672 5667
-1.351 2.775 1.707 4804
-1.353 2.779 1.698 5154
-1.395 2.865 1.736 8026
-1.400 2.876 1.730 11436
-1.402 2.880 1.721 11845
-1.398 2.871 1.705 13291
-1.400 2.875 1.696 16156
-1.405 2.886 1.690 17079
-1.410 2.896 1.684 13402
-1.449 2.977 1.716 10238
-1.451 2.981 1.707 10287
-1.456 2.992 1.701 7911
-1.471 3.022 1.705 6761
-1.485 3.052 1.708 7985
-1.494 3.069 1.705 8479
-1.499 3.079 1.699 8142
-1.504 3.090 1.692 5485
-1.547 3.178 1.725 3230
-1.492 3.065 1.656 4322
-1.548 3.180 1.702 5819
-1.553 3.190 1.695 6410
-1.552 3.188 1.681 6423
-1.608 3.303 1.725 6341
-1.610 3.307 1.714 6442
-1.602 3.291 1.694 4880
-1.595 3.276 1.675 4432
-1.597 3.280 1.664 3455
-1.598 3.284 1.654 3099
-1.604 3.294 1.646 3831
-1.628 3.344 1.657 4033
-1.723 3.539 1.733 4118
-1.731 3.557 1.728 4382
-1.730 3.554 1.713 4456
-1.716 3.525 1.687 4487
-1.734 3.562 1.691 3728
-1.791 3.679 1.729 3839
-1.793 3.683 1.717 5518
-1.795 3.687 1.705 4785
-1.803 3.705 1.699 4552
-1.860 3.822 1.735 4242
-1.862 3.826 1.722 7465
-1.861 3.824 1.707 8252
-1.870 3.841 1.701 5644
-1.881 3.865 1.696 6654
-1.887 3.876 1.687 9595
-1.892 3.887 1.677 7587
-1.910 3.924 1.678 3668
-1.994 4.096 1.731 3035
-1.957 4.020 1.687 3938
-1.962 4.030 1.676 4245
-1.977 4.061 1.674 3503
-2.038 4.187 1.707 4404
-2.040 4.191 1.693 6556
-2.045 4.201 1.682 7420
-2.050 4.212 1.671 7889
-2.049 4.209 1.655 7228
-2.058 4.227 1.647 5662
-2.079 4.272 1.648 4484
-2.088 4.289 1.639 3375
-2.100 4.313 1.632 3586
-2.188 4.494 1.679 3763
-2.190 4.498 1.665 5324
-2.195 4.509 1.653 4408
-2.193 4.506 1.636 3013
-2.202 4.523 1.626 2990
-2.210 4.541 1.616 2668
-2.315 4.757 1.670 2955
-2.347 4.822 1.675 4232
-2.349 4.826 1.659 5675
-2.358 4.844 1.648 3136
-2.543 5.225 1.750 4929
-2.545 5.229 1.733 5800
-2.547 5.233 1.716 5655
-2.553 5.244 1.701 9195
-2.555 5.248 1.684 7114
-2.553 5.245 1.665 4424
-2.562 5.263 1.653 4687
-2.571 5.281 1.640 3464
-2.754 5.657 1.728 3045
-2.769 5.689 1.718 2823
-2.798 5.748 1.714 2674
-2.800 5.753 1.696 5013
-2.802 5.757 1.677 5942
-2.905 5.968 1.714 5067
-2.907 5.972 1.695 3447
-2.913 5.983 1.677 4813
-2.915 5.987 1.658 8243
-2.916 5.991 1.639 8695
-2.918 5.995 1.620 5341
-2.917 5.992 1.599 2538
-2.919 5.996 1.579 2523
-2.921 6.000 1.560 4655
-2.926 6.010 1.542 6699
-2.931 6.021 1.524 4870
-2.929 6.018 1.503 3425
-2.931 6.021 1.484 4437
-2.933 6.025 1.465 3937
-2.934 6.028 1.445 2072
-3.436 7.059 1.647 2797
-2.941 6.042 1.408 2624
-2.936 6.031 1.385 3944
-2.934 6.028 1.365 3759
-2.932 6.024 1.344 2705
-2.937 6.034 1.326 2189
-3.782 7.769 1.644 2672
-2.937 6.033 1.286 2896
-2.942 6.043 1.267 2672
-2.950 6.060 1.251 1955
-3.789 7.784 1.543 1961
-2.949 6.059 1.210 1624
-2.944 6.047 1.188 1309
-2.938 6.036 1.166 912
-2.936 6.032 1.146 789
-2.944 6.048 1.129 848
-2.945 6.051 1.109 724
-2.947 6.053 1.090 378
-2.966 6.094 0.996 299
-2.967 6.096 0.976 272
-0.978 2.010 1.746 3226
-0.980 2.014 1.739 6452
-0.982 2.018 1.733 6452
-0.987 2.028 1.731 5483
-1.034 2.125 1.798 5569
-1.039 2.135 1.796 5546
-1.041 2.139 1.790 5562
-1.043 2.143 1.783 5562
-1.045 2.148 1.776 4983
-1.067 2.193 1.801 6643
-1.066 2.191 1.789 8074
-1.068 2.196 1.782 9625
-1.067 2.194 1.771 9839
-1.070 2.198 1.764 10159
-1.072 2.203 1.757 8780
-1.071 2.201 1.746 7105
-1.070 2.199 1.734 6889
-1.072 2.203 1.727 4780
-1.100 2.261 1.759 5409
-1.108 2.277 1.761 5918
-1.116 2.293 1.762 7488
-1.118 2.298 1.755 6953
-1.120 2.302 1.748 6418
-1.122 2.306 1.740 4926
-1.104 2.268 1.703 3657
-1.141 2.345 1.747 4651
-1.149 2.361 1.748 6118
-1.160 2.383 1.753 7725
-1.165 2.394 1.749 10056
-1.167 2.398 1.742 8998
-1.172 2.408 1.738 8110
-1.171 2.406 1.726 6925
-1.170 2.404 1.715 5988
-1.172 2.408 1.707 5787
-1.203 2.474 1.740 6995
-1.208 2.484 1.736 8267
-1.214 2.494 1.732 7410
-1.216 2.498 1.724 5277
-1.218 2.503 1.716 4876
-1.235 2.538 1.728 4549
-1.237 2.542 1.720 5971
-1.239 2.546 1.712 7393
-1.247 2.562 1.711 8224
-1.255 2.579 1.711 6854
-1.278 2.627 1.729 5781
-1.283 2.637 1.725 4195
-1.249 2.566 1.671 3560
-1.266 2.602 1.682 3600
-1.277 2.624 1.684 4923
-1.294 2.660 1.695 6965
-1.296 2.664 1.686 9571
-1.301 2.674 1.682 9781
-1.303 2.678 1.673 7323
-1.311 2.695 1.672 5428
-1.350 2.775 1.707 4711
-1.386 2.849 1.738 5476
-1.394 2.865 1.736 8616
-1.399 2.876 1.730 12155
-1.401 2.880 1.721 12594
-1.397 2.872 1.705 13896
-1.399 2.876 1.696 16431
-1.404 2.886 1.690 17414
-1.409 2.897 1.684 13884
-1.436 2.952 1.702 9983
-1.444 2.969 1.700 10098
-1.440 2.960 1.684 7859
-1.473 3.028 1.708 6641
-1.485 3.052 1.708 7727
-1.493 3.069 1.705 7998
-1.498 3.079 1.699 7794
-1.510 3.103 1.699 5498
-1.524 3.133 1.702 3492
-1.545 3.176 1.712 4247
-1.547 3.180 1.702 5690
-1.552 3.191 1.695 5963
-1.554 3.195 1.684 6160
-1.607 3.303 1.725 6393
-1.609 3.307 1.714 6434
-1.601 3.292 1.694 4628
-1.594 3.276 1.675 4113
-1.596 3.280 1.664 3384
-1.601 3.291 1.657 3141
-1.603 3.295 1.646 3863
-1.618 3.325 1.648 3935
-1.722 3.540 1.733 4238
-1.731 3.557 1.728 4610
-1.733 3.561 1.716 4618
-1.715 3.526 1.687 4210
-1.733 3.563 1.691 3615
-1.787 3.673 1.726 3923
-1.792 3.684 1.717 5219
-1.791 3.681 1.702 4599
-1.803 3.705 1.699 4560
-1.860 3.822 1.735 4341
-1.862 3.826 1.722 7495
-1.860 3.824 1.707 8152
-1.869 3.841 1.701 5652
-1.881 3.865 1.696 6480
-1.889 3.883 1.689 9533
-1.891 3.887 1.677 7587
-1.913 3.931 1.681 3674
-1.911 3.929 1.665 3012
-1.959 4.027 1.689 4085
-1.964 4.037 1.679 4422
-1.979 4.068 1.676 3953
-2.037 4.187 1.707 4124
-2.039 4.191 1.693 6171
-2.041 4.195 1.680 6762
-2.050 4.213 1.671 6817
-2.048 4.210 1.655 6114
-2.057 4.227 1.647 4849
-2.078 4.272 1.648 4147
-2.087 4.289 1.639 3309
-2.099 4.314 1.632 3662
-2.187 4.494 1.679 3991
-2.189 4.498 1.665 5847
-2.194 4.509 1.653 4708
-2.199 4.520 1.641 3146
-2.208 4.538 1.631 3418
-2.210 4.541 1.616 2913
-2.311 4.750 1.668 2731
-2.346 4.823 1.675 4155
-2.348 4.827 1.659 5691
-2.354 4.838 1.646 3174
-2.542 5.225 1.750 5028
-2.541 5.223 1.731 6100
-2.546 5.234 1.716 5804
-2.552 5.245 1.701 8993
-2.554 5.249 1.684 7134
-2.552 5.246 1.665 4852
-2.558 5.257 1.651 4993
-2.570 5.281 1.640 3592
-2.753 5.658 1.728 2818
-2.772 5.697 1.719 2690
-2.797 5.749 1.714 2892
-2.799 5.753 1.696 5091
-2.801 5.757 1.677 5764
-2.904 5.969 1.714 5021
-2.906 5.973 1.695 3417
-2.911 5.984 1.677 4958
-2.913 5.988 1.658 8684
-2.915 5.992 1.639 9326
-2.917 5.996 1.620 5808
-2.919 6.000 1.600 2711
-2.921 6.004 1.581 2922
-2.923 6.007 1.562 5798
-2.925 6.011 1.542 8591
-2.930 6.022 1.524 6521
-2.931 6.025 1.505 4103
-2.933 6.029 1.486 5055
-2.931 6.025 1.465 4843
-2.933 6.029 1.445 2460
-3.435 7.060 1.647 2922
-2.943 6.050 1.409 2817
-2.935 6.032 1.385 4341
-2.933 6.028 1.365 4587
-2.931 6.024 1.344 3416
-2.936 6.034 1.326 2497
-2.934 6.031 1.305 2623
-2.935 6.034 1.286 3727
-2.940 6.044 1.267 3637
-2.945 6.054 1.249 2956
-2.943 6.049 1.228 2758
-2.945 6.052 1.209 2080
-2.946 6.055 1.189 1191
-2.937 6.037 1.166 978
-2.935 6.032 1.146 867
-2.936 6.035 1.126 811
-2.941 6.045 1.108 799
-2.942 6.047 1.088 660
-2.943 6.049 1.069 453
-2.944 6.052 1.050 254
-2.968 6.101 0.997 256
-0.401 0.824 0.191 278
-0.401 0.824 0.189 335
-0.394 0.810 0.185 343
-0.391 0.803 0.182 312
-0.979 2.016 1.750 3553
-0.981 2.020 1.744 7106
-0.983 2.024 1.737 7106
-0.988 2.034 1.736 6138
-0.996 2.050 1.738 5712
-1.037 2.135 1.796 5544
-1.040 2.140 1.790 5570
-1.042 2.144 1.783 5570
-1.044 2.148 1.776 5043
-1.066 2.193 1.801 6717
-1.065 2.192 1.789 8177
-1.067 2.196 1.782 9728
-1.069 2.201 1.775 9864
-1.068 2.199 1.764 10120
-1.070 2.203 1.757 8753
-1.070 2.202 1.746 7037
-1.069 2.200 1.734 6810
-1.074 2.210 1.732 4621
-1.099 2.262 1.759 5826
-1.107 2.278 1.761 6209
-1.115 2.294 1.762 7704
-1.117 2.298 1.755 6955
-1.119 2.303 1.748 6207
-1.121 2.307 1.740 4888
-1.102 2.269 1.703 4015
-1.139 2.345 1.747 4805
-1.144 2.355 1.743 6319
-1.158 2.384 1.753 7674
-1.160 2.388 1.745 9905
-1.165 2.398 1.742 8889
-1.170 2.409 1.738 7922
-1.169 2.407 1.726 7098
-1.168 2.405 1.715 6417
-1.170 2.409 1.707 6171
-1.202 2.474 1.740 6600
-1.207 2.485 1.736 7680
-1.209 2.489 1.728 6672
-1.202 2.474 1.708 4859
-1.219 2.509 1.720 4234
-1.236 2.544 1.732 4429
-1.235 2.542 1.720 5765
-1.237 2.547 1.712 7100
-1.245 2.563 1.711 7992
-1.253 2.580 1.711 6695
-1.277 2.627 1.729 5192
-1.242 2.557 1.675 4113
-1.247 2.567 1.671 4072
-1.258 2.590 1.674 3846
-1.272 2.619 1.681 4866
-1.293 2.660 1.695 6329
-1.295 2.665 1.686 8752
-1.300 2.675 1.682 9018
-1.305 2.685 1.677 6817
-1.310 2.696 1.672 5143
-1.373 2.826 1.736 4727
-1.381 2.843 1.734 5893
-1.393 2.866 1.736 9228
-1.398 2.877 1.730 13078
-1.397 2.875 1.717 13809
-1.396 2.872 1.705 14632
-1.398 2.876 1.696 16537
-1.403 2.887 1.690 17571
-1.408 2.897 1.684 14298
-1.431 2.946 1.699 10156
-1.437 2.957 1.693 10290
-1.439 2.961 1.684 8394
-1.447 2.978 1.681 6525
-1.483 3.053 1.708 7398
-1.491 3.070 1.705 7526
-1.500 3.087 1.702 7555
-1.511 3.110 1.702 5928
-1.523 3.134 1.702 3989
-1.543 3.177 1.712 4360
-1.545 3.181 1.702 5434
-1.551 3.191 1.695 5479
-1.553 3.196 1.684 5919
-1.605 3.304 1.725 6302
-1.607 3.308 1.714 6385
-1.603 3.299 1.698 4595
-1.592 3.277 1.675 4037
-1.594 3.281 1.664 3337
-1.599 3.292 1.657 3137
-1.604 3.302 1.649 3731
-1.718 3.536 1.745 3903
-1.720 3.541 1.733 4203
-1.729 3.558 1.728 4654
-1.731 3.562 1.716 4674
-1.726 3.553 1.699 4018
-1.731 3.564 1.691 3417
-1.785 3.674 1.726 4072
-1.787 3.678 1.714 5003
-1.782 3.669 1.696 4655
-1.804 3.713 1.702 4522
-1.796 3.697 1.681 4474
-1.860 3.827 1.722 7361
-1.858 3.825 1.707 8009
-1.867 3.842 1.701 5655
-1.875 3.860 1.694 6273
-1.887 3.884 1.689 9350
-1.889 3.888 1.677 7400
-1.911 3.932 1.681 3679
-1.909 3.930 1.665 3158
-1.957 4.028 1.689 4349
-1.959 4.032 1.676 4503
-1.977 4.069 1.676 4131
-1.982 4.080 1.666 4193
-2.034 4.185 1.691 5597
-2.039 4.196 1.680 6187
-2.047 4.214 1.671 5936
-2.046 4.211 1.655 5005
-2.054 4.228 1.647 4024
-2.076 4.273 1.648 3794
-2.088 4.297 1.641 3220
-2.096 4.315 1.632 3746
-2.184 4.496 1.679 4128
-2.186 4.500 1.665 6194
-2.191 4.510 1.653 4805
-2.197 4.521 1.641 3317
-2.205 4.539 1.631 3932
-2.207 4.543 1.616 3245
-2.309 4.752 1.668 2428
-2.347 4.831 1.677 4100
-2.346 4.828 1.659 5598
-2.351 4.839 1.646 3195
-2.539 5.227 1.750 4953
-2.538 5.224 1.731 6182
-2.544 5.235 1.716 5701
-2.549 5.246 1.701 8410
-2.548 5.243 1.682 6914
-2.549 5.247 1.665 4996
-2.555 5.258 1.651 5028
-2.563 5.276 1.638 3709
-2.763 5.687 1.736 2677
-2.772 5.705 1.721 2517
-2.794 5.751 1.714 2904
-2.796 5.755 1.696 4988
-2.798 5.759 1.677 5426
-2.901 5.970 1.714 4874
-2.903 5.975 1.695 3311
-2.908 5.986 1.677 4922
-2.913 5.997 1.660 8949
-2.912 5.994 1.639 9811
-2.914 5.997 1.620 6346
-2.916 6.001 1.600 2986
-2.921 6.012 1.583 3360
-2.920 6.009 1.562 6964
-2.921 6.013 1.542 10576
-2.926 6.023 1.524 8628
-2.928 6.027 1.505 5324
-2.930 6.030 1.486 6089
-2.928 6.027 1.465 6076
-2.933 6.037 1.447 3166
-3.431 7.062 1.647 2959
-2.940 6.051 1.409 2626
-2.931 6.033 1.385 4257
-2.926 6.023 1.363 5153
-2.928 6.026 1.344 4070
-2.933 6.036 1.326 2640
-2.934 6.039 1.306 2519
-2.936 6.042 1.287 3502
-2.941 6.052 1.269 3631
-2.942 6.055 1.249 2877
-2.940 6.051 1.228 2922
-2.938 6.047 1.208 3350
-2.939 6.050 1.188 2379
-2.934 6.038 1.166 1491
-2.935 6.041 1.147 1346
-2.933 6.036 1.126 1095
-2.941 6.053 1.109 825
-2.942 6.056 1.090 665
-2.940 6.051 1.069 354
-0.979 2.016 1.750 3620
-0.981 2.020 1.744 7240
-0.983 2.024 1.737 7240
-0.988 2.034 1.736 6298
-0.996 2.050 1.738 5906
-1.037 2.135 1.796 5506
-1.039 2.140 1.790 5547
-1.041 2.144 1.783 5547
-1.060 2.183 1.803 5097
-1.065 2.194 1.801 6839
-1.065 2.192 1.789 8263
-1.067 2.196 1.782 9763
-1.069 2.201 1.775 9906
-1.068 2.199 1.764 10146
-1.070 2.203 1.757 8787
-1.069 2.202 1.746 7053
-1.068 2.200 1.734 6819
-1.091 2.246 1.758 4642
-1.096 2.256 1.755 5974
-1.106 2.278 1.761 6299
-1.114 2.294 1.762 7762
-1.116 2.298 1.755 6954
