1.947 2.334 1.727 5124
2.032 2.436 1.798 1367
1.963 2.353 1.730 4476
2.067 2.477 1.815 1420
1.993 2.389 1.743 4769
2.079 2.492 1.813 1417
2.010 2.409 1.745 4980
2.095 2.511 1.814 1175
2.022 2.423 1.743 6145
2.107 2.526 1.812 1086
2.020 2.422 1.730 5983
2.115 2.535 1.806 1143
2.023 2.425 1.721 5496
2.145 2.571 1.818 2135
2.031 2.434 1.716 3646
2.148 2.575 1.809 3038
2.152 2.579 1.799 4249
2.038 2.443 1.710 2114
2.164 2.593 1.797 5029
2.078 2.490 1.729 3468
2.180 2.614 1.797 7234
2.094 2.510 1.731 4799
2.188 2.623 1.791 8922
2.102 2.519 1.725 4367
2.196 2.632 1.785 10363
2.105 2.523 1.715 3468
2.208 2.646 1.782 10477
2.121 2.542 1.716 2876
2.225 2.667 1.782 9420
2.133 2.557 1.714 3257
2.214 2.654 1.762 8553
2.127 2.550 1.697 2947
2.213 2.652 1.749 9436
2.125 2.548 1.684 1921
2.220 2.661 1.742 8349
2.307 2.766 1.806 2616
2.274 2.725 1.769 6460
2.186 2.620 1.705 1849
2.267 2.718 1.752 7860
2.180 2.613 1.689 1276
2.266 2.716 1.739 7337
2.353 2.821 1.801 1471
2.260 2.708 1.722 5143
2.347 2.813 1.784 4631
2.350 2.817 1.774 7060
2.263 2.712 1.712 3262
2.363 2.832 1.770 7477
2.275 2.727 1.708 3035
2.375 2.847 1.765 5986
2.287 2.741 1.704 2754
2.383 2.856 1.758 4280
2.295 2.750 1.697 2078
2.390 2.865 1.750 3773
2.479 2.971 1.811 1672
2.393 2.869 1.740 4025
2.500 2.997 1.812 1730
2.424 2.906 1.748 4930
2.564 3.073 1.842 2695
2.432 2.915 1.740 5636
2.567 3.077 1.830 3698
2.444 2.930 1.735 4970
2.570 3.081 1.819 3344
2.564 3.073 1.801 3789
2.457 2.944 1.730 3269
2.567 3.077 1.789 4854
2.478 2.970 1.731 2267
2.580 3.092 1.784 4735
2.491 2.985 1.726 2001
2.583 3.096 1.772 5442
2.672 3.202 1.829 2935
2.586 3.099 1.761 6045
2.675 3.206 1.817 4760
2.664 3.193 1.796 7001
2.575 3.086 1.740 3178
2.662 3.191 1.781 7282
2.752 3.298 1.837 1767
2.656 3.183 1.764 4974
2.746 3.291 1.819 3731
2.749 3.295 1.807 4315
2.640 3.164 1.740 3729
2.771 3.321 1.806 5060
2.648 3.174 1.731 1728
2.717 3.257 1.759 5926
2.807 3.364 1.813 4062
2.739 3.283 1.758 6166
2.829 3.391 1.812 4092
2.818 3.377 1.791 6354
2.728 3.270 1.738 2688
2.816 3.375 1.775 5400
2.925 3.506 1.840 1963
2.829 3.391 1.768 3553
2.933 3.516 1.829 1970
2.837 3.400 1.758 4027
2.955 3.542 1.827 1864
2.840 3.403 1.746 5017
2.959 3.546 1.814 2749
2.862 3.430 1.744 4320
2.952 3.538 1.795 3514
2.941 3.525 1.774 4478
2.850 3.416 1.723 2205
2.954 3.540 1.766 3854
3.044 3.649 1.816 1971
3.033 3.635 1.795 3052
2.942 3.527 1.744 2334
3.027 3.628 1.776 3384
2.936 3.519 1.726 1236
3.006 3.603 1.749 2528
3.097 3.712 1.798 2348
3.105 3.721 1.787 3220
2.999 3.595 1.730 2656
3.093 3.708 1.765 2827
3.242 3.886 1.844 2096
3.067 3.677 1.736 3630
3.159 3.786 1.784 2452
3.138 3.761 1.757 3569
3.248 3.894 1.815 2330
3.141 3.765 1.743 4070
3.252 3.897 1.801 3408
3.259 3.907 1.788 5730
3.149 3.774 1.732 4035
3.263 3.910 1.774 6095
3.171 3.801 1.727 2469
3.256 3.903 1.754 4046
3.420 4.099 1.836 2048
3.259 3.906 1.739 3140
3.418 4.097 1.818 3106
3.262 3.910 1.725 3776
3.422 4.101 1.803 3116
3.265 3.913 1.710 3314
3.415 4.093 1.783 1927
3.282 3.934 1.702 2363
3.404 4.079 1.760 2196
3.576 4.287 1.826 3009
3.411 4.089 1.747 1810
3.604 4.319 1.821 2617
3.759 4.506 1.894 1546
3.631 4.352 1.816 3154
3.767 4.515 1.880 1934
3.770 4.519 1.863 3119
3.634 4.356 1.800 2962
3.774 4.523 1.846 3642
3.633 4.354 1.781 2602
3.777 4.527 1.829 3293
3.645 4.369 1.769 2073
3.780 4.531 1.812 3227
3.873 4.642 1.853 2212
3.847 4.610 1.822 3089
3.939 4.722 1.863 2071
3.859 4.626 1.809 2950
3.952 4.737 1.850 1955
3.995 4.788 1.849 2578
3.892 4.665 1.805 2521
4.022 4.821 1.841 3070
3.929 4.710 1.802 2695
4.035 4.836 1.827 3715
3.942 4.725 1.788 2076
4.043 4.846 1.811 3354
4.136 4.958 1.850 1680
4.120 4.938 1.823 3246
4.027 4.826 1.785 2201
4.265 5.112 1.862 2638
4.123 4.942 1.804 2477
4.259 5.104 1.839 2334
4.377 5.246 1.887 1763
4.385 5.255 1.869 2818
4.237 5.079 1.810 1533
4.398 5.271 1.853 2654
4.516 5.413 1.899 1232
4.406 5.281 1.835 1971
4.549 5.452 1.890 1365
4.414 5.290 1.817 2602
4.557 5.462 1.871 1443
4.412 5.288 1.795 2255
4.521 5.418 1.836 1625
4.386 5.257 1.764 2636
4.519 5.416 1.814 2279
4.384 5.254 1.742 4395
4.522 5.420 1.793 1696
4.387 5.258 1.722 4220
4.653 5.578 1.819 1531
4.390 5.261 1.703 3931
4.657 5.581 1.798 1269
4.353 5.217 1.669 5131
4.447 5.330 1.702 1628
4.366 5.233 1.652 6966
4.460 5.345 1.685 1471
4.378 5.248 1.636 8267
4.473 5.361 1.668 840
4.381 5.251 1.616 8841
4.475 5.364 1.648 852
4.389 5.260 1.598 7149
5.158 6.182 1.856 904
4.397 5.270 1.580 4742
5.692 6.822 2.007 829
4.399 5.273 1.560 4367
5.536 6.636 1.930 1013
4.437 5.318 1.551 2775
5.530 6.628 1.902 1237
4.449 5.333 1.534 4850
5.617 6.733 1.903 1538
4.442 5.324 1.511 8231
5.626 6.743 1.879 1534
4.439 5.321 1.489 9447
5.634 6.753 1.855 1088
4.442 5.324 1.469 8185
5.637 6.756 1.830 687
4.454 5.339 1.452 7100
4.549 5.452 1.480 460
4.447 5.330 1.429 4956
4.542 5.443 1.457 336
4.444 5.327 1.408 3159
4.539 5.440 1.435 252
4.452 5.336 1.389 1906
4.454 5.338 1.369 1295
4.466 5.353 1.351 682
4.458 5.344 1.329 327
4.467 5.354 1.248 259
5.992 7.182 0.612 278
6.098 7.309 0.620 256
5.982 7.170 0.584 363
6.124 7.340 0.595 261
5.978 7.165 0.557 372
5.882 7.050 0.550 278
5.898 7.069 0.524 408
5.994 7.184 0.531 343
5.888 7.058 0.497 371
5.990 7.179 0.503 361
5.899 7.071 0.471 382
5.995 7.186 0.476 317
5.900 7.071 0.444 402
5.793 6.944 0.439 349
5.931 7.108 0.419 360
5.789 6.938 0.412 331
5.941 7.121 0.392 301
5.789 6.939 0.386 268
5.765 6.910 0.306 253
5.684 6.813 0.278 299
5.679 6.807 0.252 363
5.685 6.814 0.227 372
5.680 6.808 0.201 315
5.675 6.802 0.175 266
5.369 6.435 -0.046 282
5.262 6.307 -0.090 264
1.446 1.729 1.760 1213
1.524 1.822 1.849 500
1.449 1.732 1.753 2427
1.527 1.825 1.842 2095
1.530 1.829 1.835 3190
1.452 1.736 1.747 2427
1.480 1.769 1.768 3112
1.558 1.863 1.856 2075
1.487 1.778 1.766 4002
1.566 1.871 1.854 2325
1.560 1.865 1.838 4090
1.482 1.771 1.750 2931
1.568 1.874 1.835 5588
1.489 1.780 1.748 2206
1.571 1.878 1.828 5588
1.492 1.784 1.742 2206
1.570 1.877 1.817 8505
1.491 1.782 1.731 1592
1.573 1.880 1.810 11559
1.494 1.786 1.724 1202
1.576 1.884 1.803 10480
1.497 1.789 1.717 1117
1.579 1.888 1.796 9401
1.500 1.793 1.711 1033
1.582 1.891 1.789 7536
1.662 1.987 1.874 892
1.590 1.900 1.786 5731
1.670 1.996 1.871 958
1.593 1.904 1.779 5719
1.673 1.999 1.863 958
1.617 1.933 1.794 6356
1.697 2.029 1.878 641
1.624 1.941 1.791 8500
1.544 1.845 1.708 662
1.632 1.950 1.788 8836
1.551 1.854 1.705 709
1.635 1.954 1.781 9370
1.554 1.858 1.698 556
1.633 1.953 1.770 7842
1.714 2.049 1.852 1600
1.632 1.951 1.758 6790
1.713 2.048 1.840 2997
1.687 2.016 1.802 5493
1.605 1.919 1.721 1653
1.690 2.020 1.795 6170
1.608 1.923 1.713 847
1.688 2.018 1.783 4843
1.607 1.921 1.702 502
1.670 1.996 1.754 4861
1.752 2.094 1.835 2051
1.673 2.000 1.747 5507
1.755 2.097 1.827 2161
1.672 1.998 1.735 6168
1.754 2.096 1.815 2762
1.679 2.007 1.732 5536
1.761 2.105 1.811 2497
1.682 2.011 1.724 4920
1.764 2.109 1.803 2723
1.741 2.081 1.771 3595
1.659 1.983 1.692 1378
1.740 2.080 1.759 2986
1.822 2.178 1.837 902
1.800 2.151 1.804 3505
1.717 2.052 1.726 2144
1.803 2.155 1.796 4720
1.720 2.056 1.719 1757
1.806 2.158 1.788 6271
1.723 2.059 1.711 2000
1.809 2.162 1.780 7823
1.726 2.063 1.703 2083
1.812 2.166 1.772 6658
1.729 2.066 1.696 1544
1.824 2.180 1.772 6376
1.740 2.080 1.696 1037
1.827 2.184 1.764 7156
1.910 2.283 1.839 705
1.830 2.187 1.756 7258
1.913 2.287 1.831 1122
1.828 2.185 1.743 7416
1.912 2.286 1.818 1782
1.836 2.194 1.739 7305
1.920 2.295 1.814 1554
1.843 2.203 1.735 7403
1.927 2.304 1.809 1322
1.895 2.265 1.769 7305
1.811 2.164 1.696 1030
1.898 2.269 1.761 7958
1.982 2.369 1.834 791
1.905 2.278 1.756 7196
1.990 2.378 1.829 800
1.913 2.286 1.752 5511
1.997 2.388 1.824 1641
1.920 2.295 1.747 4027
2.005 2.397 1.819 2215
1.928 2.304 1.742 4162
2.013 2.406 1.814 2295
1.940 2.319 1.741 4833
2.025 2.420 1.812 1606
1.943 2.322 1.732 5054
2.028 2.424 1.803 1374
1.950 2.331 1.727 4792
2.035 2.433 1.798 1515
1.962 2.345 1.726 4170
2.048 2.447 1.796 1468
1.997 2.387 1.743 4889
2.082 2.489 1.813 1380
2.004 2.396 1.738 5152
2.090 2.498 1.807 1373
2.021 2.415 1.740 5833
2.106 2.518 1.809 1107
2.024 2.419 1.730 5613
2.119 2.532 1.806 1229
2.027 2.422 1.721 5198
2.131 2.547 1.804 2214
2.039 2.437 1.719 3471
2.143 2.561 1.802 3096
2.151 2.571 1.796 4329
2.042 2.440 1.710 1990
2.167 2.591 1.797 5054
2.081 2.487 1.729 3036
2.184 2.611 1.797 6791
2.098 2.507 1.731 4473
2.192 2.620 1.791 8295
2.105 2.516 1.725 4237
2.199 2.629 1.785 10122
2.108 2.520 1.715 3385
2.207 2.638 1.778 10556
2.120 2.534 1.713 2645
2.228 2.664 1.782 9025
2.137 2.554 1.714 3269
2.213 2.645 1.759 8575
2.126 2.541 1.694 2589
2.216 2.649 1.749 9488
2.129 2.545 1.684 1932
2.219 2.652 1.739 8242
2.306 2.757 1.803 2754
2.277 2.722 1.769 6298
2.190 2.618 1.705 1857
2.271 2.715 1.752 7609
2.184 2.610 1.689 1247
2.270 2.713 1.739 7090
2.357 2.818 1.801 1402
2.259 2.700 1.719 5082
2.347 2.805 1.781 4935
2.354 2.814 1.774 7393
2.266 2.709 1.712 3229
2.362 2.823 1.766 7874
2.274 2.718 1.705 2873
2.374 2.838 1.762 6135
2.286 2.732 1.701 2750
2.387 2.853 1.758 4254
2.298 2.747 1.697 2172
2.394 2.862 1.750 3658
2.483 2.967 1.811 1985
2.397 2.865 1.740 3931
2.486 2.971 1.800 1981
2.424 2.897 1.745 4602
2.568 3.070 1.842 2859
2.436 2.912 1.740 5106
2.571 3.073 1.830 3943
2.453 2.932 1.738 4731
2.574 3.077 1.819 3567
2.573 3.075 1.804 3880
2.465 2.947 1.733 3239
2.576 3.079 1.792 5038
2.487 2.973 1.734 2583
2.579 3.083 1.781 4828
2.668 3.189 1.838 2433
2.587 3.092 1.772 5384
2.676 3.199 1.829 3023
2.590 3.096 1.761 6329
2.679 3.203 1.817 4715
2.668 3.189 1.796 7034
2.579 3.082 1.740 3326
2.667 3.188 1.781 6988
2.756 3.295 1.837 1718
2.646 3.163 1.755 4695
2.745 3.281 1.816 3680
2.753 3.291 1.807 4278
2.644 3.161 1.740 3489
2.775 3.317 1.806 4964
2.685 3.210 1.751 1682
2.721 3.253 1.759 5903
2.811 3.361 1.813 3889
2.743 3.279 1.758 6067
2.834 3.387 1.812 4238
2.827 3.379 1.794 6755
2.737 3.272 1.740 3045
2.826 3.377 1.778 5573
2.930 3.502 1.840 1832
2.838 3.392 1.771 3919
2.929 3.500 1.824 1952
2.841 3.396 1.758 4176
2.932 3.504 1.811 1928
2.844 3.400 1.746 4758
2.959 3.536 1.811 2837
2.866 3.426 1.744 4095
2.957 3.534 1.795 3578
2.946 3.521 1.774 4358
2.855 3.412 1.723 2268
2.958 3.536 1.766 3565
3.049 3.645 1.816 2178
3.038 3.631 1.795 3489
2.947 3.523 1.744 2051
3.032 3.624 1.776 3476
2.940 3.515 1.726 1228
3.006 3.593 1.746 2756
3.097 3.702 1.796 2431
3.004 3.591 1.730 3056
3.110 3.717 1.787 3042
3.098 3.703 1.765 2858
3.007 3.594 1.717 2314
3.072 3.673 1.736 3246
3.255 3.891 1.832 2402
3.143 3.757 1.757 3512
3.259 3.895 1.818 2518
3.146 3.760 1.743 4145
3.257 3.893 1.801 3510
3.265 3.902 1.788 5441
3.154 3.770 1.732 4054
3.268 3.906 1.774 5719
3.176 3.796 1.727 2415
3.261 3.898 1.754 3732
3.426 4.095 1.836 2043
3.424 4.093 1.818 3060
3.269 3.908 1.742 2944
3.267 3.905 1.725 3562
3.427 4.096 1.803 3004
3.275 3.915 1.712 3091
3.406 4.071 1.776 1905
3.293 3.936 1.705 2182
3.414 4.081 1.763 2072
3.582 4.282 1.826 3136
3.422 4.090 1.750 1817
3.610 4.314 1.821 2580
3.434 4.105 1.739 1412
3.637 4.347 1.816 2881
3.773 4.510 1.880 1768
3.777 4.514 1.863 2981
3.640 4.351 1.800 2706
3.775 4.512 1.843 3579
3.638 4.349 1.781 2496
3.783 4.522 1.829 3246
3.651 4.364 1.769 2148
3.786 4.526 1.812 2852
3.879 4.636 1.853 2120
3.858 4.611 1.825 2892
3.951 4.722 1.866 1791
3.866 4.621 1.809 3178
3.959 4.732 1.850 2236
3.991 4.771 1.845 2844
3.893 4.654 1.802 2657
4.034 4.821 1.843 3104
3.936 4.704 1.802 2752
4.042 4.831 1.827 3850
3.949 4.720 1.788 2182
4.050 4.841 1.811 3440
4.143 4.952 1.850 1883
4.127 4.932 1.823 3261
4.033 4.821 1.785 2280
4.272 5.107 1.862 2777
4.135 4.942 1.806 2303
4.261 5.093 1.837 2456
4.389 5.246 1.889 1987
4.392 5.250 1.869 3294
4.239 5.067 1.808 1593
4.405 5.265 1.853 2870
4.523 5.406 1.899 1253
4.413 5.275 1.835 2075
4.561 5.452 1.892 1376
4.421 5.285 1.817 2435
4.569 5.461 1.873 1488
4.424 5.288 1.797 2170
4.627 5.530 1.873 1420
4.393 5.251 1.764 2221
4.526 5.410 1.814 1928
4.391 5.248 1.742 2996
4.653 5.562 1.839 1632
4.399 5.258 1.724 3198
4.661 5.571 1.819 1651
4.397 5.255 1.703 4426
4.659 5.569 1.797 1262
4.390 5.247 1.679 4754
4.905 5.863 1.861 1052
4.373 5.227 1.652 5692
4.467 5.339 1.685 1310
4.381 5.236 1.634 6542
4.475 5.349 1.667 874
4.383 5.239 1.615 7201
5.168 6.177 1.881 914
4.386 5.243 1.595 6457
5.166 6.175 1.856 971
4.404 5.264 1.580 4649
5.696 6.808 2.006 958
4.416 5.279 1.563 5107
5.545 6.628 1.930 990
4.424 5.288 1.545 5025
5.544 6.626 1.903 966
4.417 5.279 1.522 5922
5.622 6.719 1.902 1252
4.434 5.300 1.506 8593
5.630 6.729 1.878 1152
4.442 5.309 1.488 9552
5.643 6.745 1.855 787
4.449 5.318 1.469 9232
5.711 6.826 1.849 666
4.447 5.315 1.448 9499
4.541 5.428 1.476 696
4.449 5.318 1.428 6053
4.544 5.431 1.455 420
4.461 5.333 1.411 2588
4.464 5.336 1.390 1453
4.461 5.332 1.369 1018
4.468 5.341 1.350 729
4.476 5.350 1.331 442
4.468 5.340 1.308 255
6.077 7.264 0.756 277
6.079 7.266 0.729 273
6.075 7.261 0.701 252
6.131 7.329 0.678 256
6.122 7.318 0.649 355
6.103 7.295 0.620 421
5.991 7.161 0.611 378
5.987 7.156 0.584 508
6.094 7.284 0.592 391
5.988 7.157 0.557 531
6.135 7.333 0.567 389
5.994 7.164 0.530 538
5.897 7.049 0.524 476
5.994 7.165 0.503 529
5.893 7.044 0.497 510
5.909 7.063 0.471 615
6.005 7.178 0.476 448
5.909 7.063 0.444 728
5.798 6.930 0.438 437
5.900 7.052 0.417 620
5.803 6.937 0.412 410
5.819 6.955 0.387 429
5.915 7.071 0.391 319
5.824 6.962 0.361 458
5.728 6.847 0.357 280
5.825 6.962 0.334 422
5.820 6.957 0.308 389
5.693 6.805 0.304 291
5.785 6.915 0.281 439
5.688 6.799 0.278 382
5.689 6.800 0.252 501
5.810 6.945 0.255 408
5.694 6.806 0.227 529
5.811 6.945 0.229 403
5.689 6.800 0.201 462
5.816 6.952 0.202 280
5.684 6.794 0.175 402
5.552 6.636 0.174 254
5.684 6.794 0.149 290
5.547 6.630 0.149 262
5.643 6.745 0.124 305
5.547 6.630 0.124 273
5.638 6.739 0.098 256
5.516 6.593 0.074 256
5.470 6.538 0.001 250
5.378 6.428 -0.021 312
5.378 6.428 -0.046 375
5.281 6.313 -0.042 262
5.276 6.306 -0.066 303
5.372 6.422 -0.070 276
5.270 6.300 -0.090 352
5.270 6.299 -0.113 303
5.269 6.299 -0.137 254
5.233 6.255 -0.159 268
5.233 6.255 -0.183 310
5.227 6.248 -0.206 283
5.221 6.241 -0.229 264
1.446 1.721 1.755 1315
1.524 1.814 1.844 663
1.449 1.724 1.749 2631
1.527 1.817 1.837 2254
1.530 1.821 1.831 3181
1.452 1.728 1.742 2631
1.537 1.830 1.828 2743
1.459 1.736 1.740 2696
1.483 1.765 1.757 3384
1.561 1.858 1.845 2425
1.564 1.862 1.838 4071
1.486 1.768 1.750 2662
1.572 1.871 1.835 5766
1.493 1.777 1.748 2148
1.575 1.874 1.828 5766
1.496 1.780 1.742 2148
1.574 1.873 1.817 8915
1.495 1.779 1.731 1584
1.577 1.877 1.810 12114
1.498 1.783 1.724 1228
1.580 1.881 1.803 11047
1.501 1.786 1.717 1151
1.583 1.884 1.796 9980
1.504 1.790 1.711 1074
1.586 1.888 1.789 7895
1.666 1.983 1.874 807
1.594 1.897 1.786 5997
1.674 1.992 1.871 811
1.601 1.906 1.784 6068
1.681 2.001 1.868 707
1.621 1.929 1.794 6548
1.701 2.025 1.878 599
1.628 1.938 1.791 8393
1.548 1.842 1.708 681
1.636 1.947 1.788 8794
1.555 1.851 1.705 724
1.639 1.950 1.781 9329
1.558 1.854 1.698 578
1.638 1.949 1.770 7907
1.719 2.045 1.852 1506
1.636 1.948 1.758 7061
1.717 2.044 1.840 2844
1.691 2.012 1.802 5740
1.609 1.916 1.721 1903
1.694 2.016 1.795 6529
1.612 1.919 1.713 1017
1.697 2.020 1.787 5089
1.615 1.923 1.706 646
1.674 1.993 1.754 4575
1.756 2.090 1.835 1916
1.677 1.996 1.747 5352
1.759 2.094 1.827 1990
1.680 2.000 1.739 6130
1.762 2.098 1.819 2064
1.683 2.003 1.732 5443
1.765 2.101 1.811 2289
1.686 2.007 1.724 4757
1.769 2.105 1.803 2514
1.746 2.078 1.771 3469
1.663 1.980 1.692 1359
1.749 2.081 1.763 2984
1.666 1.983 1.685 653
1.804 2.147 1.804 4177
1.721 2.049 1.726 1617
1.807 2.151 1.796 5828
1.724 2.052 1.719 1442
1.810 2.155 1.788 7300
1.727 2.056 1.711 1815
1.813 2.158 1.780 8771
1.730 2.059 1.703 2013
1.816 2.162 1.772 7393
1.733 2.063 1.696 1491
1.828 2.176 1.772 6563
1.745 2.077 1.696 997
1.836 2.185 1.768 7085
1.919 2.284 1.843 527
1.834 2.183 1.756 7155
1.918 2.283 1.831 1198
1.833 2.182 1.743 7339
1.917 2.282 1.818 2027
1.840 2.190 1.739 7057
1.924 2.291 1.814 1620
1.848 2.199 1.735 6996
1.932 2.300 1.809 1208
1.900 2.261 1.769 7255
1.815 2.161 1.696 1019
1.903 2.265 1.761 7658
1.987 2.365 1.834 720
1.910 2.274 1.756 6982
1.995 2.374 1.829 698
1.918 2.282 1.752 5370
2.002 2.383 1.824 1496
1.930 2.297 1.751 4032
2.015 2.398 1.823 1869
1.937 2.306 1.746 3925
2.022 2.407 1.818 1998
1.945 2.315 1.741 4196
2.030 2.416 1.812 1869
1.943 2.313 1.728 4346
2.028 2.414 1.799 1942
1.955 2.327 1.727 4173
2.041 2.429 1.798 1826
2.003 2.384 1.755 4247
2.089 2.486 1.826 1190
2.002 2.382 1.743 5017
2.087 2.484 1.813 1397
2.009 2.391 1.738 5430
2.095 2.493 1.807 1441
2.026 2.411 1.740 5568
2.112 2.513 1.809 1012
2.033 2.420 1.734 5196
2.119 2.522 1.803 1382
2.036 2.424 1.725 4873
2.127 2.532 1.797 2698
2.135 2.541 1.791 3638
2.044 2.432 1.719 3354
2.151 2.561 1.792 4555
2.051 2.441 1.714 2014
2.173 2.586 1.797 5076
2.086 2.483 1.729 3199
2.189 2.606 1.797 6011
2.103 2.503 1.731 4606
2.197 2.615 1.791 7204
2.110 2.512 1.725 4328
2.205 2.624 1.785 9683
2.118 2.521 1.719 3457
2.213 2.633 1.778 10725
2.125 2.530 1.713 2722
2.216 2.637 1.768 8898
2.128 2.533 1.703 2654
2.219 2.641 1.759 8536
2.131 2.537 1.694 2472
2.222 2.644 1.749 9177
2.134 2.540 1.684 1884
2.225 2.648 1.739 7973
2.312 2.752 1.803 2439
2.278 2.712 1.766 6260
2.191 2.607 1.702 1457
2.272 2.704 1.749 7560
2.360 2.809 1.812 1201
2.275 2.708 1.739 7156
2.363 2.813 1.801 1334
2.269 2.701 1.722 5187
2.357 2.805 1.784 4757
2.360 2.809 1.774 7587
2.272 2.704 1.712 3193
2.372 2.824 1.770 8165
2.284 2.719 1.708 3003
2.380 2.833 1.762 6315
2.292 2.728 1.701 2729
2.388 2.842 1.755 3931
2.299 2.737 1.694 2099
2.452 2.918 1.785 3225
2.312 2.751 1.690 1496
2.408 2.866 1.743 3814
2.497 2.972 1.803 2108
2.416 2.875 1.735 4483
2.575 3.064 1.842 3116
2.437 2.901 1.737 4443
2.578 3.068 1.830 4412
2.464 2.932 1.741 4427
2.576 3.066 1.816 4100
2.579 3.070 1.804 4327
2.490 2.964 1.746 3562
2.582 3.074 1.792 5457
2.493 2.967 1.734 2915
2.590 3.083 1.784 5107
2.680 3.189 1.841 2511
2.593 3.087 1.772 5479
2.683 3.193 1.829 3111
2.601 3.096 1.764 6723
2.691 3.203 1.820 4323
2.680 3.189 1.799 7223
2.590 3.083 1.743 3801
2.673 3.182 1.781 6607
2.763 3.289 1.837 1778
2.648 3.152 1.752 4173
2.752 3.276 1.816 3779
2.755 3.279 1.804 4341
2.646 3.150 1.737 3221
2.782 3.311 1.806 4716
2.692 3.204 1.751 1943
2.728 3.247 1.759 5942
2.819 3.355 1.813 3532
2.750 3.273 1.758 5936
2.841 3.381 1.812 4520
2.834 3.373 1.794 7469
2.744 3.266 1.740 3206
2.837 3.377 1.781 6173
2.747 3.269 1.728 1853
2.850 3.392 1.774 4837
2.941 3.500 1.826 1819
2.853 3.396 1.761 4817
2.944 3.504 1.813 1989
2.851 3.394 1.746 4763
2.966 3.530 1.811 2740
2.864 3.409 1.738 3974
2.955 3.517 1.790 3783
2.958 3.521 1.776 4202
2.867 3.412 1.725 2420
2.971 3.536 1.768 3400
3.062 3.644 1.819 2002
3.046 3.625 1.795 3822
2.954 3.516 1.744 1826
3.039 3.617 1.776 3526
2.948 3.509 1.726 1315
3.008 3.581 1.744 3023
3.100 3.690 1.793 2424
3.012 3.584 1.730 3289
3.103 3.693 1.779 2793
3.106 3.697 1.765 3003
3.014 3.588 1.717 2237
3.138 3.735 1.767 2993
3.264 3.884 1.832 2277
3.151 3.750 1.757 3277
3.267 3.888 1.818 2744
3.154 3.754 1.743 4087
3.270 3.892 1.803 3622
3.278 3.901 1.791 4968
3.157 3.757 1.729 4052
3.281 3.905 1.776 5094
3.189 3.795 1.730 2599
3.274 3.897 1.756 3407
3.425 4.076 1.831 2075
3.302 3.930 1.754 3072
3.433 4.085 1.818 2901
3.285 3.910 1.729 3407
3.441 4.095 1.805 2698
3.288 3.914 1.715 2883
3.380 4.023 1.759 2041
3.583 4.265 1.840 2166
3.310 3.940 1.709 2019
3.591 4.274 1.826 3305
3.425 4.077 1.747 1689
3.594 4.278 1.810 2674
3.443 4.098 1.739 1312
3.646 4.340 1.816 2381
3.783 4.502 1.880 1734
3.786 4.506 1.863 3104
3.644 4.338 1.798 2284
3.789 4.510 1.846 3178
3.647 4.341 1.781 2357
3.792 4.514 1.829 2626
3.660 4.357 1.769 2240
3.864 4.599 1.842 2798
3.771 4.488 1.801 1467
3.867 4.603 1.825 3020
3.960 4.714 1.866 1889
3.880 4.618 1.811 3150
3.973 4.729 1.852 2442
3.991 4.751 1.840 3232
3.898 4.640 1.800 2911
4.044 4.813 1.843 3339
3.945 4.696 1.802 2971
4.052 4.823 1.827 4047
3.958 4.711 1.788 2450
4.060 4.832 1.811 3578
4.153 4.943 1.850 2207
4.137 4.924 1.823 3010
4.043 4.812 1.785 2145
4.278 5.092 1.860 2821
4.150 4.939 1.808 2128
4.271 5.084 1.837 2474
4.400 5.236 1.889 2292
4.403 5.240 1.869 3629
4.245 5.052 1.806 1616
4.411 5.250 1.851 2979
4.534 5.397 1.899 1234
4.424 5.266 1.835 2125
4.572 5.442 1.892 1331
4.432 5.275 1.817 2584
4.581 5.452 1.873 1548
4.435 5.279 1.797 2247
4.618 5.497 1.866 1384
4.518 5.377 1.806 1887
4.651 5.536 1.856 1667
4.392 5.227 1.739 2129
4.660 5.546 1.837 1894
4.405 5.243 1.722 2792
4.673 5.561 1.819 1775
4.403 5.240 1.701 4617
4.676 5.565 1.798 1386
4.396 5.232 1.677 5058
4.917 5.853 1.861 1193
4.374 5.206 1.649 4533
4.925 5.862 1.841 1235
4.382 5.215 1.631 4401
5.197 6.186 1.911 1009
4.389 5.224 1.613 5050
5.001 5.953 1.820 1113
4.397 5.233 1.595 5775
5.005 5.956 1.797 1205
4.410 5.249 1.578 6169
5.710 6.796 2.006 1142
4.417 5.258 1.560 5280
5.559 6.616 1.930 941
4.410 5.249 1.537 3164
4.505 5.362 1.567 904
4.418 5.258 1.519 2016
5.631 6.702 1.900 1098
4.465 5.315 1.513 2539
5.889 7.009 1.954 825
4.473 5.324 1.494 3350
5.717 6.805 1.874 734
4.455 5.303 1.468 3968
5.725 6.814 1.849 813
4.453 5.300 1.446 5756
5.723 6.812 1.822 681
4.460 5.309 1.428 4267
5.727 6.816 1.796 412
4.478 5.329 1.412 1442
4.480 5.332 1.392 965
4.472 5.323 1.369 695
4.470 5.320 1.347 531
4.462 5.310 1.324 277
6.086 7.244 0.783 269
6.088 7.246 0.756 347
6.089 7.247 0.728 392
6.146 7.315 0.706 535
6.147 7.316 0.678 650
5.933 7.062 0.659 290
6.138 7.305 0.649 806
5.929 7.057 0.632 339
6.128 7.294 0.621 815
6.006 7.149 0.611 515
6.119 7.283 0.592 754
6.007 7.150 0.584 595
6.008 7.151 0.557 657
6.125 7.290 0.565 581
6.009 7.152 0.530 712
5.815 6.921 0.517 593
5.811 6.916 0.491 799
6.009 7.152 0.503 707
5.812 6.917 0.465 779
5.918 7.044 0.471 728
5.919 7.045 0.444 916
5.807 6.912 0.438 773
5.914 7.039 0.417 829
5.818 6.924 0.412 665
5.834 6.943 0.387 880
5.930 7.058 0.391 501
5.834 6.944 0.360 1022
5.737 6.829 0.357 380
5.834 6.944 0.334 882
5.738 6.829 0.331 352
5.830 6.938 0.308 787
5.702 6.787 0.304 358
5.825 6.933 0.281 854
5.703 6.787 0.278 508
5.825 6.933 0.255 765
5.703 6.788 0.252 717
5.703 6.788 0.227 775
5.825 6.933 0.229 675
5.703 6.788 0.201 682
5.825 6.933 0.202 430
5.698 6.782 0.175 598
5.566 6.624 0.174 373
5.698 6.782 0.149 428
5.561 6.618 0.149 383
5.561 6.618 0.124 392
5.657 6.734 0.124 375
5.545 6.600 0.099 349
5.652 6.727 0.098 315
5.535 6.588 0.074 359
5.535 6.588 0.049 320
5.484 6.527 0.025 308
5.387 6.412 0.027 269
5.397 6.424 0.003 387
5.494 6.539 0.000 333
5.392 6.417 -0.021 478
5.488 6.532 -0.024 325
5.386 6.411 -0.045 569
5.289 6.296 -0.042 375
5.289 6.295 -0.066 430
5.386 6.410 -0.070 418
5.284 6.289 -0.090 491
5.380 6.404 -0.094 287
5.283 6.288 -0.113 432
5.262 6.263 -0.136 380
5.246 6.244 -0.159 402
5.246 6.244 -0.183 459
5.240 6.237 -0.206 408
5.234 6.230 -0.229 365
5.155 6.136 -0.317 303
5.159 6.141 -0.341 300
5.158 6.140 -0.364 295
5.152 6.132 -0.387 286
5.010 5.963 -0.372 253
4.913 5.848 -0.563 254
4.809 5.724 -0.591 303
4.808 5.722 -0.613 303
1.448 1.719 1.755 1292
1.526 1.811 1.844 685
1.451 1.722 1.749 2584
1.529 1.815 1.837 2240
1.533 1.819 1.831 3110
1.454 1.726 1.742 2584
1.461 1.734 1.740 2624
1.540 1.828 1.828 2585
1.481 1.758 1.752 3092
1.560 1.851 1.840 2138
1.567 1.860 1.838 3978
1.488 1.766 1.750 2512
1.574 1.869 1.835 5847
1.495 1.775 1.748 2140
1.577 1.872 1.828 5847
1.498 1.778 1.742 2140
1.576 1.871 1.817 9053
1.497 1.777 1.731 1599
1.575 1.870 1.805 12294
1.496 1.776 1.719 1097
1.583 1.879 1.803 11236
1.503 1.784 1.717 1190
1.586 1.882 1.796 10211
1.506 1.788 1.711 1122
1.589 1.886 1.789 8004
1.669 1.981 1.874 747
1.600 1.900 1.791 6209
1.681 1.995 1.875 615
1.604 1.903 1.784 6324
1.684 1.999 1.868 615
1.619 1.922 1.790 6645
1.700 2.018 1.873 668
1.631 1.936 1.791 8084
1.550 1.840 1.708 668
1.638 1.945 1.788 8502
1.558 1.849 1.705 708
1.641 1.948 1.781 9018
1.560 1.852 1.698 571
1.640 1.947 1.770 7657
1.721 2.043 1.852 1424
1.639 1.945 1.758 6928
1.720 2.042 1.840 2691
1.693 2.010 1.802 5768
1.612 1.913 1.721 1986
1.697 2.014 1.795 6568
1.615 1.917 1.713 1102
1.700 2.017 1.787 5159
1.618 1.920 1.706 686
1.677 1.990 1.754 4407
1.759 2.088 1.835 1738
1.680 1.994 1.747 5208
1.762 2.091 1.827 1823
1.683 1.998 1.739 6009
1.765 2.095 1.819 1907
1.686 2.001 1.732 5255
1.768 2.099 1.811 2172
1.689 2.005 1.724 4502
1.771 2.103 1.803 2437
1.753 2.081 1.775 3103
1.670 1.982 1.696 1696
1.804 2.141 1.812 2824
1.704 2.022 1.718 1745
1.807 2.145 1.804 4640
1.724 2.046 1.726 1293
1.810 2.148 1.796 6457
1.727 2.050 1.719 1242
1.813 2.152 1.788 7812
1.730 2.053 1.711 1664
1.816 2.156 1.780 9167
1.733 2.057 1.703 1908
1.819 2.159 1.772 7702
1.736 2.060 1.696 1434
1.831 2.174 1.772 6520
1.748 2.074 1.696 1018
1.839 2.182 1.768 6830
1.922 2.282 1.843 513
1.837 2.181 1.756 6868
1.921 2.280 1.831 1250
1.836 2.179 1.743 7042
1.920 2.279 1.818 2150
1.843 2.188 1.739 6696
1.928 2.288 1.814 1639
1.851 2.197 1.735 6573
1.935 2.297 1.809 1115
1.903 2.258 1.769 7163
1.818 2.158 1.696 973
1.906 2.262 1.761 7554
1.990 2.362 1.834 685
1.913 2.271 1.756 7002
1.998 2.372 1.829 651
1.925 2.285 1.755 5332
2.010 2.386 1.828 1274
1.933 2.294 1.751 4027
2.018 2.395 1.823 1768
1.940 2.303 1.746 3852
2.025 2.404 1.818 1991
1.948 2.312 1.741 4129
2.033 2.413 1.812 1947
1.946 2.310 1.728 4408
2.032 2.412 1.799 1971
1.954 2.319 1.724 4264
2.039 2.421 1.794 2032
2.006 2.381 1.755 4193
2.092 2.483 1.826 1156
2.005 2.380 1.743 5015
2.091 2.482 1.813 1365
2.012 2.389 1.738 5536
2.098 2.491 1.807 1486
2.029 2.408 1.740 5355
2.115 2.510 1.809 1024
2.041 2.423 1.738 4953
2.127 2.525 1.806 1391
2.044 2.426 1.729 4732
2.130 2.529 1.797 2974
2.138 2.538 1.791 3937
2.047 2.430 1.719 3329
2.150 2.552 1.789 4699
2.055 2.439 1.714 2046
2.172 2.578 1.793 5104
2.085 2.475 1.726 2964
2.193 2.603 1.797 5359
2.106 2.500 1.731 4672
2.201 2.612 1.791 6331
2.114 2.509 1.725 4341
2.208 2.621 1.785 9049
2.121 2.518 1.719 3483
2.211 2.625 1.775 10486
2.124 2.521 1.709 2532
2.219 2.634 1.768 8907
2.132 2.530 1.703 2575
2.222 2.638 1.759 8309
2.135 2.534 1.694 2189
2.225 2.641 1.749 8679
2.138 2.537 1.684 1662
2.233 2.650 1.742 7540
2.321 2.754 1.806 2145
2.273 2.698 1.759 6135
2.361 2.802 1.822 1392
2.276 2.701 1.749 7316
2.364 2.806 1.812 1187
2.274 2.699 1.735 7074
2.362 2.804 1.798 1367
2.347 2.786 1.774 5275
2.259 2.681 1.712 4480
2.364 2.806 1.774 7639
2.276 2.701 1.712 3197
2.376 2.821 1.770 8276
2.288 2.716 1.708 2949
2.384 2.830 1.762 6317
2.295 2.725 1.701 2698
2.392 2.839 1.755 3686
2.480 2.944 1.815 2032
2.474 2.937 1.798 3098
2.385 2.831 1.738 2273
2.416 2.868 1.746 3935
2.505 2.974 1.806 2086
2.424 2.877 1.738 4681
2.579 3.061 1.842 3191
2.577 3.059 1.827 4555
2.432 2.886 1.731 4167
2.580 3.063 1.816 4276
2.468 2.929 1.741 4061
2.584 3.067 1.804 4505
2.494 2.960 1.746 3656
2.587 3.070 1.792 5747
2.497 2.964 1.734 3006
2.590 3.074 1.781 5306
2.679 3.180 1.838 2875
2.598 3.083 1.772 5375
2.687 3.190 1.829 3052
2.605 3.092 1.764 6782
2.695 3.199 1.820 4068
2.684 3.186 1.799 6944
2.594 3.079 1.743 3867
2.678 3.178 1.781 6245
2.768 3.285 1.837 1814
2.652 3.148 1.752 4015
2.757 3.272 1.816 3813
2.755 3.270 1.801 4367
2.651 3.146 1.737 3125
2.730 3.240 1.771 4543
2.820 3.347 1.826 1978
2.733 3.244 1.759 5810
2.823 3.351 1.813 3085
2.755 3.270 1.758 5627
2.845 3.377 1.812 4590
2.839 3.370 1.794 7701
2.748 3.262 1.740 3185
2.842 3.373 1.781 6424
2.751 3.266 1.728 1841
2.855 3.388 1.774 5389
2.945 3.496 1.826 1733
2.858 3.392 1.761 5219
2.949 3.500 1.813 2126
2.861 3.396 1.748 4678
2.971 3.526 1.811 2850
2.864 3.399 1.735 3860
2.960 3.513 1.790 3843
2.963 3.517 1.776 4111
2.871 3.408 1.725 2443
2.975 3.532 1.768 3143
3.067 3.640 1.819 2077
3.051 3.621 1.795 4068
2.921 3.467 1.723 1670
3.044 3.613 1.776 3569
2.953 3.505 1.726 1373
3.013 3.577 1.744 3219
3.105 3.685 1.793 2347
3.016 3.580 1.730 3430
3.108 3.689 1.779 2583
3.116 3.698 1.768 2919
3.024 3.590 1.719 2299
3.138 3.725 1.764 2888
3.269 3.880 1.832 2140
3.156 3.746 1.757 3024
3.277 3.889 1.820 2856
3.159 3.749 1.743 3923
3.275 3.887 1.803 3704
3.283 3.897 1.791 4687
3.167 3.759 1.732 3958
3.286 3.901 1.776 4646
3.194 3.791 1.730 2599
3.284 3.898 1.759 3226
3.420 4.060 1.827 2240
3.307 3.925 1.754 3293
3.438 4.081 1.818 2692
3.305 3.923 1.737 3396
3.446 4.090 1.805 2358
3.303 3.921 1.719 2759
3.396 4.030 1.764 1933
3.584 4.254 1.837 2190
3.316 3.936 1.709 1880
3.597 4.269 1.826 3234
3.431 4.072 1.747 1594
3.600 4.273 1.810 2626
3.449 4.093 1.739 1212
3.593 4.265 1.789 2110
3.784 4.491 1.877 1594
3.787 4.495 1.860 3046
3.616 4.292 1.782 2116
3.790 4.499 1.843 3009
3.653 4.336 1.781 2306
3.666 4.352 1.769 2317
3.794 4.503 1.826 1899
3.875 4.600 1.844 2441
3.674 4.361 1.755 1317
3.874 4.598 1.825 2970
3.967 4.708 1.866 1922
3.887 4.613 1.811 3239
3.980 4.724 1.852 2756
3.998 4.745 1.840 3675
3.895 4.623 1.796 2725
4.055 4.813 1.845 3545
3.952 4.691 1.802 3160
4.058 4.817 1.827 4173
3.965 4.706 1.788 2633
4.061 4.821 1.809 3708
4.155 4.932 1.848 2762
4.148 4.924 1.825 2838
4.055 4.813 1.787 2306
4.285 5.086 1.860 2886
4.157 4.934 1.808 2045
4.407 5.230 1.889 2482
4.278 5.078 1.837 2467
4.410 5.234 1.869 3813
4.262 5.058 1.810 1824
4.418 5.244 1.851 3061
4.512 5.356 1.887 1292
4.426 5.254 1.833 2418
4.580 5.436 1.892 1208
4.434 5.263 1.815 2646
4.583 5.440 1.871 1588
4.442 5.273 1.797 2360
4.616 5.479 1.862 1517
4.515 5.359 1.803 2085
4.659 5.530 1.856 1815
4.662 5.534 1.835 2260
4.389 5.210 1.735 1703
4.407 5.231 1.721 2487
4.670 5.543 1.816 1810
4.410 5.234 1.701 3903
4.683 5.559 1.798 1284
4.413 5.238 1.681 4330
4.925 5.846 1.861 1296
4.381 5.200 1.649 3531
4.933 5.856 1.841 1348
4.384 5.203 1.629 3723
5.205 6.179 1.911 1101
4.391 5.212 1.611 4009
5.004 5.940 1.818 1432
4.399 5.222 1.593 4430
5.013 5.950 1.797 1489
4.412 5.237 1.577 4248
5.719 6.789 2.006 1231
4.415 5.240 1.557 3573
5.728 6.799 1.982 994
4.402 5.225 1.532 2779
5.631 6.684 1.924 961
4.455 5.288 1.528 2874
5.730 6.801 1.928 1137
4.447 5.279 1.505 2907
5.733 6.805 1.903 876
4.450 5.282 1.485 3374
5.716 6.785 1.871 741
4.457 5.291 1.466 3207
5.729 6.801 1.848 827
4.470 5.306 1.449 3052
5.733 6.804 1.822 794
4.477 5.314 1.431 2369
5.736 6.808 1.796 527
4.485 5.323 1.412 932
5.744 6.818 1.772 284
4.487 5.326 1.392 633
4.469 5.305 1.366 662
4.472 5.308 1.346 504
4.474 5.310 1.326 268
6.091 7.230 0.782 252
6.092 7.231 0.755 281
6.154 7.305 0.733 366
6.156 7.306 0.706 543
5.942 7.053 0.686 259
6.152 7.302 0.678 578
5.943 7.054 0.659 412
6.147 7.297 0.649 754
5.944 7.055 0.632 491
6.153 7.304 0.622 751
5.924 7.032 0.604 596
6.007 7.130 0.583 737
5.910 7.015 0.576 696
6.012 7.137 0.557 847
5.916 7.022 0.550 778
6.023 7.150 0.530 878
5.825 6.914 0.517 738
5.820 6.908 0.491 964
6.024 7.150 0.503 770
5.821 6.909 0.465 1002
6.020 7.145 0.476 721
5.821 6.910 0.438 1039
5.954 7.067 0.445 636
5.837 6.929 0.413 946
5.949 7.062 0.418 543
5.848 6.941 0.387 1266
5.945 7.056 0.391 464
5.843 6.936 0.360 1464
5.945 7.057 0.364 465
5.839 6.930 0.334 1165
5.946 7.057 0.337 372
5.839 6.931 0.308 932
5.686 6.749 0.303 453
5.834 6.925 0.281 1003
5.712 6.780 0.278 583
5.712 6.780 0.252 854
5.834 6.925 0.255 848
5.712 6.780 0.227 933
5.829 6.919 0.228 702
5.712 6.780 0.201 833
5.825 6.913 0.202 412
5.707 6.774 0.175 740
5.570 6.611 0.174 490
5.707 6.774 0.149 528
5.570 6.611 0.149 488
5.565 6.605 0.124 487
5.667 6.726 0.124 458
5.478 6.502 0.100 433
5.661 6.720 0.098 385
5.544 6.580 0.074 417
5.539 6.574 0.049 366
5.365 6.368 0.052 266
5.493 6.519 0.025 375
5.396 6.404 0.027 336
5.401 6.410 0.003 487
5.497 6.525 0.001 439
5.400 6.410 -0.021 592
5.497 6.525 -0.024 400
5.395 6.403 -0.045 705
5.298 6.288 -0.042 460
5.389 6.397 -0.070 523
5.293 6.282 -0.066 514
5.292 6.281 -0.090 579
5.389 6.396 -0.094 348
5.287 6.275 -0.113 509
5.383 6.390 -0.118 253
5.266 6.250 -0.136 468
5.363 6.365 -0.141 284
5.255 6.237 -0.159 498
5.352 6.352 -0.165 302
5.254 6.237 -0.183 561
5.351 6.352 -0.189 257
5.249 6.230 -0.206 494
5.243 6.223 -0.229 443
5.242 6.222 -0.253 291
5.169 6.136 -0.294 265
5.163 6.129 -0.317 367
5.168 6.134 -0.341 365
5.167 6.133 -0.364 347
5.013 5.950 -0.371 333
5.161 6.125 -0.387 329
5.007 5.943 -0.393 304
4.996 5.930 -0.415 295
4.915 5.834 -0.495 286
4.914 5.832 -0.517 286
4.912 5.831 -0.539 275
4.921 5.841 -0.563 274
4.854 5.761 -0.575 269
4.842 5.748 -0.595 328
4.841 5.746 -0.617 328
1.447 1.712 1.750 1220
1.525 1.804 1.839 798
1.450 1.715 1.744 2441
1.528 1.808 1.833 2287
1.535 1.817 1.831 3101
1.453 1.719 1.737 2441
1.464 1.732 1.740 2564
1.543 1.825 1.828 2456
1.475 1.746 1.743 2903
1.554 1.839 1.831 1947
1.570 1.858 1.838 4021
1.491 1.764 1.750 2412
1.573 1.861 1.831 6206
1.494 1.768 1.744 2050
1.576 1.865 1.824 6206
1.497 1.771 1.737 2050
1.579 1.869 1.817 9437
1.500 1.775 1.731 1679
1.578 1.868 1.805 12781
1.499 1.773 1.719 1128
1.581 1.871 1.798 11718
1.501 1.777 1.713 1063
1.589 1.880 1.796 10757
1.509 1.785 1.711 1161
1.596 1.889 1.793 8364
1.516 1.794 1.708 857
1.608 1.902 1.795 6775
1.527 1.807 1.711 623
1.611 1.906 1.788 6775
1.691 2.001 1.872 556
1.618 1.915 1.785 6975
1.699 2.010 1.869 699
1.638 1.938 1.796 8012
1.557 1.843 1.712 795
1.641 1.942 1.788 8444
1.560 1.846 1.705 719
1.644 1.946 1.781 8940
1.563 1.850 1.698 581
1.643 1.944 1.770 7584
1.724 2.041 1.852 1341
1.642 1.943 1.758 6907
1.723 2.039 1.840 2568
1.696 2.008 1.802 6019
1.615 1.911 1.721 2076
1.700 2.011 1.795 6890
1.618 1.915 1.713 1204
1.703 2.015 1.787 5473
1.621 1.918 1.706 742
1.680 1.988 1.754 4354
1.762 2.085 1.835 1562
1.683 1.992 1.747 5158
1.765 2.089 1.827 1694
1.686 1.995 1.739 5961
1.768 2.093 1.819 1826
1.689 1.999 1.732 5127
1.771 2.096 1.811 2251
1.692 2.002 1.724 4294
1.775 2.100 1.803 2675
1.695 2.006 1.717 2843
1.799 2.129 1.816 2696
1.803 2.133 1.808 3297
1.707 2.020 1.718 1448
1.806 2.137 1.800 5428
1.718 2.033 1.718 1213
1.809 2.141 1.792 7560
1.726 2.042 1.715 1168
1.816 2.149 1.788 8751
1.733 2.051 1.711 1586
1.819 2.153 1.780 9971
1.736 2.054 1.703 1818
1.823 2.157 1.772 8232
1.739 2.058 1.696 1381
1.834 2.171 1.772 6529
1.751 2.072 1.696 1026
1.842 2.180 1.768 6556
1.758 2.080 1.692 519
1.841 2.178 1.756 6581
1.925 2.278 1.831 1390
1.839 2.176 1.743 6808
1.923 2.276 1.818 2395
1.847 2.185 1.739 6291
1.931 2.285 1.814 1826
1.903 2.252 1.778 6343
1.818 2.152 1.704 1537
1.906 2.256 1.769 7136
1.821 2.155 1.696 1029
1.909 2.259 1.761 7388
1.994 2.360 1.834 698
1.917 2.268 1.756 6858
2.002 2.369 1.829 650
1.929 2.282 1.755 5228
2.014 2.383 1.828 1207
1.941 2.297 1.754 4062
2.026 2.397 1.827 1505
1.948 2.305 1.750 3729
2.033 2.406 1.821 1760
1.951 2.309 1.741 3827
2.037 2.410 1.812 2107
1.950 2.307 1.728 4305
2.035 2.409 1.799 2133
1.957 2.316 1.724 4165
2.043 2.418 1.794 2200
2.019 2.389 1.763 4101
1.933 2.288 1.693 1489
2.008 2.377 1.743 4849
2.094 2.478 1.813 1431
2.016 2.386 1.738 5513
2.102 2.488 1.807 1472
2.023 2.395 1.732 5216
2.110 2.497 1.801 1285
2.045 2.420 1.738 4885
2.131 2.522 1.806 1267
2.048 2.423 1.729 4730
2.134 2.526 1.797 3103
2.142 2.535 1.791 4261
2.051 2.427 1.719 3277
2.154 2.549 1.789 5049
2.054 2.430 1.710 1979
2.175 2.574 1.793 5592
2.089 2.472 1.726 2614
2.192 2.594 1.794 4883
2.105 2.491 1.727 4390
2.209 2.614 1.795 5651
2.122 2.511 1.728 4753
2.212 2.618 1.785 8611
2.125 2.515 1.719 3681
2.215 2.622 1.775 10702
2.128 2.518 1.709 2569
2.218 2.625 1.765 9369
2.131 2.522 1.700 2110
2.221 2.629 1.755 8267
2.134 2.525 1.690 1690
2.229 2.638 1.749 7883
2.141 2.534 1.684 1603
2.237 2.647 1.742 6761
2.325 2.751 1.806 1931
2.277 2.694 1.759 6110
2.365 2.799 1.822 1508
2.280 2.698 1.749 7050
2.368 2.802 1.812 1393
2.278 2.696 1.735 7183
2.367 2.800 1.798 1438
2.281 2.700 1.725 5643
2.370 2.804 1.787 4158
2.373 2.808 1.777 7341
2.284 2.703 1.715 3554
2.380 2.817 1.770 8101
2.292 2.712 1.708 3045
2.388 2.826 1.762 6042
2.299 2.721 1.701 2848
2.396 2.835 1.755 3348
2.485 2.940 1.815 2115
2.483 2.939 1.801 3401
2.394 2.833 1.741 2572
2.425 2.870 1.749 3883
2.514 2.976 1.809 2246
2.428 2.874 1.738 4898
2.583 3.057 1.842 3329
2.582 3.055 1.827 4744
2.431 2.877 1.727 4235
2.590 3.065 1.819 4444
2.472 2.925 1.741 3585
2.588 3.063 1.804 4497
2.499 2.957 1.746 3593
2.591 3.066 1.792 5865
2.502 2.960 1.734 2980
2.594 3.070 1.781 5425
2.684 3.176 1.838 3088
2.607 3.085 1.775 5491
2.697 3.191 1.832 2852
2.610 3.089 1.764 7162
2.700 3.195 1.820 3915
2.689 3.182 1.799 6669
2.599 3.075 1.743 4012
2.687 3.180 1.784 5646
2.777 3.287 1.840 1785
2.761 3.268 1.816 3880
2.647 3.133 1.746 3637
2.746 3.249 1.792 4408
2.651 3.137 1.734 2792
2.734 3.236 1.771 4579
2.825 3.343 1.826 1969
2.737 3.239 1.759 5737
2.828 3.347 1.813 2790
2.836 3.356 1.804 5628
2.745 3.249 1.750 4851
2.844 3.365 1.794 8037
2.753 3.258 1.740 3271
2.852 3.375 1.784 6882
2.761 3.267 1.731 2306
2.860 3.384 1.774 6314
2.951 3.492 1.826 1845
2.863 3.388 1.761 5877
2.954 3.495 1.813 2454
2.866 3.391 1.748 4737
2.957 3.499 1.800 2896
2.869 3.395 1.735 3902
2.965 3.508 1.790 3667
2.968 3.512 1.776 3813
2.877 3.404 1.725 2538
3.053 3.613 1.808 2840
2.918 3.453 1.734 2692
3.056 3.616 1.795 4240
2.935 3.474 1.729 1732
3.054 3.614 1.778 3574
2.958 3.500 1.726 1488
3.019 3.572 1.744 3436
3.110 3.681 1.793 2158
3.022 3.576 1.730 3651
3.113 3.684 1.779 2286
3.121 3.694 1.768 2936
3.029 3.585 1.719 2469
3.139 3.715 1.761 2820
3.275 3.875 1.832 1993
3.283 3.885 1.820 3004
3.161 3.741 1.757 2643
3.281 3.883 1.803 3757
3.164 3.745 1.743 3543
3.289 3.892 1.791 4342
3.167 3.748 1.729 3568
3.297 3.901 1.778 4139
3.204 3.792 1.732 2610
3.305 3.911 1.766 3010
3.422 4.049 1.824 2529
3.313 3.920 1.754 3426
3.444 4.076 1.818 2516
3.311 3.918 1.737 3382
3.452 4.085 1.805 2148
3.314 3.922 1.722 2607
3.407 4.031 1.766 2102
3.590 4.249 1.837 2253
3.327 3.937 1.712 1736
3.603 4.264 1.826 3246
3.442 4.073 1.750 1578
3.606 4.268 1.810 2761
3.464 4.100 1.743 1224
3.600 4.260 1.789 2296
3.791 4.486 1.877 1723
3.794 4.490 1.860 3063
3.627 4.292 1.784 2345
3.797 4.493 1.843 2891
3.655 4.325 1.779 2180
3.673 4.346 1.769 2166
3.805 4.503 1.829 2013
3.887 4.600 1.846 2441
3.794 4.489 1.805 1398
3.890 4.604 1.829 2694
3.984 4.714 1.870 1626
3.977 4.706 1.848 3281
3.884 4.596 1.807 2837
4.005 4.739 1.840 4241
3.906 4.623 1.798 2449
4.062 4.807 1.845 4025
3.959 4.685 1.802 3375
4.065 4.811 1.827 4398
3.972 4.700 1.788 2809
4.069 4.815 1.809 3840
4.162 4.926 1.848 2944
4.077 4.824 1.793 2781
4.171 4.935 1.831 2261
4.292 5.080 1.860 2660
4.164 4.927 1.808 1837
4.419 5.230 1.891 2417
4.281 5.066 1.835 2328
4.418 5.228 1.869 3710
4.269 5.052 1.810 1963
4.416 5.226 1.847 2927
4.510 5.337 1.884 1515
4.434 5.247 1.833 2377
4.583 5.423 1.890 1170
4.437 5.251 1.813 2654
4.591 5.433 1.871 1689
4.445 5.260 1.795 2510
4.624 5.472 1.862 1727
4.672 5.529 1.858 2342
4.523 5.352 1.803 1911
4.670 5.527 1.835 2674
4.392 5.197 1.733 1155
4.678 5.536 1.816 1859
4.410 5.218 1.719 1845
4.418 5.228 1.701 2976
5.000 5.917 1.908 1436
4.426 5.237 1.683 3442
4.999 5.915 1.884 1521
4.403 5.211 1.654 3190
4.942 5.848 1.841 1390
4.396 5.203 1.631 4231
5.215 6.171 1.911 1336
4.399 5.206 1.611 4122
5.013 5.933 1.818 1828
4.402 5.209 1.591 3930
5.021 5.942 1.797 1922
4.410 5.218 1.573 3632
5.729 6.780 2.006 1444
4.422 5.233 1.557 3969
5.743 6.796 1.983 1191
4.430 5.242 1.539 4194
5.741 6.794 1.956 1061
4.448 5.263 1.523 4347
5.740 6.792 1.928 1527
4.450 5.266 1.503 3573
5.738 6.790 1.901 1230
4.453 5.269 1.483 2980
5.726 6.776 1.871 959
4.455 5.272 1.463 2861
5.740 6.792 1.848 993
4.463 5.281 1.445 2330
5.743 6.796 1.822 984
4.475 5.296 1.428 1595
5.746 6.800 1.796 648
4.483 5.305 1.409 1421
5.754 6.809 1.772 336
4.485 5.308 1.389 1275
4.482 5.304 1.367 711
4.480 5.301 1.346 344
4.497 5.322 1.330 251
4.499 5.324 1.310 260
6.162 7.292 0.817 387
6.163 7.293 0.789 459
6.118 7.240 0.757 464
6.165 7.296 0.733 636
6.166 7.297 0.706 750
6.070 7.183 0.697 325
6.096 7.214 0.672 689
5.953 7.045 0.659 453
6.163 7.294 0.650 880
5.939 7.028 0.631 546
6.139 7.265 0.620 1044
5.935 7.023 0.604 775
6.140 7.266 0.592 969
5.925 7.012 0.577 935
5.936 7.025 0.551 948
6.033 7.140 0.557 884
6.034 7.141 0.530 964
5.840 6.911 0.518 808
5.831 6.900 0.491 936
6.025 7.129 0.502 832
5.836 6.907 0.465 1025
6.035 7.142 0.476 827
5.852 6.925 0.439 1198
6.031 7.137 0.449 673
5.853 6.926 0.413 1254
6.031 7.138 0.421 510
5.853 6.927 0.387 1463
5.950 7.041 0.391 452
5.854 6.927 0.360 1615
5.757 6.812 0.357 551
5.854 6.928 0.334 1209
5.757 6.813 0.331 522
5.849 6.922 0.308 821
5.691 6.734 0.303 627
5.850 6.922 0.281 846
5.701 6.747 0.278 689
5.722 6.771 0.252 1014
5.845 6.916 0.255 661
5.722 6.772 0.227 1130
5.835 6.905 0.228 497
5.717 6.766 0.201 1020
5.579 6.602 0.199 515
5.717 6.766 0.175 913
5.574 6.597 0.174 685
5.574 6.597 0.149 668
5.717 6.766 0.149 663
5.574 6.597 0.124 651
5.477 6.482 0.124 526
5.487 6.494 0.100 584
5.584 6.609 0.099 468
5.554 6.572 0.074 521
5.375 6.361 0.076 269
5.548 6.566 0.049 448
5.375 6.360 0.052 325
5.502 6.511 0.025 475
5.405 6.396 0.027 434
5.410 6.402 0.003 652
5.507 6.517 0.001 566
5.410 6.402 -0.021 787
5.507 6.517 -0.024 515
5.404 6.395 -0.045 939
5.307 6.281 -0.042 570
5.394 6.383 -0.069 711
5.297 6.268 -0.066 605
5.301 6.274 -0.090 689
5.398 6.388 -0.094 468
5.296 6.267 -0.113 616
5.393 6.382 -0.118 345
5.280 6.248 -0.136 594
5.377 6.363 -0.141 313
5.269 6.236 -0.159 620
5.366 6.350 -0.165 351
5.264 6.229 -0.183 692
5.361 6.344 -0.189 315
5.258 6.222 -0.206 607
5.355 6.337 -0.212 250
5.252 6.215 -0.229 544
5.256 6.220 -0.253 351
5.205 6.159 -0.273 285
5.183 6.134 -0.294 328
5.178 6.127 -0.317 446
5.177 6.126 -0.341 446
5.176 6.125 -0.364 409
5.023 5.944 -0.349 301
5.022 5.943 -0.371 383
5.175 6.124 -0.387 373
5.016 5.936 -0.393 329
5.174 6.123 -0.410 265
4.999 5.916 -0.414 310
4.894 5.792 -0.469 280
4.924 5.826 -0.495 381
4.922 5.825 -0.517 381
4.921 5.824 -0.539 349
4.930 5.834 -0.563 319
4.833 5.720 -0.549 285
4.837 5.724 -0.571 347
4.934 5.838 -0.585 254
4.836 5.723 -0.593 407
4.834 5.721 -0.615 407
1.449 1.710 1.750 1289
1.527 1.802 1.839 809
1.452 1.713 1.744 2578
1.530 1.806 1.833 2278
1.538 1.815 1.831 3023
1.455 1.717 1.737 2578
1.462 1.725 1.736 2625
1.541 1.818 1.824 2351
1.473 1.739 1.738 2828
1.556 1.837 1.831 1686
1.568 1.851 1.833 3926
1.489 1.757 1.746 2135
1.575 1.859 1.831 6291
1.496 1.766 1.744 1984
1.578 1.863 1.824 6291
1.499 1.769 1.737 1984
1.577 1.862 1.812 9534
1.498 1.768 1.726 1398
1.581 1.866 1.805 12809
1.501 1.771 1.719 1077
1.584 1.869 1.798 11826
1.504 1.775 1.713 1033
1.591 1.878 1.796 10978
1.511 1.783 1.711 1137
1.598 1.887 1.793 8617
1.518 1.792 1.708 836
1.614 1.905 1.800 7403
1.534 1.810 1.715 701
1.617 1.909 1.792 7403
1.537 1.814 1.708 624
1.620 1.913 1.785 7204
1.701 2.008 1.869 628
1.641 1.936 1.796 7718
1.560 1.841 1.712 790
1.644 1.940 1.788 8240
1.563 1.844 1.705 712
1.647 1.944 1.781 8811
1.566 1.848 1.698 574
1.641 1.937 1.765 7560
1.723 2.033 1.848 1644
1.640 1.936 1.754 7000
1.722 2.032 1.836 2951
1.699 2.005 1.802 6108
1.617 1.909 1.721 2182
1.702 2.009 1.795 7028
1.620 1.912 1.713 1297
1.705 2.013 1.787 5658
1.623 1.916 1.706 771
1.682 1.986 1.754 4364
1.765 2.083 1.835 1404
1.686 1.989 1.747 5115
1.768 2.086 1.827 1605
1.693 1.998 1.743 5891
1.775 2.095 1.823 1487
1.692 1.996 1.732 4954
1.774 2.094 1.811 2272
1.695 2.000 1.724 4041
1.777 2.098 1.803 2738
1.798 2.122 1.812 2925
1.698 2.004 1.717 2613
1.805 2.131 1.808 3675
1.714 2.022 1.722 1304
1.809 2.135 1.800 6030
1.721 2.031 1.718 1279
1.812 2.138 1.792 8384
1.728 2.040 1.715 1320
1.815 2.142 1.784 9352
1.731 2.043 1.707 1518
1.822 2.151 1.780 10368
1.739 2.052 1.703 1808
1.825 2.154 1.772 8496
1.742 2.056 1.696 1346
1.837 2.168 1.772 6478
1.753 2.069 1.696 987
1.845 2.177 1.768 6355
1.761 2.078 1.692 538
1.843 2.176 1.756 6377
1.928 2.275 1.831 1505
1.842 2.174 1.743 6615
1.926 2.274 1.818 2567
1.849 2.183 1.739 6033
1.934 2.283 1.814 1986
1.906 2.249 1.778 6196
1.821 2.150 1.704 1571
1.905 2.248 1.765 6847
1.820 2.148 1.692 760
1.908 2.251 1.757 7136
1.993 2.352 1.830 904
1.906 2.250 1.745 6776
1.991 2.350 1.818 1268
1.932 2.280 1.755 5061
2.017 2.380 1.828 1063
1.944 2.294 1.754 4050
2.029 2.395 1.827 1366
1.956 2.308 1.753 3559
2.041 2.409 1.825 1446
1.950 2.301 1.737 3727
2.035 2.402 1.809 2446
1.948 2.299 1.725 4495
2.034 2.401 1.796 2598
1.956 2.308 1.720 4318
2.042 2.410 1.790 2767
2.027 2.392 1.767 4260
1.941 2.290 1.696 2200
2.016 2.379 1.747 4602
2.102 2.481 1.816 1212
2.015 2.378 1.734 5268
2.101 2.479 1.803 2088
2.081 2.456 1.776 5043
1.995 2.354 1.707 4031
2.084 2.460 1.767 4690
1.998 2.358 1.698 3376
2.055 2.426 1.732 4354
2.142 2.528 1.800 2925
2.141 2.526 1.787 4359
2.054 2.424 1.719 3019
2.157 2.546 1.789 4950
2.048 2.417 1.703 1884
2.179 2.572 1.793 5697
2.092 2.469 1.726 2452
2.118 2.499 1.734 4821
2.205 2.602 1.801 4240
2.217 2.617 1.798 5190
2.121 2.503 1.725 4930
2.220 2.620 1.788 8167
2.124 2.506 1.715 4142
2.219 2.619 1.775 10748
2.131 2.515 1.709 3089
2.217 2.617 1.762 9962
2.130 2.513 1.696 1782
2.220 2.621 1.752 8357
2.133 2.517 1.687 1413
2.228 2.630 1.745 7243
2.140 2.526 1.681 1348
2.254 2.660 1.752 6343
2.342 2.764 1.816 1707
2.280 2.691 1.759 6154
2.369 2.795 1.822 1552
2.283 2.695 1.749 6704
2.372 2.799 1.812 1502
2.286 2.699 1.739 7086
2.375 2.803 1.801 1447
2.289 2.702 1.728 5750
2.378 2.807 1.791 3831
2.376 2.805 1.777 7039
2.288 2.700 1.715 3525
2.389 2.819 1.773 7829
2.300 2.715 1.711 3124
2.392 2.823 1.762 5678
2.303 2.718 1.701 2833
2.400 2.832 1.755 2814
2.489 2.937 1.815 2176
2.492 2.941 1.804 3592
2.398 2.830 1.741 2446
2.490 2.939 1.790 3812
2.401 2.834 1.730 3328
2.432 2.871 1.738 4865
2.587 3.054 1.842 3412
2.586 3.052 1.827 4850
2.435 2.874 1.727 3981
2.594 3.061 1.819 4527
2.481 2.928 1.744 3691
2.592 3.059 1.804 4492
2.502 2.954 1.746 3981
2.595 3.063 1.792 6037
2.505 2.957 1.734 3348
2.589 3.055 1.775 5751
2.679 3.162 1.832 3486
2.611 3.081 1.775 5577
2.701 3.188 1.832 2827
2.614 3.085 1.764 7302
2.704 3.191 1.820 3774
2.693 3.178 1.799 6410
2.603 3.072 1.743 4160
2.691 3.176 1.784 5285
2.782 3.283 1.840 1802
2.766 3.264 1.816 3850
2.652 3.130 1.746 3240
2.750 3.246 1.792 4436
2.655 3.133 1.734 2474
2.739 3.232 1.771 4413
2.829 3.339 1.826 1975
2.742 3.236 1.759 5416
2.832 3.343 1.813 2548
2.840 3.352 1.804 5501
2.750 3.245 1.750 4474
2.843 3.356 1.791 8055
2.753 3.249 1.738 2866
2.856 3.371 1.784 7058
2.765 3.264 1.731 2369
2.864 3.380 1.774 6785
2.955 3.488 1.826 1917
2.872 3.390 1.764 6012
2.963 3.497 1.816 2366
2.875 3.393 1.751 4176
2.966 3.501 1.803 2858
2.969 3.505 1.790 3434
2.868 3.385 1.733 3252
2.920 3.446 1.747 3794
3.030 3.576 1.808 2467
2.976 3.512 1.763 3005
3.067 3.620 1.814 2671
3.061 3.612 1.795 4400
2.945 3.476 1.731 2073
3.064 3.616 1.781 3684
2.948 3.479 1.718 1585
3.023 3.568 1.744 3508
3.115 3.677 1.793 2043
3.031 3.578 1.733 3720
3.123 3.686 1.782 2028
3.131 3.695 1.770 2941
3.039 3.587 1.722 2574
3.139 3.705 1.759 2750
3.284 3.876 1.835 1804
3.293 3.886 1.823 3024
3.113 3.674 1.730 2369
3.286 3.878 1.803 3640
3.169 3.741 1.743 3185
3.299 3.893 1.793 4019
3.177 3.750 1.732 3244
3.302 3.897 1.778 3816
3.209 3.788 1.732 2506
3.315 3.912 1.769 3003
3.422 4.039 1.822 2729
3.318 3.916 1.754 3501
3.445 4.065 1.816 2399
3.321 3.919 1.739 3359
3.462 4.086 1.808 2085
3.319 3.917 1.722 2504
3.412 4.027 1.766 2146
3.596 4.244 1.837 2207
3.430 4.048 1.758 1676
3.609 4.259 1.826 3045
3.447 4.069 1.750 1641
3.612 4.263 1.810 2656
3.475 4.101 1.746 1218
3.605 4.255 1.789 2332
3.797 4.481 1.877 1523
3.638 4.294 1.786 2637
3.800 4.485 1.860 2540
3.803 4.488 1.843 2634
3.656 4.315 1.777 2208
3.806 4.492 1.826 2168
3.678 4.341 1.769 1902
3.903 4.606 1.851 2205
3.809 4.496 1.809 1779
3.901 4.604 1.831 2531
3.808 4.494 1.790 1611
3.988 4.707 1.850 3511
3.894 4.596 1.809 2692
4.011 4.734 1.840 4562
3.907 4.612 1.796 2440
4.069 4.802 1.845 4168
3.965 4.680 1.802 3146
4.067 4.800 1.825 4388
4.161 4.911 1.864 2670
4.075 4.809 1.809 3861
4.169 4.920 1.848 3031
4.083 4.819 1.793 2946
4.177 4.930 1.831 2136
4.299 5.074 1.860 2685
4.022 4.747 1.748 1865
4.287 5.060 1.835 2407
4.426 5.224 1.891 2388
4.424 5.222 1.869 3665
4.281 5.052 1.812 2047
4.423 5.220 1.847 2855
4.517 5.331 1.884 1584
4.441 5.241 1.833 2288
4.595 5.423 1.892 1135
4.444 5.245 1.813 2590
