2.270 1.864 1.684 1504
2.381 1.956 1.750 3735
2.484 2.040 1.820 1924
2.412 1.981 1.759 4659
2.515 2.065 1.829 1195
2.426 1.993 1.758 6497
2.529 2.077 1.827 1048
2.435 2.000 1.752 7231
2.538 2.085 1.822 1844
2.450 2.012 1.750 7481
2.553 2.097 1.819 2000
2.454 2.015 1.741 5928
2.557 2.100 1.810 2274
2.452 2.013 1.729 4341
2.588 2.125 1.818 2782
2.521 2.070 1.762 4877
2.624 2.155 1.830 2424
2.519 2.069 1.749 5704
2.623 2.154 1.817 2899
2.544 2.090 1.754 7761
2.648 2.175 1.821 1717
2.548 2.093 1.745 9945
2.652 2.178 1.811 2399
2.552 2.096 1.735 9633
2.656 2.181 1.802 3106
2.555 2.099 1.726 6413
2.704 2.220 1.819 3824
2.719 2.233 1.816 5381
2.592 2.129 1.737 2619
2.728 2.240 1.810 5512
2.618 2.150 1.741 2180
2.743 2.252 1.806 4037
2.627 2.157 1.735 2733
2.802 2.301 1.830 4568
2.669 2.192 1.749 4542
2.805 2.304 1.820 4630
2.667 2.190 1.735 3449
2.765 2.271 1.782 4002
2.660 2.184 1.719 1968
2.830 2.324 1.809 4009
2.669 2.192 1.712 1660
2.906 2.386 1.841 3682
2.767 2.272 1.758 2473
2.915 2.394 1.833 3723
2.748 2.257 1.735 1913
2.947 2.420 1.839 3929
2.830 2.324 1.770 2333
2.951 2.423 1.828 4532
2.833 2.327 1.760 2518
2.960 2.431 1.820 4792
2.843 2.335 1.753 2626
2.964 2.434 1.809 5910
2.857 2.347 1.748 1969
2.962 2.432 1.795 7033
3.068 2.520 1.855 2778
2.977 2.445 1.790 6336
3.083 2.532 1.850 2864
3.037 2.494 1.810 6141
2.930 2.406 1.751 2625
3.018 2.479 1.787 6421
2.911 2.391 1.727 986
3.022 2.482 1.775 7014
2.915 2.394 1.717 716
3.020 2.480 1.761 7127
3.127 2.568 1.819 966
3.080 2.529 1.780 8046
2.973 2.441 1.722 2106
3.084 2.532 1.769 6554
2.976 2.444 1.711 1273
3.099 2.545 1.763 6053
2.991 2.456 1.706 1043
3.074 2.524 1.737 8280
3.182 2.613 1.793 812
3.072 2.523 1.722 11240
3.180 2.611 1.779 1264
3.075 2.526 1.711 14850
3.183 2.614 1.767 1199
3.079 2.529 1.699 19525
3.187 2.617 1.755 1052
3.088 2.536 1.691 22752
3.196 2.625 1.746 742
3.097 2.544 1.682 21239
3.348 2.750 1.809 938
3.106 2.551 1.673 17913
3.352 2.753 1.796 1164
3.110 2.554 1.662 17240
3.356 2.756 1.784 1418
3.113 2.557 1.650 19103
3.371 2.768 1.777 1840
3.117 2.560 1.639 17634
3.380 2.776 1.767 1917
3.120 2.562 1.627 10406
3.384 2.779 1.754 2438
3.123 2.565 1.615 4392
3.387 2.782 1.742 3638
3.414 2.804 1.740 4077
3.121 2.563 1.601 3176
3.389 2.783 1.714 4818
3.113 2.556 1.584 2830
3.392 2.786 1.701 4976
3.099 2.545 1.564 1774
3.402 2.794 1.691 3420
3.649 2.997 1.806 2327
3.797 3.119 1.858 2693
3.399 2.792 1.676 2441
3.801 3.122 1.844 4118
3.674 3.017 1.786 3452
3.684 3.025 1.775 4686
3.811 3.130 1.832 4566
3.693 3.033 1.764 4705
3.815 3.133 1.818 4367
3.784 3.107 1.788 3757
3.413 2.803 1.625 2626
3.776 3.101 1.769 2935
3.944 3.239 1.842 2867
3.948 3.242 1.828 4039
3.832 3.147 1.778 1475
3.957 3.250 1.815 3970
4.068 3.341 1.863 1118
3.961 3.253 1.801 4256
4.071 3.344 1.847 1824
3.965 3.256 1.786 4943
4.081 3.352 1.835 1681
3.974 3.264 1.773 3329
4.085 3.355 1.819 1017
3.972 3.262 1.756 1825
4.083 3.353 1.802 1043
4.098 3.366 1.791 1617
3.976 3.265 1.741 1607
4.114 3.378 1.781 2122
4.230 3.474 1.828 1233
4.123 3.386 1.767 2779
4.234 3.477 1.812 1574
4.191 3.442 1.777 3680
4.302 3.533 1.821 931
4.195 3.445 1.762 3238
4.306 3.536 1.805 1215
4.210 3.458 1.751 2805
4.322 3.549 1.794 1194
4.226 3.470 1.739 3566
4.431 3.639 1.818 1483
4.247 3.488 1.730 3732
4.417 3.628 1.795 2163
4.262 3.500 1.719 2283
4.403 3.616 1.771 2172
4.495 3.692 1.788 2114
4.354 3.576 1.735 1786
4.528 3.719 1.782 2640
4.705 3.864 1.846 1588
4.532 3.722 1.765 2675
4.367 3.586 1.705 1722
4.712 3.870 1.811 2088
4.866 3.996 1.866 1908
4.870 3.999 1.848 3213
4.734 3.888 1.800 2249
4.879 4.007 1.831 4821
4.767 3.915 1.792 2436
4.883 4.010 1.813 5352
4.771 3.918 1.774 1995
4.881 4.009 1.793 4165
5.023 4.125 1.841 1586
5.151 4.230 1.864 2985
5.027 4.128 1.822 2698
5.149 4.229 1.843 3663
5.025 4.127 1.802 2679
5.153 4.232 1.824 3298
5.022 4.125 1.781 2039
5.269 4.328 1.841 2355
5.157 4.235 1.804 2067
5.279 4.336 1.823 2581
5.166 4.243 1.787 2037
5.182 4.256 1.771 2256
5.295 4.348 1.807 1685
5.394 4.430 1.817 1307
5.192 4.264 1.754 1244
5.677 4.662 1.884 1390
5.421 4.452 1.804 1142
5.425 4.455 1.784 1530
5.633 4.626 1.848 1478
5.619 4.615 1.821 2009
5.733 4.708 1.855 1545
5.623 4.618 1.800 2574
5.790 4.755 1.850 2186
5.794 4.758 1.828 2444
5.627 4.621 1.779 1600
5.786 4.752 1.803 2121
5.613 4.609 1.753 803
5.778 4.745 1.778 1837
5.664 4.652 1.745 699
5.805 4.767 1.763 2244
6.110 5.018 1.849 1376
5.809 4.770 1.741 2992
6.132 5.036 1.831 1697
5.818 4.778 1.721 2303
6.148 5.049 1.811 1348
5.834 4.791 1.702 1592
6.151 5.052 1.788 1278
6.413 5.266 1.833 1740
6.161 5.060 1.766 1346
6.746 5.540 1.896 1755
6.422 5.274 1.811 1418
6.744 5.539 1.869 1879
7.008 5.756 1.937 1425
7.000 5.749 1.907 1632
6.736 5.532 1.840 1494
7.106 5.836 1.907 1680
6.992 5.742 1.878 1214
7.116 5.844 1.881 1594
6.972 5.726 1.846 1110
7.222 5.931 1.879 1440
6.982 5.734 1.821 1244
7.220 5.930 1.851 1568
6.986 5.737 1.795 1031
7.206 5.918 1.819 1196
7.001 5.750 1.771 684
7.210 5.921 1.792 644
7.035 5.778 1.752 477
7.286 5.984 1.782 547
7.099 5.830 1.739 322
7.289 5.987 1.754 553
7.293 5.989 1.727 357
1.783 1.461 1.797 3109
1.689 1.384 1.708 693
1.787 1.464 1.791 6219
1.693 1.387 1.702 1386
1.790 1.467 1.784 6219
1.696 1.390 1.696 1386
1.794 1.470 1.777 5902
1.700 1.393 1.689 1031
1.803 1.477 1.775 5637
1.708 1.400 1.688 797
1.806 1.480 1.769 6428
1.901 1.558 1.856 1183
1.805 1.479 1.757 7268
1.900 1.557 1.845 2224
1.809 1.482 1.751 7268
1.904 1.560 1.838 2224
1.822 1.493 1.753 7473
1.918 1.571 1.840 1735
1.831 1.500 1.751 8016
1.926 1.578 1.837 1684
1.840 1.507 1.749 5729
1.935 1.586 1.834 2607
1.929 1.581 1.818 4070
1.833 1.502 1.733 3006
1.928 1.580 1.807 5140
1.832 1.501 1.722 1873
1.921 1.574 1.791 6372
1.825 1.495 1.706 1043
1.925 1.577 1.784 6406
1.829 1.498 1.699 986
1.924 1.576 1.772 5823
1.827 1.497 1.688 828
1.927 1.579 1.765 5190
1.831 1.500 1.681 847
1.957 1.603 1.780 7328
1.860 1.524 1.697 907
1.965 1.610 1.777 9474
1.868 1.531 1.694 662
1.964 1.609 1.765 7976
1.867 1.529 1.683 560
1.968 1.612 1.758 6486
2.065 1.692 1.840 656
2.007 1.645 1.781 4707
1.910 1.565 1.699 1049
2.037 1.669 1.795 5458
1.939 1.589 1.713 1416
2.041 1.672 1.787 5922
1.942 1.592 1.706 1053
2.029 1.662 1.767 6704
2.127 1.743 1.847 546
2.032 1.665 1.759 8659
2.131 1.746 1.839 613
2.036 1.668 1.752 10614
2.135 1.749 1.832 681
2.045 1.675 1.748 9389
2.144 1.756 1.828 1114
2.059 1.687 1.749 8425
2.158 1.768 1.828 1034
2.110 1.728 1.779 6269
2.010 1.647 1.700 1742
2.118 1.736 1.775 8428
2.019 1.654 1.697 1672
2.127 1.743 1.771 7790
2.028 1.661 1.694 1473
2.142 1.755 1.772 7873
2.042 1.673 1.694 1204
2.161 1.771 1.776 7801
2.061 1.689 1.699 1543
2.170 1.778 1.772 8338
2.070 1.696 1.695 1499
2.168 1.777 1.760 6521
2.068 1.694 1.684 694
2.156 1.767 1.740 4918
2.257 1.849 1.816 1741
2.160 1.770 1.732 4637
2.260 1.852 1.808 2824
2.248 1.842 1.787 5569
2.147 1.759 1.712 3688
2.252 1.845 1.779 6296
2.151 1.762 1.704 3315
2.256 1.848 1.771 4715
2.155 1.765 1.696 2646
2.238 1.834 1.747 4130
2.339 1.917 1.821 1025
2.290 1.876 1.773 4177
2.183 1.788 1.696 2268
2.288 1.875 1.761 6030
2.390 1.958 1.834 1357
2.286 1.873 1.749 7233
2.388 1.957 1.822 2087
2.290 1.876 1.740 6203
2.392 1.960 1.813 2793
2.293 1.879 1.732 5174
2.401 1.967 1.808 3348
2.292 1.878 1.719 4143
2.405 1.970 1.799 4022
2.371 1.942 1.763 4661
2.268 1.858 1.692 1688
2.374 1.945 1.755 4685
2.272 1.861 1.684 1553
2.383 1.953 1.750 3929
2.486 2.037 1.820 2226
2.420 1.982 1.763 4705
2.317 1.898 1.693 1180
2.429 1.990 1.758 6488
2.532 2.074 1.827 1086
2.438 1.997 1.752 7348
2.541 2.082 1.822 1805
2.452 2.009 1.750 7738
2.556 2.094 1.819 1962
2.456 2.012 1.741 6480
2.559 2.097 1.810 2191
2.454 2.011 1.729 4772
2.590 2.122 1.818 2823
2.523 2.067 1.762 5044
2.627 2.152 1.830 2474
2.521 2.066 1.749 5895
2.625 2.151 1.817 2991
2.547 2.087 1.754 7675
2.651 2.172 1.821 1725
2.550 2.090 1.745 9842
2.655 2.175 1.811 2612
2.554 2.093 1.735 9516
2.659 2.178 1.802 3380
2.558 2.096 1.726 6213
2.701 2.213 1.816 3840
2.721 2.229 1.816 5180
2.600 2.130 1.740 3203
2.730 2.237 1.810 5168
2.609 2.138 1.734 2227
2.740 2.245 1.803 3878
2.629 2.154 1.735 2104
2.677 2.193 1.752 4367
2.804 2.298 1.830 4037
2.731 2.237 1.772 4193
2.836 2.324 1.836 3456
2.756 2.258 1.776 3862
2.651 2.172 1.712 1855
2.832 2.321 1.809 3909
2.671 2.189 1.712 2000
2.908 2.383 1.841 3815
2.753 2.255 1.748 2484
2.918 2.391 1.833 3807
2.756 2.258 1.738 2062
2.950 2.417 1.839 3919
2.838 2.325 1.774 2366
2.953 2.420 1.828 4572
2.836 2.324 1.760 2621
2.963 2.428 1.820 4828
2.851 2.336 1.756 2795
2.961 2.426 1.806 5675
2.855 2.339 1.745 2039
2.959 2.425 1.792 6613
3.066 2.512 1.852 3172
3.047 2.497 1.828 6433
2.940 2.409 1.768 3801
3.040 2.490 1.810 6188
2.933 2.403 1.751 2947
3.026 2.480 1.790 6332
2.920 2.392 1.731 1408
3.025 2.478 1.775 6805
2.917 2.390 1.717 739
3.023 2.477 1.761 7156
3.130 2.564 1.819 983
3.083 2.526 1.780 8356
2.975 2.438 1.722 2013
3.092 2.533 1.772 6849
2.979 2.441 1.711 996
3.101 2.541 1.763 6357
2.994 2.453 1.706 877
3.077 2.521 1.737 7604
3.185 2.609 1.793 826
3.075 2.519 1.722 9999
3.183 2.608 1.779 1248
3.078 2.522 1.711 14348
3.186 2.611 1.767 1147
3.087 2.530 1.702 19440
3.196 2.618 1.758 730
3.091 2.533 1.691 22222
3.199 2.621 1.746 757
3.100 2.540 1.682 21243
3.214 2.634 1.740 762
3.109 2.548 1.673 19375
3.355 2.749 1.796 967
3.113 2.550 1.662 18795
3.353 2.747 1.781 1148
3.116 2.553 1.650 19165
3.368 2.760 1.774 1448
3.120 2.556 1.639 16799
3.377 2.767 1.764 1538
3.123 2.559 1.627 10156
3.381 2.770 1.752 2248
3.121 2.557 1.613 4887
3.385 2.773 1.739 3338
3.124 2.560 1.601 3581
3.423 2.804 1.743 3455
3.392 2.779 1.714 3977
3.121 2.558 1.587 2861
3.395 2.782 1.701 4104
3.649 2.990 1.819 1878
3.405 2.790 1.691 2740
3.653 2.993 1.806 2609
3.801 3.114 1.858 2763
3.657 2.996 1.792 2610
3.805 3.117 1.844 4140
3.678 3.013 1.786 3861
3.687 3.021 1.775 5088
3.814 3.125 1.832 4590
3.697 3.029 1.764 4837
3.818 3.128 1.818 4473
3.787 3.103 1.788 3913
3.903 3.198 1.839 2726
3.779 3.096 1.769 3108
3.913 3.206 1.827 2888
3.951 3.237 1.828 3999
3.829 3.138 1.775 1548
3.961 3.245 1.815 3794
4.071 3.336 1.863 1047
3.965 3.248 1.801 3895
4.081 3.344 1.850 1853
3.974 3.256 1.788 4582
4.085 3.347 1.835 1819
3.978 3.259 1.773 2987
4.089 3.350 1.819 1042
3.970 3.253 1.754 1574
4.081 3.344 1.799 1045
3.979 3.261 1.741 1427
4.102 3.361 1.791 1310
4.129 3.383 1.785 2121
4.240 3.474 1.830 1197
4.127 3.381 1.767 2986
4.238 3.473 1.812 1589
4.189 3.432 1.775 4600
4.301 3.524 1.819 811
4.193 3.435 1.759 3840
4.304 3.527 1.803 1253
4.202 3.443 1.746 3044
4.314 3.535 1.789 1499
4.212 3.451 1.733 3869
4.324 3.542 1.775 1747
4.251 3.483 1.730 3792
4.427 3.627 1.797 2284
4.260 3.491 1.716 2440
4.425 3.626 1.778 2317
4.505 3.691 1.790 2150
4.346 3.561 1.731 2057
4.532 3.714 1.782 2766
4.356 3.569 1.717 1651
4.542 3.721 1.767 2828
4.713 3.862 1.829 1690
4.723 3.870 1.813 2215
4.611 3.778 1.773 1751
4.874 3.994 1.848 3097
4.738 3.882 1.800 2472
4.884 4.002 1.831 4792
4.760 3.900 1.788 2527
4.888 4.005 1.813 5249
4.775 3.913 1.774 2096
4.886 4.003 1.793 3896
5.028 4.119 1.841 1713
5.032 4.123 1.822 2650
5.150 4.220 1.862 2421
5.148 4.218 1.841 3310
5.023 4.116 1.800 2603
5.152 4.221 1.822 3153
5.027 4.119 1.781 1986
5.274 4.321 1.841 2273
5.162 4.229 1.804 2154
5.290 4.334 1.825 2616
5.177 4.242 1.789 2256
5.187 4.250 1.771 2222
5.300 4.342 1.807 1814
5.399 4.423 1.817 1380
5.196 4.258 1.754 1142
5.682 4.656 1.884 1370
5.426 4.446 1.804 1361
5.430 4.449 1.784 1949
5.645 4.625 1.850 1425
5.631 4.613 1.823 1990
5.505 4.511 1.785 1476
5.628 4.612 1.800 2709
5.801 4.753 1.852 1965
5.799 4.752 1.828 2175
5.632 4.615 1.779 1822
5.791 4.745 1.803 2067
5.618 4.603 1.753 1114
5.783 4.738 1.778 1922
5.669 4.645 1.745 753
5.817 4.766 1.764 2318
6.116 5.011 1.849 1427
5.814 4.764 1.741 2970
6.132 5.024 1.829 1694
5.824 4.772 1.721 2196
6.141 5.032 1.808 1400
5.827 4.775 1.699 1421
6.139 5.030 1.783 1399
6.413 5.254 1.832 1670
6.167 5.053 1.766 1420
6.747 5.528 1.894 1675
6.501 5.326 1.830 1214
6.751 5.531 1.869 1807
7.027 5.757 1.940 1388
7.031 5.761 1.913 1645
6.742 5.524 1.840 1431
7.119 5.833 1.908 1560
6.981 5.720 1.874 1387
7.123 5.836 1.881 1566
6.979 5.718 1.846 1293
7.229 5.923 1.879 1524
6.982 5.721 1.820 1297
7.227 5.921 1.851 1612
6.992 5.729 1.795 975
7.219 5.915 1.821 1283
7.050 5.776 1.781 715
7.217 5.913 1.792 735
7.042 5.770 1.752 510
7.293 5.975 1.782 494
7.106 5.822 1.739 328
7.296 5.978 1.754 491
7.300 5.981 1.727 330
1.785 1.458 1.797 3026
1.691 1.382 1.708 727
1.789 1.462 1.791 6053
1.695 1.385 1.702 1454
1.792 1.465 1.784 6053
1.698 1.388 1.696 1454
1.801 1.472 1.782 5752
1.707 1.395 1.694 1213
1.810 1.479 1.780 5623
1.715 1.401 1.692 940
1.813 1.482 1.773 6557
1.908 1.559 1.861 951
1.812 1.481 1.762 7526
1.907 1.558 1.849 1883
1.816 1.484 1.755 7526
1.911 1.561 1.842 1883
1.824 1.491 1.753 7776
1.920 1.569 1.840 1642
1.833 1.498 1.751 8224
1.929 1.576 1.837 1568
1.847 1.509 1.753 5748
1.942 1.587 1.839 2290
1.931 1.578 1.818 3995
1.835 1.500 1.733 2512
1.925 1.573 1.802 5289
1.829 1.494 1.717 1480
1.923 1.572 1.791 6710
1.827 1.493 1.706 958
1.927 1.575 1.784 6704
1.831 1.496 1.699 984
1.931 1.578 1.776 6087
1.834 1.499 1.693 1010
1.955 1.598 1.787 5632
1.858 1.518 1.703 1544
1.959 1.601 1.780 7751
1.862 1.521 1.697 1210
1.962 1.604 1.772 9887
1.865 1.524 1.690 833
1.966 1.607 1.765 8241
1.869 1.527 1.683 735
1.970 1.610 1.758 6596
2.067 1.689 1.840 749
2.004 1.638 1.776 4817
1.906 1.558 1.695 931
2.039 1.666 1.795 5280
1.941 1.586 1.713 1550
2.043 1.669 1.787 5249
1.944 1.589 1.706 1074
2.026 1.655 1.763 5602
2.124 1.736 1.843 529
2.035 1.663 1.759 7296
2.133 1.743 1.839 562
2.038 1.666 1.752 9063
2.147 1.755 1.840 622
2.047 1.673 1.748 7829
2.146 1.754 1.828 1105
2.056 1.680 1.745 6882
2.155 1.761 1.824 1315
2.112 1.726 1.779 6721
2.012 1.645 1.700 1754
2.121 1.733 1.775 8968
2.021 1.652 1.697 1850
2.130 1.740 1.771 8226
2.030 1.659 1.694 1555
2.144 1.752 1.772 8092
2.044 1.670 1.694 973
2.158 1.763 1.772 7692
2.058 1.682 1.695 956
2.172 1.775 1.772 8163
2.072 1.693 1.695 843
2.171 1.774 1.760 6360
2.271 1.856 1.836 576
2.158 1.764 1.740 4838
2.259 1.846 1.816 1766
2.162 1.767 1.732 4724
2.263 1.849 1.808 2932
2.251 1.839 1.787 5896
2.150 1.757 1.712 3640
2.254 1.842 1.779 6710
2.153 1.760 1.704 3278
2.253 1.841 1.767 5094
2.151 1.758 1.692 2170
2.240 1.831 1.747 4475
2.342 1.914 1.821 1077
2.292 1.873 1.773 4341
2.185 1.786 1.696 2100
2.290 1.872 1.761 6365
2.392 1.955 1.834 1397
2.294 1.875 1.752 7689
2.396 1.958 1.825 1941
2.292 1.873 1.740 6708
2.394 1.957 1.813 2790
2.296 1.876 1.732 5767
2.403 1.964 1.808 3358
2.300 1.879 1.723 4543
2.407 1.967 1.799 4054
2.373 1.939 1.763 4818
2.271 1.856 1.692 1763
2.377 1.942 1.755 4928
2.274 1.858 1.684 1578
2.386 1.950 1.750 4118
2.489 2.034 1.820 2511
2.422 1.979 1.763 4758
2.319 1.895 1.693 1111
2.431 1.987 1.758 6515
2.534 2.071 1.827 1140
2.440 1.994 1.752 7489
2.544 2.079 1.822 1818
2.449 2.002 1.747 7962
2.553 2.086 1.816 2227
2.458 2.009 1.741 6827
2.562 2.094 1.810 2127
2.457 2.007 1.729 5027
2.593 2.119 1.818 2886
2.520 2.060 1.759 5371
2.624 2.144 1.827 2973
2.524 2.063 1.749 6119
2.628 2.148 1.817 3069
2.550 2.083 1.754 7670
2.654 2.169 1.821 1758
2.553 2.086 1.745 9619
2.658 2.172 1.811 2832
2.562 2.094 1.739 9212
2.667 2.179 1.805 3531
2.577 2.106 1.736 5818
2.704 2.209 1.816 3879
2.718 2.221 1.813 5045
2.608 2.131 1.744 3716
2.733 2.234 1.810 4910
2.612 2.134 1.734 2556
2.743 2.241 1.803 3806
2.599 2.124 1.714 2007
2.680 2.190 1.752 4030
2.813 2.299 1.833 3576
2.739 2.238 1.776 4663
2.844 2.324 1.840 2782
2.748 2.246 1.769 4118
2.854 2.332 1.832 2355
2.835 2.317 1.809 3859
2.674 2.185 1.712 2083
2.912 2.379 1.841 3963
2.750 2.247 1.745 2618
2.921 2.387 1.833 3898
2.759 2.255 1.738 2298
2.953 2.413 1.839 3848
2.847 2.326 1.777 2386
2.962 2.421 1.831 4508
2.845 2.325 1.763 2589
2.966 2.424 1.820 4774
2.860 2.337 1.759 2814
2.964 2.422 1.806 5473
2.858 2.335 1.745 2004
2.962 2.421 1.792 6476
3.069 2.508 1.852 3109
3.050 2.493 1.828 6654
2.943 2.405 1.768 4175
3.043 2.487 1.810 6381
2.936 2.399 1.751 3399
3.030 2.476 1.790 6539
2.923 2.388 1.731 1571
3.028 2.474 1.775 6841
2.921 2.387 1.717 1006
3.031 2.477 1.764 7390
2.924 2.389 1.706 882
3.086 2.522 1.780 8714
2.979 2.434 1.722 2029
3.095 2.529 1.772 7217
2.982 2.437 1.711 761
3.105 2.537 1.763 6530
2.997 2.449 1.706 741
3.080 2.517 1.737 6870
3.188 2.605 1.793 838
3.078 2.515 1.722 8890
3.186 2.603 1.779 1185
3.081 2.518 1.711 14016
3.190 2.606 1.767 1097
3.091 2.526 1.702 19582
3.199 2.614 1.758 694
3.094 2.529 1.691 21838
3.203 2.617 1.746 800
3.103 2.536 1.682 21424
3.212 2.625 1.737 820
3.113 2.544 1.673 20574
3.221 2.632 1.728 917
3.116 2.546 1.662 19720
3.357 2.743 1.781 922
3.120 2.549 1.650 18699
3.372 2.755 1.774 1119
3.123 2.552 1.639 15682
3.381 2.763 1.764 1260
3.126 2.555 1.627 9927
3.373 2.757 1.746 2110
3.124 2.553 1.613 5478
3.388 2.769 1.739 3075
3.127 2.555 1.601 3885
3.461 2.828 1.759 3085
3.396 2.775 1.714 3290
3.125 2.553 1.587 2793
3.399 2.778 1.701 3430
3.659 2.990 1.822 2155
3.657 2.988 1.806 2957
3.403 2.781 1.689 2173
3.660 2.991 1.792 2849
3.799 3.105 1.855 2827
3.687 3.013 1.789 4352
3.809 3.112 1.844 4139
3.691 3.016 1.775 5559
3.824 3.125 1.835 4576
3.700 3.024 1.764 4985
3.822 3.123 1.818 4516
3.791 3.098 1.788 3902
3.901 3.188 1.837 2925
3.783 3.092 1.769 3137
3.917 3.201 1.827 3034
3.956 3.232 1.828 3947
3.839 3.137 1.778 1577
3.965 3.240 1.815 3590
3.855 3.150 1.768 1051
3.969 3.243 1.801 3401
4.085 3.339 1.850 1930
3.978 3.251 1.788 4068
4.095 3.346 1.837 1966
3.982 3.254 1.773 2589
4.093 3.345 1.819 1096
4.044 3.305 1.783 1446
4.202 3.434 1.847 777
4.106 3.356 1.791 1162
3.984 3.255 1.741 1118
4.134 3.378 1.785 2115
4.245 3.469 1.830 1130
4.131 3.376 1.767 3080
4.243 3.467 1.812 1598
4.194 3.427 1.775 5859
4.082 3.336 1.731 741
4.197 3.430 1.759 4817
4.309 3.521 1.803 1282
4.201 3.433 1.744 3630
4.319 3.529 1.789 1680
4.216 3.446 1.733 4315
4.328 3.537 1.775 1991
4.255 3.477 1.730 3843
4.426 3.617 1.795 2376
4.265 3.485 1.716 2624
4.430 3.620 1.778 2518
4.345 3.551 1.729 2473
4.522 3.695 1.794 2182
4.537 3.708 1.782 2826
4.349 3.554 1.713 1827
4.541 3.711 1.765 2654
4.724 3.860 1.831 1783
4.734 3.868 1.815 2394
4.545 3.714 1.748 1757
4.873 3.982 1.845 2985
4.749 3.881 1.802 2690
4.889 3.995 1.831 4696
4.765 3.894 1.788 2693
4.893 3.998 1.813 5183
4.780 3.906 1.774 2224
4.885 3.992 1.791 3747
5.027 4.108 1.839 1766
5.031 4.111 1.820 2572
5.156 4.213 1.862 1939
5.153 4.211 1.841 2995
5.029 4.109 1.800 2582
5.151 4.210 1.820 3129
5.033 4.112 1.781 2067
5.167 4.222 1.804 2407
5.286 4.320 1.843 2188
5.296 4.327 1.825 2668
5.183 4.235 1.789 2504
5.192 4.243 1.771 2243
5.305 4.335 1.807 1938
5.399 4.412 1.815 1433
5.285 4.319 1.780 1173
5.432 4.439 1.804 1671
5.688 4.648 1.884 1355
5.430 4.437 1.782 2428
5.722 4.676 1.871 1406
5.637 4.606 1.823 1991
5.434 4.440 1.762 1743
5.628 4.599 1.798 2856
5.515 4.507 1.765 1740
5.632 4.602 1.777 2093
5.806 4.744 1.828 1905
5.797 4.737 1.803 2041
5.624 4.596 1.753 1398
5.789 4.731 1.778 2016
5.651 4.618 1.738 822
5.823 4.758 1.764 2383
6.116 4.998 1.847 1426
5.820 4.756 1.741 2879
6.138 5.016 1.829 1613
5.824 4.759 1.719 2048
6.142 5.019 1.806 1425
6.140 5.017 1.781 1513
6.416 5.243 1.856 1409
6.413 5.241 1.830 1709
6.173 5.045 1.766 1506
6.754 5.519 1.894 1613
6.507 5.318 1.830 1234
6.758 5.522 1.869 1712
7.040 5.753 1.941 1347
7.038 5.752 1.913 1617
6.756 5.520 1.842 1342
7.042 5.755 1.887 1512
7.157 5.848 1.916 1265
7.131 5.827 1.881 1516
6.986 5.709 1.846 1258
7.237 5.914 1.879 1593
6.996 5.717 1.821 1213
7.235 5.912 1.851 1652
7.078 5.784 1.814 1004
7.220 5.900 1.819 1362
7.064 5.772 1.783 853
7.224 5.903 1.792 803
7.043 5.755 1.751 546
7.300 5.966 1.782 439
7.113 5.813 1.739 375
7.304 5.969 1.754 443
7.117 5.816 1.713 290
7.308 5.972 1.727 296
1.788 1.455 1.797 2775
1.694 1.378 1.708 763
1.792 1.458 1.791 5550
1.697 1.381 1.702 1526
1.795 1.461 1.784 5550
1.701 1.384 1.696 1526
1.804 1.468 1.782 5288
1.709 1.391 1.694 1256
1.818 1.479 1.785 5283
1.723 1.402 1.697 1149
1.816 1.478 1.773 6164
1.911 1.555 1.861 966
1.815 1.477 1.762 7125
1.910 1.554 1.849 1925
1.819 1.480 1.755 7125
1.914 1.557 1.842 1925
1.827 1.487 1.753 7293
1.923 1.565 1.840 1608
1.836 1.494 1.751 7609
1.932 1.572 1.837 1490
1.850 1.505 1.753 5217
1.946 1.583 1.839 2280
1.929 1.570 1.814 3955
1.833 1.492 1.729 1988
1.928 1.569 1.802 5497
1.832 1.491 1.717 1392
1.927 1.568 1.791 7081
1.830 1.489 1.706 905
1.936 1.575 1.788 7068
1.839 1.496 1.704 1093
1.934 1.574 1.776 6406
1.837 1.495 1.693 1020
1.958 1.594 1.787 6066
1.861 1.515 1.703 1599
1.962 1.597 1.780 8125
1.865 1.517 1.697 1293
1.966 1.600 1.772 10242
1.868 1.520 1.690 947
1.969 1.603 1.765 8461
1.872 1.523 1.683 820
1.973 1.606 1.758 6680
2.071 1.685 1.840 802
2.028 1.651 1.794 4985
1.930 1.571 1.712 1803
2.042 1.662 1.795 5737
1.944 1.582 1.713 1677
2.046 1.665 1.787 5910
1.948 1.585 1.706 1099
2.034 1.655 1.767 6223
2.133 1.736 1.847 527
2.038 1.658 1.759 7972
2.137 1.739 1.839 578
2.042 1.661 1.752 9721
2.151 1.750 1.840 654
2.051 1.669 1.748 8337
2.150 1.749 1.828 1186
2.075 1.689 1.758 7519
2.174 1.769 1.837 808
2.110 1.717 1.775 7236
2.011 1.636 1.696 1256
2.124 1.729 1.775 9587
2.025 1.648 1.697 1884
2.133 1.736 1.771 8730
2.033 1.655 1.694 1630
2.142 1.743 1.768 8406
2.042 1.662 1.690 1118
2.162 1.759 1.772 7653
2.062 1.678 1.695 1013
2.176 1.771 1.772 8015
2.076 1.689 1.695 684
2.174 1.769 1.760 6237
2.275 1.851 1.836 559
2.167 1.764 1.744 4734
2.268 1.846 1.820 1304
2.240 1.823 1.788 4934
2.139 1.741 1.712 2928
2.254 1.834 1.787 6290
2.153 1.752 1.712 3529
2.258 1.837 1.779 7207
2.157 1.755 1.704 3147
2.251 1.832 1.763 5581
2.150 1.749 1.688 1592
2.244 1.826 1.747 4896
2.346 1.909 1.821 1158
2.296 1.868 1.773 4563
2.189 1.781 1.696 1865
2.294 1.867 1.761 6672
2.396 1.950 1.834 1436
2.298 1.870 1.752 8079
2.400 1.953 1.825 1931
2.296 1.868 1.740 7064
2.398 1.952 1.813 2668
2.300 1.871 1.732 6179
2.408 1.959 1.808 3193
2.303 1.874 1.723 4819
2.406 1.958 1.795 3919
2.377 1.934 1.763 4978
2.275 1.851 1.692 1819
2.381 1.937 1.755 5220
2.484 2.021 1.826 1648
2.390 1.945 1.750 4376
2.493 2.029 1.820 2772
2.426 1.974 1.763 4685
2.529 2.058 1.833 1156
2.435 1.982 1.758 6427
2.539 2.066 1.827 1192
2.444 1.989 1.752 7602
2.548 2.073 1.822 1810
2.453 1.996 1.747 8302
2.557 2.081 1.816 2166
2.463 2.004 1.741 7341
2.566 2.088 1.810 2008
2.461 2.002 1.729 5454
2.598 2.114 1.818 2953
2.525 2.054 1.759 5532
2.629 2.139 1.827 3056
2.528 2.057 1.749 6153
2.633 2.142 1.817 3204
2.554 2.078 1.754 7588
2.658 2.163 1.821 1832
2.563 2.086 1.748 9421
2.668 2.171 1.815 2806
2.567 2.089 1.739 8888
2.671 2.174 1.805 3885
2.581 2.100 1.736 5662
2.703 2.199 1.813 3983
2.723 2.216 1.813 4865
2.618 2.130 1.747 4158
2.738 2.228 1.810 4596
2.622 2.133 1.738 2705
2.747 2.235 1.803 3697
2.642 2.150 1.738 1918
2.690 2.189 1.755 4098
2.818 2.293 1.833 3119
2.744 2.233 1.776 5166
2.849 2.318 1.840 2679
2.753 2.240 1.769 4444
2.859 2.326 1.832 2402
2.840 2.311 1.809 3786
2.734 2.225 1.745 2050
2.916 2.373 1.841 4221
2.755 2.241 1.745 2740
2.926 2.381 1.833 4105
2.764 2.249 1.738 2507
2.958 2.407 1.839 3779
2.851 2.320 1.777 2377
2.967 2.414 1.831 4436
2.855 2.323 1.766 2775
2.971 2.418 1.820 4709
2.864 2.331 1.759 3068
2.964 2.411 1.803 5326
2.857 2.325 1.742 2152
2.967 2.415 1.792 6311
3.074 2.501 1.852 3004
3.055 2.486 1.828 6841
2.948 2.399 1.768 4791
3.042 2.476 1.807 6659
2.935 2.388 1.748 3557
3.035 2.469 1.790 6797
2.928 2.382 1.731 1847
3.033 2.468 1.775 6841
2.925 2.381 1.717 1298
3.037 2.471 1.764 7431
2.929 2.383 1.706 1141
3.091 2.515 1.780 8832
2.984 2.428 1.722 2281
3.101 2.523 1.772 7460
2.993 2.435 1.714 761
3.110 2.531 1.763 6743
3.002 2.443 1.706 593
3.102 2.524 1.746 6651
2.926 2.381 1.653 701
3.083 2.509 1.722 7914
3.191 2.597 1.779 1183
3.087 2.512 1.711 13623
3.195 2.600 1.767 1093
3.096 2.519 1.702 19387
3.204 2.607 1.758 667
3.099 2.522 1.691 21159
3.208 2.610 1.746 819
3.109 2.530 1.682 21333
3.217 2.618 1.737 835
3.118 2.537 1.673 21086
3.301 2.686 1.765 932
3.121 2.540 1.662 19536
3.311 2.694 1.755 797
3.125 2.543 1.650 17276
3.004 2.445 1.591 961
3.128 2.545 1.639 14169
3.008 2.447 1.580 1130
3.132 2.548 1.627 9789
3.379 2.750 1.746 1991
3.135 2.551 1.615 6266
3.388 2.757 1.736 2783
3.133 2.549 1.601 4385
3.467 2.821 1.759 3216
3.476 2.829 1.749 2989
3.130 2.547 1.587 2850
3.405 2.771 1.701 2673
3.665 2.982 1.822 2432
3.663 2.981 1.806 3257
3.489 2.839 1.726 2227
3.678 2.993 1.797 3079
3.806 3.097 1.855 2826
3.693 3.005 1.789 4772
3.815 3.105 1.844 4033
3.697 3.009 1.775 5862
3.831 3.117 1.835 4482
3.707 3.016 1.764 4938
3.829 3.115 1.818 4503
3.798 3.090 1.788 3778
3.908 3.180 1.837 3014
3.918 3.188 1.825 3151
3.790 3.084 1.769 3004
3.927 3.196 1.813 3932
3.799 3.091 1.757 1365
3.931 3.199 1.798 3483
4.048 3.294 1.848 959
3.976 3.235 1.801 2933
4.098 3.335 1.852 1963
3.985 3.243 1.788 3520
4.096 3.333 1.835 2137
3.995 3.251 1.776 2181
4.106 3.341 1.822 1171
4.051 3.297 1.783 1533
4.197 3.416 1.842 762
4.184 3.404 1.820 1281
3.985 3.242 1.739 860
4.146 3.374 1.788 2161
4.258 3.465 1.832 1005
4.197 3.415 1.791 3490
4.086 3.325 1.746 713
4.201 3.418 1.775 7011
4.089 3.328 1.731 807
4.205 3.421 1.759 5772
4.316 3.512 1.803 1276
4.208 3.424 1.744 4305
4.320 3.515 1.787 1840
4.218 3.432 1.730 4754
4.330 3.523 1.773 2237
4.263 3.469 1.730 3794
4.433 3.608 1.795 2492
4.343 3.534 1.743 2971
4.455 3.625 1.785 2118
4.346 3.537 1.727 3066
4.529 3.686 1.794 2084
4.539 3.694 1.779 2602
4.350 3.540 1.710 2154
4.543 3.697 1.762 2509
4.744 3.860 1.835 1833
4.748 3.863 1.817 2457
4.552 3.704 1.748 1738
4.870 3.963 1.841 2951
4.757 3.871 1.802 2762
4.892 3.980 1.829 4745
4.773 3.884 1.788 2936
4.895 3.983 1.811 5291
4.783 3.892 1.772 2434
4.887 3.977 1.789 3540
5.030 4.093 1.837 1939
5.039 4.101 1.820 2647
5.158 4.197 1.860 1666
5.156 4.196 1.839 2905
5.037 4.099 1.800 2624
5.160 4.199 1.820 3276
5.035 4.097 1.779 2114
5.176 4.212 1.804 2441
5.295 4.309 1.843 2210
5.305 4.317 1.825 2705
5.191 4.224 1.789 2333
5.201 4.232 1.771 2083
5.314 4.324 1.807 2068
5.408 4.400 1.815 1537
5.288 4.303 1.778 1328
5.441 4.428 1.804 2004
5.692 4.632 1.882 1325
5.439 4.426 1.782 2945
5.732 4.664 1.871 1349
5.443 4.429 1.762 2359
5.646 4.594 1.823 1895
5.638 4.588 1.798 2886
5.524 4.495 1.765 1826
5.636 4.586 1.775 2308
5.809 4.727 1.826 1693
5.807 4.725 1.803 2000
5.639 4.589 1.754 1630
5.799 4.719 1.778 2030
5.661 4.606 1.738 902
5.833 4.746 1.764 2317
6.127 4.985 1.847 1459
5.830 4.744 1.741 2703
6.142 4.998 1.827 1606
5.834 4.747 1.719 1883
6.152 5.006 1.806 1475
6.150 5.004 1.781 1611
6.420 5.224 1.854 1494
6.424 5.228 1.830 1802
6.184 5.032 1.766 1515
6.765 5.505 1.894 1514
6.518 5.304 1.830 1184
6.769 5.508 1.869 1612
6.950 5.655 1.915 1394
6.990 5.688 1.898 1573
6.767 5.506 1.842 1276
7.054 5.740 1.887 1503
7.169 5.833 1.916 1204
7.143 5.812 1.881 1473
6.998 5.694 1.846 1188
7.249 5.899 1.879 1623
7.008 5.702 1.821 1184
7.247 5.897 1.851 1662
7.102 5.779 1.816 1001
7.233 5.885 1.819 1313
7.070 5.753 1.781 863
7.236 5.888 1.792 801
7.055 5.741 1.751 565
7.313 5.951 1.782 373
7.125 5.798 1.739 364
7.316 5.954 1.754 385
7.129 5.801 1.713 292
7.320 5.956 1.727 275
1.790 1.452 1.797 2559
1.696 1.376 1.708 779
1.794 1.455 1.791 5119
1.699 1.379 1.702 1558
1.797 1.458 1.784 5119
1.703 1.382 1.696 1558
1.806 1.465 1.782 4906
1.711 1.389 1.694 1226
1.845 1.497 1.808 5110
1.750 1.420 1.720 2267
1.818 1.475 1.773 5875
1.913 1.553 1.861 988
1.822 1.478 1.767 6779
1.917 1.556 1.854 1604
1.826 1.481 1.760 6779
1.921 1.559 1.847 1604
1.829 1.484 1.753 7010
1.925 1.562 1.840 1599
1.838 1.492 1.751 7323
1.934 1.569 1.837 1440
1.852 1.503 1.753 4961
1.948 1.581 1.839 2257
1.926 1.563 1.809 4013
1.830 1.485 1.724 1808
1.930 1.566 1.802 5744
1.834 1.488 1.717 1365
1.929 1.565 1.791 7501
1.832 1.487 1.706 845
1.938 1.572 1.788 7475
1.841 1.494 1.704 970
1.941 1.575 1.781 6844
1.844 1.497 1.697 1017
1.955 1.587 1.782 6561
1.858 1.508 1.699 1245
1.959 1.590 1.775 8536
1.862 1.511 1.692 1032
1.968 1.597 1.772 10632
1.870 1.518 1.690 824
1.972 1.600 1.765 8696
1.874 1.521 1.683 732
1.975 1.603 1.758 6761
2.073 1.682 1.840 739
1.979 1.606 1.751 4950
2.077 1.685 1.832 1399
2.045 1.659 1.795 5581
1.946 1.579 1.713 1827
2.048 1.662 1.787 5772
1.950 1.582 1.706 1155
2.057 1.669 1.784 5980
1.959 1.589 1.703 679
2.040 1.656 1.759 7427
2.150 1.744 1.848 546
2.044 1.659 1.752 8895
2.159 1.752 1.844 666
2.053 1.666 1.748 7467
2.152 1.746 1.828 1216
2.088 1.694 1.766 7423
2.187 1.775 1.845 691
2.112 1.714 1.775 7896
2.013 1.633 1.696 1220
2.127 1.726 1.775 10299
2.027 1.645 1.697 1876
2.136 1.733 1.771 9126
2.036 1.652 1.694 1727
2.145 1.740 1.768 8550
2.045 1.659 1.690 1470
2.159 1.752 1.768 7526
2.059 1.670 1.691 1318
2.178 1.768 1.772 7813
2.078 1.686 1.695 1307
2.182 1.771 1.764 6112
2.081 1.689 1.688 1055
2.170 1.761 1.744 4658
2.271 1.842 1.820 1300
2.243 1.820 1.788 5205
2.142 1.738 1.712 2620
2.252 1.827 1.783 6667
2.150 1.745 1.708 2775
2.261 1.834 1.779 7647
2.159 1.752 1.704 2899
2.248 1.824 1.759 6048
2.147 1.742 1.684 1039
2.247 1.823 1.747 5271
2.348 1.905 1.821 1242
2.299 1.865 1.773 4808
2.197 1.782 1.700 1729
2.302 1.868 1.765 6922
2.404 1.951 1.838 1417
2.301 1.867 1.752 8334
2.403 1.950 1.825 1875
2.304 1.870 1.744 7368
2.406 1.953 1.816 2456
2.302 1.868 1.732 6466
2.410 1.956 1.808 2862
2.306 1.871 1.723 4922
2.409 1.954 1.795 3516
2.380 1.931 1.763 4950
2.277 1.848 1.692 1755
2.384 1.934 1.755 5343
2.487 2.018 1.826 1798
2.393 1.941 1.750 4560
2.496 2.025 1.820 3012
2.429 1.971 1.763 4696
2.532 2.055 1.833 1224
2.438 1.978 1.758 6330
2.541 2.062 1.827 1239
2.447 1.986 1.752 7540
2.551 2.070 1.822 1814
2.456 1.993 1.747 8318
2.560 2.077 1.816 2128
2.460 1.996 1.738 7495
2.564 2.080 1.806 1954
2.463 1.999 1.729 5597
2.600 2.110 1.818 2926
2.527 2.051 1.759 5546
2.632 2.135 1.827 3042
2.526 2.049 1.746 5996
2.630 2.134 1.813 3636
2.557 2.075 1.754 7194
2.661 2.159 1.821 1929
2.566 2.082 1.748 9020
2.671 2.167 1.815 3079
2.570 2.085 1.739 8519
2.674 2.170 1.805 4221
2.590 2.101 1.740 5536
2.700 2.191 1.809 4007
2.621 2.127 1.747 4612
2.726 2.212 1.813 4453
2.752 2.233 1.816 4092
2.630 2.134 1.741 2980
2.689 2.182 1.765 3506
2.795 2.268 1.830 2156
2.693 2.185 1.755 4320
2.821 2.289 1.833 2648
2.747 2.229 1.776 5592
2.852 2.315 1.840 2592
2.750 2.232 1.766 4855
2.856 2.318 1.829 2923
2.849 2.312 1.812 3741
2.743 2.226 1.749 2754
2.920 2.369 1.841 4506
2.752 2.233 1.742 2807
2.929 2.377 1.833 4257
2.767 2.245 1.738 2567
2.961 2.403 1.839 3659
2.855 2.316 1.777 2315
2.970 2.410 1.831 4301
2.864 2.324 1.770 2714
2.974 2.413 1.820 4528
2.868 2.327 1.759 2979
2.961 2.403 1.799 5159
2.854 2.316 1.739 2115
2.965 2.406 1.788 6276
3.072 2.493 1.849 3182
3.059 2.482 1.828 6891
2.952 2.395 1.768 5655
3.046 2.471 1.807 6918
2.939 2.384 1.748 4295
3.038 2.465 1.790 7056
2.931 2.378 1.731 2227
3.036 2.464 1.775 6839
2.929 2.376 1.717 1457
3.046 2.471 1.767 7419
2.938 2.384 1.709 1754
3.095 2.511 1.780 8641
2.987 2.424 1.722 2908
3.104 2.519 1.772 7312
2.996 2.431 1.714 1108
3.113 2.526 1.763 6659
3.005 2.439 1.706 612
3.111 2.525 1.749 6302
2.935 2.382 1.656 537
3.092 2.509 1.725 7154
3.201 2.597 1.782 1001
3.096 2.512 1.714 13433
3.204 2.600 1.770 847
3.099 2.515 1.702 18834
3.208 2.603 1.758 665
3.103 2.518 1.691 20273
3.212 2.606 1.746 868
3.112 2.525 1.682 21179
3.221 2.614 1.737 860
3.121 2.533 1.673 21249
3.305 2.682 1.765 946
3.125 2.536 1.662 18577
3.309 2.685 1.753 825
3.123 2.534 1.648 15391
3.008 2.440 1.591 999
3.132 2.541 1.639 12627
3.011 2.443 1.580 1298
3.135 2.544 1.627 9909
3.383 2.745 1.746 1768
3.138 2.547 1.615 7289
3.392 2.752 1.736 2359
3.142 2.549 1.604 4843
3.477 2.821 1.762 3236
3.509 2.847 1.763 3228
3.139 2.547 1.589 2676
3.669 2.977 1.822 2733
3.513 2.850 1.749 2366
3.673 2.980 1.808 3542
3.493 2.835 1.726 2305
3.688 2.993 1.800 3322
3.810 3.091 1.855 2773
3.698 3.000 1.789 5189
3.819 3.099 1.844 3862
3.701 3.003 1.775 6066
3.835 3.112 1.835 4213
3.705 3.006 1.761 4756
3.833 3.110 1.818 4191
3.802 3.085 1.788 3496
3.912 3.175 1.837 3069
3.922 3.182 1.825 3178
3.794 3.078 1.769 2810
3.926 3.186 1.810 4113
3.716 3.015 1.720 1320
3.930 3.189 1.796 3840
4.041 3.279 1.843 829
3.922 3.182 1.776 3064
4.103 3.329 1.852 1948
3.931 3.190 1.764 2816
4.101 3.328 1.835 2288
4.052 3.288 1.798 1854
3.941 3.198 1.752 1638
4.062 3.296 1.785 1676
3.950 3.205 1.739 779
4.124 3.346 1.794 1426
3.221 2.613 1.428 694
4.151 3.368 1.788 2369
4.263 3.459 1.832 913
4.202 3.409 1.791 4031
4.090 3.319 1.746 762
4.206 3.413 1.775 8217
4.094 3.322 1.731 891
4.209 3.416 1.759 6898
4.321 3.506 1.803 1339
4.213 3.418 1.744 5204
4.331 3.514 1.789 2146
4.222 3.426 1.730 5355
4.334 3.517 1.773 2481
4.273 3.467 1.732 3622
4.438 3.601 1.795 2482
4.342 3.523 1.741 3566
4.230 3.432 1.699 2515
4.351 3.531 1.727 3713
4.540 3.684 1.796 1968
4.550 3.692 1.782 2648
4.355 3.534 1.710 2443
4.548 3.690 1.762 2609
4.749 3.854 1.835 1932
4.753 3.857 1.817 2449
4.552 3.693 1.746 1727
4.864 3.946 1.837 3201
4.751 3.855 1.797 2718
4.897 3.974 1.829 4638
4.778 3.877 1.788 3070
4.895 3.972 1.809 5268
4.782 3.880 1.770 2401
4.881 3.960 1.785 3885
5.035 4.086 1.837 1871
5.045 4.094 1.820 2482
4.861 3.944 1.758 2026
5.162 4.189 1.839 2888
5.043 4.092 1.800 2543
5.166 4.192 1.820 3313
5.041 4.090 1.779 2156
5.176 4.200 1.803 2494
5.301 4.301 1.843 2210
5.311 4.309 1.825 2628
5.197 4.217 1.789 2198
5.326 4.322 1.809 2118
5.207 4.225 1.771 1899
5.414 4.393 1.815 1589
5.294 4.296 1.778 1524
5.447 4.420 1.804 2397
5.699 4.624 1.882 1260
5.445 4.418 1.782 3559
5.738 4.656 1.871 1370
5.449 4.421 1.762 3067
5.640 4.577 1.819 1797
5.644 4.580 1.798 2930
5.453 4.424 1.742 2017
5.642 4.578 1.775 2540
5.816 4.719 1.826 1476
5.814 4.717 1.803 1888
5.646 4.581 1.754 1830
5.805 4.711 1.778 1990
5.667 4.599 1.738 979
5.839 4.738 1.764 2253
6.133 4.977 1.847 1495
5.837 4.736 1.741 2501
6.149 4.990 1.827 1589
5.840 4.739 1.719 1692
6.159 4.998 1.806 1546
6.151 4.991 1.780 1716
6.428 5.216 1.854 1582
6.432 5.219 1.830 1877
6.191 5.023 1.766 1544
6.767 5.491 1.892 1361
6.405 5.197 1.798 1180
6.771 5.494 1.867 1433
6.958 5.646 1.915 1400
7.070 5.737 1.916 1605
6.956 5.644 1.888 1496
7.074 5.740 1.890 1600
7.189 5.833 1.919 1056
7.151 5.802 1.881 1430
7.006 5.685 1.846 1259
7.257 5.889 1.879 1630
7.028 5.702 1.824 1086
7.255 5.887 1.851 1668
7.098 5.759 1.814 984
7.241 5.875 1.819 1321
7.084 5.748 1.783 847
7.245 5.878 1.792 815
7.027 5.702 1.742 573
7.260 5.891 1.768 360
7.024 5.700 1.715 350
7.325 5.943 1.754 315
7.137 5.791 1.713 287
1.792 1.449 1.797 2386
1.698 1.373 1.708 797
1.796 1.452 1.791 4772
1.701 1.376 1.702 1594
1.800 1.455 1.784 4772
1.705 1.379 1.696 1594
1.813 1.467 1.787 4447
1.719 1.390 1.699 1264
1.847 1.494 1.808 4980
1.752 1.417 1.720 2108
1.826 1.477 1.778 5623
1.731 1.400 1.691 955
1.824 1.476 1.767 6881
1.920 1.553 1.854 1622
1.828 1.479 1.760 6881
1.924 1.556 1.847 1622
1.837 1.486 1.758 7054
1.933 1.563 1.844 1332
1.841 1.489 1.751 7369
1.936 1.566 1.837 1383
1.854 1.500 1.753 5157
1.950 1.577 1.839 2229
1.888 1.527 1.773 4256
1.985 1.605 1.859 1227
1.928 1.559 1.798 6003
1.831 1.481 1.713 964
1.931 1.562 1.791 7859
1.835 1.484 1.706 572
1.940 1.569 1.788 7827
1.843 1.491 1.704 763
1.944 1.572 1.781 7245
1.847 1.494 1.697 917
1.958 1.584 1.782 7011
1.861 1.505 1.699 1259
1.962 1.587 1.775 8913
1.864 1.508 1.692 1100
1.971 1.594 1.772 10980
1.873 1.515 1.690 939
1.974 1.597 1.765 8880
1.876 1.518 1.683 797
1.973 1.595 1.754 6832
2.071 1.675 1.836 1151
2.033 1.644 1.794 6308
1.935 1.565 1.712 1869
2.042 1.652 1.790 7306
1.944 1.572 1.709 1622
2.051 1.659 1.787 7117
1.953 1.579 1.706 1230
2.060 1.666 1.784 6964
1.961 1.586 1.703 697
2.048 1.656 1.764 8646
2.158 1.745 1.852 543
2.052 1.659 1.756 10581
2.161 1.748 1.844 702
2.061 1.667 1.753 9445
2.160 1.747 1.832 1138
2.075 1.678 1.753 8909
2.174 1.759 1.832 1145
2.115 1.711 1.775 8431
2.016 1.630 1.696 1048
2.124 1.718 1.771 10605
2.024 1.637 1.693 1250
2.138 1.729 1.771 9048
2.038 1.649 1.694 1338
2.147 1.737 1.768 8226
2.047 1.656 1.690 937
2.162 1.748 1.768 7335
2.061 1.667 1.691 1401
2.181 1.764 1.772 7681
2.081 1.683 1.695 1850
2.185 1.767 1.764 6083
2.084 1.686 1.688 1150
2.173 1.757 1.744 4675
2.274 1.839 1.820 1284
2.245 1.816 1.788 5377
2.144 1.734 1.712 2561
2.255 1.823 1.783 6898
2.153 1.741 1.708 2644
2.258 1.826 1.775 7925
2.157 1.744 1.700 2180
2.251 1.821 1.759 6356
2.150 1.739 1.684 898
2.250 1.819 1.747 5507
2.351 1.902 1.821 1276
2.301 1.861 1.773 5076
2.200 1.779 1.700 1557
2.305 1.864 1.765 7225
2.407 1.947 1.838 1439
2.303 1.863 1.752 8611
2.406 1.946 1.825 1815
2.307 1.866 1.744 7695
2.410 1.949 1.816 2260
2.311 1.869 1.735 6780
2.413 1.952 1.808 2545
2.309 1.867 1.723 5037
2.412 1.951 1.795 3161
2.383 1.927 1.763 5001
2.280 1.844 1.692 1747
2.387 1.930 1.755 5558
2.490 2.014 1.826 1947
2.396 1.938 1.750 4729
2.499 2.021 1.820 3217
2.497 2.020 1.807 4826
2.394 1.936 1.737 2651
2.441 1.974 1.758 6053
2.545 2.058 1.827 1232
2.450 1.982 1.752 7358
2.554 2.066 1.822 1763
2.459 1.989 1.747 8236
2.563 2.073 1.816 2069
2.463 1.992 1.738 7539
2.567 2.076 1.806 1880
2.472 1.999 1.732 5629
2.604 2.106 1.818 2898
2.531 2.047 1.759 5216
2.635 2.131 1.827 3069
2.529 2.045 1.746 5597
2.633 2.130 1.813 3677
2.560 2.071 1.754 6718
2.665 2.155 1.821 2056
2.569 2.078 1.748 8535
2.674 2.163 1.815 3319
2.578 2.085 1.742 8094
2.683 2.170 1.809 4277
2.593 2.097 1.740 5459
2.698 2.182 1.806 4042
2.624 2.123 1.747 4634
2.730 2.208 1.813 4069
2.761 2.233 1.820 3703
2.639 2.134 1.744 2933
2.693 2.178 1.765 3803
2.798 2.263 1.830 1959
2.696 2.181 1.755 4625
2.824 2.284 1.833 2261
2.750 2.224 1.776 6019
2.856 2.310 1.840 2564
2.760 2.232 1.769 5157
2.866 2.318 1.832 2517
2.853 2.307 1.812 3676
2.746 2.221 1.749 2814
2.924 2.364 1.841 4736
2.756 2.229 1.742 2829
2.933 2.372 1.833 4322
2.771 2.241 1.738 2670
2.965 2.398 1.839 3535
2.802 2.266 1.744 2402
2.974 2.406 1.831 4170
2.868 2.319 1.770 2662
2.973 2.404 1.817 4394
2.866 2.318 1.756 2814
2.959 2.394 1.796 5301
2.852 2.307 1.736 2014
2.963 2.397 1.785 6556
3.070 2.483 1.846 3377
3.057 2.473 1.825 6959
2.950 2.386 1.765 6401
3.050 2.467 1.807 7264
2.942 2.380 1.748 5060
3.048 2.465 1.793 7453
2.940 2.378 1.734 3416
3.046 2.463 1.778 6850
2.938 2.376 1.720 2227
3.067 2.480 1.776 7508
2.959 2.393 1.718 4101
3.099 2.506 1.780 8629
2.991 2.419 1.722 3548
3.108 2.514 1.772 7272
3.000 2.426 1.714 1475
3.123 2.526 1.766 6653
3.015 2.438 1.709 797
3.133 2.534 1.758 6292
3.024 2.446 1.701 652
3.102 2.509 1.728 6708
3.210 2.597 1.785 867
3.100 2.507 1.714 13151
3.208 2.595 1.770 838
3.103 2.510 1.702 18033
3.212 2.598 1.758 670
3.107 2.513 1.691 19325
3.216 2.601 1.746 881
3.116 2.520 1.682 20927
3.225 2.608 1.737 889
3.125 2.528 1.673 21187
3.309 2.676 1.765 913
3.129 2.531 1.662 17308
3.313 2.679 1.753 799
3.127 2.529 1.648 13420
3.006 2.431 1.588 1099
3.130 2.531 1.636 11398
3.015 2.438 1.580 1371
3.139 2.539 1.627 10262
3.387 2.739 1.746 1546
3.143 2.542 1.615 8375
3.391 2.742 1.734 2017
3.146 2.544 1.604 5376
3.481 2.815 1.762 3200
3.514 2.842 1.763 3647
3.143 2.542 1.589 2649
3.679 2.976 1.825 3053
3.517 2.845 1.749 2701
3.678 2.974 1.808 3837
3.498 2.829 1.726 2385
3.693 2.987 1.800 3574
3.815 3.085 1.855 2630
3.702 2.994 1.789 5501
3.819 3.088 1.841 3637
3.706 2.997 1.775 6214
3.834 3.101 1.832 3949
3.716 3.005 1.764 4560
3.838 3.104 1.818 3936
3.801 3.074 1.786 3395
3.917 3.168 1.837 3079
3.921 3.171 1.822 3095
3.799 3.072 1.769 2802
3.931 3.179 1.810 4135
3.721 3.009 1.720 1344
3.935 3.182 1.796 4081
3.818 3.088 1.746 837
3.927 3.176 1.776 3406
4.108 3.323 1.852 1831
3.936 3.184 1.764 3023
4.106 3.321 1.835 2364
4.063 3.286 1.800 1912
3.946 3.191 1.752 1749
4.067 3.289 1.785 1792
4.178 3.379 1.830 857
4.129 3.340 1.794 1626
3.225 2.608 1.428 860
4.151 3.357 1.785 2450
4.262 3.447 1.830 866
4.207 3.403 1.791 4465
4.096 3.312 1.746 896
4.211 3.406 1.775 9122
4.099 3.315 1.731 995
4.215 3.409 1.759 7759
4.327 3.499 1.803 1271
4.218 3.412 1.744 5952
4.336 3.507 1.789 2290
4.228 3.419 1.730 5887
4.346 3.515 1.775 2783
4.226 3.418 1.712 3870
4.350 3.518 1.759 3198
4.347 3.516 1.741 3958
4.229 3.420 1.697 2926
4.351 3.519 1.724 4261
4.239 3.428 1.683 2003
4.361 3.527 1.710 2837
4.550 3.680 1.779 2386
4.554 3.683 1.762 2390
4.755 3.846 1.835 1950
4.759 3.849 1.817 2334
4.374 3.537 1.680 2166
4.864 3.934 1.835 3395
4.751 3.843 1.795 2468
4.897 3.961 1.827 4414
4.785 3.870 1.788 3063
4.895 3.959 1.807 5150
4.782 3.868 1.768 2214
4.881 3.948 1.783 4255
5.042 4.078 1.837 1916
5.058 4.090 1.822 2480
4.867 3.936 1.758 2331
5.169 4.180 1.839 2755
5.055 4.089 1.802 2532
5.173 4.183 1.820 3214
5.047 4.082 1.779 2124
5.182 4.191 1.803 2420
5.308 4.293 1.843 2288
5.318 4.301 1.825 2621
5.204 4.209 1.789 1971
5.339 4.318 1.811 2261
5.214 4.217 1.771 1678
5.319 4.302 1.784 1808
5.433 4.394 1.819 1625
5.455 4.411 1.804 2833
5.712 4.620 1.884 1162
5.452 4.410 1.782 4187
5.746 4.647 1.871 1369
5.456 4.413 1.762 3874
5.648 4.568 1.819 1724
5.652 4.571 1.798 3007
5.460 4.416 1.742 2745
5.649 4.569 1.775 2749
5.463 4.419 1.721 1886
5.653 4.572 1.754 1958
5.821 4.708 1.803 1762
5.813 4.701 1.778 1910
5.669 4.585 1.737 1007
5.847 4.729 1.764 2122
6.141 4.967 1.847 1488
5.844 4.727 1.741 2228
6.163 4.985 1.829 1574
6.167 4.988 1.806 1567
5.848 4.730 1.719 1480
6.159 4.981 1.780 1734
6.436 5.205 1.854 1664
6.440 5.208 1.830 1973
6.187 5.004 1.763 1567
6.426 5.197 1.801 1276
6.770 5.475 1.891 1255
6.967 5.634 1.915 1502
6.767 5.473 1.864 1355
6.977 5.643 1.891 1572
7.091 5.735 1.920 1365
7.083 5.729 1.890 1618
6.969 5.636 1.862 962
7.154 5.786 1.880 1345
7.015 5.673 1.846 1139
7.267 5.877 1.879 1584
7.037 5.691 1.824 1034
7.265 5.875 1.851 1626
7.101 5.743 1.812 1013
7.256 5.869 1.821 1286
7.093 5.736 1.783 899
7.254 5.867 1.792 753
7.072 5.720 1.751 545
7.264 5.875 1.767 346
7.143 5.777 1.739 319
7.267 5.878 1.739 290
7.140 5.775 1.711 256
1.799 1.451 1.802 2276
1.705 1.375 1.713 873
1.803 1.454 1.795 4553
1.709 1.377 1.706 1746
1.807 1.457 1.789 4553
1.712 1.380 1.700 1746
1.841 1.484 1.810 4722
1.746 1.407 1.722 2208
1.849 1.491 1.808 5636
1.754 1.414 1.720 1934
1.828 1.474 1.778 5731
1.733 1.397 1.691 926
1.827 1.473 1.767 6804
1.922 1.550 1.854 1603
1.830 1.476 1.760 6804
1.926 1.553 1.847 1603
1.839 1.483 1.758 7378
1.935 1.560 1.844 1287
1.848 1.490 1.756 8017
1.944 1.567 1.842 1169
1.857 1.497 1.753 5875
1.953 1.574 1.839 2189
1.881 1.516 1.764 4692
1.977 1.594 1.850 1916
1.930 1.556 1.798 6317
1.833 1.478 1.713 1144
1.934 1.559 1.791 8279
1.837 1.481 1.706 714
1.943 1.566 1.788 8232
1.846 1.488 1.704 658
1.946 1.569 1.781 7699
1.849 1.491 1.697 487
1.960 1.580 1.782 7473
1.863 1.502 1.699 594
1.964 1.583 1.775 9279
1.867 1.505 1.692 604
1.973 1.591 1.772 11255
1.875 1.512 1.690 625
1.977 1.594 1.765 9045
2.075 1.673 1.848 624
1.975 1.592 1.754 6890
2.073 1.672 1.836 1163
2.036 1.641 1.794 5582
1.937 1.562 1.712 1893
2.050 1.653 1.795 6306
1.951 1.573 1.713 2125
2.054 1.656 1.787 5793
1.955 1.576 1.706 1322
2.063 1.663 1.784 5443
1.964 1.583 1.703 743
2.046 1.649 1.759 6726
2.165 1.746 1.856 513
2.049 1.652 1.752 8324
2.169 1.749 1.848 719
2.058 1.659 1.748 7189
2.158 1.739 1.828 1287
2.098 1.692 1.770 7915
2.198 1.772 1.849 651
2.118 1.707 1.775 8786
2.018 1.627 1.696 1111
2.127 1.715 1.771 10885
2.027 1.634 1.693 1435
2.136 1.722 1.767 9112
2.036 1.641 1.689 1342
2.150 1.733 1.768 8054
2.050 1.653 1.690 1313
2.159 1.741 1.764 6949
2.059 1.660 1.687 1292
2.189 1.765 1.776 7306
2.089 1.684 1.699 1541
2.188 1.764 1.764 5841
2.087 1.682 1.688 928
2.181 1.758 1.748 4539
2.282 1.840 1.824 727
2.243 1.808 1.784 5538
2.142 1.727 1.708 1797
2.257 1.820 1.783 7153
2.156 1.738 1.708 2456
2.261 1.823 1.775 8291
2.160 1.741 1.700 2013
2.254 1.817 1.759 6817
2.152 1.735 1.684 825
2.252 1.816 1.747 5944
2.354 1.898 1.821 1314
2.304 1.858 1.773 5207
2.202 1.776 1.700 1469
2.308 1.861 1.765 7451
2.410 1.943 1.838 1439
2.312 1.864 1.756 8900
2.414 1.946 1.829 1714
2.310 1.862 1.744 8030
2.413 1.945 1.816 2023
2.314 1.865 1.735 7198
2.416 1.948 1.808 2158
2.312 1.864 1.723 5162
2.415 1.947 1.795 2772
2.386 1.924 1.763 5004
2.283 1.841 1.692 1741
2.390 1.927 1.755 5735
2.493 2.010 1.826 2132
2.399 1.934 1.750 4932
2.502 2.017 1.820 3428
2.501 2.016 1.807 5140
2.397 1.932 1.737 2782
2.444 1.971 1.758 5991
2.548 2.054 1.827 1212
2.453 1.978 1.752 7446
2.557 2.062 1.822 1737
2.463 1.985 1.747 8480
2.567 2.069 1.816 2037
2.466 1.988 1.738 7896
2.570 2.072 1.806 1820
2.475 1.996 1.732 5869
2.607 2.102 1.818 2862
2.534 2.043 1.759 5122
2.638 2.127 1.827 3055
2.532 2.041 1.746 5210
2.637 2.126 1.813 3686
2.563 2.067 1.754 6457
2.668 2.151 1.821 2120
2.572 2.074 1.748 8171
2.677 2.159 1.815 3513
2.582 2.081 1.742 7710
2.687 2.166 1.809 4493
2.596 2.093 1.740 5263
2.702 2.178 1.806 4130
2.622 2.114 1.744 4599
2.728 2.199 1.809 3857
2.770 2.233 1.823 3361
2.642 2.130 1.744 3141
2.696 2.174 1.765 3984
2.802 2.259 1.830 1807
2.700 2.177 1.755 4888
2.811 2.266 1.823 1985
2.754 2.220 1.776 6618
2.860 2.306 1.840 2501
2.763 2.228 1.769 5521
2.869 2.313 1.832 2561
2.856 2.303 1.812 3639
2.750 2.217 1.749 3042
2.927 2.360 1.841 4889
2.759 2.224 1.742 2989
2.937 2.368 1.833 4377
2.780 2.241 1.742 2924
2.969 2.393 1.839 3349
2.800 2.257 1.741 2627
2.978 2.401 1.831 3939
2.871 2.315 1.770 2710
2.976 2.399 1.817 4162
2.869 2.313 1.756 2837
2.957 2.384 1.793 5551
2.850 2.298 1.732 2041
2.961 2.387 1.782 7179
3.069 2.474 1.842 3521
2.965 2.390 1.771 7932
3.072 2.477 1.831 6318
2.969 2.393 1.760 7852
3.076 2.480 1.820 5742
3.052 2.460 1.793 7904
2.944 2.373 1.734 3960
3.061 2.468 1.785 7033
2.953 2.381 1.726 4396
3.070 2.475 1.776 7527
2.963 2.388 1.718 4796
3.097 2.497 1.777 8262
2.989 2.410 1.719 4198
3.112 2.509 1.772 6834
3.004 2.422 1.714 1721
3.127 2.521 1.766 6539
3.019 2.434 1.709 733
3.137 2.529 1.758 6589
3.028 2.441 1.701 620
3.106 2.504 1.728 6635
3.215 2.592 1.785 809
3.104 2.502 1.714 12726
3.213 2.590 1.770 824
3.107 2.505 1.702 16835
3.216 2.593 1.758 693
3.111 2.508 1.691 18091
3.220 2.596 1.746 915
3.126 2.520 1.685 20481
3.235 2.608 1.740 766
3.129 2.523 1.673 20798
3.308 2.667 1.762 845
3.133 2.526 1.662 15666
3.317 2.674 1.753 749
3.131 2.524 1.648 11162
3.010 2.426 1.588 1035
3.140 2.531 1.639 10414
3.019 2.434 1.580 1279
3.143 2.534 1.627 10962
3.022 2.436 1.569 1338
3.147 2.537 1.615 9832
3.019 2.434 1.555 1710
3.150 2.539 1.604 6397
3.497 2.819 1.767 3140
3.518 2.836 1.763 4092
3.147 2.537 1.589 3102
3.684 2.970 1.825 3310
3.528 2.844 1.752 3120
3.688 2.973 1.811 4064
3.520 2.838 1.734 2534
3.698 2.981 1.800 3808
3.820 3.079 1.855 2405
3.707 2.989 1.789 5759
3.823 3.082 1.841 3392
3.717 2.996 1.778 6306
3.839 3.095 1.832 3591
3.720 2.999 1.764 4258
3.843 3.098 1.818 3541
3.806 3.068 1.786 3144
3.922 3.162 1.837 3046
3.926 3.165 1.822 3074
3.804 3.066 1.769 2638
3.936 3.173 1.810 4140
3.725 3.003 1.720 1298
3.934 3.171 1.793 4290
3.823 3.082 1.746 915
3.932 3.170 1.776 3730
4.113 3.316 1.852 1657
3.941 3.177 1.764 3206
4.111 3.315 1.835 2470
4.068 3.280 1.800 1975
3.951 3.185 1.752 1901
4.072 3.283 1.785 1892
3.954 3.188 1.737 948
4.134 3.333 1.794 1897
3.952 3.186 1.720 819
4.156 3.350 1.785 2545
4.268 3.441 1.830 724
4.213 3.396 1.791 4906
4.101 3.306 1.746 1045
4.216 3.399 1.775 10009
4.104 3.309 1.731 1129
4.220 3.402 1.759 8652
4.332 3.493 1.803 1275
4.230 3.410 1.746 6824
4.342 3.500 1.789 2477
4.233 3.413 1.730 6515
4.351 3.508 1.775 3024
4.231 3.411 1.712 4416
4.355 3.511 1.759 3389
4.347 3.505 1.738 4343
4.234 3.414 1.697 3392
4.356 3.512 1.724 4688
4.244 3.421 1.683 2278
4.366 3.520 1.710 3187
4.562 3.678 1.782 2125
4.559 3.676 1.762 2265
4.761 3.839 1.835 1867
4.385 3.535 1.682 2672
4.848 3.909 1.847 2363
4.864 3.921 1.833 3494
4.394 3.543 1.668 2858
4.898 3.949 1.825 4025
4.785 3.857 1.786 3254
4.895 3.947 1.805 4874
4.782 3.856 1.766 2047
4.887 3.940 1.783 4550
5.048 4.070 1.837 1778
4.879 3.934 1.760 2558
5.070 4.087 1.824 2326
5.175 4.172 1.839 2743
5.062 4.081 1.802 2379
5.179 4.175 1.820 3179
5.054 4.074 1.779 2036
5.183 4.178 1.801 2337
5.314 4.284 1.843 2278
5.330 4.297 1.827 2585
5.217 4.206 1.791 1680
