-1.709 2.702 1.661 11826
-1.715 2.712 1.655 10058
-1.756 2.776 1.680 9331
-1.762 2.786 1.674 7386
-1.765 2.789 1.665 5298
-1.763 2.787 1.652 4775
-1.773 2.803 1.649 4575
-1.776 2.807 1.639 5396
-1.789 2.829 1.640 5843
-1.807 2.857 1.643 6328
-1.837 2.903 1.656 6415
-1.851 2.925 1.656 8858
-1.853 2.929 1.646 7356
-1.910 3.018 1.680 4063
-1.912 3.022 1.670 4931
-1.910 3.020 1.657 5305
-1.971 3.116 1.693 4283
-1.981 3.132 1.689 5019
-1.988 3.142 1.681 5023
-1.994 3.152 1.674 3878
-1.957 3.094 1.632 2805
-2.034 3.215 1.679 3272
-2.032 3.213 1.665 5357
-2.035 3.216 1.654 6472
-2.065 3.264 1.664 5549
-2.079 3.286 1.661 5663
-2.089 3.302 1.656 5913
-2.099 3.318 1.651 5913
-2.106 3.328 1.642 6160
-2.128 3.363 1.645 6147
-2.154 3.405 1.650 5208
-2.192 3.465 1.664 5179
-2.202 3.481 1.658 5307
-2.248 3.554 1.676 3052
-2.191 3.463 1.623 4223
-2.201 3.479 1.616 5703
-2.207 3.489 1.607 4498
-2.278 3.600 1.641 4801
-2.336 3.692 1.665 3667
-2.326 3.677 1.645 4095
-2.324 3.674 1.630 4400
-2.331 3.684 1.620 3744
-2.425 3.834 1.666 3656
-2.440 3.856 1.660 4737
-2.450 3.873 1.652 4297
-2.412 3.813 1.614 2651
-2.495 3.944 1.650 2664
-2.521 3.986 1.651 2714
-2.584 4.085 1.674 2455
-2.587 4.089 1.660 3013
-2.536 4.009 1.615 2740
-2.696 4.262 1.693 2569
-2.723 4.304 1.693 3089
-2.725 4.308 1.678 2901
-2.724 4.306 1.661 3088
-2.714 4.290 1.640 3266
-2.716 4.294 1.625 2476
-2.763 4.368 1.635 2691
-2.798 4.423 1.637 1891
-2.805 4.433 1.624 2422
-2.998 4.739 1.710 2715
-3.001 4.743 1.694 3431
-3.007 4.754 1.680 6255
-3.006 4.751 1.662 9729
-3.004 4.748 1.643 7830
-3.014 4.765 1.631 9038
-3.017 4.768 1.615 10929
-3.019 4.772 1.599 6481
-3.017 4.769 1.580 3603
-3.163 5.000 1.632 2735
-3.219 5.088 1.640 3575
-3.217 5.085 1.621 4605
-3.310 5.231 1.645 3356
-3.320 5.248 1.631 2794
-3.458 5.466 1.674 2729
-3.374 5.333 1.617 2983
-3.475 5.493 1.642 2757
-3.486 5.510 1.626 2899
-3.496 5.527 1.611 2131
-3.643 5.759 1.652 1907
-3.708 5.861 1.658 2206
-3.710 5.864 1.638 1965
-3.683 5.822 1.606 2043
-3.897 6.160 1.670 2324
-3.924 6.203 1.659 3117
-3.922 6.200 1.636 2279
-4.174 6.597 1.709 1897
-4.172 6.594 1.684 1817
-4.083 6.454 1.628 1738
-4.210 6.654 1.651 2296
-4.212 6.658 1.628 2304
-4.327 6.839 1.645 2023
-4.329 6.843 1.621 1734
-4.619 7.301 1.695 1676
-4.855 7.673 1.748 1490
-4.844 7.658 1.717 2005
-4.776 7.549 1.668 2416
-4.841 7.652 1.662 2954
-4.835 7.643 1.633 3531
-4.854 7.673 1.612 3494
-4.860 7.683 1.587 3917
-4.863 7.686 1.561 2740
-4.865 7.690 1.534 2370
-4.867 7.693 1.508 2346
-4.861 7.683 1.479 1892
-4.863 7.687 1.453 1335
-4.865 7.690 1.426 1053
-5.068 8.011 1.452 805
-5.070 8.014 1.425 576
-5.072 8.017 1.397 297
-5.074 8.021 1.370 304
-1.212 1.923 1.774 2367
-1.215 1.927 1.767 4735
-1.218 1.931 1.761 4735
-1.220 1.935 1.754 4166
-1.229 1.950 1.757 3673
-1.239 1.964 1.760 4199
-1.241 1.968 1.753 4951
-1.244 1.972 1.746 4951
-1.250 1.982 1.744 4351
-1.290 2.046 1.787 4566
-1.293 2.050 1.780 4712
-1.292 2.049 1.769 4917
-1.298 2.058 1.766 5388
-1.311 2.079 1.773 6100
-1.307 2.072 1.757 7616
-1.306 2.070 1.746 9026
-1.305 2.069 1.734 8891
-1.311 2.078 1.732 8517
-1.320 2.093 1.733 8996
-1.323 2.097 1.726 8165
-1.325 2.101 1.719 7334
-1.328 2.105 1.712 5173
-1.326 2.103 1.701 3145
-1.354 2.147 1.723 3552
-1.360 2.156 1.720 4376
-1.362 2.160 1.713 3737
-1.365 2.164 1.706 3099
-1.364 2.162 1.694 2849
-1.366 2.166 1.687 2634
-1.372 2.176 1.684 3116
-1.374 2.179 1.676 3646
-1.388 2.200 1.681 3843
-1.394 2.210 1.678 4465
-1.410 2.237 1.687 4076
-1.467 2.327 1.740 4303
-1.477 2.342 1.740 3689
-1.447 2.294 1.696 4829
-1.449 2.298 1.688 6244
-1.452 2.302 1.680 6885
-1.454 2.306 1.673 7527
-1.460 2.315 1.669 5556
-1.484 2.354 1.684 4792
-1.520 2.410 1.711 4925
-1.526 2.420 1.707 5413
-1.536 2.436 1.706 4815
-1.538 2.439 1.698 3889
-1.541 2.443 1.690 2963
-1.588 2.518 1.727 3387
-1.572 2.492 1.700 6022
-1.574 2.496 1.691 7194
-1.576 2.500 1.683 5786
-1.583 2.510 1.678 4433
-1.626 2.579 1.710 4990
-1.625 2.577 1.697 5393
-1.627 2.580 1.689 6382
-1.630 2.584 1.680 6872
-1.636 2.594 1.675 8089
-1.642 2.604 1.669 8215
-1.671 2.649 1.685 8030
-1.673 2.653 1.677 10811
-1.683 2.669 1.675 13539
-1.689 2.679 1.669 14810
-1.695 2.689 1.663 12343
-1.702 2.698 1.658 11053
-1.708 2.708 1.652 9657
-1.752 2.778 1.680 8193
-1.758 2.788 1.674 6388
-1.757 2.786 1.661 4564
-1.759 2.790 1.652 4511
-1.769 2.805 1.649 4553
-1.772 2.809 1.639 5176
-1.785 2.831 1.640 5265
-1.803 2.859 1.643 6403
-1.829 2.900 1.653 6650
-1.846 2.928 1.656 9152
-1.849 2.932 1.646 7663
-1.851 2.935 1.636 4068
-1.908 3.025 1.670 4705
-1.906 3.023 1.657 5450
-1.963 3.112 1.690 5016
-1.973 3.129 1.686 6070
-1.979 3.139 1.678 6397
-1.986 3.149 1.670 5056
-1.957 3.103 1.636 3483
-1.955 3.100 1.622 3771
-2.016 3.197 1.656 4516
-2.015 3.195 1.642 6410
-2.017 3.198 1.631 5284
-2.078 3.295 1.664 5655
-2.080 3.299 1.653 6087
-2.091 3.315 1.648 5847
-2.101 3.331 1.642 6205
-2.123 3.366 1.645 6458
-2.153 3.414 1.653 5478
-2.179 3.455 1.658 5137
-2.197 3.484 1.658 5074
-2.207 3.500 1.651 3149
-2.234 3.542 1.656 4239
-2.204 3.495 1.622 5379
-2.202 3.493 1.607 4184
-2.272 3.603 1.641 4737
-2.275 3.607 1.628 3547
-2.321 3.680 1.645 3556
-2.319 3.678 1.630 3720
-2.329 3.694 1.622 3196
-2.420 3.837 1.666 3291
-2.434 3.860 1.660 4158
-2.436 3.864 1.647 3537
-2.411 3.823 1.617 2536
-2.513 3.985 1.665 2305
-2.516 3.989 1.651 2571
-2.582 4.095 1.677 2261
-2.585 4.099 1.663 2748
-2.587 4.102 1.649 2665
-2.634 4.177 1.660 2561
-2.717 4.308 1.693 3078
-2.715 4.306 1.676 2825
-2.714 4.303 1.659 2578
-2.708 4.294 1.640 2533
-2.755 4.368 1.650 2483
-2.761 4.378 1.637 2777
-2.836 4.498 1.662 2437
-2.810 4.457 1.631 2583
-2.817 4.467 1.618 2480
-2.978 4.722 1.686 2919
-3.000 4.758 1.680 5306
-2.999 4.755 1.662 7842
-3.001 4.759 1.645 6404
-3.012 4.776 1.633 7949
-3.010 4.773 1.615 9710
-3.012 4.776 1.599 5765
-3.055 4.845 1.602 3983
-3.160 5.011 1.634 2769
-3.211 5.092 1.640 3890
-3.210 5.089 1.621 4692
-3.306 5.243 1.647 3248
-3.313 5.253 1.631 2653
-3.446 5.465 1.672 2856
-3.366 5.338 1.617 2981
-3.472 5.505 1.643 2511
-3.478 5.515 1.626 2971
-3.484 5.525 1.609 1999
-3.635 5.764 1.652 1895
-3.699 5.866 1.658 2599
-3.706 5.876 1.640 2180
-3.869 6.135 1.684 2079
-3.884 6.159 1.668 2567
-3.915 6.208 1.659 2995
-3.913 6.206 1.636 2384
-3.907 6.196 1.611 1941
-3.964 6.285 1.610 1907
-3.941 6.249 1.579 1781
-4.196 6.654 1.650 2311
-4.203 6.664 1.628 2215
-4.317 6.845 1.645 1540
-4.610 7.310 1.722 1532
-4.608 7.307 1.695 1866
-4.839 7.674 1.747 1402
-4.834 7.665 1.717 2205
-4.836 7.668 1.691 2710
-4.834 7.666 1.664 3163
-4.828 7.656 1.635 3650
-4.843 7.680 1.612 3750
-4.849 7.690 1.587 4027
-4.848 7.687 1.559 2865
-4.850 7.690 1.533 2491
-4.848 7.687 1.505 2497
-4.850 7.690 1.479 2032
-4.852 7.694 1.453 1434
-4.854 7.697 1.426 1147
-5.057 8.018 1.452 881
-5.059 8.022 1.425 606
-5.061 8.025 1.397 280
-5.063 8.028 1.370 255
-0.745 1.182 0.047 262
-1.207 1.926 1.774 2561
-1.209 1.930 1.767 5123
-1.212 1.934 1.761 5123
-1.215 1.938 1.754 4182
-1.224 1.953 1.757 3364
-1.230 1.962 1.755 3625
-1.236 1.972 1.753 4039
-1.238 1.976 1.746 4039
-1.279 2.040 1.790 3915
-1.281 2.044 1.783 4882
-1.284 2.048 1.776 4924
-1.286 2.052 1.769 4965
-1.296 2.068 1.771 5323
-1.305 2.083 1.773 6280
-1.304 2.081 1.761 7313
-1.300 2.074 1.746 8323
-1.299 2.072 1.734 8139
-1.308 2.088 1.736 7865
-1.314 2.097 1.733 8330
-1.317 2.101 1.726 7415
-1.319 2.105 1.719 6501
-1.321 2.109 1.712 4546
-1.320 2.107 1.701 2606
-1.351 2.156 1.728 3358
-1.361 2.171 1.729 4462
-1.363 2.175 1.721 4124
-1.369 2.185 1.718 3803
-1.372 2.189 1.711 3665
-1.370 2.187 1.699 3533
-1.373 2.191 1.692 3477
-1.375 2.195 1.685 3421
-1.381 2.204 1.681 3842
-1.387 2.214 1.678 4447
-1.404 2.241 1.687 3714
-1.457 2.325 1.736 4508
-1.441 2.300 1.708 4123
-1.437 2.293 1.692 4941
-1.439 2.296 1.684 5961
-1.441 2.300 1.676 6476
-1.447 2.310 1.673 6992
-1.453 2.319 1.669 5214
-1.478 2.358 1.684 4683
-1.517 2.421 1.715 4327
-1.523 2.430 1.711 4844
-1.529 2.440 1.706 4446
-1.531 2.444 1.698 3948
-1.530 2.442 1.686 3548
-1.581 2.522 1.727 3789
-1.561 2.491 1.696 6815
-1.563 2.495 1.687 8435
-1.566 2.498 1.679 6889
-1.613 2.573 1.715 4839
-1.619 2.583 1.710 5645
-1.617 2.581 1.697 5865
-1.620 2.585 1.689 6439
-1.622 2.589 1.680 6717
-1.628 2.599 1.675 7904
-1.634 2.608 1.669 8150
-1.659 2.648 1.682 7561
-1.666 2.658 1.677 10061
-1.675 2.674 1.675 12071
-1.685 2.690 1.672 13066
-1.688 2.693 1.663 10815
-1.694 2.703 1.658 9968
-1.696 2.707 1.648 9362
-1.699 2.711 1.639 7422
-1.750 2.793 1.674 5446
-1.745 2.785 1.658 4085
-1.751 2.795 1.652 4288
-1.761 2.811 1.649 4631
-1.760 2.808 1.636 4971
-1.781 2.842 1.643 4736
-1.799 2.871 1.646 6369
-1.820 2.905 1.653 6849
-1.834 2.927 1.653 9096
-1.836 2.931 1.643 7656
-1.839 2.934 1.633 4148
-1.895 3.024 1.667 4482
-1.894 3.022 1.654 5667
-1.954 3.118 1.690 5877
-1.964 3.134 1.686 6741
-1.970 3.144 1.678 7351
-1.969 3.142 1.664 6135
-1.959 3.127 1.645 4121
-1.950 3.112 1.625 4227
-2.003 3.197 1.653 4041
-2.005 3.200 1.642 6088
-2.012 3.210 1.634 5390
-2.073 3.307 1.667 5902
-2.071 3.305 1.653 6574
-2.081 3.321 1.648 5691
-2.091 3.337 1.642 5820
-2.117 3.379 1.648 6720
-2.143 3.420 1.653 5554
-2.165 3.455 1.655 5251
-2.187 3.490 1.658 4932
-2.197 3.507 1.651 3475
-2.223 3.548 1.656 4459
-2.218 3.539 1.638 5017
-2.323 3.707 1.696 3522
-2.262 3.610 1.641 4571
-2.264 3.614 1.628 3432
-2.306 3.681 1.642 3189
-2.309 3.684 1.630 3464
-2.323 3.707 1.625 2939
-2.409 3.844 1.666 3240
-2.423 3.867 1.660 3797
-2.421 3.864 1.645 3014
-2.404 3.836 1.619 2568
-2.506 3.999 1.668 2093
-2.504 3.996 1.651 2372
-2.567 4.096 1.674 2099
-2.573 4.106 1.663 2434
-2.575 4.110 1.649 2663
-2.622 4.184 1.660 2986
-2.628 4.194 1.649 2940
-2.695 4.301 1.671 2935
-2.625 4.189 1.615 2499
-2.756 4.398 1.674 2206
-2.758 4.402 1.659 2508
-2.821 4.502 1.677 2984
-2.820 4.500 1.659 3220
-2.810 4.484 1.637 2960
-2.808 4.481 1.620 2768
-2.940 4.692 1.673 2821
-2.987 4.766 1.680 4239
-2.985 4.764 1.662 5724
-2.983 4.761 1.643 4497
-2.998 4.784 1.633 6136
-3.000 4.788 1.617 7716
-2.998 4.785 1.599 4594
-3.041 4.854 1.602 4063
-3.194 5.098 1.658 2893
-3.197 5.101 1.640 3913
-3.195 5.099 1.621 4447
-3.193 5.096 1.602 3115
-3.302 5.269 1.633 2439
-3.431 5.475 1.672 2801
-3.351 5.348 1.617 3010
-3.456 5.515 1.643 2241
-3.458 5.519 1.624 2836
-3.505 5.594 1.625 2046
-3.619 5.775 1.652 2032
-3.682 5.877 1.658 2766
-3.689 5.887 1.640 2338
-3.691 5.891 1.620 2214
-3.862 6.163 1.667 2695
-3.897 6.220 1.659 2855
-3.896 6.217 1.636 2451
-3.890 6.207 1.611 2196
-3.946 6.296 1.610 2062
-3.927 6.267 1.581 1830
-4.173 6.659 1.648 2166
-4.179 6.670 1.627 2014
-4.351 6.944 1.664 1411
-4.585 7.317 1.720 1483
-4.587 7.321 1.695 1873
-4.817 7.688 1.747 1409
-4.812 7.678 1.717 2375
-4.814 7.682 1.691 2939
-4.812 7.679 1.664 3239
-4.806 7.670 1.635 3626
-4.821 7.694 1.612 3932
-4.823 7.697 1.586 4089
-4.821 7.694 1.558 2986
-4.823 7.698 1.532 2616
-4.826 7.701 1.505 2563
-4.824 7.698 1.478 2071
-5.029 8.026 1.507 1504
-4.832 7.711 1.426 1152
-5.034 8.033 1.452 1024
-5.036 8.036 1.425 662
-5.038 8.039 1.397 294
-0.738 1.178 0.052 275
-0.742 1.184 0.047 296
-0.742 1.184 0.043 284
-0.738 1.177 0.040 285
-0.742 1.183 0.035 270
-0.741 1.183 0.031 257
-1.202 1.929 1.774 2605
-1.204 1.933 1.767 5210
-1.207 1.938 1.761 5210
-1.209 1.942 1.754 4037
-1.218 1.956 1.757 3025
-1.224 1.966 1.755 3076
-1.230 1.975 1.753 3181
-1.233 1.979 1.746 3181
-1.273 2.044 1.790 4089
-1.275 2.048 1.783 5197
-1.278 2.052 1.776 5061
-1.280 2.056 1.769 4925
-1.290 2.071 1.771 5419
-1.299 2.086 1.773 6556
-1.298 2.085 1.761 7361
-1.297 2.083 1.750 8047
-1.296 2.082 1.739 7822
-1.302 2.091 1.736 7592
-1.308 2.101 1.733 7980
-1.311 2.105 1.726 6858
-1.313 2.109 1.719 5736
-1.316 2.113 1.712 4115
-1.332 2.139 1.722 2692
-1.349 2.166 1.732 3357
-1.355 2.175 1.729 4824
-1.357 2.179 1.721 5096
-1.360 2.183 1.714 5369
-1.362 2.187 1.707 5203
-1.364 2.191 1.699 5038
-1.370 2.200 1.696 4346
-1.373 2.204 1.689 3696
-1.379 2.214 1.685 4097
-1.381 2.218 1.678 4522
-1.441 2.314 1.735 3676
-1.433 2.300 1.715 4900
-1.435 2.304 1.708 4669
-1.430 2.297 1.692 5097
-1.433 2.300 1.684 5638
-1.435 2.304 1.676 5994
-1.437 2.308 1.669 6351
-1.443 2.318 1.665 4802
-1.468 2.356 1.680 4705
-1.517 2.436 1.723 3950
-1.516 2.434 1.711 4202
-1.522 2.444 1.706 3973
-1.521 2.442 1.694 3988
-1.523 2.446 1.686 4098
-1.533 2.462 1.685 4149
-1.554 2.495 1.696 7514
-1.556 2.499 1.687 9520
-1.559 2.503 1.679 7883
-1.605 2.578 1.715 5275
-1.612 2.588 1.710 6201
-1.610 2.586 1.697 6140
-1.613 2.590 1.689 6317
-1.611 2.587 1.676 6538
-1.621 2.603 1.675 7762
-1.627 2.613 1.669 8091
-1.652 2.653 1.682 7190
-1.654 2.657 1.673 9379
-1.668 2.678 1.675 10536
-1.678 2.694 1.672 11027
-1.680 2.698 1.663 9099
-1.683 2.702 1.654 8926
-1.685 2.706 1.645 9060
-1.691 2.715 1.639 7665
-1.701 2.731 1.637 5694
-1.734 2.784 1.655 3719
-1.743 2.799 1.652 4109
-1.753 2.815 1.649 4797
-1.752 2.813 1.636 4966
-1.777 2.853 1.646 4356
-1.795 2.882 1.650 6150
-1.808 2.904 1.650 6844
-1.822 2.926 1.650 8660
-1.828 2.936 1.643 7338
-1.827 2.933 1.630 4280
-1.933 3.103 1.705 4660
-1.939 3.113 1.698 6335
-1.945 3.124 1.690 6559
-1.955 3.140 1.686 6964
-1.962 3.150 1.678 7826
-1.960 3.147 1.664 7167
-1.955 3.139 1.648 5092
-1.941 3.118 1.625 4405
-1.994 3.202 1.653 4242
-1.996 3.206 1.642 5830
-2.003 3.216 1.634 5381
-2.063 3.313 1.667 6748
-2.066 3.317 1.656 7738
-2.068 3.321 1.645 6021
-2.078 3.337 1.639 5228
-2.108 3.385 1.648 6624
-2.138 3.432 1.656 5489
-2.152 3.455 1.653 5600
-2.177 3.496 1.658 4786
-2.188 3.513 1.651 3684
-2.214 3.554 1.656 4396
-2.212 3.552 1.641 4886
-2.313 3.714 1.696 3582
-2.252 3.616 1.641 4606
-2.254 3.620 1.628 3299
-2.340 3.757 1.671 2895
-2.342 3.760 1.658 2685
-2.324 3.732 1.633 2531
-2.398 3.851 1.666 3251
-2.408 3.867 1.658 3540
-2.407 3.864 1.642 2739
-2.401 3.855 1.624 2524
-2.495 4.006 1.668 2264
-2.497 4.010 1.654 2435
-2.507 4.026 1.645 2082
-2.570 4.126 1.667 2215
-2.568 4.123 1.651 2918
-2.614 4.198 1.663 3482
-2.617 4.201 1.649 3155
-2.679 4.302 1.669 2911
-2.613 4.196 1.615 2715
-2.619 4.206 1.603 2271
-2.746 4.409 1.659 2361
-2.805 4.504 1.675 3491
-2.807 4.507 1.659 3837
-2.801 4.498 1.640 3364
-2.800 4.495 1.622 2915
-2.931 4.706 1.675 2536
-2.978 4.781 1.682 3415
-2.976 4.778 1.664 3964
-2.966 4.763 1.641 2814
-2.989 4.799 1.635 4060
-2.987 4.796 1.617 5536
-3.005 4.826 1.609 3458
-3.028 4.862 1.602 4358
-3.180 5.107 1.658 3036
-3.182 5.110 1.640 3726
-3.177 5.101 1.619 4020
-3.175 5.098 1.600 2981
-3.315 5.324 1.646 2357
-3.322 5.334 1.629 2619
-3.332 5.351 1.615 2419
-3.440 5.524 1.643 1839
-3.443 5.528 1.624 2486
-3.498 5.617 1.628 2103
-3.602 5.785 1.652 1885
-3.666 5.887 1.658 2757
-3.673 5.897 1.640 2459
-3.675 5.901 1.620 2327
-3.845 6.174 1.667 2572
-3.880 6.230 1.659 2493
-3.878 6.228 1.636 2286
-3.868 6.211 1.610 2297
-3.932 6.314 1.612 2229
-3.918 6.291 1.584 1985
-4.154 6.671 1.648 2090
-4.161 6.681 1.627 1886
-4.328 6.949 1.662 1432
-4.322 6.940 1.636 1327
-4.571 7.340 1.697 1713
-4.792 7.694 1.745 1380
-4.790 7.692 1.717 2385
-4.793 7.696 1.691 2998
-4.791 7.693 1.664 3210
-4.785 7.683 1.635 3540
-4.800 7.707 1.612 4004
-4.802 7.710 1.586 4116
-4.800 7.707 1.558 3109
-4.798 7.704 1.531 2743
-4.800 7.708 1.504 2597
-5.005 8.037 1.535 2067
-5.007 8.040 1.507 1785
-5.009 8.044 1.480 1435
-5.003 8.033 1.450 1200
-5.013 8.050 1.425 688
-5.015 8.053 1.397 314
-0.735 1.180 0.055 258
-0.735 1.180 0.052 295
-0.739 1.186 0.047 315
-0.739 1.186 0.043 301
-0.734 1.179 0.040 302
-0.738 1.185 0.035 291
-0.738 1.185 0.031 282
-1.198 1.932 1.774 2529
-1.201 1.936 1.767 5058
-1.203 1.940 1.761 5058
-1.206 1.944 1.754 3788
-1.235 1.991 1.785 3146
-1.231 1.985 1.769 2650
-1.267 2.043 1.808 3125
-1.270 2.048 1.801 3125
-1.269 2.046 1.790 4193
-1.272 2.050 1.783 5358
-1.274 2.054 1.776 5018
-1.277 2.058 1.769 4678
-1.290 2.079 1.775 5329
-1.296 2.089 1.773 6510
-1.295 2.087 1.761 7134
-1.294 2.086 1.750 7565
-1.293 2.084 1.739 7331
-1.299 2.094 1.736 7216
-1.305 2.103 1.733 7592
-1.307 2.107 1.726 6326
-1.309 2.111 1.719 5060
-1.312 2.115 1.712 3752
-1.328 2.141 1.722 2702
-1.348 2.174 1.736 3450
-1.354 2.183 1.733 5196
-1.357 2.187 1.726 6084
-1.356 2.185 1.714 7040
-1.358 2.189 1.707 6855
-1.360 2.193 1.699 6669
-1.366 2.203 1.696 5395
-1.379 2.224 1.701 4416
-1.378 2.222 1.689 4457
-1.377 2.220 1.678 4600
-1.422 2.293 1.719 4383
-1.428 2.303 1.715 5448
-1.427 2.301 1.704 5203
-1.430 2.305 1.696 5219
-1.428 2.303 1.684 5294
-1.431 2.307 1.676 5437
-1.433 2.311 1.669 5580
-1.454 2.344 1.680 4627
-1.463 2.359 1.680 5104
-1.462 2.357 1.668 3993
-1.512 2.437 1.711 3619
-1.514 2.441 1.702 3554
-1.517 2.445 1.694 4050
-1.519 2.449 1.686 4546
-1.529 2.464 1.685 4641
-1.546 2.492 1.692 8041
-1.548 2.496 1.684 10274
-1.554 2.506 1.679 8580
-1.601 2.581 1.715 5676
-1.603 2.585 1.706 6723
-1.606 2.589 1.697 6290
-1.608 2.592 1.689 6056
-1.607 2.590 1.676 6283
-1.616 2.606 1.675 7548
-1.623 2.616 1.669 7865
-1.629 2.626 1.664 6742
-1.650 2.660 1.673 8589
-1.659 2.675 1.671 8995
-1.673 2.697 1.672 8693
-1.675 2.701 1.663 7297
-1.674 2.699 1.651 8034
-1.680 2.709 1.645 8839
-1.686 2.718 1.639 7898
-1.696 2.734 1.637 6017
-1.710 2.756 1.638 3832
-1.742 2.809 1.655 4103
-1.748 2.819 1.649 5045
-1.747 2.816 1.636 5022
-1.787 2.881 1.659 4253
-1.789 2.885 1.650 6023
-1.803 2.907 1.650 6652
-1.817 2.929 1.650 8209
-1.819 2.933 1.640 7009
-1.822 2.937 1.630 4486
-1.927 3.107 1.705 5025
-1.933 3.117 1.698 7255
-1.936 3.121 1.687 7115
-1.950 3.143 1.686 6892
-1.956 3.153 1.678 7982
-1.954 3.151 1.664 7682
-1.953 3.148 1.651 5512
-1.936 3.121 1.625 4232
-1.988 3.206 1.653 4720
-1.991 3.209 1.642 5469
-2.005 3.232 1.640 5345
-2.057 3.317 1.667 7438
-2.060 3.321 1.656 8981
-2.062 3.324 1.645 6476
-2.111 3.403 1.668 4726
-2.102 3.388 1.648 6252
-2.143 3.455 1.664 5382
-2.149 3.465 1.655 5768
-2.167 3.494 1.655 4437
-2.185 3.523 1.654 3697
-2.207 3.558 1.656 4137
-2.206 3.556 1.641 4464
-2.251 3.629 1.658 3782
-2.249 3.626 1.643 4664
-2.252 3.630 1.631 2990
-2.333 3.761 1.671 2904
-2.335 3.765 1.658 3141
-2.349 3.787 1.653 2904
-2.391 3.855 1.666 3496
-2.397 3.865 1.655 3692
-2.404 3.875 1.645 3042
-2.406 3.879 1.631 3045
-2.492 4.017 1.670 2442
-2.486 4.008 1.651 2597
-2.500 4.031 1.645 2194
-2.574 4.150 1.675 1980
-2.565 4.134 1.653 2727
-2.607 4.202 1.663 3895
-2.609 4.206 1.649 3549
-2.667 4.300 1.667 2843
-2.698 4.349 1.668 2763
-2.704 4.359 1.655 2275
-2.762 4.453 1.672 2382
-2.793 4.502 1.672 3868
-2.799 4.512 1.659 4060
-2.797 4.510 1.642 3297
-2.796 4.507 1.624 3040
-2.802 4.517 1.611 2740
-2.977 4.799 1.686 3252
-2.975 4.797 1.668 3145
-2.962 4.775 1.643 2352
-2.968 4.785 1.629 3116
-2.986 4.814 1.621 3287
-3.013 4.857 1.617 4013
-3.015 4.861 1.600 4730
-3.167 5.106 1.656 3225
-3.173 5.116 1.640 3401
-3.172 5.113 1.621 3315
-3.166 5.104 1.600 2709
-3.306 5.330 1.646 2203
-3.304 5.327 1.626 2429
-3.298 5.317 1.604 2028
-3.483 5.616 1.667 1842
-3.482 5.613 1.646 2349
-3.496 5.636 1.632 2203
-3.494 5.634 1.611 1898
-3.656 5.893 1.658 2634
-3.662 5.904 1.640 2572
-3.660 5.901 1.618 2426
-3.834 6.181 1.667 2366
-3.840 6.191 1.647 2197
-3.867 6.234 1.636 2012
-3.861 6.225 1.611 2270
-3.925 6.328 1.613 2112
-3.939 6.351 1.596 1904
-4.138 6.672 1.647 1962
-4.317 6.960 1.688 1874
-4.307 6.944 1.659 1574
-4.285 6.908 1.627 1468
-4.558 7.348 1.697 1479
-4.778 7.703 1.745 1282
-4.776 7.700 1.717 2190
-4.779 7.704 1.691 2792
-4.777 7.701 1.664 3000
-4.775 7.699 1.636 3359
-4.786 7.715 1.612 3904
-4.788 7.719 1.586 3975
-4.786 7.716 1.558 3094
-4.784 7.713 1.531 2753
-4.786 7.716 1.504 2539
-4.991 8.046 1.535 2343
-4.993 8.049 1.507 2213
-4.995 8.052 1.480 1876
-4.993 8.049 1.451 1349
-4.986 8.039 1.421 758
-5.001 8.062 1.397 325
-0.733 1.181 0.055 273
-0.733 1.181 0.052 313
-0.732 1.181 0.048 335
-0.736 1.187 0.043 315
-0.732 1.180 0.040 312
-0.736 1.187 0.035 292
-0.736 1.186 0.031 276
-1.193 1.935 1.774 2382
-1.196 1.939 1.767 4764
-1.198 1.943 1.761 4764
-1.207 1.958 1.763 3546
-1.230 1.994 1.785 3444
-1.229 1.993 1.773 2683
-1.262 2.047 1.808 3158
-1.265 2.051 1.801 3158
-1.264 2.049 1.790 4191
-1.267 2.053 1.783 5318
-1.269 2.057 1.776 4796
-1.272 2.062 1.769 4273
-1.284 2.082 1.775 4968
-1.290 2.092 1.773 6041
-1.293 2.096 1.766 6427
-1.292 2.094 1.754 6590
-1.291 2.093 1.743 6366
-1.297 2.102 1.740 6521
-1.303 2.112 1.738 7014
-1.305 2.116 1.731 5776
-1.311 2.126 1.728 4539
-1.317 2.135 1.725 3432
-1.323 2.145 1.722 2555
-1.346 2.183 1.740 3601
-1.349 2.187 1.733 5434
-1.351 2.191 1.726 6852
-1.350 2.189 1.714 8381
-1.353 2.193 1.707 8229
-1.355 2.197 1.699 8076
-1.361 2.206 1.696 6351
-1.374 2.227 1.701 5336
-1.373 2.226 1.689 4840
-1.372 2.224 1.678 4606
-1.417 2.297 1.719 5167
-1.423 2.307 1.715 5786
-1.422 2.305 1.704 5557
-1.424 2.308 1.696 5368
-1.430 2.318 1.692 5188
-1.425 2.310 1.676 4932
-1.471 2.384 1.716 5191
-1.451 2.353 1.684 5103
-1.457 2.363 1.680 5870
-1.456 2.361 1.668 4634
-1.506 2.441 1.711 2988
-1.508 2.445 1.702 3090
-1.510 2.449 1.694 3852
-1.513 2.453 1.686 4615
-1.526 2.474 1.689 4972
-1.539 2.496 1.692 8429
-1.542 2.500 1.684 10836
-1.544 2.504 1.675 9061
-1.591 2.579 1.711 6012
-1.597 2.589 1.706 7117
-1.599 2.593 1.697 6320
-1.598 2.590 1.685 5760
-1.604 2.600 1.680 5996
-1.610 2.610 1.675 7242
-1.616 2.620 1.669 7411
-1.622 2.630 1.664 6182
-1.643 2.664 1.673 7758
-1.645 2.667 1.664 7989
-1.663 2.695 1.669 6660
-1.665 2.699 1.660 5787
-1.667 2.703 1.651 7430
-1.673 2.713 1.645 8714
-1.683 2.729 1.643 8264
-1.689 2.738 1.637 6339
-1.703 2.760 1.638 3945
-1.735 2.813 1.655 4330
-1.741 2.823 1.649 5267
-1.740 2.821 1.636 5127
-1.738 2.818 1.623 4172
-1.782 2.889 1.650 5723
-1.796 2.912 1.650 6377
-1.810 2.934 1.650 7637
-1.812 2.937 1.640 6560
-1.814 2.941 1.630 4518
-1.923 3.118 1.708 5367
-1.929 3.128 1.701 7975
-1.928 3.126 1.687 7352
-1.946 3.154 1.689 6670
-1.948 3.158 1.678 7875
-1.946 3.156 1.664 7863
-1.945 3.153 1.651 5671
-1.974 3.201 1.661 4278
-1.984 3.217 1.656 5042
-1.987 3.221 1.645 4896
-2.000 3.243 1.643 4986
-2.049 3.322 1.667 7767
-2.051 3.326 1.656 9780
-2.050 3.323 1.642 6734
-2.103 3.409 1.668 4524
-2.093 3.394 1.648 5617
-2.138 3.467 1.667 5850
-2.144 3.477 1.658 6070
-2.158 3.499 1.655 4429
-2.172 3.522 1.651 3261
-2.202 3.570 1.658 3543
-2.201 3.568 1.644 4011
-2.242 3.635 1.658 3913
-2.240 3.632 1.643 4783
-2.243 3.636 1.631 2892
-2.323 3.767 1.671 2841
-2.322 3.764 1.656 3328
-2.340 3.793 1.653 3106
-2.374 3.848 1.661 3392
-2.384 3.865 1.653 3431
-2.394 3.881 1.645 3083
-2.396 3.885 1.631 3388
-2.478 4.017 1.668 2581
-2.472 4.008 1.649 2766
-2.490 4.037 1.645 2152
-2.580 4.182 1.684 2315
-2.554 4.141 1.653 3022
-2.600 4.215 1.665 4089
-2.602 4.219 1.651 3789
-2.656 4.307 1.667 2594
-2.687 4.356 1.668 2801
-2.697 4.372 1.658 2690
-2.759 4.473 1.677 2543
-2.777 4.503 1.670 4169
-2.788 4.519 1.659 4151
-2.790 4.523 1.644 3064
-2.792 4.527 1.629 3147
-2.798 4.537 1.615 3220
-2.973 4.820 1.691 3998
-2.975 4.824 1.674 4390
-2.962 4.802 1.650 3144
-2.972 4.818 1.637 3319
-2.994 4.855 1.631 3902
-3.001 4.865 1.617 4923
-3.003 4.868 1.600 4987
-3.150 5.107 1.654 3415
-3.156 5.117 1.638 3258
-3.159 5.121 1.621 3007
-3.149 5.105 1.598 2532
-3.220 5.220 1.612 2201
-3.287 5.329 1.624 2242
-3.277 5.312 1.600 1824
-3.469 5.625 1.667 2075
-3.472 5.628 1.648 2701
-3.482 5.645 1.632 2314
-3.484 5.649 1.613 1924
-3.645 5.909 1.660 2594
-3.643 5.906 1.638 2679
-3.641 5.903 1.616 2468
-3.818 6.190 1.667 2145
-3.731 6.049 1.610 2190
-3.733 6.053 1.589 1780
-3.846 6.235 1.611 2154
-3.921 6.357 1.618 2066
-4.083 6.619 1.656 2078
-4.122 6.682 1.647 1946
-4.295 6.964 1.686 1741
-4.265 6.915 1.651 1922
-4.267 6.918 1.627 1756
-4.270 6.922 1.603 1224
-4.448 7.211 1.640 1164
-4.757 7.712 1.717 1939
-4.759 7.716 1.691 2506
-4.758 7.713 1.664 2702
-4.756 7.710 1.636 3078
-4.762 7.721 1.611 3686
-4.765 7.724 1.585 3720
-4.767 7.728 1.558 2913
-4.765 7.725 1.531 2594
-4.968 8.055 1.562 2337
-4.966 8.052 1.534 2702
-4.973 8.062 1.507 2675
-4.975 8.065 1.480 2315
-4.973 8.062 1.451 1470
-4.962 8.045 1.420 818
-4.964 8.048 1.393 344
-0.730 1.183 0.059 258
-0.730 1.183 0.055 291
-0.730 1.183 0.052 330
-0.729 1.183 0.048 351
-0.733 1.189 0.043 328
-0.729 1.182 0.040 321
-0.733 1.189 0.035 311
-0.733 1.188 0.031 304
-0.733 1.188 0.027 262
-1.191 1.936 1.774 2177
-1.193 1.940 1.767 4355
-1.195 1.944 1.761 4355
-1.221 1.987 1.787 3611
-1.227 1.996 1.785 3897
-1.226 1.995 1.773 3021
-1.263 2.054 1.812 3210
-1.265 2.058 1.806 3210
-1.261 2.051 1.790 4175
-1.260 2.050 1.778 5227
-1.263 2.054 1.771 4534
-1.238 2.013 1.729 4502
-1.281 2.084 1.775 4479
-1.287 2.094 1.773 5367
-1.290 2.098 1.766 5530
-1.292 2.102 1.759 5425
-1.288 2.095 1.743 5202
-1.297 2.110 1.745 5648
-1.303 2.119 1.742 6314
-1.309 2.129 1.739 5368
-1.315 2.139 1.736 4528
-1.317 2.143 1.729 3534
-1.320 2.147 1.722 2541
-1.343 2.185 1.740 3742
-1.349 2.194 1.737 5636
-1.348 2.193 1.726 7558
-1.347 2.191 1.714 9729
-1.349 2.195 1.707 9596
-1.352 2.199 1.699 9464
-1.358 2.208 1.696 7251
-1.371 2.229 1.701 6162
-1.373 2.233 1.694 5156
-1.411 2.295 1.727 5335
-1.413 2.299 1.719 5908
-1.416 2.303 1.711 6151
-1.418 2.307 1.704 5889
-1.424 2.316 1.700 5580
-1.427 2.320 1.692 5274
-1.433 2.330 1.688 4790
-1.464 2.381 1.712 6054
-1.448 2.355 1.684 5761
-1.450 2.359 1.676 6648
-1.453 2.363 1.668 5364
-1.451 2.361 1.657 3000
-1.501 2.441 1.699 2784
-1.507 2.451 1.694 3603
-1.513 2.461 1.690 4531
-1.523 2.476 1.689 5188
-1.532 2.492 1.688 8771
-1.535 2.496 1.680 11212
-1.537 2.500 1.671 9406
-1.587 2.581 1.711 6481
-1.589 2.585 1.702 7577
-1.592 2.589 1.694 6498
-1.594 2.593 1.685 5523
-1.608 2.615 1.687 5756
-1.610 2.618 1.678 6858
-1.612 2.622 1.669 6667
-1.615 2.626 1.661 5374
-1.639 2.666 1.673 6732
-1.638 2.664 1.660 7369
-1.636 2.661 1.648 6364
-1.642 2.671 1.642 5388
-1.660 2.699 1.647 7023
-1.673 2.721 1.648 8780
-1.679 2.731 1.643 8654
-1.689 2.747 1.640 6622
-1.699 2.763 1.638 3981
-1.731 2.816 1.655 4432
-1.737 2.825 1.649 5323
-1.732 2.817 1.633 5136
-1.734 2.821 1.623 4243
-1.782 2.898 1.653 5226
-1.792 2.914 1.650 6011
-1.802 2.930 1.646 6797
-1.808 2.940 1.640 5761
-1.810 2.944 1.630 4208
-1.919 3.121 1.708 5950
-1.925 3.131 1.701 8701
-1.923 3.128 1.687 7340
-1.945 3.163 1.692 6323
-1.947 3.167 1.681 7426
-1.946 3.165 1.667 7595
-1.944 3.162 1.654 5551
-1.973 3.210 1.664 5121
-1.980 3.220 1.656 5551
-1.986 3.230 1.648 4509
-2.003 3.259 1.649 4568
-2.044 3.325 1.667 8073
-2.047 3.329 1.656 10515
-2.049 3.332 1.645 7062
-2.098 3.412 1.668 4233
-2.088 3.397 1.648 4845
-2.133 3.470 1.667 6235
-2.139 3.480 1.658 6324
-2.153 3.502 1.655 4571
-2.167 3.525 1.651 2920
-2.197 3.573 1.658 3431
-2.195 3.571 1.644 3996
-2.237 3.638 1.658 4093
-2.235 3.635 1.643 4895
-2.241 3.645 1.634 2859
-2.322 3.776 1.674 3004
-2.312 3.761 1.653 3544
-2.334 3.797 1.653 3209
-2.372 3.858 1.663 3844
-2.378 3.868 1.653 3875
-2.388 3.885 1.645 3287
-2.395 3.895 1.634 3671
-2.468 4.014 1.665 2819
-2.466 4.011 1.649 3024
-2.461 4.002 1.631 2224
-2.574 4.186 1.684 2733
-2.560 4.164 1.660 3085
-2.594 4.219 1.665 4219
-2.596 4.223 1.651 3956
-2.611 4.246 1.643 2471
-2.680 4.359 1.668 2889
-2.691 4.376 1.658 3289
-2.701 4.393 1.647 2876
-2.767 4.500 1.668 4298
-2.781 4.523 1.659 3866
-2.787 4.534 1.646 2820
-2.790 4.537 1.631 3220
-2.796 4.548 1.617 3538
-2.966 4.824 1.691 4877
-2.964 4.821 1.672 5532
-2.963 4.819 1.654 4361
-2.969 4.829 1.639 4676
-2.983 4.852 1.629 5912
-2.990 4.863 1.615 6392
-2.996 4.873 1.600 5358
-3.143 5.112 1.654 3615
-3.149 5.122 1.638 3000
-3.155 5.132 1.623 2515
-3.202 5.208 1.626 2472
-3.212 5.225 1.612 2519
-3.275 5.327 1.622 1964
-3.386 5.508 1.653 1624
-3.465 5.636 1.668 2434
-3.464 5.633 1.648 3330
-3.474 5.650 1.632 2511
-3.476 5.654 1.613 1923
-3.632 5.908 1.658 2576
-3.635 5.911 1.638 2967
-3.633 5.909 1.616 2623
-3.732 6.071 1.636 2082
-3.727 6.061 1.612 2433
-3.729 6.065 1.591 1867
-3.906 6.353 1.638 2052
-3.912 6.363 1.618 2335
-4.073 6.625 1.656 2444
-4.063 6.608 1.629 2023
-4.061 6.606 1.605 1721
-4.251 6.914 1.649 2234
-4.253 6.918 1.626 1912
-4.260 6.928 1.603 1202
-4.564 7.423 1.683 1268
-4.750 7.726 1.719 1642
-4.748 7.723 1.691 2072
-4.927 8.013 1.722 2364
-4.745 7.717 1.636 2692
-4.751 7.728 1.611 3340
-4.753 7.731 1.585 3343
-4.756 7.735 1.558 2594
-4.758 7.738 1.532 2323
-4.957 8.062 1.562 2587
-4.955 8.059 1.534 3119
-4.961 8.069 1.507 3210
-4.963 8.072 1.480 2719
-4.965 8.075 1.452 1523
-4.951 8.052 1.420 839
-4.953 8.055 1.393 400
-0.728 1.184 0.059 263
-0.728 1.184 0.055 294
-0.728 1.184 0.052 326
-0.732 1.190 0.047 340
-0.732 1.190 0.043 314
-0.727 1.183 0.040 305
-0.731 1.190 0.035 299
-0.731 1.189 0.031 298
-0.731 1.189 0.027 258
-1.178 1.929 1.764 2090
-1.180 1.933 1.758 4180
-1.183 1.937 1.751 4180
-1.215 1.990 1.787 3871
-1.221 2.000 1.785 4362
-1.220 1.999 1.773 3459
-1.256 2.058 1.812 3188
-1.259 2.062 1.806 3188
-1.251 2.050 1.785 4105
-1.254 2.054 1.778 5081
-1.229 2.013 1.735 4437
-1.232 2.017 1.729 4710
-1.275 2.088 1.775 3994
-1.281 2.098 1.773 4743
-1.283 2.102 1.766 4720
-1.289 2.111 1.763 4515
-1.288 2.110 1.752 4261
-1.294 2.120 1.749 4938
-1.300 2.129 1.746 5760
-1.306 2.139 1.744 5266
-1.308 2.143 1.736 4872
-1.311 2.147 1.729 3744
-1.313 2.151 1.722 2616
-1.336 2.189 1.740 3815
-1.342 2.199 1.737 5741
-1.341 2.197 1.726 8054
-1.340 2.195 1.714 10807
-1.343 2.199 1.707 10668
-1.345 2.203 1.699 10529
-1.351 2.212 1.696 7889
-1.364 2.234 1.701 6641
-1.366 2.238 1.694 5272
-1.400 2.294 1.723 6179
-1.403 2.297 1.715 6398
-1.409 2.307 1.711 6253
-1.411 2.311 1.704 5934
-1.417 2.321 1.700 5581
-1.423 2.331 1.696 5310
-1.450 2.375 1.716 4934
-1.456 2.385 1.712 6978
-1.455 2.383 1.700 6486
-1.443 2.364 1.676 7101
-1.445 2.367 1.668 5704
-1.444 2.365 1.657 3165
-1.493 2.446 1.699 2610
-1.496 2.450 1.690 3344
-1.505 2.465 1.690 4281
-1.515 2.481 1.689 5283
-1.521 2.491 1.684 9041
-1.527 2.501 1.680 11503
-1.529 2.505 1.671 9693
-1.575 2.580 1.707 6975
-1.581 2.590 1.702 8028
-1.580 2.588 1.690 6869
-1.582 2.592 1.681 5404
-1.625 2.662 1.712 6413
-1.605 2.629 1.682 6574
-1.604 2.627 1.669 5761
-1.592 2.607 1.646 4526
-1.631 2.671 1.673 5479
-1.626 2.663 1.657 6581
-1.628 2.667 1.648 6158
-1.634 2.676 1.642 5249
-1.651 2.704 1.647 6726
-1.668 2.733 1.652 9027
-1.674 2.742 1.646 8970
-1.680 2.752 1.640 6790
-1.724 2.823 1.668 3891
-1.722 2.821 1.655 4450
-1.725 2.825 1.646 5225
-1.723 2.822 1.633 5163
-1.722 2.820 1.620 4355
-1.773 2.904 1.653 4583
-1.783 2.920 1.650 5302
-1.792 2.936 1.646 5737
-1.795 2.940 1.636 4743
-1.903 3.117 1.715 3740
-1.913 3.133 1.711 6620
-1.915 3.137 1.701 9140
-1.921 3.147 1.693 7089
-1.935 3.169 1.692 6143
-1.937 3.173 1.681 7096
-1.936 3.171 1.667 7315
-1.942 3.181 1.660 5546
-1.963 3.216 1.664 5955
-1.966 3.220 1.653 6248
-1.972 3.230 1.645 4490
-2.001 3.277 1.655 4539
-2.034 3.331 1.667 8025
-2.032 3.329 1.653 10706
-2.038 3.339 1.645 7079
-2.083 3.412 1.665 4026
-2.124 3.479 1.682 4091
-2.126 3.483 1.670 6502
-2.132 3.493 1.661 6512
-2.142 3.509 1.655 4599
-2.187 3.583 1.673 2721
-2.190 3.587 1.661 3380
-2.188 3.584 1.646 3825
-2.225 3.645 1.658 4366
-2.224 3.642 1.643 5275
-2.230 3.652 1.634 3039
-2.310 3.784 1.674 3412
-2.301 3.768 1.653 3694
-2.322 3.804 1.653 3313
-2.356 3.859 1.661 3979
-2.366 3.876 1.653 4011
-2.439 3.995 1.685 3671
-2.382 3.902 1.634 3934
-2.451 4.015 1.663 3235
-2.450 4.012 1.647 3438
-2.428 3.978 1.619 2571
-2.556 4.187 1.682 2926
-2.527 4.140 1.649 3229
-2.581 4.227 1.665 4407
-2.583 4.231 1.651 4141
-2.593 4.248 1.641 2566
-2.667 4.368 1.668 2750
-2.677 4.385 1.658 3512
-2.687 4.401 1.647 3047
-2.745 4.496 1.664 4419
-2.763 4.526 1.657 3571
-2.777 4.549 1.648 2770
-2.783 4.559 1.635 3213
-2.782 4.556 1.617 3472
-2.951 4.833 1.691 5400
-2.949 4.831 1.672 6221
-2.948 4.828 1.654 5118
-2.958 4.845 1.641 5760
-2.968 4.862 1.629 7450
-2.974 4.872 1.615 7423
-2.977 4.876 1.598 5436
-3.127 5.121 1.654 3629
-3.133 5.132 1.638 2792
-3.143 5.149 1.625 2416
-3.190 5.224 1.628 2528
-3.200 5.241 1.614 2906
-3.206 5.251 1.598 2152
-3.369 5.518 1.653 1554
-3.448 5.647 1.668 2685
-3.450 5.651 1.649 3844
-3.456 5.661 1.632 2651
-3.458 5.665 1.613 1900
-3.614 5.919 1.658 2648
-3.616 5.923 1.638 3247
-3.614 5.920 1.616 2785
-3.713 6.082 1.636 2006
-3.708 6.073 1.612 2359
-3.726 6.103 1.597 1731
-3.886 6.365 1.638 2142
-4.050 6.634 1.678 2532
-4.052 6.637 1.656 2587
-4.042 6.621 1.629 2118
-4.041 6.618 1.605 1808
-4.225 6.921 1.648 2340
-4.228 6.924 1.624 1878
-4.315 7.068 1.630 1158
-4.545 7.444 1.684 1467
-4.539 7.434 1.656 1840
-4.525 7.412 1.625 2065
-4.901 8.028 1.722 2658
-4.904 8.032 1.694 2842
-4.727 7.742 1.611 2900
-4.729 7.746 1.585 2843
-4.731 7.750 1.558 2158
-4.929 8.074 1.590 2003
-4.931 8.077 1.562 2719
-4.934 8.081 1.535 3399
-4.936 8.084 1.507 3579
-4.938 8.088 1.480 2985
-4.940 8.091 1.452 1527
-4.929 8.074 1.421 790
-4.931 8.077 1.394 431
-0.724 1.186 0.055 273
-0.724 1.186 0.052 303
-0.724 1.186 0.048 316
-0.728 1.192 0.043 298
-0.724 1.185 0.040 297
-0.728 1.192 0.035 286
-0.728 1.192 0.031 277
-1.196 1.970 1.797 1900
-1.199 1.974 1.791 3801
-1.201 1.978 1.784 3801
-1.210 1.994 1.787 4179
-1.216 2.003 1.785 4818
-1.215 2.002 1.773 3944
-1.214 2.000 1.762 3401
-1.217 2.004 1.755 3401
-1.243 2.047 1.781 4071
-1.249 2.057 1.778 4944
-1.221 2.011 1.731 4693
-1.227 2.020 1.729 4972
-1.270 2.091 1.775 3562
-1.272 2.095 1.768 4207
-1.281 2.111 1.770 4097
-1.287 2.120 1.768 3864
-1.286 2.119 1.756 3624
-1.292 2.128 1.753 4550
-1.295 2.132 1.746 5559
-1.300 2.142 1.744 5462
-1.303 2.146 1.736 5380
-1.305 2.150 1.729 4058
-1.308 2.154 1.722 2736
-1.334 2.198 1.745 3920
-1.337 2.202 1.737 5818
-1.336 2.200 1.726 8439
-1.335 2.198 1.714 11683
-1.337 2.202 1.707 11544
-1.339 2.206 1.699 11405
-1.345 2.216 1.696 8376
-1.358 2.237 1.701 6925
-1.396 2.299 1.735 5451
-1.394 2.297 1.723 6727
-1.397 2.301 1.715 6661
-1.399 2.305 1.707 6150
-1.405 2.315 1.704 5793
-1.415 2.330 1.704 5482
-1.417 2.334 1.696 5134
-1.444 2.379 1.716 5375
-1.450 2.389 1.712 7685
-1.449 2.387 1.700 7326
-1.441 2.373 1.680 7979
-1.439 2.371 1.668 6346
-1.438 2.369 1.657 3401
-1.487 2.450 1.699 2616
-1.489 2.453 1.690 3156
-1.499 2.469 1.690 3946
-1.509 2.485 1.689 5299
-1.515 2.495 1.684 9319
-1.517 2.499 1.676 11809
-1.519 2.502 1.668 9981
-1.569 2.584 1.707 7511
-1.571 2.588 1.699 8588
-1.570 2.586 1.686 7446
-1.576 2.596 1.681 5423
-1.615 2.660 1.709 7610
-1.621 2.670 1.703 7632
-1.634 2.692 1.705 5418
-1.585 2.611 1.646 3704
-1.624 2.675 1.673 4015
-1.623 2.673 1.660 5550
-1.625 2.677 1.651 5784
-1.627 2.680 1.642 5068
-1.681 2.770 1.682 7236
-1.665 2.743 1.655 9417
-1.667 2.747 1.646 9221
-1.673 2.756 1.640 6777
-1.724 2.840 1.675 4491
-1.715 2.825 1.655 4482
-1.717 2.829 1.646 5209
-1.716 2.827 1.633 5244
-1.715 2.824 1.620 4538
-1.765 2.908 1.653 3822
-1.775 2.924 1.650 4429
-1.781 2.934 1.643 4481
-1.784 2.938 1.633 3557
-1.891 3.115 1.712 5149
-1.905 3.138 1.711 7435
-1.911 3.148 1.704 9497
-1.921 3.164 1.699 7090
-1.931 3.180 1.695 6268
-1.933 3.184 1.684 7028
-1.932 3.182 1.670 7049
-1.938 3.192 1.663 5703
-1.955 3.221 1.664 6322
-1.958 3.225 1.653 6573
-1.960 3.228 1.642 4346
-1.996 3.289 1.658 4364
-2.026 3.336 1.667 7643
-2.024 3.334 1.653 10430
-2.030 3.344 1.645 6977
-2.078 3.423 1.668 3734
-2.119 3.490 1.685 4573
-2.118 3.488 1.670 6369
-2.124 3.498 1.661 6338
-2.134 3.515 1.655 4438
-2.174 3.582 1.670 2995
-2.181 3.592 1.661 3442
-2.179 3.589 1.646 3812
-2.205 3.631 1.650 4362
-2.215 3.648 1.643 5448
-2.217 3.652 1.631 3226
-2.301 3.789 1.674 3612
-2.303 3.793 1.661 3334
-2.317 3.816 1.656 3060
-2.346 3.865 1.661 4333
-2.356 3.881 1.653 4187
-2.425 3.994 1.682 3871
-2.431 4.005 1.671 4261
-2.437 4.015 1.660 3812
-2.436 4.012 1.644 3797
-2.415 3.977 1.616 2515
-2.542 4.187 1.679 3064
-2.540 4.185 1.663 3298
-2.570 4.234 1.665 4425
-2.572 4.237 1.651 3934
-2.693 4.435 1.706 2377
-2.652 4.368 1.666 2638
-2.662 4.385 1.655 3494
-2.680 4.414 1.650 2987
-2.730 4.496 1.661 4475
-2.748 4.526 1.655 3330
-2.766 4.556 1.648 2663
-2.768 4.560 1.633 3204
-2.770 4.563 1.617 3485
-2.939 4.841 1.691 5479
-2.937 4.838 1.672 6189
-2.936 4.835 1.654 5050
-2.946 4.852 1.641 6067
-2.956 4.869 1.629 8304
-2.962 4.879 1.615 7952
-2.964 4.883 1.598 5216
-3.110 5.123 1.652 3674
-3.120 5.140 1.638 2600
-3.134 5.163 1.627 2287
-3.173 5.226 1.626 2341
-3.187 5.249 1.614 2977
-3.197 5.266 1.600 2454
-3.359 5.533 1.655 1348
-3.437 5.662 1.670 2837
-3.436 5.659 1.649 4235
-3.442 5.670 1.632 2798
-3.444 5.673 1.613 1977
-3.599 5.928 1.658 2788
-3.601 5.932 1.638 3523
-3.599 5.929 1.616 2950
-3.598 5.926 1.595 1802
-3.692 6.082 1.612 2142
-3.723 6.132 1.602 1670
-3.870 6.374 1.638 2220
-3.876 6.385 1.618 2754
-3.890 6.408 1.601 2757
-4.070 6.704 1.645 2129
-4.206 6.927 1.671 1849
-4.208 6.931 1.648 2334
-4.206 6.928 1.623 1793
-4.297 7.079 1.630 1274
-4.522 7.449 1.683 1602
-4.520 7.446 1.656 2015
-4.506 7.423 1.625 2208
-4.885 8.047 1.723 2814
-4.884 8.044 1.694 2930
-4.898 8.068 1.671 2747
-4.904 8.079 1.645 2640
-4.890 8.056 1.612 2249
-4.909 8.086 1.590 2137
-4.911 8.090 1.562 2833
-4.913 8.093 1.535 3660
-4.915 8.097 1.507 3858
-4.917 8.100 1.480 3141
-4.919 8.103 1.452 1496
-4.909 8.086 1.421 756
-4.911 8.090 1.394 462
-0.721 1.188 0.052 274
-0.721 1.188 0.048 293
-0.725 1.194 0.043 269
-0.721 1.187 0.040 259
-1.197 1.977 1.802 1925
-1.199 1.982 1.795 3851
-1.202 1.986 1.789 3851
-1.207 1.995 1.787 4457
-1.213 2.005 1.785 5230
-1.209 1.998 1.769 4420
-1.211 2.002 1.762 3849
-1.214 2.006 1.755 3849
-1.213 2.005 1.744 4270
-1.242 2.053 1.774 4867
-1.218 2.013 1.731 4916
-1.224 2.022 1.729 5169
-1.229 2.032 1.726 3627
-1.262 2.086 1.760 3725
-1.278 2.112 1.770 3533
-1.284 2.122 1.768 3367
-1.287 2.126 1.761 3133
-1.289 2.130 1.753 4374
-1.292 2.134 1.746 5623
-1.297 2.144 1.744 5803
-1.300 2.148 1.736 6002
-1.302 2.152 1.729 4451
-1.301 2.150 1.718 2945
-1.331 2.200 1.745 3964
-1.337 2.210 1.741 5904
-1.333 2.202 1.726 8660
-1.331 2.200 1.714 12284
-1.334 2.204 1.707 12177
-1.336 2.208 1.699 12069
-1.342 2.218 1.696 8709
-1.355 2.239 1.701 7088
-1.389 2.295 1.730 5680
-1.391 2.299 1.723 7013
-1.394 2.303 1.715 6682
-1.396 2.307 1.707 5905
-1.402 2.317 1.704 5493
-1.411 2.332 1.704 5491
-1.417 2.342 1.700 5228
-1.437 2.375 1.712 5891
-1.447 2.391 1.712 8379
-1.442 2.383 1.696 8259
-1.437 2.375 1.680 9085
-1.436 2.373 1.668 7237
-1.435 2.371 1.657 3821
-1.480 2.446 1.695 2751
-1.490 2.462 1.694 3001
-1.499 2.477 1.694 3560
-1.505 2.487 1.689 5238
-1.507 2.491 1.681 9402
-1.510 2.495 1.672 11715
-1.516 2.505 1.668 9904
-1.561 2.580 1.704 7969
-1.564 2.584 1.695 9158
-1.566 2.588 1.686 8182
-1.608 2.658 1.718 5965
-1.607 2.656 1.705 9204
-1.613 2.666 1.700 9399
-1.619 2.676 1.694 6637
-1.633 2.698 1.696 3537
-1.620 2.678 1.673 3280
-1.619 2.675 1.660 4451
-1.625 2.685 1.655 5428
-1.627 2.689 1.646 4973
-1.674 2.766 1.678 7948
-1.665 2.751 1.659 9794
-1.663 2.749 1.646 9318
-1.669 2.759 1.640 6645
-1.720 2.842 1.675 5101
-1.711 2.828 1.655 4587
-1.710 2.825 1.642 5164
-1.708 2.823 1.630 5292
-1.710 2.827 1.620 4646
-1.806 2.985 1.692 3547
-1.820 3.007 1.692 3382
-1.822 3.011 1.682 3470
-1.884 3.114 1.723 3672
-1.887 3.118 1.712 6452
-1.900 3.140 1.711 7980
-1.906 3.151 1.704 9451
-1.920 3.173 1.703 7037
-1.930 3.189 1.698 6227
-1.929 3.187 1.684 6576
-1.931 3.191 1.674 6674
-1.937 3.201 1.666 6013
-1.951 3.224 1.664 6677
-1.949 3.221 1.650 6838
-1.951 3.225 1.639 4432
-1.992 3.291 1.658 3860
-2.017 3.333 1.664 6514
-2.019 3.337 1.653 9188
-2.021 3.341 1.642 6326
-2.119 3.502 1.702 4113
-2.118 3.500 1.687 4785
-2.113 3.491 1.670 5929
-2.122 3.508 1.664 5952
-2.132 3.524 1.658 4381
-2.169 3.585 1.670 3714
-2.175 3.595 1.661 3708
-2.174 3.593 1.646 4076
-2.195 3.628 1.648 4596
-2.205 3.645 1.641 5573
-2.212 3.655 1.631 3295
-2.295 3.793 1.674 3761
-2.297 3.797 1.661 3443
-2.307 3.813 1.653 3161
-2.341 3.868 1.661 4441
-2.351 3.885 1.653 4314
-2.419 3.998 1.682 4109
-2.418 3.995 1.666 5026
-2.428 4.012 1.658 4443
-2.430 4.016 1.644 4207
-2.440 4.032 1.635 2528
-2.536 4.191 1.679 3073
-2.534 4.188 1.663 3394
-2.560 4.231 1.663 4390
-2.566 4.241 1.651 3857
-2.686 4.439 1.706 2781
-2.693 4.450 1.693 2784
-2.652 4.382 1.653 3567
-2.689 4.444 1.659 3254
-2.723 4.500 1.661 4092
-2.733 4.517 1.651 3048
-2.759 4.560 1.648 2379
-2.761 4.563 1.633 2907
-2.858 4.724 1.669 3492
-2.932 4.845 1.691 4853
-2.930 4.842 1.672 5686
-2.929 4.840 1.654 4713
-2.935 4.850 1.639 5931
-2.945 4.867 1.627 8353
-2.951 4.877 1.613 7812
-2.957 4.887 1.598 4762
-3.103 5.127 1.652 3601
-3.109 5.137 1.636 2259
-3.135 5.181 1.631 2076
-3.161 5.224 1.624 2081
-3.187 5.267 1.618 3103
-3.193 5.277 1.602 2934
-3.208 5.301 1.589 1649
-3.429 5.667 1.670 2800
-3.428 5.664 1.649 4360
-3.430 5.668 1.630 2894
-3.432 5.672 1.611 2113
-3.590 5.933 1.658 2837
-3.593 5.937 1.638 3636
-3.591 5.934 1.616 3171
-3.589 5.931 1.595 1908
-3.684 6.087 1.612 1755
-3.826 6.323 1.647 1455
-3.861 6.380 1.638 2283
-3.867 6.390 1.618 3034
-3.877 6.407 1.599 3033
-4.065 6.717 1.647 2058
-4.196 6.934 1.671 1853
-4.194 6.931 1.646 2223
-4.103 6.781 1.590 1630
-4.384 7.245 1.664 1369
-4.511 7.455 1.683 1658
-4.510 7.452 1.656 2082
-4.500 7.436 1.627 2274
-4.874 8.054 1.723 2866
-4.876 8.058 1.696 2871
-4.887 8.075 1.671 2551
-4.881 8.066 1.641 2600
-4.883 8.069 1.613 2443
-4.897 8.093 1.590 2270
-4.900 8.097 1.562 2795
-4.902 8.100 1.535 3656
-4.904 8.104 1.507 3862
-4.906 8.107 1.480 3112
-4.908 8.110 1.452 1410
-4.898 8.093 1.421 689
-4.899 8.097 1.394 470
-0.720 1.189 0.052 250
-0.719 1.189 0.048 261
-1.191 1.981 1.802 1952
-1.193 1.985 1.795 3904
-1.196 1.989 1.789 3904
-1.201 1.999 1.787 4652
-1.204 2.003 1.780 5540
-1.203 2.002 1.769 4782
-1.205 2.006 1.762 4183
-1.208 2.010 1.755 4183
-1.207 2.008 1.744 4602
-1.209 2.012 1.737 5059
-1.215 2.022 1.735 5215
-1.217 2.026 1.729 5419
-1.223 2.035 1.726 3802
-1.249 2.079 1.751 3524
-1.275 2.122 1.775 3142
-1.281 2.132 1.772 2977
-1.263 2.102 1.739 2815
-1.283 2.134 1.753 4266
-1.285 2.138 1.746 5745
-1.291 2.148 1.744 6116
-1.293 2.152 1.736 6556
-1.296 2.156 1.729 4817
-1.295 2.154 1.718 3192
-1.290 2.147 1.702 4031
-1.330 2.214 1.741 5929
-1.326 2.206 1.726 8755
-1.325 2.204 1.714 12592
-1.327 2.208 1.707 12531
-1.329 2.212 1.699 12470
-1.335 2.222 1.696 8837
-1.348 2.243 1.701 7005
-1.378 2.293 1.726 5718
-1.381 2.297 1.719 6947
-1.383 2.301 1.711 6383
-1.385 2.305 1.703 5497
-1.391 2.315 1.700 5058
-1.404 2.337 1.704 5298
-1.407 2.340 1.696 5201
-1.430 2.380 1.712 6093
-1.439 2.395 1.712 8781
-1.435 2.387 1.696 8648
-1.430 2.379 1.680 9316
-1.432 2.383 1.672 7466
-1.427 2.375 1.657 4222
-1.473 2.450 1.695 3055
-1.478 2.460 1.690 2887
-1.492 2.482 1.694 3151
-1.494 2.486 1.685 5128
-1.500 2.496 1.681 9383
-1.502 2.499 1.672 11580
-1.504 2.503 1.664 9823
-1.554 2.585 1.704 8441
-1.552 2.583 1.691 9891
-1.555 2.587 1.683 9050
-1.600 2.663 1.718 6916
-1.599 2.661 1.705 10806
-1.605 2.671 1.700 11284
-1.611 2.681 1.694 8475
-1.613 2.685 1.685 4960
-1.612 2.682 1.673 3703
-1.655 2.753 1.703 4508
-1.624 2.702 1.662 5472
-1.634 2.718 1.660 5311
-1.665 2.771 1.678 8331
-1.660 2.763 1.662 10136
-1.659 2.760 1.650 9392
-1.665 2.770 1.644 6524
-1.708 2.841 1.671 5545
-1.703 2.833 1.655 4694
-1.701 2.831 1.642 5102
-1.700 2.828 1.630 5172
-1.787 2.974 1.696 4781
-1.793 2.984 1.689 3539
-1.810 3.013 1.692 2523
-1.865 3.103 1.727 2762
-1.871 3.113 1.720 4649
-1.877 3.124 1.712 7728
-1.887 3.140 1.708 8590
-1.901 3.163 1.707 9332
-1.914 3.185 1.706 7465
-1.920 3.195 1.698 6830
-1.923 3.199 1.687 6898
-1.925 3.203 1.677 7132
-1.927 3.207 1.666 6629
-1.937 3.223 1.661 6495
-1.939 3.227 1.650 6463
-1.942 3.231 1.639 4186
-1.986 3.304 1.661 3360
-2.003 3.333 1.661 5341
-2.005 3.337 1.650 7564
-2.011 3.347 1.642 5617
-2.109 3.509 1.702 4460
-2.111 3.513 1.690 4644
-2.102 3.497 1.670 5275
-2.112 3.514 1.664 5363
-2.156 3.588 1.682 4614
-2.158 3.592 1.670 4453
-2.161 3.595 1.658 4150
-2.163 3.599 1.646 4382
-2.184 3.635 1.648 4928
-2.194 3.651 1.641 6153
-2.200 3.661 1.631 3860
-2.284 3.800 1.674 3883
-2.286 3.804 1.661 3153
-2.311 3.846 1.663 2940
-2.329 3.875 1.661 4563
-2.339 3.892 1.653 4466
-2.407 4.005 1.682 4167
-2.409 4.009 1.669 5593
-2.415 4.019 1.658 4931
-2.422 4.029 1.647 4313
-2.439 4.059 1.643 2622
-2.512 4.179 1.672 3091
-2.522 4.196 1.663 3349
-2.547 4.239 1.663 3800
-2.553 4.249 1.651 3455
-2.673 4.447 1.706 2727
-2.675 4.451 1.691 3205
-2.677 4.455 1.676 3587
-2.680 4.459 1.661 3804
-2.698 4.489 1.655 4072
-2.712 4.512 1.646 2824
-2.832 4.712 1.696 2311
-2.838 4.722 1.682 2921
-2.844 4.732 1.669 3779
-2.913 4.847 1.689 3927
-2.915 4.851 1.672 4945
-2.910 4.842 1.652 3737
-2.920 4.859 1.639 4965
-2.930 4.876 1.627 7947
-2.940 4.893 1.615 7181
-2.942 4.896 1.598 3976
-3.087 5.137 1.652 3453
-2.998 4.989 1.590 1844
-3.123 5.197 1.632 1923
-3.125 5.200 1.615 2127
-3.171 5.277 1.618 2580
-3.177 5.287 1.602 2717
-3.191 5.310 1.589 1858
-3.408 5.671 1.668 2626
-3.410 5.675 1.649 4229
-3.413 5.678 1.630 2894
-3.411 5.675 1.609 2293
-3.572 5.944 1.658 2646
-3.575 5.948 1.638 3522
-3.577 5.952 1.618 3327
-3.575 5.949 1.596 2004
-3.661 6.092 1.610 1546
-3.807 6.335 1.647 1552
-3.841 6.392 1.638 2210
-3.851 6.409 1.619 3155
-3.858 6.419 1.599 3218
-3.864 6.429 1.579 1998
-4.171 6.940 1.670 1760
-4.173 6.943 1.646 1952
-4.083 6.794 1.590 1753
-4.358 7.251 1.663 1381
-4.485 7.462 1.681 1635
-4.483 7.459 1.655 2023
-4.477 7.450 1.627 2282
-4.853 8.076 1.724 2769
-4.856 8.080 1.697 2694
-4.862 8.090 1.671 2297
-4.860 8.087 1.642 2493
-4.862 8.091 1.615 2550
-4.873 8.108 1.590 2324
-4.875 8.112 1.562 2664
-4.877 8.115 1.535 3477
-4.879 8.119 1.507 3675
-4.881 8.122 1.480 2944
-4.879 8.119 1.451 1293
-4.873 8.108 1.421 586
-4.879 8.118 1.395 424
-1.188 1.982 1.802 1976
-1.191 1.986 1.795 3953
-1.193 1.991 1.789 3953
-1.196 1.995 1.782 4771
-1.202 2.004 1.780 5705
-1.201 2.003 1.769 4984
-1.203 2.007 1.762 4380
-1.206 2.011 1.755 4380
-1.208 2.015 1.749 4885
-1.207 2.014 1.737 5392
-1.213 2.023 1.735 5498
-1.215 2.027 1.729 5606
-1.221 2.037 1.726 3944
-1.247 2.080 1.751 3446
-1.253 2.090 1.748 2938
-1.279 2.133 1.772 2627
-1.261 2.103 1.739 2627
-1.280 2.136 1.753 4115
-1.283 2.140 1.746 5783
-1.285 2.144 1.739 6294
-1.291 2.153 1.736 6915
-1.290 2.152 1.725 5048
-1.289 2.150 1.713 3379
-1.288 2.148 1.702 4236
-1.331 2.221 1.746 5870
-1.323 2.208 1.726 8735
-1.322 2.206 1.714 12671
-1.325 2.210 1.707 12657
-1.327 2.214 1.699 12644
-1.333 2.223 1.696 8832
-1.349 2.250 1.705 6855
-1.369 2.283 1.718 5709
-1.378 2.299 1.719 6613
-1.381 2.303 1.711 6051
-1.383 2.307 1.703 5208
-1.389 2.317 1.700 4690
-1.395 2.326 1.696 5024
-1.393 2.324 1.684 5222
-1.431 2.387 1.716 5749
-1.437 2.397 1.712 8500
-1.436 2.395 1.700 8323
-1.431 2.387 1.684 8621
-1.430 2.385 1.672 6892
-1.428 2.383 1.661 4310
-1.466 2.446 1.691 3459
-1.472 2.456 1.687 3076
-1.489 2.483 1.694 2865
-1.491 2.487 1.685 5119
-1.493 2.491 1.677 9478
-1.499 2.501 1.672 11603
-1.502 2.505 1.664 9878
-1.547 2.581 1.700 8930
-1.549 2.585 1.691 10694
-1.552 2.588 1.683 9810
-1.590 2.653 1.710 7921
-1.596 2.663 1.705 12232
-1.599 2.667 1.696 13089
-1.605 2.676 1.691 10338
-1.607 2.680 1.682 6544
-1.598 2.666 1.662 5434
-1.652 2.755 1.703 5524
-1.643 2.741 1.683 6540
-1.656 2.763 1.684 5889
-1.659 2.767 1.675 8568
-1.657 2.764 1.662 10391
-1.656 2.762 1.650 9449
-1.662 2.772 1.644 6437
-1.705 2.843 1.671 5549
-1.699 2.835 1.655 4974
-1.698 2.832 1.642 5577
-1.697 2.830 1.630 5353
-1.784 2.976 1.696 5253
-1.790 2.986 1.689 3547
-1.852 3.089 1.731 2617
-1.862 3.105 1.727 3506
-1.868 3.115 1.720 5562
-1.870 3.119 1.709 8903
-1.880 3.136 1.705 9470
-1.897 3.165 1.707 9076
-1.911 3.187 1.706 7970
-1.917 3.197 1.698 7335
-1.919 3.201 1.687 7036
-1.922 3.205 1.677 7626
-1.928 3.215 1.669 7180
-1.934 3.225 1.661 6194
-1.936 3.229 1.650 6055
-1.934 3.227 1.636 4167
-1.993 3.325 1.670 3188
-1.992 3.322 1.656 4686
-2.002 3.339 1.650 5907
-2.008 3.349 1.642 4836
-2.105 3.511 1.702 4450
-2.107 3.515 1.690 4190
-2.094 3.493 1.667 4457
-2.104 3.510 1.661 4434
-2.156 3.596 1.685 5150
-2.155 3.594 1.670 5210
-2.157 3.598 1.658 4387
-2.159 3.601 1.646 4281
-2.181 3.637 1.648 5019
-2.187 3.647 1.638 6423
-2.193 3.657 1.628 4018
-2.279 3.802 1.674 4075
-2.286 3.812 1.663 3113
-2.307 3.848 1.663 3479
-2.325 3.878 1.661 4795
-2.335 3.894 1.653 4502
