-1.269 3.304 1.715 5020
-1.273 3.315 1.708 6795
-1.275 3.319 1.698 7073
-1.277 3.323 1.688 5814
-1.323 3.442 1.731 6584
-1.324 3.447 1.721 7014
-1.326 3.451 1.710 5246
-1.296 3.374 1.662 4015
-1.360 3.541 1.726 4911
-1.365 3.552 1.718 5490
-1.395 3.632 1.741 4896
-1.389 3.615 1.720 4689
-1.378 3.586 1.694 5902
-1.379 3.590 1.683 5717
-1.433 3.731 1.731 4186
-1.417 3.687 1.699 3554
-1.416 3.685 1.685 3040
-1.467 3.820 1.729 3900
-1.466 3.817 1.714 4322
-1.473 3.835 1.708 5129
-1.478 3.846 1.699 5013
-1.514 3.940 1.723 5486
-1.505 3.917 1.700 5439
-1.512 3.935 1.694 5743
-1.527 3.974 1.695 7029
-1.531 3.985 1.686 8410
-1.533 3.989 1.673 6931
-1.564 4.070 1.690 8877
-1.568 4.081 1.681 8823
-1.575 4.099 1.673 5874
-1.614 4.201 1.697 4930
-1.610 4.191 1.679 5891
-1.625 4.230 1.679 5997
-1.632 4.249 1.671 6272
-1.636 4.260 1.660 5508
-1.673 4.355 1.680 4516
-1.672 4.352 1.664 5199
-1.674 4.356 1.650 6649
-1.675 4.360 1.637 4770
-1.677 4.364 1.623 2130
-1.743 4.537 1.667 2303
-1.764 4.591 1.670 3589
-1.806 4.701 1.691 3933
-1.802 4.691 1.672 5258
-1.798 4.681 1.653 3104
-1.814 4.720 1.650 1937
-1.875 4.880 1.685 1812
-1.879 4.892 1.672 2167
-1.848 4.811 1.630 2413
-1.932 5.028 1.681 2572
-1.925 5.011 1.659 3493
-1.927 5.015 1.644 2559
-2.054 5.346 1.726 2789
-2.056 5.350 1.710 3336
-2.054 5.348 1.691 5329
-2.056 5.352 1.674 5832
-2.058 5.356 1.658 5080
-2.098 5.460 1.669 4296
-2.099 5.464 1.653 3083
-2.214 5.762 1.717 2304
-2.229 5.802 1.709 2901
-2.244 5.842 1.700 2982
-2.249 5.853 1.684 3485
-2.248 5.850 1.664 2197
-2.387 6.214 1.739 1867
-2.386 6.211 1.718 2126
-2.382 6.201 1.695 1816
-2.392 6.226 1.681 1609
-2.499 6.504 1.729 1632
-2.500 6.509 1.709 2244
-2.505 6.520 1.690 2223
-2.509 6.531 1.672 2500
-2.508 6.528 1.650 2047
-2.601 6.771 1.684 1297
-2.678 6.970 1.708 1286
-2.682 6.982 1.688 2177
-2.681 6.979 1.664 2555
-2.680 6.976 1.641 2705
-2.676 6.965 1.616 2324
-2.937 7.644 1.737 1931
-2.938 7.648 1.713 1998
-3.113 8.102 1.781 2301
-3.117 8.114 1.757 3933
-3.119 8.118 1.732 4567
-3.121 8.123 1.707 4439
-3.122 8.127 1.681 4902
-3.124 8.131 1.656 5567
-3.125 8.135 1.631 5350
-3.127 8.139 1.605 4660
-3.128 8.143 1.580 3778
-3.127 8.140 1.554 2603
-3.131 8.151 1.529 1503
-3.133 8.155 1.504 808
-3.367 8.765 1.579 483
-2.632 6.851 1.154 289
-2.630 6.846 1.132 360
-2.631 6.849 1.111 493
-2.632 6.852 1.089 693
-2.628 6.839 1.066 676
-2.626 6.835 1.044 641
-2.627 6.837 1.023 577
-2.625 6.832 1.000 428
-2.947 7.671 1.083 340
-2.948 7.674 1.059 447
-2.946 7.669 1.034 582
-2.947 7.671 1.010 469
-2.948 7.674 0.986 354
-2.325 6.051 0.787 352
-3.411 8.878 0.620 276
-3.411 8.880 0.592 380
-3.409 8.873 0.564 618
-3.407 8.867 0.537 880
-3.407 8.868 0.509 914
-3.410 8.876 0.482 909
-3.416 8.892 0.455 1008
-3.357 8.738 0.422 1103
-3.420 8.901 0.399 1218
-3.423 8.909 0.372 1419
-3.420 8.902 0.344 1643
-3.417 8.895 0.316 1596
-3.315 8.630 0.284 1673
-3.313 8.623 0.257 1579
-3.310 8.616 0.230 1530
-3.307 8.609 0.203 1652
-3.302 8.594 0.177 1874
-3.296 8.579 0.150 1496
-3.242 8.439 0.123 1509
-3.236 8.424 0.097 1476
-3.233 8.416 0.071 1199
-3.279 8.534 0.044 1073
-3.233 8.416 0.019 956
-3.233 8.416 -0.007 1094
-3.230 8.408 -0.033 1060
-3.227 8.400 -0.059 1084
-3.227 8.399 -0.085 802
-3.181 8.280 -0.108 779
-3.082 8.021 -0.125 704
-3.078 8.013 -0.150 987
-3.075 8.005 -0.174 887
-3.069 7.989 -0.199 847
-3.069 7.988 -0.224 866
-3.057 7.958 -0.247 926
-3.068 7.986 -0.273 733
-3.068 7.985 -0.298 582
-3.050 7.939 -0.320 500
-3.050 7.938 -0.345 489
-3.049 7.937 -0.370 488
-3.009 7.832 -0.387 434
-3.008 7.831 -0.412 434
-2.999 7.807 -0.434 386
-2.973 7.739 -0.453 500
-2.970 7.730 -0.477 557
-2.966 7.721 -0.500 632
-2.968 7.727 -0.525 482
-2.973 7.739 -0.550 358
-2.973 7.737 -0.574 358
-0.775 2.028 1.699 3648
-0.777 2.032 1.692 7297
-0.778 2.036 1.686 7297
-0.794 2.077 1.708 6418
-0.800 2.093 1.711 6881
-0.804 2.103 1.709 5357
-0.831 2.174 1.753 5690
-0.832 2.178 1.746 5690
-0.836 2.189 1.744 5573
-0.847 2.217 1.756 6749
-0.851 2.228 1.753 6108
-0.855 2.238 1.751 5608
-0.857 2.243 1.744 4197
-0.847 2.216 1.715 3262
-0.865 2.264 1.739 2975
-0.869 2.274 1.737 3619
-0.887 2.321 1.761 4406
-0.891 2.332 1.758 5734
-0.893 2.336 1.751 7100
-0.897 2.347 1.748 6092
-0.906 2.370 1.754 5729
-0.905 2.368 1.742 5076
-0.907 2.373 1.735 4488
-0.911 2.383 1.732 3865
-0.929 2.431 1.754 4211
-0.928 2.429 1.742 4459
-0.928 2.427 1.731 4854
-0.927 2.425 1.719 4937
-0.919 2.405 1.695 5214
-0.930 2.434 1.704 6200
-0.932 2.438 1.697 7378
-0.936 2.449 1.694 6822
-0.938 2.453 1.686 6277
-0.963 2.521 1.719 5042
-0.965 2.525 1.711 5043
-0.974 2.548 1.716 4542
-0.978 2.559 1.712 5898
-0.977 2.557 1.700 7450
-0.981 2.568 1.696 6562
-0.993 2.598 1.704 6241
-1.009 2.640 1.720 6318
-1.013 2.651 1.715 7439
-1.015 2.655 1.707 9311
-1.019 2.666 1.703 9730
-1.023 2.677 1.699 8419
-1.027 2.688 1.694 7918
-1.031 2.698 1.690 7546
-1.035 2.709 1.685 6158
-1.052 2.752 1.700 6347
-1.054 2.756 1.691 7090
-1.058 2.767 1.686 7169
-1.062 2.778 1.682 5756
-1.091 2.854 1.713 4752
-1.077 2.819 1.683 4881
-1.082 2.830 1.678 5036
-1.086 2.841 1.673 4703
-1.128 2.950 1.721 4690
-1.144 2.994 1.734 5412
-1.149 3.005 1.728 7806
-1.155 3.023 1.726 8273
-1.159 3.034 1.720 7822
-1.176 3.078 1.732 7196
-1.178 3.082 1.722 7284
-1.182 3.093 1.716 6824
-1.186 3.104 1.710 6454
-1.178 3.081 1.687 6911
-1.187 3.106 1.688 7535
-1.191 3.117 1.682 6826
-1.190 3.114 1.669 3192
-1.269 3.320 1.759 2235
-1.273 3.331 1.752 2287
-1.246 3.261 1.705 3478
-1.266 3.313 1.718 4703
-1.268 3.317 1.708 6068
-1.269 3.321 1.698 5999
-1.268 3.319 1.684 4919
-1.314 3.438 1.728 5999
-1.318 3.449 1.721 6529
-1.320 3.453 1.710 5310
-1.319 3.451 1.696 4052
-1.357 3.550 1.729 4441
-1.359 3.555 1.718 5197
-1.389 3.634 1.741 5044
-1.383 3.618 1.720 4963
-1.371 3.588 1.694 5500
-1.373 3.592 1.683 5202
-1.430 3.740 1.734 3848
-1.410 3.690 1.699 3783
-1.409 3.687 1.685 3285
-1.461 3.822 1.729 4481
-1.462 3.826 1.717 4663
-1.469 3.844 1.711 4968
-1.471 3.849 1.699 4762
-1.507 3.943 1.723 5960
-1.511 3.954 1.714 5734
-1.505 3.938 1.694 6107
-1.520 3.976 1.695 7064
-1.524 3.988 1.686 8339
-1.526 3.992 1.673 6382
-1.557 4.073 1.690 9859
-1.561 4.084 1.681 9937
-1.565 4.095 1.671 6471
-1.607 4.204 1.697 4697
-1.603 4.194 1.679 5554
-1.618 4.233 1.679 5357
-1.625 4.251 1.671 5161
-1.661 4.347 1.691 4330
-1.668 4.365 1.682 4249
-1.664 4.355 1.664 5547
-1.666 4.359 1.650 6959
-1.668 4.363 1.637 4896
-1.753 4.586 1.698 2143
-1.754 4.590 1.684 2818
-1.759 4.601 1.672 4267
-1.801 4.711 1.693 4831
-1.797 4.701 1.674 5820
-1.804 4.719 1.664 3512
-1.808 4.731 1.652 2224
-1.867 4.884 1.685 2234
-1.871 4.895 1.672 2309
-1.948 5.098 1.719 2276
-1.920 5.024 1.679 2712
-1.916 5.014 1.659 3872
-1.918 5.018 1.644 2816
-2.045 5.350 1.726 3387
-2.049 5.361 1.712 3675
-2.045 5.351 1.691 5193
-2.047 5.355 1.674 5759
-2.051 5.367 1.660 4924
-2.091 5.471 1.672 4868
-2.093 5.475 1.655 3410
-2.193 5.737 1.709 2268
-2.219 5.806 1.709 2239
-2.234 5.846 1.700 3054
-2.239 5.857 1.684 4000
-2.237 5.854 1.664 2457
-2.376 6.218 1.739 2083
-2.378 6.222 1.720 2324
-2.352 6.154 1.682 2036
-2.387 6.245 1.685 1860
-2.490 6.516 1.731 1898
-2.489 6.513 1.709 2403
-2.494 6.524 1.690 2241
-2.498 6.536 1.672 2393
-2.494 6.525 1.648 1876
-2.590 6.775 1.684 1469
-2.630 6.881 1.686 1499
-2.670 6.986 1.688 2301
-2.669 6.983 1.664 2449
-2.665 6.973 1.640 2575
-2.664 6.970 1.616 2375
-2.921 7.641 1.735 2003
-2.922 7.646 1.711 1981
-2.965 7.759 1.710 2185
-3.103 8.119 1.757 3488
-3.105 8.124 1.732 4053
-3.107 8.128 1.707 4005
-3.108 8.132 1.681 4571
-3.110 8.136 1.656 5275
-3.111 8.141 1.631 4949
-3.116 8.152 1.607 4088
-3.114 8.149 1.580 3239
-3.113 8.145 1.554 2290
-3.115 8.149 1.528 1260
-3.351 8.766 1.606 659
-3.352 8.770 1.579 517
-3.354 8.774 1.552 270
-2.618 6.851 1.132 290
-2.619 6.854 1.111 422
-2.620 6.856 1.089 614
-2.616 6.844 1.066 590
-2.614 6.839 1.044 539
-2.615 6.842 1.023 476
-2.315 6.058 0.902 431
-2.316 6.060 0.883 419
-2.314 6.055 0.863 402
-2.933 7.674 1.034 495
-2.934 7.676 1.010 401
-2.626 6.870 0.897 308
-3.396 8.885 0.592 352
-3.394 8.879 0.564 559
-3.391 8.873 0.537 808
-3.389 8.867 0.509 854
-3.395 8.882 0.482 929
-3.404 8.905 0.455 1100
-3.404 8.906 0.427 1090
-3.407 8.914 0.400 1224
-3.407 8.915 0.372 1392
-3.405 8.908 0.344 1547
-3.303 8.643 0.311 1890
-3.301 8.636 0.284 2013
-3.298 8.629 0.257 1871
-3.295 8.621 0.230 1777
-3.292 8.614 0.203 1601
-3.287 8.600 0.177 1637
-3.230 8.452 0.150 1485
-3.227 8.444 0.123 1873
-3.225 8.437 0.097 1797
-3.219 8.422 0.071 1464
-3.267 8.547 0.044 1209
-3.219 8.421 0.019 1050
-3.219 8.421 -0.007 1088
-3.216 8.413 -0.033 1062
-3.213 8.405 -0.059 1094
-3.212 8.405 -0.085 820
-3.167 8.286 -0.108 834
-3.068 8.026 -0.125 804
-3.065 8.018 -0.150 1140
-3.061 8.010 -0.174 1040
-3.058 8.002 -0.199 1004
-3.055 7.993 -0.224 1002
-3.043 7.963 -0.247 1064
-3.043 7.962 -0.272 841
-3.057 7.998 -0.298 685
-3.036 7.945 -0.320 592
-3.036 7.943 -0.345 583
-3.035 7.942 -0.370 581
-2.995 7.837 -0.387 525
-2.998 7.843 -0.412 527
-2.986 7.812 -0.434 486
-2.963 7.752 -0.454 614
-2.956 7.735 -0.477 709
-2.953 7.726 -0.500 832
-2.955 7.732 -0.525 647
-2.960 7.745 -0.550 482
-2.959 7.743 -0.574 482
-2.956 7.733 -0.598 333
-0.781 2.060 1.722 3723
-0.783 2.064 1.716 7446
-0.784 2.068 1.709 7446
-0.788 2.079 1.708 7291
-0.794 2.095 1.711 7511
-0.798 2.105 1.709 5960
-0.825 2.176 1.753 6056
-0.827 2.180 1.746 6056
-0.831 2.191 1.744 5696
-0.842 2.219 1.756 6599
-0.848 2.236 1.758 5998
-0.850 2.240 1.751 5586
-0.851 2.245 1.744 4309
-0.841 2.219 1.715 3561
-0.859 2.266 1.739 3257
-0.863 2.276 1.737 3871
-0.881 2.324 1.761 4455
-0.885 2.334 1.758 5727
-0.887 2.339 1.751 7106
-0.891 2.349 1.748 5914
-0.897 2.366 1.749 5133
-0.899 2.370 1.742 4259
-0.898 2.369 1.731 3425
-0.926 2.442 1.770 3400
-0.925 2.440 1.758 4394
-0.925 2.438 1.747 4416
-0.921 2.430 1.731 4638
-0.921 2.428 1.719 4756
-0.913 2.407 1.695 5206
-0.924 2.436 1.704 5965
-0.926 2.441 1.697 7016
-0.930 2.451 1.694 6517
-0.931 2.455 1.686 6061
-0.957 2.523 1.719 5236
-0.959 2.528 1.711 5561
-0.965 2.545 1.712 4926
-0.971 2.562 1.712 6113
-0.973 2.566 1.704 7556
-0.975 2.570 1.696 6517
-0.988 2.607 1.708 6855
-1.000 2.637 1.716 6684
-1.006 2.654 1.715 7516
-1.008 2.658 1.707 9448
-1.012 2.669 1.703 9891
-1.016 2.679 1.699 8566
-1.020 2.690 1.694 8328
-1.022 2.694 1.686 8176
-1.028 2.712 1.685 6604
-1.045 2.755 1.700 6610
-1.044 2.753 1.687 6835
-1.050 2.770 1.686 6809
-1.055 2.781 1.682 5389
-1.083 2.857 1.713 4372
-1.070 2.822 1.683 3975
-1.074 2.833 1.678 4282
-1.081 2.850 1.676 4317
-1.117 2.947 1.718 4429
-1.139 3.004 1.737 5301
-1.143 3.015 1.732 8106
-1.147 3.026 1.726 9215
-1.152 3.037 1.720 9110
-1.166 3.074 1.728 8666
-1.170 3.085 1.722 8068
-1.177 3.103 1.720 6857
-1.181 3.114 1.714 6596
-1.167 3.078 1.684 6522
-1.184 3.122 1.694 7672
-1.186 3.126 1.685 7108
-1.185 3.124 1.672 3187
-1.263 3.330 1.762 1901
-1.231 3.247 1.709 2429
-1.235 3.258 1.702 3848
-1.260 3.323 1.721 4351
-1.259 3.320 1.708 5115
-1.258 3.318 1.695 4786
-1.260 3.322 1.684 4075
-1.305 3.441 1.728 5458
-1.307 3.446 1.718 6079
-1.308 3.450 1.707 5606
-1.313 3.461 1.699 4824
-1.348 3.554 1.729 3994
-1.352 3.565 1.721 4775
-1.377 3.631 1.738 5001
-1.371 3.615 1.717 5114
-1.365 3.598 1.697 4969
-1.361 3.589 1.680 4553
-1.420 3.744 1.734 3598
-1.401 3.693 1.699 3867
-1.439 3.794 1.729 3424
-1.451 3.826 1.729 5040
-1.455 3.837 1.720 5437
-1.462 3.855 1.713 5290
-1.492 3.936 1.733 5189
-1.497 3.947 1.723 6828
-1.501 3.958 1.714 6207
-1.495 3.941 1.694 6482
-1.510 3.980 1.695 6966
-1.514 3.992 1.686 7980
-1.536 4.051 1.695 6087
-1.546 4.077 1.690 10619
-1.550 4.088 1.681 10865
-1.554 4.099 1.671 6938
-1.596 4.208 1.697 4181
-1.595 4.205 1.682 5015
-1.610 4.244 1.681 4814
-1.614 4.256 1.671 4487
-1.647 4.344 1.688 3814
-1.654 4.362 1.680 3771
-1.653 4.359 1.664 5714
-1.655 4.363 1.650 6842
-1.656 4.368 1.637 4577
-1.741 4.590 1.698 2567
-1.742 4.594 1.684 3440
-1.747 4.606 1.672 4922
-1.788 4.716 1.693 5748
-1.787 4.713 1.677 6390
-1.794 4.731 1.667 4042
-1.799 4.742 1.654 2522
-1.851 4.881 1.683 2543
-1.858 4.900 1.672 2307
-1.941 5.117 1.724 2086
-1.904 5.022 1.677 2805
-1.906 5.026 1.661 3799
-1.908 5.030 1.646 2807
-2.031 5.355 1.726 3664
-2.032 5.359 1.710 3646
-2.031 5.356 1.691 4730
-2.033 5.361 1.674 5440
-2.040 5.379 1.662 4712
-2.080 5.483 1.674 5134
-2.081 5.488 1.657 3540
-2.175 5.735 1.707 2341
-2.204 5.811 1.709 1746
-2.219 5.852 1.700 3098
-2.221 5.856 1.682 4252
-2.220 5.853 1.662 2608
-2.363 6.231 1.741 2167
-2.367 6.243 1.723 2472
-2.339 6.168 1.684 2209
-2.371 6.251 1.685 1971
-2.476 6.529 1.733 2193
-2.472 6.519 1.709 2462
-2.477 6.531 1.690 2168
-2.481 6.542 1.672 2145
-2.474 6.525 1.647 1746
-2.575 6.789 1.686 1755
-2.609 6.880 1.685 1813
-2.608 6.877 1.662 2519
-2.654 6.998 1.666 2210
-2.647 6.980 1.640 2252
-2.643 6.969 1.615 2202
-2.901 7.649 1.735 2148
-2.905 7.661 1.713 2180
-2.948 7.774 1.711 2389
-3.082 8.127 1.757 2738
-3.084 8.132 1.732 3320
-3.085 8.136 1.707 3253
-3.087 8.140 1.681 3716
-3.089 8.144 1.656 4434
-3.201 8.440 1.684 4108
-3.205 8.452 1.660 3821
-3.207 8.456 1.633 3072
-3.206 8.453 1.606 2096
-3.096 8.164 1.529 1164
-3.100 8.175 1.505 759
-3.329 8.779 1.579 507
-3.334 8.790 1.553 280
-2.604 6.868 1.112 294
-2.603 6.863 1.089 443
-2.598 6.851 1.066 445
-2.596 6.846 1.044 415
-2.299 6.062 0.920 420
-2.300 6.064 0.902 434
-2.301 6.066 0.883 420
-2.301 6.068 0.864 358
-2.913 7.682 1.034 336
-2.914 7.684 1.010 293
-3.373 8.894 0.592 320
-3.373 8.895 0.565 483
-3.371 8.889 0.537 690
-3.369 8.883 0.509 746
-3.377 8.906 0.482 859
-3.381 8.914 0.455 1045
-3.322 8.760 0.422 1079
-3.381 8.916 0.399 1161
-3.275 8.635 0.364 1504
-3.278 8.643 0.338 1952
-3.281 8.651 0.311 2368
-3.281 8.652 0.284 2272
-3.278 8.645 0.257 1838
-3.270 8.623 0.230 1570
-3.267 8.615 0.203 1643
-3.262 8.601 0.177 1832
-3.211 8.468 0.150 1563
-3.208 8.460 0.123 1913
-3.203 8.445 0.097 1827
-3.200 8.438 0.071 1469
-3.205 8.452 0.045 1022
-3.129 8.252 0.021 1012
-3.127 8.244 -0.004 1124
-3.197 8.429 -0.034 1027
-3.194 8.421 -0.060 1089
-3.191 8.413 -0.085 814
-3.148 8.301 -0.108 893
-3.047 8.034 -0.125 903
-3.044 8.026 -0.150 1285
-3.041 8.018 -0.174 1178
-3.038 8.010 -0.199 1146
-3.034 8.001 -0.224 1129
-3.023 7.971 -0.247 1212
-3.022 7.970 -0.272 964
-3.036 8.005 -0.298 774
-3.019 7.960 -0.321 678
-2.971 7.833 -0.338 670
-2.970 7.832 -0.362 667
-2.975 7.845 -0.387 657
-2.977 7.851 -0.412 665
-2.966 7.820 -0.434 608
-2.943 7.759 -0.454 758
-2.936 7.743 -0.477 873
-2.936 7.741 -0.501 1029
-2.935 7.739 -0.525 811
-2.940 7.752 -0.550 610
-2.939 7.750 -0.574 610
-2.936 7.741 -0.598 427
-2.885 7.606 -0.609 320
-2.847 7.508 -0.622 261
-2.794 7.366 -0.631 312
-2.793 7.364 -0.654 312
-0.777 2.068 1.727 4227
-0.779 2.072 1.720 8455
-0.780 2.077 1.714 8455
-0.784 2.087 1.712 8227
-0.786 2.091 1.706 8034
-0.790 2.102 1.704 6412
-0.816 2.172 1.748 6632
-0.818 2.177 1.742 6632
-0.824 2.193 1.744 5982
-0.835 2.222 1.756 6422
-0.841 2.239 1.758 5725
-0.845 2.249 1.755 5280
-0.844 2.247 1.744 4198
-0.835 2.221 1.715 3737
-0.852 2.268 1.739 3412
-0.856 2.279 1.737 4006
-0.872 2.320 1.756 4402
-0.876 2.331 1.753 5574
-0.880 2.341 1.751 6841
-0.881 2.346 1.744 5597
-0.888 2.363 1.745 4582
-0.889 2.367 1.738 3452
-0.917 2.440 1.778 2994
-0.918 2.444 1.770 3720
-0.918 2.443 1.758 4480
-0.917 2.441 1.747 4163
-0.914 2.433 1.731 4109
-0.913 2.431 1.719 4307
-0.905 2.410 1.695 4988
-0.914 2.433 1.700 5566
-0.944 2.513 1.742 6549
-0.922 2.454 1.694 6108
-0.924 2.458 1.686 5736
-0.949 2.526 1.719 5468
-0.951 2.530 1.711 5985
-0.957 2.548 1.712 5297
-0.961 2.558 1.708 6180
-0.965 2.569 1.704 7504
-0.969 2.580 1.700 6394
-0.983 2.616 1.712 7376
-0.992 2.640 1.716 7023
-0.998 2.657 1.715 7449
-1.000 2.661 1.707 9417
-1.004 2.672 1.703 9933
-1.008 2.683 1.699 8696
-1.012 2.693 1.694 8506
-1.016 2.704 1.690 8396
-1.020 2.715 1.685 6796
-1.036 2.758 1.700 6613
-1.035 2.756 1.687 6270
-1.042 2.773 1.686 6204
-1.044 2.777 1.678 4870
-1.080 2.873 1.721 4058
-1.091 2.904 1.727 3780
-1.070 2.849 1.685 3939
-1.072 2.853 1.676 4605
-1.076 2.864 1.671 5018
-1.135 3.020 1.745 5369
-1.134 3.018 1.732 8280
-1.138 3.029 1.726 9802
-1.142 3.040 1.720 10032
-1.156 3.078 1.728 10065
-1.158 3.082 1.719 8936
-1.170 3.113 1.723 6764
-1.174 3.124 1.717 6852
-1.178 3.135 1.711 6567
-1.177 3.133 1.698 7905
-1.176 3.130 1.685 7256
-1.183 3.148 1.682 3197
-1.222 3.253 1.722 2239
-1.221 3.250 1.709 3383
-1.223 3.255 1.699 4553
-1.265 3.367 1.741 4308
-1.279 3.405 1.747 4923
-1.276 3.396 1.730 5053
-1.280 3.407 1.723 4436
-1.289 3.432 1.722 5033
-1.294 3.443 1.714 5612
-1.300 3.461 1.710 5929
-1.302 3.465 1.699 5693
-1.306 3.476 1.692 4013
-1.341 3.569 1.721 4090
-1.361 3.621 1.731 4688
-1.360 3.619 1.717 4830
-1.356 3.609 1.700 4386
-1.347 3.586 1.677 3945
-1.411 3.755 1.737 3376
-1.418 3.773 1.731 3846
-1.425 3.792 1.726 3688
-1.442 3.837 1.731 5226
-1.446 3.848 1.722 5857
-1.455 3.873 1.719 5476
-1.478 3.933 1.730 6245
-1.485 3.951 1.723 7797
-1.489 3.963 1.714 6739
-1.480 3.939 1.691 6922
-1.495 3.978 1.692 6644
-1.501 3.996 1.686 7151
-1.529 4.070 1.700 6425
-1.533 4.081 1.690 10886
-1.538 4.093 1.681 11466
-1.542 4.104 1.671 7217
-1.583 4.213 1.697 3649
-1.582 4.210 1.682 4343
-1.607 4.277 1.692 4580
-1.630 4.338 1.699 4643
-1.631 4.342 1.686 4039
-1.636 4.353 1.675 3851
-1.640 4.364 1.664 5635
-1.641 4.368 1.650 6394
-1.646 4.380 1.639 4004
-1.727 4.595 1.698 2942
-1.728 4.600 1.684 4022
-1.732 4.611 1.672 5237
-1.774 4.721 1.693 6288
-1.775 4.725 1.679 6723
-1.780 4.737 1.667 4490
-1.784 4.748 1.654 2884
-1.833 4.880 1.680 2767
-1.843 4.905 1.672 2189
-1.930 5.137 1.728 2047
-1.886 5.020 1.675 2658
-1.891 5.032 1.661 3459
-1.892 5.036 1.646 2581
-2.014 5.361 1.726 3823
-2.013 5.358 1.708 3589
-2.015 5.363 1.691 4581
-2.019 5.374 1.676 5693
-2.029 5.400 1.666 4960
-2.063 5.490 1.674 4665
-2.064 5.494 1.657 3259
-2.031 5.405 1.614 2288
-2.086 5.552 1.636 1863
-2.201 5.858 1.700 2966
-2.203 5.863 1.682 4038
-2.199 5.852 1.660 2603
-2.344 6.238 1.741 2064
-2.348 6.250 1.723 2460
-2.323 6.182 1.686 2246
-2.354 6.266 1.686 2025
-2.456 6.537 1.733 2405
-2.455 6.534 1.711 2452
-2.457 6.538 1.690 2080
-2.461 6.550 1.672 1993
-2.454 6.532 1.647 1671
-2.589 6.891 1.708 1812
-2.588 6.888 1.685 2075
-2.587 6.885 1.662 2637
-2.580 6.868 1.636 2018
-2.626 6.988 1.640 1815
-2.624 6.985 1.616 1861
-2.877 7.658 1.735 2197
-2.882 7.669 1.713 2256
-2.927 7.790 1.713 2559
-2.937 7.816 1.693 3036
-3.059 8.141 1.732 2495
-3.170 8.437 1.763 2676
-3.172 8.442 1.737 3272
-3.173 8.446 1.711 3847
-3.175 8.450 1.684 4177
-3.179 8.462 1.660 3918
-3.181 8.466 1.633 3012
-3.180 8.463 1.606 1919
-3.181 8.466 1.580 1093
-3.301 8.785 1.606 629
-3.184 8.474 1.527 468
-3.185 8.478 1.501 312
-2.582 6.871 1.089 336
-2.577 6.859 1.066 309
-2.280 6.067 0.939 317
-2.280 6.069 0.920 352
-2.281 6.071 0.902 368
-2.282 6.073 0.883 349
-2.283 6.075 0.864 286
-3.346 8.906 0.565 359
-3.344 8.899 0.537 531
-3.341 8.893 0.509 572
-3.350 8.916 0.482 638
-3.353 8.925 0.455 728
-3.295 8.770 0.422 838
-3.251 8.652 0.391 1117
-3.248 8.645 0.364 1461
-3.251 8.653 0.338 1809
-3.251 8.654 0.311 2055
-3.249 8.647 0.284 1961
-3.249 8.647 0.257 1848
-3.249 8.647 0.230 1735
-3.244 8.633 0.203 1673
-3.238 8.618 0.177 1844
-3.232 8.603 0.150 1521
-3.182 8.470 0.123 1864
-3.177 8.455 0.097 1793
-3.174 8.447 0.071 1491
-3.177 8.455 0.045 1078
-3.174 8.447 0.019 1020
-3.101 8.254 -0.004 1110
-3.171 8.439 -0.034 961
-3.168 8.431 -0.060 1000
-3.165 8.423 -0.085 757
-3.123 8.311 -0.108 895
-3.022 8.044 -0.125 961
-3.019 8.036 -0.150 1383
-3.016 8.027 -0.174 1294
-3.013 8.019 -0.199 1281
-3.010 8.011 -0.224 1218
-2.998 7.980 -0.247 1300
-2.998 7.979 -0.272 1037
-3.011 8.015 -0.298 839
-2.994 7.969 -0.321 736
-2.946 7.842 -0.338 730
-2.946 7.841 -0.362 728
-2.951 7.854 -0.387 726
-2.953 7.860 -0.412 748
-2.942 7.829 -0.434 696
-2.919 7.768 -0.454 864
-2.915 7.759 -0.478 1007
-2.912 7.750 -0.501 1203
-2.911 7.748 -0.525 956
-2.916 7.761 -0.550 738
-2.915 7.759 -0.574 738
-2.915 7.757 -0.598 525
-2.861 7.615 -0.609 380
-2.772 7.377 -0.608 325
-2.771 7.375 -0.631 390
-2.770 7.373 -0.654 390
-0.781 2.087 1.741 4913
-0.782 2.092 1.734 9826
-0.784 2.096 1.728 9826
-0.783 2.094 1.717 8987
-0.783 2.093 1.706 8310
-0.811 2.169 1.755 6818
-0.813 2.174 1.748 7351
-0.815 2.178 1.742 7351
-0.818 2.188 1.740 6615
-0.829 2.217 1.751 6581
-0.835 2.234 1.753 5536
-0.842 2.250 1.755 5073
-0.843 2.255 1.749 4115
-0.831 2.222 1.715 3899
-0.847 2.264 1.735 3551
-0.850 2.274 1.732 4061
-0.866 2.315 1.752 4327
-0.872 2.332 1.753 5335
-0.874 2.337 1.746 6494
-0.878 2.347 1.744 5351
-0.882 2.358 1.741 4303
-0.881 2.356 1.729 2951
-0.913 2.441 1.778 3398
-0.915 2.446 1.770 3983
-0.916 2.450 1.763 4567
-0.916 2.448 1.751 3930
-0.910 2.434 1.731 3440
-0.907 2.426 1.715 3774
-0.902 2.411 1.695 4743
-0.910 2.434 1.700 5164
-0.940 2.515 1.742 6580
-0.918 2.455 1.694 5718
-0.922 2.466 1.690 5390
-0.945 2.528 1.719 5691
-0.949 2.538 1.715 6295
-0.953 2.549 1.712 5531
-0.960 2.566 1.712 6080
-0.961 2.570 1.704 7237
-0.972 2.600 1.712 6254
-0.981 2.624 1.716 7715
-0.988 2.641 1.716 7306
-0.994 2.658 1.715 7362
-0.996 2.663 1.707 9370
-1.000 2.673 1.703 9962
-1.004 2.684 1.699 8813
-1.008 2.695 1.694 8438
-1.012 2.706 1.690 8196
-1.043 2.788 1.727 7242
-1.044 2.792 1.718 6871
-1.041 2.784 1.702 5611
-1.040 2.781 1.690 5599
-1.039 2.779 1.678 4231
-1.083 2.895 1.732 4061
-1.089 2.912 1.730 4049
-1.069 2.857 1.689 4073
-1.070 2.862 1.680 5201
-1.072 2.866 1.671 5749
-1.133 3.029 1.748 5427
-1.132 3.027 1.735 8232
-1.136 3.037 1.729 10046
-1.140 3.048 1.724 10822
-1.149 3.073 1.725 11352
-1.153 3.084 1.719 9889
-1.165 3.115 1.723 6606
-1.171 3.132 1.720 7278
-1.176 3.143 1.714 7595
-1.175 3.141 1.701 8147
-1.174 3.139 1.688 7142
-1.178 3.150 1.682 3215
-1.217 3.255 1.722 2848
-1.216 3.252 1.709 4275
-1.218 3.257 1.699 5406
-1.219 3.261 1.689 4525
-1.272 3.400 1.744 4977
-1.271 3.398 1.730 5442
-1.272 3.402 1.720 4984
-1.279 3.420 1.715 5281
-1.286 3.438 1.711 5314
-1.295 3.463 1.710 6218
-1.299 3.474 1.703 6440
-1.303 3.485 1.695 4492
-1.359 3.633 1.749 3858
-1.342 3.589 1.716 4363
-1.354 3.621 1.717 4174
-1.353 3.618 1.703 3882
-1.339 3.581 1.674 3296
-1.405 3.757 1.737 3043
-1.412 3.776 1.731 4121
-1.416 3.787 1.723 4028
-1.438 3.846 1.734 5056
-1.443 3.858 1.725 5907
-1.457 3.896 1.728 5477
-1.472 3.935 1.730 7335
-1.479 3.954 1.723 8682
-1.480 3.958 1.711 7278
-1.477 3.948 1.694 7210
-1.483 3.966 1.687 6255
-1.495 3.999 1.686 6059
-1.526 4.079 1.703 6312
-1.527 4.084 1.690 10657
-1.531 4.095 1.681 11739
-1.536 4.106 1.671 7478
-1.548 4.138 1.668 3321
-1.602 4.282 1.708 3871
-1.603 4.287 1.694 4561
-1.623 4.340 1.699 4592
-1.622 4.337 1.683 4605
-1.626 4.349 1.672 4407
-1.630 4.360 1.661 5428
-1.635 4.371 1.650 5765
-1.641 4.389 1.642 3377
-1.722 4.605 1.701 3417
-1.721 4.602 1.684 4617
-1.725 4.614 1.672 5244
-1.769 4.731 1.696 6383
-1.768 4.728 1.679 6788
-1.775 4.747 1.669 4882
-1.777 4.751 1.654 3273
-1.823 4.876 1.678 2968
-1.785 4.773 1.629 2054
-1.874 5.012 1.688 2009
-1.876 5.016 1.672 3129
-1.859 4.971 1.642 4000
-1.860 4.975 1.626 3219
-2.006 5.364 1.726 3738
-2.002 5.354 1.705 3574
-2.007 5.366 1.691 4543
-2.016 5.391 1.681 6628
-2.020 5.403 1.666 5484
-2.057 5.500 1.676 3542
-2.058 5.504 1.659 2778
-2.022 5.408 1.614 2511
-2.075 5.548 1.634 2240
-2.189 5.855 1.698 2646
-2.188 5.852 1.678 3631
-2.185 5.841 1.656 2568
-2.337 6.249 1.743 1908
-2.339 6.253 1.723 2295
-2.316 6.193 1.688 2404
-2.347 6.276 1.688 1907
-2.446 6.541 1.733 2474
-2.448 6.545 1.712 2323
-2.447 6.542 1.690 1850
-2.494 6.669 1.699 1756
-2.580 6.898 1.731 1768
-2.579 6.895 1.708 2305
-2.580 6.900 1.686 2327
-2.576 6.889 1.662 2587
-2.573 6.879 1.637 2017
-2.696 7.210 1.687 2474
-2.698 7.214 1.664 2347
-2.865 7.662 1.735 2026
-2.873 7.681 1.714 2112
-2.918 7.802 1.714 2573
-2.925 7.821 1.693 3348
-2.929 7.832 1.670 2644
-3.007 8.041 1.685 2405
-3.159 8.446 1.737 2896
-3.160 8.451 1.711 3505
-3.162 8.455 1.684 3974
-3.164 8.459 1.658 3827
-3.168 8.471 1.633 2849
-3.169 8.475 1.607 1638
-3.168 8.471 1.580 976
-3.170 8.475 1.553 671
-3.168 8.472 1.526 536
-3.167 8.468 1.498 335
-2.268 6.065 0.919 294
-2.272 6.075 0.902 272
-2.273 6.077 0.883 252
-3.330 8.903 0.564 330
-3.330 8.905 0.537 456
-3.330 8.906 0.509 477
-3.339 8.929 0.483 514
-3.339 8.930 0.455 541
-3.282 8.775 0.422 702
-3.235 8.650 0.391 912
-3.235 8.650 0.364 1227
-3.238 8.658 0.338 1581
-3.238 8.659 0.311 2050
-3.238 8.659 0.284 2131
-3.236 8.652 0.257 1837
-3.236 8.652 0.230 1550
-3.233 8.645 0.203 1378
-3.225 8.623 0.177 1364
-3.175 8.490 0.150 1343
-3.169 8.475 0.123 1662
-3.164 8.460 0.097 1581
-3.161 8.452 0.071 1316
-3.205 8.571 0.044 1159
-3.161 8.452 0.019 925
-3.089 8.259 -0.004 1044
-3.086 8.251 -0.030 892
-3.155 8.436 -0.060 899
-3.082 8.242 -0.080 710
-3.107 8.308 -0.108 851
-3.010 8.048 -0.125 998
-3.010 8.048 -0.150 1440
-3.004 8.032 -0.174 1368
-3.001 8.024 -0.199 1368
-3.000 8.023 -0.224 1275
-2.986 7.985 -0.247 1352
-2.986 7.984 -0.272 1091
-2.999 8.019 -0.298 878
-2.982 7.974 -0.321 778
-2.934 7.847 -0.338 794
-2.934 7.845 -0.362 791
-2.939 7.859 -0.387 792
-2.941 7.865 -0.412 823
-2.929 7.833 -0.434 779
-2.910 7.780 -0.455 969
-2.903 7.764 -0.478 1143
-2.900 7.754 -0.501 1370
-2.899 7.753 -0.525 1086
-2.904 7.766 -0.550 828
-2.903 7.764 -0.574 828
-2.903 7.762 -0.598 579
-2.849 7.619 -0.609 419
-2.760 7.381 -0.608 377
-2.760 7.379 -0.631 452
-2.759 7.377 -0.654 452
-0.774 2.090 1.741 5599
-0.776 2.094 1.734 11198
-0.778 2.098 1.728 11198
-0.777 2.097 1.717 9657
-0.776 2.095 1.706 8437
-0.805 2.172 1.755 7538
-0.806 2.176 1.748 8175
-0.808 2.180 1.742 8175
-0.812 2.191 1.740 7497
-0.818 2.207 1.742 7265
-0.822 2.218 1.740 5759
-0.835 2.253 1.755 4750
-0.825 2.227 1.726 4223
-0.824 2.225 1.715 4318
-0.840 2.266 1.735 3789
-0.844 2.277 1.732 4240
-0.859 2.318 1.752 4231
-0.863 2.329 1.749 5009
-0.867 2.339 1.746 6028
-0.868 2.344 1.739 5107
-0.872 2.354 1.736 4249
-0.872 2.352 1.725 3023
-0.903 2.438 1.773 3758
-0.907 2.449 1.770 4172
-0.909 2.453 1.763 4637
-0.911 2.457 1.755 3734
-0.912 2.462 1.748 2831
-0.893 2.410 1.703 3365
-0.895 2.414 1.695 4459
-0.929 2.507 1.746 5057
-0.935 2.524 1.746 6677
-0.935 2.522 1.735 5929
-0.943 2.545 1.739 5354
-0.938 2.530 1.719 6008
-0.942 2.541 1.715 6673
-0.946 2.552 1.712 5714
-0.952 2.569 1.712 5834
-0.954 2.573 1.704 6726
-0.967 2.610 1.716 6128
-0.976 2.633 1.720 7789
-0.980 2.644 1.716 7362
-0.986 2.661 1.715 7107
-0.988 2.666 1.707 9177
-0.992 2.676 1.703 9935
-0.996 2.687 1.699 8929
-1.000 2.698 1.694 8198
-1.004 2.709 1.690 7666
-1.034 2.791 1.727 7758
-1.036 2.795 1.718 7295
-1.042 2.813 1.717 5715
-1.037 2.797 1.697 5158
-1.033 2.789 1.682 3587
-1.074 2.898 1.732 4383
-1.080 2.916 1.730 4349
-1.060 2.861 1.689 4004
-1.059 2.858 1.676 5366
-1.061 2.862 1.667 5963
-1.124 3.032 1.748 5504
-1.123 3.030 1.735 8085
-1.127 3.041 1.729 10142
-1.133 3.059 1.727 11420
-1.140 3.076 1.725 12431
-1.142 3.080 1.715 10940
-1.146 3.091 1.709 6909
-1.165 3.143 1.724 7716
-1.166 3.147 1.714 8522
-1.168 3.151 1.705 8449
-1.164 3.142 1.688 6745
-1.206 3.254 1.732 3458
-1.192 3.218 1.702 3793
-1.207 3.256 1.709 5299
-1.208 3.260 1.699 6317
-1.210 3.264 1.689 4979
-1.259 3.397 1.740 4741
-1.258 3.395 1.727 5519
-1.260 3.399 1.716 5428
-1.266 3.417 1.712 5786
-1.270 3.428 1.705 5304
-1.287 3.473 1.713 6479
-1.289 3.478 1.703 6990
-1.295 3.496 1.698 4879
-1.343 3.623 1.743 3643
-1.339 3.614 1.725 3872
-1.343 3.625 1.717 3535
-1.345 3.629 1.706 3780
-1.329 3.585 1.674 2816
-1.368 3.693 1.708 3021
-1.401 3.780 1.731 4020
-1.405 3.791 1.723 4053
-1.430 3.857 1.737 4877
-1.431 3.862 1.725 5597
-1.451 3.915 1.733 5532
-1.460 3.940 1.730 8059
-1.467 3.958 1.723 9180
-1.466 3.955 1.708 7697
-1.465 3.953 1.694 7411
-1.469 3.964 1.684 6123
-1.481 3.996 1.683 4724
-1.513 4.084 1.703 6108
-1.518 4.095 1.693 10317
-1.519 4.099 1.681 11993
-1.526 4.118 1.673 7912
-1.535 4.143 1.668 3958
-1.591 4.294 1.710 4112
-1.593 4.299 1.697 4727
-1.608 4.338 1.696 4660
-1.609 4.342 1.683 5141
-1.613 4.353 1.672 4926
-1.617 4.365 1.661 5137
-1.622 4.376 1.650 5039
-1.641 4.429 1.654 2918
-1.708 4.610 1.701 3876
-1.707 4.607 1.684 5078
-1.712 4.619 1.672 4921
-1.755 4.736 1.696 5918
-1.754 4.733 1.679 6405
-1.761 4.752 1.669 5028
-1.762 4.756 1.654 3553
-1.806 4.874 1.676 3179
-1.813 4.892 1.665 2105
-1.859 5.018 1.688 1949
-1.858 5.015 1.670 3356
-1.844 4.976 1.642 3810
-1.846 4.980 1.626 2771
-1.987 5.363 1.724 3233
-1.989 5.367 1.708 3344
-1.999 5.393 1.697 4856
-2.003 5.405 1.683 8186
-2.004 5.409 1.666 6304
-1.993 5.377 1.639 2691
-2.045 5.518 1.661 2353
-2.006 5.414 1.614 2438
-2.058 5.555 1.634 2465
-2.167 5.847 1.694 2371
-2.166 5.844 1.674 3496
-2.164 5.841 1.654 2554
-2.318 6.256 1.743 1591
-2.323 6.268 1.725 1962
-2.297 6.200 1.688 2680
-2.302 6.211 1.670 1903
-2.427 6.548 1.733 2344
-2.428 6.552 1.712 2094
-2.387 6.441 1.665 1826
-2.474 6.677 1.699 1914
-2.557 6.899 1.729 1968
-2.558 6.903 1.708 2648
-2.560 6.907 1.686 2457
-2.559 6.904 1.663 2592
-2.673 7.214 1.709 1999
-2.675 7.218 1.687 3309
-2.676 7.222 1.664 3083
-2.678 7.226 1.642 2605
-2.679 7.230 1.620 2364
-2.897 7.818 1.716 2544
-2.901 7.829 1.693 3416
-2.906 7.841 1.670 2910
-2.983 8.050 1.685 2281
-2.987 8.061 1.662 2437
-3.135 8.460 1.711 3006
-3.137 8.464 1.684 3670
-3.138 8.469 1.658 3781
-3.140 8.473 1.632 2701
-2.916 7.869 1.500 1284
-3.284 8.862 1.645 788
-3.142 8.477 1.552 713
-3.140 8.474 1.525 635
-3.139 8.470 1.497 407
-3.306 8.922 0.537 292
-3.312 8.938 0.510 303
-3.310 8.931 0.482 367
-3.255 8.784 0.449 407
-3.255 8.785 0.422 577
-3.209 8.659 0.391 749
-3.209 8.660 0.364 980
-3.212 8.668 0.338 1288
-3.212 8.668 0.311 1794
-3.210 8.661 0.284 1964
-3.210 8.662 0.257 1678
-3.210 8.662 0.230 1391
-3.205 8.647 0.203 1180
-3.155 8.514 0.176 1209
-3.152 8.507 0.150 1224
-3.147 8.492 0.123 1311
-3.139 8.469 0.097 1247
-3.136 8.462 0.071 1148
-3.177 8.573 0.044 997
-3.138 8.469 0.019 862
-3.064 8.268 -0.004 972
-3.061 8.260 -0.030 827
-3.130 8.445 -0.060 782
-3.058 8.252 -0.080 667
-3.085 8.325 -0.108 804
-2.983 8.050 -0.125 982
-2.986 8.056 -0.150 1424
-2.980 8.041 -0.174 1376
-2.977 8.033 -0.199 1391
-2.976 8.032 -0.224 1280
-2.962 7.993 -0.247 1333
-2.962 7.992 -0.272 1089
-2.978 8.036 -0.299 901
-2.958 7.983 -0.321 780
-2.911 7.855 -0.338 810
-2.911 7.854 -0.362 806
-2.918 7.875 -0.388 817
-2.918 7.873 -0.412 861
-2.909 7.850 -0.435 806
-2.886 7.789 -0.455 972
-2.880 7.772 -0.478 1174
-2.877 7.763 -0.501 1430
-2.879 7.769 -0.526 1159
-2.881 7.774 -0.550 921
-2.880 7.772 -0.574 921
-2.880 7.770 -0.598 660
-2.827 7.628 -0.609 467
-2.790 7.530 -0.622 459
-2.740 7.395 -0.632 511
-2.740 7.392 -0.655 511
-2.739 7.390 -0.677 255
-0.768 2.092 1.741 6164
-0.770 2.096 1.734 12328
-0.771 2.101 1.728 12328
-0.771 2.099 1.717 10176
-0.770 2.097 1.706 8494
-0.798 2.174 1.755 8184
-0.800 2.178 1.748 8936
-0.802 2.183 1.742 8936
-0.805 2.193 1.740 8411
-0.811 2.210 1.742 8137
-0.813 2.214 1.735 6391
-0.817 2.225 1.733 4735
-0.816 2.223 1.722 4827
-0.816 2.221 1.711 5017
-0.831 2.262 1.730 4087
-0.835 2.273 1.728 4601
-0.836 2.277 1.721 4566
-0.856 2.331 1.749 4738
-0.860 2.342 1.746 5569
-0.862 2.346 1.739 5045
-0.863 2.351 1.732 4520
-0.865 2.355 1.725 3531
-0.896 2.441 1.773 4114
-0.898 2.445 1.766 4410
-0.902 2.456 1.763 4734
-0.903 2.460 1.755 3608
-0.875 2.383 1.693 2610
-0.911 2.482 1.748 3261
-0.915 2.492 1.745 4207
-0.921 2.509 1.746 5356
-0.928 2.526 1.746 6909
-0.927 2.524 1.735 6271
-0.936 2.548 1.739 5661
-0.933 2.540 1.723 6412
-0.934 2.544 1.715 7035
-0.940 2.561 1.716 5910
-0.944 2.572 1.712 5541
-0.946 2.576 1.704 6059
-0.962 2.619 1.720 6022
-0.968 2.636 1.720 7839
-0.972 2.647 1.716 7342
-0.974 2.651 1.708 6910
-0.980 2.668 1.707 8880
-0.984 2.679 1.703 9843
-0.988 2.690 1.699 9069
-0.994 2.707 1.698 7968
-0.996 2.712 1.690 7060
-1.028 2.801 1.731 8119
-1.030 2.805 1.722 7868
-1.034 2.816 1.717 6507
-1.036 2.820 1.709 5351
-1.052 2.864 1.722 3839
-1.065 2.901 1.732 4673
-1.069 2.912 1.727 4702
-1.076 2.930 1.725 4290
-1.051 2.861 1.676 5296
-1.052 2.865 1.667 5966
-1.051 2.863 1.655 5575
-1.116 3.040 1.739 7846
-1.118 3.044 1.729 10025
-1.127 3.069 1.731 11898
-1.131 3.080 1.725 13029
-1.132 3.084 1.715 11742
-1.134 3.088 1.706 7763
-1.155 3.146 1.724 7842
-1.157 3.150 1.714 9099
-1.158 3.155 1.705 8546
-1.158 3.152 1.692 6197
-1.196 3.258 1.732 4357
-1.183 3.221 1.702 5216
-1.194 3.253 1.706 6386
-1.198 3.264 1.699 7166
-1.200 3.268 1.689 5238
-1.246 3.394 1.737 4374
-1.245 3.392 1.724 5251
-1.247 3.396 1.713 5700
-1.256 3.421 1.712 6291
-1.260 3.432 1.705 5433
-1.277 3.477 1.713 6676
-1.278 3.482 1.703 7289
-1.285 3.499 1.698 5133
-1.327 3.613 1.736 3416
-1.331 3.625 1.728 3496
-1.335 3.636 1.720 3496
-1.339 3.647 1.712 4533
-1.346 3.665 1.707 3802
-1.355 3.690 1.705 3576
-1.395 3.798 1.737 3817
-1.394 3.795 1.723 3820
-1.421 3.869 1.740 4758
-1.420 3.866 1.725 4975
-1.442 3.926 1.736 5740
-1.451 3.951 1.733 8601
-1.455 3.962 1.723 9475
-1.454 3.960 1.708 8157
-1.453 3.957 1.694 7643
-1.457 3.968 1.684 6029
-1.500 4.084 1.716 4555
-1.504 4.095 1.706 6196
-1.505 4.100 1.693 10478
-1.510 4.111 1.683 12784
-1.514 4.122 1.673 8883
-1.523 4.147 1.668 4953
-1.579 4.299 1.710 3978
-1.583 4.310 1.699 4594
-1.589 4.329 1.691 4919
-1.596 4.347 1.683 5550
-1.600 4.358 1.672 5167
-1.607 4.376 1.664 4755
-1.609 4.381 1.650 4246
-1.693 4.611 1.715 2899
-1.692 4.608 1.698 4451
-1.694 4.612 1.684 5374
-1.693 4.610 1.668 4586
-1.702 4.635 1.660 5405
-1.706 4.646 1.649 6177
-1.747 4.757 1.669 4800
-1.751 4.768 1.657 3560
-1.789 4.872 1.674 3514
-1.793 4.883 1.661 2425
-1.842 5.016 1.686 1770
-1.841 5.013 1.668 3228
-1.829 4.981 1.642 4573
-1.831 4.986 1.626 3174
-1.924 5.240 1.686 2674
-1.984 5.402 1.716 3217
-1.985 5.406 1.699 5631
-1.989 5.418 1.685 9493
-1.991 5.422 1.668 7351
-2.101 5.721 1.734 2882
-1.991 5.423 1.633 2539
-2.035 5.542 1.647 2656
-2.039 5.553 1.632 2550
-2.144 5.839 1.691 2377
-2.146 5.843 1.673 3535
-2.147 5.847 1.654 2479
-2.207 6.010 1.677 1596
-2.280 6.209 1.709 1837
-2.282 6.214 1.689 2853
-2.355 6.413 1.719 2177
-2.357 6.418 1.699 2751
-2.361 6.429 1.681 2886
-2.368 6.448 1.665 2704
-2.454 6.684 1.699 1957
-2.539 6.914 1.731 2242
-2.538 6.911 1.708 3025
-2.539 6.915 1.686 2600
-2.538 6.912 1.663 2404
-2.652 7.222 1.709 2512
-2.653 7.226 1.687 4142
-2.655 7.230 1.664 3813
-2.656 7.234 1.642 3286
-2.661 7.246 1.621 3071
-2.877 7.834 1.717 2423
-2.881 7.845 1.694 3277
-2.882 7.850 1.670 3011
-2.881 7.846 1.644 2217
-2.963 8.070 1.662 2145
-3.110 8.469 1.711 2399
-3.112 8.474 1.684 3371
-3.113 8.478 1.658 3888
-3.112 8.475 1.631 2859
-2.893 7.877 1.500 1394
-3.258 8.872 1.645 822
-3.114 8.479 1.551 733
-3.112 8.476 1.523 716
-3.114 8.480 1.497 471
-3.229 8.793 0.449 280
-3.229 8.794 0.422 400
-3.183 8.669 0.391 592
-3.183 8.669 0.364 764
-3.186 8.677 0.338 1001
-3.187 8.678 0.311 1384
-3.184 8.671 0.284 1512
-3.184 8.671 0.257 1228
-3.184 8.672 0.230 944
-3.176 8.649 0.203 974
-3.130 8.523 0.176 1107
-3.127 8.516 0.150 1156
-3.122 8.501 0.123 1311
-3.116 8.486 0.097 1223
-3.113 8.478 0.071 1037
-3.116 8.486 0.045 798
-3.042 8.285 0.021 738
-3.039 8.277 -0.004 853
-3.036 8.269 -0.030 729
-3.036 8.269 -0.055 628
-3.003 8.179 -0.078 591
-3.060 8.334 -0.108 703
-2.962 8.066 -0.125 925
-2.962 8.065 -0.150 1363
-2.959 8.057 -0.175 1339
-2.956 8.049 -0.199 1373
-2.952 8.040 -0.224 1234
-2.938 8.002 -0.247 1270
-2.938 8.001 -0.272 1050
-2.954 8.045 -0.299 858
-2.934 7.991 -0.321 741
-2.888 7.864 -0.338 794
-2.890 7.870 -0.362 790
-2.895 7.883 -0.388 813
-2.894 7.882 -0.412 865
-2.886 7.858 -0.435 840
-2.863 7.797 -0.455 1030
-2.857 7.781 -0.478 1235
-2.854 7.772 -0.501 1503
-2.856 7.777 -0.526 1216
-2.858 7.783 -0.550 944
-2.857 7.781 -0.574 944
-2.856 7.779 -0.598 679
-2.804 7.636 -0.609 516
-2.719 7.405 -0.609 491
-2.716 7.395 -0.631 580
-2.715 7.393 -0.654 580
-2.714 7.391 -0.677 290
-0.763 2.094 1.741 6513
-0.764 2.098 1.734 13027
-0.766 2.102 1.728 13027
-0.765 2.101 1.717 10352
-0.765 2.099 1.706 8284
-0.793 2.176 1.755 8641
-0.797 2.186 1.753 9506
-0.798 2.191 1.746 9506
-0.800 2.195 1.740 9165
-0.804 2.206 1.737 8985
-0.805 2.210 1.731 7035
-0.802 2.202 1.715 5187
-0.808 2.219 1.717 5332
-0.810 2.223 1.711 5578
-0.814 2.234 1.708 4353
-0.829 2.275 1.728 4856
-0.828 2.273 1.717 4808
-0.830 2.277 1.710 4661
-0.852 2.338 1.742 5058
-0.853 2.342 1.735 5050
-0.855 2.346 1.728 5043
-0.859 2.357 1.725 4186
-0.886 2.430 1.765 4480
-0.889 2.441 1.762 4619
-0.893 2.452 1.758 4831
-0.897 2.462 1.755 3461
-0.869 2.385 1.693 2634
-0.905 2.484 1.748 3380
-0.909 2.495 1.745 4634
-0.915 2.512 1.746 5684
-0.919 2.522 1.742 7149
-0.923 2.533 1.739 6632
-0.925 2.538 1.731 6120
-0.929 2.548 1.727 6770
-0.930 2.553 1.719 7375
-0.934 2.563 1.716 6150
-0.940 2.581 1.716 5337
-0.942 2.585 1.708 5456
-0.955 2.621 1.720 5790
-0.961 2.639 1.720 7634
-0.965 2.649 1.716 7093
-0.967 2.654 1.708 6571
-0.973 2.671 1.707 8372
-0.977 2.682 1.703 9576
-0.983 2.699 1.702 9148
-0.987 2.710 1.698 7657
-1.020 2.799 1.739 6745
-1.021 2.803 1.731 7915
-1.023 2.808 1.722 7956
-1.025 2.812 1.714 6828
-1.029 2.823 1.709 5282
-1.042 2.860 1.719 3738
-1.058 2.904 1.732 4368
-1.064 2.921 1.730 4588
-1.071 2.939 1.729 4364
-1.041 2.857 1.673 5248
-1.043 2.861 1.664 5931
-1.042 2.859 1.652 5568
-1.109 3.043 1.739 7545
-1.113 3.054 1.733 9609
-1.119 3.071 1.731 12127
-1.121 3.076 1.721 13259
-1.122 3.080 1.712 12544
-1.117 3.064 1.692 9152
-1.145 3.142 1.720 7712
-1.149 3.153 1.714 9269
-1.151 3.158 1.705 8297
-1.150 3.155 1.692 5475
-1.188 3.260 1.732 5234
-1.175 3.224 1.702 6704
-1.181 3.242 1.699 7485
-1.188 3.260 1.696 7611
-1.192 3.271 1.689 5108
-1.235 3.391 1.734 3810
-1.237 3.395 1.724 4750
-1.239 3.399 1.713 5590
-1.245 3.417 1.709 6548
-1.249 3.428 1.702 5447
-1.268 3.480 1.713 6697
-1.270 3.485 1.703 7352
-1.289 3.537 1.713 5406
-1.290 3.541 1.703 3685
-1.324 3.635 1.731 3631
-1.333 3.660 1.729 4621
-1.333 3.657 1.715 5759
-1.337 3.668 1.707 5022
-1.343 3.686 1.702 4149
-1.385 3.801 1.737 3975
-1.384 3.799 1.723 3685
-1.411 3.872 1.740 4456
-1.410 3.870 1.725 4097
-1.434 3.936 1.739 6173
-1.441 3.955 1.733 8721
-1.445 3.966 1.723 9213
-1.444 3.963 1.708 8439
-1.443 3.961 1.694 7885
-1.445 3.965 1.681 5775
-1.492 4.095 1.718 4692
-1.499 4.113 1.711 6740
-1.498 4.110 1.696 10706
-1.499 4.115 1.683 13671
-1.503 4.126 1.673 10123
-1.510 4.144 1.666 6189
-1.509 4.141 1.650 5624
-1.572 4.314 1.699 4559
-1.576 4.326 1.689 5101
-1.583 4.344 1.681 5661
-1.589 4.362 1.672 5395
-1.596 4.380 1.664 4550
-1.598 4.385 1.650 3591
-1.679 4.608 1.713 3321
-1.681 4.612 1.698 5101
-1.680 4.610 1.682 5707
-1.679 4.607 1.665 4651
-1.688 4.632 1.658 5391
-1.695 4.651 1.649 6584
-1.735 4.761 1.669 4468
-1.739 4.773 1.657 3411
-1.777 4.877 1.674 4021
-1.778 4.881 1.659 2941
-1.811 4.971 1.670 1990
-1.826 5.010 1.666 3079
-1.819 4.993 1.644 4068
-1.818 4.990 1.626 2726
-1.911 5.245 1.686 3229
-1.970 5.407 1.716 3266
-1.972 5.411 1.699 5899
-1.976 5.423 1.685 10041
-1.977 5.427 1.668 7882
-2.010 5.517 1.676 3206
-1.980 5.435 1.635 2720
-2.021 5.547 1.647 2684
-2.023 5.551 1.630 2439
-2.127 5.837 1.689 2621
-2.128 5.841 1.671 3608
-2.130 5.845 1.653 2439
-2.189 6.008 1.676 1649
-2.265 6.215 1.709 1969
-2.266 6.219 1.689 2913
-2.339 6.419 1.719 2778
-2.341 6.423 1.699 3479
-2.347 6.442 1.683 3928
-2.349 6.446 1.663 3557
-2.348 6.443 1.641 2036
-2.521 6.920 1.731 2242
-2.520 6.917 1.708 2855
-2.522 6.921 1.686 2424
-2.521 6.918 1.663 2300
-2.634 7.228 1.709 2924
-2.635 7.233 1.687 4827
-2.637 7.237 1.664 4380
-2.638 7.241 1.642 3805
-2.643 7.252 1.621 3686
-2.857 7.841 1.717 2300
-2.861 7.853 1.694 3162
-2.863 7.857 1.670 3018
-2.859 7.846 1.643 2535
-2.943 8.077 1.662 1770
-3.089 8.477 1.711 1786
-3.090 8.481 1.684 2942
-3.092 8.486 1.658 3789
-3.091 8.482 1.631 3038
-3.087 8.472 1.602 1474
-3.086 8.468 1.575 773
-3.087 8.472 1.548 758
-3.088 8.476 1.522 776
-3.090 8.480 1.496 535
-3.205 8.795 0.422 261
-3.159 8.669 0.391 424
-3.159 8.670 0.364 511
-3.165 8.685 0.338 619
-3.165 8.686 0.311 898
-3.162 8.679 0.284 1039
-3.162 8.679 0.257 871
-3.122 8.568 0.229 860
-3.117 8.553 0.203 877
-3.111 8.538 0.176 1071
-3.108 8.531 0.150 979
-3.100 8.509 0.123 1003
-3.095 8.494 0.097 948
-3.092 8.486 0.071 859
-3.092 8.486 0.045 703
-3.021 8.292 0.021 606
-3.019 8.285 -0.004 703
-3.018 8.284 -0.030 599
-3.016 8.276 -0.055 523
-2.986 8.194 -0.078 516
-3.042 8.349 -0.108 595
-2.942 8.073 -0.125 853
-2.941 8.073 -0.150 1266
-2.938 8.064 -0.175 1266
-2.935 8.056 -0.199 1311
-2.935 8.055 -0.224 1157
-2.918 8.010 -0.247 1150
-2.918 8.008 -0.272 964
-2.934 8.052 -0.299 793
-2.917 8.006 -0.321 682
-2.871 7.879 -0.338 742
-2.870 7.877 -0.362 741
-2.875 7.891 -0.388 775
-2.875 7.889 -0.412 825
-2.866 7.865 -0.435 802
-2.844 7.804 -0.455 1004
-2.838 7.788 -0.478 1201
-2.837 7.786 -0.502 1456
-2.836 7.784 -0.526 1182
-2.838 7.790 -0.550 910
-2.838 7.788 -0.574 910
-2.837 7.786 -0.598 655
-2.788 7.651 -0.609 533
-2.749 7.545 -0.622 500
-2.697 7.402 -0.631 597
-2.696 7.400 -0.654 597
-2.696 7.398 -0.677 298
-0.756 2.096 1.741 6745
-0.757 2.101 1.734 13491
-0.759 2.105 1.728 13491
-0.760 2.109 1.722 10388
-0.782 2.168 1.757 8225
-0.785 2.179 1.755 9031
-0.789 2.189 1.753 10034
-0.791 2.194 1.746 10034
-0.792 2.198 1.740 9896
-0.796 2.209 1.737 9861
-0.795 2.207 1.726 7758
-0.795 2.205 1.715 5845
-0.801 2.222 1.717 5766
-0.802 2.226 1.711 5880
-0.806 2.236 1.708 4553
-0.821 2.278 1.728 4985
-0.820 2.276 1.717 4946
-0.822 2.280 1.710 4867
-0.835 2.316 1.725 4843
-0.843 2.339 1.731 5219
-0.847 2.349 1.728 5799
-0.851 2.360 1.725 4991
-0.873 2.421 1.756 5176
-0.876 2.431 1.753 5095
-0.880 2.442 1.750 5221
-0.880 2.440 1.738 3639
-0.863 2.394 1.697 2712
-0.896 2.487 1.748 3590
-0.900 2.498 1.745 5011
-0.906 2.515 1.746 6008
-0.913 2.532 1.746 7432
-0.914 2.536 1.739 7126
-0.916 2.541 1.731 6821
-0.920 2.551 1.727 7292
-0.924 2.562 1.724 7765
-0.925 2.567 1.716 6470
-0.934 2.590 1.720 5281
-0.933 2.588 1.708 4834
-0.948 2.631 1.724 5522
-0.955 2.648 1.724 7244
-0.954 2.646 1.712 6710
-0.955 2.650 1.704 6181
-0.964 2.674 1.707 7725
-0.970 2.692 1.707 9263
-0.974 2.702 1.702 9177
-0.978 2.713 1.698 7429
-1.010 2.802 1.739 6173
-1.012 2.807 1.731 7293
-1.013 2.811 1.722 7625
-1.015 2.815 1.714 6836
-1.016 2.820 1.705 5206
-1.030 2.857 1.715 3522
-1.048 2.907 1.732 3917
-1.059 2.938 1.738 4342
-1.027 2.850 1.678 4597
-1.029 2.854 1.669 5256
-1.033 2.865 1.664 5888
-1.065 2.956 1.702 5511
-1.098 3.046 1.739 7141
-1.102 3.057 1.733 9155
-1.106 3.069 1.727 12240
-1.110 3.080 1.721 13363
-1.109 3.077 1.708 13360
-1.108 3.075 1.696 10437
-1.132 3.139 1.717 7629
-1.136 3.150 1.711 9240
-1.140 3.162 1.705 7815
-1.175 3.260 1.742 5461
-1.165 3.231 1.715 6445
-1.166 3.235 1.706 8234
-1.170 3.246 1.699 8682
-1.177 3.264 1.696 7722
-1.181 3.275 1.689 4618
-1.221 3.388 1.731 3183
-1.223 3.392 1.720 4085
-1.227 3.404 1.713 5220
-1.233 3.421 1.709 6680
-1.237 3.433 1.702 5504
-1.259 3.492 1.716 6584
-1.260 3.496 1.706 7207
-1.277 3.541 1.713 5645
-1.278 3.546 1.703 3935
-1.317 3.653 1.738 4315
-1.323 3.671 1.732 6362
-1.322 3.669 1.718 7144
-1.324 3.673 1.707 6212
-1.330 3.691 1.702 4836
-1.372 3.806 1.737 4029
-1.376 3.817 1.729 3640
-1.398 3.877 1.740 3986
-1.417 3.930 1.748 3403
-1.423 3.948 1.742 6515
-1.427 3.960 1.733 8272
-1.431 3.971 1.723 8381
-1.428 3.961 1.706 8220
-1.429 3.966 1.694 7928
-1.433 3.977 1.684 5484
-1.480 4.107 1.721 5245
-1.484 4.118 1.711 7923
-1.483 4.116 1.696 11735
-1.485 4.120 1.683 14819
-1.489 4.131 1.673 11686
-1.493 4.142 1.663 7776
-1.495 4.146 1.650 7580
-1.494 4.144 1.635 6118
-1.561 4.331 1.689 5162
-1.565 4.342 1.678 5318
-1.574 4.368 1.672 5177
-1.581 4.386 1.664 4338
-1.582 4.390 1.650 3025
-1.658 4.600 1.708 4062
-1.662 4.611 1.696 5995
-1.664 4.615 1.682 6122
-1.660 4.605 1.663 5134
-1.669 4.631 1.656 5615
-1.678 4.656 1.649 6799
-1.721 4.774 1.671 3899
-1.758 4.878 1.689 3506
-1.760 4.883 1.674 4686
-1.759 4.880 1.656 3755
-1.794 4.977 1.670 2432
-1.798 4.988 1.657 3149
-1.802 4.999 1.644 4021
-1.889 5.240 1.700 3013
-1.890 5.244 1.684 4055
-1.892 5.249 1.667 3981
-1.956 5.425 1.701 5460
-1.957 5.429 1.685 9648
-1.959 5.434 1.668 7742
-1.991 5.524 1.676 4190
-1.972 5.471 1.643 2932
-1.999 5.547 1.645 2443
-2.004 5.558 1.630 2123
-2.107 5.844 1.689 2798
-2.108 5.848 1.671 3605
-2.110 5.852 1.653 2494
-2.168 6.016 1.676 1643
-2.240 6.216 1.707 2169
-2.245 6.227 1.689 2928
-2.317 6.427 1.719 3306
-2.318 6.432 1.699 4141
-2.325 6.450 1.683 4880
-2.327 6.455 1.663 4367
-2.325 6.451 1.641 2550
-2.497 6.929 1.731 2171
-2.496 6.926 1.708 2615
-2.495 6.923 1.685 2278
-2.497 6.927 1.663 2127
-2.609 7.237 1.709 3219
-2.610 7.242 1.687 5273
-2.612 7.246 1.664 4759
-2.616 7.257 1.644 4200
-2.617 7.261 1.621 4214
-2.619 7.265 1.599 2586
-2.834 7.862 1.694 3048
-2.833 7.859 1.669 3095
-2.829 7.849 1.642 2925
-2.831 7.853 1.617 2132
-2.848 7.901 1.601 1731
-3.058 8.485 1.683 2679
-3.060 8.489 1.657 3588
-3.061 8.493 1.631 2910
-3.058 8.482 1.602 1615
-3.056 8.479 1.575 890
-3.055 8.476 1.547 817
-3.059 8.487 1.522 825
-3.060 8.491 1.496 604
-3.064 8.502 1.471 296
-3.131 8.687 0.418 275
-3.131 8.687 0.391 386
-3.134 8.696 0.365 408
-3.132 8.689 0.338 430
-3.129 8.682 0.311 502
-3.130 8.682 0.284 536
-3.095 8.586 0.256 622
-3.095 8.586 0.229 767
-3.092 8.579 0.203 699
-3.082 8.549 0.176 775
-3.079 8.542 0.150 687
-3.076 8.534 0.123 625
-3.065 8.504 0.097 562
-3.060 8.489 0.071 542
-3.063 8.497 0.045 458
-2.993 8.303 0.021 452
-2.990 8.295 -0.004 536
-2.990 8.294 -0.030 466
-2.955 8.197 -0.053 415
-2.957 8.204 -0.078 446
-2.960 8.211 -0.104 488
-2.914 8.084 -0.125 746
-2.914 8.083 -0.150 1115
-2.911 8.075 -0.175 1138
-2.908 8.066 -0.199 1196
-2.907 8.065 -0.224 1039
-2.888 8.012 -0.247 1026
-2.890 8.018 -0.272 869
-2.890 8.017 -0.296 714
-2.889 8.016 -0.321 606
-2.843 7.888 -0.338 647
-2.846 7.894 -0.363 643
-2.848 7.901 -0.388 699
-2.850 7.906 -0.413 761
-2.839 7.875 -0.435 746
-2.817 7.814 -0.455 945
-2.813 7.805 -0.478 1141
-2.810 7.796 -0.502 1390
-2.809 7.794 -0.526 1129
-2.811 7.800 -0.550 872
-2.811 7.798 -0.574 872
-2.810 7.796 -0.598 631
-2.759 7.653 -0.609 511
-2.675 7.421 -0.609 522
-2.671 7.411 -0.631 620
-2.671 7.409 -0.654 620
-2.670 7.407 -0.677 310
-0.753 2.104 1.746 6818
-0.755 2.108 1.739 13636
-0.756 2.113 1.733 13636
-0.756 2.111 1.722 10239
-0.777 2.170 1.757 8528
-0.781 2.180 1.755 9396
-0.784 2.191 1.753 10534
-0.786 2.195 1.746 10534
-0.787 2.200 1.740 10597
-0.791 2.210 1.737 10718
-0.791 2.209 1.726 8570
-0.792 2.213 1.720 6480
-0.794 2.217 1.713 6217
-0.797 2.228 1.711 6102
-0.801 2.238 1.708 4723
-0.816 2.280 1.728 5205
-0.815 2.278 1.717 5178
-0.817 2.282 1.710 5191
-0.821 2.293 1.707 5259
-0.836 2.334 1.726 5584
-0.842 2.351 1.728 6736
-0.848 2.368 1.729 5933
-0.865 2.416 1.752 6153
-0.869 2.427 1.749 6011
-0.873 2.438 1.746 6086
-0.872 2.436 1.734 4636
-0.874 2.440 1.727 3239
-0.891 2.489 1.748 3730
-0.897 2.506 1.749 5132
-0.901 2.517 1.746 6086
-0.907 2.534 1.746 7494
-0.909 2.538 1.739 7464
-0.910 2.543 1.731 7435
-0.914 2.554 1.727 7667
-0.918 2.564 1.724 8059
-0.922 2.575 1.720 6776
-0.930 2.599 1.724 5331
-0.929 2.597 1.712 4437
-0.943 2.633 1.724 5281
-0.946 2.644 1.720 6741
-0.948 2.648 1.712 6260
-0.947 2.646 1.700 5786
-0.958 2.676 1.707 6898
-0.964 2.694 1.707 8686
-0.970 2.711 1.706 8967
-0.972 2.715 1.698 7238
-0.974 2.720 1.690 5508
-1.006 2.809 1.731 6389
-1.005 2.807 1.718 7070
-1.006 2.811 1.710 6642
-1.008 2.815 1.701 5319
-1.009 2.820 1.693 3425
-1.025 2.864 1.706 3637
-1.055 2.947 1.741 3733
-1.019 2.846 1.674 4941
-1.023 2.856 1.669 5503
-1.026 2.867 1.664 6021
-1.061 2.965 1.705 5898
-1.091 3.049 1.739 6600
-1.095 3.060 1.733 8506
-1.099 3.071 1.727 12079
-1.101 3.075 1.718 13356
-1.100 3.073 1.705 14120
-1.102 3.077 1.696 11367
-1.122 3.135 1.714 7637
-1.129 3.153 1.711 8977
-1.133 3.164 1.705 7289
-1.168 3.263 1.742 5694
-1.157 3.233 1.715 7652
-1.159 3.238 1.706 9541
-1.161 3.242 1.696 9470
-1.169 3.267 1.696 7310
-1.173 3.278 1.689 3912
-1.214 3.391 1.731 2814
-1.213 3.388 1.717 3380
-1.222 3.413 1.716 4665
-1.228 3.431 1.712 6550
-1.230 3.435 1.702 5465
-1.251 3.494 1.716 6302
-1.252 3.499 1.706 6795
