-0.884 2.005 1.685 3590
-0.943 2.138 1.780 5358
-0.940 2.131 1.764 7897
-0.939 2.129 1.753 10753
-0.941 2.134 1.746 10753
-0.938 2.126 1.731 9533
-0.934 2.118 1.715 9184
-0.939 2.129 1.713 7824
-0.975 2.210 1.764 8632
-0.977 2.215 1.758 11124
-0.981 2.225 1.755 13959
-0.986 2.235 1.753 11639
-0.990 2.246 1.750 9560
-0.992 2.250 1.743 9709
-0.991 2.248 1.732 6611
-1.020 2.313 1.768 5126
-1.016 2.305 1.752 5859
-1.018 2.309 1.745 6761
-1.020 2.314 1.738 5963
-1.036 2.348 1.752 5909
-1.027 2.328 1.728 6044
-1.026 2.326 1.716 6862
-1.025 2.324 1.705 5613
-1.059 2.402 1.748 4794
-1.059 2.400 1.736 5715
-1.058 2.399 1.724 6691
-1.070 2.427 1.733 5582
-1.080 2.450 1.738 6505
-1.088 2.467 1.739 7331
-1.095 2.484 1.739 8899
-1.092 2.475 1.723 8821
-1.091 2.473 1.711 9249
-1.095 2.484 1.708 7794
-1.119 2.538 1.732 9589
-1.121 2.542 1.724 10343
-1.117 2.534 1.708 7495
-1.119 2.538 1.700 4842
-1.110 2.517 1.676 4431
-1.142 2.591 1.712 4323
-1.150 2.607 1.711 4754
-1.154 2.618 1.707 4865
-1.145 2.597 1.683 4477
-1.214 2.753 1.767 4562
-1.219 2.764 1.762 6644
-1.223 2.774 1.757 7423
-1.228 2.785 1.752 7332
-1.233 2.796 1.747 6596
-1.238 2.807 1.742 6327
-1.237 2.804 1.730 6082
-1.233 2.796 1.713 6622
-1.238 2.806 1.708 5850
-1.239 2.811 1.700 4179
-1.284 2.911 1.745 4813
-1.286 2.916 1.736 6116
-1.290 2.926 1.730 6803
-1.295 2.937 1.725 7162
-1.294 2.935 1.712 8420
-1.296 2.939 1.703 8904
-1.298 2.943 1.693 7906
-1.297 2.941 1.681 5012
-1.342 3.043 1.723 3673
-1.341 3.040 1.710 4748
-1.351 3.064 1.711 5601
-1.359 3.081 1.708 4915
-1.361 3.086 1.698 5743
-1.363 3.090 1.689 7669
-1.364 3.094 1.679 8121
-1.366 3.098 1.669 6960
-1.385 3.142 1.679 7786
-1.387 3.146 1.669 10845
-1.395 3.163 1.666 7258
-1.400 3.174 1.659 4607
-1.410 3.198 1.659 4709
-1.418 3.215 1.655 5001
-1.440 3.266 1.667 4963
-1.439 3.263 1.654 3462
-1.496 3.394 1.703 3724
-1.469 3.331 1.661 4819
-1.474 3.342 1.654 5682
-1.555 3.526 1.725 6425
-1.554 3.524 1.711 7838
-1.556 3.528 1.700 5512
-1.587 3.599 1.719 4828
-1.589 3.603 1.708 6872
-1.591 3.608 1.696 5852
-1.590 3.605 1.682 3909
-1.630 3.697 1.708 5035
-1.629 3.694 1.694 5906
-1.634 3.705 1.685 5330
-1.642 3.723 1.679 5829
-1.646 3.734 1.670 5002
-1.660 3.765 1.669 4193
-1.716 3.891 1.707 5196
-1.730 3.922 1.706 4002
-1.704 3.865 1.669 2799
-1.724 3.910 1.673 3883
-1.723 3.907 1.658 5450
-1.743 3.952 1.662 4278
-1.784 4.045 1.684 4190
-1.789 4.056 1.674 3870
-1.793 4.067 1.663 2620
-1.874 4.249 1.717 2887
-1.873 4.247 1.702 4209
-1.877 4.258 1.691 4827
-1.873 4.248 1.672 3930
-1.911 4.335 1.689 4612
-1.907 4.325 1.670 5486
-1.967 4.460 1.703 4726
-1.966 4.457 1.686 4230
-1.992 4.517 1.691 3165
-1.993 4.521 1.677 4959
-1.998 4.532 1.665 3911
-2.025 4.591 1.670 3359
-2.045 4.637 1.669 5112
-2.037 4.620 1.647 6488
-2.039 4.624 1.633 5983
-2.047 4.642 1.623 3477
-2.141 4.854 1.675 2283
-2.179 4.942 1.686 2400
-2.190 4.967 1.677 3282
-2.198 4.985 1.665 3825
-2.200 4.989 1.649 3324
-2.362 5.356 1.743 3177
-2.364 5.360 1.726 3078
-2.366 5.365 1.709 4375
-2.371 5.376 1.695 3971
-2.394 5.429 1.692 4754
-2.396 5.433 1.675 4918
-2.398 5.437 1.657 3614
-2.455 5.568 1.675 3798
-2.494 5.656 1.681 2661
-2.567 5.822 1.707 2659
-2.566 5.819 1.687 2196
-2.571 5.830 1.670 2398
-2.573 5.834 1.652 2822
-2.578 5.845 1.635 2404
-2.579 5.849 1.616 1666
-2.678 6.072 1.653 1524
-2.763 6.267 1.681 2035
-2.765 6.271 1.661 1758
-2.836 6.430 1.679 1342
-2.894 6.562 1.689 1751
-2.899 6.573 1.670 2048
-3.035 6.882 1.719 2763
-3.037 6.886 1.697 3347
-3.038 6.890 1.676 2584
-3.040 6.894 1.654 2083
-3.042 6.898 1.632 2088
-3.251 7.371 1.711 1955
-3.249 7.368 1.686 1742
-3.477 7.885 1.769 1790
-3.476 7.882 1.742 2496
-3.478 7.886 1.717 2897
-3.564 8.083 1.731 3326
-3.572 8.101 1.708 3825
-3.574 8.106 1.682 3254
-3.573 8.102 1.655 2271
-2.702 6.128 1.263 1416
-2.700 6.124 1.243 1720
-2.699 6.120 1.222 1457
-2.700 6.123 1.203 774
-2.714 6.154 1.188 633
-2.715 6.157 1.169 818
-2.713 6.152 1.148 787
-2.708 6.141 1.126 614
-2.712 6.150 1.108 489
-2.713 6.153 1.088 558
-2.718 6.163 1.070 467
-2.719 6.165 1.051 273
-2.722 6.172 0.992 285
-2.723 6.174 0.972 266
-0.727 1.649 0.045 325
-0.730 1.656 0.039 454
-0.730 1.655 0.034 632
-0.730 1.655 0.029 810
-0.730 1.655 0.024 935
-0.730 1.654 0.019 1060
-0.733 1.661 0.013 1099
-0.732 1.661 0.008 1149
-0.732 1.661 0.003 1149
-0.732 1.660 -0.002 1046
-0.729 1.653 -0.007 958
-0.729 1.652 -0.012 822
-0.728 1.652 -0.017 686
-0.728 1.651 -0.022 519
-0.731 1.658 -0.028 355
-0.728 1.650 -0.032 255
-0.874 1.994 1.703 2498
-0.876 1.998 1.697 4996
-0.878 2.002 1.691 4996
-0.880 2.007 1.685 3723
-0.936 2.134 1.775 5372
-0.933 2.127 1.760 8319
-0.932 2.125 1.748 11467
-0.934 2.130 1.742 11467
-0.933 2.128 1.731 10513
-0.932 2.126 1.719 10265
-0.934 2.130 1.713 8673
-0.970 2.212 1.764 7987
-0.972 2.217 1.758 10405
-0.977 2.227 1.755 13087
-0.978 2.231 1.748 10920
-0.986 2.248 1.750 9014
-0.990 2.258 1.747 9327
-0.997 2.274 1.749 6571
-1.015 2.315 1.768 5482
-1.012 2.307 1.752 6268
-1.014 2.311 1.745 7257
-1.018 2.322 1.742 6515
-1.031 2.350 1.752 6815
-1.030 2.349 1.740 6579
-1.024 2.335 1.720 7036
-1.020 2.326 1.705 5319
-1.054 2.404 1.748 4876
-1.054 2.403 1.736 5562
-1.055 2.407 1.728 6321
-1.068 2.436 1.737 5619
-1.075 2.452 1.738 6675
-1.083 2.469 1.739 7034
-1.090 2.486 1.739 8553
-1.087 2.478 1.723 8185
-1.086 2.476 1.711 8587
-1.087 2.480 1.704 7491
-1.117 2.547 1.736 8919
-1.116 2.545 1.724 9772
-1.112 2.536 1.708 7369
-1.114 2.540 1.700 5085
-1.105 2.519 1.676 4394
-1.137 2.593 1.712 4297
-1.147 2.616 1.715 4546
-1.149 2.620 1.707 4591
-1.140 2.599 1.683 4305
-1.208 2.756 1.767 4401
-1.213 2.766 1.762 6495
-1.215 2.771 1.753 7404
-1.222 2.788 1.752 7275
-1.227 2.798 1.747 6407
-1.232 2.809 1.742 5779
-1.231 2.807 1.730 5116
-1.227 2.798 1.713 5561
-1.232 2.809 1.708 5027
-1.234 2.813 1.700 3961
-1.278 2.914 1.745 4818
-1.283 2.925 1.739 6022
-1.284 2.929 1.730 7175
-1.289 2.940 1.725 7877
-1.288 2.937 1.712 8849
-1.290 2.942 1.703 8564
-1.295 2.952 1.697 7201
-1.322 3.015 1.719 4517
-1.333 3.039 1.720 4233
-1.340 3.056 1.717 4671
-1.351 3.080 1.718 5583
-1.353 3.084 1.708 4930
-1.354 3.088 1.698 5687
-1.356 3.093 1.689 7616
-1.358 3.097 1.679 8136
-1.360 3.101 1.669 6832
-1.379 3.144 1.679 7700
-1.381 3.149 1.669 11182
-1.388 3.166 1.666 7780
-1.393 3.177 1.659 4915
-1.404 3.201 1.659 5249
-1.411 3.218 1.655 5616
-1.433 3.268 1.667 5536
-1.435 3.273 1.657 3919
-1.454 3.317 1.665 3997
-1.462 3.334 1.661 5396
-1.467 3.345 1.654 6411
-1.548 3.529 1.725 5914
-1.550 3.534 1.714 6669
-1.551 3.538 1.703 4761
-1.580 3.602 1.719 4946
-1.582 3.607 1.708 6545
-1.581 3.604 1.693 5137
-1.576 3.595 1.676 3568
-1.620 3.693 1.705 3967
-1.619 3.691 1.691 4741
-1.629 3.715 1.688 4838
-1.634 3.726 1.679 5668
-1.642 3.744 1.673 4603
-1.703 3.883 1.717 4488
-1.711 3.901 1.710 6171
-1.722 3.926 1.706 4805
-1.703 3.882 1.675 2880
-1.719 3.920 1.676 4341
-1.718 3.918 1.661 5941
-1.720 3.922 1.649 4426
-1.779 4.056 1.686 4315
-1.783 4.067 1.676 3904
-1.785 4.071 1.663 2873
-1.787 4.075 1.651 2747
-1.864 4.250 1.702 3675
-1.869 4.261 1.691 4776
-1.862 4.245 1.670 3986
-1.900 4.332 1.686 4466
-1.898 4.329 1.670 5035
-1.958 4.464 1.703 4898
-1.956 4.461 1.686 4341
-1.982 4.521 1.691 3046
-1.984 4.525 1.677 4668
-1.998 4.557 1.672 4089
-2.015 4.595 1.670 3351
-2.032 4.634 1.667 5501
-2.031 4.631 1.650 7014
-2.030 4.628 1.633 6357
-2.037 4.646 1.623 3670
-2.128 4.852 1.672 2290
-2.175 4.960 1.690 2157
-2.183 4.978 1.679 3521
-2.188 4.990 1.665 3908
-2.190 4.994 1.649 3448
-2.235 5.095 1.663 2797
-2.356 5.372 1.729 2860
-2.355 5.369 1.709 4689
-2.357 5.374 1.693 4435
-2.377 5.420 1.688 3870
-2.382 5.431 1.673 4136
-2.383 5.435 1.655 3493
-2.481 5.657 1.699 3468
-2.483 5.661 1.681 2434
-2.555 5.827 1.707 3250
-2.557 5.831 1.688 2984
-2.565 5.849 1.674 3176
-2.561 5.839 1.652 3486
-2.563 5.843 1.633 2950
-2.567 5.854 1.616 2063
-2.662 6.070 1.651 1767
-2.748 6.265 1.679 2111
-2.749 6.269 1.659 1885
-2.826 6.443 1.680 1416
-2.883 6.575 1.690 1998
-2.888 6.586 1.671 2296
-3.021 6.888 1.719 2077
-3.023 6.892 1.697 2665
-3.024 6.896 1.676 2188
-3.026 6.900 1.654 1736
-3.193 7.281 1.714 1744
-3.236 7.378 1.711 1592
-3.343 7.624 1.738 1753
-3.345 7.628 1.714 1727
-3.463 7.896 1.744 2270
-3.383 7.715 1.682 2832
-3.551 8.097 1.732 3682
-3.556 8.109 1.708 4303
-3.558 8.113 1.682 3562
-3.556 8.110 1.655 2420
-3.558 8.114 1.629 1220
-3.792 8.647 1.699 1189
-3.794 8.651 1.672 961
-3.796 8.655 1.645 442
-2.704 6.167 1.189 302
-2.699 6.155 1.168 438
-2.700 6.158 1.148 422
-2.699 6.153 1.127 358
-2.700 6.156 1.108 486
-2.701 6.159 1.088 696
-2.702 6.161 1.069 611
-2.706 6.171 1.051 352
-0.727 1.659 0.075 317
-0.727 1.658 0.070 500
-0.727 1.658 0.065 819
-0.724 1.651 0.060 1142
-0.724 1.651 0.055 1600
-0.724 1.650 0.050 2057
-0.727 1.657 0.044 2465
-0.727 1.657 0.039 2903
-0.727 1.657 0.034 3161
-0.723 1.649 0.029 3433
-0.726 1.656 0.024 3406
-0.726 1.656 0.019 3393
-0.726 1.656 0.014 3251
-0.726 1.655 0.008 3077
-0.729 1.662 0.003 3074
-0.726 1.654 -0.002 2690
-0.725 1.654 -0.007 2334
-0.725 1.654 -0.012 1969
-0.725 1.653 -0.017 1604
-0.725 1.653 -0.022 1234
-0.728 1.660 -0.028 888
-0.728 1.659 -0.033 644
-0.724 1.651 -0.038 370
-0.724 1.651 -0.043 318
-0.869 1.996 1.703 2668
-0.871 2.001 1.697 5337
-0.873 2.005 1.691 5337
-0.875 2.009 1.685 3979
-0.925 2.125 1.766 5494
-0.925 2.123 1.755 8786
-0.926 2.128 1.748 12140
-0.928 2.132 1.742 12140
-0.928 2.130 1.731 11292
-0.927 2.129 1.719 11069
-0.929 2.133 1.713 9283
-0.931 2.137 1.706 7496
-0.966 2.219 1.758 9600
-0.971 2.229 1.755 12052
-0.973 2.234 1.748 10079
-0.980 2.250 1.750 8295
-0.984 2.260 1.747 8830
-0.991 2.277 1.749 6567
-1.009 2.318 1.768 5749
-1.006 2.310 1.752 6586
-1.008 2.314 1.745 7666
-1.012 2.324 1.742 7057
-1.022 2.347 1.748 7654
-1.024 2.351 1.740 7181
-1.020 2.343 1.724 7261
-1.020 2.341 1.713 5167
-1.048 2.407 1.748 4816
-1.050 2.411 1.740 5427
-1.052 2.416 1.733 6038
-1.062 2.439 1.737 5917
-1.066 2.449 1.734 7034
-1.074 2.466 1.735 6778
-1.084 2.489 1.739 8164
-1.080 2.480 1.723 7470
-1.079 2.478 1.711 7710
-1.081 2.483 1.704 6931
-1.110 2.549 1.736 8164
-1.106 2.541 1.720 9133
-1.106 2.539 1.708 7147
-1.107 2.543 1.700 5201
-1.109 2.547 1.692 4658
-1.103 2.533 1.673 4301
-1.110 2.549 1.672 4690
-1.145 2.630 1.711 4180
-1.130 2.596 1.679 4061
-1.201 2.759 1.767 4215
-1.206 2.769 1.762 6212
-1.208 2.774 1.753 7230
-1.215 2.791 1.752 6980
-1.220 2.802 1.747 6002
-1.225 2.812 1.742 5138
-1.224 2.810 1.730 4168
-1.220 2.801 1.713 4372
-1.224 2.812 1.708 4094
-1.274 2.926 1.761 3940
-1.273 2.924 1.749 4803
-1.275 2.928 1.739 5690
-1.277 2.932 1.730 7122
-1.279 2.937 1.721 8149
-1.281 2.941 1.712 8902
-1.282 2.945 1.703 8063
-1.284 2.949 1.693 6470
-1.317 3.025 1.722 5065
-1.325 3.042 1.720 4879
-1.327 3.047 1.710 4683
-1.346 3.090 1.721 5419
-1.347 3.094 1.711 4727
-1.378 3.164 1.735 5420
-1.345 3.090 1.685 7056
-1.350 3.100 1.679 7672
-1.352 3.104 1.669 6412
-1.374 3.155 1.682 7536
-1.375 3.159 1.673 10856
-1.380 3.170 1.666 7785
-1.385 3.180 1.659 4990
-1.395 3.204 1.659 5544
-1.400 3.215 1.652 6026
-1.425 3.272 1.667 5875
-1.441 3.310 1.672 4501
-1.449 3.327 1.668 4861
-1.456 3.344 1.664 6051
-1.461 3.355 1.657 7065
-1.463 3.359 1.646 5896
-1.543 3.544 1.717 5850
-1.542 3.542 1.703 4529
-1.570 3.607 1.719 5115
-1.569 3.604 1.705 6254
-1.559 3.581 1.681 4713
-1.561 3.585 1.670 3387
-1.613 3.704 1.708 3268
-1.609 3.695 1.691 3873
-1.619 3.719 1.688 4379
-1.624 3.730 1.679 5104
-1.632 3.748 1.673 4110
-1.693 3.888 1.717 4706
-1.704 3.912 1.713 6326
-1.711 3.930 1.706 5252
-1.710 3.928 1.691 3253
-1.709 3.925 1.676 4771
-1.711 3.929 1.664 6241
-1.713 3.933 1.651 4291
-1.771 4.067 1.689 4281
-1.773 4.071 1.676 3515
-1.772 4.069 1.661 2744
-1.776 4.079 1.651 2745
-1.856 4.262 1.704 3136
-1.861 4.273 1.693 4504
-1.850 4.250 1.670 3920
-1.888 4.337 1.686 3981
-1.887 4.334 1.670 4142
-1.946 4.469 1.703 4989
-1.945 4.466 1.686 4276
-1.974 4.533 1.694 2791
-1.975 4.537 1.679 4282
-1.986 4.562 1.672 4322
-1.988 4.566 1.658 3584
-2.020 4.639 1.667 5530
-2.019 4.636 1.650 7116
-2.021 4.640 1.635 6376
-2.025 4.651 1.623 3584
-2.115 4.857 1.672 2479
-2.168 4.980 1.694 1917
-2.173 4.991 1.681 3596
-2.175 4.995 1.665 3908
-2.177 4.999 1.649 3603
-2.221 5.101 1.663 2925
-2.339 5.371 1.726 2960
-2.341 5.376 1.709 4987
-2.342 5.380 1.693 4691
-2.353 5.405 1.682 3057
-2.364 5.430 1.671 3145
-2.369 5.441 1.655 3135
-2.469 5.670 1.701 3076
-2.538 5.829 1.725 2292
-2.540 5.834 1.707 3859
-2.545 5.845 1.690 3981
-2.550 5.856 1.674 4036
-2.545 5.846 1.652 3851
-2.547 5.850 1.633 3309
-2.552 5.861 1.616 2336
-2.646 6.077 1.651 1816
-2.731 6.272 1.679 2038
-2.733 6.276 1.659 1834
-2.809 6.451 1.680 1599
-2.866 6.582 1.690 2139
-2.871 6.594 1.671 2486
-2.885 6.626 1.657 2096
-3.001 6.893 1.696 1941
-3.012 6.918 1.679 1808
-3.175 7.292 1.738 1546
-3.084 7.083 1.669 1913
-3.086 7.087 1.647 1604
-3.324 7.633 1.738 1946
-3.325 7.637 1.714 1917
-3.448 7.920 1.747 2050
-3.363 7.724 1.682 2740
-3.530 8.107 1.732 4005
-3.532 8.111 1.706 4635
-3.537 8.122 1.682 3688
-3.538 8.126 1.656 2423
-3.546 8.145 1.633 1423
-3.769 8.657 1.699 1101
-3.771 8.661 1.672 762
-3.773 8.665 1.645 353
-2.687 6.170 1.109 464
-2.688 6.173 1.090 658
-2.686 6.168 1.069 552
-2.690 6.178 1.051 324
-0.723 1.660 0.075 264
-0.723 1.660 0.070 384
-0.723 1.660 0.065 680
-0.723 1.660 0.060 977
-0.720 1.652 0.055 1467
-0.719 1.652 0.050 1957
-0.719 1.652 0.045 2457
-0.722 1.659 0.039 2968
-0.719 1.651 0.035 3375
-0.719 1.651 0.029 3793
-0.722 1.658 0.024 3867
-0.722 1.658 0.019 3984
-0.722 1.657 0.014 3900
-0.722 1.657 0.008 3778
-0.721 1.657 0.003 3740
-0.721 1.656 -0.002 3304
-0.721 1.656 -0.007 2869
-0.721 1.656 -0.012 2386
-0.721 1.655 -0.017 1902
-0.720 1.655 -0.022 1488
-0.723 1.661 -0.028 1074
-0.720 1.654 -0.032 809
-0.720 1.653 -0.038 466
-0.720 1.653 -0.043 388
-0.868 2.004 1.708 2918
-0.869 2.008 1.702 5836
-0.871 2.012 1.696 5836
-0.873 2.017 1.689 4321
-0.918 2.121 1.762 5646
-0.920 2.125 1.755 9106
-0.922 2.130 1.748 12567
-0.924 2.134 1.742 12567
-0.923 2.132 1.731 11768
-0.922 2.131 1.719 11518
-0.924 2.135 1.713 9603
-0.926 2.139 1.706 7689
-0.962 2.221 1.758 8703
-0.966 2.232 1.755 10929
-0.968 2.236 1.748 9179
-0.978 2.258 1.754 7547
-0.982 2.269 1.752 8355
-0.989 2.285 1.753 6556
-1.004 2.320 1.768 5898
-1.001 2.312 1.752 6799
-1.003 2.316 1.745 7937
-1.010 2.333 1.746 7425
-1.017 2.349 1.748 8223
-1.019 2.354 1.740 7505
-1.015 2.346 1.724 7301
-1.015 2.344 1.713 5015
-1.046 2.416 1.752 4688
-1.045 2.414 1.740 5274
-1.047 2.418 1.733 5933
-1.054 2.435 1.733 6280
-1.061 2.451 1.734 7456
-1.066 2.462 1.730 6726
-1.078 2.491 1.739 7908
-1.077 2.489 1.727 6980
-1.074 2.481 1.711 6825
-1.076 2.485 1.704 6361
-1.105 2.552 1.736 7375
-1.098 2.537 1.716 8649
-1.100 2.541 1.708 7049
-1.102 2.546 1.700 5448
-1.104 2.550 1.692 5096
-1.103 2.548 1.680 4797
-1.105 2.552 1.672 5229
-1.109 2.562 1.668 4445
-1.122 2.592 1.676 3932
-1.195 2.761 1.767 4008
-1.200 2.772 1.762 5815
-1.202 2.776 1.753 6881
-1.209 2.793 1.752 6520
-1.214 2.804 1.747 5493
-1.182 2.731 1.694 4829
-1.218 2.813 1.730 3502
-1.217 2.811 1.717 3477
-1.218 2.815 1.708 3323
-1.268 2.929 1.761 4166
-1.270 2.933 1.752 4766
-1.269 2.931 1.739 5191
-1.271 2.935 1.730 6649
-1.272 2.939 1.721 7913
-1.274 2.944 1.712 8360
-1.276 2.948 1.703 7310
-1.278 2.952 1.693 5814
-1.311 3.028 1.722 5354
-1.310 3.026 1.709 5843
-1.314 3.036 1.703 5211
-1.336 3.086 1.718 5556
-1.341 3.097 1.711 4571
-1.371 3.167 1.735 5403
-1.339 3.092 1.685 5950
-1.343 3.103 1.679 6637
-1.382 3.193 1.712 5781
-1.370 3.164 1.686 7665
-1.369 3.162 1.673 10436
-1.373 3.172 1.666 7585
-1.378 3.183 1.659 4764
-1.388 3.207 1.659 5532
-1.393 3.218 1.652 6189
-1.421 3.282 1.670 6127
-1.434 3.313 1.672 5052
-1.447 3.343 1.675 5522
-1.446 3.341 1.661 6440
-1.451 3.352 1.654 7245
-1.456 3.362 1.646 5872
-1.539 3.554 1.720 4898
-1.540 3.559 1.709 3810
-1.560 3.603 1.716 4963
-1.562 3.607 1.705 6004
-1.549 3.578 1.679 4684
-1.553 3.589 1.670 3548
-1.637 3.782 1.740 3639
-1.642 3.793 1.731 4012
-1.644 3.797 1.719 4152
-1.616 3.734 1.679 4112
-1.680 3.880 1.726 3091
-1.682 3.885 1.714 4535
-1.695 3.916 1.713 5973
-1.703 3.934 1.706 5087
-1.714 3.959 1.702 3401
-1.704 3.935 1.679 4964
-1.705 3.940 1.666 6383
-1.707 3.944 1.654 4101
-1.762 4.071 1.689 4389
-1.764 4.075 1.676 3264
-1.763 4.072 1.661 2720
-1.765 4.076 1.648 2922
-1.781 4.115 1.648 2668
-1.852 4.277 1.693 3700
-1.841 4.254 1.670 3547
-1.879 4.341 1.686 3577
-1.881 4.345 1.672 3256
-1.933 4.466 1.700 4721
-1.935 4.470 1.686 3901
-1.964 4.537 1.694 2767
-1.972 4.555 1.684 4416
-1.977 4.566 1.672 4616
-1.978 4.570 1.658 4252
-2.004 4.630 1.662 5415
-2.006 4.634 1.647 6725
-2.011 4.645 1.635 5884
-2.018 4.663 1.625 3159
-2.102 4.855 1.670 2481
-2.106 4.866 1.657 1855
-2.163 4.996 1.681 3285
-2.164 5.000 1.665 3786
-2.166 5.004 1.649 3751
-2.210 5.106 1.663 3065
-2.327 5.376 1.726 3102
-2.329 5.381 1.709 5281
-2.331 5.385 1.693 4865
-2.339 5.403 1.680 2671
-2.408 5.562 1.707 2468
-2.358 5.446 1.655 2613
-2.460 5.683 1.703 2605
-2.529 5.842 1.727 2516
-2.528 5.839 1.707 4073
-2.532 5.850 1.690 4684
-2.537 5.861 1.674 4633
-2.536 5.858 1.653 3866
-2.535 5.855 1.633 3356
-2.540 5.866 1.616 2423
-2.710 6.260 1.695 1785
-2.715 6.271 1.677 1943
-2.793 6.452 1.701 1897
-2.795 6.457 1.680 1699
-2.852 6.588 1.690 2099
-2.857 6.600 1.671 2497
-2.871 6.632 1.657 2226
-3.054 7.056 1.731 2006
-3.062 7.074 1.712 2002
-3.064 7.078 1.690 2028
-3.066 7.083 1.667 2420
-3.068 7.087 1.645 2433
-3.307 7.640 1.738 1921
-3.309 7.644 1.714 1932
-3.438 7.941 1.750 1995
-3.344 7.724 1.680 2432
-3.512 8.114 1.732 4111
-3.514 8.118 1.706 4840
-3.519 8.130 1.682 3734
-3.521 8.134 1.656 2287
-3.532 8.159 1.634 1515
-3.537 8.170 1.610 980
-3.753 8.669 1.672 570
-3.754 8.673 1.645 303
-2.667 6.161 1.166 263
-2.677 6.183 1.110 340
-2.675 6.179 1.090 517
-2.676 6.181 1.070 451
-2.677 6.183 1.051 262
-0.716 1.654 0.055 300
-0.716 1.654 0.050 387
-0.716 1.653 0.045 497
-0.716 1.653 0.040 607
-0.716 1.653 0.035 701
-0.715 1.653 0.029 796
-0.715 1.652 0.024 846
-0.715 1.652 0.019 897
-0.715 1.652 0.014 943
-0.718 1.659 0.008 984
-0.718 1.658 0.003 979
-0.715 1.651 -0.001 986
-0.714 1.650 -0.006 999
-0.714 1.650 -0.011 962
-0.717 1.657 -0.017 927
-0.717 1.656 -0.022 767
-0.717 1.656 -0.027 607
-0.717 1.655 -0.032 489
-0.716 1.655 -0.038 320
-0.719 1.662 -0.043 271
-0.862 2.007 1.708 3164
-0.863 2.011 1.702 6329
-0.865 2.015 1.696 6329
-0.867 2.019 1.689 4645
-0.909 2.118 1.757 5838
-0.914 2.128 1.755 9351
-0.916 2.132 1.748 12895
-0.917 2.137 1.742 12895
-0.917 2.135 1.731 12144
-0.916 2.133 1.719 11830
-0.918 2.138 1.713 9758
-0.917 2.136 1.702 7736
-0.955 2.224 1.758 7716
-0.957 2.228 1.751 9755
-0.961 2.239 1.748 8223
-0.976 2.273 1.763 6947
-0.978 2.278 1.756 7905
-0.982 2.288 1.753 6535
-0.997 2.323 1.768 5990
-0.994 2.315 1.752 7009
-0.996 2.319 1.745 8226
-1.005 2.342 1.751 7825
-1.010 2.352 1.748 8760
-1.012 2.357 1.740 7826
-1.008 2.349 1.724 7328
-1.008 2.347 1.713 4900
-1.041 2.425 1.756 4464
-1.040 2.423 1.744 5213
-1.042 2.427 1.737 5962
-1.047 2.438 1.733 6799
-1.051 2.448 1.730 8061
-1.058 2.465 1.730 6996
-1.068 2.488 1.735 7758
-1.067 2.486 1.723 6782
-1.066 2.484 1.711 6214
-1.068 2.488 1.704 5787
-1.097 2.555 1.736 6566
-1.091 2.540 1.716 8153
-1.093 2.545 1.708 6907
-1.094 2.549 1.700 5661
-1.093 2.547 1.688 5509
-1.095 2.551 1.680 5359
-1.100 2.561 1.676 5651
-1.101 2.565 1.668 4642
-1.114 2.595 1.676 3862
-1.187 2.765 1.767 3837
-1.192 2.776 1.762 5342
-1.194 2.780 1.753 6459
-1.173 2.733 1.715 6467
-1.175 2.737 1.706 6126
-1.174 2.735 1.694 5473
-1.176 2.739 1.685 3466
-1.205 2.808 1.713 3004
-1.205 2.805 1.701 2916
-1.259 2.932 1.761 4151
-1.264 2.943 1.756 4577
-1.257 2.928 1.736 4604
-1.259 2.932 1.727 5994
-1.264 2.943 1.721 7152
-1.265 2.947 1.712 7255
-1.267 2.952 1.703 6276
-1.272 2.962 1.697 5220
-1.302 3.032 1.722 5529
-1.298 3.023 1.706 7220
-1.303 3.034 1.700 6446
-1.327 3.090 1.718 5475
-1.340 3.121 1.722 4489
-1.362 3.171 1.735 5256
-1.363 3.176 1.725 6108
-1.365 3.180 1.715 6358
-1.370 3.191 1.709 6700
-1.366 3.182 1.692 7951
-1.362 3.172 1.676 9686
-1.364 3.177 1.666 6972
-1.368 3.187 1.659 4261
-1.379 3.211 1.659 5220
-1.383 3.222 1.652 6025
-1.411 3.286 1.670 6294
-1.430 3.330 1.679 5790
-1.440 3.354 1.678 6521
-1.439 3.352 1.664 6741
-1.444 3.363 1.657 7352
-1.446 3.367 1.646 5827
-1.531 3.566 1.723 4852
-1.536 3.577 1.715 3869
-1.549 3.608 1.716 4937
-1.548 3.605 1.702 5856
-1.541 3.589 1.681 4454
-1.621 3.776 1.749 3542
-1.626 3.787 1.740 4314
-1.628 3.791 1.728 4474
-1.635 3.809 1.722 4583
-1.640 3.820 1.713 3645
-1.668 3.885 1.726 3636
-1.670 3.890 1.714 4181
-1.684 3.921 1.713 4986
-1.691 3.939 1.706 4461
-1.702 3.964 1.702 3322
-1.692 3.941 1.679 5171
-1.694 3.945 1.666 6219
-1.748 4.072 1.702 4216
-1.753 4.083 1.692 4610
-1.755 4.087 1.679 3410
-1.751 4.078 1.661 2602
-1.752 4.082 1.648 2739
-1.855 4.320 1.722 2456
-1.839 4.283 1.693 2946
-1.820 4.239 1.662 3463
-1.866 4.346 1.686 3289
-1.927 4.489 1.722 3234
-1.920 4.472 1.700 4494
-1.922 4.476 1.686 3686
-1.953 4.550 1.696 3108
-1.961 4.568 1.687 5222
-1.963 4.572 1.672 4956
-1.965 4.576 1.658 4866
-1.984 4.622 1.657 5380
-1.992 4.640 1.647 5836
-1.997 4.651 1.635 4946
-2.004 4.669 1.625 2613
-2.087 4.861 1.670 2403
-2.092 4.872 1.657 1862
-2.148 5.002 1.681 2781
-2.149 5.006 1.665 3550
-2.151 5.010 1.649 3819
-2.195 5.113 1.663 3083
-2.311 5.383 1.726 2925
-2.313 5.387 1.709 5122
-2.315 5.392 1.693 4752
-2.320 5.403 1.678 2640
-2.388 5.562 1.705 2244
-2.447 5.700 1.725 2098
-2.355 5.486 1.646 2251
-2.511 5.849 1.727 2437
-2.510 5.847 1.707 4000
-2.512 5.851 1.688 5037
-2.520 5.869 1.674 4951
-2.522 5.873 1.655 3717
-2.517 5.863 1.633 3224
-2.522 5.874 1.616 2377
-2.691 6.268 1.695 1863
-2.693 6.272 1.676 1741
-2.771 6.454 1.699 1841
-2.776 6.465 1.680 1629
-2.835 6.604 1.692 2008
-2.840 6.615 1.673 2435
-2.851 6.641 1.657 2424
-3.036 7.072 1.733 2763
-3.038 7.076 1.711 2832
-3.043 7.088 1.690 2744
-3.045 7.092 1.667 3064
-3.047 7.096 1.645 3391
-3.048 7.100 1.623 2796
-3.415 7.954 1.776 1887
-3.414 7.951 1.750 1964
-3.483 8.113 1.756 2148
-3.485 8.117 1.731 3891
-3.490 8.129 1.706 4671
-3.495 8.140 1.682 3632
-3.497 8.144 1.656 2060
-3.508 8.170 1.634 1454
-3.509 8.174 1.609 1004
-3.607 8.400 1.622 552
-3.729 8.684 1.645 301
-2.647 6.166 1.186 289
-2.645 6.161 1.165 336
-2.647 6.164 1.146 326
-2.656 6.186 1.090 348
-2.660 6.196 1.071 372
-0.347 0.809 0.235 251
-0.351 0.817 0.234 257
-0.711 1.657 0.065 376
-0.711 1.656 0.060 553
-0.711 1.656 0.055 695
-0.711 1.656 0.050 838
-0.711 1.656 0.045 857
-0.711 1.655 0.040 876
-0.707 1.648 0.035 748
-0.704 1.640 0.030 651
-0.710 1.654 0.024 750
-0.713 1.661 0.019 899
-0.713 1.661 0.014 1023
-0.713 1.661 0.008 1137
-0.713 1.660 0.003 1127
-0.713 1.660 -0.002 1109
-0.713 1.660 -0.007 1090
-0.712 1.659 -0.012 994
-0.712 1.659 -0.017 898
-0.712 1.658 -0.022 675
-0.718 1.672 -0.029 460
-0.718 1.672 -0.034 386
-0.730 1.700 -0.042 341
-0.730 1.700 -0.048 341
-0.733 1.707 -0.054 318
-0.733 1.706 -0.059 406
-0.857 2.009 1.708 3304
-0.858 2.013 1.702 6609
-0.860 2.017 1.696 6609
-0.897 2.104 1.754 5059
-0.897 2.102 1.743 6075
-0.908 2.130 1.755 9315
-0.910 2.135 1.748 12816
-0.912 2.139 1.742 12816
-0.911 2.137 1.731 12144
-0.911 2.136 1.719 11793
-0.913 2.140 1.713 9633
-0.912 2.138 1.702 7601
-0.949 2.226 1.758 6689
-0.951 2.231 1.751 8566
-0.956 2.241 1.748 7191
-0.970 2.276 1.763 6431
-0.972 2.280 1.756 7348
-0.977 2.290 1.753 6355
-0.992 2.325 1.768 5859
-0.988 2.317 1.752 7039
-0.990 2.322 1.745 8340
-1.000 2.344 1.751 8065
-1.004 2.355 1.748 9088
-1.006 2.359 1.740 8023
-1.003 2.351 1.724 7363
-1.002 2.349 1.713 4953
-1.035 2.427 1.756 4187
-1.034 2.426 1.744 5086
-1.036 2.430 1.737 6078
-1.041 2.440 1.733 7167
-1.045 2.451 1.730 8497
-1.050 2.461 1.726 7308
-1.062 2.491 1.735 7801
-1.061 2.489 1.723 6796
-1.060 2.487 1.711 5888
-1.062 2.491 1.704 5251
-1.083 2.539 1.724 5740
-1.085 2.543 1.716 7499
-1.086 2.547 1.708 6593
-1.088 2.552 1.700 5686
-1.090 2.556 1.692 5746
-1.092 2.560 1.684 5805
-1.093 2.564 1.676 5936
-1.095 2.568 1.668 4697
-1.105 2.591 1.672 3766
-1.172 2.749 1.755 3738
-1.147 2.689 1.709 5245
-1.187 2.783 1.753 5952
-1.167 2.736 1.715 7038
-1.168 2.740 1.706 6594
-1.168 2.738 1.694 6035
-1.169 2.742 1.685 4030
-1.188 2.785 1.699 3540
-1.192 2.795 1.694 3031
-1.252 2.935 1.761 3881
-1.256 2.946 1.756 4248
-1.247 2.925 1.732 4200
-1.249 2.929 1.723 5164
-1.254 2.940 1.717 5924
-1.255 2.944 1.708 5832
-1.260 2.955 1.703 5065
-1.267 2.972 1.700 4746
-1.289 3.022 1.715 6158
-1.290 3.026 1.706 8483
-1.292 3.030 1.696 7683
-1.294 3.034 1.687 6402
-1.293 3.032 1.674 4396
-1.354 3.175 1.735 4991
-1.356 3.179 1.725 6182
-1.357 3.183 1.715 6916
-1.362 3.194 1.709 7423
-1.361 3.192 1.696 8197
-1.357 3.182 1.679 8755
-1.356 3.180 1.666 6086
-1.412 3.310 1.717 3682
-1.374 3.221 1.662 4780
-1.378 3.232 1.655 5858
-1.406 3.296 1.673 6520
-1.427 3.347 1.685 6557
-1.432 3.358 1.678 7364
-1.428 3.349 1.661 6996
-1.433 3.359 1.654 7189
-1.437 3.370 1.646 5624
-1.525 3.576 1.726 4637
-1.533 3.594 1.721 3640
-1.540 3.612 1.716 4548
-1.539 3.609 1.702 5652
-1.535 3.600 1.684 4420
-1.612 3.780 1.749 3888
-1.614 3.784 1.737 4720
-1.616 3.788 1.725 4813
-1.626 3.813 1.722 4842
-1.663 3.899 1.744 4024
-1.662 3.896 1.729 4212
-1.660 3.894 1.714 3854
-1.677 3.932 1.716 3938
-1.684 3.950 1.709 3554
-1.683 3.947 1.694 3060
-1.682 3.945 1.679 4997
-1.684 3.949 1.666 5668
-1.741 4.083 1.704 4153
-1.743 4.087 1.692 4775
-1.748 4.098 1.681 3937
-1.752 4.109 1.671 2783
-1.742 4.086 1.648 2554
-1.850 4.338 1.727 2527
-1.825 4.280 1.691 2759
-1.812 4.250 1.665 3500
-1.911 4.482 1.733 3531
-1.916 4.493 1.722 3166
-1.909 4.477 1.700 4151
-1.911 4.481 1.686 3471
-1.948 4.568 1.701 3765
-1.950 4.573 1.687 5909
-1.952 4.577 1.672 5345
-1.953 4.581 1.658 5392
-1.964 4.606 1.650 5539
-1.975 4.631 1.643 4900
-1.982 4.649 1.633 3992
-1.993 4.674 1.625 2091
-2.072 4.859 1.668 2060
-2.131 4.996 1.694 2038
-2.135 5.007 1.681 2533
-2.137 5.012 1.665 3338
-2.139 5.016 1.649 3714
-2.183 5.118 1.663 3021
-2.298 5.389 1.726 2696
-2.297 5.386 1.707 4391
-2.302 5.397 1.693 4177
-2.306 5.409 1.678 2689
-2.305 5.406 1.659 2429
-2.433 5.706 1.725 2007
-2.345 5.498 1.648 1805
-2.464 5.778 1.706 2587
-2.493 5.846 1.705 3543
-2.498 5.857 1.688 4875
-2.508 5.882 1.676 4963
-2.510 5.886 1.657 3484
-2.503 5.869 1.633 2885
-2.505 5.873 1.615 2156
-2.730 6.402 1.727 1824
-2.677 6.279 1.676 1676
-2.758 6.467 1.701 1860
-2.760 6.472 1.680 1647
-2.819 6.611 1.692 1827
-2.824 6.622 1.673 2275
-3.017 7.075 1.755 2651
-3.016 7.072 1.731 3443
-3.021 7.084 1.711 3613
-3.023 7.088 1.688 3506
-3.024 7.092 1.666 3639
-3.029 7.103 1.645 4100
-3.031 7.107 1.623 3565
-3.036 7.118 1.602 1933
-3.394 7.960 1.750 1862
-3.460 8.114 1.755 2281
-3.465 8.126 1.731 3634
-3.470 8.137 1.706 4295
-3.472 8.141 1.681 3362
-3.474 8.146 1.655 1774
-3.702 8.681 1.727 1414
-3.489 8.182 1.609 993
-3.482 8.165 1.579 527
-2.628 6.162 1.204 321
-2.632 6.172 1.186 291
-2.630 6.168 1.165 280
-2.631 6.171 1.146 273
-0.348 0.817 0.241 252
-0.345 0.810 0.238 270
-0.345 0.810 0.235 285
-0.346 0.810 0.233 292
-0.346 0.810 0.230 259
-0.707 1.658 0.070 308
-0.707 1.658 0.065 416
-0.704 1.651 0.060 526
-0.704 1.651 0.055 645
-0.704 1.650 0.050 764
-0.704 1.650 0.045 974
-0.704 1.650 0.040 1185
-0.707 1.657 0.035 1467
-0.706 1.657 0.029 1755
-0.706 1.656 0.024 1972
-0.709 1.663 0.019 2190
-0.709 1.663 0.014 2187
-0.709 1.662 0.008 2161
-0.709 1.662 0.003 2138
-0.709 1.662 -0.002 1887
-0.705 1.654 -0.006 1641
-0.708 1.661 -0.012 1359
-0.708 1.661 -0.017 1082
-0.708 1.660 -0.022 735
-0.723 1.696 -0.031 457
-0.729 1.710 -0.038 536
-0.729 1.709 -0.043 621
-0.729 1.709 -0.048 621
-0.729 1.708 -0.054 610
-0.728 1.708 -0.059 792
-0.856 2.016 1.713 3665
-0.858 2.020 1.706 7331
-0.859 2.024 1.700 7331
-0.891 2.099 1.750 5550
-0.893 2.104 1.743 6371
-0.903 2.126 1.750 9263
-0.907 2.136 1.748 12609
-0.909 2.140 1.742 12609
-0.908 2.139 1.731 11984
-0.907 2.137 1.719 11609
-0.909 2.141 1.713 9379
-0.908 2.140 1.702 7359
-0.943 2.222 1.753 5657
-0.948 2.232 1.751 7331
-0.952 2.243 1.748 6138
-0.969 2.283 1.768 5923
-0.971 2.288 1.761 6729
-0.973 2.292 1.753 6131
-0.980 2.308 1.755 5767
-0.984 2.319 1.752 7074
-0.986 2.323 1.745 8441
-0.996 2.346 1.751 8163
-1.000 2.356 1.748 9176
-1.002 2.361 1.740 8016
-0.996 2.346 1.720 7297
-0.998 2.351 1.713 5037
-1.034 2.435 1.760 3882
-1.030 2.427 1.744 4936
-1.032 2.432 1.737 6201
-1.037 2.442 1.733 7435
-1.039 2.446 1.726 8867
-1.046 2.463 1.726 7591
-1.055 2.486 1.731 7930
-1.055 2.484 1.719 6982
-1.056 2.488 1.711 5789
-1.058 2.492 1.704 4789
-1.076 2.534 1.720 5113
-1.080 2.545 1.716 6701
-1.082 2.549 1.708 6099
-1.084 2.553 1.700 5496
-1.086 2.558 1.692 5715
-1.088 2.562 1.684 5933
-1.089 2.566 1.676 5924
-1.091 2.570 1.668 4605
-1.166 2.746 1.764 4021
-1.165 2.744 1.752 3920
-1.145 2.697 1.713 5557
-1.152 2.714 1.712 6366
-1.162 2.738 1.715 7536
-1.164 2.742 1.706 7000
-1.163 2.740 1.694 6588
-1.168 2.750 1.689 4709
-1.180 2.780 1.695 4372
-1.185 2.791 1.690 3350
-1.247 2.937 1.761 3491
-1.213 2.858 1.705 4233
-1.240 2.920 1.729 4080
-1.242 2.924 1.719 4548
-1.246 2.935 1.714 4674
-1.248 2.939 1.705 4536
-1.261 2.970 1.710 4232
-1.271 2.994 1.711 5287
-1.284 3.024 1.715 6998
-1.286 3.028 1.706 9772
-1.287 3.032 1.696 8884
-1.289 3.037 1.687 7347
-1.285 3.028 1.671 5033
-1.349 3.177 1.735 4634
-1.350 3.181 1.725 6141
-1.352 3.185 1.715 7313
-1.357 3.196 1.709 8020
-1.359 3.200 1.699 8543
-1.352 3.185 1.679 7865
-1.351 3.182 1.666 5161
-1.398 3.293 1.707 3945
-1.405 3.310 1.704 4400
-1.396 3.288 1.680 5682
-1.403 3.305 1.677 6735
-1.422 3.349 1.685 7136
-1.427 3.360 1.678 7786
-1.423 3.351 1.661 7150
-1.427 3.362 1.654 7063
-1.429 3.366 1.643 5460
-1.519 3.579 1.726 4822
-1.527 3.596 1.721 3666
-1.534 3.614 1.716 4192
-1.533 3.612 1.702 5202
-1.532 3.609 1.687 3970
-1.606 3.782 1.749 3895
-1.608 3.787 1.737 4799
-1.612 3.798 1.728 5166
-1.620 3.816 1.722 5546
-1.625 3.827 1.713 4468
-1.655 3.899 1.729 4579
-1.654 3.896 1.714 3644
-1.671 3.935 1.716 2785
-1.678 3.953 1.709 2477
-1.721 4.053 1.735 2728
-1.676 3.947 1.679 4658
-1.678 3.951 1.666 5074
-1.735 4.086 1.704 4313
-1.739 4.097 1.694 5036
-1.741 4.101 1.681 4574
-1.746 4.112 1.671 3271
-1.774 4.178 1.681 2881
-1.846 4.348 1.730 2582
-1.813 4.269 1.686 3099
-1.803 4.246 1.662 3650
-1.798 4.236 1.644 3639
-1.909 4.496 1.722 3007
-1.902 4.480 1.700 3706
-1.904 4.484 1.686 3275
-1.941 4.571 1.701 4460
-1.943 4.576 1.687 6519
-1.944 4.580 1.672 5864
-1.946 4.584 1.658 5925
-1.957 4.609 1.650 5645
-1.964 4.627 1.641 4186
-1.972 4.645 1.631 3328
-2.036 4.796 1.663 1909
-2.115 4.982 1.706 2321
-2.123 5.000 1.694 2534
-2.127 5.011 1.681 2594
-2.129 5.015 1.665 3372
-2.134 5.026 1.652 3762
-2.285 5.381 1.741 2993
-2.286 5.386 1.724 2696
-2.288 5.390 1.707 3439
-2.293 5.401 1.693 3423
-2.295 5.405 1.676 2962
-2.294 5.402 1.657 3026
-2.289 5.392 1.636 1934
-2.366 5.573 1.667 1931
-2.455 5.782 1.706 2855
-2.453 5.779 1.686 4014
-2.488 5.861 1.688 4422
-2.502 5.893 1.677 4749
-2.507 5.905 1.661 3219
-2.493 5.873 1.633 2439
-2.631 6.196 1.695 1840
-2.723 6.414 1.729 1990
-2.740 6.453 1.718 1627
-2.748 6.472 1.701 1680
-2.749 6.476 1.680 1502
-2.809 6.615 1.692 1593
-2.822 6.648 1.678 2090
-3.006 7.080 1.755 2971
-3.005 7.077 1.731 3795
-3.009 7.089 1.711 4163
-3.011 7.093 1.688 4213
-3.013 7.097 1.666 4193
-3.015 7.101 1.644 4660
-3.019 7.112 1.623 4164
-3.024 7.123 1.602 2294
-3.382 7.965 1.750 1746
-3.447 8.120 1.755 2505
-3.452 8.131 1.731 3459
-3.457 8.143 1.706 4006
-3.459 8.147 1.681 3234
-3.458 8.144 1.654 1702
-3.688 8.687 1.727 1496
-3.473 8.181 1.607 996
-3.469 8.170 1.579 558
-3.470 8.174 1.553 313
-3.484 8.207 1.532 255
-0.344 0.810 0.240 250
-0.344 0.810 0.238 272
-0.344 0.811 0.235 296
-0.344 0.811 0.233 319
-0.344 0.811 0.230 291
-0.344 0.811 0.228 251
-0.701 1.651 0.035 393
-0.704 1.658 0.029 563
-0.704 1.657 0.024 810
-0.707 1.664 0.019 1064
-0.706 1.664 0.014 1249
-0.706 1.664 0.008 1434
-0.706 1.663 0.003 1435
-0.706 1.663 -0.002 1386
-0.703 1.655 -0.006 1344
-0.706 1.662 -0.012 1237
-0.709 1.669 -0.018 1143
-0.711 1.676 -0.024 851
-0.730 1.719 -0.033 717
-0.726 1.711 -0.038 880
-0.726 1.711 -0.043 1046
-0.726 1.710 -0.048 1046
-0.726 1.710 -0.054 1112
-0.729 1.716 -0.060 1562
-0.847 2.013 1.708 3414
-0.849 2.017 1.702 6829
-0.851 2.021 1.696 6829
-0.885 2.102 1.750 6161
-0.887 2.106 1.743 6712
-0.896 2.129 1.750 9176
-0.900 2.139 1.748 12296
-0.902 2.143 1.742 12296
-0.902 2.142 1.731 11704
-0.901 2.140 1.719 11288
-0.903 2.144 1.713 9075
-0.902 2.142 1.702 7106
-0.906 2.152 1.699 5308
-0.938 2.229 1.746 6344
-0.943 2.239 1.744 5296
-0.962 2.286 1.768 5469
-0.964 2.291 1.761 6131
-0.966 2.295 1.753 5905
-0.970 2.305 1.751 5822
-0.977 2.322 1.752 7125
-0.979 2.326 1.745 8531
-0.986 2.343 1.746 8201
-0.993 2.359 1.748 9125
-0.995 2.364 1.740 7916
-0.989 2.349 1.720 7183
-0.991 2.354 1.713 5134
-1.027 2.438 1.760 3574
-1.023 2.430 1.744 4796
-1.022 2.428 1.733 6324
-1.029 2.445 1.733 7613
-1.031 2.449 1.726 9170
-1.038 2.466 1.726 7826
-1.048 2.489 1.731 8133
-1.047 2.487 1.719 7188
-1.049 2.491 1.711 5820
-1.051 2.496 1.704 4501
-1.068 2.538 1.720 4657
-1.073 2.548 1.716 6193
-1.075 2.552 1.708 5813
-1.076 2.557 1.700 5433
-1.078 2.561 1.692 5668
-1.080 2.565 1.684 5903
-1.082 2.569 1.676 5700
-1.083 2.573 1.668 4317
-1.158 2.750 1.764 4292
-1.157 2.748 1.752 4066
-1.137 2.701 1.713 5762
-1.144 2.718 1.712 6723
-1.154 2.741 1.715 7878
-1.156 2.745 1.706 7277
-1.155 2.743 1.694 6979
-1.162 2.760 1.693 5329
-1.172 2.784 1.695 5207
-1.174 2.788 1.686 3774
-1.200 2.851 1.710 3318
-1.213 2.881 1.716 4303
-1.225 2.911 1.721 4266
-1.230 2.922 1.716 4372
-1.229 2.919 1.703 3999
-1.236 2.937 1.701 3773
-1.255 2.980 1.713 4730
-1.262 2.997 1.711 6250
-1.272 3.021 1.712 7771
-1.276 3.032 1.706 10647
-1.275 3.030 1.693 9565
-1.277 3.034 1.684 7791
-1.276 3.031 1.671 5281
-1.336 3.174 1.732 4219
-1.341 3.185 1.725 5825
-1.343 3.189 1.715 7317
-1.347 3.200 1.709 8244
-1.349 3.204 1.699 8678
-1.345 3.195 1.682 7015
-1.344 3.193 1.669 4214
-1.377 3.270 1.695 5007
-1.378 3.274 1.684 5333
-1.389 3.299 1.684 6091
-1.393 3.309 1.677 6868
-1.412 3.354 1.685 7540
-1.414 3.358 1.675 8140
-1.413 3.355 1.661 7215
-1.417 3.366 1.654 6820
-1.419 3.370 1.643 5167
-1.508 3.583 1.726 5093
-1.516 3.601 1.721 3989
-1.523 3.619 1.716 3823
-1.525 3.623 1.705 4548
-1.533 3.641 1.699 3561
-1.594 3.787 1.749 3767
-1.596 3.792 1.737 4614
-1.601 3.803 1.728 5349
-1.608 3.821 1.722 6138
-1.613 3.832 1.713 4722
-1.644 3.904 1.729 4942
-1.642 3.901 1.714 4019
-1.647 3.912 1.705 2594
-1.632 3.876 1.676 2244
-1.708 4.058 1.735 2810
-1.664 3.952 1.679 4394
-1.669 3.963 1.669 4642
-1.725 4.098 1.707 4231
-1.727 4.102 1.694 5211
-1.729 4.106 1.681 5097
-1.733 4.117 1.671 3619
-1.761 4.184 1.681 3352
-1.801 4.278 1.702 3188
-1.803 4.282 1.688 3615
-1.790 4.251 1.662 4052
-1.786 4.242 1.644 4093
-1.895 4.502 1.722 2766
-1.888 4.486 1.700 3387
-1.890 4.490 1.686 3251
-1.927 4.577 1.701 4933
-1.929 4.581 1.687 6885
-1.930 4.586 1.672 6185
-1.932 4.590 1.658 6147
-1.940 4.608 1.648 5469
-1.947 4.626 1.638 3581
-1.955 4.644 1.628 2743
-2.024 4.809 1.665 2069
-2.103 4.995 1.708 2680
-2.107 5.006 1.694 2920
-2.109 5.010 1.679 2666
-2.117 5.028 1.667 3359
-2.119 5.033 1.652 3654
-2.268 5.388 1.741 3443
-2.255 5.357 1.714 2933
-2.272 5.397 1.707 2551
-2.277 5.408 1.693 2789
-2.278 5.412 1.676 3403
-2.277 5.409 1.657 3544
-2.273 5.399 1.636 2114
-2.346 5.573 1.666 2061
-2.437 5.789 1.706 2986
-2.436 5.786 1.686 4807
-2.470 5.868 1.688 3711
-2.490 5.915 1.681 4407
-2.498 5.933 1.666 2975
-2.476 5.881 1.633 1992
-2.609 6.197 1.694 2060
-2.707 6.429 1.731 2012
-2.717 6.455 1.716 1730
-2.728 6.480 1.701 1521
-2.760 6.556 1.698 1399
-2.789 6.624 1.692 1397
-2.820 6.699 1.688 2064
-2.984 7.089 1.755 3146
-2.986 7.093 1.733 3943
-2.988 7.098 1.711 4513
-2.990 7.102 1.688 4743
-2.991 7.106 1.666 4626
-2.993 7.110 1.644 5064
-2.998 7.121 1.623 4618
-3.003 7.132 1.602 2589
-3.415 8.112 1.777 1822
-3.423 8.130 1.755 2606
-3.428 8.142 1.731 3171
-3.432 8.153 1.706 3571
-3.431 8.150 1.679 3063
-3.430 8.147 1.652 1723
-3.662 8.698 1.727 1506
-3.448 8.191 1.607 1037
-3.447 8.188 1.580 668
-3.455 8.206 1.557 482
-3.462 8.224 1.534 461
-3.467 8.235 1.509 305
-3.473 8.250 1.458 264
-2.611 6.203 1.050 256
-0.342 0.811 0.238 273
-0.342 0.812 0.235 291
-0.342 0.812 0.233 307
-0.342 0.812 0.230 282
-0.702 1.669 0.060 303
-0.699 1.661 0.055 436
-0.699 1.661 0.050 575
-0.699 1.661 0.045 705
-0.702 1.668 0.039 835
-0.699 1.660 0.035 886
-0.699 1.660 0.029 937
-0.699 1.659 0.024 855
-0.698 1.659 0.019 774
-0.698 1.659 0.014 655
-0.701 1.666 0.008 511
-0.701 1.665 0.003 496
-0.701 1.665 -0.002 355
-0.722 1.716 -0.012 284
-0.725 1.722 -0.017 456
-0.725 1.722 -0.023 630
-0.725 1.722 -0.028 859
-0.725 1.721 -0.033 1088
-0.724 1.721 -0.039 1290
-0.724 1.720 -0.044 1493
-0.724 1.720 -0.049 1493
-0.724 1.719 -0.055 1603
-0.723 1.719 -0.060 2314
-0.878 2.096 1.774 3367
-0.880 2.101 1.767 6734
-0.882 2.105 1.761 6734
-0.881 2.104 1.750 6929
-0.883 2.108 1.743 7298
-0.892 2.130 1.750 9121
-0.897 2.140 1.748 11839
-0.899 2.145 1.742 11839
-0.898 2.143 1.731 11268
-0.897 2.141 1.719 10833
-0.899 2.146 1.713 8666
-0.898 2.144 1.702 6799
-0.900 2.148 1.695 5013
-0.932 2.225 1.742 5457
-0.936 2.235 1.739 4509
-0.959 2.288 1.768 5017
-0.960 2.292 1.761 5535
-0.962 2.297 1.753 5715
-0.967 2.307 1.751 5965
-0.971 2.317 1.748 7246
-0.975 2.328 1.745 8655
-0.982 2.344 1.746 8284
-0.989 2.361 1.748 9076
-0.991 2.365 1.740 7831
-0.985 2.351 1.720 7094
-0.987 2.355 1.713 5283
-0.996 2.378 1.718 3570
-1.019 2.432 1.744 4737
-1.018 2.430 1.733 6440
-1.025 2.447 1.733 7711
-1.027 2.451 1.726 9363
-1.034 2.468 1.726 8021
-1.044 2.491 1.731 8326
-1.043 2.489 1.719 7457
-1.042 2.487 1.707 6079
-1.046 2.497 1.704 4466
-1.064 2.539 1.720 4398
-1.068 2.550 1.716 5976
-1.070 2.554 1.708 5838
-1.075 2.565 1.704 5754
-1.076 2.569 1.696 5804
-1.075 2.567 1.684 5864
-1.077 2.571 1.676 5431
-1.087 2.594 1.680 4328
-1.153 2.752 1.764 4443
-1.152 2.750 1.752 4196
-1.132 2.703 1.713 5948
-1.140 2.720 1.712 7001
-1.149 2.743 1.715 8118
-1.151 2.747 1.706 7424
-1.153 2.752 1.697 7266
-1.160 2.769 1.696 5917
-1.167 2.786 1.695 5848
-1.172 2.796 1.690 4151
-1.217 2.904 1.740 3387
-1.211 2.889 1.720 4385
-1.221 2.913 1.721 4578
-1.222 2.917 1.712 4465
-1.221 2.915 1.700 3851
-1.237 2.952 1.708 3797
-1.252 2.989 1.717 6056
-1.257 3.000 1.711 7623
-1.267 3.023 1.712 8793
-1.271 3.034 1.706 11628
-1.270 3.032 1.693 10272
-1.272 3.036 1.684 8092
-1.271 3.034 1.671 5330
-1.334 3.183 1.735 3898
-1.335 3.187 1.725 5460
-1.337 3.192 1.715 7114
-1.342 3.202 1.709 8167
-1.346 3.213 1.702 8617
-1.345 3.211 1.689 6509
-1.369 3.268 1.705 4937
-1.371 3.273 1.695 6019
-1.373 3.277 1.684 6178
-1.380 3.294 1.680 6278
-1.390 3.318 1.680 6798
-1.406 3.356 1.685 7966
-1.408 3.360 1.675 8467
-1.407 3.358 1.661 7237
-1.411 3.368 1.654 6691
-1.501 3.581 1.738 4973
-1.505 3.592 1.729 5164
-1.507 3.597 1.718 3955
-1.478 3.527 1.674 3432
-1.522 3.632 1.708 4079
-1.526 3.643 1.699 3475
-1.588 3.790 1.749 3448
-1.590 3.794 1.737 4299
-1.594 3.805 1.728 5733
-1.602 3.823 1.722 6921
-1.607 3.834 1.713 4932
-1.637 3.907 1.729 5179
-1.636 3.904 1.714 4568
-1.638 3.908 1.702 3499
-1.622 3.872 1.673 3251
-1.655 3.951 1.691 3145
-1.657 3.955 1.679 4223
-1.665 3.973 1.672 4297
-1.718 4.101 1.707 4538
-1.720 4.105 1.694 5367
-1.722 4.109 1.681 5059
-1.755 4.189 1.697 3774
-1.757 4.194 1.684 4174
-1.796 4.288 1.704 3969
-1.795 4.285 1.688 4210
-1.780 4.247 1.660 4334
-1.781 4.251 1.646 4134
-1.891 4.512 1.724 2680
-1.881 4.489 1.700 3033
-1.882 4.493 1.686 3174
-1.916 4.574 1.699 5233
-1.921 4.585 1.687 7055
-1.923 4.589 1.672 6369
-1.924 4.593 1.658 6253
-1.932 4.611 1.648 5146
-1.940 4.629 1.638 2954
-2.038 4.864 1.698 2343
-2.019 4.819 1.668 2161
-2.097 5.005 1.710 2867
-2.099 5.010 1.694 3101
-2.095 5.000 1.674 2739
-2.108 5.032 1.667 3308
-2.178 5.198 1.701 3714
-2.259 5.392 1.741 3752
-2.243 5.354 1.712 3824
-2.251 5.372 1.699 2359
-2.267 5.412 1.693 2403
-2.269 5.416 1.676 3692
-2.268 5.413 1.657 3784
-2.264 5.403 1.636 2128
-2.334 5.570 1.664 2131
-2.430 5.800 1.708 3717
-2.429 5.797 1.688 5581
-2.431 5.802 1.670 3848
-2.483 5.926 1.683 3903
-2.488 5.938 1.666 2714
-2.597 6.198 1.713 1621
-2.598 6.202 1.694 2325
-2.600 6.206 1.674 2522
-2.599 6.203 1.653 1955
-2.645 6.314 1.659 1456
-2.749 6.560 1.698 1543
-2.813 6.714 1.712 1442
-2.809 6.704 1.688 2352
-2.972 7.094 1.755 3101
-2.974 7.098 1.733 3897
-2.976 7.103 1.711 4646
-2.978 7.107 1.688 5035
-2.979 7.111 1.666 4835
-2.981 7.115 1.644 5149
-2.986 7.126 1.623 4748
-2.987 7.130 1.600 2736
-3.404 8.125 1.779 1809
-3.409 8.136 1.755 2630
-3.411 8.140 1.729 2925
-3.419 8.159 1.706 3125
-3.417 8.156 1.679 2860
-3.413 8.146 1.651 1732
-3.647 8.704 1.727 1564
-3.434 8.197 1.607 1055
-3.439 8.208 1.583 840
-3.444 8.219 1.558 733
-3.451 8.237 1.535 612
-3.459 8.256 1.511 405
-0.340 0.812 0.235 268
-0.340 0.812 0.233 297
-0.340 0.813 0.230 291
-3.480 8.307 -0.060 256
-0.693 1.654 0.035 259
-0.693 1.654 0.030 334
-0.696 1.661 0.024 405
-0.696 1.660 0.019 478
-0.696 1.660 0.014 495
-0.695 1.660 0.009 505
-0.695 1.659 0.004 498
-0.698 1.666 -0.002 485
-0.701 1.673 -0.008 483
-0.719 1.716 -0.017 496
-0.722 1.723 -0.023 614
-0.722 1.723 -0.028 726
-0.722 1.722 -0.033 838
-0.721 1.722 -0.039 911
-0.724 1.729 -0.045 985
-0.724 1.728 -0.050 985
-0.724 1.728 -0.055 1083
-0.724 1.727 -0.061 1631
-0.872 2.099 1.774 3883
-0.874 2.104 1.767 7767
-0.875 2.108 1.761 7767
-0.875 2.106 1.750 7804
-0.877 2.111 1.743 8019
-0.886 2.133 1.750 9195
-0.890 2.143 1.748 11449
-0.892 2.147 1.742 11449
-0.891 2.146 1.731 10828
-0.893 2.150 1.724 10325
-0.892 2.148 1.713 8214
-0.892 2.147 1.702 6460
-0.893 2.151 1.695 4695
-0.923 2.221 1.737 4756
-0.955 2.298 1.784 4140
-0.954 2.297 1.772 4672
-0.953 2.295 1.761 4956
-0.955 2.300 1.753 5561
-0.959 2.310 1.751 6170
-0.964 2.320 1.748 7427
-0.968 2.331 1.745 8821
-0.975 2.347 1.746 8338
-0.982 2.364 1.748 8897
-0.981 2.362 1.736 7649
-0.975 2.348 1.716 6956
-0.980 2.358 1.713 5389
-0.989 2.381 1.718 4137
-1.006 2.423 1.736 4733
-1.011 2.433 1.733 6455
-1.015 2.444 1.729 7723
-1.019 2.454 1.726 9466
-1.026 2.471 1.726 8220
-1.033 2.488 1.727 8485
-1.035 2.492 1.719 7785
-1.034 2.490 1.707 6473
-1.036 2.494 1.700 4561
-1.056 2.543 1.720 4282
-1.060 2.553 1.716 5752
-1.062 2.558 1.708 5883
-1.067 2.568 1.704 6101
-1.071 2.579 1.700 6004
-1.078 2.596 1.700 6097
-1.080 2.600 1.692 5356
-1.084 2.610 1.688 4776
-1.086 2.615 1.679 4946
-1.088 2.619 1.671 4441
-1.127 2.713 1.716 5960
-1.134 2.730 1.716 7140
-1.141 2.747 1.715 8252
-1.143 2.751 1.706 7465
-1.144 2.755 1.697 7451
-1.151 2.772 1.696 6340
-1.159 2.789 1.695 6200
-1.160 2.794 1.686 4378
-1.208 2.908 1.740 3575
-1.204 2.900 1.723 4445
-1.211 2.917 1.721 4936
-1.219 2.934 1.719 4838
-1.223 2.945 1.714 4191
-1.230 2.962 1.712 4606
-1.246 2.999 1.720 7407
-1.247 3.003 1.711 8839
-1.257 3.027 1.712 9775
-1.262 3.038 1.706 12583
-1.261 3.036 1.693 10947
-1.263 3.040 1.684 8401
-1.264 3.044 1.674 5433
-1.324 3.187 1.735 3759
-1.326 3.192 1.725 5204
-1.327 3.196 1.715 6835
-1.332 3.207 1.709 7931
-1.336 3.218 1.702 8241
-1.338 3.222 1.692 6081
-1.359 3.273 1.705 5907
-1.361 3.277 1.695 7085
-1.363 3.281 1.684 7031
-1.370 3.299 1.680 6455
-1.380 3.323 1.680 6667
-1.396 3.360 1.685 8095
-1.397 3.365 1.675 8415
-1.396 3.362 1.661 6795
-1.401 3.373 1.654 5901
-1.489 3.586 1.738 5125
-1.494 3.597 1.729 5485
-1.496 3.601 1.718 4266
-1.551 3.734 1.764 3311
-1.553 3.739 1.752 3995
-1.515 3.648 1.699 3412
-1.520 3.659 1.691 3000
-1.578 3.799 1.737 3788
-1.588 3.824 1.734 6092
-1.590 3.828 1.722 7532
-1.595 3.839 1.713 5226
-1.625 3.912 1.729 5487
-1.624 3.909 1.714 5258
-1.605 3.866 1.682 5174
-1.610 3.877 1.673 4671
-1.640 3.949 1.688 3533
-1.648 3.967 1.681 4087
-1.652 3.978 1.672 4206
-1.708 4.113 1.710 4817
-1.707 4.111 1.694 5456
-1.709 4.115 1.681 4693
-1.745 4.202 1.700 4635
-1.744 4.199 1.684 5122
-1.786 4.300 1.707 4788
-1.782 4.290 1.688 4701
-1.763 4.246 1.657 4611
-1.768 4.257 1.646 4030
-1.787 4.303 1.648 2942
-1.875 4.515 1.708 2759
-1.868 4.499 1.686 3109
-1.902 4.580 1.699 5451
-1.904 4.584 1.684 7143
-1.908 4.595 1.672 6316
-1.913 4.606 1.660 5930
-1.918 4.617 1.648 4484
-1.928 4.642 1.641 2417
-2.020 4.863 1.696 2660
-2.071 4.987 1.719 2423
-2.082 5.012 1.710 2803
-2.078 5.002 1.690 3165
-2.076 4.999 1.672 2876
-2.093 5.039 1.667 3140
-2.162 5.205 1.701 3936
-2.213 5.329 1.720 5377
-2.218 5.340 1.706 5362
-2.220 5.344 1.689 3732
-2.295 5.525 1.723 2894
-2.335 5.621 1.732 3898
-2.251 5.420 1.657 3824
-2.403 5.785 1.740 2929
-2.407 5.797 1.724 2593
-2.412 5.808 1.708 4634
-2.411 5.805 1.688 6288
-2.413 5.809 1.670 4893
-2.417 5.820 1.653 4170
-2.419 5.824 1.635 2796
-2.577 6.206 1.713 1931
-2.579 6.210 1.694 2687
-2.578 6.207 1.672 3192
-2.580 6.211 1.653 2606
-2.626 6.322 1.659 1438
-2.728 6.569 1.698 1649
-2.789 6.716 1.711 1696
-2.791 6.720 1.689 2677
-2.950 7.103 1.755 2804
-2.952 7.108 1.733 3525
-2.954 7.112 1.711 4490
-2.956 7.116 1.688 5088
-2.957 7.120 1.666 4863
-2.959 7.124 1.644 5005
-2.964 7.136 1.623 4581
-2.965 7.140 1.600 2693
-3.319 7.991 1.750 1781
-3.384 8.147 1.755 2514
-3.385 8.151 1.729 2608
-3.390 8.163 1.705 2746
-3.389 8.159 1.678 2723
-3.388 8.156 1.651 1817
-3.620 8.716 1.727 1570
-3.409 8.208 1.607 1035
-3.413 8.219 1.583 886
-3.418 8.230 1.558 770
-3.432 8.263 1.537 608
-3.436 8.274 1.513 535
-3.435 8.270 1.485 354
-3.433 8.266 1.458 293
-3.432 8.263 1.431 338
-3.430 8.259 1.404 293
-3.567 8.589 0.312 332
-3.567 8.589 0.285 347
-3.567 8.589 0.258 272
-3.619 8.714 0.178 281
-3.531 8.502 0.150 294
-3.540 8.524 0.123 326
-3.543 8.531 0.096 309
-3.455 8.319 0.071 274
-3.458 8.326 0.045 316
-3.458 8.326 0.019 314
-3.458 8.326 -0.007 312
-3.458 8.325 -0.034 345
-3.457 8.325 -0.060 378
-3.457 8.324 -0.086 346
-3.457 8.324 -0.112 314
-0.690 1.662 0.019 273
-0.693 1.669 0.014 280
-0.696 1.676 0.008 299
-0.717 1.727 -0.002 381
-0.717 1.727 -0.007 565
-0.717 1.726 -0.012 592
-0.717 1.726 -0.017 856
-0.714 1.718 -0.022 1130
-0.716 1.725 -0.028 1242
-0.716 1.725 -0.033 1366
-0.716 1.724 -0.039 1327
-0.716 1.724 -0.044 1287
-0.716 1.723 -0.049 1287
-0.715 1.723 -0.055 1183
-0.718 1.729 -0.061 1549
-0.868 2.101 1.774 4373
-0.870 2.105 1.767 8747
-0.872 2.109 1.761 8747
-0.871 2.108 1.750 8732
-0.873 2.112 1.743 8881
-0.882 2.134 1.750 9291
-0.886 2.145 1.748 11007
-0.888 2.149 1.742 11007
-0.888 2.147 1.731 10353
-0.889 2.152 1.724 9799
-0.889 2.150 1.713 7744
-0.888 2.148 1.702 6096
-0.890 2.152 1.695 4361
-0.916 2.217 1.733 4285
-0.953 2.306 1.788 4142
-0.953 2.305 1.776 4312
-0.952 2.303 1.765 4448
-0.954 2.307 1.758 5429
-0.955 2.312 1.751 6412
-0.960 2.322 1.748 7628
-0.964 2.333 1.745 8984
-0.968 2.343 1.742 8347
-0.978 2.366 1.748 8571
-0.977 2.364 1.736 7361
-0.971 2.350 1.716 6791
-0.976 2.360 1.713 5372
-0.988 2.389 1.722 4614
-0.992 2.400 1.719 4963
-1.004 2.429 1.728 6396
-1.011 2.446 1.729 7617
-1.015 2.456 1.726 9479
-1.022 2.473 1.726 8448
-1.029 2.490 1.727 8785
-1.031 2.494 1.719 8038
-1.030 2.492 1.707 6753
-1.032 2.496 1.700 4629
-1.054 2.551 1.724 4086
-1.056 2.555 1.716 5148
-1.060 2.566 1.712 5501
-1.065 2.576 1.708 5961
-1.072 2.593 1.708 6322
-1.074 2.597 1.700 6838
-1.078 2.608 1.696 6093
-1.082 2.619 1.691 5557
-1.081 2.616 1.679 5698
-1.086 2.627 1.675 5215
-1.122 2.714 1.716 5878
-1.129 2.732 1.716 7226
-1.136 2.749 1.715 8300
-1.138 2.753 1.706 7452
-1.140 2.757 1.697 7530
-1.144 2.768 1.693 6504
-1.154 2.791 1.695 6163
-1.156 2.796 1.686 4376
-1.203 2.910 1.740 3764
-1.199 2.902 1.723 4590
-1.204 2.912 1.718 5258
-1.214 2.936 1.719 5233
-1.218 2.947 1.714 4694
-1.233 2.984 1.722 5611
-1.238 2.995 1.717 8301
-1.245 3.012 1.714 9511
-1.252 3.030 1.712 10643
-1.254 3.034 1.702 13497
-1.256 3.038 1.693 11362
-1.260 3.049 1.687 8389
-1.259 3.046 1.674 5116
-1.318 3.189 1.735 3661
-1.323 3.200 1.729 4830
-1.325 3.205 1.719 6143
-1.326 3.209 1.709 7229
-1.331 3.220 1.702 7584
-1.335 3.231 1.695 5831
-1.354 3.275 1.705 6902
