7.618 5.177 1.826 925
7.622 5.180 1.800 1271
7.416 5.040 1.755 980
7.639 5.192 1.776 1052
7.794 5.297 1.809 794
7.798 5.299 1.782 863
7.656 5.203 1.752 696
7.801 5.302 1.754 750
7.447 5.061 1.680 436
7.805 5.305 1.727 490
7.444 5.059 1.653 343
1.892 1.282 1.783 3684
1.708 1.157 1.619 778
1.896 1.285 1.777 7369
1.711 1.159 1.613 1557
1.900 1.287 1.770 7369
1.720 1.165 1.612 1519
1.910 1.293 1.768 5823
1.718 1.164 1.601 1258
1.930 1.307 1.775 4979
1.828 1.238 1.688 1139
1.944 1.317 1.778 4084
1.843 1.248 1.691 1154
1.980 1.341 1.799 4506
1.868 1.265 1.703 919
1.984 1.344 1.792 4506
1.872 1.268 1.696 908
1.956 1.325 1.758 3562
2.058 1.394 1.844 943
1.954 1.324 1.747 3783
2.057 1.393 1.833 1444
2.001 1.356 1.776 3094
1.899 1.286 1.690 832
2.011 1.362 1.773 3685
1.908 1.293 1.688 773
2.020 1.368 1.771 4227
2.123 1.438 1.856 1370
2.035 1.378 1.773 5166
2.138 1.448 1.857 1308
2.044 1.385 1.770 4389
2.148 1.455 1.854 983
2.065 1.398 1.776 4468
1.961 1.328 1.693 937
2.101 1.423 1.796 5338
1.998 1.353 1.712 1503
2.100 1.422 1.784 5334
1.996 1.352 1.701 1155
2.115 1.432 1.785 5368
2.011 1.362 1.703 1145
2.102 1.424 1.765 5680
1.998 1.353 1.683 457
2.106 1.427 1.758 6082
2.211 1.497 1.840 561
2.110 1.429 1.751 5458
2.215 1.500 1.832 701
2.114 1.432 1.743 4834
2.219 1.503 1.825 841
2.123 1.438 1.740 3551
2.228 1.509 1.821 1352
2.199 1.490 1.788 3516
2.094 1.418 1.708 1917
2.198 1.489 1.776 3843
2.092 1.417 1.696 1199
2.196 1.487 1.764 4341
2.090 1.416 1.685 516
2.205 1.494 1.761 4451
2.311 1.566 1.840 1077
2.265 1.534 1.795 5137
2.154 1.459 1.712 1842
2.280 1.545 1.795 5543
2.174 1.473 1.717 2741
2.290 1.551 1.792 6245
2.184 1.479 1.713 3377
2.300 1.558 1.788 5113
2.193 1.485 1.710 2951
2.320 1.572 1.792 5060
2.208 1.496 1.711 2579
2.330 1.578 1.788 4104
2.217 1.502 1.707 2309
2.306 1.562 1.760 3491
2.199 1.489 1.683 1108
2.310 1.564 1.752 4162
2.417 1.637 1.828 759
2.331 1.579 1.756 5152
2.438 1.651 1.832 672
2.334 1.581 1.748 5743
2.442 1.654 1.823 934
2.344 1.588 1.744 5425
2.452 1.661 1.819 2016
2.354 1.594 1.740 5168
2.462 1.667 1.814 2418
2.369 1.604 1.739 5846
2.477 1.678 1.814 1781
2.424 1.642 1.766 6838
2.316 1.568 1.692 1807
2.399 1.625 1.738 6486
2.514 1.703 1.816 2189
2.472 1.674 1.776 7028
2.363 1.601 1.703 2312
2.482 1.681 1.772 8842
2.590 1.755 1.845 1581
2.491 1.687 1.767 7565
2.600 1.761 1.839 2139
2.501 1.694 1.762 6570
2.610 1.768 1.834 2010
2.505 1.697 1.753 5298
2.614 1.771 1.825 1832
2.520 1.707 1.752 4478
2.630 1.781 1.824 2598
2.524 1.710 1.743 4870
2.634 1.784 1.814 3578
2.615 1.771 1.790 4818
2.505 1.697 1.720 3313
2.625 1.778 1.785 5212
2.514 1.703 1.715 2471
2.629 1.780 1.776 4153
2.518 1.706 1.706 2221
2.662 1.803 1.785 4228
2.551 1.728 1.716 1747
2.665 1.805 1.776 4639
2.555 1.731 1.707 2004
2.681 1.816 1.774 5320
2.570 1.741 1.705 2771
2.703 1.831 1.775 6741
2.592 1.755 1.707 2565
2.712 1.837 1.770 5755
2.601 1.762 1.702 1531
2.681 1.816 1.739 4590
2.792 1.891 1.806 1607
2.703 1.831 1.740 6304
2.814 1.906 1.807 3064
2.724 1.845 1.741 10075
2.836 1.921 1.808 2520
2.734 1.852 1.735 12493
2.846 1.927 1.802 1864
2.749 1.862 1.733 10202
2.861 1.938 1.799 1666
2.765 1.873 1.730 8520
2.877 1.949 1.796 3558
2.769 1.876 1.720 7977
2.881 1.952 1.786 5425
2.773 1.878 1.711 7684
2.885 1.954 1.776 6072
2.777 1.881 1.701 5559
2.889 1.957 1.766 5177
2.857 1.935 1.735 4384
2.982 2.020 1.806 3598
2.867 1.942 1.729 4726
3.010 2.039 1.809 3617
2.865 1.941 1.715 5440
3.008 2.037 1.795 3976
2.881 1.951 1.712 5088
3.012 2.040 1.785 4241
2.902 1.966 1.712 4624
3.087 2.091 1.814 3276
3.079 2.086 1.796 3262
2.918 1.977 1.708 2644
3.066 2.076 1.776 3069
3.191 2.161 1.844 2101
3.069 2.079 1.765 2836
3.189 2.160 1.830 2138
3.133 2.122 1.787 3975
3.019 2.045 1.726 2142
3.107 2.105 1.760 4045
3.221 2.182 1.820 3711
3.201 2.168 1.796 5061
3.087 2.091 1.736 3716
3.187 2.159 1.776 5317
3.073 2.081 1.716 2486
3.179 2.153 1.759 3518
3.294 2.231 1.818 1328
3.274 2.217 1.794 3726
3.159 2.140 1.735 1772
3.284 2.224 1.786 4016
3.169 2.146 1.727 1744
3.288 2.227 1.774 3476
3.403 2.305 1.832 1644
3.298 2.234 1.766 4076
3.413 2.312 1.823 2243
3.320 2.249 1.763 7039
3.435 2.327 1.820 2378
3.336 2.259 1.758 8132
3.451 2.338 1.814 2473
3.352 2.270 1.752 6452
3.522 2.386 1.835 1524
3.356 2.273 1.740 4309
3.520 2.384 1.820 1415
3.366 2.280 1.732 3054
3.481 2.358 1.787 1921
3.443 2.332 1.755 3443
3.559 2.410 1.810 1337
3.599 2.438 1.815 3381
3.471 2.351 1.754 3336
3.609 2.445 1.805 4793
3.481 2.358 1.745 3414
3.571 2.418 1.772 4946
3.687 2.497 1.826 1459
3.574 2.421 1.760 4462
3.691 2.500 1.813 1967
3.597 2.436 1.756 3542
3.713 2.515 1.809 1671
3.607 2.443 1.746 3871
3.723 2.522 1.799 1236
3.648 2.471 1.750 3389
3.764 2.550 1.802 2836
3.744 2.536 1.778 5917
3.627 2.457 1.726 2020
3.748 2.538 1.765 6225
3.865 2.618 1.817 2181
3.752 2.541 1.752 3912
3.869 2.620 1.803 3753
3.780 2.560 1.750 3310
3.897 2.640 1.800 2603
3.889 2.634 1.781 3761
3.772 2.555 1.731 2711
3.881 2.629 1.763 4529
3.763 2.549 1.713 1776
3.965 2.686 1.783 3681
3.847 2.606 1.733 1729
3.957 2.680 1.764 3150
4.074 2.760 1.813 1447
3.979 2.695 1.758 2979
4.116 2.788 1.814 2156
3.995 2.706 1.749 3297
4.138 2.803 1.807 2588
4.080 2.764 1.768 2537
4.205 2.848 1.818 2410
4.177 2.830 1.791 3212
3.997 2.707 1.718 2099
4.169 2.824 1.771 4688
4.001 2.710 1.705 1895
4.198 2.843 1.766 3609
4.079 2.763 1.720 2214
4.227 2.863 1.761 3464
4.102 2.778 1.713 1821
4.299 2.912 1.773 5041
4.181 2.832 1.727 1464
4.303 2.915 1.758 3645
4.435 3.004 1.808 1490
4.295 2.909 1.738 2730
4.432 3.002 1.790 2014
4.436 3.005 1.774 3281
4.273 2.895 1.714 2889
4.453 3.016 1.764 3872
4.591 3.109 1.814 2101
4.588 3.108 1.796 3301
4.457 3.019 1.748 2662
4.599 3.115 1.782 3656
4.467 3.026 1.735 1958
4.609 3.122 1.768 3781
4.477 3.032 1.721 1647
4.613 3.124 1.752 4493
4.468 3.026 1.701 1217
4.623 3.131 1.738 4604
4.743 3.212 1.780 1235
4.633 3.138 1.724 3009
4.753 3.219 1.766 1761
4.738 3.209 1.743 2148
4.858 3.290 1.784 1705
4.780 3.237 1.739 2960
4.950 3.353 1.797 1320
4.847 3.283 1.743 2813
5.049 3.420 1.811 1905
4.926 3.337 1.752 4155
5.046 3.418 1.791 2910
4.949 3.352 1.740 4677
5.069 3.434 1.780 2542
4.959 3.359 1.725 6424
5.080 3.441 1.764 4795
5.065 3.431 1.740 7568
4.944 3.349 1.702 4546
5.068 3.433 1.722 3775
5.265 3.566 1.784 2127
5.263 3.565 1.764 3500
5.415 3.668 1.811 2091
5.260 3.563 1.744 5596
5.425 3.675 1.794 4129
5.258 3.561 1.723 4946
5.436 3.682 1.777 4011
5.440 3.685 1.758 3725
5.268 3.568 1.707 3319
5.437 3.683 1.737 3374
5.711 3.868 1.819 1846
5.441 3.685 1.718 3029
5.721 3.875 1.800 1807
5.451 3.692 1.701 3131
5.936 4.021 1.841 1828
5.997 4.062 1.837 2413
5.455 3.695 1.682 1892
6.014 4.074 1.819 2652
6.135 4.156 1.853 967
6.024 4.081 1.800 3310
6.197 4.197 1.848 1401
6.028 4.083 1.779 2344
6.169 4.179 1.818 1626
6.160 4.173 1.792 2109
6.288 4.259 1.827 1742
6.292 4.262 1.805 2557
6.158 4.171 1.769 1654
6.290 4.260 1.781 2365
6.437 4.360 1.820 1761
6.563 4.445 1.829 2787
6.319 4.280 1.766 1597
6.573 4.453 1.808 3046
6.355 4.305 1.752 1734
6.590 4.464 1.788 2866
6.334 4.290 1.723 1387
6.594 4.467 1.765 2172
7.146 4.841 1.902 1214
6.996 4.739 1.839 1265
7.176 4.861 1.883 1217
7.193 4.872 1.861 1326
6.994 4.737 1.813 1106
7.204 4.880 1.837 1577
7.030 4.762 1.796 888
7.221 4.891 1.815 2306
7.440 5.039 1.866 1327
7.225 4.894 1.790 2403
7.437 5.038 1.838 1742
7.435 5.036 1.811 1707
7.222 4.892 1.763 1324
7.433 5.034 1.783 1690
7.626 5.165 1.826 997
7.424 5.028 1.755 1311
7.630 5.168 1.800 1258
7.653 5.184 1.777 998
7.421 5.027 1.727 838
7.806 5.287 1.782 836
7.683 5.204 1.756 697
7.810 5.290 1.754 771
7.461 5.054 1.682 526
7.814 5.293 1.727 498
7.452 5.047 1.653 413
7.834 5.306 -0.787 273
7.832 5.305 -0.814 273
1.894 1.280 1.783 3466
1.709 1.155 1.619 773
1.898 1.282 1.777 6933
1.713 1.157 1.613 1547
1.902 1.285 1.770 6933
1.722 1.163 1.612 1515
1.911 1.291 1.768 5445
1.720 1.162 1.601 1235
1.936 1.308 1.780 4804
1.835 1.240 1.692 1355
1.951 1.318 1.783 3965
1.850 1.250 1.695 1338
1.982 1.339 1.799 4243
1.869 1.263 1.703 1028
1.986 1.342 1.792 4243
1.873 1.266 1.696 1012
1.963 1.326 1.762 3545
2.065 1.395 1.849 706
1.961 1.325 1.751 3895
2.064 1.394 1.837 1124
1.965 1.328 1.744 3191
2.068 1.397 1.830 1311
2.012 1.360 1.773 4067
1.910 1.290 1.688 788
2.022 1.366 1.771 4466
2.125 1.435 1.856 1364
2.037 1.376 1.773 5194
2.140 1.446 1.857 1325
2.041 1.379 1.766 4301
2.144 1.448 1.850 1325
2.066 1.396 1.776 4000
1.963 1.326 1.693 880
2.103 1.421 1.796 4971
1.999 1.351 1.712 1460
2.107 1.423 1.788 5155
2.003 1.353 1.705 1239
2.111 1.426 1.781 5319
2.007 1.356 1.698 1000
2.104 1.421 1.765 5777
2.000 1.351 1.683 463
2.108 1.424 1.758 6278
2.212 1.495 1.840 565
2.112 1.427 1.751 5730
2.216 1.497 1.832 679
2.116 1.429 1.743 5182
2.221 1.500 1.825 792
2.125 1.436 1.740 3879
2.230 1.507 1.821 1262
2.173 1.468 1.767 3002
2.068 1.397 1.686 682
2.205 1.490 1.780 3532
2.099 1.418 1.700 1453
2.192 1.481 1.760 4213
2.298 1.552 1.840 624
2.252 1.521 1.794 4351
2.146 1.450 1.715 1922
2.267 1.532 1.795 5494
2.155 1.456 1.712 1844
2.277 1.538 1.791 5871
2.170 1.466 1.713 2549
2.286 1.544 1.788 6540
2.180 1.473 1.709 3333
2.296 1.551 1.784 5253
2.189 1.479 1.706 2996
2.322 1.569 1.792 4882
2.210 1.493 1.711 2839
2.326 1.572 1.784 4049
2.219 1.499 1.707 2537
2.313 1.563 1.764 3484
2.206 1.490 1.687 1422
2.312 1.562 1.752 4317
2.204 1.489 1.676 780
2.332 1.576 1.756 5382
2.440 1.648 1.832 643
2.336 1.578 1.748 5860
2.444 1.651 1.823 887
2.340 1.581 1.740 5409
2.448 1.654 1.815 2214
2.361 1.595 1.743 5049
2.469 1.668 1.818 1818
2.371 1.602 1.739 5761
2.479 1.675 1.814 1722
2.380 1.608 1.735 6698
2.489 1.681 1.809 1737
2.401 1.622 1.738 6524
2.516 1.700 1.816 2069
2.474 1.671 1.776 6680
2.365 1.598 1.703 2158
2.484 1.678 1.772 8484
2.593 1.751 1.845 1499
2.493 1.684 1.767 7272
2.602 1.758 1.839 2077
2.503 1.691 1.762 6390
2.612 1.765 1.834 1971
2.507 1.694 1.753 5281
2.616 1.768 1.825 1803
2.517 1.700 1.748 4585
2.626 1.774 1.820 2815
2.526 1.707 1.743 5093
2.636 1.781 1.814 3752
2.611 1.764 1.787 5343
2.501 1.690 1.716 3028
2.621 1.771 1.781 5680
2.511 1.696 1.711 2310
2.631 1.777 1.776 4416
2.520 1.703 1.706 2206
2.664 1.800 1.785 4393
2.553 1.725 1.716 1726
2.668 1.802 1.776 4804
2.557 1.727 1.707 1985
2.683 1.813 1.774 5309
2.572 1.738 1.705 2638
2.705 1.827 1.775 6441
2.594 1.752 1.707 2484
2.715 1.834 1.770 5684
2.603 1.759 1.702 1547
2.677 1.809 1.735 5266
2.789 1.884 1.803 1766
2.699 1.823 1.737 6764
2.810 1.899 1.804 3369
2.726 1.842 1.741 10526
2.838 1.917 1.808 2498
2.736 1.848 1.735 12954
2.848 1.924 1.802 1791
2.752 1.859 1.733 10623
2.864 1.935 1.799 1787
2.767 1.870 1.730 9065
2.880 1.945 1.796 3704
2.771 1.872 1.720 8350
2.884 1.948 1.786 5389
2.775 1.875 1.711 7952
2.888 1.951 1.776 5865
2.779 1.877 1.701 5804
2.891 1.953 1.766 5150
2.860 1.932 1.735 4527
2.984 2.016 1.806 3605
2.870 1.939 1.729 5202
3.018 2.039 1.812 3819
2.867 1.937 1.715 5860
3.010 2.034 1.795 4085
2.883 1.948 1.712 5347
3.008 2.032 1.782 4142
2.911 1.966 1.715 4717
3.096 2.091 1.817 3158
3.088 2.086 1.800 3065
2.927 1.977 1.712 2782
3.092 2.089 1.789 2581
3.206 2.166 1.851 1992
3.102 2.096 1.781 2578
3.216 2.173 1.843 1933
3.136 2.119 1.787 4130
3.022 2.042 1.726 1752
3.128 2.113 1.769 4369
3.242 2.190 1.830 3064
3.210 2.169 1.800 4653
3.096 2.091 1.740 4022
3.190 2.155 1.776 4800
3.075 2.078 1.716 2490
3.188 2.154 1.762 3267
3.073 2.076 1.703 1256
3.276 2.213 1.794 3475
3.162 2.136 1.735 1762
3.280 2.216 1.782 3874
3.165 2.138 1.724 1589
3.284 2.219 1.771 3851
3.411 2.305 1.835 1663
3.306 2.234 1.769 4708
3.422 2.311 1.826 2334
3.322 2.245 1.763 7738
3.438 2.322 1.820 2620
3.338 2.255 1.758 8715
3.454 2.333 1.814 2909
3.348 2.262 1.749 6186
3.464 2.340 1.805 1994
3.352 2.265 1.737 3892
3.523 2.380 1.820 1447
3.423 2.313 1.758 3131
3.307 2.234 1.702 1232
3.439 2.324 1.752 3661
3.555 2.402 1.807 1391
3.474 2.347 1.754 3323
3.608 2.438 1.817 3096
3.612 2.440 1.805 4665
3.484 2.354 1.745 3497
3.573 2.414 1.772 5162
3.690 2.493 1.826 1356
3.577 2.417 1.760 4696
3.694 2.496 1.813 1847
3.606 2.436 1.759 3737
3.722 2.515 1.812 1528
3.622 2.447 1.752 4385
3.751 2.534 1.810 1221
3.651 2.466 1.750 4538
3.767 2.545 1.802 2810
3.747 2.531 1.778 5899
3.630 2.452 1.726 2759
3.751 2.534 1.765 6390
3.886 2.626 1.825 2204
3.755 2.537 1.752 4129
3.872 2.616 1.803 3605
3.777 2.552 1.747 2996
3.894 2.631 1.798 2688
3.886 2.625 1.779 3752
3.769 2.546 1.729 2612
3.878 2.620 1.760 4770
3.760 2.540 1.710 1914
3.882 2.622 1.746 3823
3.999 2.702 1.796 2176
3.954 2.671 1.761 3398
4.072 2.751 1.810 1650
3.945 2.665 1.742 3256
4.082 2.758 1.798 2588
3.999 2.701 1.749 3519
4.117 2.781 1.797 2791
4.077 2.755 1.765 3069
4.208 2.843 1.818 2271
4.218 2.850 1.805 3022
4.087 2.761 1.753 2975
4.172 2.819 1.771 4011
4.010 2.709 1.707 2014
4.214 2.847 1.771 3697
4.095 2.767 1.725 2756
4.230 2.858 1.761 3817
4.105 2.773 1.713 2185
4.303 2.907 1.773 5170
4.184 2.827 1.727 1263
4.307 2.910 1.758 3825
4.438 2.998 1.808 1345
4.286 2.895 1.733 3285
4.405 2.976 1.778 2054
4.277 2.889 1.714 3773
4.440 2.999 1.774 3194
4.450 3.006 1.761 3811
4.594 3.104 1.814 1982
4.592 3.102 1.796 3152
4.460 3.013 1.748 2461
4.602 3.109 1.782 3644
4.470 3.020 1.735 1589
4.606 3.112 1.766 3818
4.481 3.027 1.721 1456
4.617 3.119 1.752 4395
4.478 3.025 1.704 1326
4.633 3.130 1.741 4448
4.753 3.211 1.782 1006
4.643 3.137 1.727 3021
4.763 3.218 1.768 1438
4.742 3.203 1.743 2359
4.862 3.284 1.784 1652
4.777 3.227 1.737 2804
4.954 3.347 1.797 1491
4.851 3.277 1.743 2902
4.971 3.358 1.783 1453
4.930 3.331 1.752 4508
5.051 3.412 1.791 2256
4.953 3.346 1.740 4778
5.074 3.428 1.780 2037
4.963 3.353 1.725 6121
5.084 3.435 1.764 3983
5.069 3.424 1.740 6410
4.948 3.343 1.702 4520
5.073 3.427 1.722 3069
5.276 3.564 1.786 2142
5.280 3.567 1.768 3406
5.419 3.661 1.811 2029
5.265 3.557 1.744 5230
5.430 3.668 1.794 4218
5.262 3.555 1.723 4671
5.440 3.675 1.777 4029
5.444 3.678 1.758 3628
5.272 3.562 1.707 3342
5.442 3.676 1.737 3308
5.716 3.861 1.819 1727
5.446 3.679 1.718 3163
5.726 3.868 1.800 1700
5.456 3.686 1.701 3253
5.941 4.013 1.841 1680
6.002 4.055 1.837 2241
5.459 3.688 1.682 1917
6.019 4.066 1.819 2632
6.140 4.148 1.853 1220
6.029 4.073 1.800 3244
6.202 4.190 1.848 1378
6.033 4.076 1.779 2210
6.161 4.162 1.814 1457
6.159 4.161 1.791 2049
6.293 4.252 1.827 1600
6.297 4.254 1.805 2444
6.157 4.159 1.767 1627
6.295 4.253 1.781 2342
6.442 4.352 1.820 1753
6.562 4.433 1.827 2470
6.357 4.294 1.774 1669
6.585 4.449 1.809 2752
6.367 4.301 1.754 1967
6.596 4.456 1.788 2708
6.345 4.287 1.725 1475
6.600 4.459 1.765 2108
7.152 4.832 1.902 1158
6.649 4.492 1.753 1445
7.002 4.731 1.839 1266
6.974 4.712 1.807 1241
7.199 4.864 1.861 1095
7.210 4.871 1.837 1288
7.332 4.953 1.866 946
7.220 4.878 1.813 2017
7.446 5.030 1.866 1557
7.231 4.885 1.790 2180
7.444 5.029 1.838 1984
7.441 5.027 1.811 2078
7.235 4.888 1.764 1235
7.439 5.025 1.783 2199
7.626 5.152 1.825 1039
7.430 5.019 1.755 1683
7.630 5.155 1.798 1216
7.434 5.022 1.728 1043
7.660 5.175 1.777 950
7.812 5.278 1.782 790
7.450 5.033 1.705 676
7.816 5.280 1.754 731
7.467 5.045 1.682 626
7.464 5.043 1.654 498
7.820 5.283 1.727 470
1.896 1.276 1.783 3183
1.711 1.152 1.619 748
1.900 1.279 1.777 6366
1.715 1.154 1.613 1497
1.904 1.282 1.770 6366
1.724 1.160 1.612 1466
1.914 1.288 1.768 4938
1.722 1.159 1.601 1216
1.944 1.308 1.785 4735
1.843 1.240 1.697 1621
1.959 1.318 1.787 4164
1.857 1.250 1.700 1541
1.979 1.332 1.794 4371
1.877 1.263 1.707 1187
1.983 1.334 1.787 4371
1.881 1.266 1.701 1168
1.965 1.323 1.762 3992
1.863 1.254 1.676 707
1.964 1.322 1.751 4401
2.066 1.391 1.837 1108
1.979 1.332 1.753 3690
2.081 1.401 1.839 899
2.015 1.356 1.773 4614
1.912 1.287 1.688 794
2.024 1.362 1.771 4776
2.127 1.432 1.856 1347
2.034 1.369 1.768 5271
2.137 1.438 1.853 1661
2.043 1.375 1.766 4276
2.146 1.445 1.850 1324
2.112 1.422 1.812 3724
2.003 1.348 1.724 1472
2.111 1.421 1.800 4687
2.002 1.347 1.712 1448
2.110 1.420 1.788 5016
2.005 1.350 1.705 1264
2.108 1.419 1.777 5329
2.004 1.349 1.694 882
2.106 1.418 1.765 5906
2.002 1.347 1.683 481
2.110 1.420 1.758 6517
2.215 1.491 1.840 598
2.114 1.423 1.751 6034
2.219 1.493 1.832 696
2.118 1.426 1.743 5551
2.223 1.496 1.825 794
2.128 1.432 1.740 4204
2.233 1.503 1.821 1213
2.137 1.438 1.737 3011
2.242 1.509 1.818 1616
2.180 1.467 1.759 3399
2.285 1.538 1.839 690
2.195 1.477 1.760 4059
2.301 1.548 1.840 686
2.255 1.517 1.794 4627
2.149 1.446 1.715 2053
2.270 1.528 1.795 5857
2.158 1.452 1.712 1821
2.279 1.534 1.791 6247
2.173 1.462 1.713 2498
2.289 1.540 1.788 6880
2.182 1.469 1.709 3263
2.299 1.547 1.784 5421
2.192 1.475 1.706 3023
2.325 1.565 1.792 4696
2.212 1.489 1.711 3118
2.329 1.567 1.784 4015
2.222 1.495 1.707 2770
2.316 1.559 1.764 3504
2.209 1.486 1.687 1576
2.320 1.561 1.756 4481
2.212 1.489 1.680 989
2.330 1.568 1.752 5612
2.222 1.495 1.676 666
2.339 1.574 1.748 5992
2.447 1.647 1.823 889
2.343 1.577 1.740 5419
2.451 1.650 1.815 2246
2.364 1.591 1.743 5002
2.472 1.664 1.818 1798
2.374 1.597 1.739 5700
2.482 1.670 1.814 1723
2.417 1.627 1.758 6724
2.526 1.700 1.832 1453
2.410 1.622 1.742 6681
2.519 1.695 1.816 1954
2.477 1.667 1.776 6220
2.368 1.594 1.703 2014
2.487 1.673 1.772 7945
2.596 1.747 1.845 1415
2.496 1.680 1.767 6845
2.606 1.753 1.839 1978
2.512 1.690 1.766 6129
2.621 1.764 1.838 1483
2.510 1.689 1.753 5140
2.620 1.763 1.825 1708
2.520 1.696 1.748 4583
2.629 1.770 1.820 2854
2.529 1.702 1.743 5158
2.639 1.776 1.814 3830
2.614 1.759 1.787 5868
2.504 1.685 1.716 2987
2.624 1.766 1.781 6157
2.514 1.692 1.711 2268
2.634 1.773 1.776 4635
2.523 1.698 1.706 2146
2.673 1.799 1.789 4529
2.562 1.724 1.719 1672
2.671 1.797 1.776 4932
2.560 1.723 1.707 1913
2.681 1.804 1.770 5343
2.570 1.729 1.702 2223
2.714 1.826 1.779 5900
2.603 1.752 1.711 2708
2.724 1.833 1.773 5280
2.612 1.758 1.705 1838
2.681 1.804 1.735 5485
2.792 1.879 1.803 1862
2.702 1.819 1.737 6792
2.814 1.894 1.804 3575
2.730 1.837 1.741 10693
2.841 1.912 1.808 2567
2.739 1.844 1.735 13093
2.851 1.919 1.802 1785
2.755 1.854 1.733 10808
2.867 1.930 1.799 1711
2.771 1.865 1.730 9450
2.883 1.940 1.796 3300
2.775 1.867 1.720 8461
2.887 1.943 1.786 4746
2.778 1.870 1.711 7898
2.891 1.946 1.776 5156
2.782 1.872 1.701 5785
2.907 1.956 1.772 4752
2.857 1.923 1.732 3970
2.988 2.011 1.806 3670
2.867 1.929 1.725 5266
3.022 2.034 1.812 4131
2.871 1.932 1.715 6151
3.014 2.028 1.795 4374
2.887 1.943 1.712 5552
3.012 2.027 1.782 4187
2.914 1.961 1.715 5086
3.100 2.086 1.817 2972
2.942 1.980 1.718 3080
3.098 2.085 1.803 2837
3.102 2.087 1.792 2343
3.216 2.164 1.854 1837
3.142 2.114 1.801 2623
3.022 2.034 1.736 1339
3.146 2.117 1.790 4370
3.032 2.040 1.729 1300
3.138 2.112 1.773 4720
3.252 2.189 1.833 2523
3.220 2.167 1.803 4401
3.099 2.086 1.740 4069
3.194 2.149 1.776 4419
3.079 2.072 1.716 2460
3.270 2.201 1.802 3130
3.155 2.124 1.743 1933
3.280 2.208 1.794 3130
3.165 2.130 1.735 1678
3.284 2.210 1.782 3770
3.169 2.133 1.724 1506
3.294 2.217 1.774 4554
3.415 2.299 1.835 1706
3.310 2.228 1.769 5601
3.426 2.305 1.826 2531
3.326 2.239 1.763 8449
3.442 2.316 1.820 2883
3.342 2.249 1.758 9355
3.458 2.327 1.814 3388
3.352 2.256 1.749 6286
3.468 2.334 1.805 2767
3.350 2.255 1.734 3755
3.466 2.333 1.790 1987
3.427 2.307 1.758 3537
3.311 2.229 1.702 1275
3.444 2.317 1.752 3730
3.560 2.396 1.807 1714
3.478 2.341 1.754 3534
3.613 2.431 1.817 2826
3.617 2.434 1.805 4637
3.488 2.347 1.745 3753
3.578 2.408 1.772 5476
3.461 2.329 1.719 1417
3.576 2.406 1.757 5029
3.698 2.489 1.813 1754
3.610 2.430 1.759 4047
3.727 2.508 1.812 1323
3.645 2.453 1.760 4977
3.762 2.532 1.813 1292
3.655 2.460 1.750 5634
3.772 2.538 1.802 2791
3.751 2.525 1.778 6015
3.634 2.446 1.726 3382
3.755 2.527 1.765 6726
3.891 2.619 1.825 2248
3.753 2.526 1.749 4426
3.877 2.609 1.803 3511
3.813 2.566 1.760 3041
3.670 2.470 1.699 2059
3.891 2.618 1.779 3830
3.773 2.539 1.729 2559
3.882 2.613 1.760 5177
3.765 2.533 1.710 2229
3.886 2.615 1.746 4118
4.004 2.695 1.796 2019
3.958 2.664 1.761 3937
4.076 2.743 1.810 1877
3.950 2.658 1.742 3702
4.087 2.750 1.798 3060
4.091 2.753 1.784 3856
3.972 2.673 1.736 3123
4.088 2.751 1.768 3510
3.945 2.655 1.710 2284
4.092 2.754 1.753 3459
4.230 2.846 1.808 3407
4.234 2.849 1.793 4087
4.102 2.761 1.741 3611
4.225 2.843 1.774 4228
4.106 2.764 1.727 3707
4.242 2.854 1.764 4220
4.110 2.766 1.713 2746
4.308 2.899 1.773 5225
4.108 2.764 1.696 1414
4.312 2.902 1.758 3943
4.431 2.982 1.803 1240
4.284 2.883 1.731 3738
4.404 2.964 1.776 1885
4.282 2.882 1.714 4279
4.445 2.992 1.774 2953
4.455 2.998 1.761 3536
4.280 2.880 1.697 2161
4.598 3.094 1.796 2907
4.466 3.005 1.748 2199
4.608 3.101 1.782 3472
4.476 3.012 1.735 1437
4.612 3.104 1.766 3682
4.486 3.019 1.721 1364
4.622 3.111 1.752 4107
4.483 3.017 1.704 1289
4.639 3.122 1.741 4045
4.822 3.245 1.804 1018
4.655 3.133 1.729 2728
4.775 3.214 1.770 1397
4.747 3.195 1.743 2531
4.868 3.276 1.784 1563
4.789 3.223 1.739 2848
4.954 3.334 1.794 1863
4.932 3.319 1.769 3023
4.793 3.226 1.722 2455
4.936 3.322 1.752 5000
5.057 3.403 1.791 1712
4.953 3.333 1.738 4633
5.308 3.572 1.854 1705
4.963 3.340 1.723 5367
5.084 3.421 1.762 3593
5.075 3.415 1.740 5134
4.954 3.334 1.702 4085
5.079 3.418 1.722 2399
5.282 3.555 1.786 2290
5.292 3.562 1.770 3535
5.426 3.652 1.811 1963
5.277 3.552 1.746 4775
5.436 3.659 1.794 4177
5.268 3.546 1.723 4445
5.440 3.661 1.775 3942
5.444 3.664 1.756 3654
5.285 3.557 1.709 3545
5.442 3.662 1.736 3657
5.295 3.564 1.692 1902
5.452 3.669 1.718 3524
5.733 3.858 1.800 1586
5.462 3.676 1.701 3853
5.948 4.003 1.841 1598
5.466 3.679 1.682 2677
6.009 4.044 1.837 2171
6.026 4.056 1.819 2674
5.476 3.685 1.665 1413
6.037 4.063 1.800 3149
6.216 4.183 1.850 1408
6.041 4.065 1.779 2038
6.169 4.151 1.814 1283
6.160 4.146 1.789 1964
6.307 4.245 1.829 1386
6.299 4.239 1.803 2255
6.164 4.148 1.767 1641
6.303 4.242 1.781 2262
6.450 4.341 1.820 1771
6.570 4.421 1.827 2123
6.448 4.339 1.796 1700
6.600 4.441 1.811 2454
6.375 4.290 1.754 1926
6.610 4.448 1.789 2499
6.359 4.280 1.726 1445
6.614 4.451 1.766 1974
7.058 4.750 1.876 1151
6.657 4.480 1.753 1711
7.011 4.718 1.839 1108
6.976 4.695 1.805 1189
6.667 4.487 1.731 1040
7.347 4.945 1.868 1081
7.212 4.854 1.836 1028
7.455 5.017 1.866 1759
7.229 4.865 1.813 1735
7.452 5.015 1.838 2154
7.233 4.868 1.788 1885
7.450 5.014 1.811 2481
7.237 4.870 1.763 1106
7.448 5.012 1.783 2760
7.635 5.138 1.825 1051
7.439 5.006 1.755 2080
7.639 5.141 1.798 1156
7.443 5.009 1.728 1271
7.669 5.161 1.777 864
7.459 5.020 1.705 814
7.822 5.264 1.782 749
7.826 5.266 1.754 692
7.476 5.031 1.682 691
7.473 5.029 1.654 538
7.829 5.269 1.727 433
7.477 5.032 1.628 253
7.934 5.339 -0.239 282
7.924 5.333 -0.572 259
7.923 5.332 -0.600 329
7.921 5.331 -0.628 292
7.919 5.329 -0.655 255
7.917 5.328 -0.683 255
7.852 5.284 -0.759 268
7.856 5.287 -0.788 372
7.854 5.286 -0.815 372
3.835 2.581 -0.324 271
1.898 1.273 1.783 2927
1.713 1.149 1.619 751
1.902 1.276 1.777 5855
1.717 1.151 1.613 1503
1.906 1.278 1.770 5855
1.726 1.157 1.612 1465
1.921 1.288 1.773 4451
1.724 1.156 1.601 1200
1.952 1.309 1.789 4784
1.850 1.241 1.701 1785
1.966 1.319 1.792 4409
1.865 1.250 1.704 1716
1.976 1.325 1.790 4554
1.874 1.257 1.703 1342
1.980 1.328 1.783 4554
1.878 1.259 1.696 1319
1.973 1.323 1.767 4478
1.871 1.254 1.681 857
1.971 1.322 1.756 4948
2.074 1.391 1.842 908
1.986 1.332 1.758 4233
2.089 1.401 1.843 745
2.017 1.353 1.773 5063
1.914 1.284 1.688 751
2.026 1.359 1.771 5033
2.130 1.428 1.856 1307
2.036 1.365 1.768 5357
2.139 1.435 1.853 1613
2.045 1.372 1.766 4279
2.149 1.441 1.850 1298
2.115 1.418 1.812 3459
2.005 1.345 1.724 1453
2.113 1.417 1.800 4423
2.009 1.348 1.717 1440
2.112 1.416 1.788 4828
2.008 1.346 1.705 1271
2.110 1.415 1.777 5261
2.006 1.345 1.694 896
2.109 1.414 1.765 5953
2.213 1.484 1.848 489
2.113 1.417 1.758 6672
2.217 1.487 1.840 597
2.117 1.420 1.751 6287
2.222 1.490 1.832 698
2.120 1.422 1.743 5902
2.226 1.493 1.825 798
2.130 1.428 1.740 4482
2.235 1.499 1.821 1187
2.145 1.438 1.741 3293
2.250 1.509 1.822 1317
2.177 1.460 1.755 3422
2.282 1.531 1.835 899
2.236 1.500 1.790 4079
2.130 1.429 1.710 1853
2.257 1.514 1.794 4811
2.151 1.443 1.715 2152
2.272 1.524 1.795 6101
2.155 1.445 1.708 1788
2.282 1.530 1.791 6525
2.175 1.459 1.713 2414
2.291 1.537 1.788 7130
2.179 1.461 1.705 3154
2.295 1.539 1.780 5541
2.189 1.468 1.702 2961
2.322 1.557 1.788 4524
2.215 1.485 1.711 3370
2.326 1.560 1.780 3974
2.219 1.488 1.703 2968
2.347 1.574 1.784 3584
2.234 1.498 1.703 2044
2.322 1.558 1.756 4646
2.215 1.485 1.680 1074
2.332 1.564 1.752 5892
2.224 1.492 1.676 731
2.342 1.570 1.748 6207
2.450 1.643 1.823 888
2.346 1.573 1.740 5488
2.454 1.646 1.815 2145
2.367 1.587 1.743 4992
2.475 1.660 1.818 1735
2.376 1.594 1.739 5649
2.485 1.666 1.814 1704
2.391 1.604 1.739 6700
2.500 1.677 1.813 1584
2.412 1.618 1.742 6791
2.521 1.691 1.816 1847
2.451 1.644 1.757 5770
2.342 1.570 1.684 1543
2.483 1.666 1.768 7327
2.593 1.739 1.841 1493
2.505 1.680 1.771 6308
2.614 1.753 1.843 1466
2.514 1.686 1.766 5830
2.624 1.760 1.838 1327
2.513 1.685 1.753 4970
2.622 1.759 1.825 1542
2.522 1.692 1.748 4580
2.632 1.765 1.820 2904
2.538 1.702 1.747 5207
2.648 1.776 1.818 3511
2.617 1.755 1.787 6417
2.507 1.681 1.716 2940
2.627 1.762 1.781 6632
2.516 1.688 1.711 2262
2.637 1.768 1.776 4860
2.526 1.694 1.706 2108
2.676 1.794 1.789 4551
2.565 1.720 1.719 1610
2.680 1.797 1.780 5009
2.569 1.723 1.710 2091
2.684 1.800 1.770 5294
2.572 1.725 1.702 2144
2.717 1.822 1.779 5295
2.606 1.747 1.711 2661
2.738 1.836 1.780 5041
2.627 1.762 1.712 2410
2.684 1.800 1.735 5603
2.795 1.875 1.803 1909
2.705 1.814 1.737 6732
2.817 1.889 1.804 3779
2.733 1.833 1.741 10814
2.844 1.908 1.808 2813
2.742 1.839 1.735 13303
2.854 1.914 1.802 2012
2.758 1.850 1.733 11141
2.870 1.925 1.799 1797
2.780 1.864 1.734 10161
2.892 1.940 1.799 2801
2.783 1.867 1.724 8802
2.896 1.942 1.789 3814
2.781 1.865 1.711 7961
2.900 1.945 1.779 4622
2.785 1.868 1.701 5873
2.916 1.956 1.776 4897
2.831 1.898 1.715 4274
2.991 2.006 1.806 3724
2.864 1.921 1.722 5184
3.025 2.029 1.812 4281
2.874 1.927 1.715 5960
3.011 2.019 1.792 4671
2.884 1.934 1.709 5156
3.015 2.022 1.782 4331
2.923 1.961 1.719 5124
3.103 2.081 1.817 2767
2.945 1.975 1.718 3349
3.101 2.080 1.803 2638
3.105 2.082 1.792 2144
3.219 2.159 1.854 1628
3.145 2.109 1.801 2599
3.025 2.029 1.736 1253
3.149 2.112 1.790 4324
3.035 2.035 1.729 1075
3.141 2.107 1.773 4863
3.255 2.183 1.833 2264
3.229 2.166 1.806 4260
3.103 2.081 1.740 4163
3.197 2.144 1.776 4056
3.082 2.067 1.716 2455
3.274 2.196 1.802 3208
3.159 2.118 1.743 1805
3.284 2.202 1.794 2864
3.169 2.125 1.735 1557
3.294 2.209 1.786 3850
3.179 2.132 1.727 1577
3.304 2.216 1.777 5591
3.419 2.293 1.835 1730
3.320 2.227 1.772 6540
3.435 2.304 1.829 2609
3.330 2.233 1.763 9102
3.446 2.311 1.820 3112
3.346 2.244 1.758 10045
3.462 2.322 1.814 3846
3.350 2.247 1.746 6613
3.466 2.324 1.802 3823
3.348 2.245 1.731 3941
3.464 2.323 1.787 3101
3.431 2.301 1.758 3937
3.315 2.223 1.702 1517
3.447 2.312 1.752 3813
3.563 2.390 1.807 2137
3.482 2.335 1.754 3580
3.598 2.413 1.809 2581
3.621 2.428 1.805 4543
3.492 2.342 1.745 3816
3.575 2.398 1.770 5911
3.692 2.476 1.823 1441
3.579 2.401 1.757 5444
3.702 2.483 1.813 1491
3.614 2.424 1.759 4190
3.737 2.506 1.815 1161
3.636 2.439 1.754 5141
3.753 2.517 1.807 1552
3.659 2.454 1.750 6186
3.776 2.532 1.802 2793
3.755 2.519 1.778 6014
3.638 2.440 1.726 3923
3.753 2.517 1.763 6899
3.895 2.612 1.825 2319
3.757 2.520 1.749 4684
3.893 2.611 1.808 3426
3.823 2.564 1.763 3094
3.674 2.464 1.699 2376
3.895 2.612 1.779 3752
3.771 2.529 1.726 2591
3.887 2.607 1.760 5612
3.769 2.527 1.710 2407
3.890 2.609 1.746 4538
4.008 2.688 1.796 1859
3.956 2.653 1.759 4054
4.099 2.749 1.818 2158
3.954 2.652 1.742 3841
4.091 2.744 1.798 3602
4.095 2.746 1.784 4734
3.977 2.667 1.736 3201
4.093 2.745 1.768 4403
3.949 2.649 1.710 2305
4.097 2.748 1.753 4359
4.234 2.840 1.808 3867
4.238 2.842 1.793 4998
4.107 2.754 1.741 4414
4.236 2.841 1.776 4739
4.111 2.757 1.727 4366
4.246 2.848 1.764 4612
4.108 2.755 1.710 3304
4.306 2.888 1.771 5029
4.106 2.754 1.694 1806
4.310 2.891 1.756 3887
4.429 2.971 1.801 1153
4.289 2.877 1.731 4259
4.408 2.957 1.776 1716
4.293 2.879 1.716 4718
4.450 2.984 1.774 2687
4.460 2.991 1.761 3200
4.290 2.877 1.699 2302
4.603 3.087 1.796 2640
4.470 2.998 1.748 1903
4.607 3.089 1.780 3371
4.298 2.882 1.669 1494
4.617 3.096 1.766 3560
4.485 3.008 1.719 1134
4.627 3.103 1.752 3654
4.488 3.010 1.704 1135
4.644 3.114 1.741 3441
4.821 3.233 1.802 1042
4.667 3.130 1.731 2552
4.787 3.210 1.772 1174
4.753 3.187 1.743 2079
4.949 3.319 1.810 1540
4.851 3.254 1.758 2700
4.972 3.334 1.799 1952
4.938 3.312 1.769 3366
4.786 3.210 1.718 2339
4.942 3.314 1.752 5409
4.783 3.208 1.699 1647
4.958 3.325 1.738 4798
5.314 3.564 1.854 2174
4.968 3.332 1.723 5159
5.318 3.566 1.836 3015
4.979 3.339 1.708 4477
5.099 3.420 1.746 2996
5.326 3.572 1.798 2545
4.976 3.337 1.689 2267
5.305 3.557 1.772 3629
5.438 3.647 1.813 1866
5.308 3.560 1.753 4693
5.442 3.650 1.794 4055
5.280 3.541 1.725 4005
5.446 3.653 1.775 3952
5.450 3.655 1.756 4032
5.291 3.548 1.709 3642
5.448 3.654 1.736 4159
5.301 3.555 1.692 2015
5.458 3.660 1.718 3970
5.739 3.849 1.800 1406
5.468 3.667 1.701 4296
5.961 3.997 1.843 1574
5.472 3.670 1.682 2901
6.009 4.030 1.835 2051
6.033 4.046 1.819 2602
6.154 4.127 1.853 1483
6.037 4.049 1.798 3004
6.223 4.173 1.850 1308
6.047 4.056 1.779 1843
6.169 4.137 1.812 1184
6.167 4.136 1.789 1908
6.314 4.235 1.829 1184
6.293 4.220 1.800 2166
6.171 4.138 1.767 1662
6.303 4.227 1.780 2218
6.457 4.331 1.820 1627
6.474 4.342 1.801 1871
6.333 4.247 1.764 1681
6.613 4.435 1.813 2280
6.382 4.280 1.754 1966
6.617 4.438 1.789 2319
6.379 4.278 1.730 1440
6.641 4.453 1.771 1768
6.840 4.587 1.820 1217
6.664 4.469 1.753 1866
7.018 4.707 1.839 1085
6.674 4.476 1.731 1120
7.364 4.939 1.896 1035
7.355 4.933 1.868 1117
7.026 4.712 1.790 858
7.463 5.005 1.866 1985
7.237 4.853 1.813 1416
7.461 5.003 1.838 2303
7.241 4.856 1.788 1605
7.458 5.002 1.811 2838
7.245 4.859 1.763 979
7.449 4.996 1.782 3371
7.637 5.122 1.824 1020
7.447 4.994 1.755 2548
7.647 5.129 1.798 1086
7.451 4.997 1.728 1580
7.658 5.136 1.773 791
7.467 5.008 1.705 1027
7.830 5.251 1.782 689
7.484 5.019 1.682 821
7.834 5.254 1.754 628
7.481 5.017 1.654 652
7.838 5.256 1.727 403
7.491 5.024 1.629 326
7.942 5.327 -0.239 251
7.941 5.326 -0.266 256
7.940 5.325 -0.294 262
7.933 5.320 -0.572 262
7.931 5.319 -0.600 360
7.929 5.318 -0.628 321
7.928 5.317 -0.655 283
7.926 5.315 -0.683 283
7.854 5.267 -0.759 396
7.852 5.266 -0.786 559
7.849 5.264 -0.814 559
3.833 2.571 -0.323 334
7.847 5.263 -0.841 279
1.900 1.270 1.783 2698
1.715 1.146 1.619 761
1.904 1.273 1.777 5397
1.718 1.149 1.613 1522
1.908 1.276 1.770 5397
1.727 1.155 1.612 1483
1.928 1.289 1.777 4090
1.725 1.154 1.601 1180
1.953 1.306 1.789 4791
1.852 1.238 1.701 1641
1.968 1.316 1.792 4665
1.866 1.248 1.704 1673
1.978 1.322 1.790 4882
1.876 1.254 1.703 1425
1.982 1.325 1.783 4882
1.879 1.256 1.696 1400
1.980 1.324 1.771 5012
1.878 1.255 1.685 981
1.979 1.323 1.760 5460
2.081 1.391 1.846 750
1.988 1.329 1.758 4761
2.091 1.398 1.843 770
2.014 1.346 1.769 5483
2.122 1.419 1.859 727
2.028 1.356 1.771 5285
2.132 1.425 1.856 1240
2.038 1.362 1.768 5450
2.141 1.432 1.853 1528
2.047 1.369 1.766 4279
2.151 1.438 1.850 1239
2.117 1.415 1.812 3209
2.013 1.346 1.728 1523
2.115 1.414 1.800 4203
2.011 1.345 1.717 1509
2.114 1.413 1.788 4661
2.010 1.344 1.705 1305
2.112 1.412 1.777 5171
2.008 1.342 1.694 902
2.111 1.411 1.765 5961
2.215 1.481 1.848 508
2.115 1.414 1.758 6777
2.220 1.484 1.840 581
2.119 1.416 1.751 6497
2.224 1.487 1.832 686
2.123 1.419 1.743 6217
2.228 1.489 1.825 792
2.132 1.425 1.740 4716
2.237 1.496 1.821 1196
2.147 1.435 1.741 3519
2.253 1.506 1.822 1264
2.179 1.457 1.755 3561
2.285 1.527 1.835 884
2.244 1.500 1.794 4219
2.138 1.429 1.714 2253
2.259 1.510 1.794 4951
2.153 1.439 1.715 2230
2.274 1.521 1.795 6258
2.157 1.442 1.708 1763
2.284 1.527 1.791 6735
2.177 1.456 1.713 2327
2.294 1.533 1.788 7327
2.181 1.458 1.705 3082
2.298 1.536 1.780 5692
2.191 1.465 1.702 2944
2.324 1.554 1.788 4367
2.217 1.482 1.711 3598
2.328 1.557 1.780 3931
2.221 1.485 1.703 3123
2.349 1.571 1.784 3707
2.236 1.495 1.703 2081
2.325 1.554 1.756 4794
2.217 1.482 1.680 1090
2.334 1.561 1.752 6152
2.226 1.489 1.676 746
2.344 1.567 1.748 6406
2.452 1.639 1.823 878
2.348 1.570 1.740 5565
2.456 1.642 1.815 2078
2.369 1.584 1.743 5026
2.477 1.656 1.818 1666
2.384 1.594 1.743 5625
2.493 1.667 1.818 1408
2.399 1.604 1.743 6652
2.508 1.677 1.817 1499
2.415 1.614 1.742 6790
2.524 1.687 1.816 1748
2.447 1.636 1.753 5627
2.557 1.709 1.826 1365
2.480 1.658 1.764 6616
2.589 1.731 1.837 1506
2.507 1.676 1.771 5721
2.617 1.749 1.843 1325
2.517 1.683 1.766 5389
2.627 1.756 1.838 1206
2.521 1.685 1.757 4708
2.631 1.759 1.829 1297
2.525 1.688 1.748 4498
2.635 1.762 1.820 2993
2.616 1.749 1.796 5700
2.505 1.675 1.725 3608
2.620 1.751 1.787 6965
2.509 1.678 1.716 2835
2.629 1.758 1.781 7093
2.519 1.684 1.711 2183
2.633 1.761 1.772 5102
2.523 1.687 1.702 2026
2.678 1.791 1.789 4453
2.567 1.716 1.719 1613
2.682 1.793 1.780 5000
2.571 1.719 1.710 2129
2.680 1.792 1.767 5329
2.569 1.718 1.698 1986
2.655 1.775 1.739 5515
2.766 1.850 1.808 2370
2.676 1.789 1.741 5172
2.788 1.864 1.809 1312
2.680 1.792 1.732 5874
2.792 1.867 1.799 2251
2.708 1.810 1.737 6700
2.820 1.885 1.804 4000
2.735 1.829 1.741 10822
2.847 1.904 1.808 3006
2.745 1.835 1.735 13447
2.857 1.910 1.802 2209
2.767 1.850 1.736 11509
2.891 1.933 1.809 1868
2.782 1.860 1.734 10732
2.895 1.935 1.799 2549
2.786 1.863 1.724 9065
2.899 1.938 1.789 3347
2.784 1.861 1.711 8036
2.903 1.941 1.779 4443
2.794 1.868 1.705 6018
2.919 1.951 1.776 4923
2.833 1.894 1.715 4717
2.994 2.002 1.806 3679
2.867 1.917 1.722 5149
3.028 2.024 1.812 4449
2.871 1.919 1.712 5713
3.008 2.011 1.789 5027
2.910 1.946 1.722 4908
3.024 2.022 1.785 4231
2.938 1.964 1.725 5288
3.106 2.077 1.817 2589
2.948 1.971 1.718 3579
3.110 2.079 1.806 2499
3.132 2.094 1.805 2152
3.018 2.018 1.744 1971
3.154 2.109 1.804 2642
3.028 2.024 1.736 1251
3.152 2.107 1.790 4437
3.038 2.031 1.729 865
3.144 2.102 1.773 5210
3.259 2.179 1.833 2100
3.112 2.080 1.743 4168
3.239 2.165 1.809 4139
3.273 2.188 1.813 4022
3.098 2.071 1.723 2473
3.283 2.195 1.805 3424
3.168 2.118 1.746 1940
3.293 2.202 1.797 2897
3.129 2.092 1.713 1565
3.303 2.208 1.789 4400
3.188 2.131 1.730 1564
3.313 2.215 1.780 6814
3.429 2.292 1.838 1754
3.323 2.222 1.772 7572
3.439 2.299 1.829 2736
3.339 2.233 1.766 9711
3.455 2.310 1.823 2975
3.349 2.239 1.758 10561
3.465 2.317 1.814 4131
3.353 2.242 1.746 6931
3.469 2.319 1.802 4425
3.345 2.236 1.729 4307
3.461 2.314 1.784 3987
3.440 2.300 1.761 4127
3.324 2.223 1.705 2167
3.451 2.307 1.752 3882
3.567 2.385 1.807 2536
3.485 2.330 1.754 3769
3.602 2.408 1.809 2502
3.624 2.423 1.805 4507
3.495 2.337 1.745 3987
3.579 2.393 1.770 6264
3.696 2.471 1.823 1366
3.583 2.395 1.757 5781
3.700 2.474 1.811 1249
3.618 2.419 1.759 4404
3.501 2.340 1.706 1328
3.640 2.434 1.754 5439
3.757 2.512 1.807 1722
3.662 2.449 1.750 6454
3.780 2.527 1.802 2745
3.759 2.513 1.778 6040
3.642 2.435 1.726 4436
3.757 2.512 1.763 7122
3.899 2.607 1.825 2305
3.761 2.514 1.749 4969
3.903 2.610 1.811 3397
3.820 2.554 1.760 3028
3.678 2.459 1.699 2538
3.893 2.602 1.776 3833
3.775 2.524 1.726 2695
3.890 2.601 1.760 6020
3.772 2.522 1.710 2569
3.894 2.604 1.746 4901
4.012 2.683 1.796 1648
3.960 2.648 1.759 4192
4.097 2.739 1.815 2436
4.095 2.738 1.798 4254
3.958 2.646 1.742 4102
4.099 2.741 1.784 5523
3.962 2.649 1.729 3368
4.097 2.739 1.768 5127
3.953 2.643 1.710 2469
4.101 2.742 1.753 5115
4.244 2.838 1.810 4373
4.242 2.836 1.793 5876
4.111 2.748 1.741 5318
4.240 2.835 1.776 5431
4.115 2.751 1.727 5382
4.250 2.842 1.764 5100
4.112 2.749 1.710 3938
4.311 2.882 1.771 4962
4.110 2.748 1.694 2110
4.314 2.885 1.756 3962
4.126 2.759 1.684 1206
4.293 2.870 1.731 4689
4.413 2.950 1.776 1475
4.297 2.873 1.716 5149
4.448 2.974 1.772 2450
4.458 2.981 1.759 2900
4.288 2.867 1.697 2672
4.601 3.076 1.794 2311
4.298 2.874 1.684 2126
4.611 3.083 1.780 3177
4.308 2.881 1.671 1955
4.621 3.090 1.766 3431
4.293 2.870 1.650 1319
4.632 3.097 1.752 3220
4.493 3.004 1.704 924
4.648 3.108 1.741 2934
4.832 3.230 1.804 1033
4.671 3.123 1.731 2520
4.791 3.203 1.772 1101
4.688 3.134 1.719 2002
4.960 3.316 1.812 1470
4.850 3.242 1.756 2464
4.970 3.323 1.797 2211
4.942 3.304 1.769 3633
4.822 3.224 1.729 2306
4.946 3.307 1.752 5588
4.781 3.197 1.697 2371
4.957 3.314 1.736 5014
5.319 3.556 1.854 2475
4.973 3.325 1.723 4894
5.323 3.559 1.836 3482
4.983 3.332 1.708 4129
5.321 3.557 1.815 3379
5.331 3.564 1.798 2897
4.987 3.334 1.691 2343
5.322 3.558 1.776 3648
5.443 3.639 1.813 1683
5.326 3.561 1.757 4973
5.447 3.642 1.794 3625
5.451 3.645 1.775 3954
5.330 3.564 1.739 3713
5.449 3.643 1.755 4547
5.302 3.545 1.711 3259
5.453 3.646 1.736 4346
5.306 3.547 1.692 1892
5.463 3.653 1.718 3879
5.342 3.571 1.683 1374
5.467 3.655 1.699 4414
5.966 3.989 1.843 1506
5.477 3.662 1.682 3124
6.009 4.017 1.833 1917
6.032 4.033 1.818 2546
5.481 3.664 1.663 1570
6.043 4.040 1.798 2883
6.229 4.164 1.850 1388
6.053 4.047 1.779 1688
6.181 4.133 1.814 1260
6.173 4.127 1.789 1897
6.378 4.264 1.844 1112
6.299 4.211 1.800 2063
6.177 4.129 1.767 1652
6.296 4.209 1.776 2228
6.463 4.321 1.820 1496
6.480 4.333 1.801 1915
6.648 4.444 1.844 1655
6.626 4.430 1.814 2101
6.491 4.340 1.780 1822
6.624 4.428 1.789 2111
6.385 4.269 1.730 1345
6.660 4.453 1.774 1887
6.847 4.578 1.820 1287
6.670 4.460 1.753 2046
7.025 4.697 1.839 1239
6.997 4.678 1.807 1211
6.674 4.462 1.729 1207
7.453 4.983 1.889 1331
6.981 4.668 1.778 1225
7.464 4.990 1.865 2221
7.250 4.847 1.815 1120
7.468 4.993 1.838 2367
7.248 4.846 1.788 1284
7.459 4.987 1.809 3194
7.633 5.104 1.849 856
7.456 4.985 1.782 3987
7.644 5.111 1.824 908
7.454 4.983 1.755 2986
7.648 5.113 1.797 936
7.458 4.986 1.728 1890
7.659 5.120 1.772 663
7.475 4.997 1.705 1229
7.838 5.240 1.782 641
7.485 5.004 1.680 857
7.842 5.243 1.754 569
7.489 5.007 1.654 701
7.845 5.245 1.727 352
7.499 5.013 1.629 367
7.941 5.309 -0.572 344
7.939 5.308 -0.600 447
7.937 5.307 -0.628 384
7.935 5.305 -0.655 320
7.933 5.304 -0.683 320
7.853 5.250 -0.785 296
7.850 5.249 -0.813 296
1.897 1.264 1.778 2526
1.716 1.144 1.619 727
1.901 1.267 1.772 5052
1.720 1.146 1.613 1454
1.905 1.269 1.765 5052
1.729 1.152 1.612 1420
1.935 1.290 1.782 3862
1.727 1.151 1.601 1142
1.955 1.303 1.789 4737
1.854 1.235 1.701 1563
1.970 1.313 1.792 4863
1.868 1.245 1.704 1679
1.979 1.319 1.790 5225
1.877 1.251 1.703 1508
1.983 1.322 1.783 5225
1.881 1.254 1.696 1480
1.982 1.321 1.771 5526
1.880 1.253 1.685 990
1.981 1.320 1.760 5992
2.083 1.388 1.846 776
1.995 1.330 1.762 5243
2.098 1.398 1.848 675
2.016 1.343 1.769 5876
2.119 1.412 1.854 721
2.025 1.350 1.766 5565
2.128 1.418 1.851 1264
2.040 1.359 1.768 5555
2.143 1.428 1.853 1435
2.049 1.366 1.766 4297
2.153 1.435 1.850 1174
2.119 1.412 1.812 2984
2.015 1.343 1.728 1662
2.117 1.411 1.800 4081
2.013 1.342 1.717 1608
2.116 1.410 1.788 4570
2.012 1.341 1.705 1356
2.114 1.409 1.777 5125
2.010 1.339 1.694 911
2.113 1.408 1.765 5998
2.218 1.478 1.848 529
2.117 1.411 1.758 6891
2.222 1.481 1.840 564
2.121 1.413 1.751 6721
2.226 1.483 1.832 694
2.125 1.416 1.743 6550
2.230 1.486 1.825 824
2.134 1.422 1.740 4923
2.240 1.493 1.821 1264
2.171 1.447 1.758 3680
2.066 1.377 1.678 571
2.175 1.450 1.751 3767
2.281 1.520 1.831 1081
2.246 1.497 1.794 4363
2.140 1.426 1.714 2339
2.261 1.507 1.794 5032
2.155 1.436 1.715 2273
2.277 1.517 1.795 6348
2.159 1.439 1.708 1740
2.286 1.524 1.791 6885
2.180 1.453 1.713 2220
2.290 1.526 1.783 7498
2.183 1.455 1.705 2984
2.300 1.533 1.780 5802
2.193 1.461 1.702 2890
2.321 1.547 1.784 4226
2.214 1.475 1.706 3632
2.325 1.549 1.776 3874
2.217 1.478 1.699 3124
2.351 1.567 1.784 3785
2.238 1.492 1.703 2115
2.327 1.551 1.756 4888
2.219 1.479 1.680 1080
2.337 1.557 1.752 6340
2.229 1.485 1.676 745
2.346 1.564 1.748 6563
2.454 1.636 1.823 884
2.350 1.566 1.740 5614
2.458 1.638 1.815 2023
2.371 1.580 1.743 5013
2.480 1.653 1.818 1618
2.386 1.590 1.743 5535
2.495 1.663 1.818 1420
2.402 1.601 1.743 6483
2.511 1.673 1.817 1510
2.417 1.611 1.742 6679
2.526 1.684 1.816 1666
2.438 1.625 1.745 5733
2.548 1.698 1.819 1728
2.471 1.647 1.756 6253
2.580 1.720 1.829 1451
2.510 1.672 1.771 5100
2.400 1.599 1.698 1248
2.519 1.679 1.766 4908
2.404 1.602 1.690 1281
2.523 1.682 1.757 4452
2.633 1.755 1.829 1244
2.527 1.684 1.748 4380
2.637 1.758 1.820 3069
2.618 1.745 1.796 6082
2.508 1.671 1.725 3442
2.622 1.748 1.787 7400
2.512 1.674 1.716 2749
2.632 1.754 1.781 7485
2.521 1.680 1.711 2137
2.636 1.757 1.772 5381
2.525 1.683 1.702 1976
2.681 1.787 1.789 4481
2.570 1.713 1.719 1676
2.685 1.789 1.780 5090
2.574 1.715 1.710 2237
2.683 1.788 1.767 5492
2.572 1.714 1.698 2084
2.658 1.771 1.739 6053
2.769 1.845 1.808 2380
2.673 1.782 1.737 5713
2.785 1.856 1.805 1650
2.683 1.788 1.732 6293
2.795 1.863 1.799 2275
2.704 1.802 1.733 6761
2.816 1.877 1.800 4231
2.738 1.825 1.741 10724
2.850 1.899 1.808 3061
2.748 1.831 1.735 13371
2.860 1.906 1.802 2290
2.769 1.846 1.736 11643
2.894 1.928 1.809 1986
2.785 1.856 1.734 11238
2.910 1.939 1.806 2340
2.789 1.859 1.724 9319
2.902 1.934 1.789 2750
2.787 1.857 1.711 8018
2.912 1.940 1.782 4006
2.797 1.864 1.705 6075
2.922 1.947 1.776 4916
2.836 1.890 1.715 5083
2.997 1.997 1.806 3789
2.864 1.909 1.719 4918
3.025 2.016 1.809 4566
3.011 2.007 1.789 5499
2.874 1.915 1.712 5326
3.009 2.005 1.775 4980
2.895 1.930 1.712 4438
2.947 1.964 1.728 5623
3.109 2.072 1.817 2485
2.957 1.971 1.721 3779
3.113 2.075 1.806 2507
3.123 2.081 1.799 2255
3.009 2.005 1.737 2080
3.157 2.104 1.804 2629
3.037 2.024 1.740 1552
3.161 2.107 1.793 4509
3.047 2.030 1.732 1124
3.147 2.097 1.773 5657
3.262 2.174 1.833 1943
3.115 2.076 1.743 4273
3.260 2.173 1.819 4108
3.276 2.183 1.813 4321
3.107 2.070 1.726 2395
3.286 2.190 1.805 3753
3.171 2.113 1.746 1810
3.302 2.201 1.800 3271
3.132 2.088 1.713 1750
3.312 2.208 1.792 5244
3.197 2.131 1.733 1482
3.322 2.214 1.783 8006
3.438 2.291 1.841 1717
3.326 2.217 1.772 8462
3.442 2.294 1.829 2848
3.343 2.228 1.766 10149
3.458 2.305 1.823 3051
3.347 2.230 1.755 10944
3.462 2.308 1.811 4700
3.350 2.233 1.743 7235
3.466 2.310 1.799 5153
3.342 2.227 1.726 4615
3.458 2.305 1.781 4597
3.450 2.299 1.764 4363
3.334 2.222 1.708 2909
3.460 2.306 1.755 4020
3.577 2.384 1.810 2939
3.482 2.321 1.751 3965
3.599 2.399 1.806 2653
3.585 2.389 1.785 4508
3.468 2.311 1.731 2441
3.582 2.387 1.770 6548
3.466 2.310 1.716 1346
3.586 2.390 1.757 5973
3.703 2.468 1.811 1160
3.627 2.417 1.762 4349
3.510 2.339 1.708 1459
3.650 2.432 1.757 5522
3.767 2.510 1.810 1879
3.666 2.443 1.750 6727
3.783 2.521 1.802 2739
3.664 2.442 1.735 6151
3.781 2.520 1.786 4863
3.760 2.506 1.763 7274
3.903 2.601 1.825 2376
3.758 2.505 1.747 5237
3.913 2.608 1.814 3424
3.830 2.553 1.763 2983
3.681 2.453 1.699 2610
3.896 2.597 1.776 3769
3.778 2.518 1.726 2649
3.894 2.595 1.760 6203
3.770 2.512 1.708 2703
3.898 2.598 1.746 5144
3.774 2.515 1.695 1628
3.970 2.646 1.761 4148
4.101 2.733 1.815 2713
4.099 2.732 1.798 4864
3.962 2.640 1.742 4078
4.103 2.734 1.784 6277
3.960 2.639 1.726 3582
4.101 2.733 1.768 5664
4.238 2.825 1.823 2660
4.105 2.736 1.753 5747
4.249 2.831 1.810 4887
4.246 2.830 1.793 6628
4.115 2.742 1.741 6263
4.119 2.745 1.727 6221
4.244 2.828 1.776 6077
4.254 2.835 1.764 5594
4.116 2.743 1.710 4599
4.265 2.842 1.751 4959
4.114 2.742 1.694 2695
4.312 2.874 1.753 3789
4.124 2.748 1.682 1610
4.297 2.864 1.731 5077
4.417 2.944 1.776 1323
4.301 2.867 1.716 5308
4.452 2.967 1.772 2178
4.286 2.857 1.694 2739
4.463 2.974 1.759 2516
4.303 2.867 1.684 2523
4.605 3.069 1.794 1957
4.616 3.076 1.780 2859
4.313 2.874 1.671 2339
4.632 3.087 1.768 3162
4.304 2.868 1.652 1596
4.643 3.094 1.755 2580
4.295 2.862 1.632 1163
4.646 3.097 1.738 2278
4.830 3.219 1.802 920
4.676 3.116 1.731 2205
4.796 3.196 1.772 1412
4.787 3.190 1.751 2109
4.667 3.110 1.710 1664
4.804 3.201 1.739 2381
4.969 3.311 1.794 2249
4.947 3.297 1.769 3568
4.782 3.187 1.714 2579
4.951 3.300 1.752 5324
4.792 3.194 1.699 2612
4.962 3.307 1.736 5130
5.324 3.548 1.854 2690
4.978 3.318 1.723 4671
5.328 3.551 1.836 3808
4.988 3.324 1.708 3702
5.326 3.549 1.815 3683
5.336 3.556 1.798 3190
4.992 3.327 1.691 2229
5.334 3.555 1.778 3879
5.455 3.636 1.815 1570
5.338 3.557 1.759 5427
5.459 3.638 1.796 3141
5.342 3.560 1.741 4128
5.463 3.641 1.777 3752
5.454 3.635 1.755 5141
5.307 3.537 1.711 2994
5.458 3.638 1.736 4539
5.318 3.544 1.694 1829
5.469 3.644 1.718 3495
5.347 3.563 1.683 1439
5.472 3.647 1.699 3963
5.979 3.984 1.845 1491
5.476 3.650 1.680 2847
6.008 4.004 1.831 1839
6.038 4.024 1.818 2450
6.166 4.110 1.853 1522
6.049 4.031 1.798 2692
6.235 4.155 1.850 1377
6.059 4.038 1.779 1524
6.194 4.128 1.816 1301
6.179 4.118 1.789 1762
6.384 4.255 1.844 1159
6.298 4.198 1.798 2129
6.176 4.116 1.766 1484
6.296 4.196 1.775 2501
6.470 4.312 1.820 1305
6.306 4.203 1.754 1848
6.487 4.323 1.801 1811
6.645 4.429 1.817 1953
6.497 4.330 1.780 1809
6.637 4.423 1.791 1895
6.508 4.337 1.759 1333
6.673 4.447 1.776 2067
6.847 4.563 1.819 1358
6.677 4.450 1.753 2213
7.032 4.686 1.839 1125
6.991 4.659 1.804 1372
6.681 4.452 1.729 1317
7.454 4.967 1.888 1631
6.995 4.662 1.779 1209
7.471 4.979 1.865 2415
7.044 4.694 1.765 987
7.475 4.982 1.838 2406
7.255 4.835 1.788 1020
7.466 4.976 1.809 3565
7.641 5.092 1.849 773
7.464 4.974 1.782 4630
7.652 5.099 1.824 795
7.461 4.972 1.755 3509
7.656 5.102 1.797 796
7.472 4.979 1.730 2289
7.841 5.226 1.809 656
7.475 4.982 1.704 1459
7.845 5.228 1.782 609
7.492 4.993 1.680 905
7.849 5.231 1.754 521
7.496 4.996 1.654 745
7.853 5.234 1.727 322
7.506 5.002 1.629 392
7.959 5.305 -0.183 255
7.954 5.301 -0.350 288
7.952 5.300 -0.377 263
7.956 5.302 -0.433 270
7.955 5.301 -0.461 308
7.953 5.300 -0.489 308
7.952 5.299 -0.517 327
7.950 5.298 -0.544 347
7.948 5.297 -0.572 449
7.947 5.296 -0.600 550
7.945 5.295 -0.628 462
7.943 5.294 -0.655 374
7.941 5.292 -0.683 374
7.939 5.291 -0.711 264
7.856 5.236 -0.757 258
7.854 5.234 -0.785 340
3.848 2.565 -0.310 259
3.847 2.564 -0.324 391
7.851 5.233 -0.812 340
1.899 1.261 1.778 2335
1.718 1.141 1.619 701
1.903 1.264 1.772 4671
1.722 1.144 1.613 1403
1.907 1.267 1.765 4671
1.731 1.150 1.612 1367
1.948 1.294 1.791 3705
1.846 1.227 1.703 1217
1.963 1.304 1.794 4682
1.861 1.236 1.706 1760
1.972 1.310 1.792 5113
1.870 1.242 1.704 1700
1.976 1.313 1.785 5733
1.874 1.245 1.698 1368
1.980 1.315 1.778 5733
1.878 1.247 1.692 1347
1.984 1.318 1.771 6092
1.881 1.250 1.685 994
1.982 1.317 1.760 6491
2.085 1.385 1.846 818
1.997 1.327 1.762 5746
2.100 1.395 1.848 716
2.017 1.340 1.769 6263
2.121 1.409 1.854 744
2.027 1.347 1.766 5842
2.130 1.415 1.851 1178
2.042 1.356 1.768 5636
2.145 1.425 1.853 1327
2.046 1.359 1.761 4349
2.150 1.428 1.846 1327
2.121 1.409 1.812 2818
2.017 1.340 1.728 1801
2.114 1.404 1.796 4074
2.010 1.335 1.712 1508
2.112 1.403 1.784 4566
2.008 1.334 1.701 1160
2.116 1.406 1.777 5075
2.012 1.337 1.694 926
2.115 1.405 1.765 5985
2.220 1.475 1.848 567
2.119 1.408 1.758 6923
2.224 1.477 1.840 565
2.123 1.410 1.751 6875
2.228 1.480 1.832 727
2.127 1.413 1.743 6828
2.232 1.483 1.825 890
2.136 1.419 1.740 5079
2.242 1.489 1.821 1392
2.173 1.444 1.758 4007
2.068 1.374 1.678 581
2.177 1.447 1.751 3992
2.283 1.517 1.831 1031
2.248 1.494 1.794 4593
2.142 1.423 1.714 2345
2.258 1.500 1.790 5100
2.152 1.429 1.711 2086
2.279 1.514 1.795 6385
2.161 1.436 1.708 1645
2.288 1.520 1.791 6999
2.182 1.449 1.713 2066
2.292 1.523 1.783 7673
2.185 1.452 1.705 2790
2.296 1.526 1.776 5922
2.189 1.454 1.698 2650
2.261 1.502 1.739 4542
2.368 1.573 1.817 1189
2.327 1.546 1.776 3833
2.219 1.475 1.699 3185
2.354 1.564 1.784 3898
2.240 1.488 1.703 2143
2.335 1.551 1.760 4954
2.227 1.480 1.684 1176
2.339 1.554 1.752 6466
2.231 1.482 1.676 722
2.348 1.560 1.748 6656
2.457 1.632 1.823 916
2.352 1.563 1.740 5593
2.461 1.635 1.815 2032
2.373 1.577 1.743 4939
2.482 1.649 1.818 1608
2.389 1.587 1.743 5424
2.498 1.659 1.818 1456
2.410 1.601 1.747 6361
2.519 1.673 1.821 1478
2.419 1.607 1.742 6590
2.529 1.680 1.816 1632
2.435 1.618 1.742 5790
2.544 1.690 1.815 1890
2.462 1.636 1.749 5948
2.571 1.708 1.822 1326
2.477 1.646 1.748 4578
2.593 1.723 1.824 1898
2.527 1.679 1.770 4459
2.406 1.598 1.690 1552
2.526 1.678 1.757 4160
