-2.545 2.665 1.718 8820
-2.543 2.663 1.704 6673
-2.552 2.671 1.696 4011
-2.560 2.680 1.689 4767
-2.563 2.683 1.678 5440
-2.576 2.697 1.674 5307
-2.584 2.706 1.666 7018
-2.587 2.709 1.655 7876
-2.611 2.733 1.656 5364
-2.629 2.752 1.654 4007
-2.667 2.793 1.664 5574
-2.660 2.785 1.647 5532
-2.730 2.858 1.673 6160
-2.728 2.856 1.659 6296
-2.741 2.869 1.654 7081
-2.744 2.873 1.642 6734
-2.864 2.999 1.695 3733
-2.852 2.986 1.675 4817
-2.814 2.946 1.641 5809
-2.807 2.939 1.624 5177
-2.908 3.044 1.664 3574
-2.931 3.069 1.662 3572
-2.945 3.083 1.656 4660
-2.953 3.091 1.646 5372
-2.956 3.095 1.634 4189
-3.036 3.179 1.661 4330
-3.044 3.187 1.650 5308
-3.011 3.153 1.620 6049
-3.066 3.210 1.633 4638
-3.188 3.338 1.678 4319
-3.202 3.352 1.670 4397
-3.272 3.426 1.689 4474
-3.291 3.445 1.682 5105
-3.299 3.454 1.671 4227
-3.287 3.441 1.650 3346
-3.316 3.471 1.648 4045
-3.329 3.485 1.639 5792
-3.332 3.489 1.625 3985
-3.434 3.596 1.656 4528
-3.448 3.610 1.646 3489
-3.514 3.679 1.659 2324
-3.491 3.655 1.633 2085
-3.504 3.669 1.623 2954
-3.528 3.694 1.617 2938
-3.673 3.845 1.662 2481
-3.644 3.815 1.633 3470
-3.679 3.852 1.631 3387
-3.814 3.993 1.669 3535
-3.817 3.996 1.653 3618
-3.888 4.071 1.664 3659
-3.897 4.080 1.650 4974
-3.900 4.083 1.633 4920
-3.897 4.080 1.615 3895
-4.107 4.299 1.677 3709
-4.120 4.314 1.663 3761
-4.176 4.372 1.666 2622
-4.259 4.459 1.677 2300
-4.225 4.423 1.646 2814
-4.217 4.415 1.624 2468
-4.342 4.546 1.649 2138
-4.335 4.538 1.628 2452
-4.588 4.803 1.695 2230
-4.580 4.796 1.672 2415
-4.711 4.933 1.695 2003
-4.720 4.941 1.677 1660
-4.814 5.040 1.687 2070
-4.817 5.043 1.667 2413
-4.820 5.046 1.647 2294
-4.882 5.111 1.645 1531
-4.911 5.142 1.632 1061
-5.150 5.392 1.683 1604
-5.142 5.384 1.658 2146
-5.633 5.898 1.779 2409
-5.636 5.901 1.756 2439
-5.640 5.904 1.732 1819
-5.637 5.902 1.707 2118
-5.646 5.911 1.685 2280
-5.660 5.926 1.664 2478
-5.663 5.929 1.640 3346
-6.075 6.360 1.723 3696
-6.078 6.363 1.698 3269
-6.076 6.361 1.671 2811
-6.079 6.364 1.645 2154
-6.324 6.621 1.679 2134
-6.327 6.624 1.653 3023
-6.330 6.628 1.626 2646
-6.333 6.631 1.600 1981
-6.336 6.634 1.573 1410
-6.339 6.637 1.546 974
-6.342 6.640 1.520 1022
-6.345 6.643 1.493 834
-6.347 6.645 1.466 413
-1.537 1.613 1.741 3083
-1.540 1.617 1.734 6166
-1.544 1.620 1.728 6166
-1.551 1.628 1.726 7177
-1.559 1.636 1.725 8403
-1.571 1.649 1.727 8064
-1.579 1.657 1.725 8548
-1.582 1.660 1.719 8548
-1.589 1.668 1.717 6403
-1.624 1.704 1.742 6023
-1.627 1.708 1.735 5442
-1.603 1.683 1.702 5296
-1.643 1.724 1.731 6627
-1.646 1.727 1.724 8325
-1.653 1.735 1.722 7483
-1.661 1.744 1.719 6849
-1.660 1.742 1.708 6816
-1.677 1.760 1.714 7951
-1.689 1.773 1.716 10272
-1.692 1.776 1.709 10000
-1.695 1.779 1.702 9727
-1.712 1.797 1.708 8159
-1.729 1.815 1.713 8745
-1.741 1.828 1.715 8020
-1.754 1.841 1.716 8697
-1.757 1.844 1.709 6808
-1.774 1.862 1.714 5133
-1.763 1.851 1.694 5187
-1.817 1.908 1.733 5943
-1.821 1.911 1.725 5339
-1.857 1.949 1.746 5045
-1.864 1.957 1.743 4422
-1.877 1.970 1.743 4009
-1.833 1.924 1.695 3923
-1.836 1.928 1.687 4215
-1.830 1.921 1.671 3804
-1.885 1.979 1.708 3173
-1.898 1.992 1.708 3263
-1.906 2.000 1.704 3861
-1.918 2.013 1.704 4653
-1.940 2.037 1.712 4982
-1.948 2.045 1.708 5621
-1.951 2.048 1.700 6367
-1.964 2.061 1.699 7388
-1.967 2.065 1.691 7554
-2.004 2.103 1.710 6930
-2.012 2.111 1.705 8783
-2.015 2.115 1.697 9109
-2.023 2.123 1.692 6836
-2.084 2.187 1.728 4196
-2.034 2.135 1.679 4617
-2.051 2.153 1.682 5432
-2.064 2.167 1.680 5786
-2.062 2.165 1.668 5693
-2.119 2.224 1.700 8137
-2.122 2.227 1.691 10939
-2.125 2.230 1.682 10332
-2.128 2.234 1.673 10223
-2.136 2.242 1.668 10848
-2.144 2.250 1.662 9887
-2.177 2.284 1.675 7545
-2.185 2.293 1.669 4937
-2.227 2.337 1.688 4959
-2.235 2.346 1.682 5798
-2.302 2.416 1.717 4844
-2.310 2.425 1.711 6524
-2.308 2.423 1.698 6924
-2.311 2.426 1.688 7038
-2.324 2.440 1.685 5833
-2.328 2.443 1.676 4430
-2.395 2.514 1.709 4879
-2.398 2.517 1.699 5098
-2.426 2.547 1.705 4904
-2.444 2.566 1.705 7455
-2.443 2.564 1.691 8575
-2.451 2.572 1.684 6478
-2.544 2.670 1.731 6176
-2.542 2.668 1.718 8869
-2.540 2.666 1.704 6703
-2.548 2.675 1.696 3947
-2.556 2.683 1.689 4761
-2.560 2.686 1.678 5501
-2.573 2.700 1.674 5386
-2.581 2.709 1.666 7070
-2.584 2.712 1.655 7851
-2.607 2.736 1.656 5328
-2.625 2.756 1.654 4036
-2.664 2.796 1.664 5508
-2.657 2.789 1.647 5426
-2.731 2.866 1.676 6178
-2.724 2.859 1.659 6219
-2.737 2.873 1.654 6903
-2.740 2.876 1.642 6558
-2.861 3.002 1.695 3786
-2.848 2.990 1.675 4816
-2.811 2.950 1.641 5718
-2.803 2.942 1.624 5046
-2.904 3.048 1.664 3588
-2.927 3.072 1.662 3497
-2.941 3.086 1.656 4505
-2.949 3.095 1.646 5284
-2.952 3.098 1.634 4188
-3.032 3.183 1.661 4303
-3.040 3.191 1.650 5291
-3.007 3.156 1.620 5932
-3.067 3.219 1.635 4706
-3.184 3.342 1.678 4347
-3.197 3.356 1.670 4503
-3.268 3.430 1.689 4655
-3.286 3.449 1.682 5457
-3.295 3.458 1.671 4582
-3.293 3.456 1.655 3417
-3.311 3.476 1.648 4003
-3.325 3.490 1.639 5659
-3.328 3.493 1.625 3977
-3.430 3.600 1.656 4412
-3.443 3.614 1.646 3458
-3.504 3.678 1.657 2510
-3.507 3.681 1.642 2452
-3.505 3.679 1.625 3483
-3.513 3.687 1.612 3318
-3.668 3.850 1.662 2575
-3.671 3.853 1.646 3515
-3.674 3.856 1.631 3480
-3.803 3.992 1.667 3652
-3.812 4.001 1.653 3542
-3.883 4.076 1.664 3839
-3.897 4.090 1.652 5185
-3.894 4.088 1.633 5055
-3.892 4.085 1.615 3955
-4.101 4.305 1.677 3673
-4.115 4.319 1.663 3777
-4.166 4.372 1.664 2571
-4.253 4.464 1.677 2406
-4.219 4.429 1.646 2879
-4.212 4.421 1.624 2417
-4.337 4.552 1.649 2166
-4.329 4.544 1.628 2504
-4.582 4.809 1.695 2253
-4.574 4.801 1.672 2447
-4.705 4.939 1.695 2018
-4.714 4.947 1.677 1671
-4.807 5.046 1.687 2153
-4.810 5.049 1.667 2450
-4.808 5.047 1.645 2253
-4.875 5.117 1.645 1484
-5.145 5.401 1.706 1065
-5.143 5.398 1.683 1661
-5.141 5.396 1.660 2145
-5.626 5.905 1.779 2394
-5.629 5.908 1.756 2436
-5.632 5.911 1.732 1837
-5.630 5.909 1.707 2144
-5.638 5.918 1.685 2269
-5.652 5.933 1.664 2416
-5.655 5.936 1.640 3265
-6.067 6.368 1.723 3642
-6.070 6.371 1.698 3238
-6.068 6.369 1.671 2762
-6.071 6.372 1.645 2073
-6.316 6.629 1.679 2141
-6.319 6.632 1.653 3027
-6.322 6.636 1.626 2666
-6.325 6.639 1.600 2001
-6.328 6.642 1.573 1398
-6.331 6.645 1.546 948
-6.334 6.648 1.520 1003
-6.336 6.651 1.493 815
-6.339 6.653 1.466 396
-1.533 1.617 1.741 3118
-1.536 1.621 1.734 6237
-1.539 1.624 1.728 6237
-1.547 1.632 1.726 7166
-1.555 1.640 1.725 8299
-1.567 1.653 1.727 7939
-1.574 1.661 1.725 8413
-1.578 1.664 1.719 8413
-1.585 1.672 1.717 6304
-1.620 1.708 1.742 6050
-1.623 1.712 1.735 5456
-1.599 1.687 1.702 5270
-1.638 1.728 1.731 6616
-1.641 1.731 1.724 8305
-1.649 1.740 1.722 7466
-1.657 1.748 1.719 6836
-1.655 1.746 1.708 6806
-1.672 1.764 1.714 7909
-1.684 1.777 1.716 10258
-1.688 1.780 1.709 9995
-1.691 1.784 1.702 9731
-1.708 1.801 1.708 8165
-1.724 1.819 1.713 8732
-1.737 1.832 1.715 8055
-1.749 1.845 1.716 8743
-1.752 1.849 1.709 6823
-1.769 1.866 1.714 5140
-1.759 1.855 1.694 5189
-1.813 1.912 1.733 5915
-1.816 1.916 1.725 5318
-1.852 1.953 1.746 5034
-1.859 1.962 1.743 4473
-1.872 1.975 1.743 4076
-1.829 1.929 1.695 3999
-1.827 1.927 1.683 4223
-1.825 1.926 1.671 3864
-1.880 1.983 1.708 3161
-1.893 1.997 1.708 3216
-1.901 2.005 1.704 3790
-1.913 2.018 1.704 4590
-1.935 2.041 1.712 5011
-1.938 2.045 1.704 5655
-1.946 2.053 1.700 6384
-1.959 2.066 1.699 7358
-1.962 2.070 1.691 7480
-1.998 2.108 1.710 6955
-2.006 2.117 1.705 8785
-2.014 2.125 1.700 9097
-2.017 2.128 1.692 6795
-2.025 2.137 1.687 4135
-2.028 2.140 1.679 4594
-2.046 2.158 1.682 5467
-2.059 2.172 1.680 5823
-2.057 2.170 1.668 5706
-2.113 2.229 1.700 8144
-2.116 2.233 1.691 10966
-2.119 2.236 1.682 10272
-2.123 2.239 1.673 10243
-2.131 2.247 1.668 11093
-2.138 2.256 1.662 10151
-2.171 2.290 1.675 7787
-2.179 2.298 1.669 5066
-2.216 2.338 1.684 5034
-2.229 2.351 1.682 5819
-2.296 2.422 1.717 4894
-2.304 2.430 1.711 6578
-2.302 2.429 1.698 6958
-2.305 2.432 1.688 7015
-2.318 2.446 1.685 5784
-2.321 2.449 1.676 4373
-2.384 2.515 1.706 4933
-2.392 2.523 1.699 5144
-2.420 2.553 1.705 4868
-2.438 2.572 1.705 7494
-2.441 2.575 1.695 8651
-2.444 2.578 1.684 6561
-2.537 2.676 1.731 6148
-2.535 2.674 1.718 8843
-2.533 2.672 1.704 6673
-2.542 2.681 1.696 3907
-2.550 2.690 1.689 4714
-2.553 2.693 1.678 5475
-2.566 2.707 1.674 5368
-2.574 2.715 1.666 7005
-2.577 2.719 1.655 7749
-2.600 2.743 1.656 5442
-2.618 2.762 1.654 4148
-2.657 2.803 1.664 5434
-2.650 2.795 1.647 5389
-2.724 2.873 1.676 6041
-2.717 2.866 1.659 6040
-2.730 2.880 1.654 6730
-2.733 2.883 1.642 6387
-2.853 3.010 1.695 3776
-2.846 3.002 1.678 4763
-2.798 2.952 1.638 5696
-2.796 2.949 1.624 5070
-2.896 3.055 1.664 3535
-2.920 3.080 1.662 3511
-2.933 3.094 1.656 4470
-2.941 3.102 1.646 5239
-2.944 3.106 1.634 4141
-3.024 3.190 1.661 4301
-3.032 3.199 1.650 5259
-2.999 3.164 1.620 5907
-3.059 3.227 1.635 4696
-3.175 3.350 1.678 4410
-3.189 3.364 1.670 4532
-3.259 3.438 1.689 4693
-3.278 3.458 1.682 5603
-3.281 3.461 1.669 4821
-3.279 3.459 1.652 3285
-3.303 3.484 1.648 3646
-3.321 3.503 1.641 5509
-3.407 3.594 1.665 3769
-3.421 3.609 1.656 4454
-3.434 3.623 1.646 3528
-3.500 3.692 1.659 2542
-3.498 3.690 1.642 2405
-3.490 3.682 1.623 3065
-3.504 3.696 1.612 2541
-3.658 3.859 1.662 2515
-3.661 3.862 1.646 3469
-3.664 3.866 1.631 3503
-3.798 4.007 1.669 3632
-3.802 4.010 1.653 3448
-3.873 4.085 1.664 3614
-3.881 4.094 1.650 4974
-3.884 4.097 1.633 4859
-3.882 4.095 1.615 3494
-4.090 4.315 1.677 3692
-4.104 4.329 1.663 3715
-4.155 4.383 1.664 2454
-4.237 4.469 1.675 2432
-4.213 4.445 1.648 2904
-4.253 4.487 1.643 2380
-4.320 4.557 1.648 2162
-4.318 4.555 1.628 2406
-4.570 4.821 1.695 2298
-4.562 4.813 1.672 2533
-4.693 4.950 1.695 2035
-4.701 4.959 1.677 1667
-4.795 5.058 1.687 2085
-4.798 5.061 1.667 2382
-4.795 5.059 1.645 2219
-4.862 5.129 1.645 1447
-5.132 5.413 1.706 1096
-5.130 5.411 1.683 1695
-5.127 5.409 1.660 2106
-5.611 5.919 1.779 2373
-5.614 5.922 1.756 2417
-5.617 5.926 1.732 1814
-5.615 5.923 1.707 2129
-5.624 5.932 1.685 2262
-5.637 5.947 1.664 2417
-5.640 5.950 1.640 3260
-6.051 6.383 1.723 3544
-6.054 6.386 1.698 3149
-6.052 6.384 1.671 2713
-6.055 6.387 1.645 2069
-6.299 6.645 1.679 2230
-6.302 6.648 1.653 3146
-6.305 6.651 1.626 2753
-6.308 6.655 1.600 2041
-6.311 6.658 1.573 1423
-6.314 6.661 1.546 952
-6.317 6.664 1.520 987
-6.320 6.667 1.493 789
-6.322 6.669 1.466 377
-1.531 1.619 1.741 3085
-1.534 1.623 1.734 6171
-1.537 1.626 1.728 6171
-1.545 1.634 1.726 7144
-1.553 1.642 1.725 8316
-1.560 1.650 1.723 7941
-1.572 1.663 1.725 8424
-1.575 1.666 1.719 8424
-1.583 1.674 1.717 6307
-1.617 1.711 1.742 6070
-1.621 1.714 1.735 5462
-1.597 1.689 1.702 5252
-1.636 1.730 1.731 6615
-1.639 1.734 1.724 8307
-1.647 1.742 1.722 7468
-1.655 1.750 1.719 6845
-1.653 1.748 1.708 6812
-1.670 1.766 1.714 7895
-1.682 1.779 1.716 10197
-1.685 1.782 1.709 9952
-1.688 1.786 1.702 9707
-1.705 1.803 1.708 8132
-1.722 1.821 1.713 8744
-1.734 1.834 1.715 8110
-1.747 1.847 1.716 8810
-1.750 1.851 1.709 6853
-1.767 1.869 1.714 5102
-1.756 1.857 1.694 5148
-1.810 1.914 1.733 5931
-1.813 1.918 1.725 5367
-1.789 1.892 1.693 5065
-1.857 1.964 1.743 4463
-1.870 1.977 1.743 4047
-1.826 1.931 1.695 4033
-1.825 1.930 1.683 4249
-1.823 1.928 1.671 3886
-1.878 1.986 1.708 3122
-1.890 1.999 1.708 3180
-1.898 2.007 1.704 3763
-1.911 2.021 1.704 4590
-1.933 2.044 1.712 5059
-1.936 2.047 1.704 5710
-1.944 2.055 1.700 6406
-1.956 2.069 1.699 7351
-1.959 2.072 1.691 7471
-1.996 2.111 1.710 6911
-2.004 2.119 1.705 8713
-2.012 2.127 1.700 9060
-2.015 2.131 1.692 6784
-2.023 2.139 1.687 4150
-2.026 2.142 1.679 4645
-2.043 2.161 1.682 5579
-2.056 2.174 1.680 5904
-2.054 2.172 1.668 5765
-2.110 2.232 1.700 8258
-2.114 2.235 1.691 11131
-2.117 2.238 1.682 10397
-2.120 2.242 1.673 10252
-2.128 2.250 1.668 11011
-2.136 2.259 1.662 10160
-2.168 2.293 1.675 7723
-2.176 2.301 1.669 4990
-2.213 2.341 1.684 5003
-2.226 2.354 1.682 5841
-2.293 2.425 1.717 4935
-2.296 2.428 1.707 6608
-2.299 2.431 1.698 6961
-2.307 2.440 1.692 7033
-2.315 2.448 1.685 5851
-2.318 2.452 1.676 4430
-2.381 2.518 1.706 4880
-2.389 2.526 1.699 5105
-2.417 2.556 1.705 4843
-2.435 2.575 1.705 7499
-2.438 2.578 1.695 8659
-2.441 2.581 1.684 6596
-2.534 2.680 1.731 6101
-2.532 2.678 1.718 8844
-2.530 2.676 1.704 6731
-2.538 2.684 1.696 4032
-2.546 2.693 1.689 4882
-2.549 2.696 1.678 5675
-2.563 2.710 1.674 5549
-2.571 2.719 1.666 7261
-2.574 2.722 1.655 8047
-2.597 2.746 1.656 5545
-2.615 2.765 1.654 4165
-2.653 2.806 1.664 5470
-2.646 2.799 1.647 5441
-2.720 2.877 1.676 5989
-2.718 2.875 1.662 6004
-2.726 2.883 1.654 6703
-2.729 2.886 1.642 6358
-2.849 3.013 1.695 3834
-2.842 3.006 1.678 4906
-2.794 2.955 1.638 5705
-2.792 2.953 1.624 5147
-2.892 3.059 1.664 3469
-2.916 3.083 1.662 3402
-2.929 3.098 1.656 4393
-2.937 3.106 1.646 5256
-2.940 3.109 1.634 4176
-3.020 3.194 1.661 4303
-3.023 3.197 1.648 5248
-2.995 3.168 1.620 5932
-3.055 3.231 1.635 4703
-3.171 3.354 1.678 4363
-3.185 3.368 1.670 4520
-3.255 3.442 1.689 4715
-3.273 3.462 1.682 5302
-3.282 3.471 1.671 4340
-3.280 3.468 1.655 3186
-3.298 3.488 1.648 3847
-3.312 3.502 1.639 5606
-3.315 3.505 1.625 4162
-3.416 3.613 1.656 4423
-3.430 3.627 1.646 3535
-3.495 3.696 1.659 2490
-3.467 3.666 1.631 2204
-3.486 3.686 1.623 3056
-3.499 3.700 1.612 2741
-3.653 3.864 1.662 2301
-3.620 3.828 1.631 3341
-3.654 3.865 1.629 3479
-3.725 3.940 1.641 3577
-3.796 4.015 1.653 3361
-3.868 4.090 1.664 3876
-3.876 4.099 1.650 5158
-3.879 4.102 1.633 4984
-3.877 4.100 1.615 3748
-4.085 4.320 1.677 3679
-4.099 4.334 1.663 3588
-4.149 4.388 1.664 2495
-4.231 4.475 1.675 2406
-4.208 4.450 1.648 2868
-4.248 4.492 1.643 2373
-4.314 4.563 1.648 2203
-4.312 4.560 1.628 2438
-4.564 4.826 1.695 2258
-4.556 4.818 1.672 2459
-4.687 4.956 1.695 2020
-4.695 4.965 1.677 1652
-4.788 5.064 1.687 2111
-4.791 5.067 1.667 2397
-4.794 5.070 1.647 2266
-4.856 5.135 1.645 1465
-5.125 5.420 1.706 1097
-5.123 5.418 1.683 1683
-5.121 5.415 1.660 2073
-5.603 5.926 1.779 2317
-5.607 5.929 1.756 2356
-5.610 5.933 1.732 1767
-5.608 5.930 1.707 2105
-5.616 5.939 1.685 2266
-5.630 5.954 1.664 2441
-5.633 5.957 1.640 3278
-6.043 6.390 1.723 3457
-6.040 6.388 1.697 3070
-6.044 6.391 1.671 2624
-6.047 6.395 1.645 1967
-6.291 6.653 1.679 2210
-6.294 6.656 1.653 3133
-6.297 6.659 1.626 2758
-6.300 6.663 1.600 2068
-6.303 6.666 1.573 1451
-6.306 6.669 1.546 990
-6.309 6.672 1.520 1036
-6.311 6.674 1.493 834
-6.314 6.677 1.466 402
-1.527 1.623 1.741 3025
-1.530 1.627 1.734 6050
-1.533 1.630 1.728 6050
-1.541 1.638 1.726 7090
-1.548 1.646 1.725 8332
-1.560 1.659 1.727 7978
-1.568 1.667 1.725 8485
-1.571 1.670 1.719 8485
-1.578 1.678 1.717 6359
-1.613 1.715 1.742 6089
-1.616 1.718 1.735 5470
-1.592 1.693 1.702 5235
-1.631 1.735 1.731 6631
-1.634 1.738 1.724 8337
-1.642 1.746 1.722 7493
-1.650 1.754 1.719 6860
-1.648 1.753 1.708 6830
-1.665 1.771 1.714 7898
-1.677 1.784 1.716 10218
-1.680 1.787 1.709 10009
-1.684 1.790 1.702 9799
-1.700 1.808 1.708 8242
-1.717 1.826 1.713 8854
-1.729 1.839 1.715 8162
-1.742 1.852 1.716 8804
-1.745 1.856 1.709 6827
-1.762 1.874 1.714 5076
-1.751 1.862 1.694 5095
-1.805 1.919 1.733 6041
-1.808 1.923 1.725 5501
-1.844 1.961 1.746 5115
-1.852 1.969 1.743 4451
-1.864 1.982 1.743 3995
-1.821 1.936 1.695 4058
-1.819 1.935 1.683 4317
-1.818 1.933 1.671 3940
-1.872 1.991 1.708 3129
-1.885 2.004 1.708 3181
-1.892 2.012 1.704 3759
-1.905 2.026 1.704 4563
-1.927 2.049 1.712 5043
-1.935 2.057 1.708 5706
-1.938 2.061 1.700 6393
-1.951 2.074 1.699 7291
-1.954 2.077 1.691 7439
-1.990 2.116 1.710 6876
-1.998 2.125 1.705 8729
-2.006 2.133 1.700 9081
-2.009 2.136 1.692 6831
-2.017 2.145 1.687 4197
-2.020 2.148 1.679 4655
-2.037 2.166 1.682 5489
-2.050 2.180 1.680 5790
-2.048 2.178 1.668 5660
-2.104 2.238 1.700 8311
-2.107 2.241 1.691 11159
-2.111 2.244 1.682 10410
-2.114 2.248 1.673 10223
-2.121 2.256 1.668 10918
-2.129 2.264 1.662 10029
-2.162 2.299 1.675 7489
-2.170 2.307 1.669 4847
-2.212 2.352 1.688 4958
-2.220 2.360 1.682 5963
-2.286 2.431 1.717 4889
-2.294 2.440 1.711 6514
-2.292 2.438 1.698 6935
-2.300 2.446 1.692 7125
-2.308 2.455 1.685 5982
-2.312 2.458 1.676 4535
-2.374 2.524 1.706 4832
-2.382 2.533 1.699 5095
-2.410 2.562 1.705 4814
-2.428 2.581 1.705 7461
-2.431 2.585 1.695 8659
-2.439 2.593 1.688 6677
-2.526 2.686 1.731 6128
-2.525 2.685 1.718 8846
-2.523 2.683 1.704 6722
-2.531 2.691 1.696 3981
-2.534 2.695 1.686 4840
-2.537 2.698 1.675 5679
-2.555 2.717 1.674 5560
-2.563 2.726 1.666 7210
-2.566 2.729 1.655 7943
-2.589 2.753 1.656 5548
-2.607 2.773 1.654 4174
-2.646 2.813 1.664 5524
-2.639 2.806 1.647 5546
-2.707 2.879 1.673 6065
-2.705 2.877 1.659 6141
-2.718 2.891 1.654 6900
-2.721 2.894 1.642 6590
-2.841 3.021 1.695 3827
-2.834 3.014 1.678 4863
-2.786 2.963 1.638 5593
-2.784 2.961 1.624 5131
-2.884 3.067 1.664 3467
-2.907 3.091 1.662 3297
-2.920 3.106 1.656 4311
-2.929 3.114 1.646 5147
-2.932 3.117 1.634 4122
-3.011 3.202 1.661 4300
-3.014 3.205 1.648 5271
-2.987 3.176 1.620 5974
-3.046 3.239 1.635 4697
-3.162 3.362 1.678 4346
-3.175 3.377 1.670 4482
-3.245 3.451 1.689 4612
-3.269 3.476 1.685 5143
-3.272 3.480 1.671 4325
-3.270 3.477 1.655 3477
-3.289 3.497 1.648 4304
-3.302 3.511 1.639 5761
-3.310 3.520 1.628 3840
-3.406 3.622 1.656 4530
-3.420 3.637 1.646 3565
-3.480 3.700 1.657 2465
-3.483 3.704 1.642 2497
-3.475 3.696 1.623 3077
-3.499 3.721 1.617 2654
-3.643 3.874 1.662 2168
-3.609 3.838 1.631 3437
-3.644 3.875 1.629 3552
-3.782 4.022 1.669 3494
-3.785 4.025 1.653 3552
-3.778 4.017 1.633 3754
-3.865 4.110 1.650 5158
-3.862 4.107 1.631 5111
-3.860 4.105 1.613 4074
-4.073 4.331 1.677 3698
-4.087 4.346 1.663 3685
-4.137 4.399 1.664 2556
-4.224 4.492 1.677 2419
-4.196 4.462 1.648 2748
-4.235 4.504 1.643 2348
-4.302 4.574 1.648 2186
-4.299 4.572 1.628 2471
-4.550 4.839 1.695 2277
-4.543 4.831 1.672 2469
-4.673 4.969 1.695 2050
-4.681 4.978 1.677 1674
-4.774 5.077 1.687 2137
-4.777 5.080 1.667 2421
-4.775 5.078 1.645 2319
-4.836 5.143 1.643 1495
-4.866 5.174 1.631 1108
-5.108 5.432 1.683 1622
-5.100 5.424 1.658 2076
-5.587 5.941 1.779 2394
-5.590 5.945 1.756 2454
-5.593 5.948 1.732 1844
-5.591 5.946 1.707 2169
-5.600 5.955 1.685 2317
-5.614 5.969 1.664 2465
-5.617 5.973 1.640 3310
-6.025 6.407 1.723 3541
-6.023 6.405 1.697 3139
-6.026 6.408 1.671 2740
-6.029 6.411 1.645 2085
-6.273 6.670 1.679 2143
-6.276 6.673 1.653 3056
-6.279 6.677 1.626 2703
-6.282 6.680 1.600 2033
-6.285 6.683 1.573 1412
-6.287 6.686 1.546 954
-6.290 6.689 1.520 1002
-6.293 6.692 1.493 807
-6.290 6.689 1.465 388
-1.523 1.627 1.741 3018
-1.526 1.630 1.734 6037
-1.529 1.634 1.728 6037
-1.537 1.642 1.726 7110
-1.544 1.650 1.725 8402
-1.556 1.662 1.727 8066
-1.564 1.670 1.725 8572
-1.567 1.674 1.719 8572
-1.575 1.682 1.717 6419
-1.609 1.719 1.742 6007
-1.612 1.722 1.735 5430
-1.589 1.697 1.702 5230
-1.627 1.738 1.731 6671
-1.631 1.742 1.724 8395
-1.638 1.750 1.722 7530
-1.646 1.758 1.719 6871
-1.645 1.756 1.708 6842
-1.661 1.774 1.714 7887
-1.673 1.787 1.716 10185
-1.676 1.791 1.709 9972
-1.680 1.794 1.702 9758
-1.696 1.812 1.708 8214
-1.713 1.830 1.713 8834
-1.725 1.843 1.715 8139
-1.738 1.856 1.716 8758
-1.741 1.859 1.709 6818
-1.758 1.877 1.714 5096
-1.752 1.871 1.698 5100
-1.801 1.923 1.733 6123
-1.804 1.927 1.725 5563
-1.839 1.965 1.746 5204
-1.847 1.973 1.743 4494
-1.860 1.986 1.743 4005
-1.816 1.940 1.695 4072
-1.820 1.943 1.687 4361
-1.813 1.937 1.671 3956
-1.868 1.995 1.708 3226
-1.880 2.008 1.708 3314
-1.888 2.017 1.704 3905
-1.901 2.030 1.704 4751
-1.922 2.053 1.712 5172
-1.926 2.057 1.704 5823
-1.933 2.065 1.700 6395
-1.946 2.078 1.699 7242
-1.949 2.082 1.691 7418
-1.985 2.121 1.710 6922
-1.993 2.129 1.705 8811
-2.001 2.137 1.700 9111
-2.004 2.141 1.692 6819
-2.012 2.149 1.687 4185
-2.015 2.152 1.679 4659
-2.033 2.171 1.682 5447
-2.045 2.184 1.680 5714
-2.043 2.183 1.668 5593
-2.099 2.242 1.700 8299
-2.102 2.246 1.691 11157
-2.106 2.249 1.682 10408
-2.109 2.252 1.673 10187
-2.117 2.261 1.668 10838
-2.124 2.269 1.662 10002
-2.157 2.303 1.675 7429
-2.164 2.312 1.669 4784
-2.202 2.351 1.684 4855
-2.214 2.365 1.682 5838
-2.281 2.436 1.717 4845
-2.289 2.445 1.711 6454
-2.287 2.443 1.698 6897
-2.290 2.446 1.688 7114
-2.303 2.460 1.685 5976
-2.306 2.463 1.676 4538
-2.368 2.529 1.706 4734
-2.376 2.538 1.699 4978
-2.404 2.568 1.705 4705
-2.422 2.587 1.705 7362
-2.425 2.590 1.695 8549
-2.433 2.599 1.688 6681
-2.520 2.692 1.731 6126
-2.519 2.690 1.718 8900
-2.517 2.688 1.704 6760
-2.525 2.697 1.696 3990
-2.533 2.705 1.689 4758
-2.531 2.703 1.675 5529
-2.549 2.723 1.674 5434
-2.557 2.731 1.666 7091
-2.560 2.734 1.655 7933
-2.583 2.759 1.656 5624
-2.601 2.778 1.654 4082
-2.639 2.819 1.664 5486
-2.632 2.812 1.647 5464
-2.706 2.890 1.676 6178
-2.704 2.888 1.662 6347
-2.712 2.897 1.654 7140
-2.715 2.900 1.642 6670
-2.834 3.027 1.695 3889
-2.827 3.020 1.678 4961
-2.785 2.974 1.641 5581
-2.778 2.967 1.624 5121
-2.877 3.073 1.664 3495
-2.900 3.098 1.662 3278
-2.914 3.112 1.656 4355
-2.922 3.121 1.646 5150
-2.925 3.124 1.634 4118
-3.004 3.209 1.661 4321
-3.012 3.218 1.650 5286
-2.980 3.182 1.620 5963
-3.152 3.366 1.691 4730
-3.155 3.369 1.678 4373
-3.168 3.384 1.670 4424
-3.238 3.458 1.689 4577
-3.256 3.478 1.682 5262
-3.264 3.487 1.671 4421
-3.262 3.485 1.655 3466
-3.281 3.504 1.648 4505
-3.294 3.518 1.639 5991
-3.297 3.522 1.625 4005
-3.398 3.630 1.656 4440
-3.412 3.644 1.646 3482
-3.477 3.714 1.659 2543
-3.470 3.706 1.640 2091
-3.467 3.703 1.623 2866
-3.481 3.718 1.612 2632
-3.634 3.882 1.662 2112
-3.601 3.846 1.631 3498
-3.635 3.883 1.629 3602
-3.774 4.030 1.669 3612
-3.777 4.034 1.653 3660
-3.847 4.109 1.664 3810
-3.856 4.118 1.650 5123
-3.853 4.116 1.631 4996
-3.851 4.113 1.613 3852
-4.064 4.340 1.677 3714
-4.077 4.355 1.663 3641
-4.127 4.408 1.664 2529
-4.209 4.496 1.675 2438
-4.186 4.471 1.648 2707
-4.231 4.519 1.645 2382
-4.292 4.584 1.648 2134
-4.289 4.581 1.628 2413
-4.540 4.849 1.695 2297
-4.532 4.841 1.672 2412
-4.662 4.979 1.695 2069
-4.670 4.988 1.677 1671
-4.763 5.087 1.687 2194
-4.766 5.091 1.667 2512
-4.764 5.088 1.645 2433
-4.767 5.092 1.625 1532
-4.860 5.191 1.632 1084
-5.096 5.443 1.683 1583
-5.088 5.435 1.658 2018
-5.574 5.953 1.779 2396
-5.577 5.957 1.756 2459
-5.580 5.960 1.732 1856
-5.578 5.958 1.707 2208
-5.587 5.967 1.685 2373
-5.600 5.982 1.664 2461
-5.603 5.985 1.640 3266
-6.011 6.420 1.723 3622
-6.009 6.418 1.697 3209
-6.012 6.421 1.671 2746
-6.015 6.424 1.645 2099
-6.258 6.684 1.679 2128
-6.261 6.687 1.653 2999
-6.264 6.690 1.626 2666
-6.267 6.694 1.600 2032
-6.270 6.697 1.573 1410
-6.273 6.700 1.546 949
-6.275 6.703 1.520 989
-6.278 6.706 1.493 793
-6.275 6.703 1.465 379
-1.521 1.629 1.741 3062
-1.524 1.632 1.734 6125
-1.527 1.636 1.728 6125
-1.534 1.644 1.726 7161
-1.542 1.652 1.725 8422
-1.554 1.665 1.727 8114
-1.562 1.673 1.725 8631
-1.565 1.676 1.719 8631
-1.572 1.684 1.717 6464
-1.606 1.721 1.742 6006
-1.614 1.729 1.740 5430
-1.586 1.699 1.702 5179
-1.625 1.741 1.731 6675
-1.628 1.744 1.724 8386
-1.636 1.752 1.722 7520
-1.643 1.760 1.719 6852
-1.642 1.759 1.708 6823
-1.659 1.777 1.714 7868
-1.671 1.790 1.716 10208
-1.674 1.793 1.709 9997
-1.677 1.796 1.702 9785
-1.694 1.814 1.708 8263
-1.710 1.832 1.713 8893
-1.723 1.845 1.715 8185
-1.735 1.859 1.716 8785
-1.738 1.862 1.709 6825
-1.755 1.880 1.714 5112
-1.749 1.874 1.698 5105
-1.798 1.926 1.733 6162
-1.801 1.929 1.725 5576
-1.837 1.967 1.746 5323
-1.844 1.976 1.743 4582
-1.857 1.989 1.743 4081
-1.814 1.943 1.695 4002
-1.817 1.946 1.687 4299
-1.810 1.940 1.671 3882
-1.865 1.998 1.708 3264
-1.877 2.011 1.708 3298
-1.890 2.024 1.708 3876
-1.902 2.038 1.708 4728
-1.919 2.056 1.712 5190
-1.923 2.060 1.704 5883
-1.930 2.068 1.700 6483
-1.943 2.081 1.699 7391
-1.946 2.085 1.691 7576
-1.982 2.123 1.710 6960
-1.990 2.132 1.705 8841
-1.998 2.140 1.700 9114
-2.001 2.144 1.692 6788
-2.009 2.152 1.687 4143
-2.012 2.155 1.679 4555
-2.029 2.174 1.682 5235
-2.042 2.188 1.680 5594
-2.040 2.186 1.668 5544
-2.096 2.245 1.700 8223
-2.099 2.249 1.691 11087
-2.102 2.252 1.682 10421
-2.105 2.255 1.673 10191
-2.113 2.264 1.668 10710
-2.121 2.272 1.662 9838
-2.153 2.307 1.675 7154
-2.161 2.315 1.669 4562
-2.203 2.360 1.688 4785
-2.211 2.368 1.682 5778
-2.277 2.440 1.717 4918
-2.280 2.443 1.707 6567
-2.283 2.446 1.698 6961
-2.287 2.450 1.688 7053
-2.299 2.463 1.685 5873
-2.302 2.467 1.676 4450
-2.369 2.538 1.709 4742
-2.372 2.542 1.699 4915
-2.405 2.577 1.708 4723
-2.418 2.590 1.705 7440
-2.421 2.594 1.695 8669
-2.429 2.602 1.688 6732
-2.516 2.696 1.731 6141
-2.515 2.694 1.718 8938
-2.513 2.692 1.704 6820
-2.521 2.701 1.696 3958
-2.529 2.709 1.689 4662
-2.532 2.712 1.678 5446
-2.545 2.726 1.674 5363
-2.553 2.735 1.666 6896
-2.556 2.738 1.655 7726
-2.579 2.763 1.656 5553
-2.597 2.782 1.654 3997
-2.635 2.823 1.664 5485
-2.699 2.891 1.688 5361
-2.697 2.889 1.673 6182
-2.700 2.892 1.662 6354
-2.708 2.901 1.654 7159
-2.711 2.904 1.642 6726
-2.830 3.032 1.695 3949
-2.823 3.024 1.678 5054
-2.780 2.978 1.641 5582
-2.773 2.971 1.624 5021
-2.872 3.077 1.664 3701
-2.896 3.102 1.662 3456
-2.909 3.116 1.656 4489
-2.917 3.125 1.646 5067
-2.920 3.128 1.634 3912
-2.999 3.213 1.661 4337
-3.008 3.222 1.650 5279
-2.975 3.187 1.620 5888
-3.147 3.371 1.691 4767
-3.150 3.374 1.678 4474
-3.163 3.388 1.670 4516
-3.233 3.463 1.689 4621
-3.251 3.483 1.682 5150
-3.259 3.492 1.671 4430
-3.257 3.489 1.655 3518
-3.276 3.509 1.648 4440
-3.284 3.518 1.637 6203
-3.292 3.527 1.625 4075
-3.393 3.635 1.656 4398
-3.406 3.649 1.646 3474
-3.471 3.719 1.659 2259
-3.469 3.716 1.642 2111
-3.467 3.714 1.625 3048
-3.480 3.728 1.615 2996
-3.494 3.743 1.604 2107
-3.595 3.851 1.631 3546
-3.624 3.882 1.626 3668
-3.700 3.964 1.641 3441
-3.771 4.039 1.653 3257
-3.841 4.115 1.664 3490
-3.850 4.124 1.650 5266
-3.853 4.127 1.633 5069
-3.850 4.125 1.615 3642
-4.057 4.346 1.677 3663
-4.071 4.361 1.663 3534
-4.121 4.414 1.664 2521
-4.208 4.507 1.677 2479
-4.179 4.477 1.648 2711
-4.224 4.525 1.645 2433
-4.285 4.590 1.648 2115
-4.283 4.588 1.628 2408
-4.533 4.856 1.695 2277
-4.525 4.848 1.672 2340
-4.655 4.986 1.695 2092
-4.663 4.995 1.677 1637
-4.756 5.095 1.687 2140
-4.759 5.098 1.667 2440
-4.756 5.095 1.645 2283
-4.823 5.167 1.645 1478
-4.963 5.317 1.667 1069
-5.088 5.450 1.683 1614
-5.080 5.442 1.658 2035
-5.565 5.962 1.779 2420
-5.568 5.965 1.756 2498
-5.572 5.969 1.732 1865
-5.569 5.966 1.707 2175
-5.578 5.975 1.685 2335
-5.591 5.990 1.664 2451
-5.594 5.993 1.640 3280
-6.001 6.429 1.723 3543
-5.999 6.427 1.697 3179
-6.002 6.430 1.671 2733
-6.005 6.433 1.645 2031
-6.248 6.693 1.679 2093
-6.251 6.697 1.653 2999
-6.254 6.700 1.626 2661
-6.257 6.703 1.600 2000
-6.260 6.706 1.573 1397
-6.263 6.709 1.546 958
-6.265 6.712 1.520 1004
-6.268 6.715 1.493 802
-6.271 6.718 1.466 380
-1.517 1.632 1.741 3118
-1.520 1.636 1.734 6237
-1.523 1.639 1.728 6237
-1.531 1.647 1.726 7218
-1.538 1.655 1.725 8416
-1.550 1.668 1.727 8093
-1.558 1.676 1.725 8592
-1.561 1.680 1.719 8592
-1.568 1.688 1.717 6422
-1.602 1.725 1.742 5950
-1.610 1.733 1.740 5398
-1.631 1.755 1.751 5141
-1.621 1.744 1.731 6671
-1.624 1.748 1.724 8386
-1.632 1.756 1.722 7528
-1.639 1.764 1.719 6878
-1.638 1.763 1.708 6844
-1.654 1.781 1.714 7854
-1.667 1.794 1.716 10143
-1.670 1.797 1.709 9921
-1.673 1.800 1.702 9699
-1.690 1.818 1.708 8186
-1.706 1.836 1.713 8853
-1.718 1.849 1.715 8182
-1.731 1.863 1.716 8829
-1.734 1.866 1.709 6837
-1.751 1.884 1.714 5098
-1.745 1.877 1.698 5067
-1.794 1.930 1.733 6194
-1.797 1.934 1.725 5600
-1.832 1.972 1.746 5375
-1.840 1.980 1.743 4636
-1.852 1.993 1.743 4153
-1.809 1.947 1.695 3943
-1.808 1.945 1.683 4223
-1.806 1.944 1.671 3823
-1.860 2.002 1.708 3237
-1.873 2.015 1.708 3229
-1.890 2.034 1.712 3821
-1.898 2.042 1.708 4668
-1.910 2.056 1.708 5110
-1.918 2.064 1.704 5774
-1.926 2.072 1.700 6450
-1.938 2.086 1.699 7511
-1.941 2.089 1.691 7712
-1.977 2.128 1.710 6956
-1.985 2.136 1.705 8819
-1.993 2.145 1.700 9097
-1.996 2.148 1.692 6782
-2.004 2.157 1.687 4140
-2.007 2.160 1.679 4502
-2.024 2.179 1.682 5142
-2.042 2.197 1.684 5692
-2.035 2.190 1.668 5639
-2.091 2.250 1.700 8228
-2.094 2.254 1.691 11099
-2.097 2.257 1.682 10423
-2.100 2.260 1.673 10147
-2.108 2.269 1.668 10640
-2.116 2.277 1.662 9633
-2.148 2.311 1.675 6906
-2.156 2.320 1.669 4451
-2.193 2.360 1.684 4776
-2.205 2.373 1.682 5747
-2.272 2.445 1.717 5016
-2.275 2.448 1.707 6695
-2.278 2.451 1.698 7090
-2.281 2.455 1.688 7134
-2.294 2.469 1.685 5857
-2.297 2.472 1.676 4399
-2.359 2.538 1.706 4815
-2.367 2.547 1.699 4937
-2.399 2.582 1.708 4787
-2.412 2.596 1.705 7529
-2.415 2.599 1.695 8737
-2.418 2.603 1.684 6737
-2.510 2.701 1.731 6230
-2.508 2.700 1.718 8943
-2.507 2.698 1.704 6764
-2.515 2.706 1.696 4011
-2.523 2.715 1.689 4835
-2.521 2.713 1.675 5647
-2.539 2.732 1.674 5497
-2.547 2.741 1.666 7005
-2.550 2.744 1.655 7800
-2.573 2.769 1.656 5618
-2.591 2.788 1.654 4153
-2.629 2.829 1.664 5684
-2.622 2.822 1.647 5532
-2.690 2.895 1.673 5970
-2.688 2.893 1.659 6131
-2.701 2.907 1.654 6894
-2.704 2.910 1.642 6604
-2.823 3.038 1.695 3960
-2.816 3.030 1.678 5085
-2.773 2.985 1.641 5587
-2.766 2.977 1.624 4958
-2.865 3.084 1.664 3822
-2.894 3.114 1.665 3549
-2.902 3.123 1.656 4575
-2.910 3.132 1.646 5111
-2.908 3.129 1.631 3859
-2.992 3.220 1.661 4320
-3.000 3.229 1.650 5270
-2.968 3.194 1.620 5837
-3.139 3.378 1.691 4826
-3.142 3.381 1.678 4527
-3.155 3.396 1.670 4570
-3.225 3.470 1.689 4636
-3.243 3.490 1.682 5425
-3.251 3.499 1.671 4560
-3.249 3.497 1.655 3448
-3.268 3.517 1.648 4319
-3.281 3.531 1.639 5972
-3.284 3.534 1.625 3941
-3.385 3.643 1.656 4380
-3.398 3.657 1.646 3454
-3.463 3.727 1.659 2449
-3.456 3.719 1.640 2022
-3.453 3.716 1.623 2762
-3.467 3.731 1.612 2623
-3.563 3.834 1.637 2030
-3.586 3.860 1.631 3527
-3.595 3.868 1.618 3624
-3.753 4.039 1.667 3526
-3.761 4.048 1.653 3294
-3.827 4.118 1.662 3625
-3.835 4.127 1.648 5075
-3.838 4.130 1.631 5126
-3.841 4.133 1.615 3881
-4.047 4.355 1.677 3639
-4.061 4.370 1.663 3490
-4.111 4.424 1.664 2483
-4.192 4.511 1.675 2579
-4.174 4.492 1.650 2809
-4.214 4.535 1.645 2404
-4.280 4.606 1.649 2116
-4.272 4.598 1.628 2378
-4.522 4.866 1.695 2259
-4.514 4.858 1.672 2328
-4.643 4.997 1.695 2054
-4.646 5.000 1.676 1638
-4.744 5.105 1.687 2124
-4.747 5.109 1.667 2419
-4.745 5.106 1.645 2251
-4.811 5.177 1.645 1448
-4.951 5.328 1.667 1108
-5.075 5.462 1.683 1620
-5.073 5.460 1.660 2027
-5.551 5.974 1.779 2433
-5.555 5.978 1.756 2496
-5.558 5.981 1.732 1835
-5.556 5.979 1.707 2143
-5.564 5.988 1.685 2296
-5.578 6.003 1.664 2426
-5.581 6.006 1.640 3250
-5.987 6.443 1.723 3433
-5.985 6.441 1.697 3051
-5.988 6.444 1.671 2617
-5.991 6.447 1.645 1955
-6.233 6.708 1.679 2148
-6.236 6.711 1.653 3077
-6.239 6.714 1.626 2747
-6.242 6.717 1.600 2063
-6.245 6.720 1.573 1425
-6.247 6.723 1.546 950
-6.250 6.726 1.520 983
-6.253 6.729 1.493 788
-6.255 6.732 1.466 375
-1.515 1.635 1.741 3124
-1.518 1.638 1.734 6248
-1.521 1.641 1.728 6248
-1.528 1.650 1.726 7227
-1.536 1.658 1.725 8418
-1.548 1.670 1.727 8085
-1.555 1.679 1.725 8579
-1.558 1.682 1.719 8579
-1.566 1.690 1.717 6398
-1.600 1.727 1.742 5954
-1.608 1.735 1.740 5393
-1.629 1.758 1.751 5120
-1.618 1.747 1.731 6652
-1.622 1.750 1.724 8359
-1.629 1.758 1.722 7518
-1.637 1.766 1.719 6891
-1.635 1.765 1.708 6853
-1.652 1.783 1.714 7890
-1.664 1.796 1.716 10205
-1.667 1.799 1.709 9958
-1.670 1.803 1.702 9711
-1.691 1.826 1.712 8173
-1.704 1.839 1.713 8806
-1.716 1.852 1.715 8153
-1.728 1.865 1.716 8803
-1.731 1.868 1.709 6834
-1.748 1.886 1.714 5125
-1.783 1.924 1.736 5098
-1.791 1.933 1.733 6239
-1.794 1.936 1.725 5638
-1.825 1.969 1.742 5341
-1.837 1.983 1.743 4604
-1.849 1.996 1.743 4133
-1.806 1.950 1.695 3949
-1.805 1.948 1.683 4217
-1.803 1.946 1.671 3832
-1.857 2.005 1.708 3175
-1.870 2.018 1.708 3206
-1.892 2.041 1.716 3854
-1.895 2.045 1.708 4720
-1.907 2.058 1.708 5182
-1.915 2.067 1.704 5857
-1.923 2.075 1.700 6519
-1.935 2.089 1.699 7594
-1.938 2.092 1.691 7808
-1.974 2.131 1.710 6910
-1.982 2.139 1.705 8744
-1.990 2.148 1.700 9023
-1.993 2.151 1.692 6731
-2.001 2.159 1.687 4112
-2.004 2.163 1.679 4480
-2.021 2.181 1.682 5184
-2.039 2.200 1.684 5819
-2.037 2.198 1.672 5739
-2.088 2.253 1.700 8165
-2.091 2.257 1.691 11008
-2.094 2.260 1.682 10315
-2.097 2.263 1.673 10077
-2.105 2.272 1.668 10659
-2.113 2.280 1.662 9683
-2.145 2.315 1.675 6858
-2.152 2.323 1.669 4409
-2.189 2.363 1.684 4736
-2.202 2.377 1.682 5772
-2.268 2.448 1.717 5111
-2.271 2.451 1.707 6806
-2.274 2.455 1.698 7203
-2.277 2.458 1.688 7244
-2.290 2.472 1.685 5925
-2.293 2.475 1.676 4443
-2.355 2.542 1.706 4758
-2.363 2.550 1.699 4838
-2.396 2.585 1.708 4760
-2.408 2.599 1.705 7520
-2.412 2.603 1.695 8722
-2.415 2.606 1.684 6721
-2.506 2.705 1.731 6256
-2.505 2.703 1.718 8990
-2.503 2.701 1.704 6827
-2.511 2.710 1.696 4113
-2.519 2.718 1.689 5006
-2.517 2.716 1.675 5823
-2.535 2.736 1.674 5608
-2.543 2.744 1.666 7047
-2.546 2.748 1.655 7733
-2.569 2.772 1.656 5578
-2.587 2.792 1.654 4131
-2.625 2.833 1.664 5742
-2.618 2.825 1.647 5643
-2.686 2.899 1.673 5980
-2.684 2.897 1.659 6063
-2.697 2.911 1.654 6756
-2.700 2.914 1.642 6492
-2.819 3.042 1.695 3970
-2.812 3.034 1.678 5097
-2.764 2.983 1.638 5539
-2.762 2.981 1.624 4953
-2.861 3.088 1.664 3916
-2.884 3.113 1.662 3686
-2.892 3.122 1.653 4649
-2.905 3.136 1.646 5180
-2.908 3.139 1.634 3901
-2.988 3.224 1.661 4318
-2.996 3.233 1.650 5250
-2.963 3.198 1.620 5784
-3.134 3.382 1.691 4799
-3.137 3.386 1.678 4544
-3.150 3.400 1.670 4604
-3.220 3.475 1.689 4719
-3.238 3.495 1.682 5580
-3.246 3.504 1.671 4629
-3.244 3.501 1.655 3515
-3.263 3.521 1.648 4458
-3.276 3.536 1.639 5775
-3.366 3.633 1.665 3765
-3.380 3.647 1.656 4419
-3.393 3.662 1.646 3454
-3.452 3.726 1.657 2372
-3.455 3.729 1.642 2398
-3.453 3.727 1.625 3556
-3.461 3.736 1.612 3459
-3.490 3.767 1.609 2207
-3.581 3.865 1.631 3295
-3.610 3.896 1.626 3588
-3.685 3.977 1.641 3753
-3.756 4.053 1.653 3047
-3.826 4.129 1.664 3472
-3.834 4.138 1.650 4924
-3.837 4.141 1.633 4853
-3.835 4.139 1.615 3377
-4.041 4.361 1.677 3633
-4.054 4.376 1.663 3542
-4.104 4.430 1.664 2518
-4.186 4.517 1.675 2539
-4.168 4.498 1.650 2765
-4.207 4.541 1.645 2378
-4.273 4.612 1.649 2176
-4.271 4.609 1.629 2425
-4.515 4.872 1.695 2224
-4.507 4.864 1.672 2320
-4.636 5.003 1.695 1999
-4.639 5.007 1.676 1602
-4.737 5.112 1.687 2079
-4.740 5.115 1.667 2385
-4.738 5.113 1.645 2228
-4.804 5.184 1.645 1426
-4.943 5.335 1.667 1168
-4.946 5.338 1.646 1571
-5.065 5.467 1.660 2025
-5.543 5.982 1.779 2421
-5.546 5.986 1.756 2441
-5.549 5.989 1.732 1776
-5.547 5.987 1.707 2075
-5.556 5.996 1.685 2230
-5.569 6.011 1.664 2391
-5.572 6.014 1.640 3218
-5.978 6.451 1.723 3447
-5.975 6.449 1.697 3043
-5.978 6.452 1.671 2575
-5.982 6.456 1.645 1921
-6.223 6.716 1.679 2220
-6.226 6.720 1.653 3136
-6.229 6.723 1.626 2792
-6.232 6.726 1.600 2099
-6.235 6.729 1.573 1457
-6.238 6.732 1.546 999
-6.241 6.735 1.520 1045
-6.243 6.738 1.493 832
-6.246 6.741 1.466 390
-1.511 1.638 1.741 3122
-1.514 1.641 1.734 6244
-1.517 1.645 1.728 6244
-1.525 1.653 1.726 7224
-1.532 1.661 1.725 8409
-1.544 1.674 1.727 8073
-1.552 1.682 1.725 8570
-1.555 1.685 1.719 8570
-1.562 1.694 1.717 6379
-1.596 1.730 1.742 5964
-1.604 1.739 1.740 5401
-1.625 1.761 1.751 5146
-1.615 1.750 1.731 6669
-1.618 1.754 1.724 8377
-1.625 1.762 1.722 7543
-1.633 1.770 1.719 6928
-1.632 1.769 1.708 6887
-1.648 1.786 1.714 7920
-1.660 1.800 1.716 10203
-1.663 1.803 1.709 9959
-1.666 1.806 1.702 9714
-1.683 1.824 1.708 8168
-1.700 1.842 1.713 8796
-1.712 1.856 1.715 8125
-1.724 1.869 1.716 8780
-1.727 1.872 1.709 6820
-1.744 1.890 1.714 5104
-1.738 1.884 1.698 5095
-1.787 1.937 1.733 6214
-1.790 1.940 1.725 5627
-1.820 1.973 1.742 5336
-1.833 1.987 1.743 4577
-1.845 2.000 1.743 4096
-1.798 1.949 1.691 3941
-1.801 1.952 1.683 4199
-1.799 1.950 1.671 3803
-1.853 2.009 1.708 3150
-1.865 2.022 1.708 3223
-1.882 2.041 1.712 3868
-1.890 2.049 1.708 4760
-1.903 2.062 1.708 5257
-1.910 2.071 1.704 5956
-1.918 2.079 1.700 6653
-1.931 2.093 1.699 7687
-1.934 2.096 1.691 7845
-1.970 2.135 1.710 6835
-1.977 2.144 1.705 8640
-1.985 2.152 1.700 8969
-1.988 2.155 1.692 6722
-2.048 2.220 1.728 4171
-1.999 2.167 1.679 4452
-2.016 2.186 1.682 5184
-2.034 2.205 1.684 5787
-2.032 2.203 1.672 5714
-2.083 2.258 1.700 8034
-2.086 2.261 1.691 10842
-2.089 2.264 1.682 10190
-2.092 2.268 1.673 10012
-2.100 2.276 1.668 10614
-2.108 2.285 1.662 9733
-2.139 2.319 1.675 6834
-2.239 2.427 1.735 4334
-2.184 2.368 1.684 4741
-2.197 2.381 1.682 5662
-2.263 2.453 1.717 5102
-2.266 2.456 1.707 6816
-2.269 2.460 1.698 7212
-2.272 2.463 1.688 7319
-2.285 2.477 1.685 6035
-2.288 2.480 1.676 4527
-2.349 2.547 1.706 4787
-2.357 2.555 1.699 4868
-2.390 2.591 1.708 4758
-2.403 2.605 1.705 7503
-2.406 2.608 1.695 8699
-2.409 2.611 1.684 6698
-2.500 2.711 1.731 6260
-2.499 2.709 1.718 8959
-2.497 2.707 1.704 6769
-2.505 2.715 1.696 4149
-2.513 2.724 1.689 4990
-2.511 2.722 1.675 5714
-2.529 2.741 1.674 5506
-2.537 2.750 1.666 6936
-2.540 2.753 1.655 7621
-2.563 2.778 1.656 5514
-2.581 2.798 1.654 4034
-2.619 2.839 1.664 5573
-2.612 2.831 1.647 5431
-2.680 2.905 1.673 6013
-2.678 2.902 1.659 6088
-2.696 2.922 1.656 6818
-2.694 2.920 1.642 6505
-2.812 3.048 1.695 3927
-2.805 3.041 1.678 5032
-2.758 2.989 1.638 5658
-2.756 2.987 1.624 5095
-2.854 3.094 1.664 3928
-2.877 3.119 1.662 3622
-2.886 3.128 1.653 4555
-2.899 3.142 1.646 5016
-2.902 3.145 1.634 3764
-2.981 3.231 1.661 4287
-2.989 3.240 1.650 5193
-2.956 3.204 1.620 5749
-3.127 3.389 1.691 4787
-3.130 3.393 1.678 4573
-3.143 3.407 1.670 4637
-3.212 3.482 1.689 5128
-3.231 3.502 1.682 5520
-3.234 3.505 1.669 4546
-3.237 3.509 1.655 3487
-3.255 3.528 1.648 4341
-3.268 3.543 1.639 5784
-3.271 3.546 1.625 4002
-3.371 3.655 1.656 4486
-3.385 3.669 1.646 3522
-3.449 3.739 1.659 2392
-3.499 3.793 1.665 2384
-3.502 3.796 1.650 2276
-3.499 3.793 1.632 2435
-3.477 3.769 1.607 2103
-3.572 3.873 1.631 3336
-3.586 3.887 1.620 3617
-3.744 4.058 1.669 3436
-3.747 4.061 1.653 3180
-3.817 4.138 1.664 3564
-3.820 4.141 1.648 4932
-3.828 4.150 1.633 4857
-3.826 4.147 1.615 3558
-4.031 4.370 1.677 3701
-4.045 4.385 1.663 3549
-4.095 4.439 1.664 2436
-4.176 4.527 1.675 2570
-4.158 4.507 1.650 2797
-4.197 4.550 1.645 2360
-4.263 4.621 1.649 2160
-4.261 4.619 1.629 2380
-4.504 4.882 1.695 2293
-4.497 4.874 1.672 2380
-4.625 5.014 1.695 1975
-4.633 5.023 1.677 1620
-4.725 5.122 1.687 2153
-4.729 5.126 1.667 2430
-4.726 5.123 1.645 2216
-4.792 5.195 1.645 1448
-4.932 5.346 1.667 1182
-4.935 5.349 1.646 1558
-5.048 5.472 1.658 2016
-5.530 5.994 1.779 2404
-5.533 5.998 1.756 2468
-5.536 6.001 1.732 1806
-5.534 5.999 1.707 2090
-5.542 6.008 1.685 2258
-5.556 6.023 1.664 2423
-5.559 6.026 1.640 3219
-5.963 6.464 1.723 3394
-5.967 6.468 1.698 3032
-5.964 6.465 1.671 2579
-5.967 6.469 1.645 1886
-6.208 6.730 1.679 2256
-6.211 6.733 1.653 3211
-6.214 6.737 1.626 2837
-6.217 6.740 1.600 2103
-6.220 6.743 1.573 1461
-6.223 6.746 1.546 998
-6.226 6.749 1.520 1036
-6.228 6.752 1.493 826
-6.226 6.749 1.465 388
-1.507 1.642 1.741 3116
-1.510 1.645 1.734 6233
-1.513 1.649 1.728 6233
-1.521 1.657 1.726 7190
-1.528 1.665 1.725 8345
-1.540 1.678 1.727 8028
-1.547 1.686 1.725 8534
-1.551 1.689 1.719 8534
-1.558 1.697 1.717 6356
-1.592 1.734 1.742 5939
-1.599 1.743 1.740 5388
-1.620 1.765 1.751 5158
-1.610 1.754 1.731 6679
-1.613 1.758 1.724 8392
-1.621 1.766 1.722 7566
-1.628 1.774 1.719 6948
-1.627 1.773 1.708 6909
-1.644 1.791 1.714 7906
-1.656 1.804 1.716 10191
-1.659 1.807 1.709 9916
-1.662 1.811 1.702 9642
-1.683 1.833 1.712 8105
-1.695 1.847 1.713 8715
-1.707 1.860 1.715 8079
-1.719 1.873 1.716 8760
-1.722 1.876 1.709 6762
-1.739 1.895 1.714 5016
-1.774 1.933 1.736 5014
-1.782 1.941 1.733 6176
-1.785 1.945 1.725 5632
-1.815 1.978 1.742 5331
-1.828 1.991 1.743 4561
-1.840 2.005 1.743 4066
-1.797 1.958 1.695 3994
-1.796 1.956 1.683 4204
-1.794 1.955 1.671 3776
-1.848 2.013 1.708 3187
-1.860 2.027 1.708 3233
-1.873 2.040 1.708 3853
-1.885 2.054 1.708 4725
-1.897 2.067 1.708 5211
-1.905 2.076 1.704 5897
-1.913 2.084 1.700 6623
-1.925 2.098 1.699 7659
-1.928 2.101 1.691 7743
-1.964 2.140 1.710 6798
-1.972 2.149 1.705 8550
-1.980 2.157 1.700 8904
-1.983 2.160 1.692 6705
-2.043 2.225 1.728 4215
-1.994 2.172 1.679 4422
-2.011 2.191 1.682 5087
-2.028 2.210 1.684 5594
-2.027 2.208 1.672 5598
-2.077 2.263 1.700 7992
-2.080 2.266 1.691 10798
-2.083 2.270 1.682 10144
-2.086 2.273 1.673 9975
-2.094 2.281 1.668 10587
-2.102 2.290 1.662 9730
-2.134 2.325 1.675 6808
-2.233 2.433 1.735 4385
-2.178 2.373 1.684 4776
-2.191 2.387 1.682 5664
-2.257 2.459 1.717 5050
-2.265 2.467 1.711 6743
-2.263 2.465 1.698 7113
-2.266 2.469 1.688 7205
-2.279 2.483 1.685 6042
-2.282 2.486 1.676 4586
-2.343 2.553 1.706 4762
-2.351 2.561 1.699 4858
-2.378 2.591 1.705 4793
-2.396 2.611 1.705 7539
-2.394 2.609 1.691 8763
-2.402 2.617 1.684 6724
-2.494 2.717 1.731 6269
-2.492 2.715 1.718 8901
-2.495 2.718 1.707 6744
-2.498 2.722 1.696 4283
-2.506 2.730 1.689 5159
-2.504 2.728 1.675 5853
-2.522 2.748 1.674 5565
-2.530 2.756 1.666 6927
-2.533 2.760 1.655 7531
-2.556 2.785 1.656 5444
-2.574 2.804 1.654 3973
-2.611 2.845 1.664 5538
-2.664 2.903 1.682 5393
-2.672 2.911 1.673 6053
-2.670 2.909 1.659 6077
-2.688 2.929 1.656 6684
-2.686 2.927 1.642 6390
-2.804 3.055 1.695 3922
-2.797 3.048 1.678 4995
-2.750 2.996 1.638 5629
-2.748 2.994 1.624 5070
-2.846 3.101 1.664 3873
-2.870 3.126 1.662 3640
-2.878 3.135 1.653 4595
-2.891 3.149 1.646 5013
-2.894 3.153 1.634 3721
-2.972 3.238 1.661 4274
-2.980 3.247 1.650 5183
-2.948 3.212 1.620 5668
-3.118 3.397 1.691 4804
-3.121 3.400 1.678 4549
-3.134 3.415 1.670 4555
-3.208 3.496 1.691 4820
-3.222 3.510 1.682 5551
-3.230 3.519 1.671 4334
-3.233 3.522 1.657 2989
-3.246 3.537 1.648 3866
-3.259 3.551 1.639 5529
-3.262 3.554 1.625 3861
-3.362 3.663 1.656 4487
-3.375 3.678 1.646 3467
-3.409 3.714 1.645 2308
-3.489 3.801 1.665 2460
-3.436 3.743 1.625 3173
-3.449 3.757 1.615 3398
-3.457 3.766 1.602 2471
-3.563 3.882 1.631 3060
-3.591 3.913 1.626 3588
-3.672 4.000 1.643 3849
-3.736 4.071 1.653 3497
-3.734 4.069 1.635 3658
-3.820 4.162 1.652 4338
-3.818 4.159 1.633 4375
-3.815 4.157 1.615 3487
-4.020 4.380 1.677 3711
-4.034 4.395 1.663 3512
-4.083 4.449 1.664 2412
-4.164 4.537 1.675 2552
-4.141 4.512 1.648 2771
-4.186 4.561 1.645 2280
-4.251 4.632 1.649 2154
-4.249 4.629 1.629 2432
-4.492 4.894 1.695 2319
-4.484 4.886 1.672 2405
-4.612 5.025 1.695 1930
-4.621 5.034 1.677 1617
-4.713 5.134 1.687 2192
-4.716 5.138 1.667 2410
-4.713 5.135 1.645 2158
-4.779 5.207 1.645 1430
-4.918 5.358 1.667 1177
-5.042 5.493 1.683 1679
-5.040 5.491 1.660 2052
-5.515 6.008 1.779 2411
-5.518 6.012 1.756 2460
-5.521 6.015 1.732 1810
-5.519 6.013 1.707 2128
-5.527 6.022 1.685 2278
-5.541 6.037 1.664 2414
-5.544 6.040 1.640 3223
-5.947 6.479 1.723 3356
-5.945 6.477 1.697 2949
-5.948 6.480 1.671 2517
-5.951 6.484 1.645 1875
-6.191 6.746 1.679 2248
-6.195 6.749 1.653 3186
-6.197 6.752 1.626 2806
-6.200 6.755 1.600 2072
-6.203 6.758 1.573 1432
-6.206 6.761 1.546 976
-6.209 6.764 1.520 1015
-6.211 6.767 1.493 808
-6.214 6.770 1.466 372
-1.505 1.644 1.741 3289
-1.508 1.647 1.734 6578
-1.511 1.650 1.728 6578
-1.519 1.659 1.726 7339
-1.526 1.667 1.725 8251
-1.533 1.675 1.723 7863
-1.545 1.688 1.725 8346
-1.548 1.691 1.719 8346
-1.556 1.699 1.717 6221
-1.590 1.736 1.742 5952
-1.597 1.745 1.740 5337
-1.618 1.767 1.751 5037
-1.608 1.756 1.731 6533
-1.611 1.760 1.724 8222
-1.619 1.768 1.722 7466
-1.626 1.776 1.719 6950
-1.625 1.775 1.708 6903
-1.641 1.793 1.714 7870
-1.653 1.806 1.716 10073
-1.656 1.809 1.709 9769
-1.660 1.813 1.702 9465
-1.681 1.836 1.712 8022
-1.693 1.849 1.713 8736
-1.705 1.862 1.715 8150
-1.717 1.875 1.716 8879
-1.720 1.879 1.709 6822
-1.737 1.897 1.714 5035
-1.772 1.935 1.736 5014
-1.779 1.943 1.733 6109
-1.782 1.947 1.725 5574
-1.817 1.985 1.746 5167
-1.825 1.994 1.743 4487
-1.837 2.007 1.743 4043
-1.790 1.955 1.691 3936
-1.789 1.954 1.679 4128
-1.787 1.952 1.667 3903
-1.790 1.955 1.660 3060
-1.858 2.029 1.708 3080
-1.875 2.048 1.712 3755
-1.882 2.056 1.708 4652
-1.895 2.070 1.708 5101
-1.898 2.073 1.700 5696
-1.910 2.086 1.700 6378
-1.923 2.100 1.699 7567
-1.926 2.103 1.691 7571
-1.962 2.143 1.710 6709
-1.974 2.156 1.709 8303
-1.977 2.160 1.700 8744
-1.980 2.163 1.692 6643
-2.040 2.228 1.728 4239
-1.991 2.175 1.679 4461
-2.008 2.193 1.682 5097
-2.021 2.207 1.680 5492
-2.019 2.205 1.668 5482
-2.074 2.266 1.700 8173
-2.077 2.269 1.691 10956
-2.080 2.272 1.682 10097
-2.083 2.276 1.673 9680
-2.091 2.284 1.668 10324
-2.099 2.293 1.662 9528
-2.131 2.327 1.675 6715
-2.230 2.435 1.735 4752
-2.175 2.376 1.684 4784
-2.188 2.390 1.682 5930
-2.254 2.461 1.717 5164
-2.261 2.470 1.711 6856
-2.260 2.468 1.698 7184
-2.263 2.471 1.688 7214
-2.275 2.485 1.685 5984
-2.279 2.489 1.676 4542
-2.340 2.556 1.706 5051
-2.348 2.564 1.699 5128
-2.375 2.594 1.705 4782
-2.388 2.608 1.702 7401
-2.391 2.612 1.691 8627
-2.399 2.620 1.684 6551
-2.490 2.720 1.731 6178
-2.488 2.718 1.718 8666
-2.492 2.721 1.707 6544
-2.495 2.725 1.696 4380
-2.498 2.728 1.686 5458
-2.506 2.737 1.678 6178
-2.519 2.751 1.674 5995
-2.536 2.770 1.672 7466
-2.529 2.763 1.655 7666
-2.552 2.788 1.656 5419
-2.570 2.807 1.654 4017
-2.608 2.848 1.664 5679
-2.601 2.841 1.647 5398
-2.669 2.915 1.673 5717
-2.667 2.913 1.659 5528
-2.685 2.932 1.656 6055
-2.682 2.930 1.642 6020
-2.800 3.059 1.695 4154
-2.798 3.057 1.681 5345
-2.746 3.000 1.638 5570
-2.739 2.992 1.621 5156
-2.843 3.105 1.664 4063
-2.866 3.130 1.662 3594
-2.879 3.144 1.656 4608
-2.887 3.153 1.646 5012
-2.915 3.184 1.647 3606
-2.968 3.242 1.661 4126
-2.976 3.251 1.650 4909
-2.944 3.215 1.620 5498
-3.119 3.407 1.694 4724
-3.117 3.404 1.678 4582
-3.125 3.413 1.667 4827
-3.204 3.500 1.691 4415
-3.217 3.514 1.682 4948
-3.225 3.523 1.671 4190
-3.228 3.526 1.657 3147
-3.242 3.541 1.648 4036
-3.255 3.555 1.639 5360
-3.344 3.653 1.665 3778
-3.358 3.667 1.656 4521
-3.371 3.682 1.646 3489
-3.430 3.747 1.657 2318
-3.428 3.744 1.640 2424
-3.431 3.747 1.625 3511
-3.439 3.756 1.612 3555
-3.452 3.771 1.602 2388
-3.558 3.886 1.631 3025
-3.592 3.923 1.629 3551
-3.723 4.067 1.667 3532
-3.731 4.076 1.653 3043
-3.801 4.152 1.664 3138
-3.815 4.167 1.652 4371
-3.818 4.170 1.635 4334
-3.815 4.167 1.617 3234
-4.015 4.385 1.677 3614
-4.028 4.400 1.663 3496
-4.073 4.448 1.662 2294
-4.159 4.542 1.675 2498
-4.136 4.517 1.648 2792
-4.123 4.503 1.624 2237
-4.245 4.637 1.649 2021
-4.243 4.635 1.629 2304
-4.485 4.899 1.695 2524
-4.478 4.891 1.672 2543
-4.450 4.860 1.642 1932
-4.614 5.040 1.677 1503
-4.706 5.140 1.687 2141
-4.709 5.144 1.667 2225
-4.712 5.147 1.647 1871
-4.773 5.213 1.645 1360
-5.037 5.502 1.706 1243
-5.035 5.499 1.683 1827
-5.038 5.503 1.661 2031
-5.502 6.010 1.778 2184
-5.510 6.019 1.756 2160
-5.508 6.016 1.730 1575
-5.511 6.020 1.707 2075
-5.515 6.023 1.683 2155
-5.533 6.044 1.664 2200
-5.536 6.047 1.640 3001
-5.939 6.487 1.723 2904
-5.937 6.485 1.697 2594
-6.008 6.563 1.689 2344
-6.011 6.566 1.663 1621
-6.183 6.753 1.679 2702
-6.186 6.757 1.653 3925
-6.189 6.760 1.626 3426
-6.187 6.757 1.598 2458
-6.189 6.760 1.572 1732
-6.198 6.769 1.546 1231
-6.200 6.772 1.520 1283
-6.203 6.775 1.493 1041
-6.206 6.778 1.466 504
-1.501 1.647 1.741 3753
-1.504 1.651 1.734 7507
-1.507 1.654 1.728 7507
-1.510 1.658 1.722 7774
-1.518 1.666 1.720 8124
-1.529 1.679 1.723 7394
-1.541 1.692 1.725 7706
-1.544 1.695 1.719 7706
-1.552 1.703 1.717 5780
-1.585 1.740 1.742 5997
-1.589 1.744 1.735 5268
-1.570 1.723 1.706 4803
-1.599 1.755 1.726 6108
-1.607 1.764 1.724 7654
-1.614 1.772 1.722 7065
-1.622 1.780 1.719 6831
-1.625 1.784 1.712 6782
-1.637 1.797 1.714 7671
-1.649 1.810 1.716 9531
-1.652 1.813 1.709 9122
-1.655 1.817 1.702 8713
-1.681 1.845 1.716 7529
-1.688 1.853 1.713 8485
-1.700 1.866 1.715 8090
-1.712 1.879 1.716 8876
-1.720 1.888 1.713 6821
-1.732 1.901 1.714 5021
-1.722 1.890 1.694 5033
-1.774 1.948 1.733 5757
-1.778 1.951 1.725 5277
-1.758 1.930 1.697 5345
-1.770 1.943 1.698 4403
-1.833 2.011 1.743 3923
-1.781 1.955 1.687 3772
-1.779 1.953 1.675 3949
-1.782 1.956 1.667 4039
-1.785 1.960 1.660 3362
-1.788 1.963 1.652 2686
-1.879 2.062 1.720 3558
-1.882 2.066 1.712 4469
-1.885 2.069 1.704 5017
-1.893 2.078 1.700 5570
-1.910 2.096 1.703 5993
-1.922 2.110 1.703 7324
-1.925 2.113 1.695 7129
-1.956 2.147 1.710 6422
-1.969 2.161 1.709 7648
-1.972 2.164 1.700 8213
