0.440 2.914 1.890 1308
0.423 2.798 1.808 9146
0.447 2.959 1.906 1650
0.424 2.809 1.804 7297
0.444 2.937 1.882 2942
0.426 2.821 1.800 5874
0.445 2.949 1.877 4207
0.445 2.947 1.864 4470
0.426 2.819 1.788 4307
0.447 2.959 1.860 4677
0.428 2.831 1.784 2083
0.447 2.957 1.847 4037
0.466 3.086 1.923 1268
0.443 2.935 1.823 4821
0.463 3.064 1.898 3973
0.445 2.946 1.818 5891
0.465 3.075 1.893 3755
0.459 3.040 1.861 5957
0.440 2.911 1.786 3326
0.458 3.031 1.844 7153
0.438 2.902 1.770 1911
0.460 3.043 1.839 6663
0.440 2.913 1.765 1582
0.462 3.061 1.838 6361
0.443 2.932 1.765 822
0.463 3.066 1.829 6545
0.444 2.936 1.756 584
0.465 3.078 1.824 11834
0.440 2.913 1.732 672
0.466 3.083 1.815 16762
0.440 2.911 1.720 900
0.466 3.088 1.806 17794
0.440 2.916 1.712 857
0.466 3.086 1.793 15347
0.506 3.347 1.936 1013
0.467 3.090 1.785 12489
0.506 3.353 1.927 1762
0.468 3.095 1.776 9425
0.504 3.337 1.906 2314
0.469 3.107 1.770 6873
0.505 3.342 1.896 2267
0.469 3.104 1.758 7092
0.517 3.423 1.927 2105
0.470 3.109 1.749 7245
0.519 3.435 1.920 2869
0.471 3.121 1.743 6468
0.520 3.441 1.910 3551
0.473 3.132 1.738 5642
0.521 3.446 1.900 3674
0.475 3.144 1.732 4081
0.520 3.444 1.887 3851
0.520 3.442 1.873 4132
0.486 3.218 1.759 4076
0.522 3.454 1.867 4669
0.486 3.216 1.746 4153
0.524 3.466 1.860 5957
0.488 3.228 1.740 3996
0.525 3.478 1.854 6011
0.488 3.232 1.731 3329
0.538 3.560 1.882 4919
0.488 3.230 1.718 2824
0.541 3.579 1.878 5865
0.520 3.445 1.813 2083
0.544 3.598 1.875 8750
0.459 3.042 1.602 1874
0.544 3.603 1.864 10465
0.461 3.053 1.597 2132
0.545 3.608 1.854 8488
0.462 3.057 1.588 2147
0.555 3.677 1.874 7023
0.535 3.542 1.810 2180
0.557 3.689 1.867 6443
0.537 3.554 1.803 1547
0.558 3.694 1.856 6172
0.538 3.559 1.792 1189
0.559 3.699 1.845 7173
0.538 3.564 1.782 908
0.562 3.718 1.841 10432
0.582 3.853 1.904 860
0.565 3.737 1.837 11272
0.585 3.872 1.899 1071
0.566 3.749 1.829 6893
0.587 3.885 1.891 1462
0.566 3.747 1.815 4319
0.586 3.882 1.876 1935
0.567 3.752 1.804 3465
0.588 3.895 1.868 2370
0.579 3.835 1.828 4751
0.600 3.971 1.889 1576
0.588 3.890 1.839 7598
0.567 3.754 1.779 943
0.591 3.909 1.834 8100
0.570 3.773 1.774 1638
0.597 3.950 1.839 7561
0.576 3.814 1.779 2158
0.596 3.948 1.824 6544
0.617 4.085 1.883 2577
0.600 3.974 1.822 6744
0.621 4.111 1.880 2935
0.600 3.972 1.807 6623
0.627 4.152 1.884 3173
0.601 3.977 1.795 4941
0.630 4.172 1.878 2757
0.609 4.032 1.805 3963
0.633 4.191 1.872 3843
0.632 4.182 1.853 6600
0.611 4.044 1.796 3964
0.634 4.194 1.844 7142
0.613 4.056 1.788 2537
0.636 4.213 1.838 5561
0.616 4.075 1.782 1949
0.642 4.247 1.837 5047
0.621 4.109 1.781 1743
0.643 4.260 1.828 5104
0.664 4.398 1.883 2199
0.646 4.279 1.821 4703
0.667 4.417 1.876 2191
0.653 4.320 1.823 4823
0.677 4.481 1.886 1630
0.656 4.340 1.816 3850
0.679 4.493 1.876 3158
0.678 4.491 1.860 3685
0.656 4.345 1.804 2661
0.679 4.496 1.847 2929
0.658 4.357 1.794 2280
0.685 4.537 1.848 3147
0.664 4.398 1.795 2674
0.684 4.527 1.829 3323
0.663 4.388 1.777 1969
0.684 4.525 1.813 3603
0.705 4.664 1.865 1756
0.704 4.662 1.849 3755
0.683 4.522 1.797 2691
0.705 4.667 1.836 4866
0.726 4.807 1.887 1435
0.705 4.664 1.819 4477
0.726 4.804 1.870 2704
0.708 4.684 1.811 3198
0.729 4.824 1.861 2680
0.724 4.792 1.834 2549
0.745 4.932 1.884 1615
0.725 4.797 1.820 3853
0.746 4.937 1.870 2163
0.743 4.920 1.848 3803
0.722 4.780 1.798 2297
0.744 4.925 1.833 4135
0.765 5.066 1.882 2071
0.763 5.049 1.860 3899
0.741 4.908 1.811 3038
0.763 5.053 1.845 4041
0.785 5.194 1.893 2556
0.782 5.177 1.870 5205
0.757 5.014 1.815 3428
0.785 5.197 1.860 5262
0.759 5.026 1.803 2189
0.788 5.217 1.850 3612
0.767 5.076 1.803 1912
0.802 5.311 1.864 2664
0.770 5.095 1.793 2454
0.806 5.338 1.856 3204
0.785 5.197 1.810 1925
0.807 5.343 1.840 2705
0.786 5.202 1.794 1608
0.826 5.468 1.862 2740
0.805 5.326 1.817 1704
0.829 5.488 1.851 3692
0.808 5.346 1.806 1818
0.844 5.590 1.865 2827
0.814 5.388 1.802 2155
0.845 5.595 1.849 3261
0.884 5.849 1.928 1962
0.846 5.600 1.833 2263
0.869 5.750 1.878 1888
0.874 5.785 1.871 2138
0.848 5.612 1.819 1799
0.878 5.812 1.860 2583
0.848 5.617 1.802 1479
0.882 5.840 1.850 2414
0.930 6.155 1.943 1521
0.899 5.950 1.864 1934
0.932 6.168 1.928 1907
0.902 5.970 1.851 1721
0.944 6.248 1.931 1334
0.945 6.253 1.913 1810
0.908 6.012 1.844 1437
0.948 6.273 1.899 2172
0.926 6.130 1.858 1768
0.953 6.309 1.889 2295
0.993 6.573 1.963 1822
0.994 6.578 1.944 2602
1.015 6.721 1.983 1712
0.998 6.606 1.930 3007
0.974 6.447 1.887 1624
1.011 6.694 1.934 3545
1.047 6.929 1.997 2091
1.013 6.707 1.916 3920
0.991 6.563 1.878 2169
1.016 6.727 1.900 3484
1.051 6.954 1.960 2224
1.050 6.952 1.938 2863
1.074 7.111 1.979 2558
1.075 7.117 1.959 2702
1.051 6.957 1.918 2160
1.122 7.425 2.015 2827
1.076 7.122 1.938 2422
1.124 7.438 1.995 1892
1.079 7.142 1.921 1475
1.161 7.687 2.034 1312
1.090 7.216 1.917 1220
1.164 7.708 2.015 1280
1.129 7.472 1.957 975
1.207 7.987 2.058 1004
1.167 7.728 1.996 953
1.210 8.008 2.039 1353
1.273 8.427 2.139 924
1.209 8.006 2.013 1706
1.275 8.440 2.116 1119
1.212 8.026 1.993 1522
1.279 8.469 2.096 1165
1.281 8.482 2.073 1238
1.214 8.039 1.972 811
1.281 8.480 2.047 1101
1.314 8.701 2.097 864
1.313 8.692 2.068 1576
1.274 8.432 2.010 924
1.312 8.682 2.039 1604
1.352 8.950 2.098 1477
1.379 9.131 2.110 1693
1.348 8.925 2.065 1287
1.384 9.160 2.088 1948
1.340 8.869 2.026 1241
1.386 9.173 2.062 1720
1.341 8.874 1.999 873
1.397 9.248 2.050 1735
1.354 8.964 1.991 835
1.391 9.207 2.013 1692
1.356 8.977 1.966 825
1.394 9.228 1.989 1406
1.358 8.990 1.941 533
1.396 9.241 1.964 979
1.321 8.742 1.865 256
1.398 9.254 1.938 867
1.396 9.244 1.908 557
1.401 9.272 1.885 298
0.352 2.310 1.821 2155
0.333 2.190 1.731 267
0.352 2.315 1.814 4310
0.371 2.435 1.903 1045
0.356 2.339 1.821 4883
0.338 2.219 1.733 1121
0.357 2.344 1.815 6027
0.375 2.464 1.903 1530
0.357 2.348 1.808 7171
0.376 2.469 1.896 2107
0.357 2.347 1.796 5333
0.376 2.468 1.884 3156
0.373 2.454 1.863 4619
0.355 2.333 1.776 3062
0.374 2.459 1.856 4619
0.356 2.337 1.769 3062
0.376 2.470 1.853 4213
0.357 2.348 1.767 3899
0.359 2.359 1.765 4453
0.378 2.481 1.851 3940
0.377 2.480 1.839 4664
0.359 2.358 1.753 3916
0.364 2.395 1.769 5639
0.383 2.517 1.854 3230
0.378 2.483 1.820 4757
0.359 2.361 1.735 2285
0.375 2.462 1.795 4781
0.393 2.585 1.880 2172
0.375 2.467 1.788 4781
0.394 2.590 1.872 2172
0.381 2.504 1.803 4269
0.400 2.628 1.887 1480
0.389 2.555 1.826 5374
0.365 2.398 1.721 1085
0.393 2.586 1.837 5079
0.375 2.462 1.753 1335
0.396 2.604 1.838 6220
0.377 2.479 1.755 1390
0.398 2.615 1.835 5644
0.379 2.491 1.752 1555
0.400 2.626 1.831 5362
0.381 2.502 1.749 1805
0.389 2.559 1.776 5966
0.408 2.684 1.858 4197
0.391 2.570 1.773 7046
0.410 2.695 1.855 5559
0.409 2.687 1.838 6891
0.390 2.562 1.757 4756
0.411 2.699 1.835 7422
0.392 2.573 1.754 3086
0.414 2.723 1.839 6590
0.395 2.598 1.759 2174
0.418 2.748 1.844 6402
0.399 2.622 1.764 1675
0.416 2.733 1.824 6795
0.435 2.859 1.903 1029
0.417 2.738 1.816 7362
0.436 2.865 1.895 1175
0.418 2.750 1.812 6471
0.438 2.876 1.891 1051
0.423 2.781 1.820 6889
0.443 2.908 1.899 1022
0.424 2.786 1.812 8129
0.444 2.920 1.894 1251
0.426 2.797 1.808 9389
0.450 2.958 1.906 1622
0.427 2.809 1.804 7482
0.447 2.937 1.882 2949
0.429 2.820 1.800 5987
0.449 2.948 1.877 4213
0.448 2.947 1.864 4499
0.429 2.819 1.788 4334
0.450 2.958 1.860 4727
0.431 2.830 1.784 2028
0.450 2.957 1.847 4133
0.469 3.085 1.923 1252
0.443 2.914 1.811 5148
0.463 3.043 1.886 4456
0.447 2.939 1.814 6295
0.467 3.068 1.889 4304
0.462 3.039 1.861 5985
0.443 2.910 1.786 3733
0.461 3.031 1.844 7536
0.441 2.901 1.770 2158
0.463 3.042 1.839 6918
0.443 2.913 1.765 1742
0.466 3.061 1.838 6644
0.446 2.931 1.765 896
0.467 3.066 1.829 6612
0.447 2.936 1.756 645
0.468 3.077 1.824 11488
0.489 3.215 1.900 710
0.469 3.082 1.815 16205
0.490 3.220 1.891 884
0.470 3.087 1.806 16935
0.444 2.915 1.712 789
0.469 3.085 1.793 14212
0.509 3.347 1.936 1101
0.470 3.090 1.785 11411
0.510 3.352 1.927 1966
0.471 3.095 1.776 8685
0.508 3.336 1.906 2752
0.473 3.106 1.770 6744
0.508 3.341 1.896 2775
0.473 3.111 1.761 7234
0.522 3.430 1.930 2129
0.474 3.116 1.752 7395
0.523 3.435 1.920 2902
0.475 3.120 1.743 6652
0.523 3.440 1.910 3546
0.477 3.132 1.738 5873
0.524 3.445 1.900 3544
0.478 3.143 1.732 4315
0.524 3.443 1.887 3616
0.490 3.218 1.759 4232
0.524 3.441 1.873 3968
0.525 3.453 1.867 4480
0.490 3.222 1.749 4064
0.528 3.472 1.864 5991
0.491 3.227 1.740 3512
0.530 3.484 1.857 6301
0.492 3.232 1.731 2570
0.541 3.552 1.878 5589
0.491 3.229 1.718 2193
0.545 3.578 1.878 6041
0.524 3.445 1.813 2011
0.547 3.598 1.875 8963
0.463 3.041 1.602 1695
0.548 3.603 1.864 10797
0.464 3.052 1.597 1994
0.549 3.607 1.854 8820
0.465 3.056 1.588 2047
0.558 3.669 1.871 7211
0.465 3.054 1.576 1870
0.561 3.688 1.867 6473
0.541 3.554 1.803 1774
0.562 3.693 1.856 6223
0.541 3.558 1.792 1481
0.563 3.698 1.845 7317
0.542 3.563 1.782 1106
0.566 3.717 1.841 10529
0.586 3.852 1.904 796
0.569 3.736 1.837 11515
0.591 3.886 1.906 949
0.569 3.741 1.826 7193
0.590 3.877 1.888 1378
0.570 3.746 1.815 4539
0.591 3.882 1.876 1824
0.571 3.751 1.804 3635
0.591 3.887 1.865 2167
0.584 3.834 1.828 5155
0.604 3.970 1.889 1653
0.592 3.889 1.839 7304
0.571 3.753 1.779 1017
0.594 3.902 1.831 7707
0.573 3.765 1.771 1447
0.601 3.950 1.839 7562
0.580 3.813 1.779 2277
0.602 3.954 1.827 6803
0.623 4.091 1.886 2094
0.605 3.974 1.822 6851
0.626 4.111 1.880 2645
0.604 3.971 1.807 6573
0.632 4.152 1.884 3159
0.605 3.976 1.795 4606
0.635 4.171 1.878 3044
0.638 4.191 1.872 4238
0.615 4.039 1.808 3930
0.636 4.181 1.853 7428
0.615 4.044 1.796 3839
0.638 4.193 1.844 7903
0.617 4.056 1.788 2643
0.640 4.205 1.835 5625
0.619 4.068 1.779 1829
0.646 4.247 1.837 4913
0.625 4.109 1.781 1664
0.649 4.266 1.831 5202
0.670 4.404 1.886 2024
0.653 4.293 1.827 4807
0.674 4.431 1.882 1656
0.657 4.320 1.823 5187
0.682 4.480 1.886 1503
0.660 4.339 1.816 4086
0.683 4.485 1.873 2969
0.683 4.490 1.860 3663
0.662 4.351 1.806 2880
0.684 4.495 1.847 2969
0.663 4.356 1.794 2146
0.690 4.536 1.848 3561
0.669 4.397 1.795 2036
0.690 4.534 1.832 3765
0.669 4.395 1.779 1916
0.690 4.532 1.816 3789
0.668 4.392 1.764 1423
0.709 4.661 1.849 3120
0.688 4.522 1.797 2594
0.709 4.659 1.833 4362
0.730 4.799 1.884 1656
0.709 4.656 1.817 4162
0.730 4.796 1.867 2908
0.732 4.809 1.856 2828
0.701 4.610 1.784 2628
0.728 4.784 1.832 2501
0.749 4.924 1.882 1652
0.730 4.796 1.820 3640
0.751 4.937 1.870 2199
0.749 4.919 1.848 4082
0.727 4.779 1.798 2230
0.749 4.924 1.833 4386
0.771 5.065 1.882 2009
0.752 4.944 1.824 3926
0.774 5.085 1.872 2659
0.769 5.053 1.845 3672
0.747 4.912 1.797 2644
0.789 5.184 1.873 4912
0.763 5.013 1.815 3489
0.791 5.196 1.860 5393
0.766 5.033 1.805 2385
0.793 5.209 1.847 3718
0.771 5.067 1.801 2124
0.774 5.087 1.791 2698
0.808 5.310 1.864 2623
0.811 5.330 1.853 3209
0.776 5.099 1.778 1469
0.813 5.342 1.840 2865
0.791 5.201 1.794 1550
0.832 5.467 1.862 2526
0.810 5.325 1.817 1763
0.835 5.487 1.851 3514
0.813 5.345 1.806 1891
0.850 5.589 1.865 2817
0.820 5.387 1.802 2362
0.851 5.594 1.849 3135
0.890 5.848 1.928 2039
0.852 5.599 1.833 2213
0.875 5.749 1.878 1984
0.879 5.776 1.868 2252
0.854 5.611 1.819 1925
0.883 5.804 1.858 2526
0.855 5.616 1.802 1622
0.888 5.839 1.850 2586
0.937 6.154 1.943 1441
0.905 5.949 1.864 2019
0.940 6.174 1.930 1764
0.908 5.969 1.851 1711
0.952 6.255 1.933 1352
0.951 6.252 1.913 1787
0.930 6.109 1.872 1327
0.955 6.272 1.899 2203
0.933 6.129 1.858 1938
0.959 6.300 1.887 2318
1.002 6.587 1.967 1857
1.002 6.584 1.946 2502
0.979 6.434 1.904 1548
1.005 6.605 1.930 2686
0.980 6.439 1.885 1573
1.019 6.693 1.934 3503
1.054 6.928 1.997 1909
1.022 6.713 1.918 3883
1.000 6.570 1.880 2023
1.024 6.726 1.900 3513
1.051 6.908 1.948 1889
1.058 6.951 1.938 2696
1.025 6.739 1.883 2483
1.083 7.115 1.959 2636
1.057 6.948 1.916 2265
1.130 7.424 2.015 2712
1.085 7.128 1.940 2446
1.131 7.430 1.993 1769
1.087 7.141 1.921 1588
1.170 7.686 2.034 1452
1.098 7.214 1.917 1147
1.173 7.706 2.015 1348
1.197 7.866 2.054 900
1.213 7.971 2.055 1004
1.175 7.719 1.994 908
1.218 8.007 2.039 1370
1.281 8.418 2.137 912
1.218 8.004 2.013 1759
1.284 8.439 2.116 1116
1.221 8.025 1.993 1442
1.289 8.467 2.096 1177
1.291 8.481 2.073 1252
1.223 8.038 1.972 785
1.291 8.486 2.048 1222
1.323 8.692 2.095 866
1.322 8.690 2.068 1485
1.295 8.507 2.027 1100
1.321 8.681 2.039 1448
1.362 8.948 2.098 1307
1.389 9.130 2.110 1701
1.357 8.916 2.063 1187
1.393 9.151 2.086 2006
1.349 8.868 2.026 1261
1.395 9.164 2.061 1735
1.350 8.873 1.999 877
1.408 9.254 2.051 1729
1.363 8.955 1.989 903
1.401 9.206 2.013 1624
1.366 8.976 1.966 886
1.404 9.226 1.989 1473
1.368 8.988 1.941 543
1.406 9.239 1.964 1028
1.408 9.252 1.938 807
1.408 9.250 1.909 503
1.411 9.270 1.885 301
0.349 2.278 1.797 2177
0.350 2.283 1.791 4354
0.368 2.403 1.879 1484
0.358 2.338 1.821 4549
0.340 2.218 1.733 1153
0.359 2.343 1.815 5720
0.378 2.464 1.903 1440
0.359 2.342 1.803 6906
0.377 2.462 1.891 2628
0.360 2.347 1.796 5219
0.378 2.468 1.884 3026
0.376 2.453 1.863 4552
0.358 2.332 1.776 3130
0.377 2.458 1.856 4552
0.358 2.337 1.769 3130
0.378 2.463 1.849 4209
0.359 2.342 1.762 3584
0.362 2.359 1.765 4245
0.380 2.481 1.851 3861
0.380 2.480 1.839 4723
0.361 2.357 1.753 3726
0.381 2.484 1.832 5519
0.362 2.362 1.746 3229
0.381 2.483 1.820 4885
0.362 2.360 1.735 2139
0.377 2.462 1.795 4882
0.396 2.585 1.880 2544
0.378 2.467 1.788 4882
0.397 2.590 1.872 2544
0.384 2.504 1.803 4309
0.403 2.627 1.887 1429
0.393 2.561 1.831 5419
0.371 2.417 1.734 1024
0.395 2.579 1.832 5041
0.376 2.455 1.749 1121
0.399 2.603 1.838 6093
0.380 2.479 1.755 1350
0.401 2.615 1.835 5626
0.382 2.490 1.752 1512
0.403 2.626 1.831 5401
0.383 2.501 1.749 1766
0.392 2.559 1.776 5780
0.411 2.683 1.858 4010
0.394 2.570 1.773 6888
0.413 2.695 1.855 5263
0.412 2.687 1.838 6601
0.393 2.561 1.757 4657
0.415 2.705 1.839 7212
0.395 2.579 1.758 3305
0.417 2.723 1.839 6719
0.398 2.597 1.759 2213
0.421 2.748 1.844 6949
0.402 2.622 1.764 1845
0.420 2.739 1.828 7138
0.439 2.866 1.907 883
0.420 2.738 1.816 7717
0.439 2.864 1.895 1198
0.421 2.749 1.812 6715
0.441 2.876 1.891 1081
0.426 2.781 1.820 6983
0.446 2.908 1.899 983
0.427 2.785 1.812 8241
0.448 2.919 1.894 1232
0.429 2.797 1.808 9531
0.449 2.931 1.890 1559
0.431 2.809 1.804 7608
0.450 2.936 1.882 2959
0.432 2.820 1.800 6067
0.452 2.948 1.877 4204
0.452 2.946 1.864 4552
0.432 2.818 1.788 4332
0.453 2.958 1.860 4856
0.434 2.830 1.784 1962
0.454 2.963 1.851 4292
0.434 2.834 1.776 1070
0.447 2.914 1.811 5460
0.466 3.042 1.886 4452
0.450 2.939 1.814 6563
0.470 3.068 1.889 4244
0.466 3.039 1.861 6241
0.446 2.910 1.786 4148
0.464 3.030 1.844 8024
0.445 2.901 1.770 2467
0.467 3.049 1.843 7398
0.447 2.919 1.769 2167
0.469 3.060 1.838 7235
0.449 2.931 1.765 993
0.471 3.072 1.833 6729
0.451 2.942 1.760 889
0.472 3.077 1.824 10794
0.494 3.221 1.904 857
0.472 3.082 1.815 15259
0.495 3.226 1.895 1051
0.473 3.087 1.806 15800
0.496 3.238 1.889 859
0.473 3.085 1.793 13079
0.513 3.346 1.936 1135
0.473 3.082 1.781 10467
0.514 3.351 1.927 2132
0.474 3.094 1.776 8024
0.511 3.336 1.906 3217
0.477 3.113 1.774 6522
0.511 3.334 1.892 3344
0.477 3.110 1.761 7083
0.512 3.339 1.883 2416
0.478 3.115 1.752 7328
0.526 3.434 1.920 3051
0.478 3.120 1.743 6659
0.527 3.439 1.910 3630
0.481 3.138 1.741 5916
0.529 3.451 1.904 3348
0.487 3.178 1.750 4375
0.527 3.436 1.883 3220
0.494 3.224 1.762 4226
0.526 3.434 1.870 3729
0.530 3.460 1.870 4278
0.494 3.222 1.749 3785
0.532 3.472 1.864 6215
0.495 3.227 1.740 2842
0.534 3.484 1.857 6777
0.494 3.224 1.727 1637
0.544 3.552 1.878 5924
0.524 3.418 1.812 2005
0.547 3.571 1.875 5960
0.527 3.437 1.809 1943
0.551 3.597 1.875 8821
0.466 3.041 1.602 1636
0.552 3.602 1.864 10805
0.468 3.052 1.597 1894
0.554 3.614 1.857 9019
0.468 3.056 1.588 1910
0.562 3.668 1.871 7446
0.542 3.534 1.806 1917
0.566 3.695 1.870 6489
0.546 3.560 1.806 2147
0.567 3.700 1.859 6224
0.546 3.565 1.796 1727
0.567 3.697 1.845 7115
0.546 3.563 1.782 1124
0.570 3.717 1.841 10013
0.590 3.852 1.904 720
0.573 3.736 1.837 11030
0.597 3.892 1.909 909
0.573 3.741 1.826 6911
0.597 3.897 1.898 1361
0.574 3.745 1.815 4295
0.597 3.895 1.883 1832
0.586 3.822 1.836 3677
0.607 3.958 1.897 1472
0.588 3.834 1.828 5515
0.609 3.970 1.889 1745
0.596 3.889 1.839 6870
0.575 3.753 1.779 1047
0.598 3.901 1.831 7309
0.577 3.765 1.771 1477
0.605 3.949 1.839 7563
0.584 3.812 1.779 2359
0.606 3.954 1.827 7109
0.627 4.090 1.886 1918
0.608 3.966 1.819 7034
0.629 4.103 1.877 2514
0.609 3.971 1.807 6549
0.636 4.151 1.884 3373
0.609 3.975 1.795 4341
0.639 4.170 1.878 3545
0.641 4.183 1.869 4491
0.620 4.045 1.811 3693
0.641 4.180 1.853 7798
0.620 4.043 1.796 3489
0.643 4.193 1.844 8372
0.622 4.055 1.788 2582
0.645 4.205 1.835 5749
0.623 4.067 1.779 1934
0.649 4.231 1.832 4663
0.670 4.369 1.887 1633
0.654 4.265 1.831 4984
0.675 4.404 1.886 1943
0.660 4.307 1.833 4942
0.639 4.168 1.778 1438
0.662 4.319 1.823 5401
0.683 4.457 1.878 1444
0.665 4.338 1.816 4135
0.687 4.484 1.873 2836
0.687 4.482 1.857 3785
0.666 4.343 1.804 2999
0.688 4.487 1.844 3104
0.666 4.348 1.791 2179
0.695 4.536 1.848 3743
0.674 4.397 1.795 1652
0.695 4.533 1.832 3954
0.674 4.394 1.779 1679
0.695 4.531 1.816 3634
0.673 4.391 1.764 1297
0.701 4.572 1.816 2916
0.730 4.763 1.887 1534
0.704 4.592 1.808 4195
0.731 4.768 1.873 2177
0.707 4.611 1.800 4655
0.734 4.788 1.865 3210
0.706 4.609 1.784 3080
0.736 4.800 1.853 2990
0.733 4.783 1.832 2733
0.705 4.599 1.766 1855
0.735 4.795 1.820 3731
0.757 4.936 1.870 2294
0.754 4.919 1.848 4422
0.732 4.778 1.798 2260
0.755 4.923 1.833 4708
0.776 5.064 1.882 1841
0.758 4.943 1.824 4114
0.779 5.084 1.872 2411
0.758 4.948 1.810 3505
0.780 5.089 1.858 2715
0.793 5.175 1.870 4716
0.767 5.005 1.813 3421
0.796 5.195 1.860 5610
0.771 5.032 1.805 2334
0.798 5.208 1.847 3635
0.777 5.066 1.801 2217
0.780 5.086 1.791 3010
0.814 5.309 1.864 2518
0.817 5.329 1.853 3253
0.782 5.098 1.778 1628
0.819 5.342 1.840 3042
0.797 5.200 1.794 1342
0.839 5.473 1.865 2268
0.817 5.332 1.820 1939
0.841 5.486 1.851 3207
0.819 5.344 1.806 1864
0.857 5.588 1.865 2835
0.826 5.386 1.802 2422
0.857 5.593 1.849 3142
0.896 5.847 1.928 1989
0.858 5.598 1.833 2165
0.881 5.748 1.878 2036
0.884 5.768 1.866 2294
0.860 5.610 1.819 1897
0.889 5.803 1.858 2404
0.861 5.615 1.802 1790
0.895 5.838 1.850 2649
0.944 6.161 1.946 1329
0.913 5.955 1.866 1892
0.891 5.812 1.824 1697
0.915 5.968 1.851 1649
0.959 6.254 1.933 1456
0.958 6.251 1.913 1846
0.936 6.108 1.872 1401
0.961 6.271 1.899 2105
0.939 6.128 1.858 1996
0.964 6.292 1.885 2207
1.011 6.593 1.969 1847
1.010 6.591 1.948 2385
0.986 6.432 1.904 1620
1.012 6.604 1.930 2556
0.987 6.437 1.885 1609
1.027 6.700 1.936 3392
1.061 6.919 1.995 1882
1.029 6.712 1.918 3640
1.007 6.569 1.880 1859
1.032 6.733 1.902 3348
1.058 6.899 1.946 1913
1.065 6.950 1.938 2514
1.033 6.738 1.883 2466
1.091 7.114 1.959 2451
1.065 6.947 1.916 2312
1.139 7.431 2.017 2683
1.091 7.119 1.938 2317
1.138 7.421 1.991 1744
1.094 7.140 1.921 1588
1.178 7.684 2.034 1626
1.105 7.206 1.915 1175
1.181 7.705 2.015 1412
1.143 7.454 1.953 848
1.220 7.962 2.053 1010
1.183 7.718 1.994 908
1.227 8.005 2.039 1361
1.289 8.409 2.135 894
1.227 8.003 2.013 1713
1.295 8.445 2.118 1115
1.230 8.024 1.993 1336
1.290 8.413 2.084 1268
1.303 8.502 2.078 1236
1.232 8.037 1.972 750
1.301 8.485 2.048 1335
1.331 8.683 2.093 842
1.332 8.689 2.068 1367
1.304 8.506 2.027 1215
1.397 9.115 2.135 1319
1.330 8.679 2.039 1240
1.399 9.128 2.110 1768
1.366 8.914 2.063 1092
1.403 9.149 2.086 2082
1.359 8.866 2.026 1146
1.403 9.155 2.059 1815
1.360 8.871 1.999 782
1.421 9.268 2.055 1731
1.372 8.953 1.989 862
1.414 9.227 2.018 1456
1.374 8.966 1.965 801
1.415 9.233 1.991 1412
1.378 8.987 1.941 479
1.417 9.246 1.965 1055
1.419 9.258 1.940 777
1.419 9.256 1.911 442
1.422 9.276 1.887 260
0.356 2.277 1.797 2402
0.357 2.282 1.791 4805
0.377 2.408 1.884 1397
0.358 2.287 1.784 4805
0.377 2.413 1.877 2795
0.365 2.336 1.810 5504
0.384 2.456 1.898 1859
0.366 2.341 1.803 6725
0.385 2.461 1.891 2547
0.366 2.339 1.792 5133
0.385 2.460 1.879 3522
0.383 2.452 1.863 4529
0.364 2.331 1.776 3227
0.384 2.457 1.856 4529
0.365 2.336 1.769 3227
0.385 2.462 1.849 4241
0.366 2.340 1.762 3519
0.368 2.352 1.760 3960
0.387 2.473 1.846 3948
0.388 2.478 1.839 4788
0.368 2.356 1.753 3469
0.388 2.483 1.832 5628
0.369 2.361 1.746 2978
0.388 2.482 1.820 4953
0.369 2.359 1.735 1963
0.385 2.461 1.795 4925
0.404 2.584 1.880 2941
0.385 2.465 1.788 4925
0.405 2.589 1.872 2941
0.391 2.503 1.803 4377
0.411 2.626 1.887 1459
0.400 2.560 1.831 5479
0.379 2.423 1.739 998
0.404 2.584 1.837 5075
0.385 2.460 1.753 1408
0.407 2.602 1.838 6020
0.387 2.478 1.755 1335
0.409 2.613 1.835 5650
0.389 2.489 1.752 1473
0.410 2.625 1.831 5466
0.391 2.500 1.749 1692
0.400 2.557 1.776 5621
0.419 2.682 1.858 3786
0.402 2.569 1.773 6773
0.421 2.694 1.855 4879
0.420 2.685 1.838 6178
0.400 2.560 1.757 4583
0.424 2.710 1.843 6928
0.404 2.585 1.763 3481
0.427 2.728 1.844 7004
0.407 2.603 1.764 2331
0.429 2.746 1.844 7667
0.410 2.620 1.764 1991
0.428 2.738 1.828 7654
0.408 2.612 1.748 933
0.428 2.736 1.816 8143
0.448 2.863 1.895 1224
0.430 2.748 1.812 6987
0.449 2.874 1.891 1117
0.435 2.779 1.820 6993
0.454 2.906 1.899 930
0.435 2.784 1.812 8276
0.456 2.918 1.894 1210
0.437 2.796 1.808 9593
0.458 2.930 1.890 1572
0.438 2.800 1.800 7668
0.458 2.928 1.877 2965
0.441 2.819 1.800 6073
0.461 2.947 1.877 4150
0.461 2.952 1.868 4497
0.441 2.824 1.792 4392
0.462 2.957 1.860 4843
0.442 2.828 1.784 1879
0.463 2.961 1.851 4350
0.443 2.833 1.776 1047
0.455 2.912 1.811 5766
0.475 3.041 1.886 4541
0.458 2.931 1.810 6814
0.478 3.059 1.885 4686
0.475 3.037 1.861 6554
0.455 2.908 1.786 4513
0.475 3.035 1.848 8499
0.454 2.906 1.774 3234
0.476 3.047 1.843 7875
0.456 2.918 1.769 2388
0.479 3.066 1.842 7842
0.459 2.936 1.769 1311
0.480 3.071 1.833 6784
0.460 2.941 1.760 1002
0.481 3.076 1.824 9919
0.503 3.219 1.904 1025
0.482 3.080 1.815 14082
0.504 3.224 1.895 1230
0.482 3.085 1.806 14504
0.506 3.236 1.889 1040
0.482 3.083 1.793 11853
0.508 3.248 1.884 1132
0.482 3.081 1.781 9471
0.524 3.350 1.927 2203
0.484 3.093 1.776 7248
0.520 3.327 1.902 3581
0.486 3.111 1.774 6228
0.521 3.332 1.892 3840
0.486 3.109 1.761 6904
0.522 3.338 1.883 2808
0.487 3.114 1.752 7150
0.537 3.433 1.920 3155
0.488 3.118 1.743 6477
0.538 3.438 1.910 3726
0.490 3.137 1.741 5743
0.539 3.450 1.904 3269
0.498 3.183 1.754 4435
0.536 3.427 1.880 3213
0.536 3.425 1.866 3941
0.504 3.223 1.762 3886
0.540 3.451 1.867 4396
0.505 3.227 1.753 3263
0.544 3.477 1.867 6607
0.505 3.232 1.744 2089
0.547 3.496 1.864 7492
0.567 3.629 1.931 1320
0.554 3.543 1.875 6357
0.533 3.410 1.809 1742
0.558 3.569 1.875 5922
0.537 3.436 1.809 1996
0.562 3.595 1.875 8756
0.475 3.039 1.602 1462
0.563 3.600 1.864 10958
0.477 3.050 1.597 1705
0.565 3.612 1.857 9409
0.478 3.055 1.588 1736
0.572 3.660 1.867 7496
0.551 3.525 1.803 1580
0.577 3.693 1.870 6125
0.556 3.558 1.806 2246
0.578 3.698 1.859 5673
0.557 3.563 1.796 1790
0.578 3.696 1.845 6541
0.557 3.561 1.782 1123
0.581 3.715 1.841 9422
0.553 3.537 1.758 709
0.584 3.734 1.837 10643
0.609 3.898 1.912 961
0.585 3.739 1.826 6767
0.609 3.896 1.898 1472
0.585 3.744 1.815 4245
0.610 3.901 1.886 1926
0.597 3.820 1.836 3713
0.619 3.956 1.897 1593
0.599 3.832 1.828 5650
0.620 3.968 1.889 1834
0.608 3.887 1.839 6488
0.586 3.751 1.779 1188
0.610 3.899 1.831 6872
0.588 3.763 1.771 1501
0.617 3.947 1.839 7391
0.596 3.811 1.779 2426
0.618 3.952 1.827 7357
0.639 4.089 1.886 1736
0.620 3.964 1.819 7110
0.642 4.108 1.880 2327
0.621 3.969 1.807 6263
0.649 4.149 1.884 3426
0.622 3.981 1.799 3878
0.652 4.169 1.878 3847
0.653 4.174 1.866 4843
0.631 4.036 1.808 3727
0.653 4.178 1.853 8275
0.632 4.041 1.796 3325
0.654 4.183 1.841 8820
0.627 4.010 1.770 2420
0.656 4.196 1.832 5718
0.634 4.058 1.776 1815
0.661 4.229 1.832 4426
0.683 4.367 1.887 1552
0.667 4.263 1.831 4894
0.688 4.402 1.886 1769
0.673 4.305 1.833 5159
0.695 4.443 1.888 1311
0.675 4.317 1.823 5533
0.697 4.455 1.878 1437
0.678 4.336 1.816 4002
0.700 4.475 1.871 2583
0.699 4.473 1.855 3674
0.678 4.334 1.801 2798
0.701 4.485 1.844 3033
0.679 4.346 1.791 2001
0.709 4.534 1.848 3987
0.687 4.395 1.795 1262
0.710 4.538 1.835 4253
0.688 4.399 1.782 1564
0.709 4.536 1.819 3624
0.687 4.397 1.767 1372
0.715 4.570 1.816 2979
0.744 4.761 1.887 1283
0.718 4.590 1.808 4206
0.746 4.774 1.876 1913
0.721 4.609 1.800 4834
0.747 4.779 1.862 2998
0.720 4.607 1.784 3281
0.750 4.798 1.853 2901
0.748 4.781 1.832 2752
0.719 4.597 1.766 2027
0.749 4.793 1.820 3868
0.771 4.933 1.870 2377
0.769 4.916 1.848 4622
0.747 4.776 1.798 2290
0.769 4.921 1.833 4945
0.791 5.062 1.882 1577
0.773 4.941 1.824 4339
0.795 5.082 1.872 2170
0.772 4.938 1.807 3751
0.794 5.079 1.855 2716
0.810 5.180 1.873 4318
0.782 5.002 1.813 3421
0.812 5.193 1.860 5597
0.782 5.000 1.796 2507
0.814 5.205 1.847 3550
0.792 5.064 1.801 2288
0.795 5.084 1.791 3243
0.830 5.307 1.864 2381
0.833 5.327 1.853 3310
0.797 5.096 1.778 1713
0.834 5.332 1.838 3195
0.867 5.548 1.907 1257
0.838 5.359 1.829 2339
0.867 5.545 1.889 1888
0.859 5.491 1.854 2854
0.836 5.349 1.809 2148
0.858 5.488 1.835 2763
0.880 5.630 1.879 1676
0.874 5.590 1.849 3015
0.914 5.845 1.928 1923
0.898 5.745 1.878 2093
0.875 5.595 1.833 2087
0.901 5.765 1.866 2326
0.877 5.608 1.819 2007
0.907 5.800 1.858 2200
0.878 5.612 1.802 2020
0.913 5.842 1.852 2759
0.879 5.625 1.788 1277
0.931 5.952 1.866 1977
0.908 5.810 1.824 1932
0.933 5.965 1.851 1753
0.976 6.243 1.931 1542
0.977 6.248 1.913 1892
0.955 6.105 1.872 1508
0.980 6.269 1.899 2074
0.958 6.125 1.858 1990
0.982 6.281 1.883 2311
1.032 6.598 1.971 1831
1.031 6.595 1.950 2347
0.985 6.301 1.868 1669
1.032 6.601 1.930 2376
1.006 6.435 1.885 1692
1.047 6.696 1.936 3226
1.008 6.447 1.868 1807
1.049 6.709 1.918 3498
1.027 6.565 1.880 1648
1.052 6.729 1.902 3291
1.075 6.873 1.940 2029
1.054 6.742 1.885 2474
1.086 6.947 1.938 2302
1.086 6.944 1.916 2359
1.112 7.111 1.959 2243
1.161 7.427 2.017 2500
1.114 7.124 1.940 2156
1.160 7.417 1.991 1662
1.116 7.136 1.921 1639
1.200 7.673 2.032 1721
1.117 7.142 1.900 1317
1.204 7.702 2.015 1439
1.121 7.169 1.884 935
1.205 7.707 1.992 991
1.244 7.958 2.053 945
1.251 8.001 2.039 1313
1.201 7.682 1.962 920
1.251 7.999 2.013 1615
1.315 8.411 2.110 1092
1.315 8.409 2.084 1379
1.254 8.020 1.993 1161
1.316 8.414 2.059 1403
1.338 8.559 2.092 847
1.326 8.481 2.048 1467
1.356 8.672 2.091 815
1.357 8.677 2.066 1346
1.329 8.502 2.027 1339
1.356 8.675 2.039 1309
1.425 9.111 2.135 1280
1.427 9.124 2.110 1764
1.399 8.948 2.071 1043
1.430 9.145 2.086 2122
1.386 8.862 2.026 1063
1.431 9.151 2.059 1875
1.389 8.883 2.003 748
1.448 9.263 2.055 1742
1.426 9.118 2.024 861
1.449 9.269 2.027 1477
1.402 8.970 1.966 788
1.443 9.228 1.991 1441
1.405 8.983 1.941 487
1.446 9.249 1.967 1119
1.447 9.254 1.940 761
1.449 9.267 1.914 428
1.452 9.287 1.890 253
0.359 2.277 1.797 2647
0.360 2.282 1.791 5294
0.379 2.408 1.884 1339
0.360 2.286 1.784 5294
0.380 2.413 1.877 2678
0.366 2.323 1.801 5327
0.385 2.443 1.889 2714
0.367 2.327 1.794 6516
0.386 2.448 1.882 3635
0.369 2.339 1.792 4997
0.388 2.460 1.879 3342
0.385 2.445 1.858 4395
0.366 2.324 1.771 2993
0.386 2.450 1.851 4395
0.367 2.329 1.765 2993
0.388 2.462 1.849 4232
0.369 2.340 1.762 3433
0.389 2.467 1.842 4098
0.370 2.345 1.756 3609
0.390 2.472 1.834 4966
0.370 2.349 1.749 2989
0.391 2.483 1.832 5838
0.372 2.360 1.746 2790
0.391 2.481 1.820 5121
0.372 2.359 1.735 1819
0.388 2.460 1.795 5017
0.407 2.583 1.880 3184
0.389 2.465 1.788 5017
0.408 2.588 1.872 3184
0.394 2.502 1.803 4508
0.414 2.626 1.887 1483
0.403 2.559 1.831 5403
0.384 2.435 1.747 1052
0.407 2.583 1.837 5046
0.388 2.460 1.753 1511
0.410 2.601 1.838 5848
0.390 2.477 1.755 1413
0.411 2.606 1.830 5576
0.391 2.482 1.748 1076
0.413 2.618 1.827 5439
0.393 2.493 1.745 1101
0.404 2.563 1.781 5486
0.424 2.688 1.862 3022
0.406 2.575 1.778 6677
0.426 2.700 1.859 3833
0.423 2.685 1.838 5735
0.403 2.560 1.757 4518
0.428 2.716 1.847 6766
0.408 2.591 1.767 3541
0.431 2.734 1.848 7337
0.411 2.609 1.768 2438
0.433 2.746 1.844 8362
0.413 2.620 1.764 2131
0.431 2.738 1.828 8185
0.412 2.611 1.748 1000
0.431 2.736 1.816 8532
0.451 2.862 1.895 1248
0.433 2.747 1.812 7221
0.453 2.874 1.891 1123
0.438 2.779 1.820 6890
0.458 2.906 1.899 862
0.439 2.784 1.812 8215
0.459 2.911 1.890 1194
0.441 2.795 1.808 9575
0.462 2.929 1.890 1599
0.441 2.800 1.800 7694
0.461 2.928 1.877 2981
0.444 2.818 1.800 6074
0.464 2.946 1.877 4095
0.465 2.951 1.868 4420
0.445 2.823 1.792 4309
0.466 2.956 1.860 4745
0.446 2.828 1.784 1768
0.467 2.961 1.851 4261
0.446 2.832 1.776 992
0.459 2.912 1.811 5944
0.479 3.040 1.886 4368
0.462 2.930 1.810 6976
0.482 3.059 1.885 4461
0.479 3.037 1.861 6573
0.458 2.908 1.786 4765
0.478 3.035 1.848 8753
0.458 2.906 1.774 3453
0.480 3.047 1.843 8100
0.460 2.917 1.769 2587
0.483 3.065 1.842 8305
0.463 2.935 1.769 1421
0.485 3.077 1.837 6835
0.464 2.947 1.764 1230
0.485 3.075 1.824 9107
0.507 3.219 1.904 1176
0.485 3.080 1.815 12846
0.508 3.224 1.895 1394
0.486 3.085 1.806 13170
0.510 3.236 1.889 1228
0.486 3.083 1.793 10664
0.512 3.248 1.884 1386
0.486 3.080 1.781 8513
0.527 3.342 1.923 2248
0.487 3.092 1.776 6509
0.524 3.327 1.902 3968
0.490 3.111 1.774 5817
0.525 3.332 1.892 4337
0.490 3.108 1.761 6561
0.526 3.337 1.883 3186
0.491 3.113 1.752 6789
0.541 3.432 1.920 3249
0.491 3.118 1.743 6114
0.542 3.437 1.910 3776
0.494 3.136 1.741 5378
0.543 3.442 1.900 3107
0.502 3.183 1.754 4222
0.539 3.419 1.876 3347
0.539 3.417 1.862 4243
0.560 3.550 1.930 3134
0.542 3.436 1.860 4644
0.563 3.569 1.927 3255
0.548 3.476 1.867 7011
0.512 3.245 1.751 1833
0.552 3.502 1.868 8089
0.573 3.635 1.934 1156
0.558 3.542 1.875 6848
0.537 3.409 1.809 1723
0.562 3.568 1.875 6250
0.541 3.435 1.809 1959
0.567 3.595 1.875 8757
0.479 3.039 1.602 1312
0.567 3.600 1.864 11039
0.481 3.050 1.597 1459
0.568 3.605 1.854 9493
0.481 3.054 1.588 1503
0.576 3.652 1.864 7397
0.481 3.051 1.576 1373
0.583 3.699 1.873 5708
0.562 3.565 1.809 2810
0.583 3.697 1.859 5041
0.562 3.563 1.796 2028
0.582 3.695 1.845 5963
0.561 3.560 1.782 1246
0.585 3.714 1.841 8803
0.559 3.544 1.762 715
0.588 3.733 1.837 10237
0.614 3.897 1.912 1067
0.589 3.738 1.826 6616
0.614 3.895 1.898 1677
0.590 3.743 1.815 4172
0.615 3.900 1.886 2105
0.600 3.805 1.830 3632
0.621 3.941 1.891 1964
0.604 3.831 1.828 5513
0.625 3.967 1.889 1932
0.613 3.886 1.839 5938
0.591 3.750 1.779 1292
0.614 3.898 1.831 6381
0.593 3.762 1.771 1475
0.622 3.946 1.839 7404
0.600 3.810 1.779 2321
0.623 3.951 1.827 7747
0.644 4.088 1.886 1584
0.625 3.963 1.819 7294
0.647 4.107 1.880 2210
0.625 3.968 1.807 6016
0.654 4.148 1.884 3521
0.656 4.160 1.875 4261
0.634 4.023 1.817 3602
0.658 4.173 1.866 5189
0.636 4.035 1.808 3604
0.658 4.178 1.853 8510
0.637 4.040 1.796 3112
0.659 4.183 1.841 9084
0.638 4.045 1.785 2525
0.661 4.195 1.832 5927
0.639 4.057 1.776 1970
0.664 4.214 1.826 4140
0.686 4.352 1.882 1951
0.673 4.270 1.834 4902
0.695 4.408 1.889 1692
0.678 4.304 1.833 5335
0.700 4.442 1.888 1362
0.680 4.316 1.823 5582
0.702 4.454 1.878 1448
0.682 4.328 1.813 3929
0.704 4.467 1.868 2424
0.705 4.472 1.855 3572
0.683 4.333 1.801 2589
0.707 4.484 1.844 2969
0.685 4.345 1.791 1709
0.714 4.533 1.848 4125
0.693 4.394 1.795 1260
0.715 4.538 1.835 4427
0.693 4.398 1.782 1510
0.716 4.542 1.822 3638
0.694 4.403 1.769 1430
0.731 4.635 1.841 3296
0.709 4.496 1.789 1394
0.722 4.582 1.806 4248
0.752 4.773 1.876 1804
0.726 4.608 1.800 4935
0.754 4.785 1.865 2960
0.726 4.606 1.784 3540
0.756 4.797 1.853 2959
0.753 4.780 1.832 2579
0.724 4.596 1.766 2291
0.755 4.792 1.820 3536
0.777 4.933 1.870 2392
0.775 4.915 1.848 4768
0.753 4.775 1.798 2138
0.777 4.928 1.836 5093
0.753 4.780 1.784 1120
0.780 4.947 1.827 4374
0.802 5.088 1.875 1732
0.778 4.937 1.807 3887
0.800 5.078 1.855 2625
0.816 5.179 1.873 4263
0.787 4.994 1.810 3271
0.818 5.192 1.860 5573
0.787 4.991 1.793 2660
0.820 5.204 1.847 3345
0.798 5.063 1.801 2450
0.801 5.083 1.791 3436
0.836 5.306 1.864 2141
0.838 5.318 1.851 3223
0.803 5.095 1.778 1850
0.840 5.331 1.838 3443
0.873 5.539 1.905 1306
0.843 5.350 1.827 2577
0.866 5.492 1.872 1863
0.846 5.370 1.816 2616
0.869 5.512 1.861 2204
0.865 5.487 1.835 2695
0.842 5.345 1.791 1695
0.881 5.589 1.849 2864
0.859 5.447 1.805 1907
0.905 5.744 1.878 2062
0.882 5.594 1.833 1951
0.907 5.756 1.864 2224
0.882 5.599 1.816 2023
0.884 5.611 1.802 2199
0.918 5.821 1.865 2133
0.921 5.841 1.852 2856
0.886 5.624 1.788 1385
0.917 5.816 1.826 2097
0.939 5.959 1.868 1864
0.940 5.964 1.851 1781
0.965 6.122 1.896 1622
0.966 6.127 1.878 1899
0.934 5.924 1.820 1619
0.966 6.132 1.861 2055
0.989 6.275 1.901 1888
0.990 6.280 1.883 2244
1.041 6.604 1.973 1946
1.039 6.594 1.950 2261
0.992 6.292 1.866 1816
1.041 6.607 1.933 2139
1.014 6.433 1.885 1894
1.055 6.695 1.936 2978
1.015 6.438 1.866 1897
1.057 6.708 1.918 3273
1.017 6.451 1.849 1682
1.060 6.728 1.902 3254
1.083 6.872 1.940 1910
1.062 6.741 1.885 2512
1.095 6.945 1.938 2119
1.094 6.943 1.916 2290
1.121 7.109 1.959 1994
1.170 7.426 2.017 2322
1.123 7.122 1.940 1931
1.125 7.135 1.921 1622
1.169 7.416 1.991 1571
1.209 7.672 2.032 1772
1.125 7.140 1.900 1529
1.214 7.700 2.015 1388
1.129 7.160 1.882 1028
1.210 7.675 1.985 1117
1.255 7.964 2.055 813
1.262 8.008 2.040 1245
1.211 7.680 1.962 1125
1.261 7.998 2.013 1458
1.324 8.401 2.109 1158
1.325 8.407 2.084 1467
1.264 8.018 1.993 962
1.327 8.420 2.061 1434
1.350 8.565 2.094 878
1.336 8.479 2.048 1587
1.367 8.670 2.091 763
1.341 8.508 2.028 1482
1.367 8.676 2.066 1300
1.367 8.673 2.039 1363
1.437 9.117 2.136 1240
1.438 9.122 2.110 1751
1.404 8.908 2.063 954
1.441 9.143 2.086 2112
1.397 8.860 2.026 980
1.442 9.149 2.059 1817
1.401 8.889 2.004 696
1.460 9.262 2.055 1763
1.437 9.116 2.024 825
1.461 9.267 2.027 1492
1.412 8.961 1.965 729
1.454 9.226 1.991 1427
1.416 8.981 1.941 406
1.459 9.255 1.968 1164
1.458 9.252 1.940 681
1.464 9.288 1.918 455
1.465 9.293 1.891 255
0.362 2.276 1.797 2895
0.362 2.281 1.791 5790
0.382 2.407 1.884 1223
0.363 2.286 1.784 5790
0.383 2.412 1.877 2446
0.365 2.297 1.782 5669
0.384 2.417 1.870 3307
0.369 2.321 1.789 6371
0.388 2.441 1.877 3800
0.370 2.332 1.787 4824
0.390 2.453 1.875 3629
0.388 2.445 1.858 4161
0.369 2.324 1.771 3063
0.389 2.450 1.851 4161
0.370 2.329 1.765 3063
0.390 2.455 1.844 4236
0.371 2.333 1.758 3121
0.392 2.466 1.842 4317
0.372 2.344 1.756 3448
0.393 2.471 1.834 5216
0.373 2.349 1.749 2863
0.393 2.476 1.827 6115
0.374 2.354 1.742 2278
0.394 2.481 1.820 5332
0.375 2.358 1.735 1702
0.391 2.460 1.795 5204
0.410 2.583 1.880 3432
0.391 2.465 1.788 5204
0.411 2.588 1.872 3432
0.397 2.502 1.803 4629
0.417 2.625 1.887 1559
0.407 2.565 1.835 5225
0.388 2.441 1.752 1308
0.410 2.583 1.837 4960
0.391 2.459 1.753 1627
0.413 2.601 1.838 5611
0.393 2.477 1.755 1392
0.414 2.606 1.830 5504
0.394 2.481 1.748 1105
0.416 2.617 1.827 5441
0.396 2.493 1.745 1177
0.408 2.570 1.785 5389
0.428 2.694 1.867 2311
0.409 2.574 1.778 6542
0.429 2.699 1.859 3501
0.426 2.684 1.838 5307
0.407 2.559 1.757 4426
0.432 2.722 1.852 6689
0.411 2.590 1.767 3491
0.434 2.734 1.848 7662
0.414 2.608 1.768 2449
0.436 2.745 1.844 8901
0.416 2.619 1.764 2212
0.435 2.737 1.828 8648
0.415 2.611 1.748 1033
0.434 2.735 1.816 8866
0.455 2.862 1.895 1238
0.436 2.747 1.812 7398
0.456 2.873 1.891 1136
0.441 2.778 1.820 6692
0.461 2.905 1.899 839
0.442 2.783 1.812 8045
0.462 2.910 1.890 1198
0.444 2.795 1.808 9418
0.464 2.922 1.886 1621
0.445 2.799 1.800 7605
0.465 2.927 1.877 2936
0.446 2.811 1.796 5938
0.467 2.939 1.873 4153
0.469 2.950 1.868 4234
0.448 2.822 1.792 4117
0.471 2.962 1.864 4548
0.450 2.834 1.788 1710
0.459 2.893 1.812 4224
0.483 3.041 1.899 2878
0.462 2.911 1.811 5982
0.483 3.040 1.886 4204
0.465 2.929 1.810 7035
0.486 3.058 1.885 4318
0.482 3.036 1.861 6427
0.462 2.907 1.786 4907
0.481 3.027 1.844 8724
0.460 2.898 1.770 3069
0.485 3.053 1.847 8094
0.464 2.923 1.773 2888
0.487 3.065 1.842 8458
0.466 2.935 1.769 1472
0.489 3.076 1.837 6883
0.468 2.946 1.764 1219
0.489 3.081 1.828 8351
0.512 3.225 1.908 1266
0.489 3.079 1.815 11467
0.513 3.230 1.899 1462
0.491 3.091 1.810 11674
0.515 3.242 1.893 1328
0.490 3.082 1.793 9220
0.516 3.247 1.884 1542
0.489 3.080 1.781 7280
0.526 3.314 1.908 2359
0.491 3.091 1.776 5562
0.528 3.326 1.902 4325
0.494 3.110 1.774 5330
0.529 3.331 1.892 4795
0.495 3.115 1.765 6182
0.530 3.336 1.883 3532
0.494 3.112 1.752 6344
0.544 3.424 1.917 3429
0.495 3.117 1.743 5620
0.545 3.430 1.907 3964
0.500 3.149 1.749 5001
0.546 3.435 1.897 3092
0.505 3.182 1.754 3875
0.542 3.412 1.872 3440
0.543 3.417 1.862 4395
0.564 3.549 1.930 3057
0.545 3.429 1.856 4786
0.566 3.562 1.924 3178
0.552 3.476 1.867 7178
0.515 3.245 1.751 1923
0.556 3.502 1.868 8408
0.514 3.235 1.734 1722
0.563 3.542 1.875 7303
0.541 3.408 1.809 1643
0.567 3.568 1.875 6504
0.546 3.434 1.809 1866
0.571 3.594 1.875 8535
0.550 3.460 1.809 1093
0.572 3.599 1.864 10665
0.484 3.049 1.597 1162
0.574 3.611 1.857 9301
0.485 3.053 1.588 1245
0.579 3.644 1.860 7221
0.558 3.510 1.796 1150
0.575 3.621 1.836 5251
0.596 3.755 1.900 1333
0.576 3.626 1.826 4436
0.597 3.760 1.889 1471
0.586 3.687 1.842 5292
0.564 3.552 1.779 1159
0.590 3.713 1.841 7901
0.563 3.543 1.762 717
0.593 3.733 1.837 9516
0.618 3.889 1.909 1168
0.594 3.737 1.826 6240
0.619 3.894 1.898 1884
0.594 3.742 1.815 3947
0.619 3.899 1.886 2284
0.604 3.804 1.830 3554
0.626 3.940 1.891 2038
0.607 3.823 1.825 5321
0.629 3.959 1.886 2230
0.617 3.886 1.839 5255
0.596 3.749 1.779 1352
0.619 3.898 1.831 5679
0.597 3.761 1.771 1453
0.627 3.946 1.839 7156
0.605 3.809 1.779 2205
0.627 3.950 1.827 8011
0.649 4.087 1.886 1434
0.629 3.962 1.819 7489
0.652 4.106 1.880 2087
0.630 3.967 1.807 5860
0.659 4.147 1.884 3512
0.661 4.160 1.875 4439
0.639 4.023 1.817 3756
0.663 4.172 1.866 5317
0.641 4.035 1.808 3574
0.663 4.177 1.853 8610
0.642 4.039 1.796 2896
0.664 4.182 1.841 9221
0.637 4.008 1.770 2537
0.666 4.194 1.832 5976
0.640 4.027 1.764 2072
0.666 4.192 1.817 3804
0.688 4.329 1.873 2396
0.678 4.269 1.834 4723
0.700 4.407 1.889 1568
0.683 4.303 1.833 5384
0.705 4.441 1.888 1483
0.684 4.308 1.820 5562
0.706 4.446 1.875 1506
0.687 4.327 1.813 3716
0.709 4.466 1.868 2320
0.709 4.464 1.852 3607
0.687 4.325 1.798 2255
0.711 4.476 1.842 2968
0.689 4.337 1.788 1498
0.720 4.532 1.848 4335
0.698 4.393 1.795 1122
0.721 4.537 1.835 4739
0.699 4.398 1.782 1213
0.723 4.549 1.824 3727
0.700 4.410 1.772 1207
0.737 4.642 1.844 3476
0.715 4.502 1.792 1655
0.728 4.581 1.806 4290
0.758 4.772 1.876 1880
0.732 4.607 1.800 4891
0.759 4.777 1.862 3182
0.731 4.605 1.784 3686
0.760 4.782 1.848 3135
0.759 4.779 1.832 2644
0.730 4.595 1.766 2448
0.761 4.791 1.820 3272
0.783 4.932 1.870 2363
0.779 4.907 1.845 4783
0.757 4.767 1.796 1780
0.781 4.919 1.833 5065
0.758 4.771 1.782 1153
0.786 4.946 1.827 4264
0.808 5.087 1.875 1566
0.784 4.936 1.807 3859
0.806 5.077 1.855 2597
0.823 5.179 1.873 4100
0.792 4.986 1.808 3342
0.825 5.191 1.860 5492
0.793 4.990 1.793 2933
0.826 5.203 1.847 3188
0.804 5.062 1.801 2448
0.808 5.089 1.793 3413
0.846 5.327 1.871 2036
0.846 5.325 1.853 3113
0.810 5.101 1.781 1878
0.847 5.330 1.838 3461
0.880 5.538 1.905 1342
0.850 5.349 1.827 2628
0.873 5.499 1.874 1843
0.853 5.369 1.816 2697
0.875 5.511 1.861 1999
0.871 5.486 1.835 2662
0.849 5.344 1.791 1800
0.888 5.588 1.849 2633
0.865 5.446 1.805 2067
0.911 5.735 1.876 2027
0.886 5.578 1.828 1796
0.914 5.755 1.864 2168
0.889 5.598 1.816 1887
0.891 5.610 1.802 2134
0.927 5.835 1.869 1969
0.929 5.848 1.855 2805
0.893 5.623 1.788 1345
0.924 5.815 1.826 2232
0.946 5.958 1.868 1823
0.947 5.963 1.851 1775
0.972 6.121 1.896 1771
0.973 6.126 1.878 1986
0.941 5.922 1.820 1657
0.974 6.131 1.861 1910
0.997 6.274 1.901 1750
0.996 6.271 1.881 2134
1.049 6.603 1.973 1924
1.048 6.600 1.952 2258
0.998 6.284 1.864 1952
1.049 6.606 1.933 2218
1.022 6.432 1.885 1849
1.063 6.694 1.936 2723
1.024 6.445 1.868 1819
1.065 6.707 1.918 3019
1.024 6.450 1.849 1606
1.068 6.727 1.902 3125
1.091 6.871 1.940 1843
1.071 6.739 1.885 2411
1.104 6.951 1.940 1900
1.104 6.949 1.918 2247
1.128 7.101 1.957 1701
1.179 7.424 2.017 2032
1.131 7.121 1.940 1739
1.133 7.134 1.921 1573
1.164 7.331 1.970 1544
1.218 7.670 2.032 1752
1.134 7.139 1.900 1598
1.223 7.699 2.015 1348
1.137 7.159 1.882 1062
1.219 7.674 1.985 1292
1.306 8.221 2.117 863
1.221 7.686 1.964 1299
1.273 8.014 2.042 1249
1.271 8.004 2.015 1313
1.332 8.385 2.105 1127
1.334 8.398 2.082 1512
1.362 8.573 2.123 774
1.336 8.411 2.059 1407
1.359 8.556 2.092 1064
1.347 8.478 2.048 1733
1.377 8.668 2.091 781
1.351 8.506 2.028 1603
1.378 8.674 2.066 1377
1.377 8.672 2.039 1536
1.448 9.115 2.136 1208
1.449 9.121 2.110 1704
1.378 8.677 2.013 961
1.452 9.142 2.086 2070
1.408 8.866 2.027 839
1.453 9.147 2.059 1820
1.412 8.887 2.004 647
1.471 9.260 2.055 1648
1.448 9.114 2.024 810
1.472 9.265 2.027 1426
1.423 8.959 1.965 638
1.473 9.271 2.000 1460
1.426 8.979 1.941 373
1.471 9.261 1.970 1113
1.471 9.258 1.941 575
1.475 9.286 1.918 457
0.364 2.276 1.797 3199
0.365 2.281 1.791 6398
0.385 2.407 1.884 1112
0.366 2.285 1.784 6398
0.386 2.412 1.877 2224
0.368 2.296 1.782 6114
0.387 2.417 1.870 3040
0.370 2.314 1.785 6421
0.390 2.435 1.872 3734
0.372 2.325 1.783 4821
0.392 2.446 1.870 3670
0.391 2.444 1.858 3949
0.372 2.323 1.771 3168
0.392 2.449 1.851 3949
0.373 2.328 1.765 3168
0.393 2.454 1.844 4249
0.373 2.333 1.758 3178
0.394 2.459 1.837 4548
0.374 2.337 1.751 3187
0.395 2.471 1.834 5445
0.376 2.348 1.749 2858
0.396 2.475 1.827 6425
0.377 2.353 1.742 2259
0.397 2.480 1.820 5576
0.417 2.603 1.905 1723
0.394 2.459 1.795 5301
0.413 2.582 1.880 3620
0.394 2.464 1.788 5301
0.414 2.587 1.872 3620
0.400 2.501 1.803 4786
0.420 2.625 1.887 1681
0.412 2.571 1.840 5050
0.392 2.447 1.756 1681
0.414 2.589 1.841 4961
0.395 2.465 1.758 2003
0.416 2.600 1.838 5395
0.396 2.476 1.755 1511
0.417 2.605 1.830 5481
0.397 2.481 1.748 1194
0.418 2.610 1.823 5566
0.398 2.486 1.741 877
0.412 2.576 1.789 5455
0.432 2.700 1.871 1800
0.412 2.574 1.778 6502
0.432 2.699 1.859 3305
0.431 2.691 1.842 5079
0.411 2.565 1.762 4643
0.436 2.722 1.852 6892
0.415 2.590 1.767 3449
0.438 2.733 1.848 8102
0.417 2.608 1.768 2451
0.438 2.738 1.840 9560
0.418 2.612 1.760 1845
0.438 2.737 1.828 9132
0.418 2.610 1.748 1061
0.438 2.735 1.816 9133
0.458 2.861 1.895 1240
0.440 2.746 1.812 7520
0.460 2.873 1.891 1167
0.445 2.778 1.820 6440
0.465 2.905 1.899 820
0.445 2.783 1.812 7837
0.466 2.910 1.890 1203
0.447 2.794 1.808 9244
0.468 2.921 1.886 1651
0.448 2.799 1.800 7523
0.468 2.926 1.877 2907
0.450 2.810 1.796 5883
0.470 2.938 1.873 4055
0.472 2.950 1.868 4127
0.452 2.822 1.792 3992
0.474 2.962 1.864 4494
0.454 2.833 1.788 1559
0.463 2.892 1.812 4379
0.486 3.034 1.895 2877
0.466 2.911 1.811 6010
0.486 3.039 1.886 4064
0.469 2.929 1.810 7034
0.489 3.058 1.885 4139
0.486 3.036 1.861 6106
0.465 2.907 1.786 4993
0.485 3.027 1.844 8353
0.464 2.898 1.770 3150
0.489 3.052 1.847 7894
0.468 2.923 1.773 2944
0.492 3.071 1.846 8501
0.471 2.941 1.772 1731
0.492 3.076 1.837 6851
0.472 2.946 1.764 1198
0.493 3.081 1.828 7606
0.516 3.224 1.908 1281
0.494 3.085 1.819 10010
0.517 3.229 1.899 1433
0.495 3.090 1.810 10153
0.519 3.241 1.893 1394
0.494 3.088 1.797 7681
0.521 3.253 1.887 1716
0.493 3.079 1.781 5876
0.529 3.307 1.904 2495
0.532 3.325 1.902 4616
0.495 3.091 1.776 4509
0.533 3.331 1.892 5177
0.498 3.109 1.774 4778
0.498 3.114 1.765 5784
0.534 3.336 1.883 3826
0.498 3.112 1.752 5793
0.548 3.424 1.917 3587
0.499 3.116 1.743 5016
0.549 3.429 1.907 4147
0.507 3.170 1.759 4685
0.549 3.427 1.893 3184
0.546 3.411 1.872 3724
0.508 3.174 1.750 3503
0.547 3.416 1.862 4654
0.568 3.549 1.930 2937
0.550 3.435 1.860 5100
0.571 3.568 1.927 2771
0.556 3.475 1.867 7380
0.517 3.230 1.744 2405
0.560 3.501 1.868 8642
0.518 3.235 1.734 2264
0.567 3.541 1.875 7712
0.517 3.232 1.721 2115
0.570 3.560 1.872 6880
0.518 3.237 1.712 1868
0.575 3.593 1.875 8064
0.554 3.460 1.809 1212
0.576 3.598 1.864 9948
0.488 3.049 1.597 925
0.577 3.603 1.854 8733
0.489 3.053 1.588 1041
0.583 3.643 1.860 7131
0.562 3.509 1.796 1063
0.579 3.620 1.836 5503
0.601 3.754 1.900 1168
0.581 3.632 1.829 4917
0.603 3.767 1.893 1230
0.589 3.679 1.838 4652
0.567 3.545 1.775 1054
0.595 3.720 1.844 7002
0.567 3.542 1.762 678
0.597 3.732 1.837 8943
0.622 3.888 1.909 1276
0.598 3.737 1.826 5958
0.622 3.886 1.894 2124
0.598 3.734 1.812 3748
0.624 3.899 1.886 2480
0.600 3.746 1.804 3424
0.628 3.925 1.884 2288
0.612 3.823 1.825 5070
0.634 3.959 1.886 2360
0.612 3.820 1.811 4646
0.633 3.956 1.871 2156
0.624 3.897 1.831 5120
0.602 3.761 1.771 1396
0.631 3.945 1.839 6971
0.610 3.808 1.779 1996
0.632 3.950 1.827 8217
0.654 4.086 1.886 1331
0.634 3.962 1.819 7576
0.657 4.106 1.880 2014
0.635 3.967 1.807 5715
0.664 4.147 1.884 3436
0.666 4.159 1.875 4472
0.644 4.022 1.817 3824
0.667 4.164 1.863 5382
0.645 4.027 1.805 3359
0.668 4.176 1.853 8723
0.646 4.039 1.796 2834
0.669 4.181 1.841 9528
0.645 4.029 1.779 2659
0.670 4.186 1.829 6319
0.644 4.026 1.764 2272
0.670 4.183 1.814 3910
0.692 4.321 1.870 2330
0.684 4.275 1.837 4226
0.706 4.414 1.892 1435
0.689 4.302 1.833 5208
0.711 4.440 1.888 1555
0.689 4.307 1.820 5483
0.712 4.445 1.875 1568
0.691 4.319 1.811 3576
0.714 4.458 1.865 2253
0.712 4.448 1.846 3381
0.690 4.309 1.792 2005
0.710 4.438 1.828 2935
0.733 4.577 1.881 1462
0.725 4.531 1.848 4548
0.703 4.392 1.795 1019
0.726 4.536 1.835 4904
0.759 4.741 1.912 1107
0.729 4.555 1.827 3762
0.707 4.416 1.775 1149
0.744 4.648 1.846 3634
0.722 4.509 1.795 1869
0.733 4.580 1.806 4162
0.764 4.771 1.876 1845
0.737 4.607 1.800 4845
0.764 4.776 1.862 3333
0.737 4.604 1.784 3861
0.765 4.781 1.848 3457
0.765 4.778 1.832 2930
0.735 4.594 1.766 2716
0.767 4.790 1.820 3384
0.789 4.931 1.870 2391
0.785 4.906 1.845 4741
0.763 4.766 1.796 1873
0.786 4.911 1.831 4986
0.809 5.051 1.880 1104
0.792 4.945 1.827 3994
0.814 5.086 1.875 1518
0.789 4.928 1.805 3677
0.814 5.084 1.858 2590
0.830 5.185 1.875 4083
0.791 4.940 1.793 3312
0.831 5.190 1.860 5394
0.799 4.990 1.793 3248
0.833 5.202 1.847 3035
0.810 5.061 1.801 2475
0.814 5.088 1.793 3343
0.854 5.334 1.874 1827
0.852 5.324 1.853 2858
0.815 5.093 1.778 1823
0.853 5.329 1.838 3446
0.885 5.530 1.902 1372
0.855 5.341 1.824 2747
0.879 5.490 1.872 1917
0.858 5.361 1.813 2661
0.881 5.503 1.858 1935
0.877 5.478 1.833 2637
0.854 5.336 1.788 1580
0.875 5.467 1.812 2469
0.898 5.610 1.856 1850
0.918 5.734 1.876 2014
0.890 5.562 1.824 1799
0.920 5.747 1.862 2043
0.895 5.589 1.814 1809
0.898 5.609 1.802 2101
0.936 5.849 1.874 1870
0.937 5.854 1.857 2786
0.900 5.621 1.788 1360
0.931 5.814 1.826 2366
0.953 5.957 1.868 1858
0.981 6.127 1.899 1893
0.951 5.939 1.844 1856
0.980 6.124 1.878 2071
0.948 5.921 1.820 1723
0.981 6.129 1.861 1815
1.004 6.272 1.901 1545
1.002 6.262 1.878 2163
1.055 6.594 1.971 1893
1.004 6.275 1.862 2234
1.058 6.607 1.954 2080
1.057 6.604 1.933 1985
1.009 6.303 1.850 1985
1.071 6.693 1.936 2395
1.031 6.443 1.868 1748
1.060 6.622 1.896 2666
1.032 6.448 1.849 1664
1.078 6.733 1.904 2978
1.101 6.877 1.942 1765
1.079 6.738 1.885 2324
1.119 6.988 1.950 1886
1.118 6.986 1.927 2281
1.141 7.130 1.964 1260
1.188 7.423 2.017 1688
1.120 6.998 1.909 1555
1.173 7.330 1.970 1550
1.140 7.125 1.919 1503
1.228 7.669 2.032 1659
1.142 7.137 1.900 1639
1.227 7.667 2.007 1234
1.144 7.150 1.881 1107
1.228 7.672 1.985 1310
1.318 8.235 2.121 896
1.230 7.685 1.964 1353
1.282 8.012 2.042 1248
1.282 8.010 2.017 1128
1.343 8.391 2.107 1008
1.344 8.396 2.082 1414
1.371 8.564 2.121 757
1.346 8.409 2.059 1339
1.369 8.554 2.092 1184
1.357 8.476 2.048 1797
1.315 8.217 1.990 760
1.361 8.504 2.028 1659
1.388 8.672 2.066 1597
1.389 8.678 2.041 2074
1.459 9.113 2.136 1122
1.460 9.119 2.110 1568
1.390 8.683 2.015 1489
1.463 9.140 2.086 1975
1.393 8.704 1.993 1130
1.464 9.145 2.059 1830
1.394 8.709 1.967 957
1.482 9.258 2.055 1508
1.459 9.113 2.024 753
1.483 9.264 2.027 1441
1.434 8.957 1.965 557
1.484 9.269 2.000 1610
1.437 8.978 1.941 351
1.482 9.259 1.970 1151
1.485 9.280 1.946 536
1.486 9.285 1.918 497
0.367 2.275 1.797 3435
0.368 2.280 1.791 6870
0.388 2.406 1.884 1032
0.369 2.285 1.784 6870
0.389 2.411 1.877 2064
0.370 2.296 1.782 6494
0.390 2.416 1.870 2824
0.373 2.313 1.785 6541
0.393 2.434 1.872 3461
0.374 2.318 1.778 4914
0.393 2.439 1.865 3564
0.394 2.444 1.858 3667
0.375 2.323 1.771 3287
0.395 2.449 1.851 3667
0.375 2.328 1.765 3287
0.396 2.454 1.844 4206
0.376 2.332 1.758 3271
