-1.248 2.186 1.741 3859
-1.251 2.190 1.733 4012
-1.253 2.194 1.726 4165
-1.262 2.210 1.728 5650
-1.268 2.219 1.724 7831
-1.270 2.223 1.717 10130
-1.272 2.227 1.710 12429
-1.278 2.237 1.707 11357
-1.280 2.241 1.699 10388
-1.296 2.269 1.709 8017
-1.301 2.278 1.705 7265
-1.337 2.341 1.739 6532
-1.336 2.339 1.727 6764
-1.342 2.349 1.723 6602
-1.344 2.353 1.715 6414
-1.343 2.351 1.704 5556
-1.355 2.373 1.708 4647
-1.358 2.377 1.700 4810
-1.380 2.417 1.716 5344
-1.386 2.427 1.712 6971
-1.375 2.407 1.688 7024
-1.377 2.411 1.680 8143
-1.376 2.409 1.668 6239
-1.412 2.472 1.699 5063
-1.411 2.470 1.687 4050
-1.420 2.486 1.687 4297
-1.422 2.490 1.678 4615
-1.431 2.506 1.678 5082
-1.454 2.546 1.692 8538
-1.460 2.556 1.687 11468
-1.462 2.560 1.679 10677
-1.468 2.570 1.674 7065
-1.508 2.641 1.706 8569
-1.507 2.639 1.694 7532
-1.506 2.637 1.681 4809
-1.554 2.720 1.720 5376
-1.559 2.730 1.714 5686
-1.523 2.667 1.666 5780
-1.543 2.701 1.675 5676
-1.559 2.730 1.680 5685
-1.565 2.740 1.675 6090
-1.571 2.750 1.669 5961
-1.569 2.748 1.656 4834
-1.610 2.820 1.685 7733
-1.598 2.799 1.662 9051
-1.597 2.796 1.650 8548
-1.599 2.800 1.640 6025
-1.676 2.935 1.702 4645
-1.657 2.901 1.672 4454
-1.659 2.905 1.662 4123
-1.654 2.896 1.646 3317
-1.728 3.025 1.702 4255
-1.684 2.948 1.650 5081
-1.740 3.046 1.689 5508
-1.735 3.037 1.672 7036
-1.740 3.047 1.665 6243
-1.728 3.026 1.642 5193
-1.820 3.187 1.711 4953
-1.823 3.191 1.701 7500
-1.821 3.189 1.687 6953
-1.842 3.224 1.692 6338
-1.844 3.228 1.681 7280
-1.843 3.226 1.667 7413
-1.834 3.211 1.648 5788
-1.876 3.285 1.670 3766
-1.864 3.263 1.647 3955
-1.906 3.337 1.669 3282
-1.926 3.373 1.673 4253
-1.939 3.396 1.670 8984
-1.938 3.393 1.656 12031
-1.940 3.397 1.645 8897
-1.983 3.471 1.665 4721
-2.025 3.546 1.685 6063
-2.024 3.543 1.670 8200
-2.030 3.554 1.661 7375
-2.043 3.577 1.658 4562
-2.045 3.581 1.646 2661
-2.044 3.578 1.631 2566
-2.171 3.801 1.711 2577
-2.125 3.721 1.664 2893
-2.205 3.861 1.707 3433
-2.207 3.865 1.694 2886
-2.150 3.765 1.640 2371
-2.208 3.866 1.666 2722
-2.222 3.890 1.661 4016
-2.246 3.933 1.663 5166
-2.256 3.949 1.655 4993
-2.265 3.966 1.647 3895
-2.268 3.970 1.634 3726
-2.348 4.111 1.672 4420
-2.347 4.108 1.656 4027
-2.356 4.125 1.648 3099
-2.362 4.136 1.636 3207
-2.360 4.133 1.620 2777
-2.419 4.235 1.642 1998
-2.530 4.429 1.695 2374
-2.528 4.427 1.678 2200
-2.572 4.503 1.689 2337
-2.578 4.513 1.676 2838
-2.576 4.511 1.659 3174
-2.575 4.508 1.641 2826
-2.645 4.631 1.666 2249
-2.624 4.595 1.637 2416
-2.668 4.671 1.646 3106
-2.663 4.662 1.626 3230
-2.809 4.917 1.691 4480
-2.807 4.915 1.672 6137
-2.813 4.925 1.658 4053
-2.815 4.929 1.641 3217
-2.821 4.940 1.627 4868
-2.827 4.950 1.613 4737
-2.978 5.213 1.673 3670
-2.976 5.210 1.654 5025
-2.978 5.214 1.636 3916
-3.007 5.265 1.632 4172
-3.047 5.335 1.634 3409
-3.046 5.332 1.614 2856
-3.170 5.550 1.655 1726
-3.199 5.601 1.649 1651
-3.339 5.846 1.695 1757
-3.341 5.849 1.676 2068
-3.232 5.659 1.606 2481
-3.391 5.938 1.658 2353
-3.378 5.915 1.631 3179
-3.449 6.039 1.642 3188
-3.448 6.036 1.620 2245
-3.607 6.316 1.667 2101
-3.525 6.172 1.610 2151
-3.827 6.701 1.714 1650
-3.849 6.738 1.699 1729
-3.847 6.735 1.675 2283
-4.100 7.178 1.752 2037
-4.098 7.175 1.726 2007
-4.050 7.091 1.683 1484
-4.029 7.055 1.651 1704
-4.259 7.457 1.712 1731
-4.281 7.495 1.694 1730
-4.206 7.364 1.641 1514
-4.440 7.774 1.698 1318
-4.670 8.177 1.752 1811
-4.669 8.175 1.723 2318
-4.671 8.179 1.696 3902
-4.677 8.189 1.669 5028
-4.676 8.186 1.641 4924
-4.678 8.190 1.613 5043
-4.688 8.207 1.589 5188
-4.690 8.211 1.561 4760
-4.692 8.215 1.534 4280
-4.694 8.218 1.506 4040
-4.696 8.221 1.479 2762
-4.701 8.232 1.452 1145
-4.703 8.235 1.425 495
-4.697 8.225 1.395 321
-1.114 1.959 1.760 2362
-1.116 1.963 1.753 4724
-1.119 1.967 1.747 4724
-1.124 1.977 1.745 3596
-1.142 2.009 1.762 3178
-1.148 2.019 1.760 3682
-1.154 2.029 1.757 4275
-1.156 2.033 1.751 4275
-1.155 2.031 1.740 3824
-1.151 2.024 1.724 3597
-1.166 2.050 1.735 3457
-1.172 2.060 1.733 3852
-1.193 2.098 1.753 3700
-1.205 2.119 1.760 4911
-1.224 2.152 1.775 4802
-1.229 2.162 1.772 4556
-1.215 2.137 1.743 4257
-1.231 2.164 1.753 4967
-1.236 2.174 1.751 5717
-1.239 2.178 1.744 4953
-1.244 2.188 1.741 4214
-1.243 2.186 1.729 4033
-1.246 2.191 1.722 3877
-1.258 2.212 1.728 5317
-1.263 2.222 1.724 7521
-1.266 2.226 1.717 10167
-1.268 2.230 1.710 12813
-1.274 2.240 1.707 11775
-1.276 2.244 1.699 10861
-1.291 2.271 1.709 8537
-1.297 2.281 1.705 7811
-1.329 2.338 1.735 6772
-1.332 2.342 1.727 7217
-1.334 2.346 1.719 6805
-1.340 2.356 1.715 6285
-1.342 2.360 1.708 5665
-1.351 2.376 1.708 5697
-1.353 2.380 1.700 6216
-1.372 2.413 1.712 6303
-1.378 2.423 1.708 8190
-1.373 2.415 1.692 8233
-1.372 2.413 1.680 9281
-1.374 2.417 1.672 7002
-1.407 2.475 1.699 5113
-1.406 2.473 1.687 4197
-1.415 2.489 1.687 4386
-1.418 2.493 1.678 4680
-1.430 2.515 1.682 5249
-1.446 2.543 1.688 8609
-1.452 2.553 1.684 11394
-1.457 2.563 1.679 10365
-1.484 2.610 1.696 7166
-1.500 2.638 1.702 8410
-1.499 2.636 1.690 7519
-1.501 2.640 1.681 4742
-1.552 2.729 1.723 5701
-1.554 2.733 1.714 6458
-1.557 2.737 1.705 5940
-1.541 2.710 1.678 5141
-1.558 2.739 1.684 5063
-1.560 2.743 1.675 5470
-1.558 2.741 1.662 5726
-1.564 2.751 1.656 4677
-1.602 2.816 1.682 8256
-1.593 2.802 1.662 9968
-1.595 2.806 1.653 9159
-1.598 2.809 1.644 6300
-1.667 2.932 1.698 4728
-1.655 2.911 1.675 4851
-1.657 2.914 1.666 4558
-1.652 2.906 1.649 3357
-1.722 3.029 1.702 4553
-1.678 2.951 1.650 4392
-1.727 3.036 1.682 4883
-1.729 3.040 1.672 6335
-1.735 3.051 1.665 6153
-1.733 3.048 1.652 5576
-1.814 3.191 1.711 5514
-1.820 3.201 1.704 7772
-1.823 3.205 1.693 6930
-1.839 3.234 1.695 6170
-1.841 3.238 1.684 6763
-1.840 3.236 1.670 6690
-1.842 3.240 1.660 4912
-1.870 3.288 1.670 4431
-1.868 3.286 1.656 4275
-1.900 3.340 1.669 3333
-1.920 3.376 1.673 4326
-1.933 3.399 1.670 8748
-1.932 3.397 1.656 12034
-1.934 3.401 1.645 8984
-1.976 3.475 1.665 4643
-2.018 3.550 1.685 6356
-2.017 3.547 1.670 8214
-2.023 3.557 1.661 7475
-2.036 3.581 1.658 4813
-2.064 3.630 1.665 2677
-2.077 3.653 1.661 2511
-2.079 3.657 1.649 2529
-2.174 3.822 1.704 2849
-2.109 3.710 1.643 3471
-2.196 3.863 1.692 2920
-2.143 3.769 1.640 2587
-2.205 3.877 1.669 2851
-2.218 3.900 1.663 3774
-2.239 3.937 1.663 5161
-2.248 3.954 1.655 4936
-2.254 3.964 1.645 3806
-2.260 3.974 1.634 3703
-2.340 4.115 1.672 4400
-2.335 4.106 1.654 4219
-2.345 4.123 1.645 3206
-2.351 4.134 1.634 3006
-2.353 4.137 1.620 2428
-2.407 4.233 1.639 1844
-2.525 4.441 1.698 2241
-2.524 4.438 1.680 1816
-2.567 4.514 1.691 2132
-2.569 4.518 1.676 2632
-2.568 4.516 1.659 2959
-2.570 4.519 1.644 2994
-2.640 4.642 1.668 2212
-2.653 4.666 1.659 2140
-2.659 4.676 1.646 2805
-2.643 4.647 1.620 3115
-2.799 4.923 1.691 4334
-2.802 4.927 1.674 6258
-2.804 4.931 1.658 4330
-2.802 4.928 1.639 3696
-2.812 4.945 1.627 5440
-2.822 4.962 1.615 5181
-2.828 4.972 1.600 3569
-2.966 5.216 1.654 4561
-2.968 5.220 1.636 3718
-2.993 5.264 1.631 3859
-3.037 5.341 1.634 3190
-3.036 5.338 1.614 3029
-3.041 5.349 1.598 1857
-3.184 5.600 1.648 1623
-3.331 5.859 1.697 1746
-3.334 5.862 1.678 2061
-3.225 5.672 1.607 2786
-3.231 5.682 1.590 1951
-3.367 5.921 1.631 2533
-3.438 6.046 1.642 3380
-3.436 6.043 1.620 2445
-3.595 6.323 1.667 2177
-3.513 6.178 1.610 2262
-3.814 6.708 1.714 1499
-3.767 6.624 1.671 1758
-3.834 6.743 1.675 2482
-3.836 6.746 1.653 2182
-4.084 7.183 1.726 2059
-4.029 7.085 1.680 1630
-4.016 7.062 1.651 1882
-4.241 7.459 1.710 1585
-4.244 7.462 1.685 1469
-4.192 7.371 1.641 1673
-4.645 8.168 1.776 1349
-4.655 8.186 1.752 1986
-4.653 8.183 1.723 2596
-4.660 8.194 1.697 4432
-4.662 8.198 1.669 5866
-4.660 8.195 1.641 5766
-4.662 8.199 1.613 5794
-4.668 8.209 1.587 5902
-4.670 8.213 1.560 5423
-4.676 8.223 1.534 4877
-4.678 8.227 1.506 4485
-4.680 8.230 1.479 2984
-4.686 8.240 1.452 1219
-4.688 8.244 1.425 539
-4.682 8.233 1.395 395
-1.112 1.961 1.760 2105
-1.114 1.965 1.753 4210
-1.116 1.969 1.747 4210
-1.141 2.012 1.773 3342
-1.143 2.016 1.766 3459
-1.145 2.020 1.760 3875
-1.148 2.024 1.753 4291
-1.150 2.028 1.746 4291
-1.149 2.027 1.735 3878
-1.145 2.020 1.719 3706
-1.163 2.052 1.735 3701
-1.172 2.067 1.738 4356
-1.187 2.094 1.749 3935
-1.199 2.115 1.755 5078
-1.221 2.154 1.775 4851
-1.227 2.163 1.772 4605
-1.213 2.139 1.743 4433
-1.228 2.166 1.753 5133
-1.230 2.170 1.746 6022
-1.236 2.180 1.744 5332
-1.238 2.184 1.736 4659
-1.241 2.188 1.729 4064
-1.243 2.192 1.722 3470
-1.258 2.219 1.732 4998
-1.261 2.223 1.724 7171
-1.263 2.227 1.717 10146
-1.265 2.231 1.710 13120
-1.271 2.241 1.707 12130
-1.273 2.245 1.699 11283
-1.289 2.273 1.709 8958
-1.294 2.282 1.705 8200
-1.326 2.339 1.735 7012
-1.329 2.343 1.727 7651
-1.331 2.348 1.719 7024
-1.337 2.357 1.715 6035
-1.342 2.367 1.712 5707
-1.348 2.377 1.708 6403
-1.350 2.381 1.700 7063
-1.369 2.415 1.712 7065
-1.375 2.425 1.708 9293
-1.370 2.417 1.692 9282
-1.369 2.415 1.680 10169
-1.371 2.419 1.672 7544
-1.401 2.471 1.695 4930
-1.407 2.481 1.691 4045
-1.412 2.491 1.687 4179
-1.414 2.495 1.678 4398
-1.427 2.517 1.682 5110
-1.443 2.545 1.688 8507
-1.449 2.555 1.684 11033
-1.451 2.559 1.675 9924
-1.477 2.605 1.693 7297
-1.486 2.621 1.691 8540
-1.492 2.631 1.686 7679
-1.494 2.635 1.678 4911
-1.545 2.725 1.720 6323
-1.547 2.729 1.711 7384
-1.550 2.733 1.702 6689
-1.538 2.712 1.678 5338
-1.544 2.722 1.673 4552
-1.553 2.739 1.671 4834
-1.555 2.743 1.662 5743
-1.561 2.753 1.656 4875
-1.594 2.812 1.678 8714
-1.593 2.810 1.666 10700
-1.592 2.808 1.653 9666
-1.594 2.811 1.644 6581
-1.649 2.909 1.685 5212
-1.651 2.913 1.675 5048
-1.657 2.923 1.669 4893
-1.663 2.933 1.663 3622
-1.718 3.031 1.702 4794
-1.717 3.028 1.689 3911
-1.726 3.045 1.685 4320
-1.725 3.043 1.672 5508
-1.731 3.053 1.665 5702
-1.729 3.050 1.652 5910
-1.810 3.193 1.711 6207
-1.816 3.203 1.704 8067
-1.822 3.214 1.696 6919
-1.839 3.243 1.698 6150
-1.841 3.247 1.687 6273
-1.840 3.244 1.674 5965
-1.845 3.255 1.666 4678
-1.866 3.290 1.670 4963
-1.868 3.294 1.659 4659
-1.895 3.343 1.669 3228
-1.919 3.385 1.676 4223
-1.929 3.402 1.670 8050
-1.927 3.399 1.656 11370
-1.929 3.403 1.645 8666
-2.019 3.561 1.702 4880
-2.014 3.552 1.685 6434
-2.013 3.550 1.670 7869
-2.018 3.560 1.661 7221
-2.035 3.590 1.660 4842
-2.059 3.632 1.665 3463
-2.065 3.642 1.656 2981
-2.067 3.646 1.644 2848
-2.081 3.670 1.639 3216
-2.101 3.706 1.641 3721
-2.188 3.859 1.689 2982
-2.139 3.772 1.640 2947
-2.196 3.873 1.666 2957
-2.217 3.910 1.666 3414
-2.234 3.940 1.663 5007
-2.240 3.950 1.653 4905
-2.249 3.967 1.645 3866
-2.311 4.075 1.671 4193
-2.317 4.086 1.660 4453
-2.319 4.090 1.647 4408
-2.339 4.126 1.645 3211
-2.345 4.137 1.634 2623
-2.385 4.206 1.644 2065
-2.394 4.223 1.635 1703
-2.523 4.450 1.700 2081
-2.395 4.224 1.604 1588
-2.565 4.524 1.693 1821
-2.567 4.528 1.678 2385
-2.566 4.525 1.661 2875
-2.564 4.523 1.644 3264
-2.566 4.526 1.629 2430
-2.644 4.663 1.657 2013
-2.642 4.660 1.639 2441
-2.637 4.650 1.620 2882
-2.793 4.926 1.691 4098
-2.795 4.930 1.674 6126
-2.801 4.941 1.660 4511
-2.796 4.931 1.639 4037
-2.806 4.948 1.627 5777
-2.815 4.965 1.615 5208
-2.825 4.983 1.602 3624
-2.960 5.220 1.654 4373
-2.962 5.224 1.636 3678
-2.987 5.268 1.631 3238
-3.030 5.345 1.634 2989
-3.033 5.349 1.616 3023
-3.042 5.366 1.602 2044
-3.200 5.644 1.659 1487
-3.259 5.749 1.667 1702
-3.262 5.753 1.648 2172
-3.218 5.676 1.607 2899
-3.224 5.686 1.590 2096
-3.428 6.046 1.662 2328
-3.430 6.050 1.642 3598
-3.429 6.047 1.620 2628
-3.584 6.320 1.665 2230
-3.506 6.183 1.610 2406
-3.756 6.625 1.693 1663
-3.758 6.629 1.671 1964
-3.826 6.747 1.675 2596
-3.828 6.751 1.653 2410
-4.075 7.188 1.726 2070
-4.013 7.077 1.677 1883
-4.007 7.067 1.651 2084
-4.282 7.552 1.729 1684
-4.177 7.366 1.664 1585
-4.302 7.587 1.684 1754
-4.296 7.577 1.656 1503
-4.641 8.185 1.750 2020
-4.643 8.189 1.723 2709
-4.649 8.200 1.697 4726
-4.652 8.204 1.669 6384
-4.650 8.201 1.641 6308
-4.652 8.205 1.613 6245
-4.658 8.215 1.587 6376
-4.660 8.219 1.560 5879
-4.666 8.229 1.534 5292
-4.668 8.233 1.506 4768
-4.670 8.236 1.479 3106
-4.676 8.246 1.452 1247
-4.677 8.250 1.425 552
-4.675 8.246 1.396 429
-1.104 1.958 1.755 1867
-1.106 1.962 1.749 3734
-1.108 1.966 1.742 3734
-1.139 2.020 1.777 3691
-1.144 2.030 1.775 3982
-1.140 2.023 1.760 4058
-1.143 2.027 1.753 4293
-1.145 2.031 1.746 4293
-1.144 2.030 1.735 4021
-1.140 2.023 1.719 3914
-1.161 2.061 1.740 4068
-1.167 2.070 1.738 4880
-1.179 2.091 1.744 4165
-1.194 2.118 1.755 5151
-1.216 2.157 1.775 5048
-1.221 2.167 1.772 4796
-1.211 2.148 1.747 4643
-1.223 2.169 1.753 5403
-1.225 2.173 1.746 6391
-1.227 2.177 1.739 5786
-1.233 2.187 1.736 5207
-1.232 2.185 1.725 4311
-1.228 2.178 1.709 3564
-1.256 2.228 1.736 4755
-1.258 2.232 1.729 6826
-1.257 2.231 1.717 9964
-1.260 2.235 1.710 13171
-1.265 2.244 1.707 12335
-1.267 2.248 1.699 11620
-1.283 2.276 1.709 9216
-1.288 2.286 1.705 8410
-1.317 2.337 1.730 7116
-1.320 2.341 1.723 7918
-1.322 2.345 1.715 7006
-1.327 2.355 1.711 5567
-1.336 2.371 1.712 5312
-1.342 2.381 1.708 6421
-1.344 2.385 1.700 7080
-1.363 2.418 1.712 7469
-1.369 2.428 1.708 10047
-1.368 2.426 1.696 9994
-1.367 2.424 1.684 10640
-1.369 2.428 1.676 7915
-1.395 2.474 1.695 4501
-1.400 2.484 1.691 3647
-1.406 2.494 1.687 3794
-1.412 2.504 1.682 4018
-1.421 2.520 1.682 4988
-1.433 2.542 1.684 8515
-1.439 2.552 1.680 10838
-1.444 2.562 1.675 9538
-1.471 2.609 1.693 7457
-1.476 2.619 1.688 8948
-1.482 2.629 1.683 8059
-1.488 2.639 1.678 5387
-1.531 2.717 1.712 7364
-1.537 2.727 1.707 8686
-1.539 2.731 1.698 7773
-1.535 2.722 1.682 5765
-1.537 2.726 1.673 4809
-1.542 2.736 1.667 4855
-1.548 2.746 1.662 6062
-1.554 2.756 1.656 5293
-1.584 2.810 1.675 9326
-1.586 2.814 1.666 11410
-1.588 2.818 1.656 10106
-1.590 2.822 1.647 6744
-1.638 2.907 1.682 5595
-1.644 2.917 1.675 5097
-1.650 2.927 1.669 5095
-1.701 3.019 1.706 3971
-1.707 3.029 1.699 4981
-1.709 3.033 1.689 3736
-1.722 3.056 1.689 3845
-1.721 3.053 1.675 4914
-1.720 3.051 1.662 5305
-1.786 3.168 1.709 6742
-1.799 3.191 1.708 7336
-1.808 3.208 1.704 8379
-1.821 3.231 1.703 7244
-1.831 3.248 1.698 6562
-1.833 3.251 1.687 6266
-1.839 3.262 1.680 6138
-1.844 3.272 1.672 5613
-1.854 3.289 1.667 5743
-1.856 3.293 1.656 5292
-1.851 3.284 1.639 3212
-1.911 3.390 1.676 3868
-1.917 3.400 1.667 6799
-1.919 3.404 1.656 9957
-1.921 3.408 1.645 7902
-2.010 3.566 1.702 5208
-2.009 3.564 1.687 6218
-2.004 3.555 1.670 7060
-2.009 3.565 1.661 6546
-2.048 3.633 1.677 5036
-2.050 3.637 1.665 4379
-2.052 3.641 1.653 3560
-2.058 3.651 1.644 3037
-2.075 3.681 1.642 3495
-2.088 3.705 1.638 4219
-2.178 3.864 1.689 3034
-2.177 3.862 1.674 3473
-2.150 3.814 1.640 3252
-2.211 3.922 1.669 3006
-2.224 3.945 1.663 4759
-2.230 3.956 1.653 4690
-2.294 4.071 1.682 3883
-2.297 4.075 1.669 4679
-2.306 4.091 1.660 4478
-2.308 4.095 1.647 4418
-2.329 4.132 1.645 3149
-2.331 4.136 1.631 2271
-2.374 4.212 1.644 1971
-2.376 4.216 1.630 1595
-2.516 4.463 1.702 1920
-2.514 4.461 1.685 1566
-2.491 4.418 1.654 1727
-2.560 4.541 1.680 2194
-2.558 4.539 1.663 2891
-2.553 4.529 1.644 3566
-2.555 4.533 1.629 2738
-2.707 4.802 1.701 2277
-2.705 4.799 1.682 2461
-2.629 4.664 1.622 2487
-2.777 4.927 1.689 3829
-2.783 4.937 1.674 5796
-2.793 4.954 1.662 4701
-2.791 4.952 1.643 4428
-2.793 4.955 1.627 6122
-2.803 4.973 1.615 5042
-2.813 4.990 1.602 3441
-2.943 5.221 1.652 4111
-2.949 5.231 1.636 3308
-3.026 5.369 1.657 2631
-3.021 5.359 1.636 2600
-3.023 5.363 1.618 2872
-3.055 5.420 1.615 2112
-3.152 5.592 1.642 1473
-3.245 5.757 1.667 1720
-3.251 5.767 1.649 2566
-3.204 5.684 1.607 2755
-3.213 5.701 1.592 2159
-3.409 6.048 1.660 2387
-3.411 6.052 1.640 3713
-3.413 6.056 1.620 2821
-3.568 6.329 1.665 2113
-3.494 6.198 1.612 2445
-3.740 6.634 1.693 1867
-3.742 6.638 1.671 2018
-3.809 6.757 1.675 2660
-3.815 6.768 1.654 2614
-3.752 6.656 1.606 2051
-3.995 7.087 1.677 2070
-3.989 7.077 1.651 2147
-4.263 7.563 1.729 1731
-4.158 7.377 1.664 1602
-4.279 7.591 1.683 1878
-4.277 7.588 1.656 1586
-4.616 8.190 1.749 1888
-4.623 8.201 1.723 2612
-4.633 8.218 1.698 4704
-4.631 8.216 1.669 6497
-4.629 8.213 1.641 6459
-4.631 8.216 1.613 6294
-4.637 8.227 1.587 6438
-4.639 8.231 1.560 5931
-4.645 8.241 1.534 5304
-4.647 8.244 1.506 4682
-4.649 8.248 1.479 2979
-4.651 8.251 1.451 1192
-4.657 8.261 1.425 523
-4.655 8.258 1.396 431
-1.127 2.011 1.797 1887
-1.129 2.015 1.791 3775
-1.132 2.019 1.784 3775
-1.137 2.029 1.782 4100
-1.143 2.039 1.780 4481
-1.139 2.032 1.764 4242
-1.138 2.030 1.753 4251
-1.140 2.034 1.746 4251
-1.139 2.033 1.735 4172
-1.135 2.025 1.719 4120
-1.156 2.063 1.740 4526
-1.162 2.073 1.738 5382
-1.171 2.089 1.740 4436
-1.186 2.115 1.751 5132
-1.214 2.165 1.779 5163
-1.216 2.170 1.772 4898
-1.205 2.151 1.747 4717
-1.214 2.166 1.749 5555
-1.220 2.176 1.746 6561
-1.222 2.180 1.739 6132
-1.224 2.184 1.732 5702
-1.220 2.177 1.716 4606
-1.219 2.175 1.705 3845
-1.251 2.231 1.736 4561
-1.253 2.235 1.729 6295
-1.255 2.239 1.721 9523
-1.254 2.238 1.710 12841
-1.260 2.247 1.707 12202
-1.265 2.257 1.703 11680
-1.277 2.279 1.709 9186
-1.283 2.289 1.705 8314
-1.308 2.334 1.726 6915
-1.310 2.338 1.719 7555
-1.316 2.348 1.715 6546
-1.318 2.352 1.707 4831
-1.334 2.380 1.716 4370
-1.339 2.390 1.712 5892
-1.338 2.388 1.700 6710
-1.357 2.422 1.712 7504
-1.363 2.432 1.708 10480
-1.362 2.430 1.696 10440
-1.361 2.428 1.684 10859
-1.363 2.432 1.676 8027
-1.389 2.478 1.695 4005
-1.394 2.488 1.691 3187
-1.400 2.498 1.687 3435
-1.399 2.496 1.675 3744
-1.411 2.518 1.678 4783
-1.427 2.546 1.684 8198
-1.433 2.556 1.680 10265
-1.435 2.560 1.671 8870
-1.464 2.613 1.693 7638
-1.470 2.623 1.688 9454
-1.472 2.627 1.679 8433
-1.478 2.637 1.674 5973
-1.521 2.714 1.709 8747
-1.527 2.724 1.703 10274
-1.529 2.728 1.694 9378
-1.528 2.726 1.682 7019
-1.527 2.724 1.669 6094
-1.532 2.734 1.664 5346
-1.555 2.775 1.676 6202
-1.571 2.804 1.681 5901
-1.577 2.814 1.675 9852
-1.579 2.818 1.666 11814
-1.581 2.822 1.656 10367
-1.584 2.825 1.647 6687
-1.631 2.911 1.682 5584
-1.633 2.914 1.672 4741
-1.639 2.925 1.666 4839
-1.691 3.016 1.702 4520
-1.700 3.033 1.699 4956
-1.706 3.043 1.692 3484
-1.715 3.060 1.689 3259
-1.714 3.057 1.675 4196
-1.776 3.169 1.720 5488
-1.778 3.173 1.709 8259
-1.788 3.189 1.705 8750
-1.804 3.219 1.707 8790
-1.817 3.242 1.706 7797
-1.823 3.252 1.698 6941
-1.828 3.262 1.690 6273
-1.831 3.266 1.680 6638
-1.833 3.270 1.669 6528
-1.846 3.293 1.667 6210
-1.844 3.291 1.653 5440
-1.839 3.282 1.636 3529
-1.881 3.356 1.658 3465
-1.908 3.405 1.667 5207
-1.910 3.409 1.656 7835
-1.913 3.413 1.645 6729
-2.005 3.577 1.705 5196
-2.000 3.568 1.687 5660
-1.995 3.559 1.670 6047
-2.001 3.570 1.661 5629
-2.050 3.658 1.685 5597
-2.041 3.642 1.665 5025
-2.040 3.640 1.650 3799
-2.046 3.650 1.641 3057
-2.070 3.693 1.645 3881
-2.079 3.710 1.638 4903
-2.085 3.720 1.628 3529
-2.167 3.867 1.674 4266
-2.140 3.819 1.640 3689
-2.208 3.940 1.674 2840
-2.211 3.944 1.661 4684
-2.220 3.961 1.653 4528
-2.288 4.083 1.685 3892
-2.287 4.080 1.669 5218
-2.293 4.091 1.658 4595
-2.298 4.101 1.647 4219
-2.315 4.131 1.643 2941
-2.321 4.141 1.631 2274
-2.397 4.277 1.665 1777
-2.410 4.301 1.658 1653
-2.505 4.469 1.702 1744
-2.463 4.394 1.660 1599
-2.487 4.438 1.659 1988
-2.552 4.554 1.683 2131
-2.551 4.551 1.665 2970
-2.546 4.542 1.646 3766
-2.548 4.546 1.631 2900
-2.695 4.809 1.701 2670
-2.690 4.799 1.680 2833
-2.688 4.796 1.662 2527
-2.765 4.933 1.689 3573
-2.767 4.937 1.672 5504
-2.784 4.968 1.664 4425
-2.779 4.958 1.643 4500
-2.777 4.956 1.625 6076
-2.791 4.979 1.615 4470
-2.928 5.224 1.669 4195
-2.930 5.228 1.652 4074
-2.936 5.238 1.636 2971
-2.942 5.249 1.621 2285
-3.012 5.373 1.638 2234
-3.014 5.377 1.620 2859
-3.027 5.401 1.607 2356
-3.044 5.431 1.597 1467
-3.235 5.771 1.668 1691
-3.237 5.775 1.649 2770
-3.194 5.698 1.609 2508
-3.211 5.729 1.597 2109
-3.394 6.056 1.660 2328
-3.397 6.060 1.640 3666
-3.395 6.057 1.618 2926
-3.477 6.203 1.632 1970
-3.479 6.207 1.612 2526
-3.723 6.643 1.693 2029
-3.726 6.647 1.671 1999
-3.792 6.766 1.675 2577
-3.794 6.770 1.653 2648
-3.736 6.666 1.606 2178
-3.985 7.110 1.680 2155
-3.972 7.087 1.651 2184
-4.244 7.573 1.729 1699
-4.254 7.591 1.707 1595
-4.260 7.601 1.683 1839
-4.259 7.598 1.656 1499
-4.249 7.582 1.627 1724
-4.606 8.219 1.724 2230
-4.612 8.230 1.698 4356
-4.615 8.234 1.671 6144
-4.609 8.224 1.641 6055
-4.611 8.228 1.613 5835
-4.617 8.238 1.587 6049
-4.619 8.242 1.560 5604
-4.625 8.252 1.534 4989
-4.627 8.256 1.506 4283
-4.629 8.259 1.479 2629
-4.631 8.263 1.451 1062
-4.637 8.273 1.425 486
-4.635 8.269 1.396 405
-1.124 2.012 1.797 2009
-1.127 2.016 1.791 4019
-1.129 2.020 1.784 4019
-1.135 2.030 1.782 4340
-1.140 2.040 1.780 4756
-1.136 2.033 1.764 4285
-1.135 2.031 1.753 4071
-1.138 2.036 1.746 4071
-1.140 2.040 1.740 4297
-1.142 2.044 1.733 4523
-1.154 2.065 1.740 5017
-1.156 2.069 1.733 5797
-1.165 2.084 1.735 4647
-1.205 2.157 1.782 5147
-1.211 2.167 1.779 5226
-1.213 2.171 1.772 4970
-1.203 2.152 1.747 4732
-1.211 2.168 1.749 5695
-1.214 2.172 1.742 6721
-1.219 2.182 1.739 6439
-1.221 2.186 1.732 6160
-1.217 2.178 1.716 5044
-1.216 2.176 1.705 4168
-1.251 2.239 1.740 4523
-1.253 2.243 1.733 5758
-1.252 2.241 1.721 8910
-1.251 2.239 1.710 12108
-1.257 2.249 1.707 11684
-1.262 2.259 1.703 11332
-1.274 2.281 1.709 8743
-1.280 2.290 1.705 7794
-1.302 2.330 1.722 6451
-1.308 2.340 1.719 6739
-1.310 2.344 1.711 5722
-1.312 2.348 1.703 4063
-1.331 2.382 1.716 3348
-1.333 2.386 1.708 5148
-1.332 2.384 1.696 6440
-1.354 2.423 1.712 7198
-1.360 2.433 1.708 10495
-1.362 2.437 1.700 10492
-1.361 2.435 1.688 10748
-1.363 2.439 1.680 8013
-1.379 2.467 1.688 3601
-1.388 2.483 1.687 2724
-1.393 2.493 1.683 3274
-1.396 2.497 1.675 3903
-1.408 2.519 1.678 4789
-1.420 2.542 1.681 7993
-1.426 2.552 1.676 10068
-1.431 2.562 1.671 8581
-1.461 2.614 1.693 7807
-1.463 2.618 1.684 9700
-1.469 2.628 1.679 8698
-1.478 2.645 1.678 6515
-1.518 2.716 1.709 10033
-1.520 2.720 1.700 11946
-1.522 2.724 1.691 11236
-1.524 2.728 1.682 8614
-1.520 2.720 1.666 7998
-1.515 2.711 1.650 6752
-1.555 2.783 1.679 6824
-1.568 2.806 1.681 6454
-1.574 2.816 1.675 9778
-1.576 2.820 1.666 11722
-1.581 2.830 1.660 10390
-1.636 2.927 1.701 6836
-1.631 2.919 1.685 5272
-1.675 2.998 1.715 5291
-1.674 2.996 1.702 5186
-1.683 3.012 1.699 5057
-1.696 3.035 1.699 4760
-1.702 3.045 1.692 3345
-1.757 3.144 1.731 2940
-1.766 3.161 1.727 3910
-1.772 3.171 1.720 6026
-1.774 3.175 1.709 9211
-1.783 3.192 1.705 9830
-1.800 3.221 1.707 8957
-1.813 3.244 1.706 8227
-1.819 3.254 1.698 7230
-1.821 3.258 1.687 6382
-1.827 3.269 1.680 7098
-1.829 3.272 1.669 7049
-1.842 3.296 1.667 6289
-1.840 3.293 1.653 5373
-1.835 3.284 1.636 3701
-1.870 3.346 1.652 2984
-1.900 3.401 1.664 3758
-1.906 3.411 1.656 5613
-1.912 3.421 1.648 5555
-2.001 3.580 1.705 4823
-1.999 3.577 1.690 4928
-1.991 3.562 1.670 5145
-1.993 3.566 1.658 4851
-2.045 3.660 1.685 5973
-2.040 3.651 1.668 5291
-2.039 3.649 1.653 3794
-2.041 3.653 1.641 3046
-2.069 3.702 1.648 4185
-2.074 3.712 1.638 5509
-2.080 3.723 1.628 4141
-2.163 3.870 1.674 4327
-2.132 3.815 1.637 3950
-2.207 3.949 1.676 2978
-2.206 3.947 1.661 4719
-2.211 3.957 1.650 4268
-2.283 4.086 1.685 3770
-2.282 4.083 1.669 5470
-2.280 4.080 1.653 4556
-2.290 4.097 1.644 3696
-2.310 4.134 1.643 2579
-2.316 4.144 1.631 2239
-2.359 4.221 1.644 1632
-2.401 4.297 1.656 1570
-2.433 4.354 1.660 1844
-2.450 4.384 1.655 1757
-2.489 4.454 1.663 2365
-2.539 4.544 1.678 2054
-2.545 4.555 1.665 3087
-2.544 4.552 1.648 3859
-2.542 4.549 1.631 3029
-2.685 4.805 1.698 2684
-2.684 4.803 1.680 2889
-2.675 4.786 1.658 2616
-2.755 4.930 1.686 3017
-2.765 4.947 1.674 4610
-2.767 4.951 1.658 3694
-2.765 4.949 1.639 4278
-2.771 4.959 1.625 5360
-2.792 4.996 1.619 3719
-2.921 5.227 1.669 4833
-2.927 5.238 1.654 3882
-2.937 5.255 1.640 2609
-2.939 5.259 1.623 2274
-3.024 5.411 1.647 2083
-3.011 5.387 1.622 2789
-3.016 5.398 1.606 2356
-3.165 5.664 1.659 1642
-3.227 5.776 1.668 1649
-3.230 5.779 1.649 2749
-3.228 5.776 1.628 2295
-3.215 5.753 1.602 2176
-3.277 5.865 1.610 2157
-3.389 6.065 1.640 3328
-3.387 6.062 1.618 2875
-3.473 6.214 1.634 2118
-3.471 6.211 1.612 2497
-3.715 6.648 1.693 2029
-3.592 6.428 1.619 1808
-3.784 6.771 1.675 2480
-3.786 6.775 1.653 2647
-3.727 6.670 1.606 2251
-3.980 7.122 1.682 2258
-3.963 7.092 1.651 1942
-4.231 7.571 1.727 1580
-4.241 7.589 1.705 1497
-4.247 7.600 1.681 1683
-4.245 7.597 1.655 1389
-4.240 7.587 1.627 1645
-4.330 7.748 1.632 1806
-4.602 8.235 1.698 3681
-4.604 8.239 1.671 5370
-4.599 8.230 1.641 5204
-4.601 8.233 1.613 5004
-4.607 8.244 1.587 5264
-4.609 8.248 1.560 4904
-4.615 8.258 1.534 4352
-4.617 8.262 1.506 3639
-4.619 8.265 1.479 2153
-4.621 8.268 1.451 875
-4.626 8.279 1.425 385
-4.628 8.282 1.397 312
-1.119 2.015 1.797 2060
-1.122 2.019 1.791 4120
-1.124 2.023 1.784 4120
-1.129 2.033 1.782 4385
-1.135 2.043 1.780 4783
-1.134 2.041 1.769 4277
-1.133 2.040 1.757 3877
-1.136 2.044 1.751 3877
-1.138 2.048 1.744 4442
-1.140 2.052 1.737 5008
-1.149 2.068 1.740 5487
-1.151 2.072 1.733 6086
-1.160 2.087 1.735 4750
-1.200 2.160 1.782 5040
-1.205 2.170 1.779 5121
-1.208 2.174 1.772 4873
-1.200 2.161 1.752 4595
-1.206 2.171 1.749 5618
-1.211 2.181 1.746 6661
-1.211 2.179 1.735 6504
-1.213 2.183 1.728 6354
-1.212 2.181 1.716 5274
-1.211 2.180 1.705 4364
-1.245 2.242 1.740 4603
-1.248 2.246 1.733 5340
-1.247 2.244 1.721 8216
-1.249 2.248 1.714 11212
-1.251 2.252 1.707 10978
-1.257 2.262 1.703 10784
-1.269 2.284 1.709 8109
-1.274 2.294 1.705 7091
-1.293 2.327 1.718 5993
-1.298 2.337 1.715 5888
-1.301 2.341 1.707 4911
-1.303 2.345 1.699 3460
-1.315 2.367 1.704 2650
-1.320 2.377 1.700 4647
-1.323 2.381 1.692 6472
-1.352 2.433 1.716 6631
-1.357 2.443 1.712 10230
-1.356 2.441 1.700 10268
-1.358 2.445 1.692 10477
-1.360 2.449 1.684 7924
-1.366 2.459 1.680 3573
-1.378 2.481 1.683 2434
-1.384 2.491 1.679 3247
-1.389 2.501 1.675 4184
-1.398 2.517 1.674 5042
-1.414 2.545 1.681 7845
-1.419 2.555 1.676 9837
-1.425 2.565 1.671 8316
-1.454 2.618 1.693 7833
-1.457 2.622 1.684 9725
-1.462 2.632 1.679 8590
-1.509 2.716 1.718 7296
-1.511 2.720 1.709 11159
-1.513 2.724 1.700 13395
-1.515 2.728 1.691 12691
-1.518 2.732 1.682 9751
-1.509 2.717 1.662 9396
-1.508 2.715 1.650 7986
-1.552 2.793 1.683 7233
-1.557 2.803 1.677 6813
-1.563 2.814 1.671 9491
-1.569 2.824 1.666 11277
-1.574 2.834 1.660 10139
-1.629 2.932 1.701 7181
-1.645 2.961 1.705 5509
-1.668 3.002 1.715 6257
-1.670 3.006 1.706 5978
-1.676 3.016 1.699 5538
-1.688 3.039 1.699 4535
-1.694 3.050 1.692 3394
-1.749 3.148 1.731 2984
-1.758 3.165 1.727 3975
-1.760 3.169 1.716 6211
-1.766 3.179 1.709 9761
-1.772 3.190 1.702 10789
-1.792 3.225 1.707 8766
-1.805 3.248 1.706 8324
-1.810 3.259 1.698 7404
-1.813 3.263 1.687 6581
-1.818 3.273 1.680 7415
-1.820 3.277 1.669 7022
-1.833 3.300 1.667 5830
-1.835 3.304 1.656 4778
-1.827 3.289 1.636 3450
-1.883 3.389 1.670 2773
-1.888 3.399 1.661 2980
-1.898 3.416 1.656 3968
-1.907 3.433 1.651 4675
-1.992 3.585 1.705 4103
-1.990 3.582 1.690 4038
-1.978 3.561 1.667 4635
-1.980 3.564 1.655 4512
-2.036 3.666 1.685 6083
-2.035 3.663 1.670 5347
-2.033 3.660 1.656 3790
-2.043 3.677 1.649 2990
-2.063 3.714 1.650 4492
-2.065 3.717 1.638 6120
-2.067 3.721 1.626 4803
-2.153 3.875 1.674 4547
-2.122 3.820 1.637 3929
-2.193 3.948 1.674 3111
-2.192 3.946 1.658 4745
-2.198 3.956 1.648 3990
-2.273 4.091 1.685 3680
-2.271 4.089 1.669 5599
-2.270 4.086 1.653 4426
-2.279 4.103 1.644 3178
-2.300 4.140 1.643 2183
-2.357 4.243 1.665 1996
-2.355 4.240 1.649 1849
-2.379 4.283 1.649 1705
-2.426 4.366 1.663 2302
-2.435 4.384 1.653 2084
-2.478 4.460 1.663 2809
-2.484 4.471 1.651 2483
-2.530 4.554 1.663 3029
-2.532 4.558 1.648 3798
-2.531 4.555 1.631 3036
-2.673 4.812 1.698 2669
-2.664 4.796 1.676 2845
-2.655 4.780 1.654 2835
-2.746 4.944 1.689 2501
-2.752 4.954 1.674 3579
-2.751 4.952 1.656 3365
-2.749 4.949 1.637 4141
-2.755 4.959 1.623 4536
-2.794 5.030 1.627 3508
-2.912 5.242 1.671 5061
-2.921 5.259 1.658 3866
-2.927 5.269 1.642 2346
-2.929 5.273 1.625 2095
-3.010 5.418 1.647 1892
-2.997 5.395 1.622 2521
-3.003 5.406 1.606 2140
-3.147 5.665 1.657 1822
-3.205 5.770 1.665 1591
-3.211 5.781 1.648 2566
-3.172 5.710 1.609 2250
-3.201 5.761 1.602 2112
-3.263 5.873 1.610 2227
-3.374 6.073 1.640 2728
-3.372 6.070 1.618 2658
-3.461 6.230 1.636 2364
-3.459 6.227 1.613 2552
-3.638 6.549 1.668 1971
-3.768 6.783 1.699 1805
-3.767 6.781 1.675 2457
-3.769 6.784 1.653 2663
-3.711 6.680 1.606 2216
-3.962 7.132 1.682 2236
-4.210 7.578 1.753 1886
-4.212 7.582 1.727 1552
-4.222 7.600 1.705 1412
-4.288 7.720 1.703 1563
-4.370 7.867 1.707 1623
-4.372 7.871 1.680 1599
-4.314 7.765 1.633 1769
-4.585 8.254 1.699 2892
-4.584 8.251 1.671 4336
-4.578 8.241 1.641 4032
-4.580 8.245 1.613 3854
-4.586 8.256 1.587 4180
-4.588 8.259 1.560 3924
-4.594 8.270 1.534 3454
-4.596 8.273 1.506 2823
-4.598 8.277 1.479 1620
-4.600 8.280 1.451 661
-4.605 8.290 1.425 283
-1.116 2.017 1.797 2021
-1.119 2.021 1.791 4043
-1.121 2.025 1.784 4043
-1.126 2.035 1.782 4212
-1.132 2.045 1.780 4530
-1.131 2.043 1.769 4134
-1.133 2.047 1.762 3782
-1.136 2.051 1.755 3782
-1.138 2.056 1.749 4672
-1.143 2.065 1.747 5583
-1.146 2.069 1.740 5906
-1.148 2.073 1.733 6229
-1.156 2.089 1.735 4748
-1.197 2.162 1.782 4832
-1.202 2.172 1.779 4906
-1.205 2.176 1.772 4698
-1.200 2.169 1.756 4428
-1.203 2.173 1.749 5474
-1.208 2.183 1.746 6535
-1.207 2.181 1.735 6486
-1.210 2.185 1.728 6465
-1.209 2.183 1.716 5479
-1.208 2.181 1.705 4577
-1.242 2.244 1.740 4786
-1.257 2.271 1.750 5149
-1.243 2.246 1.721 7429
-1.246 2.250 1.714 10075
-1.248 2.254 1.707 9979
-1.253 2.264 1.703 9920
-1.265 2.286 1.709 7343
-1.274 2.301 1.709 6536
-1.286 2.323 1.714 5723
-1.292 2.333 1.711 5275
-1.294 2.337 1.703 4304
-1.296 2.341 1.695 3107
-1.295 2.339 1.684 2815
-1.310 2.367 1.692 4741
-1.313 2.371 1.684 6891
-1.358 2.453 1.728 6482
-1.357 2.451 1.716 9868
-1.356 2.449 1.704 9989
-1.355 2.447 1.692 10226
-1.357 2.451 1.684 7907
-1.359 2.455 1.676 3894
-1.371 2.477 1.679 2441
-1.380 2.493 1.679 3382
-1.386 2.503 1.675 4572
-1.394 2.519 1.674 5405
-1.410 2.547 1.681 7605
-1.416 2.557 1.676 9508
-1.421 2.567 1.671 8021
-1.447 2.614 1.689 7734
-1.453 2.624 1.684 9443
-1.458 2.634 1.679 8164
-1.505 2.718 1.718 7723
-1.504 2.716 1.705 11772
-1.506 2.720 1.696 14246
-1.511 2.730 1.691 13645
-1.514 2.734 1.682 10656
-1.505 2.719 1.662 10573
-1.504 2.717 1.650 8801
-1.548 2.796 1.683 7216
-1.550 2.800 1.674 6921
-1.559 2.816 1.671 8974
-1.564 2.826 1.666 10515
-1.570 2.836 1.660 9665
-1.628 2.940 1.705 7774
-1.644 2.969 1.708 6361
-1.663 3.005 1.715 7052
-1.666 3.009 1.706 6478
-1.671 3.019 1.699 5695
-1.684 3.042 1.699 4188
-1.693 3.058 1.695 3357
-1.716 3.100 1.705 3131
-1.757 3.174 1.730 4075
-1.756 3.172 1.716 6324
-1.761 3.182 1.709 9964
-1.767 3.192 1.702 11156
-1.787 3.228 1.707 8257
-1.800 3.251 1.706 8188
-1.806 3.262 1.698 7455
-1.811 3.272 1.690 6797
-1.813 3.276 1.680 7726
-1.819 3.286 1.672 7091
-1.832 3.309 1.670 5358
-1.841 3.326 1.665 4287
-1.850 3.343 1.660 3166
-1.874 3.385 1.667 2952
-1.887 3.408 1.664 3422
-1.910 3.451 1.671 4253
-1.905 3.442 1.653 4267
-1.986 3.588 1.705 3148
-1.985 3.585 1.690 3264
-1.969 3.557 1.664 4723
-1.971 3.561 1.653 4636
-2.031 3.669 1.685 5973
-2.029 3.666 1.670 5297
-2.039 3.683 1.664 4070
-2.048 3.700 1.657 3576
-2.057 3.717 1.650 4613
-2.060 3.721 1.638 6446
-2.062 3.724 1.626 5269
-2.151 3.885 1.676 4480
-2.196 3.967 1.695 4195
-2.188 3.952 1.674 3319
-2.186 3.949 1.658 4779
-2.185 3.946 1.643 3923
-2.263 4.088 1.682 3804
-2.265 4.092 1.669 5457
-2.260 4.083 1.650 3915
-2.240 4.047 1.622 2813
-2.290 4.137 1.640 1792
-2.347 4.239 1.663 2484
-2.353 4.250 1.651 2302
-2.369 4.280 1.646 2123
-2.419 4.370 1.663 2415
-2.429 4.387 1.653 2360
-2.471 4.464 1.663 3161
-2.473 4.468 1.649 2706
-2.520 4.551 1.661 2945
-2.529 4.569 1.650 3517
-2.535 4.579 1.637 3008
-2.537 4.583 1.622 2732
-2.650 4.787 1.672 2718
-2.648 4.784 1.654 2856
-2.743 4.955 1.691 2240
-2.752 4.972 1.678 3085
-2.725 4.922 1.645 3011
-2.738 4.946 1.635 3766
-2.748 4.963 1.623 3708
-2.902 5.242 1.689 3333
-2.908 5.253 1.673 4849
-2.917 5.270 1.660 3895
-2.938 5.307 1.652 2427
-2.933 5.298 1.631 2029
-2.998 5.416 1.645 2191
-2.993 5.406 1.623 2438
-3.137 5.666 1.675 2017
-3.139 5.670 1.657 2122
-3.167 5.721 1.651 1389
-3.206 5.792 1.649 2055
-3.164 5.715 1.609 2016
-3.349 6.050 1.675 1827
-3.250 5.871 1.609 2333
-3.256 5.882 1.591 2411
-3.363 6.075 1.618 2329
-3.451 6.235 1.636 2424
-3.450 6.232 1.613 2639
-3.628 6.554 1.668 1884
-3.758 6.789 1.699 1887
-3.757 6.786 1.675 2387
-3.759 6.790 1.653 2635
-3.701 6.685 1.606 1972
-3.955 7.145 1.683 2170
-4.202 7.591 1.754 1839
-4.205 7.595 1.729 1650
-4.211 7.606 1.705 1470
-4.352 7.862 1.731 1640
-4.358 7.873 1.707 1862
-4.364 7.884 1.682 1657
-4.302 7.772 1.633 1645
-4.573 8.261 1.699 2029
-4.571 8.258 1.671 3111
-4.570 8.255 1.642 2810
-4.568 8.252 1.613 2670
-4.574 8.262 1.587 3012
-4.576 8.266 1.560 2887
-4.582 8.276 1.534 2553
-4.584 8.280 1.506 2034
-4.585 8.283 1.479 1104
-4.587 8.287 1.451 431
-1.111 2.019 1.797 1908
-1.114 2.024 1.791 3817
-1.116 2.028 1.784 3817
-1.121 2.038 1.782 3843
-1.127 2.047 1.780 4029
-1.132 2.057 1.778 3954
-1.141 2.073 1.780 4303
-1.143 2.077 1.774 4303
-1.142 2.075 1.762 5282
-1.141 2.074 1.751 6448
-1.140 2.072 1.740 6331
-1.143 2.076 1.733 6295
-1.148 2.086 1.731 4742
-1.191 2.165 1.782 4517
-1.194 2.169 1.775 4598
-1.196 2.173 1.768 4471
-1.195 2.172 1.756 4243
-1.200 2.181 1.753 5329
-1.203 2.186 1.746 6454
-1.205 2.190 1.739 6435
-1.201 2.182 1.723 6461
-1.203 2.186 1.716 5634
-1.234 2.243 1.748 5478
-1.236 2.247 1.740 5236
-1.252 2.274 1.750 5249
-1.241 2.255 1.726 6786
-1.240 2.253 1.714 8778
-1.242 2.257 1.707 8814
-1.248 2.267 1.703 8893
-1.263 2.295 1.713 6654
-1.272 2.311 1.713 6231
-1.277 2.321 1.710 5498
-1.279 2.325 1.702 4805
-1.281 2.329 1.695 3845
-1.287 2.338 1.691 2870
-1.289 2.342 1.684 3013
-1.301 2.364 1.688 5116
-1.303 2.368 1.680 7149
-1.305 2.372 1.672 6491
-1.354 2.460 1.720 9458
-1.353 2.458 1.708 9648
-1.352 2.456 1.696 9975
-1.351 2.454 1.684 7783
-1.353 2.458 1.676 4212
-1.355 2.462 1.668 2662
-1.370 2.490 1.675 3634
-1.379 2.506 1.675 4952
-1.388 2.522 1.674 5754
-1.404 2.551 1.681 7461
-1.409 2.561 1.676 9270
-1.415 2.571 1.671 7805
-1.441 2.618 1.689 7435
-1.443 2.622 1.680 8897
-1.448 2.632 1.675 7572
-1.498 2.722 1.718 8014
-1.497 2.720 1.705 12153
-1.499 2.724 1.696 14916
-1.501 2.728 1.687 14706
-1.507 2.738 1.682 11763
-1.499 2.723 1.662 11763
-1.497 2.721 1.650 9889
-1.499 2.725 1.641 7532
-1.543 2.803 1.674 7095
-1.548 2.814 1.668 8733
-1.554 2.824 1.662 9551
-1.563 2.840 1.660 8896
-1.620 2.944 1.705 8239
-1.640 2.980 1.712 7361
-1.656 3.009 1.715 7476
-1.661 3.019 1.709 6673
-1.664 3.023 1.699 5843
-1.614 2.932 1.640 4812
-1.616 2.936 1.630 3670
-1.708 3.105 1.705 3422
-1.749 3.178 1.730 4057
-1.748 3.176 1.716 6151
-1.750 3.180 1.706 9496
-1.756 3.190 1.699 10547
-1.779 3.233 1.707 7629
-1.795 3.262 1.709 7815
-1.797 3.266 1.698 7348
-1.803 3.276 1.690 6991
-1.805 3.280 1.680 7862
-1.811 3.291 1.672 7039
-1.834 3.333 1.679 4931
-1.843 3.350 1.674 4140
-1.846 3.354 1.663 3492
-1.862 3.383 1.664 3406
-1.882 3.420 1.667 4637
-1.898 3.449 1.668 5483
-1.900 3.453 1.656 4419
-1.910 3.470 1.651 3119
-1.962 3.564 1.679 3183
-1.957 3.555 1.662 5337
-1.959 3.559 1.650 5087
-2.022 3.674 1.685 5641
-2.024 3.678 1.673 5177
-2.037 3.701 1.669 4853
-2.039 3.705 1.657 4400
-2.048 3.722 1.650 4774
-2.050 3.726 1.638 6718
-2.052 3.729 1.626 5579
-2.144 3.897 1.679 4621
-2.186 3.973 1.695 4179
-2.178 3.957 1.674 3507
-2.173 3.948 1.656 4816
-2.175 3.952 1.643 3983
-2.253 4.094 1.682 3875
-2.255 4.098 1.669 5357
-2.246 4.082 1.648 3635
-2.230 4.053 1.622 2694
-2.338 4.248 1.679 1909
-2.336 4.245 1.663 2893
-2.346 4.262 1.653 2568
-2.359 4.286 1.646 2415
-2.361 4.290 1.632 2321
-2.461 4.473 1.680 2527
-2.460 4.470 1.663 3422
-2.499 4.541 1.671 2886
-2.504 4.551 1.659 3046
-2.518 4.575 1.650 3139
-2.523 4.585 1.637 3065
-2.525 4.589 1.622 2791
-2.539 4.613 1.614 3080
-2.636 4.790 1.654 2740
-2.642 4.801 1.640 2006
-2.743 4.985 1.681 3304
-2.716 4.936 1.648 3400
-2.722 4.946 1.633 3259
-2.739 4.977 1.625 2851
-2.889 5.249 1.689 3215
-2.898 5.267 1.675 4474
-2.904 5.277 1.660 3947
-2.925 5.315 1.652 2579
-2.997 5.446 1.671 2294
-2.981 5.417 1.643 2709
-2.979 5.414 1.623 2444
-3.122 5.674 1.675 2061
-3.124 5.678 1.657 2138
-3.052 5.547 1.602 1361
-3.196 5.807 1.651 1620
-3.149 5.723 1.609 1793
-3.230 5.869 1.626 1773
-3.232 5.873 1.607 2325
-3.241 5.890 1.591 2184
-3.348 6.083 1.618 1875
-3.439 6.250 1.637 2335
-3.438 6.247 1.615 2535
-3.616 6.570 1.669 1862
-3.737 6.792 1.698 1819
-3.736 6.789 1.674 2280
-3.738 6.793 1.651 2488
-3.684 6.694 1.606 1770
-3.941 7.161 1.685 2012
-4.183 7.602 1.754 1827
-4.185 7.606 1.729 1783
-4.188 7.610 1.704 1557
-4.333 7.873 1.731 1887
-4.339 7.884 1.707 2110
-4.345 7.895 1.682 1747
-4.286 7.789 1.634 1402
-4.285 7.786 1.607 1554
-4.554 8.276 1.672 1982
-4.553 8.273 1.643 1673
-4.551 8.270 1.615 1605
-4.553 8.274 1.587 1931
-4.555 8.277 1.560 1882
-4.561 8.288 1.534 1663
-4.563 8.291 1.506 1279
-4.565 8.295 1.479 645
-1.073 1.953 1.741 1875
-1.075 1.957 1.734 3751
-1.077 1.961 1.728 3751
-1.119 2.039 1.782 3256
-1.125 2.048 1.780 3256
-1.133 2.064 1.783 3893
-1.139 2.074 1.780 4904
-1.141 2.078 1.774 4904
-1.140 2.076 1.762 6025
-1.142 2.081 1.756 7328
-1.142 2.079 1.744 6740
-1.141 2.077 1.733 6270
-1.146 2.087 1.731 4705
-1.161 2.114 1.742 4221
-1.192 2.170 1.775 4271
-1.194 2.174 1.768 4222
-1.193 2.173 1.756 4050
-1.198 2.183 1.753 5164
-1.201 2.187 1.746 6344
-1.203 2.191 1.739 6315
-1.199 2.183 1.723 6316
-1.223 2.228 1.746 5846
-1.232 2.244 1.748 6252
-1.234 2.248 1.740 5705
-1.246 2.270 1.746 5341
-1.239 2.256 1.726 6212
-1.238 2.254 1.714 7380
-1.240 2.258 1.707 7477
-1.245 2.268 1.703 7587
-1.267 2.308 1.721 6003
-1.273 2.318 1.718 5953
-1.272 2.316 1.706 5333
-1.274 2.320 1.698 4728
-1.276 2.324 1.691 3605
-1.281 2.334 1.687 2731
-1.290 2.350 1.688 3126
-1.299 2.366 1.688 5294
-1.301 2.369 1.680 6957
-1.303 2.373 1.672 6450
-1.352 2.462 1.720 9103
-1.350 2.460 1.708 9241
-1.353 2.464 1.700 9490
-1.352 2.462 1.688 7488
-1.350 2.459 1.676 4288
-1.413 2.573 1.737 2924
-1.368 2.492 1.675 3870
-1.380 2.514 1.678 5305
-1.386 2.524 1.674 5998
-1.401 2.552 1.681 6914
-1.407 2.562 1.676 8462
-1.412 2.572 1.671 7186
-1.435 2.613 1.685 7122
-1.440 2.623 1.680 8424
-1.442 2.627 1.672 6988
-1.495 2.723 1.718 8059
-1.494 2.721 1.705 12180
-1.496 2.725 1.696 15051
-1.499 2.729 1.687 14984
-1.504 2.739 1.682 12079
-1.496 2.725 1.662 11961
-1.495 2.722 1.650 10218
-1.497 2.726 1.641 7948
-1.537 2.799 1.670 7450
-1.546 2.815 1.668 8885
-1.551 2.825 1.662 8761
-1.612 2.936 1.711 8255
-1.617 2.946 1.705 8458
-1.637 2.981 1.712 8052
-1.653 3.010 1.715 7450
-1.596 2.907 1.649 6888
-1.605 2.924 1.646 6552
-1.614 2.940 1.643 6024
-1.617 2.944 1.633 4342
-1.706 3.106 1.705 3489
-1.708 3.110 1.695 4161
-1.741 3.171 1.713 5698
-1.747 3.182 1.706 8393
-1.753 3.192 1.699 9256
-1.776 3.234 1.707 7000
-1.792 3.264 1.709 7478
-1.794 3.268 1.698 7266
-1.800 3.278 1.690 7178
-1.802 3.282 1.680 7810
-1.811 3.299 1.675 6898
-1.828 3.328 1.676 4580
-1.837 3.345 1.671 4165
-1.842 3.356 1.663 3879
-1.855 3.379 1.661 3888
-1.886 3.434 1.673 5501
-1.895 3.451 1.668 6293
-1.897 3.455 1.656 4857
-1.903 3.465 1.648 3728
-1.955 3.560 1.676 3489
-1.953 3.557 1.662 5854
-1.955 3.561 1.650 5432
-2.018 3.676 1.685 4899
-2.020 3.679 1.673 4719
-2.033 3.703 1.669 5839
-2.035 3.707 1.657 5129
-2.041 3.717 1.648 4687
-2.047 3.728 1.638 6693
-2.049 3.731 1.626 5597
-2.144 3.905 1.681 4723
-2.179 3.968 1.692 3948
-2.174 3.959 1.674 3551
-2.169 3.950 1.656 4632
-2.171 3.954 1.643 3987
-2.242 4.083 1.677 3738
-2.251 4.100 1.669 4800
-2.224 4.051 1.636 3712
-2.226 4.055 1.622 2558
-2.334 4.250 1.679 2183
-2.329 4.241 1.660 3226
-2.342 4.265 1.653 2827
-2.358 4.295 1.649 2769
-2.360 4.299 1.635 2825
-2.464 4.489 1.685 2768
-2.459 4.479 1.666 3531
-2.494 4.543 1.671 3119
-2.500 4.553 1.659 3145
-2.517 4.584 1.652 3114
-2.519 4.588 1.637 3195
-2.543 4.632 1.635 2726
-2.538 4.622 1.616 3156
-2.632 4.793 1.654 2593
-2.637 4.803 1.640 2133
-2.698 4.914 1.658 3736
-2.712 4.938 1.648 4026
-2.714 4.942 1.631 3020
-2.753 5.013 1.635 2751
-2.876 5.238 1.685 2757
-2.901 5.283 1.679 3822
-2.906 5.293 1.664 3895
-2.920 5.317 1.652 2981
-2.985 5.436 1.667 2886
-2.976 5.419 1.643 3296
-3.052 5.558 1.663 2523
-3.050 5.555 1.642 2384
-3.119 5.681 1.657 2007
-3.051 5.556 1.604 1454
-3.257 5.932 1.683 1387
-3.244 5.909 1.656 1777
-3.228 5.879 1.628 1900
-3.222 5.869 1.605 2339
-3.232 5.886 1.589 2034
-3.379 6.155 1.635 1782
-3.434 6.253 1.637 2112
-3.436 6.257 1.617 2288
-3.609 6.574 1.669 1721
-3.731 6.795 1.698 1676
-3.763 6.854 1.688 2165
-3.732 6.796 1.651 2319
-3.771 6.868 1.644 1750
-3.942 7.179 1.688 1841
-4.176 7.606 1.754 1819
-4.182 7.617 1.730 1936
-4.034 7.347 1.649 1648
-4.325 7.877 1.731 1962
-4.331 7.888 1.707 2198
-4.337 7.899 1.682 1746
-4.283 7.800 1.636 1171
-4.281 7.797 1.609 1200
-4.546 8.280 1.672 1015
-4.549 8.284 1.645 749
-4.547 8.281 1.616 717
-4.549 8.285 1.589 999
-4.551 8.289 1.561 1041
-4.549 8.285 1.532 932
-4.555 8.296 1.506 690
-4.557 8.299 1.479 314
-1.068 1.956 1.741 2090
-1.070 1.960 1.734 4181
-1.072 1.964 1.728 4181
-1.074 1.968 1.722 3515
-1.064 1.950 1.697 3354
-1.131 2.072 1.787 3886
-1.133 2.077 1.780 5471
-1.136 2.081 1.774 5471
-1.138 2.085 1.767 6760
-1.137 2.084 1.756 8250
-1.136 2.082 1.744 7143
-1.135 2.080 1.733 6186
-1.144 2.096 1.735 4671
-1.156 2.117 1.742 4046
-1.186 2.173 1.775 3988
-1.188 2.177 1.768 4016
-1.187 2.176 1.756 3924
-1.193 2.186 1.753 5053
-1.198 2.196 1.751 6357
-1.201 2.200 1.744 6274
-1.206 2.210 1.741 6244
-1.221 2.237 1.751 6664
-1.226 2.247 1.748 7326
-1.229 2.251 1.740 6454
-1.234 2.261 1.737 5715
-1.233 2.259 1.726 5521
-1.232 2.257 1.714 5482
-1.238 2.267 1.711 5648
-1.240 2.271 1.703 5836
-1.261 2.311 1.721 5478
-1.264 2.315 1.713 5760
-1.266 2.319 1.706 5221
-1.268 2.323 1.698 4683
-1.270 2.327 1.691 3428
-1.334 2.444 1.760 2895
-1.291 2.365 1.696 3659
-1.293 2.369 1.688 5376
-1.292 2.367 1.676 6588
-1.340 2.455 1.724 6220
-1.345 2.465 1.720 8662
-1.348 2.469 1.712 8760
-1.346 2.467 1.700 8940
-1.345 2.465 1.688 6951
-1.344 2.463 1.676 4122
-1.403 2.570 1.733 3557
-1.402 2.568 1.721 3926
-1.374 2.517 1.678 5228
-1.376 2.521 1.670 5892
-1.395 2.556 1.681 6394
-1.400 2.566 1.676 7650
-1.409 2.582 1.675 6661
-1.428 2.617 1.685 6801
-1.430 2.621 1.677 7857
-1.436 2.631 1.672 6471
-1.488 2.727 1.718 7902
-1.491 2.731 1.709 11754
-1.489 2.729 1.696 14614
-1.492 2.733 1.687 14754
-1.497 2.743 1.682 12060
-1.489 2.728 1.662 11797
-1.491 2.732 1.653 10370
-1.493 2.736 1.645 8418
-1.526 2.796 1.667 7993
-1.539 2.819 1.668 9207
-1.544 2.829 1.662 8032
-1.604 2.940 1.711 8594
-1.610 2.950 1.705 8848
-1.629 2.985 1.712 8659
-1.642 3.008 1.712 7455
-1.589 2.911 1.649 7889
-1.598 2.928 1.646 7740
-1.607 2.944 1.643 7199
-1.609 2.948 1.633 4779
-1.701 3.117 1.708 3523
-1.707 3.127 1.701 4337
-1.730 3.169 1.710 5151
-1.739 3.186 1.706 6952
-1.741 3.190 1.695 7686
-1.771 3.245 1.710 6402
-1.784 3.268 1.709 7241
-1.786 3.272 1.698 7214
-1.792 3.283 1.690 7320
-1.797 3.293 1.683 7792
-1.803 3.303 1.675 6971
-1.816 3.327 1.673 4583
-1.825 3.343 1.668 4280
-1.830 3.354 1.660 4344
-1.836 3.364 1.652 4372
-1.873 3.433 1.670 6299
-1.886 3.456 1.668 6824
-1.888 3.460 1.656 5292
-1.894 3.470 1.648 4386
-1.946 3.565 1.676 3726
-1.944 3.562 1.662 6195
-1.943 3.560 1.647 5683
-1.952 3.576 1.641 4166
-2.022 3.704 1.681 4505
-2.024 3.708 1.669 6609
-2.026 3.712 1.657 5737
-2.032 3.722 1.648 4643
-2.037 3.733 1.638 6543
-2.039 3.737 1.626 5380
-2.138 3.917 1.684 4647
-2.165 3.967 1.689 3437
-2.164 3.965 1.674 3359
-2.162 3.962 1.658 4252
-2.161 3.959 1.643 3977
-2.206 4.042 1.660 3494
-2.241 4.106 1.669 4139
-2.214 4.057 1.636 3820
-2.216 4.060 1.622 2397
-2.319 4.249 1.677 2582
-2.318 4.247 1.660 3503
-2.334 4.277 1.656 2958
-2.351 4.308 1.651 3262
-2.353 4.311 1.637 3487
-2.453 4.495 1.685 2845
-2.444 4.479 1.663 3465
-2.487 4.556 1.674 3228
-2.489 4.560 1.659 3129
-2.509 4.597 1.655 3248
-2.507 4.594 1.637 3275
-2.506 4.591 1.620 2552
-2.530 4.635 1.618 3087
-2.547 4.666 1.611 2590
-2.688 4.924 1.676 2663
-2.690 4.928 1.660 4696
-2.699 4.945 1.648 4226
-2.698 4.942 1.629 3038
-2.729 5.000 1.629 3544
-2.793 5.118 1.647 2510
-2.891 5.297 1.681 3231
-2.897 5.307 1.666 3753
-2.903 5.318 1.650 3103
-2.967 5.437 1.665 3338
-2.962 5.427 1.643 3619
-3.034 5.559 1.661 2924
-3.036 5.563 1.642 2646
-3.105 5.689 1.657 1875
-3.037 5.564 1.604 1611
-3.231 5.920 1.678 1674
-3.226 5.910 1.655 2116
-3.220 5.900 1.632 1939
-3.208 5.877 1.605 2161
-3.221 5.901 1.591 1815
-3.367 6.170 1.636 1997
-3.370 6.174 1.616 2009
-3.420 6.266 1.617 2057
-3.597 6.589 1.671 1567
-3.535 6.478 1.622 1788
-3.750 6.870 1.689 2252
-3.755 6.881 1.668 2431
-3.754 6.878 1.644 1948
-3.927 7.195 1.689 1742
-4.161 7.623 1.756 1772
-4.163 7.627 1.730 2004
-4.016 7.358 1.649 1747
-4.305 7.888 1.731 1845
-4.311 7.899 1.707 2144
-4.317 7.910 1.682 1708
-4.271 7.825 1.638 996
-4.273 7.829 1.613 997
-4.279 7.839 1.588 772
-4.408 8.076 1.605 676
-4.432 8.121 1.585 551
-4.532 8.303 1.590 461
-4.530 8.300 1.561 528
-4.528 8.297 1.532 478
-4.530 8.300 1.505 344
-1.063 1.959 1.741 2309
-1.065 1.963 1.734 4619
-1.067 1.967 1.728 4619
-1.069 1.971 1.722 3862
-1.059 1.952 1.697 3624
-1.126 2.075 1.787 3919
-1.128 2.080 1.780 5931
-1.131 2.084 1.774 5931
-1.133 2.088 1.767 7360
-1.132 2.086 1.756 8952
-1.134 2.090 1.749 7443
-1.133 2.089 1.738 6043
-1.142 2.104 1.740 4706
-1.153 2.126 1.746 3918
-1.177 2.170 1.770 3916
-1.180 2.174 1.763 4002
-1.179 2.173 1.752 3976
-1.187 2.189 1.753 5008
-1.193 2.199 1.751 6450
-1.198 2.208 1.748 6303
-1.216 2.242 1.762 6591
-1.219 2.246 1.755 7390
-1.218 2.244 1.743 8196
-1.223 2.254 1.740 7025
-1.228 2.264 1.737 6007
-1.231 2.268 1.730 4997
-1.230 2.266 1.718 4004
-1.232 2.270 1.711 4129
-1.253 2.310 1.728 4285
-1.255 2.314 1.721 4963
-1.258 2.318 1.713 5641
-1.260 2.322 1.706 5127
-1.259 2.320 1.694 4631
-1.264 2.330 1.691 3218
-1.325 2.442 1.756 3253
-1.288 2.374 1.700 4366
-1.287 2.372 1.688 5392
-1.286 2.370 1.676 6104
-1.327 2.446 1.716 6113
-1.339 2.468 1.720 8128
-1.341 2.472 1.712 8153
-1.344 2.476 1.704 8178
-1.342 2.474 1.692 6215
-1.338 2.466 1.676 3765
-1.396 2.574 1.733 3893
-1.395 2.572 1.721 4189
-1.364 2.515 1.675 5056
-1.370 2.525 1.670 5699
-1.392 2.565 1.684 6079
-1.397 2.575 1.680 7312
-1.403 2.585 1.675 6580
-1.418 2.614 1.682 6570
-1.424 2.624 1.677 7316
-1.426 2.628 1.668 5986
-1.482 2.731 1.718 7743
-1.484 2.735 1.709 11235
-1.483 2.733 1.696 13999
-1.485 2.737 1.687 14262
-1.490 2.747 1.682 11696
-1.482 2.732 1.662 11110
-1.484 2.736 1.653 10118
-1.490 2.746 1.648 8889
-1.516 2.794 1.663 8318
-1.531 2.823 1.668 9182
-1.581 2.914 1.707 7753
-1.597 2.944 1.711 8852
-1.603 2.954 1.705 9219
-1.618 2.983 1.708 9168
-1.634 3.012 1.712 7190
-1.582 2.915 1.649 8051
-1.591 2.932 1.646 7765
-1.600 2.948 1.643 7571
-1.605 2.959 1.637 5258
-1.704 3.140 1.718 3708
-1.702 3.138 1.704 4685
-1.708 3.148 1.697 5090
-1.676 3.088 1.655 6370
-1.733 3.194 1.695 6008
-1.766 3.256 1.713 5646
-1.776 3.273 1.709 7016
-1.781 3.283 1.701 7328
-1.783 3.287 1.690 7610
-1.789 3.298 1.683 8041
-1.795 3.308 1.675 7370
-1.800 3.318 1.667 5021
-1.813 3.342 1.665 4595
-1.822 3.358 1.660 4820
-1.824 3.362 1.649 4966
-1.865 3.437 1.670 6614
-1.874 3.454 1.665 6990
-1.880 3.464 1.656 5587
-1.885 3.475 1.648 4984
-1.894 3.492 1.642 4274
-1.935 3.567 1.662 6292
-1.934 3.564 1.647 5788
-1.943 3.581 1.641 3943
-2.012 3.709 1.681 4450
-2.018 3.720 1.672 7205
-2.017 3.717 1.657 6193
-2.022 3.727 1.648 4492
-2.028 3.738 1.638 5892
-2.091 3.853 1.671 4780
-2.125 3.916 1.681 4798
-2.134 3.933 1.674 3262
-2.154 3.970 1.674 3093
-2.156 3.974 1.661 3870
-2.155 3.971 1.645 3908
-2.196 4.048 1.660 3227
-2.202 4.058 1.649 3813
-2.204 4.062 1.636 3687
-2.278 4.198 1.671 2905
-2.309 4.255 1.677 2799
-2.307 4.253 1.660 3570
-2.324 4.283 1.656 3036
-2.340 4.313 1.651 3752
-2.346 4.324 1.639 4157
-2.435 4.488 1.680 2860
-2.430 4.478 1.661 3554
-2.475 4.562 1.674 3260
-2.477 4.566 1.659 3173
-2.501 4.610 1.657 3402
-2.496 4.600 1.637 3475
-2.498 4.604 1.622 2602
-2.518 4.642 1.618 2881
-2.611 4.813 1.656 2645
-2.675 4.931 1.676 2963
-2.685 4.948 1.664 5441
