-1.033 3.718 1.714 5077
-1.034 3.722 1.703 3816
-1.033 3.719 1.689 4490
-1.034 3.724 1.678 6196
-1.037 3.735 1.670 5867
-1.039 3.740 1.659 7065
-1.040 3.744 1.647 8505
-1.041 3.748 1.636 7310
-1.046 3.766 1.631 7503
-1.045 3.763 1.617 7161
-1.042 3.753 1.600 5504
-1.123 4.043 1.700 7411
-1.126 4.054 1.691 6072
-1.137 4.095 1.692 4697
-1.156 4.163 1.705 6832
-1.160 4.175 1.695 6937
-1.167 4.201 1.690 6020
-1.170 4.212 1.681 4199
-1.163 4.188 1.657 3235
-1.166 4.199 1.647 2503
-1.264 4.550 1.759 2909
-1.265 4.554 1.746 4457
-1.272 4.580 1.740 3976
-1.277 4.599 1.731 3519
-1.271 4.575 1.707 3741
-1.272 4.579 1.694 3008
-1.283 4.620 1.692 2475
-1.284 4.624 1.678 3363
-1.332 4.795 1.720 2812
-1.339 4.822 1.713 2985
-1.346 4.848 1.706 3108
-1.348 4.852 1.691 2680
-1.373 4.944 1.705 2189
-1.397 5.029 1.715 2924
-1.400 5.040 1.702 2909
-1.438 5.176 1.728 2235
-1.445 5.203 1.719 2287
-1.450 5.222 1.708 2120
-1.474 5.307 1.716 2589
-1.479 5.326 1.705 3832
-1.482 5.338 1.691 3134
-1.512 5.445 1.705 4010
-1.544 5.559 1.720 4783
-1.547 5.571 1.706 6100
-1.565 5.635 1.705 5498
-1.566 5.639 1.688 5476
-1.553 5.592 1.657 4561
-1.583 5.699 1.669 3324
-1.586 5.711 1.653 2284
-1.698 6.114 1.742 2672
-1.699 6.119 1.723 2524
-1.684 6.064 1.690 2837
-1.749 6.298 1.730 2558
-1.752 6.310 1.713 3445
-1.756 6.322 1.696 3035
-1.786 6.430 1.702 1788
-1.797 6.471 1.692 1474
-1.836 6.610 1.704 1686
-1.854 6.673 1.698 1423
-1.861 6.700 1.684 1240
-1.868 6.727 1.668 1495
-1.907 6.865 1.679 3481
-1.908 6.870 1.658 4419
-1.909 6.874 1.637 2975
-2.043 7.356 1.720 4479
-2.042 7.353 1.696 6412
-2.043 7.357 1.674 7021
-2.045 7.361 1.652 5769
-2.046 7.366 1.630 4195
-2.051 7.385 1.611 2787
-2.052 7.389 1.588 1906
-2.334 8.405 1.763 2548
-2.336 8.410 1.738 3251
-2.333 8.399 1.709 3450
-2.328 8.381 1.680 4155
-2.327 8.378 1.653 4522
-2.332 8.397 1.631 2889
-2.342 8.431 1.611 2018
-2.506 9.022 1.686 1449
-2.503 9.012 1.657 1215
-2.504 9.016 1.630 831
-2.503 9.012 1.601 465
-0.190 0.683 0.077 255
-0.588 2.163 1.750 3878
-0.589 2.167 1.744 7756
-0.591 2.172 1.737 7756
-0.593 2.182 1.736 7695
-0.596 2.193 1.734 7915
-0.618 2.272 1.783 6995
-0.619 2.277 1.776 6741
-0.620 2.281 1.769 6741
-0.625 2.298 1.771 6235
-0.631 2.322 1.778 7134
-0.634 2.333 1.776 6690
-0.637 2.344 1.773 6499
-0.639 2.348 1.766 10099
-0.640 2.353 1.760 13698
-0.641 2.357 1.753 14227
-0.642 2.362 1.746 14735
-0.642 2.360 1.734 14716
-0.643 2.364 1.727 10148
-0.660 2.426 1.759 6861
-0.661 2.431 1.752 8324
-0.664 2.442 1.749 9891
-0.667 2.453 1.746 9850
-0.670 2.464 1.743 10304
-0.669 2.462 1.732 10350
-0.667 2.453 1.716 11024
-0.668 2.458 1.709 9459
-0.670 2.462 1.701 7894
-0.676 2.486 1.707 7784
-0.679 2.497 1.703 8454
-0.678 2.495 1.692 7040
-0.680 2.499 1.685 5773
-0.700 2.575 1.722 5118
-0.696 2.560 1.702 5026
-0.697 2.565 1.695 5046
-0.715 2.628 1.724 4981
-0.727 2.672 1.740 5488
-0.728 2.677 1.732 9343
-0.727 2.674 1.720 11550
-0.730 2.686 1.716 9889
-0.733 2.697 1.712 8335
-0.734 2.701 1.704 5833
-0.756 2.779 1.739 4468
-0.744 2.736 1.703 4315
-0.747 2.747 1.699 5603
-0.750 2.759 1.695 6326
-0.753 2.770 1.690 4786
-0.758 2.787 1.690 3492
-0.801 2.946 1.768 4816
-0.804 2.957 1.763 6981
-0.805 2.962 1.755 7274
-0.807 2.967 1.746 6401
-0.813 2.991 1.748 7240
-0.815 2.996 1.739 8692
-0.816 3.000 1.730 8622
-0.815 2.998 1.718 6377
-0.809 2.975 1.694 5299
-0.834 3.068 1.732 6174
-0.836 3.073 1.723 8782
-0.837 3.077 1.714 9813
-0.840 3.088 1.708 8605
-0.845 3.106 1.706 7078
-0.852 3.131 1.707 7615
-0.855 3.143 1.701 9250
-0.858 3.154 1.696 9840
-0.876 3.220 1.717 6691
-0.877 3.225 1.707 8243
-0.878 3.229 1.698 6657
-0.887 3.261 1.702 5577
-0.886 3.259 1.689 4971
-0.887 3.263 1.679 3957
-0.947 3.482 1.772 4027
-0.950 3.494 1.764 6600
-0.959 3.526 1.767 8059
-0.962 3.538 1.760 8997
-0.965 3.549 1.753 6620
-0.966 3.554 1.742 3250
-0.991 3.642 1.769 3075
-0.988 3.633 1.752 5625
-0.985 3.624 1.735 9632
-0.987 3.628 1.724 8488
-1.005 3.696 1.741 7681
-1.004 3.693 1.727 7558
-1.006 3.698 1.716 6633
-1.012 3.723 1.714 5126
-1.016 3.735 1.706 3758
-1.013 3.725 1.689 4226
-1.014 3.729 1.678 5928
-1.017 3.741 1.670 5834
-1.020 3.752 1.661 7421
-1.020 3.749 1.647 8994
-1.021 3.754 1.636 7626
-1.026 3.772 1.631 7679
-1.025 3.769 1.617 7456
-1.022 3.759 1.600 5866
-1.101 4.049 1.700 7095
-1.104 4.061 1.691 5856
-1.117 4.108 1.695 4648
-1.134 4.170 1.705 6919
-1.137 4.181 1.695 6912
-1.144 4.207 1.690 6041
-1.147 4.219 1.681 4326
-1.141 4.194 1.657 3426
-1.144 4.206 1.647 2675
-1.239 4.556 1.759 2962
-1.240 4.561 1.746 4544
-1.247 4.587 1.740 4149
-1.251 4.599 1.729 3427
-1.246 4.581 1.707 3679
-1.247 4.586 1.694 3098
-1.256 4.619 1.690 2527
-1.259 4.631 1.678 3366
-1.304 4.795 1.718 2694
-1.313 4.829 1.713 3046
-1.320 4.855 1.706 3330
-1.321 4.859 1.691 2870
-1.346 4.951 1.705 2158
-1.369 5.036 1.715 2852
-1.373 5.048 1.702 2826
-1.410 5.184 1.728 2152
-1.419 5.218 1.721 2246
-1.422 5.230 1.708 2084
-1.445 5.315 1.716 2692
-1.450 5.334 1.705 4058
-1.454 5.346 1.691 3253
-1.483 5.453 1.705 4016
-1.514 5.568 1.720 4605
-1.517 5.579 1.706 5730
-1.536 5.650 1.707 5701
-1.536 5.647 1.688 5637
-1.523 5.600 1.657 4423
-1.578 5.804 1.695 3230
-1.557 5.727 1.655 2149
-1.665 6.123 1.742 2530
-1.620 5.957 1.679 2529
-1.653 6.080 1.692 2782
-1.713 6.300 1.728 2513
-1.718 6.319 1.713 3330
-1.722 6.331 1.696 2949
-1.751 6.439 1.702 1720
-1.762 6.481 1.692 1449
-1.800 6.619 1.704 1733
-1.815 6.676 1.697 1507
-1.823 6.703 1.682 1314
-1.832 6.737 1.668 1435
-1.870 6.875 1.679 3101
-1.871 6.880 1.658 3951
-2.002 7.362 1.742 2748
-2.003 7.367 1.720 4328
-2.002 7.364 1.696 6123
-2.004 7.368 1.674 6666
-2.005 7.372 1.652 5472
-2.006 7.377 1.630 3940
-2.011 7.396 1.611 2584
-2.012 7.400 1.588 1793
-2.289 8.418 1.763 2594
-2.290 8.422 1.738 3320
-2.287 8.412 1.709 3450
-2.282 8.393 1.680 4161
-2.282 8.390 1.653 4540
-2.289 8.417 1.632 2930
-2.296 8.444 1.611 2025
-2.457 9.036 1.686 1439
-2.454 9.025 1.657 1194
-2.455 9.029 1.630 821
-2.454 9.026 1.601 462
-2.357 8.667 1.516 251
-0.588 2.163 1.750 3957
-0.589 2.167 1.744 7915
-0.590 2.172 1.737 7915
-0.593 2.182 1.736 7837
-0.596 2.193 1.734 8044
-0.618 2.272 1.783 7073
-0.619 2.277 1.776 6837
-0.620 2.281 1.769 6837
-0.625 2.298 1.771 6363
-0.631 2.322 1.778 7308
-0.634 2.333 1.776 6886
-0.637 2.344 1.773 6701
-0.638 2.348 1.766 10382
-0.640 2.353 1.760 14062
-0.641 2.357 1.753 14527
-0.642 2.362 1.746 14955
-0.642 2.360 1.734 14927
-0.643 2.365 1.727 10262
-0.660 2.426 1.759 6804
-0.663 2.437 1.757 8386
-0.664 2.442 1.749 10046
-0.667 2.453 1.746 10016
-0.670 2.464 1.743 10570
-0.669 2.462 1.732 10571
-0.667 2.453 1.716 11161
-0.668 2.458 1.709 9434
-0.669 2.462 1.701 7707
-0.676 2.486 1.707 7561
-0.679 2.497 1.703 8217
-0.678 2.495 1.692 6924
-0.678 2.493 1.680 5762
-0.700 2.576 1.722 5190
-0.696 2.560 1.702 5185
-0.697 2.565 1.695 5202
-0.715 2.628 1.724 5234
-0.726 2.672 1.740 5629
-0.728 2.677 1.732 9417
-0.729 2.681 1.724 11641
-0.730 2.686 1.716 9995
-0.733 2.697 1.712 8466
-0.734 2.701 1.704 5964
-0.755 2.779 1.739 4445
-0.744 2.736 1.703 4477
-0.747 2.748 1.699 5604
-0.750 2.759 1.695 6205
-0.753 2.770 1.690 4664
-0.761 2.801 1.697 3550
-0.801 2.946 1.768 4968
-0.804 2.957 1.763 7199
-0.805 2.962 1.755 7483
-0.806 2.967 1.746 6533
-0.813 2.991 1.748 7255
-0.814 2.996 1.739 8669
-0.816 3.000 1.730 8616
-0.815 2.998 1.718 6223
-0.809 2.975 1.694 5048
-0.834 3.068 1.732 6011
-0.835 3.073 1.723 8685
-0.837 3.077 1.714 9801
-0.840 3.088 1.708 8792
-0.845 3.106 1.706 7400
-0.851 3.131 1.707 7783
-0.854 3.143 1.701 9332
-0.857 3.154 1.696 9948
-0.875 3.220 1.717 7014
-0.877 3.225 1.707 8551
-0.878 3.229 1.698 6841
-0.883 3.247 1.695 5588
-0.886 3.259 1.689 5086
-0.887 3.263 1.679 4111
-0.947 3.483 1.772 3933
-0.950 3.494 1.764 6405
-0.959 3.526 1.767 8153
-0.962 3.538 1.760 9156
-0.965 3.550 1.753 6745
-0.966 3.554 1.742 3292
-0.990 3.643 1.769 2905
-0.986 3.626 1.749 5875
-0.985 3.624 1.735 10334
-0.986 3.628 1.724 8974
-1.005 3.696 1.741 7988
-1.004 3.693 1.727 8011
-1.005 3.698 1.716 7163
-1.012 3.723 1.714 5493
-1.017 3.742 1.709 3963
-1.015 3.732 1.692 4065
-1.014 3.729 1.678 5820
-1.017 3.741 1.670 6126
-1.020 3.752 1.661 8384
-1.021 3.757 1.650 10166
-1.020 3.754 1.636 8398
-1.024 3.765 1.628 8438
-1.025 3.769 1.617 8313
-1.022 3.759 1.600 6630
-1.101 4.049 1.700 6734
-1.104 4.061 1.691 5700
-1.117 4.108 1.695 4819
-1.132 4.162 1.702 7348
-1.137 4.181 1.695 7150
-1.144 4.207 1.690 6298
-1.147 4.219 1.681 4684
-1.140 4.194 1.657 3834
-1.143 4.206 1.647 3026
-1.239 4.556 1.759 3104
-1.240 4.561 1.746 4765
-1.247 4.587 1.740 4319
-1.248 4.592 1.726 3554
-1.244 4.574 1.705 3829
-1.247 4.586 1.694 3113
-1.256 4.619 1.690 2550
-1.259 4.631 1.678 3374
-1.306 4.803 1.720 2562
-1.313 4.829 1.713 3232
-1.320 4.855 1.706 3533
-1.321 4.860 1.691 2956
-1.346 4.951 1.705 2217
-1.369 5.036 1.715 2774
-1.370 5.041 1.700 2877
-1.411 5.191 1.730 2208
-1.419 5.218 1.721 2293
-1.422 5.230 1.708 1990
-1.445 5.315 1.716 2769
-1.450 5.334 1.705 4212
-1.453 5.346 1.691 3375
-1.482 5.453 1.705 4317
-1.514 5.568 1.720 4576
-1.519 5.587 1.708 5620
-1.536 5.650 1.707 5952
-1.537 5.655 1.690 5874
-1.522 5.600 1.657 4458
-1.578 5.804 1.695 3340
-1.557 5.727 1.655 2094
-1.665 6.123 1.742 2475
-1.620 5.958 1.679 2453
-1.653 6.080 1.692 2786
-1.713 6.300 1.728 2485
-1.716 6.312 1.711 3288
-1.719 6.324 1.694 2950
-1.710 6.291 1.666 1688
-1.762 6.481 1.692 1547
-1.800 6.619 1.704 1833
-1.811 6.661 1.693 1630
-1.822 6.703 1.682 1295
-1.868 6.871 1.699 1334
-1.869 6.876 1.679 2915
-1.870 6.880 1.658 3626
-1.939 7.131 1.691 2859
-2.003 7.367 1.720 4262
-2.002 7.364 1.696 5913
-2.003 7.368 1.674 6495
-2.004 7.373 1.652 5401
-2.005 7.377 1.630 3867
-2.011 7.396 1.611 2495
-2.012 7.400 1.588 1647
-2.288 8.418 1.763 2732
-2.292 8.430 1.739 3541
-2.287 8.412 1.709 3573
-2.282 8.394 1.680 4256
-2.281 8.390 1.653 4763
-2.288 8.417 1.632 3115
-2.296 8.444 1.611 2144
-2.297 8.448 1.585 1479
-2.454 9.025 1.657 1221
-2.455 9.029 1.630 800
-2.454 9.026 1.601 434
-2.354 8.660 1.515 257
-0.585 2.157 1.746 4279
-0.586 2.161 1.739 8558
-0.588 2.166 1.733 8558
-0.590 2.177 1.731 8386
-0.593 2.187 1.729 8480
-0.616 2.272 1.783 7031
-0.618 2.277 1.776 6933
-0.619 2.282 1.769 6933
-0.624 2.299 1.771 6870
-0.628 2.316 1.774 7785
-0.629 2.321 1.767 7451
-0.624 2.300 1.742 7472
-0.635 2.342 1.762 11167
-0.638 2.353 1.760 15197
-0.640 2.358 1.753 15179
-0.641 2.362 1.746 15039
-0.640 2.360 1.734 14958
-0.640 2.359 1.723 10345
-0.658 2.427 1.759 6022
-0.660 2.431 1.752 8165
-0.661 2.436 1.745 10308
-0.665 2.453 1.746 10036
-0.670 2.471 1.748 10942
-0.670 2.469 1.736 10664
-0.667 2.460 1.720 10651
-0.667 2.458 1.709 8339
-0.666 2.456 1.697 6185
-0.669 2.467 1.694 6091
-0.676 2.491 1.699 6629
-0.677 2.495 1.692 6005
-0.710 2.617 1.759 5790
-0.716 2.641 1.763 6362
-0.720 2.652 1.759 7202
-0.717 2.644 1.743 6753
-0.715 2.635 1.728 6689
-0.725 2.673 1.740 6268
-0.728 2.684 1.736 9314
-0.727 2.682 1.724 11374
-0.730 2.693 1.720 9937
-0.732 2.697 1.712 8607
-0.735 2.708 1.708 6643
-0.741 2.732 1.712 5331
-0.742 2.737 1.703 5827
-0.745 2.748 1.699 5794
-0.748 2.759 1.695 5321
-0.751 2.770 1.690 3868
-0.762 2.808 1.701 3461
-0.797 2.940 1.765 4379
-0.801 2.951 1.760 6601
-0.804 2.962 1.755 6704
-0.805 2.967 1.746 5747
-0.813 2.999 1.752 6101
-0.815 3.003 1.743 7057
-0.816 3.008 1.734 7511
-0.819 3.019 1.729 5907
-0.824 3.037 1.727 4040
-0.832 3.069 1.732 5584
-0.834 3.073 1.723 8909
-0.837 3.084 1.717 11068
-0.840 3.096 1.712 10965
-0.843 3.107 1.706 9301
-0.850 3.132 1.707 7685
-0.851 3.136 1.698 8932
-0.856 3.154 1.696 8782
-0.877 3.235 1.724 8929
-0.875 3.225 1.707 9216
-0.878 3.237 1.701 7336
-0.887 3.269 1.705 6042
-0.884 3.259 1.689 4847
-0.885 3.263 1.679 3593
-0.941 3.469 1.765 3432
-0.963 3.550 1.791 5533
-0.961 3.541 1.774 8495
-0.960 3.539 1.760 9369
-0.961 3.543 1.749 7140
-0.962 3.548 1.739 3641
-0.981 3.615 1.757 3402
-0.980 3.613 1.743 7987
-0.983 3.624 1.735 12719
-0.984 3.629 1.724 10337
-1.005 3.703 1.744 10157
-1.002 3.694 1.727 9902
-1.003 3.698 1.716 8727
-1.012 3.731 1.717 7853
-1.017 3.750 1.712 7388
-1.018 3.754 1.701 5764
-1.012 3.730 1.678 7169
-1.017 3.748 1.673 8741
-1.018 3.753 1.661 11603
-1.019 3.757 1.650 13602
-1.020 3.761 1.639 13002
-1.021 3.766 1.628 15646
-1.021 3.763 1.614 15880
-1.020 3.760 1.600 14860
-1.023 3.771 1.591 14671
-1.024 3.775 1.580 12086
-1.023 3.772 1.566 8516
-1.129 4.163 1.702 9891
-1.132 4.175 1.692 8279
-1.138 4.193 1.685 7263
-1.139 4.198 1.673 6881
-1.138 4.195 1.657 6487
-1.139 4.199 1.645 5290
-1.236 4.557 1.759 3554
-1.239 4.569 1.748 5391
-1.245 4.588 1.740 4998
-1.238 4.563 1.716 3893
-1.243 4.582 1.707 4696
-1.246 4.594 1.696 4911
-1.249 4.606 1.685 3528
-1.256 4.632 1.678 3035
-1.313 4.840 1.732 2434
-1.324 4.881 1.730 4282
-1.319 4.863 1.708 5018
-1.318 4.860 1.691 3884
-1.318 4.857 1.674 2412
-1.372 5.059 1.722 2540
-1.372 5.056 1.705 3033
-1.373 5.060 1.689 2335
-1.416 5.219 1.721 2179
-1.421 5.238 1.710 2060
-1.442 5.316 1.716 3069
-1.445 5.327 1.703 4949
-1.484 5.471 1.728 4288
-1.481 5.461 1.707 4552
-1.513 5.576 1.722 3689
-1.518 5.595 1.710 4371
-1.533 5.651 1.707 5847
-1.534 5.656 1.690 5848
-1.533 5.653 1.672 4589
-1.577 5.812 1.697 3743
-1.610 5.935 1.711 2082
-1.597 5.887 1.679 1875
-1.638 6.040 1.700 1940
-1.656 6.104 1.697 2651
-1.691 6.234 1.711 2607
-1.698 6.261 1.698 2830
-1.756 6.473 1.731 2247
-1.755 6.470 1.709 2445
-1.756 6.475 1.690 2495
-1.794 6.613 1.703 2447
-1.799 6.632 1.686 2108
-1.861 6.860 1.718 1352
-1.866 6.880 1.701 1077
-1.924 7.093 1.727 1387
-1.927 7.105 1.708 2234
-1.933 7.124 1.690 2767
-1.932 7.121 1.667 3003
-1.998 7.365 1.696 3660
-1.999 7.369 1.674 4138
-2.000 7.374 1.652 3561
-2.003 7.385 1.631 2600
-2.137 7.877 1.707 2241
-2.136 7.874 1.682 2095
-2.284 8.419 1.763 3223
-2.287 8.431 1.739 4668
-2.286 8.428 1.712 3992
-2.281 8.410 1.683 4585
-2.280 8.407 1.656 5558
-2.286 8.426 1.633 4127
-2.291 8.445 1.611 2925
-2.296 8.464 1.588 2167
-2.297 8.468 1.562 1323
-2.296 8.465 1.536 986
-2.297 8.469 1.510 685
-2.296 8.465 1.484 310
-0.574 2.160 1.746 4214
-0.575 2.164 1.739 8429
-0.576 2.169 1.733 8429
-0.579 2.180 1.731 8249
-0.582 2.190 1.729 8310
-0.605 2.276 1.783 6713
-0.606 2.280 1.776 6662
-0.607 2.285 1.769 6662
-0.612 2.302 1.771 6675
-0.616 2.319 1.774 7571
-0.618 2.324 1.767 7307
-0.612 2.303 1.742 7470
-0.623 2.345 1.762 10957
-0.626 2.356 1.760 14905
-0.627 2.361 1.753 14829
-0.629 2.365 1.746 14625
-0.628 2.364 1.734 14547
-0.628 2.362 1.723 10093
-0.646 2.430 1.759 5815
-0.647 2.435 1.752 7918
-0.648 2.439 1.745 10020
-0.653 2.457 1.746 9649
-0.657 2.474 1.748 10559
-0.657 2.472 1.736 10222
-0.656 2.470 1.724 10153
-0.654 2.462 1.709 7864
-0.654 2.460 1.697 5799
-0.657 2.470 1.694 5762
-0.663 2.494 1.699 6298
-0.694 2.610 1.762 5845
-0.698 2.627 1.763 5771
-0.703 2.645 1.763 6445
-0.706 2.656 1.759 7318
-0.705 2.654 1.748 6829
-0.701 2.639 1.728 6690
-0.711 2.676 1.740 6174
-0.714 2.687 1.736 9012
-0.714 2.685 1.724 10995
-0.717 2.696 1.720 9633
-0.718 2.701 1.712 8339
-0.721 2.712 1.708 6554
-0.727 2.736 1.712 5433
-0.728 2.741 1.703 5892
-0.731 2.752 1.699 5730
-0.734 2.763 1.695 5211
-0.737 2.774 1.690 3836
-0.747 2.812 1.701 3554
-0.781 2.937 1.761 4235
-0.785 2.955 1.760 6302
-0.788 2.967 1.755 6352
-0.788 2.964 1.742 5509
-0.798 3.003 1.752 5856
-0.799 3.007 1.743 6753
-0.800 3.012 1.734 7250
-0.803 3.023 1.729 5844
-0.808 3.041 1.727 4041
-0.817 3.073 1.732 5369
-0.818 3.077 1.723 8625
-0.821 3.089 1.717 10893
-0.824 3.100 1.712 11023
-0.827 3.111 1.706 9430
-0.833 3.136 1.707 7625
-0.835 3.141 1.698 8756
-0.839 3.159 1.696 8477
-0.861 3.239 1.724 9261
-0.858 3.230 1.707 9579
-0.861 3.241 1.701 7623
-0.870 3.273 1.705 6156
-0.867 3.264 1.689 4766
-0.889 3.344 1.715 3874
-0.918 3.453 1.755 3469
-0.945 3.555 1.791 5559
-0.942 3.546 1.774 8368
-0.942 3.543 1.760 9110
-0.943 3.548 1.749 6945
-0.944 3.553 1.739 3595
-0.962 3.620 1.757 3582
-0.961 3.618 1.743 8056
-0.963 3.622 1.732 12705
-0.966 3.634 1.724 10338
-0.986 3.709 1.744 10267
-0.983 3.699 1.727 9911
-0.984 3.703 1.716 8710
-0.993 3.736 1.717 8150
-0.998 3.755 1.712 7884
-0.999 3.759 1.701 6106
-0.993 3.735 1.678 7472
-0.998 3.754 1.673 8808
-0.999 3.758 1.661 11249
-1.000 3.762 1.650 13128
-0.999 3.759 1.636 13486
-1.002 3.771 1.628 17033
-1.001 3.768 1.614 17185
-1.001 3.765 1.600 15969
-1.004 3.776 1.591 15660
-1.005 3.780 1.580 12947
-1.004 3.777 1.566 9261
-1.108 4.169 1.702 10006
-1.111 4.180 1.692 8294
-1.114 4.192 1.682 7293
-1.115 4.196 1.670 6981
-1.116 4.201 1.657 6683
-1.118 4.205 1.645 5506
-1.213 4.563 1.759 3560
-1.216 4.575 1.748 5386
-1.221 4.594 1.740 5080
-1.214 4.570 1.716 3912
-1.218 4.581 1.705 4605
-1.223 4.600 1.696 4905
-1.226 4.612 1.685 3547
-1.233 4.638 1.678 2895
-1.288 4.846 1.732 2552
-1.299 4.887 1.730 4255
-1.294 4.870 1.708 5021
-1.293 4.867 1.691 3854
-1.293 4.864 1.674 2431
-1.346 5.066 1.722 2676
-1.346 5.063 1.705 3148
-1.347 5.067 1.689 2487
-1.389 5.226 1.721 2053
-1.396 5.252 1.712 1962
-1.415 5.323 1.716 3035
-1.418 5.335 1.703 4957
-1.456 5.479 1.728 4361
-1.453 5.469 1.707 4405
-1.486 5.591 1.724 3614
-1.489 5.603 1.710 4336
-1.504 5.659 1.707 5642
-1.505 5.663 1.690 5585
-1.504 5.660 1.672 4502
-1.547 5.820 1.697 3702
-1.579 5.943 1.711 1985
-1.567 5.896 1.679 1929
-1.607 6.048 1.700 1879
-1.626 6.119 1.699 2368
-1.659 6.243 1.711 2624
-1.660 6.247 1.692 2819
-1.721 6.475 1.729 2353
-1.722 6.479 1.709 2569
-1.723 6.484 1.690 2596
-1.762 6.630 1.704 2435
-1.767 6.649 1.688 2141
-1.826 6.870 1.718 1437
-1.833 6.897 1.703 1293
-1.888 7.103 1.727 1377
-1.891 7.115 1.708 2299
-1.896 7.134 1.690 2826
-1.895 7.131 1.667 2978
-1.960 7.375 1.696 3405
-1.961 7.379 1.674 3833
-1.962 7.384 1.652 3234
-1.965 7.396 1.631 2336
-2.096 7.888 1.707 2201
-2.096 7.885 1.682 2111
-2.241 8.431 1.763 3221
-2.244 8.443 1.739 4739
-2.243 8.440 1.712 3992
-2.240 8.429 1.684 4508
-2.239 8.426 1.657 5515
-2.244 8.445 1.635 4157
-2.248 8.457 1.611 2968
-2.253 8.476 1.588 2245
-2.254 8.480 1.562 1325
-2.255 8.484 1.537 969
-2.254 8.480 1.510 693
-2.253 8.477 1.484 317
-0.256 0.963 0.138 250
-0.573 2.160 1.746 4278
-0.574 2.165 1.739 8557
-0.575 2.169 1.733 8557
-0.578 2.180 1.731 8315
-0.581 2.191 1.729 8305
-0.603 2.276 1.783 6720
-0.606 2.287 1.780 6782
-0.607 2.291 1.774 6782
-0.610 2.302 1.771 6826
-0.615 2.320 1.774 7710
-0.616 2.324 1.767 7441
-0.611 2.303 1.742 7557
-0.622 2.346 1.762 11090
-0.625 2.357 1.760 15052
-0.626 2.361 1.753 14912
-0.627 2.366 1.746 14633
-0.627 2.364 1.734 14553
-0.626 2.362 1.723 10125
-0.644 2.431 1.759 5803
-0.645 2.435 1.752 7914
-0.647 2.440 1.745 10025
-0.651 2.457 1.746 9524
-0.656 2.474 1.748 10425
-0.655 2.473 1.736 9979
-0.655 2.471 1.724 9809
-0.653 2.462 1.709 7532
-0.652 2.460 1.697 5551
-0.655 2.471 1.694 5563
-0.661 2.495 1.699 6140
-0.692 2.610 1.762 5898
-0.697 2.628 1.763 5930
-0.701 2.645 1.763 6691
-0.704 2.656 1.759 7604
-0.704 2.654 1.748 7065
-0.701 2.646 1.732 6822
-0.710 2.677 1.740 6237
-0.712 2.688 1.736 8946
-0.712 2.686 1.724 10883
-0.715 2.697 1.720 9585
-0.716 2.701 1.712 8308
-0.719 2.712 1.708 6647
-0.725 2.737 1.712 5582
-0.727 2.741 1.703 5979
-0.730 2.752 1.699 5644
-0.732 2.763 1.695 5036
-0.735 2.774 1.690 3710
-0.747 2.819 1.705 3571
-0.779 2.938 1.761 4203
-0.783 2.956 1.760 6212
-0.786 2.967 1.755 6240
-0.786 2.965 1.742 5409
-0.796 3.003 1.752 5704
-0.797 3.008 1.743 6534
-0.798 3.012 1.734 7107
-0.801 3.024 1.729 5910
-0.806 3.042 1.727 4141
-0.815 3.073 1.732 5241
-0.818 3.085 1.727 8399
-0.819 3.089 1.717 10723
-0.822 3.100 1.712 11096
-0.825 3.112 1.706 9643
-0.830 3.130 1.704 7731
-0.833 3.141 1.698 8777
-0.837 3.159 1.696 8478
-0.859 3.240 1.724 9273
-0.858 3.237 1.711 9549
-0.859 3.242 1.701 7642
-0.868 3.274 1.705 6239
-0.863 3.257 1.685 4750
-0.887 3.345 1.715 4173
-0.888 3.349 1.706 3673
-0.943 3.556 1.791 5698
-0.940 3.546 1.774 8404
-0.941 3.551 1.763 9074
-0.941 3.549 1.749 6884
-0.942 3.553 1.739 3624
-0.958 3.614 1.754 3942
-0.959 3.618 1.743 8341
-0.960 3.623 1.732 13009
-0.963 3.634 1.724 10508
-0.983 3.709 1.744 10545
-0.981 3.700 1.727 10124
-0.982 3.704 1.716 8883
-0.990 3.737 1.717 8607
-0.995 3.755 1.712 8473
-0.997 3.760 1.701 6511
-0.990 3.736 1.678 7951
-0.995 3.754 1.673 9059
-0.996 3.759 1.661 11085
-0.997 3.763 1.650 12864
-0.997 3.760 1.636 14179
-1.000 3.771 1.628 18728
-0.999 3.768 1.614 18735
-0.998 3.765 1.600 17356
-1.001 3.777 1.591 16950
-1.000 3.774 1.577 13981
-1.001 3.778 1.566 10076
-1.105 4.170 1.702 10409
-1.108 4.181 1.692 8540
-1.111 4.193 1.682 7534
-1.113 4.197 1.670 7262
-1.112 4.194 1.655 6958
-1.115 4.206 1.645 5726
-1.210 4.564 1.759 3646
-1.213 4.576 1.748 5471
-1.218 4.595 1.740 5224
-1.233 4.650 1.744 4245
-1.215 4.582 1.705 4531
-1.220 4.601 1.696 4952
-1.223 4.613 1.685 3565
-1.230 4.639 1.678 2812
-1.285 4.847 1.732 2617
-1.296 4.888 1.730 4413
-1.293 4.878 1.710 5096
-1.290 4.868 1.691 3812
-1.290 4.865 1.674 2414
-1.343 5.067 1.722 2894
-1.342 5.064 1.705 3351
-1.343 5.068 1.689 2695
-1.385 5.227 1.721 1944
-1.392 5.253 1.712 1903
-1.411 5.324 1.716 3091
-1.414 5.336 1.703 5043
-1.453 5.480 1.728 4563
-1.452 5.477 1.709 4379
-1.482 5.592 1.724 3497
-1.487 5.611 1.712 4143
-1.500 5.660 1.707 5338
-1.501 5.664 1.690 5296
-1.501 5.661 1.672 4353
-1.543 5.821 1.697 3714
-1.576 5.944 1.711 2026
-1.561 5.889 1.677 2043
-1.603 6.049 1.700 1933
-1.622 6.121 1.699 2471
-1.655 6.244 1.711 2677
-1.656 6.248 1.692 2884
-1.717 6.476 1.729 2477
-1.718 6.480 1.709 2712
-1.719 6.485 1.690 2681
-1.756 6.623 1.703 2487
-1.763 6.650 1.688 2220
-1.821 6.871 1.718 1510
-1.830 6.905 1.704 1312
-1.885 7.112 1.729 1363
-1.886 7.116 1.708 2178
-1.891 7.135 1.690 2740
-1.891 7.132 1.667 3022
-1.955 7.376 1.696 3111
-1.956 7.381 1.674 3464
-1.958 7.385 1.652 2921
-1.963 7.404 1.633 2107
-2.091 7.889 1.707 2178
-2.090 7.886 1.682 2106
-2.235 8.432 1.763 3272
-2.238 8.444 1.739 4883
-2.237 8.441 1.712 4049
-2.235 8.430 1.684 4549
-2.234 8.427 1.657 5614
-2.239 8.447 1.635 4264
-2.244 8.466 1.612 2995
-2.249 8.485 1.589 2375
-2.250 8.489 1.564 1400
-2.249 8.486 1.537 997
-2.250 8.489 1.511 719
-2.249 8.486 1.485 311
-0.255 0.964 0.141 258
-0.255 0.964 0.138 265
-0.255 0.964 0.135 255
-0.572 2.160 1.746 4225
-0.574 2.165 1.739 8451
-0.575 2.169 1.733 8451
-0.578 2.180 1.731 8278
-0.580 2.191 1.729 8328
-0.601 2.270 1.778 6841
-0.604 2.281 1.776 6905
-0.605 2.285 1.769 6905
-0.610 2.302 1.771 6932
-0.615 2.320 1.774 7814
-0.616 2.324 1.767 7575
-0.612 2.310 1.746 7703
-0.622 2.346 1.762 11241
-0.624 2.357 1.760 15219
-0.626 2.361 1.753 15029
-0.627 2.366 1.746 14688
-0.626 2.364 1.734 14602
-0.626 2.362 1.723 10226
-0.625 2.360 1.711 5795
-0.645 2.435 1.752 7811
-0.646 2.440 1.745 9935
-0.649 2.451 1.742 9277
-0.656 2.475 1.748 10085
-0.657 2.479 1.740 9563
-0.655 2.471 1.724 9252
-0.652 2.462 1.709 7178
-0.652 2.460 1.697 5367
-0.655 2.471 1.694 5462
-0.689 2.599 1.766 6190
-0.692 2.610 1.762 6000
-0.698 2.634 1.767 6171
-0.701 2.645 1.763 6966
-0.704 2.657 1.759 7895
-0.703 2.655 1.748 7310
-0.701 2.646 1.732 7015
-0.709 2.677 1.740 6306
-0.712 2.688 1.736 8900
-0.713 2.692 1.728 10833
-0.714 2.697 1.720 9551
-0.716 2.701 1.712 8269
-0.719 2.712 1.708 6770
-0.725 2.737 1.712 5879
-0.726 2.741 1.703 6243
-0.729 2.752 1.699 5707
-0.732 2.763 1.695 4869
-0.735 2.774 1.690 3585
-0.747 2.819 1.705 3435
-0.778 2.938 1.761 4102
-0.783 2.956 1.760 6016
-0.784 2.960 1.751 6036
-0.786 2.965 1.742 5333
-0.796 3.003 1.752 5570
-0.797 3.008 1.743 6324
-0.800 3.019 1.738 6974
-0.801 3.024 1.729 5967
-0.806 3.042 1.727 4325
-0.814 3.073 1.732 5203
-0.817 3.085 1.727 8283
-0.818 3.089 1.717 10755
-0.821 3.101 1.712 11384
-0.824 3.112 1.706 9985
-0.829 3.130 1.704 7791
-0.832 3.141 1.698 8657
-0.837 3.159 1.696 8223
-0.858 3.240 1.724 9459
-0.858 3.237 1.711 9564
-0.859 3.242 1.701 7629
-0.867 3.274 1.705 6260
-0.865 3.264 1.689 4672
-0.886 3.345 1.715 4386
-0.887 3.349 1.706 3774
-0.942 3.556 1.791 5880
-0.941 3.554 1.777 8631
-0.941 3.551 1.763 9194
-0.940 3.549 1.749 7021
-0.941 3.553 1.739 3774
-0.957 3.614 1.754 4389
-0.959 3.618 1.743 8753
-0.960 3.623 1.732 13547
-0.963 3.634 1.724 10900
-0.983 3.709 1.744 10640
-0.980 3.700 1.727 10189
-0.981 3.704 1.716 9057
-0.990 3.737 1.717 8969
-0.995 3.755 1.712 8849
-0.994 3.753 1.698 6599
-0.990 3.736 1.678 7946
-0.995 3.754 1.673 9271
-0.996 3.759 1.661 11564
-0.997 3.763 1.650 13216
-0.996 3.760 1.636 15022
-0.999 3.771 1.628 20492
-0.998 3.769 1.614 20440
-1.000 3.773 1.602 18842
-1.001 3.777 1.591 18306
-1.000 3.774 1.577 15118
-1.001 3.778 1.566 11011
-1.103 4.163 1.699 10903
-1.108 4.181 1.692 8797
-1.109 4.186 1.680 7799
-1.112 4.197 1.670 7549
-1.111 4.194 1.655 7239
-1.114 4.206 1.645 5977
-1.209 4.564 1.759 3555
-1.212 4.576 1.748 5388
-1.217 4.595 1.740 5190
-1.232 4.650 1.744 4671
-1.216 4.589 1.707 4451
-1.219 4.601 1.696 5044
-1.220 4.606 1.682 3609
-1.229 4.639 1.678 2669
-1.284 4.847 1.732 2783
-1.295 4.888 1.730 4592
-1.294 4.885 1.713 5229
-1.290 4.868 1.691 3744
-1.339 5.055 1.735 2560
-1.340 5.060 1.720 3213
-1.342 5.064 1.705 3599
-1.343 5.068 1.689 2903
-1.387 5.234 1.724 1830
-1.392 5.253 1.712 1777
-1.411 5.324 1.716 3000
-1.414 5.336 1.703 4883
-1.454 5.487 1.730 4962
-1.453 5.485 1.711 4532
-1.482 5.592 1.724 3396
-1.487 5.611 1.712 3959
-1.500 5.660 1.707 4977
-1.501 5.665 1.690 4936
-1.500 5.662 1.672 4151
-1.542 5.821 1.697 3688
-1.547 5.841 1.683 2055
-1.562 5.897 1.679 2318
-1.565 5.908 1.663 1959
-1.622 6.121 1.699 2373
-1.654 6.244 1.711 2866
-1.657 6.256 1.694 3113
-1.718 6.484 1.731 2582
-1.719 6.488 1.711 2688
-1.718 6.485 1.690 2650
-1.755 6.624 1.703 2540
-1.762 6.650 1.688 2305
-1.765 6.662 1.670 1413
-1.831 6.913 1.706 1409
-1.837 6.932 1.689 1348
-1.885 7.116 1.708 2089
-1.890 7.136 1.690 2574
-1.890 7.132 1.667 2830
-1.954 7.377 1.696 2846
-1.955 7.381 1.674 3136
-1.957 7.385 1.652 2593
-1.966 7.420 1.636 1925
-2.090 7.890 1.707 2159
-2.091 7.894 1.683 2189
-2.234 8.432 1.763 3267
-2.239 8.452 1.740 4998
-2.242 8.464 1.716 4099
-2.234 8.431 1.684 4551
-2.235 8.435 1.659 5766
-2.238 8.447 1.635 4394
-2.243 8.466 1.612 3059
-2.248 8.485 1.589 2531
-2.249 8.489 1.564 1480
-2.248 8.486 1.537 1032
-2.249 8.490 1.511 790
-2.248 8.486 1.485 361
-0.255 0.964 0.141 279
-0.255 0.964 0.138 282
-0.255 0.964 0.135 264
-0.571 2.161 1.746 4076
-0.572 2.165 1.739 8152
-0.574 2.170 1.733 8152
-0.576 2.180 1.731 8063
-0.579 2.191 1.729 8148
-0.600 2.270 1.778 6650
-0.603 2.281 1.776 6708
-0.604 2.286 1.769 6708
-0.609 2.303 1.771 6731
-0.613 2.320 1.774 7562
-0.615 2.325 1.767 7360
-0.611 2.310 1.746 7538
-0.620 2.346 1.762 10953
-0.623 2.357 1.760 14833
-0.624 2.362 1.753 14633
-0.624 2.360 1.741 14285
-0.625 2.364 1.734 14208
-0.625 2.363 1.723 10003
-0.624 2.361 1.711 5737
-0.644 2.436 1.752 7594
-0.645 2.440 1.745 9700
-0.648 2.451 1.742 8975
-0.654 2.475 1.748 9708
-0.656 2.479 1.740 9145
-0.653 2.471 1.724 8770
-0.651 2.462 1.709 6904
-0.651 2.460 1.697 5237
-0.659 2.491 1.707 5420
-0.660 2.495 1.699 6155
-0.690 2.610 1.762 5898
-0.697 2.635 1.767 6167
-0.700 2.646 1.763 6972
-0.702 2.657 1.759 7898
-0.702 2.655 1.748 7296
-0.700 2.646 1.732 6967
-0.708 2.677 1.740 6227
-0.711 2.688 1.736 8719
-0.712 2.693 1.728 10613
-0.713 2.697 1.720 9353
-0.714 2.702 1.712 8093
-0.719 2.719 1.712 6750
-0.724 2.737 1.712 6018
-0.725 2.742 1.703 6368
-0.728 2.753 1.699 5713
-0.731 2.764 1.695 4758
-0.734 2.775 1.690 3481
-0.745 2.819 1.705 3299
-0.777 2.938 1.761 3998
-0.780 2.950 1.756 5808
-0.785 2.968 1.755 5815
-0.784 2.965 1.742 5170
-0.794 3.004 1.752 5361
-0.795 3.008 1.743 6006
-0.798 3.020 1.738 6742
-0.800 3.024 1.729 5935
-0.803 3.035 1.723 4347
-0.813 3.074 1.732 5051
-0.816 3.085 1.727 8080
-0.817 3.090 1.717 10596
-0.820 3.101 1.712 11315
-0.823 3.112 1.706 9932
-0.828 3.130 1.704 7665
-0.831 3.142 1.698 8466
-0.835 3.160 1.696 7940
-0.857 3.240 1.724 9555
-0.856 3.238 1.711 9535
-0.857 3.242 1.701 7583
-0.866 3.274 1.705 6102
-0.863 3.265 1.689 4542
-0.885 3.345 1.715 4653
-0.886 3.350 1.706 3936
-0.940 3.556 1.791 5907
-0.940 3.554 1.777 8578
-0.939 3.552 1.763 9029
-0.940 3.556 1.753 6878
-0.940 3.554 1.739 3713
-0.956 3.614 1.754 4602
-0.957 3.619 1.743 8960
-0.958 3.623 1.732 13634
-0.959 3.628 1.721 10842
-0.981 3.710 1.744 10579
-0.978 3.700 1.727 10036
-0.980 3.705 1.716 8897
-0.988 3.737 1.717 9015
-0.993 3.756 1.712 8894
-0.992 3.753 1.698 6477
-0.988 3.736 1.678 7687
-0.993 3.755 1.673 9339
-0.994 3.759 1.661 12090
-0.995 3.764 1.650 13697
-0.994 3.761 1.636 15346
-0.997 3.772 1.628 20957
-0.997 3.769 1.614 20995
-0.998 3.773 1.602 19376
-0.999 3.777 1.591 18834
-0.998 3.774 1.577 15613
-0.999 3.778 1.566 11473
-1.101 4.163 1.699 10970
-1.106 4.182 1.692 8766
-1.107 4.186 1.680 7909
-1.110 4.198 1.670 7643
-1.109 4.195 1.655 7321
-1.112 4.206 1.645 6037
-1.207 4.565 1.759 3462
-1.210 4.577 1.748 5285
-1.217 4.603 1.742 5166
-1.230 4.651 1.744 4875
-1.214 4.590 1.707 4458
-1.217 4.602 1.696 5088
-1.218 4.606 1.682 3634
-1.227 4.640 1.678 2600
-1.282 4.848 1.732 2853
-1.293 4.889 1.730 4623
-1.292 4.886 1.713 5197
-1.289 4.876 1.693 3615
-1.337 5.056 1.735 2716
-1.338 5.060 1.720 3380
-1.339 5.065 1.705 3729
-1.340 5.069 1.689 3022
-1.384 5.235 1.724 1727
-1.389 5.254 1.712 1712
-1.408 5.325 1.716 2911
-1.411 5.336 1.703 4747
-1.451 5.488 1.730 5167
-1.452 5.493 1.713 4635
-1.479 5.593 1.724 3307
-1.484 5.612 1.712 3828
-1.497 5.661 1.707 4695
-1.498 5.665 1.690 4599
-1.497 5.662 1.672 3921
-1.537 5.815 1.695 3551
-1.572 5.945 1.711 2103
-1.559 5.898 1.679 2313
-1.564 5.917 1.665 2011
-1.619 6.122 1.699 2260
-1.651 6.245 1.711 2850
-1.654 6.257 1.694 3086
-1.714 6.484 1.731 2572
-1.716 6.489 1.711 2626
-1.715 6.486 1.690 2611
-1.751 6.624 1.703 2580
-1.759 6.651 1.688 2319
-1.762 6.663 1.670 1422
-1.828 6.914 1.706 1211
-1.879 7.105 1.727 1359
-1.882 7.117 1.708 2094
-1.887 7.137 1.690 2553
-1.886 7.133 1.667 2819
-1.951 7.378 1.696 2576
-1.952 7.382 1.674 2821
-1.953 7.386 1.652 2371
-1.974 7.466 1.645 1884
-2.086 7.891 1.707 2064
-2.085 7.888 1.682 2122
-2.230 8.434 1.763 3155
-2.235 8.453 1.740 5045
-2.238 8.465 1.716 4235
-2.229 8.432 1.684 4488
-2.231 8.436 1.659 5742
-2.234 8.448 1.635 4407
-2.239 8.467 1.612 3110
-2.244 8.486 1.589 2628
-2.245 8.491 1.564 1527
-2.246 8.495 1.538 1068
-2.245 8.491 1.511 824
-2.244 8.487 1.485 365
-0.255 0.964 0.141 275
-0.255 0.964 0.138 276
-0.255 0.964 0.135 260
-0.570 2.161 1.746 4058
-0.572 2.165 1.739 8117
-0.573 2.170 1.733 8117
-0.576 2.180 1.731 8052
-0.578 2.191 1.729 8138
-0.599 2.270 1.778 6621
-0.602 2.281 1.776 6721
-0.603 2.286 1.769 6721
-0.608 2.303 1.771 6747
-0.612 2.320 1.774 7541
-0.614 2.325 1.767 7350
-0.610 2.310 1.746 7553
-0.619 2.347 1.762 10915
-0.622 2.357 1.760 14769
-0.624 2.362 1.753 14548
-0.623 2.360 1.741 14193
-0.624 2.365 1.734 14106
-0.624 2.363 1.723 9957
-0.623 2.361 1.711 5751
-0.643 2.436 1.752 7552
-0.644 2.440 1.745 9666
-0.647 2.451 1.742 8880
-0.653 2.475 1.748 9561
-0.655 2.480 1.740 8949
-0.652 2.471 1.724 8489
-0.650 2.463 1.709 6762
-0.650 2.461 1.697 5185
-0.658 2.491 1.707 5519
-0.659 2.495 1.699 6296
-0.689 2.611 1.762 5893
-0.696 2.635 1.767 6230
-0.698 2.646 1.763 7067
-0.701 2.657 1.759 8017
-0.701 2.655 1.748 7387
-0.699 2.647 1.732 6987
-0.707 2.677 1.740 6240
-0.710 2.689 1.736 8631
-0.711 2.693 1.728 10499
-0.712 2.698 1.720 9238
-0.713 2.702 1.712 7977
-0.718 2.720 1.712 6748
-0.723 2.737 1.712 6098
-0.724 2.742 1.703 6457
-0.727 2.753 1.699 5744
-0.730 2.764 1.695 4738
-0.733 2.775 1.690 3477
-0.744 2.820 1.705 3337
-0.774 2.932 1.757 3999
-0.779 2.950 1.756 5716
-0.782 2.961 1.751 5678
-0.783 2.966 1.742 5125
-0.793 3.004 1.752 5276
-0.794 3.009 1.743 5846
-0.797 3.020 1.738 6625
-0.798 3.024 1.729 5932
-0.801 3.036 1.723 4383
-0.812 3.074 1.732 4970
-0.814 3.086 1.727 8051
-0.817 3.097 1.721 10686
-0.819 3.101 1.712 11413
-0.822 3.113 1.706 10002
-0.823 3.117 1.697 7644
-0.829 3.142 1.698 8381
-0.856 3.243 1.737 7781
-0.855 3.240 1.724 9573
-0.855 3.238 1.711 9453
-0.856 3.242 1.701 7546
-0.866 3.281 1.708 6161
-0.880 3.334 1.722 4530
-0.883 3.346 1.715 4734
-0.884 3.350 1.706 3997
-0.939 3.557 1.791 5981
-0.938 3.554 1.777 8634
-0.938 3.552 1.763 9019
-0.939 3.557 1.753 6872
-0.947 3.589 1.755 3787
-0.954 3.615 1.754 4848
-0.955 3.619 1.743 9304
-0.957 3.624 1.732 13816
-0.958 3.628 1.721 10808
-0.979 3.710 1.744 10620
-0.977 3.701 1.727 10002
-0.978 3.705 1.716 8837
-0.987 3.738 1.717 9109
-0.992 3.756 1.712 9012
-0.985 3.732 1.689 6486
-0.986 3.737 1.678 7556
-0.991 3.755 1.673 9542
-0.992 3.760 1.661 12733
-0.994 3.764 1.650 14368
-0.993 3.761 1.636 15794
-0.996 3.772 1.628 21401
-0.995 3.769 1.614 21564
-0.996 3.774 1.602 20023
-0.997 3.778 1.591 19500
-0.996 3.775 1.577 16178
-0.997 3.779 1.566 11987
-1.099 4.164 1.699 11110
-1.104 4.182 1.692 8859
-1.105 4.187 1.680 8079
-1.108 4.198 1.670 7773
-1.107 4.195 1.655 7422
-1.109 4.200 1.642 6118
-1.205 4.565 1.759 3468
-1.208 4.577 1.748 5274
-1.215 4.603 1.742 5188
-1.228 4.651 1.744 5061
-1.212 4.591 1.707 4449
-1.215 4.602 1.696 5069
-1.216 4.607 1.682 3596
-1.225 4.640 1.678 2519
-1.280 4.848 1.732 2976
-1.291 4.889 1.730 4672
-1.290 4.887 1.713 5174
-1.287 4.876 1.693 3651
-1.335 5.056 1.735 2849
-1.336 5.061 1.720 3505
-1.337 5.065 1.705 3872
-1.338 5.070 1.689 3145
-1.382 5.236 1.724 1807
-1.387 5.255 1.712 1833
-1.408 5.333 1.719 2891
-1.409 5.337 1.703 4689
-1.449 5.489 1.730 5448
-1.450 5.493 1.713 4844
-1.463 5.542 1.710 3505
-1.482 5.613 1.712 3681
-1.494 5.662 1.707 4381
-1.498 5.673 1.693 4351
-1.497 5.670 1.674 3868
-1.535 5.815 1.695 3574
-1.544 5.849 1.685 1995
-1.557 5.898 1.679 2401
-1.562 5.917 1.665 2137
-1.616 6.122 1.699 2367
-1.649 6.246 1.711 2878
-1.652 6.257 1.694 3127
-1.712 6.485 1.731 2664
-1.713 6.490 1.711 2739
-1.712 6.486 1.690 2721
-1.749 6.625 1.703 2579
-1.756 6.652 1.688 2347
-1.759 6.664 1.670 1498
-1.827 6.922 1.708 1268
-1.832 6.941 1.690 1403
-1.879 7.118 1.708 2007
-1.884 7.137 1.690 2509
-1.883 7.134 1.667 2766
-1.948 7.378 1.696 2336
-1.949 7.383 1.674 2559
-1.904 7.214 1.616 2165
-1.971 7.466 1.645 1833
-2.083 7.891 1.707 2016
-2.082 7.888 1.682 2137
-2.228 8.442 1.764 3206
-2.232 8.454 1.740 5146
-2.235 8.466 1.716 4339
-2.228 8.440 1.685 4467
-2.229 8.445 1.660 5803
-2.230 8.449 1.635 4472
-2.237 8.476 1.613 3153
-2.240 8.487 1.589 2723
-2.241 8.491 1.564 1577
-2.243 8.495 1.538 1085
-2.242 8.492 1.511 846
-2.241 8.488 1.485 378
-0.254 0.964 0.144 259
-0.254 0.964 0.141 295
-0.254 0.964 0.138 294
-0.254 0.964 0.135 276
-0.254 0.964 0.133 257
-0.569 2.161 1.746 4036
-0.571 2.166 1.739 8072
-0.572 2.170 1.733 8072
-0.575 2.181 1.731 7971
-0.577 2.191 1.729 8022
-0.598 2.271 1.778 6657
-0.603 2.288 1.780 6809
-0.604 2.292 1.774 6809
-0.607 2.303 1.771 6870
-0.611 2.320 1.774 7665
-0.613 2.325 1.767 7455
-0.609 2.311 1.746 7627
-0.618 2.347 1.762 10958
-0.621 2.358 1.760 14785
-0.622 2.362 1.753 14528
-0.622 2.360 1.741 14134
-0.623 2.365 1.734 14046
-0.623 2.363 1.723 9923
-0.622 2.361 1.711 5754
-0.642 2.436 1.752 7542
-0.643 2.441 1.745 9665
-0.646 2.452 1.742 8838
-0.652 2.475 1.748 9497
-0.653 2.480 1.740 8832
-0.649 2.465 1.720 8299
-0.649 2.463 1.709 6672
-0.648 2.461 1.697 5149
-0.656 2.491 1.707 5636
-0.658 2.496 1.699 6443
-0.659 2.500 1.692 6008
-0.694 2.635 1.767 6322
-0.697 2.646 1.763 7172
-0.700 2.658 1.759 8133
-0.700 2.656 1.748 7475
-0.697 2.647 1.732 7021
-0.705 2.678 1.740 6261
-0.708 2.689 1.736 8572
-0.710 2.693 1.728 10422
-0.711 2.698 1.720 9140
-0.712 2.702 1.712 7859
-0.717 2.720 1.712 6693
-0.721 2.738 1.712 6065
-0.722 2.742 1.703 6420
-0.725 2.753 1.699 5687
-0.728 2.764 1.695 4708
-0.731 2.775 1.690 3496
-0.743 2.820 1.705 3479
-0.772 2.932 1.757 3998
-0.777 2.950 1.756 5635
-0.780 2.962 1.751 5567
-0.781 2.966 1.742 5130
-0.792 3.004 1.752 5279
-0.793 3.009 1.743 5803
-0.796 3.020 1.738 6626
-0.797 3.025 1.729 5997
-0.800 3.036 1.723 4431
-0.810 3.075 1.732 4874
-0.813 3.086 1.727 7980
-0.816 3.097 1.721 10746
-0.817 3.102 1.712 11441
-0.820 3.113 1.706 10067
-0.821 3.117 1.697 7713
-0.828 3.142 1.698 8385
-0.854 3.243 1.737 8056
-0.854 3.241 1.724 9828
-0.853 3.238 1.711 9613
-0.854 3.243 1.701 7646
-0.865 3.282 1.708 6191
-0.879 3.335 1.722 4615
-0.882 3.346 1.715 4846
-0.883 3.351 1.706 4052
-0.937 3.557 1.791 6055
-0.938 3.562 1.780 8702
-0.936 3.552 1.763 9014
-0.937 3.557 1.753 6869
-0.946 3.590 1.755 3825
-0.952 3.615 1.754 4931
-0.954 3.620 1.743 9384
-0.955 3.624 1.732 13718
-0.956 3.629 1.721 10647
-0.978 3.711 1.744 10616
-0.975 3.701 1.727 9952
-0.976 3.706 1.716 8820
-0.985 3.738 1.717 9193
-0.990 3.757 1.712 9067
-0.991 3.761 1.701 6525
-0.985 3.737 1.678 7537
-0.989 3.756 1.673 9827
-0.991 3.760 1.661 13303
-0.992 3.764 1.650 14961
-0.991 3.762 1.636 16175
-0.994 3.773 1.628 21687
-0.993 3.770 1.614 21946
-0.994 3.774 1.602 20489
-0.995 3.778 1.591 20009
-0.995 3.775 1.577 16584
-0.996 3.779 1.566 12325
-1.097 4.164 1.699 11292
-1.100 4.176 1.689 8995
-1.103 4.187 1.680 8269
-1.104 4.192 1.667 7921
-1.105 4.196 1.655 7479
-1.107 4.200 1.642 6151
-1.203 4.566 1.759 3446
-1.206 4.578 1.748 5257
-1.215 4.611 1.745 5253
-1.226 4.652 1.744 5249
-1.210 4.591 1.707 4377
-1.213 4.603 1.696 5004
-1.214 4.607 1.682 3536
-1.274 4.837 1.744 2540
-1.278 4.849 1.732 3030
-1.288 4.890 1.730 4857
-1.289 4.895 1.715 5200
-1.285 4.877 1.693 3594
-1.332 5.057 1.735 2975
-1.333 5.061 1.720 3648
-1.335 5.066 1.705 3969
-1.336 5.070 1.689 3202
-1.379 5.236 1.724 1759
-1.383 5.248 1.710 1860
-1.405 5.333 1.719 2835
-1.406 5.338 1.703 4587
-1.446 5.489 1.730 5668
-1.447 5.494 1.713 5021
-1.458 5.535 1.708 3761
-1.479 5.613 1.712 3589
-1.492 5.662 1.707 4023
-1.497 5.681 1.695 3970
-1.533 5.819 1.714 3687
-1.532 5.816 1.695 3578
-1.541 5.850 1.685 2047
-1.554 5.899 1.679 2421
-1.559 5.918 1.665 2129
-1.613 6.123 1.699 2313
-1.648 6.254 1.713 2909
-1.649 6.258 1.694 3175
-1.709 6.486 1.731 2758
-1.710 6.490 1.711 2804
-1.711 6.495 1.692 2793
-1.746 6.626 1.703 2557
-1.753 6.653 1.688 2351
-1.756 6.665 1.670 1531
-1.824 6.923 1.708 1356
-1.827 6.935 1.689 1553
-1.874 7.111 1.706 1992
-1.881 7.138 1.690 2367
-1.880 7.135 1.667 2698
-1.903 7.222 1.663 2301
-1.896 7.196 1.635 2449
-1.899 7.208 1.615 2213
-1.967 7.467 1.645 1782
-2.079 7.893 1.707 2001
-2.080 7.897 1.683 2158
-2.224 8.443 1.764 3201
-2.228 8.455 1.740 5225
-2.231 8.467 1.716 4465
-2.224 8.441 1.685 4430
-2.225 8.446 1.660 5793
-2.226 8.450 1.635 4464
-2.233 8.477 1.613 3168
-2.236 8.488 1.589 2771
-2.239 8.500 1.565 1597
-2.238 8.496 1.538 1102
-2.237 8.493 1.511 877
-2.236 8.489 1.485 403
-0.254 0.964 0.144 265
-0.254 0.964 0.141 297
-0.254 0.964 0.138 297
-0.254 0.964 0.135 281
-0.254 0.964 0.133 262
-0.568 2.161 1.746 4109
-0.569 2.166 1.739 8218
-0.571 2.170 1.733 8218
-0.573 2.181 1.731 8051
-0.576 2.192 1.729 8045
-0.597 2.271 1.778 6675
-0.602 2.288 1.780 6837
-0.603 2.293 1.774 6837
-0.606 2.304 1.771 7032
-0.608 2.314 1.769 7861
-0.611 2.325 1.767 7638
-0.608 2.311 1.746 7788
-0.617 2.347 1.762 11104
-0.620 2.358 1.760 14951
-0.621 2.363 1.753 14651
-0.621 2.361 1.741 14196
-0.622 2.365 1.734 14112
-0.621 2.363 1.723 9994
-0.621 2.362 1.711 5832
-0.641 2.436 1.752 7593
-0.642 2.441 1.745 9735
-0.645 2.452 1.742 8861
-0.651 2.476 1.748 9500
-0.652 2.480 1.740 8799
-0.648 2.465 1.720 8219
-0.648 2.463 1.709 6651
-0.647 2.461 1.697 5153
-0.655 2.492 1.707 5761
-0.656 2.496 1.699 6605
-0.657 2.501 1.692 6161
-0.693 2.636 1.767 6431
-0.696 2.647 1.763 7308
-0.699 2.658 1.759 8293
-0.698 2.656 1.748 7609
-0.698 2.654 1.736 7103
-0.704 2.678 1.740 6334
-0.707 2.689 1.736 8609
-0.708 2.694 1.728 10479
-0.709 2.698 1.720 9161
-0.711 2.703 1.712 7844
-0.715 2.720 1.712 6713
-0.720 2.738 1.712 6107
-0.721 2.743 1.703 6429
-0.724 2.754 1.699 5615
-0.727 2.765 1.695 4606
-0.732 2.783 1.694 3472
-0.742 2.821 1.705 3591
-0.771 2.933 1.757 3935
-0.776 2.951 1.756 5469
-0.779 2.962 1.751 5387
-0.780 2.966 1.742 5081
-0.790 3.005 1.752 5242
-0.791 3.009 1.743 5730
-0.794 3.021 1.738 6592
-0.795 3.025 1.729 6041
-0.798 3.036 1.723 4514
-0.808 3.075 1.732 4870
-0.811 3.086 1.727 7971
-0.814 3.098 1.721 10819
-0.816 3.102 1.712 11538
-0.819 3.113 1.706 10194
-0.820 3.118 1.697 7803
-0.826 3.143 1.698 8370
-0.853 3.244 1.737 8406
-0.852 3.241 1.724 9998
-0.851 3.239 1.711 9495
-0.853 3.243 1.701 7547
-0.863 3.282 1.708 6356
-0.877 3.335 1.722 4764
-0.880 3.347 1.715 4892
-0.881 3.351 1.706 4081
-0.935 3.558 1.791 5950
-0.937 3.562 1.780 8543
-0.936 3.560 1.766 8782
-0.935 3.557 1.753 6786
-0.944 3.590 1.755 4167
-0.951 3.616 1.754 5164
-0.952 3.620 1.743 9254
-0.953 3.625 1.732 13437
-0.954 3.629 1.721 10489
-0.976 3.711 1.744 10706
-0.973 3.702 1.727 9909
-0.974 3.706 1.716 8732
-0.983 3.739 1.717 9298
-0.986 3.750 1.709 9206
-0.989 3.762 1.701 6615
-0.990 3.766 1.690 7548
-0.988 3.756 1.673 10155
-0.989 3.761 1.661 14020
-0.990 3.765 1.650 15710
-0.989 3.762 1.636 16613
-0.992 3.773 1.628 21948
-0.991 3.770 1.614 22419
-0.992 3.775 1.602 21201
-0.993 3.779 1.591 20818
-0.993 3.776 1.577 17242
-0.994 3.780 1.566 12895
-1.095 4.165 1.699 11507
-1.098 4.176 1.689 9157
-1.101 4.188 1.680 8494
-1.102 4.192 1.667 8140
-1.103 4.196 1.655 7610
-1.104 4.201 1.642 6235
-1.107 4.212 1.632 3365
-1.204 4.578 1.748 5141
-1.216 4.626 1.750 5409
-1.223 4.653 1.744 5531
-1.207 4.592 1.707 4262
-1.210 4.603 1.696 4962
-1.271 4.833 1.759 3518
-1.272 4.838 1.744 2467
-1.275 4.850 1.732 2899
-1.286 4.891 1.730 4963
-1.287 4.895 1.715 5379
-1.282 4.878 1.693 3642
-1.330 5.058 1.735 3120
-1.331 5.062 1.720 3794
-1.332 5.067 1.705 4140
-1.333 5.071 1.689 3353
-1.338 5.090 1.679 1758
-1.380 5.249 1.710 1805
-1.402 5.334 1.719 2841
-1.403 5.338 1.703 4527
-1.445 5.498 1.732 5942
-1.446 5.502 1.716 5330
-1.455 5.536 1.708 4097
-1.476 5.614 1.712 3622
-1.491 5.670 1.709 3917
-1.494 5.682 1.695 3793
-1.530 5.820 1.714 3709
-1.529 5.817 1.695 3624
-1.538 5.851 1.685 2115
-1.549 5.892 1.677 2423
-1.558 5.926 1.667 2201
-1.612 6.131 1.701 2302
-1.644 6.255 1.713 3021
-1.645 6.259 1.694 3303
-1.705 6.487 1.731 2823
-1.707 6.491 1.711 2829
-1.708 6.496 1.692 2859
-1.742 6.627 1.703 2667
-1.747 6.646 1.686 2423
-1.752 6.665 1.670 1492
-1.820 6.924 1.708 1317
-1.823 6.936 1.689 1609
-1.870 7.112 1.706 1942
-1.877 7.139 1.690 2250
-1.876 7.136 1.667 2618
-1.899 7.223 1.663 2342
-1.892 7.197 1.635 2530
-1.895 7.209 1.615 2306
-1.963 7.468 1.645 1814
-2.075 7.894 1.707 1986
-2.076 7.898 1.683 2118
-2.220 8.444 1.764 3244
-2.223 8.456 1.740 5347
-2.226 8.468 1.716 4633
-2.220 8.443 1.685 4445
-2.223 8.454 1.661 5900
-2.222 8.451 1.635 4533
-2.229 8.478 1.613 3240
-2.234 8.497 1.590 2893
-2.235 8.501 1.565 1666
-2.234 8.498 1.538 1144
-2.233 8.494 1.511 911
-2.232 8.490 1.485 414
-0.253 0.964 0.146 253
-0.253 0.964 0.144 274
-0.253 0.964 0.141 307
-0.253 0.964 0.138 307
-0.253 0.964 0.135 294
-0.253 0.964 0.133 277
-0.253 0.964 0.130 254
-0.567 2.162 1.746 4069
-0.568 2.166 1.739 8138
-0.570 2.171 1.733 8138
-0.572 2.181 1.731 7956
-0.575 2.192 1.729 7930
-0.596 2.271 1.778 6550
-0.600 2.288 1.780 6710
-0.602 2.293 1.774 6710
-0.605 2.304 1.771 7012
-0.607 2.315 1.769 7886
-0.610 2.326 1.767 7652
-0.606 2.311 1.746 7811
-0.616 2.347 1.762 11028
-0.619 2.358 1.760 14805
-0.620 2.363 1.753 14479
-0.620 2.361 1.741 14003
-0.621 2.366 1.734 13913
-0.620 2.364 1.723 9907
-0.620 2.362 1.711 5844
-0.639 2.437 1.752 7504
-0.641 2.441 1.745 9635
-0.643 2.452 1.742 8728
-0.650 2.476 1.748 9335
-0.651 2.481 1.740 8650
-0.647 2.466 1.720 8097
-0.646 2.464 1.709 6578
-0.646 2.462 1.697 5112
-0.654 2.492 1.707 5751
-0.653 2.490 1.695 6605
-0.656 2.501 1.692 6160
-0.692 2.636 1.767 6392
-0.695 2.647 1.763 7271
-0.698 2.658 1.759 8255
-0.697 2.656 1.748 7567
-0.696 2.654 1.736 7054
-0.703 2.678 1.740 6291
-0.706 2.690 1.736 8541
-0.707 2.694 1.728 10405
-0.708 2.699 1.720 9086
-0.709 2.703 1.712 7767
-0.714 2.721 1.712 6697
-0.719 2.739 1.712 6151
-0.720 2.743 1.703 6440
-0.723 2.754 1.699 5542
-0.726 2.765 1.695 4465
-0.730 2.783 1.694 3399
-0.740 2.821 1.705 3571
-0.770 2.933 1.757 3882
-0.774 2.951 1.756 5315
-0.777 2.962 1.751 5204
-0.778 2.967 1.742 4974
-0.789 3.005 1.752 5112
-0.790 3.010 1.743 5580
-0.793 3.021 1.738 6466
-0.794 3.026 1.729 6001
-0.795 3.030 1.720 4540
-0.807 3.075 1.732 4838
-0.810 3.087 1.727 7971
-0.813 3.098 1.721 10845
-0.816 3.109 1.715 11571
-0.817 3.114 1.706 10298
-0.818 3.118 1.697 7953
-0.823 3.136 1.695 8398
-0.851 3.244 1.737 8384
-0.851 3.242 1.724 9872
-0.850 3.239 1.711 9292
-0.857 3.264 1.711 7443
-0.861 3.283 1.708 6335
-0.875 3.336 1.722 4867
-0.878 3.347 1.715 5039
-0.879 3.352 1.706 4174
-0.934 3.558 1.791 5833
-0.935 3.563 1.780 8410
-0.934 3.560 1.766 8576
-0.934 3.558 1.753 6646
-0.944 3.597 1.758 4437
-0.949 3.616 1.754 5446
-0.950 3.621 1.743 9421
-0.951 3.625 1.732 13530
-0.952 3.630 1.721 10541
-0.974 3.712 1.744 10686
-0.971 3.702 1.727 9749
-0.973 3.706 1.716 8520
-0.981 3.739 1.717 9272
-0.984 3.751 1.709 9260
-0.987 3.762 1.701 6621
-0.990 3.774 1.693 7556
-0.986 3.757 1.673 10235
-0.987 3.761 1.661 14242
-0.988 3.765 1.650 15916
-0.987 3.762 1.636 16689
-0.990 3.774 1.628 21900
-0.989 3.771 1.614 22597
-0.991 3.775 1.602 21671
-0.992 3.779 1.591 21439
-0.991 3.776 1.577 17774
-0.992 3.780 1.566 13326
-1.093 4.165 1.699 11473
-1.096 4.177 1.689 9157
-1.097 4.181 1.677 8627
-1.100 4.193 1.667 8205
-1.101 4.197 1.655 7667
-1.102 4.201 1.642 6319
-1.105 4.213 1.632 3393
-1.202 4.579 1.748 5104
-1.216 4.634 1.753 5502
-1.221 4.653 1.744 5690
-1.205 4.592 1.707 4198
-1.208 4.604 1.696 4922
-1.209 4.608 1.682 3481
-1.270 4.839 1.744 2487
-1.273 4.850 1.732 2846
-1.283 4.891 1.730 4860
-1.285 4.896 1.715 5316
-1.280 4.878 1.693 3713
-1.325 5.051 1.732 3206
-1.328 5.063 1.720 3860
-1.330 5.067 1.705 4220
-1.331 5.072 1.689 3423
-1.336 5.091 1.679 1795
-1.377 5.249 1.710 1753
-1.400 5.335 1.719 2761
-1.442 5.494 1.748 4422
-1.443 5.498 1.732 6162
-1.444 5.503 1.716 5556
-1.451 5.529 1.705 4438
-1.450 5.526 1.687 3459
-1.488 5.671 1.709 3656
-1.491 5.683 1.695 3684
-1.529 5.828 1.716 3744
-1.528 5.825 1.697 3595
-1.535 5.852 1.685 2066
-1.548 5.900 1.679 2418
-1.555 5.927 1.667 2201
-1.638 6.243 1.730 2251
-1.641 6.255 1.713 3032
-1.643 6.260 1.694 3341
-1.642 6.257 1.674 2963
-1.643 6.261 1.655 2764
-1.705 6.496 1.692 2850
-1.739 6.628 1.703 2720
-1.744 6.647 1.686 2418
-1.749 6.666 1.670 1480
-1.817 6.925 1.708 1410
-1.818 6.929 1.687 1696
-1.867 7.113 1.706 1867
-1.899 7.237 1.711 2138
-1.873 7.137 1.667 2462
-1.897 7.231 1.664 2335
-1.889 7.198 1.635 2570
-1.892 7.210 1.615 2361
-1.960 7.469 1.645 1788
-2.072 7.895 1.707 2050
-2.073 7.899 1.683 2234
-2.216 8.445 1.764 3146
-2.219 8.457 1.740 5289
-2.224 8.477 1.718 4682
-2.224 8.474 1.691 4459
-2.219 8.455 1.661 5950
-2.220 8.460 1.636 4601
-2.225 8.479 1.613 3292
-2.230 8.498 1.590 2959
-2.231 8.502 1.565 1718
-2.230 8.499 1.538 1195
-2.231 8.503 1.513 956
-2.228 8.491 1.485 413
-0.255 0.972 0.146 253
-0.253 0.964 0.144 279
-0.253 0.964 0.141 315
-0.253 0.964 0.138 314
-0.253 0.964 0.135 299
-0.253 0.964 0.133 282
-0.253 0.964 0.130 266
-0.566 2.162 1.746 3981
-0.568 2.166 1.739 7962
-0.569 2.171 1.733 7962
-0.572 2.182 1.731 7803
-0.574 2.192 1.729 7772
-0.595 2.271 1.778 6378
-0.600 2.289 1.780 6646
-0.601 2.293 1.774 6646
-0.604 2.304 1.771 7036
-0.607 2.315 1.769 7933
-0.608 2.320 1.762 7673
-0.606 2.312 1.746 7820
-0.615 2.348 1.762 10943
-0.616 2.352 1.755 14662
-0.619 2.363 1.753 14285
-0.619 2.361 1.741 13788
-0.620 2.366 1.734 13691
-0.619 2.364 1.723 9789
-0.619 2.362 1.711 5829
-0.639 2.437 1.752 7461
-0.638 2.435 1.741 9586
-0.643 2.452 1.742 8630
-0.649 2.476 1.748 9200
-0.650 2.481 1.740 8530
-0.646 2.466 1.720 7975
-0.646 2.464 1.709 6477
-0.645 2.462 1.697 5026
-0.653 2.492 1.707 5679
-0.652 2.490 1.695 6566
-0.655 2.501 1.692 6148
-0.691 2.636 1.767 6436
-0.694 2.647 1.763 7315
-0.697 2.659 1.759 8297
-0.696 2.656 1.748 7583
-0.695 2.654 1.736 7035
-0.702 2.679 1.740 6261
-0.705 2.690 1.736 8453
-0.706 2.694 1.728 10308
-0.707 2.699 1.720 8994
-0.708 2.703 1.712 7681
-0.713 2.721 1.712 6732
-0.718 2.739 1.712 6271
-0.719 2.743 1.703 6553
-0.722 2.754 1.699 5598
-0.725 2.765 1.695 4457
-0.727 2.776 1.690 3408
-0.739 2.821 1.705 3520
-0.769 2.933 1.757 3847
-0.773 2.951 1.756 5164
