-0.621 3.142 1.756 5034
-0.618 3.126 1.736 7053
-0.616 3.117 1.719 8501
-0.617 3.121 1.710 8537
-0.627 3.175 1.726 10072
-0.629 3.186 1.720 14748
-0.632 3.197 1.714 15595
-0.635 3.216 1.712 12289
-0.639 3.234 1.709 8184
-0.644 3.260 1.710 6135
-0.663 3.356 1.745 9128
-0.665 3.367 1.738 11704
-0.666 3.372 1.729 10235
-0.668 3.383 1.722 6200
-0.661 3.345 1.692 5488
-0.670 3.392 1.702 4512
-0.672 3.404 1.696 4071
-0.678 3.429 1.695 3039
-0.701 3.547 1.737 3335
-0.704 3.566 1.733 4288
-0.705 3.571 1.723 5023
-0.705 3.568 1.709 4132
-0.738 3.736 1.771 4660
-0.740 3.748 1.763 4845
-0.743 3.760 1.755 4209
-0.745 3.772 1.748 3945
-0.747 3.783 1.740 4409
-0.751 3.802 1.734 4194
-0.762 3.857 1.745 4473
-0.760 3.847 1.727 6041
-0.761 3.852 1.716 7935
-0.763 3.864 1.708 9712
-0.766 3.875 1.699 11611
-0.766 3.880 1.688 9548
-0.770 3.899 1.682 6110
-0.774 3.917 1.676 4203
-0.775 3.922 1.665 3813
-0.770 3.897 1.642 4590
-0.771 3.901 1.631 5594
-0.815 4.124 1.703 5791
-0.770 3.895 1.602 5573
-0.770 3.900 1.591 8031
-0.771 3.904 1.579 7583
-0.771 3.900 1.565 4475
-0.825 4.175 1.653 5069
-0.855 4.326 1.694 3749
-0.858 4.345 1.686 3357
-0.901 4.562 1.750 5175
-0.901 4.559 1.733 5908
-0.900 4.556 1.717 2718
-0.924 4.678 1.745 2609
-0.924 4.675 1.729 4232
-0.929 4.702 1.722 3746
-0.933 4.721 1.713 2743
-0.973 4.925 1.766 3042
-0.969 4.908 1.744 4147
-0.984 4.979 1.752 3390
-0.986 4.991 1.739 3894
-0.991 5.017 1.732 3022
-0.999 5.059 1.729 2650
-1.016 5.145 1.739 2413
-1.016 5.142 1.722 3104
-1.020 5.162 1.711 6343
-1.021 5.166 1.696 9937
-1.023 5.178 1.683 7702
-1.024 5.183 1.668 5197
-1.026 5.194 1.655 4335
-1.062 5.378 1.692 7171
-1.065 5.390 1.678 6349
-1.069 5.409 1.667 6360
-1.066 5.398 1.646 8770
-1.063 5.380 1.624 8817
-1.068 5.407 1.614 6461
-1.072 5.426 1.603 8475
-1.074 5.438 1.589 9940
-1.074 5.435 1.571 7076
-1.073 5.431 1.553 3598
-1.086 5.495 1.552 2694
-1.075 5.439 1.521 2037
-1.239 6.272 1.714 2277
-1.244 6.299 1.702 2680
-1.250 6.326 1.689 2716
-1.288 6.520 1.716 2760
-1.290 6.532 1.699 2460
-1.338 6.771 1.735 1916
-1.338 6.775 1.715 2425
-1.375 6.961 1.737 2098
-1.378 6.973 1.718 2674
-1.379 6.978 1.698 2199
-1.343 6.800 1.636 2065
-1.443 7.306 1.726 3288
-1.444 7.310 1.704 5243
-1.447 7.322 1.684 5031
-1.447 7.327 1.663 3818
-1.447 7.323 1.640 3604
-1.446 7.320 1.616 2397
-1.549 7.842 1.698 2735
-1.549 7.839 1.674 2113
-1.595 8.073 1.695 1731
-1.612 8.161 1.687 1910
-1.660 8.402 1.707 1935
-1.718 8.697 1.736 1607
-1.751 8.862 1.740 2266
-1.752 8.867 1.713 1996
-1.805 9.139 1.734 1377
-1.806 9.144 1.707 1518
-1.804 9.133 1.677 1225
-1.811 9.168 1.655 621
-1.810 9.164 1.627 420
-1.828 9.253 1.613 285
-0.443 2.249 1.788 2292
-0.444 2.254 1.781 4584
-0.445 2.258 1.775 4584
-0.447 2.269 1.773 4418
-0.448 2.274 1.766 4294
-0.454 2.304 1.778 5022
-0.458 2.321 1.780 6546
-0.459 2.326 1.774 6546
-0.461 2.337 1.771 6761
-0.462 2.342 1.765 7172
-0.464 2.353 1.762 6267
-0.466 2.364 1.760 5672
-0.466 2.362 1.749 4384
-0.463 2.347 1.728 3633
-0.464 2.352 1.722 2729
-0.482 2.447 1.776 2421
-0.483 2.451 1.769 2800
-0.480 2.436 1.749 3439
-0.480 2.435 1.738 4296
-0.481 2.439 1.731 3817
-0.482 2.444 1.723 3337
-0.485 2.461 1.725 3009
-0.499 2.531 1.760 4088
-0.499 2.529 1.749 6738
-0.500 2.534 1.741 9433
-0.502 2.545 1.738 7936
-0.505 2.563 1.739 6639
-0.508 2.574 1.736 4857
-0.515 2.611 1.749 4035
-0.516 2.616 1.742 5147
-0.517 2.621 1.734 6259
-0.518 2.625 1.726 5350
-0.519 2.630 1.719 4442
-0.531 2.694 1.748 3439
-0.547 2.772 1.784 3201
-0.549 2.784 1.780 2597
-0.539 2.735 1.740 3268
-0.542 2.746 1.736 4315
-0.548 2.778 1.744 6555
-0.549 2.782 1.736 9100
-0.551 2.793 1.731 7862
-0.553 2.805 1.727 6764
-0.554 2.809 1.719 6351
-0.556 2.821 1.715 4851
-0.573 2.907 1.752 6239
-0.574 2.911 1.744 9042
-0.574 2.909 1.732 11865
-0.576 2.920 1.727 9967
-0.581 2.945 1.730 6509
-0.588 2.984 1.740 6746
-0.589 2.989 1.731 8719
-0.593 3.007 1.730 9373
-0.595 3.018 1.724 8707
-0.597 3.030 1.719 6442
-0.612 3.103 1.747 4760
-0.620 3.143 1.756 4986
-0.616 3.126 1.736 7088
-0.615 3.117 1.719 8576
-0.616 3.122 1.710 8605
-0.626 3.175 1.726 10105
-0.628 3.186 1.720 14962
-0.631 3.198 1.714 15889
-0.634 3.216 1.712 12536
-0.638 3.235 1.709 8514
-0.643 3.260 1.710 6068
-0.663 3.363 1.748 9036
-0.664 3.367 1.738 11525
-0.666 3.379 1.732 9957
-0.667 3.383 1.722 5966
-0.660 3.346 1.692 5410
-0.669 3.393 1.702 4393
-0.671 3.404 1.696 4066
-0.675 3.423 1.692 3021
-0.700 3.548 1.737 3289
-0.703 3.566 1.733 4203
-0.704 3.571 1.723 4892
-0.704 3.568 1.709 3965
-0.737 3.737 1.771 4696
-0.739 3.748 1.763 4881
-0.741 3.760 1.755 4184
-0.744 3.772 1.748 3897
-0.746 3.784 1.740 4399
-0.750 3.803 1.734 4208
-0.759 3.850 1.741 4390
-0.759 3.848 1.727 5940
-0.760 3.852 1.716 7659
-0.762 3.864 1.708 9438
-0.764 3.875 1.699 11365
-0.767 3.887 1.691 9310
-0.770 3.906 1.685 6069
-0.773 3.918 1.676 4297
-0.773 3.922 1.665 3725
-0.769 3.897 1.642 4237
-0.812 4.120 1.715 5674
-0.813 4.124 1.703 5876
-0.768 3.896 1.602 5310
-0.769 3.900 1.591 7695
-0.770 3.904 1.579 7211
-0.769 3.901 1.565 4231
-0.823 4.175 1.653 5049
-0.853 4.326 1.694 3766
-0.857 4.345 1.686 3391
-0.900 4.562 1.750 5393
-0.899 4.559 1.733 6076
-0.898 4.556 1.717 2700
-0.923 4.678 1.745 2613
-0.922 4.676 1.729 4245
-0.927 4.702 1.722 3625
-0.933 4.729 1.716 2664
-0.971 4.925 1.766 3035
-0.968 4.908 1.744 4164
-0.982 4.979 1.752 3422
-0.984 4.991 1.739 3952
-0.989 5.018 1.732 3031
-0.998 5.059 1.729 2561
-1.016 5.153 1.742 2414
-1.014 5.143 1.722 3084
-1.018 5.162 1.711 6348
-1.019 5.167 1.696 10234
-1.021 5.178 1.683 7888
-1.022 5.183 1.668 5034
-1.024 5.195 1.655 4218
-1.061 5.378 1.692 7376
-1.063 5.390 1.678 6698
-1.065 5.402 1.664 6736
-1.065 5.399 1.646 9106
-1.061 5.381 1.624 8778
-1.068 5.415 1.617 6482
-1.070 5.427 1.603 8624
-1.072 5.438 1.589 9892
-1.072 5.435 1.571 7082
-1.071 5.431 1.553 3641
-1.084 5.496 1.552 2739
-1.073 5.439 1.521 2065
-1.237 6.273 1.714 2464
-1.242 6.300 1.702 2753
-1.248 6.327 1.689 2735
-1.286 6.520 1.716 2685
-1.288 6.532 1.699 2341
-1.335 6.771 1.735 1951
-1.336 6.776 1.715 2452
-1.373 6.962 1.737 2116
-1.375 6.974 1.718 2706
-1.376 6.978 1.698 2186
-1.340 6.793 1.635 2029
-1.441 7.306 1.726 3302
-1.443 7.318 1.706 5337
-1.444 7.323 1.684 5255
-1.445 7.327 1.663 3956
-1.444 7.324 1.640 3632
-1.445 7.328 1.618 2466
-1.548 7.851 1.700 2677
-1.546 7.840 1.674 2041
-1.592 8.073 1.695 1817
-1.609 8.162 1.687 1943
-1.657 8.403 1.707 1906
-1.750 8.873 1.769 1573
-1.749 8.870 1.741 2309
-1.749 8.867 1.713 2018
-1.804 9.147 1.735 1376
-1.802 9.136 1.706 1506
-1.801 9.133 1.677 1226
-1.806 9.161 1.654 615
-1.807 9.165 1.627 412
-1.825 9.254 1.613 270
-0.442 2.249 1.788 2244
-0.443 2.254 1.781 4488
-0.444 2.258 1.775 4488
-0.446 2.269 1.773 4387
-0.449 2.280 1.771 4361
-0.453 2.304 1.778 5236
-0.455 2.315 1.776 6817
-0.456 2.320 1.769 6817
-0.460 2.337 1.771 6965
-0.461 2.342 1.765 7345
-0.463 2.353 1.762 6292
-0.465 2.364 1.760 5567
-0.465 2.362 1.749 4217
-0.462 2.347 1.728 3415
-0.461 2.345 1.717 2600
-0.481 2.447 1.776 2382
-0.482 2.451 1.769 2756
-0.479 2.437 1.749 3321
-0.479 2.435 1.738 4099
-0.480 2.439 1.731 3683
-0.481 2.444 1.723 3267
-0.484 2.461 1.725 2919
-0.498 2.531 1.760 4141
-0.498 2.529 1.749 6793
-0.498 2.534 1.741 9498
-0.501 2.545 1.738 8002
-0.504 2.563 1.739 6714
-0.506 2.574 1.736 4904
-0.514 2.612 1.749 4054
-0.515 2.616 1.742 5160
-0.516 2.621 1.734 6266
-0.516 2.625 1.726 5333
-0.519 2.637 1.723 4406
-0.530 2.695 1.748 3466
-0.545 2.773 1.784 3210
-0.546 2.777 1.776 2622
-0.539 2.742 1.744 3303
-0.542 2.753 1.740 4339
-0.546 2.778 1.744 6616
-0.547 2.782 1.736 9108
-0.550 2.794 1.731 7861
-0.552 2.805 1.727 6760
-0.553 2.810 1.719 6440
-0.555 2.821 1.715 4998
-0.572 2.907 1.752 6256
-0.573 2.911 1.744 9076
-0.572 2.909 1.732 11967
-0.575 2.921 1.727 10043
-0.579 2.946 1.730 6496
-0.587 2.984 1.740 6700
-0.588 2.989 1.731 8630
-0.592 3.007 1.730 9276
-0.594 3.019 1.724 8672
-0.596 3.030 1.719 6439
-0.609 3.097 1.743 4733
-0.618 3.143 1.756 4908
-0.615 3.127 1.736 6952
-0.613 3.117 1.719 8423
-0.613 3.115 1.707 8531
-0.625 3.175 1.726 10142
-0.627 3.187 1.720 15065
-0.629 3.198 1.714 15995
-0.633 3.216 1.712 12489
-0.636 3.235 1.709 8229
-0.641 3.260 1.710 5745
-0.660 3.356 1.745 9082
-0.662 3.368 1.738 11488
-0.665 3.379 1.732 9804
-0.666 3.384 1.722 5822
-0.658 3.346 1.692 5347
-0.666 3.386 1.699 4352
-0.670 3.404 1.696 4051
-0.673 3.423 1.692 3004
-0.698 3.548 1.737 3209
-0.703 3.574 1.736 4132
-0.702 3.571 1.723 4771
-0.702 3.569 1.709 3849
-0.735 3.737 1.771 4748
-0.737 3.749 1.763 4966
-0.740 3.760 1.755 4195
-0.742 3.772 1.748 3862
-0.744 3.784 1.740 4384
-0.748 3.803 1.734 4221
-0.757 3.851 1.741 4312
-0.757 3.848 1.727 5829
-0.758 3.852 1.716 7404
-0.760 3.864 1.708 9140
-0.762 3.876 1.699 11024
-0.765 3.888 1.691 8992
-0.768 3.906 1.685 6018
-0.771 3.918 1.676 4402
-0.772 3.922 1.665 3700
-0.768 3.905 1.645 4040
-0.810 4.120 1.715 5786
-0.811 4.124 1.703 5984
-0.766 3.896 1.602 5089
-0.767 3.900 1.591 7356
-0.768 3.904 1.579 6859
-0.818 4.157 1.660 4258
-0.821 4.176 1.653 5021
-0.851 4.326 1.694 3763
-0.855 4.345 1.686 3383
-0.897 4.562 1.750 5483
-0.897 4.560 1.733 6150
-0.896 4.557 1.717 2775
-0.920 4.679 1.745 2691
-0.920 4.676 1.729 4278
-0.925 4.703 1.722 3474
-0.932 4.737 1.718 2528
-0.969 4.926 1.766 3027
-0.965 4.908 1.744 4174
-0.979 4.979 1.752 3378
-0.982 4.991 1.739 3850
-0.987 5.018 1.732 2995
-0.995 5.060 1.729 2531
-1.014 5.153 1.742 2366
-1.012 5.143 1.722 2906
-1.016 5.163 1.711 6298
-1.016 5.167 1.696 10463
-1.019 5.179 1.683 7961
-1.021 5.191 1.670 4824
-1.022 5.195 1.655 4037
-1.059 5.386 1.694 7475
-1.060 5.391 1.678 6997
-1.063 5.402 1.664 7138
-1.062 5.399 1.646 9528
-1.060 5.389 1.626 8917
-1.065 5.415 1.617 6651
-1.068 5.427 1.603 8780
-1.070 5.439 1.589 9812
-1.069 5.435 1.571 7018
-1.068 5.432 1.553 3670
-1.081 5.496 1.552 2765
-1.070 5.440 1.521 2097
-1.234 6.273 1.714 2496
-1.239 6.300 1.702 2769
-1.245 6.327 1.689 2756
-1.283 6.521 1.716 2637
-1.285 6.533 1.699 2249
-1.332 6.772 1.735 1861
-1.333 6.776 1.715 2341
-1.370 6.962 1.737 2090
-1.372 6.975 1.718 2690
-1.373 6.979 1.698 2181
-1.336 6.794 1.635 1940
-1.437 7.307 1.726 3307
-1.438 7.311 1.704 5385
-1.441 7.323 1.684 5397
-1.441 7.328 1.663 4023
-1.441 7.325 1.640 3652
-1.442 7.329 1.618 2574
-1.544 7.851 1.700 2639
-1.542 7.841 1.674 1927
-1.588 8.074 1.695 1875
-1.606 8.162 1.687 1916
-1.653 8.403 1.707 1967
-1.746 8.874 1.769 1569
-1.745 8.871 1.741 2294
-1.746 8.876 1.715 2017
-1.799 9.148 1.735 1408
-1.799 9.145 1.707 1544
-1.798 9.142 1.679 1243
-1.804 9.169 1.655 635
-1.803 9.166 1.627 421
-1.820 9.254 1.613 278
-0.442 2.256 1.792 2014
-0.443 2.260 1.786 4028
-0.443 2.265 1.779 4028
-0.446 2.276 1.777 4672
-0.449 2.293 1.780 5886
-0.451 2.304 1.778 7849
-0.453 2.315 1.776 10232
-0.454 2.320 1.769 10232
-0.456 2.331 1.767 9838
-0.459 2.342 1.765 9848
-0.459 2.347 1.758 7999
-0.462 2.358 1.755 6288
-0.461 2.356 1.744 4526
-0.460 2.348 1.728 3083
-0.459 2.346 1.717 2743
-0.459 2.344 1.706 2512
-0.480 2.452 1.769 2732
-0.480 2.450 1.758 2770
-0.478 2.442 1.742 2904
-0.478 2.440 1.731 2790
-0.477 2.438 1.719 2762
-0.496 2.534 1.772 3215
-0.496 2.532 1.760 4636
-0.495 2.530 1.749 7434
-0.496 2.534 1.741 10267
-0.498 2.546 1.738 8565
-0.502 2.563 1.739 7138
-0.505 2.581 1.740 5444
-0.511 2.612 1.749 4649
-0.512 2.617 1.742 6099
-0.513 2.621 1.734 7550
-0.515 2.633 1.730 5986
-0.520 2.657 1.735 5011
-0.526 2.688 1.743 4521
-0.527 2.693 1.736 4272
-0.536 2.738 1.752 3580
-0.539 2.756 1.752 4385
-0.540 2.760 1.744 5130
-0.544 2.778 1.744 6594
-0.546 2.790 1.740 8393
-0.548 2.801 1.735 7368
-0.556 2.839 1.747 6899
-0.551 2.817 1.723 7257
-0.554 2.828 1.718 6597
-0.568 2.901 1.749 6292
-0.567 2.898 1.736 9476
-0.568 2.903 1.728 12739
-0.571 2.914 1.723 10757
-0.577 2.946 1.730 6736
-0.584 2.985 1.740 6117
-0.585 2.990 1.731 8045
-0.589 3.008 1.730 8899
-0.591 3.019 1.724 8390
-0.593 3.031 1.719 5906
-0.601 3.070 1.729 5021
-0.602 3.074 1.720 5408
-0.612 3.127 1.736 7163
-0.612 3.125 1.723 8769
-0.611 3.122 1.710 8556
-0.615 3.141 1.708 10557
-0.624 3.187 1.720 16809
-0.626 3.199 1.714 18840
-0.630 3.217 1.712 14829
-0.633 3.236 1.709 9886
-0.652 3.331 1.744 6050
-0.656 3.350 1.742 9089
-0.659 3.368 1.738 10333
-0.662 3.380 1.732 7606
-0.653 3.335 1.699 5086
-0.655 3.347 1.692 5458
-0.657 3.358 1.686 4363
-0.671 3.426 1.705 3265
-0.701 3.579 1.764 3425
-0.700 3.577 1.750 3298
-0.701 3.581 1.740 3672
-0.701 3.579 1.726 3607
-0.732 3.740 1.785 3155
-0.733 3.745 1.774 5022
-0.734 3.749 1.763 5806
-0.738 3.768 1.759 4694
-0.740 3.780 1.751 4069
-0.742 3.792 1.743 4856
-0.747 3.818 1.741 5065
-0.753 3.844 1.738 4094
-0.752 3.841 1.724 4290
-0.754 3.853 1.716 4075
-0.758 3.872 1.710 5852
-0.759 3.877 1.699 8437
-0.761 3.888 1.691 7081
-0.766 3.914 1.688 5588
-0.767 3.919 1.676 4529
-0.774 3.952 1.676 3058
-0.806 4.116 1.727 3761
-0.805 4.113 1.712 6947
-0.806 4.118 1.700 7297
-0.808 4.130 1.691 5115
-0.849 4.338 1.756 5601
-0.852 4.350 1.746 5204
-0.812 4.150 1.657 5248
-0.815 4.162 1.648 4977
-0.847 4.327 1.694 3658
-0.884 4.515 1.747 4159
-0.889 4.541 1.742 7738
-0.891 4.553 1.731 7879
-0.891 4.550 1.715 3487
-0.915 4.672 1.742 3061
-0.914 4.670 1.726 3930
-0.932 4.763 1.742 3318
-0.933 4.767 1.728 4045
-0.937 4.786 1.719 3093
-0.950 4.850 1.725 4033
-0.961 4.906 1.727 3305
-0.979 5.000 1.742 3178
-0.967 4.938 1.706 3165
-0.972 4.964 1.698 2635
-1.008 5.147 1.739 1764
-1.007 5.144 1.722 1649
-1.009 5.156 1.709 5724
-1.012 5.168 1.696 12115
-1.016 5.187 1.685 10034
-1.019 5.207 1.675 5490
-1.055 5.390 1.712 3862
-1.055 5.387 1.694 7165
-1.056 5.392 1.678 7999
-1.056 5.396 1.662 8563
-1.057 5.400 1.646 9499
-1.060 5.412 1.633 8360
-1.063 5.431 1.621 9641
-1.066 5.443 1.607 11022
-1.068 5.455 1.593 8509
-1.066 5.444 1.573 6472
-1.067 5.448 1.557 4352
-1.070 5.467 1.544 2874
-1.226 6.262 1.731 2677
-1.225 6.259 1.711 4015
-1.231 6.286 1.698 2831
-1.266 6.464 1.722 2393
-1.277 6.522 1.716 1844
-1.294 6.609 1.717 1883
-1.296 6.622 1.699 2306
-1.305 6.664 1.688 2247
-1.362 6.956 1.735 2074
-1.364 6.968 1.716 2456
-1.362 6.958 1.692 2019
-1.396 7.129 1.709 2098
-1.428 7.293 1.723 3410
-1.432 7.313 1.704 6001
-1.434 7.325 1.684 6714
-1.433 7.322 1.661 4757
-1.431 7.311 1.636 4193
-1.432 7.315 1.615 3321
-1.539 7.860 1.701 2166
-1.540 7.865 1.678 1499
-1.579 8.068 1.693 1485
-1.600 8.171 1.689 1827
-1.605 8.199 1.669 1635
-1.613 8.241 1.651 1529
-1.739 8.880 1.742 1959
-1.738 8.877 1.715 1776
-1.796 9.173 1.739 1299
-1.797 9.177 1.712 2097
-1.795 9.166 1.683 1685
-1.794 9.163 1.654 694
-1.810 9.244 1.640 410
-1.814 9.264 1.615 269
-0.430 2.258 1.792 1962
-0.431 2.263 1.786 3924
-0.432 2.267 1.779 3924
-0.435 2.285 1.782 4660
-0.437 2.296 1.780 5991
-0.439 2.307 1.778 7967
-0.442 2.318 1.776 10343
-0.442 2.322 1.769 10343
-0.445 2.333 1.767 9872
-0.447 2.344 1.765 9799
-0.448 2.349 1.758 7902
-0.450 2.360 1.755 6117
-0.449 2.358 1.744 4354
-0.448 2.350 1.728 2904
-0.447 2.348 1.717 2634
-0.447 2.346 1.706 2438
-0.468 2.454 1.769 2714
-0.467 2.452 1.758 2777
-0.467 2.451 1.746 2877
-0.465 2.442 1.731 2708
-0.465 2.440 1.719 2696
-0.483 2.536 1.772 3244
-0.483 2.534 1.760 4629
-0.482 2.532 1.749 7396
-0.483 2.537 1.741 10194
-0.485 2.548 1.738 8496
-0.489 2.566 1.739 7080
-0.492 2.584 1.740 5420
-0.498 2.615 1.749 4666
-0.499 2.619 1.742 6070
-0.500 2.624 1.734 7474
-0.502 2.635 1.730 5911
-0.507 2.660 1.735 5023
-0.513 2.691 1.743 4589
-0.515 2.702 1.740 4352
-0.522 2.740 1.752 3618
-0.526 2.758 1.752 4458
-0.526 2.763 1.744 5214
-0.530 2.781 1.744 6452
-0.532 2.792 1.740 8085
-0.534 2.804 1.735 7116
-0.542 2.842 1.747 6820
-0.537 2.820 1.723 7161
-0.539 2.831 1.718 6626
-0.553 2.903 1.749 6219
-0.553 2.901 1.736 9388
-0.554 2.906 1.728 12613
-0.556 2.917 1.723 10664
-0.562 2.949 1.730 6875
-0.569 2.988 1.740 6235
-0.570 2.992 1.731 8062
-0.574 3.011 1.730 8931
-0.576 3.022 1.724 8498
-0.578 3.034 1.719 6050
-0.585 3.073 1.729 5235
-0.586 3.077 1.720 5891
-0.596 3.130 1.736 7274
-0.596 3.128 1.723 8902
-0.595 3.125 1.710 8549
-0.599 3.144 1.708 10477
-0.608 3.190 1.720 16574
-0.610 3.202 1.714 18598
-0.614 3.220 1.712 14385
-0.617 3.239 1.709 9125
-0.635 3.334 1.744 6207
-0.639 3.353 1.742 9075
-0.642 3.372 1.738 10064
-0.645 3.383 1.732 7210
-0.636 3.338 1.699 4844
-0.638 3.350 1.692 5201
-0.639 3.354 1.682 4177
-0.676 3.550 1.761 3406
-0.683 3.583 1.764 3589
-0.682 3.580 1.750 3317
-0.683 3.585 1.740 3526
-0.683 3.582 1.726 3355
-0.715 3.751 1.788 3136
-0.714 3.748 1.774 4990
-0.715 3.753 1.763 5782
-0.719 3.772 1.759 4697
-0.721 3.784 1.751 4121
-0.723 3.796 1.743 4852
-0.728 3.822 1.741 4984
-0.733 3.848 1.738 4046
-0.733 3.845 1.724 4058
-0.751 3.943 1.752 3877
-0.738 3.876 1.710 5373
-0.739 3.880 1.699 8001
-0.742 3.892 1.691 6780
-0.747 3.918 1.688 5416
-0.747 3.923 1.676 4427
-0.754 3.956 1.676 2931
-0.785 4.120 1.727 3765
-0.784 4.117 1.712 6898
-0.785 4.122 1.700 7274
-0.786 4.126 1.688 5136
-0.827 4.342 1.756 5436
-0.830 4.354 1.746 5079
-0.791 4.154 1.657 5282
-0.794 4.166 1.648 4909
-0.825 4.331 1.694 3599
-0.861 4.519 1.747 4197
-0.866 4.546 1.742 7720
-0.868 4.557 1.731 7875
-0.868 4.555 1.715 3562
-0.891 4.677 1.742 3049
-0.891 4.674 1.726 3924
-0.908 4.767 1.742 3548
-0.909 4.772 1.728 4444
-0.913 4.791 1.719 3282
-0.925 4.855 1.725 3977
-0.936 4.911 1.727 3200
-0.954 5.005 1.742 2991
-0.942 4.942 1.706 3084
-0.945 4.962 1.696 2587
-0.983 5.159 1.742 1594
-0.981 5.149 1.722 1450
-0.983 5.161 1.709 5583
-0.986 5.173 1.696 12069
-0.989 5.192 1.685 10259
-0.993 5.212 1.675 5706
-1.028 5.395 1.712 3764
-1.029 5.400 1.696 6881
-1.028 5.397 1.678 7770
-1.029 5.401 1.662 8239
-1.030 5.406 1.646 8964
-1.032 5.417 1.633 8082
-1.036 5.437 1.621 9872
-1.038 5.448 1.607 11125
-1.040 5.460 1.593 8325
-1.038 5.449 1.573 6347
-1.039 5.453 1.557 4299
-1.043 5.472 1.544 2761
-1.194 6.268 1.731 2793
-1.194 6.265 1.711 4198
-1.199 6.292 1.698 2737
-1.233 6.471 1.722 2391
-1.247 6.543 1.720 1776
-1.261 6.616 1.717 1914
-1.263 6.628 1.699 2361
-1.271 6.670 1.688 2302
-1.327 6.963 1.735 1992
-1.328 6.967 1.715 2351
-1.327 6.964 1.692 1953
-1.360 7.136 1.709 2156
-1.382 7.254 1.713 3477
-1.395 7.320 1.704 5975
-1.397 7.332 1.684 6759
-1.396 7.329 1.661 4731
-1.394 7.318 1.636 4170
-1.395 7.322 1.615 3298
-1.501 7.876 1.703 2069
-1.501 7.880 1.680 1472
-1.540 8.083 1.695 1452
-1.560 8.187 1.690 1794
-1.562 8.199 1.667 1558
-1.573 8.257 1.653 1501
-1.694 8.889 1.742 1909
-1.694 8.894 1.716 1752
-1.749 9.182 1.739 1330
-1.750 9.186 1.712 2119
-1.748 9.175 1.683 1685
-1.748 9.172 1.654 667
-1.763 9.253 1.640 397
-1.770 9.288 1.617 259
-0.429 2.258 1.792 1973
-0.430 2.263 1.786 3947
-0.431 2.268 1.779 3947
-0.434 2.285 1.782 4805
-0.436 2.296 1.780 6267
-0.438 2.307 1.778 8343
-0.440 2.318 1.776 10814
-0.441 2.323 1.769 10814
-0.443 2.334 1.767 10256
-0.445 2.345 1.765 10105
-0.446 2.349 1.758 8101
-0.448 2.360 1.755 6171
-0.448 2.359 1.744 4405
-0.446 2.350 1.728 2941
-0.446 2.348 1.717 2705
-0.446 2.346 1.706 2500
-0.466 2.455 1.769 2730
-0.466 2.453 1.758 2781
-0.465 2.451 1.746 2815
-0.464 2.442 1.731 2644
-0.464 2.440 1.719 2706
-0.482 2.536 1.772 3336
-0.481 2.535 1.760 4760
-0.481 2.533 1.749 7600
-0.482 2.537 1.741 10462
-0.484 2.548 1.738 8721
-0.487 2.566 1.739 7266
-0.491 2.584 1.740 5575
-0.497 2.615 1.749 4713
-0.498 2.620 1.742 6107
-0.498 2.624 1.734 7501
-0.501 2.635 1.730 5896
-0.505 2.660 1.735 5076
-0.511 2.691 1.743 4696
-0.513 2.703 1.740 4513
-0.521 2.741 1.752 3727
-0.524 2.759 1.752 4587
-0.525 2.763 1.744 5341
-0.528 2.781 1.744 6335
-0.530 2.793 1.740 7820
-0.533 2.804 1.735 6992
-0.540 2.842 1.747 6993
-0.536 2.820 1.723 7354
-0.538 2.831 1.718 6909
-0.550 2.897 1.745 6079
-0.551 2.902 1.736 9340
-0.552 2.906 1.728 12601
-0.554 2.917 1.723 10686
-0.560 2.949 1.730 6972
-0.565 2.975 1.732 5937
-0.568 2.993 1.731 7591
-0.572 3.011 1.730 8512
-0.574 3.023 1.724 8181
-0.576 3.034 1.719 5785
-0.584 3.073 1.729 5157
-0.585 3.078 1.720 5754
-0.595 3.131 1.736 7270
-0.594 3.128 1.723 8913
-0.594 3.126 1.710 8572
-0.597 3.144 1.708 10394
-0.606 3.191 1.720 16380
-0.608 3.202 1.714 18330
-0.612 3.221 1.712 14102
-0.615 3.239 1.709 9006
-0.633 3.335 1.744 6350
-0.637 3.353 1.742 9083
-0.639 3.365 1.735 9868
-0.643 3.384 1.732 6836
-0.634 3.339 1.699 4896
-0.636 3.350 1.692 5265
-0.659 3.468 1.735 4332
-0.674 3.550 1.761 3880
-0.681 3.583 1.764 3731
-0.680 3.581 1.750 3317
-0.681 3.585 1.740 3632
-0.680 3.583 1.726 3506
-0.714 3.758 1.792 3170
-0.712 3.749 1.774 4978
-0.713 3.753 1.763 5831
-0.716 3.772 1.759 4693
-0.719 3.784 1.751 4067
-0.722 3.803 1.746 4768
-0.726 3.822 1.741 4888
-0.732 3.855 1.741 3980
-0.730 3.846 1.724 3875
-0.749 3.944 1.752 4019
-0.736 3.876 1.710 4858
-0.737 3.881 1.699 7587
-0.739 3.892 1.691 6560
-0.744 3.919 1.688 5344
-0.744 3.916 1.674 4343
-0.771 4.058 1.716 2875
-0.783 4.121 1.727 3787
-0.782 4.118 1.712 6915
-0.783 4.122 1.700 7382
-0.784 4.127 1.688 5323
-0.825 4.343 1.756 5277
-0.828 4.362 1.748 5055
-0.789 4.155 1.657 5410
-0.791 4.166 1.648 4841
-0.823 4.332 1.694 3540
-0.860 4.527 1.750 4247
-0.863 4.546 1.742 7748
-0.866 4.558 1.731 7659
-0.865 4.555 1.715 3630
-0.887 4.670 1.740 3059
-0.888 4.675 1.726 3858
-0.906 4.768 1.742 3914
-0.906 4.772 1.728 4992
-0.909 4.784 1.717 3542
-0.922 4.855 1.725 4202
-0.933 4.912 1.727 3227
-0.951 5.005 1.742 2958
-0.939 4.943 1.706 3088
-0.942 4.962 1.696 2625
-0.980 5.160 1.742 1442
-0.977 5.142 1.720 1284
-0.980 5.162 1.709 5469
-0.983 5.174 1.696 12000
-0.986 5.193 1.685 10607
-0.990 5.212 1.675 6068
-1.025 5.396 1.712 3643
-1.026 5.400 1.696 6631
-1.025 5.397 1.678 7505
-1.026 5.402 1.662 7880
-1.027 5.406 1.646 8448
-1.029 5.418 1.633 7740
-1.033 5.437 1.621 9940
-1.035 5.449 1.607 11228
-1.037 5.461 1.593 8173
-1.035 5.450 1.573 6216
-1.034 5.446 1.555 4262
-1.039 5.473 1.544 2650
-1.191 6.269 1.731 2814
-1.190 6.266 1.711 4252
-1.195 6.293 1.698 2636
-1.229 6.471 1.722 2572
-1.260 6.635 1.742 1778
-1.257 6.617 1.717 2010
-1.259 6.629 1.699 2488
-1.266 6.663 1.687 2362
-1.321 6.956 1.733 1930
-1.322 6.961 1.713 2274
-1.321 6.958 1.691 1865
-1.355 7.137 1.709 2366
-1.378 7.255 1.713 3644
-1.389 7.313 1.703 5998
-1.393 7.333 1.684 6800
-1.392 7.330 1.661 4748
-1.390 7.319 1.636 4269
-1.389 7.315 1.613 3387
-1.496 7.877 1.703 2056
-1.501 7.904 1.684 1521
-1.534 8.076 1.693 1461
-1.555 8.188 1.690 1640
-1.559 8.208 1.669 1532
-1.568 8.258 1.653 1591
-1.688 8.890 1.742 1803
-1.689 8.895 1.716 1696
-1.744 9.183 1.739 1315
-1.745 9.187 1.712 2171
-1.743 9.176 1.683 1701
-1.741 9.165 1.653 659
-1.758 9.254 1.640 393
-0.428 2.258 1.792 1906
-0.428 2.263 1.786 3812
-0.429 2.268 1.779 3812
-0.433 2.285 1.782 4756
-0.435 2.296 1.780 6278
-0.437 2.307 1.778 8379
-0.439 2.318 1.776 10855
-0.440 2.323 1.769 10855
-0.442 2.334 1.767 10264
-0.444 2.345 1.765 10091
-0.445 2.350 1.758 8087
-0.447 2.361 1.755 6138
-0.447 2.359 1.744 4376
-0.445 2.351 1.728 2874
-0.445 2.349 1.717 2696
-0.445 2.353 1.710 2535
-0.465 2.455 1.769 2683
-0.464 2.453 1.758 2728
-0.465 2.458 1.751 2748
-0.464 2.449 1.735 2554
-0.462 2.441 1.719 2642
-0.480 2.537 1.772 3307
-0.480 2.535 1.760 4696
-0.479 2.533 1.749 7492
-0.480 2.538 1.741 10309
-0.482 2.549 1.738 8607
-0.486 2.566 1.739 7195
-0.489 2.584 1.740 5559
-0.495 2.615 1.749 4694
-0.496 2.620 1.742 6062
-0.497 2.625 1.734 7431
-0.499 2.636 1.730 5818
-0.504 2.660 1.735 5018
-0.510 2.692 1.743 4637
-0.512 2.703 1.740 4486
-0.519 2.741 1.752 3707
-0.522 2.759 1.752 4548
-0.523 2.764 1.744 5267
-0.527 2.782 1.744 6101
-0.529 2.793 1.740 7499
-0.532 2.811 1.739 6777
-0.538 2.843 1.747 6907
-0.534 2.820 1.723 7283
-0.536 2.832 1.718 6894
-0.548 2.897 1.745 5979
-0.549 2.902 1.736 9167
-0.550 2.906 1.728 12355
-0.552 2.918 1.723 10487
-0.558 2.950 1.730 6926
-0.563 2.975 1.732 6080
-0.567 2.993 1.731 7759
-0.570 3.011 1.730 8682
-0.572 3.023 1.724 8337
-0.574 3.034 1.719 5873
-0.582 3.073 1.729 5048
-0.583 3.078 1.720 5668
-0.593 3.131 1.736 7212
-0.592 3.129 1.723 8842
-0.592 3.126 1.710 8446
-0.595 3.145 1.708 10245
-0.604 3.191 1.720 15834
-0.606 3.202 1.714 17738
-0.610 3.221 1.712 13807
-0.613 3.239 1.709 9071
-0.631 3.335 1.744 6304
-0.635 3.354 1.742 8887
-0.637 3.365 1.735 9555
-0.641 3.384 1.732 6431
-0.632 3.339 1.699 4925
-0.634 3.351 1.692 5246
-0.635 3.355 1.682 4264
-0.672 3.551 1.761 4012
-0.677 3.577 1.761 3818
-0.678 3.581 1.750 3326
-0.679 3.586 1.740 3624
-0.680 3.590 1.729 3445
-0.713 3.766 1.795 3114
-0.710 3.749 1.774 4878
-0.711 3.754 1.763 5771
-0.714 3.773 1.759 4603
-0.716 3.785 1.751 3952
-0.720 3.804 1.746 4621
-0.724 3.823 1.741 4735
-0.730 3.856 1.741 3848
-0.728 3.846 1.724 3666
-0.747 3.944 1.752 4048
-0.735 3.884 1.713 4532
-0.735 3.881 1.699 7300
-0.737 3.893 1.691 6384
-0.743 3.926 1.691 5217
-0.743 3.923 1.676 4181
-0.768 4.058 1.716 2974
-0.780 4.121 1.727 3748
-0.780 4.118 1.712 6805
-0.779 4.116 1.697 7346
-0.781 4.127 1.688 5359
-0.824 4.351 1.758 5062
-0.826 4.362 1.748 4911
-0.787 4.155 1.657 5335
-0.789 4.167 1.648 4723
-0.827 4.369 1.707 3356
-0.857 4.527 1.750 4396
-0.861 4.547 1.742 7924
-0.863 4.559 1.731 7713
-0.862 4.556 1.715 3742
-0.884 4.671 1.740 3040
-0.885 4.675 1.726 3734
-0.903 4.768 1.742 4026
-0.903 4.773 1.728 5199
-0.906 4.785 1.717 3719
-0.919 4.856 1.725 4281
-0.930 4.912 1.727 3120
-0.948 5.006 1.742 2885
-0.936 4.944 1.706 3032
-0.939 4.963 1.696 2565
-0.977 5.161 1.742 1336
-0.974 5.143 1.720 1183
-0.977 5.162 1.709 5289
-0.979 5.174 1.696 11702
-0.983 5.194 1.685 10628
-0.987 5.213 1.675 6199
-1.022 5.397 1.712 3541
-1.022 5.401 1.696 6398
-1.022 5.398 1.678 7234
-1.023 5.402 1.662 7564
-1.025 5.414 1.648 8012
-1.026 5.419 1.633 7369
-1.029 5.438 1.621 9714
-1.032 5.450 1.607 11022
-1.034 5.461 1.593 7872
-1.032 5.450 1.573 5976
-1.031 5.447 1.555 4162
-1.153 6.092 1.705 2606
-1.187 6.270 1.731 2672
-1.186 6.267 1.711 4083
-1.191 6.294 1.698 2566
-1.225 6.472 1.722 2540
-1.256 6.636 1.742 1813
-1.253 6.617 1.717 1980
-1.255 6.629 1.699 2467
-1.262 6.664 1.687 2339
-1.317 6.957 1.733 1882
-1.319 6.969 1.715 2148
-1.317 6.958 1.691 1855
-1.351 7.138 1.709 2421
-1.374 7.256 1.713 3723
-1.384 7.314 1.703 5914
-1.388 7.334 1.684 6687
-1.388 7.330 1.661 4665
-1.384 7.312 1.635 4320
-1.385 7.316 1.613 3421
-1.491 7.877 1.703 1883
-1.498 7.912 1.686 1484
-1.529 8.077 1.693 1448
-1.550 8.189 1.690 1612
-1.554 8.209 1.669 1540
-1.563 8.259 1.653 1599
-1.683 8.891 1.742 1781
-1.684 8.896 1.716 1722
-1.738 9.184 1.739 1321
-1.739 9.188 1.712 2165
-1.737 9.177 1.683 1678
-1.735 9.166 1.653 643
-1.752 9.255 1.640 385
-0.426 2.259 1.792 1895
-0.427 2.263 1.786 3790
-0.428 2.268 1.779 3790
-0.431 2.285 1.782 4808
-0.433 2.296 1.780 6385
-0.435 2.307 1.778 8538
-0.438 2.318 1.776 11056
-0.438 2.323 1.769 11056
-0.440 2.334 1.767 10449
-0.443 2.345 1.765 10275
-0.443 2.350 1.758 8259
-0.446 2.361 1.755 6276
-0.445 2.359 1.744 4485
-0.444 2.351 1.728 2918
-0.443 2.349 1.717 2749
-0.444 2.353 1.710 2610
-0.444 2.352 1.699 2588
-0.463 2.453 1.758 2611
-0.464 2.458 1.751 2643
-0.463 2.456 1.739 2396
-0.459 2.434 1.715 2512
-0.478 2.530 1.768 3290
-0.478 2.535 1.760 4665
-0.478 2.533 1.749 7433
-0.479 2.538 1.741 10222
-0.480 2.542 1.734 8535
-0.484 2.567 1.739 7095
-0.488 2.585 1.740 5565
-0.494 2.616 1.749 4734
-0.494 2.620 1.742 6091
-0.495 2.625 1.734 7448
-0.497 2.636 1.730 5796
-0.502 2.661 1.735 5009
-0.508 2.692 1.743 4640
-0.510 2.703 1.740 4523
-0.517 2.741 1.752 3723
-0.521 2.759 1.752 4558
-0.522 2.764 1.744 5264
-0.524 2.775 1.740 5955
-0.527 2.793 1.740 7240
-0.531 2.811 1.739 6587
-0.537 2.843 1.747 6744
-0.532 2.821 1.723 7253
-0.534 2.832 1.718 6976
-0.547 2.898 1.745 5983
-0.548 2.902 1.736 9097
-0.549 2.907 1.728 12212
-0.551 2.918 1.723 10328
-0.558 2.957 1.733 6924
-0.561 2.975 1.732 6089
-0.565 2.993 1.731 7703
-0.568 3.012 1.730 8588
-0.571 3.023 1.724 8281
-0.571 3.028 1.716 5844
-0.580 3.074 1.729 4987
-0.581 3.078 1.720 5651
-0.591 3.131 1.736 7248
-0.590 3.129 1.723 8884
-0.590 3.127 1.710 8439
-0.593 3.145 1.708 10326
-0.602 3.191 1.720 15505
-0.604 3.203 1.714 17172
-0.608 3.221 1.712 13242
-0.611 3.240 1.709 8763
-0.629 3.335 1.744 6320
-0.633 3.354 1.742 8795
-0.635 3.366 1.735 9329
-0.639 3.384 1.732 6146
-0.630 3.339 1.699 4945
-0.652 3.457 1.742 5333
-0.653 3.461 1.732 4682
-0.670 3.551 1.761 3958
-0.675 3.577 1.761 3767
-0.676 3.582 1.750 3207
-0.677 3.586 1.740 3467
-0.678 3.591 1.729 3263
-0.711 3.766 1.795 3123
-0.708 3.750 1.774 4792
-0.708 3.754 1.763 5750
-0.712 3.773 1.759 4572
-0.714 3.785 1.751 3888
-0.721 3.818 1.752 4597
-0.721 3.823 1.741 4701
-0.728 3.856 1.741 3770
-0.741 3.926 1.757 3697
-0.744 3.945 1.752 4122
-0.733 3.884 1.713 4272
-0.733 3.882 1.699 7041
-0.736 3.901 1.694 6290
-0.741 3.927 1.691 5193
-0.740 3.924 1.676 4057
-0.766 4.059 1.716 3074
-0.778 4.121 1.727 3771
-0.777 4.119 1.712 6833
-0.777 4.116 1.697 7437
-0.778 4.120 1.685 5442
-0.821 4.351 1.758 4944
-0.823 4.363 1.748 4824
-0.784 4.155 1.657 5226
-0.786 4.167 1.648 4580
-0.826 4.377 1.710 3349
-0.854 4.528 1.750 4572
-0.858 4.547 1.742 7992
-0.860 4.559 1.731 7638
-0.860 4.556 1.715 3791
-0.882 4.671 1.740 3072
-0.882 4.676 1.726 3653
-0.900 4.769 1.742 4158
-0.901 4.773 1.728 5430
-0.903 4.785 1.717 3888
-0.916 4.856 1.725 4334
-0.927 4.913 1.727 3073
-0.945 5.006 1.742 2802
-0.934 4.951 1.708 3002
-0.937 4.963 1.696 2536
-0.975 5.169 1.744 1331
-0.969 5.136 1.717 1178
-0.974 5.163 1.709 5234
-0.977 5.175 1.696 11506
-0.980 5.194 1.685 10717
-0.984 5.213 1.675 6398
-1.020 5.405 1.714 3484
-1.019 5.402 1.696 6227
-1.019 5.399 1.678 7088
-1.020 5.403 1.662 7330
-1.022 5.415 1.648 7647
-1.024 5.427 1.635 7038
-1.026 5.438 1.621 9561
-1.029 5.450 1.607 10928
-1.031 5.462 1.593 7615
-1.029 5.451 1.573 5784
-1.028 5.448 1.555 4087
-1.150 6.092 1.705 2593
-1.183 6.270 1.731 2658
-1.183 6.267 1.711 3999
-1.188 6.295 1.698 2553
-1.220 6.465 1.720 2518
-1.252 6.636 1.742 1867
-1.250 6.626 1.719 1910
-1.251 6.630 1.699 2464
-1.258 6.665 1.687 2416
-1.313 6.958 1.733 1771
-1.314 6.962 1.713 2069
-1.348 7.141 1.732 1849
-1.347 7.138 1.709 2513
-1.369 7.257 1.713 3828
-1.380 7.315 1.703 5915
-1.384 7.334 1.684 6659
-1.383 7.331 1.661 4626
-1.380 7.313 1.635 4351
-1.381 7.317 1.613 3417
-1.487 7.878 1.703 1742
-1.493 7.913 1.686 1472
-1.524 8.078 1.693 1381
-1.546 8.190 1.690 1591
-1.549 8.209 1.669 1510
-1.559 8.260 1.653 1574
-1.680 8.900 1.744 1773
-1.679 8.897 1.716 1766
-1.733 9.185 1.739 1306
-1.734 9.189 1.712 2152
-1.732 9.178 1.683 1686
-1.730 9.167 1.653 672
-1.747 9.256 1.640 341
-0.425 2.259 1.792 1894
-0.426 2.264 1.786 3788
-0.427 2.268 1.779 3788
-0.430 2.286 1.782 4907
-0.432 2.297 1.780 6560
-0.434 2.308 1.778 8732
-0.436 2.319 1.776 11270
-0.437 2.323 1.769 11270
-0.439 2.334 1.767 10605
-0.441 2.345 1.765 10391
-0.442 2.350 1.758 8343
-0.444 2.361 1.755 6306
-0.444 2.359 1.744 4556
-0.442 2.351 1.728 3035
-0.442 2.349 1.717 2854
-0.443 2.354 1.710 2720
-0.444 2.358 1.703 2695
-0.462 2.453 1.758 2586
-0.463 2.458 1.751 2654
-0.462 2.456 1.739 2331
-0.457 2.428 1.710 2442
-0.476 2.531 1.768 3267
-0.477 2.535 1.760 4625
-0.477 2.533 1.749 7379
-0.478 2.538 1.741 10153
-0.479 2.543 1.734 8485
-0.483 2.567 1.739 7020
-0.486 2.585 1.740 5590
-0.492 2.616 1.749 4805
-0.493 2.620 1.742 6132
-0.494 2.625 1.734 7458
-0.496 2.636 1.730 5754
-0.501 2.661 1.735 4964
-0.507 2.692 1.743 4622
-0.509 2.703 1.740 4531
-0.516 2.741 1.752 3742
-0.519 2.760 1.752 4583
-0.520 2.764 1.744 5276
-0.522 2.775 1.740 5844
-0.526 2.794 1.740 7061
-0.529 2.812 1.739 6525
-0.535 2.843 1.747 6769
-0.531 2.821 1.723 7300
-0.533 2.832 1.718 7034
-0.544 2.891 1.741 5938
-0.546 2.902 1.736 9039
-0.547 2.907 1.728 12142
-0.549 2.918 1.723 10257
-0.557 2.957 1.733 6833
-0.560 2.975 1.732 5966
-0.563 2.994 1.731 7480
-0.567 3.012 1.730 8395
-0.569 3.023 1.724 8076
-0.570 3.028 1.716 5749
-0.579 3.074 1.729 4928
-0.579 3.079 1.720 5679
-0.589 3.132 1.736 7235
-0.589 3.129 1.723 8907
-0.588 3.127 1.710 8399
-0.592 3.145 1.708 10409
-0.599 3.185 1.717 15533
-0.603 3.203 1.714 17057
-0.605 3.215 1.708 13039
-0.610 3.240 1.709 8770
-0.628 3.336 1.744 6340
-0.630 3.347 1.738 8757
-0.634 3.366 1.735 9152
-0.637 3.385 1.732 5854
-0.629 3.340 1.699 4892
-0.631 3.351 1.692 5184
-0.653 3.469 1.735 4568
-0.668 3.551 1.761 4094
-0.675 3.584 1.764 3737
-0.675 3.589 1.753 3083
-0.676 3.594 1.743 3308
-0.676 3.591 1.729 3077
-0.709 3.767 1.795 3139
-0.706 3.750 1.774 4720
-0.707 3.755 1.763 5742
-0.710 3.774 1.759 4581
-0.712 3.785 1.751 3887
-0.719 3.819 1.752 4635
-0.721 3.830 1.744 4701
-0.735 3.907 1.763 3791
-0.739 3.926 1.757 3766
-0.742 3.945 1.752 4217
-0.741 3.935 1.734 4177
-0.732 3.889 1.702 6768
-0.734 3.901 1.694 6168
-0.739 3.927 1.691 5175
-0.739 3.924 1.676 3978
-0.764 4.059 1.716 3139
-0.776 4.122 1.727 3771
-0.775 4.119 1.712 6842
-0.775 4.116 1.697 7497
-0.776 4.121 1.685 5574
-0.783 4.162 1.687 4848
-0.783 4.159 1.672 4839
-0.782 4.156 1.657 5357
-0.784 4.168 1.648 4637
-0.824 4.377 1.710 3414
-0.852 4.528 1.750 4694
-0.856 4.547 1.742 8049
-0.858 4.559 1.731 7535
-0.858 4.557 1.715 3844
-0.879 4.672 1.740 3064
-0.880 4.676 1.726 3538
-0.898 4.769 1.742 4329
-0.898 4.774 1.728 5674
-0.901 4.786 1.717 4030
-0.914 4.857 1.725 4352
-0.923 4.906 1.725 3046
-0.942 5.007 1.742 2720
-0.932 4.952 1.708 3020
-0.934 4.964 1.696 2519
-0.973 5.169 1.744 1317
-0.967 5.136 1.717 1226
-0.972 5.163 1.709 5198
-0.974 5.175 1.696 11262
-0.978 5.195 1.685 10760
-0.980 5.206 1.672 6600
-1.017 5.405 1.714 3381
-1.017 5.402 1.696 6063
-1.016 5.399 1.678 6885
-1.017 5.404 1.662 7020
-1.019 5.415 1.648 7276
-1.021 5.427 1.635 6717
-1.024 5.439 1.621 9363
-1.026 5.451 1.607 10815
-1.028 5.462 1.593 7438
-1.026 5.451 1.573 5576
-1.025 5.448 1.555 3975
-1.147 6.093 1.705 2670
-1.180 6.271 1.731 2690
-1.180 6.268 1.711 4019
-1.185 6.295 1.698 2550
-1.217 6.466 1.720 2508
-1.249 6.637 1.742 1872
-1.247 6.626 1.719 1929
-1.248 6.631 1.699 2497
-1.255 6.666 1.687 2393
-1.310 6.958 1.733 1720
-1.310 6.963 1.713 2041
-1.344 7.142 1.732 1884
-1.344 7.139 1.709 2619
-1.366 7.258 1.713 3890
-1.377 7.315 1.703 5917
-1.381 7.335 1.684 6633
-1.380 7.332 1.661 4598
-1.375 7.306 1.633 4417
-1.377 7.318 1.613 3454
-1.483 7.879 1.703 1679
-1.491 7.922 1.687 1522
-1.521 8.079 1.693 1466
-1.542 8.190 1.690 1594
-1.547 8.218 1.670 1587
-1.553 8.253 1.651 1660
-1.675 8.900 1.744 1735
-1.675 8.897 1.716 1752
-1.729 9.186 1.739 1308
-1.730 9.190 1.712 2162
-1.728 9.179 1.683 1704
-1.726 9.168 1.653 678
-1.741 9.249 1.638 366
-0.424 2.259 1.792 1903
-0.425 2.264 1.786 3806
-0.426 2.268 1.779 3806
-0.429 2.286 1.782 5014
-0.431 2.297 1.780 6729
-0.434 2.308 1.778 8978
-0.436 2.319 1.776 11574
-0.436 2.324 1.769 11574
-0.439 2.335 1.767 10816
-0.441 2.346 1.765 10535
-0.442 2.350 1.758 8411
-0.442 2.355 1.751 6288
-0.443 2.360 1.744 4605
-0.442 2.351 1.728 3148
-0.443 2.356 1.722 2983
-0.442 2.354 1.710 2842
-0.443 2.358 1.703 2830
-0.461 2.454 1.758 2622
-0.463 2.465 1.755 2737
-0.463 2.463 1.744 2404
-0.456 2.428 1.710 2506
-0.475 2.531 1.768 3287
-0.476 2.536 1.760 4654
-0.476 2.534 1.749 7438
-0.477 2.538 1.741 10238
-0.478 2.543 1.734 8569
-0.482 2.567 1.739 7089
-0.486 2.585 1.740 5672
-0.491 2.616 1.749 4824
-0.491 2.614 1.737 6115
-0.492 2.619 1.730 7419
-0.494 2.630 1.726 5667
-0.501 2.668 1.739 4896
-0.506 2.692 1.743 4620
-0.508 2.704 1.740 4571
-0.515 2.742 1.752 3773
-0.518 2.760 1.752 4637
-0.519 2.764 1.744 5349
-0.521 2.776 1.740 5759
-0.525 2.794 1.740 6848
-0.528 2.812 1.739 6415
-0.534 2.843 1.747 6745
-0.530 2.821 1.723 7346
-0.532 2.832 1.718 7139
-0.543 2.891 1.741 6013
-0.545 2.903 1.736 9027
-0.546 2.907 1.728 12069
-0.547 2.912 1.719 10172
-0.556 2.957 1.733 6777
-0.559 2.976 1.732 5909
-0.562 2.994 1.731 7366
-0.566 3.012 1.730 8299
-0.568 3.024 1.724 7964
-0.569 3.028 1.716 5780
-0.576 3.067 1.725 4977
-0.578 3.079 1.720 5778
-0.588 3.132 1.736 7150
-0.588 3.129 1.723 8827
-0.587 3.127 1.710 8335
-0.591 3.145 1.708 10472
-0.598 3.185 1.717 15633
-0.602 3.203 1.714 17248
-0.605 3.222 1.712 13186
-0.609 3.240 1.709 8500
-0.627 3.336 1.744 6431
-0.629 3.348 1.738 8727
-0.632 3.366 1.735 8920
-0.636 3.385 1.732 5535
-0.626 3.333 1.695 4909
-0.630 3.352 1.692 5121
-0.652 3.469 1.735 4582
-0.667 3.552 1.761 4287
-0.672 3.577 1.761 3791
-0.674 3.589 1.753 3011
-0.675 3.594 1.743 3143
-0.675 3.591 1.729 2862
-0.708 3.767 1.795 3174
-0.704 3.750 1.774 4681
-0.705 3.755 1.763 5742
-0.709 3.774 1.759 4619
-0.711 3.786 1.751 3948
-0.717 3.819 1.752 4761
-0.721 3.838 1.747 4846
-0.734 3.907 1.763 3911
-0.738 3.926 1.757 3881
-0.741 3.945 1.752 4320
-0.739 3.935 1.734 4258
-0.731 3.889 1.702 6606
-0.733 3.901 1.694 6117
-0.738 3.927 1.691 5156
-0.737 3.924 1.676 3877
-0.763 4.059 1.716 3230
-0.773 4.115 1.724 3786
-0.774 4.119 1.712 6866
-0.773 4.117 1.697 7596
-0.774 4.121 1.685 5726
-0.782 4.162 1.687 4957
-0.781 4.159 1.672 4985
-0.781 4.156 1.657 5458
-0.783 4.168 1.648 4629
-0.824 4.385 1.712 3566
-0.851 4.528 1.750 4825
-0.854 4.548 1.742 8170
-0.857 4.560 1.731 7621
-0.856 4.557 1.715 4013
-0.878 4.672 1.740 3160
-0.878 4.676 1.726 3539
-0.896 4.770 1.742 4500
-0.897 4.774 1.728 5929
-0.899 4.786 1.717 4105
-0.912 4.857 1.725 4366
-0.922 4.906 1.725 3024
-0.941 5.007 1.742 2665
-0.930 4.952 1.708 3049
-0.933 4.964 1.696 2520
-0.971 5.169 1.744 1335
-0.966 5.144 1.720 1255
-0.970 5.164 1.709 5156
-0.972 5.176 1.696 11080
-0.976 5.195 1.685 10844
-0.978 5.207 1.672 6812
-1.015 5.406 1.714 3238
-1.015 5.403 1.696 5751
-1.014 5.399 1.678 6571
-1.015 5.404 1.662 6677
-1.017 5.416 1.648 6908
-1.020 5.428 1.635 6399
-1.022 5.439 1.621 9225
-1.024 5.451 1.607 10770
-1.026 5.463 1.593 7254
-1.024 5.452 1.573 5416
-1.024 5.448 1.555 3887
-1.145 6.093 1.705 2668
-1.178 6.271 1.731 2697
-1.178 6.268 1.711 3978
-1.183 6.295 1.698 2593
-1.215 6.466 1.720 2451
-1.247 6.637 1.742 1879
-1.245 6.627 1.719 1934
-1.246 6.631 1.699 2522
-1.252 6.666 1.687 2423
-1.307 6.959 1.733 1719
-1.307 6.956 1.711 2038
-1.342 7.143 1.732 1860
-1.341 7.139 1.709 2670
-1.363 7.258 1.713 4009
-1.373 7.308 1.701 5874
-1.378 7.335 1.684 6546
-1.377 7.332 1.661 4551
-1.372 7.306 1.633 4519
-1.375 7.318 1.613 3494
-1.480 7.880 1.703 1606
-1.488 7.922 1.687 1510
-1.496 7.965 1.671 1449
-1.539 8.191 1.690 1559
-1.544 8.218 1.670 1505
-1.552 8.261 1.653 1683
-1.672 8.901 1.744 1702
-1.672 8.898 1.716 1712
-1.726 9.186 1.739 1359
-1.727 9.191 1.712 2242
-1.724 9.180 1.683 1734
-1.722 9.169 1.653 682
-1.739 9.258 1.640 351
-0.423 2.259 1.792 1957
-0.424 2.264 1.786 3915
-0.425 2.269 1.779 3915
-0.428 2.286 1.782 5228
-0.430 2.297 1.780 7020
-0.432 2.308 1.778 9323
-0.434 2.319 1.776 11967
-0.435 2.324 1.769 11967
-0.437 2.335 1.767 11131
-0.439 2.346 1.765 10794
-0.440 2.351 1.758 8585
-0.441 2.355 1.751 6376
-0.442 2.360 1.744 4687
-0.440 2.351 1.728 3209
-0.441 2.356 1.722 3055
-0.441 2.354 1.710 2914
-0.442 2.359 1.703 2908
-0.460 2.454 1.758 2673
-0.462 2.465 1.755 2823
-0.461 2.463 1.744 2483
-0.455 2.429 1.710 2537
-0.473 2.525 1.764 3345
-0.475 2.536 1.760 4724
-0.474 2.534 1.749 7557
-0.475 2.538 1.741 10400
-0.476 2.543 1.734 8717
-0.481 2.567 1.739 7196
-0.484 2.585 1.740 5772
-0.489 2.610 1.745 4868
-0.490 2.614 1.737 6160
-0.490 2.619 1.730 7453
-0.492 2.630 1.726 5655
-0.500 2.668 1.739 4862
-0.504 2.693 1.743 4623
-0.506 2.704 1.740 4619
-0.512 2.735 1.748 3815
-0.517 2.760 1.752 4692
-0.518 2.765 1.744 5432
-0.520 2.776 1.740 5681
-0.523 2.794 1.740 6644
-0.527 2.812 1.739 6371
-0.533 2.844 1.747 6853
-0.528 2.821 1.723 7483
-0.530 2.833 1.718 7256
-0.531 2.837 1.710 6053
-0.544 2.903 1.736 9018
-0.544 2.908 1.728 11992
-0.545 2.912 1.719 10102
-0.554 2.958 1.733 6779
-0.557 2.976 1.732 5986
-0.561 2.994 1.731 7359
-0.564 3.013 1.730 8249
-0.566 3.024 1.724 7881
-0.567 3.029 1.716 5696
-0.574 3.068 1.725 4917
-0.575 3.072 1.716 5657
-0.587 3.132 1.736 7056
-0.586 3.130 1.723 8765
-0.587 3.134 1.714 8307
-0.589 3.146 1.708 10535
-0.596 3.185 1.717 15541
-0.600 3.204 1.714 17228
-0.603 3.222 1.712 13363
-0.607 3.241 1.709 8708
-0.625 3.336 1.744 6553
-0.627 3.348 1.738 8761
-0.629 3.359 1.732 8816
-0.623 3.329 1.705 5639
-0.624 3.333 1.695 4933
-0.648 3.458 1.742 5339
-0.650 3.469 1.735 4813
-0.665 3.552 1.761 4253
-0.670 3.578 1.761 3814
-0.672 3.590 1.753 3004
-0.673 3.594 1.743 3116
-0.673 3.592 1.729 2760
-0.705 3.767 1.795 3247
-0.702 3.751 1.774 4704
-0.703 3.755 1.763 5788
-0.707 3.774 1.759 4634
-0.709 3.786 1.751 3925
-0.715 3.819 1.752 4728
-0.720 3.845 1.750 4832
-0.732 3.908 1.763 4038
-0.735 3.927 1.757 3991
-0.739 3.946 1.752 4399
-0.737 3.936 1.734 4327
-0.728 3.890 1.702 6521
-0.731 3.902 1.694 6113
-0.735 3.928 1.691 5167
-0.736 3.932 1.679 3769
-0.760 4.060 1.716 3357
-0.771 4.115 1.724 3828
-0.771 4.120 1.712 6927
-0.771 4.117 1.697 7721
-0.772 4.121 1.685 5862
-0.779 4.162 1.687 5121
-0.779 4.160 1.672 5207
-0.778 4.157 1.657 5547
-0.781 4.168 1.648 4580
-0.821 4.385 1.712 3690
-0.849 4.536 1.752 5154
-0.852 4.548 1.742 8406
-0.854 4.560 1.731 7666
-0.853 4.557 1.715 4112
-0.874 4.665 1.737 3137
-0.876 4.677 1.726 3380
-0.893 4.770 1.742 4698
-0.894 4.775 1.728 6241
-0.896 4.787 1.717 4276
-0.910 4.858 1.725 4435
-0.919 4.907 1.725 3014
-0.938 5.008 1.742 2674
-0.927 4.953 1.708 3100
-0.930 4.965 1.696 2537
-0.968 5.170 1.744 1392
-0.966 5.160 1.724 1369
-0.967 5.164 1.709 5159
-0.969 5.176 1.696 10860
-0.973 5.195 1.685 10906
-0.975 5.207 1.672 7074
-0.976 5.212 1.657 3271
-1.012 5.403 1.696 5431
-1.011 5.400 1.678 6216
-1.012 5.404 1.662 6291
-1.014 5.416 1.648 6555
-1.016 5.428 1.635 6123
-1.019 5.440 1.621 9027
-1.021 5.452 1.607 10676
-1.023 5.463 1.593 7112
-1.021 5.452 1.573 5227
-1.020 5.449 1.555 3711
-1.141 6.094 1.705 2667
-1.174 6.272 1.731 2643
-1.174 6.269 1.711 3850
-1.180 6.304 1.700 2603
-1.221 6.520 1.733 2497
-1.243 6.638 1.742 1906
-1.241 6.627 1.719 1913
-1.242 6.632 1.699 2542
-1.248 6.667 1.687 2428
-1.302 6.952 1.732 1731
-1.301 6.949 1.709 2075
-1.336 7.136 1.730 1896
-1.337 7.140 1.709 2799
-1.359 7.259 1.713 4186
-1.369 7.309 1.701 5928
-1.374 7.336 1.684 6574
-1.372 7.325 1.660 4612
-1.368 7.307 1.633 4675
-1.369 7.311 1.612 3584
-1.476 7.880 1.703 1559
-1.484 7.923 1.687 1542
-1.492 7.966 1.671 1524
-1.534 8.192 1.690 1555
-1.538 8.212 1.669 1523
-1.547 8.262 1.653 1613
-1.667 8.902 1.744 1648
-1.666 8.899 1.716 1678
-1.720 9.187 1.739 1393
-1.721 9.192 1.712 2329
-1.719 9.181 1.683 1768
-1.717 9.170 1.653 672
-1.734 9.259 1.640 327
-0.423 2.266 1.797 1942
-0.424 2.271 1.791 3884
-0.425 2.275 1.784 3884
-0.427 2.286 1.782 5234
-0.429 2.297 1.780 7044
-0.431 2.308 1.778 9357
-0.433 2.319 1.776 12000
-0.434 2.324 1.769 12000
-0.436 2.335 1.767 11140
-0.438 2.346 1.765 10777
-0.439 2.351 1.758 8546
-0.440 2.355 1.751 6315
-0.440 2.360 1.744 4692
-0.439 2.352 1.728 3255
-0.440 2.356 1.722 3110
-0.441 2.361 1.715 2966
-0.440 2.359 1.703 2960
-0.458 2.454 1.758 2645
-0.460 2.465 1.755 2822
-0.460 2.463 1.744 2483
-0.453 2.429 1.710 2508
-0.471 2.525 1.764 3316
-0.473 2.536 1.760 4671
-0.473 2.534 1.749 7478
-0.474 2.539 1.741 10294
-0.475 2.543 1.734 8640
-0.479 2.568 1.739 7118
-0.482 2.586 1.740 5730
-0.487 2.610 1.745 4847
-0.488 2.615 1.737 6123
-0.489 2.619 1.730 7398
-0.491 2.630 1.726 5594
-0.497 2.662 1.735 4792
-0.503 2.693 1.743 4546
-0.505 2.704 1.740 4570
-0.510 2.736 1.748 3789
-0.515 2.760 1.752 4652
-0.516 2.765 1.744 5381
-0.518 2.776 1.740 5529
-0.521 2.794 1.740 6418
-0.525 2.812 1.739 6270
-0.531 2.844 1.747 6852
-0.527 2.822 1.723 7501
-0.527 2.826 1.715 7286
-0.529 2.837 1.710 6069
-0.542 2.903 1.736 8813
-0.543 2.908 1.728 11724
-0.543 2.912 1.719 9891
-0.552 2.958 1.733 6699
-0.555 2.976 1.732 5910
-0.559 2.995 1.731 7267
-0.562 3.013 1.730 8270
-0.563 3.017 1.721 7992
-0.565 3.029 1.716 5739
-0.572 3.068 1.725 5070
-0.573 3.073 1.716 5758
-0.585 3.133 1.736 6859
-0.584 3.130 1.723 8590
-0.585 3.135 1.714 8163
-0.587 3.146 1.708 10438
-0.594 3.185 1.717 15092
-0.598 3.204 1.714 16520
-0.601 3.222 1.712 12780
-0.605 3.241 1.709 8483
-0.623 3.337 1.744 6642
-0.625 3.348 1.738 8783
-0.627 3.360 1.732 8713
-0.621 3.329 1.705 5689
-0.622 3.334 1.695 4889
-0.645 3.458 1.742 5209
-0.647 3.470 1.735 4630
-0.664 3.559 1.764 4117
-0.668 3.578 1.761 3756
-0.670 3.590 1.753 2936
-0.671 3.595 1.743 3013
-0.670 3.592 1.729 2650
-0.703 3.768 1.795 3229
-0.699 3.744 1.771 4645
-0.701 3.756 1.763 5736
-0.704 3.775 1.759 4582
-0.707 3.786 1.751 3861
-0.713 3.820 1.752 4646
-0.718 3.846 1.750 4763
-0.729 3.908 1.763 4062
-0.733 3.927 1.757 3980
-0.735 3.939 1.749 4363
-0.735 3.936 1.734 4285
-0.726 3.890 1.702 6267
-0.728 3.902 1.694 5961
-0.733 3.928 1.691 5089
-0.734 3.933 1.679 3639
-0.758 4.060 1.716 3421
-0.768 4.116 1.724 3761
-0.769 4.120 1.712 6799
-0.768 4.118 1.697 7669
-0.769 4.122 1.685 5887
-0.777 4.163 1.687 5233
-0.778 4.167 1.675 5291
-0.776 4.157 1.657 5466
-0.778 4.169 1.648 4496
-0.818 4.386 1.712 3766
-0.847 4.537 1.752 5231
-0.849 4.549 1.742 8392
-0.851 4.561 1.731 7624
-0.851 4.558 1.715 4210
-0.866 4.643 1.730 3182
-0.873 4.678 1.726 3244
-0.890 4.771 1.742 4845
-0.891 4.775 1.728 6447
-0.893 4.787 1.717 4361
-0.907 4.858 1.725 4402
-0.916 4.907 1.725 2962
-0.935 5.008 1.742 2593
-0.926 4.961 1.710 3059
-0.928 4.973 1.698 2514
-0.965 5.171 1.744 1395
-0.963 5.160 1.724 1416
-0.964 5.165 1.709 5032
-0.966 5.177 1.696 10525
-0.970 5.196 1.685 10790
-0.972 5.208 1.672 7119
-0.973 5.212 1.657 3266
-1.008 5.404 1.696 5204
-1.008 5.401 1.678 5895
-1.009 5.405 1.662 5929
-1.011 5.417 1.648 6139
-1.013 5.429 1.635 5776
-1.015 5.441 1.621 8788
-1.017 5.452 1.607 10440
-1.020 5.464 1.593 6890
-1.018 5.453 1.573 5104
-1.017 5.450 1.555 3686
-1.137 6.095 1.705 2580
-1.171 6.273 1.731 2627
-1.170 6.270 1.711 3782
-1.176 6.304 1.700 2590
-1.218 6.528 1.735 2536
-1.239 6.639 1.742 1957
-1.237 6.628 1.719 1985
-1.238 6.633 1.699 2592
-1.243 6.660 1.685 2454
-1.297 6.953 1.732 1692
-1.298 6.957 1.711 2019
-1.332 7.137 1.730 1867
-1.333 7.141 1.709 2793
-1.355 7.260 1.713 4300
-1.364 7.310 1.701 5980
-1.369 7.337 1.684 6646
-1.367 7.326 1.660 4687
-1.362 7.300 1.632 4732
-1.366 7.320 1.613 3574
-1.471 7.881 1.703 1497
-1.479 7.924 1.687 1526
-1.481 7.936 1.665 1519
-1.529 8.193 1.690 1620
-1.532 8.213 1.669 1521
-1.542 8.263 1.653 1610
-1.661 8.903 1.744 1549
-1.662 8.908 1.717 1621
-1.715 9.188 1.739 1411
-1.715 9.193 1.712 2335
-1.713 9.182 1.683 1756
-1.711 9.171 1.653 664
-0.242 1.299 0.343 304
-0.422 2.266 1.797 2035
-0.422 2.271 1.791 4071
-0.423 2.275 1.784 4071
-0.425 2.286 1.782 5465
-0.427 2.298 1.780 7308
-0.430 2.309 1.778 9690
-0.432 2.320 1.776 12420
-0.432 2.324 1.769 12420
-0.435 2.335 1.767 11525
-0.437 2.346 1.765 11139
-0.437 2.351 1.758 8807
-0.438 2.356 1.751 6476
-0.439 2.360 1.744 4899
-0.438 2.352 1.728 3425
-0.438 2.357 1.722 3305
-0.439 2.361 1.715 3185
-0.439 2.359 1.703 3153
-0.458 2.461 1.762 2719
-0.459 2.466 1.755 2926
-0.460 2.470 1.748 2553
-0.452 2.429 1.710 2541
-0.470 2.525 1.764 3359
-0.472 2.536 1.760 4739
-0.472 2.534 1.749 7610
-0.472 2.539 1.741 10484
-0.473 2.544 1.734 8817
-0.478 2.568 1.739 7261
-0.481 2.586 1.740 5895
-0.483 2.597 1.737 4987
-0.487 2.615 1.737 6257
-0.487 2.619 1.730 7531
-0.489 2.631 1.726 5652
-0.495 2.662 1.735 4829
-0.502 2.700 1.748 4598
-0.503 2.704 1.740 4659
-0.508 2.729 1.744 3871
-0.512 2.754 1.748 4727
-0.513 2.758 1.740 5453
-0.517 2.777 1.740 5443
-0.520 2.795 1.740 6223
-0.523 2.813 1.739 6203
-0.529 2.844 1.747 6839
-0.525 2.822 1.723 7590
-0.526 2.826 1.715 7406
-0.528 2.838 1.710 6156
-0.540 2.904 1.736 8736
-0.541 2.908 1.728 11582
-0.542 2.913 1.719 9791
-0.550 2.958 1.733 6619
-0.554 2.977 1.732 5893
-0.557 2.995 1.731 7313
-0.559 3.006 1.726 8455
-0.561 3.018 1.721 8256
-0.562 3.022 1.712 5992
-0.572 3.075 1.729 5355
-0.573 3.080 1.720 6229
-0.582 3.126 1.732 7043
-0.582 3.130 1.723 8778
-0.583 3.135 1.714 8255
-0.585 3.146 1.708 10534
-0.593 3.186 1.717 14868
-0.595 3.197 1.711 16009
-0.598 3.216 1.708 12354
-0.603 3.241 1.709 8243
-0.621 3.337 1.744 6841
-0.622 3.342 1.735 8989
-0.625 3.360 1.732 8778
-0.620 3.330 1.705 5885
-0.640 3.440 1.746 5089
-0.644 3.459 1.742 5563
-0.646 3.470 1.735 4829
-0.661 3.553 1.761 4208
-0.666 3.579 1.761 3755
-0.669 3.597 1.757 2931
-0.670 3.602 1.746 2997
-0.668 3.592 1.729 2596
