0.599 2.018 1.477 8773
0.630 2.123 1.540 9057
0.631 2.127 1.533 11843
0.629 2.118 1.518 10244
0.628 2.116 1.508 9224
0.640 2.158 1.527 8450
0.645 2.175 1.529 9944
0.647 2.179 1.522 10857
0.652 2.196 1.524 10534
0.657 2.212 1.526 11256
0.660 2.223 1.524 8084
0.670 2.259 1.538 6151
0.672 2.263 1.531 4761
0.661 2.228 1.500 4831
0.668 2.251 1.505 6912
0.671 2.261 1.503 7117
0.682 2.298 1.516 7034
0.685 2.308 1.513 8170
0.686 2.312 1.506 9342
0.689 2.323 1.503 9288
0.692 2.333 1.500 9737
0.693 2.337 1.493 7662
0.695 2.341 1.486 5588
0.725 2.444 1.538 7131
0.726 2.448 1.530 10528
0.726 2.445 1.519 14450
0.727 2.449 1.512 16510
0.730 2.459 1.508 14752
0.731 2.463 1.501 10421
0.730 2.460 1.490 6134
0.761 2.564 1.539 8646
0.762 2.568 1.531 11942
0.763 2.572 1.523 11914
0.766 2.583 1.519 10103
0.772 2.600 1.519 9230
0.773 2.604 1.511 9201
0.774 2.608 1.503 9981
0.775 2.611 1.495 10929
0.776 2.615 1.488 10989
0.775 2.612 1.476 9935
0.776 2.616 1.469 8108
0.785 2.647 1.475 8834
0.789 2.657 1.470 8955
0.812 2.736 1.500 9829
0.815 2.747 1.496 13057
0.816 2.751 1.488 13060
0.817 2.754 1.479 12233
0.821 2.765 1.474 11719
0.822 2.769 1.466 11912
0.825 2.779 1.461 12706
0.830 2.797 1.460 11868
0.837 2.821 1.461 12508
0.840 2.832 1.456 11188
0.841 2.835 1.447 8685
0.871 2.936 1.484 7998
0.868 2.926 1.469 7991
0.869 2.930 1.460 7167
0.889 2.996 1.480 9742
0.886 2.986 1.465 12321
0.883 2.976 1.450 12594
0.884 2.979 1.441 8400
0.914 3.081 1.475 5772
0.919 3.098 1.472 6831
0.919 3.095 1.460 7266
0.922 3.106 1.453 6706
0.923 3.109 1.444 6927
0.926 3.120 1.438 7792
0.935 3.152 1.440 8527
0.936 3.156 1.431 10195
0.938 3.159 1.421 10523
0.941 3.170 1.415 8636
0.944 3.180 1.408 7334
0.947 3.191 1.401 5876
0.952 3.209 1.398 4459
0.962 3.241 1.399 5160
0.988 3.329 1.423 8570
0.987 3.326 1.410 12979
0.988 3.329 1.400 15921
0.991 3.340 1.393 14068
0.992 3.344 1.383 9618
1.008 3.397 1.392 7619
1.011 3.408 1.384 9640
1.012 3.411 1.374 7693
1.022 3.443 1.374 7500
1.029 3.468 1.371 10872
1.030 3.472 1.361 16065
1.031 3.475 1.351 18847
1.034 3.486 1.343 15597
1.033 3.482 1.330 9559
1.034 3.485 1.319 5111
1.044 3.517 1.319 4642
1.047 3.528 1.311 4465
1.041 3.509 1.293 6907
1.040 3.505 1.280 8476
1.041 3.508 1.269 5319
1.055 3.555 1.273 4312
1.056 3.558 1.262 5410
1.057 3.561 1.251 3884
1.125 3.790 1.311 3172
1.115 3.757 1.289 3442
1.140 3.840 1.302 3788
1.132 3.814 1.282 5407
1.133 3.817 1.270 6153
1.140 3.842 1.265 3902
1.165 3.926 1.277 4909
1.166 3.929 1.266 8262
1.167 3.932 1.254 7836
1.168 3.935 1.242 6447
1.169 3.938 1.230 6552
1.170 3.941 1.218 5315
1.234 4.157 1.265 6663
1.241 4.182 1.258 11727
1.246 4.200 1.250 14994
1.250 4.211 1.239 14749
1.248 4.206 1.224 10110
1.251 4.217 1.214 5385
1.289 4.345 1.233 4133
1.284 4.326 1.214 5662
1.280 4.314 1.198 6350
1.281 4.317 1.185 6214
1.348 4.542 1.225 8300
1.349 4.545 1.212 9585
1.352 4.555 1.200 8058
1.353 4.558 1.186 6094
1.406 4.739 1.213 5382
1.409 4.749 1.200 4062
1.441 4.856 1.209 3627
1.444 4.867 1.196 3294
1.441 4.855 1.178 2954
1.466 4.939 1.181 2067
1.460 4.920 1.162 3442
1.461 4.923 1.147 3119
1.517 5.112 1.170 2407
1.593 5.368 1.205 3406
1.596 5.379 1.191 3583
1.597 5.381 1.174 3715
1.598 5.384 1.158 3522
1.592 5.365 1.138 3171
1.600 5.390 1.126 4003
1.600 5.393 1.109 4427
1.637 5.515 1.115 4086
1.637 5.518 1.098 4566
1.645 5.543 1.085 5366
1.650 5.560 1.071 6402
1.653 5.571 1.055 6013
1.654 5.573 1.039 5752
1.652 5.568 1.021 4883
1.658 5.586 1.006 3325
1.678 5.656 1.000 2853
1.679 5.658 0.983 4326
1.678 5.653 0.964 4714
1.676 5.648 0.946 3446
1.835 6.184 1.005 2423
1.869 6.299 1.002 2804
1.868 6.294 0.981 3488
1.866 6.289 0.961 4140
1.869 6.298 0.943 3233
1.941 6.542 0.955 2436
1.942 6.544 0.935 2721
1.943 6.546 0.915 2936
2.002 6.745 0.918 3715
2.000 6.739 0.897 3809
2.001 6.741 0.877 3506
2.003 6.751 0.857 3307
2.004 6.753 0.837 2609
2.045 6.891 0.830 1664
2.182 7.354 0.854 1700
2.216 7.469 0.843 1763
2.217 7.471 0.820 1708
2.310 7.783 0.825 2769
2.310 7.785 0.802 2862
2.308 7.779 0.777 2379
2.392 8.061 0.776 2311
2.310 7.782 0.730 2706
2.310 7.784 0.707 3215
2.549 8.588 0.740 3814
2.549 8.590 0.714 4482
2.550 8.591 0.688 3612
2.548 8.585 0.661 2691
2.546 8.579 0.635 2558
2.546 8.581 0.609 2508
2.547 8.582 0.583 2169
2.545 8.575 0.557 1538
2.545 8.577 0.531 1196
2.546 8.578 0.505 1030
2.548 8.586 0.479 763
2.548 8.587 0.453 636
2.549 8.588 0.427 458
0.833 2.805 -0.011 252
0.832 2.805 -0.020 282
0.832 2.805 -0.028 312
0.834 2.812 -0.037 313
0.834 2.811 -0.045 315
0.834 2.811 -0.054 297
0.832 2.802 -0.062 280
0.582 1.946 1.556 5977
0.583 1.950 1.550 11955
0.584 1.954 1.544 9245
0.585 1.958 1.538 6534
0.586 1.962 1.533 6534
0.586 1.960 1.522 6472
0.585 1.957 1.512 6570
0.588 1.967 1.511 6330
0.597 1.996 1.523 7076
0.586 1.963 1.490 7767
0.588 1.966 1.484 9725
0.589 1.970 1.478 9725
0.592 1.980 1.477 10922
0.595 1.990 1.475 12418
0.598 2.000 1.474 10598
0.603 2.017 1.477 9609
0.602 2.014 1.466 9383
0.635 2.126 1.533 12124
0.636 2.130 1.527 10375
0.607 2.032 1.453 9916
0.645 2.157 1.527 8909
0.650 2.174 1.529 10235
0.653 2.184 1.527 11083
0.658 2.201 1.529 10411
0.663 2.218 1.530 10925
0.664 2.221 1.524 8198
0.679 2.271 1.546 6231
0.684 2.288 1.547 5675
0.687 2.298 1.545 5200
0.672 2.250 1.505 7030
0.675 2.260 1.503 7037
0.684 2.290 1.512 6837
0.689 2.307 1.513 7657
0.691 2.311 1.506 8539
0.694 2.321 1.503 8269
0.697 2.332 1.500 8428
0.698 2.335 1.493 6460
0.701 2.346 1.490 4515
0.730 2.442 1.538 8159
0.731 2.446 1.530 11942
0.732 2.450 1.523 16128
0.733 2.454 1.516 18210
0.736 2.464 1.512 16195
0.738 2.468 1.505 11274
0.751 2.512 1.520 6450
0.766 2.563 1.539 8691
0.767 2.567 1.531 11640
0.768 2.571 1.523 11571
0.771 2.581 1.519 10458
0.776 2.598 1.519 10260
0.778 2.602 1.511 10833
0.779 2.606 1.503 11295
0.780 2.610 1.495 11618
0.781 2.614 1.488 10964
0.780 2.611 1.476 9365
0.781 2.614 1.469 7642
0.790 2.645 1.475 8804
0.796 2.663 1.474 9295
0.815 2.728 1.497 9438
0.818 2.738 1.492 12166
0.819 2.742 1.484 11797
0.823 2.753 1.479 11055
0.826 2.763 1.474 10798
0.827 2.767 1.466 11579
0.830 2.778 1.461 12728
0.835 2.795 1.460 11483
0.843 2.820 1.461 12218
0.846 2.830 1.456 11548
0.847 2.834 1.447 9622
0.873 2.921 1.478 8510
0.870 2.910 1.463 8775
0.873 2.921 1.457 7819
0.895 2.994 1.480 10190
0.892 2.984 1.465 13004
0.889 2.974 1.450 13190
0.892 2.984 1.444 9037
0.895 2.995 1.438 6155
0.925 3.097 1.472 7190
0.924 3.093 1.460 7954
0.928 3.104 1.453 7225
0.933 3.122 1.450 7918
0.938 3.139 1.447 8239
0.943 3.157 1.443 9087
0.942 3.154 1.431 11346
0.943 3.157 1.421 12418
0.945 3.161 1.412 9726
0.948 3.172 1.405 7123
0.949 3.175 1.396 4940
0.971 3.249 1.414 5611
0.968 3.239 1.399 6205
0.994 3.328 1.423 7874
0.993 3.324 1.410 11970
0.994 3.328 1.400 14362
0.995 3.331 1.390 12780
0.999 3.342 1.383 9408
1.015 3.395 1.392 7965
1.018 3.406 1.384 11025
1.019 3.409 1.374 9480
1.026 3.434 1.371 8025
1.034 3.459 1.369 10177
1.037 3.470 1.361 14259
1.038 3.473 1.351 16850
1.041 3.484 1.343 14716
1.040 3.480 1.330 9558
1.041 3.483 1.319 5958
1.044 3.494 1.311 4692
1.045 3.497 1.301 4144
1.046 3.500 1.290 7621
1.047 3.503 1.280 9204
1.048 3.506 1.269 5976
1.060 3.546 1.270 4778
1.063 3.556 1.262 5720
1.061 3.552 1.249 3747
1.132 3.788 1.311 3547
1.122 3.755 1.289 3998
1.136 3.801 1.291 4317
1.137 3.805 1.280 5672
1.140 3.815 1.270 6345
1.150 3.847 1.267 4033
1.172 3.924 1.277 4330
1.173 3.927 1.266 7700
1.174 3.930 1.254 8076
1.175 3.933 1.242 7284
1.174 3.929 1.228 6198
1.214 4.064 1.253 4344
1.237 4.140 1.261 5846
1.249 4.180 1.258 8332
1.257 4.205 1.252 12547
1.257 4.208 1.239 11761
1.283 4.292 1.247 7510
1.270 4.251 1.223 4998
1.260 4.217 1.201 4713
1.290 4.316 1.212 6269
1.288 4.312 1.198 7819
1.289 4.315 1.185 6476
1.359 4.547 1.227 7562
1.357 4.542 1.212 8643
1.360 4.553 1.200 7496
1.361 4.556 1.186 5820
1.415 4.736 1.213 5479
1.432 4.791 1.210 4290
1.450 4.854 1.209 3390
1.413 4.730 1.167 3704
1.445 4.837 1.175 2993
1.477 4.944 1.183 1925
1.474 4.932 1.165 2835
1.472 4.927 1.148 2665
1.600 5.355 1.220 2363
1.605 5.373 1.207 3631
1.606 5.376 1.191 3632
1.607 5.378 1.174 4064
1.608 5.381 1.158 3970
1.604 5.369 1.139 3191
1.610 5.387 1.126 4064
1.611 5.390 1.109 4511
1.647 5.512 1.115 3644
1.648 5.515 1.098 4553
1.653 5.532 1.084 5666
1.658 5.550 1.070 6297
1.661 5.560 1.054 5339
1.662 5.562 1.037 5448
1.663 5.565 1.021 4728
1.668 5.582 1.006 3146
1.689 5.652 1.000 2759
1.690 5.655 0.983 4428
1.690 5.657 0.965 4617
1.687 5.644 0.946 3002
1.851 6.195 1.007 2401
1.881 6.295 1.002 2571
1.880 6.290 0.981 3309
1.878 6.285 0.961 4010
1.881 6.295 0.943 3270
1.954 6.538 0.955 2736
1.954 6.540 0.935 2828
1.955 6.543 0.915 2915
1.956 6.545 0.895 3213
2.013 6.735 0.897 3493
2.013 6.737 0.877 3362
2.016 6.747 0.857 3004
2.017 6.749 0.837 2339
2.058 6.887 0.830 1717
2.196 7.349 0.854 1630
2.231 7.465 0.843 1714
2.231 7.467 0.820 1629
2.324 7.778 0.825 2526
2.325 7.780 0.802 2559
2.350 7.865 0.785 2096
2.407 8.056 0.776 2194
2.525 8.451 0.782 2606
2.325 7.780 0.707 2901
2.565 8.583 0.740 3581
2.565 8.585 0.714 4191
2.566 8.587 0.688 3364
2.564 8.580 0.661 2437
2.562 8.574 0.635 2263
2.563 8.576 0.609 2216
2.561 8.569 0.583 1912
2.561 8.571 0.557 1354
2.561 8.572 0.531 1059
2.562 8.573 0.505 917
2.564 8.581 0.479 672
2.565 8.582 0.453 549
2.565 8.583 0.427 398
0.840 2.811 -0.012 302
0.840 2.811 -0.020 346
0.838 2.803 -0.028 403
0.837 2.802 -0.036 383
0.837 2.802 -0.045 363
0.839 2.809 -0.054 331
0.841 2.816 -0.063 313
0.839 2.808 -0.070 271
0.834 2.792 -0.078 254
0.836 2.799 -0.087 256
0.587 1.945 1.556 5339
0.588 1.949 1.550 10678
0.589 1.953 1.544 8379
0.585 1.938 1.525 6096
0.586 1.942 1.519 6096
0.591 1.958 1.522 6149
0.592 1.962 1.516 6256
0.593 1.966 1.511 5519
0.602 1.995 1.523 5377
0.591 1.961 1.490 6818
0.593 1.965 1.484 9055
0.594 1.969 1.478 9055
0.597 1.979 1.477 10518
0.600 1.989 1.475 12603
0.605 2.005 1.478 11437
0.608 2.015 1.477 10850
0.607 2.013 1.466 10671
0.643 2.131 1.538 12388
0.609 2.020 1.454 10888
0.612 2.030 1.453 11150
0.650 2.155 1.527 9585
0.655 2.172 1.529 10698
0.658 2.182 1.527 11384
0.663 2.199 1.529 10234
0.668 2.216 1.530 10555
0.669 2.220 1.524 8289
0.688 2.282 1.554 6927
0.689 2.286 1.547 6845
0.691 2.290 1.540 6763
0.678 2.248 1.505 7146
0.679 2.252 1.499 6968
0.696 2.308 1.524 7157
0.697 2.312 1.517 7439
0.696 2.309 1.506 7745
0.702 2.326 1.507 7296
0.703 2.330 1.500 7101
0.734 2.433 1.552 5338
0.735 2.436 1.545 5093
0.736 2.440 1.538 9246
0.739 2.451 1.534 13508
0.738 2.448 1.523 17921
0.740 2.452 1.516 20104
0.745 2.469 1.516 18440
0.746 2.473 1.509 13548
0.753 2.497 1.512 8690
0.746 2.474 1.490 9573
0.773 2.565 1.531 11025
0.775 2.569 1.523 10912
0.778 2.579 1.519 10629
0.781 2.590 1.515 11241
0.784 2.600 1.511 12285
0.785 2.604 1.503 12583
0.787 2.608 1.495 12448
0.788 2.612 1.488 10963
0.789 2.616 1.480 8614
0.788 2.612 1.469 6930
0.797 2.643 1.475 8343
0.804 2.668 1.477 9207
0.820 2.719 1.494 9646
0.823 2.730 1.489 11390
0.826 2.740 1.484 10564
0.830 2.751 1.479 9664
0.833 2.761 1.474 9628
0.836 2.772 1.470 10976
0.837 2.776 1.461 12234
0.844 2.800 1.463 10729
0.850 2.817 1.461 11577
0.853 2.828 1.456 11744
0.854 2.832 1.447 10541
0.878 2.911 1.475 9677
0.877 2.908 1.463 10284
0.878 2.912 1.454 8983
0.902 2.992 1.480 10325
0.899 2.982 1.465 13380
0.898 2.979 1.453 13634
0.899 2.982 1.444 9691
0.903 2.993 1.438 6947
0.931 3.087 1.469 7486
0.932 3.091 1.460 8649
0.933 3.095 1.450 7403
0.943 3.126 1.453 8118
0.948 3.144 1.450 8455
0.954 3.162 1.446 9558
0.953 3.158 1.434 12233
0.951 3.155 1.421 13738
0.953 3.159 1.412 10587
0.956 3.169 1.405 7040
0.957 3.173 1.396 4310
0.979 3.247 1.414 7234
0.978 3.243 1.402 7370
0.979 3.247 1.392 7547
1.002 3.321 1.410 10707
1.001 3.318 1.397 12718
1.004 3.329 1.390 11811
1.007 3.339 1.383 9650
1.023 3.393 1.392 8217
1.026 3.403 1.384 11970
1.027 3.407 1.374 10930
1.035 3.432 1.371 9012
1.040 3.449 1.366 10128
1.043 3.460 1.358 12666
1.049 3.478 1.353 14789
1.050 3.481 1.343 14146
1.049 3.477 1.330 10251
1.050 3.480 1.319 7177
1.051 3.484 1.309 5592
1.052 3.487 1.298 4778
1.055 3.497 1.290 7724
1.056 3.501 1.280 9015
1.057 3.504 1.269 6235
1.066 3.536 1.268 5084
1.072 3.554 1.262 5617
1.112 3.687 1.293 5016
1.115 3.698 1.284 4219
1.131 3.752 1.289 4455
1.146 3.799 1.291 5091
1.147 3.802 1.280 6208
1.150 3.812 1.270 6625
1.159 3.845 1.267 4268
1.176 3.899 1.271 3678
1.183 3.924 1.266 6690
1.184 3.927 1.254 7920
1.185 3.930 1.242 7959
1.184 3.926 1.228 5711
1.225 4.061 1.253 4326
1.243 4.122 1.257 5598
1.244 4.125 1.244 7180
1.267 4.202 1.252 9643
1.270 4.212 1.241 9004
1.289 4.274 1.244 7572
1.283 4.255 1.225 5358
1.271 4.214 1.201 5513
1.298 4.305 1.211 7163
1.299 4.308 1.198 8967
1.298 4.304 1.183 6684
1.370 4.543 1.227 6283
1.369 4.539 1.212 6996
1.372 4.549 1.200 6177
1.402 4.648 1.208 4968
1.432 4.748 1.216 5271
1.435 4.758 1.204 4725
1.434 4.753 1.188 3671
1.426 4.727 1.167 4526
1.455 4.826 1.174 3100
1.456 4.829 1.159 2073
1.504 4.988 1.177 2891
1.505 4.991 1.162 2928
1.616 5.358 1.222 2455
1.619 5.368 1.207 3609
1.620 5.371 1.191 3444
1.589 5.270 1.154 4555
1.622 5.377 1.158 4312
1.623 5.380 1.142 3126
1.623 5.383 1.126 3776
1.624 5.386 1.109 4240
1.661 5.508 1.115 3730
1.662 5.510 1.098 5013
1.667 5.528 1.084 6273
1.670 5.538 1.068 6547
1.673 5.548 1.053 4863
1.676 5.558 1.037 4825
1.677 5.561 1.021 4149
1.685 5.586 1.007 2833
1.701 5.641 0.998 2549
1.704 5.650 0.983 4249
1.705 5.653 0.965 4377
1.780 5.903 0.984 3010
1.869 6.198 1.008 2441
1.881 6.238 0.994 2219
1.889 6.263 0.978 2963
1.896 6.288 0.962 3655
1.897 6.290 0.943 3134
1.970 6.533 0.955 2948
1.971 6.535 0.935 2805
1.972 6.538 0.915 2733
1.972 6.540 0.895 3203
1.971 6.534 0.875 3504
2.028 6.725 0.876 3253
2.031 6.734 0.856 2741
2.032 6.736 0.836 2132
2.073 6.874 0.829 1840
2.078 6.891 0.810 1667
2.250 7.459 0.843 1611
2.157 7.151 0.792 1691
2.346 7.780 0.826 2206
2.345 7.774 0.802 2182
2.366 7.844 0.784 2042
2.549 8.451 0.808 2348
2.547 8.445 0.782 2794
2.547 8.447 0.756 3042
2.546 8.441 0.730 3388
2.546 8.442 0.705 3973
2.547 8.444 0.679 3280
2.588 8.582 0.662 2089
2.586 8.575 0.635 1883
2.584 8.569 0.609 1857
2.582 8.563 0.583 1566
2.581 8.556 0.556 1104
2.711 8.989 0.550 930
2.714 8.998 0.523 881
2.714 8.999 0.496 574
2.586 8.576 0.453 466
2.587 8.577 0.427 340
0.845 2.802 -0.011 269
0.845 2.801 -0.020 310
0.845 2.801 -0.028 351
0.845 2.800 -0.036 335
0.844 2.800 -0.045 318
0.844 2.799 -0.053 256
0.590 1.944 1.556 4588
0.592 1.948 1.550 9177
0.593 1.952 1.544 7502
0.586 1.931 1.520 5950
0.588 1.935 1.514 5950
0.596 1.963 1.527 6082
0.598 1.967 1.521 6337
0.601 1.977 1.520 5177
0.604 1.987 1.518 4235
0.595 1.960 1.490 6140
0.595 1.957 1.480 8579
0.596 1.961 1.474 8579
0.601 1.977 1.477 10257
0.606 1.994 1.480 13085
0.609 2.004 1.478 12461
0.612 2.014 1.477 12190
0.611 2.011 1.466 11974
0.649 2.136 1.542 12647
0.613 2.019 1.454 12064
0.616 2.029 1.453 12147
0.656 2.160 1.531 10278
0.659 2.171 1.529 11209
0.662 2.181 1.527 11634
0.668 2.198 1.529 9995
0.675 2.221 1.534 10138
0.674 2.218 1.524 8279
0.693 2.281 1.554 7710
0.694 2.285 1.547 8010
0.695 2.288 1.540 8311
0.694 2.286 1.530 7580
0.697 2.296 1.527 7371
0.701 2.307 1.524 8120
0.704 2.317 1.521 7718
0.703 2.314 1.510 7255
0.706 2.325 1.507 6585
0.739 2.434 1.563 6308
0.738 2.431 1.552 6030
0.740 2.435 1.545 5774
0.743 2.446 1.541 10286
0.744 2.449 1.534 14928
0.743 2.447 1.523 19477
0.746 2.457 1.519 22185
0.750 2.468 1.516 21119
0.751 2.472 1.509 16553
0.754 2.482 1.505 12006
0.751 2.472 1.490 12412
0.754 2.483 1.486 12323
0.757 2.493 1.483 12050
0.783 2.578 1.519 10660
0.786 2.588 1.515 12062
0.791 2.606 1.515 13360
0.793 2.609 1.507 13628
0.792 2.606 1.495 13202
0.793 2.610 1.488 10896
0.794 2.614 1.480 7744
0.797 2.624 1.476 6064
0.802 2.642 1.475 7491
0.820 2.700 1.495 9362
0.823 2.711 1.490 10624
0.826 2.721 1.485 11036
0.830 2.732 1.481 9500
0.835 2.749 1.479 8163
0.851 2.801 1.495 8610
0.852 2.805 1.486 10320
0.845 2.781 1.465 11221
0.852 2.805 1.466 9700
0.855 2.816 1.461 10605
0.858 2.826 1.456 11672
0.862 2.837 1.451 11256
0.884 2.910 1.475 10871
0.883 2.906 1.463 11691
0.884 2.910 1.454 9967
0.906 2.983 1.477 10175
0.905 2.980 1.465 13418
0.904 2.977 1.453 13710
0.907 2.987 1.447 10235
0.915 3.012 1.447 7819
0.937 3.085 1.469 7737
0.936 3.082 1.457 9341
0.939 3.093 1.450 7452
0.949 3.125 1.453 7520
0.954 3.142 1.450 8077
0.960 3.160 1.446 9743
0.957 3.149 1.431 12658
0.956 3.146 1.418 14166
0.959 3.157 1.412 10699
0.962 3.167 1.405 6804
0.987 3.249 1.427 5727
0.986 3.245 1.414 8747
0.987 3.249 1.405 8420
0.992 3.266 1.401 7968
1.006 3.312 1.407 9462
1.007 3.316 1.397 11412
1.010 3.327 1.390 11203
1.014 3.337 1.383 10181
1.028 3.383 1.389 8425
1.033 3.401 1.384 12440
1.034 3.405 1.374 11622
1.039 3.422 1.369 9517
1.045 3.440 1.364 10593
1.048 3.451 1.356 11560
1.058 3.483 1.356 13844
1.059 3.486 1.345 14513
1.058 3.482 1.332 10983
1.057 3.478 1.319 7708
1.055 3.474 1.306 5945
1.056 3.478 1.296 4835
1.062 3.495 1.290 6897
1.063 3.499 1.280 7976
1.064 3.502 1.269 5838
1.073 3.534 1.268 4886
1.081 3.559 1.264 5490
1.119 3.685 1.293 6434
1.122 3.695 1.284 5126
1.150 3.786 1.300 5042
1.153 3.796 1.291 5716
1.154 3.799 1.280 6616
1.155 3.803 1.268 6851
1.167 3.842 1.267 4540
1.168 3.845 1.256 3483
1.189 3.914 1.263 5387
1.192 3.925 1.254 7399
1.193 3.928 1.242 8289
1.194 3.931 1.230 5308
1.228 4.044 1.249 5143
1.251 4.120 1.257 5497
1.250 4.116 1.242 7478
1.278 4.207 1.254 7047
1.279 4.210 1.241 7296
1.297 4.272 1.244 7822
1.298 4.275 1.231 6034
1.290 4.248 1.210 6024
1.305 4.296 1.209 7579
1.308 4.306 1.198 9484
1.307 4.301 1.183 6703
1.379 4.540 1.227 4687
1.378 4.536 1.212 5093
1.381 4.546 1.200 4540
1.411 4.646 1.208 4949
1.443 4.752 1.218 4823
1.444 4.755 1.204 4623
1.443 4.751 1.188 4085
1.435 4.724 1.167 4925
1.465 4.823 1.174 3045
1.468 4.833 1.161 2274
1.514 4.985 1.177 3362
1.515 4.988 1.162 3521
1.518 4.998 1.149 2914
1.630 5.365 1.207 3285
1.597 5.257 1.169 3781
1.600 5.267 1.154 5407
1.635 5.381 1.160 4448
1.633 5.377 1.142 2867
1.634 5.380 1.126 3196
1.635 5.382 1.109 3649
1.672 5.504 1.115 4119
1.673 5.507 1.098 5716
1.674 5.510 1.081 7082
1.681 5.535 1.068 6915
1.682 5.537 1.052 4838
1.685 5.547 1.036 4584
1.686 5.550 1.019 3767
1.698 5.590 1.008 2443
1.712 5.637 0.998 2324
1.715 5.647 0.983 3823
1.718 5.657 0.967 3988
1.790 5.892 0.983 3223
1.881 6.194 1.008 2540
1.891 6.227 0.993 2431
1.892 6.229 0.974 2915
1.909 6.284 0.962 3100
1.912 6.294 0.944 2867
1.983 6.529 0.955 3065
1.984 6.532 0.935 2700
1.987 6.541 0.916 2427
1.985 6.536 0.895 3030
1.984 6.530 0.875 3494
2.041 6.721 0.876 3155
2.042 6.723 0.855 2608
2.084 6.860 0.849 2157
2.087 6.870 0.829 1929
2.092 6.887 0.810 1758
2.170 7.145 0.813 1692
2.171 7.147 0.792 1740
2.208 7.270 0.781 1966
2.383 7.845 0.808 2116
2.379 7.832 0.783 1963
2.565 8.445 0.808 2424
2.563 8.440 0.782 2849
2.564 8.442 0.756 3093
2.562 8.436 0.730 3499
2.563 8.437 0.705 4102
2.561 8.431 0.679 3319
2.676 8.811 0.676 2029
2.603 8.570 0.635 1569
2.601 8.564 0.609 1566
2.723 8.966 0.604 1313
2.728 8.983 0.577 1127
2.729 8.984 0.550 989
2.731 8.993 0.523 904
2.732 8.994 0.496 568
2.780 9.154 0.474 380
2.601 8.564 0.427 275
0.850 2.799 -0.028 258
0.850 2.799 -0.036 250
0.596 1.949 1.560 3779
0.597 1.953 1.555 7558
0.597 1.950 1.544 6680
0.598 1.954 1.538 5828
0.599 1.958 1.533 5828
0.602 1.968 1.531 6245
0.603 1.972 1.525 6695
0.605 1.976 1.520 5381
0.604 1.974 1.509 4110
0.599 1.959 1.490 5864
0.599 1.956 1.480 8249
0.600 1.960 1.474 8249
0.605 1.976 1.477 10100
0.612 1.999 1.484 13733
0.615 2.009 1.483 13467
0.616 2.013 1.477 13473
0.615 2.010 1.466 13196
0.614 2.007 1.456 13332
0.617 2.017 1.454 13086
0.618 2.021 1.448 12974
0.661 2.159 1.531 10927
0.664 2.169 1.529 11574
0.665 2.173 1.522 11700
0.672 2.196 1.529 9666
0.679 2.220 1.534 9678
0.676 2.211 1.520 8177
0.697 2.279 1.554 8384
0.699 2.283 1.547 9042
0.698 2.281 1.536 9725
0.699 2.284 1.530 8820
0.704 2.301 1.531 8629
0.705 2.305 1.524 9492
0.709 2.316 1.521 8450
0.712 2.326 1.518 7233
0.713 2.330 1.511 6177
0.744 2.432 1.563 6885
0.743 2.430 1.552 6611
0.745 2.434 1.545 6350
0.748 2.444 1.541 11133
0.749 2.448 1.534 16014
0.748 2.445 1.523 20655
0.751 2.456 1.519 23961
0.757 2.473 1.520 23496
0.758 2.477 1.512 19443
0.759 2.480 1.505 15390
0.758 2.478 1.494 15355
0.759 2.481 1.486 14641
0.762 2.492 1.483 14170
0.788 2.576 1.519 10581
0.791 2.587 1.515 12587
0.797 2.604 1.515 14030
0.798 2.608 1.507 14469
0.799 2.612 1.499 13925
0.800 2.615 1.491 10839
0.799 2.612 1.480 6894
0.829 2.711 1.521 5872
0.829 2.708 1.510 7432
0.828 2.705 1.498 10610
0.831 2.716 1.494 11583
0.832 2.719 1.485 11101
0.833 2.723 1.477 8914
0.832 2.720 1.466 7094
0.859 2.806 1.498 8458
0.858 2.803 1.486 10094
0.850 2.779 1.465 9915
0.860 2.810 1.470 8546
0.861 2.814 1.461 9400
0.864 2.825 1.456 11340
0.867 2.835 1.451 11710
0.890 2.908 1.475 11680
0.889 2.905 1.463 12624
0.890 2.908 1.454 10530
0.912 2.981 1.477 9791
0.911 2.978 1.465 13162
0.910 2.975 1.453 13346
0.916 2.992 1.450 10466
0.921 3.010 1.447 8571
0.941 3.077 1.466 7861
0.942 3.080 1.457 10037
0.933 3.049 1.432 7522
0.958 3.130 1.456 6289
0.961 3.140 1.450 7271
0.966 3.158 1.446 9646
0.963 3.148 1.431 12574
0.962 3.144 1.418 13574
0.965 3.155 1.412 10051
0.990 3.236 1.434 6874
0.991 3.239 1.424 7524
0.992 3.243 1.414 10141
0.993 3.247 1.405 9535
0.999 3.264 1.401 8371
1.006 3.289 1.399 8538
1.014 3.314 1.397 10398
1.015 3.317 1.387 11070
1.020 3.335 1.383 10758
1.032 3.374 1.386 8651
1.040 3.399 1.384 12570
1.041 3.402 1.374 11576
1.044 3.413 1.366 9563
1.050 3.431 1.361 11093
1.055 3.448 1.356 10967
1.067 3.488 1.358 14154
1.068 3.491 1.348 15310
1.065 3.480 1.332 11233
1.064 3.476 1.319 7432
1.062 3.472 1.306 6057
1.061 3.468 1.293 4611
1.069 3.493 1.290 5553
1.070 3.496 1.280 6572
1.124 3.673 1.326 5429
1.125 3.676 1.315 5187
1.126 3.679 1.304 6138
1.127 3.683 1.293 7527
1.130 3.693 1.284 5806
1.158 3.783 1.300 5497
1.161 3.794 1.291 6171
1.162 3.797 1.280 6850
1.165 3.808 1.270 6881
1.175 3.840 1.267 4957
1.174 3.836 1.254 3934
1.195 3.904 1.261 3874
1.198 3.915 1.252 6542
1.199 3.918 1.240 8170
1.231 4.023 1.257 5168
1.234 4.034 1.247 6488
1.240 4.051 1.239 5572
1.259 4.113 1.242 7244
1.262 4.123 1.232 6783
1.263 4.127 1.220 6994
1.304 4.262 1.242 7773
1.303 4.257 1.227 6971
1.299 4.246 1.210 7102
1.305 4.263 1.201 8635
1.314 4.296 1.196 9601
1.315 4.299 1.183 6699
1.309 4.280 1.164 3212
1.414 4.622 1.233 3340
1.417 4.632 1.221 4118
1.421 4.643 1.208 5061
1.424 4.653 1.196 4558
1.456 4.760 1.205 4220
1.450 4.740 1.186 4051
1.445 4.721 1.167 4937
1.443 4.716 1.151 2982
1.478 4.830 1.161 2310
1.524 4.982 1.177 3605
1.525 4.985 1.162 3894
1.531 5.002 1.150 3314
1.641 5.362 1.207 2730
1.610 5.261 1.170 3909
1.611 5.264 1.154 5840
1.646 5.378 1.160 4277
1.646 5.381 1.143 2537
1.645 5.376 1.126 2561
1.682 5.498 1.131 2935
1.685 5.508 1.116 4484
1.684 5.504 1.098 6336
1.685 5.506 1.081 7888
1.690 5.524 1.067 7336
1.691 5.527 1.050 5061
1.692 5.529 1.034 4502
1.695 5.539 1.018 3422
1.709 5.586 1.008 2239
1.845 6.031 1.060 2347
1.727 5.644 0.983 3125
1.732 5.661 0.968 3465
1.802 5.888 0.983 3218
1.894 6.191 1.008 2685
1.906 6.230 0.994 2678
1.909 6.240 0.976 2797
1.922 6.280 0.962 2502
1.927 6.297 0.945 2602
1.997 6.525 0.955 3084
1.997 6.527 0.935 2506
1.966 6.424 0.903 2109
1.999 6.532 0.895 2765
1.997 6.526 0.875 3383
2.057 6.724 0.877 3092
2.056 6.719 0.855 2564
2.098 6.856 0.849 2287
2.101 6.866 0.829 1972
2.106 6.883 0.810 1807
2.183 7.133 0.813 1748
2.183 7.135 0.791 1734
2.223 7.265 0.781 1962
2.399 7.840 0.808 2044
2.580 8.431 0.833 1911
2.580 8.433 0.807 2389
2.581 8.434 0.782 2779
2.581 8.436 0.756 3022
2.580 8.430 0.730 3448
2.580 8.432 0.705 4034
2.578 8.426 0.679 3196
2.694 8.805 0.676 2265
2.692 8.799 0.649 1623
2.739 8.952 0.631 1509
2.742 8.961 0.604 1416
2.747 8.977 0.577 1182
2.747 8.978 0.550 1015
2.750 8.987 0.523 881
2.752 8.996 0.496 515
2.797 9.140 0.474 348
0.856 2.798 -0.020 278
0.856 2.797 -0.028 312
0.856 2.797 -0.036 304
0.856 2.796 -0.045 296
0.855 2.796 -0.053 288
0.855 2.795 -0.062 280
0.600 1.947 1.560 3038
0.601 1.951 1.555 6076
0.603 1.955 1.549 6054
0.604 1.959 1.543 6031
0.605 1.963 1.537 6031
0.606 1.967 1.531 6660
0.609 1.977 1.530 7294
0.609 1.975 1.520 6212
0.610 1.979 1.514 5135
0.607 1.970 1.499 6059
0.602 1.955 1.480 8056
0.604 1.959 1.474 8056
0.612 1.988 1.486 10277
0.616 1.998 1.484 14380
0.619 2.008 1.483 14431
0.620 2.011 1.477 14644
0.619 2.009 1.466 14309
0.618 2.006 1.456 14410
0.621 2.016 1.454 13945
0.622 2.020 1.448 13634
0.667 2.164 1.535 11402
0.668 2.168 1.529 11752
0.669 2.172 1.522 11600
0.676 2.195 1.529 9241
0.684 2.218 1.534 9057
0.679 2.203 1.515 8062
0.702 2.278 1.554 8760
0.703 2.282 1.547 9783
0.702 2.279 1.536 10886
0.705 2.290 1.534 9994
0.709 2.300 1.531 10047
0.712 2.310 1.528 11041
0.715 2.321 1.525 9450
0.716 2.325 1.518 7655
0.717 2.328 1.511 6140
0.747 2.424 1.559 7279
0.748 2.428 1.552 7004
0.749 2.432 1.545 6729
0.753 2.443 1.541 11599
0.754 2.446 1.534 16549
0.755 2.450 1.527 21366
0.756 2.454 1.519 25152
0.761 2.471 1.520 25272
0.763 2.475 1.512 21729
0.762 2.472 1.501 18235
0.763 2.476 1.494 17885
0.764 2.480 1.486 16619
0.767 2.490 1.483 15961
0.769 2.494 1.475 12212
0.797 2.585 1.515 13001
0.802 2.602 1.515 14334
0.803 2.606 1.507 15032
0.804 2.610 1.499 14548
0.805 2.614 1.491 10877
0.832 2.699 1.526 7682
0.826 2.682 1.507 7223
0.834 2.706 1.510 8758
0.835 2.710 1.502 12162
0.836 2.714 1.494 12636
0.835 2.711 1.482 11424
0.836 2.715 1.474 8655
0.838 2.718 1.466 6606
0.864 2.804 1.498 8182
0.863 2.801 1.486 9574
0.862 2.798 1.475 8954
0.884 2.870 1.499 8824
0.890 2.888 1.497 8772
0.872 2.830 1.459 10855
0.873 2.833 1.451 11887
0.895 2.906 1.475 11967
0.897 2.910 1.466 13091
0.896 2.907 1.454 10689
0.916 2.973 1.474 9183
0.917 2.976 1.465 12649
0.918 2.980 1.456 12672
0.922 2.991 1.450 10405
0.927 3.008 1.447 8899
0.947 3.075 1.466 7798
0.949 3.078 1.457 10469
0.941 3.054 1.435 7968
0.942 3.058 1.426 5381
0.967 3.138 1.450 6489
0.972 3.156 1.446 9481
0.969 3.146 1.431 12108
0.970 3.149 1.421 12314
0.974 3.160 1.415 8960
0.996 3.234 1.434 8227
0.998 3.237 1.424 8977
0.999 3.241 1.414 11313
1.000 3.245 1.405 10564
1.005 3.262 1.401 8446
1.011 3.280 1.396 8043
1.020 3.312 1.397 9760
1.024 3.322 1.390 11316
1.027 3.333 1.383 11126
1.039 3.372 1.386 8888
1.045 3.390 1.381 12479
1.046 3.393 1.371 11258
1.051 3.411 1.366 9152
1.056 3.429 1.361 11106
1.062 3.446 1.356 10630
1.074 3.486 1.358 15235
1.075 3.489 1.348 16386
1.074 3.485 1.335 10526
1.070 3.474 1.319 6210
1.069 3.470 1.306 5964
1.068 3.466 1.293 4064
1.076 3.491 1.290 4009
1.077 3.494 1.280 5075
1.131 3.671 1.326 6727
1.132 3.674 1.315 6311
1.133 3.677 1.304 6821
1.136 3.688 1.295 7989
1.137 3.691 1.284 6012
1.165 3.781 1.300 5543
1.168 3.792 1.291 6257
1.169 3.795 1.280 6883
1.173 3.805 1.270 6786
1.182 3.837 1.267 5310
1.177 3.819 1.249 4215
1.178 3.822 1.238 3780
1.206 3.912 1.252 5478
1.206 3.916 1.240 7703
1.239 4.021 1.257 5843
1.240 4.024 1.245 7645
1.245 4.042 1.237 6413
1.264 4.103 1.240 6438
1.270 4.121 1.232 7496
1.271 4.124 1.220 7988
1.310 4.252 1.240 7334
1.311 4.255 1.227 8063
1.307 4.243 1.210 8552
1.313 4.261 1.201 9778
1.321 4.286 1.194 9335
1.322 4.289 1.181 6734
1.318 4.277 1.164 4054
1.348 4.376 1.175 3743
1.426 4.629 1.221 4031
1.430 4.640 1.208 4667
1.431 4.643 1.194 3875
1.466 4.757 1.205 3513
1.460 4.737 1.186 3701
1.454 4.718 1.167 4579
1.452 4.714 1.151 2826
1.488 4.828 1.161 2163
1.534 4.979 1.177 3598
1.535 4.982 1.162 4044
1.540 4.999 1.150 3505
1.603 5.203 1.175 2676
1.620 5.258 1.170 3804
1.621 5.260 1.154 5789
1.622 5.263 1.138 4192
1.625 5.273 1.124 2491
1.626 5.276 1.108 2725
1.691 5.488 1.130 3192
1.696 5.505 1.116 4401
1.697 5.508 1.099 6469
1.698 5.511 1.083 8227
1.701 5.521 1.067 7505
1.700 5.516 1.049 5335
1.703 5.526 1.034 4602
1.733 5.625 1.033 3372
1.732 5.620 1.014 2376
1.760 5.713 1.011 2223
1.745 5.663 0.986 2478
1.748 5.672 0.970 3019
1.903 6.177 1.025 3355
1.906 6.187 1.008 2776
1.921 6.234 0.995 2902
1.924 6.244 0.977 2748
1.932 6.269 0.961 1981
1.944 6.309 0.947 2641
2.009 6.521 0.955 2987
2.008 6.516 0.934 2282
1.978 6.420 0.903 2101
2.011 6.528 0.895 2450
2.010 6.522 0.875 3207
2.071 6.720 0.877 3053
2.069 6.715 0.855 2591
2.109 6.844 0.848 2349
2.114 6.861 0.829 1952
2.182 7.082 0.830 1902
2.197 7.129 0.813 1718
2.237 7.259 0.803 1671
2.237 7.261 0.781 1985
2.412 7.828 0.807 1883
2.406 7.807 0.782 1848
2.597 8.428 0.807 2215
2.597 8.429 0.782 2552
2.600 8.439 0.757 2773
2.596 8.425 0.730 3190
2.597 8.427 0.705 3733
2.595 8.421 0.679 2895
2.712 8.800 0.676 2402
2.710 8.794 0.649 1706
2.757 8.946 0.631 1552
2.759 8.955 0.604 1480
2.764 8.972 0.577 1264
2.765 8.973 0.550 1093
2.765 8.974 0.523 893
2.770 8.990 0.496 493
2.815 9.135 0.474 353
0.604 1.946 1.560 2423
0.606 1.950 1.555 4846
0.607 1.954 1.549 5661
0.608 1.958 1.543 6476
0.609 1.962 1.537 6476
0.610 1.966 1.531 7330
0.614 1.976 1.530 8278
0.615 1.980 1.524 7404
0.614 1.977 1.514 6619
0.613 1.975 1.503 6837
0.607 1.954 1.480 7927
0.608 1.957 1.474 7927
0.619 1.993 1.490 10672
0.620 1.996 1.484 14820
0.623 2.006 1.483 15148
0.624 2.010 1.477 15550
0.623 2.007 1.466 15214
0.623 2.005 1.456 15312
0.626 2.015 1.454 14616
0.627 2.018 1.448 14094
0.672 2.163 1.535 11646
0.673 2.167 1.529 11571
0.674 2.170 1.522 11139
0.679 2.187 1.524 8680
0.688 2.217 1.534 8202
0.684 2.201 1.515 7873
0.707 2.276 1.554 8828
0.708 2.280 1.547 10250
0.707 2.278 1.536 11803
0.711 2.288 1.534 11078
0.714 2.298 1.531 11555
0.717 2.309 1.528 12752
0.720 2.319 1.525 10668
0.721 2.323 1.518 8300
0.723 2.327 1.511 6428
0.750 2.416 1.555 7458
0.754 2.426 1.552 7140
0.755 2.430 1.545 6840
0.758 2.441 1.541 11604
0.759 2.445 1.534 16464
0.760 2.449 1.527 21398
0.762 2.453 1.519 25622
0.767 2.470 1.520 26099
0.766 2.467 1.509 23168
0.767 2.471 1.501 20277
0.768 2.474 1.494 19725
0.770 2.478 1.486 18103
0.773 2.489 1.483 17280
0.774 2.492 1.475 13461
0.802 2.583 1.515 13444
0.808 2.601 1.515 14442
0.809 2.604 1.507 15427
0.812 2.615 1.503 15274
0.813 2.619 1.495 11162
0.835 2.690 1.522 8780
0.830 2.674 1.504 9491
0.840 2.705 1.510 10039
0.843 2.715 1.505 13653
0.842 2.712 1.494 13634
0.843 2.716 1.485 11841
0.842 2.713 1.474 8456
0.842 2.710 1.462 6325
0.870 2.802 1.498 7718
0.869 2.799 1.486 8727
0.858 2.762 1.458 8049
0.893 2.875 1.503 9413
0.896 2.886 1.497 9378
0.878 2.828 1.459 10192
0.879 2.831 1.451 11702
0.902 2.904 1.475 11558
0.903 2.908 1.466 12841
0.902 2.905 1.454 10269
0.916 2.950 1.464 8650
0.924 2.974 1.465 11899
0.925 2.978 1.456 11730
0.928 2.989 1.450 9941
0.931 2.999 1.444 8806
0.954 3.073 1.466 7487
0.953 3.069 1.453 10724
0.950 3.059 1.438 8554
0.949 3.056 1.426 5259
0.974 3.136 1.450 6370
0.977 3.147 1.443 9774
0.976 3.143 1.431 11483
0.977 3.147 1.421 10633
0.992 3.193 1.429 8104
1.004 3.232 1.434 8864
1.005 3.235 1.424 10110
1.006 3.239 1.414 12405
1.007 3.242 1.405 11545
1.012 3.260 1.401 8149
1.018 3.278 1.396 7236
1.028 3.310 1.397 9360
1.031 3.320 1.390 11683
1.034 3.331 1.383 11116
1.047 3.370 1.386 8932
1.052 3.387 1.381 12168
1.051 3.384 1.369 10450
1.061 3.416 1.369 8427
1.064 3.426 1.361 10570
1.078 3.473 1.366 11192
1.082 3.483 1.358 16135
1.083 3.487 1.348 17037
1.084 3.490 1.337 9214
1.076 3.465 1.317 4491
1.079 3.475 1.309 5844
1.080 3.478 1.298 4150
1.086 3.496 1.293 3133
1.136 3.658 1.335 4106
1.139 3.668 1.326 7115
1.140 3.671 1.315 6566
1.141 3.675 1.304 6455
1.144 3.685 1.295 7278
1.145 3.688 1.284 5367
1.176 3.786 1.302 5248
1.179 3.796 1.293 6196
1.180 3.799 1.282 6819
1.181 3.803 1.270 6427
1.193 3.842 1.270 5566
1.187 3.823 1.252 4204
1.236 3.979 1.285 4219
1.214 3.910 1.252 4413
1.215 3.913 1.240 6704
1.246 4.011 1.255 6475
1.249 4.021 1.245 8766
1.254 4.039 1.237 6894
1.271 4.093 1.238 5619
1.277 4.111 1.230 7915
1.278 4.114 1.218 8255
1.317 4.242 1.238 7197
1.318 4.245 1.225 9312
1.317 4.240 1.210 10287
1.318 4.243 1.198 11192
1.326 4.268 1.190 9163
1.329 4.278 1.179 6927
1.327 4.274 1.164 5067
1.360 4.380 1.176 5322
1.437 4.626 1.221 3878
1.440 4.637 1.208 4374
1.441 4.640 1.194 3486
1.476 4.753 1.205 2564
1.463 4.712 1.181 3270
1.464 4.715 1.167 4098
1.463 4.710 1.151 2606
1.544 4.972 1.192 1798
1.545 4.975 1.177 3253
1.546 4.978 1.162 3846
1.551 4.996 1.150 3295
1.615 5.199 1.175 3087
1.634 5.261 1.171 3436
1.635 5.264 1.156 5167
1.631 5.252 1.137 4018
1.676 5.396 1.148 2625
1.637 5.273 1.108 2738
1.701 5.476 1.128 3113
1.709 5.501 1.116 3890
1.709 5.504 1.099 6089
1.710 5.507 1.083 8011
1.709 5.502 1.065 7496
1.709 5.504 1.048 5559
1.713 5.514 1.032 4629
1.750 5.636 1.035 3655
1.763 5.676 1.024 2960
1.773 5.709 1.011 2626
1.769 5.696 0.992 2372
1.914 6.163 1.043 2674
1.915 6.165 1.024 3531
1.918 6.175 1.007 2793
1.939 6.245 0.997 3070
1.942 6.255 0.979 2748
1.953 6.287 0.964 1813
1.958 6.304 0.947 2897
1.959 6.307 0.928 3298
1.955 6.294 0.907 2127
2.095 6.747 0.942 2146
2.096 6.749 0.922 2307
2.024 6.518 0.875 2973
2.083 6.708 0.876 3028
2.081 6.702 0.855 2622
2.124 6.840 0.848 2346
2.195 7.067 0.851 2150
2.195 7.069 0.829 2149
2.198 7.079 0.808 1758
2.255 7.261 0.804 1620
2.253 7.256 0.781 1943
2.429 7.823 0.807 1679
2.423 7.802 0.782 1803
2.412 7.766 0.755 1910
2.616 8.424 0.782 2167
2.619 8.433 0.757 2367
2.617 8.427 0.731 2767
2.615 8.421 0.705 3231
2.616 8.423 0.679 2453
2.733 8.802 0.677 2420
2.731 8.795 0.649 1701
2.776 8.940 0.631 1559
2.779 8.949 0.604 1503
2.784 8.966 0.577 1306
2.785 8.967 0.550 1135
2.785 8.968 0.523 890
2.790 8.984 0.496 469
2.837 9.136 0.474 312
2.800 9.016 0.443 265
0.594 1.902 1.528 2111
0.596 1.906 1.522 4223
0.610 1.953 1.549 5630
0.611 1.957 1.543 7040
0.613 1.961 1.537 7040
0.616 1.971 1.536 8193
0.617 1.975 1.530 9495
0.618 1.979 1.524 8895
0.619 1.983 1.518 8295
0.617 1.974 1.503 7984
0.612 1.959 1.484 7894
0.613 1.963 1.478 7894
0.622 1.991 1.490 11060
0.625 2.002 1.489 14912
0.627 2.005 1.483 15482
0.628 2.009 1.477 16052
0.627 2.006 1.466 15729
0.626 2.004 1.456 15799
0.629 2.014 1.454 14860
0.630 2.017 1.448 14094
0.675 2.162 1.535 11548
0.677 2.165 1.529 11054
0.678 2.169 1.522 10374
0.683 2.186 1.524 7997
0.692 2.216 1.534 7242
0.687 2.200 1.515 7585
0.689 2.204 1.509 8672
0.712 2.279 1.547 10462
0.711 2.276 1.536 12456
0.714 2.287 1.534 11991
0.718 2.297 1.531 12990
0.721 2.307 1.528 14428
0.724 2.318 1.525 11966
0.727 2.328 1.522 9157
0.735 2.352 1.527 7208
0.752 2.408 1.551 7590
0.741 2.373 1.521 7340
0.743 2.376 1.514 7400
0.762 2.440 1.541 11217
0.763 2.443 1.534 15864
0.765 2.447 1.527 20791
0.766 2.451 1.519 25238
0.769 2.462 1.516 25861
0.770 2.465 1.509 23519
0.772 2.469 1.501 21177
0.773 2.473 1.494 20587
0.774 2.477 1.486 18836
0.777 2.487 1.483 17882
0.778 2.491 1.475 14072
0.807 2.582 1.515 14196
0.812 2.599 1.515 14858
0.815 2.610 1.510 16120
0.817 2.614 1.503 16305
0.818 2.617 1.495 12293
0.832 2.662 1.508 10536
0.835 2.672 1.504 11932
0.845 2.703 1.510 11290
0.848 2.714 1.505 15112
0.849 2.717 1.497 14407
0.848 2.714 1.485 12188
0.847 2.711 1.474 8273
0.848 2.715 1.466 6193
0.852 2.726 1.461 7805
0.855 2.736 1.456 8921
0.858 2.747 1.451 8199
0.900 2.881 1.506 9569
0.901 2.884 1.497 9272
0.885 2.833 1.463 9305
0.884 2.830 1.451 11165
0.907 2.903 1.475 10620
0.908 2.906 1.466 11905
0.907 2.903 1.454 9421
0.921 2.948 1.464 8204
0.927 2.966 1.462 11110
0.930 2.976 1.456 10651
0.931 2.980 1.447 9300
0.932 2.984 1.438 8685
0.960 3.071 1.466 7044
0.958 3.068 1.453 10682
0.957 3.064 1.441 9080
0.956 3.061 1.429 5245
0.979 3.135 1.450 7513
0.981 3.138 1.440 10982
0.984 3.149 1.434 11111
0.985 3.152 1.424 9432
0.997 3.191 1.429 8299
1.005 3.216 1.428 8965
1.010 3.234 1.424 10824
1.011 3.237 1.414 13280
1.013 3.241 1.405 12320
1.016 3.251 1.398 7717
1.026 3.283 1.399 6146
1.034 3.308 1.397 9102
1.037 3.318 1.390 11849
1.040 3.329 1.383 10730
1.052 3.368 1.386 8754
1.058 3.386 1.381 11354
1.057 3.382 1.369 9415
1.069 3.421 1.371 7553
1.070 3.424 1.361 9575
1.087 3.478 1.369 11916
1.090 3.488 1.361 16933
1.091 3.492 1.350 17457
1.092 3.495 1.340 8972
1.091 3.491 1.327 3890
1.087 3.480 1.311 6359
1.088 3.484 1.301 5242
1.094 3.501 1.295 3186
1.142 3.656 1.335 4559
1.143 3.659 1.324 7187
1.144 3.662 1.313 6407
1.150 3.680 1.306 5594
1.151 3.683 1.295 5910
1.154 3.694 1.286 4627
1.182 3.784 1.302 4618
1.188 3.801 1.295 6092
1.187 3.797 1.282 6728
1.199 3.837 1.281 6471
1.200 3.840 1.270 5753
1.199 3.836 1.256 4008
1.240 3.970 1.283 4913
1.221 3.908 1.252 3955
1.220 3.903 1.238 5689
1.255 4.016 1.257 6749
1.256 4.019 1.245 9408
1.261 4.037 1.237 7049
1.278 4.091 1.238 5359
1.279 4.094 1.226 8782
1.282 4.104 1.216 8152
1.320 4.225 1.234 8248
1.323 4.235 1.223 10362
1.322 4.231 1.208 11691
1.323 4.234 1.196 12606
1.331 4.259 1.188 9472
1.334 4.269 1.177 7573
1.335 4.272 1.164 6067
1.368 4.378 1.176 6769
1.369 4.381 1.163 4753
1.448 4.634 1.208 4044
1.447 4.630 1.193 2787
1.482 4.743 1.204 1883
1.474 4.717 1.183 2648
1.472 4.712 1.167 3390
1.469 4.700 1.149 2238
1.391 4.451 1.081 1719
1.554 4.973 1.177 2605
1.557 4.983 1.164 3401
1.560 4.993 1.150 2779
1.624 5.196 1.175 3149
1.645 5.266 1.173 3023
1.644 5.261 1.156 4282
1.638 5.242 1.135 3606
1.681 5.379 1.145 3113
1.712 5.478 1.146 2671
1.712 5.481 1.130 2805
1.718 5.498 1.116 3170
1.719 5.501 1.099 5204
1.720 5.504 1.083 7324
1.718 5.499 1.065 7178
1.719 5.501 1.048 5542
1.722 5.511 1.032 4386
1.767 5.656 1.039 3937
1.773 5.673 1.024 3547
1.783 5.706 1.011 2899
1.779 5.693 0.992 2302
1.922 6.152 1.042 2565
1.925 6.162 1.024 3481
1.928 6.172 1.007 2671
1.955 6.257 0.999 3282
1.960 6.274 0.982 3032
1.968 6.299 0.966 2208
1.971 6.308 0.948 3258
1.969 6.303 0.928 3550
1.963 6.283 0.906 2317
2.107 6.743 0.942 2285
2.108 6.745 0.922 2433
2.035 6.514 0.875 2700
2.095 6.704 0.876 2953
2.093 6.699 0.855 2498
2.136 6.836 0.848 2237
2.205 7.056 0.850 2407
2.205 7.058 0.828 2356
2.208 7.068 0.808 1900
2.268 7.258 0.804 1521
2.266 7.252 0.781 1865
2.441 7.811 0.807 1461
2.434 7.790 0.781 1763
2.423 7.754 0.755 2184
2.428 7.771 0.732 2168
2.631 8.421 0.756 1902
2.632 8.423 0.731 2269
2.632 8.424 0.705 2653
2.750 8.803 0.704 2114
2.749 8.797 0.677 2364
2.709 8.670 0.642 1841
2.794 8.943 0.631 1588
2.795 8.944 0.604 1521
2.800 8.961 0.577 1313
2.800 8.962 0.550 1143
2.800 8.963 0.523 878
2.808 8.987 0.496 444
2.822 9.033 0.471 311
2.816 9.011 0.443 270
0.601 1.907 1.533 2571
0.602 1.911 1.527 5142
0.615 1.952 1.549 5871
0.616 1.955 1.543 7672
0.617 1.959 1.537 7672
0.620 1.969 1.536 9206
0.622 1.973 1.530 10886
0.623 1.977 1.524 10498
0.624 1.981 1.518 10110
0.623 1.979 1.508 9377
0.625 1.982 1.502 8309
0.626 1.986 1.496 7898
0.627 1.990 1.490 11257
0.630 2.000 1.489 14690
0.631 2.004 1.483 15382
0.632 2.008 1.477 16073
0.632 2.005 1.466 15782
0.631 2.002 1.456 15805
0.634 2.012 1.454 14662
0.635 2.016 1.448 13666
0.683 2.166 1.540 11171
0.682 2.164 1.529 10257
0.683 2.168 1.522 9370
0.686 2.178 1.520 7284
0.698 2.214 1.534 6289
0.693 2.198 1.515 7260
0.694 2.202 1.509 8481
0.717 2.277 1.547 10479
0.717 2.275 1.536 12867
0.720 2.285 1.534 12740
0.723 2.295 1.531 14317
0.726 2.306 1.528 16019
0.730 2.316 1.525 13295
0.733 2.327 1.522 10175
0.740 2.350 1.527 8407
0.746 2.367 1.528 8341
0.747 2.371 1.521 8421
0.746 2.368 1.510 8538
0.768 2.438 1.541 10530
0.769 2.442 1.534 14869
0.770 2.446 1.527 19654
0.772 2.449 1.519 24047
0.775 2.460 1.516 24625
0.776 2.464 1.509 22756
0.779 2.474 1.505 20887
0.779 2.471 1.494 20389
0.780 2.475 1.486 18699
0.783 2.485 1.483 17683
0.782 2.482 1.471 13965
0.813 2.580 1.515 15372
0.818 2.597 1.515 15808
0.822 2.608 1.510 17223
0.823 2.612 1.503 17779
0.824 2.615 1.495 14400
0.836 2.653 1.505 12814
0.839 2.663 1.500 14481
0.847 2.688 1.503 12843
0.854 2.712 1.505 16250
0.856 2.715 1.497 15008
0.857 2.719 1.489 12410
0.860 2.730 1.484 8547
0.859 2.727 1.473 6283
0.858 2.724 1.461 8227
0.861 2.734 1.456 9305
0.865 2.745 1.451 8551
0.907 2.878 1.506 9585
0.908 2.882 1.497 8803
0.892 2.831 1.463 8287
0.891 2.828 1.451 10278
0.914 2.900 1.475 9384
0.915 2.904 1.466 10436
0.914 2.901 1.454 8237
0.928 2.946 1.464 7593
0.934 2.964 1.462 10193
0.935 2.967 1.453 9474
0.936 2.971 1.444 8699
0.937 2.975 1.435 8565
0.967 3.069 1.466 6670
0.966 3.065 1.453 10271
0.965 3.062 1.441 9253
0.970 3.080 1.438 5543
0.985 3.125 1.447 9446
0.988 3.136 1.440 12666
0.991 3.146 1.434 11140
0.995 3.157 1.427 9464
0.996 3.161 1.418 9310
1.008 3.199 1.422 9290
1.016 3.224 1.421 11347
1.019 3.235 1.414 13755
1.020 3.238 1.405 12792
1.019 3.235 1.392 7602
1.038 3.295 1.405 4957
1.041 3.305 1.397 8793
1.045 3.316 1.390 11569
1.048 3.326 1.383 9912
1.060 3.365 1.386 8416
1.064 3.376 1.379 10186
1.062 3.372 1.366 8221
1.077 3.419 1.371 6580
1.078 3.422 1.361 8314
1.095 3.475 1.369 12202
1.098 3.486 1.361 17085
1.099 3.489 1.350 17360
1.100 3.493 1.340 10072
1.101 3.496 1.329 5776
1.098 3.485 1.314 7417
1.099 3.488 1.303 6433
1.148 3.642 1.343 4291
1.151 3.653 1.335 5432
1.152 3.656 1.324 7849
1.155 3.667 1.315 7028
1.163 3.692 1.311 5536
1.160 3.680 1.295 5178
1.163 3.691 1.286 4152
1.191 3.781 1.302 4218
1.199 3.806 1.298 6191
1.198 3.802 1.284 6549
1.208 3.834 1.281 6123
1.209 3.837 1.270 5615
1.231 3.906 1.277 4811
1.248 3.960 1.280 5372
1.235 3.919 1.256 3776
1.229 3.901 1.238 4538
1.267 4.020 1.259 6634
1.268 4.023 1.247 9422
1.273 4.041 1.239 6911
1.290 4.095 1.240 5993
1.289 4.091 1.226 9996
1.292 4.101 1.216 8091
1.330 4.221 1.234 9658
1.333 4.232 1.223 11222
1.332 4.227 1.208 12713
1.333 4.230 1.196 13308
1.338 4.248 1.187 10185
1.342 4.258 1.176 8816
1.343 4.261 1.163 6917
1.381 4.382 1.178 8002
1.379 4.377 1.163 5705
1.457 4.623 1.207 3521
1.492 4.737 1.218 2454
1.493 4.740 1.204 1904
1.490 4.728 1.186 2289
1.488 4.724 1.170 2859
1.480 4.697 1.149 1853
1.401 4.448 1.081 1788
1.563 4.961 1.176 1959
1.571 4.987 1.165 2994
1.635 5.189 1.191 2320
1.636 5.192 1.175 2937
1.630 5.173 1.155 2786
1.661 5.272 1.158 3436
1.683 5.342 1.155 3101
1.689 5.360 1.142 4048
1.699 5.392 1.131 3261
1.728 5.484 1.131 2452
1.733 5.502 1.117 2399
1.734 5.504 1.101 4041
1.733 5.500 1.083 6197
1.731 5.495 1.065 6426
1.732 5.497 1.048 5240
1.735 5.507 1.032 4030
1.783 5.659 1.040 4180
1.786 5.669 1.024 3935
1.799 5.709 1.012 3005
1.792 5.689 0.992 2068
1.937 6.147 1.042 2314
1.938 6.150 1.023 3343
1.941 6.160 1.006 2531
1.972 6.259 1.000 3358
1.978 6.277 0.983 3438
1.985 6.302 0.967 2880
1.988 6.311 0.949 3674
1.984 6.299 0.928 3739
1.978 6.278 0.906 2372
2.123 6.738 0.942 2290
2.124 6.740 0.922 2420
2.049 6.502 0.874 2506
2.108 6.692 0.875 2888
2.031 6.446 0.828 2486
2.152 6.831 0.848 2082
2.219 7.043 0.849 2606
2.222 7.053 0.828 2567
2.223 7.055 0.807 2155
2.223 7.057 0.786 1609
2.281 7.239 0.780 1866
2.279 7.233 0.758 1373
2.438 7.739 0.777 1972
2.441 7.748 0.755 2455
2.444 7.758 0.732 2319
2.449 7.774 0.709 1825
2.720 8.635 0.746 1857
2.652 8.418 0.705 2071
2.724 8.645 0.694 2444
2.727 8.655 0.668 2820
2.730 8.664 0.642 2158
2.815 8.936 0.631 1595
2.816 8.938 0.604 1515
2.821 8.954 0.577 1312
2.821 8.955 0.550 1151
2.824 8.964 0.523 872
2.829 8.980 0.496 424
2.844 9.026 0.471 311
2.839 9.012 0.443 284
0.606 1.905 1.533 2949
0.607 1.909 1.527 5899
0.618 1.944 1.544 6204
0.622 1.954 1.543 8188
0.623 1.958 1.537 8188
0.626 1.968 1.536 10192
0.627 1.972 1.530 12333
0.629 1.975 1.524 12148
0.630 1.979 1.518 11964
0.629 1.977 1.508 10804
0.630 1.981 1.502 9167
0.631 1.984 1.496 8575
0.635 1.994 1.494 11341
0.636 1.998 1.489 14110
0.637 2.002 1.483 14893
0.638 2.006 1.477 15676
0.637 2.003 1.466 15453
0.637 2.000 1.456 15450
0.640 2.010 1.454 14131
0.641 2.014 1.448 12910
0.689 2.164 1.540 10516
0.688 2.162 1.529 9221
0.689 2.166 1.522 8182
0.692 2.176 1.520 6502
0.704 2.212 1.534 5391
0.699 2.197 1.515 6858
0.700 2.200 1.509 8153
0.724 2.275 1.547 10266
0.723 2.273 1.536 12938
0.726 2.283 1.534 13262
0.730 2.293 1.531 15497
0.733 2.304 1.528 17473
0.736 2.314 1.525 14621
0.740 2.324 1.522 11308
0.745 2.341 1.523 9704
0.750 2.358 1.524 9483
0.752 2.362 1.517 9591
0.751 2.359 1.506 9732
0.775 2.436 1.541 9522
0.776 2.439 1.534 13438
0.777 2.443 1.527 17977
0.779 2.447 1.519 22085
0.782 2.458 1.516 22420
0.783 2.461 1.509 20956
0.787 2.472 1.505 19582
0.786 2.469 1.494 19224
0.787 2.473 1.486 17829
0.790 2.483 1.483 16865
0.821 2.580 1.527 14351
0.822 2.584 1.519 17000
0.826 2.595 1.515 17186
0.829 2.605 1.510 18677
0.830 2.609 1.503 19562
0.834 2.620 1.498 17386
0.837 2.630 1.494 15985
0.845 2.654 1.497 17077
0.854 2.685 1.503 14532
0.862 2.709 1.505 16973
0.863 2.713 1.497 15180
0.864 2.717 1.489 12409
0.868 2.727 1.484 9107
0.867 2.724 1.473 6956
0.866 2.721 1.461 8524
0.869 2.732 1.456 9472
0.873 2.742 1.451 8741
0.913 2.869 1.503 9561
0.916 2.880 1.497 8119
0.893 2.808 1.453 7561
0.897 2.818 1.447 9341
0.922 2.898 1.475 8083
0.923 2.901 1.466 8716
0.922 2.898 1.454 6956
0.934 2.936 1.461 7079
0.940 2.954 1.459 9199
0.939 2.951 1.447 8557
0.940 2.954 1.438 8444
0.943 2.965 1.432 8475
0.945 2.968 1.423 6679
0.975 3.063 1.453 9542
0.973 3.059 1.441 8983
0.983 3.091 1.444 6058
0.994 3.122 1.447 11320
0.995 3.126 1.437 14398
0.998 3.137 1.431 11482
1.004 3.154 1.427 10027
1.005 3.158 1.418 10678
1.013 3.182 1.417 10199
1.023 3.214 1.419 11443
1.028 3.232 1.414 13691
1.029 3.235 1.405 12866
1.026 3.225 1.389 7676
1.020 3.207 1.371 5032
1.051 3.302 1.397 8137
1.054 3.313 1.390 10732
1.058 3.323 1.383 8789
1.068 3.355 1.383 7772
1.071 3.366 1.376 8759
1.070 3.362 1.363 7212
1.096 3.444 1.382 5886
1.099 3.454 1.374 7645
1.105 3.472 1.369 11734
1.108 3.483 1.361 16512
1.109 3.486 1.350 16713
1.110 3.489 1.340 10778
1.111 3.493 1.329 7377
1.110 3.489 1.316 8195
1.109 3.485 1.303 6903
1.158 3.639 1.343 5239
1.159 3.642 1.332 6178
1.160 3.646 1.321 8057
1.166 3.663 1.315 7272
1.176 3.696 1.313 5601
1.168 3.670 1.293 4381
1.173 3.688 1.286 3591
1.202 3.778 1.302 4469
1.212 3.810 1.300 6529
1.216 3.820 1.291 6357
1.219 3.831 1.281 5314
1.222 3.841 1.272 5097
1.242 3.902 1.277 5082
1.257 3.949 1.278 5331
1.253 3.938 1.262 3783
1.286 4.043 1.279 4771
1.278 4.017 1.259 6205
1.279 4.020 1.247 8698
1.287 4.045 1.241 6716
1.302 4.092 1.240 7780
1.303 4.095 1.228 11503
1.304 4.098 1.216 8728
1.342 4.218 1.234 10622
1.343 4.221 1.221 11582
1.344 4.224 1.208 13112
1.347 4.234 1.198 13434
1.348 4.237 1.185 10981
1.351 4.247 1.174 10352
1.352 4.250 1.161 7558
1.393 4.378 1.178 8645
1.394 4.381 1.165 6299
1.390 4.369 1.148 3553
1.508 4.740 1.220 2626
1.509 4.743 1.205 2397
1.505 4.731 1.188 2340
1.504 4.727 1.172 2712
1.517 4.766 1.166 2205
1.414 4.444 1.081 1756
1.587 4.987 1.182 1780
1.588 4.989 1.167 2905
1.650 5.185 1.191 2175
1.648 5.180 1.174 2923
1.647 5.176 1.157 2936
1.641 5.156 1.137 2980
1.694 5.322 1.152 3720
1.699 5.340 1.139 5058
1.712 5.380 1.130 4007
1.717 5.397 1.116 2667
1.751 5.504 1.119 1824
1.750 5.500 1.101 2873
1.746 5.487 1.081 4952
1.747 5.490 1.065 5424
1.748 5.492 1.048 4705
1.751 5.502 1.032 3530
1.799 5.654 1.040 4094
1.802 5.664 1.024 4005
1.815 5.704 1.012 2995
1.858 5.840 1.015 1847
1.892 5.947 1.013 2169
1.955 6.144 1.023 3079
1.956 6.147 1.005 2474
1.990 6.254 1.000 3265
1.998 6.279 0.985 3807
2.003 6.296 0.967 3505
2.006 6.306 0.949 4030
2.002 6.293 0.928 3802
1.996 6.273 0.906 2304
2.142 6.732 0.942 2128
2.143 6.734 0.922 2234
2.067 6.496 0.874 2443
2.127 6.686 0.875 2754
2.049 6.440 0.828 2552
2.172 6.825 0.848 1855
2.239 7.037 0.849 2709
2.240 7.039 0.828 2716
2.243 7.048 0.807 2396
2.243 7.050 0.786 1773
2.301 7.232 0.780 1887
2.453 7.708 0.799 1539
2.458 7.725 0.777 2144
2.463 7.741 0.755 2632
2.466 7.751 0.732 2397
2.472 7.767 0.709 1781
2.745 8.627 0.746 2197
2.748 8.636 0.720 2419
2.749 8.638 0.694 3010
2.749 8.639 0.668 3326
2.752 8.648 0.642 2411
2.752 8.650 0.616 1727
2.841 8.930 0.604 1529
2.847 8.946 0.577 1292
2.847 8.947 0.550 1119
2.850 8.956 0.523 863
2.855 8.972 0.496 417
2.870 9.018 0.471 294
2.870 9.019 0.443 271
0.611 1.904 1.533 3199
0.612 1.907 1.527 6399
0.623 1.942 1.544 6479
0.626 1.952 1.543 8566
0.628 1.956 1.537 8566
0.631 1.966 1.536 11085
0.632 1.970 1.530 13705
0.633 1.974 1.524 13691
0.635 1.978 1.518 13678
0.634 1.975 1.508 12143
0.635 1.979 1.502 9955
0.638 1.989 1.500 9356
0.639 1.993 1.494 11301
0.641 1.997 1.489 13245
0.642 2.000 1.483 14072
0.643 2.004 1.477 14898
0.642 2.002 1.466 14785
0.641 1.999 1.456 14789
0.645 2.009 1.454 13362
0.646 2.013 1.448 11972
