1.404 -1.899 1.717 2724
1.411 -1.908 1.715 3172
1.449 -1.959 1.748 2935
1.463 -1.978 1.754 4131
1.498 -2.024 1.782 5642
1.481 -2.002 1.753 5299
1.523 -2.059 1.790 6061
1.482 -2.004 1.735 4739
1.572 -2.125 1.823 4743
1.571 -2.124 1.811 5456
1.574 -2.128 1.803 6246
1.577 -2.132 1.796 6099
1.580 -2.135 1.788 5951
1.586 -2.145 1.785 4869
1.593 -2.154 1.781 3953
1.600 -2.163 1.778 6112
1.607 -2.172 1.774 8646
1.614 -2.182 1.771 9235
1.617 -2.185 1.763 9884
1.620 -2.189 1.755 8381
1.626 -2.199 1.751 7051
1.633 -2.208 1.748 4984
1.644 -2.222 1.748 3155
1.708 -2.308 1.800 3739
1.706 -2.307 1.788 5471
1.709 -2.311 1.780 5920
1.704 -2.304 1.764 5892
1.699 -2.296 1.747 6675
1.759 -2.377 1.794 6333
1.758 -2.376 1.782 7420
1.764 -2.385 1.777 6368
1.788 -2.417 1.788 4398
1.807 -2.443 1.795 4150
1.843 -2.491 1.816 5771
1.821 -2.462 1.785 7308
1.828 -2.471 1.780 5999
1.835 -2.481 1.775 4523
1.871 -2.529 1.796 5252
1.870 -2.528 1.783 5499
1.873 -2.532 1.774 5192
1.876 -2.535 1.765 4622
1.928 -2.607 1.800 6847
1.936 -2.616 1.794 9435
1.938 -2.620 1.785 8863
1.878 -2.539 1.721 6106
1.885 -2.549 1.716 5248
1.997 -2.700 1.799 5657
2.000 -2.704 1.790 7380
1.965 -2.656 1.748 9927
1.972 -2.666 1.742 11823
2.055 -2.778 1.799 10823
2.062 -2.788 1.792 12289
2.061 -2.786 1.779 12349
2.064 -2.790 1.769 12701
2.071 -2.800 1.762 12512
2.069 -2.798 1.749 9390
2.077 -2.807 1.742 5090
2.109 -2.851 1.755 5918
2.116 -2.861 1.748 8014
2.102 -2.841 1.725 8117
2.096 -2.834 1.708 6067
2.155 -2.913 1.740 4601
2.243 -3.033 1.794 5405
2.242 -3.031 1.780 6750
2.249 -3.040 1.773 5609
2.256 -3.050 1.765 5732
2.263 -3.060 1.757 7832
2.262 -3.058 1.743 7675
2.265 -3.061 1.732 6492
2.341 -3.165 1.773 5635
2.344 -3.169 1.762 6344
2.351 -3.178 1.754 5352
2.358 -3.188 1.745 3994
2.531 -3.422 1.850 5113
2.534 -3.426 1.838 6397
2.541 -3.436 1.829 6782
2.549 -3.446 1.819 5162
2.587 -3.497 1.830 4398
2.590 -3.501 1.817 4268
2.571 -3.475 1.791 3947
2.578 -3.485 1.781 4982
2.598 -3.512 1.780 7892
2.610 -3.528 1.773 10300
2.613 -3.532 1.760 10355
2.616 -3.536 1.747 8316
2.618 -3.540 1.735 7223
2.621 -3.543 1.722 7288
2.619 -3.541 1.707 5632
2.706 -3.659 1.744 3962
2.714 -3.668 1.734 3217
2.890 -3.906 1.823 3236
2.893 -3.910 1.809 2587
2.949 -3.986 1.826 2813
2.947 -3.984 1.809 5119
2.950 -3.988 1.794 6249
2.953 -3.992 1.780 4903
2.960 -4.002 1.768 3434
2.972 -4.018 1.759 2696
3.114 -4.209 1.820 3155
3.108 -4.201 1.800 3011
3.102 -4.193 1.780 3393
3.203 -4.330 1.817 3939
3.193 -4.316 1.795 4782
3.191 -4.314 1.777 3288
3.194 -4.318 1.761 2181
3.242 -4.382 1.769 3307
3.245 -4.386 1.753 4158
3.238 -4.378 1.733 2377
3.318 -4.485 1.755 1702
3.312 -4.477 1.734 1858
3.437 -4.646 1.777 1694
3.439 -4.650 1.760 2054
3.542 -4.788 1.790 2704
3.627 -4.902 1.811 5744
3.634 -4.912 1.795 8530
3.637 -4.916 1.778 6979
3.640 -4.920 1.760 6837
3.642 -4.924 1.742 7582
3.641 -4.922 1.722 4008
3.931 -5.313 1.829 2021
3.947 -5.336 1.816 2156
4.014 -5.426 1.824 1992
4.012 -5.424 1.802 2514
4.043 -5.465 1.794 1814
4.151 -5.611 1.817 2079
4.163 -5.627 1.801 1701
4.179 -5.650 1.786 1917
4.379 -5.920 1.843 2255
4.382 -5.924 1.821 1625
4.592 -6.207 1.879 1060
4.586 -6.199 1.853 1473
4.579 -6.191 1.827 1562
4.739 -6.406 1.862 2346
4.742 -6.410 1.839 2842
4.745 -6.414 1.816 2106
4.840 -6.543 1.825 1576
5.069 -6.852 1.879 2061
5.076 -6.862 1.856 2103
5.084 -6.872 1.833 1580
5.087 -6.876 1.808 1724
5.094 -6.887 1.785 1837
5.106 -6.903 1.763 1306
5.396 -7.295 1.828 1449
5.399 -7.298 1.802 1578
5.541 -7.490 1.818 1439
5.544 -7.494 1.791 1041
5.547 -7.498 1.764 668
5.438 -7.351 1.705 484
5.501 -7.436 1.695 364
1.380 -1.870 1.811 2191
1.382 -1.874 1.805 4382
1.385 -1.878 1.798 4382
1.392 -1.887 1.796 4338
1.399 -1.896 1.794 4470
1.405 -1.905 1.792 3579
1.412 -1.914 1.790 2771
1.415 -1.918 1.783 2771
1.433 -1.943 1.794 3730
1.436 -1.947 1.787 4774
1.443 -1.956 1.785 3751
1.453 -1.970 1.787 2859
1.402 -1.900 1.717 2864
1.408 -1.909 1.715 3242
1.446 -1.961 1.748 2973
1.461 -1.980 1.754 4247
1.491 -2.021 1.778 5865
1.502 -2.036 1.780 5576
1.520 -2.061 1.790 6446
1.527 -2.070 1.787 4829
1.569 -2.127 1.823 4986
1.568 -2.126 1.811 5524
1.571 -2.130 1.803 6135
1.574 -2.134 1.796 5920
1.577 -2.138 1.788 5705
1.584 -2.147 1.785 4807
1.590 -2.156 1.781 4085
1.597 -2.165 1.778 6209
1.604 -2.175 1.774 8793
1.611 -2.184 1.771 9313
1.614 -2.188 1.763 9847
1.621 -2.197 1.759 8319
1.623 -2.201 1.751 6979
1.630 -2.210 1.748 4905
1.657 -2.247 1.764 3402
1.705 -2.311 1.800 3814
1.703 -2.309 1.788 5691
1.706 -2.313 1.780 6196
1.701 -2.306 1.764 6001
1.696 -2.299 1.747 6568
1.756 -2.380 1.794 6320
1.754 -2.378 1.782 7317
1.761 -2.388 1.777 6249
1.785 -2.419 1.788 4329
1.804 -2.445 1.795 4287
1.840 -2.494 1.816 5979
1.818 -2.464 1.785 7430
1.825 -2.474 1.780 5963
1.832 -2.483 1.775 4330
1.872 -2.538 1.799 4929
1.866 -2.530 1.783 4980
1.869 -2.534 1.774 4599
1.876 -2.544 1.769 4173
1.925 -2.610 1.800 6874
1.928 -2.613 1.790 9480
1.935 -2.623 1.785 8854
1.875 -2.542 1.721 5719
1.882 -2.551 1.716 4847
2.002 -2.714 1.806 5822
1.997 -2.707 1.790 7584
1.957 -2.653 1.745 10256
1.964 -2.663 1.739 11843
2.056 -2.787 1.802 11028
2.059 -2.791 1.792 12281
2.057 -2.789 1.779 12090
2.060 -2.793 1.769 12494
2.067 -2.802 1.762 12614
2.066 -2.800 1.749 9549
2.077 -2.816 1.746 5405
2.097 -2.843 1.749 6032
2.104 -2.852 1.742 7927
2.098 -2.844 1.725 8144
2.092 -2.836 1.708 5862
2.151 -2.916 1.740 4029
2.239 -3.036 1.794 5612
2.238 -3.034 1.780 7104
2.241 -3.038 1.769 5622
2.252 -3.053 1.765 5497
2.259 -3.063 1.757 7913
2.258 -3.061 1.743 7898
2.261 -3.065 1.732 6667
2.263 -3.068 1.721 5303
2.340 -3.172 1.762 6022
2.347 -3.182 1.754 5056
2.524 -3.421 1.862 3757
2.527 -3.425 1.850 5175
2.530 -3.429 1.838 6353
2.537 -3.439 1.829 6714
2.544 -3.449 1.819 5028
2.582 -3.500 1.830 5014
2.585 -3.504 1.817 4868
2.566 -3.478 1.791 4230
2.573 -3.488 1.781 5297
2.594 -3.516 1.780 8413
2.605 -3.532 1.773 10944
2.608 -3.536 1.760 10950
2.611 -3.539 1.747 8805
2.614 -3.543 1.735 7704
2.616 -3.547 1.722 7605
2.619 -3.551 1.709 5758
2.701 -3.662 1.744 4264
2.709 -3.672 1.734 3534
2.889 -3.916 1.825 3270
2.892 -3.920 1.811 2608
2.943 -3.990 1.826 2580
2.942 -3.988 1.809 4704
2.945 -3.992 1.794 5859
2.948 -3.996 1.780 4723
2.955 -4.006 1.768 3348
3.101 -4.203 1.833 2698
3.108 -4.214 1.820 3298
3.107 -4.211 1.802 3135
3.096 -4.197 1.780 3476
3.179 -4.310 1.808 3924
3.182 -4.314 1.792 4755
3.181 -4.312 1.774 3429
3.188 -4.322 1.761 2181
3.236 -4.387 1.769 3099
3.239 -4.390 1.753 4002
3.237 -4.388 1.735 2295
3.312 -4.490 1.755 1635
3.310 -4.487 1.736 1785
3.430 -4.650 1.777 1782
3.433 -4.654 1.760 1927
3.617 -4.903 1.829 2701
3.620 -4.907 1.811 5723
3.627 -4.917 1.795 8240
3.630 -4.921 1.778 6820
3.633 -4.925 1.760 6508
3.636 -4.929 1.742 7270
3.634 -4.926 1.722 4103
3.923 -5.319 1.829 2136
3.940 -5.341 1.816 2292
4.002 -5.426 1.822 1928
4.005 -5.429 1.802 2509
4.035 -5.470 1.794 1721
4.148 -5.623 1.819 2019
4.155 -5.633 1.801 1777
4.172 -5.656 1.786 2097
4.371 -5.926 1.843 2502
4.379 -5.936 1.823 1747
4.583 -6.214 1.879 1070
4.577 -6.205 1.853 1467
4.571 -6.197 1.827 1535
4.730 -6.412 1.862 2325
4.733 -6.416 1.839 2808
4.736 -6.420 1.816 2079
4.831 -6.549 1.825 1768
5.059 -6.859 1.879 2111
5.067 -6.869 1.856 2145
5.084 -6.892 1.836 1617
5.082 -6.890 1.810 1669
5.085 -6.893 1.785 1757
5.259 -7.129 1.815 1297
5.386 -7.302 1.828 1433
5.389 -7.306 1.802 1528
5.531 -7.498 1.818 1424
5.534 -7.502 1.791 1016
5.536 -7.505 1.764 606
5.423 -7.352 1.703 472
5.486 -7.438 1.694 336
1.375 -1.866 1.807 2122
1.378 -1.870 1.800 4245
1.380 -1.874 1.793 4245
1.391 -1.888 1.796 4125
1.398 -1.897 1.794 4187
1.404 -1.906 1.792 3521
1.411 -1.915 1.790 2963
1.414 -1.919 1.783 2963
1.432 -1.944 1.794 3996
1.435 -1.948 1.787 5208
1.442 -1.957 1.785 4167
1.448 -1.966 1.782 3272
1.401 -1.901 1.717 2968
1.407 -1.910 1.715 3322
1.445 -1.961 1.748 3174
1.460 -1.981 1.754 4397
1.490 -2.022 1.778 6043
1.500 -2.037 1.780 5822
1.519 -2.062 1.790 6759
1.526 -2.071 1.787 5025
1.568 -2.128 1.823 5245
1.571 -2.132 1.815 5585
1.570 -2.131 1.803 5997
1.573 -2.135 1.796 5743
1.576 -2.138 1.788 5489
1.582 -2.148 1.785 4773
1.589 -2.157 1.781 4221
1.596 -2.166 1.778 6387
1.607 -2.181 1.778 9073
1.610 -2.185 1.771 9702
1.612 -2.189 1.763 10332
1.619 -2.198 1.759 8735
1.622 -2.202 1.751 7346
1.633 -2.216 1.752 5194
1.656 -2.248 1.764 3784
1.699 -2.306 1.796 3897
1.702 -2.310 1.788 5836
1.705 -2.314 1.780 6351
1.700 -2.307 1.764 6090
1.694 -2.300 1.747 6430
1.754 -2.381 1.794 6564
1.753 -2.379 1.782 7584
1.760 -2.389 1.777 6430
1.783 -2.420 1.788 4410
1.802 -2.446 1.795 4343
1.842 -2.501 1.820 6279
1.821 -2.471 1.789 7494
1.823 -2.475 1.780 5902
1.830 -2.484 1.775 4173
1.899 -2.578 1.826 4766
1.861 -2.526 1.779 4538
1.868 -2.535 1.774 4144
1.916 -2.601 1.805 4040
1.923 -2.611 1.800 6783
1.926 -2.615 1.790 9395
1.933 -2.624 1.785 8787
1.932 -2.622 1.772 5872
1.880 -2.552 1.716 4396
2.001 -2.715 1.806 6090
1.999 -2.714 1.793 7702
1.956 -2.655 1.745 9660
1.963 -2.664 1.739 11344
2.054 -2.788 1.802 11320
2.057 -2.792 1.792 12462
2.056 -2.790 1.779 12092
2.058 -2.794 1.769 12554
2.066 -2.804 1.762 12791
2.068 -2.807 1.752 9705
2.080 -2.823 1.749 5830
2.091 -2.838 1.745 6374
2.098 -2.848 1.739 8008
2.096 -2.846 1.725 8070
2.091 -2.838 1.708 5634
2.235 -3.033 1.805 4027
2.238 -3.037 1.794 5847
2.236 -3.035 1.780 7415
2.239 -3.039 1.769 5582
2.250 -3.055 1.765 5198
2.258 -3.064 1.757 7917
2.256 -3.062 1.743 8006
2.259 -3.066 1.732 6731
2.262 -3.070 1.721 5179
2.334 -3.167 1.759 5705
2.341 -3.177 1.751 4780
2.522 -3.423 1.862 3901
2.525 -3.427 1.850 5228
2.528 -3.431 1.838 6324
2.535 -3.441 1.829 6686
2.542 -3.450 1.819 4952
2.584 -3.508 1.833 5718
2.583 -3.506 1.817 5425
2.568 -3.486 1.793 4167
2.576 -3.496 1.784 5345
2.596 -3.523 1.783 8852
2.603 -3.533 1.773 11487
2.606 -3.537 1.760 11336
2.609 -3.541 1.747 9104
2.612 -3.545 1.735 8054
2.614 -3.548 1.722 7845
2.617 -3.552 1.709 5910
2.704 -3.670 1.747 4509
2.707 -3.674 1.734 3903
2.887 -3.918 1.825 3345
2.889 -3.922 1.811 2679
2.937 -3.986 1.823 2677
2.940 -3.990 1.809 4490
2.943 -3.994 1.794 5441
2.945 -3.998 1.780 4431
2.953 -4.008 1.768 3173
3.098 -4.205 1.833 2902
3.106 -4.215 1.820 3397
3.104 -4.213 1.802 3344
3.094 -4.199 1.780 3642
3.173 -4.306 1.805 3916
3.175 -4.310 1.790 4665
3.178 -4.314 1.774 3486
3.244 -4.403 1.791 2215
3.233 -4.389 1.769 2858
3.236 -4.392 1.753 3779
3.234 -4.390 1.735 2217
3.314 -4.498 1.757 1553
3.308 -4.489 1.736 1693
3.428 -4.652 1.777 1893
3.430 -4.656 1.760 1827
3.614 -4.905 1.829 2846
3.617 -4.909 1.811 5587
3.624 -4.919 1.795 7883
3.627 -4.923 1.778 6577
3.630 -4.927 1.760 6042
3.633 -4.931 1.742 6757
3.631 -4.929 1.722 4034
3.920 -5.321 1.829 2291
3.937 -5.344 1.816 2425
3.999 -5.428 1.822 1848
4.002 -5.432 1.802 2421
4.142 -5.621 1.839 1753
4.144 -5.625 1.819 1960
4.152 -5.635 1.801 1796
4.169 -5.658 1.786 2259
4.368 -5.929 1.843 2697
4.376 -5.939 1.823 1869
4.580 -6.216 1.879 1086
4.574 -6.208 1.853 1475
4.563 -6.193 1.825 1547
4.726 -6.415 1.862 2166
4.729 -6.419 1.839 2581
4.815 -6.535 1.845 2294
4.827 -6.552 1.825 1947
5.055 -6.862 1.879 2102
5.063 -6.872 1.856 2115
5.080 -6.895 1.836 1649
5.364 -7.280 1.904 1694
5.371 -7.291 1.880 1795
5.254 -7.132 1.815 1238
5.382 -7.305 1.828 1343
5.385 -7.309 1.802 1450
5.522 -7.495 1.817 1413
5.529 -7.505 1.791 1007
5.532 -7.509 1.764 602
5.424 -7.362 1.705 457
5.431 -7.372 1.679 270
1.372 -1.868 1.807 2064
1.375 -1.872 1.800 4128
1.378 -1.876 1.793 4128
1.388 -1.890 1.796 3941
1.395 -1.899 1.794 3944
1.401 -1.908 1.792 3527
1.408 -1.917 1.790 3253
1.411 -1.921 1.783 3253
1.429 -1.946 1.794 4345
1.428 -1.944 1.783 5737
1.439 -1.959 1.785 4614
1.445 -1.968 1.782 3662
1.398 -1.903 1.717 2998
1.405 -1.912 1.715 3263
1.442 -1.964 1.748 3021
1.457 -1.983 1.754 4274
1.487 -2.024 1.778 6120
1.497 -2.039 1.780 5964
1.516 -2.064 1.790 6927
1.523 -2.073 1.787 5105
1.565 -2.130 1.823 5435
1.568 -2.134 1.815 5641
1.567 -2.133 1.803 5890
1.569 -2.137 1.796 5690
1.568 -2.135 1.784 5499
1.579 -2.150 1.785 4755
1.582 -2.154 1.777 4191
1.593 -2.169 1.778 6221
1.604 -2.183 1.778 8870
1.606 -2.187 1.771 9436
1.609 -2.191 1.763 10003
1.616 -2.200 1.759 8611
1.623 -2.210 1.755 7487
1.634 -2.224 1.756 5496
1.649 -2.245 1.760 4137
1.696 -2.309 1.796 3945
1.699 -2.313 1.788 5989
1.701 -2.317 1.780 6552
1.696 -2.309 1.764 6122
1.695 -2.308 1.751 6278
1.751 -2.383 1.794 6440
1.749 -2.382 1.782 7338
1.752 -2.386 1.773 6264
1.780 -2.423 1.788 4107
1.832 -2.494 1.825 4277
1.839 -2.503 1.820 6406
1.817 -2.474 1.789 7498
1.824 -2.483 1.784 5890
1.827 -2.487 1.775 4015
1.896 -2.581 1.826 4881
1.903 -2.590 1.820 4229
1.914 -2.606 1.818 3913
1.913 -2.604 1.805 4014
1.920 -2.613 1.800 6709
1.922 -2.617 1.790 9362
1.925 -2.621 1.781 8812
1.928 -2.625 1.772 6071
1.994 -2.714 1.816 4561
1.997 -2.718 1.806 6390
1.995 -2.716 1.793 7797
1.956 -2.663 1.748 8648
2.043 -2.781 1.809 9999
2.050 -2.791 1.802 11463
2.053 -2.795 1.792 12425
2.056 -2.799 1.782 11763
2.059 -2.803 1.772 12447
2.061 -2.807 1.762 12983
2.064 -2.810 1.752 9882
2.075 -2.826 1.749 6209
2.087 -2.841 1.745 6710
2.094 -2.851 1.739 7948
2.092 -2.849 1.725 7770
2.086 -2.841 1.708 5282
2.230 -3.037 1.805 4236
2.233 -3.040 1.794 6078
2.232 -3.038 1.780 7675
2.235 -3.042 1.769 5521
2.246 -3.058 1.765 4885
2.253 -3.068 1.757 7809
2.256 -3.071 1.746 8015
2.254 -3.069 1.732 6659
2.257 -3.073 1.721 4980
2.329 -3.171 1.759 5385
2.332 -3.175 1.748 4603
2.517 -3.426 1.862 3989
2.520 -3.430 1.850 5224
2.522 -3.434 1.838 6159
2.530 -3.444 1.829 6478
2.563 -3.490 1.837 5238
2.575 -3.506 1.830 6331
2.578 -3.510 1.817 5933
2.585 -3.519 1.808 4310
2.583 -3.517 1.792 5383
2.586 -3.521 1.780 9074
2.598 -3.537 1.773 11691
2.601 -3.541 1.760 11450
2.604 -3.545 1.747 9183
2.606 -3.548 1.735 8179
2.609 -3.552 1.722 8000
2.612 -3.556 1.709 6097
2.698 -3.674 1.747 4733
2.705 -3.684 1.737 4291
2.881 -3.922 1.825 3352
2.888 -3.932 1.814 2701
2.931 -3.990 1.823 2695
2.934 -3.994 1.809 4079
2.937 -3.998 1.794 4934
2.939 -4.002 1.780 4222
2.947 -4.012 1.768 3037
3.092 -4.210 1.833 3161
3.099 -4.220 1.820 3511
3.098 -4.218 1.802 3496
3.092 -4.209 1.783 3690
3.166 -4.311 1.805 3887
3.169 -4.315 1.790 4598
3.167 -4.312 1.772 3583
3.237 -4.408 1.791 2274
3.227 -4.393 1.769 2638
3.230 -4.397 1.753 3535
3.228 -4.395 1.735 2161
3.307 -4.503 1.757 1408
3.409 -4.641 1.789 1827
3.421 -4.657 1.777 2015
3.428 -4.667 1.762 1784
3.602 -4.905 1.826 2900
3.610 -4.915 1.811 5262
3.617 -4.925 1.795 7367
3.620 -4.929 1.778 6248
3.627 -4.939 1.762 5530
3.626 -4.936 1.742 6156
3.624 -4.934 1.722 3888
3.908 -5.321 1.827 2411
3.929 -5.349 1.816 2546
4.114 -5.601 1.874 1878
3.994 -5.438 1.802 2280
4.133 -5.627 1.839 1782
4.136 -5.631 1.819 1874
4.153 -5.654 1.804 1800
4.160 -5.664 1.786 2356
4.359 -5.935 1.843 2845
4.367 -5.945 1.823 1983
4.392 -5.980 1.811 1111
4.565 -6.215 1.853 1403
4.540 -6.181 1.820 1540
4.717 -6.422 1.862 1948
4.720 -6.426 1.839 2343
4.805 -6.543 1.845 2417
4.813 -6.553 1.823 2080
5.045 -6.869 1.879 2074
5.053 -6.880 1.856 2104
5.070 -6.902 1.836 1680
5.353 -7.288 1.904 1808
5.361 -7.299 1.880 1908
5.364 -7.303 1.853 1234
5.371 -7.313 1.828 1328
5.379 -7.323 1.803 1417
5.511 -7.503 1.817 1412
5.518 -7.513 1.791 990
5.521 -7.517 1.764 572
5.408 -7.363 1.703 438
1.366 -1.864 1.802 1992
1.369 -1.868 1.795 3985
1.372 -1.872 1.789 3985
1.386 -1.892 1.796 3712
1.393 -1.901 1.794 3646
1.399 -1.910 1.792 3460
1.406 -1.919 1.790 3438
1.409 -1.923 1.783 3438
1.416 -1.932 1.781 4518
1.426 -1.946 1.783 5991
1.433 -1.955 1.780 4776
1.443 -1.970 1.782 3785
1.396 -1.905 1.717 3063
1.402 -1.914 1.715 3190
1.440 -1.965 1.748 2909
1.458 -1.990 1.759 4266
1.485 -2.026 1.778 6186
1.495 -2.040 1.780 6067
1.514 -2.066 1.790 7042
1.520 -2.075 1.787 5163
1.562 -2.132 1.823 5775
1.565 -2.136 1.815 5791
1.568 -2.140 1.807 5807
1.567 -2.139 1.796 5475
1.566 -2.137 1.784 5257
1.573 -2.146 1.780 4600
1.580 -2.156 1.777 4225
1.590 -2.170 1.778 5914
1.601 -2.185 1.778 8276
1.604 -2.189 1.771 8883
1.607 -2.193 1.763 9490
1.614 -2.202 1.759 8447
1.620 -2.211 1.755 7630
1.631 -2.226 1.756 5553
1.646 -2.246 1.760 4235
1.689 -2.305 1.792 3969
1.696 -2.315 1.788 6109
1.699 -2.318 1.780 6766
1.698 -2.317 1.767 6282
1.692 -2.310 1.751 6243
1.748 -2.385 1.794 6489
1.747 -2.384 1.782 7247
1.750 -2.388 1.773 6162
1.781 -2.430 1.792 3752
1.833 -2.501 1.829 4317
1.840 -2.511 1.824 6504
1.818 -2.481 1.792 7425
1.821 -2.485 1.784 5827
1.894 -2.585 1.839 4032
1.893 -2.583 1.826 4786
1.900 -2.593 1.820 4166
1.911 -2.608 1.818 3866
1.910 -2.606 1.805 3974
1.917 -2.616 1.800 6628
1.920 -2.620 1.790 9263
1.922 -2.623 1.781 8768
1.925 -2.627 1.772 6143
1.991 -2.717 1.816 4690
1.993 -2.720 1.806 6534
1.992 -2.719 1.793 7900
1.949 -2.660 1.745 8678
2.040 -2.784 1.809 10081
2.047 -2.793 1.802 11607
2.050 -2.797 1.792 12284
2.053 -2.801 1.782 11369
2.055 -2.805 1.772 12327
2.058 -2.809 1.762 13177
2.061 -2.813 1.752 10118
2.072 -2.828 1.749 6549
2.084 -2.843 1.745 6996
2.086 -2.847 1.735 7986
2.089 -2.851 1.725 7553
2.083 -2.843 1.708 4996
2.227 -3.039 1.805 4461
2.230 -3.043 1.794 6266
2.228 -3.041 1.780 7865
2.231 -3.045 1.769 5518
2.243 -3.060 1.765 4635
2.250 -3.070 1.757 7677
2.252 -3.074 1.746 7992
2.251 -3.072 1.732 6621
2.254 -3.075 1.721 4812
2.321 -3.168 1.756 5079
2.324 -3.171 1.745 4448
2.513 -3.429 1.862 3989
2.516 -3.433 1.850 5131
2.519 -3.437 1.838 5921
2.526 -3.447 1.829 6205
2.564 -3.499 1.840 5494
2.571 -3.508 1.830 6739
2.574 -3.512 1.817 6328
2.581 -3.522 1.808 4527
2.580 -3.520 1.792 5483
2.582 -3.524 1.780 9160
2.594 -3.540 1.773 11720
2.597 -3.544 1.760 11448
2.600 -3.548 1.747 9217
2.602 -3.551 1.735 8364
2.605 -3.555 1.722 8189
2.683 -3.661 1.755 6302
2.694 -3.677 1.747 4926
2.701 -3.687 1.737 4590
2.885 -3.937 1.831 3283
2.884 -3.935 1.814 2605
2.922 -3.988 1.820 2694
2.929 -3.998 1.809 3668
2.932 -4.001 1.794 4411
2.935 -4.005 1.780 3973
2.942 -4.015 1.768 3022
3.087 -4.213 1.833 3327
3.095 -4.223 1.820 3624
3.089 -4.215 1.800 3686
3.087 -4.213 1.783 3596
3.157 -4.308 1.803 3796
3.155 -4.306 1.785 4537
3.158 -4.310 1.770 3669
3.165 -4.320 1.757 2341
3.217 -4.391 1.766 2439
3.220 -4.395 1.751 3301
3.223 -4.398 1.735 2054
3.387 -4.623 1.799 1305
3.408 -4.651 1.791 2027
3.416 -4.661 1.777 2218
3.576 -4.880 1.835 1948
3.597 -4.909 1.826 2935
3.604 -4.919 1.811 4840
3.612 -4.929 1.795 6761
3.615 -4.933 1.778 5932
3.622 -4.943 1.762 5003
3.620 -4.940 1.742 5402
3.618 -4.938 1.722 3598
3.902 -5.325 1.827 2562
3.923 -5.354 1.816 2691
4.107 -5.605 1.874 1944
3.992 -5.448 1.804 2256
4.127 -5.632 1.839 1792
4.134 -5.642 1.821 1760
4.146 -5.659 1.804 1799
4.154 -5.669 1.786 2440
4.353 -5.940 1.843 2983
4.360 -5.950 1.823 2094
4.381 -5.979 1.809 1145
4.553 -6.214 1.851 1437
4.538 -6.193 1.822 1703
4.710 -6.427 1.862 1760
4.791 -6.538 1.867 2258
4.798 -6.548 1.845 2497
4.806 -6.558 1.823 2203
5.038 -6.875 1.879 2032
5.045 -6.885 1.856 2042
5.062 -6.908 1.836 1659
5.345 -7.294 1.904 1885
5.353 -7.305 1.880 2022
5.356 -7.309 1.853 1272
5.368 -7.325 1.830 1312
5.371 -7.329 1.803 1377
5.502 -7.509 1.817 1365
5.510 -7.519 1.791 927
5.513 -7.523 1.764 512
5.515 -7.527 1.737 377
1.336 -1.823 1.764 2279
1.339 -1.827 1.758 4559
1.342 -1.831 1.751 4559
1.344 -1.835 1.745 3428
1.381 -1.885 1.780 2753
1.392 -1.899 1.783 3086
1.410 -1.924 1.794 4192
1.413 -1.928 1.787 4192
1.419 -1.937 1.785 5872
1.426 -1.946 1.783 7700
1.429 -1.950 1.776 6181
1.443 -1.970 1.782 5081
1.435 -1.958 1.762 4298
1.437 -1.961 1.755 3935
1.440 -1.965 1.748 4079
1.455 -1.985 1.754 4438
1.461 -1.994 1.752 5194
1.511 -2.062 1.797 5375
1.518 -2.071 1.794 6548
1.524 -2.080 1.791 5798
1.559 -2.127 1.818 7259
1.565 -2.136 1.815 6188
1.529 -2.086 1.765 5998
1.595 -2.176 1.825 5094
1.606 -2.191 1.826 4996
1.609 -2.195 1.818 4422
1.568 -2.139 1.764 4492
1.582 -2.159 1.769 4806
1.601 -2.185 1.778 5882
1.604 -2.189 1.771 6634
1.607 -2.193 1.763 7386
1.614 -2.202 1.759 7112
1.624 -2.217 1.759 7080
1.639 -2.237 1.764 5920
1.646 -2.246 1.760 4950
1.649 -2.250 1.752 3203
1.692 -2.309 1.784 5772
1.699 -2.318 1.780 7261
1.698 -2.317 1.767 6884
1.749 -2.387 1.807 7182
1.748 -2.385 1.794 6417
1.743 -2.378 1.778 5983
1.746 -2.382 1.769 4674
1.834 -2.503 1.842 2639
1.841 -2.512 1.837 4077
1.848 -2.522 1.832 5672
1.855 -2.532 1.827 5834
1.875 -2.558 1.833 4704
1.886 -2.573 1.831 3394
1.905 -2.600 1.837 2462
1.908 -2.604 1.828 2499
1.915 -2.613 1.822 2538
1.901 -2.595 1.798 3018
1.913 -2.610 1.796 5271
1.920 -2.619 1.790 7211
1.918 -2.618 1.777 7208
1.971 -2.690 1.811 8721
1.974 -2.694 1.802 9451
1.985 -2.709 1.799 8219
2.001 -2.730 1.800 7331
1.995 -2.723 1.783 7352
1.994 -2.721 1.770 8952
2.043 -2.788 1.799 9274
2.054 -2.803 1.796 9797
2.074 -2.830 1.799 8770
2.064 -2.817 1.779 9980
2.067 -2.820 1.769 10675
2.065 -2.818 1.756 8131
2.077 -2.834 1.752 6061
2.088 -2.849 1.749 6531
2.091 -2.853 1.739 5971
2.149 -2.932 1.771 6781
2.160 -2.948 1.767 7337
2.176 -2.969 1.766 6629
2.230 -3.043 1.794 7371
2.224 -3.035 1.777 8356
2.218 -3.027 1.760 5801
2.251 -3.072 1.771 3717
2.258 -3.082 1.763 7021
2.265 -3.091 1.755 7781
2.272 -3.101 1.748 7463
2.271 -3.099 1.733 6668
2.261 -3.085 1.713 6173
2.259 -3.083 1.699 5770
2.253 -3.075 1.682 3812
2.507 -3.421 1.844 4574
2.510 -3.425 1.832 3555
2.609 -3.560 1.884 4064
2.612 -3.564 1.872 5161
2.610 -3.562 1.856 7906
2.617 -3.572 1.846 8965
2.620 -3.576 1.833 9161
2.623 -3.580 1.821 8702
2.626 -3.584 1.808 7527
2.629 -3.588 1.795 7778
2.632 -3.592 1.782 6661
2.630 -3.589 1.767 4434
2.686 -3.665 1.786 4043
2.689 -3.669 1.773 7397
2.696 -3.679 1.763 6368
2.708 -3.695 1.755 3993
2.710 -3.699 1.742 3396
2.899 -3.955 1.838 3392
2.910 -3.971 1.830 4796
2.918 -3.981 1.818 4858
2.934 -4.004 1.811 3582
2.941 -4.014 1.799 2705
2.931 -3.999 1.778 3253
2.938 -4.009 1.766 2574
3.083 -4.207 1.830 3525
3.090 -4.217 1.818 2980
3.129 -4.270 1.822 2624
3.127 -4.268 1.804 2641
3.215 -4.387 1.834 3439
3.213 -4.385 1.816 3177
3.163 -4.316 1.772 2352
3.174 -4.332 1.761 2961
3.289 -4.489 1.803 2654
3.292 -4.492 1.787 2810
3.304 -4.509 1.775 2806
3.329 -4.543 1.770 2508
3.458 -4.719 1.815 4176
3.456 -4.716 1.796 3337
3.445 -4.702 1.773 2140
3.615 -4.933 1.835 2597
3.622 -4.943 1.819 4451
3.603 -4.916 1.791 5519
3.615 -4.933 1.778 3960
3.703 -5.054 1.799 3548
3.620 -4.940 1.742 3489
3.695 -5.043 1.756 2608
3.929 -5.362 1.839 2265
4.009 -5.471 1.853 2830
4.035 -5.506 1.843 4036
4.042 -5.516 1.825 3484
4.059 -5.539 1.811 2540
4.367 -5.959 1.916 2722
4.370 -5.963 1.895 3986
4.373 -5.967 1.873 4827
4.376 -5.971 1.852 4707
4.378 -5.975 1.830 3980
4.381 -5.979 1.809 3620
4.384 -5.983 1.787 2519
4.392 -5.993 1.767 1810
4.719 -6.440 1.865 1692
4.631 -6.319 1.809 1911
4.789 -6.535 1.842 2010
4.797 -6.545 1.820 1925
5.033 -6.868 1.878 1592
5.132 -7.004 1.886 1242
5.117 -6.983 1.855 1206
5.373 -7.332 1.913 2011
5.366 -7.323 1.884 2514
5.365 -7.321 1.856 2043
5.372 -7.331 1.831 1703
5.375 -7.335 1.805 1578
5.378 -7.339 1.779 975
5.367 -7.324 1.748 464
5.374 -7.334 1.723 324
0.463 -0.632 0.248 316
0.458 -0.626 0.245 413
0.463 -0.632 0.244 396
0.463 -0.632 0.241 338
0.464 -0.633 0.239 326
0.459 -0.627 0.236 305
1.313 -1.839 1.764 2275
1.316 -1.843 1.758 4551
1.319 -1.847 1.751 4551
1.318 -1.846 1.740 3506
1.358 -1.902 1.780 2871
1.368 -1.916 1.783 3101
1.386 -1.941 1.794 3952
1.389 -1.945 1.787 3952
1.395 -1.954 1.785 5619
1.402 -1.963 1.783 7393
1.405 -1.967 1.776 5921
1.419 -1.987 1.782 4808
1.410 -1.975 1.762 4263
1.413 -1.979 1.755 4078
1.416 -1.983 1.748 4128
1.426 -1.997 1.750 4347
1.433 -2.006 1.747 4961
1.485 -2.080 1.797 4881
1.488 -2.084 1.790 5887
1.499 -2.099 1.791 5591
1.532 -2.146 1.818 6886
1.539 -2.155 1.815 5873
1.503 -2.105 1.765 6347
1.568 -2.196 1.825 5220
1.578 -2.211 1.826 5416
1.581 -2.215 1.818 4768
1.541 -2.159 1.764 4380
1.548 -2.168 1.761 4334
1.578 -2.210 1.783 4614
1.577 -2.208 1.771 5495
1.580 -2.212 1.763 6383
1.582 -2.216 1.755 6223
1.593 -2.231 1.755 6270
1.616 -2.263 1.768 5247
1.618 -2.266 1.760 4438
1.621 -2.270 1.752 2966
1.663 -2.330 1.784 5374
1.670 -2.339 1.780 6853
1.669 -2.337 1.767 6601
1.720 -2.408 1.807 6862
1.718 -2.407 1.794 6065
1.713 -2.399 1.778 5561
1.716 -2.403 1.769 4311
1.779 -2.492 1.819 2494
1.810 -2.535 1.837 3742
1.817 -2.545 1.832 5179
1.832 -2.566 1.834 5457
1.843 -2.581 1.833 4641
1.854 -2.596 1.831 3152
1.776 -2.487 1.747 2410
1.880 -2.633 1.831 2248
1.883 -2.637 1.822 2268
1.869 -2.618 1.798 2704
1.884 -2.639 1.800 4938
1.887 -2.643 1.790 6823
1.890 -2.647 1.781 6821
1.938 -2.714 1.811 9531
1.941 -2.718 1.802 10193
1.952 -2.733 1.799 8433
1.967 -2.755 1.800 6894
1.961 -2.747 1.783 6919
1.956 -2.739 1.767 8690
2.008 -2.813 1.799 8383
2.019 -2.828 1.796 9231
2.039 -2.855 1.799 9019
2.029 -2.842 1.779 9754
2.032 -2.846 1.769 9992
2.035 -2.849 1.759 7215
2.046 -2.865 1.756 5555
2.053 -2.875 1.749 6064
2.101 -2.943 1.775 5896
2.117 -2.964 1.774 7615
2.124 -2.974 1.767 8076
2.135 -2.990 1.763 7056
2.192 -3.070 1.794 7076
2.187 -3.062 1.777 7939
2.181 -3.054 1.760 5554
2.213 -3.099 1.771 3789
2.220 -3.109 1.763 6779
2.227 -3.119 1.755 7479
2.234 -3.129 1.748 7272
2.233 -3.127 1.733 6595
2.227 -3.119 1.716 5961
2.221 -3.110 1.699 5405
2.215 -3.102 1.682 3573
2.461 -3.446 1.841 4548
2.463 -3.450 1.829 3546
2.565 -3.592 1.884 4364
2.567 -3.596 1.872 5545
2.566 -3.594 1.856 8420
2.573 -3.604 1.846 9618
2.576 -3.608 1.833 9893
2.579 -3.612 1.821 9444
2.582 -3.616 1.808 8107
2.585 -3.620 1.795 8196
2.587 -3.624 1.782 7111
2.590 -3.628 1.769 4892
2.610 -3.656 1.767 3672
2.643 -3.702 1.773 6405
2.650 -3.712 1.763 5520
2.662 -3.728 1.755 3158
2.669 -3.738 1.744 2588
2.850 -3.991 1.838 3354
2.861 -4.007 1.830 5047
2.868 -4.017 1.818 4914
2.880 -4.033 1.809 3199
2.887 -4.043 1.797 2436
2.881 -4.035 1.778 3294
2.998 -4.198 1.828 2682
3.031 -4.245 1.830 3412
3.043 -4.261 1.820 2999
3.076 -4.308 1.822 2810
3.075 -4.306 1.804 2866
3.161 -4.427 1.834 2998
3.159 -4.424 1.816 2769
3.122 -4.373 1.779 2033
3.231 -4.525 1.819 2855
3.234 -4.529 1.803 2813
3.241 -4.539 1.789 2845
3.252 -4.555 1.777 2859
3.273 -4.584 1.770 2861
3.399 -4.761 1.815 4463
3.402 -4.765 1.798 3555
3.392 -4.750 1.775 2296
3.612 -5.058 1.863 2569
3.561 -4.988 1.819 4321
3.551 -4.973 1.795 4814
3.554 -4.977 1.778 3692
3.650 -5.111 1.803 3655
3.559 -4.984 1.742 3347
3.633 -5.088 1.756 3042
3.867 -5.416 1.841 2233
3.942 -5.520 1.853 3092
3.962 -5.549 1.841 4127
3.970 -5.559 1.823 3405
3.990 -5.589 1.811 2498
4.293 -6.012 1.916 3263
4.296 -6.016 1.895 4743
4.299 -6.020 1.873 5572
4.302 -6.024 1.852 5605
4.309 -6.035 1.832 4936
4.307 -6.032 1.809 4212
4.310 -6.036 1.787 2858
4.318 -6.047 1.767 2074
4.635 -6.491 1.864 1822
4.552 -6.375 1.809 1924
4.708 -6.594 1.842 1625
4.954 -6.938 1.906 1759
4.948 -6.930 1.878 1655
5.050 -7.073 1.888 1401
5.270 -7.380 1.937 1284
5.277 -7.391 1.912 2124
5.276 -7.389 1.884 2554
5.274 -7.387 1.856 2092
5.282 -7.397 1.831 1767
5.285 -7.401 1.805 1635
5.292 -7.411 1.780 1034
5.304 -7.428 1.756 467
5.288 -7.406 1.724 302
0.455 -0.637 0.248 271
0.451 -0.631 0.245 337
0.455 -0.638 0.244 342
0.456 -0.638 0.241 300
0.456 -0.638 0.239 288
1.312 -1.841 1.764 2314
1.314 -1.845 1.758 4628
1.317 -1.848 1.751 4628
1.316 -1.847 1.740 3643
1.360 -1.908 1.785 3007
1.367 -1.918 1.783 3131
1.388 -1.948 1.799 3808
1.391 -1.952 1.792 3808
1.394 -1.956 1.785 5436
1.400 -1.965 1.783 7149
1.403 -1.969 1.776 5720
1.417 -1.988 1.782 4600
1.408 -1.976 1.762 4260
1.411 -1.980 1.755 4229
1.414 -1.984 1.748 4204
1.420 -1.993 1.746 4299
1.431 -2.008 1.747 4797
1.483 -2.081 1.797 4514
1.490 -2.091 1.794 5426
1.497 -2.100 1.791 5428
1.530 -2.147 1.818 6889
1.510 -2.119 1.785 5957
1.505 -2.112 1.769 6245
1.570 -2.203 1.830 5461
1.576 -2.212 1.826 5861
1.579 -2.216 1.818 5152
1.539 -2.160 1.764 4817
1.542 -2.164 1.757 4600
1.553 -2.179 1.758 4518
1.575 -2.210 1.771 5112
1.578 -2.214 1.763 6077
1.584 -2.223 1.759 5969
1.591 -2.233 1.755 6104
1.610 -2.259 1.764 5123
1.616 -2.268 1.760 4327
1.615 -2.266 1.748 2925
1.661 -2.331 1.784 5087
1.668 -2.341 1.780 6585
1.667 -2.339 1.767 6412
1.717 -2.410 1.807 6546
1.716 -2.408 1.794 5737
1.707 -2.395 1.774 5293
1.714 -2.405 1.769 4058
1.773 -2.488 1.815 2681
1.808 -2.537 1.837 3511
1.815 -2.546 1.832 4711
1.834 -2.573 1.838 5077
1.841 -2.583 1.833 4469
1.851 -2.598 1.831 2956
1.773 -2.488 1.747 2282
1.877 -2.634 1.831 2076
1.880 -2.638 1.822 2011
1.879 -2.637 1.809 2381
1.882 -2.641 1.800 4633
1.889 -2.650 1.794 6501
1.924 -2.700 1.814 6919
1.935 -2.716 1.811 9943
1.938 -2.720 1.802 10565
1.945 -2.729 1.796 8491
1.964 -2.756 1.800 6269
1.959 -2.749 1.783 6243
1.953 -2.741 1.767 8071
2.006 -2.814 1.799 8231
2.021 -2.836 1.799 9366
2.036 -2.857 1.799 9252
2.035 -2.855 1.786 9235
2.029 -2.848 1.769 8226
2.032 -2.851 1.759 5642
2.047 -2.873 1.759 4711
2.054 -2.882 1.752 5260
2.099 -2.945 1.775 6310
2.114 -2.966 1.774 8282
2.121 -2.976 1.767 8536
2.136 -2.998 1.766 7467
2.185 -3.066 1.791 6892
2.184 -3.064 1.777 7743
2.178 -3.056 1.760 5555
2.210 -3.102 1.771 3847
2.217 -3.111 1.763 6605
2.224 -3.121 1.755 7154
2.231 -3.131 1.748 6926
2.230 -3.129 1.733 6337
2.224 -3.121 1.716 5677
2.218 -3.112 1.699 5129
2.454 -3.444 1.853 3590
2.457 -3.448 1.841 4645
2.456 -3.446 1.826 3639
2.557 -3.588 1.882 4527
2.564 -3.598 1.872 5721
2.567 -3.602 1.859 8632
2.570 -3.606 1.846 9840
2.577 -3.616 1.836 10184
2.576 -3.614 1.821 9741
2.579 -3.618 1.808 8286
2.581 -3.622 1.795 8380
2.584 -3.626 1.782 7500
2.587 -3.630 1.769 5327
2.603 -3.652 1.765 3801
2.644 -3.710 1.776 6151
2.651 -3.720 1.766 5265
2.667 -3.742 1.760 2901
2.821 -3.959 1.839 2530
2.842 -3.987 1.836 3212
2.857 -4.010 1.830 4991
2.860 -4.014 1.815 4764
2.872 -4.030 1.806 2777
2.883 -4.046 1.797 2227
2.882 -4.044 1.780 3310
2.998 -4.207 1.830 2924
3.023 -4.241 1.828 3825
3.034 -4.258 1.818 3190
3.068 -4.305 1.819 2915
3.071 -4.309 1.804 2942
3.161 -4.436 1.836 2638
3.155 -4.427 1.816 2478
3.132 -4.394 1.786 1953
3.227 -4.528 1.819 2933
3.234 -4.538 1.805 2906
3.241 -4.548 1.791 2834
3.248 -4.558 1.777 2923
3.269 -4.587 1.770 3126
3.395 -4.764 1.815 4539
3.398 -4.768 1.798 3667
3.392 -4.759 1.777 2471
3.611 -5.068 1.865 2565
3.561 -4.997 1.821 4263
3.546 -4.976 1.795 4312
3.549 -4.980 1.778 3514
3.649 -5.121 1.805 3637
3.555 -4.988 1.742 3113
3.628 -5.091 1.756 3262
3.925 -5.507 1.869 2256
3.941 -5.530 1.855 3243
3.953 -5.547 1.839 4294
3.960 -5.557 1.821 3419
3.985 -5.592 1.811 2420
4.287 -6.016 1.916 3595
4.290 -6.020 1.895 5171
4.293 -6.024 1.873 6001
4.301 -6.035 1.853 6198
4.303 -6.039 1.832 5562
4.302 -6.036 1.809 4570
4.305 -6.040 1.787 3044
4.312 -6.051 1.767 2225
4.629 -6.495 1.864 1873
4.551 -6.386 1.811 1985
4.549 -6.384 1.786 1560
4.948 -6.943 1.906 1834
4.942 -6.934 1.878 1692
5.062 -7.103 1.894 1450
5.263 -7.385 1.937 1472
5.271 -7.396 1.912 2280
5.269 -7.394 1.884 2649
5.267 -7.391 1.856 2165
5.275 -7.402 1.831 1823
5.278 -7.406 1.805 1669
5.281 -7.410 1.779 1072
5.292 -7.426 1.755 468
5.281 -7.411 1.724 278
0.450 -0.632 0.245 301
0.455 -0.638 0.244 297
0.460 -0.645 0.242 264
0.455 -0.639 0.239 263
1.306 -1.837 1.760 2346
1.309 -1.841 1.753 4692
1.311 -1.845 1.747 4692
1.314 -1.849 1.740 3800
1.358 -1.910 1.785 3175
1.364 -1.919 1.783 3202
1.386 -1.949 1.799 3766
1.388 -1.953 1.792 3766
1.395 -1.963 1.790 5332
1.398 -1.966 1.783 6991
1.401 -1.970 1.776 5568
1.415 -1.990 1.782 4436
1.402 -1.973 1.758 4252
1.409 -1.982 1.755 4352
1.412 -1.986 1.748 4285
1.418 -1.995 1.746 4327
1.425 -2.004 1.743 4704
1.485 -2.089 1.802 4154
1.487 -2.093 1.794 4992
1.494 -2.102 1.791 5473
1.528 -2.149 1.818 6937
1.507 -2.121 1.785 6548
1.506 -2.119 1.773 6902
1.567 -2.205 1.830 5598
1.574 -2.214 1.826 6143
1.577 -2.218 1.818 5317
1.533 -2.156 1.760 4744
1.539 -2.166 1.757 4443
1.546 -2.175 1.753 4253
1.572 -2.212 1.771 4902
1.571 -2.210 1.759 6067
1.578 -2.220 1.755 5931
1.588 -2.235 1.755 6052
1.607 -2.260 1.764 4831
1.613 -2.270 1.760 4052
1.687 -2.374 1.824 2902
1.658 -2.333 1.784 4842
1.665 -2.343 1.780 6310
1.664 -2.341 1.767 6205
1.711 -2.406 1.803 6269
1.713 -2.410 1.794 5438
1.704 -2.398 1.774 5097
1.711 -2.407 1.769 3853
1.770 -2.490 1.815 2995
1.769 -2.488 1.802 3569
1.816 -2.554 1.836 4350
1.830 -2.575 1.838 4869
1.837 -2.585 1.833 4380
1.848 -2.600 1.831 2885
1.770 -2.491 1.747 2264
1.874 -2.637 1.831 1961
1.910 -2.686 1.852 2079
1.872 -2.633 1.805 2159
1.879 -2.643 1.800 4310
1.886 -2.653 1.794 6168
1.921 -2.703 1.814 7145
1.932 -2.718 1.811 10404
1.935 -2.722 1.802 11072
1.942 -2.732 1.796 8702
1.961 -2.759 1.800 5796
1.960 -2.757 1.787 5777
1.954 -2.749 1.770 7536
1.994 -2.805 1.792 7723
2.013 -2.832 1.796 8607
2.033 -2.860 1.799 8789
2.031 -2.858 1.786 9174
2.026 -2.850 1.769 8794
2.029 -2.854 1.759 5916
2.044 -2.875 1.759 4645
2.051 -2.885 1.752 5005
2.095 -2.947 1.775 6594
2.110 -2.969 1.774 8993
2.117 -2.979 1.767 9129
2.133 -3.000 1.766 7888
2.127 -2.992 1.749 6648
2.180 -3.067 1.777 7240
2.128 -2.994 1.725 5165
2.206 -3.104 1.771 3879
2.213 -3.114 1.763 6324
2.220 -3.124 1.755 6738
2.227 -3.134 1.748 6500
2.226 -3.131 1.733 5990
2.220 -3.123 1.716 5321
2.214 -3.115 1.699 4846
2.446 -3.441 1.850 3677
2.453 -3.451 1.841 4622
2.460 -3.461 1.832 3668
2.557 -3.597 1.884 4690
2.560 -3.601 1.872 5926
2.563 -3.605 1.859 8848
2.566 -3.609 1.846 10082
2.573 -3.619 1.836 10445
2.571 -3.617 1.821 9911
2.574 -3.621 1.808 8276
2.577 -3.625 1.795 8294
2.580 -3.629 1.782 7574
2.582 -3.633 1.769 5576
2.594 -3.649 1.762 3903
2.640 -3.714 1.776 5619
2.647 -3.724 1.766 4843
2.662 -3.746 1.760 2593
2.812 -3.956 1.837 2620
2.837 -3.991 1.836 3179
2.848 -4.007 1.827 4998
2.855 -4.017 1.815 4688
2.863 -4.027 1.804 2484
2.870 -4.037 1.792 2098
2.877 -4.047 1.780 3326
2.988 -4.204 1.828 3123
3.013 -4.239 1.825 3807
3.033 -4.268 1.820 3245
3.062 -4.308 1.819 3088
3.065 -4.312 1.804 3079
3.068 -4.316 1.789 2396
3.145 -4.425 1.813 2131
3.126 -4.398 1.786 1958
3.221 -4.532 1.819 2884
3.228 -4.542 1.805 2975
3.235 -4.552 1.791 2920
3.247 -4.568 1.780 2974
3.263 -4.591 1.770 3396
3.389 -4.768 1.815 4560
3.392 -4.772 1.798 3752
3.390 -4.770 1.779 2617
3.605 -5.072 1.865 2575
3.559 -5.008 1.824 4277
3.553 -4.999 1.802 4078
3.552 -4.997 1.782 3422
3.643 -5.125 1.805 3554
3.557 -5.005 1.746 2964
3.622 -5.096 1.756 3455
3.918 -5.512 1.869 2397
3.934 -5.535 1.855 3413
3.946 -5.551 1.839 4439
3.949 -5.556 1.819 3380
3.983 -5.603 1.813 2273
4.280 -6.021 1.916 3921
4.283 -6.025 1.895 5616
4.286 -6.030 1.873 6397
4.293 -6.040 1.853 6679
4.296 -6.044 1.832 6064
4.294 -6.042 1.809 4938
4.297 -6.046 1.787 3302
4.304 -6.056 1.767 2418
4.621 -6.501 1.864 1901
4.543 -6.392 1.811 2082
4.546 -6.396 1.788 1590
4.939 -6.949 1.906 1941
4.933 -6.941 1.878 1784
5.053 -7.109 1.894 1589
5.254 -7.392 1.937 1580
5.261 -7.402 1.912 2377
5.260 -7.400 1.884 2746
5.258 -7.398 1.856 2209
5.266 -7.408 1.831 1860
5.269 -7.412 1.805 1690
5.271 -7.416 1.779 1083
5.283 -7.433 1.755 453
5.277 -7.424 1.726 254
0.856 -1.204 0.225 261
0.856 -1.204 0.220 255
1.305 -1.838 1.760 2321
1.307 -1.842 1.753 4642
1.310 -1.846 1.747 4642
1.313 -1.849 1.740 3834
1.356 -1.911 1.785 3266
1.363 -1.920 1.783 3212
1.384 -1.950 1.799 3666
1.387 -1.954 1.792 3666
1.394 -1.963 1.790 5195
1.400 -1.973 1.787 6778
1.399 -1.971 1.776 5374
1.376 -1.938 1.738 4255
1.401 -1.974 1.758 4217
1.407 -1.983 1.755 4402
1.410 -1.987 1.748 4329
1.417 -1.996 1.746 4356
1.423 -2.005 1.743 4666
1.430 -2.014 1.740 3775
1.486 -2.094 1.794 4438
1.493 -2.103 1.791 5457
1.522 -2.145 1.814 7060
1.506 -2.122 1.785 7216
1.505 -2.120 1.773 7680
1.566 -2.206 1.830 5708
1.572 -2.215 1.826 6389
1.575 -2.219 1.818 5480
1.582 -2.229 1.815 4678
1.538 -2.167 1.757 3750
1.545 -2.176 1.753 3517
1.571 -2.213 1.771 4332
1.570 -2.211 1.759 5493
1.576 -2.221 1.755 5427
1.587 -2.236 1.755 5647
1.605 -2.262 1.764 4673
1.612 -2.271 1.760 3944
1.686 -2.375 1.824 2973
1.657 -2.334 1.784 4629
1.664 -2.344 1.780 6163
1.666 -2.348 1.771 6116
1.665 -2.346 1.759 6085
1.672 -2.355 1.755 5087
1.699 -2.393 1.770 4915
1.709 -2.408 1.769 3602
1.764 -2.485 1.811 3310
1.767 -2.489 1.802 4009
1.814 -2.555 1.836 3991
1.833 -2.582 1.842 4709
1.836 -2.586 1.833 4369
1.847 -2.602 1.831 2896
1.769 -2.492 1.747 2234
1.820 -2.564 1.783 2114
1.819 -2.562 1.770 2410
1.825 -2.572 1.765 2358
1.877 -2.644 1.800 4002
1.884 -2.654 1.794 5862
1.919 -2.704 1.814 7426
1.930 -2.719 1.811 10817
1.933 -2.723 1.802 11449
1.940 -2.733 1.796 8787
1.959 -2.760 1.800 5606
1.978 -2.787 1.804 5759
1.940 -2.733 1.760 7269
1.996 -2.812 1.795 7891
2.016 -2.840 1.799 8982
2.031 -2.861 1.799 9113
2.029 -2.859 1.786 8951
2.024 -2.851 1.769 7771
2.027 -2.855 1.759 5102
2.042 -2.877 1.759 4248
2.049 -2.886 1.752 4693
2.097 -2.955 1.778 6675
2.108 -2.970 1.774 9478
2.115 -2.980 1.767 9522
2.131 -3.002 1.766 8118
2.121 -2.988 1.746 7079
2.178 -3.068 1.777 7003
2.126 -2.995 1.725 5568
2.204 -3.106 1.771 3821
2.211 -3.116 1.763 5991
2.218 -3.125 1.755 6295
2.225 -3.135 1.748 6041
2.224 -3.133 1.733 5531
2.218 -3.125 1.716 4814
2.212 -3.117 1.699 4511
2.444 -3.443 1.850 3790
2.451 -3.453 1.841 4788
2.458 -3.463 1.832 3840
2.550 -3.593 1.882 4833
2.557 -3.603 1.872 6030
2.560 -3.607 1.859 8953
2.563 -3.611 1.846 10299
2.570 -3.621 1.836 10849
2.569 -3.619 1.821 10291
2.572 -3.623 1.808 8526
2.574 -3.627 1.795 8440
2.577 -3.631 1.782 7876
2.580 -3.635 1.769 5990
2.587 -3.645 1.759 4184
2.642 -3.721 1.779 5428
2.649 -3.731 1.768 4965
2.660 -3.747 1.760 2758
2.810 -3.958 1.837 2690
2.830 -3.987 1.833 3040
2.846 -4.009 1.827 4928
2.853 -4.019 1.815 4650
2.856 -4.023 1.801 2289
2.915 -4.106 1.820 2372
2.874 -4.049 1.780 3396
2.986 -4.206 1.828 3304
3.006 -4.235 1.823 3927
3.031 -4.270 1.820 3400
3.060 -4.310 1.819 3246
3.062 -4.314 1.804 3198
3.070 -4.325 1.791 2553
3.077 -4.335 1.778 1939
3.101 -4.369 1.774 2021
3.218 -4.534 1.819 2843
3.230 -4.550 1.808 3016
3.237 -4.560 1.794 2956
3.244 -4.570 1.780 3031
3.260 -4.593 1.770 3562
3.386 -4.770 1.815 4532
3.389 -4.774 1.798 3738
3.392 -4.778 1.782 2712
3.602 -5.074 1.865 2497
3.556 -5.010 1.824 4191
3.554 -5.008 1.804 3837
3.637 -5.124 1.823 3379
3.644 -5.134 1.807 3603
3.563 -5.019 1.750 2842
3.619 -5.098 1.756 3489
3.914 -5.515 1.869 2426
3.931 -5.538 1.855 3423
3.942 -5.554 1.839 4504
3.945 -5.558 1.819 3345
3.975 -5.600 1.811 2156
4.276 -6.024 1.916 4133
4.279 -6.028 1.895 5834
4.282 -6.032 1.873 6642
4.289 -6.043 1.853 7074
4.288 -6.041 1.830 6497
4.290 -6.045 1.809 5233
4.293 -6.049 1.787 3473
4.300 -6.059 1.767 2569
4.617 -6.504 1.864 1873
4.539 -6.395 1.811 2122
4.542 -6.399 1.788 1579
4.935 -6.952 1.906 2009
4.929 -6.944 1.878 1844
5.030 -7.087 1.888 1660
5.249 -7.395 1.937 1697
5.257 -7.406 1.912 2511
5.255 -7.404 1.884 2853
5.253 -7.401 1.856 2218
5.261 -7.412 1.831 1858
5.264 -7.416 1.805 1686
5.266 -7.420 1.779 1106
5.278 -7.436 1.755 479
5.272 -7.427 1.726 261
1.010 -1.423 0.246 250
1.011 -1.424 0.241 271
1.302 -1.840 1.760 2356
1.305 -1.844 1.753 4712
1.308 -1.847 1.747 4712
1.310 -1.851 1.740 3951
1.357 -1.918 1.789 3429
1.360 -1.922 1.783 3267
1.382 -1.952 1.799 3611
1.384 -1.956 1.792 3611
1.391 -1.965 1.790 5098
1.398 -1.975 1.787 6622
1.397 -1.973 1.776 5216
1.373 -1.940 1.738 4316
1.398 -1.976 1.758 4207
1.401 -1.979 1.751 4457
1.407 -1.989 1.748 4358
1.414 -1.998 1.746 4368
1.420 -2.007 1.743 4661
1.427 -2.016 1.740 3676
1.483 -2.096 1.794 4101
1.494 -2.110 1.796 5370
1.519 -2.147 1.814 6954
1.503 -2.124 1.785 7368
1.506 -2.128 1.778 7845
1.563 -2.208 1.830 5996
1.569 -2.217 1.826 6850
1.572 -2.221 1.818 5823
1.579 -2.231 1.815 4926
1.535 -2.169 1.757 4370
1.542 -2.178 1.753 4000
1.552 -2.193 1.754 4141
1.567 -2.213 1.759 5142
1.573 -2.223 1.755 5158
1.584 -2.238 1.755 5481
1.598 -2.258 1.760 4476
1.605 -2.268 1.756 3751
1.682 -2.377 1.824 3049
1.654 -2.337 1.784 4280
1.660 -2.346 1.780 5729
1.663 -2.350 1.771 5827
1.666 -2.354 1.763 5926
1.669 -2.358 1.755 5077
1.691 -2.390 1.766 4888
1.702 -2.405 1.765 3450
1.761 -2.488 1.811 3661
1.763 -2.492 1.802 4454
1.754 -2.479 1.782 4155
1.829 -2.585 1.842 4629
1.832 -2.589 1.833 4413
1.839 -2.598 1.827 2967
1.814 -2.562 1.792 2163
1.816 -2.566 1.783 2367
1.908 -2.696 1.855 2750
1.911 -2.700 1.846 2608
1.877 -2.653 1.803 3671
1.880 -2.657 1.794 5474
1.915 -2.706 1.814 7695
1.926 -2.722 1.811 11108
1.929 -2.726 1.802 11663
1.936 -2.736 1.796 8851
1.955 -2.763 1.800 5519
1.974 -2.790 1.804 5739
1.977 -2.794 1.795 6902
1.988 -2.809 1.792 7814
2.012 -2.842 1.799 8971
2.027 -2.864 1.799 9056
2.025 -2.862 1.786 8542
2.016 -2.848 1.766 6907
2.023 -2.858 1.759 4201
2.042 -2.885 1.762 3836
2.049 -2.895 1.755 4232
2.093 -2.958 1.778 6562
2.104 -2.973 1.774 9937
2.111 -2.983 1.767 9881
2.126 -3.005 1.766 8312
2.121 -2.997 1.749 7358
2.119 -2.994 1.736 7060
2.122 -2.998 1.725 5783
2.267 -3.204 1.822 3775
2.203 -3.113 1.760 5617
2.214 -3.128 1.755 5750
2.221 -3.138 1.748 5466
2.219 -3.136 1.733 5009
2.218 -3.134 1.719 4245
2.208 -3.120 1.699 4079
2.439 -3.446 1.850 3885
2.446 -3.456 1.841 4905
2.453 -3.466 1.832 3998
2.549 -3.602 1.884 4864
2.552 -3.606 1.872 6059
2.555 -3.610 1.859 8972
2.558 -3.615 1.846 10399
2.565 -3.625 1.836 11021
2.564 -3.623 1.821 10363
2.567 -3.627 1.808 8438
2.570 -3.631 1.795 8354
2.572 -3.635 1.782 7974
2.575 -3.638 1.769 6188
2.582 -3.648 1.759 4242
2.636 -3.725 1.779 5439
2.643 -3.735 1.768 4835
2.659 -3.757 1.763 2464
2.804 -3.962 1.837 2772
2.798 -3.954 1.818 3012
2.840 -4.013 1.827 4720
2.843 -4.017 1.813 4528
2.911 -4.113 1.837 2409
2.909 -4.110 1.820 2583
2.869 -4.053 1.780 3410
2.976 -4.204 1.825 3612
3.000 -4.239 1.823 4125
3.025 -4.274 1.820 3489
3.054 -4.315 1.819 3368
3.061 -4.325 1.806 3287
3.077 -4.347 1.798 2772
3.075 -4.345 1.781 2294
3.095 -4.374 1.774 2139
3.208 -4.532 1.817 2769
3.223 -4.555 1.808 2988
3.231 -4.565 1.794 2935
3.242 -4.581 1.782 3022
3.254 -4.597 1.770 3710
3.379 -4.775 1.815 4472
3.387 -4.785 1.801 3725
3.385 -4.783 1.782 2905
3.595 -5.079 1.865 2312
3.549 -5.015 1.824 4034
3.552 -5.019 1.806 3684
3.630 -5.129 1.823 3387
3.637 -5.139 1.807 3524
3.556 -5.024 1.750 2759
3.616 -5.109 1.758 3351
3.902 -5.514 1.867 2559
3.923 -5.543 1.855 3453
3.935 -5.559 1.839 4513
3.938 -5.563 1.819 3269
4.265 -6.026 1.937 2276
4.268 -6.030 1.916 4287
4.271 -6.034 1.895 5969
4.274 -6.038 1.873 6770
4.281 -6.049 1.853 7366
4.279 -6.046 1.830 6810
4.282 -6.050 1.809 5422
4.285 -6.054 1.787 3590
4.292 -6.065 1.767 2657
4.532 -6.403 1.835 1922
4.530 -6.401 1.811 2140
4.533 -6.405 1.788 1558
4.925 -6.959 1.906 2060
4.919 -6.951 1.878 1873
5.016 -7.088 1.886 1703
5.239 -7.402 1.937 1793
5.242 -7.407 1.910 2618
5.245 -7.411 1.884 2942
5.243 -7.409 1.856 2217
5.251 -7.419 1.831 1868
5.254 -7.423 1.805 1696
5.256 -7.427 1.779 1130
5.268 -7.443 1.755 479
0.853 -1.206 0.225 267
0.858 -1.212 0.221 282
1.303 -1.839 1.760 2349
1.306 -1.843 1.753 4699
1.309 -1.847 1.747 4699
1.311 -1.850 1.740 4035
1.359 -1.917 1.789 3626
1.362 -1.921 1.783 3291
1.387 -1.957 1.803 3528
1.390 -1.960 1.796 3528
1.392 -1.964 1.790 4945
1.399 -1.974 1.787 6413
1.398 -1.972 1.776 4993
1.374 -1.939 1.738 4222
1.400 -1.975 1.758 4121
1.402 -1.979 1.751 4452
1.409 -1.988 1.748 4375
1.415 -1.997 1.746 4402
1.422 -2.006 1.743 4611
1.425 -2.010 1.736 3564
1.485 -2.095 1.794 3611
1.495 -2.109 1.796 5409
1.502 -2.119 1.792 7393
1.504 -2.123 1.785 8087
1.507 -2.127 1.778 8782
1.514 -2.136 1.774 6171
1.571 -2.216 1.826 7120
1.577 -2.226 1.823 6052
1.580 -2.230 1.815 5181
1.533 -2.162 1.753 3856
1.528 -2.155 1.737 3575
1.554 -2.192 1.754 3644
1.564 -2.207 1.755 4728
1.575 -2.222 1.755 4674
1.585 -2.237 1.755 5038
1.600 -2.257 1.760 4090
1.677 -2.366 1.829 3517
1.680 -2.370 1.820 3284
1.655 -2.335 1.784 4059
1.658 -2.339 1.776 5431
1.665 -2.349 1.771 5581
1.668 -2.353 1.763 5733
1.670 -2.357 1.755 4967
1.689 -2.383 1.762 4714
1.704 -2.404 1.765 3198
1.762 -2.486 1.811 3945
1.765 -2.490 1.802 4846
1.756 -2.477 1.782 4222
1.831 -2.583 1.842 4458
1.838 -2.593 1.836 4361
1.817 -2.563 1.805 3120
1.815 -2.561 1.792 2407
1.818 -2.565 1.783 2816
1.910 -2.695 1.855 3165
1.917 -2.705 1.849 3119
1.912 -2.697 1.833 3960
1.910 -2.695 1.819 5113
1.921 -2.711 1.817 7930
1.928 -2.721 1.811 11477
1.931 -2.725 1.802 12075
1.934 -2.729 1.792 9108
1.945 -2.744 1.790 5756
1.931 -2.725 1.766 6170
1.934 -2.729 1.756 7295
1.990 -2.808 1.792 7875
2.014 -2.841 1.799 8750
2.029 -2.862 1.799 9083
2.027 -2.860 1.786 8611
2.018 -2.847 1.766 7118
2.124 -2.997 1.840 4397
2.048 -2.890 1.766 3895
2.051 -2.894 1.755 4228
2.095 -2.956 1.778 6819
2.106 -2.972 1.774 10609
2.113 -2.981 1.767 10266
2.129 -3.003 1.766 8515
2.123 -2.995 1.749 7566
2.121 -2.993 1.736 7307
2.124 -2.997 1.725 6037
2.274 -3.208 1.825 4021
2.205 -3.111 1.760 5082
2.216 -3.127 1.755 5095
2.223 -3.137 1.748 4831
2.285 -3.224 1.779 4627
2.220 -3.132 1.719 3655
2.210 -3.118 1.699 3560
2.446 -3.450 1.853 3834
2.448 -3.455 1.841 4901
2.456 -3.465 1.832 4112
2.548 -3.594 1.882 4831
2.555 -3.605 1.872 5985
2.558 -3.609 1.859 8864
2.561 -3.613 1.846 10328
2.568 -3.623 1.836 11047
2.566 -3.621 1.821 10366
2.569 -3.625 1.808 8348
2.572 -3.629 1.795 8184
2.575 -3.633 1.782 7919
2.582 -3.643 1.772 6229
2.585 -3.647 1.759 4165
2.639 -3.723 1.779 4438
2.642 -3.727 1.766 4315
2.649 -3.737 1.755 2304
2.807 -3.960 1.837 2771
2.801 -3.952 1.818 3047
2.847 -4.017 1.830 4513
2.841 -4.009 1.810 4448
2.913 -4.111 1.837 2799
2.916 -4.115 1.822 2909
2.876 -4.057 1.783 3426
2.983 -4.208 1.828 3567
3.003 -4.237 1.823 4248
3.028 -4.272 1.820 3710
3.057 -4.313 1.819 3478
3.064 -4.323 1.806 3370
3.080 -4.345 1.798 3063
3.078 -4.343 1.781 2656
3.098 -4.371 1.774 2230
3.211 -4.530 1.817 2717
3.227 -4.552 1.808 2975
3.238 -4.569 1.796 2936
3.245 -4.579 1.782 3060
3.257 -4.595 1.770 3903
3.383 -4.773 1.815 4476
3.390 -4.783 1.801 3672
3.388 -4.781 1.782 2935
3.457 -4.878 1.797 2237
3.553 -5.012 1.824 3735
3.556 -5.016 1.806 3480
3.633 -5.126 1.823 3387
3.641 -5.137 1.807 3467
3.564 -5.028 1.752 2686
3.620 -5.107 1.758 3149
3.906 -5.511 1.867 2705
3.927 -5.540 1.855 3423
3.939 -5.557 1.839 4447
3.937 -5.555 1.818 3109
4.269 -6.023 1.937 2397
4.272 -6.027 1.916 4371
4.275 -6.031 1.895 5961
4.278 -6.035 1.873 6754
4.285 -6.046 1.853 7491
4.283 -6.043 1.830 6972
4.286 -6.047 1.809 5573
4.289 -6.051 1.787 3708
4.292 -6.055 1.766 2717
4.536 -6.400 1.835 2006
4.539 -6.404 1.812 2128
4.931 -6.958 1.932 1503
4.930 -6.956 1.906 2115
4.924 -6.947 1.878 1953
5.021 -7.084 1.886 1694
5.244 -7.399 1.937 1871
5.247 -7.403 1.910 2768
5.250 -7.407 1.884 3059
5.253 -7.411 1.858 2254
5.256 -7.415 1.831 1870
5.259 -7.419 1.805 1680
5.261 -7.423 1.779 1122
5.269 -7.433 1.753 482
0.532 -0.751 0.289 253
0.537 -0.758 0.288 255
0.471 -0.664 0.170 254
1.302 -1.840 1.760 2387
1.304 -1.844 1.753 4774
1.307 -1.848 1.747 4774
1.310 -1.852 1.740 4161
1.357 -1.918 1.789 3784
1.360 -1.922 1.783 3312
1.385 -1.958 1.803 3470
1.388 -1.962 1.796 3470
1.391 -1.966 1.790 4811
1.397 -1.975 1.787 6211
1.392 -1.968 1.771 4824
1.372 -1.940 1.738 4247
1.394 -1.971 1.753 4070
1.401 -1.980 1.751 4428
1.407 -1.989 1.748 4346
1.414 -1.998 1.746 4389
1.420 -2.007 1.743 4558
1.419 -2.006 1.732 3439
1.483 -2.096 1.794 3206
1.493 -2.111 1.796 5243
1.500 -2.120 1.792 7439
1.503 -2.124 1.785 8214
1.505 -2.128 1.778 8989
1.512 -2.137 1.774 6366
1.569 -2.218 1.826 7248
1.575 -2.227 1.823 6200
1.582 -2.237 1.819 5341
1.531 -2.164 1.753 3954
1.526 -2.157 1.737 3497
1.548 -2.188 1.750 3556
1.562 -2.208 1.755 4483
1.573 -2.223 1.755 4412
1.583 -2.238 1.755 4773
1.594 -2.253 1.756 3883
1.675 -2.368 1.829 3686
1.678 -2.372 1.820 3338
1.653 -2.337 1.784 3864
1.656 -2.341 1.776 5220
1.663 -2.350 1.771 5464
1.665 -2.354 1.763 5733
1.668 -2.358 1.755 5034
1.687 -2.384 1.762 4826
1.697 -2.400 1.762 3179
1.760 -2.488 1.811 4266
1.763 -2.492 1.802 5294
1.770 -2.502 1.797 4540
1.756 -2.483 1.773 4388
1.832 -2.589 1.833 4315
1.814 -2.565 1.805 3423
1.813 -2.563 1.792 2665
1.812 -2.561 1.779 3074
1.907 -2.696 1.855 3612
1.914 -2.706 1.849 3671
1.913 -2.705 1.836 4372
1.912 -2.703 1.823 5257
1.919 -2.713 1.817 8185
1.926 -2.722 1.811 11718
1.929 -2.726 1.802 12286
1.931 -2.730 1.792 9233
1.942 -2.746 1.790 5717
1.929 -2.727 1.766 5861
1.977 -2.794 1.795 7034
1.988 -2.810 1.792 7846
2.007 -2.837 1.796 8703
2.026 -2.864 1.799 8803
2.025 -2.862 1.786 7994
2.011 -2.843 1.762 6248
2.121 -2.999 1.840 4929
2.133 -3.015 1.836 3858
2.069 -2.925 1.772 4139
2.093 -2.958 1.778 6795
2.104 -2.974 1.774 10860
2.111 -2.983 1.767 10368
