2.564 2.390 1.333 6954
2.572 2.398 1.325 7594
2.646 2.467 1.348 6332
2.643 2.464 1.335 6765
2.651 2.471 1.327 4810
2.764 2.576 1.366 4528
2.755 2.568 1.351 7786
2.758 2.571 1.340 8269
2.782 2.594 1.339 8064
2.807 2.617 1.337 7678
2.821 2.629 1.331 7345
2.812 2.621 1.315 6758
2.804 2.613 1.299 4762
2.867 2.672 1.314 4152
2.914 2.716 1.321 3674
2.900 2.703 1.302 3382
2.880 2.685 1.282 4608
2.894 2.697 1.275 4686
3.007 2.803 1.308 3465
2.987 2.785 1.287 3382
3.007 2.803 1.282 4695
3.020 2.815 1.274 5068
3.112 2.901 1.296 5593
3.126 2.913 1.288 7563
3.139 2.926 1.280 6498
3.158 2.944 1.273 5078
3.194 2.978 1.273 5127
3.191 2.975 1.258 4089
3.227 3.008 1.258 7422
3.230 3.010 1.245 9007
3.232 3.013 1.232 5016
3.234 3.015 1.219 5518
3.237 3.017 1.207 5802
3.312 3.087 1.218 4475
3.382 3.152 1.227 4492
3.395 3.165 1.217 5008
3.415 3.183 1.209 5045
3.417 3.185 1.196 5187
3.419 3.187 1.182 4052
3.444 3.210 1.176 5384
3.452 3.218 1.164 5092
3.460 3.225 1.152 3640
3.462 3.227 1.138 3642
3.470 3.234 1.126 2646
3.489 3.252 1.117 2178
3.729 3.476 1.170 2679
3.743 3.489 1.158 3199
3.682 3.433 1.127 2767
3.764 3.509 1.133 4135
3.766 3.511 1.119 6292
3.757 3.502 1.101 5791
3.645 3.398 1.057 4933
3.647 3.400 1.043 4595
3.643 3.396 1.027 3908
3.651 3.403 1.014 4212
3.647 3.399 0.998 5035
3.654 3.406 0.985 5242
4.107 3.829 1.074 4131
4.098 3.820 1.055 3451
4.168 3.886 1.054 3548
4.176 3.893 1.039 4259
4.184 3.900 1.024 3273
4.254 3.966 1.022 2120
4.331 4.037 1.020 2518
4.332 4.039 1.003 2695
4.311 4.019 0.981 2394
4.462 4.159 0.993 2108
4.584 4.273 0.998 2340
4.684 4.366 0.998 3461
4.686 4.368 0.980 4539
4.699 4.380 0.963 5079
4.712 4.392 0.947 6057
4.725 4.405 0.930 4540
4.739 4.417 0.913 2657
5.079 4.735 0.949 2086
5.087 4.742 0.930 3028
5.083 4.738 0.909 3884
5.084 4.740 0.888 4659
5.086 4.741 0.868 4411
5.082 4.737 0.847 2874
5.389 5.023 0.869 2164
5.385 5.019 0.847 2010
5.784 5.391 0.877 2071
5.785 5.393 0.854 2583
5.781 5.389 0.830 2329
5.759 5.369 0.804 2007
6.223 5.800 0.833 2281
6.224 5.802 0.809 3353
6.225 5.803 0.784 4151
6.227 5.804 0.759 4166
6.234 5.811 0.735 3832
6.582 6.135 0.742 2795
6.583 6.136 0.716 3387
6.578 6.132 0.690 2957
6.580 6.133 0.664 2058
6.685 6.231 0.645 1408
6.668 6.216 0.618 1030
6.635 6.185 0.589 849
6.630 6.180 0.562 590
6.897 6.429 0.552 415
6.961 6.489 0.528 291
1.545 1.435 1.611 4696
1.548 1.438 1.605 9392
1.551 1.441 1.599 9392
1.554 1.444 1.593 8552
1.557 1.447 1.587 7713
1.527 1.419 1.549 7562
1.520 1.413 1.534 8256
1.528 1.420 1.533 6393
1.555 1.445 1.549 4885
1.558 1.448 1.543 4885
1.571 1.460 1.546 4897
1.578 1.467 1.544 5155
1.596 1.483 1.552 5926
1.604 1.490 1.550 7172
1.665 1.547 1.596 7835
1.668 1.550 1.589 8526
1.671 1.553 1.583 6571
1.616 1.502 1.525 5336
1.672 1.554 1.565 4236
1.700 1.580 1.580 3840
1.708 1.587 1.578 4204
1.716 1.595 1.575 4354
1.724 1.602 1.573 4773
1.722 1.600 1.562 5170
1.725 1.603 1.555 5712
1.723 1.601 1.544 5430
1.756 1.632 1.562 5354
1.779 1.653 1.572 6225
1.782 1.656 1.565 7472
1.795 1.668 1.566 8758
1.793 1.666 1.555 10667
1.796 1.669 1.548 11264
1.794 1.667 1.537 8956
1.787 1.660 1.522 7153
1.790 1.663 1.515 5280
1.768 1.643 1.488 3547
1.801 1.673 1.505 4792
1.809 1.681 1.502 6587
1.817 1.688 1.499 8765
1.825 1.696 1.496 12353
1.822 1.694 1.485 13540
1.841 1.710 1.489 14016
1.848 1.718 1.486 15325
1.856 1.725 1.482 11220
1.880 1.747 1.490 6687
1.893 1.759 1.490 6222
1.896 1.762 1.483 4704
1.873 1.741 1.457 3620
1.896 1.762 1.464 4732
1.915 1.779 1.468 6459
1.928 1.791 1.467 8036
1.931 1.794 1.460 7081
1.975 1.835 1.481 5420
1.988 1.847 1.481 5634
2.006 1.865 1.483 6094
2.025 1.882 1.486 7528
2.033 1.889 1.482 9862
2.031 1.887 1.470 12313
2.039 1.894 1.466 12120
2.047 1.902 1.461 12099
2.055 1.909 1.457 12355
2.063 1.917 1.452 9715
2.071 1.924 1.447 7087
2.137 1.986 1.480 6604
2.134 1.983 1.468 7519
2.127 1.976 1.453 8461
2.124 1.974 1.441 10119
2.132 1.981 1.436 11421
2.198 2.043 1.467 12030
2.201 2.045 1.458 14791
2.204 2.048 1.450 18023
2.212 2.056 1.444 21877
2.215 2.058 1.436 26778
2.218 2.061 1.427 24197
2.220 2.063 1.418 16247
2.223 2.066 1.410 12594
2.268 2.108 1.426 11431
2.282 2.121 1.423 11133
2.295 2.133 1.420 11195
2.293 2.131 1.408 7813
2.328 2.163 1.417 6341
2.330 2.166 1.408 5778
2.338 2.173 1.402 5962
2.395 2.226 1.422 7114
2.349 2.183 1.386 8471
2.357 2.191 1.380 10788
2.360 2.193 1.371 9482
2.368 2.201 1.364 5168
2.398 2.228 1.369 4498
2.406 2.236 1.363 4672
2.419 2.248 1.359 3599
2.492 2.316 1.385 3054
2.495 2.319 1.375 3894
2.498 2.321 1.366 4835
2.549 2.369 1.380 7316
2.552 2.372 1.370 10006
2.555 2.374 1.360 7218
2.590 2.407 1.366 4459
2.582 2.399 1.350 5051
2.568 2.386 1.333 7576
2.576 2.394 1.325 8006
2.595 2.411 1.323 6255
2.641 2.455 1.333 5971
2.655 2.467 1.327 4795
2.762 2.567 1.364 4157
2.759 2.564 1.351 7828
2.773 2.577 1.345 8562
2.781 2.584 1.336 9294
2.811 2.612 1.337 7597
2.825 2.625 1.331 7217
2.827 2.627 1.320 6506
2.869 2.666 1.325 4784
2.871 2.668 1.314 4335
2.924 2.717 1.323 4855
2.926 2.719 1.311 4282
2.929 2.722 1.300 4310
2.937 2.729 1.291 4859
2.978 2.768 1.294 3564
2.992 2.780 1.287 3946
3.005 2.793 1.280 4840
3.097 2.878 1.302 4669
3.111 2.891 1.294 5116
3.130 2.909 1.288 7388
3.144 2.921 1.280 6979
3.169 2.944 1.275 5880
3.199 2.973 1.273 5346
3.218 2.991 1.266 5020
3.232 3.003 1.258 7373
3.229 3.000 1.243 9347
3.237 3.008 1.232 6353
3.239 3.010 1.219 6116
3.247 3.017 1.208 6636
3.317 3.082 1.218 5217
3.381 3.142 1.225 4509
3.389 3.149 1.214 4820
3.420 3.178 1.209 3445
3.422 3.180 1.196 4079
3.435 3.192 1.186 3903
3.443 3.200 1.174 5265
3.457 3.212 1.164 4834
3.465 3.220 1.152 3620
3.467 3.222 1.138 3559
3.520 3.271 1.139 2456
3.522 3.273 1.125 1860
3.740 3.476 1.172 2892
3.748 3.483 1.158 3195
3.762 3.496 1.147 2521
3.769 3.503 1.133 4243
3.772 3.505 1.119 6201
3.762 3.496 1.101 5672
3.650 3.392 1.057 4322
3.646 3.389 1.041 4135
3.648 3.390 1.027 3684
3.656 3.397 1.014 4631
3.652 3.394 0.998 6036
3.660 3.401 0.985 6010
3.661 3.403 0.970 4249
4.104 3.814 1.055 2999
4.174 3.879 1.054 3268
4.182 3.886 1.039 3856
4.195 3.899 1.025 3147
4.260 3.959 1.022 2011
4.337 4.030 1.020 2719
4.339 4.032 1.003 2581
4.455 4.140 1.009 2065
4.469 4.153 0.993 2051
4.591 4.266 0.998 2238
4.691 4.359 0.998 3362
4.698 4.366 0.981 4500
4.711 4.378 0.964 5062
4.725 4.391 0.948 6141
4.732 4.398 0.930 4540
4.745 4.410 0.913 2525
5.110 4.748 0.953 2055
5.088 4.729 0.929 3038
5.084 4.725 0.908 3914
5.086 4.726 0.888 4618
5.093 4.733 0.868 4331
5.089 4.729 0.847 2756
5.396 5.015 0.869 2277
5.392 5.011 0.847 2078
5.792 5.383 0.877 2141
5.794 5.384 0.854 2669
5.789 5.380 0.830 2393
5.999 5.575 0.831 1976
6.237 5.796 0.834 2347
6.233 5.792 0.809 3458
6.234 5.794 0.784 4278
6.236 5.795 0.759 4210
6.243 5.801 0.735 3848
6.238 5.797 0.710 2794
6.592 6.126 0.716 3272
6.588 6.122 0.690 2980
6.589 6.123 0.664 2224
6.694 6.221 0.645 1331
6.678 6.206 0.618 1000
6.644 6.174 0.589 782
6.639 6.170 0.562 527
6.971 6.478 0.556 412
6.971 6.478 0.528 305
1.549 1.430 1.611 4639
1.553 1.433 1.605 9279
1.556 1.436 1.599 9279
1.559 1.439 1.593 8413
1.533 1.415 1.560 8543
1.532 1.414 1.549 8542
1.530 1.412 1.539 8964
1.533 1.415 1.533 6863
1.584 1.462 1.572 5840
1.587 1.465 1.566 5840
1.580 1.459 1.551 5511
1.579 1.457 1.540 5237
1.659 1.531 1.604 5419
1.667 1.539 1.602 7415
1.670 1.542 1.596 8092
1.673 1.545 1.589 8769
1.676 1.547 1.583 6853
1.684 1.555 1.580 4936
1.683 1.553 1.570 4673
1.695 1.565 1.572 4429
1.703 1.572 1.569 4595
1.716 1.584 1.571 4382
1.734 1.601 1.577 4453
1.722 1.590 1.558 5723
1.725 1.593 1.551 7108
1.729 1.595 1.544 7169
1.746 1.612 1.550 7469
1.739 1.606 1.535 7480
1.742 1.608 1.528 7748
1.745 1.611 1.521 8265
1.798 1.660 1.555 10251
1.796 1.658 1.544 10654
1.794 1.656 1.533 8335
1.792 1.654 1.522 6625
1.795 1.657 1.515 4847
1.798 1.660 1.508 3069
1.811 1.672 1.509 4073
1.814 1.675 1.502 5216
1.822 1.682 1.499 7483
1.825 1.685 1.492 11563
1.828 1.687 1.485 13204
1.846 1.704 1.489 13908
1.854 1.712 1.486 15582
1.862 1.719 1.482 11534
1.870 1.726 1.479 7220
1.904 1.757 1.494 6615
1.907 1.760 1.486 5199
1.879 1.734 1.457 3943
1.902 1.756 1.464 5167
1.926 1.778 1.471 6905
1.934 1.785 1.467 8645
1.937 1.788 1.460 7331
2.002 1.848 1.495 4366
2.005 1.850 1.488 4560
2.007 1.853 1.480 5354
2.005 1.851 1.469 7012
2.039 1.882 1.482 9077
2.037 1.880 1.470 11607
2.040 1.883 1.462 11592
2.053 1.895 1.461 11707
2.061 1.902 1.457 12084
2.069 1.910 1.452 9772
2.077 1.917 1.447 7288
2.143 1.978 1.480 7222
2.146 1.981 1.471 7605
2.191 2.023 1.489 7872
2.199 2.030 1.484 9358
2.139 1.974 1.436 11489
2.147 1.982 1.431 12956
2.208 2.038 1.458 13820
2.211 2.041 1.450 17535
2.219 2.048 1.444 21896
2.222 2.051 1.436 27077
2.225 2.053 1.427 24484
2.227 2.056 1.418 16522
2.230 2.058 1.410 12673
2.276 2.100 1.426 12666
2.289 2.113 1.423 12689
2.297 2.120 1.417 11949
2.300 2.123 1.408 8997
2.340 2.160 1.420 7290
2.343 2.163 1.411 5962
2.357 2.175 1.408 6570
2.359 2.178 1.398 7547
2.357 2.175 1.386 8005
2.359 2.178 1.377 9646
2.367 2.185 1.371 8559
2.370 2.188 1.362 4623
2.405 2.220 1.369 3949
2.413 2.227 1.363 4439
2.432 2.245 1.362 3721
2.495 2.303 1.382 2992
2.503 2.310 1.375 4193
2.489 2.298 1.357 5746
2.563 2.366 1.383 7257
2.565 2.368 1.373 8923
2.579 2.381 1.368 6553
2.593 2.393 1.363 4780
2.590 2.390 1.350 6173
2.581 2.383 1.335 7686
2.584 2.385 1.325 7898
2.603 2.403 1.323 6502
2.639 2.436 1.328 5450
2.663 2.458 1.327 4521
2.760 2.547 1.359 3925
2.768 2.555 1.351 7437
2.781 2.567 1.345 8661
2.790 2.575 1.336 10462
2.814 2.598 1.335 7282
2.834 2.615 1.331 6563
2.842 2.623 1.322 6252
2.878 2.656 1.325 5433
2.891 2.669 1.318 4520
2.933 2.707 1.323 5879
2.941 2.714 1.314 5512
2.943 2.717 1.302 5093
2.946 2.719 1.291 5351
2.982 2.752 1.292 3988
2.995 2.765 1.285 4483
3.009 2.777 1.277 4642
3.101 2.862 1.300 4053
3.120 2.880 1.294 4401
3.140 2.898 1.288 6583
3.153 2.911 1.280 6758
3.178 2.934 1.275 6295
3.203 2.957 1.271 5249
3.234 2.985 1.268 5953
3.242 2.992 1.258 7117
3.239 2.989 1.243 9611
3.247 2.997 1.232 7801
3.255 3.004 1.221 6730
3.263 3.012 1.210 7391
3.327 3.071 1.218 5873
3.392 3.131 1.225 4273
3.400 3.138 1.214 4645
3.408 3.145 1.202 2597
3.444 3.179 1.199 3021
3.446 3.181 1.186 3551
3.454 3.188 1.174 4560
3.468 3.201 1.164 4139
3.481 3.213 1.153 3549
3.478 3.210 1.138 3351
3.542 3.270 1.142 2971
3.545 3.272 1.129 2815
3.752 3.463 1.172 2925
3.760 3.470 1.158 3095
3.773 3.483 1.147 2476
3.781 3.490 1.133 4392
3.783 3.492 1.119 6310
3.780 3.489 1.102 5541
3.799 3.506 1.092 4675
3.818 3.524 1.081 3892
3.660 3.378 1.027 3709
3.667 3.385 1.014 4996
3.664 3.382 0.998 6586
3.671 3.389 0.985 6292
3.667 3.385 0.969 4260
4.122 3.805 1.057 2689
4.182 3.860 1.053 2925
4.195 3.872 1.039 3265
4.209 3.885 1.025 2883
4.377 4.040 1.043 2103
4.350 4.016 1.020 2979
4.352 4.017 1.003 2647
4.377 4.040 0.990 2086
4.477 4.132 0.992 1939
4.605 4.251 0.998 2166
4.711 4.348 0.999 2877
4.713 4.350 0.981 4044
4.732 4.368 0.965 4848
4.745 4.380 0.949 6168
4.753 4.387 0.931 4435
4.766 4.399 0.914 2303
5.143 4.747 0.955 2323
5.133 4.738 0.933 3127
5.100 4.708 0.908 3796
5.102 4.709 0.888 4395
5.109 4.716 0.868 4151
5.111 4.717 0.848 2633
5.413 4.997 0.869 2367
5.409 4.993 0.847 2135
5.810 5.363 0.877 2278
5.812 5.364 0.854 2810
5.807 5.360 0.830 2468
6.018 5.554 0.831 1976
6.257 5.775 0.834 2170
6.252 5.771 0.809 3189
6.254 5.773 0.784 3944
6.255 5.774 0.759 3866
6.262 5.780 0.735 3583
6.612 6.103 0.742 2750
6.613 6.104 0.716 3273
6.608 6.100 0.690 3046
6.610 6.101 0.664 2358
6.721 6.204 0.646 1157
7.024 6.484 0.641 929
7.025 6.485 0.613 762
7.026 6.485 0.586 455
6.992 6.454 0.556 386
6.999 6.460 0.528 283
1.551 1.428 1.611 4563
1.554 1.431 1.605 9126
1.557 1.434 1.599 9126
1.541 1.420 1.575 8601
1.540 1.418 1.564 9341
1.538 1.416 1.554 9325
1.531 1.410 1.539 9506
1.549 1.426 1.546 7227
1.581 1.456 1.567 6778
1.584 1.459 1.561 6778
1.582 1.457 1.551 5936
1.580 1.455 1.540 5277
1.661 1.529 1.604 5458
1.674 1.541 1.606 7527
1.677 1.544 1.600 8236
1.680 1.547 1.593 8944
1.683 1.550 1.587 7175
1.691 1.557 1.585 5472
1.694 1.560 1.578 5089
1.697 1.563 1.572 4839
1.700 1.566 1.565 4971
1.713 1.578 1.567 4645
1.721 1.585 1.564 4488
1.724 1.588 1.558 6511
1.727 1.591 1.551 8533
1.735 1.598 1.548 8994
1.748 1.610 1.550 9960
1.746 1.608 1.539 9579
1.749 1.611 1.532 9373
1.747 1.609 1.521 9364
1.800 1.658 1.555 9515
1.798 1.656 1.544 9872
1.796 1.654 1.533 7853
1.794 1.652 1.522 6400
1.797 1.655 1.515 4725
1.826 1.681 1.528 3467
1.813 1.670 1.509 3754
1.816 1.673 1.502 4140
1.819 1.675 1.495 6406
1.827 1.683 1.492 10580
1.830 1.685 1.485 12413
1.848 1.702 1.489 13383
1.856 1.709 1.486 15416
1.864 1.717 1.482 11628
1.877 1.729 1.482 7795
1.906 1.755 1.494 7503
1.909 1.758 1.486 6137
1.901 1.751 1.472 4548
1.904 1.754 1.464 5562
1.928 1.775 1.471 7017
1.936 1.783 1.467 8697
1.939 1.785 1.460 7106
2.004 1.845 1.495 4276
2.001 1.843 1.484 4773
1.994 1.836 1.469 5617
2.002 1.844 1.465 7412
2.015 1.856 1.464 8604
2.034 1.873 1.467 10757
2.042 1.880 1.462 10904
2.055 1.893 1.461 11221
2.063 1.900 1.457 11762
2.071 1.908 1.452 10005
2.079 1.915 1.447 7726
2.146 1.976 1.480 8154
2.148 1.978 1.471 8173
2.194 2.020 1.489 7878
2.196 2.023 1.481 9342
2.141 1.972 1.436 11621
2.154 1.984 1.434 13924
2.210 2.036 1.458 12563
2.213 2.038 1.450 16494
2.221 2.046 1.444 21041
2.224 2.048 1.436 26155
2.227 2.051 1.427 23794
2.224 2.048 1.415 16384
2.232 2.056 1.410 12207
2.283 2.103 1.429 13727
2.286 2.105 1.420 13712
2.294 2.113 1.414 12761
2.302 2.120 1.408 10136
2.343 2.157 1.420 8618
2.356 2.170 1.417 7143
2.359 2.172 1.408 7940
2.362 2.175 1.398 8297
2.413 2.222 1.415 8488
2.362 2.175 1.377 8047
2.364 2.177 1.368 7048
2.372 2.185 1.362 3829
2.462 2.267 1.398 4337
2.470 2.275 1.391 4208
2.489 2.292 1.389 3879
2.492 2.295 1.380 3626
2.506 2.307 1.375 4731
2.492 2.295 1.357 6538
2.571 2.368 1.386 7276
2.574 2.370 1.375 7805
2.582 2.378 1.368 6242
2.595 2.390 1.363 5457
2.598 2.393 1.353 6958
2.590 2.385 1.338 7258
2.592 2.387 1.328 7326
2.606 2.400 1.323 6609
2.630 2.422 1.323 5263
2.677 2.465 1.332 4060
2.763 2.544 1.359 3847
2.771 2.552 1.351 6803
2.779 2.559 1.342 8472
2.793 2.572 1.336 11149
2.801 2.579 1.328 7113
2.842 2.617 1.333 5917
2.856 2.630 1.327 6373
2.875 2.648 1.323 5941
2.894 2.665 1.318 4583
2.936 2.704 1.323 6538
2.944 2.711 1.314 6349
2.946 2.713 1.302 5752
2.949 2.716 1.291 5991
2.979 2.744 1.290 4341
2.999 2.761 1.285 4879
3.007 2.769 1.275 4198
3.093 2.849 1.295 3283
3.118 2.872 1.292 3648
3.143 2.895 1.288 5437
3.157 2.907 1.280 6216
3.176 2.925 1.273 6031
3.184 2.932 1.263 4876
3.243 2.986 1.270 5886
3.245 2.989 1.258 6600
3.242 2.986 1.243 9528
3.250 2.993 1.232 8533
3.269 3.011 1.225 7410
3.277 3.018 1.214 8041
3.336 3.072 1.220 6431
3.339 3.075 1.207 4513
3.398 3.129 1.212 4437
3.400 3.131 1.198 2843
3.459 3.185 1.203 2584
3.455 3.182 1.187 3244
3.452 3.179 1.172 3742
3.477 3.202 1.165 3354
3.491 3.214 1.155 3392
3.487 3.211 1.140 3054
3.552 3.271 1.144 3672
3.548 3.268 1.129 3737
3.550 3.270 1.115 3025
3.764 3.466 1.158 3187
3.777 3.479 1.147 2635
3.785 3.486 1.133 4662
3.787 3.488 1.119 6428
3.789 3.490 1.104 5313
3.803 3.502 1.092 4915
3.811 3.509 1.078 4094
3.669 3.379 1.028 3766
3.671 3.381 1.014 5079
3.667 3.377 0.998 6617
3.669 3.379 0.984 6102
3.671 3.381 0.969 3993
4.127 3.800 1.057 2387
4.186 3.855 1.053 2522
3.670 3.380 0.925 2711
3.672 3.382 0.910 2984
4.382 4.035 1.043 2158
4.355 4.010 1.020 3040
4.363 4.018 1.004 2623
4.382 4.035 0.990 2254
4.482 4.127 0.992 1881
4.610 4.246 0.998 2011
4.716 4.343 0.999 2377
4.718 4.345 0.981 3546
4.748 4.373 0.967 4654
4.756 4.380 0.950 6105
4.758 4.381 0.931 4332
4.777 4.399 0.915 2199
5.154 4.747 0.956 2733
5.145 4.738 0.934 3426
5.106 4.702 0.908 3472
5.107 4.703 0.888 4005
5.115 4.710 0.868 3879
5.116 4.712 0.848 2443
5.419 4.990 0.869 2407
5.415 4.987 0.847 2124
5.816 5.356 0.877 2255
5.818 5.358 0.854 2727
5.819 5.359 0.831 2354
5.943 5.473 0.822 2080
5.938 5.469 0.798 1922
6.265 5.769 0.809 2883
6.260 5.765 0.784 3580
6.256 5.761 0.759 3480
6.269 5.773 0.735 3159
6.619 6.095 0.742 2736
6.620 6.096 0.716 3250
6.615 6.092 0.690 3045
6.617 6.093 0.664 2412
6.612 6.089 0.637 1219
7.032 6.475 0.641 953
7.033 6.476 0.613 749
7.028 6.472 0.585 414
6.924 6.376 0.551 350
7.018 6.463 0.529 262
1.556 1.423 1.611 4398
1.559 1.426 1.605 8797
1.562 1.429 1.599 8797
1.542 1.410 1.570 8818
1.545 1.413 1.564 9898
1.548 1.415 1.558 9853
1.541 1.409 1.543 9906
1.563 1.430 1.555 7709
1.586 1.450 1.567 7352
1.589 1.453 1.561 7352
1.592 1.456 1.555 6195
1.585 1.450 1.540 5116
1.671 1.528 1.609 5365
1.679 1.535 1.606 7455
1.682 1.538 1.600 8169
1.685 1.541 1.593 8882
1.688 1.544 1.587 7353
1.696 1.551 1.585 5878
1.700 1.554 1.578 5379
1.703 1.557 1.572 4998
1.706 1.560 1.565 5116
1.714 1.567 1.563 4869
1.722 1.575 1.560 4753
1.725 1.577 1.554 7261
1.728 1.580 1.547 9770
1.741 1.592 1.548 10674
1.754 1.604 1.550 12374
1.752 1.602 1.539 11715
1.755 1.605 1.532 11233
1.753 1.603 1.521 10514
1.806 1.652 1.555 8466
1.799 1.645 1.540 8993
1.797 1.643 1.529 7658
1.800 1.646 1.522 6541
1.808 1.654 1.519 4995
1.826 1.670 1.524 4406
1.839 1.682 1.525 3902
1.873 1.713 1.541 3814
1.825 1.669 1.495 5614
1.833 1.676 1.492 9520
1.836 1.679 1.485 11394
1.854 1.696 1.489 12609
1.862 1.703 1.486 14953
1.870 1.710 1.482 11516
1.883 1.722 1.482 8305
1.912 1.749 1.494 8438
1.915 1.751 1.486 7100
1.938 1.773 1.494 5207
1.910 1.747 1.464 5789
1.934 1.769 1.471 6752
1.942 1.776 1.467 8303
1.945 1.779 1.460 6614
2.000 1.829 1.488 4651
1.997 1.827 1.477 5750
1.995 1.825 1.466 6715
2.003 1.832 1.461 7834
2.011 1.839 1.457 8685
2.030 1.856 1.460 9940
2.054 1.878 1.466 9984
2.062 1.886 1.461 10514
2.070 1.893 1.457 11276
2.078 1.900 1.452 10189
2.139 1.956 1.481 8446
2.147 1.964 1.476 9085
2.155 1.971 1.471 8756
2.190 2.003 1.483 7721
2.129 1.947 1.435 9510
2.196 2.008 1.466 12007
2.161 1.977 1.434 14581
2.217 2.028 1.458 11222
2.220 2.030 1.450 15002
2.228 2.038 1.444 19395
2.231 2.040 1.436 24160
2.234 2.043 1.427 22216
2.231 2.041 1.415 15762
2.288 2.092 1.438 11839
2.291 2.095 1.429 14587
2.293 2.097 1.420 14462
2.302 2.105 1.414 13562
2.310 2.112 1.408 11302
2.350 2.149 1.420 9992
2.358 2.157 1.414 8718
2.361 2.159 1.405 9138
2.369 2.167 1.398 8858
2.421 2.214 1.415 9292
2.434 2.226 1.412 7318
2.437 2.229 1.402 5594
2.451 2.241 1.399 4740
2.464 2.254 1.395 4966
2.473 2.261 1.388 4411
2.492 2.279 1.387 4451
2.500 2.286 1.380 4660
2.503 2.289 1.370 5628
2.500 2.286 1.357 7295
2.579 2.359 1.386 6932
2.587 2.366 1.378 6647
2.590 2.369 1.368 5948
2.604 2.381 1.363 6265
2.612 2.389 1.356 7503
2.609 2.386 1.343 7074
2.606 2.383 1.330 6878
2.620 2.396 1.325 6833
2.639 2.413 1.323 5668
2.691 2.461 1.335 3820
2.771 2.535 1.359 3859
2.774 2.537 1.348 5878
2.793 2.555 1.345 7764
2.796 2.557 1.334 11181
2.804 2.564 1.325 6974
2.851 2.607 1.333 5376
2.870 2.625 1.329 6572
2.879 2.633 1.320 6313
2.881 2.635 1.309 4511
2.945 2.693 1.323 6526
2.953 2.701 1.314 6408
2.956 2.703 1.302 5815
2.953 2.700 1.288 6419
2.961 2.708 1.279 4586
3.008 2.751 1.285 5185
2.999 2.743 1.269 3912
3.092 2.828 1.291 2721
3.094 2.830 1.279 3284
3.147 2.878 1.286 4495
3.161 2.891 1.277 5668
3.175 2.904 1.269 5549
3.183 2.911 1.259 5222
3.253 2.975 1.270 5308
3.256 2.977 1.258 6383
3.252 2.974 1.243 9399
3.260 2.982 1.232 8485
3.286 3.005 1.227 7762
3.299 3.017 1.218 8773
3.341 3.056 1.218 6966
3.349 3.063 1.207 5320
3.414 3.122 1.214 4215
3.411 3.119 1.198 3385
3.476 3.179 1.205 2888
3.466 3.170 1.187 3466
3.457 3.162 1.170 3482
3.517 3.216 1.174 3677
3.507 3.208 1.157 3479
3.567 3.262 1.160 3275
3.569 3.264 1.146 4323
3.565 3.261 1.130 4442
3.562 3.257 1.115 3695
3.781 3.458 1.160 3400
3.789 3.465 1.147 2919
3.797 3.473 1.133 4926
3.799 3.475 1.119 6468
3.801 3.477 1.104 5036
3.821 3.494 1.093 4954
3.823 3.496 1.078 4142
3.681 3.366 1.028 3560
3.677 3.363 1.012 4762
3.679 3.365 0.998 6108
3.681 3.366 0.984 5514
3.683 3.368 0.969 3456
4.140 3.786 1.057 2206
4.199 3.841 1.053 2091
3.682 3.367 0.925 3053
3.678 3.364 0.909 3379
3.680 3.365 0.895 2473
4.369 3.995 1.020 3076
4.376 4.002 1.004 2503
4.396 4.020 0.990 2324
4.496 4.112 0.992 1729
4.625 4.230 0.998 1847
4.731 4.327 0.999 1795
4.739 4.334 0.982 3041
4.769 4.362 0.968 4484
4.771 4.363 0.950 6016
4.779 4.370 0.932 4293
4.792 4.382 0.915 2232
5.171 4.729 0.956 3043
5.167 4.725 0.935 3690
5.163 4.721 0.914 3407
5.129 4.691 0.888 3478
5.131 4.692 0.868 3495
5.133 4.694 0.848 2201
5.442 4.977 0.870 2447
5.432 4.968 0.847 2050
5.835 5.336 0.877 2206
5.836 5.338 0.854 2613
5.838 5.339 0.831 2227
5.962 5.452 0.822 2122
5.963 5.453 0.798 1969
6.285 5.748 0.809 2377
6.275 5.738 0.783 2983
6.270 5.734 0.758 2900
6.277 5.741 0.734 2577
6.634 6.067 0.742 2672
6.641 6.073 0.716 3139
6.637 6.069 0.690 3003
6.638 6.070 0.664 2451
6.633 6.066 0.637 1299
7.048 6.446 0.641 969
7.043 6.441 0.612 711
7.015 6.416 0.583 426
6.940 6.347 0.551 328
1.560 1.419 1.611 4250
1.563 1.422 1.605 8501
1.566 1.425 1.599 8501
1.550 1.410 1.575 9015
1.548 1.409 1.564 10291
1.551 1.411 1.558 10287
1.554 1.414 1.552 10283
1.572 1.430 1.560 8161
1.590 1.446 1.567 7662
1.593 1.449 1.561 7662
1.596 1.452 1.555 6318
1.599 1.454 1.549 4974
1.675 1.524 1.609 5221
1.683 1.531 1.606 7306
1.686 1.534 1.600 8017
1.689 1.537 1.593 8729
1.692 1.540 1.587 7456
1.696 1.543 1.580 6183
1.704 1.550 1.578 5485
1.707 1.553 1.572 4928
1.715 1.560 1.569 5062
1.718 1.563 1.563 5080
1.721 1.566 1.556 5098
1.729 1.573 1.554 7975
1.732 1.576 1.547 10886
1.745 1.588 1.548 12296
1.758 1.599 1.550 14823
1.761 1.602 1.543 13956
1.759 1.600 1.532 13176
1.762 1.603 1.526 11830
1.770 1.610 1.523 8455
1.798 1.636 1.536 8309
1.801 1.639 1.529 7637
1.804 1.641 1.522 6973
1.823 1.658 1.527 5799
1.831 1.665 1.524 5622
1.844 1.677 1.525 4663
1.857 1.689 1.525 4054
1.824 1.660 1.491 5170
1.832 1.667 1.488 8367
1.840 1.674 1.485 10144
1.859 1.691 1.489 11581
1.867 1.698 1.486 14194
1.880 1.710 1.486 11221
1.888 1.717 1.482 8653
1.917 1.744 1.494 9324
1.919 1.746 1.486 7975
1.938 1.763 1.490 5870
1.915 1.742 1.464 5841
1.944 1.768 1.475 6245
1.952 1.776 1.471 7652
1.955 1.778 1.464 6026
1.999 1.819 1.485 5101
1.997 1.817 1.473 6852
2.000 1.819 1.466 7806
2.008 1.827 1.461 8237
2.016 1.834 1.457 8773
2.029 1.846 1.456 9191
2.059 1.873 1.466 8937
2.072 1.885 1.465 9510
2.080 1.892 1.460 10557
2.083 1.895 1.452 10223
2.139 1.946 1.478 9972
2.152 1.958 1.476 9989
2.160 1.965 1.471 9317
2.158 1.963 1.460 8206
2.198 2.000 1.474 10038
2.196 1.997 1.463 12969
2.166 1.971 1.434 14791
2.223 2.022 1.458 10303
2.225 2.025 1.450 13343
2.234 2.032 1.444 17135
2.236 2.035 1.436 21221
2.239 2.037 1.427 19773
2.237 2.035 1.415 14578
2.299 2.091 1.441 12282
2.296 2.089 1.429 15092
2.299 2.091 1.420 14746
2.307 2.099 1.414 14009
2.315 2.106 1.408 12358
2.356 2.143 1.420 11381
2.364 2.151 1.414 10290
2.367 2.153 1.405 10346
2.375 2.161 1.398 9103
2.427 2.208 1.415 9877
2.446 2.225 1.415 8081
2.448 2.228 1.405 6591
2.451 2.230 1.396 6081
2.465 2.242 1.392 5622
2.473 2.250 1.385 4925
2.498 2.272 1.387 5211
2.506 2.280 1.380 5934
2.514 2.287 1.373 6907
2.506 2.280 1.357 7929
2.503 2.277 1.345 7210
2.593 2.359 1.378 5651
2.535 2.307 1.339 5962
2.615 2.379 1.366 6992
2.624 2.387 1.358 8025
2.626 2.389 1.348 7128
2.618 2.381 1.333 6683
2.631 2.394 1.328 7228
2.645 2.406 1.323 6384
2.703 2.459 1.337 3527
2.778 2.527 1.359 3954
2.781 2.530 1.348 4965
2.800 2.547 1.345 6877
2.803 2.550 1.334 10657
2.799 2.547 1.320 7056
2.858 2.600 1.333 5171
2.872 2.613 1.327 6917
2.880 2.620 1.318 6622
2.854 2.597 1.295 5358
2.952 2.686 1.323 6083
2.960 2.693 1.314 5972
2.963 2.695 1.302 5552
2.954 2.688 1.286 7139
2.962 2.695 1.277 5363
3.015 2.743 1.285 5368
3.012 2.740 1.271 4025
2.998 2.727 1.253 2762
3.096 2.817 1.277 3253
3.149 2.865 1.284 3714
3.163 2.878 1.275 5331
3.177 2.890 1.267 5300
3.185 2.898 1.257 5322
3.199 2.910 1.248 5203
3.263 2.969 1.258 6008
3.260 2.966 1.243 8794
3.263 2.968 1.230 8264
3.305 3.006 1.231 7725
3.313 3.014 1.220 9187
3.349 3.047 1.218 7411
3.357 3.054 1.207 6004
3.411 3.103 1.210 4208
3.419 3.110 1.198 3744
3.427 3.118 1.187 3461
3.480 3.166 1.189 3888
3.460 3.148 1.169 3318
3.525 3.207 1.174 4167
3.521 3.204 1.159 3544
3.575 3.253 1.160 3390
3.577 3.255 1.146 4800
3.574 3.251 1.130 4906
3.570 3.248 1.115 4061
3.796 3.454 1.162 3804
3.804 3.461 1.148 3300
3.806 3.463 1.133 5015
3.808 3.465 1.119 6166
3.816 3.472 1.105 4525
3.836 3.489 1.095 4700
3.832 3.486 1.078 3944
3.690 3.357 1.028 3164
3.686 3.353 1.012 4105
3.688 3.355 0.998 5164
3.690 3.357 0.984 4605
3.691 3.358 0.969 2780
4.150 3.775 1.057 2062
3.689 3.356 0.939 2234
3.685 3.353 0.923 3436
3.687 3.354 0.909 3771
3.688 3.356 0.895 2946
4.373 3.979 1.019 2865
4.398 4.002 1.007 2463
4.406 4.009 0.990 2432
4.605 4.190 1.011 1882
4.450 4.049 0.964 1738
4.754 4.325 1.001 1302
4.756 4.327 0.983 2469
4.781 4.349 0.968 4254
4.782 4.351 0.950 5821
4.790 4.358 0.932 4380
4.798 4.365 0.914 2445
5.189 4.721 0.957 3142
5.185 4.717 0.936 3752
5.186 4.718 0.916 3447
5.188 4.720 0.895 3091
5.149 4.684 0.869 3001
5.459 4.967 0.892 1987
5.455 4.963 0.870 2486
5.678 5.166 0.877 1988
5.843 5.316 0.876 2227
5.850 5.322 0.854 2531
5.852 5.324 0.831 2078
5.976 5.437 0.822 2099
5.977 5.438 0.798 1985
5.979 5.439 0.775 1836
6.278 5.711 0.782 2406
6.484 5.899 0.778 2553
6.485 5.900 0.752 2359
6.650 6.050 0.742 2333
6.657 6.056 0.716 2687
6.652 6.052 0.690 2658
6.653 6.053 0.664 2307
6.649 6.049 0.637 1343
7.047 6.411 0.639 1053
7.037 6.402 0.611 858
7.026 6.392 0.583 578
7.033 6.398 0.555 391
7.051 6.415 0.529 274
1.562 1.416 1.611 4090
1.565 1.419 1.605 8180
1.569 1.422 1.599 8180
1.552 1.407 1.575 9040
1.551 1.406 1.564 10306
1.559 1.413 1.563 10309
1.562 1.416 1.557 10325
1.579 1.432 1.564 8231
1.592 1.443 1.567 7512
1.595 1.446 1.561 7512
1.603 1.453 1.559 6113
1.645 1.491 1.589 4774
1.678 1.521 1.609 5060
1.686 1.528 1.606 7126
1.689 1.531 1.600 7835
1.692 1.534 1.593 8544
1.695 1.537 1.587 7495
1.698 1.540 1.580 6446
1.706 1.547 1.578 5434
1.714 1.554 1.576 4751
1.717 1.557 1.569 4894
1.720 1.560 1.563 5236
1.699 1.540 1.535 5852
1.727 1.565 1.549 8567
1.735 1.573 1.547 11657
1.748 1.584 1.548 13579
1.756 1.592 1.546 16891
1.764 1.599 1.543 15897
1.767 1.602 1.536 14908
1.765 1.600 1.526 12866
1.773 1.607 1.523 8885
1.791 1.624 1.528 8001
1.804 1.636 1.529 7667
1.812 1.643 1.526 7580
1.825 1.655 1.527 6847
1.839 1.667 1.528 6916
1.847 1.674 1.525 5650
1.860 1.686 1.525 4793
1.827 1.656 1.491 4837
1.835 1.664 1.488 7191
1.843 1.671 1.485 8615
1.861 1.688 1.489 10235
1.869 1.695 1.486 12976
1.883 1.707 1.486 10610
1.896 1.719 1.486 8651
1.920 1.740 1.494 9918
1.928 1.748 1.490 8611
1.941 1.760 1.490 6386
1.913 1.734 1.460 5591
1.947 1.765 1.475 5522
1.955 1.772 1.471 6670
1.963 1.780 1.467 5485
1.981 1.796 1.470 5489
2.000 1.813 1.473 7539
2.003 1.816 1.466 8369
2.011 1.823 1.461 8207
2.019 1.831 1.457 8518
2.033 1.843 1.456 8310
2.067 1.874 1.469 7839
2.091 1.896 1.475 8356
2.089 1.894 1.464 9625
2.086 1.891 1.452 9945
2.142 1.942 1.478 11267
2.150 1.949 1.473 10870
2.158 1.957 1.468 9864
2.167 1.964 1.463 9309
2.196 1.991 1.471 11060
2.194 1.989 1.459 14113
2.175 1.972 1.438 14837
2.221 2.013 1.455 10256
2.234 2.026 1.453 12118
2.243 2.033 1.448 14778
2.245 2.036 1.439 17853
2.243 2.033 1.427 16696
2.246 2.036 1.418 12922
2.302 2.087 1.441 12517
2.300 2.085 1.429 15126
2.302 2.087 1.420 14411
2.305 2.090 1.411 13767
2.324 2.107 1.411 12627
2.365 2.144 1.423 12593
2.368 2.147 1.414 11601
2.370 2.149 1.405 11129
2.384 2.161 1.401 8994
2.430 2.203 1.415 10119
2.450 2.221 1.415 8892
2.452 2.223 1.405 7929
2.455 2.226 1.396 7618
2.463 2.233 1.389 6367
2.477 2.246 1.385 5799
2.496 2.263 1.384 6216
2.510 2.275 1.380 7182
2.518 2.283 1.373 8235
2.515 2.280 1.360 8332
2.512 2.278 1.348 7242
2.531 2.295 1.346 5957
2.622 2.377 1.379 6199
2.625 2.380 1.369 7633
2.644 2.397 1.366 8718
2.641 2.395 1.353 7790
2.627 2.382 1.335 6834
2.641 2.394 1.330 7706
2.649 2.402 1.323 7141
2.652 2.404 1.312 3596
2.788 2.528 1.361 4221
2.785 2.525 1.348 4226
2.804 2.542 1.345 5941
2.807 2.545 1.334 9575
2.804 2.542 1.320 6918
2.840 2.575 1.324 5225
2.871 2.602 1.324 7149
2.873 2.605 1.313 6752
2.864 2.597 1.298 6136
2.957 2.681 1.323 5472
2.965 2.688 1.314 5290
2.951 2.675 1.295 5430
2.953 2.677 1.284 8001
2.961 2.685 1.275 6061
3.026 2.743 1.287 5282
3.023 2.740 1.273 4418
3.019 2.737 1.259 2979
3.107 2.816 1.279 3161
3.143 2.849 1.279 3294
3.162 2.867 1.273 4968
3.176 2.880 1.265 4847
3.201 2.902 1.261 5228
3.215 2.915 1.252 6546
3.246 2.943 1.250 6448
3.260 2.955 1.241 7934
3.256 2.952 1.226 8080
3.316 3.006 1.233 7440
3.318 3.008 1.220 9083
3.354 3.041 1.218 7479
3.362 3.048 1.207 6303
3.422 3.102 1.212 4374
3.424 3.104 1.198 3812
3.489 3.163 1.205 3932
3.486 3.160 1.189 4039
3.528 3.199 1.188 3384
3.525 3.196 1.172 4429
3.527 3.198 1.159 3425
3.581 3.246 1.160 3378
3.583 3.248 1.146 4828
3.579 3.245 1.130 4798
3.576 3.242 1.115 3974
3.802 3.447 1.162 3976
3.568 3.235 1.084 4004
3.812 3.456 1.133 4818
3.814 3.458 1.119 5517
3.822 3.465 1.105 3839
3.928 3.561 1.116 4676
3.936 3.568 1.103 3960
3.973 3.602 1.096 2950
3.692 3.347 1.012 3194
3.694 3.349 0.998 3926
3.690 3.345 0.982 3532
4.114 3.730 1.064 2536
4.191 3.800 1.064 2161
3.695 3.350 0.939 2622
3.691 3.346 0.923 3677
3.693 3.348 0.909 3853
3.688 3.344 0.893 3136
3.690 3.345 0.879 2567
4.411 3.999 1.008 2398
4.413 4.001 0.990 2352
4.606 4.176 1.010 2430
4.620 4.189 0.994 1715
4.790 4.343 1.007 1344
4.763 4.318 0.983 2013
4.794 4.346 0.969 4006
4.796 4.348 0.951 5522
4.798 4.349 0.932 4330
4.799 4.351 0.913 2630
5.197 4.712 0.957 3154
5.193 4.708 0.936 3699
5.200 4.715 0.916 3463
5.202 4.716 0.896 3060
5.163 4.681 0.870 2441
5.468 4.957 0.892 2129
5.668 5.139 0.897 2647
5.687 5.156 0.877 2231
5.846 5.300 0.875 2277
5.854 5.307 0.853 2411
5.861 5.314 0.831 1876
5.681 5.151 0.787 1967
5.683 5.152 0.765 2053
5.994 5.434 0.776 1816
6.492 5.886 0.803 2320
6.500 5.893 0.778 2780
6.489 5.883 0.752 2543
6.660 6.038 0.742 1966
6.667 6.045 0.716 2208
6.663 6.041 0.690 2270
6.664 6.042 0.664 2068
6.659 6.037 0.637 1271
7.053 6.394 0.639 1153
7.042 6.384 0.611 998
7.037 6.380 0.583 703
7.044 6.386 0.555 490
7.056 6.397 0.528 340
1.561 1.408 1.607 3886
1.564 1.410 1.601 7773
1.568 1.413 1.595 7773
1.556 1.403 1.575 8864
1.559 1.406 1.569 10191
1.563 1.409 1.563 10133
1.571 1.416 1.561 10080
1.583 1.427 1.564 7946
1.601 1.443 1.572 7003
1.604 1.446 1.566 7003
1.607 1.449 1.559 5682
1.649 1.487 1.589 4660
1.618 1.459 1.552 4893
1.690 1.523 1.606 6842
1.693 1.526 1.600 7552
1.701 1.534 1.598 8273
1.699 1.532 1.587 7399
1.702 1.535 1.580 6537
1.706 1.538 1.574 5402
1.719 1.549 1.576 4529
1.727 1.557 1.573 4769
1.715 1.546 1.554 5602
1.708 1.540 1.539 7088
1.726 1.556 1.545 9237
1.739 1.568 1.547 12145
1.752 1.580 1.548 14522
1.760 1.587 1.546 18561
1.768 1.594 1.543 17419
1.771 1.597 1.536 16357
1.774 1.600 1.530 13724
1.777 1.602 1.523 9344
1.790 1.614 1.524 8163
1.804 1.626 1.525 7694
1.822 1.642 1.530 8215
1.835 1.654 1.531 7795
1.843 1.662 1.528 8100
1.851 1.669 1.525 6668
1.859 1.676 1.521 5648
1.832 1.651 1.491 4597
1.840 1.659 1.488 6123
1.848 1.666 1.485 7091
1.871 1.687 1.493 8896
1.879 1.694 1.489 11625
1.887 1.702 1.486 9779
1.921 1.732 1.501 8630
1.924 1.735 1.494 10241
1.938 1.747 1.494 9113
1.946 1.754 1.490 6817
1.949 1.757 1.482 5452
1.957 1.764 1.479 4885
1.965 1.772 1.475 5835
1.973 1.779 1.471 5154
1.986 1.791 1.470 5776
2.000 1.803 1.470 7732
2.003 1.806 1.462 8451
2.016 1.818 1.461 7956
2.024 1.825 1.457 8300
2.038 1.837 1.456 7819
2.072 1.868 1.469 6964
2.117 1.909 1.489 7932
2.110 1.902 1.474 9024
2.134 1.924 1.479 9980
2.142 1.931 1.474 12078
2.156 1.943 1.473 11480
2.164 1.951 1.468 10442
2.177 1.963 1.466 10842
2.196 1.980 1.468 12498
2.199 1.983 1.459 15349
2.197 1.980 1.447 15143
2.221 2.002 1.452 10841
2.240 2.019 1.453 11372
2.248 2.027 1.448 12954
2.251 2.029 1.439 14940
2.248 2.027 1.427 13588
2.251 2.030 1.418 11236
2.308 2.081 1.441 12210
2.311 2.083 1.432 14524
2.308 2.081 1.420 13397
2.316 2.088 1.414 12827
2.330 2.101 1.411 12234
2.371 2.137 1.423 13373
2.374 2.140 1.414 12624
2.371 2.138 1.402 11667
2.412 2.174 1.413 8861
2.437 2.197 1.415 9706
2.450 2.209 1.412 9492
2.453 2.212 1.402 9582
2.456 2.214 1.393 9434
2.464 2.221 1.386 7337
2.489 2.244 1.388 7149
2.497 2.251 1.381 7600
2.516 2.268 1.380 8296
2.524 2.276 1.373 9302
2.521 2.273 1.360 8620
2.519 2.271 1.348 7443
2.538 2.288 1.346 6512
2.635 2.375 1.381 6324
2.643 2.383 1.374 8173
2.651 2.390 1.366 9365
2.648 2.387 1.353 8534
2.640 2.380 1.338 7509
2.648 2.387 1.330 8185
2.656 2.394 1.323 7639
2.781 2.507 1.367 4317
2.795 2.520 1.361 4562
2.809 2.532 1.356 3783
2.817 2.540 1.347 5079
2.808 2.532 1.331 8227
2.811 2.534 1.320 6534
2.847 2.567 1.324 5693
2.867 2.584 1.320 7501
2.864 2.582 1.306 6982
2.877 2.594 1.300 6529
2.891 2.606 1.293 6210
2.950 2.659 1.305 5091
2.952 2.662 1.293 6176
2.955 2.664 1.282 8764
2.969 2.676 1.275 6460
3.033 2.735 1.287 5143
3.041 2.742 1.277 4990
3.061 2.760 1.272 3965
3.114 2.808 1.279 2990
3.128 2.820 1.271 3287
3.159 2.848 1.269 4665
3.213 2.896 1.275 4432
3.221 2.904 1.265 5773
3.229 2.911 1.254 8286
3.243 2.923 1.246 7584
3.262 2.941 1.239 7225
3.259 2.938 1.224 8134
3.330 3.002 1.235 6956
3.332 3.004 1.222 8529
3.363 3.032 1.218 7170
3.365 3.034 1.205 6332
3.436 3.098 1.214 4742
3.433 3.095 1.198 3638
3.498 3.154 1.205 4116
3.495 3.151 1.189 3931
3.537 3.189 1.188 3804
3.534 3.186 1.172 4584
3.536 3.188 1.159 3302
3.590 3.236 1.160 3400
3.586 3.233 1.144 4697
3.588 3.235 1.130 4746
3.585 3.232 1.115 3932
3.581 3.229 1.099 4260
3.577 3.225 1.084 4981
3.828 3.451 1.135 4498
3.824 3.447 1.119 4727
3.919 3.533 1.127 4048
3.938 3.550 1.116 4894
3.946 3.557 1.103 4317
3.994 3.601 1.098 3095
3.991 3.598 1.081 2600
3.697 3.333 0.997 2736
4.110 3.706 1.077 3231
4.118 3.713 1.062 3176
4.196 3.783 1.063 2817
3.704 3.340 0.939 2873
3.700 3.336 0.923 3746
3.696 3.332 0.908 3850
3.698 3.334 0.893 3240
3.699 3.335 0.879 2709
4.440 4.003 1.011 2652
4.424 3.989 0.990 2329
4.618 4.163 1.010 3021
4.620 4.165 0.992 2404
4.802 4.330 1.007 1480
4.810 4.337 0.989 1955
4.812 4.338 0.970 3825
4.808 4.335 0.951 5253
4.810 4.336 0.932 4274
4.811 4.338 0.913 2815
5.210 4.697 0.957 3048
5.212 4.699 0.937 3582
5.214 4.700 0.916 3488
5.215 4.702 0.896 3039
5.182 4.672 0.871 1883
5.669 5.111 0.918 2287
5.682 5.123 0.897 2928
5.707 5.145 0.878 2354
5.849 5.273 0.874 2563
5.857 5.280 0.851 2556
5.852 5.276 0.828 1950
5.696 5.135 0.787 2111
5.691 5.131 0.764 2249
6.009 5.417 0.776 1642
6.515 5.873 0.804 2477
6.516 5.874 0.778 2964
6.506 5.865 0.752 2659
6.495 5.856 0.725 1706
6.684 6.026 0.716 1713
6.680 6.022 0.690 1825
6.681 6.023 0.664 1745
6.746 6.082 0.642 1202
7.065 6.369 0.639 1202
7.060 6.365 0.611 1066
7.055 6.360 0.583 799
7.068 6.372 0.556 611
7.074 6.378 0.528 433
0.865 0.780 0.156 253
0.859 0.775 0.152 259
0.865 0.780 0.149 250
1.565 1.404 1.607 3673
1.568 1.406 1.601 7347
1.571 1.409 1.595 7347
1.565 1.404 1.579 8594
1.563 1.402 1.569 9921
1.566 1.405 1.563 9724
1.574 1.412 1.561 9621
1.587 1.423 1.564 7365
1.605 1.439 1.572 6240
1.608 1.442 1.566 6240
1.611 1.445 1.559 5090
1.648 1.478 1.584 4435
1.622 1.455 1.552 4829
1.694 1.519 1.606 6475
1.697 1.522 1.600 7192
1.705 1.529 1.598 7970
1.703 1.528 1.587 7180
1.706 1.531 1.580 6452
1.710 1.533 1.574 5542
1.713 1.536 1.567 4831
1.721 1.543 1.565 5090
1.714 1.537 1.550 6619
1.712 1.535 1.539 8655
1.720 1.543 1.537 10225
1.738 1.559 1.543 12532
1.756 1.575 1.548 15133
1.764 1.582 1.546 19730
1.772 1.590 1.543 18400
1.775 1.592 1.536 17296
1.778 1.595 1.530 14354
1.781 1.598 1.523 9798
1.789 1.605 1.520 8553
1.808 1.621 1.525 7722
1.826 1.638 1.530 8785
1.839 1.650 1.531 8593
1.847 1.657 1.528 9064
1.856 1.664 1.525 7594
1.864 1.672 1.521 6508
1.867 1.674 1.514 5013
1.844 1.654 1.488 5148
1.852 1.661 1.485 5564
1.876 1.682 1.493 7553
1.884 1.690 1.489 10083
1.892 1.697 1.486 8765
1.926 1.727 1.501 8642
1.934 1.735 1.497 10366
1.942 1.742 1.494 9419
1.950 1.749 1.490 7115
1.958 1.757 1.486 5453
1.967 1.764 1.482 4405
1.970 1.767 1.475 5053
1.978 1.774 1.471 4745
1.991 1.786 1.470 5677
1.999 1.793 1.466 7485
2.007 1.800 1.462 8201
2.021 1.813 1.461 7549
2.034 1.825 1.461 8094
2.048 1.837 1.460 7829
2.130 1.910 1.504 7213
2.138 1.918 1.499 8341
2.125 1.906 1.481 9027
2.139 1.918 1.479 10507
2.147 1.926 1.474 12371
2.155 1.933 1.470 11747
2.174 1.950 1.471 10809
2.188 1.962 1.470 12723
2.201 1.975 1.468 14001
2.199 1.972 1.456 16140
2.202 1.975 1.447 15283
2.226 1.997 1.452 11588
2.245 2.014 1.453 11186
2.253 2.021 1.448 11906
2.262 2.029 1.442 12724
2.259 2.026 1.430 10930
2.256 2.024 1.418 9704
2.313 2.075 1.441 11483
2.316 2.077 1.432 13456
2.319 2.080 1.423 11947
2.322 2.082 1.414 11254
2.352 2.109 1.420 11308
2.376 2.131 1.423 13660
2.379 2.134 1.414 13224
2.376 2.132 1.402 11874
2.417 2.168 1.413 8885
2.442 2.190 1.415 9069
2.456 2.203 1.412 9932
2.459 2.205 1.402 11245
2.461 2.208 1.393 11080
2.470 2.215 1.386 8326
2.494 2.237 1.388 8707
2.503 2.245 1.381 9119
2.516 2.257 1.377 9216
2.530 2.269 1.373 9862
2.533 2.272 1.363 8485
2.563 2.299 1.367 7762
2.544 2.281 1.346 7192
2.641 2.368 1.381 5996
2.654 2.381 1.376 8257
2.657 2.383 1.366 9606
2.654 2.381 1.353 9184
2.646 2.373 1.338 8486
2.659 2.385 1.333 8486
2.656 2.383 1.320 7939
2.787 2.500 1.367 4981
2.801 2.513 1.361 4679
2.815 2.525 1.356 3610
2.823 2.532 1.347 4268
2.815 2.525 1.331 6953
2.817 2.527 1.320 6065
2.854 2.560 1.324 6129
2.868 2.572 1.317 7662
2.864 2.569 1.304 6941
2.884 2.587 1.300 6542
2.898 2.599 1.293 6440
2.962 2.657 1.307 5230
2.959 2.654 1.293 6659
2.962 2.656 1.282 8992
2.970 2.664 1.272 6476
3.046 2.732 1.289 4903
3.048 2.734 1.277 5466
3.062 2.747 1.270 4994
3.070 2.754 1.260 3865
3.130 2.807 1.269 3777
3.161 2.835 1.267 4617
3.231 2.898 1.279 4890
3.228 2.895 1.265 6380
3.236 2.903 1.254 9565
3.244 2.910 1.244 8602
3.264 2.928 1.237 6907
3.261 2.925 1.222 8526
3.251 2.916 1.206 6629
3.340 2.995 1.222 7732
3.365 3.018 1.216 6516
3.373 3.025 1.205 6032
3.444 3.089 1.214 5028
3.446 3.091 1.200 3472
3.506 3.145 1.205 3836
3.520 3.157 1.194 3808
3.539 3.175 1.186 4258
3.542 3.177 1.172 4703
3.544 3.179 1.159 3413
3.598 3.227 1.160 3191
3.594 3.224 1.144 4320
3.591 3.221 1.129 4856
3.593 3.223 1.115 3969
3.589 3.219 1.099 4644
3.586 3.216 1.084 5811
3.593 3.223 1.071 5047
3.839 3.443 1.120 3872
3.927 3.523 1.127 4000
3.947 3.540 1.116 4741
3.955 3.547 1.103 4314
4.015 3.601 1.101 3146
4.122 3.697 1.110 2684
4.100 3.678 1.089 3024
4.120 3.695 1.077 3859
4.128 3.702 1.062 3676
4.211 3.777 1.064 3794
3.713 3.330 0.939 2942
3.709 3.327 0.923 3648
3.705 3.323 0.908 3656
3.706 3.324 0.893 3109
4.454 3.995 1.030 3064
4.456 3.997 1.012 3153
4.621 4.145 1.027 2572
4.629 4.152 1.010 3685
4.625 4.148 0.991 3248
4.615 4.139 0.971 2127
4.839 4.340 0.992 2083
4.835 4.336 0.972 3706
4.819 4.322 0.951 4963
4.821 4.324 0.932 4142
4.828 4.331 0.914 2937
5.222 4.684 0.957 2867
5.224 4.685 0.937 3342
5.225 4.687 0.916 3329
5.227 4.688 0.896 2840
5.668 5.084 0.938 1662
5.682 5.096 0.918 2609
5.689 5.103 0.896 3130
5.720 5.131 0.878 2344
5.857 5.253 0.873 3019
5.858 5.255 0.850 2932
5.854 5.251 0.826 2357
5.703 5.115 0.786 2240
5.704 5.116 0.764 2405
6.528 5.855 0.829 1674
6.535 5.862 0.804 2648
6.537 5.863 0.779 3116
6.520 5.849 0.752 2681
6.504 5.834 0.725 1688
7.111 6.378 0.752 1485
6.695 6.005 0.690 1367
6.690 6.001 0.663 1331
6.762 6.065 0.642 1430
6.763 6.066 0.616 1316
7.070 6.341 0.610 1093
7.071 6.342 0.583 848
7.090 6.359 0.556 700
7.090 6.360 0.528 498
0.861 0.772 0.168 258
0.861 0.772 0.165 296
0.861 0.772 0.162 298
0.867 0.778 0.159 314
0.861 0.772 0.155 322
0.861 0.772 0.152 330
0.861 0.772 0.149 308
0.867 0.778 0.146 257
1.564 1.395 1.602 3474
1.567 1.398 1.596 6948
1.565 1.397 1.585 7021
1.568 1.400 1.579 8360
1.571 1.402 1.573 9584
1.575 1.405 1.567 9230
1.578 1.408 1.561 8877
1.591 1.419 1.564 6602
1.608 1.435 1.572 5334
1.611 1.438 1.566 5334
1.619 1.445 1.564 4440
1.652 1.474 1.584 4250
1.626 1.451 1.552 4748
1.698 1.515 1.606 6168
1.706 1.522 1.604 6940
1.709 1.525 1.598 7724
1.707 1.523 1.587 6948
1.710 1.526 1.580 6270
1.708 1.525 1.570 5886
1.717 1.532 1.567 5825
1.720 1.535 1.561 6200
1.718 1.533 1.550 8075
1.716 1.531 1.539 10352
1.724 1.538 1.537 11352
1.737 1.550 1.539 12787
1.760 1.571 1.548 15379
1.768 1.578 1.546 20315
1.771 1.581 1.539 18912
1.779 1.588 1.536 17660
1.782 1.591 1.530 14538
1.785 1.593 1.523 10075
1.794 1.601 1.520 8998
1.812 1.617 1.525 7686
1.830 1.633 1.530 9153
1.843 1.645 1.531 9142
1.852 1.652 1.528 9764
1.860 1.660 1.525 8344
1.868 1.667 1.521 7286
1.871 1.670 1.514 5527
1.843 1.645 1.484 4251
1.861 1.661 1.488 4279
1.885 1.682 1.497 6338
1.888 1.685 1.489 8448
1.901 1.697 1.490 7666
1.930 1.722 1.501 8581
1.938 1.730 1.497 10405
1.947 1.737 1.494 9661
1.960 1.749 1.494 7550
1.963 1.752 1.486 5834
1.976 1.764 1.486 4488
1.979 1.766 1.478 4579
1.982 1.769 1.471 4352
1.996 1.781 1.470 5085
2.004 1.788 1.466 6621
2.012 1.795 1.462 7328
2.031 1.812 1.465 6996
2.044 1.824 1.464 8072
2.058 1.836 1.463 8415
2.140 1.910 1.507 7769
2.143 1.912 1.499 8929
2.135 1.906 1.484 9404
2.144 1.913 1.479 10775
2.152 1.920 1.474 12227
2.160 1.928 1.470 11664
2.179 1.945 1.471 11074
2.198 1.962 1.473 14457
2.201 1.964 1.464 15311
2.204 1.967 1.456 16498
2.212 1.974 1.451 14932
2.226 1.986 1.449 12166
2.245 2.003 1.450 11623
2.258 2.015 1.448 11648
2.267 2.023 1.442 11307
2.275 2.030 1.436 9095
2.262 2.018 1.418 8474
2.319 2.069 1.441 10507
2.327 2.076 1.435 12278
2.330 2.079 1.426 10619
2.332 2.081 1.417 9481
2.368 2.113 1.426 10919
2.382 2.125 1.423 13508
2.379 2.123 1.411 13496
2.382 2.125 1.402 11863
2.423 2.162 1.413 8808
2.448 2.184 1.415 8381
2.456 2.192 1.409 10321
2.459 2.194 1.399 12698
2.461 2.197 1.390 12437
2.470 2.204 1.383 9136
2.500 2.231 1.388 10038
2.508 2.238 1.381 10408
2.522 2.251 1.377 9828
2.536 2.263 1.373 9739
2.538 2.265 1.363 7951
2.541 2.268 1.353 8102
2.549 2.275 1.346 7934
2.557 2.282 1.339 5778
2.660 2.374 1.376 7881
2.663 2.376 1.366 9594
2.655 2.369 1.351 9925
2.652 2.366 1.338 9506
2.665 2.379 1.333 8691
2.662 2.376 1.320 7961
2.794 2.493 1.367 5359
2.808 2.506 1.361 4643
2.732 2.438 1.316 3467
2.830 2.525 1.347 3456
2.821 2.518 1.331 6024
2.824 2.520 1.320 5736
2.860 2.552 1.324 6085
2.874 2.565 1.317 7280
2.871 2.562 1.304 6471
2.890 2.579 1.300 6310
2.899 2.587 1.291 6254
2.975 2.655 1.309 5636
2.966 2.647 1.293 6902
2.968 2.649 1.282 8701
2.977 2.656 1.272 6207
3.053 2.724 1.289 4945
3.055 2.727 1.277 5767
3.069 2.739 1.270 5635
3.077 2.746 1.260 4997
3.137 2.799 1.269 4507
3.162 2.822 1.265 4668
3.239 2.890 1.279 5080
3.241 2.892 1.267 6775
3.249 2.900 1.256 10532
3.252 2.902 1.244 9177
3.266 2.914 1.235 6860
3.268 2.916 1.222 8853
3.259 2.908 1.206 6886
3.353 2.992 1.224 6998
3.367 3.004 1.214 6065
3.375 3.012 1.203 5571
3.452 3.080 1.214 5192
3.454 3.082 1.200 3983
3.520 3.141 1.206 3411
3.539 3.159 1.198 3954
3.553 3.171 1.188 4679
3.550 3.168 1.172 4850
3.552 3.170 1.159 3708
3.612 3.223 1.161 3000
3.597 3.210 1.142 3917
3.599 3.212 1.129 4867
3.601 3.214 1.115 4068
3.597 3.210 1.099 4865
3.600 3.212 1.085 6267
3.602 3.214 1.071 5408
3.604 3.216 1.057 3675
3.936 3.513 1.127 3609
3.956 3.530 1.116 4212
3.964 3.537 1.103 4007
4.024 3.591 1.101 3034
4.125 3.681 1.109 3329
4.110 3.667 1.089 3541
4.129 3.685 1.077 4392
4.137 3.692 1.062 4086
4.221 3.766 1.064 4801
4.228 3.773 1.049 3273
3.717 3.317 0.923 3242
3.713 3.313 0.908 3256
3.715 3.315 0.893 2809
4.464 3.984 1.030 3276
4.466 3.985 1.012 3403
4.631 4.133 1.027 2743
4.639 4.140 1.010 4080
4.635 4.136 0.991 3824
4.625 4.128 0.971 2841
4.850 4.328 0.992 2239
4.852 4.329 0.973 3697
4.830 4.310 0.951 4670
4.832 4.312 0.932 3914
4.839 4.318 0.914 2920
5.234 4.671 0.957 2760
5.236 4.672 0.937 3142
5.243 4.679 0.917 3168
5.245 4.680 0.897 2544
5.681 5.070 0.938 1817
5.695 5.082 0.918 2814
5.702 5.089 0.896 3201
5.863 5.232 0.895 2539
5.870 5.238 0.873 3485
5.872 5.240 0.850 3402
5.861 5.231 0.826 2880
5.716 5.101 0.786 2287
5.717 5.102 0.764 2422
5.872 5.240 0.758 1809
6.550 5.845 0.804 2787
6.552 5.847 0.779 3261
6.541 5.837 0.752 2639
6.519 5.817 0.725 1629
6.620 5.908 0.708 1555
6.645 5.930 0.684 1557
6.947 6.199 0.682 1433
6.777 6.048 0.642 1631
6.778 6.049 0.616 1481
7.092 6.329 0.611 1075
7.087 6.324 0.583 873
7.106 6.341 0.556 779
7.112 6.347 0.529 549
7.037 6.279 0.497 289
0.863 0.770 0.168 283
0.863 0.770 0.165 335
0.863 0.770 0.162 343
0.869 0.775 0.159 365
0.863 0.770 0.155 378
0.863 0.770 0.152 389
0.863 0.770 0.149 365
0.869 0.776 0.146 313
0.863 0.770 0.143 280
1.558 1.383 1.593 3458
1.561 1.385 1.587 6916
1.569 1.393 1.585 6849
1.572 1.395 1.579 8114
1.575 1.398 1.573 9343
1.578 1.401 1.567 8641
1.586 1.408 1.566 8004
1.594 1.415 1.564 5810
1.617 1.435 1.576 4448
1.620 1.438 1.570 4448
1.623 1.441 1.564 3941
1.656 1.470 1.584 4036
1.629 1.446 1.552 4644
1.707 1.515 1.611 5974
1.710 1.518 1.604 6762
1.713 1.520 1.598 7550
1.711 1.519 1.587 6772
1.714 1.522 1.580 6118
1.712 1.520 1.570 6364
1.721 1.527 1.567 7110
1.729 1.534 1.565 7739
1.722 1.528 1.550 9680
1.720 1.527 1.539 12019
1.728 1.534 1.537 12385
1.736 1.541 1.534 13002
1.759 1.562 1.544 15372
1.772 1.573 1.546 20286
1.775 1.576 1.539 18865
1.784 1.583 1.536 17408
1.787 1.586 1.530 14234
1.790 1.589 1.523 10106
1.798 1.596 1.520 9293
1.816 1.612 1.525 7621
1.840 1.633 1.534 9387
1.848 1.640 1.531 9437
1.856 1.647 1.528 10146
1.864 1.655 1.525 8811
1.877 1.667 1.525 7898
1.880 1.669 1.518 6119
1.899 1.686 1.523 4598
1.902 1.688 1.515 4231
1.889 1.677 1.497 5408
1.892 1.680 1.489 6827
1.911 1.696 1.493 6705
1.935 1.717 1.501 8575
1.943 1.725 1.497 10369
1.956 1.737 1.497 9829
1.965 1.744 1.494 8077
1.973 1.751 1.490 6611
1.981 1.758 1.486 5106
1.979 1.756 1.475 4641
1.982 1.759 1.467 4356
1.995 1.771 1.467 4442
2.003 1.778 1.463 5503
2.011 1.785 1.459 6167
2.035 1.807 1.465 6488
2.054 1.823 1.468 8164
2.062 1.831 1.463 9161
2.145 1.904 1.507 8281
2.148 1.907 1.499 9539
2.146 1.905 1.488 9965
2.149 1.907 1.479 10845
2.157 1.915 1.474 11726
2.165 1.922 1.470 11196
2.190 1.944 1.475 11586
2.203 1.956 1.473 15801
2.206 1.958 1.464 16167
2.209 1.961 1.456 16200
2.217 1.968 1.451 13889
2.231 1.980 1.449 12097
2.250 1.997 1.450 11711
2.258 2.005 1.444 11385
2.272 2.017 1.442 10238
2.280 2.024 1.436 7898
2.289 2.031 1.431 7459
2.330 2.068 1.444 9441
2.338 2.075 1.438 11230
2.341 2.078 1.429 9707
2.349 2.085 1.423 7985
2.379 2.112 1.429 10359
2.387 2.119 1.423 12793
2.385 2.117 1.411 13457
2.387 2.119 1.402 11685
2.429 2.156 1.413 8529
2.453 2.178 1.415 7869
2.462 2.185 1.409 10614
2.465 2.188 1.399 13601
2.467 2.190 1.390 13188
2.476 2.197 1.383 9515
2.511 2.229 1.391 10975
2.514 2.232 1.381 11227
2.528 2.244 1.377 9936
2.547 2.261 1.375 9069
2.550 2.263 1.366 6983
2.558 2.271 1.359 8261
2.561 2.273 1.349 8558
2.564 2.275 1.339 5767
2.667 2.367 1.376 6961
2.664 2.364 1.364 9256
2.661 2.362 1.351 10722
2.658 2.359 1.338 10364
2.672 2.371 1.333 8658
2.669 2.369 1.320 7722
2.800 2.486 1.367 5470
2.809 2.493 1.359 4429
2.733 2.426 1.314 3847
2.837 2.518 1.347 2912
2.828 2.510 1.331 5797
2.830 2.512 1.320 5692
2.873 2.550 1.326 5319
2.881 2.557 1.317 6197
2.940 2.610 1.330 5716
2.903 2.577 1.302 5675
2.905 2.579 1.291 5272
2.987 2.652 1.311 6495
2.979 2.644 1.295 7028
2.981 2.646 1.284 7913
2.984 2.648 1.272 5665
3.066 2.721 1.291 5375
3.063 2.718 1.277 5839
3.082 2.736 1.272 5896
3.085 2.738 1.260 5929
3.150 2.796 1.271 4902
3.158 2.803 1.261 4624
3.246 2.882 1.279 4630
3.249 2.884 1.267 6657
3.257 2.891 1.256 10874
3.259 2.893 1.244 9270
3.268 2.900 1.233 7109
3.276 2.908 1.222 9055
3.261 2.894 1.204 6656
3.361 2.983 1.224 6501
3.357 2.980 1.209 5951
3.377 2.998 1.201 4945
3.460 3.071 1.214 5115
3.468 3.078 1.202 4904
3.395 3.014 1.166 3968
3.484 3.093 1.179 3908
3.487 3.095 1.165 5273
3.558 3.158 1.172 4919
3.560 3.160 1.159 4140
3.626 3.219 1.163 2803
3.600 3.195 1.141 3611
3.608 3.202 1.129 4942
3.604 3.199 1.113 4225
3.606 3.201 1.099 4937
3.608 3.203 1.085 6429
3.610 3.204 1.071 5426
3.612 3.206 1.057 3619
3.946 3.502 1.127 3011
3.965 3.520 1.116 3379
3.973 3.527 1.103 3559
4.133 3.668 1.125 3389
4.135 3.670 1.109 3748
4.137 3.672 1.093 3803
