3.672 6.960 0.758 3070
3.669 6.955 0.735 2698
3.670 6.956 0.712 2161
3.755 7.119 0.702 1999
3.756 7.120 0.678 2147
3.757 7.121 0.655 1847
3.761 7.130 0.632 1272
4.131 7.830 0.655 944
4.128 7.824 0.629 819
2.420 4.588 0.410 801
2.421 4.589 0.395 859
2.425 4.596 0.381 762
2.425 4.597 0.366 513
4.223 8.005 0.509 384
4.220 7.999 0.482 300
4.220 7.999 0.456 286
2.412 4.572 0.275 284
2.412 4.572 0.260 357
2.412 4.572 0.245 360
2.409 4.566 0.230 306
2.405 4.559 0.215 261
4.404 8.347 0.196 365
4.404 8.347 0.168 572
4.333 8.214 0.141 770
4.333 8.214 0.114 1092
4.330 8.207 0.087 1366
4.330 8.207 0.060 1676
4.329 8.207 0.033 2162
4.333 8.214 0.006 2966
4.337 8.220 -0.021 3388
4.336 8.220 -0.048 3117
4.336 8.219 -0.075 2846
4.332 8.212 -0.102 2300
4.239 8.036 -0.123 2329
3.899 7.391 -0.126 2328
3.895 7.384 -0.150 2590
4.242 8.041 -0.202 2388
4.241 8.040 -0.229 2465
4.241 8.039 -0.255 2792
4.240 8.038 -0.281 3120
4.236 8.030 -0.307 2841
4.235 8.028 -0.334 2658
4.235 8.027 -0.360 2343
4.234 8.026 -0.386 2028
3.702 7.018 -0.343 1843
3.790 7.184 -0.378 2257
3.789 7.183 -0.402 2046
3.715 7.042 -0.414 2615
3.714 7.040 -0.437 2611
3.717 7.046 -0.461 2614
3.720 7.051 -0.485 2656
3.715 7.043 -0.507 2162
3.692 6.999 -0.526 2115
3.691 6.997 -0.549 2106
3.690 6.996 -0.572 2097
3.690 6.994 -0.595 1430
3.549 6.727 -0.589 1269
3.544 6.718 -0.610 1398
3.543 6.716 -0.632 1368
3.542 6.714 -0.654 1338
3.545 6.719 -0.677 1131
3.547 6.724 -0.700 971
3.546 6.722 -0.722 971
3.545 6.719 -0.744 485
0.962 1.811 1.570 6542
0.964 1.815 1.564 13085
0.966 1.818 1.558 12534
0.971 1.828 1.557 12211
0.970 1.826 1.546 12425
0.984 1.852 1.558 10146
0.989 1.862 1.557 10328
1.022 1.923 1.596 10315
1.020 1.921 1.585 13696
1.022 1.925 1.579 13696
1.028 1.934 1.577 13391
1.029 1.938 1.571 13197
1.035 1.947 1.569 11577
1.036 1.951 1.563 9988
1.035 1.949 1.552 7382
1.034 1.947 1.542 5217
1.070 2.015 1.583 7862
1.069 2.013 1.572 10990
1.074 2.022 1.570 11079
1.076 2.026 1.563 11744
1.078 2.029 1.557 12206
1.080 2.033 1.550 10614
1.079 2.031 1.539 9039
1.090 2.052 1.545 12606
1.095 2.062 1.543 16593
1.097 2.065 1.536 16757
1.099 2.069 1.529 16922
1.101 2.073 1.523 12401
1.106 2.082 1.520 6787
1.114 2.098 1.521 6914
1.120 2.107 1.519 6587
1.125 2.117 1.516 5769
1.126 2.120 1.509 5194
1.128 2.124 1.502 4618
1.172 2.206 1.547 4057
1.174 2.210 1.540 4123
1.173 2.207 1.529 5535
1.171 2.205 1.518 7136
1.176 2.214 1.514 7685
1.185 2.230 1.515 8690
1.187 2.234 1.508 8537
1.189 2.237 1.500 6910
1.190 2.241 1.493 5386
1.189 2.238 1.482 4251
1.191 2.242 1.475 3755
1.196 2.251 1.471 5845
1.204 2.267 1.471 9382
1.209 2.277 1.468 12018
1.208 2.274 1.457 11893
1.223 2.302 1.464 13431
1.228 2.312 1.460 16491
1.230 2.315 1.453 13790
1.232 2.318 1.445 9908
1.237 2.328 1.441 8877
1.235 2.325 1.430 8039
1.237 2.328 1.423 6356
1.242 2.338 1.419 5503
1.244 2.341 1.411 8127
1.252 2.357 1.410 10494
1.254 2.360 1.403 10165
1.256 2.364 1.395 8517
1.257 2.367 1.387 5842
1.259 2.370 1.380 4960
1.261 2.373 1.372 5107
1.266 2.383 1.368 5931
1.271 2.392 1.363 7594
1.269 2.389 1.352 7598
1.267 2.386 1.341 7674
1.384 2.606 1.444 8536
1.396 2.628 1.445 8731
1.272 2.395 1.318 6365
1.274 2.398 1.310 5612
1.429 2.689 1.445 5331
1.461 2.750 1.465 8101
1.463 2.754 1.456 10722
1.461 2.751 1.444 9652
1.463 2.754 1.435 7566
1.468 2.764 1.429 10584
1.470 2.767 1.420 13775
1.468 2.764 1.408 11737
1.474 2.774 1.402 11446
1.479 2.783 1.396 13976
1.480 2.787 1.387 12000
1.513 2.848 1.404 9750
1.515 2.852 1.395 12521
1.520 2.861 1.389 9856
1.525 2.871 1.382 4707
1.555 2.926 1.396 3021
1.529 2.877 1.364 2847
1.576 2.966 1.391 2813
1.563 2.943 1.370 4631
1.572 2.959 1.366 5336
1.598 3.008 1.375 5830
1.607 3.024 1.371 5917
1.615 3.041 1.367 5703
1.662 3.129 1.392 6348
1.668 3.139 1.384 7083
1.673 3.149 1.376 9562
1.675 3.152 1.366 11145
1.680 3.162 1.358 8768
1.685 3.172 1.351 8814
1.694 3.188 1.346 7983
1.755 3.304 1.378 6228
1.753 3.300 1.365 9500
1.758 3.310 1.356 17919
1.760 3.313 1.346 20909
1.762 3.316 1.335 14238
1.767 3.326 1.326 10862
1.772 3.336 1.318 9552
1.781 3.352 1.312 6211
1.786 3.362 1.303 5656
1.798 3.385 1.299 4877
1.814 3.414 1.298 5436
1.851 3.484 1.309 6053
1.806 3.400 1.268 6242
1.861 3.504 1.291 10029
1.870 3.520 1.284 12902
1.879 3.537 1.277 9690
1.891 3.560 1.272 9679
1.885 3.549 1.256 9082
1.894 3.565 1.249 9212
1.899 3.575 1.239 6942
1.951 3.672 1.257 5021
1.952 3.675 1.245 5089
1.975 3.718 1.245 4113
1.977 3.721 1.233 2861
1.982 3.731 1.222 5191
2.005 3.774 1.222 7792
2.003 3.770 1.208 10035
1.994 3.753 1.190 8098
2.010 3.783 1.185 4330
2.083 3.921 1.210 5024
2.052 3.863 1.181 5075
2.043 3.845 1.163 8414
2.040 3.841 1.148 13271
2.045 3.850 1.138 13901
2.050 3.859 1.127 11956
2.048 3.855 1.112 10922
2.053 3.865 1.102 11365
2.054 3.867 1.089 10187
2.056 3.869 1.076 7262
2.057 3.872 1.064 4260
2.364 4.449 1.188 2458
2.369 4.458 1.175 2249
2.290 4.310 1.126 2787
2.291 4.313 1.112 5287
2.289 4.308 1.096 5783
2.290 4.311 1.082 6044
2.295 4.320 1.069 7359
2.296 4.323 1.055 6779
2.298 4.325 1.041 4271
2.303 4.334 1.028 3410
2.307 4.343 1.016 4590
2.309 4.346 1.001 3613
2.463 4.637 1.044 3731
2.468 4.646 1.030 4849
2.470 4.648 1.015 4834
2.463 4.637 0.997 3505
2.476 4.660 0.986 2961
2.473 4.655 0.969 3232
2.445 4.602 0.944 2778
2.450 4.611 0.931 2970
2.462 4.634 0.919 3154
2.466 4.643 0.905 3024
2.464 4.638 0.889 3827
2.461 4.633 0.872 4923
2.462 4.634 0.857 4219
2.463 4.636 0.842 2598
2.460 4.631 0.826 2063
2.461 4.633 0.811 2383
2.462 4.635 0.796 2595
3.060 5.760 0.938 3484
3.061 5.762 0.919 3868
3.059 5.757 0.899 2401
3.134 5.898 0.898 2364
3.131 5.893 0.878 2770
3.128 5.888 0.858 3057
3.240 6.099 0.863 2745
3.248 6.114 0.845 2103
3.249 6.116 0.825 1852
3.202 6.027 0.795 1759
3.462 6.516 0.827 2000
3.459 6.511 0.805 1868
3.393 6.387 0.771 1589
3.572 6.723 0.782 1464
3.695 6.955 0.782 2489
3.692 6.950 0.758 3030
3.693 6.951 0.735 2665
3.694 6.953 0.712 2198
3.776 7.108 0.702 1941
3.777 7.109 0.678 2062
3.778 7.110 0.655 1752
3.778 7.112 0.632 1198
4.101 7.720 0.649 1002
2.437 4.587 0.426 971
2.437 4.588 0.411 1111
2.434 4.582 0.395 1179
2.434 4.582 0.380 1050
2.435 4.583 0.365 700
2.435 4.583 0.350 479
2.435 4.584 0.335 328
4.247 7.994 0.456 308
2.421 4.557 0.289 271
2.421 4.558 0.274 420
2.422 4.558 0.259 535
2.425 4.565 0.245 568
2.422 4.559 0.230 516
2.422 4.559 0.215 436
2.422 4.559 0.200 348
2.422 4.559 0.185 261
4.432 8.341 0.196 376
4.428 8.335 0.168 578
4.357 8.202 0.141 871
4.357 8.202 0.114 1208
4.354 8.195 0.087 1537
4.353 8.194 0.060 1911
4.353 8.194 0.033 2490
4.357 8.201 0.006 3464
4.360 8.208 -0.021 4015
4.360 8.207 -0.048 3751
4.360 8.207 -0.075 3487
4.360 8.206 -0.102 2797
4.263 8.024 -0.123 2733
4.262 8.023 -0.149 2663
4.262 8.022 -0.176 2594
4.265 8.028 -0.202 2558
4.265 8.027 -0.229 2567
4.264 8.026 -0.255 2747
4.267 8.032 -0.282 2940
4.263 8.024 -0.308 2650
4.259 8.016 -0.334 2450
4.258 8.015 -0.360 2138
3.742 7.043 -0.322 2343
3.812 7.175 -0.355 1895
3.811 7.173 -0.378 2028
3.810 7.172 -0.402 2106
3.806 7.164 -0.425 2248
3.805 7.162 -0.448 2242
3.741 7.042 -0.462 1982
3.737 7.034 -0.484 2463
3.728 7.018 -0.506 2201
3.713 6.988 -0.526 2327
3.715 6.994 -0.550 2265
3.718 6.999 -0.574 2321
3.721 7.004 -0.597 1677
3.635 6.842 -0.603 1283
3.634 6.840 -0.625 1283
3.559 6.699 -0.632 1063
3.709 6.982 -0.688 1094
3.708 6.980 -0.711 939
3.559 6.700 -0.698 922
3.558 6.697 -0.720 922
3.557 6.695 -0.742 461
0.967 1.809 1.570 5786
0.969 1.812 1.564 11573
0.974 1.822 1.563 10928
0.976 1.825 1.557 10430
0.977 1.829 1.551 10485
0.989 1.850 1.558 8778
0.994 1.859 1.557 9060
1.026 1.920 1.596 9867
1.025 1.918 1.585 13144
1.027 1.922 1.579 13144
1.032 1.932 1.577 13097
1.034 1.935 1.571 13164
1.039 1.945 1.569 11851
1.041 1.948 1.563 10557
1.040 1.946 1.552 7617
1.039 1.944 1.542 5209
1.075 2.012 1.583 7605
1.074 2.010 1.572 10097
1.079 2.019 1.570 10066
1.081 2.023 1.563 10524
1.086 2.033 1.561 11120
1.088 2.036 1.554 9363
1.090 2.040 1.548 7606
1.095 2.050 1.545 11481
1.100 2.059 1.543 15478
1.102 2.063 1.536 16206
1.104 2.066 1.529 16934
1.106 2.070 1.523 12585
1.108 2.073 1.516 6563
1.120 2.095 1.521 6313
1.125 2.104 1.519 7151
1.130 2.114 1.516 7338
1.129 2.112 1.505 6277
1.130 2.115 1.498 5323
1.178 2.203 1.547 4356
1.179 2.207 1.540 4937
1.178 2.204 1.529 6727
1.177 2.202 1.518 8785
1.182 2.212 1.514 8988
1.187 2.221 1.511 9366
1.189 2.225 1.504 8750
1.191 2.228 1.497 6817
1.189 2.226 1.486 5265
1.195 2.235 1.482 4526
1.200 2.245 1.479 4638
1.202 2.248 1.471 7157
1.207 2.258 1.468 10214
1.212 2.267 1.464 11938
1.214 2.271 1.457 12128
1.229 2.299 1.464 14577
1.234 2.309 1.460 18058
1.236 2.312 1.453 15606
1.237 2.315 1.445 11461
1.239 2.319 1.438 9770
1.241 2.322 1.430 8841
1.236 2.313 1.416 6733
1.238 2.316 1.408 5147
1.250 2.338 1.411 7022
1.251 2.341 1.403 9606
1.253 2.345 1.396 10014
1.258 2.354 1.392 9819
1.263 2.364 1.387 8403
1.262 2.361 1.376 6222
1.263 2.364 1.369 5465
1.268 2.373 1.364 5829
1.277 2.389 1.363 7271
1.275 2.386 1.352 7491
1.273 2.383 1.341 7661
1.404 2.628 1.457 8158
1.406 2.631 1.449 8335
1.278 2.392 1.318 6362
1.280 2.395 1.310 5576
1.435 2.686 1.445 6648
1.468 2.747 1.465 7016
1.470 2.750 1.456 9513
1.468 2.747 1.444 8765
1.470 2.750 1.435 6905
1.472 2.754 1.426 9857
1.477 2.764 1.420 13079
1.475 2.760 1.408 11765
1.477 2.764 1.399 10860
1.482 2.773 1.393 12365
1.487 2.783 1.387 10746
1.520 2.845 1.404 10258
1.522 2.848 1.395 12970
1.527 2.858 1.389 10251
1.571 2.939 1.414 5449
1.572 2.942 1.404 4599
1.581 2.958 1.400 3992
1.579 2.955 1.388 4719
1.574 2.945 1.373 5783
1.576 2.948 1.363 5264
1.605 3.004 1.375 5096
1.618 3.027 1.374 5625
1.623 3.037 1.367 5823
1.670 3.125 1.392 5839
1.675 3.135 1.384 5392
1.681 3.145 1.376 7329
1.682 3.148 1.366 8114
1.688 3.158 1.358 7564
1.696 3.174 1.353 10002
1.701 3.184 1.346 9193
1.721 3.220 1.348 7076
1.722 3.223 1.337 8017
1.763 3.299 1.354 15956
1.768 3.309 1.346 18313
1.770 3.312 1.335 12539
1.779 3.328 1.329 10882
1.784 3.338 1.320 9486
1.789 3.348 1.312 6395
1.794 3.357 1.303 6272
1.799 3.367 1.295 5123
1.822 3.410 1.298 5811
1.820 3.406 1.284 6677
1.861 3.483 1.298 7247
1.870 3.499 1.291 12464
1.875 3.509 1.282 14475
1.888 3.532 1.277 9641
1.900 3.555 1.272 9641
1.894 3.544 1.256 9051
1.903 3.561 1.249 8357
1.912 3.577 1.241 6490
1.964 3.674 1.259 4587
1.983 3.711 1.257 4660
1.992 3.727 1.249 5357
1.986 3.716 1.233 3670
1.991 3.726 1.222 5430
2.014 3.769 1.222 8527
2.012 3.765 1.208 9307
2.003 3.748 1.190 7310
2.095 3.920 1.225 4399
2.093 3.916 1.210 6353
2.058 3.851 1.179 5578
2.052 3.840 1.163 7762
2.050 3.836 1.148 10861
2.055 3.845 1.138 11017
2.064 3.861 1.129 9293
2.061 3.857 1.114 8294
2.063 3.859 1.102 8518
2.064 3.862 1.089 7313
2.065 3.864 1.076 5420
2.074 3.880 1.067 3247
2.367 4.429 1.185 2343
2.369 4.432 1.170 2360
2.301 4.305 1.126 3765
2.302 4.307 1.112 7108
2.300 4.303 1.096 8002
2.301 4.305 1.082 8005
2.306 4.315 1.069 9078
2.307 4.317 1.055 8550
2.308 4.319 1.041 5559
2.313 4.328 1.028 3981
2.318 4.338 1.016 4883
2.319 4.340 1.001 4172
2.475 4.631 1.044 2948
2.480 4.640 1.030 3778
2.481 4.642 1.015 3707
2.475 4.631 0.997 2648
2.487 4.654 0.986 2305
2.485 4.649 0.969 2698
2.460 4.603 0.946 2429
2.465 4.612 0.932 2663
2.473 4.628 0.919 2949
2.478 4.636 0.905 2740
2.475 4.632 0.889 3524
2.473 4.627 0.872 4596
2.474 4.628 0.857 4007
2.475 4.630 0.842 2716
2.472 4.625 0.826 2411
2.473 4.627 0.811 2751
2.474 4.629 0.796 2900
3.071 5.746 0.937 3613
3.072 5.748 0.918 3859
3.073 5.750 0.899 2348
3.152 5.897 0.899 1969
3.149 5.892 0.879 2193
3.258 6.096 0.884 2515
3.255 6.091 0.863 3008
3.252 6.085 0.842 2267
3.264 6.108 0.825 1931
3.262 6.103 0.804 1689
3.478 6.508 0.827 2207
3.479 6.510 0.806 2044
3.480 6.511 0.784 1560
3.589 6.715 0.782 1592
3.712 6.946 0.782 2332
3.709 6.941 0.758 2838
3.710 6.942 0.735 2539
3.711 6.944 0.712 2118
3.794 7.098 0.702 1797
3.794 7.100 0.678 1865
3.795 7.101 0.655 1561
3.796 7.102 0.632 1072
4.117 7.703 0.648 1164
2.448 4.581 0.426 1301
2.449 4.582 0.411 1503
2.445 4.576 0.395 1523
2.446 4.576 0.380 1347
2.446 4.577 0.365 909
2.443 4.570 0.350 658
2.443 4.571 0.335 458
4.263 7.977 0.456 299
2.436 4.558 0.304 340
2.432 4.551 0.289 400
2.433 4.552 0.274 595
2.433 4.552 0.259 728
2.437 4.559 0.245 789
2.433 4.553 0.230 765
2.433 4.553 0.215 687
2.433 4.553 0.200 536
2.433 4.553 0.185 385
4.374 8.184 0.195 427
4.374 8.184 0.168 620
4.378 8.191 0.141 963
4.378 8.191 0.114 1322
4.374 8.184 0.087 1693
4.374 8.184 0.060 2120
4.374 8.183 0.033 2780
4.381 8.197 0.006 3856
4.381 8.197 -0.021 4480
4.380 8.196 -0.048 4205
4.380 8.196 -0.075 3930
4.380 8.195 -0.102 3195
4.283 8.013 -0.123 2798
4.282 8.012 -0.149 2770
4.282 8.012 -0.176 2742
4.285 8.018 -0.202 2710
4.285 8.017 -0.229 2693
3.926 7.346 -0.222 3028
3.926 7.345 -0.246 3647
3.921 7.337 -0.270 3031
3.917 7.329 -0.293 2542
4.278 8.004 -0.360 2185
3.763 7.041 -0.323 2531
3.762 7.040 -0.346 2210
3.825 7.157 -0.378 2789
3.824 7.156 -0.401 2900
3.820 7.147 -0.424 3087
3.819 7.146 -0.448 3051
3.822 7.151 -0.472 2612
3.817 7.143 -0.495 2193
3.742 7.002 -0.505 1881
3.734 6.986 -0.527 1850
3.736 6.991 -0.551 1979
3.739 6.996 -0.574 2155
3.738 6.995 -0.597 1733
3.570 6.680 -0.586 1998
3.569 6.678 -0.608 2134
3.572 6.683 -0.631 1752
3.727 6.973 -0.688 1449
3.573 6.686 -0.676 1274
3.576 6.691 -0.698 1108
3.575 6.689 -0.720 1108
3.573 6.686 -0.742 554
0.973 1.812 1.574 5026
0.975 1.816 1.568 10053
0.977 1.820 1.563 9396
0.979 1.823 1.557 8653
0.981 1.827 1.551 8567
0.992 1.848 1.558 7292
0.997 1.857 1.557 7617
1.030 1.918 1.596 9285
1.029 1.916 1.585 12385
1.031 1.920 1.579 12385
1.036 1.930 1.577 12607
1.041 1.939 1.575 12935
1.043 1.943 1.569 11931
1.045 1.946 1.563 10927
1.047 1.950 1.556 7863
1.074 2.000 1.585 5427
1.076 2.004 1.578 7202
1.081 2.014 1.576 9065
1.083 2.017 1.570 8818
1.088 2.027 1.567 9130
1.090 2.031 1.561 9799
1.095 2.040 1.558 7991
1.097 2.044 1.552 6366
1.099 2.047 1.545 10221
1.105 2.057 1.543 14119
1.106 2.061 1.536 15489
1.108 2.064 1.529 16859
1.107 2.062 1.519 13114
1.109 2.065 1.512 7287
1.124 2.093 1.521 6244
1.129 2.102 1.519 7735
1.134 2.112 1.516 8733
1.133 2.109 1.505 7338
1.135 2.113 1.498 6034
1.182 2.201 1.547 4534
1.184 2.205 1.540 5711
1.182 2.202 1.529 7792
1.181 2.200 1.518 10200
1.186 2.209 1.514 9981
1.191 2.219 1.511 9771
1.193 2.222 1.504 8758
1.192 2.220 1.493 6647
1.191 2.217 1.482 5408
1.202 2.239 1.486 4881
1.211 2.255 1.486 5931
1.209 2.252 1.475 8492
1.211 2.255 1.468 11004
1.216 2.265 1.464 11830
1.218 2.268 1.457 12392
1.233 2.297 1.464 15809
1.238 2.306 1.460 19557
1.240 2.309 1.453 17613
1.242 2.313 1.445 13663
1.244 2.316 1.438 11656
1.242 2.313 1.427 10920
1.244 2.317 1.419 8582
1.249 2.326 1.415 6896
1.254 2.336 1.411 7992
1.256 2.339 1.403 10775
1.261 2.348 1.399 12524
1.263 2.352 1.392 12616
1.268 2.361 1.387 11199
1.266 2.358 1.376 7999
1.268 2.361 1.369 6700
1.273 2.371 1.364 6557
1.278 2.380 1.360 7383
1.276 2.377 1.349 8267
1.278 2.380 1.341 8739
1.280 2.383 1.334 8826
1.281 2.386 1.326 7905
1.283 2.389 1.318 6623
1.435 2.673 1.451 5806
1.441 2.683 1.445 7647
1.439 2.680 1.433 7248
1.475 2.747 1.456 7871
1.470 2.738 1.441 7689
1.472 2.741 1.432 6194
1.477 2.751 1.426 8768
1.479 2.754 1.417 11889
1.474 2.745 1.402 11693
1.479 2.754 1.396 10374
1.488 2.770 1.393 10499
1.489 2.774 1.384 9460
1.526 2.842 1.404 10575
1.528 2.845 1.395 13142
1.533 2.855 1.389 10415
1.580 2.942 1.417 7280
1.578 2.939 1.404 6595
1.583 2.949 1.398 6120
1.585 2.952 1.388 7184
1.583 2.949 1.375 7498
1.582 2.945 1.363 5719
1.622 3.020 1.384 4841
1.627 3.030 1.377 5436
1.671 3.112 1.399 6378
1.638 3.050 1.362 6026
1.643 3.059 1.355 5512
1.690 3.148 1.379 4872
1.692 3.151 1.369 5165
1.694 3.154 1.358 7016
1.703 3.171 1.353 11286
1.711 3.187 1.348 9992
1.727 3.216 1.348 8202
1.729 3.220 1.337 9559
1.770 3.295 1.354 13376
1.771 3.299 1.343 14991
1.780 3.315 1.337 10716
1.789 3.331 1.331 11098
1.790 3.334 1.320 9309
1.796 3.344 1.312 5916
1.801 3.354 1.303 6389
1.802 3.357 1.292 5234
1.829 3.406 1.298 5765
1.827 3.403 1.284 7184
1.872 3.486 1.300 8498
1.877 3.495 1.291 15229
1.882 3.505 1.282 16031
1.891 3.521 1.275 9629
1.903 3.544 1.270 9270
1.901 3.541 1.256 8474
1.914 3.564 1.251 7270
1.919 3.573 1.241 6101
1.971 3.670 1.259 4118
1.994 3.714 1.259 5248
1.999 3.723 1.249 6668
1.997 3.719 1.235 4665
2.006 3.736 1.226 6133
2.022 3.765 1.222 8723
2.020 3.761 1.208 8319
2.010 3.744 1.190 6172
2.103 3.916 1.225 5197
2.104 3.919 1.212 7246
2.098 3.908 1.196 5969
2.060 3.836 1.163 6535
2.050 3.818 1.145 8138
2.059 3.834 1.136 7812
2.075 3.864 1.130 6452
2.073 3.860 1.116 5598
2.070 3.855 1.102 5703
2.072 3.858 1.089 4625
2.073 3.860 1.076 3681
2.092 3.897 1.072 2682
2.372 4.418 1.183 2418
2.377 4.427 1.170 2590
2.309 4.300 1.126 4874
2.310 4.303 1.112 9038
2.308 4.298 1.096 10416
2.313 4.308 1.083 10167
2.314 4.310 1.069 10750
2.316 4.312 1.055 10124
2.321 4.322 1.042 6819
2.322 4.324 1.028 4326
2.327 4.333 1.016 4572
2.328 4.335 1.001 4286
2.333 4.344 0.988 2993
2.489 4.635 1.030 2594
2.490 4.637 1.015 2549
2.399 4.468 0.968 2256
2.378 4.428 0.945 1733
2.494 4.644 0.969 2129
2.473 4.605 0.947 2037
2.477 4.614 0.933 2410
2.486 4.630 0.920 2860
2.487 4.632 0.905 2517
2.484 4.627 0.889 3087
2.482 4.622 0.872 4040
2.483 4.624 0.857 3664
2.484 4.625 0.842 2722
2.481 4.620 0.826 2562
2.482 4.622 0.811 2924
2.483 4.624 0.796 3001
3.082 5.740 0.937 3573
3.083 5.742 0.918 3693
3.021 5.626 0.883 2850
3.018 5.621 0.864 1912
3.269 6.087 0.904 2156
3.270 6.089 0.884 2765
3.267 6.084 0.863 3225
3.264 6.079 0.842 2454
3.276 6.102 0.825 2022
3.274 6.096 0.804 1910
3.491 6.501 0.827 2385
3.492 6.503 0.806 2220
3.496 6.511 0.785 1615
3.602 6.708 0.782 1626
3.726 6.939 0.782 2045
3.723 6.933 0.758 2531
3.724 6.935 0.735 2343
3.725 6.936 0.712 1968
3.808 7.091 0.702 1556
3.614 6.730 0.651 1709
3.618 6.739 0.629 1463
3.619 6.740 0.607 1006
4.128 7.688 0.648 1310
2.457 4.576 0.426 1461
2.458 4.577 0.411 1757
2.454 4.571 0.395 1780
2.455 4.571 0.380 1550
2.455 4.572 0.365 1052
2.452 4.566 0.350 804
2.452 4.566 0.335 585
2.445 4.553 0.319 433
2.445 4.553 0.304 488
2.441 4.547 0.289 558
2.442 4.547 0.274 781
2.442 4.547 0.259 926
2.446 4.555 0.245 1026
2.442 4.548 0.230 1050
2.442 4.548 0.215 985
2.442 4.548 0.200 790
2.442 4.548 0.185 596
2.442 4.548 0.170 428
4.390 8.175 0.168 586
4.394 8.182 0.141 951
4.397 8.189 0.114 1333
4.390 8.175 0.087 1744
4.390 8.175 0.060 2230
4.390 8.175 0.033 2918
4.397 8.188 0.006 4138
4.401 8.195 -0.021 4827
4.400 8.195 -0.048 4563
4.400 8.194 -0.075 4299
4.396 8.187 -0.102 3553
4.388 8.172 -0.128 3016
4.388 8.171 -0.155 2818
4.301 8.010 -0.176 2790
4.301 8.009 -0.202 2716
4.300 8.008 -0.229 2643
4.303 8.014 -0.255 2750
3.940 7.337 -0.246 2898
3.939 7.336 -0.270 2863
3.939 7.335 -0.294 2828
3.938 7.334 -0.318 2524
3.781 7.041 -0.323 2245
3.836 7.144 -0.354 2565
3.839 7.149 -0.378 3193
3.835 7.141 -0.401 3320
3.759 7.001 -0.413 3528
3.762 7.006 -0.437 3522
3.836 7.144 -0.472 2970
3.831 7.135 -0.495 2476
3.670 6.834 -0.490 1790
3.669 6.833 -0.513 2067
3.582 6.671 -0.520 1913
3.581 6.670 -0.541 2248
3.580 6.668 -0.563 2316
3.579 6.666 -0.585 2546
3.575 6.657 -0.606 2716
3.570 6.648 -0.628 2027
3.744 6.972 -0.688 1855
3.743 6.970 -0.711 1510
3.567 6.642 -0.693 1289
3.565 6.640 -0.715 1289
3.564 6.638 -0.737 644
0.977 1.810 1.574 4398
0.979 1.814 1.568 8796
0.981 1.818 1.563 8069
0.983 1.821 1.557 7150
0.982 1.819 1.546 6968
0.993 1.840 1.554 6084
1.001 1.855 1.557 6454
1.034 1.916 1.596 8622
1.033 1.914 1.585 11434
1.035 1.918 1.579 11434
1.040 1.927 1.577 11921
1.045 1.937 1.575 12503
1.047 1.941 1.569 11772
1.052 1.950 1.567 11125
1.051 1.948 1.556 7999
1.075 1.992 1.580 5949
1.080 2.002 1.578 6748
1.085 2.011 1.576 7916
1.087 2.015 1.570 7464
1.093 2.025 1.567 7647
1.098 2.034 1.565 8375
1.100 2.038 1.558 6785
1.105 2.047 1.556 5293
1.107 2.051 1.549 8961
1.106 2.049 1.539 12669
1.111 2.058 1.536 14714
1.113 2.062 1.529 16800
1.111 2.059 1.519 14079
1.113 2.063 1.512 8813
1.125 2.084 1.517 6953
1.133 2.100 1.519 8398
1.138 2.110 1.516 9929
1.137 2.107 1.505 8257
1.139 2.111 1.498 6631
1.186 2.199 1.547 4708
1.188 2.202 1.540 6356
1.187 2.200 1.529 8682
1.186 2.197 1.518 11378
1.191 2.207 1.514 10756
1.196 2.216 1.511 9978
1.198 2.220 1.504 8486
1.196 2.217 1.493 6283
1.195 2.215 1.482 5437
1.213 2.249 1.493 5298
1.215 2.252 1.486 7380
1.214 2.249 1.475 9730
1.216 2.253 1.468 11553
1.218 2.256 1.460 11667
1.223 2.266 1.457 12542
1.238 2.294 1.464 16987
1.243 2.304 1.460 20915
1.245 2.307 1.453 19781
1.247 2.310 1.445 16416
1.248 2.314 1.438 14187
1.247 2.311 1.427 13962
1.252 2.320 1.423 11490
1.257 2.330 1.419 9940
1.259 2.333 1.411 10021
1.264 2.343 1.407 12825
1.266 2.346 1.399 15717
1.271 2.355 1.395 15520
1.273 2.359 1.387 13466
1.274 2.362 1.380 9725
1.276 2.365 1.372 8254
1.281 2.374 1.368 7498
1.283 2.378 1.360 7804
1.281 2.374 1.349 9667
1.283 2.378 1.341 10626
1.288 2.387 1.337 10551
1.290 2.390 1.329 8998
1.288 2.387 1.318 6747
1.441 2.670 1.451 6639
1.443 2.674 1.442 8405
1.445 2.677 1.433 7272
1.443 2.674 1.421 6767
1.441 2.671 1.410 6994
1.478 2.738 1.432 5619
1.483 2.748 1.426 7444
1.488 2.758 1.420 10272
1.479 2.742 1.402 11280
1.481 2.745 1.393 9967
1.490 2.761 1.390 8539
1.495 2.771 1.384 8224
1.532 2.838 1.404 10720
1.533 2.842 1.395 12935
1.539 2.851 1.389 10186
1.586 2.939 1.417 8786
1.584 2.936 1.404 8295
1.586 2.939 1.395 8185
1.591 2.949 1.388 9481
1.589 2.945 1.375 9273
1.588 2.942 1.363 6386
1.632 3.024 1.386 5227
1.633 3.027 1.377 5405
1.677 3.109 1.399 7520
1.686 3.125 1.394 6575
1.649 3.056 1.355 6297
1.658 3.072 1.350 4933
1.702 3.154 1.371 4174
1.704 3.157 1.361 8668
1.705 3.161 1.351 12556
1.714 3.177 1.346 10509
1.734 3.213 1.348 9361
1.735 3.216 1.337 11292
1.737 3.219 1.327 11079
1.778 3.295 1.343 11606
1.787 3.311 1.337 9051
1.796 3.328 1.331 11265
1.797 3.331 1.320 8713
1.803 3.340 1.312 4853
1.808 3.350 1.303 6053
1.813 3.360 1.295 5275
1.833 3.396 1.295 5386
1.834 3.399 1.284 7410
1.879 3.482 1.300 9717
1.884 3.492 1.291 17792
1.889 3.501 1.282 17132
1.898 3.518 1.275 9613
1.911 3.541 1.270 8628
1.908 3.537 1.256 7546
1.921 3.560 1.251 6335
1.926 3.569 1.241 5643
1.931 3.579 1.232 4653
1.998 3.703 1.257 5594
2.003 3.712 1.247 7617
2.005 3.715 1.235 5635
2.014 3.731 1.226 6577
2.030 3.761 1.222 7918
2.031 3.764 1.210 7250
2.029 3.760 1.196 6266
2.111 3.911 1.225 5511
2.112 3.914 1.212 7509
2.110 3.910 1.198 5922
2.068 3.832 1.163 4841
2.054 3.807 1.143 5686
2.059 3.816 1.132 5019
2.086 3.866 1.132 3989
2.242 4.154 1.193 3961
2.240 4.150 1.177 3565
2.072 3.840 1.086 2651
2.084 3.863 1.078 2308
2.380 4.410 1.198 2598
2.337 4.331 1.164 2433
2.383 4.416 1.169 2897
2.318 4.295 1.126 6124
2.316 4.291 1.110 11039
2.317 4.294 1.096 13025
2.322 4.303 1.083 12780
2.323 4.305 1.069 12667
2.324 4.308 1.055 11714
2.329 4.317 1.042 8370
2.334 4.326 1.030 4890
2.336 4.328 1.016 3866
2.340 4.337 1.003 3935
2.356 4.367 0.994 3580
2.372 4.397 0.985 2987
2.377 4.406 0.972 2570
2.378 4.408 0.957 2151
2.380 4.410 0.943 2008
2.377 4.405 0.927 2299
2.386 4.421 0.915 2221
2.491 4.616 0.934 2201
2.495 4.624 0.920 2876
2.497 4.626 0.905 2439
2.494 4.622 0.889 2659
2.495 4.623 0.874 3429
2.492 4.618 0.857 3223
2.489 4.613 0.841 2555
2.490 4.615 0.826 2501
2.491 4.617 0.811 2895
2.492 4.619 0.796 2849
3.038 5.630 0.922 4025
3.039 5.632 0.904 4152
3.033 5.620 0.883 3201
3.284 6.085 0.925 2183
3.281 6.081 0.904 2583
3.282 6.083 0.884 3092
3.279 6.077 0.863 3500
3.277 6.072 0.842 2648
3.289 6.095 0.825 2009
3.290 6.097 0.805 1946
3.504 6.494 0.827 2442
3.509 6.502 0.806 2327
3.510 6.504 0.785 1664
3.615 6.700 0.782 1570
3.508 6.500 0.741 1754
3.737 6.926 0.758 2204
3.738 6.927 0.735 2176
3.739 6.929 0.712 1824
4.062 7.528 0.737 1903
4.063 7.529 0.713 2014
4.064 7.531 0.688 1737
4.068 7.539 0.663 1249
4.144 7.679 0.648 1470
2.467 4.571 0.426 1678
2.467 4.572 0.411 1980
2.464 4.566 0.395 1982
2.464 4.566 0.380 1706
2.464 4.567 0.365 1130
2.461 4.561 0.350 845
2.461 4.561 0.335 660
2.454 4.548 0.319 580
2.454 4.548 0.304 644
2.451 4.542 0.289 737
2.451 4.542 0.274 1005
2.451 4.542 0.259 1172
2.455 4.549 0.245 1289
2.451 4.543 0.230 1338
2.451 4.543 0.215 1279
2.452 4.543 0.200 1044
2.452 4.543 0.185 810
2.452 4.543 0.170 584
4.407 8.166 0.168 565
4.410 8.173 0.141 894
4.414 8.180 0.114 1255
4.407 8.166 0.087 1673
4.407 8.166 0.060 2189
4.406 8.166 0.033 2887
4.414 8.179 0.006 4233
4.417 8.186 -0.021 4975
4.417 8.186 -0.048 4729
4.417 8.185 -0.075 4483
4.413 8.178 -0.102 3724
4.409 8.170 -0.129 3185
3.957 7.334 -0.125 3327
3.957 7.333 -0.149 3836
3.960 7.339 -0.174 3327
3.964 7.345 -0.198 2942
4.320 8.005 -0.255 2633
4.319 8.004 -0.282 2710
3.966 7.349 -0.271 2518
3.965 7.348 -0.296 3243
3.965 7.347 -0.320 3313
3.964 7.346 -0.344 3382
3.851 7.136 -0.354 2728
3.786 7.016 -0.369 3296
3.782 7.008 -0.391 3709
3.777 7.000 -0.414 4310
3.776 6.998 -0.437 4284
3.783 7.011 -0.461 3361
3.786 7.016 -0.485 2592
3.759 6.966 -0.503 1923
3.593 6.659 -0.497 2106
3.596 6.664 -0.520 2495
3.599 6.669 -0.542 2978
3.598 6.667 -0.564 3144
3.601 6.673 -0.587 3415
3.596 6.664 -0.608 3518
3.599 6.669 -0.631 2773
3.616 6.701 -0.657 2184
3.608 6.685 -0.677 2722
3.606 6.683 -0.699 3320
3.605 6.681 -0.721 3320
3.604 6.679 -0.743 1660
0.982 1.815 1.579 4003
0.984 1.818 1.573 8006
0.986 1.822 1.567 7244
0.985 1.820 1.557 6183
0.984 1.818 1.546 5917
0.992 1.833 1.549 5345
1.001 1.848 1.552 5681
1.037 1.915 1.596 7980
1.039 1.919 1.590 10465
1.041 1.922 1.583 10465
1.043 1.926 1.577 11185
1.048 1.935 1.575 12021
1.050 1.939 1.569 11503
1.055 1.949 1.567 11154
1.057 1.952 1.561 8143
1.075 1.985 1.576 6506
1.083 2.000 1.578 6247
1.091 2.016 1.580 6834
1.090 2.014 1.570 6229
1.098 2.029 1.572 6312
1.104 2.039 1.569 7221
1.106 2.042 1.563 5987
1.111 2.052 1.560 4770
1.110 2.050 1.549 7980
1.108 2.047 1.539 11364
1.110 2.051 1.532 14196
1.112 2.054 1.525 17028
1.114 2.058 1.519 15312
1.119 2.067 1.516 10930
1.128 2.083 1.517 8375
1.133 2.092 1.515 9214
1.141 2.108 1.516 10892
1.140 2.105 1.505 8992
1.142 2.109 1.498 7099
1.186 2.191 1.543 4921
1.191 2.200 1.540 6897
1.190 2.198 1.529 9464
1.189 2.196 1.518 12435
1.194 2.205 1.514 11487
1.199 2.215 1.511 10181
1.201 2.218 1.504 8114
1.203 2.222 1.497 5919
1.198 2.213 1.482 5248
1.217 2.247 1.493 6189
1.218 2.251 1.486 8737
1.217 2.248 1.475 10648
1.219 2.251 1.468 11798
1.221 2.255 1.460 11534
1.229 2.270 1.460 12630
1.241 2.292 1.464 17931
1.246 2.302 1.460 21979
1.248 2.305 1.453 21891
1.246 2.302 1.442 19612
1.248 2.306 1.434 17324
1.250 2.309 1.427 17505
1.255 2.319 1.423 15046
1.260 2.328 1.419 13244
1.262 2.331 1.411 12298
1.267 2.341 1.407 14746
1.269 2.344 1.399 18353
1.274 2.354 1.395 17788
1.276 2.357 1.387 14949
1.278 2.360 1.380 10996
1.283 2.370 1.375 9655
1.285 2.373 1.368 8305
1.286 2.376 1.360 8334
1.285 2.373 1.349 11155
1.286 2.376 1.341 12550
1.291 2.385 1.337 12293
1.293 2.388 1.329 9789
1.295 2.391 1.321 6529
1.441 2.662 1.448 7198
1.446 2.672 1.442 8774
1.448 2.675 1.433 7041
1.453 2.685 1.428 6719
1.448 2.675 1.413 7194
1.440 2.659 1.395 5607
1.504 2.778 1.441 6893
1.495 2.762 1.423 8600
1.480 2.733 1.399 10350
1.485 2.743 1.393 9549
1.494 2.759 1.390 6996
1.537 2.840 1.417 7651
1.536 2.836 1.404 10673
1.537 2.840 1.395 12314
1.585 2.927 1.423 9516
1.590 2.937 1.417 9617
1.588 2.934 1.404 9391
1.590 2.937 1.395 9966
1.595 2.947 1.388 11389
1.593 2.943 1.375 10590
1.595 2.946 1.366 7200
1.636 3.021 1.386 5795
1.641 3.031 1.379 5463
1.685 3.113 1.402 8597
1.691 3.123 1.394 7840
1.657 3.060 1.357 6958
1.662 3.070 1.350 6006
1.703 3.145 1.369 5778
1.708 3.155 1.361 10720
1.710 3.158 1.351 13649
1.719 3.174 1.346 10738
1.738 3.211 1.348 10486
1.740 3.214 1.337 13033
1.738 3.210 1.324 12121
1.736 3.207 1.311 9030
1.791 3.309 1.337 7543
1.800 3.325 1.331 10969
1.805 3.335 1.323 7795
1.811 3.345 1.314 3670
1.812 3.348 1.303 5517
1.814 3.351 1.292 5495
1.830 3.380 1.291 5214
1.835 3.390 1.282 7338
1.884 3.479 1.300 10738
1.889 3.489 1.291 19662
1.890 3.492 1.280 17599
1.899 3.508 1.272 9520
1.915 3.538 1.270 7762
1.917 3.541 1.258 6835
1.929 3.564 1.253 6211
1.931 3.567 1.241 5304
1.936 3.576 1.232 4927
1.999 3.693 1.255 5663
2.005 3.703 1.245 7798
2.013 3.719 1.237 6037
2.026 3.742 1.230 6593
2.031 3.752 1.220 6293
2.040 3.768 1.212 6232
2.049 3.784 1.203 8254
2.050 3.787 1.191 7450
2.118 3.911 1.212 6984
2.163 3.995 1.222 5486
2.164 3.998 1.209 4141
2.049 3.784 1.137 4144
2.241 4.139 1.218 4704
2.246 4.149 1.206 4747
2.247 4.151 1.193 4569
2.245 4.147 1.177 4258
2.250 4.157 1.165 3327
2.381 4.397 1.210 2476
2.334 4.312 1.175 3470
2.339 4.321 1.162 3184
2.378 4.392 1.164 3594
2.324 4.292 1.126 7419
2.321 4.288 1.110 13038
2.323 4.290 1.096 15584
2.328 4.300 1.083 15681
2.329 4.302 1.069 14854
2.330 4.304 1.055 13411
2.335 4.314 1.042 10274
2.340 4.323 1.030 6448
2.345 4.332 1.017 3662
2.358 4.355 1.007 3544
2.362 4.364 0.994 4191
2.378 4.393 0.985 3607
2.380 4.396 0.970 3207
2.381 4.398 0.956 2694
2.382 4.400 0.942 2337
2.383 4.402 0.927 2619
2.392 4.418 0.915 2494
2.530 4.674 0.945 2286
2.502 4.621 0.920 3033
2.503 4.623 0.905 2646
2.500 4.618 0.889 2416
2.501 4.620 0.874 2909
2.498 4.615 0.857 2762
2.496 4.610 0.841 2255
2.497 4.612 0.826 2223
2.501 4.620 0.812 2634
3.048 5.630 0.942 3121
3.046 5.626 0.922 4466
3.047 5.628 0.904 4443
3.036 5.609 0.882 3419
3.292 6.081 0.925 2514
3.289 6.076 0.904 2985
3.291 6.078 0.884 3351
3.288 6.073 0.863 3694
3.289 6.075 0.843 2844
3.294 6.084 0.824 2052
3.298 6.092 0.805 1979
3.517 6.496 0.828 2463
3.521 6.505 0.807 2436
3.522 6.506 0.786 1772
3.625 6.695 0.782 1453
3.517 6.496 0.741 1824
3.517 6.497 0.720 1966
3.751 6.929 0.736 2003
3.752 6.930 0.713 1662
4.076 7.529 0.738 2332
4.073 7.524 0.713 2661
4.074 7.525 0.688 2416
4.075 7.527 0.663 1780
2.476 4.574 0.441 1616
2.477 4.575 0.426 1892
2.473 4.569 0.411 2057
2.470 4.562 0.395 1990
2.470 4.563 0.380 1705
2.471 4.564 0.365 1097
2.467 4.557 0.350 788
2.464 4.551 0.335 658
2.460 4.544 0.319 660
2.460 4.545 0.304 763
2.461 4.545 0.290 869
2.457 4.539 0.274 1163
2.457 4.539 0.259 1347
2.461 4.546 0.245 1486
2.458 4.539 0.230 1599
2.458 4.540 0.215 1580
2.458 4.540 0.200 1328
2.458 4.540 0.185 1076
2.454 4.533 0.170 778
4.418 8.160 0.168 489
4.422 8.167 0.141 797
4.425 8.174 0.114 1137
4.422 8.167 0.087 1542
4.418 8.160 0.060 2028
4.421 8.167 0.033 2680
4.425 8.173 0.006 4062
4.428 8.180 -0.021 4833
4.428 8.180 -0.048 4608
4.428 8.179 -0.075 4383
4.424 8.171 -0.102 3654
3.979 7.350 -0.102 3726
3.979 7.349 -0.126 3933
3.974 7.341 -0.150 4146
3.978 7.348 -0.174 3381
3.925 7.249 -0.194 2654
3.981 7.353 -0.223 2659
3.984 7.359 -0.248 2754
3.983 7.358 -0.272 2764
3.979 7.350 -0.296 2788
3.978 7.349 -0.320 2812
3.820 7.055 -0.325 3226
3.811 7.040 -0.347 3074
3.799 7.018 -0.369 3507
3.795 7.010 -0.392 3411
3.787 6.995 -0.414 3615
3.786 6.993 -0.437 3582
3.789 6.999 -0.460 3231
3.803 7.025 -0.486 3240
3.765 6.954 -0.503 3383
3.764 6.952 -0.526 3611
3.609 6.666 -0.520 3487
3.608 6.664 -0.542 3807
3.611 6.669 -0.565 3784
3.613 6.675 -0.588 3550
3.616 6.680 -0.610 3247
3.615 6.678 -0.632 4384
3.614 6.676 -0.654 5522
3.617 6.680 -0.677 4953
3.619 6.685 -0.700 4489
3.618 6.683 -0.722 4489
3.617 6.681 -0.744 2244
0.985 1.806 1.574 3833
0.987 1.810 1.568 7667
0.989 1.813 1.563 6927
0.991 1.817 1.557 5824
0.990 1.815 1.546 5496
0.998 1.830 1.549 4981
1.040 1.908 1.602 5109
1.043 1.912 1.596 7294
1.045 1.915 1.590 9479
1.047 1.919 1.583 9479
1.052 1.929 1.582 10376
1.054 1.932 1.575 11353
1.056 1.936 1.569 10986
1.061 1.945 1.567 10834
1.066 1.955 1.565 8050
1.081 1.982 1.576 6739
1.086 1.991 1.574 5803
1.097 2.012 1.580 6009
1.100 2.016 1.574 5264
1.108 2.031 1.576 5302
1.113 2.041 1.573 6389
1.115 2.045 1.567 5549
1.117 2.048 1.560 4710
1.116 2.046 1.549 7211
1.115 2.044 1.539 10184
1.117 2.047 1.532 13687
1.119 2.051 1.525 17190
1.120 2.054 1.519 16308
1.126 2.064 1.516 12858
1.131 2.073 1.513 9758
1.139 2.089 1.515 9755
1.148 2.104 1.516 11308
1.150 2.108 1.509 9302
1.152 2.111 1.502 7296
1.193 2.187 1.543 5180
1.198 2.197 1.540 7274
1.197 2.194 1.529 10000
1.195 2.192 1.518 13144
1.201 2.201 1.514 11978
1.206 2.211 1.511 10267
1.208 2.215 1.504 7742
1.213 2.224 1.500 5855
1.215 2.228 1.493 5453
1.223 2.243 1.493 7087
1.229 2.253 1.490 9724
1.227 2.250 1.479 11075
1.226 2.247 1.468 11603
1.228 2.251 1.460 11190
1.236 2.267 1.460 12545
1.248 2.288 1.464 18192
1.253 2.298 1.460 22238
1.255 2.301 1.453 23222
1.254 2.299 1.442 22313
1.255 2.302 1.434 20176
1.257 2.305 1.427 20574
1.262 2.315 1.423 18083
1.268 2.324 1.419 16041
1.269 2.327 1.411 13927
1.275 2.337 1.407 15329
1.276 2.340 1.399 19196
1.281 2.350 1.395 18272
1.283 2.353 1.387 14920
1.285 2.356 1.380 10945
1.290 2.366 1.375 9927
1.292 2.369 1.368 8306
1.294 2.372 1.360 8475
1.295 2.375 1.352 11721
1.297 2.378 1.345 13179
1.299 2.381 1.337 12674
1.300 2.384 1.329 9644
1.302 2.387 1.321 6143
1.449 2.657 1.448 7170
1.455 2.667 1.442 8626
1.460 2.677 1.436 6759
1.472 2.699 1.437 7047
1.460 2.677 1.416 6994
1.448 2.655 1.395 5425
1.512 2.773 1.441 6847
1.514 2.777 1.432 7810
1.488 2.729 1.399 9058
1.493 2.738 1.393 8830
1.509 2.767 1.396 5913
1.546 2.835 1.417 7786
1.544 2.832 1.404 10180
1.546 2.835 1.395 11111
1.594 2.922 1.423 9296
1.599 2.932 1.417 9457
1.597 2.929 1.404 9563
1.599 2.932 1.395 10948
1.604 2.942 1.388 12364
1.606 2.945 1.378 10999
1.604 2.942 1.366 7567
1.645 3.016 1.386 6195
1.650 3.026 1.379 5577
1.695 3.108 1.402 9164
1.700 3.117 1.394 8685
1.666 3.055 1.357 7316
1.671 3.065 1.350 6804
1.712 3.140 1.369 7871
1.718 3.150 1.361 12370
1.719 3.153 1.351 14613
1.725 3.163 1.343 11199
1.748 3.205 1.348 11379
1.750 3.208 1.337 14143
1.748 3.205 1.324 12418
1.746 3.201 1.311 8908
1.809 3.317 1.342 6322
1.810 3.320 1.331 9876
1.812 3.323 1.320 6850
1.821 3.339 1.314 3022
1.826 3.349 1.306 5074
1.824 3.345 1.292 5961
1.833 3.361 1.286 5905
1.846 3.384 1.282 7325
1.894 3.474 1.300 11063
1.900 3.483 1.291 19916
1.901 3.486 1.280 16986
1.906 3.496 1.270 9215
1.926 3.532 1.270 6702
1.935 3.548 1.262 6845
1.940 3.558 1.253 6897
1.942 3.561 1.241 5296
1.973 3.617 1.246 5327
2.007 3.680 1.253 6059
2.016 3.697 1.245 7243
2.043 3.747 1.247 6483
2.045 3.749 1.234 6501
2.043 3.745 1.220 4957
2.059 3.775 1.216 5685
2.060 3.778 1.203 10386
2.062 3.781 1.191 9855
2.067 3.790 1.180 6522
2.175 3.989 1.222 6053
2.180 3.998 1.210 4546
2.256 4.136 1.234 4405
2.254 4.132 1.218 5284
2.255 4.135 1.205 5124
2.260 4.144 1.193 4743
2.258 4.140 1.177 4719
2.267 4.157 1.167 3884
2.346 4.302 1.189 3329
2.348 4.304 1.175 4514
2.353 4.314 1.162 3787
2.387 4.378 1.162 4424
2.337 4.285 1.126 8133
2.335 4.281 1.110 14180
2.336 4.283 1.096 17137
2.341 4.292 1.083 17746
2.342 4.295 1.069 16549
2.344 4.297 1.055 14722
2.349 4.306 1.042 11914
2.350 4.309 1.028 8085
2.355 4.318 1.016 4062
2.371 4.347 1.007 3405
2.380 4.363 0.995 4554
2.392 4.386 0.985 4093
2.393 4.388 0.970 3744
2.394 4.390 0.956 3198
2.395 4.392 0.942 2566
2.397 4.394 0.927 2692
2.405 4.410 0.915 2522
2.545 4.666 0.945 2377
2.520 4.620 0.921 3144
2.517 4.615 0.905 2950
2.518 4.617 0.890 2398
2.515 4.612 0.874 2572
2.513 4.607 0.857 2370
2.510 4.602 0.841 1791
2.515 4.611 0.827 1718
2.516 4.613 0.812 2087
3.066 5.621 0.942 3303
3.063 5.616 0.922 4610
3.064 5.618 0.904 4432
3.054 5.599 0.882 3356
3.311 6.071 0.925 2822
3.308 6.066 0.904 3361
3.309 6.068 0.884 3554
3.306 6.063 0.863 3758
3.307 6.065 0.843 2958
3.312 6.073 0.824 2007
3.317 6.082 0.805 1881
3.537 6.485 0.828 2404
3.541 6.494 0.807 2490
3.542 6.495 0.786 1882
3.536 6.483 0.763 1396
3.537 6.485 0.741 1784
3.537 6.486 0.720 1990
3.784 6.938 0.738 1922
3.785 6.940 0.715 1555
4.099 7.517 0.738 2629
4.100 7.518 0.713 3182
4.101 7.520 0.688 2998
4.098 7.514 0.663 2259
2.490 4.566 0.441 1752
2.491 4.567 0.426 1954
2.487 4.561 0.411 1984
2.484 4.555 0.395 1853
2.484 4.555 0.380 1572
2.485 4.556 0.365 983
2.481 4.550 0.350 702
2.478 4.543 0.335 632
2.474 4.537 0.319 677
2.474 4.537 0.304 801
2.475 4.538 0.290 933
2.471 4.531 0.274 1260
2.471 4.531 0.259 1461
2.475 4.539 0.245 1617
2.475 4.539 0.230 1754
2.472 4.532 0.215 1741
2.472 4.532 0.200 1509
2.472 4.532 0.185 1277
2.468 4.526 0.170 957
2.464 4.519 0.155 450
4.450 8.161 0.141 653
4.450 8.161 0.114 957
4.447 8.154 0.087 1341
4.443 8.146 0.060 1788
4.446 8.153 0.033 2383
4.454 8.167 0.006 3717
4.454 8.166 -0.021 4445
4.453 8.166 -0.048 4267
4.453 8.165 -0.075 4090
4.449 8.158 -0.102 3418
4.005 7.344 -0.102 4156
4.005 7.344 -0.126 3912
4.005 7.343 -0.150 3669
3.944 7.231 -0.170 2938
3.943 7.230 -0.194 3131
3.939 7.222 -0.217 2734
3.931 7.208 -0.240 2445
3.968 7.276 -0.268 2290
3.850 7.060 -0.279 2642
3.846 7.052 -0.302 3008
3.841 7.044 -0.325 3441
3.837 7.035 -0.348 3304
3.825 7.013 -0.370 3571
3.809 6.984 -0.391 2712
3.793 6.955 -0.412 2666
3.796 6.961 -0.435 2659
3.795 6.959 -0.458 3522
3.791 6.951 -0.480 4380
3.790 6.949 -0.503 4204
3.626 6.650 -0.498 4194
3.626 6.648 -0.520 3894
3.617 6.632 -0.540 3663
3.624 6.644 -0.563 3859
3.634 6.663 -0.588 4262
3.633 6.661 -0.610 4413
3.632 6.660 -0.632 4418
3.627 6.651 -0.653 4511
3.611 6.621 -0.671 3994
3.606 6.612 -0.692 4079
3.605 6.610 -0.714 4079
3.604 6.608 -0.736 2039
0.989 1.804 1.574 3938
0.991 1.807 1.568 7877
0.993 1.811 1.563 7216
0.995 1.815 1.557 6109
0.994 1.813 1.546 5735
0.999 1.822 1.545 4972
1.045 1.905 1.602 4722
1.050 1.915 1.600 6704
1.052 1.919 1.594 8741
1.054 1.922 1.588 8741
1.056 1.926 1.582 9721
1.058 1.930 1.575 10700
1.060 1.933 1.569 10385
1.066 1.943 1.567 10295
1.071 1.952 1.565 7848
1.082 1.973 1.572 6851
1.088 1.983 1.570 5510
1.102 2.010 1.580 5442
1.104 2.013 1.574 4648
1.116 2.035 1.580 4738
1.121 2.044 1.578 5853
1.123 2.048 1.571 5399
1.125 2.052 1.564 4946
1.118 2.038 1.545 6762
1.119 2.041 1.539 9247
1.121 2.045 1.532 13322
1.123 2.048 1.525 17396
1.129 2.058 1.523 17262
1.134 2.067 1.520 14539
1.136 2.071 1.513 11058
1.144 2.086 1.515 10095
1.153 2.102 1.516 11324
1.155 2.105 1.509 9359
1.166 2.127 1.514 7575
1.185 2.160 1.527 5732
1.203 2.194 1.540 7576
1.199 2.185 1.525 10471
1.201 2.189 1.518 13749
1.206 2.199 1.514 12463
1.211 2.208 1.511 10459
1.216 2.218 1.508 7820
1.218 2.221 1.500 6224
1.220 2.225 1.493 6114
1.229 2.240 1.493 7912
1.234 2.250 1.490 10487
1.233 2.247 1.479 11216
1.231 2.245 1.468 11098
1.233 2.248 1.460 10683
1.245 2.270 1.464 12163
1.254 2.285 1.464 17907
1.259 2.295 1.460 21899
1.261 2.298 1.453 23894
1.259 2.296 1.442 24472
1.261 2.299 1.434 22643
1.263 2.302 1.427 23209
1.268 2.312 1.423 20681
1.273 2.321 1.419 18451
1.275 2.324 1.411 15030
1.277 2.328 1.403 14975
1.282 2.337 1.399 18821
1.287 2.347 1.395 17703
1.289 2.350 1.387 14004
1.373 2.504 1.461 11449
1.375 2.507 1.453 11173
1.380 2.517 1.448 8145
1.389 2.533 1.446 8331
1.301 2.372 1.352 11457
1.303 2.375 1.345 12727
1.304 2.378 1.337 12081
1.306 2.381 1.329 9044
1.308 2.384 1.321 5782
1.452 2.648 1.444 6760
1.461 2.664 1.442 8184
1.466 2.673 1.436 6600
1.479 2.696 1.437 7754
1.477 2.693 1.425 6859
1.514 2.760 1.447 5865
1.519 2.770 1.441 6895
1.521 2.773 1.432 7579
1.516 2.763 1.417 7663
1.500 2.735 1.393 7988
1.547 2.821 1.423 5724
1.553 2.831 1.417 7578
1.551 2.828 1.404 9283
1.553 2.831 1.395 9467
1.601 2.918 1.423 8396
1.602 2.922 1.414 8661
1.604 2.925 1.404 9103
1.606 2.928 1.395 11285
1.611 2.938 1.388 12553
1.613 2.941 1.378 10454
1.615 2.944 1.369 7182
1.652 3.012 1.386 6446
1.668 3.042 1.387 6130
1.706 3.110 1.404 9161
1.711 3.120 1.397 9007
1.713 3.123 1.387 8187
1.711 3.120 1.374 8218
1.716 3.129 1.366 9583
1.725 3.146 1.361 13406
1.727 3.149 1.351 15118
1.732 3.158 1.343 11595
1.759 3.208 1.350 12103
1.757 3.204 1.337 14643
1.755 3.201 1.324 12203
1.757 3.204 1.314 8651
1.817 3.312 1.342 5669
1.818 3.315 1.331 8308
1.824 3.325 1.323 6211
1.829 3.335 1.314 3251
1.838 3.351 1.308 4816
1.832 3.341 1.292 6452
1.837 3.350 1.284 6994
1.850 3.373 1.280 7269
1.903 3.469 1.300 10854
1.908 3.479 1.291 18953
1.910 3.482 1.280 15394
1.915 3.491 1.270 8473
1.938 3.534 1.272 5683
1.947 3.550 1.265 7532
1.949 3.553 1.253 7999
1.950 3.556 1.241 5715
1.981 3.612 1.246 5829
2.016 3.676 1.253 5832
2.025 3.692 1.245 6100
2.056 3.748 1.249 7056
2.061 3.758 1.238 8429
2.063 3.761 1.226 5795
2.072 3.777 1.218 6647
2.069 3.773 1.203 12360
2.071 3.776 1.191 11243
2.076 3.785 1.180 6510
2.185 3.983 1.222 6125
2.190 3.993 1.210 4686
2.266 4.131 1.234 4651
2.263 4.127 1.218 5453
2.265 4.130 1.205 5066
2.270 4.139 1.193 4480
2.268 4.135 1.177 4647
2.277 4.151 1.167 4365
2.356 4.296 1.189 4359
2.358 4.299 1.175 5471
2.363 4.308 1.162 4272
2.398 4.372 1.162 5245
2.347 4.279 1.126 8416
2.345 4.275 1.110 14673
2.346 4.278 1.096 17654
2.351 4.287 1.083 18656
2.353 4.289 1.069 17396
2.354 4.292 1.055 15394
2.359 4.301 1.042 13035
2.360 4.303 1.028 9398
2.361 4.305 1.014 5133
2.378 4.335 1.005 3468
2.390 4.358 0.995 4661
2.406 4.387 0.986 4406
2.404 4.382 0.970 4191
2.405 4.385 0.956 3637
2.406 4.387 0.942 2640
2.411 4.396 0.928 2601
2.416 4.404 0.915 2433
2.556 4.660 0.945 2477
2.531 4.614 0.921 3175
2.532 4.616 0.906 3169
2.533 4.618 0.891 2487
2.530 4.613 0.875 2404
2.524 4.601 0.857 2108
2.974 5.422 0.968 1720
2.979 5.431 0.952 1648
3.033 5.529 0.948 2254
3.079 5.614 0.942 3430
3.076 5.609 0.922 4563
3.077 5.611 0.904 4150
3.060 5.578 0.880 3145
3.325 6.063 0.925 3045
3.323 6.058 0.904 3621
3.324 6.060 0.884 3665
3.325 6.062 0.864 3767
3.322 6.057 0.843 3030
3.327 6.065 0.824 1921
3.331 6.074 0.805 1730
3.556 6.483 0.828 2305
3.557 6.485 0.807 2480
3.558 6.487 0.786 1980
3.555 6.482 0.763 1405
3.552 6.476 0.741 1642
3.557 6.485 0.721 1902
3.808 6.943 0.739 1948
3.805 6.938 0.715 1535
4.117 7.507 0.738 2768
4.118 7.508 0.713 3500
4.119 7.510 0.688 3390
4.116 7.504 0.663 2608
2.501 4.561 0.441 1878
2.502 4.561 0.426 1979
2.498 4.555 0.411 1852
2.495 4.549 0.395 1649
2.495 4.549 0.380 1362
2.492 4.543 0.365 833
2.488 4.537 0.350 625
2.489 4.537 0.335 618
2.485 4.531 0.319 711
2.485 4.531 0.304 829
2.485 4.532 0.290 960
2.482 4.525 0.274 1303
2.482 4.525 0.259 1520
2.486 4.533 0.245 1683
2.486 4.533 0.230 1824
2.482 4.526 0.215 1805
2.483 4.526 0.200 1606
2.479 4.519 0.185 1407
2.479 4.520 0.170 1087
2.475 4.513 0.155 565
4.470 8.150 0.141 516
4.470 8.150 0.114 769
4.466 8.143 0.087 1123
4.462 8.136 0.060 1525
4.466 8.142 0.033 2082
4.473 8.156 0.006 3397
4.473 8.156 -0.021 4080
4.473 8.155 -0.048 3927
4.473 8.155 -0.075 3773
4.468 8.147 -0.102 3130
4.019 7.328 -0.102 3510
4.015 7.320 -0.126 3342
4.011 7.313 -0.150 3254
3.957 7.215 -0.170 3201
3.957 7.214 -0.194 3285
3.952 7.206 -0.217 3276
3.952 7.205 -0.241 3355
3.951 7.204 -0.265 3268
3.951 7.203 -0.289 3181
3.863 7.043 -0.302 2800
3.858 7.034 -0.325 3690
3.854 7.026 -0.348 3805
3.849 7.018 -0.371 4168
3.848 7.017 -0.394 3248
3.852 7.022 -0.418 2373
3.851 7.021 -0.441 2350
3.812 6.950 -0.458 2776
3.819 6.962 -0.482 3889
3.647 6.649 -0.476 3748
3.642 6.641 -0.498 4685
3.638 6.632 -0.519 5515
3.637 6.631 -0.541 6555
3.636 6.629 -0.563 6574
3.635 6.627 -0.585 5908
3.634 6.625 -0.606 5222
3.629 6.616 -0.628 4924
3.628 6.614 -0.649 4652
3.627 6.612 -0.671 5603
3.625 6.610 -0.693 6554
3.624 6.608 -0.715 6554
3.623 6.606 -0.737 3277
0.988 1.797 1.570 4273
0.990 1.800 1.564 8546
0.996 1.810 1.563 7918
0.998 1.813 1.557 6850
0.996 1.811 1.546 6466
1.002 1.821 1.545 5349
1.007 1.830 1.543 4456
1.053 1.913 1.600 6244
1.055 1.917 1.594 8172
1.057 1.921 1.588 8172
1.059 1.925 1.582 9152
1.061 1.928 1.575 10133
1.063 1.932 1.569 9788
1.068 1.941 1.567 9634
1.076 1.957 1.570 7576
1.085 1.972 1.572 6836
1.087 1.976 1.565 5294
1.105 2.008 1.580 5059
1.107 2.012 1.574 4281
1.122 2.039 1.584 4439
1.124 2.043 1.578 5510
1.126 2.046 1.571 5324
1.128 2.050 1.564 5139
1.120 2.036 1.545 6586
1.119 2.034 1.534 8581
1.124 2.043 1.532 13082
1.126 2.047 1.525 17630
1.131 2.056 1.523 18136
1.136 2.066 1.520 15961
1.138 2.069 1.513 12132
1.147 2.085 1.515 10229
1.155 2.100 1.516 10961
1.164 2.116 1.517 9329
1.176 2.137 1.522 8381
1.188 2.159 1.527 6571
1.206 2.192 1.540 7831
1.201 2.184 1.525 10913
1.203 2.187 1.518 14294
1.209 2.197 1.514 12955
1.217 2.213 1.515 10820
1.219 2.216 1.508 8199
1.224 2.226 1.504 6895
1.226 2.229 1.497 6883
1.235 2.245 1.497 8644
1.237 2.248 1.490 10948
1.239 2.252 1.483 11072
1.237 2.249 1.471 10492
1.236 2.246 1.460 10075
1.248 2.268 1.464 11365
1.256 2.284 1.464 17085
1.262 2.293 1.460 20999
1.260 2.291 1.449 24003
1.262 2.294 1.442 25962
1.264 2.297 1.434 24584
1.266 2.301 1.427 25309
1.271 2.310 1.423 22717
1.276 2.320 1.419 20273
1.278 2.323 1.411 15715
1.280 2.326 1.403 14235
1.285 2.336 1.399 17661
1.290 2.345 1.395 16555
1.292 2.348 1.387 12691
1.376 2.502 1.461 13604
1.378 2.505 1.453 12875
1.384 2.515 1.448 9354
1.389 2.525 1.443 9722
1.391 2.528 1.435 12147
1.393 2.531 1.426 12559
1.307 2.376 1.337 11036
1.309 2.379 1.329 8291
1.311 2.382 1.321 5443
1.456 2.646 1.444 6146
1.461 2.655 1.439 7580
1.473 2.678 1.440 6767
1.482 2.694 1.437 8297
1.484 2.697 1.428 7003
1.517 2.758 1.447 6304
1.523 2.768 1.441 6890
1.528 2.777 1.435 7618
1.526 2.774 1.423 8303
1.521 2.765 1.408 8095
1.544 2.807 1.417 5757
1.553 2.823 1.414 7254
1.555 2.826 1.404 8121
1.556 2.829 1.395 7533
1.604 2.916 1.423 6851
1.606 2.920 1.414 7250
1.604 2.916 1.401 8083
1.610 2.926 1.395 10993
1.615 2.936 1.388 12135
1.617 2.939 1.378 9290
1.615 2.936 1.366 6347
1.660 3.017 1.389 6642
1.669 3.033 1.385 6787
1.710 3.108 1.404 8608
1.715 3.118 1.397 8892
1.721 3.127 1.389 8673
1.715 3.118 1.374 9207
1.720 3.127 1.366 10850
1.729 3.143 1.361 14318
1.731 3.147 1.351 15668
1.733 3.150 1.340 12265
1.763 3.205 1.350 12713
1.761 3.202 1.337 14330
1.760 3.198 1.324 11448
1.761 3.201 1.314 8393
1.817 3.303 1.340 5759
1.823 3.313 1.331 6534
1.828 3.323 1.323 5567
1.830 3.326 1.312 4113
1.838 3.342 1.306 4910
1.836 3.338 1.292 6983
1.842 3.348 1.284 8034
1.851 3.364 1.277 7309
1.907 3.467 1.300 10126
1.912 3.476 1.291 16919
1.910 3.472 1.277 13065
1.916 3.482 1.268 7280
1.950 3.545 1.276 5841
1.955 3.555 1.267 8726
1.953 3.551 1.253 9634
1.955 3.554 1.241 6833
1.986 3.610 1.246 6477
1.965 3.573 1.222 5347
2.033 3.696 1.247 4959
2.068 3.759 1.253 7732
2.073 3.769 1.242 10817
2.079 3.778 1.232 8724
2.080 3.781 1.220 8441
2.078 3.777 1.205 13769
2.076 3.773 1.191 11624
2.185 3.971 1.233 5991
2.190 3.981 1.222 5659
2.199 3.997 1.212 4533
2.275 4.135 1.235 4470
2.272 4.131 1.220 5096
2.270 4.127 1.205 4647
2.275 4.136 1.193 3890
2.281 4.146 1.181 4113
2.286 4.155 1.169 4405
2.362 4.293 1.189 5145
2.363 4.296 1.175 6054
2.372 4.312 1.164 4479
2.407 4.376 1.164 5905
2.353 4.276 1.126 8180
2.350 4.272 1.110 14371
2.352 4.275 1.096 17078
2.357 4.284 1.083 18285
2.358 4.286 1.069 17189
2.359 4.289 1.055 15194
2.364 4.298 1.042 13398
2.366 4.300 1.028 10080
2.367 4.302 1.014 5900
2.376 4.318 1.003 3694
2.396 4.355 0.995 4576
2.412 4.384 0.986 4458
2.413 4.386 0.972 4399
2.410 4.381 0.956 3931
2.412 4.384 0.942 2598
2.416 4.392 0.928 2175
2.418 4.394 0.914 2020
2.562 4.657 0.945 2597
2.540 4.618 0.923 3161
2.538 4.613 0.906 3360
2.543 4.622 0.892 2636
2.536 4.610 0.875 2306
2.976 5.409 0.985 2064
2.981 5.418 0.968 1954
2.985 5.427 0.952 1848
3.043 5.532 0.949 2632
3.086 5.610 0.942 3279
3.087 5.612 0.923 4190
3.085 5.607 0.904 3621
3.055 5.554 0.878 3020
3.329 6.052 0.924 3213
3.330 6.054 0.904 3826
3.331 6.056 0.884 3673
3.332 6.058 0.864 3666
3.330 6.052 0.843 3021
3.490 6.344 0.856 1825
3.491 6.346 0.835 1830
3.564 6.479 0.828 2209
3.569 6.488 0.808 2473
3.566 6.482 0.786 2067
3.563 6.477 0.763 1367
3.747 6.810 0.773 2053
3.748 6.812 0.751 2003
3.817 6.938 0.739 1982
3.761 6.836 0.707 1646
4.131 7.508 0.739 2798
4.128 7.503 0.713 3664
4.128 7.504 0.688 3650
4.125 7.499 0.663 2876
2.507 4.557 0.441 1804
2.504 4.551 0.426 1850
2.504 4.552 0.411 1645
2.501 4.546 0.395 1431
2.501 4.546 0.380 1160
4.388 7.977 0.538 888
4.393 7.985 0.511 582
2.494 4.534 0.335 589
2.491 4.528 0.319 708
2.491 4.528 0.304 819
2.491 4.528 0.290 958
2.488 4.522 0.274 1303
2.488 4.522 0.259 1514
2.492 4.529 0.245 1672
2.492 4.530 0.230 1809
2.488 4.523 0.215 1795
2.488 4.523 0.200 1616
2.485 4.516 0.185 1438
2.485 4.516 0.170 1131
2.477 4.503 0.155 658
2.469 4.489 0.140 512
4.480 8.144 0.114 568
4.477 8.137 0.087 896
4.476 8.137 0.060 1251
4.480 8.144 0.033 1763
4.484 8.150 0.006 2955
4.484 8.150 -0.021 3558
