6.948 -5.775 1.386 2710
6.932 -5.762 1.356 2373
6.856 -5.699 1.316 3099
6.859 -5.701 1.291 3769
6.862 -5.703 1.265 3784
6.864 -5.705 1.239 3264
6.873 -5.712 1.214 2528
6.869 -5.709 1.187 1771
6.877 -5.716 1.162 1182
6.886 -5.723 1.137 993
6.882 -5.720 1.110 788
6.878 -5.717 1.083 529
6.880 -5.719 1.057 303
1.695 -1.414 1.704 6384
1.699 -1.416 1.697 12768
1.702 -1.419 1.691 12768
1.701 -1.418 1.680 12921
1.704 -1.421 1.674 13287
1.713 -1.428 1.672 14571
1.716 -1.431 1.666 16119
1.719 -1.434 1.659 15432
1.723 -1.437 1.653 14454
1.726 -1.439 1.646 14162
1.730 -1.442 1.640 11125
1.733 -1.445 1.634 8088
1.741 -1.452 1.632 6987
1.745 -1.455 1.625 6021
1.743 -1.453 1.614 4921
1.741 -1.452 1.603 4164
1.744 -1.455 1.597 3158
1.885 -1.572 1.707 2580
1.889 -1.575 1.700 3416
1.887 -1.573 1.689 5134
1.885 -1.572 1.678 6946
1.894 -1.579 1.675 7486
1.897 -1.582 1.668 8047
1.896 -1.581 1.657 8898
1.899 -1.584 1.650 9843
1.902 -1.586 1.643 8537
1.906 -1.589 1.636 7232
1.966 -1.639 1.674 7078
1.970 -1.642 1.667 7215
1.973 -1.645 1.659 6257
2.023 -1.687 1.689 5860
2.022 -1.686 1.677 6445
2.025 -1.689 1.669 7081
2.034 -1.696 1.666 5401
2.048 -1.707 1.666 2999
2.093 -1.745 1.691 2543
2.123 -1.770 1.703 2855
2.068 -1.725 1.651 3278
2.072 -1.727 1.644 3067
2.086 -1.739 1.644 2938
2.084 -1.737 1.632 3061
2.167 -1.807 1.682 3324
2.181 -1.818 1.682 4744
2.195 -1.830 1.681 7154
2.209 -1.842 1.681 8169
2.207 -1.840 1.669 9745
2.205 -1.839 1.657 11565
2.209 -1.842 1.648 12803
2.207 -1.840 1.636 10961
2.205 -1.838 1.624 8046
2.213 -1.846 1.620 5957
2.292 -1.911 1.663 6430
2.290 -1.910 1.651 8487
2.299 -1.917 1.646 8210
2.319 -1.933 1.648 6946
2.333 -1.945 1.646 6317
2.336 -1.948 1.638 5537
2.427 -2.023 1.685 7909
2.425 -2.022 1.673 9077
2.444 -2.038 1.674 11697
2.453 -2.046 1.669 13304
2.402 -2.003 1.625 14824
2.405 -2.006 1.616 16640
2.414 -2.013 1.610 19607
2.423 -2.020 1.605 19037
2.421 -2.018 1.592 17156
2.424 -2.021 1.583 15005
2.427 -2.024 1.574 10305
2.530 -2.109 1.624 9621
2.550 -2.126 1.625 8603
2.564 -2.138 1.622 6798
2.595 -2.164 1.628 5265
2.560 -2.134 1.596 4807
2.669 -2.225 1.647 6779
2.672 -2.228 1.637 8152
2.670 -2.226 1.624 8508
2.667 -2.224 1.611 10173
2.688 -2.241 1.610 10937
2.713 -2.262 1.613 9533
2.728 -2.274 1.609 10379
2.725 -2.273 1.595 11168
2.729 -2.275 1.585 13049
2.732 -2.278 1.575 16124
2.735 -2.281 1.565 13469
2.750 -2.293 1.560 9055
2.758 -2.300 1.553 5582
2.886 -2.406 1.607 4264
2.906 -2.423 1.605 5099
2.921 -2.435 1.600 5938
2.935 -2.448 1.594 7784
2.939 -2.450 1.583 7053
2.942 -2.453 1.572 5726
2.945 -2.456 1.561 6136
3.153 -2.629 1.650 5991
3.122 -2.604 1.622 5643
3.126 -2.606 1.610 5682
3.198 -2.666 1.631 4786
3.207 -2.674 1.621 6287
3.210 -2.677 1.609 6864
3.213 -2.679 1.597 5817
3.211 -2.677 1.582 5558
3.208 -2.675 1.568 5862
3.217 -2.683 1.558 5050
3.376 -2.815 1.615 4149
3.402 -2.837 1.612 4246
3.452 -2.878 1.620 3914
3.472 -2.895 1.614 3362
3.481 -2.903 1.604 4536
3.479 -2.901 1.588 3788
3.575 -2.981 1.614 3536
3.595 -2.998 1.607 3267
3.628 -3.025 1.606 2602
3.625 -3.023 1.590 3942
3.623 -3.021 1.574 3658
3.713 -3.096 1.595 3112
3.670 -3.060 1.563 3806
3.690 -3.077 1.556 4015
3.769 -3.143 1.571 4655
3.784 -3.155 1.561 4456
3.828 -3.192 1.562 3626
3.843 -3.204 1.552 4295
3.893 -3.246 1.555 3337
3.925 -3.273 1.551 3100
4.017 -3.349 1.568 3123
4.026 -3.357 1.555 4265
4.111 -3.428 1.568 4564
4.108 -3.426 1.551 8449
4.111 -3.428 1.535 8380
4.120 -3.436 1.522 6292
4.118 -3.433 1.504 4735
4.127 -3.441 1.491 3127
4.147 -3.458 1.481 3205
4.439 -3.702 1.559 2770
4.437 -3.699 1.540 3292
4.416 -3.682 1.516 2987
4.484 -3.739 1.520 2415
4.564 -3.806 1.526 3853
4.556 -3.799 1.506 3615
4.547 -3.791 1.485 2658
4.591 -3.828 1.480 1929
4.606 -3.841 1.466 1735
4.853 -4.046 1.519 2396
4.814 -4.014 1.489 2423
4.983 -4.155 1.517 2837
4.993 -4.163 1.500 2779
5.001 -4.170 1.482 2418
5.124 -4.272 1.495 1967
5.204 -4.339 1.496 1791
5.219 -4.352 1.480 1470
5.407 -4.508 1.507 2317
5.410 -4.511 1.487 3166
5.240 -4.369 1.424 2869
5.548 -4.626 1.478 1899
5.658 -4.718 1.483 2537
5.643 -4.705 1.457 3044
5.652 -4.713 1.437 4153
5.673 -4.730 1.420 5408
5.688 -4.743 1.401 4824
5.703 -4.755 1.383 3944
5.711 -4.762 1.362 4220
5.732 -4.780 1.345 3886
5.747 -4.792 1.325 4188
5.755 -4.799 1.305 3098
6.467 -5.392 1.425 1974
6.464 -5.390 1.400 1663
6.954 -5.798 1.469 1830
6.921 -5.771 1.436 2323
6.924 -5.773 1.410 2486
6.945 -5.791 1.387 2478
6.923 -5.773 1.356 2211
6.848 -5.710 1.316 2696
6.850 -5.712 1.291 3379
6.853 -5.714 1.265 3308
6.855 -5.716 1.239 2785
6.858 -5.718 1.213 2132
6.860 -5.720 1.187 1481
6.868 -5.727 1.162 995
6.877 -5.734 1.137 824
6.873 -5.731 1.110 649
6.869 -5.728 1.083 452
6.871 -5.729 1.057 267
1.696 -1.423 1.708 5914
1.699 -1.426 1.702 11829
1.703 -1.429 1.696 11829
1.701 -1.427 1.685 11904
1.700 -1.426 1.674 12274
1.708 -1.433 1.672 13982
1.712 -1.436 1.666 15873
1.715 -1.439 1.659 15079
1.719 -1.442 1.653 14044
1.722 -1.445 1.646 13804
1.725 -1.447 1.640 10455
1.729 -1.450 1.634 7107
1.737 -1.457 1.632 6386
1.745 -1.464 1.630 5707
1.739 -1.459 1.614 4646
1.737 -1.457 1.603 3941
1.745 -1.464 1.601 2996
1.880 -1.578 1.707 2389
1.884 -1.580 1.700 3148
1.882 -1.579 1.689 4982
1.881 -1.578 1.678 6915
1.884 -1.581 1.671 7573
1.893 -1.588 1.668 8283
1.891 -1.586 1.657 9523
1.894 -1.589 1.650 10814
1.898 -1.592 1.643 9437
1.906 -1.599 1.640 8114
1.961 -1.645 1.674 7143
1.965 -1.648 1.667 7368
1.973 -1.655 1.663 6253
2.018 -1.693 1.689 6224
2.017 -1.692 1.677 6844
2.020 -1.695 1.669 7499
2.029 -1.702 1.666 5828
2.037 -1.709 1.662 3739
2.041 -1.712 1.655 3035
2.049 -1.719 1.651 3656
2.053 -1.722 1.643 4350
2.061 -1.729 1.640 3640
2.070 -1.737 1.636 2945
2.073 -1.739 1.628 3388
2.156 -1.809 1.678 4438
2.175 -1.825 1.682 5299
2.195 -1.841 1.685 7619
2.204 -1.849 1.681 8662
2.202 -1.847 1.669 10217
2.200 -1.845 1.657 12101
2.203 -1.848 1.648 13393
2.201 -1.847 1.636 11003
2.199 -1.845 1.624 7592
2.208 -1.852 1.620 5680
2.286 -1.918 1.663 5986
2.284 -1.916 1.651 7828
2.293 -1.924 1.646 7437
2.307 -1.936 1.644 5864
2.327 -1.952 1.646 5313
2.422 -2.032 1.698 5191
2.426 -2.035 1.689 8217
2.429 -2.038 1.680 9536
2.438 -2.046 1.674 12553
2.447 -2.053 1.669 14274
2.456 -2.060 1.663 13053
2.399 -2.013 1.616 14254
2.408 -2.020 1.610 16865
2.411 -2.023 1.601 16520
2.415 -2.026 1.592 15036
2.418 -2.028 1.583 13404
2.421 -2.031 1.574 9179
2.523 -2.117 1.624 9204
2.538 -2.129 1.622 8584
2.558 -2.146 1.622 6591
2.594 -2.176 1.632 4993
2.548 -2.137 1.593 5576
2.662 -2.233 1.647 6557
2.665 -2.236 1.637 7759
2.663 -2.234 1.624 8078
2.661 -2.232 1.611 8544
2.703 -2.268 1.623 9084
2.718 -2.280 1.619 11037
2.726 -2.287 1.612 14230
2.730 -2.290 1.601 14580
2.727 -2.288 1.588 14823
2.731 -2.291 1.578 17131
2.734 -2.294 1.568 14204
2.748 -2.306 1.563 9772
2.751 -2.308 1.553 6017
2.879 -2.415 1.607 4294
2.893 -2.427 1.602 4851
2.913 -2.444 1.600 5301
2.928 -2.456 1.594 7018
2.931 -2.459 1.583 6181
2.934 -2.462 1.572 5680
2.938 -2.464 1.561 7019
3.140 -2.634 1.647 5998
3.120 -2.618 1.624 6186
3.118 -2.616 1.610 5967
3.195 -2.681 1.633 5245
3.204 -2.688 1.624 6664
3.202 -2.686 1.609 6002
3.211 -2.694 1.600 4268
3.220 -2.701 1.590 3792
3.206 -2.690 1.570 3788
3.209 -2.692 1.558 3318
3.373 -2.830 1.618 4653
3.440 -2.886 1.633 5086
3.449 -2.893 1.622 4648
3.464 -2.906 1.614 3713
3.473 -2.913 1.604 4541
3.470 -2.911 1.588 3927
3.468 -2.909 1.573 3825
3.581 -3.004 1.605 3240
3.624 -3.041 1.608 2915
3.616 -3.034 1.590 4095
3.619 -3.036 1.576 3497
3.709 -3.112 1.597 3362
3.655 -3.066 1.560 3304
3.693 -3.098 1.560 3554
3.760 -3.154 1.571 4652
3.775 -3.167 1.561 4452
3.813 -3.199 1.560 4235
3.828 -3.211 1.550 4756
3.889 -3.263 1.557 3190
4.050 -3.398 1.600 2948
4.077 -3.420 1.593 2825
4.115 -3.452 1.590 3489
4.107 -3.445 1.570 6095
4.104 -3.443 1.553 9092
4.101 -3.441 1.535 7781
4.104 -3.443 1.520 6209
4.107 -3.446 1.504 5372
4.122 -3.458 1.493 3697
4.143 -3.475 1.483 3593
4.428 -3.715 1.559 2785
4.426 -3.713 1.540 3383
4.423 -3.710 1.522 3049
4.473 -3.753 1.520 2703
4.470 -3.750 1.501 3658
4.544 -3.812 1.506 3229
4.535 -3.805 1.485 2396
4.586 -3.847 1.482 1882
4.819 -4.043 1.532 1864
4.840 -4.061 1.519 2638
4.843 -4.063 1.500 2670
4.971 -4.170 1.517 2784
4.867 -4.083 1.469 2774
4.864 -4.081 1.449 2352
5.105 -4.283 1.494 1827
5.191 -4.355 1.496 1501
5.146 -4.318 1.464 1361
5.393 -4.525 1.507 2393
5.396 -4.527 1.487 3264
5.394 -4.525 1.465 2316
5.540 -4.647 1.480 2144
5.644 -4.735 1.483 2713
5.629 -4.722 1.457 3162
5.632 -4.725 1.436 4526
5.653 -4.742 1.419 5874
5.668 -4.755 1.400 4829
5.682 -4.767 1.381 3447
5.697 -4.779 1.362 3680
5.712 -4.792 1.343 3122
5.732 -4.809 1.325 3369
6.436 -5.399 1.447 2743
6.445 -5.407 1.424 2058
6.448 -5.409 1.400 1785
6.943 -5.824 1.470 2059
6.903 -5.791 1.436 1957
6.906 -5.794 1.410 2085
6.933 -5.816 1.388 2231
6.906 -5.794 1.356 1956
6.830 -5.730 1.316 2171
6.827 -5.727 1.290 2795
6.836 -5.735 1.265 2675
6.838 -5.737 1.239 2214
6.847 -5.744 1.214 1671
6.843 -5.741 1.187 1116
6.851 -5.748 1.162 724
6.860 -5.755 1.137 581
6.856 -5.751 1.110 484
6.846 -5.743 1.082 364
1.699 -1.429 1.713 5569
1.702 -1.432 1.706 11139
1.706 -1.435 1.700 11139
1.704 -1.434 1.689 11005
1.698 -1.429 1.674 11276
1.706 -1.436 1.672 13279
1.710 -1.439 1.666 15416
1.713 -1.442 1.659 14557
1.716 -1.444 1.653 13541
1.720 -1.447 1.646 13383
1.723 -1.450 1.640 9785
1.736 -1.461 1.642 6369
1.740 -1.464 1.636 5868
1.743 -1.467 1.630 5368
1.736 -1.461 1.614 4350
1.735 -1.460 1.603 3709
1.743 -1.467 1.601 2825
1.756 -1.478 1.603 2203
1.881 -1.583 1.700 2878
1.875 -1.578 1.685 4829
1.878 -1.581 1.678 6843
1.882 -1.584 1.671 7630
1.890 -1.591 1.668 8454
1.888 -1.589 1.657 9950
1.892 -1.592 1.650 11481
1.900 -1.599 1.647 10148
1.904 -1.602 1.640 8903
1.902 -1.601 1.628 7146
1.962 -1.651 1.667 7352
1.976 -1.663 1.667 6210
2.016 -1.696 1.689 6441
2.014 -1.695 1.677 7157
2.017 -1.698 1.669 7894
2.026 -1.705 1.666 6298
2.035 -1.712 1.662 4853
2.038 -1.715 1.655 4774
2.041 -1.718 1.647 5321
2.050 -1.725 1.643 5905
2.053 -1.728 1.636 4596
2.062 -1.735 1.632 3349
2.145 -1.805 1.682 3871
2.148 -1.808 1.674 5598
2.167 -1.824 1.678 6017
2.192 -1.845 1.685 7987
2.206 -1.856 1.684 9137
2.204 -1.855 1.672 10463
2.197 -1.849 1.657 12214
2.200 -1.852 1.648 13461
2.204 -1.854 1.640 10798
2.202 -1.853 1.628 7119
2.205 -1.856 1.620 5373
2.283 -1.922 1.663 5637
2.281 -1.920 1.651 7230
2.290 -1.927 1.646 6671
2.304 -1.939 1.644 4766
2.324 -1.956 1.646 4349
2.425 -2.041 1.702 5325
2.423 -2.039 1.689 8258
2.432 -2.046 1.683 9632
2.435 -2.049 1.674 12681
2.444 -2.057 1.669 14435
2.447 -2.060 1.659 13111
2.456 -2.067 1.654 12859
2.405 -2.024 1.610 13758
2.408 -2.027 1.601 13507
2.411 -2.029 1.592 12425
2.415 -2.032 1.583 11380
2.418 -2.035 1.574 7809
2.520 -2.121 1.624 7943
2.535 -2.133 1.622 7654
2.554 -2.150 1.622 5733
2.558 -2.152 1.612 5088
2.544 -2.141 1.593 6932
2.548 -2.144 1.583 7695
2.662 -2.240 1.637 7141
2.660 -2.238 1.624 7342
2.657 -2.236 1.611 6867
2.711 -2.281 1.629 8966
2.720 -2.289 1.622 13323
2.723 -2.292 1.612 17882
2.732 -2.299 1.605 18063
2.729 -2.297 1.591 16669
2.727 -2.295 1.578 17865
2.736 -2.302 1.571 14722
2.750 -2.315 1.566 10498
2.754 -2.317 1.556 6552
2.875 -2.419 1.607 4171
2.889 -2.432 1.602 4475
2.915 -2.453 1.602 4739
2.930 -2.466 1.597 6264
2.927 -2.464 1.583 5123
2.931 -2.466 1.572 5373
2.934 -2.469 1.561 7568
3.124 -2.629 1.642 6049
3.122 -2.627 1.627 6919
3.120 -2.625 1.613 6400
3.197 -2.690 1.636 5844
3.206 -2.698 1.627 6975
3.204 -2.696 1.612 5340
3.218 -2.708 1.605 3788
3.244 -2.730 1.603 4003
3.253 -2.738 1.594 3030
3.348 -2.818 1.623 2611
3.369 -2.835 1.618 4690
3.435 -2.891 1.633 5548
3.444 -2.899 1.622 5111
3.459 -2.911 1.614 4012
3.462 -2.914 1.601 4355
3.466 -2.917 1.588 3800
3.457 -2.910 1.570 4063
3.576 -3.009 1.605 3043
3.620 -3.046 1.608 3289
3.617 -3.044 1.592 4053
3.696 -3.110 1.609 3334
3.710 -3.123 1.599 3591
3.719 -3.130 1.588 3038
3.717 -3.128 1.571 3623
3.726 -3.136 1.560 4607
3.776 -3.177 1.563 4214
3.808 -3.205 1.560 4466
3.823 -3.217 1.550 4814
3.884 -3.269 1.557 2992
4.045 -3.404 1.600 3182
4.106 -3.456 1.606 2912
4.110 -3.459 1.590 4601
4.101 -3.451 1.570 7376
4.098 -3.449 1.553 9024
4.096 -3.447 1.535 6705
4.099 -3.449 1.520 5717
4.102 -3.452 1.504 5566
4.123 -3.469 1.495 4110
4.137 -3.482 1.483 3806
4.428 -3.727 1.561 2978
4.420 -3.720 1.540 3634
4.423 -3.722 1.524 3390
4.467 -3.759 1.520 3074
4.470 -3.762 1.503 3589
4.538 -3.819 1.506 2758
4.529 -3.812 1.485 2023
4.586 -3.859 1.484 1770
4.819 -4.056 1.533 1950
4.834 -4.068 1.519 2681
4.837 -4.071 1.500 2804
4.959 -4.173 1.515 2696
4.861 -4.091 1.469 2725
4.971 -4.183 1.479 2199
4.962 -4.176 1.457 1732
5.137 -4.323 1.484 1346
5.140 -4.325 1.464 1414
5.380 -4.528 1.506 2401
5.384 -4.531 1.485 3191
5.553 -4.673 1.506 2166
5.550 -4.671 1.484 2616
5.637 -4.744 1.483 2758
5.622 -4.731 1.457 3148
5.625 -4.733 1.436 4630
5.645 -4.751 1.419 5940
5.654 -4.758 1.399 4591
5.675 -4.776 1.381 2901
5.684 -4.783 1.361 3094
5.704 -4.801 1.343 2387
6.425 -5.407 1.472 2845
6.428 -5.409 1.447 2528
6.437 -5.417 1.424 2032
6.937 -5.838 1.497 1862
6.940 -5.840 1.471 2303
6.948 -5.848 1.446 2009
6.915 -5.820 1.413 1822
6.924 -5.827 1.388 2016
6.897 -5.804 1.356 1603
6.816 -5.736 1.315 1724
6.818 -5.738 1.290 2254
6.827 -5.745 1.265 2074
6.829 -5.747 1.239 1657
6.838 -5.754 1.214 1215
6.840 -5.756 1.188 767
6.842 -5.758 1.162 485
6.851 -5.765 1.137 399
6.841 -5.757 1.109 347
6.837 -5.754 1.082 263
1.694 -1.435 1.713 5429
1.698 -1.438 1.706 10858
1.701 -1.441 1.700 10858
1.705 -1.444 1.694 10407
1.693 -1.434 1.674 10376
1.702 -1.441 1.672 12548
1.705 -1.444 1.666 14823
1.708 -1.447 1.659 13943
1.712 -1.450 1.653 13012
1.715 -1.453 1.646 12961
1.719 -1.455 1.640 9212
1.737 -1.471 1.647 5968
1.740 -1.474 1.640 5515
1.744 -1.477 1.634 5061
1.737 -1.471 1.619 4065
1.730 -1.465 1.603 3471
1.738 -1.472 1.601 2644
1.817 -1.539 1.660 2202
1.851 -1.568 1.679 2716
1.870 -1.584 1.685 4701
1.873 -1.586 1.678 6762
1.877 -1.589 1.671 7615
1.885 -1.597 1.668 8509
1.884 -1.595 1.657 10186
1.887 -1.598 1.650 11905
1.895 -1.605 1.647 10671
1.899 -1.608 1.640 9488
1.902 -1.611 1.633 7648
1.962 -1.662 1.671 7200
1.976 -1.673 1.672 6103
2.010 -1.703 1.689 6562
2.009 -1.701 1.677 7389
2.012 -1.704 1.669 8226
2.021 -1.711 1.666 6731
2.029 -1.719 1.662 5965
2.033 -1.721 1.655 6527
2.036 -1.724 1.647 7001
2.039 -1.727 1.640 7475
2.048 -1.734 1.636 5652
2.051 -1.737 1.628 3854
2.139 -1.811 1.682 4495
2.142 -1.814 1.674 6468
2.156 -1.826 1.674 6650
2.186 -1.851 1.685 8217
2.200 -1.863 1.684 9490
2.198 -1.862 1.672 10515
2.196 -1.860 1.660 11991
2.200 -1.863 1.652 13075
2.198 -1.861 1.640 10311
2.201 -1.864 1.632 6618
2.204 -1.867 1.624 5046
2.277 -1.929 1.663 5423
2.281 -1.932 1.654 6849
2.284 -1.934 1.646 5968
2.347 -1.987 1.677 3857
2.420 -2.050 1.714 3973
2.418 -2.048 1.702 5297
2.416 -2.046 1.689 7920
2.425 -2.054 1.683 9250
2.429 -2.057 1.674 12210
2.438 -2.064 1.669 13868
2.441 -2.067 1.659 12621
2.450 -2.075 1.654 12371
2.459 -2.082 1.648 12827
2.402 -2.034 1.601 10614
2.405 -2.037 1.592 9931
2.408 -2.040 1.583 9312
2.417 -2.047 1.577 6393
2.514 -2.129 1.624 6454
2.522 -2.136 1.618 6657
2.520 -2.134 1.606 5387
2.546 -2.156 1.609 5769
2.538 -2.149 1.593 8707
2.541 -2.152 1.583 9194
2.544 -2.155 1.574 6365
2.653 -2.246 1.624 6464
2.700 -2.287 1.639 6181
2.709 -2.294 1.632 9671
2.713 -2.297 1.622 15052
2.716 -2.300 1.612 20517
2.725 -2.307 1.605 20848
2.722 -2.305 1.591 18107
2.720 -2.303 1.578 17849
2.729 -2.311 1.571 14880
2.743 -2.323 1.566 11098
2.746 -2.326 1.556 7085
2.873 -2.433 1.610 3968
2.882 -2.441 1.602 3925
2.919 -2.472 1.608 4343
2.928 -2.480 1.600 5634
2.942 -2.492 1.595 4282
2.917 -2.471 1.570 5022
2.926 -2.478 1.561 7858
2.935 -2.486 1.553 6453
3.114 -2.637 1.627 7580
3.111 -2.635 1.613 6776
3.189 -2.700 1.636 6298
3.198 -2.708 1.627 7236
3.201 -2.711 1.614 5025
3.210 -2.718 1.605 3840
3.236 -2.740 1.603 4348
3.245 -2.748 1.594 3657
3.357 -2.843 1.630 2687
3.360 -2.845 1.618 4770
3.432 -2.906 1.635 5979
3.435 -2.909 1.622 5575
3.444 -2.917 1.612 4389
3.453 -2.924 1.601 4120
3.451 -2.922 1.586 3604
3.448 -2.920 1.570 4233
3.457 -2.928 1.560 2943
3.610 -3.057 1.608 3574
3.608 -3.055 1.592 3882
3.692 -3.126 1.611 3149
3.701 -3.134 1.599 3624
3.710 -3.142 1.588 3358
3.707 -3.140 1.571 3696
3.716 -3.147 1.560 4557
3.760 -3.184 1.561 3953
3.798 -3.216 1.560 4381
3.813 -3.229 1.550 4621
3.874 -3.281 1.557 2808
4.034 -3.416 1.600 3224
4.096 -3.468 1.606 3398
4.099 -3.471 1.590 5555
4.090 -3.464 1.570 8017
4.088 -3.462 1.553 8333
4.085 -3.460 1.535 5494
4.088 -3.462 1.520 5167
4.091 -3.465 1.504 5539
4.112 -3.482 1.495 4476
4.127 -3.495 1.483 3899
4.417 -3.741 1.561 2936
4.414 -3.738 1.542 3696
4.411 -3.736 1.524 3630
4.456 -3.773 1.520 3318
4.459 -3.776 1.503 3466
4.473 -3.788 1.489 2507
4.582 -3.881 1.504 1856
4.580 -3.878 1.485 1772
4.818 -4.081 1.537 2067
4.816 -4.078 1.517 2701
4.824 -4.086 1.500 2821
4.940 -4.183 1.514 2597
4.848 -4.106 1.469 2588
4.952 -4.193 1.478 2270
4.949 -4.191 1.457 2048
5.129 -4.344 1.485 1264
5.298 -4.487 1.509 1380
5.355 -4.535 1.503 2463
5.369 -4.547 1.485 3082
5.545 -4.696 1.508 2857
5.542 -4.693 1.485 3357
5.545 -4.696 1.464 2867
5.601 -4.743 1.456 3120
5.610 -4.751 1.436 4527
5.631 -4.768 1.419 5737
5.639 -4.776 1.399 4238
5.654 -4.788 1.380 2361
5.669 -4.801 1.361 2507
6.399 -5.419 1.495 2083
6.408 -5.427 1.472 2465
6.411 -5.429 1.447 2189
6.414 -5.432 1.423 1880
6.918 -5.859 1.497 1979
6.921 -5.862 1.471 2508
6.936 -5.874 1.447 2351
6.939 -5.877 1.421 1962
6.906 -5.849 1.388 1792
6.879 -5.826 1.356 1249
6.798 -5.757 1.315 1342
6.800 -5.759 1.290 1722
6.803 -5.761 1.264 1519
6.811 -5.768 1.239 1158
6.820 -5.775 1.214 832
6.822 -5.777 1.188 491
6.824 -5.779 1.162 296
6.821 -5.776 1.135 259
1.695 -1.444 1.717 5395
1.698 -1.447 1.711 10791
1.702 -1.450 1.705 10791
1.700 -1.449 1.694 10021
1.689 -1.439 1.674 9677
1.697 -1.446 1.672 11879
1.701 -1.449 1.666 14180
1.704 -1.452 1.659 13317
1.707 -1.455 1.653 12523
1.711 -1.458 1.646 12591
1.719 -1.465 1.644 8785
1.757 -1.497 1.669 5910
1.741 -1.483 1.645 5381
1.744 -1.486 1.638 4951
1.747 -1.489 1.632 3918
1.726 -1.470 1.603 3216
1.789 -1.525 1.649 2557
1.818 -1.549 1.664 2556
1.821 -1.552 1.657 2870
1.855 -1.581 1.676 4662
1.863 -1.588 1.674 6670
1.872 -1.595 1.671 7503
1.880 -1.602 1.668 8424
1.884 -1.605 1.661 10222
1.882 -1.604 1.650 12044
1.891 -1.611 1.647 10934
1.894 -1.614 1.640 9849
1.897 -1.617 1.633 8005
1.957 -1.668 1.671 6921
1.971 -1.679 1.672 5956
2.000 -1.704 1.685 6584
2.004 -1.707 1.677 7537
2.007 -1.710 1.669 8491
2.016 -1.717 1.666 7088
2.024 -1.725 1.662 6890
2.028 -1.728 1.655 7988
2.031 -1.730 1.647 8405
2.034 -1.733 1.640 8822
2.043 -1.741 1.636 6580
2.046 -1.743 1.628 4402
2.133 -1.818 1.682 5125
2.137 -1.821 1.674 7201
2.151 -1.833 1.674 7090
2.181 -1.858 1.685 8293
2.195 -1.870 1.684 9705
2.193 -1.868 1.672 10386
2.191 -1.867 1.660 11590
2.194 -1.870 1.652 12485
2.198 -1.872 1.644 9715
2.196 -1.871 1.632 6060
2.199 -1.874 1.624 4719
2.272 -1.936 1.663 5319
2.275 -1.938 1.654 6679
2.278 -1.941 1.646 5459
2.335 -1.990 1.673 4133
2.409 -2.052 1.711 3974
2.412 -2.055 1.702 5126
2.416 -2.058 1.692 7391
2.419 -2.061 1.683 8535
2.423 -2.064 1.674 11327
2.426 -2.067 1.665 12911
2.429 -2.070 1.656 11704
2.444 -2.082 1.654 11571
2.452 -2.090 1.648 12023
2.456 -2.092 1.639 8296
2.399 -2.044 1.592 7823
2.402 -2.047 1.583 7446
2.411 -2.054 1.577 5171
2.480 -2.113 1.608 5050
2.527 -2.153 1.625 5480
2.514 -2.142 1.606 4998
2.534 -2.159 1.606 6498
2.531 -2.157 1.593 10184
2.534 -2.159 1.583 10478
2.538 -2.162 1.574 7078
2.640 -2.250 1.621 5667
2.699 -2.300 1.642 6321
2.702 -2.302 1.632 10160
2.706 -2.305 1.622 16042
2.709 -2.308 1.612 21981
2.718 -2.316 1.605 22481
2.715 -2.314 1.591 18846
2.719 -2.316 1.581 17566
2.722 -2.319 1.571 14714
2.736 -2.331 1.566 11316
2.739 -2.334 1.556 7356
2.737 -2.332 1.543 3831
2.903 -2.473 1.616 3375
2.917 -2.486 1.611 4215
2.926 -2.493 1.603 5155
2.935 -2.501 1.595 3889
2.910 -2.479 1.570 4645
2.919 -2.487 1.561 7909
2.928 -2.494 1.553 6847
3.106 -2.646 1.627 7952
3.109 -2.649 1.615 7064
3.180 -2.710 1.636 6546
3.195 -2.722 1.629 7330
3.198 -2.725 1.617 4913
3.202 -2.728 1.605 3856
3.228 -2.750 1.603 4521
3.237 -2.758 1.594 3873
3.377 -2.877 1.643 2851
3.351 -2.856 1.618 4578
3.423 -2.917 1.635 6229
3.432 -2.924 1.625 5923
3.435 -2.927 1.612 4792
3.433 -2.925 1.596 4097
3.436 -2.928 1.583 3590
3.434 -2.926 1.568 4178
3.592 -3.060 1.619 2716
3.601 -3.068 1.608 3581
3.598 -3.066 1.592 3559
3.619 -3.083 1.585 2956
3.691 -3.145 1.599 3657
3.700 -3.153 1.588 3703
3.704 -3.156 1.574 3758
3.707 -3.158 1.560 4350
3.745 -3.191 1.559 3702
3.782 -3.223 1.558 4159
3.803 -3.240 1.550 4251
3.864 -3.292 1.557 2473
4.024 -3.429 1.600 3252
4.079 -3.476 1.604 3802
4.083 -3.479 1.588 6304
4.080 -3.476 1.570 8064
4.077 -3.474 1.553 7307
4.080 -3.477 1.537 4616
4.078 -3.474 1.520 4710
4.087 -3.482 1.506 5159
4.101 -3.495 1.495 4504
4.110 -3.502 1.481 3778
4.411 -3.759 1.563 2940
4.403 -3.751 1.542 3733
4.406 -3.754 1.525 3918
4.444 -3.787 1.520 3462
4.447 -3.789 1.503 3211
4.468 -3.807 1.491 2273
4.571 -3.894 1.504 1916
4.738 -4.037 1.536 1841
4.806 -4.095 1.537 2261
4.803 -4.093 1.517 2685
4.818 -4.105 1.502 2746
4.909 -4.183 1.509 2689
4.836 -4.120 1.469 2342
4.933 -4.203 1.476 2349
4.930 -4.201 1.456 2345
5.282 -4.500 1.529 1496
5.285 -4.503 1.509 1719
5.335 -4.546 1.501 2520
5.350 -4.558 1.484 2770
5.530 -4.712 1.508 3620
5.528 -4.710 1.485 4133
5.531 -4.712 1.464 3515
5.581 -4.755 1.455 3005
5.596 -4.768 1.436 4096
5.622 -4.790 1.420 5273
5.619 -4.788 1.397 3726
5.871 -5.003 1.431 2098
5.868 -5.000 1.408 2635
6.371 -5.428 1.492 2035
6.398 -5.451 1.473 2100
6.389 -5.443 1.446 1875
6.237 -5.314 1.390 1736
6.907 -5.885 1.499 2068
6.910 -5.887 1.472 2682
6.919 -5.895 1.447 2612
6.927 -5.902 1.422 2121
6.930 -5.905 1.395 1589
6.927 -5.902 1.368 1219
6.924 -5.899 1.340 1239
6.926 -5.902 1.314 1523
6.786 -5.782 1.264 1050
6.794 -5.789 1.239 771
6.802 -5.796 1.214 526
6.805 -5.798 1.188 290
1.692 -1.447 1.717 5414
1.696 -1.450 1.711 10829
1.699 -1.453 1.705 10829
1.703 -1.456 1.698 9849
1.687 -1.442 1.674 9121
1.690 -1.445 1.667 11306
1.693 -1.448 1.661 13490
1.702 -1.455 1.659 12644
1.705 -1.458 1.653 12013
1.708 -1.461 1.646 12209
1.717 -1.468 1.644 8505
1.755 -1.500 1.669 6230
1.743 -1.490 1.649 5478
1.747 -1.493 1.643 5019
1.750 -1.496 1.636 4010
1.778 -1.520 1.651 3234
1.782 -1.523 1.645 2947
1.810 -1.548 1.660 2946
1.819 -1.555 1.657 3373
1.832 -1.566 1.659 4872
1.841 -1.574 1.656 6729
1.864 -1.594 1.667 7317
1.878 -1.605 1.668 8235
1.881 -1.608 1.661 10102
1.879 -1.607 1.650 11987
1.888 -1.614 1.647 10996
1.891 -1.617 1.640 10023
1.889 -1.615 1.628 8243
1.888 -1.614 1.617 6760
1.968 -1.683 1.672 5713
1.997 -1.707 1.685 6499
2.006 -1.715 1.681 7616
2.009 -1.718 1.674 8739
2.013 -1.721 1.666 7426
2.021 -1.728 1.662 7708
2.025 -1.731 1.655 9242
2.028 -1.734 1.647 9593
2.031 -1.737 1.640 9945
2.035 -1.739 1.632 7426
2.038 -1.742 1.624 4907
2.130 -1.821 1.682 6085
2.134 -1.824 1.674 8313
2.143 -1.832 1.670 7906
2.183 -1.866 1.689 8283
2.192 -1.874 1.684 9795
2.190 -1.872 1.672 10128
2.188 -1.870 1.660 11081
2.191 -1.873 1.652 11713
2.200 -1.881 1.648 9017
2.203 -1.883 1.639 5469
2.201 -1.882 1.627 4260
2.274 -1.944 1.666 5307
2.277 -1.947 1.658 6768
2.313 -1.977 1.671 5500
2.332 -1.994 1.673 4468
2.405 -2.056 1.711 3787
2.409 -2.059 1.702 4758
2.407 -2.058 1.689 6614
2.410 -2.061 1.680 7513
2.419 -2.068 1.674 10060
2.423 -2.071 1.665 11630
2.426 -2.074 1.656 10646
2.440 -2.086 1.654 10429
2.449 -2.094 1.648 10683
2.452 -2.096 1.639 6987
2.396 -2.048 1.592 5927
2.404 -2.055 1.587 5819
2.495 -2.133 1.631 4287
2.471 -2.112 1.605 4830
2.529 -2.162 1.628 4423
2.510 -2.146 1.606 4628
2.524 -2.158 1.603 7321
2.528 -2.161 1.593 11331
2.531 -2.164 1.583 11345
2.534 -2.166 1.574 7480
2.637 -2.254 1.621 4991
2.701 -2.309 1.645 6430
2.704 -2.312 1.635 10413
2.702 -2.310 1.622 16295
2.705 -2.313 1.612 22685
2.714 -2.320 1.605 23259
2.712 -2.318 1.591 18679
2.715 -2.321 1.581 16673
2.724 -2.328 1.574 14226
2.732 -2.336 1.566 11073
2.735 -2.339 1.556 7249
2.727 -2.332 1.540 3463
2.798 -2.392 1.564 3294
2.919 -2.495 1.614 4333
2.922 -2.498 1.603 4851
2.931 -2.505 1.595 3734
3.058 -2.614 1.645 4378
2.920 -2.496 1.564 7828
2.923 -2.499 1.553 7040
3.102 -2.651 1.627 7939
3.105 -2.654 1.615 7085
3.176 -2.715 1.636 6459
3.191 -2.728 1.629 7242
3.194 -2.730 1.617 4767
3.203 -2.738 1.608 3890
3.223 -2.755 1.603 4676
3.226 -2.758 1.591 3900
3.372 -2.883 1.643 3527
3.375 -2.885 1.630 4300
3.418 -2.922 1.635 6231
3.427 -2.930 1.625 6118
3.431 -2.933 1.612 5256
3.428 -2.931 1.596 4477
3.420 -2.924 1.578 3817
3.423 -2.926 1.565 4044
3.587 -3.066 1.619 2938
3.590 -3.069 1.606 3392
3.593 -3.072 1.592 3176
3.614 -3.089 1.585 2999
3.692 -3.156 1.602 3567
3.701 -3.164 1.590 3916
3.698 -3.162 1.574 3729
3.701 -3.164 1.560 4028
3.734 -3.192 1.557 3363
3.777 -3.229 1.558 3861
3.792 -3.242 1.548 3843
3.795 -3.244 1.533 2137
4.018 -3.435 1.600 3155
4.074 -3.483 1.604 3964
4.077 -3.485 1.588 6703
4.068 -3.478 1.568 7328
4.072 -3.481 1.553 5928
4.075 -3.483 1.537 4190
4.072 -3.481 1.520 4310
4.081 -3.489 1.506 4301
4.096 -3.501 1.495 4081
4.104 -3.509 1.481 3542
4.417 -3.776 1.567 2982
4.397 -3.759 1.542 3664
4.400 -3.761 1.525 4001
4.438 -3.794 1.520 3584
4.441 -3.797 1.503 2970
4.591 -3.924 1.531 2105
4.558 -3.897 1.503 1825
4.732 -4.045 1.536 2280
4.735 -4.048 1.518 2580
4.808 -4.111 1.520 2636
4.817 -4.118 1.504 2664
4.897 -4.186 1.507 2836
4.906 -4.194 1.490 2324
4.920 -4.206 1.474 2578
4.923 -4.209 1.456 2597
5.268 -4.504 1.528 1764
5.271 -4.506 1.508 1948
5.328 -4.554 1.501 2540
5.342 -4.567 1.484 2518
5.523 -4.721 1.508 4406
5.526 -4.724 1.487 4931
5.523 -4.721 1.464 4220
5.538 -4.734 1.446 3249
5.582 -4.772 1.435 3570
5.614 -4.800 1.420 4673
5.611 -4.797 1.397 3083
5.863 -5.012 1.431 2331
5.860 -5.010 1.408 2926
5.857 -5.007 1.384 2175
6.383 -5.456 1.472 1777
6.225 -5.322 1.414 1635
6.454 -5.517 1.436 1615
6.903 -5.901 1.500 2151
6.900 -5.899 1.472 2768
6.909 -5.906 1.447 2744
6.918 -5.914 1.422 2173
6.932 -5.926 1.398 1540
6.923 -5.919 1.369 1206
6.920 -5.916 1.341 1290
6.917 -5.913 1.314 1521
6.919 -5.915 1.288 952
6.784 -5.800 1.239 478
6.793 -5.807 1.214 306
1.688 -1.452 1.717 5458
1.691 -1.455 1.711 10916
1.695 -1.458 1.705 10916
1.698 -1.461 1.698 9754
1.682 -1.447 1.674 8677
1.686 -1.450 1.667 10776
1.689 -1.453 1.661 12876
1.692 -1.456 1.655 12024
1.701 -1.463 1.653 11549
1.704 -1.466 1.646 11876
1.712 -1.473 1.644 8327
1.745 -1.501 1.665 6600
1.744 -1.500 1.654 5826
1.747 -1.503 1.647 5217
1.751 -1.506 1.641 4303
1.774 -1.526 1.651 3712
1.777 -1.529 1.645 3461
1.806 -1.553 1.660 3394
1.814 -1.560 1.657 4020
1.827 -1.572 1.659 5393
1.836 -1.579 1.656 7205
1.849 -1.591 1.658 7183
1.873 -1.611 1.668 7903
1.876 -1.614 1.661 9803
1.875 -1.612 1.650 11741
1.883 -1.620 1.647 10839
1.886 -1.622 1.640 9977
1.885 -1.621 1.628 8314
1.883 -1.619 1.617 6947
1.963 -1.688 1.672 5413
1.997 -1.718 1.689 6388
2.001 -1.721 1.681 7682
2.004 -1.724 1.674 8976
2.008 -1.727 1.666 7732
2.016 -1.734 1.662 8360
2.019 -1.737 1.655 10206
2.023 -1.740 1.647 10463
2.026 -1.743 1.640 10720
2.029 -1.746 1.632 8032
2.033 -1.748 1.624 5345
2.130 -1.832 1.686 6765
2.128 -1.831 1.674 9104
2.137 -1.838 1.670 8715
2.177 -1.873 1.689 8056
2.191 -1.885 1.688 9632
2.184 -1.878 1.672 9723
2.182 -1.877 1.660 10563
2.191 -1.884 1.656 10990
2.199 -1.892 1.651 8380
2.208 -1.899 1.647 5108
2.195 -1.888 1.627 3854
2.273 -1.955 1.670 5557
2.277 -1.958 1.662 7215
2.307 -1.984 1.671 6321
2.315 -1.992 1.666 5062
2.399 -2.064 1.711 3474
2.403 -2.067 1.702 4231
2.401 -2.065 1.689 5767
2.404 -2.068 1.680 6559
2.408 -2.071 1.671 8751
2.411 -2.074 1.662 10217
2.414 -2.077 1.652 9492
2.428 -2.089 1.650 9281
2.443 -2.101 1.648 9226
2.451 -2.108 1.642 5715
2.390 -2.055 1.592 4528
2.485 -2.138 1.640 5327
2.489 -2.140 1.631 5851
2.465 -2.120 1.605 4510
2.528 -2.174 1.631 3692
2.509 -2.158 1.609 4360
2.518 -2.166 1.603 8131
2.521 -2.168 1.593 12076
2.524 -2.171 1.583 11642
2.522 -2.169 1.571 7508
2.525 -2.172 1.561 4859
2.683 -2.307 1.639 6883
2.697 -2.320 1.635 10488
2.695 -2.318 1.622 15808
2.698 -2.321 1.612 22271
2.707 -2.328 1.605 23102
2.710 -2.331 1.594 17596
2.713 -2.334 1.584 14972
2.717 -2.337 1.574 13132
2.725 -2.344 1.566 10368
2.728 -2.347 1.556 6775
2.799 -2.407 1.581 3913
2.791 -2.400 1.564 4077
2.911 -2.504 1.614 4410
2.920 -2.511 1.606 4611
2.929 -2.519 1.598 3899
3.044 -2.618 1.643 4748
3.048 -2.621 1.631 7677
2.922 -2.513 1.556 7073
3.099 -2.666 1.630 7483
3.102 -2.668 1.618 6865
3.168 -2.725 1.636 5945
3.188 -2.742 1.632 6765
3.191 -2.745 1.620 4615
3.223 -2.772 1.621 4194
3.215 -2.765 1.603 4555
3.331 -2.865 1.643 3865
3.363 -2.893 1.643 4161
3.366 -2.895 1.630 4540
3.410 -2.933 1.635 5900
3.419 -2.940 1.625 6115
3.422 -2.943 1.612 5550
3.414 -2.936 1.594 4829
3.405 -2.929 1.576 4081
3.414 -2.937 1.565 3903
3.578 -3.077 1.619 2926
3.581 -3.080 1.606 3007
3.590 -3.088 1.594 2844
3.605 -3.100 1.585 2992
3.682 -3.167 1.602 3506
3.691 -3.175 1.590 4282
3.695 -3.178 1.576 3623
3.698 -3.180 1.562 3364
3.730 -3.208 1.559 2973
3.762 -3.235 1.556 3443
3.782 -3.253 1.548 3314
3.906 -3.360 1.579 2161
4.008 -3.447 1.600 3077
4.057 -3.490 1.601 3999
4.061 -3.493 1.586 6745
4.058 -3.490 1.568 6215
4.061 -3.493 1.553 4357
4.146 -3.566 1.566 4276
4.149 -3.568 1.550 5733
4.158 -3.576 1.536 4186
4.085 -3.514 1.495 3358
4.094 -3.521 1.481 2971
4.178 -3.594 1.492 3249
4.391 -3.777 1.544 3521
4.388 -3.775 1.525 3927
4.432 -3.812 1.522 3651
4.430 -3.810 1.503 2676
4.579 -3.938 1.531 2199
4.517 -3.885 1.494 1840
4.714 -4.054 1.534 2698
4.717 -4.057 1.516 2994
4.796 -4.125 1.520 2708
4.805 -4.133 1.504 2580
4.884 -4.201 1.507 3035
4.893 -4.208 1.490 2642
4.902 -4.216 1.473 2928
4.911 -4.224 1.456 2912
5.255 -4.520 1.528 1956
5.252 -4.517 1.506 2071
5.308 -4.565 1.500 2559
5.511 -4.740 1.530 2969
5.514 -4.743 1.509 5235
5.511 -4.740 1.487 5757
5.509 -4.738 1.464 4850
5.517 -4.745 1.445 3659
5.597 -4.814 1.442 2891
5.606 -4.822 1.422 3953
5.650 -4.860 1.409 2518
5.848 -5.030 1.431 2500
5.845 -5.027 1.408 3093
5.842 -5.025 1.384 2249
6.360 -5.470 1.470 1604
6.209 -5.340 1.414 1545
6.443 -5.542 1.437 1837
6.885 -5.922 1.500 2175
6.888 -5.925 1.473 2741
6.891 -5.927 1.447 2728
6.906 -5.940 1.423 2169
6.921 -5.952 1.399 1534
6.911 -5.945 1.370 1164
6.902 -5.937 1.341 1237
6.899 -5.934 1.314 1390
6.901 -5.936 1.288 871
6.904 -5.938 1.261 304
1.685 -1.455 1.717 5385
1.689 -1.458 1.711 10771
1.692 -1.461 1.705 10771
1.696 -1.464 1.698 9506
1.680 -1.450 1.674 8303
1.683 -1.453 1.667 10252
1.687 -1.456 1.661 12202
1.690 -1.459 1.655 11435
1.698 -1.466 1.653 11101
1.701 -1.469 1.646 11571
1.715 -1.480 1.649 8293
1.743 -1.504 1.665 7124
1.741 -1.503 1.654 6262
1.745 -1.506 1.647 5528
1.753 -1.513 1.645 4679
1.771 -1.529 1.651 4271
1.770 -1.527 1.640 4104
1.778 -1.535 1.638 4173
1.806 -1.559 1.653 4809
1.825 -1.575 1.659 5947
1.833 -1.582 1.656 7677
1.836 -1.585 1.650 7294
1.870 -1.614 1.668 7353
1.874 -1.617 1.661 9232
1.872 -1.616 1.650 11187
1.880 -1.623 1.647 10391
1.884 -1.626 1.640 9672
1.882 -1.624 1.628 8182
1.875 -1.618 1.613 7007
1.873 -1.617 1.602 5144
1.994 -1.721 1.689 6208
1.998 -1.724 1.681 7665
2.001 -1.727 1.674 9121
2.005 -1.730 1.666 7925
2.013 -1.738 1.662 8727
2.022 -1.745 1.659 10724
2.020 -1.743 1.647 10894
2.023 -1.746 1.640 11065
2.026 -1.749 1.632 8342
2.030 -1.752 1.624 5618
2.127 -1.836 1.686 6813
2.130 -1.839 1.678 8786
2.134 -1.842 1.670 8561
2.179 -1.881 1.693 7681
2.188 -1.888 1.688 9303
2.181 -1.882 1.672 9205
2.179 -1.881 1.660 10088
2.188 -1.888 1.656 10090
2.201 -1.900 1.655 7622
2.215 -1.912 1.654 4880
2.224 -1.920 1.649 3808
2.275 -1.964 1.674 5968
2.279 -1.967 1.665 7748
2.298 -1.983 1.667 7157
2.307 -1.991 1.662 6019
2.294 -1.980 1.643 4523
2.399 -2.071 1.702 3505
2.397 -2.069 1.689 4899
2.395 -2.067 1.676 5773
2.404 -2.075 1.671 7484
2.402 -2.073 1.658 8642
2.405 -2.076 1.649 8154
2.419 -2.088 1.647 8064
2.439 -2.105 1.648 7731
2.464 -2.127 1.652 4578
2.478 -2.139 1.649 4281
2.481 -2.142 1.640 6242
2.485 -2.145 1.631 7258
2.477 -2.138 1.615 4517
2.519 -2.174 1.628 3256
2.511 -2.167 1.612 4392
2.514 -2.170 1.603 8584
2.517 -2.173 1.593 12204
2.521 -2.176 1.583 11306
2.518 -2.174 1.571 7206
2.670 -2.304 1.646 5693
2.673 -2.307 1.636 7550
2.688 -2.320 1.632 10281
2.691 -2.323 1.622 14361
2.694 -2.325 1.612 20272
2.703 -2.333 1.605 21591
2.706 -2.336 1.594 15652
2.715 -2.343 1.587 12836
2.713 -2.341 1.574 11285
2.721 -2.349 1.566 9096
2.730 -2.356 1.559 5927
2.789 -2.407 1.578 4332
2.786 -2.405 1.564 4854
2.896 -2.499 1.608 4445
2.854 -2.463 1.574 4446
2.924 -2.524 1.598 4141
3.023 -2.609 1.634 5478
3.032 -2.617 1.625 8279
2.917 -2.518 1.556 6796
3.095 -2.671 1.630 6644
3.120 -2.693 1.629 6501
3.169 -2.735 1.639 5208
3.183 -2.748 1.632 6094
3.187 -2.750 1.620 4352
3.218 -2.778 1.621 4574
3.210 -2.771 1.603 4284
3.304 -2.852 1.633 4137
3.352 -2.894 1.641 4322
3.367 -2.906 1.633 4294
3.399 -2.934 1.633 5273
3.408 -2.941 1.622 5784
3.411 -2.944 1.609 5577
3.403 -2.937 1.591 5156
3.400 -2.935 1.576 4407
3.404 -2.938 1.563 3744
3.572 -3.083 1.619 2742
3.581 -3.091 1.608 2437
3.585 -3.094 1.594 2528
3.599 -3.107 1.585 2903
3.683 -3.179 1.604 3381
3.692 -3.186 1.592 4335
3.689 -3.184 1.576 3404
3.692 -3.187 1.562 2683
3.730 -3.219 1.561 2498
3.756 -3.242 1.556 3038
3.776 -3.260 1.548 2779
3.906 -3.372 1.581 2535
3.996 -3.449 1.598 3072
4.046 -3.492 1.599 3833
4.049 -3.495 1.584 6219
4.052 -3.497 1.568 5005
4.055 -3.500 1.553 3078
4.139 -3.573 1.566 4449
4.142 -3.575 1.550 6513
4.151 -3.583 1.536 5142
4.166 -3.596 1.524 3581
4.169 -3.598 1.508 3534
4.172 -3.601 1.492 4140
4.175 -3.604 1.476 3853
4.434 -3.827 1.542 4189
4.432 -3.825 1.523 3610
4.557 -3.933 1.545 2395
4.572 -3.946 1.531 2295
4.505 -3.888 1.492 2061
4.707 -4.062 1.534 2876
4.704 -4.060 1.514 3281
4.795 -4.138 1.522 2722
4.803 -4.146 1.505 2504
4.877 -4.209 1.507 2909
4.886 -4.217 1.490 2692
4.894 -4.225 1.473 3116
4.903 -4.232 1.456 3133
4.930 -4.255 1.443 2080
5.244 -4.526 1.506 2095
5.494 -4.742 1.550 2576
5.503 -4.750 1.530 3495
5.506 -4.752 1.509 5922
5.503 -4.750 1.487 6346
5.500 -4.747 1.464 5261
5.503 -4.750 1.443 4040
5.600 -4.834 1.444 3057
5.615 -4.847 1.426 3563
5.636 -4.864 1.408 2566
5.839 -5.040 1.431 2526
5.836 -5.037 1.408 3114
6.318 -5.453 1.488 2347
6.345 -5.476 1.469 1518
6.200 -5.351 1.414 1440
6.434 -5.553 1.437 1993
6.881 -5.939 1.501 2121
6.878 -5.937 1.473 2589
6.881 -5.939 1.447 2536
6.896 -5.952 1.423 2044
6.910 -5.964 1.399 1442
6.729 -5.808 1.339 1105
6.892 -5.949 1.341 1161
6.889 -5.946 1.314 1202
6.891 -5.948 1.288 735
6.900 -5.955 1.262 266
1.681 -1.460 1.717 5207
1.685 -1.463 1.711 10414
1.688 -1.466 1.705 10414
1.691 -1.469 1.698 9095
1.675 -1.455 1.674 7947
1.679 -1.458 1.667 9719
1.682 -1.461 1.661 11490
1.685 -1.464 1.655 10846
1.694 -1.471 1.653 10691
1.702 -1.478 1.651 11300
1.710 -1.485 1.649 8387
1.738 -1.510 1.665 7579
1.737 -1.508 1.654 6675
1.740 -1.511 1.647 5819
1.748 -1.518 1.645 5086
1.767 -1.534 1.651 4956
1.765 -1.533 1.640 4852
1.773 -1.540 1.638 5125
1.787 -1.551 1.640 5697
1.815 -1.576 1.655 6460
1.823 -1.583 1.652 8101
1.827 -1.586 1.645 7597
1.815 -1.576 1.626 7893
1.864 -1.618 1.657 8503
1.867 -1.621 1.650 10448
1.870 -1.624 1.643 9808
1.879 -1.631 1.640 9223
1.877 -1.630 1.628 7924
1.865 -1.619 1.609 7056
1.863 -1.618 1.598 5086
1.989 -1.727 1.689 6030
1.993 -1.730 1.681 7594
1.996 -1.733 1.674 9159
1.999 -1.736 1.666 7978
2.008 -1.744 1.662 8806
2.016 -1.751 1.659 10875
2.015 -1.749 1.647 10887
2.018 -1.752 1.640 10961
2.021 -1.755 1.632 8308
2.024 -1.758 1.624 5656
2.127 -1.847 1.690 6883
2.130 -1.850 1.682 8391
2.134 -1.853 1.674 8059
2.174 -1.887 1.693 7169
2.182 -1.895 1.688 8686
2.175 -1.889 1.672 8519
2.173 -1.887 1.660 9435
2.182 -1.895 1.656 9000
2.201 -1.911 1.659 6792
2.210 -1.919 1.654 4465
2.271 -1.972 1.686 4398
2.275 -1.975 1.677 6528
2.273 -1.974 1.665 8220
2.292 -1.990 1.667 7819
2.295 -1.993 1.659 6863
2.288 -1.987 1.643 5747
2.291 -1.990 1.634 4501
2.386 -2.072 1.685 4242
2.389 -2.075 1.676 5431
2.392 -2.077 1.667 6568
2.396 -2.080 1.658 7231
2.394 -2.079 1.646 6792
2.413 -2.096 1.647 7290
2.427 -2.108 1.644 6808
2.463 -2.139 1.655 4158
2.472 -2.146 1.649 4436
2.475 -2.149 1.640 6641
2.478 -2.152 1.631 7992
2.492 -2.164 1.628 4960
2.507 -2.177 1.625 3303
2.499 -2.170 1.609 4611
2.508 -2.178 1.603 8464
2.511 -2.180 1.593 11575
2.514 -2.183 1.583 10338
2.512 -2.181 1.571 6545
2.658 -2.308 1.643 7066
2.661 -2.311 1.633 8222
2.675 -2.323 1.629 9904
2.684 -2.331 1.622 12217
2.687 -2.333 1.612 17184
2.690 -2.336 1.601 19163
2.699 -2.344 1.594 13062
2.713 -2.356 1.590 10565
2.766 -2.402 1.606 9814
2.770 -2.405 1.596 7876
2.723 -2.364 1.559 4900
2.782 -2.415 1.578 4627
2.779 -2.413 1.564 5439
2.866 -2.489 1.597 4741
2.847 -2.472 1.574 4625
3.001 -2.606 1.640 4780
3.009 -2.613 1.631 6377
3.018 -2.621 1.623 8699
3.033 -2.634 1.617 7020
3.092 -2.685 1.633 5536
3.112 -2.703 1.629 5912
3.166 -2.749 1.641 4443
3.175 -2.757 1.632 5191
3.195 -2.775 1.628 4032
3.210 -2.787 1.621 4763
3.258 -2.829 1.629 4064
3.301 -2.866 1.635 4307
3.344 -2.904 1.641 4639
3.353 -2.911 1.630 4375
3.396 -2.949 1.635 4494
3.399 -2.952 1.622 5369
3.402 -2.954 1.609 5516
3.388 -2.942 1.589 5363
3.392 -2.945 1.576 4560
3.469 -3.012 1.594 3702
3.563 -3.094 1.619 2681
3.578 -3.107 1.611 2182
3.581 -3.110 1.597 2420
3.584 -3.112 1.583 2888
3.673 -3.190 1.604 3050
3.682 -3.197 1.592 4144
3.679 -3.195 1.576 3031
3.792 -3.293 1.604 2167
3.800 -3.300 1.592 2373
3.741 -3.248 1.553 2584
3.767 -3.271 1.548 2384
3.902 -3.388 1.583 2721
3.934 -3.416 1.579 3163
4.029 -3.499 1.597 3523
4.038 -3.507 1.584 5409
4.036 -3.504 1.566 3893
4.097 -3.557 1.571 2546
4.134 -3.590 1.568 4479
4.137 -3.593 1.552 6470
4.141 -3.596 1.536 5393
4.155 -3.608 1.524 4121
4.158 -3.611 1.508 4191
4.155 -3.609 1.490 4850
4.164 -3.616 1.476 4426
4.429 -3.846 1.544 4390
4.478 -3.889 1.542 3575
4.545 -3.947 1.545 2726
4.490 -3.899 1.509 2391
4.487 -3.897 1.490 2209
4.694 -4.076 1.534 2882
4.692 -4.074 1.514 3384
4.782 -4.153 1.522 2683
4.797 -4.165 1.507 2464
4.864 -4.224 1.507 2653
4.873 -4.232 1.490 2641
4.882 -4.239 1.473 3081
4.891 -4.247 1.456 3077
4.923 -4.275 1.445 2100
5.471 -4.751 1.569 2067
5.486 -4.764 1.551 2882
5.489 -4.766 1.530 3861
5.492 -4.769 1.509 6386
5.489 -4.766 1.487 6686
5.486 -4.764 1.464 5297
5.489 -4.766 1.443 4125
5.586 -4.851 1.444 3623
5.742 -4.986 1.458 3653
5.621 -4.881 1.408 2635
5.824 -5.058 1.431 2387
5.821 -5.055 1.408 2956
6.302 -5.472 1.488 2305
6.328 -5.495 1.469 1444
6.426 -5.580 1.464 1449
6.417 -5.572 1.437 1988
6.437 -5.590 1.416 2059
6.860 -5.957 1.473 2306
6.869 -5.965 1.448 2235
6.884 -5.978 1.424 1821
6.892 -5.985 1.399 1283
6.705 -5.823 1.338 1027
6.874 -5.969 1.341 1025
6.871 -5.966 1.314 978
6.873 -5.969 1.288 589
1.679 -1.463 1.717 5032
1.682 -1.466 1.711 10065
1.685 -1.469 1.705 10065
1.689 -1.472 1.698 8710
1.673 -1.458 1.674 7747
1.676 -1.461 1.667 9331
1.680 -1.464 1.661 10914
1.683 -1.467 1.655 10382
1.691 -1.474 1.653 10400
1.699 -1.481 1.651 11254
1.713 -1.492 1.653 8684
1.731 -1.508 1.660 8072
1.734 -1.511 1.654 7111
1.737 -1.514 1.647 6149
1.746 -1.521 1.645 5533
1.764 -1.537 1.651 5862
1.767 -1.540 1.645 5820
1.771 -1.543 1.638 6266
1.784 -1.555 1.640 7021
1.812 -1.579 1.655 7025
1.821 -1.587 1.652 8581
1.824 -1.589 1.645 8147
1.812 -1.579 1.626 8973
1.841 -1.604 1.640 8217
1.859 -1.620 1.645 9645
1.867 -1.627 1.643 9158
1.871 -1.630 1.636 8699
1.859 -1.620 1.616 7749
1.852 -1.614 1.601 7300
1.855 -1.617 1.594 5100
1.986 -1.731 1.689 5878
1.990 -1.734 1.681 7523
1.993 -1.737 1.674 9167
1.996 -1.740 1.666 7949
2.005 -1.747 1.662 8602
2.013 -1.754 1.659 10579
2.017 -1.757 1.651 10469
2.015 -1.756 1.640 10435
2.018 -1.759 1.632 8002
2.099 -1.829 1.683 6451
2.123 -1.851 1.690 7174
2.127 -1.853 1.682 8390
2.130 -1.856 1.674 7738
2.170 -1.891 1.693 6488
2.179 -1.899 1.688 7873
2.172 -1.893 1.672 7898
2.170 -1.891 1.660 9013
2.179 -1.898 1.656 8100
2.198 -1.915 1.659 6008
2.264 -1.973 1.695 4668
2.273 -1.981 1.690 5198
2.271 -1.979 1.677 7072
2.275 -1.982 1.669 8611
2.283 -1.990 1.664 8291
2.292 -1.997 1.659 7488
2.285 -1.991 1.643 6727
2.288 -1.994 1.634 5651
2.296 -2.001 1.629 5079
2.300 -2.004 1.620 5656
2.389 -2.082 1.667 6073
2.387 -2.080 1.655 6081
2.385 -2.078 1.642 5666
2.409 -2.100 1.647 7019
2.418 -2.107 1.641 7038
2.465 -2.148 1.659 4181
2.468 -2.151 1.649 4545
2.471 -2.154 1.640 6805
2.475 -2.156 1.631 8367
2.483 -2.164 1.624 5518
2.497 -2.176 1.622 3503
2.495 -2.174 1.609 4636
2.504 -2.182 1.603 7784
2.507 -2.185 1.593 10326
2.510 -2.188 1.583 8939
2.645 -2.305 1.650 7992
2.648 -2.308 1.640 8431
2.657 -2.315 1.633 8671
2.671 -2.328 1.629 9714
2.674 -2.331 1.619 10163
2.694 -2.348 1.618 13636
2.681 -2.336 1.598 16218
2.684 -2.339 1.588 10935
2.715 -2.366 1.593 8364
2.762 -2.407 1.606 9316
2.760 -2.405 1.593 7453
2.846 -2.480 1.626 4918
2.855 -2.488 1.619 5290
2.775 -2.418 1.564 5862
2.856 -2.489 1.594 5075
2.993 -2.608 1.651 5909
2.990 -2.606 1.637 6529
2.999 -2.614 1.629 7342
3.014 -2.626 1.623 9025
3.017 -2.629 1.611 7639
3.015 -2.627 1.597 5853
3.107 -2.708 1.629 5022
3.172 -2.765 1.647 3764
3.176 -2.768 1.635 4194
3.190 -2.780 1.628 3553
3.227 -2.812 1.631 4738
3.219 -2.805 1.614 4270
3.296 -2.872 1.635 4110
3.327 -2.900 1.635 4562
3.336 -2.907 1.625 4296
3.362 -2.930 1.623 4027
3.394 -2.957 1.622 4990
3.397 -2.960 1.609 5253
3.378 -2.943 1.586 5374
3.455 -3.010 1.605 5109
3.458 -3.013 1.592 4272
3.569 -3.110 1.624 3039
3.578 -3.118 1.613 2475
3.575 -3.116 1.597 2441
3.579 -3.119 1.583 2924
3.679 -3.206 1.609 2655
3.682 -3.209 1.595 3624
3.680 -3.207 1.578 2588
3.786 -3.299 1.604 2986
3.795 -3.307 1.592 3023
3.838 -3.345 1.593 2236
3.784 -3.297 1.556 2134
3.908 -3.405 1.587 2967
3.928 -3.423 1.579 3627
4.023 -3.506 1.597 3311
4.026 -3.509 1.582 4717
4.030 -3.512 1.566 3269
4.090 -3.565 1.571 2823
4.128 -3.597 1.568 4357
4.137 -3.605 1.554 5532
4.140 -3.608 1.538 5105
4.137 -3.605 1.520 4331
4.146 -3.613 1.506 4654
4.149 -3.616 1.490 5308
4.158 -3.623 1.476 4551
4.428 -3.859 1.546 4487
4.471 -3.897 1.542 3917
4.492 -3.914 1.530 3099
4.483 -3.907 1.509 2614
4.481 -3.905 1.490 2452
4.681 -4.080 1.532 2628
4.679 -4.077 1.513 3344
4.769 -4.156 1.520 2422
4.790 -4.174 1.507 2294
4.793 -4.176 1.489 2556
4.866 -4.240 1.490 2451
4.874 -4.248 1.473 2917
4.883 -4.255 1.456 2853
4.921 -4.288 1.446 2013
5.463 -4.760 1.569 2195
5.477 -4.773 1.551 3148
5.480 -4.776 1.530 4090
5.483 -4.779 1.509 6639
5.481 -4.776 1.487 6853
5.478 -4.774 1.464 5046
5.569 -4.853 1.464 4673
5.572 -4.855 1.443 4366
5.733 -4.996 1.458 4289
5.730 -4.994 1.435 2805
5.810 -5.063 1.430 2158
5.806 -5.060 1.406 2631
6.292 -5.483 1.488 2112
6.431 -5.604 1.493 1554
6.416 -5.591 1.464 1501
6.413 -5.589 1.438 1910
6.428 -5.601 1.416 2042
6.856 -5.974 1.475 1943
6.669 -5.812 1.412 1853
6.873 -5.990 1.424 1565
6.882 -5.997 1.399 1130
6.695 -5.835 1.338 906
6.870 -5.986 1.343 902
6.860 -5.978 1.314 745
7.082 -6.172 1.325 457
1.675 -1.467 1.717 4712
1.678 -1.470 1.711 9425
1.682 -1.473 1.705 9425
1.685 -1.476 1.698 8129
1.669 -1.462 1.674 7514
1.668 -1.461 1.663 8961
1.671 -1.464 1.656 10419
1.674 -1.467 1.650 9957
1.687 -1.478 1.653 10171
1.696 -1.485 1.651 11249
1.714 -1.501 1.658 9030
1.727 -1.513 1.660 8495
1.730 -1.516 1.654 7442
1.733 -1.519 1.647 6389
1.752 -1.535 1.654 5940
1.765 -1.546 1.656 6828
1.763 -1.545 1.645 6841
1.771 -1.552 1.642 7445
1.780 -1.559 1.640 8273
1.793 -1.571 1.642 7680
1.816 -1.591 1.652 9044
1.805 -1.581 1.632 9104
1.808 -1.584 1.626 10302
1.816 -1.591 1.623 8948
1.835 -1.607 1.629 9421
1.838 -1.610 1.622 8923
1.826 -1.600 1.602 8757
1.834 -1.607 1.599 8099
1.843 -1.614 1.597 7675
1.846 -1.617 1.590 5263
1.982 -1.736 1.689 5765
1.985 -1.739 1.681 7441
1.988 -1.742 1.674 9116
1.992 -1.745 1.666 7836
2.000 -1.752 1.662 8170
2.009 -1.760 1.659 9934
2.012 -1.763 1.651 9747
2.010 -1.761 1.640 9581
2.096 -1.836 1.695 7471
2.094 -1.835 1.683 7267
2.119 -1.856 1.690 7135
2.127 -1.864 1.686 8139
2.125 -1.862 1.674 7282
2.129 -1.865 1.666 5928
2.174 -1.904 1.688 6749
2.156 -1.889 1.665 7379
2.160 -1.892 1.657 8692
2.174 -1.904 1.656 7411
2.261 -1.981 1.707 5218
2.259 -1.979 1.695 5348
2.268 -1.987 1.690 5923
2.271 -1.990 1.681 7553
2.269 -1.988 1.669 8761
2.278 -1.996 1.664 8492
2.281 -1.999 1.655 7756
2.279 -1.997 1.643 7372
2.283 -2.000 1.634 6492
2.291 -2.007 1.629 5621
2.380 -2.085 1.676 5868
2.383 -2.088 1.667 5905
2.392 -2.096 1.662 5519
2.401 -2.103 1.656 5215
2.404 -2.106 1.647 7075
2.413 -2.114 1.641 7676
2.459 -2.154 1.659 4919
2.468 -2.162 1.653 4933
2.471 -2.165 1.643 7007
2.474 -2.168 1.634 8555
2.478 -2.171 1.624 6066
2.475 -2.169 1.612 4197
2.484 -2.176 1.606 4690
2.498 -2.189 1.603 6862
2.501 -2.191 1.593 8770
2.630 -2.304 1.657 8607
2.639 -2.312 1.650 9388
2.642 -2.315 1.640 9448
2.651 -2.322 1.633 8852
2.659 -2.330 1.626 9678
2.663 -2.333 1.616 9604
2.666 -2.336 1.606 11404
2.669 -2.338 1.595 13970
2.667 -2.336 1.582 9750
2.714 -2.378 1.596 6460
2.756 -2.414 1.606 8105
2.754 -2.412 1.593 6613
2.845 -2.493 1.629 5284
2.848 -2.495 1.619 5764
2.774 -2.430 1.567 6047
2.983 -2.613 1.663 5818
2.986 -2.616 1.651 7132
2.984 -2.614 1.637 8192
2.992 -2.622 1.629 8182
3.001 -2.629 1.620 9004
3.005 -2.632 1.608 8165
3.008 -2.635 1.597 7137
3.005 -2.633 1.583 5783
3.009 -2.636 1.571 4540
3.017 -2.643 1.562 3497
3.189 -2.793 1.630 3167
3.220 -2.821 1.631 4775
3.212 -2.814 1.614 4996
3.294 -2.886 1.638 3613
3.309 -2.898 1.630 4424
3.329 -2.916 1.625 4297
3.349 -2.934 1.620 3825
3.386 -2.966 1.622 4578
3.355 -2.939 1.594 5065
3.370 -2.952 1.586 5109
3.447 -3.019 1.605 5323
3.450 -3.022 1.592 4575
3.561 -3.120 1.624 3897
3.570 -3.127 1.613 3060
3.567 -3.125 1.597 2512
3.571 -3.128 1.583 3023
3.579 -3.136 1.572 2889
3.685 -3.228 1.599 2985
3.774 -3.306 1.619 2648
3.777 -3.309 1.604 3696
3.786 -3.317 1.592 3496
3.824 -3.350 1.591 2465
3.832 -3.357 1.578 2257
3.910 -3.425 1.591 3192
3.919 -3.433 1.579 3961
4.003 -3.506 1.593 3246
4.011 -3.514 1.580 4379
4.015 -3.517 1.564 2996
4.081 -3.575 1.571 3054
4.119 -3.608 1.568 3866
4.128 -3.616 1.554 4331
4.125 -3.614 1.536 4543
4.099 -3.591 1.510 4894
4.125 -3.614 1.502 5232
4.411 -3.865 1.580 5800
4.420 -3.872 1.565 4485
4.423 -3.875 1.548 4508
4.461 -3.908 1.542 3958
4.621 -4.048 1.574 3256
4.624 -4.051 1.556 2712
4.464 -3.911 1.488 2492
4.647 -4.071 1.525 2422
4.656 -4.079 1.509 3175
4.648 -4.072 1.488 2496
4.784 -4.191 1.509 2137
4.787 -4.194 1.490 2393
4.860 -4.258 1.491 2057
4.863 -4.260 1.473 2542
4.866 -4.263 1.454 2478
5.295 -4.639 1.550 2195
5.304 -4.647 1.531 2292
5.465 -4.788 1.551 3151
5.468 -4.790 1.530 4052
5.471 -4.793 1.509 6518
5.474 -4.795 1.488 6626
5.547 -4.860 1.484 5370
5.550 -4.862 1.463 5812
5.559 -4.870 1.443 5189
5.720 -5.011 1.458 4468
5.717 -5.008 1.435 2813
5.691 -4.985 1.406 2011
5.793 -5.075 1.406 2256
6.278 -5.500 1.488 1861
6.416 -5.621 1.493 1633
6.401 -5.608 1.464 1500
6.398 -5.605 1.438 1713
6.419 -5.623 1.417 1948
6.651 -5.827 1.438 1742
6.654 -5.829 1.412 1759
6.663 -5.837 1.387 1374
7.055 -6.180 1.434 1224
7.040 -6.167 1.403 1013
6.860 -6.010 1.344 744
7.063 -6.188 1.352 677
7.066 -6.190 1.325 455
1.674 -1.477 1.722 4356
1.678 -1.480 1.716 8713
1.681 -1.483 1.709 8713
1.680 -1.482 1.698 7462
1.664 -1.468 1.674 7415
1.662 -1.467 1.663 8763
1.666 -1.470 1.656 10114
1.669 -1.473 1.650 9800
1.682 -1.484 1.653 10171
1.695 -1.496 1.655 11607
1.708 -1.507 1.658 9717
1.722 -1.519 1.660 9149
1.725 -1.522 1.654 7914
1.728 -1.525 1.647 6680
1.751 -1.545 1.658 6752
1.759 -1.552 1.656 8341
1.763 -1.555 1.649 8367
1.766 -1.558 1.642 9075
1.774 -1.565 1.640 9911
1.783 -1.573 1.638 9056
1.811 -1.598 1.652 9783
1.799 -1.587 1.632 10735
1.802 -1.590 1.626 12365
1.811 -1.597 1.623 10730
1.824 -1.609 1.624 10468
1.822 -1.608 1.613 9936
1.815 -1.602 1.598 9973
1.824 -1.609 1.595 9135
1.832 -1.616 1.593 8432
1.835 -1.619 1.586 5812
1.976 -1.743 1.689 5765
1.979 -1.746 1.681 7466
1.987 -1.753 1.678 9198
1.991 -1.756 1.670 7818
1.999 -1.764 1.666 7624
2.003 -1.767 1.659 9036
2.006 -1.770 1.651 8716
2.086 -1.841 1.702 9080
2.090 -1.844 1.695 8557
2.088 -1.842 1.683 8157
