2.892 2.869 1.322 3578
2.906 2.882 1.315 3455
2.978 2.954 1.332 4006
2.975 2.951 1.317 5422
2.972 2.948 1.303 4082
2.991 2.967 1.297 3756
3.058 3.034 1.311 4316
3.061 3.036 1.298 4195
3.069 3.044 1.288 3704
3.185 3.159 1.318 7387
3.193 3.167 1.307 13136
3.201 3.175 1.296 18270
3.198 3.172 1.281 18778
3.205 3.180 1.270 16196
3.208 3.182 1.257 16028
3.210 3.184 1.244 11293
3.251 3.224 1.244 6533
3.269 3.243 1.237 8376
3.266 3.240 1.221 4386
3.339 3.312 1.232 4149
3.358 3.331 1.224 5366
3.377 3.349 1.215 5404
3.384 3.357 1.203 3901
3.392 3.365 1.191 2753
3.411 3.383 1.182 3118
3.484 3.456 1.190 3942
3.481 3.453 1.175 4282
3.478 3.450 1.159 3398
3.524 3.495 1.157 2069
3.597 3.568 1.164 3332
3.599 3.570 1.149 6127
3.613 3.583 1.138 7438
3.648 3.618 1.132 8251
3.661 3.631 1.120 8749
3.663 3.633 1.105 6178
3.737 3.707 1.109 4497
3.849 3.818 1.122 4102
3.851 3.820 1.107 6581
3.859 3.828 1.093 5853
3.872 3.841 1.080 4137
3.885 3.853 1.066 3813
3.937 3.905 1.062 4402
3.933 3.901 1.045 5488
4.046 4.013 1.054 4686
4.053 4.021 1.039 5014
4.066 4.033 1.025 5215
4.101 4.068 1.016 5855
4.103 4.070 0.999 3969
4.411 4.375 1.046 2860
4.413 4.377 1.028 3261
4.409 4.373 1.009 3055
4.394 4.358 0.987 2834
4.446 4.410 0.979 4270
4.436 4.401 0.959 5107
4.427 4.391 0.939 4311
4.440 4.404 0.923 2822
4.670 4.632 0.944 2671
4.666 4.628 0.924 2750
4.662 4.625 0.904 1890
4.971 4.931 0.935 2220
4.972 4.932 0.915 2492
4.980 4.939 0.895 2873
5.087 5.046 0.891 2806
5.083 5.042 0.869 2651
5.353 5.310 0.886 2229
5.372 5.328 0.867 2136
5.367 5.324 0.844 2169
5.430 5.387 0.830 2391
5.432 5.388 0.808 2185
5.982 5.934 0.851 2538
5.989 5.941 0.828 3024
5.991 5.942 0.803 3716
5.992 5.944 0.779 3790
5.993 5.945 0.754 4853
5.989 5.940 0.729 5559
6.113 6.064 0.716 4600
6.115 6.065 0.691 4877
6.116 6.066 0.666 4400
6.117 6.067 0.641 3406
6.118 6.068 0.616 2329
6.113 6.064 0.591 1798
6.114 6.065 0.566 1387
6.115 6.066 0.541 754
6.121 6.072 0.516 531
6.122 6.073 0.491 369
0.607 0.602 0.170 282
0.607 0.603 0.167 259
0.669 0.664 0.168 279
0.675 0.670 0.165 351
0.681 0.675 0.163 367
0.681 0.675 0.160 333
0.473 0.469 0.150 262
1.492 1.471 1.602 3250
1.495 1.474 1.596 6501
1.498 1.477 1.590 6501
1.506 1.485 1.589 6807
1.518 1.497 1.592 7514
1.517 1.495 1.581 5971
1.515 1.494 1.570 4574
1.537 1.515 1.582 4685
1.544 1.523 1.581 5144
1.547 1.526 1.574 5144
1.550 1.528 1.568 4529
1.553 1.531 1.562 3914
1.575 1.553 1.573 2895
1.606 1.584 1.593 3699
1.609 1.587 1.587 4103
1.617 1.594 1.585 4549
1.615 1.592 1.574 4318
1.618 1.595 1.568 4128
1.621 1.598 1.561 4075
1.624 1.601 1.555 4129
1.632 1.609 1.552 4275
1.635 1.612 1.546 3506
1.652 1.629 1.552 2928
1.664 1.641 1.554 2160
1.677 1.653 1.555 1574
1.680 1.656 1.548 2416
1.688 1.664 1.546 3265
1.705 1.681 1.551 2991
1.722 1.698 1.557 2942
1.730 1.706 1.554 2749
1.738 1.714 1.551 2782
1.697 1.673 1.508 3123
1.705 1.681 1.505 3014
1.708 1.684 1.498 2988
1.779 1.754 1.547 2861
1.767 1.742 1.528 3209
1.765 1.740 1.517 5832
1.768 1.743 1.510 8457
1.776 1.751 1.507 8484
1.783 1.759 1.503 6946
1.816 1.790 1.519 5565
1.814 1.788 1.508 9221
1.817 1.791 1.501 12620
1.819 1.794 1.493 13420
1.822 1.797 1.486 13943
1.830 1.804 1.483 11027
1.843 1.817 1.483 7332
1.910 1.884 1.523 8476
1.918 1.891 1.519 9786
1.921 1.894 1.511 9550
1.919 1.892 1.500 8009
1.927 1.900 1.496 9065
1.935 1.908 1.492 9656
1.937 1.910 1.484 8250
1.945 1.918 1.480 8943
1.953 1.926 1.476 10525
1.961 1.933 1.471 11634
1.964 1.936 1.463 11474
1.961 1.934 1.452 9068
1.964 1.937 1.444 7767
1.977 1.949 1.443 6673
2.015 1.987 1.459 6441
2.028 2.000 1.458 7379
2.026 1.998 1.446 7270
2.080 2.051 1.471 8235
2.082 2.053 1.463 9124
2.085 2.056 1.455 8468
2.108 2.079 1.459 9524
2.111 2.082 1.451 10089
2.114 2.084 1.442 7205
2.127 2.097 1.440 5072
2.130 2.100 1.432 4796
2.132 2.102 1.423 5254
2.192 2.161 1.449 7297
2.184 2.154 1.434 8586
2.192 2.161 1.428 10351
2.205 2.174 1.426 12187
2.208 2.177 1.417 12279
2.210 2.179 1.408 8524
2.260 2.228 1.426 7755
2.278 2.246 1.426 5464
2.291 2.259 1.423 6181
2.294 2.262 1.414 9090
2.291 2.259 1.401 13096
2.294 2.262 1.392 12820
2.302 2.270 1.386 7343
2.362 2.329 1.408 5878
2.375 2.342 1.404 6868
2.378 2.345 1.395 5011
2.349 2.316 1.368 5905
2.367 2.334 1.367 6983
2.381 2.347 1.363 5800
2.420 2.386 1.373 5264
2.439 2.404 1.371 6755
2.446 2.412 1.364 9553
2.454 2.420 1.357 8889
2.505 2.469 1.371 7376
2.518 2.482 1.366 7084
2.526 2.490 1.358 6687
2.560 2.524 1.364 7948
2.563 2.527 1.353 9259
2.576 2.540 1.348 8441
2.594 2.558 1.345 8740
2.597 2.560 1.335 5380
2.637 2.600 1.342 4347
2.693 2.655 1.356 5580
2.706 2.668 1.350 6459
2.719 2.681 1.343 4463
2.743 2.705 1.342 5139
2.740 2.702 1.329 6045
2.775 2.736 1.332 5026
2.799 2.760 1.330 7577
2.807 2.768 1.321 6431
2.788 2.749 1.300 4550
2.796 2.757 1.291 4592
2.901 2.860 1.322 3540
2.914 2.873 1.315 3228
2.987 2.945 1.332 3884
2.984 2.942 1.317 4996
2.981 2.939 1.303 3889
3.000 2.958 1.297 3918
3.067 3.024 1.311 3949
3.070 3.027 1.298 3926
3.083 3.040 1.290 3346
3.194 3.150 1.318 6704
3.208 3.163 1.309 14017
3.210 3.165 1.296 19400
3.207 3.162 1.281 19991
3.215 3.170 1.270 18216
3.217 3.172 1.257 17282
3.225 3.180 1.246 11986
3.255 3.209 1.242 6954
3.273 3.228 1.235 7292
3.276 3.230 1.221 3881
3.300 3.254 1.215 4120
3.368 3.321 1.224 5709
3.381 3.334 1.213 5805
3.394 3.347 1.203 4246
3.380 3.333 1.184 3107
3.415 3.368 1.181 3294
3.495 3.446 1.190 3995
3.486 3.437 1.173 4397
3.488 3.439 1.159 3874
3.490 3.441 1.145 2477
3.531 3.481 1.142 3276
3.610 3.560 1.149 5715
3.618 3.567 1.136 6829
3.659 3.607 1.132 7553
3.677 3.626 1.122 8704
3.679 3.628 1.107 5726
3.737 3.684 1.106 3665
3.855 3.801 1.121 4080
3.868 3.814 1.108 6021
3.870 3.816 1.093 5448
3.878 3.823 1.078 3682
3.896 3.842 1.066 3867
3.915 3.860 1.055 4392
3.945 3.889 1.045 5065
4.058 4.001 1.054 5272
4.060 4.003 1.038 5710
4.078 4.021 1.025 5251
4.108 4.050 1.015 5397
4.115 4.058 0.999 3544
4.418 4.356 1.045 2598
4.431 4.369 1.029 2883
4.428 4.366 1.010 2633
4.474 4.411 1.000 2858
4.465 4.402 0.980 4925
4.455 4.393 0.960 5473
4.440 4.378 0.939 3892
4.677 4.611 0.962 2447
4.684 4.618 0.944 2875
4.680 4.614 0.924 2834
4.665 4.599 0.903 2010
4.991 4.921 0.936 2476
4.993 4.923 0.916 2607
5.000 4.930 0.896 2961
5.097 5.025 0.890 3280
5.093 5.021 0.868 3126
5.089 5.017 0.847 2464
5.382 5.307 0.866 2152
5.383 5.308 0.844 2178
5.447 5.370 0.830 2413
5.448 5.372 0.808 2175
6.011 5.927 0.853 2819
6.013 5.928 0.828 3346
6.008 5.924 0.803 3772
6.015 5.931 0.779 3612
6.011 5.927 0.754 4621
6.007 5.922 0.729 5335
6.132 6.046 0.716 4523
6.133 6.047 0.691 4783
6.134 6.048 0.666 4248
6.135 6.049 0.641 3139
6.136 6.050 0.616 2090
6.019 5.934 0.583 1643
6.132 6.046 0.566 1269
6.133 6.047 0.541 688
6.134 6.048 0.516 478
0.609 0.601 0.172 352
0.598 0.590 0.169 285
0.682 0.673 0.171 280
0.671 0.662 0.168 324
0.677 0.667 0.165 384
0.683 0.673 0.163 368
0.683 0.673 0.160 332
0.648 0.639 0.079 256
0.647 0.638 0.077 272
0.874 0.862 -0.005 260
1.494 1.470 1.602 3350
1.497 1.473 1.596 6701
1.500 1.475 1.590 6701
1.512 1.488 1.593 6711
1.520 1.495 1.592 7187
1.523 1.498 1.586 5478
1.517 1.492 1.570 3973
1.543 1.518 1.587 4385
1.546 1.521 1.581 4976
1.549 1.524 1.574 4976
1.552 1.526 1.568 4491
1.555 1.529 1.562 4007
1.563 1.537 1.560 2918
1.608 1.582 1.593 3317
1.611 1.584 1.587 3813
1.619 1.592 1.585 4332
1.617 1.590 1.574 4312
1.615 1.589 1.563 4323
1.618 1.592 1.557 4484
1.626 1.599 1.555 4768
1.634 1.607 1.552 5061
1.641 1.614 1.550 4173
1.654 1.627 1.552 3483
1.652 1.625 1.541 2905
1.650 1.623 1.530 2344
1.663 1.635 1.532 2840
1.670 1.643 1.529 3391
1.668 1.641 1.519 3322
1.671 1.644 1.512 2790
1.737 1.709 1.558 2709
1.740 1.711 1.551 3295
1.728 1.700 1.532 3846
1.717 1.688 1.513 3761
1.720 1.691 1.506 3793
1.722 1.694 1.499 3052
1.784 1.755 1.540 3342
1.767 1.738 1.517 5403
1.770 1.741 1.510 7784
1.778 1.749 1.507 8125
1.786 1.756 1.503 6925
1.818 1.788 1.519 5728
1.816 1.786 1.508 8989
1.819 1.789 1.501 11849
1.822 1.792 1.493 12671
1.825 1.794 1.486 13248
1.832 1.802 1.483 10952
1.845 1.815 1.483 7586
1.913 1.881 1.523 8163
1.921 1.889 1.519 9132
1.924 1.892 1.511 8320
1.931 1.900 1.507 6570
1.934 1.902 1.500 8323
1.937 1.905 1.492 9693
1.945 1.913 1.488 8646
1.953 1.921 1.483 9272
1.956 1.923 1.476 10487
1.963 1.931 1.471 11442
1.966 1.934 1.463 10687
1.969 1.936 1.455 8313
1.967 1.934 1.444 7247
1.979 1.947 1.443 6182
2.013 1.980 1.456 5093
2.026 1.992 1.454 5633
2.028 1.995 1.446 5963
2.077 2.043 1.468 7272
2.085 2.051 1.463 8877
2.103 2.069 1.464 9580
2.111 2.076 1.459 10179
2.114 2.079 1.451 9148
2.117 2.082 1.442 6357
2.135 2.100 1.443 6353
2.137 2.102 1.435 7045
2.135 2.100 1.423 6856
2.195 2.158 1.449 6894
2.187 2.151 1.434 8284
2.195 2.159 1.428 9723
2.208 2.171 1.426 11387
2.211 2.174 1.417 11062
2.250 2.213 1.429 7432
2.263 2.225 1.426 8066
2.276 2.238 1.423 6272
2.294 2.256 1.423 6615
2.297 2.259 1.414 9816
2.294 2.256 1.401 13521
2.302 2.264 1.395 12174
2.305 2.267 1.386 6416
2.371 2.331 1.411 5582
2.378 2.339 1.404 7051
2.386 2.347 1.398 5161
2.347 2.308 1.365 5480
2.376 2.336 1.370 5896
2.421 2.381 1.382 5595
2.423 2.383 1.373 5313
2.447 2.407 1.374 6671
2.455 2.414 1.367 9667
2.457 2.417 1.357 9692
2.502 2.461 1.368 7780
2.521 2.479 1.366 7157
2.529 2.487 1.358 6626
2.563 2.521 1.364 8673
2.566 2.523 1.353 10026
2.584 2.542 1.351 9103
2.598 2.555 1.345 10188
2.605 2.562 1.337 6140
2.645 2.602 1.344 5174
2.696 2.652 1.356 6206
2.704 2.660 1.347 7141
2.690 2.646 1.329 4632
2.736 2.691 1.337 5072
2.738 2.693 1.326 7139
2.746 2.701 1.317 5581
2.803 2.756 1.330 7220
2.805 2.759 1.318 6348
2.791 2.745 1.300 4995
2.799 2.753 1.291 5020
2.899 2.851 1.320 3558
2.891 2.843 1.304 3025
2.996 2.947 1.334 3474
2.988 2.938 1.317 4163
2.979 2.930 1.301 3401
3.004 2.954 1.297 3221
3.066 3.015 1.308 4400
3.074 3.023 1.298 3821
3.087 3.036 1.290 3015
3.193 3.140 1.316 5957
3.206 3.153 1.307 13642
3.214 3.161 1.296 18829
3.217 3.164 1.283 19743
3.219 3.166 1.270 18803
3.221 3.168 1.257 17019
3.229 3.176 1.246 11873
3.253 3.200 1.240 7245
3.283 3.229 1.237 5924
3.313 3.258 1.232 4602
3.304 3.250 1.215 5954
3.372 3.317 1.224 5736
3.385 3.330 1.213 5930
3.393 3.337 1.201 4535
3.384 3.329 1.184 3747
3.414 3.358 1.179 3753
3.499 3.441 1.190 4004
3.490 3.433 1.173 4339
3.492 3.435 1.159 4367
3.500 3.442 1.146 3301
3.535 3.477 1.142 3541
3.615 3.555 1.149 5085
3.622 3.563 1.136 5953
3.663 3.603 1.132 6644
3.682 3.621 1.122 8769
3.695 3.634 1.110 5760
3.741 3.680 1.106 3239
3.860 3.796 1.121 3821
3.873 3.809 1.108 5074
3.875 3.811 1.093 4630
3.883 3.819 1.078 2990
3.901 3.837 1.066 3637
3.898 3.833 1.049 4736
3.944 3.879 1.044 4538
4.063 3.996 1.054 5683
4.065 3.998 1.038 6257
4.083 4.016 1.025 5188
4.107 4.040 1.013 4855
4.120 4.052 0.999 2965
4.424 4.351 1.045 2275
4.437 4.364 1.029 2467
4.305 4.234 0.984 2380
4.474 4.400 0.999 2870
4.465 4.391 0.979 5395
4.461 4.387 0.960 5850
4.446 4.372 0.939 3636
4.682 4.605 0.962 2425
4.690 4.612 0.944 2955
4.680 4.603 0.923 2944
4.665 4.588 0.902 2263
4.997 4.915 0.936 2652
5.027 4.944 0.920 2609
5.012 4.929 0.897 2891
5.103 5.019 0.890 3714
5.099 5.015 0.868 3629
5.095 5.011 0.847 2902
5.102 5.018 0.827 2195
5.109 5.025 0.807 2135
5.453 5.363 0.830 2381
6.017 5.918 0.877 2222
6.030 5.930 0.854 3126
6.026 5.926 0.829 3621
6.021 5.922 0.804 3756
6.023 5.923 0.779 3391
6.024 5.925 0.755 4275
6.014 5.915 0.729 4979
6.139 6.038 0.716 4255
6.140 6.039 0.691 4523
6.141 6.040 0.666 3945
6.143 6.041 0.641 2755
6.031 5.931 0.608 1938
6.026 5.927 0.583 1563
6.140 6.039 0.566 1118
6.299 6.195 0.551 664
6.299 6.195 0.526 512
6.819 6.707 0.530 367
0.740 0.727 0.177 283
0.740 0.728 0.174 269
0.672 0.661 0.168 319
0.678 0.667 0.165 391
0.678 0.667 0.163 377
0.678 0.667 0.160 328
0.678 0.667 0.158 261
0.881 0.866 -0.006 264
1.500 1.464 1.602 3389
1.503 1.467 1.596 6779
1.506 1.470 1.590 6779
1.518 1.482 1.593 6515
1.526 1.489 1.592 6752
1.533 1.497 1.590 4949
1.541 1.504 1.588 3398
1.549 1.512 1.587 4043
1.552 1.515 1.581 4725
1.555 1.518 1.574 4725
1.558 1.521 1.568 4412
1.561 1.524 1.562 4098
1.564 1.526 1.556 3029
1.614 1.575 1.593 2862
1.617 1.578 1.587 3421
1.625 1.586 1.585 3986
1.623 1.584 1.574 4239
1.621 1.583 1.563 4528
1.624 1.585 1.557 4872
1.632 1.593 1.555 5367
1.640 1.601 1.552 5791
1.647 1.608 1.550 4839
1.670 1.630 1.560 4122
1.658 1.619 1.541 3654
1.661 1.621 1.534 3280
1.664 1.624 1.528 3567
1.672 1.632 1.525 3899
1.675 1.635 1.519 3734
1.677 1.637 1.512 2899
1.744 1.702 1.558 2729
1.742 1.700 1.547 3852
1.735 1.693 1.532 4856
1.728 1.687 1.517 4619
1.726 1.685 1.506 4595
1.729 1.687 1.499 3389
1.791 1.748 1.540 3223
1.769 1.727 1.513 4900
1.772 1.729 1.506 7041
1.785 1.742 1.507 7533
1.797 1.754 1.507 6840
1.825 1.781 1.519 5716
1.823 1.779 1.508 8422
1.826 1.782 1.501 10780
1.829 1.785 1.493 11636
1.831 1.788 1.486 12297
1.839 1.795 1.483 10580
1.857 1.813 1.486 7541
1.920 1.874 1.523 7717
1.928 1.882 1.519 8403
1.936 1.889 1.515 7239
1.944 1.897 1.511 5663
1.946 1.900 1.503 7808
1.949 1.903 1.495 9670
1.957 1.910 1.491 9127
1.965 1.918 1.487 9574
1.963 1.916 1.476 10229
1.971 1.924 1.471 10995
1.979 1.931 1.467 9576
1.981 1.934 1.459 7292
1.984 1.937 1.451 6847
1.992 1.944 1.446 6092
2.010 1.962 1.449 4792
2.028 1.980 1.451 4619
2.031 1.982 1.443 4940
2.085 2.035 1.468 6356
2.098 2.048 1.466 8322
2.116 2.066 1.468 10717
2.124 2.073 1.463 11115
2.132 2.081 1.457 8935
2.166 2.114 1.468 6142
2.153 2.102 1.450 7511
2.151 2.099 1.438 8733
2.143 2.092 1.423 7685
2.151 2.099 1.418 6854
2.185 2.132 1.428 7944
2.203 2.150 1.428 8924
2.232 2.178 1.435 10547
2.224 2.171 1.420 9682
2.263 2.209 1.432 8135
2.271 2.217 1.426 9066
2.279 2.225 1.420 7424
2.298 2.243 1.420 6843
2.305 2.250 1.414 10190
2.303 2.248 1.401 13505
2.316 2.261 1.398 12070
2.319 2.263 1.389 6774
2.379 2.322 1.411 5320
2.393 2.335 1.407 7121
2.400 2.343 1.400 5241
2.355 2.299 1.365 4727
2.432 2.374 1.395 6077
2.435 2.377 1.385 5702
2.432 2.374 1.373 5126
2.467 2.408 1.379 6721
2.469 2.410 1.369 9647
2.472 2.413 1.359 10126
2.512 2.452 1.368 8242
2.530 2.470 1.366 7027
2.538 2.477 1.358 6395
2.573 2.511 1.364 8789
2.575 2.514 1.353 9899
2.594 2.532 1.351 9137
2.607 2.545 1.345 10981
2.615 2.553 1.337 6462
2.661 2.597 1.347 5734
2.712 2.647 1.358 6701
2.714 2.649 1.347 7588
2.706 2.641 1.331 5024
2.741 2.675 1.335 5849
2.749 2.683 1.326 7999
2.757 2.691 1.317 6792
2.813 2.746 1.330 6485
2.816 2.748 1.318 5932
2.802 2.735 1.300 4915
2.810 2.742 1.291 4933
2.899 2.830 1.316 3698
2.896 2.827 1.302 3233
2.898 2.829 1.290 3476
3.021 2.948 1.326 3724
2.985 2.914 1.299 3305
3.069 2.996 1.319 3742
3.077 3.004 1.308 5398
3.080 3.006 1.296 3893
3.153 3.078 1.310 2919
3.199 3.123 1.314 6044
3.218 3.141 1.307 12933
3.226 3.149 1.296 17199
3.229 3.151 1.283 18098
3.231 3.154 1.270 18152
3.233 3.156 1.257 16047
3.241 3.164 1.246 11397
3.254 3.177 1.237 7139
3.328 3.249 1.248 5345
3.325 3.246 1.232 5581
3.316 3.237 1.215 7762
3.324 3.245 1.204 6049
3.398 3.317 1.213 5575
3.406 3.324 1.201 4475
3.397 3.316 1.184 4098
3.405 3.323 1.172 4118
3.512 3.428 1.190 3984
3.509 3.425 1.175 4258
3.505 3.421 1.159 4838
3.513 3.429 1.146 4286
3.548 3.463 1.142 3713
3.623 3.536 1.148 4408
3.625 3.538 1.133 5043
3.682 3.594 1.133 5739
3.696 3.607 1.122 8642
3.709 3.620 1.110 5994
3.755 3.665 1.106 3054
3.874 3.782 1.121 3378
3.887 3.795 1.108 3911
3.884 3.791 1.091 3613
3.986 3.891 1.100 2617
3.921 3.828 1.068 3129
3.912 3.819 1.049 4704
3.953 3.859 1.043 4063
4.078 3.980 1.054 5776
4.080 3.982 1.038 6366
4.099 4.001 1.025 4838
4.117 4.019 1.012 4284
4.141 4.042 1.000 2314
4.233 4.132 1.002 2201
4.307 4.205 1.000 2033
4.326 4.223 0.985 2124
4.485 4.378 0.998 2716
4.481 4.374 0.979 5507
4.483 4.376 0.961 5919
4.462 4.355 0.939 3376
4.700 4.587 0.962 2401
4.702 4.589 0.943 2821
4.698 4.585 0.923 2935
4.677 4.565 0.901 2443
5.027 4.907 0.938 2765
5.046 4.925 0.920 2906
5.042 4.921 0.899 2822
5.117 4.994 0.889 3942
5.118 4.996 0.868 4010
5.114 4.992 0.847 3346
5.121 4.999 0.827 2488
5.128 5.006 0.807 2313
5.400 5.271 0.821 2242
6.045 5.901 0.878 2234
6.052 5.908 0.854 3329
6.048 5.903 0.829 3810
6.049 5.905 0.804 3645
6.068 5.923 0.782 3261
6.046 5.902 0.755 3915
6.042 5.898 0.730 4563
6.162 6.015 0.716 3757
6.163 6.016 0.691 4006
6.164 6.017 0.666 3403
6.064 5.919 0.633 2364
6.059 5.914 0.608 1825
6.049 5.904 0.583 1411
6.745 6.584 0.607 1091
6.316 6.165 0.551 665
6.317 6.166 0.525 511
6.844 6.681 0.530 393
0.742 0.725 0.177 339
0.742 0.725 0.174 361
0.743 0.725 0.171 272
0.680 0.664 0.165 374
0.675 0.659 0.163 373
0.675 0.659 0.160 305
1.503 1.460 1.602 3269
1.506 1.463 1.596 6538
1.509 1.466 1.590 6538
1.522 1.478 1.593 6212
1.529 1.486 1.592 6296
1.537 1.493 1.590 4492
1.549 1.505 1.593 2955
1.552 1.508 1.587 3650
1.556 1.511 1.581 4346
1.559 1.514 1.574 4346
1.562 1.517 1.568 4239
1.560 1.515 1.558 4212
1.553 1.509 1.543 3309
1.552 1.507 1.532 2561
1.626 1.579 1.591 3046
1.624 1.577 1.580 3665
1.627 1.580 1.574 4094
1.625 1.579 1.563 4546
1.628 1.581 1.557 4985
1.636 1.589 1.555 5604
1.648 1.601 1.557 6140
1.651 1.604 1.550 5199
1.674 1.626 1.560 4681
1.667 1.619 1.545 4179
1.665 1.617 1.534 3960
1.668 1.620 1.528 4076
1.676 1.628 1.525 4228
1.679 1.631 1.519 3916
1.681 1.633 1.512 2807
1.748 1.698 1.558 2727
1.746 1.696 1.547 4273
1.739 1.689 1.532 5525
1.737 1.687 1.521 5212
1.730 1.681 1.506 5098
1.733 1.683 1.499 3650
1.800 1.748 1.544 2951
1.773 1.722 1.513 4430
1.776 1.725 1.506 6339
1.789 1.738 1.507 6951
1.802 1.750 1.507 6753
1.829 1.777 1.519 5516
1.827 1.775 1.508 7545
1.830 1.778 1.501 9470
1.833 1.780 1.493 10405
1.836 1.783 1.486 11193
1.843 1.791 1.483 9928
1.861 1.808 1.486 7204
1.929 1.874 1.527 7192
1.932 1.877 1.519 7668
1.940 1.885 1.515 6330
1.948 1.892 1.511 4936
1.951 1.895 1.503 7464
1.954 1.898 1.495 9690
1.967 1.911 1.495 9519
1.970 1.913 1.487 9723
1.973 1.916 1.479 9679
1.975 1.919 1.471 10280
1.988 1.931 1.470 8747
1.991 1.934 1.462 6536
1.994 1.937 1.454 6277
1.997 1.939 1.446 5665
2.010 1.952 1.445 4192
2.100 2.040 1.495 4199
2.097 2.037 1.483 4728
2.090 2.030 1.468 5951
2.108 2.048 1.470 8140
2.126 2.065 1.471 11372
2.134 2.073 1.466 11853
2.137 2.076 1.457 9170
2.171 2.109 1.468 7162
2.163 2.101 1.453 8421
2.161 2.099 1.441 9969
2.153 2.092 1.426 8072
2.198 2.135 1.443 6628
2.190 2.127 1.428 7521
2.234 2.170 1.444 8266
2.242 2.178 1.438 10018
2.234 2.171 1.423 8336
2.274 2.209 1.435 8814
2.277 2.211 1.426 10217
2.274 2.209 1.414 8473
2.303 2.237 1.420 6708
2.311 2.245 1.414 10104
2.314 2.247 1.404 13202
2.327 2.260 1.401 12493
2.329 2.263 1.392 7719
2.321 2.255 1.377 5521
2.398 2.330 1.407 7264
2.406 2.337 1.400 5391
2.425 2.355 1.399 4655
2.433 2.363 1.392 6347
2.441 2.371 1.385 5644
2.459 2.389 1.384 4909
2.472 2.402 1.379 6765
2.475 2.404 1.369 9548
2.483 2.412 1.362 10243
2.518 2.445 1.368 8783
2.531 2.458 1.363 6935
2.544 2.471 1.358 6254
2.579 2.505 1.364 8155
2.581 2.508 1.353 8840
2.600 2.526 1.351 8432
2.613 2.539 1.345 10702
2.621 2.546 1.337 6121
2.667 2.591 1.347 6028
2.718 2.640 1.358 7202
2.721 2.643 1.347 7846
2.728 2.650 1.339 5385
2.742 2.663 1.332 6815
2.750 2.671 1.324 8409
2.763 2.684 1.317 7617
2.782 2.702 1.313 5907
2.822 2.741 1.318 5256
2.890 2.807 1.334 4883
2.822 2.741 1.293 4398
2.900 2.817 1.313 4086
2.892 2.809 1.297 3642
2.900 2.817 1.288 3949
3.044 2.957 1.333 4516
3.047 2.959 1.320 3683
3.076 2.988 1.319 4181
3.084 2.996 1.308 5981
3.081 2.993 1.294 3797
3.166 3.075 1.312 3689
3.201 3.110 1.312 6101
3.220 3.128 1.305 12127
3.234 3.141 1.296 14967
3.236 3.144 1.283 15499
3.239 3.146 1.270 16657
3.241 3.148 1.257 14985
3.249 3.156 1.246 10839
3.257 3.163 1.235 6817
3.336 3.241 1.248 5715
3.333 3.237 1.232 6404
3.324 3.229 1.215 9163
3.326 3.231 1.202 6909
3.406 3.309 1.213 4971
3.403 3.305 1.198 4007
3.399 3.302 1.183 3835
3.424 3.326 1.176 4152
3.520 3.420 1.190 4079
3.517 3.416 1.175 4315
3.519 3.418 1.160 5186
3.527 3.426 1.148 5189
3.551 3.449 1.140 3560
3.626 3.522 1.146 3774
3.622 3.518 1.130 4545
3.697 3.591 1.135 5139
3.704 3.598 1.122 8338
3.717 3.611 1.110 6221
3.736 3.629 1.099 3371
3.772 3.664 1.093 2956
3.785 3.677 1.080 3192
3.792 3.684 1.066 3484
3.996 3.881 1.100 3031
3.987 3.872 1.081 3053
3.916 3.804 1.048 4419
4.030 3.914 1.058 3666
4.088 3.971 1.054 5571
4.089 3.972 1.038 6013
4.108 3.991 1.025 4128
4.121 4.003 1.011 3605
4.320 4.196 1.036 2212
4.248 4.127 1.003 2140
4.402 4.276 1.016 1738
4.409 4.283 1.000 1746
4.490 4.361 0.997 2442
4.492 4.363 0.979 5265
4.493 4.365 0.961 5601
4.473 4.345 0.939 3069
4.711 4.576 0.962 2296
4.707 4.572 0.942 2496
4.703 4.568 0.923 2864
4.688 4.554 0.901 2596
5.050 4.906 0.940 2996
5.058 4.913 0.920 3137
5.059 4.914 0.900 2828
5.129 4.982 0.889 4084
5.130 4.983 0.868 4251
5.126 4.979 0.847 3695
5.133 4.986 0.827 2667
5.146 4.999 0.808 2322
5.407 5.253 0.820 2172
6.059 5.886 0.878 2184
6.066 5.893 0.854 3372
6.062 5.889 0.829 3834
6.064 5.890 0.804 3519
6.082 5.908 0.782 3220
6.061 5.887 0.755 3545
6.056 5.883 0.730 4090
6.177 6.000 0.716 3199
6.178 6.001 0.691 3424
6.179 6.002 0.666 2819
6.078 5.904 0.633 2299
6.073 5.899 0.608 1633
6.834 6.638 0.639 1280
6.761 6.568 0.607 1053
6.859 6.662 0.586 670
6.667 6.476 0.546 580
6.662 6.471 0.519 416
0.744 0.723 0.177 362
0.744 0.723 0.174 404
0.744 0.723 0.171 329
0.671 0.651 0.165 342
0.665 0.646 0.162 335
0.665 0.646 0.160 277
0.580 0.563 0.155 252
0.574 0.558 0.152 253
1.511 1.461 1.607 3164
1.514 1.464 1.601 6329
1.517 1.467 1.595 6329
1.525 1.475 1.593 5960
1.533 1.482 1.592 5924
1.545 1.494 1.595 4116
1.553 1.501 1.593 2617
1.556 1.504 1.587 3284
1.559 1.507 1.581 3951
1.562 1.510 1.574 3951
1.560 1.509 1.564 4161
1.554 1.502 1.549 4638
1.557 1.505 1.543 3966
1.560 1.508 1.537 3293
1.629 1.575 1.591 2810
1.632 1.578 1.585 3478
1.631 1.577 1.574 3948
1.629 1.575 1.563 4436
1.632 1.578 1.557 4939
1.644 1.590 1.559 5672
1.652 1.597 1.557 6317
1.660 1.605 1.554 5465
1.682 1.626 1.564 5233
1.671 1.615 1.545 4538
1.669 1.613 1.534 4278
1.677 1.621 1.532 4292
1.679 1.624 1.525 4370
1.682 1.627 1.519 4061
1.685 1.629 1.512 2926
1.757 1.698 1.562 2685
1.750 1.692 1.547 4519
1.743 1.685 1.532 5982
1.741 1.683 1.521 5639
1.734 1.676 1.506 5467
1.737 1.679 1.499 3957
1.809 1.749 1.548 2658
1.772 1.713 1.509 4127
1.780 1.721 1.506 5734
1.798 1.738 1.510 6441
1.806 1.746 1.507 6589
1.813 1.753 1.504 5211
1.831 1.771 1.508 6620
1.834 1.773 1.501 8243
1.837 1.776 1.493 9188
1.840 1.779 1.486 10033
1.848 1.786 1.483 9110
1.866 1.804 1.486 6671
1.934 1.870 1.527 6504
1.937 1.873 1.519 6767
1.945 1.880 1.515 5405
1.958 1.893 1.515 4322
1.961 1.896 1.507 7188
1.958 1.893 1.495 9676
1.971 1.906 1.495 9886
1.974 1.909 1.487 9689
1.977 1.911 1.479 8962
1.985 1.919 1.475 9352
1.993 1.927 1.470 7914
2.001 1.934 1.466 5710
2.003 1.937 1.458 5303
2.001 1.935 1.446 4630
2.096 2.027 1.500 4037
2.104 2.035 1.495 4347
2.102 2.032 1.483 5331
2.100 2.030 1.471 6695
2.123 2.053 1.476 8637
2.131 2.061 1.471 11669
2.139 2.068 1.466 12251
2.147 2.076 1.461 9256
2.176 2.104 1.468 7678
2.168 2.096 1.453 9370
2.171 2.099 1.444 11374
2.195 2.122 1.448 9217
2.202 2.129 1.443 7003
2.200 2.127 1.431 7177
2.245 2.170 1.447 7705
2.253 2.178 1.441 9301
2.266 2.191 1.438 8191
2.279 2.203 1.435 9648
2.282 2.206 1.426 11449
2.279 2.204 1.414 9334
2.308 2.232 1.420 6262
2.316 2.239 1.414 9678
2.319 2.242 1.404 12949
2.332 2.255 1.401 13458
2.335 2.257 1.392 8907
2.358 2.280 1.394 6010
2.404 2.324 1.407 7401
2.412 2.332 1.400 5574
2.430 2.350 1.399 4941
2.438 2.357 1.392 6345
2.451 2.370 1.388 5482
2.470 2.388 1.386 5075
2.483 2.401 1.382 6685
2.486 2.404 1.372 9339
2.494 2.411 1.365 10343
2.523 2.440 1.368 9357
2.537 2.452 1.363 7066
2.550 2.465 1.358 6421
2.590 2.504 1.366 7045
2.593 2.507 1.356 7169
2.606 2.520 1.351 7246
2.619 2.532 1.345 9489
2.627 2.540 1.337 5282
2.678 2.590 1.349 5989
2.724 2.634 1.358 7871
2.727 2.636 1.347 8189
2.740 2.649 1.341 6042
2.748 2.657 1.332 7788
2.750 2.659 1.321 8649
2.769 2.678 1.317 8214
2.788 2.696 1.313 6542
2.889 2.793 1.344 4671
2.891 2.795 1.332 5563
2.883 2.787 1.316 4921
2.901 2.805 1.311 4478
2.898 2.802 1.297 4071
2.906 2.810 1.288 4516
3.057 2.955 1.335 5406
3.054 2.952 1.320 4164
3.078 2.976 1.317 4322
3.091 2.989 1.308 5911
3.099 2.997 1.298 3771
3.173 3.068 1.312 4205
3.209 3.102 1.312 5865
3.217 3.110 1.301 10973
3.230 3.123 1.292 11603
3.243 3.136 1.283 11589
3.246 3.138 1.270 13724
3.243 3.135 1.255 12910
3.245 3.137 1.242 9710
3.258 3.150 1.233 6359
3.344 3.233 1.248 5899
3.335 3.224 1.231 6764
3.332 3.221 1.215 9866
3.334 3.223 1.202 7324
3.414 3.301 1.213 4169
3.394 3.281 1.193 3819
3.396 3.283 1.179 3509
3.432 3.318 1.176 4164
3.523 3.406 1.189 4171
3.519 3.403 1.173 4506
3.527 3.410 1.160 5471
3.535 3.418 1.148 5804
3.542 3.425 1.135 3531
3.623 3.503 1.143 3206
3.619 3.499 1.127 4394
3.705 3.582 1.135 5029
3.713 3.590 1.122 8035
3.720 3.597 1.108 6483
3.739 3.615 1.098 3972
3.769 3.644 1.090 3043
3.978 3.846 1.126 3152
3.801 3.675 1.066 3864
4.005 3.872 1.100 3165
3.996 3.863 1.081 3277
3.958 3.827 1.056 4072
3.938 3.807 1.035 3367
4.097 3.961 1.054 5121
4.099 3.963 1.038 5320
4.101 3.965 1.021 3353
4.333 4.189 1.054 2890
4.329 4.186 1.036 2429
4.258 4.117 1.003 2281
4.254 4.113 0.985 1799
4.577 4.425 1.031 1446
4.494 4.346 0.996 2104
4.502 4.353 0.979 4723
4.498 4.349 0.960 5045
4.488 4.340 0.940 2825
4.586 4.434 0.939 2188
4.706 4.550 0.941 2228
4.702 4.547 0.921 2837
4.698 4.543 0.901 2709
5.062 4.894 0.940 3214
5.069 4.901 0.920 3292
5.071 4.903 0.900 2774
5.140 4.970 0.889 4080
5.136 4.966 0.868 4404
5.138 4.967 0.847 3980
5.145 4.974 0.827 2754
5.152 4.981 0.807 2218
5.420 5.240 0.820 2053
6.079 5.877 0.879 2039
6.080 5.879 0.854 3216
6.076 5.875 0.829 3661
6.083 5.881 0.805 3356
6.096 5.894 0.782 3172
6.080 5.879 0.755 3262
6.076 5.874 0.730 3618
6.077 5.876 0.706 2951
6.192 5.986 0.691 2811
6.091 5.889 0.658 2508
6.092 5.890 0.633 2180
6.087 5.885 0.608 1428
6.849 6.623 0.639 1354
6.856 6.629 0.612 1075
6.675 6.454 0.573 680
6.676 6.455 0.546 646
6.677 6.456 0.519 470
0.746 0.721 0.177 394
0.746 0.721 0.174 442
0.746 0.721 0.171 386
0.553 0.534 0.160 374
0.553 0.534 0.158 316
0.581 0.562 0.155 263
0.570 0.551 0.152 262
1.516 1.457 1.607 3061
1.519 1.460 1.601 6122
1.522 1.463 1.595 6122
1.529 1.470 1.593 5747
1.542 1.482 1.596 5677
1.550 1.490 1.595 3931
1.571 1.511 1.606 2645
1.565 1.504 1.591 3061
1.568 1.507 1.585 3557
1.571 1.510 1.579 3557
1.560 1.500 1.559 4272
1.558 1.498 1.549 5314
1.561 1.501 1.543 4738
1.564 1.504 1.537 4162
1.572 1.511 1.535 3352
1.637 1.573 1.585 3364
1.635 1.572 1.574 3791
1.638 1.575 1.568 4260
1.636 1.573 1.557 4785
1.649 1.585 1.559 5574
1.657 1.593 1.557 6270
1.669 1.605 1.558 5579
1.687 1.622 1.564 5586
1.680 1.615 1.549 4664
1.673 1.609 1.534 4213
1.681 1.616 1.532 4330
1.684 1.619 1.525 4476
1.687 1.622 1.519 4295
1.690 1.624 1.512 3275
1.762 1.693 1.562 2574
1.755 1.687 1.547 4445
1.748 1.680 1.532 6068
1.751 1.683 1.525 5804
1.739 1.671 1.506 5598
1.742 1.674 1.499 4212
1.769 1.701 1.512 3099
1.777 1.708 1.509 4231
1.780 1.711 1.502 5404
1.803 1.733 1.510 6054
1.811 1.741 1.507 6357
1.814 1.743 1.500 4978
1.831 1.760 1.504 5645
1.834 1.763 1.497 7030
1.842 1.771 1.493 7906
1.845 1.773 1.486 8781
1.853 1.781 1.483 8130
1.871 1.798 1.486 5979
1.939 1.864 1.527 5761
1.942 1.867 1.519 5838
1.935 1.860 1.504 4564
1.963 1.887 1.515 3700
1.966 1.890 1.507 6781
1.969 1.893 1.499 9467
1.977 1.900 1.495 9884
1.980 1.903 1.487 9441
1.983 1.906 1.479 8204
1.990 1.913 1.475 8237
2.004 1.926 1.474 6723
2.011 1.934 1.469 4723
2.040 1.961 1.479 4515
2.089 2.008 1.501 4666
2.097 2.016 1.496 4951
2.110 2.028 1.495 4835
2.108 2.026 1.483 6180
2.111 2.029 1.475 7790
2.129 2.047 1.476 9130
2.142 2.059 1.474 11470
2.145 2.062 1.466 11909
2.153 2.070 1.461 8770
2.182 2.097 1.468 7683
2.179 2.095 1.456 10215
2.177 2.093 1.444 12700
2.195 2.110 1.445 10560
2.203 2.118 1.440 7790
2.201 2.116 1.428 7259
2.256 2.169 1.450 6894
2.264 2.176 1.444 8316
2.277 2.189 1.441 7985
2.285 2.197 1.435 10246
2.288 2.199 1.426 12608
2.286 2.197 1.414 10144
2.315 2.225 1.420 6168
2.323 2.233 1.414 9099
2.325 2.235 1.404 12704
2.339 2.248 1.401 14333
2.347 2.256 1.394 9853
2.365 2.273 1.394 6728
2.410 2.317 1.407 7425
2.418 2.325 1.400 5634
2.437 2.343 1.399 4972
2.445 2.350 1.392 6032
2.458 2.363 1.388 5331
2.482 2.386 1.389 5301
2.490 2.394 1.382 6375
2.493 2.396 1.372 8836
2.506 2.409 1.367 10275
2.536 2.437 1.371 9889
2.554 2.455 1.369 7537
2.557 2.458 1.358 6831
2.565 2.466 1.351 6495
2.611 2.510 1.361 5593
2.619 2.517 1.353 5954
2.627 2.525 1.345 7528
2.689 2.585 1.362 4603
2.691 2.587 1.352 5715
2.732 2.626 1.358 8494
2.729 2.623 1.345 8493
2.759 2.652 1.346 6832
2.756 2.649 1.332 8586
2.753 2.646 1.319 8763
2.772 2.664 1.315 8310
2.796 2.688 1.313 6730
2.897 2.784 1.344 4604
2.899 2.787 1.332 5751
2.891 2.779 1.316 5160
2.904 2.792 1.309 4438
2.901 2.789 1.295 4264
2.909 2.796 1.286 4913
3.065 2.946 1.335 5744
3.068 2.949 1.322 4283
3.092 2.972 1.319 4271
3.100 2.980 1.308 5487
3.125 3.003 1.304 4316
3.143 3.022 1.298 4885
3.151 3.029 1.288 5825
3.215 3.090 1.297 9915
3.200 3.076 1.278 10438
3.186 3.063 1.260 7767
3.255 3.129 1.270 10183
3.246 3.120 1.253 10566
3.243 3.117 1.238 8698
3.256 3.130 1.229 5852
3.347 3.218 1.246 5855
3.344 3.215 1.231 6584
3.341 3.212 1.215 9422
3.343 3.214 1.202 7085
3.407 3.275 1.208 3564
3.381 3.250 1.186 4369
3.394 3.263 1.176 3756
3.441 3.308 1.176 4136
3.527 3.390 1.187 4185
3.529 3.392 1.173 4764
3.537 3.400 1.160 5420
3.545 3.407 1.148 5752
3.547 3.409 1.134 3190
3.622 3.481 1.140 2642
3.624 3.483 1.125 4232
3.715 3.571 1.135 4824
3.723 3.579 1.122 7688
3.725 3.581 1.107 6555
3.750 3.604 1.098 4413
3.763 3.617 1.085 3503
3.821 3.673 1.084 3488
3.812 3.664 1.066 4126
4.016 3.860 1.100 3024
4.007 3.851 1.081 3281
3.969 3.816 1.056 3860
4.061 3.904 1.061 3175
4.108 3.949 1.054 4606
4.110 3.951 1.038 4534
4.106 3.947 1.020 2852
4.345 4.177 1.054 2933
4.342 4.173 1.036 2419
4.276 4.110 1.004 2391
4.266 4.101 0.985 2020
4.483 4.309 1.010 1489
4.507 4.332 0.996 1740
4.515 4.340 0.979 3900
4.511 4.336 0.960 4224
4.518 4.343 0.943 2577
4.599 4.421 0.939 2239
4.708 4.526 0.939 2358
4.710 4.527 0.920 3000
4.706 4.523 0.900 2848
5.076 4.879 0.940 3324
5.078 4.881 0.919 3385
5.153 4.953 0.910 2737
5.155 4.955 0.889 3919
5.151 4.951 0.868 4390
5.152 4.952 0.847 4082
5.153 4.954 0.826 2691
5.161 4.961 0.806 2019
5.435 5.224 0.820 1910
6.096 5.860 0.879 1786
6.097 5.861 0.854 2884
6.093 5.857 0.829 3315
6.106 5.869 0.806 3150
6.107 5.871 0.781 3079
6.103 5.866 0.756 3022
6.093 5.857 0.730 3141
6.100 5.863 0.706 2741
6.107 5.870 0.682 2586
6.108 5.871 0.658 2440
6.109 5.872 0.633 1991
6.104 5.867 0.608 1205
6.869 6.603 0.639 1329
6.875 6.609 0.612 1062
6.694 6.435 0.573 685
6.695 6.435 0.546 661
6.690 6.431 0.518 486
0.622 0.598 0.170 432
0.640 0.615 0.168 455
0.640 0.615 0.166 438
0.554 0.533 0.160 431
0.554 0.533 0.158 322
0.571 0.549 0.154 268
0.571 0.549 0.152 294
1.524 1.457 1.611 3001
1.527 1.460 1.605 6002
1.530 1.463 1.599 6002
1.538 1.471 1.598 5663
1.546 1.478 1.596 5594
1.558 1.490 1.599 4199
1.566 1.497 1.597 3034
1.574 1.505 1.596 3196
1.577 1.508 1.590 3369
1.580 1.511 1.583 3369
1.559 1.491 1.555 4614
1.562 1.494 1.549 6062
1.565 1.497 1.543 5532
1.573 1.504 1.541 5015
1.576 1.507 1.535 3863
1.641 1.569 1.585 3354
1.639 1.568 1.574 3672
1.642 1.570 1.568 4067
1.640 1.569 1.557 4562
1.653 1.581 1.559 5363
1.661 1.588 1.557 6035
1.674 1.600 1.558 5520
1.691 1.617 1.564 5725
1.684 1.611 1.549 4636
1.678 1.604 1.534 4063
1.685 1.612 1.532 4303
1.688 1.615 1.525 4573
1.691 1.617 1.519 4426
1.694 1.620 1.512 3378
1.702 1.628 1.509 2657
1.764 1.687 1.551 4347
1.752 1.676 1.532 5891
1.760 1.683 1.529 5760
1.738 1.662 1.502 5481
1.766 1.689 1.515 4381
1.774 1.696 1.512 3798
1.782 1.704 1.509 4562
1.784 1.706 1.502 5335
1.802 1.724 1.507 5886
1.815 1.736 1.507 6216
1.818 1.739 1.500 4845
1.831 1.751 1.500 4806
1.839 1.758 1.497 5766
1.847 1.766 1.493 6516
1.855 1.774 1.490 7523
1.857 1.776 1.483 7101
1.870 1.789 1.483 5281
1.944 1.859 1.527 4996
1.947 1.862 1.519 4936
1.940 1.855 1.504 3881
1.968 1.882 1.515 3142
1.971 1.885 1.507 6292
1.974 1.888 1.499 9056
1.977 1.890 1.491 9616
1.985 1.898 1.487 9081
1.987 1.901 1.479 7499
1.995 1.908 1.475 7176
2.014 1.926 1.477 5694
2.037 1.948 1.483 4162
2.045 1.956 1.479 4278
2.094 2.003 1.501 5594
2.097 2.006 1.493 5970
2.110 2.018 1.491 5455
2.108 2.016 1.480 6835
2.116 2.024 1.475 8614
2.134 2.041 1.476 9322
2.153 2.059 1.478 10852
2.150 2.056 1.466 10911
2.153 2.059 1.457 7683
2.187 2.092 1.468 7348
2.185 2.089 1.456 11018
2.182 2.087 1.444 14028
2.190 2.095 1.439 12263
2.198 2.102 1.433 9555
2.201 2.105 1.425 8331
2.209 2.113 1.419 6691
2.280 2.181 1.450 6870
2.288 2.188 1.444 7757
2.291 2.191 1.435 11119
2.294 2.194 1.426 13613
2.296 2.196 1.417 10962
2.315 2.214 1.417 7057
2.323 2.222 1.411 8954
2.331 2.229 1.404 12514
2.344 2.242 1.401 15010
2.352 2.250 1.394 10530
2.376 2.272 1.397 7046
2.416 2.311 1.407 7280
2.430 2.324 1.403 5639
2.448 2.341 1.402 4931
2.451 2.344 1.392 5594
2.454 2.346 1.382 5239
2.488 2.380 1.389 5386
2.491 2.382 1.379 5914
2.499 2.390 1.372 7956
2.518 2.408 1.370 9731
2.542 2.431 1.371 10142
2.566 2.454 1.371 8051
2.569 2.457 1.361 7288
2.571 2.459 1.351 6228
2.639 2.524 1.371 5381
2.631 2.516 1.356 5259
2.633 2.518 1.345 5369
2.695 2.578 1.362 4403
2.703 2.585 1.354 5423
2.733 2.614 1.356 8995
2.736 2.616 1.345 8660
2.765 2.645 1.346 7505
2.763 2.642 1.332 9199
2.760 2.639 1.319 8700
2.778 2.657 1.315 7997
2.808 2.686 1.316 6569
2.909 2.782 1.346 4159
2.906 2.779 1.332 5265
2.898 2.771 1.316 4785
2.911 2.784 1.309 4069
2.908 2.781 1.295 4153
2.916 2.789 1.286 4945
3.073 2.938 1.335 5450
3.009 2.878 1.297 4204
3.105 2.970 1.321 3951
3.119 2.982 1.313 5119
3.132 2.995 1.304 5365
3.151 3.014 1.298 5882
3.159 3.021 1.288 5797
3.217 3.076 1.295 8668
3.203 3.063 1.276 10193
3.194 3.055 1.260 9019
3.196 3.057 1.247 7866
3.226 3.086 1.244 9127
3.245 3.104 1.236 7848
3.253 3.111 1.225 5530
3.345 3.199 1.242 5841
3.347 3.201 1.229 6013
3.344 3.198 1.214 7953
3.351 3.205 1.202 6301
3.387 3.239 1.199 3834
3.389 3.241 1.186 4898
3.397 3.249 1.174 3917
3.455 3.304 1.177 3963
3.536 3.381 1.187 4198
3.538 3.383 1.173 5074
3.540 3.385 1.159 5106
3.548 3.393 1.146 5210
3.555 3.400 1.134 3105
3.608 3.450 1.133 2261
3.633 3.474 1.125 3862
3.719 3.556 1.133 4323
3.727 3.564 1.120 7371
3.734 3.571 1.107 6713
3.759 3.595 1.098 4761
3.772 3.607 1.085 3867
3.836 3.668 1.086 4282
3.821 3.654 1.066 3945
4.020 3.845 1.099 2771
4.017 3.841 1.081 3134
3.985 3.811 1.057 3651
4.077 3.899 1.062 3454
4.118 3.939 1.054 4144
4.120 3.940 1.038 3817
4.117 3.937 1.020 2452
4.356 4.166 1.054 2794
4.347 4.157 1.034 2224
4.292 4.104 1.005 2553
4.481 4.285 1.026 2436
4.488 4.292 1.009 1694
4.603 4.402 1.012 1454
4.526 4.328 0.979 2988
4.522 4.324 0.960 3357
4.523 4.326 0.942 2462
4.707 4.501 0.955 2370
4.703 4.497 0.936 2739
4.716 4.510 0.919 3088
4.717 4.511 0.900 2838
5.088 4.866 0.940 3381
5.090 4.868 0.919 3479
5.166 4.940 0.910 2620
5.167 4.942 0.889 3653
5.163 4.938 0.868 4225
5.165 4.939 0.847 3987
5.166 4.941 0.826 2492
5.162 4.936 0.805 1753
5.448 5.210 0.820 1785
5.450 5.212 0.798 1611
6.112 5.845 0.854 2479
6.108 5.841 0.829 2944
6.121 5.854 0.806 2968
6.122 5.855 0.781 2993
6.118 5.851 0.756 2841
6.108 5.841 0.730 2646
6.115 5.848 0.706 2390
6.122 5.854 0.682 2365
6.123 5.855 0.658 2181
6.124 5.856 0.633 1686
6.890 6.589 0.667 1053
6.891 6.590 0.640 1246
6.887 6.586 0.612 1002
6.710 6.417 0.573 635
6.711 6.418 0.546 615
6.706 6.414 0.518 455
0.750 0.717 0.177 373
0.750 0.717 0.174 435
0.561 0.537 0.162 461
0.561 0.537 0.160 444
0.556 0.531 0.158 324
0.573 0.548 0.157 267
0.573 0.548 0.154 323
0.573 0.548 0.152 347
0.573 0.548 0.150 273
1.527 1.454 1.611 2972
1.530 1.457 1.605 5944
1.533 1.460 1.599 5944
1.541 1.468 1.598 5740
1.553 1.479 1.601 5794
1.556 1.482 1.595 4799
1.564 1.490 1.593 3826
1.563 1.488 1.582 3679
1.584 1.509 1.594 3648
1.588 1.512 1.588 3648
1.562 1.488 1.555 5240
1.565 1.491 1.549 7017
1.568 1.493 1.543 6446
1.576 1.501 1.541 5950
1.579 1.504 1.535 4336
1.649 1.571 1.589 3616
1.647 1.569 1.578 3690
1.645 1.567 1.568 3852
1.648 1.570 1.561 4310
1.656 1.577 1.559 5049
1.664 1.585 1.557 5614
1.682 1.602 1.563 5275
1.694 1.614 1.564 5688
1.688 1.607 1.549 4468
1.681 1.601 1.534 3848
1.684 1.604 1.528 4049
1.692 1.611 1.525 4292
1.695 1.614 1.519 4228
1.702 1.621 1.516 3312
1.715 1.634 1.517 2978
1.772 1.688 1.555 4359
1.770 1.686 1.544 5636
1.773 1.689 1.537 5698
1.742 1.659 1.502 5111
1.774 1.690 1.519 4791
1.782 1.697 1.516 4627
1.785 1.700 1.509 5014
1.788 1.703 1.502 5401
1.806 1.720 1.507 5873
1.814 1.727 1.503 6177
1.811 1.725 1.492 4886
1.819 1.733 1.489 4404
1.837 1.750 1.493 4542
1.850 1.762 1.493 5019
1.858 1.770 1.490 6223
1.866 1.777 1.486 6038
1.874 1.785 1.483 4632
1.948 1.855 1.527 4281
1.951 1.858 1.519 4070
1.943 1.851 1.504 3171
1.941 1.849 1.493 2769
1.975 1.881 1.507 5716
1.972 1.879 1.495 8481
1.980 1.886 1.491 9143
1.988 1.894 1.487 8526
1.996 1.901 1.483 6882
2.004 1.909 1.478 6271
2.023 1.926 1.481 5321
2.036 1.939 1.480 3937
2.090 1.991 1.506 4209
2.098 1.999 1.501 6413
2.101 2.001 1.493 6834
2.104 2.004 1.485 6036
2.112 2.012 1.480 7178
2.120 2.019 1.475 8863
2.133 2.032 1.473 9148
2.162 2.059 1.481 10069
2.149 2.047 1.463 9466
2.152 2.050 1.454 6214
2.186 2.082 1.465 6647
2.184 2.080 1.453 11805
2.187 2.083 1.444 15350
2.189 2.085 1.436 14571
2.197 2.093 1.430 12603
2.200 2.095 1.421 10878
2.208 2.103 1.416 7363
2.232 2.126 1.419 5983
2.293 2.184 1.444 7756
2.295 2.186 1.435 12313
2.303 2.194 1.429 14815
2.306 2.197 1.420 12517
2.314 2.204 1.414 9179
2.328 2.217 1.411 9491
2.336 2.224 1.404 12318
2.349 2.237 1.401 15374
2.352 2.240 1.392 10974
2.386 2.273 1.399 6732
2.421 2.306 1.407 6903
2.434 2.319 1.403 5477
2.458 2.342 1.405 4918
2.456 2.339 1.392 5261
2.458 2.341 1.382 5284
2.493 2.375 1.389 5274
2.496 2.377 1.379 5272
2.493 2.375 1.367 6787
2.523 2.403 1.370 8509
2.552 2.431 1.373 10447
2.571 2.449 1.371 8433
2.579 2.456 1.364 7603
2.576 2.454 1.351 5958
2.638 2.513 1.369 6318
2.636 2.510 1.356 5849
2.638 2.513 1.345 4475
2.695 2.567 1.360 4036
2.736 2.606 1.366 5561
2.738 2.608 1.356 9252
2.741 2.611 1.345 8632
2.771 2.639 1.346 7870
2.768 2.636 1.332 9736
2.770 2.639 1.321 8719
2.778 2.646 1.313 7510
2.814 2.680 1.316 5990
2.920 2.782 1.348 3505
2.917 2.779 1.334 4437
2.898 2.760 1.314 4181
2.922 2.783 1.311 3668
2.914 2.775 1.295 3811
2.922 2.783 1.286 4618
3.079 2.932 1.335 4866
3.009 2.866 1.295 4181
3.122 2.974 1.325 3802
3.130 2.981 1.315 5594
3.144 2.994 1.306 6323
3.157 3.007 1.298 6478
3.182 3.031 1.294 5350
3.218 3.065 1.293 7449
3.209 3.056 1.276 9376
3.200 3.048 1.260 9788
3.203 3.050 1.247 8678
3.227 3.074 1.242 8299
3.241 3.087 1.233 6843
3.254 3.099 1.224 4967
3.346 3.186 1.240 6096
3.342 3.183 1.225 5386
3.350 3.191 1.214 5832
3.358 3.198 1.202 5089
3.394 3.232 1.199 4698
3.396 3.234 1.186 5372
3.404 3.242 1.174 4033
3.462 3.297 1.177 3868
3.531 3.363 1.184 4402
3.545 3.376 1.173 5254
3.547 3.378 1.159 4502
3.555 3.386 1.146 4282
3.568 3.398 1.135 2941
3.604 3.432 1.130 2406
3.645 3.472 1.127 3231
3.653 3.479 1.114 3861
3.734 3.556 1.120 6873
3.736 3.558 1.105 6739
3.766 3.587 1.098 4781
3.853 3.669 1.104 5098
3.843 3.661 1.086 5136
3.828 3.646 1.066 3442
3.943 3.756 1.078 3069
3.951 3.763 1.064 3296
3.987 3.797 1.056 3284
4.085 3.891 1.062 4167
4.126 3.930 1.054 3878
4.134 3.937 1.039 3507
4.351 4.144 1.069 2547
4.302 4.098 1.041 2709
4.310 4.105 1.025 2470
4.306 4.101 1.007 2833
4.489 4.276 1.026 3076
4.485 4.272 1.006 2156
4.464 4.252 0.984 1709
4.444 4.232 0.962 3005
4.650 4.429 0.982 2899
4.646 4.425 0.962 2482
4.699 4.475 0.953 2899
4.706 4.482 0.935 3284
4.719 4.495 0.918 3222
4.727 4.502 0.900 2796
5.098 4.856 0.940 3313
5.094 4.852 0.918 3503
5.096 4.854 0.898 2605
5.177 4.931 0.889 3349
5.173 4.927 0.868 3980
5.175 4.929 0.847 3742
5.170 4.925 0.825 2180
5.429 5.171 0.838 1679
5.453 5.194 0.819 1618
5.523 5.260 0.806 1556
6.124 5.833 0.854 2046
6.126 5.834 0.829 2548
6.133 5.841 0.806 2725
6.134 5.842 0.781 2836
6.135 5.844 0.756 2617
6.125 5.834 0.731 2171
6.384 6.080 0.730 2141
6.385 6.082 0.705 2090
6.135 5.843 0.658 1769
6.136 5.844 0.633 1306
6.829 6.504 0.662 1078
6.630 6.315 0.620 1181
6.625 6.310 0.593 929
6.723 6.404 0.573 561
6.719 6.399 0.545 532
6.719 6.400 0.518 389
0.746 0.710 0.176 344
0.751 0.716 0.174 417
0.568 0.541 0.163 440
0.562 0.536 0.160 415
0.752 0.716 0.165 339
0.568 0.541 0.156 282
0.574 0.547 0.154 361
0.568 0.541 0.152 363
0.568 0.541 0.150 261
1.535 1.455 1.616 2924
1.538 1.458 1.610 5849
1.541 1.461 1.604 5849
1.544 1.464 1.598 5749
1.562 1.480 1.605 5909
1.560 1.478 1.595 5286
1.563 1.481 1.588 4672
1.561 1.480 1.578 4295
1.588 1.505 1.594 3985
1.591 1.508 1.588 3985
1.566 1.484 1.555 5846
1.569 1.487 1.549 7826
1.572 1.490 1.543 7180
1.580 1.497 1.541 6670
1.583 1.500 1.535 4700
1.653 1.566 1.589 3989
1.651 1.565 1.578 3759
1.654 1.568 1.572 3618
1.652 1.566 1.561 3998
1.660 1.573 1.559 4633
1.668 1.581 1.557 5038
1.686 1.597 1.563 4792
1.698 1.610 1.564 5344
1.697 1.608 1.554 4108
1.685 1.597 1.534 3493
1.688 1.599 1.528 3582
1.696 1.607 1.525 3676
1.699 1.610 1.519 3732
1.711 1.622 1.520 3356
1.719 1.629 1.517 3424
1.781 1.688 1.559 4398
1.779 1.686 1.548 5533
1.787 1.694 1.545 5789
1.790 1.697 1.538 5273
1.783 1.690 1.523 5207
1.786 1.693 1.516 5276
1.789 1.696 1.509 5387
1.792 1.698 1.502 5498
1.805 1.711 1.503 6013
1.813 1.718 1.499 6320
1.801 1.707 1.481 5467
1.809 1.714 1.477 4805
1.822 1.726 1.478 4515
1.860 1.762 1.497 4011
1.868 1.770 1.494 5253
1.871 1.773 1.486 5228
1.873 1.775 1.479 4229
1.952 1.850 1.527 3593
1.960 1.858 1.523 3264
1.963 1.861 1.515 2588
1.951 1.849 1.497 2406
1.979 1.876 1.507 5104
1.977 1.874 1.495 7750
1.985 1.881 1.491 8406
1.993 1.889 1.487 7760
2.001 1.896 1.483 6242
2.019 1.914 1.485 5719
2.027 1.921 1.481 5279
2.041 1.934 1.480 3635
2.095 1.986 1.506 4232
2.103 1.993 1.501 6750
2.106 1.996 1.493 7143
2.109 1.999 1.485 6200
2.112 2.001 1.476 6951
2.125 2.014 1.475 8298
2.138 2.026 1.473 8562
2.167 2.054 1.481 9162
2.144 2.032 1.456 8157
2.147 2.034 1.447 5526
2.186 2.072 1.462 6113
2.189 2.075 1.453 12291
2.192 2.077 1.444 16151
2.195 2.080 1.436 16718
2.197 2.082 1.427 15841
2.205 2.090 1.421 13617
2.208 2.093 1.413 8622
2.237 2.120 1.419 5386
2.303 2.183 1.447 7962
2.301 2.181 1.435 13306
2.309 2.188 1.429 15543
2.312 2.191 1.420 14060
2.320 2.198 1.414 11605
2.328 2.206 1.408 10554
2.341 2.219 1.404 11826
2.354 2.231 1.401 15036
2.357 2.234 1.392 10997
2.397 2.272 1.402 6045
2.421 2.295 1.404 6152
2.451 2.323 1.409 5025
2.470 2.340 1.408 4989
2.462 2.333 1.392 5140
2.470 2.340 1.385 5518
2.499 2.368 1.389 4930
2.496 2.366 1.377 4626
2.494 2.363 1.364 5987
2.545 2.412 1.378 7487
2.564 2.430 1.376 10658
2.577 2.442 1.371 8357
2.591 2.455 1.366 7466
2.593 2.458 1.356 5958
2.645 2.506 1.369 7014
2.636 2.499 1.353 6971
2.634 2.496 1.340 5700
2.707 2.565 1.362 3581
2.742 2.599 1.366 5681
2.745 2.601 1.356 9134
2.742 2.599 1.342 8339
2.783 2.637 1.348 7782
2.774 2.629 1.332 9789
2.777 2.632 1.321 8718
2.785 2.639 1.313 7158
2.820 2.673 1.316 5203
2.828 2.680 1.307 2965
2.930 2.777 1.337 3619
2.927 2.774 1.323 3631
2.863 2.713 1.284 3463
3.009 2.852 1.330 3665
2.923 2.770 1.283 4200
3.086 2.924 1.335 3968
3.011 2.853 1.292 4250
3.013 2.856 1.280 3734
3.132 2.968 1.313 5863
3.146 2.981 1.304 6586
3.165 2.999 1.298 6443
3.184 3.017 1.292 4751
3.220 3.051 1.291 6570
3.217 3.048 1.276 8517
3.208 3.040 1.260 10165
3.210 3.042 1.247 8830
3.235 3.066 1.242 7010
3.243 3.073 1.231 5891
3.273 3.102 1.227 4383
3.353 3.178 1.240 6077
3.339 3.164 1.221 5191
3.353 3.177 1.212 4169
3.360 3.185 1.200 4069
3.396 3.219 1.197 5371
3.404 3.226 1.186 5610
3.412 3.233 1.174 4030
3.493 3.310 1.184 4162
3.523 3.339 1.179 5109
3.548 3.362 1.171 4941
3.561 3.375 1.160 3547
3.653 3.462 1.172 3657
3.655 3.464 1.157 3266
3.607 3.418 1.129 2576
3.682 3.489 1.134 3263
3.673 3.481 1.117 4160
3.737 3.542 1.119 6534
3.739 3.543 1.104 6770
3.775 3.578 1.098 4724
3.862 3.660 1.104 6184
3.858 3.656 1.087 5805
3.939 3.733 1.091 3138
3.947 3.741 1.077 3315
3.966 3.759 1.065 3712
4.093 3.879 1.078 3730
4.095 3.880 1.062 4741
4.136 3.920 1.054 3806
4.144 3.927 1.039 3651
4.282 4.058 1.052 2881
4.307 4.081 1.040 3131
4.314 4.088 1.024 2748
4.316 4.090 1.007 3094
4.500 4.264 1.026 3687
4.496 4.261 1.006 2760
4.475 4.241 0.984 2250
4.454 4.221 0.962 3451
4.661 4.417 0.982 3069
4.657 4.413 0.962 2694
4.710 4.464 0.953 3326
4.717 4.471 0.935 3708
4.730 4.483 0.918 3283
4.738 4.490 0.900 2727
5.111 4.843 0.940 3096
5.106 4.839 0.918 3381
5.057 4.792 0.890 2718
5.047 4.783 0.868 3219
5.186 4.914 0.868 3572
5.181 4.910 0.846 3337
5.440 5.156 0.860 1910
5.442 5.157 0.838 1674
5.460 5.175 0.818 1565
5.536 5.246 0.806 1482
6.139 5.818 0.854 1653
6.140 5.819 0.829 2165
6.147 5.826 0.806 2423
6.149 5.827 0.781 2587
6.150 5.828 0.756 2363
6.295 5.965 0.746 1902
6.399 6.064 0.730 1848
6.549 6.207 0.718 1951
6.551 6.208 0.692 1582
6.563 6.220 0.666 1170
6.840 6.482 0.661 1165
6.646 6.298 0.620 1239
6.641 6.294 0.593 980
6.877 6.517 0.581 537
6.735 6.382 0.545 444
6.868 6.508 0.526 331
0.747 0.708 0.176 318
0.747 0.708 0.173 425
0.753 0.714 0.171 425
0.753 0.714 0.168 391
0.759 0.719 0.165 343
0.564 0.534 0.156 264
0.570 0.540 0.154 330
0.570 0.540 0.152 311
0.702 0.665 0.145 260
1.540 1.450 1.616 2943
1.543 1.453 1.610 5886
1.546 1.456 1.604 5886
1.549 1.459 1.598 5844
1.514 1.426 1.555 6149
1.565 1.474 1.595 5683
1.563 1.472 1.584 5420
1.566 1.475 1.578 4900
1.569 1.478 1.572 4381
1.572 1.481 1.566 4381
1.570 1.479 1.555 6411
1.573 1.482 1.549 8524
1.576 1.485 1.543 7802
1.584 1.492 1.541 7265
1.592 1.499 1.539 5033
1.662 1.566 1.593 4463
1.661 1.564 1.583 3929
1.659 1.562 1.572 3427
1.662 1.565 1.565 3624
1.665 1.568 1.559 4016
1.673 1.576 1.557 4225
1.695 1.597 1.567 4181
1.708 1.609 1.569 4929
1.706 1.607 1.558 3746
1.690 1.591 1.534 2968
1.693 1.594 1.528 2792
1.701 1.602 1.525 2649
1.708 1.609 1.523 3286
1.716 1.617 1.520 3722
1.724 1.624 1.517 4034
1.787 1.683 1.559 4676
1.790 1.686 1.552 5558
1.793 1.688 1.545 5881
1.801 1.696 1.542 5510
1.794 1.689 1.527 5504
1.792 1.687 1.516 5736
1.794 1.690 1.509 5639
1.792 1.688 1.498 5569
1.805 1.700 1.499 6139
1.813 1.708 1.496 6641
1.806 1.701 1.481 6229
1.814 1.708 1.477 5555
1.822 1.716 1.474 5083
1.825 1.718 1.467 3977
1.878 1.769 1.497 4530
1.876 1.767 1.486 4533
1.879 1.770 1.479 3985
1.882 1.772 1.472 3402
1.884 1.775 1.464 2807
1.974 1.859 1.519 2225
1.982 1.867 1.515 2099
1.985 1.870 1.507 4535
1.978 1.863 1.492 6916
1.986 1.870 1.488 7600
1.999 1.883 1.487 6849
2.012 1.895 1.486 5604
2.025 1.908 1.485 5360
2.033 1.915 1.481 5163
2.041 1.923 1.476 3309
2.101 1.979 1.506 4138
2.109 1.987 1.501 6753
2.112 1.989 1.493 6973
2.115 1.992 1.485 5878
2.118 1.995 1.476 6268
2.126 2.002 1.471 7115
2.171 2.045 1.489 7970
2.179 2.052 1.484 8460
2.140 2.015 1.449 7724
2.143 2.018 1.441 5791
2.187 2.060 1.458 6809
2.190 2.063 1.450 12602
2.193 2.065 1.441 16554
2.201 2.073 1.436 18328
2.204 2.076 1.427 18643
2.212 2.083 1.421 15895
2.214 2.086 1.413 9940
2.222 2.093 1.407 5436
2.305 2.171 1.444 8872
2.308 2.173 1.435 14023
2.316 2.181 1.429 15825
2.318 2.184 1.420 15392
2.321 2.186 1.411 14027
2.329 2.194 1.405 11823
2.343 2.206 1.401 11064
2.356 2.219 1.398 14185
2.359 2.221 1.389 10674
2.410 2.269 1.405 5028
2.428 2.287 1.404 5401
2.463 2.320 1.412 4809
2.477 2.333 1.408 5257
2.474 2.330 1.395 5302
2.482 2.338 1.388 5827
2.490 2.345 1.381 4754
2.493 2.348 1.371 4493
2.496 2.350 1.361 5642
2.563 2.414 1.383 7637
2.571 2.422 1.376 10905
2.585 2.434 1.371 7870
2.598 2.447 1.366 6863
2.606 2.455 1.358 6065
2.652 2.498 1.369 7368
2.639 2.485 1.351 8084
2.641 2.488 1.340 7319
2.660 2.506 1.337 4384
2.750 2.590 1.366 5660
2.753 2.593 1.356 8843
2.750 2.590 1.342 7932
2.796 2.634 1.351 7351
2.783 2.621 1.332 9306
2.785 2.623 1.321 8501
2.793 2.631 1.313 6925
2.801 2.638 1.304 4704
2.837 2.672 1.307 3161
2.900 2.731 1.321 3410
2.952 2.780 1.329 3564
2.872 2.705 1.284 3828
2.885 2.717 1.277 3938
3.004 2.829 1.312 3787
3.006 2.831 1.300 3389
3.014 2.839 1.290 4470
