0.747 1.057 0.027 489
0.742 1.050 0.024 710
0.742 1.050 0.021 801
0.742 1.050 0.017 1101
0.737 1.043 0.014 1402
0.737 1.043 0.011 1568
0.737 1.042 0.007 1735
0.737 1.042 0.004 1514
0.736 1.042 -0.000 1293
0.736 1.041 -0.004 1142
0.736 1.041 -0.007 901
0.722 1.021 -0.008 1060
1.188 1.672 1.570 3555
1.190 1.675 1.564 7110
1.192 1.679 1.558 6245
1.214 1.708 1.575 7474
1.220 1.717 1.573 10066
1.222 1.720 1.567 9562
1.232 1.734 1.570 9327
1.235 1.738 1.564 8786
1.241 1.747 1.563 8264
1.243 1.750 1.557 8264
1.249 1.759 1.555 7419
1.259 1.773 1.558 7017
1.254 1.765 1.543 7146
1.256 1.769 1.537 7549
1.278 1.799 1.552 9760
1.280 1.802 1.546 12634
1.290 1.817 1.548 12078
1.297 1.825 1.546 12496
1.299 1.829 1.540 13507
1.305 1.837 1.538 14681
1.308 1.841 1.531 12842
1.314 1.849 1.529 11370
1.320 1.858 1.527 11431
1.322 1.862 1.520 8893
1.333 1.876 1.522 6989
1.347 1.896 1.528 6917
1.357 1.910 1.529 8121
1.351 1.902 1.515 8121
1.354 1.905 1.508 7076
1.364 1.920 1.509 5738
1.366 1.923 1.503 5931
1.357 1.910 1.484 6199
1.363 1.918 1.481 6290
1.365 1.922 1.474 6411
1.371 1.930 1.472 4555
1.441 2.029 1.532 6164
1.444 2.032 1.525 6826
1.442 2.030 1.514 7578
1.448 2.039 1.510 7781
1.455 2.047 1.507 8730
1.457 2.051 1.500 10135
1.463 2.060 1.497 10839
1.465 2.063 1.489 10933
1.472 2.072 1.486 9991
1.482 2.086 1.486 9054
1.488 2.095 1.483 6193
1.547 2.178 1.527 3623
1.550 2.181 1.520 5107
1.548 2.179 1.508 7409
1.554 2.188 1.504 8974
1.561 2.197 1.500 8640
1.563 2.200 1.492 7954
1.549 2.180 1.470 8775
1.547 2.178 1.459 10656
1.553 2.187 1.455 10132
1.621 2.282 1.504 9621
1.570 2.210 1.450 9808
1.577 2.219 1.446 9190
1.595 2.246 1.452 9526
1.597 2.249 1.444 9873
1.666 2.345 1.491 8577
1.660 2.336 1.476 15078
1.658 2.334 1.464 18694
1.664 2.343 1.459 16051
1.679 2.363 1.461 14785
1.690 2.378 1.460 14847
1.696 2.387 1.455 13585
1.702 2.396 1.449 13107
1.709 2.405 1.444 12445
1.711 2.408 1.436 8703
1.713 2.411 1.427 6332
1.715 2.415 1.419 7325
1.722 2.423 1.414 7925
1.732 2.438 1.411 7138
1.785 2.512 1.440 10236
1.783 2.510 1.428 14835
1.781 2.507 1.416 16337
1.783 2.510 1.408 13288
1.806 2.543 1.414 12053
1.808 2.546 1.405 12491
1.811 2.549 1.396 10382
1.834 2.581 1.402 8761
1.849 2.602 1.402 12626
1.855 2.611 1.396 12867
1.857 2.614 1.386 8820
1.885 2.653 1.394 7353
1.887 2.656 1.385 6415
1.906 2.683 1.387 4912
1.908 2.686 1.378 5444
1.915 2.695 1.371 9121
1.930 2.716 1.370 11953
1.940 2.731 1.366 9422
1.951 2.746 1.362 6146
1.962 2.761 1.357 4539
1.994 2.807 1.367 5459
2.044 2.877 1.386 7199
2.046 2.880 1.376 11905
2.035 2.864 1.358 12807
2.110 2.971 1.392 11032
2.121 2.986 1.387 12280
2.128 2.995 1.379 10170
2.121 2.986 1.363 6950
2.127 2.995 1.355 7963
2.134 3.004 1.347 7797
2.162 3.043 1.352 7226
2.168 3.052 1.343 7026
2.175 3.061 1.335 6811
2.177 3.064 1.324 5684
2.205 3.104 1.328 6259
2.203 3.100 1.314 5287
2.275 3.202 1.341 3876
2.281 3.211 1.332 5271
2.287 3.220 1.323 4479
2.311 3.254 1.323 5064
2.318 3.263 1.314 5840
2.320 3.265 1.302 4550
2.331 3.281 1.295 4619
2.390 3.364 1.312 3848
2.383 3.354 1.296 4152
2.385 3.357 1.284 4092
2.413 3.397 1.285 3759
2.415 3.400 1.273 5720
2.475 3.483 1.288 9177
2.481 3.492 1.277 8619
2.487 3.501 1.267 7312
2.556 3.598 1.285 6372
2.544 3.582 1.266 8970
2.537 3.572 1.250 9608
2.544 3.581 1.239 9321
2.568 3.614 1.236 12815
2.570 3.617 1.223 7623
2.643 3.720 1.240 6154
2.680 3.773 1.242 6031
2.691 3.788 1.232 5907
2.693 3.791 1.219 7731
2.699 3.799 1.207 6340
2.723 3.833 1.203 4737
2.698 3.798 1.179 3894
2.754 3.876 1.186 3760
2.854 4.017 1.210 3500
2.860 4.026 1.197 4671
2.853 4.016 1.179 4665
2.850 4.012 1.164 6032
2.856 4.021 1.151 6507
2.921 4.112 1.159 4852
2.936 4.133 1.149 5186
2.942 4.142 1.136 5525
2.944 4.144 1.121 6795
3.027 4.261 1.134 5272
3.033 4.269 1.120 4887
3.048 4.291 1.109 4100
3.072 4.325 1.101 3998
3.069 4.321 1.084 3181
2.936 4.132 1.028 5060
2.933 4.128 1.012 4682
2.934 4.130 0.997 3603
2.940 4.138 0.984 3897
2.946 4.147 0.970 5358
2.947 4.149 0.956 4916
3.388 4.769 1.062 2910
3.394 4.777 1.046 2258
3.436 4.837 1.040 2410
3.424 4.820 1.019 3016
3.421 4.816 1.001 3752
3.418 4.811 0.983 3147
3.447 4.852 0.972 2448
3.466 4.879 0.959 3030
3.477 4.894 0.944 3714
3.601 5.069 0.955 3261
3.593 5.058 0.935 2757
3.594 5.060 0.917 3028
3.600 5.068 0.900 2939
3.720 5.236 0.906 2932
3.976 5.597 0.940 2706
3.987 5.612 0.921 3110
3.992 5.620 0.902 3392
3.994 5.622 0.882 3121
3.986 5.611 0.861 2442
4.069 5.728 0.855 2088
4.066 5.723 0.834 2797
4.053 5.705 0.812 3142
4.187 5.893 0.813 3344
4.188 5.895 0.792 3348
4.253 5.986 0.781 2676
4.258 5.994 0.760 2397
4.209 5.925 0.732 2358
4.297 6.049 0.722 2597
4.307 6.063 0.702 2544
4.313 6.071 0.681 2346
4.529 6.375 0.686 2449
4.735 6.666 0.687 2578
4.741 6.673 0.664 2943
4.847 6.823 0.651 3031
4.843 6.817 0.627 3560
4.849 6.825 0.603 3471
4.849 6.826 0.578 2371
5.166 7.272 0.581 1574
5.167 7.273 0.555 2006
5.167 7.274 0.530 2062
5.168 7.275 0.504 1672
5.164 7.269 0.477 852
5.110 7.193 0.448 838
5.106 7.187 0.422 686
5.308 7.471 0.407 385
0.743 1.046 0.093 274
0.743 1.046 0.089 255
0.733 1.032 0.072 286
0.733 1.032 0.069 274
0.737 1.038 0.065 285
0.737 1.038 0.061 297
0.737 1.038 0.058 385
0.737 1.038 0.054 473
0.732 1.031 0.051 468
0.737 1.037 0.047 454
0.732 1.030 0.044 372
0.732 1.030 0.040 288
0.736 1.036 0.036 295
0.745 1.049 0.031 304
0.750 1.055 0.027 406
0.749 1.055 0.023 577
0.745 1.048 0.021 651
0.740 1.042 0.018 908
0.740 1.041 0.014 1184
0.739 1.041 0.011 1380
0.739 1.041 0.007 1576
0.739 1.040 0.004 1432
0.734 1.034 0.001 1293
0.734 1.033 -0.003 1099
0.734 1.033 -0.006 827
0.724 1.020 -0.008 1244
1.192 1.669 1.570 3767
1.194 1.672 1.564 7534
1.197 1.676 1.558 6508
1.218 1.705 1.575 7126
1.220 1.709 1.569 9503
1.227 1.717 1.567 9026
1.237 1.731 1.570 8921
1.239 1.735 1.564 7746
1.245 1.743 1.563 6612
1.248 1.747 1.557 6612
1.258 1.761 1.559 6346
1.264 1.770 1.558 6659
1.262 1.768 1.547 7345
1.261 1.766 1.537 8322
1.283 1.796 1.552 11226
1.285 1.799 1.546 14651
1.295 1.813 1.548 14137
1.301 1.822 1.546 14470
1.304 1.825 1.540 15565
1.310 1.834 1.538 16821
1.312 1.837 1.531 14951
1.319 1.846 1.529 13268
1.321 1.849 1.522 13334
1.327 1.858 1.520 9804
1.337 1.872 1.522 6909
1.351 1.892 1.528 7363
1.362 1.907 1.529 9041
1.356 1.899 1.515 9058
1.359 1.902 1.508 7983
1.365 1.911 1.505 6240
1.367 1.914 1.499 6211
1.365 1.912 1.488 6448
1.368 1.915 1.481 6674
1.370 1.918 1.474 6900
1.380 1.932 1.476 4996
1.446 2.025 1.532 6740
1.449 2.028 1.525 7330
1.451 2.032 1.518 7919
1.453 2.035 1.510 7665
1.464 2.049 1.511 8035
1.466 2.053 1.504 9248
1.468 2.056 1.497 10032
1.471 2.059 1.489 10041
1.477 2.068 1.486 9392
1.491 2.088 1.490 9227
1.494 2.091 1.483 6496
1.553 2.174 1.527 4121
1.555 2.178 1.520 5476
1.558 2.181 1.512 7556
1.564 2.190 1.508 9350
1.566 2.193 1.500 9396
1.569 2.196 1.492 8360
1.555 2.176 1.470 8020
1.553 2.174 1.459 9668
1.555 2.177 1.451 8941
1.623 2.272 1.500 9920
1.629 2.281 1.496 8602
1.586 2.221 1.449 8182
1.601 2.241 1.452 9276
1.603 2.245 1.444 9799
1.610 2.253 1.440 7434
1.662 2.326 1.473 13686
1.664 2.330 1.464 17851
1.670 2.338 1.459 15606
1.685 2.359 1.461 14731
1.696 2.374 1.460 13757
1.702 2.383 1.455 12406
1.708 2.392 1.449 12546
1.715 2.401 1.444 12006
1.717 2.404 1.436 7818
1.719 2.407 1.427 5326
1.721 2.410 1.419 6194
1.728 2.419 1.414 6978
1.734 2.428 1.408 7006
1.791 2.508 1.440 9682
1.793 2.511 1.431 13996
1.787 2.502 1.416 15221
1.789 2.505 1.408 12218
1.813 2.538 1.414 10034
1.815 2.541 1.405 10299
1.821 2.550 1.399 9951
1.828 2.559 1.393 9994
1.855 2.598 1.402 11903
1.862 2.607 1.396 12373
1.868 2.616 1.389 9433
1.892 2.649 1.394 9014
1.898 2.658 1.388 7385
1.913 2.679 1.387 5139
1.915 2.682 1.378 5669
1.922 2.690 1.371 9438
1.937 2.712 1.370 11484
1.947 2.726 1.366 9490
1.958 2.741 1.362 5949
1.969 2.756 1.357 4155
2.001 2.802 1.367 4915
2.051 2.871 1.386 6951
2.053 2.874 1.376 11186
2.046 2.865 1.361 12406
2.122 2.971 1.395 10517
2.129 2.980 1.387 12181
2.131 2.983 1.376 10944
2.133 2.986 1.366 7649
2.139 2.995 1.358 7537
2.159 3.023 1.357 8378
2.170 3.038 1.352 8333
2.172 3.041 1.341 8031
2.183 3.056 1.335 7480
2.211 3.095 1.339 6480
2.208 3.092 1.325 7310
2.206 3.089 1.312 6256
2.283 3.196 1.341 4284
2.289 3.205 1.332 5362
2.247 3.146 1.298 4486
2.258 3.161 1.291 5101
2.322 3.251 1.311 5740
2.332 3.266 1.304 3754
2.396 3.355 1.324 4087
2.398 3.358 1.312 4434
2.391 3.348 1.296 4535
2.398 3.357 1.286 3855
2.417 3.385 1.283 3123
2.486 3.481 1.302 4858
2.483 3.477 1.288 8037
2.485 3.480 1.275 7369
2.492 3.489 1.265 6358
2.560 3.585 1.283 6226
2.553 3.575 1.266 8582
2.546 3.565 1.250 9307
2.553 3.574 1.239 9350
2.577 3.608 1.236 13917
2.579 3.611 1.223 8213
2.643 3.701 1.237 5411
2.694 3.772 1.244 5518
2.701 3.781 1.232 5663
2.702 3.784 1.219 7346
2.709 3.792 1.207 6088
2.737 3.833 1.205 5012
2.708 3.791 1.179 3944
2.763 3.869 1.186 4017
2.860 4.004 1.208 4074
2.866 4.013 1.195 5205
2.859 4.002 1.178 4873
2.860 4.005 1.164 6161
2.867 4.014 1.151 6808
2.931 4.104 1.159 5743
2.947 4.126 1.149 5939
2.953 4.134 1.136 5655
2.955 4.137 1.121 6324
3.038 4.253 1.134 5137
3.048 4.268 1.121 4968
3.059 4.283 1.109 4219
3.074 4.304 1.098 3730
3.076 4.306 1.083 3198
2.946 4.125 1.028 4876
2.943 4.120 1.012 4735
2.944 4.123 0.997 3943
2.946 4.125 0.982 4066
2.952 4.133 0.969 5264
2.953 4.135 0.954 4961
2.955 4.137 0.940 2667
3.420 4.788 1.050 2016
3.435 4.809 1.036 2682
3.436 4.811 1.019 3361
3.433 4.807 1.001 3859
3.426 4.796 0.981 3179
3.464 4.849 0.973 2078
3.474 4.864 0.958 3113
3.608 5.051 0.972 4044
3.609 5.053 0.954 4159
3.610 5.055 0.936 2651
3.712 5.197 0.940 2556
3.714 5.199 0.921 3114
3.733 5.227 0.906 3576
3.744 5.241 0.890 2917
3.818 5.345 0.885 3247
3.824 5.354 0.867 3397
3.825 5.355 0.848 2982
4.018 5.626 0.864 2108
3.905 5.468 0.824 2010
4.076 5.706 0.834 2424
4.068 5.695 0.812 2889
4.206 5.889 0.814 3026
4.207 5.891 0.793 3131
4.268 5.976 0.781 2898
4.274 5.984 0.760 2851
4.302 6.024 0.743 2191
4.312 6.038 0.722 2773
4.327 6.058 0.703 2624
4.544 6.362 0.708 2385
4.545 6.363 0.686 2622
4.757 6.660 0.688 2158
4.762 6.668 0.664 2569
4.965 6.952 0.662 2337
4.860 6.805 0.627 3001
4.861 6.806 0.602 3007
4.862 6.807 0.578 2021
5.180 7.252 0.581 1654
5.185 7.260 0.555 2014
5.186 7.261 0.530 2041
5.187 7.262 0.504 1638
5.132 7.185 0.474 889
5.128 7.180 0.448 880
5.124 7.174 0.422 698
5.124 7.174 0.397 375
0.736 1.030 0.072 268
0.736 1.030 0.069 270
0.740 1.036 0.065 251
0.740 1.036 0.058 354
0.740 1.036 0.054 467
0.740 1.035 0.050 493
0.739 1.035 0.047 509
0.735 1.029 0.044 418
0.735 1.028 0.040 326
0.739 1.035 0.036 304
0.739 1.034 0.033 253
0.752 1.053 0.027 313
0.748 1.047 0.024 451
0.747 1.046 0.021 524
0.747 1.046 0.017 776
0.742 1.039 0.014 1038
0.742 1.039 0.011 1248
0.742 1.039 0.007 1458
0.742 1.038 0.004 1373
0.741 1.038 -0.000 1289
0.741 1.038 -0.004 1156
0.741 1.037 -0.007 1011
0.732 1.024 -0.009 1559
1.196 1.666 1.570 3940
1.199 1.669 1.564 7880
1.201 1.672 1.558 6745
1.219 1.697 1.570 6878
1.225 1.705 1.569 8893
1.231 1.714 1.567 8427
1.241 1.728 1.570 8508
1.244 1.731 1.564 6764
1.250 1.740 1.563 5109
1.252 1.743 1.557 5109
1.266 1.763 1.564 5491
1.269 1.766 1.558 6476
1.271 1.770 1.552 7692
1.266 1.762 1.537 9155
1.287 1.792 1.552 12485
1.294 1.801 1.550 16373
1.300 1.810 1.548 15797
1.306 1.819 1.546 15985
1.309 1.822 1.540 17190
1.315 1.831 1.538 18526
1.317 1.834 1.531 16676
1.323 1.843 1.529 14967
1.326 1.846 1.522 15130
1.332 1.855 1.520 10800
1.338 1.863 1.518 7011
1.360 1.894 1.532 7706
1.367 1.903 1.529 9805
1.361 1.895 1.515 9874
1.364 1.898 1.508 8885
1.366 1.902 1.501 7003
1.368 1.905 1.495 6706
1.370 1.908 1.488 6676
1.377 1.917 1.485 6969
1.379 1.920 1.478 7293
1.385 1.929 1.476 5453
1.456 2.027 1.536 7281
1.454 2.025 1.525 7779
1.456 2.028 1.518 8295
1.463 2.037 1.514 7424
1.469 2.046 1.511 7065
1.472 2.049 1.504 8107
1.474 2.052 1.497 8883
1.476 2.055 1.489 8919
1.487 2.070 1.490 8802
1.497 2.084 1.490 9509
1.503 2.093 1.486 7018
1.559 2.170 1.527 4603
1.561 2.173 1.520 5827
1.563 2.177 1.512 7764
1.566 2.180 1.504 9870
1.572 2.189 1.500 10300
1.574 2.192 1.492 8886
1.577 2.195 1.485 7391
1.554 2.164 1.456 8241
1.618 2.253 1.501 7899
1.629 2.268 1.500 9822
1.635 2.277 1.496 8207
1.592 2.217 1.449 7342
1.611 2.243 1.455 9004
1.613 2.246 1.448 9674
1.620 2.255 1.443 7431
1.664 2.316 1.469 12588
1.666 2.319 1.461 17242
1.672 2.328 1.456 15241
1.691 2.355 1.461 14429
1.702 2.369 1.460 12456
1.708 2.378 1.455 10875
1.711 2.382 1.446 11446
1.721 2.396 1.444 10732
1.723 2.399 1.436 6393
1.726 2.403 1.427 3984
1.728 2.406 1.419 4710
1.734 2.414 1.414 5680
1.745 2.429 1.411 6754
1.798 2.503 1.440 8947
1.800 2.506 1.431 12902
1.798 2.503 1.419 13660
1.775 2.471 1.392 11009
1.773 2.468 1.380 7953
1.826 2.542 1.408 8150
1.828 2.545 1.399 9241
1.834 2.554 1.393 10583
1.862 2.593 1.402 10657
1.869 2.602 1.396 11138
1.879 2.617 1.392 9610
1.899 2.644 1.394 10797
1.905 2.653 1.388 8453
1.916 2.668 1.384 5369
1.918 2.670 1.375 5877
1.929 2.685 1.371 9541
1.944 2.706 1.370 10581
1.955 2.721 1.366 9313
1.961 2.730 1.359 5879
1.976 2.751 1.357 3875
2.035 2.833 1.383 4734
2.058 2.866 1.386 6317
2.061 2.869 1.376 10003
2.054 2.860 1.361 11678
2.130 2.966 1.395 9558
2.137 2.975 1.387 11523
2.139 2.978 1.376 11015
2.141 2.981 1.366 7522
2.147 2.990 1.358 6590
2.167 3.017 1.357 8554
2.173 3.026 1.349 8821
2.184 3.041 1.343 8524
2.191 3.050 1.335 8158
2.215 3.083 1.336 7350
2.217 3.086 1.325 8080
2.214 3.083 1.312 6753
2.291 3.190 1.341 4175
2.298 3.199 1.332 4922
2.256 3.140 1.298 4498
2.266 3.155 1.291 5086
2.330 3.244 1.311 5851
2.332 3.247 1.300 3774
2.405 3.349 1.324 5030
2.407 3.351 1.312 4953
2.400 3.342 1.296 4848
2.407 3.351 1.286 4119
2.422 3.372 1.280 2854
2.495 3.474 1.302 4070
2.497 3.477 1.290 6475
2.495 3.473 1.275 6162
2.501 3.482 1.265 6078
2.512 3.497 1.257 6147
2.567 3.574 1.268 7830
2.556 3.558 1.250 9292
2.589 3.605 1.251 10071
2.586 3.601 1.236 14644
2.588 3.604 1.223 8144
2.648 3.687 1.235 4855
2.704 3.765 1.244 5001
2.715 3.780 1.234 5232
2.717 3.783 1.221 6670
2.728 3.798 1.211 5573
2.757 3.838 1.208 4983
2.722 3.790 1.180 4004
2.774 3.862 1.186 4356
2.866 3.990 1.206 4451
2.876 4.005 1.195 5409
2.878 4.007 1.181 4700
2.871 3.997 1.164 5793
2.877 4.006 1.151 6776
2.938 4.090 1.157 6197
2.958 4.118 1.149 6384
2.964 4.127 1.136 5546
2.961 4.123 1.120 5550
2.967 4.131 1.107 5400
3.064 4.266 1.123 4903
3.070 4.275 1.109 4231
3.077 4.283 1.095 3517
3.083 4.292 1.082 3104
2.957 4.117 1.028 4408
2.954 4.113 1.012 4608
2.955 4.115 0.997 4190
2.957 4.117 0.982 4086
2.963 4.125 0.969 4999
2.964 4.127 0.954 4920
2.961 4.123 0.938 2903
3.373 4.696 1.034 1971
3.443 4.794 1.035 3049
3.449 4.802 1.019 3681
3.446 4.798 1.001 3830
3.429 4.774 0.979 3161
3.481 4.846 0.974 1923
3.487 4.855 0.958 3266
3.621 5.041 0.972 4623
3.622 5.043 0.954 4752
3.734 5.198 0.960 3385
3.730 5.194 0.941 3443
3.727 5.189 0.921 4063
3.742 5.210 0.905 4155
3.757 5.231 0.890 3240
3.832 5.335 0.885 3536
3.838 5.343 0.867 3720
3.839 5.345 0.848 3227
4.038 5.622 0.865 2273
4.030 5.611 0.843 2011
4.049 5.638 0.826 2058
4.083 5.684 0.812 2411
4.222 5.878 0.814 2416
4.223 5.880 0.793 2642
4.288 5.971 0.781 2897
4.294 5.979 0.761 3163
4.314 6.006 0.742 2560
4.324 6.020 0.722 2893
4.343 6.047 0.703 2545
4.561 6.350 0.708 2493
4.557 6.345 0.685 2658
4.549 6.333 0.661 1815
4.789 6.668 0.665 2221
4.984 6.939 0.662 2059
4.984 6.940 0.637 2603
4.879 6.793 0.602 2528
4.880 6.794 0.578 1695
5.199 7.239 0.581 1662
5.204 7.246 0.555 1942
5.205 7.247 0.530 1926
5.206 7.248 0.504 1529
5.151 7.172 0.474 920
5.151 7.172 0.449 877
5.143 7.160 0.422 678
5.143 7.161 0.397 350
5.582 7.772 0.391 266
0.743 1.034 0.058 338
0.742 1.034 0.054 452
0.738 1.027 0.051 476
0.742 1.033 0.047 484
0.737 1.027 0.044 385
0.737 1.026 0.040 301
0.742 1.033 0.036 285
0.755 1.051 0.027 279
0.755 1.051 0.023 394
0.750 1.044 0.021 439
0.745 1.038 0.018 667
0.745 1.037 0.014 902
0.745 1.037 0.011 1094
0.745 1.037 0.007 1285
0.740 1.030 0.004 1266
0.740 1.030 0.001 1250
0.739 1.029 -0.003 1171
0.739 1.029 -0.006 1111
0.734 1.022 -0.009 1652
1.199 1.663 1.570 4001
1.202 1.667 1.564 8003
1.208 1.675 1.563 6823
1.218 1.689 1.566 6621
1.228 1.703 1.569 8135
1.234 1.712 1.567 7782
1.244 1.726 1.570 8175
1.250 1.735 1.569 6073
1.253 1.738 1.563 4056
1.255 1.741 1.557 4056
1.277 1.771 1.573 5062
1.272 1.764 1.558 6335
1.274 1.767 1.552 7957
1.273 1.765 1.541 9720
1.290 1.790 1.552 13363
1.297 1.799 1.550 17564
1.303 1.808 1.548 16912
1.309 1.816 1.546 16996
1.312 1.820 1.540 18284
1.318 1.828 1.538 19652
1.320 1.832 1.531 17844
1.327 1.840 1.529 16232
1.329 1.844 1.522 16538
1.331 1.847 1.516 11626
1.342 1.861 1.518 7184
1.364 1.892 1.532 8002
1.370 1.900 1.529 10416
1.365 1.893 1.515 10531
1.363 1.891 1.504 9760
1.369 1.899 1.501 8006
1.372 1.902 1.495 7297
1.378 1.911 1.492 6926
1.380 1.914 1.485 7218
1.382 1.918 1.478 7511
1.393 1.932 1.480 5846
1.459 2.024 1.536 7844
1.462 2.028 1.529 8225
1.460 2.025 1.518 8665
1.466 2.034 1.514 7136
1.477 2.049 1.515 6149
1.479 2.052 1.508 6951
1.481 2.055 1.500 7580
1.480 2.053 1.489 7720
1.494 2.073 1.493 8427
1.505 2.087 1.494 10069
1.511 2.096 1.490 7918
1.562 2.167 1.527 5029
1.565 2.171 1.520 6128
1.567 2.174 1.512 7989
1.570 2.177 1.504 10483
1.576 2.186 1.500 11259
1.578 2.189 1.492 9552
1.589 2.204 1.492 7427
1.558 2.161 1.456 6892
1.622 2.251 1.501 7612
1.629 2.259 1.497 9602
1.639 2.274 1.496 7862
1.600 2.220 1.453 6566
1.619 2.246 1.459 8711
1.617 2.243 1.448 9455
1.653 2.293 1.467 7440
1.663 2.307 1.466 11809
1.666 2.311 1.458 16433
1.676 2.325 1.456 14898
1.700 2.358 1.465 14020
1.706 2.366 1.460 11120
1.712 2.375 1.455 9174
1.715 2.379 1.446 10077
1.721 2.387 1.441 9092
1.728 2.396 1.436 4892
1.776 2.464 1.463 3291
1.779 2.467 1.454 3138
1.738 2.411 1.414 4121
1.753 2.432 1.414 6188
1.760 2.441 1.409 8426
1.805 2.503 1.431 11956
1.807 2.506 1.423 12236
1.783 2.474 1.395 9531
1.777 2.465 1.380 6756
1.830 2.539 1.408 6537
1.837 2.548 1.402 8662
1.843 2.557 1.396 10612
1.863 2.584 1.399 9328
1.878 2.604 1.398 9641
1.888 2.619 1.395 9204
1.908 2.646 1.397 11722
1.914 2.655 1.391 9117
1.921 2.664 1.384 5605
1.923 2.667 1.375 6106
1.933 2.682 1.371 9363
1.949 2.703 1.370 9537
1.959 2.718 1.366 8932
1.961 2.721 1.356 5978
1.968 2.730 1.349 3881
2.040 2.829 1.383 4470
2.063 2.862 1.386 5459
2.066 2.865 1.376 8501
2.059 2.856 1.361 10453
2.135 2.962 1.395 8265
2.142 2.971 1.387 10300
2.144 2.974 1.376 10144
2.146 2.977 1.366 6520
2.157 2.992 1.360 5448
2.168 3.007 1.355 8277
2.174 3.016 1.347 8875
2.190 3.037 1.343 8945
2.196 3.046 1.335 8991
2.216 3.073 1.334 8110
2.218 3.076 1.323 8390
2.220 3.079 1.312 6667
2.231 3.094 1.306 4263
2.303 3.195 1.332 4108
2.257 3.130 1.295 4461
2.334 3.237 1.323 5176
2.332 3.234 1.309 6071
2.334 3.237 1.298 5085
2.415 3.351 1.326 5650
2.413 3.347 1.312 5226
2.411 3.344 1.298 4949
2.417 3.353 1.288 4737
2.432 3.374 1.283 2854
2.501 3.470 1.302 3292
2.503 3.472 1.290 4696
2.496 3.463 1.273 5030
2.534 3.515 1.277 6989
2.522 3.499 1.259 6861
2.560 3.551 1.262 7760
2.562 3.554 1.250 9710
2.595 3.600 1.251 10460
2.597 3.603 1.238 14066
2.599 3.605 1.225 7411
2.650 3.677 1.233 4698
2.639 3.660 1.214 5548
2.722 3.775 1.234 4836
2.724 3.778 1.221 6362
2.739 3.799 1.213 5006
2.763 3.833 1.208 4685
2.756 3.823 1.191 3939
2.776 3.851 1.184 4477
2.873 3.985 1.206 4472
2.884 4.000 1.195 5206
2.890 4.009 1.183 4301
2.878 3.992 1.164 5132
2.884 4.001 1.151 6373
2.945 4.085 1.157 6284
2.965 4.113 1.149 6475
2.971 4.121 1.136 5270
2.968 4.117 1.120 4726
2.970 4.120 1.105 5447
2.981 4.135 1.093 5299
3.078 4.269 1.109 4257
3.080 4.272 1.094 3567
3.086 4.280 1.080 2927
2.964 4.112 1.028 3598
2.961 4.107 1.012 4098
2.958 4.103 0.996 4234
2.964 4.112 0.982 3899
2.966 4.114 0.968 4598
2.967 4.115 0.953 4904
2.964 4.111 0.937 3473
2.960 4.107 0.921 2208
3.451 4.788 1.035 3475
3.458 4.796 1.019 4010
3.454 4.792 1.001 3686
3.433 4.762 0.978 3266
3.430 4.758 0.960 2055
3.491 4.842 0.957 3293
3.630 5.035 0.972 4814
3.631 5.037 0.954 5013
3.743 5.192 0.960 4075
3.740 5.187 0.941 4193
3.736 5.183 0.921 4862
3.747 5.197 0.905 4477
3.767 5.225 0.890 3264
3.837 5.322 0.885 3718
3.847 5.337 0.867 3900
3.849 5.338 0.848 3395
4.043 5.608 0.864 2922
4.040 5.604 0.843 2965
4.045 5.612 0.824 2482
4.037 5.600 0.803 2010
4.287 5.947 0.822 1950
4.302 5.968 0.803 2227
4.299 5.963 0.781 2931
4.305 5.971 0.761 3419
4.315 5.985 0.741 3048
4.330 6.006 0.721 3116
4.608 6.391 0.736 2529
4.567 6.335 0.708 2445
4.563 6.330 0.685 2530
4.652 6.453 0.672 1932
4.653 6.454 0.649 2128
4.659 6.462 0.626 1913
4.997 6.931 0.637 2358
4.891 6.785 0.602 2194
4.892 6.786 0.578 1492
5.216 7.236 0.581 1569
5.217 7.237 0.555 1774
5.218 7.238 0.530 1722
5.218 7.239 0.504 1337
5.164 7.163 0.474 892
5.164 7.163 0.449 842
5.160 7.158 0.423 629
5.595 7.762 0.419 326
5.540 7.685 0.389 266
0.740 1.026 0.062 275
0.744 1.033 0.058 357
0.744 1.032 0.054 442
0.740 1.026 0.051 476
0.744 1.032 0.047 495
0.739 1.025 0.044 422
0.744 1.032 0.040 343
0.743 1.031 0.036 297
0.752 1.043 0.024 309
0.752 1.043 0.021 354
0.747 1.036 0.018 558
0.747 1.036 0.014 765
0.747 1.036 0.011 982
0.746 1.035 0.007 1198
0.742 1.029 0.004 1234
0.741 1.028 0.001 1271
0.741 1.028 -0.003 1199
0.741 1.028 -0.006 1163
0.736 1.021 -0.009 1711
1.208 1.665 1.574 4035
1.211 1.668 1.568 8071
1.213 1.672 1.563 6898
1.223 1.686 1.566 6394
1.229 1.694 1.564 7364
1.243 1.713 1.572 7235
1.253 1.727 1.575 7995
1.256 1.731 1.569 6098
1.262 1.739 1.567 4288
1.265 1.743 1.561 4288
1.282 1.767 1.573 5104
1.281 1.765 1.562 6360
1.283 1.769 1.556 8145
1.278 1.761 1.541 9997
1.296 1.786 1.552 13848
1.302 1.795 1.550 18197
1.309 1.803 1.548 17493
1.315 1.812 1.546 17520
1.317 1.815 1.540 18799
1.324 1.824 1.538 20106
1.326 1.827 1.531 18360
1.332 1.836 1.529 16943
1.335 1.839 1.522 17405
1.337 1.843 1.516 12182
1.344 1.851 1.514 7264
1.370 1.887 1.532 8163
1.376 1.896 1.529 10802
1.370 1.888 1.515 10993
1.369 1.886 1.504 10564
1.375 1.895 1.501 9063
1.377 1.898 1.495 7951
1.384 1.907 1.492 7222
1.386 1.910 1.485 7374
1.388 1.913 1.478 7525
1.399 1.928 1.480 6074
1.466 2.020 1.536 8309
1.468 2.023 1.529 8646
1.466 2.021 1.518 8989
1.473 2.029 1.514 6889
1.504 2.072 1.534 5809
1.490 2.053 1.511 5981
1.492 2.056 1.504 6607
1.498 2.065 1.501 7069
1.509 2.079 1.501 8768
1.519 2.094 1.501 11091
1.522 2.097 1.494 9035
1.528 2.106 1.490 5769
1.568 2.160 1.516 6364
1.570 2.163 1.508 8287
1.576 2.172 1.504 11065
1.583 2.181 1.500 12142
1.589 2.190 1.496 10419
1.604 2.210 1.499 8583
1.611 2.219 1.495 6586
1.629 2.245 1.501 7374
1.636 2.254 1.497 9426
1.638 2.258 1.489 7822
1.628 2.243 1.470 6810
1.626 2.241 1.459 8602
1.628 2.244 1.451 9315
1.660 2.287 1.467 7743
1.666 2.296 1.462 11029
1.673 2.305 1.458 15511
1.684 2.320 1.456 14496
1.707 2.352 1.465 13494
1.713 2.361 1.460 9883
1.711 2.358 1.448 8053
1.718 2.367 1.443 8918
1.720 2.370 1.434 8053
1.714 2.362 1.420 4972
1.780 2.453 1.459 3704
1.782 2.456 1.451 3540
1.780 2.453 1.439 3562
1.769 2.438 1.421 5750
1.776 2.447 1.415 9255
1.812 2.497 1.431 11268
1.819 2.506 1.426 11270
1.821 2.509 1.417 8400
1.785 2.459 1.380 5228
1.843 2.539 1.411 5899
1.845 2.542 1.402 8690
1.851 2.551 1.396 10500
1.866 2.572 1.396 8193
1.886 2.599 1.398 7795
1.910 2.631 1.404 8575
1.916 2.640 1.397 11726
1.922 2.649 1.391 9279
1.929 2.658 1.384 5880
1.927 2.655 1.372 6356
1.942 2.676 1.371 9077
1.957 2.697 1.370 8707
1.964 2.706 1.363 8349
1.966 2.709 1.353 6094
1.972 2.717 1.347 4375
2.053 2.829 1.386 4043
2.072 2.856 1.386 4616
2.075 2.859 1.376 7030
2.072 2.856 1.363 9156
2.079 2.865 1.356 7181
2.151 2.964 1.387 8725
2.149 2.961 1.374 8707
2.155 2.970 1.366 5148
2.171 2.991 1.363 4839
2.177 3.000 1.355 7855
2.179 3.003 1.344 8519
2.199 3.030 1.343 9181
2.206 3.039 1.335 9693
2.221 3.060 1.331 8628
2.223 3.063 1.320 8224
2.229 3.072 1.312 6198
2.240 3.087 1.306 4326
2.256 3.108 1.302 3590
2.266 3.123 1.295 4379
2.344 3.230 1.323 5043
2.342 3.227 1.309 6111
2.344 3.230 1.298 6466
2.346 3.232 1.286 5910
2.424 3.340 1.312 5073
2.426 3.342 1.300 4634
2.428 3.345 1.288 5022
2.447 3.373 1.285 3274
2.503 3.449 1.298 2975
2.514 3.464 1.290 3214
2.552 3.517 1.294 4323
2.549 3.513 1.279 8108
2.547 3.510 1.265 7947
2.567 3.537 1.260 8549
2.573 3.546 1.250 10238
2.602 3.586 1.249 10398
2.609 3.595 1.238 13308
2.610 3.597 1.225 7238
2.662 3.668 1.233 5008
2.655 3.658 1.216 6863
2.657 3.661 1.203 5324
2.740 3.776 1.223 6218
2.728 3.759 1.204 4534
2.775 3.824 1.208 4283
2.768 3.814 1.191 3872
2.743 3.779 1.167 4341
2.885 3.976 1.206 4327
2.896 3.991 1.195 4769
2.934 4.043 1.194 4380
2.936 4.046 1.180 5335
2.942 4.055 1.167 6701
2.958 4.076 1.157 5951
2.982 4.110 1.151 6328
2.989 4.118 1.138 4962
2.981 4.108 1.120 3930
2.983 4.110 1.105 5230
2.998 4.132 1.095 5651
3.096 4.266 1.111 4393
3.088 4.256 1.093 3858
3.095 4.264 1.079 2868
2.972 4.096 1.026 2782
2.969 4.092 1.010 3647
2.971 4.094 0.996 4205
2.972 4.096 0.981 3582
2.974 4.098 0.966 4169
2.975 4.100 0.952 4990
2.972 4.095 0.936 4181
2.973 4.097 0.921 2808
3.462 4.770 1.034 3852
3.468 4.779 1.018 4375
3.469 4.781 1.001 3649
3.448 4.751 0.978 3327
3.472 4.785 0.967 2333
3.501 4.825 0.956 3272
3.641 5.017 0.971 4636
3.647 5.026 0.954 4921
3.759 5.180 0.960 4474
3.751 5.169 0.940 4679
3.753 5.171 0.921 5406
3.759 5.179 0.904 4639
3.788 5.219 0.891 3075
3.854 5.310 0.885 3914
3.859 5.318 0.866 3986
3.865 5.326 0.848 3357
4.061 5.596 0.864 3425
4.057 5.591 0.843 3555
4.063 5.599 0.824 2782
4.305 5.932 0.844 2142
4.306 5.934 0.822 2073
4.326 5.961 0.804 2177
4.318 5.950 0.781 2908
4.323 5.958 0.761 3537
4.334 5.972 0.741 3540
4.339 5.980 0.720 3581
4.340 5.981 0.699 2633
4.647 6.404 0.715 2470
4.583 6.316 0.685 2329
4.672 6.439 0.672 2131
4.673 6.440 0.649 2406
4.683 6.454 0.627 2284
5.018 6.915 0.637 2224
4.912 6.769 0.602 1862
5.554 7.653 0.636 1313
5.239 7.219 0.581 1420
5.240 7.220 0.555 1560
5.240 7.221 0.530 1484
5.241 7.222 0.504 1122
5.186 7.146 0.474 834
5.187 7.147 0.449 767
5.182 7.141 0.423 556
5.457 7.520 0.411 329
5.458 7.520 0.384 263
0.748 1.030 0.058 302
0.743 1.024 0.055 389
0.743 1.023 0.051 428
0.743 1.023 0.048 455
0.742 1.023 0.044 409
0.747 1.029 0.040 354
0.747 1.029 0.036 300
0.751 1.034 0.021 250
0.750 1.034 0.018 436
0.750 1.034 0.014 623
0.750 1.033 0.011 824
0.745 1.027 0.008 1032
0.745 1.026 0.004 1113
0.745 1.026 0.001 1194
0.744 1.026 -0.003 1160
0.744 1.025 -0.006 1187
0.744 1.025 -0.010 1805
1.211 1.663 1.574 4050
1.213 1.666 1.568 8100
1.216 1.670 1.563 6914
1.226 1.683 1.566 6147
1.228 1.687 1.560 6614
1.246 1.711 1.572 6858
1.256 1.725 1.575 8136
1.263 1.734 1.573 6684
1.269 1.742 1.572 5422
1.271 1.746 1.566 5422
1.278 1.754 1.564 5795
1.288 1.768 1.567 6598
1.290 1.772 1.560 8381
1.293 1.775 1.554 10163
1.303 1.789 1.556 13977
1.305 1.793 1.550 18309
1.312 1.801 1.548 17611
1.318 1.810 1.546 17671
1.320 1.813 1.540 18817
1.323 1.817 1.533 19964
1.329 1.825 1.531 18255
1.336 1.834 1.529 17072
1.338 1.837 1.522 17681
1.340 1.840 1.516 12350
1.347 1.849 1.514 7239
1.373 1.885 1.532 8187
1.379 1.894 1.529 10950
1.374 1.886 1.515 11282
1.372 1.884 1.504 11312
1.378 1.893 1.501 10165
1.381 1.896 1.495 8744
1.387 1.905 1.492 7695
1.393 1.913 1.489 7593
1.396 1.916 1.482 7534
1.402 1.925 1.480 6204
1.469 2.017 1.536 8700
1.471 2.020 1.529 9001
1.474 2.024 1.521 9302
1.476 2.027 1.514 6866
1.503 2.064 1.530 5839
1.497 2.056 1.515 5387
1.500 2.059 1.508 6104
1.522 2.090 1.520 7718
1.521 2.088 1.509 10024
1.523 2.091 1.501 12373
1.525 2.094 1.494 10100
1.532 2.103 1.490 6495
1.571 2.157 1.516 6386
1.573 2.161 1.508 8481
1.580 2.170 1.504 11619
1.582 2.173 1.497 12997
1.593 2.187 1.496 11478
1.604 2.202 1.495 10175
1.610 2.211 1.491 7546
1.633 2.243 1.501 7213
1.640 2.252 1.497 9266
1.642 2.255 1.489 8067
1.632 2.241 1.470 7367
1.634 2.244 1.462 8726
1.653 2.270 1.468 9626
1.664 2.285 1.467 7921
1.670 2.294 1.462 10170
1.677 2.303 1.458 14366
1.687 2.317 1.456 14092
1.711 2.349 1.465 12737
1.717 2.358 1.460 8723
1.711 2.350 1.445 7534
1.713 2.353 1.436 8385
1.720 2.362 1.431 8294
1.718 2.359 1.420 6607
1.716 2.356 1.408 4695
1.782 2.447 1.448 4026
1.784 2.450 1.439 3941
1.782 2.447 1.427 6107
1.784 2.450 1.418 10300
1.817 2.494 1.431 10590
1.823 2.503 1.426 10350
1.825 2.506 1.417 7652
1.832 2.515 1.411 4567
1.847 2.536 1.411 5827
1.853 2.545 1.405 8783
1.855 2.548 1.396 9944
1.875 2.575 1.399 7311
1.890 2.595 1.398 5747
1.918 2.634 1.407 7736
1.925 2.643 1.400 10962
1.927 2.646 1.391 8968
1.929 2.649 1.381 6156
1.931 2.652 1.372 6611
1.946 2.673 1.371 8748
1.962 2.694 1.370 8324
1.968 2.702 1.363 7752
1.961 2.693 1.348 6189
1.977 2.714 1.347 4808
2.001 2.747 1.350 4420
2.003 2.750 1.341 4643
2.079 2.855 1.376 5859
2.081 2.858 1.366 8278
2.084 2.861 1.356 7234
2.152 2.955 1.384 7157
2.149 2.952 1.371 7109
2.165 2.973 1.368 4474
2.176 2.988 1.363 5430
2.178 2.991 1.352 7502
2.180 2.993 1.342 7811
2.204 3.027 1.343 9472
2.211 3.036 1.335 10424
2.217 3.044 1.326 9225
2.224 3.053 1.318 7988
2.234 3.068 1.312 5522
2.250 3.089 1.308 4319
2.261 3.104 1.302 3997
2.272 3.119 1.295 4311
2.345 3.220 1.321 4790
2.347 3.223 1.309 6006
2.349 3.226 1.298 7538
2.351 3.228 1.286 7461
2.357 3.237 1.277 5249
2.436 3.344 1.302 4146
2.438 3.347 1.290 4924
2.453 3.368 1.285 3979
2.495 3.427 1.292 3592
2.511 3.448 1.286 2936
2.504 3.438 1.269 4457
2.555 3.509 1.279 8448
2.557 3.512 1.267 8564
2.568 3.527 1.258 9736
2.579 3.542 1.250 10809
2.590 3.557 1.241 10171
2.615 3.590 1.238 11921
2.616 3.593 1.225 7071
2.668 3.664 1.233 5219
2.661 3.654 1.216 7935
2.667 3.663 1.205 6427
2.751 3.777 1.224 6065
2.757 3.786 1.213 4481
2.777 3.814 1.206 4132
2.774 3.810 1.191 3678
2.749 3.775 1.167 3919
2.892 3.971 1.206 3867
2.907 3.992 1.197 4046
2.936 4.032 1.193 4305
2.943 4.041 1.180 5407
2.949 4.050 1.167 6599
2.960 4.065 1.156 5429
2.994 4.111 1.152 6135
3.000 4.120 1.139 4766
3.061 4.204 1.144 3647
2.990 4.105 1.105 4769
3.010 4.133 1.096 5717
3.103 4.261 1.111 4497
3.095 4.251 1.093 4073
3.097 4.253 1.077 2798
2.966 4.072 1.022 2930
2.967 4.074 1.007 3827
2.973 4.083 0.994 4244
2.975 4.085 0.980 3303
2.981 4.093 0.966 3843
2.982 4.095 0.952 5057
2.979 4.090 0.936 4685
2.980 4.092 0.921 3148
3.470 4.765 1.034 4278
3.476 4.773 1.018 4747
3.477 4.775 1.001 3618
3.456 4.746 0.978 3329
3.480 4.779 0.967 2740
3.505 4.813 0.955 3090
3.649 5.011 0.971 4138
3.655 5.020 0.954 4499
3.768 5.174 0.960 4469
3.760 5.163 0.940 4833
3.766 5.171 0.922 5674
3.767 5.173 0.904 4667
3.856 5.296 0.903 2965
3.862 5.304 0.885 4073
3.868 5.312 0.866 3985
4.041 5.549 0.879 3369
4.061 5.576 0.862 3757
4.067 5.584 0.843 3888
4.072 5.592 0.824 2849
4.315 5.925 0.844 2402
4.316 5.927 0.822 2254
4.336 5.954 0.804 2137
4.318 5.930 0.780 2893
4.333 5.950 0.761 3526
4.344 5.965 0.741 3896
4.345 5.966 0.719 4035
4.341 5.961 0.697 3059
4.658 6.396 0.715 2919
4.659 6.398 0.692 2693
4.678 6.424 0.672 2323
4.689 6.438 0.650 2638
4.694 6.446 0.627 2629
4.700 6.453 0.604 2227
5.040 6.921 0.613 1762
4.696 6.449 0.558 1435
5.568 7.645 0.608 1209
5.252 7.212 0.555 1306
5.257 7.219 0.530 1226
5.258 7.220 0.504 902
5.198 7.138 0.474 745
5.198 7.138 0.449 656
5.199 7.139 0.423 465
5.470 7.511 0.411 383
5.470 7.511 0.384 293
0.745 1.023 0.058 282
0.749 1.029 0.054 338
0.749 1.029 0.050 384
0.749 1.028 0.047 432
0.749 1.028 0.043 409
0.749 1.028 0.040 383
0.748 1.028 0.036 325
0.752 1.033 0.018 374
0.752 1.032 0.014 544
0.752 1.032 0.011 737
0.747 1.025 0.008 937
0.747 1.025 0.004 1045
0.751 1.031 -0.000 1153
0.746 1.025 -0.003 1154
0.746 1.024 -0.006 1229
0.746 1.024 -0.010 1894
1.220 1.664 1.579 4053
1.223 1.667 1.573 8107
1.225 1.671 1.567 6980
1.232 1.679 1.566 5915
1.230 1.678 1.555 5971
1.256 1.712 1.577 6736
1.262 1.721 1.575 8432
1.268 1.730 1.573 7493
1.275 1.738 1.572 6847
1.277 1.742 1.566 6847
1.287 1.756 1.568 6669
1.298 1.769 1.571 7030
1.296 1.768 1.560 8573
1.299 1.771 1.554 10173
1.309 1.785 1.556 13776
1.311 1.788 1.550 17900
1.322 1.802 1.552 17372
1.324 1.806 1.546 17491
1.326 1.809 1.540 18430
1.329 1.812 1.533 19368
1.335 1.821 1.531 17636
1.342 1.829 1.529 16644
1.344 1.833 1.522 17357
1.346 1.836 1.516 12104
1.353 1.845 1.514 6993
1.379 1.881 1.532 8151
1.385 1.889 1.529 10931
1.380 1.882 1.515 11416
1.378 1.879 1.504 11944
1.385 1.888 1.501 11205
1.391 1.897 1.499 9708
1.393 1.900 1.492 8320
1.400 1.909 1.489 7915
1.402 1.912 1.482 7532
1.408 1.921 1.480 6264
1.476 2.012 1.536 8964
1.478 2.016 1.529 9256
1.480 2.019 1.521 9548
1.487 2.028 1.518 7038
1.506 2.053 1.526 5839
1.504 2.051 1.515 5190
1.523 2.076 1.523 6655
1.529 2.085 1.520 9322
1.532 2.089 1.512 11456
1.534 2.092 1.505 13590
1.536 2.095 1.497 11026
1.539 2.098 1.490 7020
1.570 2.141 1.508 6106
1.577 2.150 1.505 8578
1.583 2.159 1.501 12171
1.590 2.168 1.497 13834
1.600 2.182 1.496 12663
1.611 2.197 1.495 11775
1.613 2.200 1.488 8906
1.620 2.209 1.483 7661
1.643 2.240 1.493 9261
1.650 2.249 1.489 8400
1.643 2.241 1.474 7933
1.646 2.244 1.466 8964
1.665 2.270 1.472 10173
1.671 2.279 1.467 8063
1.691 2.305 1.473 9513
1.689 2.303 1.461 13274
1.699 2.317 1.459 13783
1.723 2.349 1.468 11986
1.725 2.353 1.460 7773
1.715 2.338 1.441 7422
1.721 2.347 1.436 8303
1.723 2.350 1.428 9165
1.726 2.353 1.420 8323
1.728 2.356 1.411 6096
1.734 2.365 1.406 4616
1.788 2.438 1.436 4170
1.790 2.441 1.427 6898
1.792 2.444 1.418 11386
1.825 2.488 1.431 10152
1.836 2.503 1.429 9528
1.834 2.500 1.417 6970
1.840 2.509 1.411 4358
1.855 2.530 1.411 6088
1.862 2.539 1.405 9219
1.868 2.548 1.399 9801
1.888 2.574 1.402 7582
1.890 2.577 1.393 4547
1.931 2.634 1.410 7028
1.934 2.637 1.400 9866
1.940 2.645 1.394 8383
1.938 2.642 1.381 6439
1.936 2.639 1.369 6815
1.955 2.666 1.371 8388
1.975 2.693 1.373 8338
1.973 2.690 1.360 7283
1.970 2.687 1.348 6192
1.981 2.702 1.344 5091
2.010 2.740 1.350 5020
2.012 2.743 1.341 5091
2.023 2.758 1.336 6039
2.095 2.857 1.369 7880
2.093 2.854 1.356 7438
2.153 2.935 1.379 6153
2.150 2.932 1.366 6574
2.175 2.965 1.368 4489
2.186 2.980 1.363 6384
2.183 2.977 1.350 7156
2.185 2.980 1.339 7052
2.219 3.025 1.346 9724
2.221 3.028 1.335 10881
2.227 3.037 1.326 9391
2.229 3.040 1.316 7565
2.249 3.067 1.314 4645
2.265 3.088 1.310 4229
2.275 3.103 1.304 4388
2.282 3.112 1.295 4133
2.356 3.212 1.321 4263
2.358 3.215 1.309 5671
2.360 3.218 1.298 8120
2.362 3.221 1.286 8413
2.364 3.223 1.275 5506
2.456 3.349 1.307 3712
2.449 3.339 1.290 4450
2.487 3.391 1.295 4776
2.502 3.412 1.290 4674
2.513 3.427 1.282 3629
2.511 3.424 1.267 5356
2.567 3.500 1.279 8240
2.569 3.503 1.267 8639
2.580 3.518 1.258 10659
2.591 3.533 1.250 11363
2.597 3.542 1.239 10069
2.631 3.588 1.240 10586
2.633 3.590 1.227 7040
2.667 3.636 1.227 5657
2.668 3.639 1.214 8598
2.679 3.654 1.205 7053
2.768 3.774 1.226 5596
2.770 3.777 1.213 4835
2.790 3.804 1.206 4479
2.787 3.801 1.191 3516
2.885 3.934 1.214 3465
2.900 3.955 1.205 3418
2.925 3.989 1.199 3301
2.950 4.022 1.193 3984
2.956 4.031 1.180 5165
2.963 4.040 1.167 6204
2.964 4.042 1.153 5043
3.012 4.107 1.154 5775
3.014 4.110 1.139 4517
3.075 4.193 1.144 3335
3.022 4.120 1.111 4613
3.028 4.129 1.098 5576
3.117 4.251 1.111 4300
3.110 4.240 1.093 4372
2.978 4.060 1.037 2954
2.974 4.056 1.021 4004
2.976 4.058 1.006 4756
2.982 4.066 0.993 4539
2.988 4.075 0.980 3290
2.990 4.077 0.965 3753
2.991 4.079 0.950 5111
2.992 4.081 0.936 4906
2.989 4.076 0.920 3347
3.486 4.753 1.034 4597
3.492 4.762 1.018 5010
3.493 4.764 1.001 3532
3.472 4.734 0.978 3218
3.496 4.768 0.967 2911
3.516 4.795 0.954 2839
3.666 4.999 0.971 3559
3.672 5.007 0.954 3919
3.780 5.155 0.959 4199
3.772 5.144 0.939 4673
3.783 5.159 0.922 5553
3.789 5.167 0.905 4540
3.874 5.283 0.903 3008
3.880 5.291 0.885 4147
3.886 5.299 0.866 3869
4.059 5.535 0.879 3782
4.075 5.556 0.862 3960
4.085 5.571 0.843 3864
4.091 5.579 0.824 2731
4.334 5.911 0.844 2546
4.336 5.912 0.822 2336
4.332 5.907 0.801 2079
4.338 5.915 0.780 2844
4.348 5.930 0.760 3396
4.363 5.950 0.741 4062
4.364 5.951 0.719 4280
4.361 5.946 0.697 3351
4.679 6.381 0.715 3191
4.680 6.382 0.692 3203
4.686 6.390 0.670 2754
4.705 6.416 0.649 2825
4.716 6.430 0.627 2897
4.716 6.431 0.604 2553
4.717 6.432 0.581 2063
4.718 6.433 0.558 1612
5.074 6.919 0.564 1185
5.276 7.194 0.555 1043
5.281 7.202 0.530 990
5.216 7.113 0.499 825
5.222 7.120 0.474 627
5.222 7.121 0.449 533
5.485 7.479 0.437 423
5.495 7.493 0.411 424
5.495 7.493 0.384 331
0.753 1.026 0.054 323
0.752 1.026 0.050 373
0.752 1.026 0.047 418
0.752 1.026 0.043 387
0.752 1.025 0.040 377
0.747 1.019 0.037 341
0.747 1.019 0.033 263
0.756 1.030 0.018 274
0.755 1.030 0.014 400
0.750 1.023 0.011 579
0.750 1.023 0.008 758
0.750 1.023 0.004 900
0.754 1.029 -0.000 1043
0.754 1.028 -0.004 1124
0.754 1.028 -0.007 1282
0.749 1.021 -0.010 1913
1.222 1.663 1.579 4148
1.225 1.666 1.573 8297
1.231 1.674 1.572 7168
1.241 1.688 1.575 5733
1.248 1.697 1.573 5477
1.258 1.711 1.577 6803
1.264 1.719 1.575 8834
1.271 1.728 1.573 8336
1.281 1.742 1.576 8292
1.283 1.745 1.570 8292
1.290 1.754 1.568 7556
1.300 1.768 1.571 7482
1.302 1.771 1.565 8715
1.301 1.769 1.554 10032
1.311 1.783 1.556 13314
1.318 1.792 1.554 17216
1.324 1.801 1.552 16872
1.330 1.809 1.550 17054
1.329 1.807 1.540 17635
1.331 1.810 1.533 18265
1.338 1.819 1.531 16517
1.344 1.828 1.529 15687
1.346 1.831 1.522 16460
1.349 1.834 1.516 11461
1.355 1.843 1.514 6533
1.381 1.879 1.532 7998
1.388 1.888 1.529 10758
1.382 1.880 1.515 11424
1.381 1.878 1.504 12452
1.387 1.886 1.501 12103
1.393 1.895 1.499 10650
1.396 1.898 1.492 9019
1.402 1.907 1.489 8260
1.404 1.910 1.482 7534
1.411 1.919 1.480 6284
1.478 2.010 1.536 9162
1.481 2.014 1.529 9467
1.483 2.017 1.521 9772
1.490 2.026 1.518 7345
1.504 2.046 1.523 5964
1.511 2.055 1.519 5222
1.530 2.080 1.527 7739
1.532 2.083 1.520 10946
1.534 2.087 1.512 12899
1.537 2.090 1.505 14853
1.539 2.093 1.497 11852
1.541 2.096 1.490 7317
1.544 2.099 1.483 5781
1.579 2.148 1.505 8455
1.586 2.157 1.501 12607
1.596 2.171 1.500 14529
1.603 2.180 1.496 13744
1.610 2.189 1.492 13248
1.612 2.192 1.484 10299
1.618 2.201 1.480 8529
1.646 2.238 1.493 9400
1.652 2.247 1.489 8860
1.646 2.239 1.474 8529
1.649 2.242 1.466 9225
1.668 2.268 1.472 10465
1.674 2.277 1.467 8256
1.694 2.303 1.473 9611
1.700 2.312 1.468 12715
1.707 2.321 1.463 13808
1.722 2.341 1.465 11151
1.724 2.345 1.456 7034
1.713 2.330 1.438 7544
1.720 2.339 1.433 8618
1.726 2.348 1.428 10279
1.733 2.357 1.423 9667
1.735 2.360 1.414 7040
1.742 2.369 1.409 5899
1.774 2.413 1.423 5640
1.789 2.433 1.424 7674
1.800 2.448 1.421 11948
1.802 2.451 1.413 10367
1.839 2.501 1.429 8685
1.837 2.498 1.417 6363
1.843 2.507 1.411 4299
1.863 2.533 1.414 6784
1.865 2.536 1.405 10169
1.880 2.557 1.405 10479
1.895 2.578 1.405 8848
1.941 2.640 1.425 4863
1.943 2.643 1.415 7026
1.941 2.640 1.403 8548
1.943 2.643 1.394 7586
1.941 2.640 1.381 6698
1.926 2.619 1.361 6942
1.967 2.676 1.377 8092
1.983 2.696 1.375 8952
1.989 2.705 1.369 7274
1.969 2.678 1.345 5923
2.011 2.735 1.360 5144
2.013 2.738 1.350 5303
2.015 2.741 1.341 5145
2.022 2.750 1.334 6001
2.099 2.855 1.369 7730
2.101 2.857 1.358 7524
2.148 2.921 1.374 6093
2.154 2.930 1.366 7157
2.170 2.951 1.363 5424
2.185 2.972 1.360 7066
2.187 2.974 1.350 6575
2.176 2.959 1.332 6334
2.222 3.022 1.346 9694
2.225 3.025 1.335 10925
2.227 3.028 1.324 9054
2.233 3.037 1.316 7005
2.262 3.076 1.319 4178
2.273 3.091 1.313 4380
2.284 3.106 1.306 5021
2.281 3.103 1.293 4230
2.364 3.215 1.323 3646
2.362 3.212 1.309 5123
2.364 3.215 1.298 8019
2.366 3.218 1.286 8569
2.368 3.220 1.275 5288
2.469 3.358 1.311 3188
2.476 3.367 1.301 3611
2.496 3.394 1.297 5642
2.507 3.409 1.290 5650
2.509 3.412 1.277 4570
2.511 3.414 1.265 6572
2.571 3.497 1.279 7677
2.573 3.500 1.267 8246
2.584 3.515 1.258 11051
2.591 3.524 1.248 11654
2.597 3.532 1.237 10154
2.640 3.591 1.242 9198
2.642 3.593 1.229 7193
2.667 3.627 1.225 6203
2.673 3.635 1.214 8881
2.689 3.657 1.207 7438
2.704 3.678 1.199 6141
2.775 3.773 1.213 5072
2.790 3.794 1.205 5033
2.806 3.816 1.196 3895
2.885 3.924 1.212 3599
2.901 3.945 1.203 3074
2.834 3.854 1.164 3219
2.955 4.019 1.193 3560
2.961 4.027 1.180 4695
2.968 4.036 1.167 5562
2.969 4.038 1.153 4652
3.017 4.103 1.154 5207
3.019 4.106 1.139 4071
3.048 4.146 1.133 3111
3.050 4.148 1.119 4667
3.042 4.138 1.101 5772
3.044 4.140 1.086 4088
3.110 4.230 1.091 4525
2.978 4.050 1.035 3588
2.980 4.052 1.021 5336
2.981 4.054 1.006 5795
2.987 4.063 0.993 4725
2.989 4.065 0.978 3269
2.990 4.067 0.964 3753
2.996 4.075 0.950 4958
2.993 4.070 0.935 4692
3.467 4.715 1.045 3836
3.487 4.742 1.033 4737
3.498 4.757 1.018 5197
3.499 4.759 1.001 3452
3.478 4.730 0.978 3005
3.498 4.757 0.965 2795
3.522 4.790 0.954 2615
3.668 4.988 0.970 3137
3.799 5.167 0.981 4095
3.787 5.150 0.959 3806
3.756 5.108 0.934 4460
3.794 5.160 0.923 5048
3.800 5.168 0.905 4333
3.909 5.316 0.908 3145
3.891 5.292 0.885 4143
3.897 5.300 0.867 3700
4.066 5.530 0.879 4100
4.077 5.545 0.861 4368
4.088 5.559 0.842 3863
4.093 5.567 0.823 2563
4.342 5.905 0.844 2554
4.343 5.907 0.822 2294
4.340 5.902 0.801 1985
4.341 5.903 0.779 2675
4.356 5.924 0.760 3171
4.371 5.944 0.741 4083
4.367 5.940 0.719 4407
4.368 5.941 0.697 3597
4.687 6.375 0.715 3304
4.688 6.376 0.692 3539
4.689 6.377 0.669 3168
4.704 6.398 0.648 3034
4.724 6.424 0.627 3000
4.725 6.425 0.604 2664
5.077 6.904 0.614 2212
5.077 6.905 0.589 1724
5.083 6.913 0.564 1309
5.121 6.964 0.542 915
5.309 7.220 0.531 902
5.230 7.113 0.500 785
5.231 7.114 0.474 583
5.227 7.108 0.448 482
5.494 7.472 0.437 439
5.504 7.486 0.411 448
5.505 7.486 0.384 352
0.754 1.025 0.054 264
0.754 1.025 0.050 324
0.754 1.025 0.047 386
0.749 1.018 0.044 390
0.753 1.024 0.040 391
0.753 1.024 0.036 357
0.753 1.024 0.033 310
0.748 1.017 0.030 284
0.752 1.023 0.015 264
0.752 1.022 0.011 416
0.752 1.022 0.008 569
0.751 1.022 0.004 713
0.756 1.028 -0.000 861
0.755 1.027 -0.004 971
0.755 1.027 -0.007 1159
0.755 1.027 -0.011 1675
1.232 1.663 1.583 4323
1.235 1.667 1.578 8647
1.237 1.670 1.572 7548
1.247 1.684 1.575 5870
1.258 1.698 1.578 5284
1.268 1.711 1.581 6988
1.270 1.715 1.575 9271
1.281 1.729 1.578 9096
1.287 1.737 1.576 9548
1.289 1.741 1.570 9548
1.296 1.749 1.568 8355
1.306 1.763 1.571 7924
1.309 1.767 1.565 8825
1.307 1.765 1.554 9775
1.317 1.779 1.556 12730
1.324 1.787 1.554 16322
1.330 1.796 1.552 16144
1.337 1.805 1.550 16486
1.335 1.802 1.540 16536
1.338 1.806 1.533 16757
1.340 1.809 1.527 15015
1.350 1.823 1.529 14309
1.353 1.826 1.522 15101
1.355 1.830 1.516 10491
1.362 1.838 1.514 5902
1.392 1.879 1.536 7777
1.395 1.883 1.529 10399
1.385 1.870 1.510 11292
1.387 1.873 1.504 12760
1.394 1.881 1.501 12748
1.400 1.890 1.499 11391
1.402 1.893 1.492 9579
1.409 1.902 1.489 8504
1.411 1.905 1.482 7486
1.483 2.002 1.543 6356
1.485 2.005 1.536 9341
1.488 2.008 1.529 9697
1.490 2.012 1.521 10052
1.497 2.020 1.518 7775
1.511 2.040 1.523 6145
1.518 2.049 1.519 5433
1.537 2.075 1.527 8900
1.539 2.078 1.520 12499
1.542 2.081 1.512 14200
1.544 2.084 1.505 15902
1.546 2.088 1.497 12410
1.549 2.091 1.490 7358
1.551 2.094 1.483 5798
1.587 2.142 1.505 8197
1.598 2.157 1.504 13010
1.604 2.166 1.500 15301
1.611 2.174 1.496 14923
1.617 2.183 1.492 14707
1.620 2.186 1.484 11713
1.626 2.195 1.480 9388
1.654 2.233 1.493 9653
1.660 2.241 1.489 9407
1.654 2.233 1.474 9309
1.661 2.242 1.469 9727
1.676 2.262 1.472 10670
1.682 2.271 1.467 8468
1.706 2.303 1.476 9716
1.712 2.312 1.471 12782
1.715 2.315 1.463 13940
1.730 2.335 1.465 10611
1.732 2.338 1.456 6590
1.722 2.324 1.438 7673
1.728 2.333 1.433 8787
1.735 2.342 1.428 11144
1.741 2.351 1.423 10950
1.743 2.354 1.414 7624
1.754 2.368 1.412 6166
1.782 2.406 1.423 5663
1.798 2.427 1.424 8286
1.808 2.441 1.421 12851
1.815 2.450 1.416 11097
1.843 2.488 1.426 8261
1.846 2.491 1.417 6108
1.865 2.518 1.420 4381
1.872 2.527 1.414 7546
1.874 2.530 1.405 11328
1.894 2.556 1.408 11606
1.905 2.571 1.405 10049
1.937 2.615 1.416 5517
1.953 2.636 1.415 7120
1.955 2.639 1.406 7504
1.948 2.630 1.391 6801
1.950 2.633 1.381 6931
1.970 2.660 1.383 7153
1.981 2.675 1.379 8148
1.997 2.695 1.378 10123
2.008 2.710 1.374 8899
1.979 2.671 1.345 5414
2.025 2.734 1.363 5208
2.023 2.731 1.350 5157
2.029 2.740 1.343 4768
2.031 2.742 1.334 5512
2.113 2.853 1.371 7629
2.116 2.856 1.361 7365
2.153 2.907 1.371 6496
2.164 2.922 1.366 8232
2.175 2.937 1.361 7161
2.195 2.964 1.360 7197
2.198 2.967 1.350 5951
2.182 2.945 1.329 6394
2.229 3.009 1.343 9467
2.235 3.017 1.335 10726
2.237 3.020 1.324 8477
2.244 3.029 1.316 6414
2.295 3.099 1.331 4274
2.297 3.101 1.320 4808
2.295 3.098 1.306 5574
2.288 3.089 1.291 4377
2.425 3.274 1.348 3366
2.378 3.210 1.311 4731
2.375 3.206 1.298 7406
2.377 3.209 1.286 8039
2.379 3.212 1.275 4615
2.485 3.355 1.313 2593
2.496 3.370 1.305 3440
2.512 3.391 1.300 6525
2.514 3.394 1.287 6545
2.516 3.397 1.275 5615
2.523 3.405 1.265 7843
2.529 3.414 1.255 8007
2.590 3.497 1.269 7237
2.601 3.512 1.260 10143
2.603 3.514 1.248 10855
2.610 3.523 1.237 9660
2.648 3.575 1.240 7975
2.659 3.590 1.231 7517
2.679 3.617 1.225 6809
2.686 3.626 1.214 8626
2.711 3.659 1.210 7697
2.722 3.674 1.201 7313
2.792 3.770 1.215 5022
2.803 3.785 1.205 5731
2.814 3.800 1.194 4530
2.899 3.914 1.212 3876
2.910 3.929 1.201 3105
2.843 3.838 1.162 2863
2.923 3.946 1.176 3135
2.980 4.023 1.182 4120
2.987 4.032 1.169 4828
2.984 4.028 1.153 4151
3.036 4.099 1.155 4452
3.038 4.101 1.141 3392
3.003 4.054 1.114 3090
3.065 4.137 1.119 4854
3.062 4.133 1.102 5861
3.068 4.142 1.089 4231
3.125 4.219 1.091 4706
2.992 4.040 1.035 3991
2.994 4.042 1.021 6272
2.995 4.044 1.006 6423
3.002 4.052 0.993 4734
3.003 4.054 0.978 3340
3.004 4.056 0.964 3939
3.006 4.058 0.949 4707
3.007 4.060 0.935 4192
3.484 4.703 1.045 4153
3.508 4.736 1.034 4580
3.515 4.745 1.018 5270
3.521 4.753 1.002 3384
3.494 4.717 0.978 2861
3.505 4.732 0.963 2626
3.665 4.948 0.983 2958
3.825 5.164 1.001 3445
3.822 5.160 0.982 4415
3.814 5.149 0.961 3414
3.774 5.094 0.934 4297
3.826 5.166 0.926 4660
3.823 5.161 0.906 4218
3.932 5.308 0.909 3403
3.915 5.285 0.886 4194
3.916 5.287 0.867 3580
4.086 5.516 0.879 4240
4.092 5.524 0.860 4514
4.102 5.538 0.842 3642
4.108 5.546 0.822 2292
4.363 5.890 0.844 2467
4.364 5.891 0.822 2169
4.295 5.798 0.790 2199
4.362 5.888 0.779 2405
4.377 5.909 0.760 2858
4.392 5.929 0.741 4053
4.388 5.924 0.719 4505
4.389 5.925 0.697 3762
4.710 6.358 0.715 3335
4.706 6.353 0.692 3830
4.712 6.361 0.669 3576
4.722 6.375 0.647 3265
4.742 6.401 0.626 2856
5.095 6.879 0.638 2683
5.101 6.886 0.614 2471
5.102 6.887 0.589 1960
5.107 6.895 0.564 1421
5.145 6.946 0.542 990
5.250 7.087 0.525 946
5.260 7.101 0.500 844
5.256 7.095 0.474 587
5.252 7.090 0.448 445
5.521 7.453 0.437 420
5.526 7.460 0.411 436
5.531 7.467 0.384 350
0.757 1.022 0.050 272
0.757 1.022 0.047 321
0.757 1.022 0.043 321
0.757 1.022 0.040 337
0.757 1.022 0.036 327
0.757 1.021 0.033 296
0.756 1.021 0.029 277
0.755 1.020 0.011 290
0.755 1.019 0.008 385
0.755 1.019 0.004 527
0.759 1.025 -0.000 678
0.759 1.025 -0.004 759
0.759 1.024 -0.007 918
0.754 1.018 -0.010 1382
1.237 1.660 1.583 4510
1.239 1.663 1.578 9021
1.245 1.672 1.576 8060
1.256 1.686 1.579 6172
1.262 1.694 1.578 5270
1.272 1.708 1.581 7211
1.275 1.711 1.575 9650
1.285 1.725 1.578 9721
1.291 1.734 1.576 10488
1.294 1.737 1.570 10488
1.300 1.746 1.568 8945
1.311 1.760 1.571 8210
1.313 1.763 1.565 8786
1.312 1.761 1.554 9370
1.322 1.775 1.556 11992
1.329 1.784 1.554 15212
1.335 1.792 1.552 15201
1.341 1.801 1.550 15677
1.340 1.799 1.540 15200
1.342 1.802 1.533 14960
1.345 1.805 1.527 13283
1.355 1.819 1.529 12595
1.358 1.823 1.522 13361
1.360 1.826 1.516 9272
1.366 1.835 1.514 5157
1.397 1.876 1.536 7448
1.400 1.879 1.529 9874
1.390 1.866 1.510 11101
1.392 1.869 1.504 12947
1.399 1.878 1.501 13201
1.405 1.886 1.499 11946
1.407 1.890 1.492 9977
1.414 1.898 1.489 8672
1.416 1.901 1.482 7434
1.488 1.998 1.543 6370
1.491 2.001 1.536 9428
1.493 2.005 1.529 9888
1.495 2.008 1.521 10348
1.502 2.017 1.518 8249
1.513 2.031 1.519 6363
1.523 2.045 1.519 5644
1.542 2.071 1.527 9916
1.545 2.074 1.520 13806
1.547 2.077 1.512 15200
1.550 2.080 1.505 16594
1.552 2.084 1.497 12623
1.554 2.087 1.490 7220
1.557 2.090 1.483 5787
1.592 2.138 1.505 7876
1.603 2.152 1.504 13388
1.610 2.161 1.500 16074
1.616 2.170 1.496 16088
1.623 2.179 1.492 16000
1.621 2.176 1.481 12977
1.628 2.185 1.476 10242
1.655 2.222 1.490 9999
1.666 2.237 1.489 9897
