4.092 -1.607 1.283 8681
4.095 -1.608 1.271 10359
4.098 -1.610 1.258 15646
4.108 -1.614 1.247 10592
4.176 -1.640 1.252 6500
4.200 -1.650 1.245 3550
4.124 -1.620 1.211 4120
4.134 -1.624 1.200 6843
4.123 -1.619 1.183 5660
4.097 -1.609 1.163 4097
4.100 -1.610 1.151 3640
4.110 -1.614 1.140 3676
4.112 -1.615 1.127 4284
4.108 -1.613 1.113 4860
4.110 -1.614 1.100 3826
4.257 -1.672 1.121 2274
4.260 -1.673 1.107 2104
4.262 -1.674 1.094 2238
4.864 -1.910 1.215 2320
4.874 -1.914 1.201 5038
4.869 -1.912 1.185 4615
4.858 -1.908 1.166 3759
4.861 -1.909 1.151 4566
4.863 -1.910 1.136 3983
4.946 -1.942 1.137 5513
4.948 -1.943 1.122 4505
5.139 -2.019 1.144 4114
5.099 -2.002 1.119 4297
5.087 -1.998 1.101 3340
5.184 -2.036 1.103 2679
5.244 -2.060 1.097 3335
5.254 -2.064 1.082 2908
5.359 -2.105 1.084 2746
5.361 -2.106 1.067 2832
5.466 -2.147 1.068 2396
5.737 -2.253 1.097 3495
5.747 -2.257 1.080 4705
5.750 -2.258 1.062 3275
5.657 -2.222 1.029 2661
5.718 -2.246 1.021 3773
5.728 -2.250 1.004 5063
5.745 -2.256 0.988 4143
6.251 -2.455 1.044 3065
5.917 -2.324 0.977 2856
6.343 -2.491 1.017 2702
6.265 -2.461 0.987 3175
6.268 -2.462 0.967 3674
6.277 -2.465 0.949 3694
6.272 -2.463 0.928 3364
6.267 -2.461 0.908 2330
6.877 -2.701 0.961 2142
6.872 -2.699 0.939 2401
6.866 -2.697 0.917 1902
7.623 -2.994 0.979 1809
7.193 -2.825 0.909 1959
7.195 -2.826 0.886 1972
7.630 -2.997 0.908 2427
7.632 -2.997 0.884 3993
7.634 -2.998 0.860 4430
7.629 -2.996 0.836 3585
7.638 -3.000 0.813 3067
7.640 -3.000 0.789 2479
8.442 -3.316 0.831 2578
8.451 -3.319 0.805 3009
8.446 -3.317 0.778 3292
8.462 -3.324 0.753 3275
8.471 -3.327 0.727 2561
8.465 -3.325 0.700 2039
8.460 -3.322 0.674 2511
8.461 -3.323 0.647 2105
8.462 -3.324 0.621 1127
8.802 -3.457 0.613 686
8.465 -3.325 0.568 551
8.466 -3.325 0.542 441
8.791 -3.453 0.530 339
8.799 -3.456 0.503 288
4.088 -1.606 0.016 250
4.088 -1.605 0.003 292
4.087 -1.605 -0.010 295
4.094 -1.608 -0.023 297
4.087 -1.605 -0.035 254
4.086 -1.605 -0.060 351
4.078 -1.601 -0.073 496
4.077 -1.601 -0.085 698
4.076 -1.601 -0.098 899
4.076 -1.601 -0.110 1086
4.075 -1.600 -0.123 1274
4.074 -1.600 -0.136 1421
4.074 -1.600 -0.148 1577
4.073 -1.600 -0.161 1586
4.079 -1.602 -0.174 1761
4.078 -1.602 -0.187 1954
4.078 -1.601 -0.199 2049
4.069 -1.598 -0.211 2157
4.068 -1.598 -0.224 2314
4.067 -1.597 -0.237 2470
4.074 -1.600 -0.250 2371
4.072 -1.599 -0.263 2278
4.071 -1.599 -0.275 2278
4.063 -1.596 -0.287 2041
4.062 -1.595 -0.300 1819
4.060 -1.595 -0.312 1637
4.059 -1.594 -0.325 1456
4.058 -1.594 -0.337 1456
4.057 -1.593 -0.350 728
1.851 -0.730 1.545 3820
1.854 -0.732 1.540 7641
1.864 -0.736 1.539 5756
1.904 -0.752 1.560 5725
1.914 -0.755 1.559 5813
1.990 -0.785 1.608 6034
2.000 -0.789 1.607 7393
2.004 -0.791 1.600 7572
2.008 -0.793 1.594 7751
2.012 -0.794 1.588 7751
2.004 -0.791 1.573 9114
2.007 -0.792 1.567 10706
2.023 -0.799 1.570 11920
2.033 -0.803 1.568 14559
2.037 -0.804 1.562 13184
2.047 -0.808 1.560 12025
2.051 -0.810 1.553 9395
2.055 -0.811 1.547 6766
2.059 -0.813 1.541 6197
2.056 -0.812 1.530 5679
2.097 -0.828 1.550 4993
2.107 -0.832 1.547 5396
2.111 -0.833 1.541 5887
2.128 -0.840 1.543 6134
2.150 -0.849 1.549 7251
2.166 -0.855 1.551 6759
2.183 -0.862 1.552 7343
2.187 -0.863 1.546 5895
2.216 -0.875 1.555 5136
2.201 -0.869 1.536 5647
2.211 -0.873 1.534 6393
2.221 -0.877 1.531 7003
2.224 -0.878 1.524 6994
2.228 -0.880 1.517 6986
2.232 -0.881 1.510 6520
2.299 -0.908 1.543 7745
2.310 -0.912 1.540 10380
2.313 -0.913 1.533 13037
2.323 -0.917 1.530 11809
2.334 -0.921 1.527 9894
2.337 -0.923 1.520 6834
2.315 -0.914 1.497 6208
2.326 -0.918 1.494 7277
2.342 -0.925 1.494 8781
2.359 -0.931 1.495 10852
2.369 -0.935 1.491 11729
2.379 -0.939 1.488 11439
2.389 -0.943 1.484 9876
2.399 -0.947 1.480 12085
2.403 -0.949 1.473 19147
2.413 -0.953 1.469 24063
2.417 -0.954 1.462 22323
2.420 -0.955 1.454 19018
2.417 -0.954 1.443 18006
2.421 -0.956 1.436 17971
2.431 -0.960 1.432 13958
2.441 -0.964 1.428 10516
2.451 -0.968 1.424 12683
2.461 -0.971 1.420 16516
2.471 -0.975 1.416 19282
2.468 -0.974 1.405 19908
2.465 -0.973 1.394 20862
2.548 -1.006 1.427 18226
2.551 -1.007 1.420 18772
2.555 -1.008 1.412 16385
2.572 -1.015 1.411 11982
2.749 -1.085 1.490 10304
2.752 -1.086 1.481 10302
2.763 -1.091 1.476 9300
2.827 -1.116 1.497 7608
2.837 -1.120 1.492 8730
2.841 -1.121 1.483 8857
2.811 -1.109 1.458 8617
2.909 -1.148 1.494 7100
2.926 -1.155 1.491 10154
2.923 -1.154 1.479 9929
2.919 -1.152 1.467 8082
2.896 -1.143 1.446 5349
3.001 -1.185 1.483 7747
3.005 -1.186 1.474 10080
3.008 -1.188 1.464 6895
2.951 -1.165 1.428 5189
3.097 -1.223 1.482 3382
3.101 -1.224 1.472 6670
3.098 -1.223 1.460 8903
3.081 -1.216 1.441 9618
3.091 -1.220 1.435 9641
3.115 -1.230 1.434 7194
3.208 -1.266 1.462 5744
3.218 -1.270 1.455 4716
3.222 -1.272 1.445 5600
3.239 -1.279 1.440 8756
3.257 -1.285 1.436 9072
3.267 -1.290 1.429 8735
3.270 -1.291 1.418 7557
3.336 -1.317 1.433 6164
3.347 -1.321 1.425 10253
3.357 -1.325 1.418 10014
3.381 -1.335 1.415 7871
3.399 -1.342 1.410 9251
3.416 -1.348 1.405 9763
3.433 -1.355 1.399 6688
3.513 -1.387 1.417 3715
3.524 -1.391 1.409 7393
3.527 -1.392 1.398 8338
3.531 -1.394 1.387 5573
3.555 -1.403 1.383 4808
3.600 -1.421 1.387 4897
3.604 -1.422 1.376 4464
3.593 -1.418 1.360 3643
3.589 -1.417 1.346 2245
3.747 -1.479 1.387 2051
3.750 -1.480 1.376 6278
3.754 -1.482 1.364 10530
3.750 -1.480 1.350 11344
3.760 -1.484 1.341 13154
3.771 -1.488 1.332 14951
3.774 -1.490 1.320 12776
3.777 -1.491 1.308 9049
3.801 -1.501 1.303 5906
3.911 -1.544 1.324 6112
3.907 -1.542 1.310 4823
3.903 -1.541 1.295 4010
4.084 -1.612 1.336 3431
4.087 -1.613 1.323 6720
4.076 -1.609 1.307 10405
4.086 -1.613 1.296 11802
4.089 -1.614 1.283 8018
4.099 -1.618 1.273 10540
4.102 -1.619 1.260 16601
4.105 -1.621 1.247 10787
4.166 -1.644 1.250 6559
4.197 -1.657 1.245 3433
4.122 -1.627 1.211 4630
4.132 -1.631 1.200 8353
4.127 -1.629 1.185 6222
4.195 -1.656 1.189 3387
4.104 -1.620 1.152 2618
4.107 -1.621 1.140 2796
4.110 -1.622 1.127 3441
4.112 -1.623 1.114 4025
4.108 -1.621 1.100 3094
4.254 -1.679 1.121 2331
4.264 -1.683 1.109 2481
4.259 -1.681 1.094 2450
4.860 -1.919 1.215 2755
4.871 -1.923 1.201 5698
4.866 -1.921 1.185 5307
4.855 -1.916 1.166 4230
4.857 -1.917 1.151 4713
4.867 -1.921 1.138 4051
4.942 -1.951 1.137 5371
4.945 -1.952 1.122 4353
5.136 -2.027 1.144 4077
5.117 -2.020 1.124 4195
5.091 -2.009 1.102 3194
5.289 -2.088 1.123 3371
5.292 -2.089 1.107 4046
5.309 -2.096 1.093 3180
5.340 -2.108 1.082 2908
5.350 -2.112 1.066 2963
5.622 -2.219 1.096 2346
5.741 -2.266 1.098 3185
5.751 -2.270 1.081 4370
5.746 -2.268 1.062 3164
5.646 -2.229 1.028 2634
5.714 -2.256 1.021 3401
5.724 -2.259 1.004 4578
5.741 -2.266 0.988 3836
6.247 -2.466 1.044 3399
6.249 -2.467 1.025 3057
6.252 -2.468 1.005 2931
6.254 -2.469 0.986 3805
6.263 -2.472 0.967 4160
6.273 -2.476 0.949 4036
6.268 -2.474 0.928 3589
6.255 -2.469 0.907 2538
6.872 -2.713 0.961 2195
6.860 -2.708 0.938 2367
6.862 -2.709 0.917 1797
7.186 -2.837 0.931 1595
7.188 -2.837 0.909 1939
7.190 -2.838 0.886 1932
7.537 -2.975 0.899 2149
7.627 -3.011 0.884 3531
7.629 -3.011 0.860 3919
7.623 -3.009 0.836 3027
7.633 -3.013 0.813 2471
8.427 -3.327 0.857 2098
8.436 -3.330 0.831 2522
8.438 -3.331 0.805 2973
8.440 -3.332 0.778 3299
8.464 -3.341 0.754 3174
8.473 -3.345 0.728 2477
8.467 -3.342 0.701 1852
8.454 -3.337 0.674 2238
8.455 -3.338 0.647 1859
8.795 -3.472 0.640 1151
8.796 -3.472 0.613 798
8.790 -3.470 0.585 503
8.468 -3.342 0.542 361
8.461 -3.340 0.515 306
4.075 -1.609 -0.060 302
4.075 -1.608 -0.073 445
4.074 -1.608 -0.085 625
4.074 -1.608 -0.098 804
4.073 -1.608 -0.110 995
4.072 -1.607 -0.123 1186
4.072 -1.607 -0.136 1367
4.071 -1.607 -0.148 1550
4.070 -1.607 -0.161 1552
4.077 -1.609 -0.174 1776
4.076 -1.609 -0.187 2004
4.075 -1.608 -0.199 2142
4.066 -1.605 -0.211 2291
4.065 -1.605 -0.224 2463
4.064 -1.604 -0.237 2634
4.071 -1.607 -0.250 2561
4.070 -1.606 -0.263 2499
4.069 -1.606 -0.275 2499
4.060 -1.603 -0.287 2274
4.059 -1.602 -0.300 2063
4.058 -1.602 -0.312 1876
4.057 -1.601 -0.325 1689
4.055 -1.601 -0.337 1689
4.054 -1.600 -0.350 844
1.848 -0.736 1.545 3628
1.852 -0.737 1.540 7257
1.862 -0.741 1.539 5294
1.908 -0.759 1.565 5143
1.912 -0.761 1.559 5217
1.988 -0.791 1.608 6439
1.998 -0.795 1.607 7808
2.002 -0.797 1.600 7855
2.006 -0.798 1.594 7902
2.009 -0.800 1.588 7902
2.001 -0.797 1.573 9139
2.005 -0.798 1.567 10738
2.021 -0.805 1.570 12213
2.031 -0.809 1.568 14986
2.035 -0.810 1.562 13751
2.045 -0.814 1.560 12591
2.043 -0.813 1.549 9740
2.047 -0.815 1.543 6963
2.044 -0.814 1.532 6493
2.048 -0.815 1.526 6083
2.089 -0.831 1.545 5041
2.105 -0.838 1.547 6065
2.109 -0.839 1.541 6934
2.125 -0.846 1.543 6938
2.141 -0.852 1.545 7681
2.164 -0.861 1.551 6682
2.180 -0.868 1.552 7408
2.190 -0.872 1.550 6005
2.213 -0.881 1.555 5597
2.198 -0.875 1.536 5642
2.202 -0.876 1.530 5699
2.218 -0.883 1.531 5871
2.228 -0.887 1.528 5764
2.245 -0.893 1.529 5890
2.293 -0.913 1.550 6248
2.297 -0.914 1.543 8360
2.301 -0.916 1.536 11061
2.311 -0.920 1.533 13828
2.321 -0.924 1.530 12416
2.331 -0.928 1.527 10654
2.335 -0.929 1.520 7981
2.326 -0.926 1.505 5178
2.316 -0.922 1.490 4387
2.339 -0.931 1.494 6123
2.356 -0.938 1.495 9281
2.366 -0.942 1.491 11630
2.376 -0.946 1.488 12477
2.386 -0.950 1.484 11194
2.390 -0.951 1.477 12793
2.400 -0.955 1.473 18816
2.410 -0.959 1.469 23682
2.414 -0.961 1.462 22378
2.418 -0.962 1.454 18834
2.415 -0.961 1.443 16914
2.418 -0.962 1.436 16552
2.422 -0.964 1.429 12915
2.432 -0.968 1.425 9937
2.442 -0.972 1.421 13154
2.458 -0.979 1.420 16621
2.468 -0.983 1.416 18333
2.465 -0.981 1.405 17310
2.462 -0.980 1.394 16506
2.545 -1.013 1.427 17777
2.549 -1.014 1.420 17975
2.559 -1.018 1.415 16029
2.569 -1.022 1.411 12183
2.746 -1.093 1.490 10383
2.749 -1.094 1.481 10410
2.760 -1.098 1.476 9256
2.830 -1.126 1.500 7729
2.834 -1.128 1.492 9085
2.837 -1.129 1.483 9650
2.807 -1.117 1.458 8663
2.892 -1.151 1.488 8085
2.916 -1.161 1.488 10489
2.906 -1.157 1.473 9998
2.903 -1.155 1.461 8228
2.893 -1.151 1.446 5633
2.998 -1.193 1.483 7734
2.995 -1.192 1.471 9841
2.998 -1.193 1.461 6832
2.954 -1.176 1.431 5663
3.012 -1.199 1.446 3552
3.097 -1.233 1.472 5533
3.094 -1.232 1.460 8364
3.077 -1.225 1.441 9812
3.088 -1.229 1.435 9819
3.119 -1.241 1.437 7698
3.204 -1.275 1.462 5378
3.215 -1.280 1.455 4473
3.177 -1.265 1.428 5684
3.236 -1.288 1.440 7791
3.253 -1.295 1.436 9306
3.263 -1.299 1.429 9357
3.267 -1.300 1.418 8208
3.284 -1.307 1.414 6150
3.343 -1.331 1.425 9215
3.360 -1.337 1.420 9057
3.377 -1.344 1.415 7242
3.395 -1.351 1.410 7916
3.419 -1.361 1.407 8245
3.429 -1.365 1.399 5204
3.502 -1.394 1.414 3987
3.513 -1.398 1.406 7237
3.523 -1.402 1.398 8092
3.540 -1.409 1.392 5209
3.551 -1.413 1.383 4564
3.596 -1.431 1.387 4984
3.663 -1.458 1.398 4655
3.575 -1.423 1.355 3588
3.732 -1.486 1.397 2683
3.743 -1.490 1.387 3202
3.746 -1.491 1.376 6444
3.742 -1.490 1.362 8879
3.746 -1.491 1.350 9163
3.756 -1.495 1.341 10394
3.766 -1.499 1.332 11382
3.770 -1.500 1.320 10354
3.780 -1.505 1.310 7832
3.790 -1.509 1.301 5155
3.906 -1.555 1.324 7511
3.910 -1.556 1.312 5672
3.913 -1.557 1.300 4261
4.079 -1.624 1.336 4371
4.075 -1.622 1.321 6970
4.071 -1.621 1.307 10043
4.081 -1.625 1.296 10912
4.085 -1.626 1.283 7159
4.095 -1.630 1.273 10502
4.098 -1.631 1.260 16523
4.101 -1.632 1.247 10443
4.161 -1.656 1.250 6928
4.185 -1.666 1.243 3268
4.124 -1.642 1.213 5136
4.127 -1.643 1.200 9198
4.123 -1.641 1.185 6380
4.190 -1.668 1.189 3769
4.193 -1.669 1.176 2778
4.109 -1.636 1.141 2114
4.112 -1.637 1.129 2902
4.108 -1.635 1.114 3309
4.110 -1.636 1.101 2379
4.257 -1.694 1.122 2364
4.259 -1.695 1.109 2766
4.262 -1.696 1.096 2542
4.855 -1.932 1.215 3064
4.865 -1.936 1.201 6169
4.861 -1.935 1.185 5752
4.849 -1.930 1.166 4498
4.852 -1.931 1.151 4587
4.862 -1.935 1.138 3832
4.944 -1.968 1.139 5230
4.939 -1.966 1.122 4189
5.130 -2.042 1.144 3803
5.118 -2.037 1.125 3867
5.259 -2.093 1.135 3335
5.283 -2.103 1.123 4273
5.286 -2.104 1.107 4781
5.296 -2.108 1.092 3684
5.327 -2.120 1.080 3293
5.330 -2.121 1.064 3145
5.623 -2.238 1.097 2617
5.618 -2.236 1.078 3356
5.751 -2.289 1.082 3752
5.747 -2.287 1.063 2927
5.640 -2.245 1.028 2656
5.715 -2.275 1.022 2934
5.718 -2.276 1.004 3807
6.237 -2.483 1.063 3329
6.240 -2.484 1.044 3604
6.235 -2.482 1.024 3387
6.237 -2.483 1.004 3343
6.247 -2.486 0.986 4302
6.256 -2.490 0.967 4385
6.266 -2.494 0.949 4087
6.261 -2.492 0.928 3591
6.248 -2.487 0.907 2614
6.857 -2.729 0.961 2248
6.845 -2.724 0.937 2412
6.839 -2.722 0.915 1782
7.522 -2.994 0.969 1806
7.180 -2.858 0.909 1883
7.534 -2.999 0.923 1935
7.528 -2.997 0.899 2308
7.618 -3.032 0.884 3034
7.613 -3.030 0.860 3329
7.615 -3.031 0.836 2433
8.401 -3.344 0.882 1930
8.410 -3.348 0.856 2140
8.427 -3.354 0.831 2459
8.429 -3.355 0.805 2930
8.431 -3.356 0.778 3283
8.462 -3.368 0.754 3014
8.471 -3.372 0.728 2487
8.465 -3.369 0.701 1721
8.459 -3.367 0.675 1816
8.776 -3.493 0.667 1505
8.785 -3.497 0.640 1157
8.786 -3.497 0.613 807
8.787 -3.498 0.585 486
8.465 -3.370 0.542 270
8.452 -3.364 0.515 253
4.071 -1.620 -0.060 277
4.070 -1.620 -0.073 404
4.070 -1.620 -0.085 571
4.069 -1.620 -0.098 739
4.068 -1.619 -0.110 920
4.068 -1.619 -0.123 1101
4.067 -1.619 -0.136 1281
4.066 -1.619 -0.148 1465
4.065 -1.618 -0.161 1469
4.072 -1.621 -0.174 1716
4.071 -1.620 -0.187 1971
4.070 -1.620 -0.199 2171
4.062 -1.617 -0.211 2371
4.061 -1.616 -0.224 2577
4.060 -1.616 -0.237 2783
4.066 -1.619 -0.250 2706
4.065 -1.618 -0.263 2635
4.064 -1.618 -0.275 2635
4.056 -1.614 -0.287 2426
4.054 -1.614 -0.300 2237
4.053 -1.613 -0.312 2061
4.052 -1.613 -0.325 1886
4.051 -1.612 -0.337 1886
4.049 -1.612 -0.350 943
1.847 -0.739 1.545 3527
1.851 -0.741 1.540 7054
1.861 -0.745 1.539 5073
1.906 -0.763 1.565 4830
1.982 -0.793 1.614 5474
1.986 -0.795 1.608 6701
1.996 -0.799 1.607 7979
2.000 -0.800 1.600 7881
2.004 -0.802 1.594 7784
2.008 -0.804 1.588 7784
2.006 -0.803 1.577 9188
2.004 -0.802 1.567 10955
2.014 -0.806 1.565 12657
2.030 -0.812 1.568 15502
2.034 -0.814 1.562 14358
2.037 -0.815 1.555 13214
2.041 -0.817 1.549 10140
2.027 -0.811 1.530 7264
2.043 -0.817 1.532 6832
2.046 -0.819 1.526 6457
2.063 -0.825 1.528 5172
2.104 -0.842 1.547 6479
2.107 -0.843 1.541 7702
2.117 -0.847 1.539 7550
2.134 -0.854 1.541 8176
2.162 -0.865 1.551 6579
2.179 -0.872 1.552 7424
2.195 -0.878 1.554 6197
2.211 -0.885 1.555 5928
2.196 -0.879 1.536 5523
2.200 -0.880 1.530 5128
2.210 -0.884 1.527 4910
2.265 -0.906 1.552 5399
2.262 -0.905 1.541 5801
2.285 -0.914 1.546 6956
2.295 -0.918 1.543 8994
2.299 -0.920 1.536 11678
2.309 -0.924 1.533 14485
2.319 -0.928 1.530 13173
2.329 -0.932 1.527 12109
2.333 -0.934 1.520 10225
2.330 -0.933 1.509 6208
2.321 -0.929 1.494 3605
2.338 -0.935 1.494 5030
2.354 -0.942 1.495 7733
2.358 -0.944 1.487 11139
2.368 -0.948 1.484 12928
2.378 -0.952 1.480 12001
2.388 -0.956 1.477 13179
2.405 -0.962 1.477 18263
2.409 -0.964 1.469 22736
2.412 -0.965 1.462 21904
2.416 -0.967 1.454 18299
2.413 -0.965 1.443 15694
2.410 -0.964 1.432 15069
2.413 -0.966 1.425 12500
2.423 -0.970 1.421 10558
2.440 -0.976 1.421 13930
2.450 -0.980 1.417 17530
2.467 -0.987 1.416 18144
2.463 -0.986 1.405 15433
2.546 -1.019 1.439 14369
2.543 -1.018 1.427 16964
2.547 -1.019 1.420 17083
2.557 -1.023 1.415 15515
2.567 -1.027 1.411 11993
2.737 -1.095 1.486 10273
2.747 -1.099 1.481 10114
2.758 -1.103 1.476 8952
2.828 -1.132 1.500 7795
2.832 -1.133 1.492 9218
2.835 -1.135 1.483 10146
2.839 -1.136 1.474 9018
2.883 -1.154 1.484 9123
2.900 -1.160 1.482 10534
2.897 -1.159 1.470 9775
2.901 -1.161 1.461 8128
2.891 -1.157 1.446 5556
2.989 -1.196 1.480 7772
2.992 -1.197 1.471 9613
2.989 -1.196 1.458 7065
2.959 -1.184 1.434 6195
3.037 -1.215 1.458 4502
3.102 -1.241 1.475 4760
3.085 -1.235 1.457 8027
3.075 -1.230 1.441 9794
3.085 -1.235 1.435 9850
3.109 -1.244 1.434 8083
3.127 -1.251 1.430 5097
3.164 -1.266 1.435 4301
3.168 -1.268 1.425 6021
3.233 -1.294 1.440 6540
3.251 -1.301 1.436 9303
3.261 -1.305 1.429 10061
3.264 -1.306 1.418 8928
3.275 -1.310 1.411 6252
3.340 -1.337 1.425 7788
3.358 -1.344 1.420 7755
3.410 -1.364 1.428 6435
3.413 -1.366 1.418 6574
3.430 -1.373 1.413 7180
3.469 -1.388 1.415 5026
3.500 -1.400 1.414 4294
3.510 -1.405 1.406 6788
3.521 -1.409 1.398 7799
3.538 -1.416 1.392 5153
3.548 -1.420 1.383 4404
3.601 -1.441 1.390 5549
3.667 -1.467 1.400 6091
3.670 -1.469 1.389 4452
3.730 -1.492 1.397 3427
3.740 -1.497 1.387 4081
3.743 -1.498 1.376 6362
3.740 -1.496 1.362 7298
3.736 -1.495 1.348 7053
3.746 -1.499 1.339 7719
3.764 -1.506 1.332 8022
3.767 -1.507 1.320 8114
3.777 -1.511 1.310 6783
3.914 -1.566 1.340 6103
3.904 -1.562 1.324 8325
3.907 -1.563 1.312 6446
3.917 -1.567 1.302 4950
4.069 -1.628 1.334 4966
4.065 -1.627 1.319 6606
4.068 -1.628 1.307 8683
4.078 -1.632 1.296 9376
4.067 -1.628 1.279 6746
4.092 -1.637 1.273 10589
4.095 -1.639 1.260 15377
4.105 -1.643 1.249 9313
4.151 -1.661 1.248 7380
4.132 -1.654 1.229 3539
4.121 -1.649 1.213 6019
4.124 -1.650 1.200 9432
4.120 -1.648 1.185 5993
4.187 -1.675 1.189 3950
4.190 -1.676 1.176 2829
4.128 -1.652 1.147 1918
4.116 -1.647 1.130 2804
4.112 -1.645 1.116 2799
4.244 -1.698 1.134 1998
4.246 -1.699 1.121 2197
4.256 -1.703 1.109 2708
4.259 -1.704 1.096 2519
4.851 -1.941 1.215 3218
4.862 -1.945 1.201 6378
4.864 -1.946 1.186 5854
4.846 -1.939 1.166 4431
4.848 -1.940 1.151 4260
4.858 -1.944 1.138 3462
4.940 -1.977 1.139 5016
4.943 -1.978 1.123 4075
5.119 -2.048 1.142 3349
5.115 -2.047 1.125 3289
5.262 -2.106 1.137 3811
5.279 -2.112 1.123 5111
5.282 -2.114 1.107 5406
5.292 -2.117 1.092 4162
5.323 -2.130 1.080 3696
5.319 -2.128 1.062 3260
5.619 -2.248 1.097 2820
5.614 -2.246 1.078 3777
5.616 -2.247 1.061 3037
5.742 -2.298 1.063 2650
5.636 -2.255 1.028 2714
5.631 -2.253 1.009 2709
5.713 -2.286 1.004 2958
6.233 -2.494 1.063 3054
6.235 -2.495 1.044 3615
6.230 -2.493 1.024 3677
6.233 -2.494 1.004 3697
6.235 -2.495 0.985 4693
6.252 -2.502 0.967 4434
6.261 -2.505 0.949 3975
6.249 -2.500 0.927 3479
6.244 -2.498 0.907 2600
6.837 -2.736 0.959 2241
6.832 -2.734 0.937 2486
6.827 -2.732 0.914 1860
7.516 -3.008 0.969 1967
7.526 -3.011 0.947 1836
7.528 -3.012 0.923 1916
7.523 -3.010 0.899 2353
7.525 -3.011 0.875 2748
7.607 -3.044 0.860 2705
7.609 -3.045 0.836 1879
8.395 -3.359 0.882 2023
8.404 -3.363 0.856 2179
8.428 -3.372 0.832 2463
8.423 -3.370 0.805 2907
8.417 -3.368 0.778 3267
8.455 -3.383 0.754 2941
8.464 -3.387 0.728 2771
8.466 -3.388 0.702 1849
8.467 -3.388 0.675 1521
8.777 -3.512 0.668 1327
8.779 -3.513 0.640 1103
8.780 -3.513 0.613 787
8.781 -3.514 0.585 471
4.067 -1.628 -0.073 354
4.067 -1.627 -0.085 502
4.066 -1.627 -0.098 650
4.065 -1.627 -0.110 823
4.065 -1.626 -0.123 997
4.064 -1.626 -0.136 1187
4.063 -1.626 -0.148 1376
4.070 -1.629 -0.162 1377
4.069 -1.628 -0.174 1634
4.068 -1.628 -0.187 1890
4.067 -1.627 -0.199 2097
4.066 -1.627 -0.212 2304
4.065 -1.627 -0.225 2527
4.064 -1.626 -0.237 2750
4.063 -1.626 -0.250 2707
4.062 -1.625 -0.263 2664
4.061 -1.625 -0.275 2664
4.060 -1.625 -0.288 2479
4.051 -1.621 -0.300 2315
4.050 -1.621 -0.312 2185
4.056 -1.623 -0.326 2055
4.055 -1.623 -0.338 2055
4.054 -1.622 -0.351 1027
1.845 -0.744 1.545 3219
1.849 -0.746 1.540 6439
1.930 -0.779 1.594 4779
1.910 -0.771 1.570 4703
1.980 -0.799 1.614 5816
1.984 -0.800 1.608 6881
1.994 -0.804 1.607 7977
1.998 -0.806 1.600 7720
2.002 -0.807 1.594 7463
2.006 -0.809 1.588 7463
2.004 -0.808 1.577 9015
2.001 -0.807 1.567 10844
2.011 -0.811 1.565 12682
2.027 -0.818 1.568 15422
2.031 -0.819 1.562 14443
2.035 -0.821 1.555 13464
2.033 -0.820 1.545 10357
2.024 -0.817 1.530 7808
2.040 -0.823 1.532 7132
2.044 -0.825 1.526 6809
2.060 -0.831 1.528 5516
2.095 -0.845 1.543 6967
2.105 -0.849 1.541 8537
2.115 -0.853 1.539 8409
2.131 -0.860 1.541 8935
2.148 -0.866 1.542 6640
2.183 -0.880 1.557 7341
2.199 -0.887 1.558 6263
2.209 -0.891 1.555 6153
2.194 -0.885 1.536 5493
2.191 -0.884 1.526 4755
2.265 -0.913 1.563 4725
2.268 -0.915 1.556 5621
2.266 -0.914 1.545 6165
2.282 -0.921 1.546 7592
2.293 -0.925 1.543 9572
2.296 -0.926 1.536 12164
2.306 -0.930 1.533 14932
2.317 -0.934 1.530 13947
2.327 -0.939 1.527 13611
2.324 -0.937 1.516 12693
2.328 -0.939 1.509 8426
2.332 -0.940 1.501 5023
2.335 -0.942 1.494 5462
2.345 -0.946 1.491 6704
2.355 -0.950 1.487 10481
2.372 -0.957 1.488 12745
2.376 -0.958 1.480 12049
2.386 -0.962 1.477 13064
2.402 -0.969 1.477 17431
2.412 -0.973 1.473 21525
2.410 -0.972 1.462 20984
2.407 -0.971 1.451 17395
2.410 -0.972 1.443 14216
2.401 -0.968 1.429 13769
2.404 -0.970 1.421 12538
2.414 -0.974 1.418 11629
2.431 -0.980 1.417 14627
2.447 -0.987 1.417 18556
2.457 -0.991 1.413 18634
2.467 -0.995 1.408 14335
2.543 -1.026 1.439 13616
2.547 -1.027 1.431 15592
2.544 -1.026 1.420 15751
2.554 -1.030 1.415 14697
2.564 -1.034 1.411 11569
2.734 -1.103 1.486 9714
2.744 -1.107 1.481 9408
2.754 -1.111 1.476 8336
2.825 -1.139 1.500 7833
2.829 -1.141 1.492 9182
2.832 -1.142 1.483 10463
2.843 -1.147 1.477 9804
2.873 -1.159 1.481 10311
2.883 -1.163 1.475 10862
2.887 -1.164 1.467 9727
2.891 -1.166 1.458 8218
2.948 -1.189 1.474 6033
2.979 -1.202 1.477 7748
2.982 -1.203 1.468 9179
2.972 -1.199 1.452 7492
2.956 -1.192 1.434 6925
3.034 -1.224 1.458 5530
3.037 -1.225 1.448 4852
3.082 -1.243 1.457 7805
3.079 -1.242 1.444 9693
3.082 -1.243 1.435 9829
3.106 -1.253 1.434 8069
3.123 -1.260 1.430 4840
3.161 -1.275 1.435 4255
3.171 -1.279 1.428 5702
3.230 -1.303 1.440 5769
3.247 -1.310 1.436 9216
3.250 -1.311 1.426 10471
3.261 -1.315 1.418 9083
3.271 -1.319 1.411 5989
3.337 -1.346 1.425 6249
3.409 -1.375 1.442 6909
3.413 -1.377 1.431 6450
3.416 -1.378 1.420 5829
3.440 -1.388 1.418 6689
3.472 -1.400 1.417 6259
3.482 -1.405 1.409 5060
3.513 -1.417 1.409 6527
3.524 -1.421 1.400 7356
3.541 -1.428 1.394 4838
3.635 -1.466 1.416 4519
3.597 -1.451 1.390 6286
3.670 -1.480 1.403 7315
3.673 -1.482 1.391 5593
3.705 -1.494 1.390 3966
3.736 -1.507 1.387 4557
3.739 -1.508 1.376 6117
3.736 -1.507 1.362 6063
3.732 -1.505 1.348 5646
3.742 -1.509 1.339 5832
3.844 -1.550 1.359 6070
3.770 -1.521 1.322 6391
3.773 -1.522 1.310 5914
3.903 -1.574 1.338 7068
3.899 -1.573 1.324 8446
3.902 -1.574 1.312 6868
3.913 -1.578 1.302 5670
4.064 -1.639 1.334 5097
4.053 -1.635 1.317 5912
4.064 -1.639 1.307 6802
4.074 -1.643 1.296 7605
4.063 -1.639 1.279 6163
4.094 -1.651 1.275 10257
4.090 -1.650 1.260 13548
4.115 -1.660 1.253 8118
4.146 -1.672 1.248 7471
4.121 -1.662 1.227 4887
4.116 -1.660 1.213 7160
4.119 -1.662 1.200 9558
4.122 -1.663 1.187 5357
4.182 -1.687 1.189 3905
4.185 -1.688 1.176 2637
4.116 -1.660 1.145 2068
4.119 -1.661 1.132 3071
4.114 -1.660 1.118 2575
4.246 -1.713 1.136 1911
4.242 -1.711 1.121 1876
4.251 -1.715 1.109 2399
4.268 -1.722 1.099 2563
4.853 -1.958 1.216 3178
4.863 -1.962 1.203 6410
4.859 -1.960 1.186 5753
4.840 -1.952 1.166 4060
4.843 -1.953 1.151 3724
4.853 -1.957 1.138 2949
4.935 -1.991 1.139 4544
4.938 -1.992 1.123 3882
5.114 -2.063 1.142 2784
5.102 -2.058 1.124 2538
5.256 -2.120 1.137 4202
5.266 -2.124 1.122 5806
5.276 -2.128 1.107 5877
5.286 -2.132 1.092 4492
5.317 -2.145 1.080 3994
5.313 -2.143 1.062 3349
5.605 -2.261 1.096 2965
5.608 -2.262 1.078 4013
5.610 -2.263 1.061 3153
5.729 -2.311 1.062 2555
5.630 -2.271 1.028 2667
5.625 -2.269 1.009 2657
5.707 -2.302 1.004 2146
6.226 -2.511 1.063 2619
6.228 -2.512 1.044 3477
6.223 -2.510 1.024 3862
6.226 -2.511 1.004 3922
6.228 -2.512 0.985 4863
6.238 -2.516 0.966 4333
6.254 -2.523 0.949 3674
6.242 -2.518 0.927 3261
6.237 -2.516 0.907 2453
6.822 -2.752 0.958 2215
6.817 -2.750 0.936 2499
6.820 -2.751 0.914 1907
7.508 -3.028 0.969 2035
7.510 -3.029 0.946 1815
7.520 -3.033 0.923 1862
7.515 -3.031 0.899 2346
7.517 -3.032 0.875 2847
7.519 -3.033 0.852 2322
7.498 -3.025 0.826 1632
8.378 -3.379 0.881 2111
8.388 -3.383 0.856 2243
8.419 -3.396 0.832 2608
8.421 -3.397 0.805 3023
8.408 -3.391 0.778 3338
8.446 -3.407 0.754 3035
8.448 -3.407 0.728 3197
8.449 -3.408 0.701 2192
8.458 -3.412 0.675 1486
8.767 -3.536 0.668 1161
8.769 -3.537 0.640 1030
8.770 -3.537 0.613 762
8.434 -3.402 0.568 537
8.442 -3.405 0.542 258
4.055 -1.636 -0.072 281
4.062 -1.639 -0.085 404
4.062 -1.638 -0.098 529
4.061 -1.638 -0.110 691
4.060 -1.638 -0.123 854
4.060 -1.637 -0.136 1046
4.059 -1.637 -0.148 1234
4.065 -1.640 -0.162 1238
4.064 -1.639 -0.174 1477
4.064 -1.639 -0.187 1717
4.063 -1.639 -0.199 1942
4.062 -1.638 -0.212 2167
4.061 -1.638 -0.225 2416
4.060 -1.638 -0.237 2665
4.059 -1.637 -0.250 2662
4.058 -1.637 -0.263 2659
4.057 -1.636 -0.275 2659
4.055 -1.636 -0.288 2512
4.047 -1.632 -0.300 2374
4.046 -1.632 -0.312 2239
4.052 -1.634 -0.326 2111
4.051 -1.634 -0.338 2111
4.049 -1.633 -0.351 1055
1.844 -0.747 1.545 2863
1.848 -0.749 1.540 5727
1.929 -0.782 1.594 5311
1.957 -0.793 1.606 4987
1.979 -0.802 1.614 6140
1.983 -0.803 1.608 6984
1.987 -0.805 1.602 7829
1.997 -0.809 1.600 7221
2.001 -0.811 1.594 6634
2.005 -0.812 1.588 6634
2.002 -0.811 1.577 8424
2.000 -0.810 1.567 10383
2.010 -0.814 1.565 12313
2.020 -0.818 1.563 14944
2.024 -0.820 1.557 14148
2.034 -0.824 1.555 13396
2.032 -0.823 1.545 10546
2.023 -0.820 1.530 8351
2.033 -0.824 1.528 7469
2.043 -0.828 1.526 7169
2.059 -0.834 1.528 6059
2.094 -0.848 1.543 7513
2.104 -0.852 1.541 9280
2.114 -0.856 1.539 9117
2.124 -0.860 1.536 9635
2.140 -0.867 1.538 6872
2.181 -0.884 1.557 7119
2.198 -0.890 1.558 6258
2.208 -0.894 1.555 6271
2.193 -0.888 1.536 5359
2.190 -0.887 1.526 4434
2.263 -0.917 1.563 4745
2.267 -0.918 1.556 5851
2.271 -0.920 1.549 6591
2.281 -0.924 1.546 8280
2.291 -0.928 1.543 10234
2.295 -0.930 1.536 12664
2.305 -0.934 1.533 15299
2.315 -0.938 1.530 14770
2.319 -0.939 1.523 15031
2.323 -0.941 1.516 14902
2.326 -0.942 1.509 10632
2.343 -0.949 1.509 6938
2.340 -0.948 1.498 6364
2.318 -0.939 1.476 6945
2.360 -0.956 1.491 10111
2.371 -0.960 1.488 12433
2.381 -0.964 1.484 11873
2.384 -0.966 1.477 12781
2.401 -0.973 1.477 16254
2.411 -0.977 1.473 19956
2.408 -0.976 1.462 19709
2.399 -0.972 1.447 16579
2.396 -0.971 1.436 13351
2.386 -0.967 1.422 13206
2.383 -0.965 1.411 13204
2.393 -0.969 1.407 12866
2.429 -0.984 1.417 14767
2.446 -0.991 1.417 19476
2.456 -0.995 1.413 19570
2.466 -0.999 1.408 13809
2.549 -1.032 1.442 12407
2.545 -1.031 1.431 13649
2.542 -1.030 1.420 13702
2.552 -1.034 1.415 13203
2.562 -1.038 1.411 10752
2.732 -1.107 1.486 8869
2.742 -1.111 1.481 8520
2.753 -1.115 1.476 7882
2.816 -1.141 1.497 7751
2.820 -1.143 1.488 9128
2.830 -1.147 1.483 10562
2.847 -1.154 1.480 10724
2.871 -1.163 1.481 11484
2.875 -1.165 1.472 11110
2.885 -1.169 1.467 9199
2.889 -1.170 1.458 7767
2.946 -1.194 1.474 6663
2.970 -1.203 1.474 7620
2.981 -1.208 1.468 8432
2.964 -1.201 1.449 8254
2.961 -1.199 1.437 7560
3.039 -1.231 1.461 6354
3.090 -1.252 1.472 5282
3.087 -1.251 1.460 7835
3.077 -1.246 1.444 9718
3.080 -1.248 1.435 9818
3.097 -1.255 1.431 7844
3.114 -1.262 1.427 4651
3.159 -1.280 1.435 4345
3.204 -1.298 1.442 5435
3.228 -1.308 1.440 6097
3.245 -1.315 1.436 9243
3.248 -1.316 1.426 10905
3.259 -1.320 1.418 8755
3.269 -1.324 1.411 5368
3.397 -1.376 1.450 5328
3.407 -1.380 1.442 6699
3.418 -1.385 1.434 6723
3.421 -1.386 1.423 5460
3.445 -1.396 1.420 6543
3.470 -1.406 1.417 7410
3.487 -1.413 1.412 6023
3.511 -1.422 1.409 6467
3.521 -1.427 1.400 6699
3.539 -1.434 1.394 4315
3.626 -1.469 1.413 4746
3.594 -1.456 1.390 6783
3.668 -1.486 1.403 8228
3.678 -1.490 1.394 6747
3.695 -1.497 1.387 4729
3.699 -1.498 1.376 4690
3.737 -1.514 1.376 5559
3.747 -1.518 1.367 4957
3.730 -1.511 1.348 4526
3.733 -1.512 1.336 4623
3.842 -1.556 1.359 5969
3.817 -1.546 1.338 5483
3.897 -1.579 1.350 5684
3.901 -1.580 1.338 7650
3.897 -1.579 1.324 7715
3.900 -1.580 1.312 6736
3.910 -1.584 1.302 6150
4.083 -1.654 1.340 4706
4.108 -1.664 1.334 5225
4.132 -1.674 1.327 5606
4.071 -1.649 1.296 5646
4.089 -1.656 1.287 5424
4.092 -1.658 1.275 9360
4.088 -1.656 1.260 11096
4.133 -1.675 1.259 7026
4.136 -1.676 1.246 7246
4.111 -1.665 1.225 6277
4.114 -1.667 1.213 8430
4.117 -1.668 1.200 9924
4.127 -1.672 1.189 5356
4.187 -1.696 1.191 3632
4.182 -1.694 1.176 2289
4.114 -1.667 1.145 2121
4.116 -1.668 1.132 3165
4.262 -1.727 1.154 3047
4.258 -1.725 1.139 2078
4.253 -1.723 1.124 1548
4.263 -1.727 1.112 2161
4.273 -1.731 1.101 2786
4.857 -1.968 1.218 3059
4.860 -1.969 1.203 6194
4.870 -1.973 1.189 5562
4.837 -1.960 1.166 3694
4.840 -1.961 1.151 3376
4.850 -1.965 1.138 2536
4.939 -2.001 1.140 3795
4.935 -1.999 1.123 3593
5.190 -2.103 1.158 2629
5.236 -2.121 1.150 2548
5.253 -2.128 1.137 4575
5.263 -2.132 1.122 6349
5.273 -2.136 1.107 6092
5.283 -2.140 1.092 4676
5.314 -2.153 1.080 4172
5.317 -2.154 1.064 3257
5.602 -2.269 1.096 3047
5.604 -2.270 1.078 4125
5.607 -2.271 1.061 3143
5.718 -2.317 1.061 2663
5.626 -2.279 1.028 2556
5.621 -2.277 1.009 2537
5.994 -2.428 1.048 2108
5.997 -2.429 1.030 2307
6.217 -2.519 1.043 3245
6.219 -2.520 1.024 3978
6.222 -2.521 1.004 4070
6.217 -2.519 0.984 4848
6.226 -2.523 0.965 4136
6.250 -2.532 0.949 3200
6.231 -2.524 0.926 2899
6.867 -2.782 0.986 2373
6.884 -2.789 0.966 2025
6.813 -2.760 0.936 2320
7.166 -2.903 0.954 1920
7.503 -3.040 0.969 2059
7.506 -3.041 0.946 1785
7.508 -3.042 0.922 1805
7.510 -3.043 0.899 2289
7.512 -3.043 0.875 2828
7.514 -3.044 0.852 2366
7.494 -3.036 0.826 1672
8.373 -3.392 0.881 2135
8.382 -3.396 0.856 2299
8.414 -3.409 0.832 2891
8.415 -3.409 0.805 3325
8.410 -3.407 0.778 3580
8.434 -3.417 0.754 3374
8.443 -3.420 0.728 3776
8.437 -3.418 0.701 2772
8.438 -3.419 0.675 1798
8.447 -3.422 0.649 1377
8.763 -3.550 0.640 1013
8.428 -3.414 0.594 1018
8.429 -3.415 0.568 764
8.430 -3.415 0.542 321
4.060 -1.645 -0.085 303
4.059 -1.644 -0.098 405
4.058 -1.644 -0.110 546
4.058 -1.644 -0.123 688
4.057 -1.644 -0.136 864
4.056 -1.643 -0.148 1036
4.063 -1.646 -0.162 1040
4.062 -1.646 -0.174 1279
4.061 -1.645 -0.187 1518
4.060 -1.645 -0.199 1740
4.059 -1.645 -0.212 1962
4.058 -1.644 -0.225 2233
4.057 -1.644 -0.237 2504
4.056 -1.643 -0.250 2530
4.055 -1.643 -0.263 2556
4.054 -1.642 -0.275 2556
4.053 -1.642 -0.288 2439
4.052 -1.641 -0.300 2323
4.051 -1.641 -0.313 2187
4.049 -1.640 -0.326 2051
4.048 -1.640 -0.338 2051
4.047 -1.639 -0.351 1025
1.919 -0.784 1.606 2885
1.923 -0.786 1.600 5770
1.927 -0.788 1.594 5788
1.954 -0.799 1.606 5349
1.976 -0.808 1.614 6394
1.980 -0.810 1.608 7011
1.984 -0.811 1.602 7628
1.988 -0.813 1.596 6703
1.992 -0.814 1.590 5778
1.996 -0.816 1.584 5778
1.994 -0.815 1.573 7830
1.998 -0.817 1.567 9920
2.008 -0.821 1.565 11891
2.018 -0.825 1.563 14357
2.021 -0.826 1.557 13821
2.025 -0.828 1.551 13285
2.023 -0.827 1.540 10449
2.021 -0.826 1.530 8371
2.030 -0.830 1.528 7408
2.040 -0.834 1.526 7174
2.056 -0.841 1.528 6313
2.091 -0.855 1.543 7705
2.095 -0.856 1.537 9681
2.111 -0.863 1.539 9666
2.121 -0.867 1.536 10350
2.131 -0.871 1.534 7327
2.178 -0.891 1.557 6832
2.195 -0.897 1.558 6100
2.205 -0.901 1.555 6247
2.190 -0.895 1.536 5214
2.181 -0.892 1.521 4345
2.254 -0.921 1.559 4743
2.264 -0.926 1.556 5909
2.268 -0.927 1.549 6903
2.278 -0.931 1.546 8910
2.282 -0.933 1.539 11021
2.292 -0.937 1.536 13170
2.302 -0.941 1.533 15585
2.312 -0.945 1.530 15602
2.316 -0.947 1.523 16436
2.320 -0.948 1.516 16710
2.330 -0.952 1.512 12619
2.340 -0.957 1.509 8840
2.350 -0.961 1.506 8259
2.379 -0.973 1.514 8412
2.357 -0.964 1.491 10716
2.367 -0.968 1.488 12022
2.378 -0.972 1.484 11444
2.381 -0.973 1.477 12258
2.398 -0.980 1.477 14963
2.408 -0.984 1.473 18170
2.405 -0.983 1.462 18308
2.382 -0.974 1.440 16338
2.379 -0.973 1.429 13289
2.370 -0.969 1.414 13580
2.380 -0.973 1.411 13881
2.390 -0.977 1.407 13996
2.433 -0.994 1.421 14620
2.443 -0.999 1.417 20075
2.453 -1.003 1.413 20295
2.463 -1.007 1.408 13805
2.545 -1.041 1.442 11072
2.542 -1.039 1.431 11719
2.546 -1.041 1.423 12102
2.549 -1.042 1.415 11754
2.559 -1.046 1.411 9496
2.729 -1.115 1.486 7979
2.739 -1.120 1.481 7623
2.749 -1.124 1.476 7301
2.813 -1.150 1.497 7673
2.817 -1.151 1.488 8775
2.827 -1.156 1.483 10221
2.851 -1.165 1.484 11507
2.861 -1.170 1.478 12341
2.864 -1.171 1.469 11148
2.875 -1.175 1.463 8658
2.885 -1.179 1.458 7375
2.943 -1.203 1.474 7286
2.946 -1.204 1.464 8316
2.956 -1.209 1.458 7859
2.960 -1.210 1.449 8525
2.957 -1.209 1.437 7826
3.035 -1.241 1.461 6829
3.086 -1.262 1.472 6061
3.090 -1.263 1.463 8028
3.079 -1.259 1.447 9745
3.076 -1.258 1.435 9796
3.093 -1.265 1.431 7826
3.110 -1.272 1.427 4691
3.223 -1.318 1.463 4561
3.213 -1.314 1.447 6307
3.224 -1.318 1.440 6800
3.234 -1.322 1.433 9230
3.244 -1.326 1.426 10776
3.248 -1.328 1.416 7837
3.265 -1.335 1.411 4428
3.385 -1.384 1.447 4723
3.410 -1.394 1.444 6347
3.420 -1.398 1.436 7145
3.424 -1.400 1.426 5413
3.455 -1.412 1.426 7067
3.472 -1.419 1.420 8546
3.489 -1.426 1.414 7004
3.514 -1.436 1.411 6432
3.524 -1.441 1.403 5910
3.611 -1.476 1.422 5008
3.621 -1.480 1.413 5168
3.590 -1.467 1.390 6980
3.670 -1.500 1.405 8892
3.673 -1.502 1.394 7643
3.691 -1.509 1.387 5270
3.687 -1.507 1.373 4736
3.732 -1.526 1.376 4789
3.750 -1.533 1.369 4183
3.725 -1.523 1.348 3968
3.735 -1.527 1.339 4352
3.837 -1.568 1.359 5472
3.819 -1.561 1.340 5523
3.892 -1.591 1.350 6757
3.896 -1.593 1.338 7940
3.899 -1.594 1.326 6681
3.895 -1.592 1.312 6406
3.912 -1.599 1.304 6553
3.915 -1.601 1.292 4530
4.116 -1.683 1.338 5288
4.127 -1.687 1.327 6139
4.073 -1.665 1.298 3992
4.091 -1.672 1.289 4776
4.087 -1.671 1.275 7609
4.090 -1.672 1.262 8203
4.142 -1.693 1.263 6182
4.131 -1.689 1.246 6443
4.106 -1.678 1.225 7351
4.109 -1.680 1.213 9665
4.119 -1.684 1.202 10762
4.121 -1.685 1.189 6713
4.124 -1.686 1.176 3276
4.120 -1.684 1.161 2331
4.108 -1.680 1.145 1942
4.111 -1.681 1.132 2962
4.257 -1.740 1.154 3723
4.260 -1.741 1.141 2471
4.262 -1.742 1.127 1802
4.272 -1.746 1.116 2467
4.275 -1.747 1.102 3291
4.858 -1.986 1.220 3043
4.861 -1.987 1.204 5811
4.871 -1.991 1.191 5488
4.903 -2.004 1.182 3458
4.841 -1.979 1.153 3063
5.045 -2.062 1.180 2689
5.055 -2.067 1.165 3002
5.173 -2.115 1.173 3267
5.176 -2.116 1.157 3215
5.229 -2.138 1.150 2639
5.246 -2.145 1.137 4826
5.256 -2.149 1.122 6656
5.266 -2.153 1.107 6115
5.276 -2.157 1.092 4719
5.307 -2.170 1.080 4128
5.454 -2.230 1.089 3175
5.595 -2.287 1.096 3023
5.597 -2.288 1.078 4006
5.600 -2.289 1.061 2974
5.711 -2.335 1.061 2661
5.749 -2.350 1.049 2556
5.621 -2.298 1.010 2316
5.994 -2.450 1.050 2240
5.989 -2.448 1.030 2301
6.209 -2.538 1.043 3055
6.212 -2.539 1.024 4038
6.214 -2.540 1.004 4153
6.209 -2.538 0.984 4724
6.211 -2.539 0.964 3828
6.694 -2.736 1.008 2719
6.223 -2.544 0.926 2458
6.858 -2.804 0.986 2504
6.875 -2.811 0.966 2018
6.797 -2.779 0.935 2037
7.156 -2.926 0.954 1859
7.494 -3.064 0.969 2033
7.496 -3.064 0.946 1746
7.498 -3.065 0.922 1769
7.500 -3.066 0.899 2178
7.502 -3.067 0.875 2687
7.504 -3.068 0.852 2294
7.484 -3.060 0.826 1633
8.362 -3.419 0.881 2128
8.379 -3.425 0.856 2419
8.403 -3.435 0.832 3405
8.405 -3.436 0.805 3913
8.399 -3.434 0.778 4101
8.415 -3.440 0.753 4056
8.424 -3.444 0.727 4478
8.426 -3.445 0.701 3422
8.420 -3.442 0.674 2326
8.422 -3.443 0.648 1856
8.423 -3.443 0.621 1323
8.417 -3.441 0.594 1303
8.418 -3.441 0.568 991
8.419 -3.442 0.542 416
8.757 -3.580 0.530 340
8.758 -3.580 0.503 259
4.054 -1.657 -0.098 299
4.053 -1.657 -0.110 425
4.053 -1.657 -0.123 551
4.052 -1.656 -0.136 707
4.051 -1.656 -0.148 856
4.058 -1.659 -0.162 864
4.057 -1.658 -0.174 1074
4.056 -1.658 -0.187 1283
4.055 -1.658 -0.199 1499
4.054 -1.657 -0.212 1716
4.053 -1.657 -0.225 1978
4.052 -1.656 -0.237 2241
4.051 -1.656 -0.250 2299
4.050 -1.656 -0.263 2357
4.049 -1.655 -0.275 2357
4.048 -1.655 -0.288 2276
4.047 -1.654 -0.300 2196
4.045 -1.654 -0.313 2108
4.044 -1.653 -0.326 2020
4.043 -1.653 -0.338 2020
4.042 -1.652 -0.351 1010
1.916 -0.790 1.606 3140
1.920 -0.791 1.600 6281
1.924 -0.793 1.594 6302
1.946 -0.802 1.602 5780
1.968 -0.811 1.610 6774
1.972 -0.813 1.604 7147
1.982 -0.817 1.602 7570
1.980 -0.816 1.591 6287
1.984 -0.818 1.585 5055
1.988 -0.819 1.579 5055
1.991 -0.821 1.573 7185
1.995 -0.822 1.567 9315
2.005 -0.826 1.565 11283
2.015 -0.831 1.563 13531
2.019 -0.832 1.557 13320
2.023 -0.834 1.551 13109
2.021 -0.833 1.540 10334
2.018 -0.832 1.530 8262
2.028 -0.836 1.528 7248
2.044 -0.842 1.530 7067
2.054 -0.847 1.528 6508
2.089 -0.861 1.543 8048
2.092 -0.862 1.537 10192
2.109 -0.869 1.539 10234
2.119 -0.873 1.536 11111
2.128 -0.877 1.534 7946
2.170 -0.894 1.552 6386
2.192 -0.903 1.558 5844
2.202 -0.908 1.555 6192
2.187 -0.901 1.536 5181
2.172 -0.895 1.517 4393
2.251 -0.928 1.559 4764
2.261 -0.932 1.556 5916
2.272 -0.936 1.553 7251
2.275 -0.938 1.546 9563
2.285 -0.942 1.543 11913
2.289 -0.944 1.536 13769
2.299 -0.948 1.533 15858
2.310 -0.952 1.530 16261
2.313 -0.953 1.523 17456
2.317 -0.955 1.516 18065
2.327 -0.959 1.512 14315
2.344 -0.966 1.513 10612
2.354 -0.970 1.509 10681
2.370 -0.977 1.510 11345
2.361 -0.973 1.495 12050
2.371 -0.977 1.491 11789
2.375 -0.979 1.484 10838
2.378 -0.980 1.477 11568
2.376 -0.979 1.466 14126
2.405 -0.991 1.473 16429
2.376 -0.979 1.447 18032
2.367 -0.975 1.433 17584
2.357 -0.971 1.418 15270
2.361 -0.973 1.411 14783
2.371 -0.977 1.407 14266
2.380 -0.981 1.403 14489
2.436 -1.004 1.424 14748
2.446 -1.008 1.420 20375
2.450 -1.010 1.413 20785
2.460 -1.014 1.408 14248
2.542 -1.048 1.442 9319
2.539 -1.047 1.431 9614
2.536 -1.045 1.420 10203
2.546 -1.049 1.415 10074
2.556 -1.054 1.411 8107
2.725 -1.123 1.486 6923
2.729 -1.125 1.478 6611
2.813 -1.159 1.509 6928
2.810 -1.158 1.497 7674
2.813 -1.159 1.488 8277
2.830 -1.166 1.486 9764
2.841 -1.171 1.480 11880
2.858 -1.178 1.478 12645
2.861 -1.179 1.469 10782
2.871 -1.183 1.463 7805
2.962 -1.221 1.495 6963
2.939 -1.211 1.474 7937
2.943 -1.213 1.464 9317
2.946 -1.214 1.455 8090
2.957 -1.219 1.449 8674
2.960 -1.220 1.440 7973
3.065 -1.263 1.476 7341
3.089 -1.273 1.475 7227
3.086 -1.272 1.463 8649
3.083 -1.271 1.450 9936
3.079 -1.269 1.438 9673
3.083 -1.271 1.428 7466
3.120 -1.286 1.433 4627
3.233 -1.333 1.469 5088
3.216 -1.326 1.450 7125
3.220 -1.327 1.440 7234
3.230 -1.331 1.433 8848
3.240 -1.336 1.426 10032
3.244 -1.337 1.416 6642
3.378 -1.392 1.457 3816
3.375 -1.391 1.444 4429
3.406 -1.404 1.444 5734
3.416 -1.408 1.436 7246
3.447 -1.421 1.436 5786
3.458 -1.425 1.428 7810
3.468 -1.429 1.420 9452
3.485 -1.436 1.414 7882
3.516 -1.449 1.414 6427
3.589 -1.479 1.428 5083
3.606 -1.486 1.422 5769
3.617 -1.491 1.413 5552
3.669 -1.512 1.419 7076
3.665 -1.511 1.405 9210
3.669 -1.512 1.394 8045
3.679 -1.516 1.385 5452
3.676 -1.515 1.371 4553
3.728 -1.536 1.376 4281
3.745 -1.544 1.369 3914
3.727 -1.536 1.350 3956
3.738 -1.540 1.341 4796
3.825 -1.577 1.356 5015
3.821 -1.575 1.342 5630
3.888 -1.602 1.350 7526
3.898 -1.607 1.340 8011
3.901 -1.608 1.328 6066
3.905 -1.609 1.316 6119
3.908 -1.611 1.304 6800
3.911 -1.612 1.292 4458
4.105 -1.692 1.336 4694
4.122 -1.699 1.327 6349
4.132 -1.703 1.316 4111
4.100 -1.690 1.293 4440
4.096 -1.688 1.279 5648
4.106 -1.692 1.268 5525
4.138 -1.705 1.263 5670
4.126 -1.701 1.246 5492
4.101 -1.690 1.225 8210
4.104 -1.691 1.213 10795
4.114 -1.695 1.202 12036
4.117 -1.697 1.189 8524
4.112 -1.695 1.174 5079
4.115 -1.696 1.161 3053
4.104 -1.691 1.145 1735
4.256 -1.754 1.169 3097
4.259 -1.755 1.156 4184
4.255 -1.753 1.141 2918
4.272 -1.760 1.131 2524
4.274 -1.762 1.117 3213
4.277 -1.763 1.104 3854
4.860 -2.003 1.221 3188
4.863 -2.004 1.206 5290
4.880 -2.011 1.194 5468
4.897 -2.018 1.182 4012
4.835 -1.993 1.153 2834
5.039 -2.077 1.180 2901
5.042 -2.078 1.164 3526
5.167 -2.130 1.173 3704
5.170 -2.131 1.157 3637
5.223 -2.153 1.150 2739
5.240 -2.160 1.137 4923
5.243 -2.161 1.120 6710
5.253 -2.165 1.105 6032
5.277 -2.175 1.093 4698
5.301 -2.185 1.080 3950
5.441 -2.242 1.088 3119
5.508 -2.270 1.082 3536
5.591 -2.304 1.078 3766
5.593 -2.305 1.061 2726
5.697 -2.348 1.060 2576
5.743 -2.367 1.049 3140
5.745 -2.368 1.031 2911
5.994 -2.470 1.051 2342
5.982 -2.465 1.030 2225
6.195 -2.553 1.042 2886
6.204 -2.557 1.024 4059
6.207 -2.558 1.004 4188
6.202 -2.556 0.984 4446
6.204 -2.557 0.964 3449
6.686 -2.755 1.008 2451
6.841 -2.819 1.006 2593
6.850 -2.823 0.986 2536
7.165 -2.953 1.002 2000
7.153 -2.948 0.978 1804
7.148 -2.946 0.954 1738
7.485 -3.085 0.969 1942
7.487 -3.086 0.946 1727
7.489 -3.087 0.922 1810
7.484 -3.085 0.898 2097
7.493 -3.088 0.875 2459
7.488 -3.086 0.851 2115
8.052 -3.318 0.880 1580
8.360 -3.446 0.882 2102
8.376 -3.452 0.857 2644
8.400 -3.462 0.832 4123
8.395 -3.460 0.805 4663
8.397 -3.461 0.779 4831
8.406 -3.464 0.753 4891
8.414 -3.468 0.727 5199
8.409 -3.466 0.700 4070
8.403 -3.463 0.674 2922
8.412 -3.467 0.648 2389
8.406 -3.464 0.621 1686
8.407 -3.465 0.594 1545
8.408 -3.465 0.568 1186
8.409 -3.466 0.542 529
8.747 -3.605 0.530 432
8.748 -3.605 0.503 333
4.048 -1.669 -0.110 291
4.048 -1.668 -0.123 398
4.047 -1.668 -0.136 543
4.046 -1.668 -0.148 682
4.053 -1.670 -0.162 688
4.052 -1.670 -0.174 877
4.051 -1.670 -0.187 1066
4.050 -1.669 -0.199 1271
4.049 -1.669 -0.212 1475
4.048 -1.668 -0.225 1723
4.047 -1.668 -0.237 1972
4.046 -1.668 -0.250 2040
4.045 -1.667 -0.263 2108
4.044 -1.667 -0.275 2108
4.043 -1.666 -0.288 2056
4.042 -1.666 -0.300 2003
4.041 -1.665 -0.313 1971
4.039 -1.665 -0.326 1940
4.038 -1.664 -0.338 1940
4.037 -1.664 -0.351 970
1.915 -0.793 1.606 3264
1.919 -0.794 1.600 6528
1.923 -0.796 1.594 6554
1.939 -0.803 1.597 6018
1.967 -0.814 1.610 6994
1.971 -0.816 1.604 7340
1.975 -0.817 1.597 7686
1.979 -0.819 1.591 6128
1.982 -0.821 1.585 4570
1.986 -0.822 1.579 4570
1.990 -0.824 1.573 6519
2.000 -0.828 1.571 8472
2.004 -0.830 1.565 10358
2.014 -0.834 1.563 12345
2.018 -0.835 1.557 12524
2.022 -0.837 1.551 12704
2.019 -0.836 1.540 9967
2.017 -0.835 1.530 7825
2.033 -0.841 1.532 6955
2.043 -0.846 1.530 6857
2.053 -0.850 1.528 6474
2.087 -0.864 1.543 8090
2.091 -0.866 1.537 10342
2.107 -0.872 1.539 10625
2.117 -0.876 1.536 11748
2.127 -0.880 1.534 8575
2.162 -0.895 1.548 6141
2.191 -0.907 1.558 5556
2.207 -0.914 1.560 6062
2.186 -0.905 1.536 5148
2.177 -0.901 1.521 4605
2.244 -0.929 1.555 4756
2.254 -0.933 1.552 5859
2.270 -0.940 1.553 7603
2.274 -0.941 1.546 10130
2.284 -0.945 1.543 12839
2.288 -0.947 1.536 14336
2.298 -0.951 1.533 16054
2.302 -0.953 1.526 16733
2.305 -0.954 1.519 17825
2.316 -0.958 1.516 18670
2.326 -0.963 1.512 15458
2.342 -0.969 1.513 12112
2.359 -0.976 1.513 12827
2.362 -0.978 1.506 13971
2.366 -0.979 1.499 13850
2.370 -0.981 1.491 12144
2.373 -0.982 1.484 10560
2.364 -0.979 1.469 10922
2.368 -0.980 1.462 13858
2.365 -0.979 1.451 16323
2.362 -0.978 1.440 19508
2.359 -0.976 1.429 19602
2.356 -0.975 1.418 17308
2.359 -0.977 1.411 15857
2.369 -0.981 1.407 14253
2.372 -0.982 1.400 14157
2.441 -1.011 1.428 15018
2.445 -1.012 1.420 20695
2.455 -1.016 1.416 21304
2.458 -1.018 1.408 14982
2.541 -1.052 1.442 7767
2.531 -1.048 1.427 7869
2.534 -1.049 1.420 8381
2.769 -1.146 1.530 9235
2.786 -1.153 1.528 8104
2.638 -1.092 1.443 6659
2.807 -1.162 1.518 6979
2.811 -1.163 1.509 8051
2.821 -1.168 1.504 7921
2.811 -1.164 1.488 7767
2.828 -1.171 1.486 9433
2.839 -1.175 1.480 11919
2.856 -1.182 1.478 12381
2.859 -1.184 1.469 9931
2.870 -1.188 1.463 6881
2.960 -1.225 1.495 7098
2.937 -1.216 1.474 8408
2.934 -1.215 1.461 9819
2.944 -1.219 1.455 8256
2.955 -1.223 1.449 8848
2.965 -1.227 1.443 8105
3.063 -1.268 1.476 8277
3.087 -1.278 1.475 8599
3.091 -1.279 1.466 9704
3.087 -1.278 1.453 10480
3.077 -1.274 1.438 9346
3.081 -1.275 1.428 6922
3.125 -1.294 1.436 4522
3.231 -1.337 1.469 5174
3.214 -1.330 1.450 7113
3.218 -1.332 1.440 7125
3.228 -1.336 1.433 8201
3.238 -1.340 1.426 8924
3.242 -1.342 1.416 5362
3.369 -1.395 1.455 3709
3.345 -1.385 1.433 4738
3.397 -1.406 1.442 5091
3.414 -1.413 1.436 6890
3.459 -1.432 1.442 6144
3.462 -1.433 1.431 8403
3.473 -1.437 1.423 10004
3.483 -1.442 1.414 8386
3.521 -1.457 1.416 6472
3.587 -1.485 1.428 5614
3.604 -1.492 1.422 6369
3.622 -1.499 1.416 5903
3.674 -1.521 1.422 7591
3.670 -1.519 1.408 9434
3.667 -1.518 1.394 7987
3.677 -1.522 1.385 5279
3.666 -1.518 1.369 4248
3.739 -1.548 1.381 4336
3.736 -1.546 1.367 4088
3.732 -1.545 1.353 4465
3.742 -1.549 1.343 5513
3.809 -1.577 1.352 5634
3.819 -1.581 1.342 5642
3.892 -1.611 1.353 7830
3.896 -1.613 1.340 8065
3.899 -1.614 1.328 6012
3.916 -1.621 1.320 6298
3.912 -1.619 1.306 6705
3.908 -1.618 1.292 4031
3.996 -1.654 1.305 4617
4.112 -1.702 1.325 6382
4.130 -1.709 1.316 4888
4.104 -1.699 1.295 4595
4.122 -1.706 1.287 5965
4.132 -1.710 1.276 7231
4.128 -1.709 1.261 6338
4.124 -1.707 1.246 6090
4.105 -1.699 1.227 8765
4.101 -1.698 1.213 11363
4.111 -1.702 1.202 12992
4.114 -1.703 1.189 10017
4.110 -1.701 1.174 6689
4.113 -1.702 1.161 3909
4.108 -1.700 1.147 1650
4.261 -1.764 1.171 3190
4.256 -1.762 1.156 4150
4.252 -1.760 1.141 3070
4.269 -1.767 1.131 3144
4.271 -1.768 1.117 3987
4.274 -1.769 1.104 4398
4.277 -1.770 1.091 3513
4.860 -2.012 1.206 4753
4.877 -2.019 1.194 5363
4.894 -2.026 1.182 4274
4.832 -2.000 1.153 2678
5.043 -2.088 1.181 2966
5.039 -2.086 1.164 3958
5.034 -2.084 1.147 4033
5.167 -2.139 1.157 3906
5.212 -2.158 1.149 2730
5.237 -2.168 1.137 4776
5.239 -2.169 1.120 6560
5.249 -2.173 1.105 5820
5.274 -2.183 1.093 4644
5.298 -2.193 1.080 3691
5.416 -2.242 1.084 3195
5.512 -2.282 1.083 3927
5.587 -2.313 1.078 3507
5.589 -2.314 1.061 2505
5.722 -2.369 1.065 2388
5.739 -2.376 1.049 3639
5.742 -2.377 1.031 3641
5.729 -2.372 1.011 2536
6.058 -2.508 1.042 2125
6.191 -2.563 1.042 2830
6.193 -2.564 1.022 3986
6.203 -2.567 1.004 4135
6.198 -2.565 0.984 4082
6.193 -2.563 0.963 3099
6.413 -2.654 0.972 2776
6.836 -2.830 1.006 2632
6.846 -2.834 0.986 2470
7.161 -2.964 1.002 2043
7.156 -2.962 0.979 1671
7.143 -2.957 0.954 1510
7.480 -3.096 0.969 1807
7.483 -3.097 0.946 1714
7.485 -3.098 0.922 1865
7.479 -3.096 0.898 1993
7.481 -3.097 0.875 2200
7.483 -3.098 0.851 1876
8.047 -3.331 0.880 1891
8.355 -3.458 0.882 2120
8.386 -3.471 0.858 3012
8.395 -3.475 0.832 4885
8.397 -3.476 0.806 5509
8.391 -3.473 0.779 5651
8.400 -3.477 0.753 5726
8.402 -3.478 0.727 5810
8.403 -3.478 0.700 4528
8.398 -3.476 0.674 3341
8.399 -3.477 0.647 2765
8.400 -3.477 0.621 1939
8.402 -3.478 0.594 1689
8.403 -3.478 0.568 1307
8.404 -3.479 0.542 623
8.741 -3.618 0.530 518
8.742 -3.619 0.503 401
4.045 -1.674 -0.123 267
4.044 -1.674 -0.136 383
4.044 -1.674 -0.148 493
4.050 -1.677 -0.162 499
4.049 -1.676 -0.174 657
4.049 -1.676 -0.187 816
4.048 -1.675 -0.199 1002
4.047 -1.675 -0.212 1188
4.046 -1.675 -0.225 1411
4.045 -1.674 -0.237 1633
4.044 -1.674 -0.250 1714
4.043 -1.673 -0.263 1795
4.042 -1.673 -0.275 1795
4.040 -1.672 -0.288 1796
4.039 -1.672 -0.300 1797
4.038 -1.671 -0.313 1749
4.037 -1.671 -0.326 1701
4.036 -1.670 -0.338 1701
4.034 -1.670 -0.351 850
1.907 -0.796 1.601 3331
1.911 -0.798 1.595 6663
1.921 -0.802 1.594 6659
1.931 -0.806 1.593 6187
1.964 -0.820 1.610 7166
1.968 -0.822 1.604 7585
1.966 -0.821 1.593 8135
1.970 -0.823 1.587 6366
1.974 -0.824 1.581 4597
1.978 -0.826 1.575 4597
1.988 -0.830 1.573 6020
1.998 -0.834 1.571 7464
2.001 -0.836 1.565 9220
2.011 -0.840 1.563 10978
2.015 -0.841 1.557 11590
2.019 -0.843 1.551 12202
2.023 -0.845 1.545 9593
2.014 -0.841 1.530 7299
2.030 -0.848 1.532 6627
2.046 -0.854 1.535 6584
2.056 -0.859 1.533 6454
2.078 -0.868 1.539 8230
2.088 -0.872 1.537 10538
2.105 -0.879 1.539 11015
2.114 -0.883 1.536 12419
2.124 -0.887 1.534 9273
2.147 -0.896 1.540 6504
2.188 -0.914 1.558 5281
2.204 -0.920 1.560 5905
2.189 -0.914 1.540 5144
2.181 -0.910 1.526 4778
2.241 -0.936 1.555 4738
2.251 -0.940 1.552 5781
2.267 -0.947 1.553 7877
2.277 -0.951 1.550 10741
2.281 -0.952 1.543 13677
2.285 -0.954 1.536 14849
2.295 -0.958 1.533 16265
2.299 -0.960 1.526 16953
2.302 -0.961 1.519 17888
2.313 -0.966 1.516 18690
2.323 -0.970 1.512 16101
2.339 -0.977 1.513 13233
2.356 -0.984 1.513 14454
2.359 -0.985 1.506 16016
2.363 -0.987 1.499 15409
2.367 -0.988 1.491 12558
2.351 -0.982 1.473 10773
2.355 -0.983 1.466 10415
2.345 -0.979 1.451 14052
2.349 -0.981 1.444 18025
2.352 -0.982 1.436 21419
2.349 -0.981 1.425 21888
2.353 -0.982 1.418 19609
2.356 -0.984 1.411 17065
2.366 -0.988 1.407 14204
2.369 -0.989 1.400 13768
2.445 -1.021 1.431 15166
2.448 -1.022 1.424 20602
2.452 -1.024 1.416 21419
2.455 -1.025 1.408 15415
2.465 -1.029 1.404 8160
2.521 -1.053 1.424 6534
2.755 -1.150 1.535 7542
2.766 -1.155 1.530 10252
2.783 -1.162 1.528 9048
2.634 -1.100 1.443 6749
2.797 -1.168 1.514 7918
2.807 -1.172 1.509 8971
2.824 -1.179 1.507 8171
2.828 -1.181 1.498 7237
2.831 -1.182 1.489 8941
2.835 -1.184 1.480 11556
2.852 -1.191 1.478 11876
2.856 -1.192 1.469 9040
2.859 -1.194 1.460 5971
2.950 -1.232 1.492 7186
2.934 -1.225 1.474 8663
2.930 -1.223 1.461 9988
2.941 -1.228 1.455 8191
2.951 -1.232 1.449 8732
2.961 -1.236 1.443 7968
3.059 -1.277 1.476 9171
3.090 -1.290 1.478 10083
