2.013 2.720 1.367 8709
2.015 2.723 1.357 9290
2.026 2.738 1.353 7536
2.037 2.753 1.349 6401
2.128 2.875 1.392 5711
2.134 2.884 1.384 6989
2.150 2.905 1.382 5111
2.161 2.920 1.377 6989
2.158 2.917 1.364 9874
2.165 2.926 1.356 8522
2.145 2.899 1.333 4609
2.174 2.938 1.337 5133
2.185 2.953 1.332 8960
2.191 2.961 1.324 6609
2.229 3.013 1.332 6339
2.231 3.015 1.322 6133
2.265 3.061 1.328 5321
2.298 3.106 1.333 6120
2.287 3.090 1.315 6553
2.289 3.093 1.304 5266
2.354 3.181 1.325 3551
2.369 3.202 1.321 4870
2.398 3.242 1.323 6651
2.405 3.250 1.313 5639
2.439 3.296 1.317 5921
2.445 3.305 1.308 5542
2.470 3.338 1.307 4804
2.508 3.390 1.312 4351
2.515 3.399 1.302 4894
2.517 3.401 1.290 7908
2.519 3.404 1.277 11016
2.525 3.413 1.267 10218
2.545 3.440 1.263 9182
2.593 3.504 1.271 7439
2.631 3.556 1.274 7497
2.633 3.559 1.262 7759
2.631 3.555 1.247 7969
2.610 3.527 1.224 7772
2.612 3.530 1.212 6496
2.664 3.600 1.220 6173
2.679 3.621 1.212 5931
2.736 3.698 1.221 4287
2.743 3.707 1.210 5231
2.745 3.709 1.197 4282
2.751 3.718 1.185 4914
2.826 3.820 1.200 3856
2.874 3.884 1.203 4676
2.880 3.893 1.191 4148
2.910 3.933 1.187 3189
2.935 3.966 1.181 3249
2.946 3.981 1.170 3510
2.947 3.984 1.156 2473
2.935 3.967 1.137 3019
2.951 3.988 1.127 4059
2.957 3.997 1.114 4464
2.964 4.005 1.102 3911
3.048 4.120 1.114 2769
3.133 4.235 1.126 2978
3.047 4.118 1.083 2558
3.067 4.146 1.074 2945
3.125 4.223 1.076 2252
2.959 3.999 1.011 1909
2.979 4.027 1.002 1958
3.004 4.060 0.994 2089
3.010 4.068 0.981 1455
3.379 4.566 1.068 1312
3.222 4.355 1.009 1413
3.419 4.621 1.045 2032
3.258 4.403 0.986 2292
3.469 4.688 1.024 2643
3.465 4.684 1.006 2766
3.555 4.805 1.011 2531
3.608 4.877 1.006 2610
3.610 4.879 0.989 2515
3.611 4.881 0.971 2622
3.608 4.876 0.953 2692
3.754 5.074 0.967 3180
3.755 5.076 0.949 3041
3.757 5.077 0.931 2793
3.856 5.212 0.933 3004
3.848 5.201 0.912 2331
4.009 5.418 0.925 2692
4.005 5.413 0.904 3458
4.002 5.409 0.884 2709
4.102 5.543 0.882 2504
4.103 5.545 0.862 2692
4.142 5.597 0.849 2678
4.143 5.599 0.829 1814
4.430 5.987 0.855 2405
4.450 6.014 0.837 3027
4.456 6.022 0.816 2890
4.462 6.030 0.795 2149
4.472 6.044 0.774 1932
4.464 6.033 0.751 2034
4.784 6.466 0.772 1845
4.996 6.753 0.776 2009
4.997 6.754 0.751 2085
4.778 6.457 0.701 2037
5.347 7.227 0.742 1853
5.297 7.158 0.710 2206
5.298 7.160 0.684 2267
5.392 7.288 0.668 2113
5.577 7.537 0.659 1786
5.573 7.532 0.631 1895
5.578 7.539 0.604 1539
5.584 7.547 0.577 1140
5.665 7.656 0.556 1205
5.665 7.657 0.528 950
5.577 7.537 0.495 568
5.502 7.436 0.463 450
5.691 7.691 0.447 336
5.668 7.660 0.418 280
1.250 1.682 1.602 5616
1.252 1.686 1.596 11232
1.255 1.689 1.590 11232
1.257 1.693 1.584 8029
1.260 1.696 1.578 4825
1.282 1.725 1.595 6378
1.277 1.718 1.579 8020
1.295 1.743 1.591 8583
1.301 1.751 1.590 9416
1.304 1.755 1.583 9416
1.310 1.763 1.582 8633
1.324 1.783 1.589 9184
1.323 1.781 1.578 9925
1.321 1.779 1.567 10818
1.324 1.782 1.561 9530
1.326 1.785 1.554 8242
1.341 1.805 1.561 7275
1.347 1.813 1.559 7342
1.350 1.817 1.553 6195
1.352 1.820 1.546 5048
1.354 1.823 1.540 5257
1.353 1.821 1.529 5517
1.355 1.824 1.522 5743
1.398 1.882 1.558 5586
1.404 1.890 1.555 6414
1.403 1.888 1.544 6546
1.393 1.875 1.525 6777
1.391 1.873 1.515 9229
1.394 1.876 1.508 11528
1.400 1.885 1.505 11808
1.407 1.894 1.503 10335
1.409 1.897 1.496 8374
1.416 1.905 1.493 6840
1.422 1.914 1.490 5426
1.477 1.989 1.535 5045
1.484 1.998 1.532 6979
1.486 2.001 1.525 8332
1.489 2.004 1.518 9686
1.491 2.007 1.510 8609
1.498 2.016 1.507 6160
1.541 2.075 1.538 5444
1.548 2.084 1.535 11692
1.550 2.087 1.527 15232
1.557 2.096 1.524 14109
1.559 2.099 1.516 13084
1.566 2.108 1.512 10119
1.572 2.117 1.509 7681
1.575 2.120 1.501 7693
1.581 2.129 1.497 8583
1.601 2.154 1.504 14354
1.603 2.158 1.497 18556
1.609 2.166 1.492 16251
1.620 2.181 1.492 13931
1.631 2.195 1.491 10258
1.646 2.216 1.494 9397
1.653 2.225 1.490 11444
1.659 2.233 1.485 10634
1.662 2.237 1.477 12561
1.668 2.245 1.473 12973
1.679 2.260 1.472 11854
1.681 2.263 1.464 9245
1.688 2.272 1.459 6956
1.694 2.281 1.454 7744
1.701 2.290 1.449 7852
1.707 2.298 1.445 6715
1.710 2.301 1.436 6723
1.716 2.310 1.431 8128
1.723 2.319 1.426 7018
1.772 2.386 1.454 9636
1.770 2.383 1.442 10105
1.773 2.386 1.434 8365
1.775 2.389 1.425 8457
1.777 2.392 1.417 9170
1.792 2.413 1.418 8619
1.816 2.445 1.425 10124
1.805 2.430 1.407 9221
1.808 2.433 1.398 5947
1.814 2.442 1.392 3929
1.864 2.509 1.417 5543
1.871 2.518 1.411 12649
1.877 2.527 1.405 16868
1.884 2.536 1.399 12148
1.908 2.568 1.405 9532
1.910 2.571 1.396 11019
1.912 2.574 1.386 9058
1.937 2.607 1.392 9055
1.926 2.592 1.374 8465
1.972 2.654 1.393 7037
1.978 2.663 1.386 7277
1.994 2.684 1.385 10886
2.005 2.699 1.381 12801
2.007 2.701 1.371 10411
2.013 2.710 1.364 10036
2.020 2.719 1.357 11350
2.031 2.734 1.353 9074
2.038 2.743 1.346 7230
2.049 2.758 1.342 6194
2.140 2.880 1.384 6753
2.164 2.913 1.387 4944
2.166 2.916 1.377 7285
2.164 2.913 1.364 9913
2.166 2.916 1.353 7843
2.146 2.888 1.330 5137
2.184 2.940 1.340 5439
2.190 2.948 1.332 9056
2.197 2.957 1.324 6479
2.230 3.002 1.330 5656
2.228 2.999 1.317 5688
2.275 3.062 1.330 4902
2.304 3.101 1.333 5502
2.293 3.086 1.315 6167
2.295 3.089 1.304 4923
2.373 3.195 1.332 3825
2.380 3.204 1.323 5285
2.405 3.237 1.323 6579
2.416 3.252 1.316 5773
2.445 3.291 1.317 6322
2.452 3.300 1.308 6504
2.476 3.333 1.307 5437
2.478 3.336 1.295 4925
2.471 3.327 1.278 4072
2.528 3.403 1.292 8037
2.525 3.399 1.277 11149
2.532 3.408 1.267 10046
2.552 3.435 1.263 9449
2.591 3.487 1.267 7367
2.597 3.496 1.256 7107
2.645 3.560 1.263 7426
2.647 3.563 1.251 7489
2.612 3.516 1.222 6834
2.614 3.518 1.210 6091
2.703 3.638 1.233 6038
2.691 3.622 1.214 6424
2.743 3.693 1.221 4848
2.750 3.701 1.210 6177
2.756 3.710 1.198 4915
2.767 3.725 1.189 5207
2.760 3.715 1.172 3687
2.877 3.873 1.201 4127
2.897 3.900 1.194 4152
2.917 3.927 1.187 4135
2.942 3.961 1.181 3723
2.953 3.976 1.170 4347
2.955 3.978 1.156 3200
2.948 3.968 1.138 3508
2.959 3.983 1.127 4341
2.965 3.991 1.114 4366
3.059 4.118 1.130 3939
3.061 4.120 1.116 3737
3.063 4.123 1.101 2683
3.064 4.125 1.086 3247
3.071 4.133 1.073 3467
3.077 4.142 1.059 2046
2.967 3.994 1.011 2184
2.978 4.008 0.999 1887
3.012 4.054 0.994 1674
3.018 4.062 0.981 1162
3.220 4.334 1.022 1389
3.231 4.349 1.009 1773
3.241 4.363 0.996 1841
3.271 4.403 0.987 2601
3.263 4.392 0.969 2932
3.474 4.677 1.006 2747
3.611 4.861 1.023 2152
3.613 4.863 1.005 2219
3.287 4.425 0.910 2289
3.279 4.414 0.892 2311
3.762 5.065 0.985 2608
3.768 5.073 0.968 3575
3.770 5.075 0.950 3190
3.785 5.095 0.935 2552
3.791 5.104 0.917 2466
4.060 5.465 0.953 2090
4.019 5.410 0.925 2902
4.016 5.406 0.904 3595
4.012 5.401 0.884 2783
4.112 5.536 0.882 2067
4.146 5.581 0.868 2615
4.148 5.583 0.848 2870
4.154 5.591 0.829 2041
4.437 5.972 0.854 2274
4.461 6.006 0.837 2670
4.467 6.013 0.816 2587
4.473 6.021 0.795 2056
4.474 6.023 0.773 1997
4.475 6.024 0.751 2119
4.796 6.457 0.772 2079
5.009 6.743 0.776 1956
5.010 6.745 0.751 2040
4.790 6.448 0.701 1815
5.361 7.217 0.742 1641
5.310 7.148 0.710 1797
5.316 7.156 0.685 1918
5.406 7.278 0.668 1884
5.591 7.526 0.659 1944
5.587 7.521 0.631 1993
5.593 7.529 0.604 1624
5.603 7.542 0.578 1218
5.675 7.639 0.556 1405
5.675 7.640 0.528 1126
5.591 7.526 0.495 655
5.516 7.425 0.463 473
5.687 7.655 0.446 339
5.673 7.636 0.417 263
1.254 1.679 1.602 5728
1.256 1.683 1.596 11457
1.259 1.686 1.590 11457
1.261 1.690 1.584 8115
1.260 1.688 1.573 4861
1.266 1.696 1.572 6357
1.277 1.710 1.575 8107
1.299 1.740 1.591 8105
1.305 1.748 1.590 8589
1.307 1.752 1.583 8589
1.314 1.760 1.582 8355
1.324 1.774 1.584 9007
1.327 1.778 1.578 10179
1.325 1.776 1.567 11410
1.328 1.779 1.561 9615
1.330 1.782 1.554 7819
1.333 1.786 1.548 6661
1.351 1.810 1.559 6241
1.354 1.814 1.553 5343
1.356 1.817 1.546 4446
1.359 1.820 1.540 4750
1.357 1.818 1.529 5083
1.355 1.816 1.518 5304
1.402 1.878 1.558 5721
1.405 1.882 1.551 6623
1.407 1.885 1.544 6409
1.409 1.888 1.538 6196
1.396 1.870 1.515 8618
1.398 1.873 1.508 10958
1.405 1.882 1.505 11292
1.411 1.890 1.503 9795
1.417 1.899 1.500 8008
1.420 1.902 1.493 6555
1.426 1.911 1.490 5210
1.486 1.991 1.539 5081
1.489 1.994 1.532 7124
1.491 1.998 1.525 8752
1.493 2.001 1.518 10379
1.496 2.004 1.510 9434
1.498 2.007 1.503 6905
1.546 2.071 1.538 5823
1.553 2.080 1.535 11011
1.559 2.089 1.531 13900
1.562 2.092 1.524 12363
1.564 2.096 1.516 10826
1.571 2.104 1.512 9404
1.577 2.113 1.509 8065
1.580 2.116 1.501 7981
1.586 2.125 1.497 9061
1.601 2.145 1.501 14846
1.604 2.148 1.493 19458
1.610 2.157 1.489 16684
1.625 2.177 1.492 13400
1.636 2.192 1.491 9745
1.651 2.212 1.494 9077
1.658 2.221 1.490 10825
1.664 2.230 1.485 10097
1.667 2.233 1.477 12500
1.673 2.242 1.473 13441
1.680 2.250 1.468 12536
1.682 2.254 1.460 10139
1.689 2.262 1.456 7743
1.695 2.271 1.451 8162
1.702 2.280 1.446 7367
1.708 2.289 1.441 6158
1.711 2.292 1.433 6856
1.717 2.301 1.428 8267
1.724 2.309 1.423 6994
1.778 2.382 1.454 9550
1.776 2.379 1.442 9533
1.778 2.382 1.434 8148
1.780 2.385 1.425 8555
1.783 2.388 1.417 9243
1.798 2.409 1.418 8268
1.826 2.446 1.428 9474
1.811 2.426 1.407 8886
1.813 2.429 1.398 6309
1.820 2.438 1.392 4575
1.857 2.488 1.408 5453
1.877 2.514 1.411 11283
1.888 2.529 1.408 15230
1.890 2.532 1.399 11217
1.914 2.564 1.405 10300
1.912 2.561 1.393 12559
1.918 2.570 1.386 10033
1.942 2.602 1.392 9242
1.976 2.647 1.402 9058
1.982 2.656 1.396 7999
1.989 2.664 1.389 7780
2.000 2.679 1.385 10978
2.011 2.694 1.381 11867
2.013 2.697 1.371 10343
2.020 2.706 1.364 10971
2.026 2.715 1.357 12758
2.037 2.729 1.353 10184
2.044 2.738 1.346 8072
2.055 2.753 1.342 7065
2.146 2.875 1.384 6304
2.175 2.914 1.390 4662
2.173 2.911 1.377 7581
2.171 2.908 1.364 9691
2.164 2.899 1.348 7471
2.152 2.884 1.330 5741
2.199 2.947 1.345 6172
2.201 2.949 1.334 9115
2.208 2.958 1.326 6558
2.237 2.997 1.330 5213
2.280 3.054 1.341 5563
2.304 3.087 1.342 4327
2.311 3.096 1.333 4627
2.295 3.075 1.313 5369
2.297 3.078 1.302 4563
2.381 3.189 1.332 4165
2.396 3.211 1.327 5952
2.417 3.238 1.325 6542
2.423 3.246 1.316 5575
2.452 3.286 1.317 5958
2.459 3.295 1.308 6657
2.475 3.316 1.302 5600
2.486 3.331 1.295 5112
2.479 3.321 1.278 3851
2.536 3.397 1.292 7770
2.533 3.394 1.277 10419
2.540 3.402 1.267 9261
2.560 3.430 1.263 9439
2.598 3.481 1.267 6855
2.600 3.484 1.254 6890
2.653 3.554 1.263 6701
2.659 3.563 1.253 7279
2.661 3.565 1.240 6428
2.649 3.549 1.221 5215
2.706 3.626 1.231 6537
2.704 3.622 1.216 6808
2.765 3.705 1.227 5481
2.763 3.701 1.212 7010
2.769 3.710 1.200 5634
2.780 3.725 1.190 5513
2.773 3.715 1.174 3383
2.853 3.823 1.189 3555
2.911 3.899 1.196 4427
2.926 3.921 1.187 5169
2.951 3.954 1.181 3874
2.962 3.969 1.170 4781
2.969 3.977 1.157 3737
3.031 4.061 1.164 3915
3.028 4.057 1.148 5204
2.974 3.984 1.114 3931
3.073 4.117 1.132 4327
3.070 4.114 1.116 4742
3.072 4.116 1.101 3757
3.078 4.124 1.087 3987
3.080 4.126 1.073 3858
2.970 3.979 1.024 2106
2.971 3.981 1.010 2409
2.982 3.995 0.998 1707
2.993 4.010 0.986 1340
3.223 4.318 1.036 1067
3.229 4.327 1.022 1764
3.240 4.341 1.009 2058
3.251 4.356 0.996 1997
3.281 4.395 0.987 2856
3.278 4.391 0.970 3172
3.485 4.669 1.006 2909
3.482 4.665 0.988 1973
3.619 4.849 1.004 1843
3.297 4.417 0.910 2593
3.294 4.413 0.893 2600
3.779 5.062 0.987 2623
3.780 5.064 0.968 3719
3.786 5.072 0.951 3379
3.797 5.087 0.935 2680
3.808 5.101 0.918 2615
4.077 5.462 0.954 2205
4.031 5.401 0.925 2892
4.028 5.397 0.904 3456
4.020 5.386 0.883 2640
3.984 5.337 0.857 1990
4.159 5.572 0.868 2591
4.160 5.574 0.848 3001
4.166 5.582 0.829 2197
4.445 5.956 0.854 2250
4.470 5.989 0.836 2293
4.481 6.003 0.816 2198
4.614 6.182 0.813 2070
4.483 6.006 0.772 2009
4.805 6.438 0.794 2217
4.811 6.446 0.772 2182
5.114 6.852 0.787 2181
5.030 6.740 0.752 1887
5.041 6.754 0.729 1702
5.377 7.204 0.742 1410
5.378 7.206 0.716 1519
5.337 7.150 0.685 1620
5.612 7.519 0.686 1733
5.608 7.514 0.659 2095
5.604 7.508 0.631 2079
5.610 7.516 0.604 1708
5.630 7.542 0.578 1335
5.687 7.619 0.555 1595
5.688 7.620 0.528 1288
5.608 7.513 0.495 719
5.533 7.413 0.463 491
5.723 7.667 0.447 372
5.685 7.617 0.417 258
1.256 1.677 1.602 5671
1.259 1.681 1.596 11343
1.261 1.684 1.590 11343
1.260 1.682 1.579 8071
1.263 1.686 1.573 4903
1.265 1.689 1.567 6526
1.272 1.698 1.566 8314
1.278 1.706 1.564 7794
1.304 1.741 1.585 7790
1.306 1.744 1.579 7790
1.317 1.758 1.582 7895
1.327 1.772 1.584 8697
1.330 1.775 1.578 10146
1.328 1.774 1.567 11613
1.331 1.777 1.561 9484
1.329 1.775 1.550 7360
1.336 1.783 1.548 6323
1.346 1.797 1.550 5441
1.349 1.801 1.544 4779
1.355 1.809 1.542 4140
1.378 1.839 1.557 4452
1.360 1.816 1.529 4770
1.358 1.814 1.518 4953
1.401 1.871 1.554 5872
1.400 1.869 1.543 7078
1.402 1.872 1.536 6348
1.413 1.886 1.538 5777
1.399 1.868 1.515 7813
1.401 1.871 1.508 9931
1.408 1.879 1.505 10303
1.414 1.888 1.503 8912
1.421 1.897 1.500 7452
1.423 1.900 1.493 6192
1.429 1.909 1.490 5077
1.489 1.989 1.539 5233
1.492 1.992 1.532 7065
1.494 1.995 1.525 8909
1.497 1.998 1.518 10752
1.499 2.001 1.510 9877
1.501 2.005 1.503 7361
1.545 2.063 1.534 6535
1.556 2.078 1.535 10368
1.563 2.086 1.531 12545
1.565 2.090 1.524 10489
1.576 2.104 1.524 8671
1.578 2.107 1.516 8305
1.581 2.111 1.509 7780
1.583 2.114 1.501 7620
1.590 2.123 1.497 9125
1.605 2.143 1.501 15075
1.607 2.146 1.493 19841
1.614 2.155 1.489 16720
1.629 2.175 1.492 12376
1.644 2.195 1.495 9011
1.655 2.209 1.494 8492
1.657 2.212 1.486 10032
1.664 2.221 1.482 9589
1.670 2.230 1.477 12135
1.677 2.239 1.473 13691
1.683 2.248 1.468 13183
1.682 2.245 1.457 11256
1.688 2.254 1.452 9229
1.699 2.268 1.451 9497
1.701 2.271 1.443 7718
1.708 2.280 1.438 6043
1.714 2.289 1.433 6985
1.717 2.292 1.425 8081
1.723 2.301 1.420 6924
1.782 2.379 1.454 8949
1.780 2.376 1.442 8751
1.782 2.379 1.434 7943
1.784 2.382 1.425 8559
1.786 2.385 1.417 9308
1.797 2.400 1.414 8511
1.834 2.449 1.431 9419
1.811 2.417 1.403 8505
1.817 2.426 1.398 6480
1.832 2.447 1.398 5195
1.861 2.485 1.408 5738
1.881 2.511 1.411 9597
1.892 2.526 1.408 13221
1.898 2.534 1.402 10607
1.918 2.561 1.405 11805
1.916 2.558 1.393 13832
1.923 2.567 1.386 10686
1.938 2.587 1.386 9026
1.984 2.649 1.405 10212
1.987 2.652 1.396 8748
1.993 2.661 1.389 8133
2.000 2.670 1.382 10808
2.011 2.685 1.378 10771
2.017 2.694 1.371 10007
2.020 2.696 1.362 11295
2.031 2.711 1.357 13219
2.042 2.726 1.353 10519
2.048 2.735 1.346 8620
2.059 2.749 1.342 7816
2.146 2.866 1.382 6001
2.081 2.779 1.332 4935
2.178 2.908 1.377 7466
2.175 2.904 1.364 8993
2.137 2.853 1.330 7175
2.153 2.874 1.328 6002
2.209 2.949 1.347 6735
2.211 2.952 1.337 8853
2.217 2.961 1.328 6663
2.274 3.036 1.347 5549
2.285 3.051 1.341 5723
2.246 2.999 1.308 4050
2.316 3.092 1.333 3664
2.300 3.071 1.313 4310
2.302 3.074 1.302 4223
2.390 3.192 1.334 4361
2.406 3.213 1.330 6388
2.422 3.234 1.325 6266
2.429 3.242 1.316 4973
2.462 3.288 1.319 4750
2.465 3.290 1.308 5990
2.489 3.324 1.307 5312
2.491 3.326 1.295 4822
2.484 3.317 1.278 3575
2.546 3.399 1.294 7038
2.539 3.389 1.277 8868
2.545 3.398 1.267 8083
2.565 3.425 1.263 8939
2.600 3.471 1.265 5791
2.611 3.486 1.256 5893
2.645 3.531 1.258 6683
2.665 3.558 1.253 7052
2.672 3.567 1.242 6774
2.660 3.551 1.223 4597
2.708 3.615 1.229 7026
2.705 3.612 1.214 6888
2.776 3.707 1.229 6115
2.774 3.703 1.214 7514
2.785 3.718 1.204 6108
2.786 3.720 1.190 5473
2.784 3.717 1.175 2900
2.855 3.812 1.188 3571
2.917 3.895 1.196 4618
2.928 3.909 1.185 5818
2.962 3.955 1.183 3703
2.974 3.970 1.172 4817
2.975 3.972 1.157 3968
3.038 4.056 1.164 4567
3.035 4.052 1.148 6296
3.036 4.054 1.133 3366
3.080 4.112 1.132 4465
3.077 4.108 1.116 5451
3.079 4.111 1.101 4686
3.085 4.119 1.087 4610
3.087 4.121 1.073 4005
2.976 3.974 1.024 2228
2.973 3.970 1.008 2519
2.979 3.978 0.995 1602
2.990 3.992 0.984 1196
3.221 4.301 1.034 1299
3.237 4.321 1.022 1908
3.243 4.330 1.008 2126
3.258 4.350 0.996 1939
3.297 4.403 0.990 2929
3.290 4.392 0.971 3182
3.493 4.663 1.006 3255
3.490 4.659 0.988 2438
3.308 4.416 0.927 1943
3.309 4.418 0.911 2769
3.301 4.407 0.893 2726
3.787 5.056 0.987 2530
3.788 5.058 0.968 3738
3.799 5.072 0.952 3593
3.810 5.087 0.936 2768
3.821 5.101 0.919 2557
4.086 5.455 0.954 2224
4.036 5.388 0.924 2646
4.037 5.390 0.904 3052
4.024 5.373 0.882 2355
3.992 5.330 0.857 1870
4.286 5.723 0.889 2396
4.170 5.567 0.848 2898
4.175 5.575 0.829 2213
4.451 5.942 0.853 2237
4.301 5.742 0.808 2178
4.297 5.737 0.786 2145
4.624 6.174 0.813 2206
4.488 5.993 0.771 1989
4.816 6.430 0.794 2225
5.125 6.842 0.812 2210
5.126 6.843 0.787 2296
5.127 6.845 0.762 1830
5.057 6.752 0.729 1548
4.944 6.601 0.692 1338
5.381 7.184 0.715 1444
5.358 7.154 0.686 1524
5.620 7.503 0.686 1802
5.621 7.504 0.659 2104
5.617 7.499 0.631 2043
5.627 7.513 0.605 1684
5.647 7.539 0.579 1427
5.695 7.604 0.555 1753
5.700 7.611 0.528 1410
5.711 7.624 0.501 770
5.550 7.410 0.464 458
5.688 7.594 0.444 375
5.693 7.601 0.417 275
1.260 1.674 1.602 5466
1.263 1.678 1.596 10933
1.266 1.681 1.590 10933
1.264 1.679 1.579 7909
1.263 1.677 1.569 4939
1.269 1.686 1.567 6696
1.276 1.695 1.566 8549
1.278 1.698 1.560 8275
1.285 1.706 1.558 8088
1.287 1.710 1.552 8088
1.321 1.755 1.582 7349
1.328 1.764 1.580 8296
1.330 1.767 1.573 9903
1.337 1.776 1.572 11546
1.335 1.774 1.561 9210
1.338 1.777 1.554 6909
1.340 1.780 1.548 6095
1.343 1.783 1.542 5280
1.345 1.787 1.535 4650
1.343 1.785 1.525 4024
1.386 1.841 1.561 4360
1.360 1.807 1.525 4425
1.407 1.869 1.564 4891
1.398 1.857 1.545 6113
1.400 1.860 1.539 7741
1.403 1.863 1.532 6706
1.405 1.866 1.525 5671
1.403 1.864 1.515 7155
1.410 1.873 1.512 8704
1.412 1.876 1.505 9109
1.419 1.885 1.503 7910
1.425 1.893 1.500 6855
1.432 1.902 1.497 5963
1.516 2.014 1.570 5682
1.515 2.012 1.559 6102
1.501 1.994 1.536 6954
1.503 1.997 1.529 8871
1.502 1.995 1.518 10818
1.504 1.998 1.510 9996
1.506 2.001 1.503 7515
1.550 2.060 1.534 7601
1.561 2.074 1.535 10011
1.568 2.083 1.531 11477
1.570 2.086 1.524 8980
1.585 2.106 1.527 7023
1.588 2.109 1.520 7028
1.586 2.107 1.509 6865
1.588 2.110 1.501 6669
1.595 2.119 1.497 8898
1.606 2.133 1.497 15318
1.612 2.142 1.493 19846
1.615 2.145 1.485 16593
1.634 2.171 1.492 11052
1.649 2.191 1.495 8155
1.660 2.205 1.494 7729
1.662 2.208 1.486 9276
1.665 2.211 1.478 9244
1.671 2.220 1.474 11798
1.678 2.229 1.469 13679
1.685 2.238 1.465 13499
1.687 2.241 1.457 12795
1.689 2.244 1.449 11166
1.705 2.264 1.451 11426
1.707 2.267 1.443 8724
1.718 2.282 1.441 6331
1.720 2.285 1.433 7027
1.722 2.288 1.425 7680
1.729 2.297 1.420 6837
1.788 2.374 1.454 7818
1.785 2.372 1.442 7900
1.788 2.375 1.434 7891
1.790 2.378 1.425 8552
1.792 2.381 1.417 9486
1.803 2.395 1.414 9258
1.845 2.451 1.434 9966
1.816 2.413 1.403 8162
1.823 2.422 1.398 6492
1.869 2.483 1.420 5579
1.867 2.480 1.408 5871
1.891 2.512 1.414 7943
1.898 2.521 1.408 11012
1.909 2.536 1.405 10512
1.924 2.556 1.405 13323
1.922 2.553 1.393 14592
1.929 2.562 1.386 10952
1.989 2.642 1.415 9973
1.991 2.645 1.405 10938
1.993 2.647 1.396 9153
2.000 2.656 1.389 8355
2.002 2.659 1.379 10683
2.013 2.674 1.375 9840
2.020 2.683 1.369 9537
2.026 2.692 1.362 11113
2.037 2.706 1.357 12993
2.048 2.721 1.353 10267
2.059 2.736 1.349 8984
2.066 2.744 1.342 8360
2.082 2.765 1.340 6150
2.088 2.774 1.332 5504
2.185 2.902 1.377 6822
2.187 2.905 1.366 7902
2.144 2.848 1.330 7041
2.160 2.869 1.328 5966
2.216 2.944 1.347 6871
2.223 2.952 1.339 8604
2.234 2.967 1.333 7237
2.277 3.024 1.345 6293
2.283 3.033 1.336 6411
2.281 3.030 1.323 4336
2.278 3.026 1.310 3078
2.308 3.065 1.313 3244
2.305 3.062 1.299 3958
2.316 3.077 1.293 4634
2.414 3.207 1.330 6416
2.421 3.216 1.320 5763
2.423 3.218 1.309 4237
2.425 3.221 1.297 3269
2.468 3.278 1.305 4749
2.498 3.318 1.307 4700
2.500 3.320 1.295 4219
2.547 3.384 1.304 3656
2.554 3.393 1.294 5868
2.547 3.383 1.277 6725
2.558 3.398 1.269 6640
2.574 3.419 1.263 7953
2.599 3.452 1.261 4321
2.651 3.522 1.270 5950
2.649 3.519 1.256 7148
2.674 3.552 1.253 6322
2.680 3.561 1.242 6592
2.692 3.575 1.233 4443
2.712 3.603 1.227 6944
2.714 3.605 1.214 6672
2.790 3.706 1.231 6610
2.787 3.702 1.215 7927
2.798 3.717 1.206 6324
2.800 3.720 1.192 5205
2.900 3.852 1.215 2634
2.855 3.792 1.184 3304
2.927 3.887 1.196 4555
2.933 3.896 1.184 5893
2.977 3.954 1.184 3263
2.983 3.963 1.172 4295
2.985 3.965 1.157 3791
3.047 4.048 1.164 5092
3.045 4.044 1.148 6983
3.042 4.040 1.131 3476
3.090 4.105 1.132 4333
3.087 4.101 1.116 5830
3.089 4.103 1.101 5346
3.095 4.112 1.087 4935
3.097 4.114 1.073 3869
2.981 3.960 1.023 2174
2.983 3.962 1.008 2456
2.984 3.964 0.994 1444
2.995 3.979 0.982 1066
3.222 4.280 1.031 1506
3.243 4.307 1.021 1924
3.253 4.322 1.008 2046
3.264 4.336 0.994 1829
3.313 4.401 0.991 2853
3.300 4.384 0.971 2981
3.504 4.655 1.006 3723
3.501 4.651 0.988 3024
3.319 4.408 0.927 1959
3.320 4.410 0.911 2764
3.312 4.399 0.893 2680
3.799 5.047 0.987 2268
3.805 5.055 0.969 3435
3.812 5.063 0.952 3544
3.822 5.078 0.936 2832
3.847 5.111 0.922 2635
3.839 5.100 0.902 2169
4.191 5.567 0.952 2339
4.045 5.374 0.903 2473
4.033 5.357 0.881 2079
4.010 5.327 0.858 1739
4.305 5.718 0.890 2277
4.183 5.557 0.848 2636
4.189 5.565 0.829 2063
4.465 5.931 0.853 2255
4.315 5.731 0.808 2133
4.311 5.727 0.786 2158
4.639 6.163 0.813 2323
4.669 6.202 0.795 2040
4.832 6.418 0.794 2163
5.141 6.829 0.812 2222
5.142 6.831 0.787 2297
5.144 6.832 0.762 1789
5.126 6.809 0.735 1315
4.956 6.583 0.691 1427
5.384 7.152 0.713 1475
5.376 7.141 0.686 1559
5.638 7.489 0.686 1808
5.639 7.491 0.659 2057
5.635 7.485 0.631 1958
5.655 7.512 0.605 1694
5.699 7.570 0.581 1622
5.709 7.583 0.555 1981
5.714 7.591 0.527 1594
5.729 7.610 0.501 870
5.754 7.643 0.474 481
5.711 7.587 0.444 438
5.712 7.587 0.417 290
1.261 1.666 1.597 5107
1.264 1.669 1.591 10215
1.266 1.673 1.585 10234
1.269 1.676 1.579 7555
1.256 1.659 1.555 5047
1.274 1.683 1.567 6747
1.280 1.691 1.566 8659
1.283 1.694 1.560 8715
1.289 1.703 1.558 8893
1.292 1.706 1.552 8893
1.322 1.746 1.577 6853
1.328 1.755 1.575 7790
1.335 1.763 1.573 9419
1.341 1.772 1.572 11165
1.340 1.770 1.561 8755
1.342 1.773 1.554 6435
1.345 1.777 1.548 5922
1.343 1.775 1.538 5468
1.346 1.778 1.531 4912
1.348 1.781 1.525 4356
1.395 1.843 1.565 4149
1.398 1.846 1.558 4464
1.412 1.866 1.564 5138
1.403 1.853 1.545 6619
1.401 1.851 1.534 8513
1.404 1.854 1.528 7274
1.406 1.857 1.521 6035
1.408 1.860 1.515 6616
1.415 1.869 1.512 7362
1.417 1.872 1.505 7710
1.424 1.881 1.503 6812
1.434 1.895 1.504 6365
1.507 1.991 1.565 5975
1.518 2.005 1.566 6570
1.520 2.008 1.559 6882
1.523 2.011 1.551 7194
1.521 2.009 1.540 8791
1.515 2.002 1.525 10746
1.509 1.994 1.510 9739
1.537 2.030 1.526 7916
1.552 2.050 1.531 8643
1.567 2.070 1.535 9979
1.573 2.078 1.531 10844
1.576 2.082 1.524 8031
1.595 2.107 1.531 5675
1.577 2.082 1.505 5674
1.592 2.102 1.509 5545
1.619 2.139 1.523 5409
1.601 2.114 1.497 8456
1.612 2.129 1.497 15440
1.614 2.132 1.489 19727
1.616 2.135 1.482 16184
1.636 2.161 1.488 9724
1.655 2.186 1.495 7247
1.666 2.201 1.494 6938
1.664 2.198 1.483 8664
1.662 2.196 1.471 9805
1.673 2.210 1.470 11937
1.684 2.225 1.469 13723
1.691 2.233 1.465 13929
1.689 2.231 1.453 14306
1.695 2.239 1.449 13194
1.711 2.260 1.451 13376
1.717 2.268 1.446 9963
1.724 2.277 1.441 6752
1.726 2.280 1.433 6753
1.728 2.283 1.425 6971
1.739 2.298 1.423 6746
1.790 2.364 1.451 6341
1.792 2.367 1.442 6976
1.794 2.370 1.434 7946
1.801 2.379 1.428 8605
1.803 2.382 1.420 9798
1.814 2.396 1.418 10148
1.856 2.451 1.437 10675
1.871 2.472 1.438 7850
1.825 2.411 1.395 6286
1.880 2.484 1.423 6233
1.878 2.481 1.411 5910
1.898 2.507 1.414 6540
1.909 2.522 1.411 9002
1.920 2.536 1.408 10560
1.927 2.545 1.402 14689
1.929 2.548 1.393 15074
1.936 2.557 1.386 11013
1.996 2.636 1.415 10287
1.998 2.639 1.405 10602
2.005 2.648 1.399 8738
2.007 2.651 1.389 8014
2.009 2.654 1.379 10350
2.020 2.668 1.375 8998
2.031 2.683 1.371 8987
2.033 2.686 1.362 10324
2.045 2.701 1.357 12124
2.051 2.709 1.350 9489
2.067 2.730 1.349 8918
2.073 2.739 1.342 8533
2.089 2.760 1.340 6434
2.096 2.768 1.332 5990
2.193 2.896 1.377 5660
2.195 2.899 1.366 6412
2.152 2.842 1.330 6466
2.167 2.863 1.328 5586
2.228 2.944 1.350 6431
2.231 2.946 1.339 8148
2.242 2.961 1.333 7922
2.271 3.000 1.337 7273
2.287 3.021 1.334 7060
2.284 3.017 1.320 5138
2.286 3.020 1.310 3527
2.298 3.035 1.303 2851
2.313 3.056 1.299 3892
2.325 3.071 1.293 5148
2.418 3.194 1.327 6061
2.429 3.209 1.320 5290
2.427 3.206 1.307 3682
2.424 3.202 1.293 2840
2.472 3.266 1.303 3624
2.479 3.274 1.294 4079
2.541 3.356 1.310 3699
2.557 3.377 1.304 3556
2.563 3.386 1.294 4392
2.556 3.376 1.277 4732
2.572 3.397 1.271 5574
2.578 3.406 1.261 6685
2.659 3.512 1.283 4729
2.661 3.515 1.270 7785
2.658 3.511 1.256 7084
2.660 3.514 1.243 5311
2.695 3.559 1.244 6024
2.706 3.574 1.235 4058
2.722 3.595 1.227 6473
2.719 3.592 1.212 6449
2.800 3.698 1.231 6777
2.802 3.701 1.217 8075
2.808 3.710 1.206 6177
2.815 3.718 1.194 4903
2.905 3.838 1.214 2874
2.861 3.779 1.183 3214
2.937 3.880 1.196 4248
2.939 3.882 1.182 5421
2.997 3.958 1.188 2833
2.994 3.955 1.172 3385
2.991 3.951 1.156 3379
3.054 4.034 1.162 5312
3.056 4.036 1.148 6925
3.048 4.026 1.130 4128
3.106 4.103 1.133 4059
3.094 4.086 1.114 5816
3.100 4.095 1.101 5463
3.106 4.103 1.087 4898
3.108 4.105 1.073 3536
2.973 3.927 1.017 2130
2.989 3.948 1.007 2316
2.990 3.950 0.993 1286
3.232 4.269 1.046 944
3.234 4.271 1.031 1657
3.400 4.491 1.061 2090
3.407 4.500 1.046 2504
3.342 4.415 1.012 1721
3.334 4.404 0.993 2649
3.515 4.643 1.023 3100
3.517 4.645 1.006 4267
3.514 4.641 0.988 3658
3.576 4.724 0.986 2223
3.706 4.895 0.999 3134
3.702 4.891 0.980 3429
3.704 4.893 0.962 2592
3.819 5.045 0.969 3068
3.830 5.059 0.953 3438
3.779 4.992 0.924 3241
3.866 5.107 0.923 2878
3.858 5.096 0.903 2179
4.201 5.549 0.951 2220
4.055 5.356 0.903 2046
4.052 5.352 0.882 1911
4.025 5.316 0.858 1552
4.330 5.719 0.892 2212
4.198 5.545 0.848 2319
4.337 5.729 0.851 2087
4.476 5.913 0.852 2262
4.335 5.726 0.808 2040
4.365 5.765 0.792 2125
4.656 6.150 0.813 2262
4.686 6.190 0.795 2055
4.849 6.405 0.794 1934
5.160 6.815 0.812 2118
5.161 6.817 0.787 2169
5.162 6.818 0.762 1676
5.201 6.870 0.742 1298
4.973 6.569 0.691 1449
5.403 7.138 0.713 1668
5.400 7.133 0.687 1689
5.658 7.474 0.686 1741
5.659 7.475 0.659 1960
5.655 7.470 0.631 1850
5.680 7.503 0.606 1681
5.714 7.548 0.581 1799
5.725 7.562 0.554 2120
5.730 7.569 0.527 1707
5.745 7.589 0.500 955
5.731 7.570 0.472 571
5.732 7.571 0.444 521
5.732 7.572 0.417 315
1.264 1.663 1.597 4647
1.267 1.667 1.591 9294
1.269 1.670 1.585 9324
1.268 1.668 1.575 6985
1.263 1.661 1.560 4949
1.277 1.680 1.567 6534
1.283 1.689 1.566 8533
1.290 1.697 1.564 8983
1.292 1.700 1.558 9507
1.295 1.704 1.552 9507
1.301 1.712 1.551 7243
1.332 1.752 1.575 7301
1.338 1.761 1.573 8724
1.345 1.769 1.572 10476
1.347 1.773 1.565 8167
1.346 1.771 1.554 5890
1.348 1.774 1.548 5741
1.347 1.772 1.538 5748
1.349 1.775 1.531 5269
1.352 1.778 1.525 4790
1.354 1.782 1.518 4140
1.405 1.849 1.563 4854
1.412 1.858 1.560 5792
1.406 1.850 1.545 7350
1.405 1.848 1.534 9263
1.407 1.851 1.528 7901
1.410 1.854 1.521 6538
1.412 1.858 1.515 6024
1.418 1.866 1.512 5777
1.421 1.869 1.505 6033
1.432 1.883 1.507 5631
1.442 1.897 1.508 5873
1.511 1.988 1.565 6815
1.522 2.002 1.566 7296
1.524 2.005 1.559 7544
1.531 2.014 1.555 7916
1.533 2.017 1.548 9469
1.532 2.015 1.537 11081
1.538 2.024 1.534 9784
1.545 2.033 1.530 8677
1.556 2.047 1.531 9603
1.567 2.061 1.531 10300
1.573 2.070 1.527 10652
1.576 2.073 1.520 7751
1.574 2.071 1.509 4911
1.576 2.074 1.501 4790
1.621 2.133 1.531 4143
1.623 2.136 1.523 4230
1.605 2.111 1.497 7852
1.611 2.120 1.493 15290
1.618 2.129 1.489 19116
1.620 2.132 1.482 15587
1.640 2.157 1.488 8385
1.659 2.183 1.495 6310
1.666 2.192 1.491 6085
1.664 2.189 1.479 8343
1.666 2.192 1.471 10798
1.673 2.201 1.467 12756
1.684 2.216 1.466 13582
1.695 2.230 1.465 14070
1.693 2.227 1.453 15538
1.704 2.242 1.452 14948
1.715 2.256 1.451 14987
1.722 2.265 1.446 11052
1.728 2.274 1.441 6862
1.774 2.334 1.466 6069
1.781 2.343 1.461 5866
1.748 2.300 1.426 6759
1.755 2.309 1.421 6539
1.796 2.363 1.442 6211
1.799 2.366 1.434 7909
1.810 2.381 1.432 8561
1.812 2.384 1.423 9910
1.819 2.393 1.418 10787
1.861 2.448 1.437 11488
1.876 2.468 1.438 8381
1.896 2.494 1.441 6273
1.889 2.486 1.426 6824
1.892 2.489 1.417 6009
1.903 2.503 1.414 5369
1.918 2.524 1.414 6917
1.925 2.533 1.408 10262
1.932 2.541 1.402 15380
1.934 2.544 1.393 14822
1.941 2.553 1.386 10429
2.001 2.632 1.415 10006
2.003 2.635 1.405 9836
2.010 2.644 1.399 8143
2.007 2.641 1.386 7641
2.010 2.644 1.377 10124
2.021 2.659 1.373 8555
2.036 2.679 1.371 8376
2.039 2.682 1.362 8905
2.050 2.697 1.357 10736
2.052 2.700 1.348 8866
2.072 2.726 1.349 8200
2.074 2.729 1.339 8243
2.099 2.761 1.342 6439
2.160 2.842 1.366 6401
2.157 2.838 1.353 4812
2.151 2.829 1.338 4973
2.157 2.838 1.330 5462
2.177 2.865 1.330 4955
2.234 2.939 1.350 5507
2.241 2.948 1.342 7600
2.247 2.957 1.333 8296
2.272 2.990 1.335 7687
2.288 3.010 1.331 7095
2.290 3.013 1.320 5564
2.292 3.016 1.310 3977
2.303 3.031 1.303 3300
2.315 3.045 1.297 4009
2.330 3.066 1.293 5136
2.424 3.189 1.327 5390
2.431 3.198 1.318 4733
2.419 3.183 1.300 3475
2.426 3.192 1.291 2753
2.474 3.255 1.301 3712
2.481 3.264 1.291 3946
2.529 3.327 1.301 3307
2.558 3.366 1.302 3034
2.574 3.387 1.296 2877
2.572 3.384 1.282 3213
2.578 3.392 1.271 4493
2.654 3.492 1.292 5833
2.661 3.501 1.281 6889
2.672 3.516 1.272 9243
2.674 3.519 1.260 7061
2.672 3.515 1.245 4919
2.678 3.524 1.234 5268
2.671 3.514 1.217 4249
2.729 3.590 1.227 5513
2.726 3.586 1.212 6067
2.807 3.693 1.231 6456
2.809 3.696 1.217 7728
2.820 3.710 1.207 5537
2.831 3.725 1.197 4432
2.903 3.820 1.210 3178
2.901 3.816 1.195 3539
2.935 3.862 1.193 3925
2.937 3.864 1.179 4857
2.911 3.829 1.155 2560
3.006 3.955 1.173 2383
2.989 3.933 1.153 2955
3.061 4.028 1.162 5389
3.059 4.024 1.146 6489
3.056 4.020 1.130 4711
3.062 4.029 1.117 4785
3.101 4.080 1.114 5510
3.108 4.089 1.101 5082
3.114 4.097 1.087 4459
3.116 4.099 1.073 2986
2.967 3.903 1.013 2171
2.992 3.936 1.005 2063
2.993 3.938 0.991 1098
3.240 4.263 1.046 953
3.237 4.259 1.030 1744
3.409 4.485 1.061 2460
3.420 4.500 1.047 2947
3.436 4.520 1.034 2377
3.347 4.404 0.995 2474
3.519 4.630 1.022 3291
3.521 4.632 1.005 4733
3.522 4.634 0.988 4141
3.586 4.717 0.986 2513
3.710 4.882 0.998 4246
3.712 4.884 0.980 4496
3.713 4.885 0.962 3019
3.829 5.037 0.969 2635
3.840 5.052 0.953 3284
3.794 4.991 0.925 3467
3.871 5.093 0.922 3063
3.858 5.076 0.901 2299
3.836 5.046 0.878 2161
4.203 5.530 0.929 2009
4.195 5.520 0.907 2012
4.192 5.515 0.886 1701
4.350 5.724 0.893 2302
4.347 5.719 0.872 2608
4.339 5.708 0.849 2361
4.483 5.898 0.851 2263
4.351 5.724 0.809 1901
4.376 5.757 0.792 2155
4.668 6.141 0.813 2108
4.698 6.181 0.795 1954
4.856 6.389 0.794 1651
5.173 6.806 0.812 1911
5.174 6.807 0.787 1920
5.175 6.809 0.762 1510
5.214 6.860 0.742 1350
5.239 6.893 0.720 1411
5.412 7.121 0.713 1791
5.413 7.122 0.687 1769
5.539 7.287 0.673 1686
5.669 7.458 0.658 1758
5.670 7.459 0.631 1643
5.694 7.492 0.606 1577
5.733 7.543 0.581 1831
5.739 7.551 0.554 2128
5.745 7.558 0.527 1724
5.755 7.571 0.500 1016
5.746 7.559 0.472 650
5.746 7.560 0.444 563
5.747 7.561 0.417 309
1.275 1.655 1.597 4168
1.278 1.658 1.591 8337
1.280 1.662 1.585 8367
1.279 1.660 1.575 6376
1.274 1.653 1.560 4641
1.288 1.672 1.567 6101
1.299 1.685 1.570 8242
1.301 1.689 1.564 9036
1.304 1.692 1.558 9831
1.306 1.695 1.552 9831
1.313 1.704 1.551 7635
1.339 1.738 1.571 6786
1.350 1.752 1.573 7931
1.357 1.760 1.572 9604
1.359 1.764 1.565 7557
1.374 1.783 1.572 5815
1.360 1.765 1.548 5633
1.359 1.763 1.538 6081
1.361 1.766 1.531 5752
1.364 1.769 1.525 5423
1.370 1.778 1.523 4564
1.418 1.839 1.563 5406
1.420 1.843 1.556 6872
1.418 1.841 1.545 8290
1.417 1.839 1.534 9960
1.419 1.842 1.528 8503
1.422 1.845 1.521 7046
1.424 1.848 1.515 5528
1.435 1.862 1.516 4292
1.437 1.865 1.509 4442
1.498 1.944 1.559 4910
1.505 1.953 1.556 6463
1.520 1.972 1.561 7442
1.531 1.986 1.562 7794
1.542 2.001 1.563 8001
1.544 2.004 1.555 8477
1.547 2.007 1.548 10113
1.553 2.016 1.545 11764
1.556 2.019 1.538 10488
1.563 2.028 1.534 9294
1.569 2.036 1.531 10305
1.580 2.051 1.531 10720
1.587 2.059 1.527 10803
1.585 2.057 1.516 7829
1.588 2.060 1.509 5047
1.586 2.058 1.497 4181
1.588 2.061 1.490 3354
1.612 2.092 1.501 3661
1.619 2.101 1.497 7669
1.625 2.109 1.493 15034
1.632 2.118 1.489 18282
1.635 2.121 1.482 14818
1.646 2.135 1.481 7502
1.674 2.172 1.495 5599
1.681 2.181 1.491 5512
1.674 2.173 1.476 8336
1.681 2.181 1.471 11639
1.688 2.190 1.467 13498
1.699 2.204 1.466 13433
1.710 2.219 1.465 14231
1.712 2.222 1.457 16371
1.719 2.230 1.452 16208
1.730 2.245 1.451 15900
1.737 2.254 1.446 11642
1.748 2.268 1.445 6732
1.790 2.322 1.466 6457
1.792 2.325 1.458 5979
1.763 2.288 1.426 6804
1.770 2.297 1.421 7369
1.808 2.346 1.439 5854
1.814 2.354 1.434 7785
1.852 2.403 1.451 8584
1.828 2.372 1.423 9803
1.839 2.386 1.421 10984
1.877 2.435 1.437 12314
1.892 2.456 1.438 8910
1.913 2.482 1.441 7435
1.910 2.479 1.429 7476
1.913 2.482 1.420 6015
1.919 2.491 1.414 4287
1.935 2.511 1.414 5152
1.942 2.520 1.408 9766
1.949 2.529 1.402 15343
1.951 2.532 1.393 13936
1.958 2.540 1.386 9330
2.014 2.613 1.412 9329
2.025 2.628 1.408 8924
2.027 2.631 1.399 7385
2.025 2.628 1.386 7144
2.027 2.631 1.377 9751
2.038 2.645 1.373 8357
2.054 2.666 1.371 7772
2.056 2.669 1.362 7150
2.063 2.677 1.355 9241
2.065 2.680 1.345 8554
2.090 2.712 1.349 6977
2.088 2.709 1.336 7505
2.163 2.807 1.369 6790
2.174 2.821 1.364 7621
2.176 2.824 1.353 5132
2.174 2.821 1.340 3848
2.176 2.824 1.330 4180
2.196 2.850 1.330 4260
2.254 2.924 1.350 4642
2.260 2.933 1.342 7425
2.262 2.936 1.331 8432
2.288 2.968 1.332 7415
2.308 2.995 1.331 6494
2.310 2.998 1.320 5522
2.317 3.007 1.312 4269
2.328 3.021 1.306 3917
2.335 3.030 1.297 4257
2.351 3.051 1.293 4659
2.445 3.173 1.327 4636
2.448 3.176 1.316 4230
2.436 3.161 1.298 3316
2.507 3.254 1.319 3365
2.495 3.238 1.301 4004
2.535 3.289 1.307 4090
2.541 3.298 1.297 3713
2.585 3.355 1.304 2146
2.601 3.376 1.298 1985
2.599 3.372 1.284 2752
2.685 3.484 1.308 5125
2.678 3.475 1.292 7740
2.680 3.477 1.279 8266
2.700 3.504 1.274 9759
2.707 3.513 1.263 8575
2.704 3.509 1.249 5811
2.697 3.500 1.232 5780
2.699 3.502 1.219 5451
2.710 3.517 1.210 5158
2.750 3.568 1.212 5361
2.831 3.674 1.231 5768
2.838 3.683 1.219 6939
2.845 3.692 1.207 4743
2.856 3.706 1.197 3911
2.924 3.794 1.208 3501
2.926 3.797 1.195 3905
2.956 3.836 1.191 3645
2.958 3.838 1.177 4704
2.950 3.828 1.160 3321
2.995 3.886 1.160 2050
3.072 3.987 1.172 3024
3.083 4.001 1.161 5372
3.085 4.004 1.146 5966
3.078 3.994 1.128 5015
3.089 4.008 1.117 5422
3.119 4.047 1.111 4959
3.135 4.068 1.101 4304
3.141 4.076 1.087 3716
3.143 4.079 1.073 2364
2.988 3.877 1.011 2156
3.008 3.904 1.003 1801
3.015 3.912 0.990 986
3.388 4.396 1.080 924
3.261 4.231 1.028 1705
3.439 4.462 1.061 2654
3.455 4.483 1.048 3236
3.470 4.504 1.035 3038
3.596 4.667 1.051 2675
3.550 4.607 1.022 3424
3.552 4.609 1.005 5030
3.553 4.611 0.988 4471
3.617 4.693 0.986 2648
3.743 4.857 0.998 5218
3.744 4.859 0.980 5425
3.746 4.861 0.962 3290
3.867 5.018 0.970 2130
3.878 5.032 0.954 3004
3.827 4.966 0.925 3525
3.905 5.067 0.922 3111
3.887 5.044 0.900 2372
3.869 5.021 0.878 2200
4.231 5.490 0.927 2211
4.227 5.485 0.906 2532
4.228 5.487 0.886 2143
4.388 5.695 0.893 2333
4.380 5.684 0.871 2904
4.372 5.673 0.848 2870
4.522 5.868 0.851 2180
4.389 5.695 0.809 1795
4.414 5.728 0.792 2035
4.709 6.110 0.813 1866
4.739 6.149 0.795 1778
4.668 6.057 0.763 1592
5.218 6.771 0.812 1641
4.930 6.397 0.751 1700
4.912 6.374 0.725 1439
5.260 6.825 0.742 1411
5.285 6.858 0.720 1462
5.460 7.085 0.713 1791
5.461 7.086 0.687 1776
5.587 7.250 0.673 1623
5.723 7.426 0.659 1533
5.816 7.547 0.639 1702
5.744 7.454 0.606 1435
5.783 7.505 0.581 1791
5.789 7.512 0.554 2079
5.799 7.526 0.527 1713
5.800 7.527 0.500 1088
5.796 7.521 0.472 757
5.801 7.528 0.445 643
5.802 7.529 0.417 340
1.280 1.651 1.597 3670
1.282 1.655 1.591 7341
1.285 1.658 1.585 7342
1.284 1.656 1.575 5593
1.282 1.654 1.564 4040
1.293 1.668 1.567 5500
1.307 1.687 1.575 8003
1.310 1.690 1.569 9008
1.312 1.693 1.563 10014
1.315 1.697 1.557 10014
1.317 1.700 1.551 7884
1.344 1.734 1.571 6439
1.351 1.743 1.569 7087
1.361 1.757 1.572 8584
1.368 1.765 1.570 7074
1.383 1.784 1.576 6216
1.365 1.761 1.548 5778
1.363 1.759 1.538 6523
1.366 1.762 1.531 6322
1.372 1.771 1.529 6195
1.375 1.774 1.523 5225
1.423 1.836 1.563 6218
1.425 1.839 1.556 8282
1.424 1.837 1.545 9409
1.422 1.835 1.534 10587
1.424 1.838 1.528 8996
1.427 1.841 1.521 7406
1.429 1.844 1.515 5148
1.444 1.864 1.520 3099
1.505 1.942 1.570 3717
1.503 1.940 1.559 5335
1.510 1.949 1.556 6902
1.525 1.968 1.561 7862
1.536 1.982 1.562 8084
1.543 1.991 1.559 8274
1.550 2.000 1.555 8850
1.556 2.008 1.552 10533
1.559 2.011 1.545 12277
1.566 2.020 1.541 10885
1.572 2.029 1.538 9665
1.575 2.032 1.531 10735
1.582 2.041 1.527 11032
1.593 2.055 1.527 10918
1.591 2.053 1.516 8147
1.593 2.056 1.509 5390
1.591 2.053 1.497 3936
1.598 2.062 1.494 3240
1.609 2.076 1.494 4316
1.624 2.096 1.497 7873
1.631 2.105 1.493 14725
1.634 2.108 1.486 17418
1.640 2.117 1.482 14045
1.647 2.125 1.478 6944
1.680 2.167 1.495 5118
1.682 2.170 1.487 5168
1.680 2.168 1.476 8544
1.687 2.177 1.471 12337
1.694 2.185 1.467 14129
1.705 2.200 1.466 13600
1.716 2.214 1.465 14638
1.718 2.217 1.457 17338
1.725 2.226 1.452 17291
1.736 2.240 1.451 16434
1.743 2.249 1.446 11926
1.758 2.269 1.448 6390
1.792 2.312 1.463 6375
1.794 2.315 1.455 5705
1.774 2.289 1.430 7006
1.776 2.292 1.421 8132
1.814 2.341 1.439 5965
1.821 2.349 1.434 7677
1.859 2.398 1.451 9068
1.861 2.401 1.442 9768
1.846 2.381 1.421 10986
1.879 2.424 1.434 12923
1.899 2.450 1.438 9311
1.919 2.477 1.441 8590
1.922 2.480 1.432 8137
1.920 2.477 1.420 5968
1.922 2.480 1.411 3523
1.947 2.512 1.417 4078
1.949 2.514 1.408 9623
1.956 2.523 1.402 14815
1.953 2.520 1.390 12671
1.960 2.529 1.383 8051
2.021 2.608 1.412 8258
2.032 2.622 1.408 7788
2.035 2.625 1.399 6401
2.032 2.622 1.386 6311
2.034 2.625 1.377 8978
2.050 2.645 1.375 8449
2.066 2.666 1.374 7221
2.059 2.657 1.359 5210
2.070 2.672 1.355 8055
2.073 2.674 1.345 8659
2.075 2.677 1.335 6587
2.091 2.698 1.334 6789
2.161 2.789 1.363 8296
2.173 2.803 1.358 9212
2.179 2.812 1.351 5763
2.186 2.821 1.343 3093
2.207 2.847 1.343 3089
2.209 2.850 1.333 3769
2.262 2.918 1.350 4619
2.268 2.927 1.342 7384
2.275 2.936 1.333 8258
2.277 2.938 1.323 6979
2.312 2.983 1.329 5314
2.314 2.985 1.318 5184
2.330 3.006 1.314 4479
2.337 3.015 1.306 4494
2.343 3.023 1.297 4438
2.438 3.146 1.332 4149
2.459 3.173 1.330 3917
2.452 3.163 1.314 3861
2.444 3.154 1.298 3063
2.516 3.247 1.319 4157
2.504 3.231 1.301 3998
2.539 3.276 1.304 4659
2.546 3.285 1.295 4496
2.562 3.306 1.289 1882
2.583 3.332 1.285 1856
2.603 3.359 1.282 3024
2.694 3.477 1.308 5924
2.687 3.467 1.292 9001
2.689 3.470 1.279 9121
2.715 3.503 1.276 9657
2.721 3.511 1.265 10454
2.714 3.502 1.249 6727
2.707 3.492 1.232 6358
2.713 3.501 1.221 7115
2.720 3.509 1.210 7059
2.750 3.548 1.209 4545
2.842 3.666 1.231 4751
2.848 3.675 1.219 5815
2.860 3.690 1.209 3963
2.866 3.698 1.197 3328
2.930 3.780 1.207 4014
2.932 3.783 1.193 4264
2.957 3.815 1.188 3362
2.959 3.818 1.174 4705
2.961 3.820 1.160 4062
3.005 3.878 1.160 2464
3.083 3.978 1.172 3344
3.090 3.987 1.159 5099
3.092 3.989 1.144 5337
3.089 3.985 1.128 5026
3.100 4.000 1.117 5552
3.111 4.014 1.105 4617
3.146 4.059 1.101 3364
3.153 4.068 1.087 2879
3.154 4.070 1.073 1809
2.994 3.863 1.010 1969
2.981 3.846 0.992 1645
3.393 4.378 1.094 1083
3.400 4.387 1.080 974
3.272 4.222 1.028 1605
3.446 4.446 1.059 2637
3.472 4.479 1.049 3405
3.483 4.494 1.035 3747
3.609 4.657 1.051 3190
3.558 4.591 1.021 3498
3.564 4.599 1.005 5129
3.566 4.601 0.988 4625
3.630 4.683 0.986 2732
3.756 4.846 0.998 5853
3.758 4.848 0.980 6014
3.759 4.850 0.962 3336
3.828 4.939 0.959 2327
3.839 4.953 0.943 2672
3.840 4.955 0.925 3367
3.919 5.056 0.922 3104
3.906 5.039 0.901 2427
3.888 5.016 0.879 2200
4.246 5.478 0.927 2370
4.242 5.474 0.906 2857
4.244 5.475 0.886 2426
4.404 5.682 0.893 2304
4.386 5.659 0.869 3482
4.383 5.655 0.848 3410
4.398 5.675 0.829 2094
4.433 5.720 0.814 1710
4.430 5.715 0.792 1853
4.411 5.692 0.768 1658
4.756 6.136 0.795 1508
4.907 6.331 0.793 1477
5.145 6.638 0.800 1560
4.923 6.353 0.748 1857
5.147 6.641 0.751 1853
5.148 6.642 0.727 1592
5.347 6.900 0.724 1709
5.479 7.070 0.713 1874
5.485 7.077 0.687 1907
5.607 7.235 0.673 1539
5.835 7.529 0.667 1511
5.836 7.531 0.639 1786
5.832 7.525 0.611 1437
5.804 7.489 0.581 1648
5.815 7.502 0.555 1945
5.820 7.510 0.527 1667
5.826 7.517 0.500 1136
5.821 7.511 0.472 839
5.822 7.512 0.445 695
5.823 7.513 0.417 350
1.282 1.650 1.597 3229
1.285 1.653 1.591 6459
1.287 1.656 1.585 6402
1.290 1.660 1.579 4737
1.289 1.658 1.569 3232
1.319 1.697 1.595 5142
1.314 1.690 1.579 7686
1.312 1.688 1.569 8678
1.315 1.691 1.563 9788
1.317 1.695 1.557 9788
1.324 1.703 1.555 7909
1.331 1.712 1.553 6280
1.353 1.741 1.569 6262
1.364 1.755 1.572 7388
1.371 1.763 1.570 6710
1.385 1.782 1.576 6545
1.367 1.759 1.548 6161
1.366 1.757 1.538 6903
1.373 1.766 1.535 6839
1.379 1.774 1.533 6990
1.382 1.777 1.527 6078
1.421 1.828 1.558 7298
1.424 1.832 1.552 9853
1.426 1.835 1.545 10415
1.429 1.838 1.539 10978
1.427 1.836 1.528 9157
1.425 1.834 1.517 7462
1.432 1.842 1.515 5202
1.443 1.856 1.516 2595
1.508 1.940 1.570 3956
1.510 1.943 1.563 5589
1.517 1.952 1.560 7112
1.528 1.966 1.561 7942
1.539 1.980 1.562 8005
1.546 1.989 1.559 8231
1.553 1.997 1.555 8892
1.559 2.006 1.552 10528
1.562 2.009 1.545 12230
1.569 2.018 1.541 10811
1.575 2.027 1.538 9577
1.578 2.030 1.531 10704
1.585 2.039 1.527 11085
1.591 2.047 1.523 10931
1.594 2.050 1.516 8294
1.596 2.054 1.509 5658
1.599 2.057 1.501 4317
1.605 2.065 1.497 4049
1.612 2.074 1.494 5335
1.627 2.094 1.497 8194
1.634 2.102 1.493 14251
1.637 2.106 1.486 16537
1.639 2.109 1.478 13261
1.650 2.123 1.478 6537
1.683 2.165 1.495 4903
1.685 2.168 1.487 5019
1.679 2.160 1.472 8666
1.690 2.174 1.471 12630
1.697 2.183 1.467 14344
1.712 2.203 1.469 13880
1.719 2.212 1.465 15029
1.721 2.215 1.457 18094
1.728 2.223 1.452 18050
1.739 2.238 1.451 16529
1.746 2.246 1.446 11867
1.766 2.272 1.451 5898
1.795 2.309 1.463 5654
1.780 2.289 1.441 5127
1.777 2.287 1.430 7038
1.784 2.295 1.425 8484
1.835 2.361 1.452 6561
1.833 2.358 1.440 7799
1.858 2.390 1.448 9419
1.864 2.399 1.442 9688
1.867 2.402 1.433 11212
1.883 2.422 1.434 13101
1.903 2.448 1.438 9369
1.923 2.474 1.441 9477
1.925 2.477 1.432 8620
1.923 2.474 1.420 5915
1.921 2.471 1.408 3218
1.968 2.532 1.429 3590
1.952 2.512 1.408 9776
1.955 2.515 1.399 13927
1.957 2.518 1.390 11150
1.959 2.520 1.380 6741
2.025 2.605 1.412 6838
2.036 2.619 1.408 6590
2.038 2.622 1.399 5447
2.031 2.613 1.383 5496
2.038 2.622 1.377 8237
2.054 2.642 1.375 9075
2.065 2.657 1.371 7039
2.058 2.648 1.356 3883
2.088 2.686 1.363 7313
2.072 2.665 1.342 8795
2.074 2.668 1.333 6701
2.081 2.677 1.326 6338
2.161 2.780 1.361 9805
2.177 2.800 1.358 10611
2.179 2.803 1.348 6649
2.126 2.735 1.307 2795
2.261 2.909 1.371 4057
2.273 2.924 1.365 4384
2.275 2.927 1.355 5333
2.273 2.924 1.342 7284
2.275 2.926 1.331 7816
2.272 2.923 1.318 6829
2.293 2.950 1.317 4382
2.318 2.982 1.318 4679
2.339 3.009 1.317 4756
2.345 3.017 1.308 4938
2.352 3.026 1.299 4457
2.447 3.148 1.334 3586
2.463 3.169 1.330 3552
2.461 3.166 1.316 3832
2.458 3.162 1.302 3006
2.516 3.237 1.317 4534
2.509 3.228 1.301 4092
2.544 3.273 1.304 5044
2.546 3.275 1.292 5336
2.562 3.296 1.287 2545
2.587 3.329 1.285 2952
2.604 3.349 1.279 3471
2.699 3.473 1.308 6123
2.692 3.463 1.292 9303
2.694 3.466 1.279 9230
2.724 3.505 1.278 9046
2.731 3.514 1.267 11644
2.728 3.510 1.253 7596
2.712 3.488 1.232 6682
2.723 3.503 1.223 8617
2.730 3.512 1.212 8504
2.732 3.514 1.199 4727
2.847 3.662 1.231 3654
2.854 3.671 1.219 4554
2.865 3.686 1.209 3201
2.924 3.761 1.217 2854
2.935 3.776 1.207 4697
2.932 3.772 1.191 4714
2.958 3.805 1.186 3257
2.960 3.808 1.172 4731
2.966 3.816 1.160 4591
3.011 3.873 1.160 2755
3.089 3.974 1.172 3303
3.095 3.982 1.159 4553
3.097 3.985 1.144 4576
3.094 3.981 1.128 4584
3.106 3.995 1.117 5080
3.117 4.010 1.105 4013
3.147 4.049 1.099 2360
3.158 4.063 1.087 1955
3.002 3.863 1.025 1450
2.966 3.815 1.000 1968
2.977 3.830 0.989 1735
3.404 4.380 1.096 1071
3.425 4.406 1.085 1216
3.436 4.421 1.072 1629
3.448 4.435 1.058 2455
3.478 4.475 1.049 3328
3.489 4.489 1.035 4201
3.611 4.645 1.050 3581
3.593 4.623 1.028 3618
3.571 4.594 1.005 4889
3.577 4.602 0.989 4484
3.636 4.678 0.986 2777
3.763 4.841 0.998 6058
3.765 4.843 0.980 6124
3.761 4.839 0.961 3197
3.835 4.934 0.959 2555
3.841 4.942 0.942 2537
3.843 4.943 0.924 3048
3.926 5.051 0.922 3027
3.913 5.034 0.901 2438
3.895 5.011 0.879 2071
4.253 5.472 0.927 2476
4.250 5.468 0.906 3103
4.251 5.469 0.886 2644
4.320 5.558 0.877 2361
4.394 5.653 0.869 3968
4.391 5.648 0.848 3839
4.406 5.669 0.829 2106
4.441 5.714 0.814 1533
4.438 5.709 0.792 1513
4.420 5.686 0.768 1412
4.919 6.329 0.816 1315
4.911 6.318 0.792 1574
4.917 6.325 0.769 1757
5.155 6.632 0.776 2142
5.161 6.640 0.752 2285
5.157 6.635 0.727 2062
5.357 6.892 0.724 1947
5.363 6.900 0.699 1952
5.495 7.069 0.687 1996
5.530 7.114 0.665 1509
5.846 7.521 0.667 1532
5.847 7.522 0.639 1769
5.848 7.523 0.612 1408
5.815 7.481 0.581 1476
5.825 7.494 0.555 1777
5.831 7.501 0.527 1567
5.836 7.508 0.500 1139
5.832 7.503 0.472 879
5.833 7.504 0.445 720
5.838 7.511 0.417 367
1.287 1.646 1.597 2943
1.290 1.649 1.591 5887
1.292 1.652 1.585 5761
1.295 1.656 1.579 4121
1.325 1.695 1.605 2866
1.324 1.693 1.595 5020
1.323 1.691 1.584 7337
1.321 1.689 1.573 8215
1.324 1.693 1.567 9176
1.326 1.696 1.561 9176
1.329 1.699 1.555 7698
1.336 1.708 1.553 6386
1.350 1.727 1.560 5765
1.369 1.751 1.572 6305
1.376 1.759 1.570 6481
1.386 1.773 1.572 6919
1.377 1.760 1.552 6735
1.371 1.753 1.538 7287
1.378 1.762 1.535 7364
1.384 1.770 1.533 7721
1.391 1.779 1.531 6938
1.426 1.824 1.558 8505
1.429 1.827 1.552 11349
1.432 1.831 1.545 11298
1.434 1.834 1.539 11247
1.432 1.832 1.528 9077
1.431 1.830 1.517 7277
1.437 1.838 1.515 5466
1.444 1.847 1.512 3126
1.514 1.935 1.570 4131
1.516 1.939 1.563 5733
1.523 1.947 1.560 7186
1.534 1.961 1.561 7841
1.545 1.975 1.562 7746
1.552 1.984 1.559 8019
1.558 1.993 1.555 8729
1.565 2.001 1.552 10253
1.568 2.005 1.545 11861
1.574 2.013 1.541 10438
1.581 2.022 1.538 9209
1.584 2.025 1.531 10414
1.591 2.034 1.527 10941
1.597 2.043 1.523 10842
1.600 2.046 1.516 8329
1.607 2.054 1.512 5893
1.609 2.057 1.505 4885
1.616 2.066 1.501 5026
1.618 2.069 1.494 6246
1.629 2.083 1.494 8701
1.640 2.098 1.493 13809
1.643 2.101 1.486 15764
1.645 2.104 1.478 12625
1.656 2.118 1.478 6337
1.689 2.160 1.495 4947
1.679 2.146 1.476 5245
1.677 2.144 1.465 8935
1.696 2.169 1.471 12568
1.708 2.184 1.470 14254
1.719 2.198 1.469 14222
1.726 2.206 1.465 15405
1.728 2.210 1.457 18629
1.735 2.218 1.452 18445
1.741 2.227 1.447 16265
1.753 2.241 1.446 11580
1.777 2.272 1.455 5809
1.797 2.298 1.460 4866
1.786 2.284 1.441 5072
1.789 2.287 1.433 7098
1.791 2.290 1.425 8470
1.847 2.361 1.455 7588
1.840 2.353 1.440 8192
1.860 2.379 1.444 9587
1.867 2.387 1.439 9446
1.874 2.396 1.433 11390
1.890 2.416 1.434 13145
1.914 2.448 1.441 9493
1.930 2.468 1.441 10293
1.933 2.471 1.432 8995
1.930 2.468 1.420 5651
1.928 2.465 1.408 2988
1.962 2.509 1.420 4213
1.960 2.506 1.408 10149
1.962 2.509 1.399 12811
1.964 2.512 1.390 9512
1.967 2.515 1.380 5676
2.028 2.593 1.409 5424
2.048 2.619 1.411 5636
2.046 2.616 1.399 4705
2.039 2.607 1.383 4875
2.050 2.622 1.379 7769
2.062 2.636 1.375 9784
2.069 2.645 1.369 7627
2.062 2.636 1.353 4280
2.105 2.692 1.368 7905
2.080 2.659 1.342 8687
2.077 2.656 1.330 6625
2.162 2.765 1.368 7190
2.169 2.773 1.361 11347
2.180 2.788 1.356 11643
2.187 2.797 1.348 7560
2.180 2.788 1.333 3549
2.265 2.897 1.368 5677
2.277 2.911 1.363 6148
2.284 2.920 1.355 6187
2.286 2.923 1.344 7155
2.288 2.926 1.333 7042
2.281 2.916 1.318 6235
2.353 3.008 1.343 4288
2.345 2.999 1.328 4226
2.352 3.008 1.319 5087
2.354 3.010 1.308 5100
2.361 3.019 1.299 4455
2.372 3.034 1.293 3216
2.477 3.168 1.332 3403
2.470 3.159 1.316 3736
2.500 3.197 1.318 3271
2.516 3.218 1.313 4928
2.519 3.220 1.301 4105
2.553 3.265 1.304 5015
2.556 3.268 1.292 5807
2.576 3.294 1.289 3101
2.597 3.321 1.285 3724
2.609 3.336 1.277 3946
2.714 3.471 1.310 5834
2.707 3.461 1.294 8721
2.704 3.458 1.279 8832
2.739 3.503 1.280 8577
2.741 3.506 1.267 12374
