5.447 -6.934 1.070 1065
5.454 -6.942 1.045 1271
5.392 -6.864 1.009 1185
5.394 -6.866 0.984 1438
5.390 -6.861 0.958 1303
5.470 -6.962 0.944 1136
5.466 -6.958 0.918 839
5.205 -6.625 0.855 1112
5.211 -6.633 0.832 1287
5.207 -6.628 0.807 1155
5.145 -6.549 0.774 913
5.141 -6.544 0.749 832
5.215 -6.638 0.734 887
5.207 -6.627 0.708 1170
5.198 -6.616 0.683 1388
5.155 -6.562 0.654 1086
5.019 -6.389 0.617 739
5.103 -6.495 0.601 648
4.991 -6.353 0.567 494
5.007 -6.373 0.545 540
5.017 -6.386 0.522 437
4.910 -6.250 0.491 293
4.901 -6.239 0.467 278
4.609 -5.866 0.426 279
4.609 -5.867 0.404 322
4.610 -5.868 0.382 339
4.615 -5.874 0.361 338
4.615 -5.875 0.339 326
4.616 -5.875 0.318 273
4.626 -5.888 0.275 253
0.997 -1.270 0.095 259
0.997 -1.270 0.090 274
0.997 -1.269 0.086 277
0.997 -1.269 0.081 280
0.997 -1.269 0.077 265
0.992 -1.263 0.073 255
1.448 -1.848 1.806 3262
1.451 -1.852 1.799 6524
1.462 -1.866 1.802 6702
1.465 -1.870 1.795 7059
1.468 -1.874 1.788 7417
1.467 -1.873 1.777 5472
1.462 -1.866 1.761 4172
1.465 -1.870 1.754 4172
1.496 -1.909 1.779 4117
1.503 -1.918 1.776 5124
1.510 -1.927 1.774 5699
1.517 -1.936 1.771 6584
1.524 -1.945 1.769 4838
1.535 -1.959 1.771 3384
1.538 -1.963 1.763 3220
1.598 -2.039 1.818 3130
1.601 -2.043 1.810 3764
1.604 -2.047 1.803 3771
1.623 -2.072 1.813 4176
1.626 -2.076 1.805 4452
1.629 -2.079 1.797 4728
1.644 -2.099 1.803 5859
1.643 -2.097 1.791 7012
1.650 -2.107 1.787 5906
1.653 -2.110 1.780 4809
1.706 -2.178 1.822 3684
1.709 -2.181 1.814 4250
1.708 -2.180 1.802 4490
1.711 -2.184 1.794 4797
1.714 -2.188 1.786 4107
1.713 -2.186 1.774 3449
1.795 -2.291 1.843 3376
1.798 -2.295 1.835 4119
1.801 -2.299 1.827 3760
1.809 -2.309 1.822 3412
1.807 -2.307 1.810 4531
1.806 -2.305 1.798 5753
1.813 -2.315 1.793 6430
1.825 -2.329 1.792 5793
1.832 -2.338 1.788 4667
1.835 -2.342 1.779 5391
1.838 -2.346 1.771 6114
1.909 -2.437 1.824 8267
1.912 -2.441 1.815 11893
1.915 -2.445 1.806 13665
1.922 -2.454 1.801 11958
1.925 -2.458 1.792 9049
1.928 -2.462 1.783 10892
1.936 -2.471 1.778 13616
1.939 -2.475 1.769 14180
1.942 -2.478 1.760 11064
1.949 -2.488 1.754 7892
1.934 -2.469 1.731 7473
1.946 -2.484 1.729 9035
1.953 -2.493 1.723 9217
2.017 -2.575 1.764 9095
2.055 -2.623 1.783 8909
2.066 -2.638 1.781 10452
2.034 -2.597 1.743 9680
2.125 -2.712 1.803 9516
2.124 -2.711 1.790 10735
2.109 -2.692 1.766 11535
2.112 -2.696 1.756 12967
2.141 -2.733 1.767 12559
2.144 -2.737 1.757 11792
2.151 -2.746 1.750 8998
2.216 -2.829 1.787 10277
2.219 -2.833 1.777 8730
2.173 -2.774 1.730 7035
2.172 -2.772 1.717 7847
2.175 -2.776 1.707 6357
2.324 -2.967 1.803 4810
2.243 -2.863 1.731 3947
2.254 -2.878 1.727 4007
2.266 -2.893 1.723 3685
2.377 -3.034 1.788 3203
2.384 -3.043 1.780 4169
2.414 -3.081 1.788 6440
2.426 -3.097 1.783 10028
2.433 -3.106 1.774 10967
2.436 -3.110 1.763 9130
2.439 -3.114 1.752 6834
2.433 -3.106 1.734 7282
2.431 -3.104 1.720 6990
2.439 -3.113 1.711 5195
2.632 -3.360 1.823 4074
2.630 -3.358 1.808 4369
2.633 -3.361 1.796 5703
2.636 -3.365 1.784 7478
2.648 -3.381 1.777 6965
2.679 -3.419 1.782 5932
2.686 -3.429 1.772 4026
2.767 -3.532 1.807 2698
2.779 -3.547 1.799 2375
2.782 -3.551 1.786 3060
2.776 -3.543 1.768 3996
2.779 -3.547 1.755 6472
2.786 -3.556 1.744 9541
2.784 -3.554 1.729 9103
2.787 -3.558 1.716 6902
2.974 -3.797 1.807 5601
2.977 -3.801 1.793 7297
2.985 -3.810 1.782 5723
3.062 -3.908 1.809 4311
3.060 -3.906 1.792 4557
3.059 -3.904 1.775 4137
3.150 -4.020 1.808 3172
3.092 -3.947 1.761 3541
3.170 -4.046 1.786 4062
3.168 -4.044 1.768 3509
3.231 -4.125 1.785 3409
3.327 -4.247 1.817 2948
3.330 -4.251 1.801 2517
3.375 -4.309 1.807 1883
3.467 -4.426 1.835 1555
3.550 -4.531 1.857 2202
3.557 -4.541 1.843 2760
3.560 -4.545 1.826 2737
3.563 -4.549 1.809 3147
3.571 -4.558 1.795 3079
3.574 -4.562 1.778 2636
3.699 -4.722 1.817 2142
3.735 -4.768 1.815 2402
3.724 -4.754 1.791 2267
3.727 -4.757 1.774 1849
3.928 -5.014 1.843 2373
4.002 -5.108 1.855 2430
3.967 -5.064 1.820 3319
4.008 -5.116 1.817 3533
4.020 -5.132 1.802 3584
4.028 -5.142 1.785 3234
4.116 -5.254 1.801 3572
4.124 -5.264 1.784 2887
4.236 -5.407 1.808 2597
4.258 -5.435 1.795 2598
4.251 -5.427 1.771 1714
4.249 -5.424 1.750 1689
4.466 -5.701 1.810 1805
4.474 -5.711 1.791 1748
4.763 -6.079 1.875 1386
4.566 -5.828 1.780 1726
4.817 -6.148 1.847 1444
4.810 -6.140 1.821 1718
4.780 -6.101 1.787 1322
5.107 -6.520 1.876 1058
5.115 -6.530 1.853 1853
5.123 -6.540 1.831 1887
5.126 -6.543 1.807 1606
5.215 -6.657 1.810 1643
5.319 -6.790 1.818 1278
5.734 -7.320 1.922 1324
5.737 -7.324 1.895 1735
5.741 -7.328 1.868 2113
5.744 -7.332 1.841 2479
5.747 -7.336 1.814 2188
5.750 -7.339 1.786 1884
5.753 -7.343 1.759 1744
5.756 -7.347 1.732 1435
5.758 -7.350 1.705 1136
5.761 -7.354 1.678 777
5.764 -7.357 1.651 444
5.786 -7.386 1.406 268
5.731 -7.315 1.367 386
5.738 -7.324 1.341 444
5.672 -7.240 1.300 402
5.674 -7.243 1.273 826
5.681 -7.252 1.247 1182
5.688 -7.260 1.221 1014
5.500 -7.021 1.159 590
5.468 -6.980 1.127 644
5.465 -6.976 1.101 644
5.443 -6.947 1.071 911
5.449 -6.956 1.046 1177
5.383 -6.871 1.009 1061
5.384 -6.873 0.984 1275
5.381 -6.869 0.958 1194
5.460 -6.970 0.944 1078
5.452 -6.959 0.917 846
5.152 -6.576 0.849 683
5.163 -6.590 0.826 821
5.154 -6.579 0.801 671
5.262 -6.717 0.790 723
5.264 -6.719 0.765 621
5.196 -6.633 0.733 682
5.193 -6.628 0.708 853
5.140 -6.561 0.678 946
5.146 -6.569 0.654 923
5.152 -6.576 0.630 675
5.094 -6.502 0.601 423
5.002 -6.385 0.569 342
5.008 -6.392 0.545 400
5.013 -6.400 0.522 374
5.014 -6.400 0.499 272
0.996 -1.271 0.095 257
0.996 -1.271 0.090 270
0.996 -1.271 0.086 264
0.995 -1.271 0.081 259
1.442 -1.853 1.806 3512
1.445 -1.857 1.799 7025
1.452 -1.866 1.797 7146
1.459 -1.875 1.795 7226
1.462 -1.879 1.788 7353
1.461 -1.878 1.777 5198
1.455 -1.871 1.761 3521
1.458 -1.875 1.754 3521
1.489 -1.914 1.779 3730
1.496 -1.923 1.776 4602
1.503 -1.932 1.774 5283
1.510 -1.941 1.771 6260
1.521 -1.955 1.773 4710
1.528 -1.964 1.771 3434
1.531 -1.968 1.763 3327
1.587 -2.040 1.813 3316
1.585 -2.038 1.801 3873
1.593 -2.047 1.798 3856
1.616 -2.077 1.813 4086
1.623 -2.086 1.809 4532
1.634 -2.101 1.810 5175
1.633 -2.099 1.798 6466
1.636 -2.103 1.791 7810
1.639 -2.107 1.783 6566
1.646 -2.116 1.780 5375
1.698 -2.183 1.822 3991
1.702 -2.187 1.814 4613
1.700 -2.186 1.802 4659
1.699 -2.184 1.790 4818
1.702 -2.188 1.782 4097
1.705 -2.192 1.774 3375
1.787 -2.298 1.843 2808
1.795 -2.307 1.839 3588
1.793 -2.305 1.827 3485
1.796 -2.309 1.818 3388
1.795 -2.308 1.806 4126
1.790 -2.301 1.790 5169
1.801 -2.315 1.789 5673
1.817 -2.335 1.792 5242
1.824 -2.345 1.788 4432
1.827 -2.349 1.779 5100
1.830 -2.352 1.771 5768
1.901 -2.443 1.824 8118
1.904 -2.447 1.815 11609
1.907 -2.451 1.806 13242
1.914 -2.461 1.801 11712
1.917 -2.464 1.792 8860
1.924 -2.474 1.787 10614
1.927 -2.477 1.778 13168
1.930 -2.481 1.769 13759
1.937 -2.491 1.763 10812
1.940 -2.494 1.754 7978
1.930 -2.481 1.734 7657
1.942 -2.496 1.732 9284
1.945 -2.500 1.723 9470
2.012 -2.587 1.768 9226
2.041 -2.624 1.780 9859
2.049 -2.634 1.774 11547
2.030 -2.609 1.746 9777
2.116 -2.720 1.803 10020
2.114 -2.718 1.790 10995
2.095 -2.694 1.763 11601
2.098 -2.697 1.753 13084
2.132 -2.740 1.767 12189
2.139 -2.750 1.760 11228
2.142 -2.754 1.750 8751
2.207 -2.837 1.787 11923
2.210 -2.840 1.777 10633
2.208 -2.838 1.763 8959
2.162 -2.780 1.717 7830
2.165 -2.783 1.707 6317
2.319 -2.981 1.806 4685
2.233 -2.870 1.731 4523
2.240 -2.880 1.724 4153
2.256 -2.901 1.723 3742
2.366 -3.042 1.788 3422
2.374 -3.051 1.780 4076
2.403 -3.090 1.788 6451
2.415 -3.105 1.783 10018
2.423 -3.114 1.774 10914
2.426 -3.118 1.763 9012
2.433 -3.128 1.755 7106
2.422 -3.114 1.734 7006
2.421 -3.112 1.720 6351
2.505 -3.220 1.762 6110
2.512 -3.229 1.753 4892
2.614 -3.361 1.805 3983
2.622 -3.370 1.796 5640
2.629 -3.380 1.786 7977
2.637 -3.390 1.777 7318
2.667 -3.428 1.782 5686
2.674 -3.438 1.772 3979
2.750 -3.535 1.804 2722
2.744 -3.528 1.785 1751
2.770 -3.561 1.786 1767
2.759 -3.547 1.765 2682
2.767 -3.556 1.755 4997
2.774 -3.566 1.744 8314
2.772 -3.564 1.729 8371
2.771 -3.562 1.713 6196
2.966 -3.813 1.810 5103
2.964 -3.811 1.793 6132
2.977 -3.826 1.784 5038
3.049 -3.919 1.809 4239
3.047 -3.917 1.792 4736
3.045 -3.915 1.775 4710
3.057 -3.930 1.766 3786
3.074 -3.952 1.759 3848
3.156 -4.057 1.786 3950
3.154 -4.055 1.768 3487
3.222 -4.142 1.787 3154
3.313 -4.259 1.817 3187
3.311 -4.257 1.799 2688
3.356 -4.314 1.804 1884
3.331 -4.282 1.775 1880
3.529 -4.537 1.855 2587
3.537 -4.547 1.841 3069
3.549 -4.563 1.828 3275
3.552 -4.567 1.812 3517
3.555 -4.571 1.795 2966
3.558 -4.574 1.778 2283
3.688 -4.741 1.819 2192
3.714 -4.774 1.813 2284
3.609 -4.640 1.747 2202
3.701 -4.758 1.769 1719
3.911 -5.027 1.843 2246
3.984 -5.122 1.855 2701
3.954 -5.083 1.822 3843
3.990 -5.129 1.817 3845
3.998 -5.139 1.800 3611
4.006 -5.149 1.783 3236
4.093 -5.262 1.799 2956
4.101 -5.272 1.782 2305
4.217 -5.421 1.808 2482
4.230 -5.437 1.791 2322
4.228 -5.435 1.770 1577
4.226 -5.433 1.748 1716
4.442 -5.710 1.809 1565
4.450 -5.720 1.789 1622
4.742 -6.096 1.875 1294
4.546 -5.844 1.780 1406
4.795 -6.165 1.847 1554
4.789 -6.156 1.821 1766
4.987 -6.411 1.867 1282
5.085 -6.537 1.876 994
5.093 -6.547 1.853 1770
5.101 -6.557 1.831 1755
5.104 -6.561 1.807 1481
5.107 -6.565 1.783 1396
5.296 -6.808 1.818 1287
5.709 -7.339 1.922 1214
5.364 -6.895 1.787 1583
5.715 -7.347 1.868 1755
5.719 -7.351 1.841 2224
5.722 -7.355 1.814 1981
5.725 -7.359 1.786 1713
5.727 -7.363 1.759 1583
5.730 -7.366 1.732 1286
5.733 -7.370 1.705 1011
5.736 -7.374 1.678 678
5.739 -7.377 1.651 370
5.754 -7.397 1.488 262
5.756 -7.400 1.461 261
5.710 -7.341 1.368 462
5.717 -7.350 1.342 498
5.647 -7.260 1.300 488
5.644 -7.256 1.272 681
5.646 -7.259 1.245 740
5.663 -7.280 1.221 636
5.592 -7.189 1.181 531
5.440 -6.993 1.126 542
5.441 -6.995 1.101 539
5.424 -6.972 1.072 776
5.425 -6.974 1.046 1057
5.432 -6.983 1.021 891
5.361 -6.891 0.984 970
5.435 -6.987 0.970 996
5.436 -6.988 0.944 959
5.428 -6.978 0.917 750
5.303 -6.818 0.874 501
5.295 -6.807 0.847 622
5.301 -6.815 0.823 584
5.244 -6.742 0.791 528
5.163 -6.637 0.756 696
5.159 -6.632 0.731 824
5.160 -6.634 0.707 783
5.118 -6.579 0.678 714
5.123 -6.586 0.654 686
5.129 -6.594 0.630 501
5.140 -6.607 0.607 268
4.991 -6.416 0.546 260
0.432 -0.556 0.168 256
0.432 -0.556 0.166 260
0.991 -1.274 0.090 257
0.991 -1.274 0.086 250
1.435 -1.859 1.806 3774
1.438 -1.863 1.799 7549
1.445 -1.872 1.797 7573
1.451 -1.881 1.795 7333
1.454 -1.884 1.788 7250
1.457 -1.888 1.781 4896
1.452 -1.882 1.765 2827
1.455 -1.885 1.759 2827
1.482 -1.920 1.779 3155
1.489 -1.929 1.776 3781
1.500 -1.943 1.778 4641
1.507 -1.952 1.776 5652
1.514 -1.961 1.773 4384
1.521 -1.970 1.771 3367
1.523 -1.974 1.763 3320
1.555 -2.014 1.787 3514
1.570 -2.034 1.793 4016
1.585 -2.053 1.798 4003
1.592 -2.062 1.795 4275
1.611 -2.087 1.805 4659
1.626 -2.107 1.810 5584
1.625 -2.105 1.798 6944
1.628 -2.109 1.791 8358
1.631 -2.113 1.783 7055
1.638 -2.122 1.780 5823
1.690 -2.190 1.822 4246
1.693 -2.194 1.814 5008
1.692 -2.192 1.802 4853
1.691 -2.191 1.790 4883
1.690 -2.189 1.778 4124
1.672 -2.166 1.750 3543
1.666 -2.159 1.734 2695
1.786 -2.314 1.839 3122
1.785 -2.312 1.827 3253
1.788 -2.316 1.818 3434
1.774 -2.298 1.794 4000
1.773 -2.297 1.782 5004
1.784 -2.311 1.781 4952
1.808 -2.342 1.792 4744
1.815 -2.352 1.788 4312
1.818 -2.355 1.779 4974
1.821 -2.359 1.771 5636
1.891 -2.451 1.824 7632
1.894 -2.455 1.815 10873
1.897 -2.458 1.806 12404
1.905 -2.468 1.801 11133
1.908 -2.472 1.792 8471
1.915 -2.481 1.787 10125
1.918 -2.485 1.778 12411
1.921 -2.489 1.769 12997
1.928 -2.498 1.763 10331
1.931 -2.502 1.754 7782
1.921 -2.489 1.734 7558
1.932 -2.503 1.732 9131
1.935 -2.507 1.723 9276
2.003 -2.595 1.768 9204
2.031 -2.632 1.780 10522
2.039 -2.641 1.774 12440
2.020 -2.617 1.746 9728
2.105 -2.728 1.803 10535
2.108 -2.732 1.793 11683
2.081 -2.696 1.759 11684
2.088 -2.705 1.753 13165
2.121 -2.749 1.767 12169
2.129 -2.758 1.760 11108
2.193 -2.841 1.797 9891
2.196 -2.845 1.787 13441
2.199 -2.849 1.777 12371
2.197 -2.847 1.763 10815
2.204 -2.856 1.756 7888
2.154 -2.791 1.707 5658
2.307 -2.990 1.806 4513
2.217 -2.873 1.728 5229
2.225 -2.883 1.721 4472
2.245 -2.909 1.723 3810
2.359 -3.056 1.791 3522
2.362 -3.060 1.780 3739
2.396 -3.104 1.791 6200
2.403 -3.114 1.783 9624
2.411 -3.124 1.774 10508
2.418 -3.133 1.766 8692
2.421 -3.137 1.755 7275
2.415 -3.129 1.737 6697
2.485 -3.220 1.770 6801
2.492 -3.229 1.762 7059
2.500 -3.239 1.753 5450
2.602 -3.371 1.805 3457
2.614 -3.386 1.799 5600
2.621 -3.396 1.789 8375
2.624 -3.400 1.777 7327
2.654 -3.439 1.782 5223
2.661 -3.448 1.772 3920
2.737 -3.546 1.804 2605
2.690 -3.485 1.760 2733
2.693 -3.489 1.748 2511
2.723 -3.528 1.751 1924
2.753 -3.567 1.755 3614
2.760 -3.577 1.744 6604
2.759 -3.574 1.729 6956
2.757 -3.572 1.713 5102
3.011 -3.901 1.844 4615
2.954 -3.828 1.796 5035
2.962 -3.838 1.784 4417
3.034 -3.931 1.809 4089
3.032 -3.928 1.792 4655
3.030 -3.926 1.775 4863
3.042 -3.942 1.766 4121
3.055 -3.958 1.756 3843
3.145 -4.075 1.788 3699
3.139 -4.066 1.768 3263
3.289 -4.261 1.830 3315
3.292 -4.265 1.815 3307
3.295 -4.269 1.799 2899
3.316 -4.297 1.793 2174
3.319 -4.301 1.777 2326
3.512 -4.550 1.855 2920
3.520 -4.560 1.841 3308
3.532 -4.576 1.828 3887
3.535 -4.580 1.812 3900
3.538 -4.584 1.795 2743
3.541 -4.588 1.778 1918
3.670 -4.755 1.819 2204
3.598 -4.662 1.768 2274
3.592 -4.653 1.747 2176
3.669 -4.754 1.763 1692
3.793 -4.915 1.799 1998
3.969 -5.143 1.857 2718
3.935 -5.098 1.822 4152
3.966 -5.139 1.815 4202
3.969 -5.142 1.796 3624
3.972 -5.146 1.778 3257
3.979 -5.156 1.761 2452
4.156 -5.385 1.812 2311
4.168 -5.401 1.796 2276
4.308 -5.581 1.831 2063
4.414 -5.719 1.851 1706
4.488 -5.815 1.857 1730
4.491 -5.819 1.836 1481
4.428 -5.737 1.789 1297
4.719 -6.114 1.875 1151
4.722 -6.118 1.853 1366
4.777 -6.189 1.849 1603
4.751 -6.156 1.816 1812
4.750 -6.154 1.792 1261
4.984 -6.458 1.850 965
5.068 -6.566 1.853 1522
5.076 -6.576 1.831 1517
5.084 -6.587 1.808 1287
5.086 -6.590 1.784 1246
5.265 -6.822 1.816 1294
5.339 -6.918 1.814 1200
5.342 -6.922 1.788 1540
5.559 -7.203 1.828 1435
5.691 -7.373 1.841 1849
5.694 -7.377 1.814 1648
5.696 -7.381 1.786 1475
5.699 -7.385 1.759 1362
5.702 -7.388 1.732 1083
5.705 -7.392 1.705 831
5.708 -7.395 1.678 523
5.711 -7.399 1.651 287
5.733 -7.428 1.406 278
5.682 -7.362 1.368 435
5.689 -7.371 1.342 450
5.619 -7.281 1.300 532
5.617 -7.277 1.272 727
5.619 -7.280 1.245 701
5.621 -7.283 1.219 534
5.565 -7.210 1.181 496
5.499 -7.125 1.142 463
5.496 -7.121 1.115 523
5.493 -7.117 1.088 602
5.399 -6.995 1.046 837
5.405 -7.003 1.021 700
5.330 -6.905 0.983 698
5.408 -7.007 0.970 837
5.410 -7.009 0.944 803
5.401 -6.998 0.917 625
5.273 -6.832 0.873 399
5.274 -6.833 0.848 434
5.275 -6.835 0.823 425
5.219 -6.761 0.791 424
5.133 -6.650 0.755 417
5.134 -6.652 0.731 506
5.135 -6.653 0.707 485
5.102 -6.611 0.679 380
5.098 -6.606 0.654 362
5.104 -6.613 0.630 279
0.430 -0.557 0.168 261
0.430 -0.558 0.166 265
1.431 -1.862 1.806 3998
1.434 -1.865 1.799 7997
1.437 -1.869 1.792 7997
1.444 -1.878 1.790 7408
1.451 -1.887 1.788 7049
1.454 -1.891 1.781 4548
1.473 -1.915 1.793 2250
1.475 -1.919 1.786 2250
1.478 -1.923 1.779 2619
1.497 -1.947 1.790 3051
1.500 -1.951 1.783 4050
1.503 -1.955 1.776 5049
1.510 -1.964 1.773 4041
1.545 -2.009 1.801 3425
1.548 -2.013 1.794 3425
1.551 -2.017 1.787 3886
1.554 -2.021 1.780 4361
1.577 -2.051 1.794 4138
1.588 -2.065 1.795 4670
1.611 -2.095 1.809 4921
1.618 -2.105 1.806 6033
1.621 -2.108 1.798 7280
1.624 -2.112 1.791 8528
1.627 -2.116 1.783 7197
1.634 -2.125 1.780 5934
1.686 -2.193 1.822 4440
1.689 -2.197 1.814 5320
1.684 -2.190 1.798 5003
1.683 -2.189 1.786 5056
1.681 -2.187 1.774 4286
1.664 -2.164 1.746 3831
1.662 -2.162 1.734 2904
1.781 -2.317 1.839 2831
1.780 -2.316 1.827 3195
1.779 -2.314 1.814 3619
1.765 -2.296 1.790 4148
1.768 -2.300 1.782 4945
1.771 -2.304 1.773 4600
1.804 -2.346 1.792 4175
1.811 -2.355 1.788 3977
1.814 -2.359 1.779 4582
1.812 -2.357 1.767 5212
1.887 -2.454 1.824 6860
1.890 -2.458 1.815 9784
1.893 -2.462 1.806 11287
1.900 -2.471 1.801 10320
1.920 -2.497 1.807 8205
1.910 -2.485 1.787 9405
1.913 -2.488 1.778 11368
1.916 -2.492 1.769 11944
1.923 -2.501 1.763 9596
1.926 -2.505 1.754 7342
1.985 -2.581 1.792 7232
1.983 -2.580 1.779 8683
1.982 -2.578 1.766 9028
1.998 -2.598 1.768 9039
2.027 -2.636 1.780 10818
2.034 -2.645 1.774 12945
2.032 -2.643 1.760 9684
2.100 -2.732 1.803 10980
2.107 -2.741 1.797 12505
2.076 -2.700 1.759 12048
2.079 -2.703 1.749 13360
2.121 -2.758 1.770 12558
2.123 -2.762 1.760 11392
2.188 -2.845 1.797 10695
2.190 -2.849 1.787 14466
2.193 -2.853 1.777 13533
2.192 -2.851 1.763 12046
2.195 -2.855 1.753 8850
2.198 -2.858 1.742 4965
2.209 -2.874 1.738 4890
2.212 -2.877 1.728 5837
2.219 -2.887 1.721 4720
2.240 -2.913 1.723 3836
2.336 -3.038 1.779 3531
2.409 -3.134 1.818 3818
2.395 -3.115 1.794 5897
2.402 -3.124 1.786 9012
2.405 -3.128 1.774 9854
2.412 -3.138 1.766 8391
2.415 -3.141 1.755 7457
2.414 -3.139 1.740 6731
2.479 -3.224 1.770 7530
2.486 -3.234 1.762 7747
2.489 -3.238 1.750 5814
2.658 -3.457 1.846 3524
2.612 -3.397 1.802 5789
2.615 -3.401 1.789 8564
2.618 -3.405 1.777 6946
2.652 -3.449 1.784 4827
2.659 -3.459 1.775 4093
2.667 -3.469 1.765 3810
2.679 -3.484 1.758 4261
2.686 -3.494 1.748 3829
2.689 -3.498 1.735 2703
2.901 -3.773 1.847 2825
2.749 -3.576 1.742 4865
2.752 -3.579 1.729 5308
2.750 -3.577 1.713 3898
2.999 -3.901 1.841 5079
3.002 -3.905 1.827 4382
2.959 -3.849 1.787 3834
3.026 -3.936 1.809 3937
3.025 -3.934 1.792 4342
3.023 -3.932 1.775 4621
3.035 -3.948 1.766 4095
3.047 -3.963 1.756 3607
3.137 -4.080 1.788 3385
3.264 -4.246 1.838 3659
3.276 -4.261 1.828 3540
3.284 -4.271 1.815 3368
3.287 -4.275 1.799 3123
3.304 -4.297 1.790 2580
3.311 -4.307 1.777 2679
3.499 -4.551 1.853 3053
3.507 -4.561 1.838 3385
3.519 -4.577 1.826 4253
3.527 -4.587 1.812 4030
3.530 -4.591 1.795 2375
3.648 -4.745 1.832 1803
3.661 -4.761 1.819 2105
3.585 -4.662 1.766 2239
3.583 -4.660 1.747 2125
3.781 -4.918 1.817 1808
3.989 -5.189 1.890 2071
3.964 -5.156 1.859 2592
3.930 -5.112 1.824 4334
3.933 -5.116 1.805 4511
3.959 -5.150 1.796 3569
3.962 -5.154 1.778 3127
3.970 -5.163 1.761 2244
4.141 -5.386 1.810 2140
4.294 -5.585 1.851 2509
4.297 -5.589 1.831 2288
4.399 -5.721 1.849 1893
4.397 -5.719 1.826 1660
4.480 -5.827 1.836 1421
4.488 -5.837 1.816 1117
4.693 -6.104 1.870 1109
4.706 -6.120 1.851 1388
4.709 -6.124 1.828 1693
4.740 -6.165 1.816 1801
4.738 -6.163 1.792 1295
4.987 -6.486 1.854 1114
4.862 -6.324 1.787 1367
5.064 -6.586 1.831 1212
5.076 -6.602 1.810 1050
5.240 -6.815 1.838 1248
5.243 -6.819 1.813 1322
5.331 -6.934 1.815 1206
5.334 -6.938 1.790 1442
5.546 -7.213 1.828 1373
5.677 -7.384 1.841 1506
5.680 -7.387 1.814 1329
5.683 -7.391 1.786 1238
5.686 -7.395 1.759 1094
5.689 -7.399 1.732 807
5.691 -7.402 1.705 639
5.694 -7.406 1.678 394
5.712 -7.429 1.488 261
5.719 -7.439 1.406 262
5.673 -7.379 1.369 428
5.676 -7.382 1.342 416
5.611 -7.298 1.301 411
5.608 -7.294 1.273 573
5.605 -7.290 1.245 498
5.554 -7.224 1.208 433
5.552 -7.221 1.181 426
5.486 -7.136 1.142 410
5.483 -7.132 1.115 458
5.480 -7.128 1.088 542
5.391 -7.011 1.047 625
5.397 -7.020 1.022 515
5.398 -7.022 0.996 517
5.395 -7.017 0.970 625
5.397 -7.019 0.944 601
5.388 -7.008 0.917 482
5.260 -6.841 0.873 326
5.261 -6.843 0.848 308
5.267 -6.851 0.824 272
5.206 -6.771 0.791 253
5.123 -6.663 0.707 268
5.090 -6.620 0.679 276
5.086 -6.615 0.654 250
0.429 -0.558 0.168 256
0.429 -0.558 0.166 266
1.422 -1.861 1.801 4119
1.425 -1.864 1.795 8238
1.428 -1.868 1.788 8238
1.439 -1.882 1.790 7307
1.445 -1.891 1.788 6677
1.448 -1.895 1.781 4175
1.487 -1.945 1.815 2273
1.490 -1.949 1.808 2273
1.496 -1.958 1.806 2547
1.503 -1.967 1.803 2847
1.494 -1.956 1.783 3543
1.497 -1.959 1.776 4419
1.504 -1.968 1.773 3595
1.539 -2.014 1.801 3555
1.542 -2.018 1.794 3555
1.545 -2.022 1.787 4107
1.548 -2.025 1.780 4638
1.571 -2.056 1.794 4260
1.582 -2.070 1.795 5235
1.601 -2.095 1.805 5285
1.612 -2.109 1.806 6487
1.615 -2.113 1.798 7430
1.618 -2.117 1.791 8374
1.621 -2.121 1.783 7047
1.628 -2.130 1.780 5749
1.680 -2.198 1.822 4533
1.683 -2.202 1.814 5478
1.677 -2.195 1.798 5031
1.672 -2.188 1.782 5089
1.671 -2.187 1.770 4404
1.657 -2.169 1.746 4084
1.660 -2.172 1.738 3126
1.775 -2.322 1.839 2608
1.773 -2.321 1.827 3181
1.772 -2.319 1.814 3852
1.759 -2.301 1.790 4328
1.757 -2.300 1.778 4968
1.760 -2.304 1.769 4409
1.801 -2.356 1.796 3654
1.804 -2.360 1.788 3576
1.802 -2.359 1.775 4128
1.805 -2.362 1.767 4729
1.880 -2.460 1.824 5926
1.878 -2.458 1.811 8573
1.886 -2.468 1.806 10051
1.897 -2.482 1.804 9448
1.913 -2.503 1.807 7969
1.903 -2.490 1.787 8610
1.906 -2.494 1.778 10166
1.909 -2.498 1.769 10655
1.916 -2.507 1.763 8663
1.919 -2.511 1.754 6754
1.981 -2.593 1.796 6684
1.976 -2.585 1.779 8336
1.979 -2.589 1.770 8901
1.986 -2.599 1.764 8918
2.014 -2.636 1.776 10743
2.026 -2.651 1.774 12955
2.033 -2.661 1.768 9530
2.092 -2.738 1.803 11291
2.099 -2.747 1.797 13518
2.111 -2.762 1.794 13276
2.105 -2.755 1.777 13712
2.113 -2.764 1.770 12757
2.115 -2.768 1.760 11440
2.179 -2.852 1.797 10992
2.182 -2.855 1.787 14789
2.181 -2.854 1.773 14030
2.179 -2.852 1.760 12661
2.186 -2.861 1.753 9368
2.189 -2.865 1.742 5519
2.201 -2.880 1.738 5448
2.204 -2.884 1.728 6081
2.207 -2.887 1.718 4701
2.236 -2.926 1.726 3767
2.322 -3.039 1.775 3580
2.400 -3.141 1.818 4164
2.390 -3.127 1.797 5641
2.393 -3.131 1.786 8344
2.396 -3.135 1.774 9130
2.403 -3.145 1.766 7969
2.406 -3.148 1.755 7362
2.409 -3.152 1.743 6611
2.470 -3.232 1.770 7941
2.477 -3.241 1.762 8125
2.480 -3.245 1.750 5860
2.643 -3.459 1.843 4590
2.606 -3.410 1.805 6154
2.609 -3.414 1.792 8665
2.612 -3.418 1.780 6385
2.646 -3.463 1.787 4879
2.649 -3.467 1.775 4712
2.657 -3.477 1.765 5290
2.669 -3.492 1.758 5758
2.676 -3.502 1.748 5125
2.679 -3.505 1.735 3909
2.889 -3.781 1.847 3129
2.892 -3.785 1.833 4346
2.737 -3.582 1.726 3755
2.966 -3.882 1.845 3708
2.988 -3.909 1.841 5411
2.995 -3.919 1.830 4990
3.003 -3.929 1.818 3441
3.015 -3.945 1.809 3741
3.013 -3.943 1.792 3932
3.011 -3.941 1.775 4172
3.024 -3.956 1.766 3779
3.191 -4.175 1.840 3468
3.125 -4.090 1.788 3086
3.247 -4.249 1.836 4197
3.259 -4.265 1.825 3621
3.276 -4.287 1.817 3358
3.274 -4.285 1.799 3320
3.291 -4.307 1.790 2928
3.299 -4.317 1.777 2856
3.486 -4.561 1.853 3070
3.493 -4.571 1.838 3378
3.506 -4.587 1.826 4545
3.513 -4.597 1.812 4137
3.511 -4.595 1.793 2249
3.635 -4.756 1.832 1822
3.647 -4.772 1.819 1972
3.571 -4.673 1.766 2121
3.569 -4.671 1.747 1984
3.762 -4.923 1.815 1953
3.974 -5.200 1.890 2300
3.963 -5.186 1.865 2432
3.915 -5.123 1.824 4279
3.918 -5.127 1.805 4580
3.944 -5.161 1.796 3372
3.947 -5.165 1.778 2856
3.950 -5.169 1.759 1898
4.126 -5.399 1.810 1952
4.278 -5.598 1.851 2643
4.276 -5.596 1.829 2495
4.279 -5.600 1.808 2060
4.380 -5.732 1.826 1878
4.458 -5.834 1.834 1281
4.616 -6.040 1.871 1204
4.656 -6.093 1.863 1148
4.683 -6.128 1.849 1470
4.695 -6.144 1.830 1779
4.717 -6.173 1.814 1768
4.725 -6.183 1.794 1328
4.968 -6.500 1.854 1203
4.844 -6.338 1.787 1322
4.969 -6.502 1.805 1220
5.123 -6.703 1.832 1070
5.201 -6.806 1.832 1383
5.213 -6.822 1.810 1417
5.311 -6.950 1.815 1155
5.512 -7.213 1.852 1387
5.525 -7.229 1.828 1323
5.655 -7.400 1.841 1202
5.658 -7.404 1.814 1039
5.661 -7.408 1.786 1019
5.664 -7.412 1.759 867
5.667 -7.415 1.732 608
5.670 -7.419 1.705 478
5.672 -7.423 1.678 255
5.697 -7.455 1.406 301
5.699 -7.458 1.379 383
5.659 -7.405 1.343 330
5.585 -7.308 1.300 328
5.587 -7.310 1.273 449
5.589 -7.313 1.246 418
5.538 -7.247 1.209 354
5.530 -7.237 1.181 322
5.465 -7.152 1.142 330
5.462 -7.148 1.115 380
5.459 -7.144 1.088 456
5.370 -7.027 1.047 431
5.381 -7.042 1.023 372
5.378 -7.037 0.996 380
5.379 -7.039 0.970 453
5.376 -7.035 0.944 425
5.368 -7.024 0.917 345
0.428 -0.560 0.166 257
1.415 -1.858 1.797 4239
1.418 -1.861 1.790 8479
1.421 -1.865 1.783 8479
1.432 -1.879 1.786 7242
1.439 -1.888 1.784 6335
1.445 -1.897 1.781 4132
1.476 -1.937 1.806 2308
1.479 -1.941 1.799 2308
1.498 -1.966 1.810 2614
1.501 -1.969 1.803 2940
1.499 -1.968 1.792 3078
1.494 -1.962 1.776 3595
1.505 -1.976 1.778 3027
1.536 -2.016 1.801 3680
1.539 -2.020 1.794 3680
1.542 -2.024 1.787 4343
1.545 -2.028 1.780 4955
1.568 -2.058 1.794 4490
1.579 -2.072 1.795 5931
1.598 -2.097 1.805 5800
1.609 -2.112 1.806 7116
1.612 -2.116 1.798 7662
1.615 -2.119 1.791 8207
1.618 -2.123 1.783 6844
1.625 -2.132 1.780 5529
1.676 -2.200 1.822 4487
1.679 -2.204 1.814 5528
1.674 -2.197 1.798 5050
1.669 -2.191 1.782 5159
1.660 -2.178 1.762 4563
1.654 -2.171 1.746 4277
1.657 -2.175 1.738 3334
1.660 -2.179 1.730 2391
1.766 -2.318 1.823 3119
1.769 -2.322 1.814 3905
1.751 -2.298 1.786 4568
1.754 -2.302 1.778 5091
1.757 -2.306 1.769 4430
1.797 -2.359 1.796 3283
1.800 -2.363 1.788 3387
1.799 -2.361 1.775 3923
1.798 -2.360 1.763 4507
1.876 -2.462 1.824 4912
1.875 -2.461 1.811 7335
1.882 -2.470 1.806 8765
1.893 -2.485 1.804 8556
1.909 -2.506 1.807 7578
1.899 -2.493 1.787 7672
1.902 -2.497 1.778 8794
1.905 -2.501 1.769 9195
1.912 -2.510 1.763 7575
1.915 -2.514 1.754 5990
1.978 -2.596 1.796 6012
1.972 -2.588 1.779 7775
1.975 -2.592 1.770 8556
1.982 -2.602 1.764 8580
2.015 -2.645 1.780 10358
2.031 -2.665 1.781 12760
2.046 -2.686 1.782 9690
2.088 -2.741 1.803 11592
2.100 -2.756 1.800 14693
2.107 -2.766 1.794 14611
2.101 -2.758 1.777 14331
2.104 -2.762 1.767 12821
2.111 -2.771 1.760 11581
2.175 -2.855 1.797 10856
2.178 -2.859 1.787 14705
2.176 -2.857 1.773 14253
2.175 -2.855 1.760 13085
2.178 -2.859 1.749 9760
2.185 -2.868 1.742 5940
2.197 -2.883 1.738 5722
2.199 -2.887 1.728 6088
2.202 -2.891 1.718 4592
2.306 -3.027 1.780 3762
2.318 -3.042 1.775 3560
2.396 -3.144 1.818 4473
2.390 -3.137 1.800 5337
2.388 -3.135 1.786 7394
2.396 -3.144 1.777 8138
2.399 -3.148 1.766 7236
2.401 -3.152 1.755 6894
2.404 -3.156 1.743 6156
2.465 -3.235 1.770 8053
2.472 -3.245 1.762 8182
2.475 -3.249 1.750 5623
2.638 -3.463 1.843 5637
2.615 -3.432 1.813 6608
2.609 -3.424 1.795 8437
2.607 -3.422 1.780 5544
2.646 -3.473 1.790 5357
2.649 -3.477 1.777 5429
2.656 -3.486 1.768 6754
2.663 -3.496 1.758 7146
2.671 -3.506 1.748 6407
2.669 -3.503 1.732 5229
2.676 -3.513 1.722 3605
2.891 -3.795 1.836 4416
2.922 -3.835 1.838 3826
2.961 -3.886 1.845 3542
2.977 -3.908 1.839 5602
2.989 -3.924 1.830 5370
2.997 -3.934 1.818 3684
3.009 -3.949 1.809 3518
3.107 -4.079 1.847 3634
3.115 -4.089 1.835 3712
3.132 -4.110 1.828 3810
3.189 -4.186 1.842 3574
3.224 -4.232 1.844 3567
3.241 -4.254 1.836 4620
3.249 -4.264 1.823 3561
3.270 -4.292 1.817 3066
3.273 -4.296 1.801 3384
3.285 -4.312 1.790 3167
3.288 -4.315 1.775 2791
3.479 -4.566 1.853 2869
3.487 -4.576 1.838 3227
3.494 -4.586 1.824 4691
3.506 -4.602 1.812 4115
3.505 -4.600 1.793 2109
3.628 -4.761 1.832 1772
3.640 -4.777 1.819 1790
3.564 -4.678 1.766 1947
3.562 -4.676 1.747 1826
3.755 -4.929 1.815 1993
3.966 -5.206 1.890 2482
3.969 -5.210 1.871 2703
3.908 -5.129 1.824 3985
3.911 -5.133 1.805 4379
3.932 -5.161 1.794 3046
3.977 -5.220 1.793 2887
4.115 -5.401 1.830 1812
4.118 -5.405 1.810 1750
4.265 -5.598 1.849 2840
4.268 -5.602 1.829 2729
4.271 -5.606 1.808 2205
4.372 -5.739 1.826 2016
4.450 -5.841 1.834 1235
4.607 -6.047 1.871 1208
4.648 -6.100 1.863 1256
4.669 -6.129 1.847 1545
4.686 -6.151 1.830 1810
4.703 -6.173 1.813 1781
4.852 -6.368 1.842 1364
4.958 -6.508 1.854 1218
4.839 -6.351 1.789 1310
4.955 -6.503 1.804 1289
5.113 -6.711 1.832 1163
5.191 -6.813 1.832 1521
5.199 -6.824 1.809 1506
5.503 -7.223 1.880 1162
5.615 -7.369 1.887 1524
5.618 -7.374 1.860 1395
5.526 -7.254 1.805 1023
5.624 -7.381 1.806 883
5.631 -7.391 1.781 1010
5.653 -7.420 1.759 731
5.656 -7.424 1.732 481
5.659 -7.427 1.705 380
5.686 -7.464 1.406 291
5.689 -7.467 1.379 321
5.691 -7.469 1.352 309
5.579 -7.322 1.301 293
5.571 -7.312 1.272 379
5.573 -7.315 1.245 321
5.523 -7.249 1.208 290
5.520 -7.245 1.181 267
5.452 -7.156 1.115 290
5.449 -7.152 1.088 361
5.450 -7.154 1.062 278
5.385 -7.068 1.025 263
5.372 -7.051 0.997 276
5.369 -7.047 0.970 321
5.366 -7.043 0.944 296
1.406 -1.857 1.792 4357
1.409 -1.861 1.785 8715
1.411 -1.865 1.779 8715
1.418 -1.874 1.777 7207
1.429 -1.888 1.779 6043
1.436 -1.897 1.777 4154
1.442 -1.906 1.775 2450
1.445 -1.909 1.768 2450
1.491 -1.970 1.810 2777
1.494 -1.974 1.803 3132
1.497 -1.978 1.796 2899
1.488 -1.966 1.776 2925
1.523 -2.012 1.804 2802
1.530 -2.021 1.801 3772
1.533 -2.025 1.794 3772
1.536 -2.029 1.787 4633
1.535 -2.027 1.775 5441
1.557 -2.057 1.790 4946
1.572 -2.077 1.795 6688
1.591 -2.102 1.805 6329
1.602 -2.117 1.806 7703
1.605 -2.121 1.798 7804
1.608 -2.124 1.791 7905
1.611 -2.128 1.783 6550
1.618 -2.137 1.780 5230
1.621 -2.141 1.772 4442
1.673 -2.210 1.814 5477
1.663 -2.197 1.794 5078
1.658 -2.190 1.778 5384
1.649 -2.178 1.758 4843
1.647 -2.176 1.746 4496
1.695 -2.240 1.782 3565
1.702 -2.249 1.778 2888
1.755 -2.318 1.819 3096
1.758 -2.322 1.810 3978
1.744 -2.304 1.786 4834
1.743 -2.302 1.774 5376
1.750 -2.312 1.769 4637
1.761 -2.326 1.769 3234
1.793 -2.369 1.788 3318
1.792 -2.367 1.775 3744
1.790 -2.365 1.763 4269
1.864 -2.463 1.820 3962
1.863 -2.461 1.807 6128
1.870 -2.471 1.802 7571
1.890 -2.497 1.808 7795
1.901 -2.512 1.807 7312
1.896 -2.504 1.790 6792
1.894 -2.503 1.778 7342
1.897 -2.506 1.769 7631
1.904 -2.516 1.763 6363
1.907 -2.520 1.754 5105
1.969 -2.602 1.796 5240
1.964 -2.594 1.779 7200
1.967 -2.598 1.770 8232
1.974 -2.608 1.764 8195
2.028 -2.679 1.797 10211
2.031 -2.683 1.788 12579
2.042 -2.698 1.785 9876
2.084 -2.753 1.807 11436
2.091 -2.763 1.800 15305
2.098 -2.772 1.794 15431
2.097 -2.770 1.780 14732
2.095 -2.768 1.767 12781
2.103 -2.778 1.760 11474
2.166 -2.862 1.797 10071
2.169 -2.865 1.787 14014
2.168 -2.864 1.773 13937
2.166 -2.862 1.760 13069
2.169 -2.865 1.749 9898
2.176 -2.875 1.742 6279
2.188 -2.890 1.738 5943
2.190 -2.894 1.728 5948
2.193 -2.897 1.718 4312
2.288 -3.023 1.774 3865
2.304 -3.044 1.772 3496
2.386 -3.152 1.818 4613
2.380 -3.144 1.800 4860
2.378 -3.142 1.786 6300
2.386 -3.152 1.777 7063
2.389 -3.156 1.766 6323
2.392 -3.159 1.755 6180
2.456 -3.245 1.785 5827
2.455 -3.243 1.770 7885
2.462 -3.253 1.762 7972
2.465 -3.256 1.750 5170
2.628 -3.471 1.843 6489
2.613 -3.452 1.819 7198
2.602 -3.438 1.798 8190
2.636 -3.483 1.805 6112
2.639 -3.487 1.793 6133
2.638 -3.485 1.777 6226
2.645 -3.495 1.768 7979
2.653 -3.504 1.758 8288
2.660 -3.514 1.748 7517
2.658 -3.512 1.732 6402
2.665 -3.521 1.722 4596
2.880 -3.804 1.836 4260
2.910 -3.844 1.838 3933
2.944 -3.889 1.842 3387
2.961 -3.911 1.836 5613
2.977 -3.933 1.830 5489
2.985 -3.943 1.818 3841
2.997 -3.959 1.809 3407
3.090 -4.082 1.845 4087
3.102 -4.098 1.835 3910
3.119 -4.120 1.828 4127
3.126 -4.130 1.815 3720
3.211 -4.242 1.844 4100
3.223 -4.258 1.834 5045
3.231 -4.268 1.821 3522
3.229 -4.266 1.803 2908
3.264 -4.312 1.804 3214
3.271 -4.322 1.790 3162
3.274 -4.326 1.775 2576
3.465 -4.577 1.853 2624
3.468 -4.581 1.836 3044
3.480 -4.597 1.824 4665
3.487 -4.607 1.809 3974
3.490 -4.611 1.793 2009
3.668 -4.846 1.859 1725
3.680 -4.862 1.845 1717
3.545 -4.683 1.764 1613
3.552 -4.693 1.749 1621
3.740 -4.940 1.815 1885
3.950 -5.219 1.890 2561
3.953 -5.223 1.871 3076
3.915 -5.172 1.834 3583
3.894 -5.145 1.805 3895
3.962 -5.234 1.814 2981
3.965 -5.238 1.795 3168
3.977 -5.254 1.780 2018
4.091 -5.405 1.807 1714
4.248 -5.611 1.849 2885
4.251 -5.615 1.829 2797
4.253 -5.619 1.808 2248
4.354 -5.752 1.826 2125
4.427 -5.848 1.832 1257
4.635 -6.123 1.889 1326
4.628 -6.115 1.863 1385
4.645 -6.137 1.846 1618
4.667 -6.166 1.830 1736
4.679 -6.182 1.811 1790
4.841 -6.396 1.845 1400
4.886 -6.455 1.836 1259
4.917 -6.496 1.823 1357
4.925 -6.506 1.801 1339
5.092 -6.727 1.832 1179
5.170 -6.830 1.832 1576
5.177 -6.840 1.809 1527
5.481 -7.240 1.880 1280
5.596 -7.393 1.889 1625
5.599 -7.397 1.862 1501
5.569 -7.358 1.825 914
5.605 -7.405 1.808 766
5.608 -7.409 1.781 957
5.616 -7.419 1.755 709
5.628 -7.435 1.731 426
5.635 -7.445 1.705 327
5.665 -7.484 1.379 287
5.671 -7.493 1.297 259
1.398 -1.855 1.787 4431
1.401 -1.858 1.781 8862
1.404 -1.862 1.774 8862
1.411 -1.871 1.772 7255
1.421 -1.885 1.774 5893
1.432 -1.899 1.777 4282
1.439 -1.908 1.775 3044
1.442 -1.912 1.768 3044
1.491 -1.978 1.815 2994
1.490 -1.977 1.803 3445
1.493 -1.981 1.796 2871
1.484 -1.969 1.776 2358
1.523 -2.020 1.809 2647
1.526 -2.024 1.801 3662
1.529 -2.028 1.794 3662
1.532 -2.032 1.787 4735
1.531 -2.030 1.775 5764
1.553 -2.061 1.790 5285
1.568 -2.080 1.795 7174
1.587 -2.105 1.805 6821
1.598 -2.120 1.806 8317
1.601 -2.124 1.798 7971
1.604 -2.128 1.791 7624
1.607 -2.131 1.783 6254
1.614 -2.141 1.780 4899
1.617 -2.144 1.772 4403
1.668 -2.213 1.814 5384
1.655 -2.195 1.790 5211
1.650 -2.188 1.774 5840
1.648 -2.187 1.762 5219
1.688 -2.239 1.791 4908
1.691 -2.243 1.782 4138
1.702 -2.258 1.783 3501
1.734 -2.300 1.803 3283
1.753 -2.325 1.810 3963
1.735 -2.302 1.782 5022
1.738 -2.306 1.774 5627
1.741 -2.310 1.765 4925
1.760 -2.335 1.773 3434
1.788 -2.372 1.788 3381
1.787 -2.370 1.775 3705
1.786 -2.369 1.763 4172
1.855 -2.461 1.816 3283
1.858 -2.465 1.807 5146
1.865 -2.474 1.802 6624
1.885 -2.500 1.808 7305
1.896 -2.515 1.807 7032
1.899 -2.519 1.798 5944
1.889 -2.506 1.778 5783
1.897 -2.516 1.772 5948
1.899 -2.520 1.763 5000
1.902 -2.523 1.754 4080
1.964 -2.606 1.796 4227
1.959 -2.598 1.779 6506
1.962 -2.602 1.770 7858
1.969 -2.612 1.764 7776
2.023 -2.683 1.797 10030
2.030 -2.693 1.791 12298
2.037 -2.702 1.785 10031
2.078 -2.757 1.807 11114
2.086 -2.767 1.800 15399
2.089 -2.770 1.790 15540
2.091 -2.774 1.780 14477
2.090 -2.772 1.767 12261
2.097 -2.782 1.760 11039
2.100 -2.786 1.750 9664
2.163 -2.870 1.787 13105
2.162 -2.868 1.773 13173
2.160 -2.866 1.760 12393
2.163 -2.870 1.749 9442
2.170 -2.879 1.742 6143
2.182 -2.894 1.738 5788
2.185 -2.898 1.728 5490
2.236 -2.965 1.753 4043
2.278 -3.021 1.771 4132
2.285 -3.031 1.763 3982
2.384 -3.162 1.821 4607
2.383 -3.160 1.806 4361
2.372 -3.147 1.786 5221
2.380 -3.157 1.777 5981
2.387 -3.166 1.769 5350
2.390 -3.170 1.758 5286
2.450 -3.250 1.785 5503
2.448 -3.248 1.770 7421
2.456 -3.257 1.762 7438
2.458 -3.261 1.750 4565
2.621 -3.476 1.843 6960
2.610 -3.463 1.822 7556
2.600 -3.449 1.801 7629
2.630 -3.488 1.805 6693
2.633 -3.492 1.793 6818
2.635 -3.496 1.780 6958
2.638 -3.500 1.768 8751
2.646 -3.509 1.758 9043
2.653 -3.519 1.748 8402
2.651 -3.517 1.732 7362
2.659 -3.527 1.722 5378
2.872 -3.810 1.836 3884
2.902 -3.850 1.838 3816
2.936 -3.895 1.842 3477
2.953 -3.917 1.836 5532
2.969 -3.939 1.830 5368
2.977 -3.949 1.818 3821
2.989 -3.965 1.809 3212
3.082 -4.088 1.845 4379
3.090 -4.098 1.833 3971
3.111 -4.126 1.828 4156
3.114 -4.130 1.813 3673
3.203 -4.248 1.844 4367
3.215 -4.264 1.834 5141
3.204 -4.250 1.811 3635
3.207 -4.254 1.796 3227
3.269 -4.336 1.811 3110
3.263 -4.328 1.790 2956
3.266 -4.332 1.775 2232
3.456 -4.584 1.853 2387
3.463 -4.594 1.838 2817
3.466 -4.598 1.822 4426
3.478 -4.614 1.809 3676
3.481 -4.618 1.793 1893
3.658 -4.853 1.859 1821
3.634 -4.820 1.828 1644
3.673 -4.873 1.828 1306
3.543 -4.700 1.749 1500
3.730 -4.948 1.815 1649
3.949 -5.238 1.894 2678
3.943 -5.230 1.871 3352
3.932 -5.216 1.846 4028
3.935 -5.220 1.827 3589
3.957 -5.248 1.816 3268
3.959 -5.252 1.797 3411
3.967 -5.262 1.780 2395
4.224 -5.603 1.866 1791
4.232 -5.614 1.847 2884
4.240 -5.624 1.829 2799
4.242 -5.628 1.808 2220
4.343 -5.761 1.826 2145
4.411 -5.851 1.830 1347
4.618 -6.126 1.887 1511
4.621 -6.130 1.865 1529
4.633 -6.146 1.846 1649
4.650 -6.169 1.828 1587
4.667 -6.191 1.811 1704
4.833 -6.411 1.847 1485
4.878 -6.471 1.838 1633
4.900 -6.500 1.821 1677
4.912 -6.516 1.801 1469
5.214 -6.916 1.877 1259
5.156 -6.840 1.832 1514
5.164 -6.850 1.809 1459
5.471 -7.257 1.881 1373
5.582 -7.404 1.889 1638
5.594 -7.421 1.865 1520
5.489 -7.282 1.805 879
5.516 -7.317 1.785 659
5.594 -7.420 1.781 819
5.601 -7.430 1.755 654
5.609 -7.440 1.730 378
5.621 -7.456 1.705 262
1.393 -1.858 1.787 4429
1.396 -1.862 1.781 8859
1.399 -1.866 1.774 8859
1.406 -1.875 1.772 7241
1.412 -1.884 1.770 5779
1.427 -1.903 1.777 4409
1.434 -1.912 1.775 3705
1.437 -1.916 1.768 3705
1.443 -1.925 1.765 3399
1.481 -1.976 1.799 3831
1.484 -1.980 1.792 2981
1.495 -1.994 1.794 2160
1.518 -2.024 1.809 2543
1.520 -2.028 1.801 3563
1.523 -2.032 1.794 3563
1.526 -2.036 1.787 4824
1.525 -2.034 1.775 6044
1.548 -2.065 1.790 5755
1.563 -2.084 1.795 7722
1.582 -2.110 1.805 7238
1.593 -2.124 1.806 8740
1.595 -2.128 1.798 7853
1.598 -2.132 1.791 6966
1.601 -2.136 1.783 5667
1.608 -2.145 1.780 4383
1.627 -2.170 1.789 4262
1.658 -2.212 1.810 5306
1.645 -2.194 1.786 5273
1.644 -2.193 1.774 5899
1.643 -2.191 1.762 5243
1.682 -2.244 1.791 5382
1.689 -2.253 1.787 4656
1.696 -2.262 1.783 4117
1.703 -2.271 1.778 3686
1.735 -2.314 1.798 3980
1.729 -2.306 1.782 5132
1.732 -2.310 1.774 5815
1.735 -2.314 1.765 5222
1.758 -2.345 1.777 3811
1.778 -2.371 1.784 3556
1.777 -2.370 1.772 3696
1.775 -2.368 1.759 3996
1.778 -2.372 1.751 3193
1.847 -2.464 1.803 4340
1.863 -2.485 1.806 5995
1.883 -2.511 1.812 7316
1.894 -2.526 1.811 7176
1.897 -2.530 1.801 5582
1.887 -2.517 1.781 4214
1.890 -2.521 1.772 4259
1.893 -2.525 1.763 3583
1.967 -2.624 1.816 3067
1.970 -2.628 1.807 3438
1.952 -2.603 1.779 5815
1.959 -2.613 1.774 7375
1.962 -2.617 1.764 7186
2.020 -2.694 1.801 9906
2.023 -2.698 1.791 12168
2.030 -2.708 1.785 10264
2.071 -2.763 1.807 10723
2.078 -2.772 1.800 15345
2.081 -2.776 1.790 15597
2.084 -2.780 1.780 14214
2.087 -2.784 1.770 11478
2.090 -2.787 1.760 10124
2.093 -2.791 1.750 9081
2.160 -2.881 1.790 12100
2.159 -2.879 1.777 12269
2.153 -2.872 1.760 11534
2.156 -2.875 1.749 8856
2.163 -2.885 1.742 5941
2.174 -2.900 1.738 5527
2.177 -2.904 1.728 4888
2.228 -2.971 1.753 4034
2.270 -3.027 1.771 4489
2.277 -3.037 1.763 4877
2.376 -3.169 1.821 4495
2.374 -3.167 1.806 3785
2.364 -3.153 1.786 4038
2.371 -3.163 1.777 4709
2.383 -3.178 1.772 4221
2.386 -3.182 1.761 4346
2.441 -3.256 1.785 4994
2.440 -3.254 1.770 6699
2.447 -3.264 1.762 6607
2.609 -3.479 1.856 3964
2.612 -3.483 1.843 7078
2.606 -3.476 1.825 7643
2.595 -3.462 1.804 6883
2.625 -3.501 1.808 6962
2.628 -3.505 1.796 7364
2.626 -3.503 1.780 7453
2.634 -3.513 1.770 9009
2.636 -3.516 1.758 9181
2.644 -3.526 1.748 8814
2.642 -3.524 1.732 7974
2.649 -3.534 1.722 5962
2.652 -3.537 1.710 4054
2.892 -3.857 1.838 3480
2.926 -3.903 1.842 3918
2.938 -3.919 1.833 5374
2.959 -3.947 1.830 5057
2.962 -3.951 1.815 3743
2.969 -3.961 1.804 3061
3.071 -4.096 1.845 4483
3.079 -4.106 1.833 3959
3.104 -4.140 1.830 4084
3.103 -4.138 1.813 3529
3.191 -4.257 1.844 4443
3.203 -4.273 1.834 5203
3.193 -4.259 1.811 4017
3.196 -4.263 1.796 3564
3.262 -4.351 1.813 3414
3.261 -4.349 1.795 2997
3.254 -4.341 1.775 1934
3.430 -4.575 1.846 2158
3.451 -4.603 1.838 2539
3.454 -4.607 1.822 3917
3.462 -4.617 1.807 3245
3.524 -4.700 1.819 1871
3.641 -4.856 1.856 1920
3.626 -4.836 1.830 1659
3.661 -4.882 1.828 1536
3.664 -4.886 1.810 1462
3.941 -5.257 1.917 1856
3.940 -5.255 1.896 2782
3.929 -5.241 1.871 3524
3.918 -5.226 1.846 4564
3.926 -5.236 1.829 4384
3.943 -5.259 1.816 3631
3.950 -5.269 1.799 3516
3.953 -5.273 1.780 2632
4.191 -5.590 1.858 1876
4.217 -5.625 1.847 2695
4.225 -5.635 1.829 2629
4.232 -5.645 1.810 2073
4.323 -5.766 1.824 2027
4.391 -5.856 1.828 1352
4.602 -6.138 1.887 1694
4.605 -6.142 1.865 1637
4.617 -6.158 1.846 1585
4.866 -6.490 1.914 1535
4.874 -6.501 1.892 2041
4.877 -6.505 1.868 1842
4.861 -6.484 1.838 2036
4.869 -6.494 1.816 2051
4.890 -6.523 1.799 1596
5.196 -6.930 1.877 1557
5.203 -6.940 1.854 1491
5.146 -6.864 1.809 1276
5.452 -7.272 1.881 1461
5.572 -7.431 1.892 1578
5.584 -7.448 1.868 1497
5.470 -7.296 1.805 832
5.496 -7.331 1.785 582
5.579 -7.441 1.782 674
5.582 -7.445 1.755 597
5.589 -7.455 1.730 366
1.390 -1.861 1.787 3853
1.393 -1.865 1.781 7707
1.395 -1.869 1.774 7707
1.398 -1.872 1.767 6563
1.405 -1.881 1.765 5461
1.420 -1.901 1.772 4374
1.430 -1.915 1.775 4133
1.433 -1.919 1.768 4133
1.440 -1.928 1.765 3849
1.474 -1.973 1.794 4165
1.477 -1.977 1.787 3219
1.480 -1.981 1.780 2273
1.518 -2.032 1.813 2387
1.517 -2.031 1.801 3342
1.520 -2.035 1.794 3342
1.522 -2.039 1.787 4886
1.525 -2.042 1.780 6402
1.544 -2.067 1.790 6344
1.559 -2.087 1.795 8216
1.578 -2.112 1.805 7621
1.589 -2.127 1.806 9212
1.595 -2.136 1.803 8008
1.598 -2.140 1.795 6805
1.601 -2.144 1.787 5422
1.616 -2.164 1.792 4358
1.623 -2.173 1.789 4377
1.654 -2.215 1.810 5032
1.637 -2.192 1.781 5134
1.640 -2.196 1.774 5597
1.639 -2.194 1.762 4981
1.678 -2.247 1.791 5776
1.685 -2.256 1.787 5189
1.692 -2.265 1.783 4751
1.699 -2.275 1.778 4123
1.726 -2.311 1.794 3867
1.721 -2.304 1.778 5085
1.724 -2.308 1.770 5985
1.731 -2.317 1.765 5525
1.758 -2.354 1.781 4354
1.773 -2.375 1.784 4013
1.772 -2.373 1.772 3909
1.771 -2.371 1.759 4011
1.774 -2.375 1.751 3263
1.876 -2.512 1.834 3954
1.867 -2.499 1.813 6020
1.878 -2.514 1.812 7489
1.889 -2.529 1.811 7316
1.896 -2.539 1.805 5429
1.928 -2.582 1.822 3972
1.936 -2.592 1.817 3129
1.947 -2.607 1.815 2363
1.971 -2.639 1.824 2701
1.986 -2.660 1.825 3687
1.998 -2.675 1.823 6355
2.001 -2.679 1.813 7528
2.008 -2.688 1.807 7584
2.015 -2.698 1.801 9823
2.022 -2.707 1.795 12011
2.025 -2.711 1.785 10520
2.070 -2.772 1.810 10342
2.073 -2.776 1.800 14867
2.076 -2.780 1.790 15048
2.079 -2.784 1.780 13421
2.082 -2.788 1.770 10458
2.085 -2.791 1.760 9121
2.088 -2.795 1.750 8439
2.155 -2.885 1.790 11161
2.153 -2.883 1.777 11030
2.148 -2.876 1.760 10204
2.146 -2.874 1.746 7855
2.153 -2.883 1.739 5323
2.169 -2.904 1.738 4883
2.172 -2.908 1.728 4093
2.253 -3.016 1.775 4296
2.264 -3.031 1.771 5182
2.271 -3.041 1.763 6271
2.270 -3.039 1.749 4831
2.373 -3.177 1.809 3171
2.297 -3.076 1.742 3236
2.413 -3.232 1.811 3707
2.412 -3.230 1.796 4029
2.415 -3.233 1.785 3922
2.435 -3.261 1.785 4398
2.434 -3.259 1.770 5838
2.437 -3.262 1.759 5690
2.607 -3.490 1.859 3877
2.605 -3.488 1.843 6765
2.599 -3.480 1.825 7342
2.593 -3.472 1.807 5922
2.618 -3.506 1.808 6861
2.621 -3.510 1.796 7740
2.624 -3.514 1.783 7805
2.627 -3.518 1.770 8689
2.630 -3.521 1.758 8655
2.637 -3.531 1.748 8608
2.635 -3.529 1.732 8035
2.638 -3.533 1.720 6106
2.645 -3.542 1.710 4116
2.889 -3.868 1.840 3054
2.919 -3.908 1.842 4397
2.926 -3.918 1.831 5158
2.947 -3.946 1.827 4613
2.955 -3.956 1.815 3632
2.958 -3.960 1.801 2939
3.059 -4.096 1.842 4396
3.067 -4.106 1.830 3866
3.097 -4.146 1.830 3861
3.100 -4.150 1.815 3235
3.184 -4.263 1.844 4177
3.196 -4.279 1.834 4953
3.185 -4.265 1.811 4125
3.188 -4.268 1.796 3683
3.254 -4.357 1.813 3774
3.266 -4.373 1.802 3589
3.269 -4.377 1.786 2163
3.417 -4.575 1.844 2137
3.443 -4.610 1.838 2252
3.446 -4.613 1.822 3195
3.448 -4.617 1.805 2702
3.515 -4.707 1.819 1919
3.632 -4.863 1.856 1885
3.617 -4.843 1.830 1707
3.647 -4.883 1.825 1782
3.654 -4.893 1.810 1688
3.936 -5.270 1.919 2102
3.935 -5.268 1.898 2886
3.919 -5.248 1.871 3592
3.909 -5.234 1.846 5075
3.916 -5.244 1.829 5148
3.933 -5.266 1.816 3748
3.940 -5.276 1.799 3251
3.943 -5.280 1.780 2609
4.176 -5.592 1.856 1925
4.211 -5.639 1.849 2448
4.219 -5.649 1.831 2398
4.222 -5.653 1.810 1912
4.308 -5.768 1.822 1839
4.380 -5.864 1.828 1328
4.590 -6.147 1.887 1825
4.594 -6.151 1.865 1706
4.606 -6.167 1.846 1434
4.854 -6.499 1.914 1682
4.862 -6.510 1.892 2403
4.865 -6.514 1.868 2156
4.849 -6.493 1.838 2282
4.857 -6.503 1.816 2276
4.874 -6.526 1.797 1682
5.183 -6.940 1.877 1882
5.191 -6.950 1.854 1776
5.440 -7.284 1.909 1142
5.448 -7.294 1.884 1457
5.558 -7.442 1.892 1502
5.570 -7.458 1.868 1296
5.457 -7.306 1.805 818
5.478 -7.335 1.784 494
5.560 -7.445 1.781 423
5.563 -7.449 1.754 410
5.575 -7.465 1.730 254
1.384 -1.865 1.787 4046
1.387 -1.869 1.781 8092
1.390 -1.873 1.774 8092
1.392 -1.877 1.767 6851
1.395 -1.881 1.761 5610
1.406 -1.895 1.763 4421
1.424 -1.919 1.775 4261
1.427 -1.923 1.768 4261
1.434 -1.932 1.765 4014
1.464 -1.973 1.790 4553
1.467 -1.977 1.783 3629
1.469 -1.980 1.776 2706
1.488 -2.005 1.787 2244
1.510 -2.036 1.801 2975
1.513 -2.039 1.794 2975
1.516 -2.043 1.787 4740
1.519 -2.047 1.780 6509
1.538 -2.072 1.790 6638
1.552 -2.092 1.795 8452
1.571 -2.117 1.805 7996
1.586 -2.137 1.810 9670
1.589 -2.141 1.803 8129
1.596 -2.151 1.799 6752
1.607 -2.165 1.800 5204
1.613 -2.174 1.796 4089
1.620 -2.184 1.793 4181
1.647 -2.220 1.810 4638
1.630 -2.197 1.781 5036
1.629 -2.195 1.770 5696
1.628 -2.194 1.758 5044
1.671 -2.252 1.791 6136
1.678 -2.261 1.787 5661
1.685 -2.271 1.783 5285
1.692 -2.280 1.778 4470
1.719 -2.317 1.794 3759
1.714 -2.310 1.778 5012
1.716 -2.313 1.770 5963
1.723 -2.323 1.765 5582
1.763 -2.376 1.792 4854
1.766 -2.380 1.784 4396
1.765 -2.378 1.772 4001
1.763 -2.377 1.759 3856
1.869 -2.520 1.847 3445
1.868 -2.518 1.834 4593
1.867 -2.516 1.821 6328
1.870 -2.520 1.812 7533
1.881 -2.535 1.811 7367
1.897 -2.556 1.813 5551
1.916 -2.582 1.818 4159
1.923 -2.592 1.813 2930
1.939 -2.613 1.815 2162
1.975 -2.662 1.834 2840
1.982 -2.671 1.829 4492
1.985 -2.675 1.819 7498
1.992 -2.685 1.813 8852
1.999 -2.695 1.807 8258
2.006 -2.704 1.801 9811
2.014 -2.714 1.795 12030
2.016 -2.718 1.785 10666
2.062 -2.779 1.810 9637
2.069 -2.788 1.804 13976
2.067 -2.786 1.790 14113
2.070 -2.790 1.780 12362
2.073 -2.794 1.770 9145
2.080 -2.804 1.764 7948
2.083 -2.807 1.754 7640
2.146 -2.892 1.790 10013
2.149 -2.896 1.780 9456
2.139 -2.882 1.760 8514
2.137 -2.880 1.746 6618
2.260 -3.046 1.827 4816
2.263 -3.050 1.816 5026
2.262 -3.048 1.802 4010
2.243 -3.023 1.775 4621
2.259 -3.044 1.774 6103
2.262 -3.048 1.763 7756
2.260 -3.046 1.749 6457
2.263 -3.050 1.738 3656
2.292 -3.089 1.745 2900
2.403 -3.239 1.811 3472
2.402 -3.237 1.796 3903
2.405 -3.241 1.785 4061
2.421 -3.262 1.782 3917
2.424 -3.266 1.770 4940
2.426 -3.270 1.759 4777
2.600 -3.504 1.862 3640
2.594 -3.496 1.843 5956
2.588 -3.488 1.825 6564
2.596 -3.498 1.815 4932
2.607 -3.514 1.808 6440
2.610 -3.518 1.796 7750
2.613 -3.522 1.783 7711
2.616 -3.526 1.770 7864
2.619 -3.530 1.758 7678
2.626 -3.539 1.748 7971
2.624 -3.537 1.732 7560
2.627 -3.541 1.720 5815
2.634 -3.550 1.710 3882
2.899 -3.907 1.854 2966
2.907 -3.917 1.842 4713
2.914 -3.927 1.831 4892
2.935 -3.955 1.827 4220
2.938 -3.959 1.813 3574
2.945 -3.969 1.801 2766
3.046 -4.106 1.842 3972
3.049 -4.110 1.828 3577
3.088 -4.162 1.833 3496
3.087 -4.160 1.815 2897
3.175 -4.279 1.847 3724
3.182 -4.289 1.834 4638
3.176 -4.281 1.813 4046
3.179 -4.284 1.798 3566
3.240 -4.367 1.813 4195
3.252 -4.383 1.802 4188
3.255 -4.387 1.786 2704
3.330 -4.488 1.807 2346
3.338 -4.498 1.793 2025
3.431 -4.624 1.822 2296
3.429 -4.622 1.803 2128
3.500 -4.718 1.819 1941
3.617 -4.874 1.856 1781
3.601 -4.854 1.830 1765
3.627 -4.888 1.823 1855
3.635 -4.898 1.808 1720
3.920 -5.283 1.919 2192
3.918 -5.281 1.898 2737
3.898 -5.254 1.869 3341
3.892 -5.246 1.846 5333
3.895 -5.250 1.827 5618
3.912 -5.272 1.814 3609
3.928 -5.295 1.801 2697
4.023 -5.422 1.820 2545
4.030 -5.432 1.803 1989
4.194 -5.652 1.849 2281
4.201 -5.662 1.831 2171
4.277 -5.765 1.839 1688
4.290 -5.781 1.822 1645
4.426 -5.965 1.853 1438
4.567 -6.155 1.885 1983
4.574 -6.165 1.865 1725
4.596 -6.194 1.849 1342
4.834 -6.514 1.914 1765
4.841 -6.525 1.892 2607
4.844 -6.529 1.868 2307
4.833 -6.514 1.840 2380
4.836 -6.518 1.816 2369
4.853 -6.541 1.797 1707
5.166 -6.962 1.879 2135
5.164 -6.960 1.852 1972
5.417 -7.301 1.909 1342
5.425 -7.311 1.884 1447
5.432 -7.322 1.859 1399
5.422 -7.307 1.828 1165
5.434 -7.323 1.805 781
5.455 -7.352 1.784 375
5.556 -7.487 1.786 301
5.554 -7.485 1.758 337
1.375 -1.864 1.783 3719
1.378 -1.868 1.776 7439
1.381 -1.871 1.769 7439
1.388 -1.880 1.767 6425
1.390 -1.884 1.761 5455
1.397 -1.893 1.759 4268
1.423 -1.928 1.779 4185
1.426 -1.932 1.772 4185
1.432 -1.941 1.770 4022
1.458 -1.977 1.790 4827
1.461 -1.980 1.783 3950
1.464 -1.984 1.776 3074
1.463 -1.983 1.764 2428
1.505 -2.040 1.801 2630
1.508 -2.043 1.794 2630
1.515 -2.053 1.791 4552
1.517 -2.057 1.784 6471
1.532 -2.076 1.790 6800
1.547 -2.096 1.795 8474
1.565 -2.122 1.805 8176
1.576 -2.136 1.806 9868
1.587 -2.151 1.807 8070
1.594 -2.160 1.803 6700
1.605 -2.175 1.804 5238
1.612 -2.184 1.801 4230
1.619 -2.193 1.797 4252
1.641 -2.224 1.810 4575
1.624 -2.201 1.781 4973
1.623 -2.200 1.770 5622
1.662 -2.252 1.799 5100
1.669 -2.262 1.795 6385
1.672 -2.266 1.787 5955
1.679 -2.275 1.783 5634
1.686 -2.284 1.778 4673
1.688 -2.288 1.770 3763
1.708 -2.314 1.778 4829
1.710 -2.318 1.770 5872
1.717 -2.327 1.765 5628
1.757 -2.381 1.792 5354
1.760 -2.385 1.784 4885
1.763 -2.389 1.775 4198
1.757 -2.381 1.759 3749
1.859 -2.519 1.843 3473
1.862 -2.523 1.834 4929
1.860 -2.521 1.821 6874
1.863 -2.525 1.812 8140
1.874 -2.540 1.811 7844
1.890 -2.561 1.813 5814
1.909 -2.587 1.818 4166
1.912 -2.591 1.809 2664
1.965 -2.663 1.844 2320
1.972 -2.673 1.838 3360
1.975 -2.677 1.829 5257
