0.750 3.239 1.455 5440
0.743 3.207 1.431 6291
0.742 3.203 1.418 8170
0.743 3.207 1.409 6095
0.755 3.261 1.420 5977
0.761 3.286 1.419 8468
0.765 3.304 1.414 7853
0.768 3.315 1.408 5699
0.765 3.304 1.392 5280
0.764 3.300 1.380 6433
0.765 3.304 1.370 5481
0.789 3.409 1.398 5722
0.789 3.405 1.386 8410
0.789 3.409 1.375 12036
0.790 3.412 1.365 11263
0.793 3.423 1.358 7655
0.802 3.463 1.361 10201
0.801 3.459 1.348 9200
0.798 3.448 1.333 7610
0.809 3.495 1.338 6488
0.814 3.513 1.333 8391
0.819 3.538 1.330 12715
0.822 3.549 1.322 15012
0.821 3.545 1.309 9408
0.832 3.592 1.313 5805
0.834 3.603 1.305 4897
0.840 3.628 1.301 7290
0.843 3.639 1.293 8398
0.845 3.650 1.285 5612
0.858 3.704 1.290 5620
0.860 3.715 1.281 5331
0.858 3.704 1.266 4953
0.858 3.707 1.255 4973
0.863 3.725 1.248 4494
0.865 3.735 1.240 4005
0.907 3.916 1.281 4228
0.920 3.971 1.285 7025
0.922 3.982 1.275 10173
0.923 3.985 1.263 14350
0.925 3.996 1.254 17518
0.926 3.999 1.242 20639
0.929 4.010 1.232 16564
0.929 4.013 1.220 7487
0.949 4.098 1.231 9560
0.946 4.086 1.215 9785
0.947 4.089 1.202 7146
0.949 4.099 1.192 7218
0.950 4.102 1.180 6932
1.031 4.450 1.255 4836
1.019 4.400 1.229 4412
1.015 4.381 1.211 4799
1.034 4.467 1.218 4700
1.037 4.477 1.206 3721
1.074 4.638 1.231 2861
1.106 4.776 1.249 3615
1.107 4.780 1.235 5279
1.108 4.783 1.220 5905
1.110 4.793 1.208 7547
1.111 4.796 1.194 7387
1.110 4.792 1.178 5041
1.177 5.081 1.226 3982
1.179 5.092 1.212 4357
1.182 5.103 1.199 4884
1.182 5.106 1.184 4419
1.222 5.275 1.202 6209
1.224 5.286 1.188 6046
1.227 5.296 1.174 3842
1.229 5.307 1.160 2043
1.291 5.575 1.195 2592
1.288 5.563 1.175 2687
1.257 5.429 1.133 3704
1.256 5.424 1.116 3908
1.310 5.655 1.141 3825
1.312 5.665 1.125 5618
1.316 5.683 1.111 4909
1.315 5.678 1.093 2994
1.351 5.833 1.101 3757
1.352 5.836 1.084 3913
1.352 5.839 1.067 3137
1.406 6.070 1.085 2120
1.454 6.279 1.099 2945
1.453 6.274 1.079 3477
1.441 6.223 1.053 2877
1.479 6.386 1.057 2724
1.497 6.465 1.049 4127
1.498 6.467 1.030 5532
1.498 6.470 1.011 5096
1.499 6.472 0.992 3974
1.510 6.521 0.978 3672
1.507 6.508 0.957 3516
1.531 6.610 0.950 2752
1.533 6.619 0.931 2979
1.534 6.622 0.912 2797
1.598 6.900 0.923 3152
1.634 7.055 0.920 3074
1.635 7.058 0.899 2833
1.703 7.351 0.909 2246
1.705 7.361 0.888 2235
1.789 7.724 0.902 2719
1.791 7.734 0.879 2861
1.792 7.736 0.856 2690
1.794 7.746 0.834 2453
1.794 7.748 0.811 2177
1.845 7.965 0.806 1882
1.845 7.966 0.782 1935
1.845 7.968 0.759 1997
2.035 8.785 0.796 1875
2.035 8.787 0.770 2576
2.034 8.781 0.743 2275
2.080 8.983 0.731 2033
2.079 8.977 0.703 1983
2.078 8.971 0.676 1929
2.076 8.965 0.649 1550
2.150 9.282 0.639 1519
2.152 9.291 0.612 1295
2.156 9.308 0.585 937
2.156 9.309 0.557 701
2.154 9.302 0.529 476
2.147 9.273 0.500 275
0.309 1.333 0.055 291
0.309 1.332 0.051 252
0.239 1.032 0.066 262
0.237 1.024 0.064 299
0.239 1.032 0.060 313
0.239 1.031 0.057 348
0.239 1.031 0.054 342
0.239 1.031 0.051 321
0.239 1.031 0.048 281
0.458 1.959 1.542 5398
0.459 1.963 1.536 10796
0.462 1.973 1.535 9067
0.464 1.984 1.534 7433
0.465 1.988 1.528 7433
0.466 1.992 1.522 5758
0.470 2.008 1.525 4310
0.479 2.050 1.546 4469
0.483 2.067 1.549 5705
0.484 2.071 1.543 5705
0.475 2.030 1.506 5790
0.476 2.034 1.500 5871
0.477 2.038 1.494 5635
0.479 2.048 1.493 5449
0.483 2.065 1.496 6645
0.487 2.082 1.498 8560
0.492 2.105 1.505 8863
0.495 2.115 1.503 10253
0.499 2.132 1.506 7564
0.504 2.156 1.512 5984
0.507 2.166 1.510 6304
0.509 2.176 1.508 6771
0.510 2.180 1.502 5753
0.515 2.204 1.508 4770
0.518 2.214 1.505 4405
0.522 2.231 1.507 5683
0.524 2.242 1.505 6850
0.525 2.246 1.498 5721
0.548 2.342 1.549 4525
0.550 2.353 1.546 5091
0.551 2.357 1.539 4282
0.527 2.254 1.468 2952
0.558 2.385 1.537 3456
0.538 2.302 1.478 4407
0.561 2.399 1.527 5575
0.562 2.403 1.520 7049
0.564 2.414 1.517 7386
0.565 2.418 1.510 7745
0.568 2.428 1.507 7923
0.570 2.439 1.503 7958
0.573 2.449 1.500 7916
0.578 2.474 1.504 7557
0.587 2.511 1.516 7820
0.587 2.508 1.505 9101
0.586 2.505 1.494 10682
0.587 2.509 1.486 9702
0.608 2.602 1.527 7571
0.614 2.626 1.531 8421
0.615 2.630 1.523 7133
0.606 2.593 1.493 7635
0.609 2.604 1.489 8328
0.613 2.621 1.489 7885
0.620 2.652 1.495 7974
0.623 2.663 1.491 7428
0.612 2.619 1.459 6011
0.612 2.616 1.447 9181
0.613 2.619 1.440 12189
0.651 2.782 1.512 12814
0.613 2.620 1.421 11594
0.613 2.623 1.413 10203
0.645 2.759 1.470 11127
0.648 2.770 1.466 12440
0.650 2.781 1.461 12011
0.651 2.784 1.453 9129
0.681 2.914 1.505 5157
0.677 2.897 1.486 9624
0.678 2.900 1.478 12275
0.679 2.904 1.469 11297
0.683 2.922 1.467 10263
0.688 2.940 1.465 11194
0.690 2.951 1.459 10456
0.696 2.976 1.460 8081
0.707 3.022 1.471 11744
0.709 3.033 1.465 14165
0.710 3.036 1.456 17128
0.713 3.047 1.450 16475
0.713 3.051 1.441 14342
0.714 3.055 1.432 10925
0.710 3.037 1.414 5782
0.734 3.140 1.447 4253
0.739 3.158 1.444 6226
0.739 3.162 1.435 5796
0.757 3.237 1.455 5353
0.750 3.205 1.431 5941
0.749 3.202 1.418 7398
0.750 3.205 1.409 5016
0.764 3.266 1.422 6662
0.768 3.284 1.419 9187
0.772 3.302 1.414 8289
0.776 3.320 1.410 6619
0.779 3.331 1.403 5775
0.771 3.299 1.380 6113
0.772 3.302 1.370 5330
0.800 3.421 1.404 6881
0.798 3.411 1.388 9948
0.798 3.414 1.378 13948
0.799 3.418 1.368 13342
0.800 3.421 1.358 8757
0.808 3.454 1.358 8918
0.807 3.450 1.346 8704
0.808 3.453 1.335 8273
0.819 3.500 1.340 8727
0.823 3.518 1.335 12434
0.827 3.536 1.330 15464
0.828 3.540 1.319 15434
0.829 3.543 1.309 9459
0.840 3.590 1.313 5393
0.846 3.616 1.310 5113
0.848 3.626 1.301 6964
0.851 3.637 1.293 7368
0.851 3.640 1.282 4504
0.864 3.695 1.288 4407
0.868 3.713 1.281 4776
0.867 3.709 1.268 4796
0.866 3.705 1.255 4444
0.871 3.723 1.248 3755
0.908 3.881 1.284 4058
0.915 3.914 1.281 4161
0.928 3.969 1.285 6042
0.931 3.980 1.275 8637
0.933 3.991 1.266 12222
0.934 3.994 1.254 16388
0.935 3.997 1.242 20645
0.937 4.008 1.232 17082
0.938 4.011 1.220 8019
0.958 4.096 1.231 7869
0.955 4.084 1.215 8411
0.956 4.087 1.202 6414
0.958 4.097 1.192 7418
0.959 4.100 1.180 7204
1.040 4.448 1.255 4720
1.037 4.436 1.239 4506
1.026 4.386 1.212 4067
1.044 4.464 1.218 3952
1.080 4.618 1.241 3780
1.084 4.636 1.231 3322
1.115 4.766 1.247 4042
1.115 4.770 1.233 4626
1.118 4.780 1.220 3458
1.120 4.791 1.208 6164
1.121 4.794 1.194 7475
1.120 4.789 1.178 4872
1.188 5.079 1.226 4317
1.188 5.082 1.211 4549
1.193 5.100 1.199 5044
1.192 5.095 1.182 4513
1.233 5.272 1.202 5433
1.235 5.283 1.188 5376
1.238 5.293 1.174 3810
1.239 5.296 1.158 2361
1.303 5.572 1.195 2458
1.300 5.560 1.175 2645
1.269 5.426 1.133 3941
1.268 5.421 1.116 4230
1.324 5.660 1.142 3370
1.326 5.670 1.127 5133
1.330 5.688 1.112 4806
1.334 5.706 1.098 3130
1.363 5.830 1.101 3770
1.364 5.833 1.084 4109
1.365 5.836 1.067 3484
1.467 6.273 1.118 2496
1.469 6.283 1.100 3313
1.468 6.278 1.080 3449
1.451 6.205 1.050 3114
1.494 6.390 1.059 2909
1.511 6.462 1.049 4438
1.512 6.464 1.030 5741
1.512 6.467 1.011 4912
1.513 6.469 0.992 3613
1.524 6.517 0.978 3495
1.519 6.497 0.956 3491
1.545 6.606 0.950 2911
1.547 6.616 0.931 3281
1.548 6.618 0.912 3020
1.613 6.896 0.923 3542
1.649 7.052 0.920 3312
1.650 7.054 0.899 2985
1.718 7.348 0.909 2294
1.803 7.710 0.924 2377
1.805 7.720 0.902 2784
1.808 7.730 0.879 2819
1.808 7.732 0.856 2655
1.810 7.742 0.834 2572
1.811 7.744 0.811 2384
1.810 7.738 0.787 1990
1.815 7.763 0.766 1860
1.816 7.764 0.743 1973
2.053 8.781 0.796 1643
2.054 8.783 0.770 2236
2.053 8.777 0.743 1917
1.952 8.348 0.689 1830
2.098 8.972 0.703 1615
2.097 8.966 0.676 1670
2.171 9.283 0.667 1450
2.170 9.277 0.639 1524
2.172 9.286 0.612 1307
2.176 9.303 0.585 970
2.176 9.304 0.557 754
2.174 9.298 0.529 526
2.167 9.268 0.500 308
0.304 1.302 0.065 260
0.308 1.317 0.060 255
0.312 1.332 0.055 284
0.241 1.031 0.066 274
0.239 1.024 0.064 314
0.241 1.031 0.060 331
0.241 1.031 0.057 368
0.241 1.031 0.054 367
0.241 1.030 0.051 350
0.241 1.030 0.048 322
0.241 1.030 0.046 293
0.462 1.958 1.542 5368
0.463 1.962 1.536 10737
0.465 1.973 1.535 9062
0.468 1.983 1.534 7693
0.469 1.987 1.528 7693
0.471 1.997 1.527 5760
0.478 2.026 1.539 4233
0.478 2.024 1.529 4127
0.487 2.066 1.549 4966
0.478 2.025 1.512 5022
0.479 2.029 1.506 6535
0.480 2.033 1.500 7082
0.481 2.037 1.494 6893
0.483 2.047 1.493 6748
0.487 2.064 1.496 7567
0.491 2.081 1.498 9011
0.496 2.104 1.505 8875
0.500 2.121 1.507 10153
0.506 2.144 1.514 7815
0.513 2.174 1.525 6893
0.512 2.172 1.514 7082
0.513 2.175 1.508 7407
0.514 2.179 1.502 6213
0.520 2.203 1.508 4841
0.524 2.220 1.510 4456
0.526 2.230 1.507 5426
0.530 2.247 1.509 6431
0.533 2.258 1.506 5302
0.548 2.321 1.536 4317
0.553 2.345 1.542 5145
0.556 2.356 1.539 4811
0.558 2.366 1.536 3423
0.537 2.277 1.473 3914
0.543 2.301 1.478 5062
0.566 2.398 1.527 5706
0.567 2.402 1.520 7384
0.568 2.406 1.513 7769
0.570 2.416 1.510 8225
0.573 2.427 1.507 8153
0.575 2.438 1.503 7863
0.576 2.442 1.496 7569
0.583 2.472 1.504 6966
0.592 2.510 1.516 7457
0.590 2.500 1.501 8710
0.589 2.498 1.490 10412
0.592 2.508 1.486 9821
0.617 2.614 1.535 7746
0.619 2.625 1.531 8429
0.622 2.636 1.527 6469
0.608 2.578 1.486 6908
0.612 2.596 1.486 8415
0.615 2.606 1.482 7812
0.629 2.665 1.503 9941
0.630 2.669 1.495 9683
0.614 2.604 1.451 9528
0.617 2.614 1.447 11698
0.618 2.618 1.440 13915
0.619 2.622 1.432 12050
0.651 2.757 1.490 10890
0.620 2.629 1.417 9611
0.651 2.758 1.470 11989
0.653 2.769 1.466 13369
0.656 2.779 1.461 12532
0.657 2.783 1.453 9214
0.687 2.912 1.505 5334
0.685 2.902 1.489 9715
0.684 2.899 1.478 12146
0.687 2.910 1.472 11117
0.689 2.921 1.467 10510
0.695 2.946 1.468 12267
0.698 2.956 1.463 11699
0.702 2.974 1.460 8829
0.713 3.020 1.471 12292
0.715 3.031 1.465 15053
0.716 3.035 1.456 18361
0.719 3.046 1.450 17863
0.719 3.050 1.441 15980
0.720 3.053 1.432 11992
0.718 3.043 1.417 6254
0.742 3.146 1.450 4925
0.743 3.150 1.441 6886
0.741 3.139 1.426 6320
0.765 3.243 1.458 4976
0.758 3.211 1.434 5623
0.755 3.200 1.418 6137
0.774 3.283 1.441 4807
0.772 3.272 1.425 7371
0.775 3.283 1.419 9803
0.779 3.301 1.414 8572
0.785 3.326 1.413 7672
0.787 3.337 1.406 6743
0.778 3.297 1.380 5553
0.779 3.301 1.370 5010
0.807 3.420 1.404 8772
0.806 3.416 1.391 11990
0.807 3.420 1.381 15812
0.808 3.423 1.371 15467
0.807 3.419 1.358 9875
0.811 3.437 1.353 7901
0.814 3.448 1.346 8164
0.814 3.452 1.335 9028
0.827 3.506 1.343 10856
0.830 3.517 1.335 15989
0.832 3.527 1.327 17560
0.835 3.538 1.319 15155
0.836 3.541 1.309 9012
0.845 3.581 1.311 4984
0.853 3.614 1.310 5140
0.857 3.632 1.304 6237
0.858 3.635 1.293 5976
0.859 3.639 1.282 3740
0.870 3.686 1.285 3246
0.876 3.711 1.281 3861
0.875 3.707 1.268 4146
0.874 3.703 1.255 3651
0.915 3.876 1.295 3636
0.915 3.880 1.284 4753
0.911 3.861 1.266 4668
0.934 3.960 1.283 5163
0.939 3.978 1.275 7018
0.941 3.989 1.266 9817
0.942 3.992 1.254 13956
0.943 3.995 1.242 18613
0.945 4.006 1.232 16119
0.946 4.009 1.220 7908
0.966 4.094 1.231 6147
0.961 4.075 1.213 6821
0.964 4.085 1.202 5268
0.966 4.095 1.192 7167
0.967 4.098 1.180 6990
1.049 4.445 1.255 4813
1.050 4.449 1.242 5035
1.045 4.429 1.224 3298
1.081 4.582 1.247 3611
1.089 4.615 1.241 4264
1.091 4.626 1.229 3609
1.124 4.764 1.247 4788
1.123 4.760 1.231 4764
1.122 4.755 1.215 2759
1.130 4.789 1.208 5399
1.131 4.792 1.194 7411
1.129 4.787 1.178 4518
1.196 5.069 1.224 4403
1.197 5.072 1.209 4604
1.203 5.098 1.199 5144
1.202 5.093 1.182 4533
1.243 5.270 1.202 4562
1.248 5.288 1.190 4657
1.248 5.291 1.174 3678
1.247 5.286 1.157 2693
1.250 5.297 1.142 2475
1.281 5.428 1.151 2829
1.280 5.424 1.133 4069
1.279 5.419 1.116 4249
1.317 5.581 1.128 3361
1.337 5.667 1.127 4488
1.343 5.693 1.114 4647
1.346 5.703 1.098 3141
1.373 5.820 1.100 3575
1.376 5.830 1.084 4020
1.376 5.833 1.067 3524
1.479 6.270 1.118 2870
1.480 6.273 1.099 3712
1.481 6.275 1.080 3436
1.461 6.194 1.049 3268
1.509 6.395 1.060 3232
1.524 6.459 1.049 4586
1.524 6.461 1.030 5712
1.525 6.464 1.011 4604
1.526 6.466 0.992 3239
1.528 6.476 0.973 3282
1.532 6.494 0.956 3414
1.558 6.603 0.950 2901
1.560 6.613 0.931 3376
1.626 6.891 0.944 3204
1.626 6.893 0.923 3815
1.625 6.888 0.902 3568
1.664 7.051 0.899 3184
1.733 7.344 0.909 2379
1.818 7.707 0.924 2505
1.821 7.717 0.902 2781
1.823 7.726 0.879 2696
1.825 7.736 0.857 2575
1.826 7.738 0.834 2658
1.826 7.740 0.811 2527
1.825 7.734 0.787 2053
1.829 7.751 0.766 2032
1.829 7.753 0.742 2196
1.831 7.763 0.720 1792
2.071 8.779 0.770 1865
2.005 8.496 0.724 1725
1.970 8.352 0.689 1915
1.969 8.345 0.664 1558
2.115 8.962 0.676 1421
2.189 9.279 0.667 1499
2.188 9.273 0.639 1532
2.190 9.282 0.612 1311
2.196 9.306 0.586 1001
2.194 9.300 0.557 810
2.194 9.301 0.530 570
2.186 9.264 0.500 312
0.329 1.393 0.059 267
0.332 1.409 0.054 289
0.241 1.023 0.067 270
0.241 1.023 0.064 310
0.243 1.031 0.060 342
0.243 1.030 0.057 392
0.243 1.030 0.054 394
0.243 1.030 0.051 379
0.243 1.030 0.048 343
0.243 1.029 0.046 307
0.243 1.029 0.043 261
0.465 1.958 1.542 5182
0.466 1.962 1.536 10364
0.469 1.972 1.535 8878
0.471 1.982 1.534 7971
0.472 1.986 1.528 7971
0.475 1.996 1.527 6039
0.480 2.019 1.534 4650
0.481 2.023 1.529 4247
0.491 2.065 1.549 4303
0.475 1.999 1.494 5263
0.482 2.029 1.506 7366
0.483 2.032 1.500 8376
0.484 2.036 1.494 8259
0.487 2.047 1.493 8169
0.489 2.057 1.491 8501
0.495 2.080 1.498 9316
0.502 2.110 1.509 8776
0.506 2.126 1.512 9986
0.511 2.150 1.518 8282
0.517 2.173 1.525 8024
0.516 2.171 1.514 7908
0.517 2.175 1.508 8113
0.518 2.178 1.502 6748
0.519 2.182 1.495 5005
0.520 2.186 1.489 4633
0.530 2.229 1.507 5186
0.537 2.260 1.517 6264
0.538 2.263 1.510 5222
0.552 2.320 1.536 4783
0.554 2.331 1.534 5601
0.558 2.348 1.535 5542
0.559 2.352 1.528 4124
0.541 2.276 1.473 4367
0.547 2.300 1.478 5689
0.570 2.397 1.527 5740
0.571 2.401 1.520 7556
0.572 2.405 1.513 7962
0.574 2.416 1.510 8438
0.577 2.426 1.507 8310
0.579 2.437 1.503 7805
0.580 2.441 1.496 7237
0.588 2.471 1.504 6397
0.597 2.509 1.516 7043
0.593 2.493 1.497 8332
0.594 2.497 1.490 10068
0.596 2.507 1.486 9888
0.602 2.531 1.490 7709
0.625 2.631 1.534 8451
0.626 2.635 1.527 6638
0.611 2.570 1.482 4981
0.614 2.581 1.478 5640
0.632 2.660 1.510 6600
0.635 2.671 1.506 9321
0.636 2.675 1.498 8834
0.619 2.603 1.451 8962
0.620 2.606 1.444 12001
0.622 2.617 1.440 14428
0.621 2.614 1.428 12887
0.655 2.756 1.490 11174
0.654 2.753 1.479 10417
0.655 2.757 1.470 12790
0.658 2.767 1.466 13770
0.660 2.778 1.461 12636
0.661 2.782 1.453 9096
0.692 2.911 1.505 6026
0.690 2.901 1.489 10198
0.691 2.905 1.481 12183
0.692 2.909 1.472 11125
0.696 2.927 1.470 10605
0.700 2.944 1.468 12891
0.703 2.955 1.463 12468
0.707 2.973 1.460 9395
0.718 3.019 1.471 12389
0.720 3.030 1.465 15433
0.721 3.034 1.456 18954
0.724 3.045 1.450 18500
0.725 3.048 1.441 16961
0.726 3.052 1.432 12645
0.723 3.041 1.417 6699
0.744 3.130 1.444 6750
0.747 3.141 1.438 8821
0.744 3.131 1.423 8477
0.745 3.134 1.414 4941
0.765 3.217 1.437 5458
0.769 3.235 1.433 5023
0.778 3.274 1.438 5812
0.779 3.278 1.428 8247
0.780 3.281 1.419 10223
0.784 3.299 1.414 8717
0.790 3.325 1.413 8889
0.793 3.335 1.406 7813
0.797 3.353 1.402 6037
0.807 3.393 1.406 6456
0.811 3.411 1.401 10949
0.812 3.415 1.391 14101
0.813 3.418 1.381 17747
0.814 3.422 1.371 17938
0.814 3.425 1.361 11729
0.817 3.436 1.353 7739
0.818 3.440 1.343 7521
0.820 3.450 1.335 9685
0.835 3.512 1.346 12514
0.836 3.515 1.335 18534
0.838 3.526 1.327 18292
0.841 3.537 1.319 13487
0.842 3.540 1.309 7613
0.848 3.565 1.306 4804
0.847 3.561 1.293 4997
0.842 3.543 1.275 5403
0.845 3.553 1.267 4880
0.851 3.578 1.263 3706
0.864 3.633 1.269 3314
0.882 3.710 1.281 2814
0.881 3.706 1.268 3285
0.917 3.857 1.302 3391
0.918 3.860 1.291 4373
0.920 3.871 1.282 5361
0.917 3.859 1.266 5684
0.932 3.921 1.272 5174
0.933 3.925 1.260 6068
0.932 3.920 1.246 8072
0.949 3.990 1.254 10672
0.949 3.994 1.242 15037
0.952 4.004 1.232 14016
0.953 4.007 1.220 7530
0.971 4.085 1.229 4851
0.968 4.073 1.213 5278
0.971 4.083 1.202 4127
0.975 4.101 1.194 6935
0.974 4.097 1.180 6549
1.056 4.444 1.255 5267
1.059 4.454 1.244 5641
1.062 4.465 1.233 3633
1.089 4.580 1.247 4009
1.095 4.606 1.239 4522
1.133 4.767 1.263 4693
1.130 4.755 1.245 5874
1.129 4.750 1.229 5978
1.132 4.761 1.217 4622
1.138 4.787 1.208 6328
1.139 4.790 1.194 7290
1.138 4.785 1.178 4137
1.203 5.059 1.222 4188
1.205 5.070 1.209 4498
1.211 5.096 1.199 5109
1.209 5.083 1.180 4424
1.258 5.290 1.207 3759
1.257 5.286 1.190 3892
1.257 5.289 1.174 3441
1.256 5.284 1.157 2959
1.291 5.431 1.169 3029
1.290 5.426 1.151 3563
1.289 5.421 1.133 4232
1.288 5.417 1.116 4142
1.325 5.571 1.127 3760
1.349 5.673 1.128 3985
1.355 5.698 1.115 4436
1.354 5.693 1.097 3078
1.383 5.818 1.100 3102
1.386 5.828 1.084 3477
1.386 5.831 1.067 3153
1.490 6.267 1.118 3237
1.491 6.270 1.099 4118
1.493 6.280 1.082 3485
1.472 6.192 1.049 3329
1.520 6.392 1.060 3574
1.535 6.456 1.049 4667
1.536 6.459 1.030 5610
1.536 6.461 1.011 4371
1.537 6.464 0.992 3027
1.539 6.474 0.973 3124
1.543 6.491 0.956 3214
1.569 6.601 0.950 2773
1.572 6.610 0.931 3307
1.676 7.049 0.963 3417
1.676 7.051 0.942 3939
1.637 6.885 0.902 3724
1.676 7.048 0.899 3418
1.676 7.050 0.878 2531
1.830 7.696 0.923 2553
1.834 7.713 0.902 2669
1.838 7.731 0.880 2495
1.839 7.733 0.857 2446
1.839 7.735 0.834 2656
1.838 7.729 0.810 2580
1.838 7.731 0.787 2005
1.842 7.748 0.766 2112
1.843 7.750 0.742 2375
1.843 7.752 0.719 1929
2.017 8.483 0.749 1666
2.019 8.493 0.724 1684
1.987 8.356 0.690 1995
1.985 8.350 0.664 1572
2.207 9.281 0.696 1364
2.205 9.275 0.667 1535
2.204 9.269 0.639 1485
2.206 9.278 0.612 1276
2.212 9.303 0.586 1021
2.212 9.304 0.558 851
2.210 9.297 0.530 598
2.202 9.260 0.500 318
0.309 1.301 0.068 255
0.309 1.301 0.065 337
0.311 1.308 0.060 339
0.313 1.316 0.056 351
0.311 1.308 0.053 299
0.243 1.023 0.067 268
0.243 1.023 0.064 301
0.245 1.030 0.060 326
0.245 1.030 0.057 370
0.245 1.030 0.054 371
0.245 1.029 0.051 356
0.245 1.029 0.048 328
0.245 1.029 0.046 301
0.469 1.950 1.537 4868
0.470 1.954 1.532 9736
0.474 1.971 1.535 8509
0.477 1.987 1.538 8296
0.478 1.991 1.533 8296
0.481 2.001 1.531 6486
0.485 2.018 1.534 5229
0.486 2.022 1.529 4657
0.479 1.994 1.500 4583
0.480 1.998 1.494 5893
0.487 2.027 1.506 8284
0.488 2.031 1.500 9664
0.489 2.035 1.494 9638
0.491 2.045 1.493 9615
0.492 2.049 1.487 9504
0.498 2.072 1.494 9492
0.507 2.108 1.509 8529
0.512 2.132 1.516 9804
0.518 2.155 1.523 8869
0.522 2.172 1.525 9016
0.521 2.169 1.514 8801
0.521 2.167 1.504 8881
0.523 2.177 1.502 7319
0.524 2.181 1.495 5412
0.525 2.185 1.489 4892
0.543 2.261 1.528 5160
0.544 2.265 1.521 6319
0.548 2.282 1.523 5668
0.556 2.312 1.532 5603
0.558 2.323 1.530 6465
0.562 2.340 1.531 6396
0.565 2.351 1.528 5011
0.547 2.275 1.473 4748
0.552 2.299 1.478 6292
0.576 2.396 1.527 5612
0.575 2.393 1.516 7506
0.578 2.404 1.513 7840
0.580 2.414 1.510 8339
0.583 2.425 1.507 8350
0.584 2.429 1.499 7781
0.584 2.432 1.492 6998
0.584 2.430 1.481 6038
0.603 2.508 1.516 6565
0.599 2.491 1.497 7994
0.600 2.495 1.490 9705
0.602 2.506 1.486 9930
0.610 2.537 1.494 8403
0.632 2.629 1.534 8736
0.633 2.633 1.527 6880
0.619 2.575 1.486 5398
0.618 2.572 1.475 5082
0.639 2.658 1.510 6498
0.641 2.669 1.506 8982
0.644 2.680 1.502 8428
0.643 2.677 1.491 7090
0.642 2.674 1.479 6989
0.635 2.643 1.454 7804
0.659 2.744 1.495 10568
0.660 2.747 1.487 12417
0.661 2.751 1.479 11944
0.662 2.755 1.470 13992
0.665 2.766 1.466 14090
0.665 2.770 1.458 12567
0.668 2.780 1.453 8887
0.699 2.910 1.505 6918
0.698 2.906 1.493 10806
0.698 2.903 1.481 12280
0.699 2.907 1.472 11018
0.703 2.925 1.470 10506
0.707 2.943 1.468 12859
0.710 2.954 1.463 12586
0.714 2.971 1.460 9552
0.725 3.017 1.471 11970
0.728 3.028 1.465 15143
0.729 3.032 1.456 18701
0.731 3.043 1.450 18257
0.732 3.047 1.441 17170
0.733 3.050 1.432 12836
0.747 3.111 1.447 9263
0.752 3.129 1.444 9600
0.753 3.132 1.435 12011
0.754 3.136 1.426 11921
0.753 3.133 1.414 7161
0.772 3.215 1.437 5505
0.777 3.233 1.433 5870
0.785 3.265 1.435 6894
0.785 3.269 1.425 8982
0.788 3.280 1.419 10112
0.794 3.305 1.417 8840
0.800 3.330 1.416 10201
0.801 3.334 1.406 8624
0.805 3.352 1.402 6484
0.815 3.391 1.406 7959
0.819 3.409 1.401 12758
0.820 3.413 1.391 15576
0.823 3.424 1.383 19329
0.824 3.427 1.373 20285
0.823 3.423 1.361 14010
0.825 3.434 1.353 8002
0.826 3.438 1.343 7086
0.829 3.448 1.335 10228
0.843 3.510 1.346 13146
0.844 3.513 1.335 19292
0.847 3.524 1.327 16890
0.849 3.535 1.319 10177
0.848 3.531 1.306 6351
0.847 3.527 1.293 6088
0.850 3.537 1.285 6643
0.851 3.541 1.275 6511
0.852 3.544 1.265 5666
0.856 3.562 1.259 4353
0.872 3.631 1.269 3844
0.882 3.671 1.270 2287
0.924 3.844 1.311 3215
0.926 3.854 1.302 3749
0.927 3.858 1.291 5011
0.930 3.868 1.282 5888
0.927 3.857 1.266 6729
0.942 3.919 1.272 6263
0.943 3.922 1.260 7002
0.941 3.918 1.246 8688
0.953 3.966 1.247 7597
0.961 3.999 1.244 10637
0.960 3.994 1.230 11105
0.962 4.005 1.220 6917
0.981 4.082 1.229 4049
0.980 4.078 1.215 4386
0.984 4.096 1.206 4198
0.985 4.099 1.194 6703
0.984 4.094 1.180 5908
1.067 4.441 1.255 6148
1.070 4.452 1.244 6055
1.074 4.470 1.235 4101
1.100 4.578 1.247 4266
1.104 4.596 1.237 4771
1.145 4.764 1.263 5635
1.140 4.745 1.243 6882
1.143 4.755 1.231 7218
1.145 4.766 1.219 6743
1.150 4.784 1.208 7403
1.150 4.787 1.194 7162
1.151 4.790 1.179 3910
1.215 5.056 1.222 3845
1.218 5.067 1.209 4187
1.224 5.093 1.199 4819
1.221 5.081 1.180 4142
1.274 5.302 1.210 3283
1.271 5.290 1.191 3098
1.270 5.286 1.174 3125
1.269 5.281 1.157 3082
1.304 5.428 1.169 4040
1.305 5.431 1.152 4092
1.304 5.426 1.135 4087
1.301 5.414 1.116 3754
1.338 5.568 1.127 4220
1.337 5.563 1.109 3958
1.370 5.703 1.116 4107
1.367 5.690 1.097 2929
1.397 5.814 1.100 2535
1.398 5.817 1.083 2704
1.470 6.116 1.113 2613
1.503 6.256 1.116 3492
1.504 6.259 1.098 4473
1.506 6.269 1.080 3576
1.485 6.180 1.048 3391
1.508 6.274 1.043 3975
1.550 6.452 1.049 4517
1.551 6.455 1.030 5260
1.550 6.450 1.010 4072
1.552 6.460 0.992 2785
1.555 6.470 0.973 2879
1.555 6.472 0.954 3010
1.600 6.658 0.958 2535
1.588 6.607 0.931 3103
1.693 7.045 0.963 3551
1.693 7.047 0.942 4075
1.692 7.042 0.920 3857
1.693 7.044 0.899 3707
1.693 7.046 0.878 2955
1.848 7.691 0.923 2602
1.852 7.709 0.902 2511
1.855 7.719 0.879 2258
1.857 7.729 0.857 2325
1.856 7.723 0.833 2632
1.856 7.725 0.810 2534
1.855 7.719 0.787 1877
1.861 7.744 0.766 2071
1.861 7.746 0.742 2449
1.862 7.747 0.719 1990
2.035 8.471 0.749 1629
2.006 8.349 0.715 1695
2.007 8.351 0.690 2034
2.005 8.345 0.664 1550
2.227 9.268 0.695 1494
2.227 9.270 0.667 1561
2.228 9.271 0.640 1418
2.230 9.281 0.612 1214
2.234 9.297 0.586 1011
2.234 9.298 0.558 878
2.233 9.292 0.530 610
2.226 9.262 0.501 298
0.336 1.400 0.063 279
0.336 1.400 0.059 356
0.338 1.407 0.054 372
0.338 1.407 0.050 334
0.340 1.414 0.045 294
0.246 1.022 0.067 256
0.247 1.030 0.063 299
0.247 1.030 0.060 321
0.247 1.029 0.057 359
0.247 1.029 0.054 353
0.247 1.029 0.051 331
0.247 1.029 0.048 311
0.247 1.028 0.046 292
0.474 1.949 1.537 4534
0.475 1.953 1.532 9069
0.479 1.969 1.535 8134
0.484 1.992 1.543 8804
0.485 1.996 1.537 8804
0.488 2.006 1.536 7223
0.490 2.017 1.534 5983
0.490 2.014 1.524 5455
0.486 1.999 1.505 5343
0.487 2.003 1.499 6761
0.493 2.026 1.506 9349
0.494 2.030 1.500 10977
0.495 2.034 1.494 11045
0.496 2.038 1.489 11113
0.496 2.041 1.483 10657
0.496 2.039 1.472 10216
0.497 2.043 1.466 8341
0.521 2.143 1.525 9739
0.525 2.160 1.527 9471
0.528 2.171 1.525 9872
0.527 2.168 1.514 9613
0.527 2.165 1.504 9610
0.529 2.176 1.502 7865
0.530 2.180 1.495 5885
0.531 2.183 1.489 5241
0.551 2.266 1.532 5240
0.552 2.270 1.525 6548
0.556 2.287 1.527 6426
0.562 2.311 1.532 6778
0.565 2.321 1.530 7635
0.567 2.332 1.527 7458
0.570 2.342 1.524 6066
0.563 2.313 1.497 5449
0.560 2.304 1.482 6886
0.582 2.394 1.527 5350
0.582 2.391 1.516 7241
0.584 2.402 1.513 7367
0.587 2.413 1.510 7862
0.589 2.423 1.507 8235
0.590 2.427 1.499 7758
0.590 2.424 1.488 6854
0.590 2.428 1.481 6214
0.608 2.499 1.512 6122
0.605 2.490 1.497 7639
0.606 2.493 1.490 9227
0.607 2.497 1.483 9841
0.617 2.535 1.494 8894
0.621 2.552 1.494 8788
0.622 2.556 1.486 7073
0.626 2.574 1.486 4899
0.638 2.625 1.504 4347
0.644 2.650 1.507 6733
0.649 2.667 1.506 9584
0.650 2.671 1.498 9356
0.651 2.675 1.491 7300
0.635 2.610 1.447 7863
0.636 2.614 1.440 8534
0.665 2.735 1.491 10917
0.668 2.746 1.487 12383
0.669 2.749 1.479 12212
0.670 2.753 1.470 14795
0.670 2.757 1.462 15244
0.673 2.768 1.458 13614
0.676 2.778 1.453 9357
0.705 2.901 1.501 7852
0.706 2.905 1.493 11602
0.706 2.901 1.481 12648
0.707 2.905 1.472 10995
0.713 2.930 1.474 10103
0.717 2.948 1.471 12325
0.718 2.952 1.463 12036
0.731 3.005 1.476 9432
0.733 3.015 1.471 10980
0.734 3.019 1.462 14172
0.737 3.030 1.456 17594
0.740 3.041 1.450 17225
0.742 3.052 1.444 16840
0.741 3.048 1.432 12695
0.756 3.109 1.447 12096
0.759 3.119 1.441 12828
0.761 3.130 1.435 15470
0.762 3.134 1.426 15673
0.763 3.138 1.417 9199
0.783 3.220 1.440 5819
0.787 3.238 1.436 7215
0.792 3.256 1.432 8023
0.794 3.267 1.425 9105
0.797 3.277 1.419 9403
0.805 3.310 1.420 9219
0.809 3.328 1.416 11655
0.812 3.339 1.409 9298
0.815 3.349 1.402 6491
0.822 3.382 1.403 8953
0.827 3.400 1.398 13950
0.829 3.411 1.391 16200
0.832 3.421 1.383 20196
0.833 3.425 1.373 22240
0.834 3.428 1.363 16422
0.835 3.432 1.353 9287
0.835 3.435 1.343 7445
0.838 3.446 1.335 10434
0.853 3.508 1.346 12971
0.854 3.511 1.335 18504
0.856 3.522 1.327 14420
0.861 3.540 1.322 8884
0.856 3.521 1.304 8977
0.857 3.524 1.293 10877
0.860 3.535 1.285 10262
0.860 3.538 1.275 8457
0.859 3.534 1.262 6877
0.864 3.552 1.256 5465
0.881 3.621 1.267 4295
0.933 3.838 1.323 2426
0.932 3.834 1.309 3877
0.937 3.852 1.302 3860
0.938 3.855 1.291 5516
0.938 3.858 1.280 6535
0.937 3.854 1.266 7852
0.951 3.909 1.270 7893
0.953 3.920 1.260 8076
0.954 3.923 1.249 9112
0.958 3.941 1.241 7222
0.966 3.974 1.238 6745
0.971 3.992 1.230 8207
0.973 4.002 1.220 6086
0.978 4.020 1.213 4418
0.991 4.075 1.215 4598
0.994 4.086 1.204 4781
0.996 4.096 1.194 6082
0.997 4.099 1.182 5047
1.079 4.438 1.255 7229
1.084 4.456 1.246 6096
1.088 4.474 1.237 4047
1.113 4.575 1.247 4206
1.115 4.585 1.235 4703
1.156 4.753 1.261 6170
1.153 4.741 1.243 7556
1.154 4.745 1.229 7902
1.158 4.763 1.219 8060
1.163 4.781 1.208 7843
1.165 4.791 1.195 6836
1.166 4.794 1.181 3776
1.227 5.046 1.221 3334
1.252 5.147 1.227 3916
1.240 5.097 1.200 4237
1.235 5.077 1.180 3491
1.291 5.306 1.212 2824
1.304 5.362 1.206 2396
1.316 5.411 1.199 2971
1.318 5.421 1.185 3718
1.319 5.424 1.169 4822
1.320 5.427 1.152 4470
1.319 5.422 1.135 3848
1.360 5.592 1.149 3945
1.351 5.557 1.126 4845
1.352 5.560 1.109 4846
1.353 5.562 1.093 4076
1.381 5.679 1.095 2645
1.371 5.636 1.071 2311
1.412 5.806 1.082 1862
1.486 6.112 1.113 2537
1.520 6.252 1.116 3642
1.521 6.255 1.098 4728
1.522 6.257 1.079 3875
1.522 6.260 1.061 3986
1.525 6.270 1.043 4741
1.568 6.448 1.049 4221
1.567 6.443 1.029 4772
1.567 6.445 1.010 3743
1.609 6.616 1.013 2656
1.572 6.466 0.973 2469
1.571 6.460 0.953 2679
1.618 6.653 0.958 2444
1.606 6.602 0.931 2706
1.712 7.040 0.963 3595
1.713 7.042 0.942 4115
1.711 7.037 0.920 3995
1.712 7.039 0.899 3978
1.712 7.041 0.878 3277
1.867 7.679 0.922 2639
1.872 7.696 0.901 2377
1.876 7.714 0.879 2082
1.876 7.716 0.856 2302
1.877 7.718 0.833 2647
1.876 7.712 0.810 2424
1.876 7.714 0.787 1737
1.880 7.731 0.765 1948
1.881 7.733 0.742 2415
1.883 7.742 0.719 1941
2.059 8.465 0.749 1575
2.029 8.344 0.715 1767
2.030 8.346 0.690 2107
2.028 8.339 0.664 1570
2.253 9.262 0.695 1629
2.255 9.272 0.668 1598
2.253 9.265 0.640 1348
2.259 9.290 0.613 1179
2.260 9.291 0.586 994
2.260 9.292 0.558 900
2.260 9.293 0.530 620
2.260 9.295 0.502 262
0.273 1.123 0.082 262
0.275 1.130 0.078 255
0.273 1.122 0.075 318
0.273 1.122 0.072 394
0.273 1.122 0.069 387
0.275 1.129 0.065 387
0.275 1.129 0.062 340
0.275 1.129 0.059 292
0.248 1.021 0.064 292
0.250 1.029 0.060 282
0.250 1.029 0.057 292
0.250 1.028 0.054 307
0.250 1.028 0.051 306
0.250 1.028 0.048 290
0.250 1.028 0.046 274
0.485 1.946 1.537 4156
0.486 1.950 1.532 8313
0.492 1.973 1.540 8027
0.496 1.989 1.543 9374
0.497 1.993 1.537 9374
0.499 2.004 1.536 8033
0.500 2.008 1.530 6807
0.501 2.011 1.524 6367
0.498 1.996 1.505 6123
0.499 2.000 1.499 7600
0.504 2.023 1.506 10408
0.505 2.027 1.500 12183
0.506 2.031 1.494 12304
0.507 2.035 1.489 12426
0.506 2.032 1.478 11700
0.507 2.036 1.472 11089
0.507 2.033 1.462 9267
0.535 2.147 1.529 9601
0.538 2.157 1.527 9832
0.540 2.168 1.525 10393
0.540 2.165 1.514 10161
0.539 2.162 1.504 10158
0.540 2.166 1.497 8301
0.542 2.177 1.495 6359
0.543 2.180 1.489 5702
0.564 2.263 1.532 5349
0.565 2.267 1.525 6820
0.569 2.284 1.527 7143
0.575 2.308 1.532 7958
0.578 2.318 1.530 8786
0.580 2.329 1.527 8507
0.583 2.339 1.524 7021
0.576 2.310 1.497 5961
0.573 2.300 1.482 7201
0.576 2.311 1.480 5555
0.594 2.381 1.512 6685
0.598 2.399 1.513 6551
0.602 2.416 1.514 7189
0.603 2.420 1.507 7939
0.602 2.417 1.496 7748
0.603 2.421 1.488 6795
0.604 2.425 1.481 6321
0.619 2.482 1.505 6014
0.618 2.479 1.493 7389
0.621 2.490 1.490 8703
0.622 2.494 1.483 9612
0.631 2.531 1.494 9176
0.635 2.549 1.494 9540
0.636 2.553 1.486 7902
0.651 2.611 1.508 6281
0.652 2.615 1.500 6332
0.659 2.646 1.507 6863
0.664 2.664 1.506 9266
0.667 2.674 1.502 9200
0.669 2.685 1.498 6889
0.646 2.593 1.440 7571
0.649 2.603 1.436 9150
0.679 2.724 1.488 11278
0.683 2.742 1.487 12492
0.686 2.753 1.482 12713
0.685 2.749 1.470 15185
0.688 2.760 1.466 15599
0.691 2.771 1.461 13767
0.691 2.775 1.453 9352
0.722 2.897 1.501 8565
0.721 2.894 1.489 12271
0.722 2.897 1.481 13098
0.725 2.908 1.476 11030
0.743 2.982 1.500 9598
0.742 2.979 1.488 11346
0.738 2.961 1.469 10999
0.748 3.000 1.476 9305
0.750 3.011 1.471 9529
0.751 3.015 1.462 12510
0.754 3.026 1.456 15799
0.757 3.037 1.450 15788
0.759 3.047 1.444 16272
0.773 3.101 1.457 12979
0.774 3.104 1.447 14493
0.776 3.115 1.441 15429
0.779 3.126 1.435 17978
0.780 3.130 1.426 18446
0.783 3.140 1.419 10744
0.800 3.208 1.437 6192
0.806 3.233 1.436 8251
0.809 3.244 1.429 8886
0.813 3.262 1.425 8329
0.819 3.287 1.424 8159
0.826 3.312 1.423 9746
0.828 3.323 1.416 12909
0.831 3.334 1.409 9532
0.834 3.345 1.402 6017
0.842 3.377 1.403 9119
0.846 3.395 1.398 14096
0.851 3.413 1.394 15765
0.852 3.417 1.383 19850
0.852 3.420 1.373 22935
0.853 3.424 1.363 18104
0.856 3.434 1.356 11056
0.857 3.438 1.346 8293
0.858 3.441 1.335 10417
0.873 3.503 1.346 14207
0.874 3.506 1.335 18201
0.876 3.517 1.327 16433
0.879 3.527 1.319 15527
0.878 3.523 1.306 17184
0.877 3.519 1.293 18190
0.880 3.530 1.285 15660
0.881 3.533 1.275 11659
0.880 3.529 1.262 8781
0.884 3.547 1.256 6717
0.901 3.616 1.267 4609
0.953 3.825 1.321 2789
0.954 3.828 1.309 4261
0.959 3.846 1.302 3828
0.959 3.850 1.291 5873
0.958 3.846 1.277 7209
0.959 3.849 1.266 8912
0.973 3.904 1.270 9490
0.974 3.907 1.258 8929
0.976 3.917 1.249 9401
0.979 3.928 1.239 8416
0.985 3.953 1.234 6863
0.992 3.979 1.228 6167
0.998 4.004 1.222 4740
1.001 4.015 1.213 4493
1.014 4.070 1.215 4813
1.015 4.073 1.202 5332
1.018 4.083 1.192 5697
1.104 4.429 1.269 5821
1.106 4.439 1.257 8121
1.109 4.450 1.246 5988
1.117 4.483 1.240 3692
1.139 4.568 1.247 3766
1.141 4.579 1.235 4063
1.181 4.739 1.259 6092
1.180 4.735 1.243 7580
1.181 4.738 1.229 7717
1.185 4.756 1.219 8139
1.190 4.774 1.208 7578
1.192 4.785 1.195 6318
1.193 4.788 1.181 3636
1.256 5.038 1.221 2831
1.286 5.162 1.231 3689
1.297 5.203 1.224 5062
1.303 5.228 1.213 4087
1.308 5.246 1.201 2402
1.299 5.212 1.177 2983
1.347 5.403 1.199 3533
1.349 5.414 1.185 4408
1.350 5.417 1.169 5337
1.379 5.533 1.174 4877
1.380 5.536 1.157 4193
1.392 5.584 1.149 4470
1.383 5.549 1.126 5372
1.382 5.544 1.108 5612
1.384 5.554 1.093 4844
1.396 5.603 1.084 3614
1.401 5.620 1.070 3071
1.466 5.881 1.095 1835
1.523 6.111 1.114 2402
1.554 6.236 1.115 3625
1.555 6.238 1.097 4734
1.555 6.241 1.078 4098
1.558 6.251 1.061 4554
1.559 6.254 1.042 5390
1.559 6.256 1.023 3945
1.605 6.442 1.030 4111
1.625 6.520 1.021 3813
1.622 6.507 1.000 2517
1.697 6.807 1.019 2465
1.608 6.451 0.953 2247
1.658 6.652 0.959 2418
1.660 6.662 0.940 2591
1.752 7.030 0.963 3519
1.753 7.033 0.942 4033
1.753 7.035 0.921 3993
1.752 7.029 0.899 3997
1.752 7.031 0.878 3356
1.911 7.668 0.922 2683
1.914 7.678 0.900 2269
1.920 7.703 0.879 1929
1.920 7.705 0.856 2277
1.921 7.707 0.833 2605
1.919 7.701 0.810 2313
2.044 8.201 0.829 1652
1.968 7.896 0.779 1973
1.968 7.898 0.756 2449
1.969 7.900 0.732 2147
2.105 8.446 0.748 1559
2.077 8.332 0.715 1797
2.077 8.334 0.690 2123
2.076 8.328 0.664 1563
2.305 9.249 0.695 1731
2.308 9.259 0.668 1620
2.310 9.268 0.641 1327
2.312 9.277 0.613 1157
2.312 9.278 0.586 933
2.313 9.279 0.558 869
2.313 9.280 0.530 602
2.313 9.281 0.502 274
0.348 1.398 0.075 289
0.350 1.405 0.070 287
0.350 1.405 0.066 317
0.350 1.405 0.062 380
0.348 1.397 0.059 430
0.348 1.397 0.055 425
0.348 1.396 0.050 373
0.350 1.404 0.046 307
0.256 1.027 0.057 265
0.256 1.027 0.054 264
0.256 1.027 0.051 250
0.489 1.945 1.537 3909
0.490 1.949 1.532 7819
0.497 1.978 1.544 8279
0.500 1.988 1.543 9847
0.502 1.999 1.542 9849
0.503 2.003 1.536 8780
0.504 2.007 1.530 7711
0.505 2.010 1.524 7230
0.505 2.008 1.514 6785
0.502 1.999 1.499 8312
0.508 2.022 1.506 11373
0.511 2.032 1.505 13267
0.512 2.036 1.499 13376
0.511 2.034 1.489 13493
0.510 2.031 1.478 12521
0.511 2.035 1.472 11733
0.511 2.032 1.462 10074
0.539 2.146 1.529 9432
0.542 2.156 1.527 9936
0.544 2.166 1.525 10582
0.544 2.164 1.514 10475
0.543 2.161 1.504 10560
0.544 2.165 1.497 8658
0.548 2.182 1.499 6925
0.549 2.186 1.493 6445
0.568 2.262 1.532 5473
0.571 2.272 1.529 7133
0.574 2.283 1.527 7742
0.580 2.306 1.532 8979
0.582 2.317 1.530 9786
0.585 2.327 1.527 9369
0.586 2.331 1.520 7814
0.587 2.335 1.513 6274
0.578 2.299 1.482 7275
0.582 2.316 1.484 5629
0.596 2.374 1.508 6099
0.601 2.391 1.509 5695
0.608 2.421 1.518 6404
0.608 2.419 1.507 7489
0.607 2.416 1.496 7832
0.606 2.413 1.485 6923
0.622 2.477 1.512 6409
0.623 2.481 1.505 6310
0.623 2.478 1.493 7343
0.625 2.489 1.490 8178
0.626 2.493 1.483 9329
0.638 2.537 1.497 9630
0.640 2.548 1.494 10813
0.643 2.558 1.490 9233
0.654 2.603 1.504 6879
0.657 2.614 1.500 6622
0.665 2.645 1.507 6502
0.671 2.669 1.510 8020
0.673 2.680 1.506 8441
0.676 2.691 1.501 6754
0.679 2.701 1.497 4678
0.683 2.719 1.496 6976
0.686 2.730 1.491 11176
0.687 2.734 1.483 12117
0.690 2.744 1.479 12229
0.691 2.748 1.470 14349
0.693 2.759 1.466 14628
0.696 2.769 1.461 13143
0.699 2.780 1.456 9084
0.728 2.895 1.501 9060
0.727 2.892 1.489 12880
0.728 2.896 1.481 13660
0.730 2.907 1.476 11075
0.749 2.980 1.500 10180
0.750 2.984 1.491 11711
0.749 2.981 1.479 10622
0.755 3.006 1.479 9058
0.758 3.017 1.474 7882
0.757 3.013 1.462 10454
0.758 3.017 1.453 13888
0.763 3.035 1.450 14665
0.765 3.046 1.444 15900
0.779 3.099 1.457 13586
0.780 3.103 1.447 15929
0.782 3.114 1.441 16833
0.785 3.124 1.435 19146
0.786 3.128 1.426 20054
0.791 3.146 1.422 11799
0.806 3.207 1.437 6641
0.812 3.232 1.436 8685
0.813 3.235 1.426 9228
0.816 3.246 1.420 7442
0.827 3.293 1.427 7113
0.832 3.311 1.423 10259
0.836 3.329 1.419 13758
0.837 3.332 1.409 9419
0.840 3.343 1.402 5344
0.848 3.375 1.403 8591
0.853 3.393 1.398 13304
0.857 3.411 1.394 14533
0.860 3.422 1.386 18524
0.859 3.418 1.373 22246
0.860 3.422 1.363 18723
0.872 3.469 1.369 12633
0.878 3.494 1.366 10951
0.879 3.498 1.356 13886
0.880 3.501 1.346 18258
0.882 3.512 1.338 21062
0.883 3.515 1.327 22859
0.886 3.526 1.319 25564
0.885 3.522 1.306 26984
0.884 3.518 1.293 26497
0.887 3.528 1.285 21693
0.887 3.531 1.275 15129
0.886 3.527 1.262 10795
0.889 3.538 1.254 7894
0.906 3.607 1.264 4731
0.957 3.809 1.316 2881
0.962 3.827 1.309 4290
0.964 3.837 1.300 3887
0.967 3.848 1.291 6218
0.966 3.844 1.277 7833
0.967 3.847 1.266 9782
0.979 3.894 1.267 10809
0.981 3.905 1.258 9624
0.984 3.916 1.249 9608
0.988 3.934 1.241 9470
0.991 3.944 1.232 7989
0.994 3.955 1.222 5881
1.004 3.995 1.220 3355
1.074 4.272 1.283 4078
1.020 4.060 1.213 4544
1.021 4.063 1.200 5433
1.022 4.066 1.188 5537
1.112 4.427 1.269 6079
1.115 4.437 1.257 8443
1.118 4.448 1.246 6018
1.130 4.496 1.244 3613
1.146 4.559 1.245 3171
1.150 4.577 1.235 3064
1.190 4.737 1.259 5531
1.187 4.725 1.242 6997
1.190 4.736 1.229 6786
1.195 4.754 1.219 7173
1.199 4.772 1.208 6654
1.202 4.782 1.195 5612
1.204 4.793 1.183 3372
1.239 4.931 1.198 2435
1.302 5.182 1.236 3950
1.305 5.193 1.222 5763
1.311 5.218 1.212 4576
1.310 5.214 1.195 3206
1.311 5.217 1.179 4114
1.314 5.227 1.165 4213
1.358 5.403 1.183 4686
1.360 5.414 1.169 5515
1.390 5.530 1.174 5194
1.390 5.533 1.157 4452
1.404 5.589 1.151 4662
1.394 5.546 1.126 5795
1.393 5.541 1.108 6181
1.397 5.559 1.094 5419
1.407 5.600 1.084 4700
1.412 5.618 1.070 3774
1.477 5.878 1.095 2502
1.535 6.108 1.114 2290
1.564 6.225 1.114 3467
1.567 6.235 1.097 4455
1.545 6.147 1.064 4337
1.568 6.241 1.059 5001
1.571 6.251 1.042 5793
1.571 6.253 1.023 4285
1.637 6.514 1.041 3299
1.638 6.517 1.021 3793
1.634 6.504 1.000 2575
1.710 6.804 1.019 2626
1.708 6.799 0.998 2309
1.625 6.466 0.936 2549
1.675 6.666 0.940 2863
1.766 7.027 0.963 3291
1.766 7.029 0.942 3763
1.767 7.031 0.921 3824
1.766 7.026 0.899 3849
1.766 7.028 0.878 3295
1.769 7.038 0.858 2700
1.923 7.651 0.898 2321
1.839 7.317 0.842 1869
1.933 7.694 0.856 2205
1.934 7.696 0.833 2526
1.932 7.690 0.809 2191
2.060 8.197 0.829 1875
1.983 7.892 0.779 2290
1.984 7.894 0.756 2728
1.984 7.896 0.732 2355
2.121 8.441 0.748 1540
2.093 8.328 0.715 1834
2.093 8.330 0.690 2145
2.092 8.324 0.664 1568
2.231 8.877 0.673 1834
2.327 9.262 0.668 1632
2.330 9.271 0.641 1349
2.330 9.272 0.613 1109
2.330 9.274 0.586 820
2.331 9.275 0.558 773
2.331 9.276 0.530 542
2.331 9.277 0.502 259
0.285 1.136 0.084 293
0.284 1.128 0.081 319
0.285 1.136 0.077 322
0.285 1.136 0.074 381
0.285 1.135 0.071 440
0.285 1.135 0.068 422
0.283 1.127 0.065 407
0.285 1.135 0.061 333
0.287 1.142 0.057 263
0.495 1.957 1.547 3875
0.496 1.961 1.541 7750
0.501 1.984 1.549 8704
0.504 1.994 1.548 10241
0.505 1.998 1.542 10279
0.506 2.002 1.536 9410
0.507 2.006 1.530 8540
0.508 2.010 1.524 7955
0.509 2.014 1.518 7370
0.508 2.011 1.508 8845
0.511 2.021 1.506 12140
0.514 2.032 1.505 14148
0.515 2.036 1.499 14180
0.516 2.039 1.493 14211
0.513 2.030 1.478 12972
0.513 2.028 1.468 12037
0.514 2.032 1.462 10529
0.544 2.151 1.533 9088
0.545 2.155 1.527 9743
0.546 2.159 1.521 10398
0.547 2.163 1.514 10486
0.546 2.161 1.504 10725
0.549 2.171 1.502 8886
0.551 2.181 1.499 7654
0.554 2.192 1.497 7380
0.555 2.195 1.491 5737
0.574 2.271 1.529 7501
0.579 2.288 1.531 8254
0.583 2.306 1.532 9807
0.585 2.316 1.530 10596
0.588 2.327 1.527 9993
0.589 2.331 1.520 8346
0.590 2.334 1.513 6537
0.581 2.298 1.482 6943
0.585 2.316 1.484 5417
0.598 2.366 1.504 5805
0.602 2.383 1.505 5322
0.612 2.420 1.518 5734
0.608 2.404 1.499 7118
0.609 2.408 1.492 7975
0.610 2.412 1.485 7084
0.626 2.476 1.512 7231
0.627 2.480 1.505 6945
0.626 2.477 1.493 7451
0.627 2.481 1.486 7675
0.630 2.492 1.483 8871
0.641 2.536 1.497 9353
0.644 2.547 1.494 10793
0.646 2.557 1.490 9036
0.661 2.616 1.511 6757
0.662 2.620 1.504 6257
0.665 2.630 1.500 6303
0.673 2.661 1.506 6889
0.675 2.672 1.502 7663
0.678 2.683 1.498 6672
0.683 2.700 1.497 5087
0.687 2.718 1.496 7544
0.690 2.729 1.491 11395
0.691 2.733 1.483 11473
0.692 2.736 1.475 10837
0.694 2.747 1.470 12896
0.699 2.765 1.469 13840
0.702 2.775 1.464 13001
0.704 2.786 1.459 9633
0.730 2.887 1.498 9496
0.731 2.891 1.489 13299
0.732 2.895 1.481 14081
0.735 2.906 1.476 11050
0.753 2.979 1.500 10305
0.756 2.990 1.494 11825
0.757 2.994 1.485 10850
0.760 3.005 1.479 9048
0.764 3.023 1.477 6680
0.762 3.012 1.462 8339
0.762 3.016 1.453 12164
0.767 3.034 1.450 14060
0.771 3.052 1.447 15854
0.778 3.077 1.447 13748
0.784 3.102 1.447 16339
0.787 3.112 1.441 17100
0.790 3.123 1.435 19080
0.792 3.134 1.429 20524
0.797 3.152 1.425 12280
0.810 3.205 1.437 7281
0.817 3.230 1.436 8512
0.816 3.227 1.423 8941
0.811 3.209 1.405 7801
0.809 3.198 1.390 6840
0.838 3.317 1.426 10735
0.841 3.327 1.419 14188
0.844 3.338 1.412 9219
0.845 3.342 1.402 4764
0.851 3.367 1.400 7815
0.856 3.385 1.396 11968
0.862 3.410 1.394 12878
0.865 3.421 1.386 16371
0.864 3.417 1.373 20167
0.867 3.428 1.366 18238
0.877 3.468 1.369 14606
0.883 3.493 1.366 14978
0.886 3.504 1.358 19314
0.887 3.507 1.348 23621
0.887 3.510 1.338 26236
0.888 3.514 1.327 30503
0.889 3.517 1.317 35198
0.890 3.520 1.306 36053
0.891 3.524 1.296 34044
0.892 3.527 1.285 26957
0.892 3.530 1.275 17926
0.891 3.526 1.262 12312
0.894 3.537 1.254 8705
0.895 3.540 1.244 4689
0.899 3.558 1.238 3065
0.963 3.811 1.305 4081
0.962 3.806 1.291 4143
0.972 3.847 1.291 6521
0.971 3.842 1.277 8138
0.974 3.853 1.268 10160
0.984 3.893 1.267 11763
0.987 3.904 1.258 10380
0.989 3.914 1.249 10503
0.994 3.932 1.241 10204
0.995 3.935 1.229 8143
0.997 3.946 1.220 6299
0.998 3.949 1.208 4054
1.080 4.271 1.283 5312
1.080 4.274 1.270 7232
1.079 4.270 1.256 4999
1.029 4.072 1.190 5405
1.087 4.298 1.236 7212
1.121 4.436 1.257 8284
1.124 4.446 1.246 6097
1.138 4.502 1.246 3717
1.148 4.542 1.242 2967
1.151 4.553 1.230 2393
1.195 4.728 1.258 4787
1.194 4.723 1.242 6036
1.197 4.734 1.229 5351
1.201 4.752 1.219 5470
1.208 4.778 1.210 5348
1.210 4.788 1.197 4731
1.211 4.791 1.183 2903
1.246 4.929 1.198 2818
1.309 5.180 1.236 4182
1.312 5.191 1.222 6098
1.317 5.209 1.210 5192
1.317 5.212 1.195 4518
1.318 5.215 1.179 5517
1.321 5.225 1.165 5488
1.365 5.402 1.183 4560
1.366 5.404 1.167 4988
1.397 5.528 1.174 5044
1.398 5.531 1.157 4441
1.412 5.587 1.151 4759
1.402 5.544 1.126 5881
1.400 5.540 1.108 6297
1.405 5.557 1.094 5530
1.415 5.598 1.084 5512
1.420 5.616 1.070 4243
1.485 5.876 1.095 2944
1.544 6.106 1.114 2283
1.571 6.215 1.113 3171
1.574 6.225 1.096 3980
1.553 6.145 1.064 4333
1.577 6.238 1.059 5109
1.580 6.249 1.042 5831
1.580 6.251 1.023 4390
1.648 6.520 1.042 3116
1.647 6.515 1.021 3390
1.644 6.502 1.000 2395
1.717 6.794 1.018 2717
1.647 6.514 0.962 2526
1.643 6.501 0.941 2885
1.686 6.671 0.941 3101
1.689 6.681 0.922 3253
1.689 6.683 0.902 3401
1.777 7.029 0.921 3461
1.775 7.023 0.899 3484
1.776 7.026 0.878 3030
1.778 7.035 0.858 2667
1.932 7.641 0.897 2490
1.851 7.322 0.843 2225
1.851 7.324 0.821 2153
1.943 7.685 0.832 2394
1.943 7.687 0.809 2105
2.071 8.194 0.829 2041
1.994 7.890 0.779 2431
1.995 7.891 0.756 2835
1.995 7.893 0.732 2438
2.106 8.331 0.740 1481
2.105 8.325 0.715 1841
2.105 8.327 0.690 2140
2.103 8.321 0.664 1562
2.243 8.874 0.673 1984
2.340 9.258 0.668 1637
2.238 8.854 0.618 1371
2.343 9.269 0.613 1045
2.343 9.270 0.586 689
2.344 9.271 0.558 648
2.344 9.273 0.530 463
0.328 1.297 0.080 296
0.328 1.297 0.076 330
0.328 1.296 0.072 364
0.328 1.296 0.068 411
0.328 1.296 0.065 458
0.328 1.296 0.061 437
0.328 1.296 0.057 416
0.327 1.295 0.053 339
0.327 1.295 0.050 263
0.504 1.968 1.556 4097
0.505 1.972 1.550 8194
0.507 1.982 1.549 9168
0.510 1.992 1.548 10508
0.511 1.996 1.542 10542
0.512 2.000 1.536 9910
0.513 2.004 1.530 9277
0.514 2.008 1.524 8544
0.515 2.012 1.518 7811
0.514 2.010 1.508 9266
0.517 2.020 1.506 12698
0.520 2.030 1.505 14768
0.521 2.034 1.499 14642
0.522 2.038 1.493 14515
0.519 2.029 1.478 13050
0.519 2.026 1.468 12000
0.520 2.030 1.462 10618
0.521 2.034 1.456 9236
0.551 2.154 1.527 9365
0.552 2.158 1.521 9885
0.553 2.161 1.514 10252
0.553 2.159 1.504 10667
0.555 2.169 1.502 9091
0.560 2.186 1.503 8504
0.561 2.190 1.497 8475
0.562 2.194 1.491 6520
0.581 2.270 1.529 7807
0.585 2.287 1.531 8665
0.590 2.304 1.532 10340
0.592 2.314 1.530 11115
0.595 2.325 1.527 10345
0.596 2.329 1.520 8629
0.597 2.333 1.513 6597
0.588 2.297 1.482 6321
0.597 2.334 1.495 5284
0.602 2.351 1.496 5996
0.606 2.368 1.497 5616
0.611 2.385 1.498 5630
0.613 2.396 1.495 7278
0.616 2.406 1.492 8124
0.632 2.471 1.519 7676
0.633 2.474 1.512 8266
0.633 2.472 1.501 7946
0.634 2.475 1.493 7698
0.635 2.479 1.486 7164
0.637 2.490 1.483 8364
0.649 2.534 1.497 8972
0.651 2.545 1.494 10715
0.654 2.555 1.490 9092
0.671 2.621 1.515 7225
0.672 2.624 1.507 7356
0.673 2.628 1.500 6900
0.681 2.659 1.506 6496
0.683 2.670 1.502 7370
0.688 2.688 1.501 6530
0.663 2.589 1.440 5408
0.697 2.723 1.499 7912
0.698 2.727 1.491 11405
0.697 2.724 1.480 10227
0.698 2.727 1.472 8232
0.704 2.752 1.474 10011
0.709 2.770 1.473 12779
0.710 2.773 1.464 12919
0.713 2.784 1.459 10220
0.739 2.885 1.498 9706
0.739 2.889 1.489 13405
0.740 2.893 1.481 14172
0.743 2.903 1.476 10795
0.764 2.984 1.503 10042
0.765 2.988 1.494 11745
0.768 2.999 1.488 11114
0.769 3.003 1.479 9398
0.768 2.999 1.467 6177
0.769 3.003 1.459 6845
0.771 3.014 1.453 10856
0.776 3.032 1.450 13912
0.781 3.049 1.447 16179
0.785 3.067 1.444 13800
0.795 3.106 1.450 15912
0.796 3.110 1.441 16695
0.799 3.121 1.435 18092
0.802 3.132 1.429 19756
0.808 3.157 1.428 12068
0.818 3.196 1.434 7786
0.826 3.228 1.436 7766
0.824 3.217 1.420 8200
0.821 3.207 1.405 9138
0.818 3.196 1.390 7919
0.850 3.321 1.429 11212
0.851 3.325 1.419 14069
0.854 3.336 1.412 9090
0.851 3.325 1.396 4707
0.856 3.343 1.392 7222
0.868 3.390 1.398 10578
0.872 3.408 1.394 11257
0.875 3.418 1.386 13835
0.876 3.422 1.376 17348
0.879 3.433 1.369 17130
0.889 3.472 1.371 15998
0.895 3.497 1.369 18367
0.896 3.501 1.358 23760
0.897 3.504 1.348 27875
0.898 3.508 1.338 30644
0.899 3.511 1.327 36642
0.900 3.514 1.317 42487
0.900 3.518 1.306 42668
0.901 3.521 1.296 39234
0.902 3.524 1.285 29923
0.903 3.528 1.275 19054
0.902 3.523 1.262 12736
0.905 3.534 1.254 8860
0.905 3.537 1.244 4827
0.912 3.562 1.240 3345
0.973 3.800 1.302 3949
0.974 3.804 1.291 4793
0.982 3.836 1.289 6949
0.983 3.839 1.277 8234
0.986 3.850 1.268 10093
0.996 3.890 1.267 12177
0.998 3.901 1.258 11178
1.003 3.919 1.251 11863
1.006 3.929 1.241 10883
1.007 3.932 1.229 8091
1.007 3.935 1.218 6978
1.010 3.946 1.208 6406
1.092 4.268 1.283 6791
1.093 4.271 1.270 10865
1.092 4.267 1.256 8398
1.099 4.292 1.249 7521
1.098 4.288 1.234 9943
1.135 4.432 1.257 7566
1.137 4.443 1.246 6035
1.150 4.491 1.244 3775
1.160 4.531 1.240 3590
1.163 4.542 1.228 2996
1.209 4.724 1.258 4035
1.208 4.720 1.242 5041
1.213 4.738 1.231 3961
1.219 4.763 1.222 3728
1.224 4.781 1.211 4189
1.225 4.784 1.197 3715
1.258 4.915 1.211 2752
1.263 4.933 1.200 3024
1.325 5.176 1.236 4171
1.328 5.187 1.222 6198
1.330 5.197 1.209 5764
1.333 5.208 1.195 5747
1.334 5.211 1.179 6686
1.337 5.221 1.165 6518
1.341 5.239 1.152 5580
1.380 5.393 1.166 5182
1.412 5.516 1.172 4615
1.415 5.527 1.157 4042
1.429 5.583 1.151 4577
1.418 5.540 1.126 5744
1.417 5.535 1.108 6082
1.425 5.568 1.097 5676
1.432 5.594 1.084 6157
1.436 5.611 1.070 4391
1.503 5.872 1.095 3301
1.500 5.859 1.075 2457
1.588 6.203 1.112 2792
1.592 6.221 1.096 3448
1.585 6.193 1.072 4189
1.594 6.226 1.058 4888
1.598 6.244 1.042 5519
1.597 6.239 1.022 4291
1.594 6.226 1.001 3424
1.668 6.517 1.022 2710
1.737 6.786 1.038 2218
1.738 6.789 1.018 2771
1.664 6.502 0.961 3065
1.665 6.504 0.941 3432
1.706 6.666 0.941 3302
1.709 6.676 0.922 3527
1.709 6.678 0.902 3731
1.708 6.673 0.882 3450
1.853 7.239 0.923 3362
1.799 7.028 0.879 2614
1.956 7.640 0.921 2563
1.872 7.314 0.865 2681
1.873 7.316 0.843 2546
1.875 7.326 0.822 2499
1.874 7.320 0.799 2216
1.962 7.666 0.808 2077
2.094 8.180 0.828 2117
2.018 7.884 0.779 2467
2.018 7.885 0.756 2819
2.019 7.887 0.732 2408
2.131 8.325 0.740 1556
2.129 8.319 0.715 1802
2.130 8.320 0.690 2081
2.267 8.858 0.699 1593
2.270 8.867 0.673 2096
2.268 8.861 0.646 1657
2.265 8.847 0.618 1368
2.334 9.116 0.606 976
2.371 9.263 0.586 540
2.371 9.264 0.558 496
2.372 9.266 0.530 376
0.314 1.227 0.083 291
0.314 1.227 0.079 330
0.314 1.227 0.076 341
0.314 1.226 0.072 381
0.314 1.226 0.069 419
0.314 1.226 0.065 416
0.314 1.226 0.062 392
0.314 1.226 0.058 328
0.314 1.225 0.055 256
0.506 1.967 1.556 4375
0.507 1.971 1.550 8751
0.511 1.988 1.553 9441
0.512 1.992 1.548 10428
0.513 1.996 1.542 10457
0.515 2.000 1.536 10102
0.516 2.004 1.530 9746
0.517 2.008 1.524 8847
0.518 2.012 1.518 7949
0.519 2.015 1.512 9414
0.520 2.019 1.506 12942
0.522 2.030 1.505 15014
0.523 2.033 1.499 14702
0.524 2.037 1.493 14391
0.523 2.035 1.483 12847
0.523 2.032 1.472 11691
0.522 2.029 1.462 10437
0.523 2.033 1.456 9216
0.554 2.153 1.527 8783
0.555 2.157 1.521 9054
0.556 2.161 1.514 9790
0.557 2.165 1.508 10526
0.560 2.175 1.506 9275
0.562 2.185 1.503 9307
0.563 2.189 1.497 9468
0.566 2.200 1.495 7276
0.585 2.276 1.534 8007
0.588 2.286 1.531 8859
0.593 2.303 1.532 10548
0.595 2.314 1.530 11330
0.598 2.324 1.527 10454
0.599 2.328 1.520 8699
0.600 2.332 1.513 6649
0.589 2.289 1.478 5553
0.602 2.340 1.499 5541
0.605 2.350 1.496 6591
0.607 2.361 1.493 6389
0.610 2.371 1.490 6354
0.614 2.388 1.491 7588
