1.875 5.066 1.184 4510
1.879 5.076 1.169 5541
1.891 5.108 1.160 4683
1.895 5.118 1.145 3794
1.896 5.121 1.130 3756
1.899 5.131 1.115 3970
1.971 5.324 1.135 3899
1.972 5.326 1.119 5565
1.978 5.344 1.105 5434
1.971 5.324 1.085 3985
2.018 5.451 1.090 3975
2.022 5.461 1.075 5117
2.023 5.464 1.058 4283
2.062 5.569 1.058 4370
2.065 5.579 1.042 6881
2.069 5.589 1.026 5154
2.067 5.584 1.008 2976
2.063 5.571 0.988 2107
2.159 5.831 1.010 2239
2.228 6.017 1.019 2242
2.261 6.108 1.013 2537
2.303 6.221 1.010 3223
2.296 6.201 0.988 3163
2.305 6.225 0.971 3187
2.311 6.242 0.954 3156
2.331 6.296 0.941 3200
2.337 6.313 0.924 4466
2.338 6.315 0.904 5047
2.336 6.310 0.884 4022
2.451 6.622 0.900 2803
2.452 6.624 0.880 2236
2.560 6.914 0.891 1832
2.558 6.909 0.869 1761
2.558 6.911 0.848 1826
2.564 6.927 0.828 1717
2.694 7.277 0.840 1622
2.697 7.286 0.818 2266
2.701 7.295 0.796 3016
2.712 7.327 0.776 2779
2.817 7.610 0.777 1924
2.968 8.018 0.787 2382
2.972 8.028 0.763 2180
3.024 8.170 0.749 2389
3.140 8.483 0.746 2534
3.138 8.477 0.719 3145
3.136 8.471 0.692 3050
3.134 8.465 0.665 2275
3.033 8.192 0.623 1650
3.247 8.772 0.630 1505
3.143 8.491 0.588 1589
3.144 8.493 0.562 1616
3.144 8.494 0.535 1497
3.145 8.495 0.509 1231
3.145 8.496 0.483 666
3.143 8.489 0.456 370
0.707 1.898 1.551 3324
0.708 1.902 1.545 6649
0.714 1.917 1.549 7507
0.715 1.921 1.543 8608
0.717 1.925 1.537 8608
0.716 1.923 1.527 15195
0.717 1.927 1.521 21989
0.719 1.930 1.515 20471
0.720 1.934 1.509 18954
0.724 1.944 1.508 14127
0.739 1.985 1.528 10031
0.743 1.995 1.527 9764
0.744 1.999 1.521 12418
0.746 2.002 1.515 15072
0.747 2.006 1.509 16526
0.751 2.016 1.507 18475
0.752 2.020 1.501 19941
0.753 2.023 1.495 21407
0.755 2.027 1.488 18364
0.756 2.031 1.482 15322
0.758 2.034 1.476 10871
0.768 2.063 1.487 7039
0.802 2.155 1.539 6690
0.773 2.077 1.478 5168
0.829 2.226 1.568 6163
0.833 2.236 1.565 7002
0.836 2.246 1.562 8275
0.838 2.250 1.555 9214
0.839 2.254 1.549 10153
0.838 2.252 1.538 13105
0.842 2.262 1.535 18692
0.846 2.272 1.532 21982
0.847 2.276 1.525 22610
0.849 2.280 1.518 22105
0.850 2.283 1.511 19969
0.854 2.293 1.508 17923
0.858 2.304 1.505 14080
0.866 2.327 1.510 11766
0.877 2.356 1.518 8472
0.881 2.367 1.515 7347
0.880 2.364 1.504 8875
0.884 2.374 1.500 7817
0.890 2.391 1.501 6381
0.909 2.440 1.520 6410
0.912 2.451 1.516 7537
0.916 2.461 1.512 6810
0.945 2.537 1.546 11348
0.946 2.541 1.538 15281
0.947 2.544 1.530 19602
0.949 2.548 1.522 23712
0.950 2.552 1.515 23809
0.952 2.556 1.507 23624
0.953 2.559 1.499 23205
0.957 2.570 1.495 26550
0.958 2.573 1.487 27394
0.962 2.584 1.483 22004
0.966 2.594 1.478 14417
0.962 2.584 1.463 8887
0.964 2.588 1.455 7066
0.995 2.672 1.489 9933
0.999 2.682 1.484 17582
1.000 2.686 1.476 25205
1.001 2.689 1.468 25402
1.000 2.686 1.456 19489
0.999 2.683 1.445 10073
1.018 2.734 1.460 10007
1.019 2.738 1.451 11187
1.016 2.728 1.436 11558
1.012 2.718 1.421 10136
1.016 2.728 1.416 6189
1.080 2.901 1.488 5090
1.082 2.905 1.479 7986
1.085 2.915 1.474 10461
1.092 2.932 1.471 9780
1.091 2.929 1.459 9423
1.110 2.980 1.472 6812
1.116 2.998 1.469 8914
1.118 3.001 1.460 9370
1.116 2.998 1.447 8519
1.110 2.981 1.429 8419
1.137 3.053 1.450 7097
1.141 3.064 1.444 8059
1.142 3.067 1.434 9940
1.143 3.071 1.425 12664
1.152 3.095 1.424 11199
1.161 3.119 1.423 10065
1.165 3.130 1.417 11242
1.172 3.147 1.413 13474
1.176 3.157 1.406 12410
1.185 3.182 1.405 9234
1.191 3.199 1.401 9555
1.195 3.209 1.393 11041
1.196 3.213 1.384 9571
1.221 3.279 1.398 8141
1.222 3.282 1.388 7368
1.223 3.286 1.378 4967
1.222 3.282 1.365 4589
1.221 3.279 1.353 4034
1.243 3.338 1.364 3250
1.247 3.348 1.356 3445
1.256 3.373 1.353 3481
1.257 3.376 1.343 4353
1.261 3.386 1.335 4541
1.228 3.298 1.292 5288
1.224 3.287 1.277 5047
1.322 3.551 1.358 7125
1.323 3.554 1.347 6163
1.319 3.544 1.331 4795
1.321 3.547 1.320 3881
1.327 3.564 1.314 3927
1.331 3.574 1.306 5145
1.335 3.585 1.297 3549
1.373 3.687 1.318 4540
1.379 3.705 1.311 6634
1.386 3.722 1.305 7093
1.395 3.747 1.300 7630
1.404 3.771 1.295 8723
1.408 3.781 1.286 6255
1.412 3.792 1.276 7164
1.416 3.802 1.267 9093
1.417 3.805 1.255 6494
1.431 3.844 1.254 2910
1.472 3.954 1.273 4577
1.481 3.979 1.267 6933
1.485 3.989 1.257 7365
1.502 4.035 1.257 9252
1.501 4.031 1.242 14467
1.502 4.034 1.230 13247
1.508 4.051 1.221 10533
1.512 4.061 1.211 9944
1.511 4.057 1.197 9010
1.509 4.053 1.182 7310
1.540 4.135 1.190 7351
1.543 4.145 1.179 8472
1.547 4.155 1.168 5966
1.621 4.353 1.204 3630
1.625 4.363 1.192 3851
1.626 4.366 1.179 3629
1.624 4.362 1.164 3069
1.787 4.799 1.252 2650
1.791 4.809 1.239 3706
1.795 4.820 1.226 3374
1.801 4.837 1.214 2936
1.808 4.855 1.203 2960
1.825 4.901 1.197 3156
1.826 4.904 1.182 3513
1.887 5.067 1.201 2460
1.885 5.063 1.184 4483
1.889 5.073 1.169 5352
1.898 5.097 1.158 4556
1.902 5.107 1.144 3612
1.905 5.117 1.130 3775
1.909 5.127 1.115 4375
1.937 5.203 1.113 4000
1.982 5.323 1.119 5090
1.988 5.340 1.105 5144
1.981 5.321 1.085 3909
2.031 5.455 1.092 3429
2.035 5.465 1.076 4786
2.033 5.460 1.058 4027
2.075 5.573 1.059 4609
2.079 5.582 1.043 7569
2.079 5.585 1.026 5767
2.078 5.580 1.008 3050
2.169 5.825 1.028 2146
2.170 5.827 1.010 2364
2.239 6.013 1.019 2124
2.319 6.229 1.031 2758
2.317 6.224 1.011 3344
2.242 6.020 0.963 2912
2.325 6.243 0.974 2955
2.328 6.253 0.956 2884
2.343 6.292 0.941 2664
2.349 6.309 0.924 4166
2.350 6.311 0.904 4816
2.348 6.305 0.884 3782
2.464 6.617 0.900 2556
2.465 6.619 0.880 1920
2.573 6.909 0.891 1728
2.590 6.955 0.874 1696
2.607 7.002 0.857 1865
2.616 7.026 0.838 1687
2.708 7.272 0.840 1600
2.711 7.281 0.818 2311
2.714 7.290 0.796 3120
2.726 7.321 0.776 2602
2.930 7.870 0.800 1925
2.970 7.976 0.784 2175
2.965 7.963 0.758 1911
3.043 8.172 0.749 2427
3.156 8.477 0.746 2358
3.154 8.471 0.719 2944
3.152 8.465 0.692 2764
3.056 8.207 0.650 2090
3.048 8.186 0.623 1652
3.261 8.758 0.630 1558
3.262 8.760 0.603 1404
3.160 8.487 0.562 1391
3.160 8.488 0.535 1265
3.161 8.489 0.509 1028
3.161 8.490 0.483 546
3.258 8.750 0.466 374
3.258 8.751 0.439 257
0.699 1.866 1.528 3242
0.700 1.870 1.522 6484
0.702 1.874 1.517 7306
0.719 1.920 1.543 8521
0.720 1.924 1.537 8521
0.720 1.922 1.527 14634
0.721 1.925 1.521 20955
0.722 1.929 1.515 19258
0.724 1.933 1.509 17561
0.728 1.943 1.508 12853
0.743 1.983 1.528 9825
0.746 1.993 1.527 10268
0.748 1.997 1.521 13004
0.749 2.001 1.515 15740
0.751 2.005 1.509 17614
0.754 2.015 1.507 19987
0.756 2.018 1.501 22025
0.757 2.022 1.495 24063
0.759 2.026 1.488 20419
0.760 2.029 1.482 16776
0.761 2.033 1.476 11702
0.772 2.062 1.487 6736
0.806 2.154 1.539 7523
0.813 2.170 1.541 5785
0.833 2.224 1.568 6086
0.837 2.235 1.565 7270
0.841 2.245 1.562 8696
0.842 2.249 1.555 9622
0.844 2.252 1.549 10547
0.843 2.250 1.538 13306
0.846 2.260 1.535 18636
0.848 2.264 1.528 21852
0.852 2.274 1.525 22881
0.853 2.278 1.518 22843
0.854 2.282 1.511 20860
0.856 2.285 1.504 18877
0.860 2.296 1.501 14319
0.871 2.325 1.510 11123
0.882 2.355 1.518 8367
0.886 2.365 1.515 7676
0.885 2.362 1.504 9203
0.888 2.372 1.500 8160
0.895 2.389 1.501 7219
0.911 2.432 1.516 7193
0.917 2.449 1.516 8365
0.921 2.459 1.512 7787
0.949 2.535 1.546 10219
0.951 2.539 1.538 13620
0.952 2.543 1.530 17674
0.954 2.546 1.522 21895
0.955 2.550 1.515 22391
0.956 2.554 1.507 21964
0.958 2.558 1.499 21356
0.962 2.568 1.495 24854
0.963 2.572 1.487 25515
0.967 2.582 1.483 19783
0.971 2.592 1.478 12733
0.970 2.589 1.467 7563
0.971 2.593 1.459 5960
1.000 2.670 1.489 9968
1.004 2.680 1.484 17574
1.003 2.677 1.473 25022
1.006 2.688 1.468 25048
1.005 2.684 1.456 20164
1.004 2.681 1.445 11300
1.023 2.732 1.460 10057
1.024 2.736 1.451 11225
1.021 2.726 1.436 11726
1.020 2.722 1.425 10435
1.023 2.733 1.420 6650
1.086 2.899 1.488 5131
1.087 2.903 1.479 8050
1.093 2.920 1.477 11554
1.097 2.930 1.471 11283
1.099 2.934 1.462 10340
1.095 2.924 1.447 7772
1.122 2.996 1.469 8714
1.123 2.999 1.460 9342
1.117 2.982 1.441 9560
1.116 2.979 1.429 9625
1.143 3.051 1.450 6074
1.147 3.062 1.444 7014
1.148 3.065 1.434 9341
1.152 3.076 1.428 12322
1.158 3.093 1.424 10976
1.167 3.117 1.423 9387
1.169 3.121 1.414 10006
1.175 3.138 1.410 10991
1.182 3.155 1.406 9225
1.193 3.186 1.408 7804
1.197 3.197 1.401 8690
1.201 3.207 1.393 9143
1.202 3.211 1.384 7990
1.227 3.277 1.398 8197
1.228 3.280 1.388 6944
1.227 3.277 1.375 4532
1.228 3.280 1.365 4731
1.227 3.276 1.353 4760
1.249 3.336 1.364 4154
1.250 3.339 1.353 3575
1.273 3.398 1.364 4100
1.266 3.381 1.346 5140
1.265 3.377 1.333 4304
1.274 3.401 1.330 4637
1.280 3.418 1.324 5875
1.329 3.549 1.358 6603
1.328 3.545 1.345 6357
1.326 3.541 1.331 5440
1.330 3.551 1.323 4196
1.334 3.562 1.314 4050
1.338 3.572 1.306 5084
1.376 3.674 1.327 3519
1.380 3.685 1.318 4874
1.386 3.702 1.311 6106
1.396 3.727 1.307 6216
1.405 3.751 1.302 6641
1.411 3.768 1.295 7615
1.412 3.772 1.283 5575
1.419 3.789 1.276 6668
1.423 3.799 1.267 8520
1.424 3.802 1.255 6203
1.430 3.820 1.247 2989
1.482 3.959 1.275 4634
1.489 3.976 1.267 7045
1.493 3.986 1.257 7371
1.499 4.004 1.249 11049
1.503 4.014 1.238 17064
1.507 4.024 1.228 12993
1.516 4.048 1.221 10844
1.515 4.044 1.207 10618
1.516 4.047 1.195 9105
1.546 4.129 1.203 6853
1.550 4.139 1.192 10115
1.551 4.142 1.179 10227
1.555 4.152 1.168 6514
1.553 4.148 1.154 3857
1.633 4.360 1.192 3465
1.634 4.363 1.179 2710
1.760 4.699 1.245 2429
1.763 4.709 1.232 2684
1.800 4.806 1.239 3481
1.806 4.824 1.227 3461
1.810 4.834 1.214 3363
1.809 4.829 1.198 3431
1.834 4.898 1.197 3868
1.838 4.908 1.184 4867
1.839 4.911 1.168 3631
1.897 5.066 1.185 4400
1.898 5.069 1.169 4984
1.908 5.094 1.158 4502
1.911 5.104 1.144 3995
1.915 5.114 1.130 4164
1.919 5.124 1.115 4651
1.950 5.207 1.115 3724
1.989 5.312 1.118 4580
1.998 5.336 1.105 4524
1.988 5.310 1.083 3520
1.995 5.327 1.070 3001
2.045 5.461 1.076 4427
2.043 5.456 1.058 3770
2.085 5.569 1.059 4954
2.089 5.578 1.043 7917
2.090 5.581 1.026 6240
2.088 5.576 1.008 3083
2.084 5.564 0.988 2232
2.178 5.816 1.009 2435
2.176 5.811 0.990 2039
2.331 6.224 1.031 2874
2.329 6.219 1.011 3347
2.250 6.008 0.962 3090
2.292 6.121 0.958 3065
2.293 6.123 0.940 3000
2.313 6.177 0.927 2228
2.361 6.304 0.924 3705
2.362 6.306 0.904 4360
2.360 6.301 0.884 3368
2.479 6.620 0.901 2345
2.477 6.615 0.880 1582
2.588 6.912 0.892 1691
2.600 6.943 0.874 1784
2.620 6.997 0.857 1967
2.629 7.021 0.838 1850
2.633 7.030 0.817 1650
2.725 7.276 0.818 2294
2.728 7.285 0.796 3189
2.737 7.309 0.776 2396
2.976 7.946 0.807 2012
2.979 7.955 0.783 2478
2.977 7.950 0.758 2231
3.058 8.166 0.749 2358
3.169 8.463 0.745 2129
3.170 8.465 0.719 2640
3.168 8.459 0.692 2369
3.074 8.209 0.650 2355
3.066 8.188 0.623 1633
3.278 8.752 0.630 1609
3.278 8.753 0.603 1434
3.176 8.481 0.562 1097
3.176 8.482 0.535 971
3.177 8.483 0.509 775
3.280 8.758 0.494 558
3.275 8.744 0.466 430
3.275 8.745 0.439 295
0.699 1.859 1.523 3388
0.700 1.863 1.518 6776
0.706 1.879 1.521 7277
0.721 1.919 1.543 8316
0.723 1.923 1.537 8316
0.722 1.921 1.527 13865
0.723 1.924 1.521 19574
0.725 1.928 1.515 17793
0.726 1.932 1.509 16012
0.730 1.942 1.508 11524
0.745 1.982 1.528 9546
0.749 1.992 1.527 10524
0.750 1.996 1.521 13120
0.752 2.000 1.515 15716
0.753 2.004 1.509 17976
0.757 2.014 1.507 20754
0.758 2.017 1.501 23243
0.760 2.021 1.495 25733
0.761 2.025 1.488 21671
0.763 2.028 1.482 17609
0.764 2.032 1.476 12197
0.808 2.149 1.546 7139
0.809 2.153 1.539 8360
0.768 2.043 1.458 6564
0.836 2.223 1.568 5844
0.840 2.233 1.565 7375
0.841 2.237 1.558 9019
0.843 2.241 1.551 9856
0.846 2.251 1.549 10745
0.845 2.249 1.538 13197
0.849 2.259 1.535 18118
0.851 2.263 1.528 21202
0.855 2.273 1.525 22597
0.854 2.270 1.514 23160
0.857 2.281 1.511 21278
0.859 2.284 1.504 19522
0.863 2.295 1.501 14487
0.871 2.318 1.506 10426
0.887 2.360 1.522 8218
0.889 2.364 1.515 7986
0.888 2.361 1.504 9430
0.891 2.371 1.500 8388
0.898 2.388 1.501 7715
0.914 2.431 1.516 7292
0.920 2.448 1.516 8511
0.924 2.458 1.512 8237
0.928 2.468 1.509 10312
0.929 2.472 1.501 12372
0.953 2.535 1.527 15368
0.954 2.539 1.519 19447
0.958 2.549 1.515 20142
0.960 2.553 1.507 19849
0.961 2.556 1.499 19397
0.965 2.567 1.495 22867
0.969 2.577 1.491 23271
0.970 2.581 1.483 17542
0.974 2.591 1.478 11139
0.973 2.588 1.467 6451
1.002 2.665 1.497 6674
1.003 2.669 1.489 10208
1.007 2.679 1.484 17415
1.006 2.676 1.473 24330
1.007 2.680 1.464 24260
1.006 2.677 1.453 20426
1.008 2.680 1.445 12444
1.027 2.731 1.460 9868
1.028 2.734 1.451 10734
1.024 2.724 1.436 11455
1.023 2.721 1.425 10673
1.027 2.731 1.420 6989
1.074 2.857 1.469 5642
1.093 2.908 1.483 7994
1.097 2.918 1.477 12268
1.101 2.929 1.471 12404
1.102 2.932 1.462 11377
1.099 2.922 1.447 9193
1.126 2.994 1.469 8163
1.127 2.998 1.460 9001
1.118 2.974 1.438 10581
1.119 2.978 1.429 10563
1.128 3.002 1.429 6331
1.148 3.053 1.441 6094
1.152 3.064 1.434 9279
1.156 3.074 1.428 12305
1.162 3.091 1.424 10709
1.169 3.109 1.420 8938
1.170 3.112 1.411 9566
1.176 3.130 1.407 9466
1.183 3.147 1.403 6701
1.200 3.192 1.410 6807
1.201 3.195 1.401 7946
1.200 3.192 1.388 7387
1.209 3.216 1.386 6105
1.229 3.268 1.396 8248
1.230 3.272 1.386 6509
1.229 3.268 1.373 4208
1.230 3.271 1.363 4552
1.231 3.275 1.353 4583
1.253 3.334 1.364 4490
1.255 3.337 1.353 3864
1.277 3.397 1.364 5206
1.270 3.379 1.346 5969
1.274 3.389 1.338 3908
1.281 3.407 1.332 4962
1.284 3.417 1.324 7548
1.288 3.427 1.316 7053
1.332 3.543 1.345 6088
1.331 3.539 1.331 5603
1.334 3.550 1.323 4048
1.378 3.666 1.350 3985
1.382 3.676 1.341 4897
1.383 3.680 1.330 4724
1.384 3.683 1.318 4879
1.388 3.693 1.309 5121
1.400 3.725 1.307 5032
1.412 3.756 1.304 5282
1.413 3.760 1.293 6389
1.417 3.770 1.283 4834
1.424 3.787 1.276 6063
1.428 3.797 1.267 7655
1.429 3.801 1.255 5574
1.489 3.961 1.290 3285
1.490 3.964 1.277 5010
1.497 3.981 1.269 7431
1.498 3.984 1.257 7816
1.502 3.995 1.247 13927
1.503 3.998 1.234 22291
1.501 3.993 1.220 16811
1.510 4.018 1.214 12022
1.509 4.014 1.199 13405
1.510 4.016 1.187 10572
1.554 4.134 1.205 8721
1.555 4.137 1.192 11889
1.556 4.140 1.179 10878
1.560 4.150 1.168 6549
1.559 4.146 1.154 4025
1.638 4.358 1.192 3143
1.639 4.361 1.179 2278
1.768 4.704 1.246 2834
1.769 4.707 1.232 3067
1.806 4.804 1.239 3160
1.815 4.829 1.229 3417
1.814 4.824 1.213 3563
1.815 4.827 1.198 3852
1.840 4.895 1.197 4434
1.844 4.906 1.184 5808
1.845 4.908 1.168 4687
1.906 5.071 1.187 4298
1.905 5.067 1.169 4414
1.914 5.091 1.158 4322
1.918 5.101 1.144 4366
1.922 5.111 1.130 4366
1.928 5.129 1.117 4509
1.956 5.204 1.115 3210
1.996 5.309 1.118 4051
1.978 5.261 1.092 4825
1.979 5.263 1.076 3684
2.004 5.332 1.071 2851
2.052 5.458 1.076 3976
2.083 5.542 1.073 4119
2.092 5.566 1.059 5292
2.096 5.576 1.043 7866
2.097 5.578 1.026 6352
2.095 5.573 1.008 2976
2.088 5.554 0.987 2292
2.182 5.805 1.008 2464
2.183 5.808 0.990 1982
2.336 6.214 1.030 2840
2.337 6.216 1.011 3191
2.258 6.006 0.962 3077
2.300 6.118 0.958 3418
2.301 6.120 0.940 3172
2.321 6.174 0.927 2212
2.369 6.301 0.924 3153
2.370 6.303 0.904 3762
2.368 6.298 0.884 2839
2.487 6.617 0.901 2145
2.599 6.914 0.914 1593
2.603 6.923 0.893 1775
2.609 6.940 0.874 1918
2.629 6.994 0.857 1997
2.638 7.018 0.838 1978
2.642 7.027 0.817 1857
2.734 7.272 0.818 2158
2.735 7.274 0.796 3185
2.735 7.276 0.773 2281
2.983 7.935 0.806 2534
2.986 7.944 0.782 2879
2.984 7.939 0.757 2597
2.982 7.933 0.732 2275
2.986 7.942 0.708 2156
3.181 8.461 0.719 2236
3.090 8.218 0.677 1987
3.084 8.205 0.650 2513
3.079 8.192 0.624 1618
3.289 8.748 0.630 1635
3.286 8.742 0.602 1472
3.287 8.743 0.575 951
3.365 8.952 0.558 811
3.357 8.930 0.529 715
3.291 8.754 0.494 546
3.286 8.740 0.466 431
3.286 8.741 0.439 299
0.706 1.864 1.528 3529
0.707 1.867 1.522 7059
0.711 1.877 1.521 7284
0.726 1.917 1.543 8101
0.728 1.921 1.537 8101
0.727 1.919 1.527 13051
0.728 1.923 1.521 18055
0.730 1.926 1.515 16212
0.729 1.924 1.505 14377
0.732 1.934 1.503 10206
0.750 1.981 1.528 9378
0.754 1.991 1.527 10838
0.755 1.994 1.521 13110
0.754 1.992 1.510 15447
0.758 2.002 1.509 18016
0.762 2.012 1.507 21212
0.763 2.015 1.501 24130
0.765 2.019 1.495 27048
0.766 2.023 1.488 22621
0.767 2.027 1.482 18195
0.769 2.030 1.476 12642
0.813 2.147 1.546 7742
0.814 2.151 1.539 9169
0.773 2.041 1.458 7575
0.774 2.045 1.451 5804
0.845 2.231 1.565 7456
0.847 2.235 1.558 9399
0.848 2.239 1.551 10125
0.852 2.249 1.549 10864
0.851 2.247 1.538 12963
0.855 2.257 1.535 17410
0.856 2.261 1.528 20337
0.860 2.271 1.525 22067
0.859 2.268 1.514 23214
0.863 2.279 1.511 21501
0.864 2.282 1.504 20016
0.868 2.292 1.501 14571
0.874 2.309 1.502 9776
0.895 2.364 1.526 8224
0.897 2.368 1.519 8314
0.893 2.359 1.504 9541
0.897 2.369 1.500 8451
0.904 2.386 1.501 7853
0.922 2.435 1.520 6845
0.926 2.445 1.516 8087
0.930 2.456 1.512 8230
0.934 2.466 1.509 10828
0.935 2.470 1.501 13123
0.954 2.519 1.519 13373
0.960 2.536 1.519 16719
0.964 2.547 1.515 17228
0.966 2.550 1.507 17332
0.967 2.554 1.499 17339
0.971 2.564 1.495 20800
0.975 2.575 1.491 21047
0.979 2.585 1.486 15385
0.980 2.589 1.478 9698
0.999 2.639 1.495 6519
1.003 2.649 1.490 8063
1.010 2.666 1.489 10644
1.014 2.677 1.484 17220
1.012 2.674 1.473 23277
1.014 2.677 1.464 22994
1.013 2.674 1.453 20380
1.011 2.671 1.441 13436
1.033 2.728 1.460 9613
1.035 2.732 1.451 10006
1.031 2.722 1.436 10942
1.030 2.719 1.425 10839
1.036 2.736 1.423 7208
1.071 2.827 1.456 7005
1.100 2.905 1.483 7751
1.102 2.909 1.474 12495
1.106 2.919 1.468 13021
1.110 2.930 1.462 12344
1.108 2.927 1.450 10845
1.110 2.930 1.441 8833
1.124 2.968 1.447 9334
1.125 2.971 1.438 11307
1.127 2.975 1.429 11247
1.136 2.999 1.429 7147
1.142 3.016 1.426 5783
1.157 3.054 1.431 9432
1.163 3.071 1.428 12188
1.170 3.089 1.424 10329
1.174 3.099 1.418 8820
1.178 3.109 1.411 9532
1.181 3.120 1.404 8629
1.183 3.123 1.395 5098
1.213 3.203 1.416 6444
1.209 3.192 1.401 7310
1.202 3.175 1.382 6134
1.238 3.269 1.408 6315
1.237 3.265 1.396 8736
1.235 3.262 1.383 6860
1.234 3.258 1.370 4708
1.240 3.275 1.365 4637
1.265 3.342 1.379 5009
1.264 3.338 1.366 4540
1.287 3.397 1.377 5105
1.285 3.394 1.364 6635
1.278 3.376 1.346 6755
1.282 3.386 1.338 3764
1.292 3.410 1.335 5545
1.295 3.421 1.327 8829
1.297 3.424 1.316 7951
1.295 3.420 1.303 6255
1.339 3.536 1.331 5324
1.346 3.553 1.325 3747
1.387 3.663 1.350 4394
1.391 3.673 1.341 6099
1.390 3.669 1.327 6116
1.391 3.672 1.316 5069
1.392 3.676 1.305 4277
1.412 3.728 1.309 4031
1.419 3.746 1.302 4193
1.420 3.749 1.291 5356
1.424 3.759 1.281 4026
1.436 3.791 1.278 5597
1.437 3.794 1.267 6888
1.438 3.797 1.255 5103
1.499 3.957 1.290 3274
1.502 3.967 1.279 5486
1.506 3.978 1.269 8147
1.507 3.981 1.257 8987
1.511 3.991 1.247 17268
1.510 3.987 1.232 27798
1.511 3.990 1.220 22167
1.515 4.000 1.210 16824
1.516 4.003 1.197 18220
1.517 4.006 1.185 13088
1.564 4.131 1.205 9821
1.565 4.134 1.192 12280
1.566 4.136 1.179 10404
1.570 4.146 1.168 5894
1.569 4.142 1.154 3739
1.649 4.354 1.192 3455
1.650 4.357 1.179 3256
1.648 4.353 1.164 4350
1.652 4.363 1.152 4612
1.653 4.365 1.138 3644
1.827 4.824 1.229 3322
1.825 4.820 1.213 3664
1.826 4.823 1.198 4190
1.852 4.891 1.197 4791
1.856 4.901 1.184 6519
1.857 4.904 1.168 5363
1.921 5.074 1.188 4574
1.920 5.069 1.171 4013
1.926 5.087 1.158 4004
1.930 5.097 1.144 4651
1.934 5.107 1.130 4357
1.940 5.124 1.117 4143
1.941 5.127 1.101 2805
1.992 5.261 1.109 3825
1.990 5.256 1.092 5126
1.991 5.258 1.076 4067
2.053 5.422 1.088 2755
2.096 5.534 1.090 4312
2.097 5.536 1.073 4804
2.106 5.561 1.059 5404
2.107 5.563 1.042 7525
2.108 5.566 1.025 6172
2.111 5.576 1.009 2711
2.099 5.541 0.986 2199
2.194 5.793 1.006 2527
2.197 5.802 0.990 1905
2.351 6.208 1.030 2641
2.344 6.189 1.008 3027
2.328 6.147 0.982 3201
2.318 6.120 0.959 3589
2.318 6.122 0.941 3063
2.333 6.161 0.926 2086
2.392 6.318 0.927 2594
2.385 6.298 0.904 3041
2.433 6.425 0.900 2892
2.431 6.419 0.879 2055
2.616 6.907 0.914 1704
2.619 6.917 0.893 1932
2.623 6.926 0.873 2089
2.643 6.980 0.857 2039
2.655 7.011 0.838 2016
2.659 7.020 0.817 1983
2.752 7.266 0.818 2000
2.752 7.267 0.796 3215
2.750 7.262 0.772 2535
2.999 7.920 0.806 2976
3.003 7.930 0.782 3179
3.001 7.924 0.756 2878
3.001 7.926 0.732 2375
3.005 7.935 0.708 2199
3.008 7.943 0.684 2284
3.101 8.189 0.675 2074
3.102 8.190 0.650 2582
3.102 8.192 0.624 1588
3.307 8.733 0.629 1572
3.308 8.734 0.602 1440
3.305 8.728 0.575 945
3.378 8.921 0.557 770
3.379 8.922 0.529 690
3.312 8.746 0.494 515
3.307 8.732 0.466 409
3.307 8.733 0.439 281
0.710 1.862 1.528 3755
0.712 1.866 1.522 7510
0.716 1.875 1.521 7359
0.729 1.909 1.538 7784
0.730 1.913 1.533 7784
0.732 1.917 1.527 11939
0.733 1.921 1.521 16094
0.732 1.918 1.511 14311
0.733 1.922 1.505 12585
0.737 1.932 1.503 8753
0.757 1.985 1.533 9090
0.759 1.989 1.527 10950
0.760 1.992 1.521 12673
0.759 1.990 1.510 14537
0.763 2.000 1.509 17320
0.767 2.010 1.507 20888
0.768 2.014 1.501 24146
0.770 2.017 1.495 27404
0.771 2.021 1.488 22786
0.773 2.025 1.482 18168
0.774 2.028 1.476 12834
0.818 2.145 1.546 7938
0.820 2.148 1.539 9461
0.778 2.039 1.458 8438
0.779 2.043 1.451 6389
0.851 2.229 1.565 7275
0.850 2.227 1.554 9498
0.854 2.237 1.551 10057
0.855 2.241 1.545 10630
0.857 2.245 1.538 12298
0.860 2.255 1.535 16191
0.862 2.259 1.528 18920
0.863 2.262 1.521 21016
0.865 2.266 1.514 22702
0.869 2.276 1.511 21255
0.870 2.280 1.504 20084
0.874 2.290 1.501 14354
0.878 2.300 1.498 8993
0.906 2.375 1.534 8481
0.905 2.372 1.523 8590
0.902 2.363 1.508 9290
0.903 2.367 1.500 8127
0.910 2.384 1.501 7500
0.931 2.439 1.524 5752
0.932 2.443 1.516 6811
0.936 2.453 1.512 7404
0.940 2.464 1.509 10714
0.941 2.467 1.501 13440
0.948 2.484 1.501 12623
0.964 2.527 1.515 14307
0.968 2.538 1.511 14226
0.972 2.548 1.507 14515
0.974 2.552 1.499 14954
0.980 2.569 1.498 18359
0.982 2.572 1.491 18572
0.988 2.589 1.490 13432
1.002 2.626 1.499 8900
1.009 2.643 1.498 7965
1.010 2.647 1.490 9458
1.014 2.657 1.485 11078
1.020 2.674 1.484 16672
1.019 2.671 1.473 21505
1.021 2.675 1.464 20681
1.019 2.671 1.453 19350
1.018 2.668 1.441 13997
1.043 2.732 1.463 9120
1.041 2.729 1.451 8888
1.033 2.706 1.430 10267
1.034 2.709 1.421 10716
1.079 2.828 1.468 7406
1.078 2.824 1.456 8180
1.105 2.896 1.479 7205
1.109 2.906 1.474 11950
1.113 2.917 1.468 12860
1.117 2.927 1.462 12900
1.116 2.924 1.450 12405
1.117 2.927 1.441 10931
1.129 2.958 1.444 9891
1.130 2.962 1.435 11708
1.134 2.972 1.429 11776
1.143 2.996 1.429 7809
1.150 3.013 1.426 6979
1.162 3.044 1.428 9825
1.171 3.068 1.428 11585
1.177 3.086 1.424 9775
1.181 3.096 1.418 8973
1.183 3.100 1.408 9695
1.187 3.110 1.401 7903
1.188 3.113 1.392 4599
1.221 3.200 1.416 6313
1.217 3.189 1.401 7052
1.205 3.158 1.377 5849
1.243 3.259 1.406 7272
1.242 3.255 1.393 9502
1.241 3.252 1.380 8144
1.245 3.262 1.373 5587
1.262 3.307 1.379 5667
1.279 3.352 1.384 6054
1.294 3.391 1.387 7308
1.298 3.401 1.379 8445
1.296 3.397 1.366 8528
1.287 3.373 1.346 7226
1.288 3.376 1.335 3749
1.303 3.414 1.337 6458
1.304 3.418 1.327 9743
1.305 3.421 1.316 8198
1.307 3.424 1.306 5788
1.351 3.540 1.334 4870
1.357 3.557 1.328 3633
1.399 3.666 1.352 4491
1.398 3.662 1.339 6943
1.399 3.666 1.327 7327
1.397 3.662 1.314 5653
1.423 3.729 1.323 4202
1.427 3.739 1.314 4049
1.428 3.742 1.302 4250
1.426 3.738 1.288 5379
1.430 3.749 1.279 3408
1.448 3.794 1.281 5583
1.449 3.797 1.269 6557
1.456 3.815 1.261 5190
1.479 3.875 1.266 4121
1.512 3.964 1.279 5846
1.516 3.974 1.269 8454
1.515 3.970 1.255 10222
1.519 3.980 1.245 19754
1.520 3.983 1.232 31113
1.521 3.986 1.220 26096
1.522 3.989 1.208 21488
1.526 3.999 1.197 21977
1.527 4.002 1.185 14778
1.575 4.127 1.205 9885
1.576 4.130 1.192 10936
1.577 4.132 1.179 8227
1.581 4.142 1.168 4306
1.650 4.325 1.200 4207
1.654 4.335 1.189 3864
1.658 4.346 1.177 4118
1.659 4.348 1.164 5789
1.663 4.358 1.152 5921
1.664 4.361 1.138 4579
1.800 4.718 1.206 4358
1.837 4.815 1.213 3656
1.839 4.818 1.198 4201
1.864 4.886 1.197 4753
1.868 4.896 1.184 6588
1.872 4.906 1.170 5428
1.934 5.069 1.188 4336
1.935 5.072 1.172 4010
1.939 5.082 1.158 4539
1.940 5.085 1.142 5522
1.947 5.102 1.130 4547
1.953 5.119 1.117 3753
1.952 5.114 1.099 2534
2.003 5.248 1.108 3674
2.004 5.251 1.092 5334
2.005 5.253 1.076 4402
2.100 5.504 1.103 3135
2.110 5.529 1.090 4947
2.113 5.538 1.074 5100
2.117 5.548 1.058 5097
2.121 5.558 1.042 6689
2.122 5.561 1.025 5598
2.125 5.570 1.009 2354
2.205 5.778 1.023 2241
2.208 5.787 1.006 2504
2.209 5.790 0.989 1851
2.364 6.195 1.029 2287
2.348 6.153 1.004 3446
2.343 6.141 0.982 3834
2.333 6.114 0.959 3775
2.334 6.116 0.941 2869
2.351 6.162 0.927 1965
2.436 6.385 0.936 2693
2.443 6.402 0.918 3423
2.446 6.411 0.899 3335
2.447 6.413 0.879 2170
2.633 6.901 0.914 1760
2.637 6.910 0.893 2002
2.638 6.912 0.872 2156
2.661 6.973 0.857 2051
2.676 7.012 0.839 2033
2.679 7.021 0.818 2082
2.770 7.259 0.818 1887
2.770 7.261 0.796 3224
2.771 7.262 0.773 2797
3.019 7.913 0.806 3193
3.023 7.922 0.782 3235
3.021 7.916 0.756 2889
3.021 7.918 0.732 2266
3.028 7.934 0.708 2076
3.028 7.936 0.684 2175
3.122 8.181 0.675 2038
3.122 8.182 0.650 2479
3.126 8.191 0.625 1498
3.329 8.724 0.629 1444
3.329 8.725 0.602 1319
3.327 8.719 0.575 875
3.401 8.913 0.557 750
3.401 8.914 0.529 656
3.334 8.737 0.494 418
3.329 8.723 0.466 324
0.717 1.866 1.533 3982
0.718 1.870 1.527 7964
0.720 1.874 1.521 7549
0.733 1.908 1.538 7431
0.734 1.912 1.533 7431
0.736 1.915 1.527 10833
0.737 1.919 1.521 14234
0.736 1.917 1.511 12555
0.738 1.921 1.505 10913
0.741 1.930 1.503 7457
0.762 1.983 1.533 9012
0.763 1.987 1.527 10987
0.765 1.991 1.521 12163
0.764 1.988 1.510 13511
0.770 2.004 1.513 16462
0.771 2.008 1.507 20228
0.773 2.012 1.501 23670
0.774 2.016 1.495 27112
0.776 2.019 1.488 22419
0.777 2.023 1.482 17727
0.778 2.027 1.476 12819
0.777 2.024 1.466 7945
0.825 2.147 1.539 9359
0.783 2.037 1.458 8996
0.784 2.041 1.451 6740
0.853 2.221 1.561 6963
0.855 2.225 1.554 9533
0.859 2.235 1.551 9737
0.860 2.239 1.545 10128
0.861 2.243 1.538 11417
0.865 2.253 1.535 14812
0.867 2.257 1.528 17372
0.868 2.261 1.521 19840
0.870 2.264 1.514 21967
0.874 2.274 1.511 20795
0.875 2.278 1.504 19893
0.876 2.282 1.497 14048
0.880 2.292 1.494 8389
0.911 2.373 1.534 8491
0.915 2.383 1.530 8801
0.907 2.361 1.508 8854
0.908 2.365 1.500 7566
0.915 2.382 1.501 6830
0.916 2.385 1.493 4937
0.940 2.448 1.520 5300
0.942 2.451 1.512 6503
0.948 2.468 1.512 10855
0.949 2.472 1.505 14124
0.953 2.482 1.501 13576
0.967 2.519 1.511 12744
0.971 2.529 1.507 12013
0.975 2.539 1.503 12369
0.982 2.556 1.503 13434
0.986 2.566 1.498 16690
0.987 2.570 1.491 16622
0.999 2.600 1.497 12715
1.010 2.630 1.503 9212
1.014 2.641 1.498 8775
1.016 2.644 1.490 10253
1.017 2.648 1.482 11484
1.024 2.665 1.481 16176
1.025 2.669 1.473 19742
1.026 2.672 1.464 18201
1.025 2.669 1.453 17818
1.024 2.666 1.441 13975
1.023 2.663 1.430 9279
1.081 2.814 1.494 9279
1.033 2.690 1.423 10004
1.040 2.707 1.421 10435
1.083 2.819 1.465 7766
1.084 2.822 1.456 8621
1.085 2.826 1.448 7443
1.113 2.897 1.471 11040
1.117 2.907 1.465 12184
1.123 2.925 1.462 13019
1.122 2.921 1.450 13441
1.123 2.925 1.441 12401
1.127 2.935 1.435 10482
1.137 2.959 1.435 11816
1.138 2.963 1.426 12216
1.150 2.994 1.429 8124
1.159 3.018 1.429 8117
1.166 3.035 1.425 10633
1.178 3.066 1.428 10741
1.184 3.083 1.424 9260
1.188 3.093 1.418 9317
1.192 3.104 1.411 10069
1.196 3.114 1.404 7553
1.205 3.138 1.403 4814
1.225 3.190 1.413 6264
1.224 3.187 1.401 6720
1.209 3.149 1.374 5879
1.248 3.249 1.403 8374
1.249 3.252 1.393 10440
1.248 3.249 1.380 9467
1.255 3.266 1.375 6507
1.269 3.304 1.379 7006
1.295 3.370 1.392 7906
1.301 3.388 1.387 10339
1.305 3.398 1.379 11250
1.304 3.394 1.366 10042
1.294 3.370 1.346 7271
1.309 3.408 1.348 4279
1.313 3.418 1.340 7113
1.312 3.415 1.327 9717
1.313 3.418 1.316 7716
1.360 3.541 1.347 5753
1.364 3.551 1.339 4540
1.365 3.554 1.328 3872
1.407 3.663 1.352 4189
1.406 3.659 1.339 7138
1.404 3.656 1.325 7984
1.405 3.659 1.314 6401
1.431 3.726 1.323 5579
1.435 3.736 1.314 5280
1.433 3.732 1.300 5716
1.432 3.728 1.286 6236
1.430 3.724 1.272 3262
1.456 3.791 1.281 5542
1.463 3.808 1.273 6518
1.480 3.854 1.274 5989
1.487 3.872 1.266 5235
1.518 3.953 1.277 6215
1.522 3.963 1.267 8321
1.523 3.966 1.255 11093
1.527 3.977 1.245 20818
1.529 3.980 1.232 31396
1.530 3.983 1.220 27501
1.531 3.985 1.208 24179
1.535 3.996 1.197 23495
1.536 3.998 1.185 14705
1.584 4.123 1.205 9538
1.585 4.126 1.192 8854
1.583 4.122 1.177 5782
1.651 4.297 1.208 4925
1.654 4.307 1.197 5472
1.656 4.310 1.183 4979
1.665 4.335 1.175 5132
1.669 4.345 1.164 7068
1.673 4.355 1.152 6833
1.810 4.711 1.221 5709
1.811 4.714 1.206 5622
1.815 4.724 1.193 4526
1.849 4.814 1.198 3933
1.875 4.882 1.197 4336
1.882 4.899 1.185 6092
1.883 4.902 1.170 4979
1.948 5.072 1.190 3994
1.946 5.068 1.172 3621
1.950 5.078 1.158 4131
1.951 5.080 1.142 5255
1.958 5.098 1.130 4220
1.970 5.129 1.119 3531
1.966 5.117 1.101 2182
2.014 5.244 1.108 3429
2.015 5.246 1.092 5349
2.016 5.249 1.076 4545
2.115 5.507 1.104 3445
2.122 5.524 1.090 5256
2.126 5.534 1.074 4917
2.129 5.544 1.058 4500
2.130 5.546 1.041 5731
2.134 5.556 1.025 4893
2.149 5.595 1.013 2115
2.214 5.765 1.022 2276
2.218 5.775 1.005 2454
2.222 5.785 0.989 1872
2.366 6.161 1.025 2083
2.362 6.148 1.004 3840
2.357 6.136 0.982 4141
2.346 6.109 0.959 3828
2.378 6.192 0.951 2690
2.376 6.187 0.931 2254
2.453 6.387 0.937 2997
2.457 6.396 0.918 3885
2.461 6.406 0.899 3623
2.464 6.415 0.880 2174
2.646 6.888 0.913 1722
2.652 6.904 0.893 1962
2.653 6.906 0.872 2150
2.676 6.967 0.857 2071
2.694 7.013 0.840 2005
2.695 7.015 0.818 2088
2.786 7.253 0.818 1861
2.786 7.254 0.796 3186
2.787 7.256 0.773 2970
3.037 7.906 0.806 3017
3.040 7.915 0.782 2921
3.038 7.910 0.756 2528
3.042 7.919 0.732 1952
3.045 7.928 0.708 1893
3.046 7.929 0.684 1949
3.137 8.167 0.675 1842
3.140 8.175 0.650 2190
3.144 8.184 0.625 1355
3.348 8.717 0.629 1284
3.346 8.711 0.602 1157
3.346 8.712 0.575 751
3.420 8.905 0.557 729
3.421 8.906 0.529 613
3.421 8.907 0.501 351
0.720 1.865 1.533 4217
0.721 1.869 1.527 8434
0.723 1.873 1.521 7841
0.724 1.876 1.516 7248
0.726 1.880 1.510 7248
0.739 1.914 1.527 9777
0.740 1.918 1.521 12489
0.739 1.916 1.511 10968
0.741 1.919 1.505 9473
0.770 1.997 1.552 7534
0.770 1.994 1.542 9186
0.769 1.992 1.531 11109
0.768 1.990 1.521 11645
0.767 1.987 1.510 12395
0.773 2.003 1.513 15563
0.777 2.013 1.511 19327
0.776 2.011 1.501 22745
0.777 2.014 1.495 26253
0.779 2.018 1.488 21586
0.780 2.022 1.482 16920
0.782 2.025 1.476 12575
0.781 2.023 1.466 8237
0.828 2.145 1.539 9224
0.786 2.036 1.458 9283
0.787 2.040 1.451 6899
0.849 2.201 1.548 6651
0.856 2.217 1.550 9389
0.860 2.227 1.547 9278
0.864 2.238 1.545 9356
0.865 2.241 1.538 10355
0.869 2.252 1.535 13305
0.870 2.255 1.528 15694
0.872 2.259 1.521 18477
0.873 2.263 1.514 20984
0.877 2.273 1.511 20099
0.879 2.277 1.504 19433
0.880 2.280 1.497 13646
0.884 2.291 1.494 7889
0.918 2.378 1.538 8218
0.919 2.382 1.530 8733
0.911 2.360 1.508 8214
0.912 2.363 1.500 6882
0.916 2.374 1.497 6095
0.917 2.377 1.490 4573
0.944 2.446 1.520 3715
0.948 2.456 1.516 5460
0.952 2.467 1.512 10246
0.953 2.470 1.505 13336
0.957 2.481 1.501 12927
0.969 2.510 1.508 11217
0.973 2.521 1.504 9898
0.979 2.538 1.503 10433
0.986 2.555 1.503 12082
0.990 2.565 1.498 15348
0.994 2.575 1.494 15234
1.003 2.599 1.497 12204
1.014 2.629 1.503 9111
1.018 2.639 1.498 8884
1.017 2.636 1.487 10761
1.019 2.640 1.479 11999
1.025 2.657 1.477 15619
1.029 2.667 1.473 17841
1.031 2.671 1.464 15525
1.029 2.668 1.453 15844
1.028 2.665 1.441 13361
1.027 2.661 1.430 9446
1.083 2.806 1.491 9837
1.035 2.682 1.420 9742
1.044 2.705 1.421 9848
1.087 2.817 1.465 7741
1.088 2.820 1.456 8474
1.087 2.817 1.444 7874
1.117 2.895 1.471 9931
1.121 2.906 1.465 11365
1.128 2.923 1.462 12918
1.127 2.920 1.450 13868
1.128 2.923 1.441 13108
1.132 2.933 1.435 10754
1.141 2.957 1.435 11620
1.143 2.961 1.426 12624
1.155 2.992 1.429 8156
1.166 3.023 1.432 8963
1.168 3.026 1.422 11373
1.180 3.057 1.425 9927
1.192 3.088 1.427 8760
1.193 3.092 1.418 9403
1.197 3.102 1.411 10075
1.206 3.126 1.410 7512
1.221 3.164 1.414 6256
1.228 3.181 1.410 6273
1.229 3.185 1.401 6191
1.246 3.230 1.407 5878
1.253 3.247 1.403 9761
1.252 3.243 1.390 11316
1.253 3.247 1.380 10462
1.265 3.278 1.381 7309
1.274 3.302 1.379 7989
1.303 3.375 1.395 9832
1.307 3.386 1.387 12673
1.311 3.396 1.379 13200
1.312 3.399 1.369 10955
1.310 3.396 1.356 7513
1.314 3.406 1.348 5338
1.318 3.416 1.340 7685
1.320 3.420 1.329 9204
1.364 3.535 1.358 7468
1.366 3.538 1.347 6828
1.372 3.556 1.341 4488
1.373 3.559 1.330 3832
1.364 3.534 1.310 3685
1.411 3.657 1.339 6701
1.407 3.646 1.323 8034
1.408 3.650 1.311 6898
1.437 3.723 1.323 7028
1.441 3.734 1.314 6777
1.442 3.737 1.302 7458
1.441 3.733 1.288 7401
1.447 3.750 1.281 3583
1.465 3.796 1.283 5203
1.472 3.813 1.275 6407
1.486 3.852 1.274 6322
1.490 3.862 1.264 5829
1.519 3.936 1.273 6664
1.526 3.954 1.265 8092
1.530 3.964 1.255 11662
1.534 3.974 1.245 20262
1.535 3.977 1.232 29108
1.536 3.980 1.220 26681
1.537 3.983 1.208 24464
1.538 3.986 1.196 22519
1.542 3.996 1.185 13152
1.590 4.121 1.205 9091
1.591 4.124 1.192 7000
1.653 4.285 1.220 5167
1.657 4.295 1.208 6433
1.658 4.298 1.195 6982
1.660 4.300 1.182 6714
1.669 4.325 1.174 6021
1.676 4.342 1.164 7561
1.679 4.352 1.152 7038
1.817 4.709 1.221 6806
1.818 4.711 1.206 6473
1.822 4.722 1.193 5502
1.857 4.811 1.198 3524
1.877 4.865 1.194 4033
1.890 4.897 1.185 5260
1.896 4.914 1.173 4160
1.956 5.069 1.190 3745
1.952 5.057 1.171 3620
1.955 5.067 1.157 3962
1.959 5.077 1.142 4893
1.969 5.102 1.131 4044
1.992 5.163 1.126 3512
1.996 5.173 1.112 2462
2.020 5.233 1.107 3155
2.026 5.251 1.093 5238
2.027 5.253 1.077 4567
2.124 5.503 1.104 3566
2.130 5.521 1.090 5216
2.131 5.523 1.073 4467
2.138 5.540 1.058 3670
2.136 5.535 1.040 4646
2.143 5.552 1.025 4044
2.163 5.606 1.016 2246
2.221 5.755 1.021 2275
2.227 5.772 1.005 2318
2.228 5.774 0.987 1872
2.373 6.149 1.024 1995
2.371 6.145 1.004 4060
2.369 6.140 0.983 4258
2.356 6.105 0.959 3844
2.388 6.188 0.951 3032
2.386 6.183 0.931 2699
2.460 6.376 0.936 3243
2.467 6.393 0.918 4206
2.468 6.395 0.898 3822
2.477 6.419 0.881 2118
2.656 6.883 0.913 1658
2.663 6.900 0.893 1843
2.664 6.902 0.872 2055
2.687 6.963 0.857 2094
2.705 7.009 0.840 2021
2.708 7.018 0.818 2104
2.797 7.248 0.818 1785
2.798 7.250 0.796 3040
2.799 7.252 0.773 3057
3.052 7.909 0.806 2553
3.053 7.911 0.782 2363
3.053 7.912 0.757 1932
3.136 8.128 0.749 1586
3.063 7.938 0.709 1744
3.061 7.932 0.684 1730
3.150 8.162 0.675 1577
3.150 8.163 0.649 1798
3.159 8.187 0.625 1193
3.359 8.704 0.629 1168
3.357 8.698 0.601 994
3.317 8.596 0.569 713
3.434 8.900 0.557 676
3.435 8.901 0.529 541
3.373 8.739 0.495 300
0.717 1.852 1.523 4623
0.719 1.856 1.518 9246
0.723 1.866 1.517 8381
0.727 1.876 1.516 7800
0.728 1.879 1.510 7800
0.739 1.907 1.522 8930
0.743 1.917 1.521 10816
0.742 1.915 1.511 9395
0.743 1.919 1.505 8051
0.773 1.996 1.552 7960
0.774 1.999 1.546 9492
0.774 1.997 1.536 11153
0.773 1.995 1.525 11100
0.772 1.992 1.515 11247
0.776 2.002 1.513 14485
0.779 2.012 1.511 18204
0.781 2.016 1.505 21400
0.780 2.013 1.495 24734
0.781 2.017 1.488 20220
0.783 2.021 1.482 15707
0.784 2.024 1.476 12035
0.786 2.028 1.470 8363
0.831 2.144 1.539 9043
0.788 2.035 1.458 9247
0.790 2.039 1.451 6820
0.850 2.193 1.544 6748
0.856 2.210 1.546 9163
0.860 2.220 1.543 8640
0.864 2.230 1.540 8358
0.868 2.240 1.538 9086
0.869 2.244 1.531 11681
0.873 2.254 1.528 13922
0.875 2.258 1.521 16937
0.876 2.262 1.514 19726
0.880 2.272 1.511 19074
0.881 2.276 1.504 18583
0.883 2.279 1.497 12975
0.884 2.283 1.490 7367
0.921 2.377 1.538 7587
0.922 2.381 1.530 8218
0.916 2.365 1.511 7478
0.915 2.362 1.500 6168
0.919 2.373 1.497 5280
0.918 2.370 1.486 4431
0.919 2.373 1.479 3308
0.951 2.455 1.516 4383
0.955 2.465 1.512 9231
0.956 2.469 1.505 12315
0.960 2.479 1.501 12263
0.969 2.503 1.504 10207
0.973 2.513 1.500 8326
0.980 2.530 1.500 8738
0.992 2.560 1.506 11138
0.993 2.564 1.498 14414
0.997 2.574 1.494 14483
1.006 2.597 1.497 11629
1.015 2.621 1.499 8562
1.019 2.631 1.495 8212
1.015 2.622 1.480 11194
1.014 2.619 1.468 13282
1.026 2.649 1.474 15558
1.033 2.666 1.473 15978
1.037 2.676 1.468 13033
1.030 2.660 1.449 13511
1.032 2.663 1.441 12132
1.069 2.761 1.480 9614
1.084 2.798 1.487 10103
1.038 2.680 1.420 9074
1.045 2.697 1.418 8855
1.088 2.809 1.462 7005
1.089 2.812 1.453 7528
1.091 2.816 1.444 7962
1.097 2.833 1.442 9046
1.122 2.897 1.462 10219
1.132 2.921 1.462 12318
1.130 2.918 1.450 13549
1.132 2.922 1.441 13018
1.136 2.932 1.435 10392
1.142 2.949 1.432 11027
1.146 2.960 1.426 12497
1.158 2.990 1.429 7796
1.170 3.021 1.432 9409
1.172 3.025 1.422 11576
1.178 3.042 1.419 9432
1.206 3.114 1.439 8637
1.200 3.097 1.420 9249
1.201 3.100 1.411 9696
1.221 3.152 1.421 8412
1.222 3.156 1.412 8708
1.221 3.152 1.399 7231
1.220 3.149 1.387 5713
1.250 3.228 1.407 7479
1.257 3.245 1.403 11161
1.256 3.242 1.390 12111
1.257 3.245 1.380 11000
1.269 3.276 1.381 7793
1.279 3.301 1.379 8641
1.309 3.381 1.397 11070
1.313 3.391 1.390 13970
1.315 3.394 1.379 14173
1.316 3.398 1.369 11085
1.315 3.394 1.356 7530
1.319 3.404 1.348 6062
1.323 3.415 1.340 7888
1.324 3.418 1.329 8399
1.366 3.526 1.356 9379
1.370 3.537 1.347 8141
1.385 3.575 1.348 5192
1.392 3.593 1.342 4213
1.363 3.518 1.305 4238
1.413 3.648 1.336 5933
1.409 3.637 1.320 7616
1.407 3.634 1.307 7248
1.442 3.722 1.323 8113
1.446 3.732 1.314 7937
1.447 3.735 1.302 9038
1.448 3.738 1.291 8705
1.449 3.741 1.279 4056
1.492 3.851 1.300 4657
1.482 3.826 1.280 6024
1.489 3.843 1.272 5967
1.495 3.860 1.264 5732
1.519 3.920 1.269 7452
1.528 3.945 1.263 7686
1.532 3.955 1.253 11773
1.536 3.965 1.243 18191
1.540 3.975 1.232 24369
1.541 3.978 1.220 23435
1.542 3.981 1.208 22210
1.543 3.984 1.196 18988
1.547 3.994 1.185 10116
1.595 4.119 1.205 8184
1.599 4.129 1.194 5306
1.659 4.282 1.220 6205
1.660 4.285 1.206 7398
1.664 4.295 1.195 8155
1.665 4.298 1.182 8045
1.669 4.308 1.170 6785
1.678 4.333 1.162 7547
1.682 4.343 1.150 6887
1.823 4.706 1.221 7446
1.827 4.716 1.208 6802
1.831 4.726 1.195 6023
1.829 4.722 1.178 3947
1.878 4.848 1.191 3662
1.899 4.901 1.187 4325
1.908 4.926 1.176 3421
1.962 5.066 1.190 3106
1.955 5.047 1.169 3437
1.959 5.058 1.155 3608
1.966 5.075 1.142 3972
2.006 5.179 1.147 3906
2.004 5.175 1.129 3828
2.003 5.170 1.112 2826
2.046 5.282 1.116 2968
2.038 5.263 1.096 5143
2.037 5.258 1.078 4454
2.131 5.501 1.104 3521
2.135 5.511 1.089 5021
2.136 5.513 1.072 4116
2.134 5.508 1.053 3076
2.112 5.452 1.027 3658
2.170 5.601 1.033 3506
2.173 5.611 1.017 2670
2.219 5.730 1.018 2457
2.232 5.761 1.004 2200
2.235 5.771 0.987 1845
2.236 5.773 0.970 1859
2.382 6.149 1.005 3939
2.380 6.144 0.985 4039
2.364 6.102 0.959 3770
2.396 6.185 0.951 3401
2.391 6.173 0.930 3308
2.468 6.373 0.936 3299
2.472 6.382 0.917 4283
2.473 6.384 0.897 3800
2.465 6.364 0.875 2017
2.531 6.535 0.874 1688
2.669 6.890 0.893 1694
2.669 6.892 0.871 1923
2.696 6.960 0.857 2165
2.716 7.013 0.840 2052
2.717 7.015 0.818 2131
2.806 7.245 0.818 1621
2.807 7.246 0.796 2766
2.808 7.248 0.773 3015
2.811 7.257 0.751 1956
3.066 7.914 0.782 1707
3.035 7.835 0.751 1668
3.147 8.124 0.749 1552
3.076 7.941 0.710 1640
3.074 7.935 0.685 1490
3.237 8.357 0.688 1475
3.155 8.144 0.648 1332
3.172 8.190 0.626 1000
3.370 8.700 0.629 1024
3.176 8.200 0.575 851
3.328 8.592 0.569 698
3.386 8.741 0.549 765
3.389 8.749 0.523 680
3.392 8.757 0.496 461
3.393 8.758 0.468 313
3.393 8.759 0.441 252
0.727 1.862 1.533 4166
0.729 1.866 1.527 8332
0.730 1.870 1.521 7842
0.732 1.874 1.516 7351
0.733 1.877 1.510 7351
0.744 1.905 1.522 8099
0.748 1.915 1.521 9652
0.747 1.913 1.511 8416
0.779 1.996 1.563 8531
0.781 1.999 1.557 8531
0.780 1.997 1.546 9866
0.782 2.001 1.540 11290
0.778 1.993 1.525 10672
0.780 1.996 1.519 10322
0.784 2.006 1.517 13456
0.785 2.010 1.511 16879
0.787 2.014 1.505 19898
0.788 2.017 1.499 22917
0.787 2.015 1.488 18574
0.788 2.019 1.482 14294
0.790 2.022 1.476 11302
0.791 2.026 1.470 8310
0.834 2.136 1.535 8894
0.794 2.033 1.458 8964
0.795 2.037 1.451 6560
0.853 2.185 1.540 6880
0.860 2.201 1.542 8981
0.864 2.211 1.539 8066
0.868 2.221 1.536 7462
0.872 2.232 1.534 7972
0.876 2.242 1.531 10147
0.880 2.252 1.528 12137
0.881 2.256 1.521 15368
0.883 2.259 1.514 18391
0.886 2.269 1.511 17940
0.888 2.273 1.504 17541
0.889 2.277 1.497 12176
0.891 2.281 1.490 6812
0.927 2.374 1.538 6684
0.929 2.378 1.530 7364
0.923 2.362 1.511 6705
0.922 2.360 1.500 5512
0.951 2.435 1.535 4875
0.925 2.367 1.486 4324
0.929 2.377 1.482 3676
0.948 2.426 1.501 4246
0.962 2.463 1.512 8109
0.963 2.466 1.505 10796
0.967 2.477 1.501 10649
0.974 2.493 1.501 7924
0.981 2.510 1.500 5736
0.997 2.553 1.514 7588
0.999 2.557 1.506 10474
1.000 2.561 1.498 13574
1.004 2.571 1.494 13885
1.013 2.595 1.497 11157
1.023 2.618 1.499 7802
1.024 2.622 1.491 7283
1.023 2.619 1.480 11325
1.022 2.616 1.468 13849
1.028 2.633 1.467 16006
1.035 2.650 1.466 14769
1.044 2.673 1.468 11247
1.038 2.657 1.449 11387
1.073 2.747 1.485 10647
1.080 2.764 1.483 10621
1.092 2.795 1.487 10050
1.090 2.792 1.476 8890
1.052 2.694 1.418 7675
1.093 2.799 1.458 6090
1.097 2.809 1.453 6313
1.099 2.813 1.444 7708
1.105 2.830 1.442 9740
1.128 2.887 1.459 9076
1.140 2.918 1.462 11348
1.139 2.915 1.450 12536
1.140 2.918 1.441 12225
1.141 2.922 1.432 9669
1.148 2.939 1.429 10266
1.152 2.949 1.423 12144
1.153 2.953 1.414 7609
1.181 3.025 1.435 9500
1.180 3.021 1.422 11219
1.184 3.032 1.416 8941
1.218 3.117 1.442 8989
1.208 3.094 1.420 8857
1.210 3.097 1.411 8930
1.230 3.149 1.421 10272
1.231 3.152 1.412 11076
1.230 3.149 1.399 8392
1.229 3.145 1.387 5383
1.260 3.225 1.407 8721
1.264 3.235 1.400 12495
1.265 3.238 1.390 12523
1.266 3.242 1.380 10949
1.278 3.273 1.381 7940
1.288 3.297 1.379 9064
1.319 3.377 1.397 11649
1.323 3.387 1.390 14157
1.324 3.391 1.379 13806
1.326 3.394 1.369 10226
1.324 3.390 1.356 7000
1.326 3.394 1.345 6332
1.332 3.411 1.340 7352
1.336 3.421 1.332 7293
1.376 3.523 1.356 11594
1.377 3.526 1.345 9606
1.400 3.585 1.353 6871
1.407 3.603 1.347 5299
1.373 3.514 1.305 4570
1.415 3.623 1.329 5286
1.417 3.626 1.318 7155
1.415 3.623 1.304 7723
1.452 3.718 1.323 8694
1.456 3.728 1.314 8582
1.457 3.731 1.302 10099
1.459 3.734 1.291 9820
1.460 3.737 1.279 4464
1.503 3.847 1.300 4835
1.498 3.836 1.284 5595
1.499 3.839 1.272 5399
1.509 3.863 1.266 5532
1.530 3.916 1.269 7948
1.539 3.940 1.263 7334
1.546 3.958 1.255 11579
1.547 3.961 1.243 15254
1.551 3.971 1.232 17689
1.552 3.974 1.220 18418
1.553 3.977 1.208 18251
1.557 3.987 1.197 14154
1.561 3.997 1.187 6917
1.607 4.114 1.205 6633
1.670 4.275 1.233 4973
1.671 4.278 1.220 6838
1.672 4.281 1.206 7857
1.676 4.291 1.195 8690
1.677 4.294 1.182 8948
1.678 4.296 1.168 7474
1.688 4.321 1.160 6880
1.694 4.338 1.150 5696
1.836 4.701 1.221 7531
1.840 4.711 1.208 6580
1.844 4.721 1.195 6082
1.842 4.717 1.178 4132
1.889 4.835 1.189 3551
1.893 4.845 1.176 3468
1.925 4.928 1.178 2843
1.977 5.061 1.190 2652
1.967 5.035 1.168 3192
1.970 5.045 1.154 3035
1.974 5.055 1.140 2745
2.021 5.173 1.147 3745
1.993 5.104 1.117 3821
2.020 5.172 1.113 2756
2.064 5.283 1.118 3693
2.062 5.279 1.100 5500
2.051 5.252 1.078 4259
2.084 5.335 1.076 3508
2.150 5.505 1.089 4718
2.148 5.500 1.070 3963
2.129 5.451 1.045 3226
2.122 5.432 1.024 4188
2.188 5.602 1.034 3668
2.192 5.612 1.018 3174
2.236 5.724 1.018 2487
2.194 5.616 0.983 2185
2.252 5.765 0.987 1722
2.256 5.774 0.971 1763
2.399 6.142 1.005 3747
2.397 6.137 0.985 3821
2.381 6.096 0.959 3673
2.413 6.178 0.951 3629
2.408 6.166 0.930 3796
2.409 6.168 0.911 3613
2.490 6.375 0.917 4236
2.491 6.377 0.897 3664
2.477 6.343 0.873 1999
2.556 6.543 0.876 1621
2.685 6.875 0.892 1555
2.689 6.884 0.871 1722
2.715 6.952 0.857 2137
2.739 7.013 0.841 1994
2.740 7.015 0.819 2082
2.953 7.560 0.849 1743
2.830 7.246 0.796 2588
2.828 7.240 0.773 2879
2.832 7.249 0.751 1813
2.970 7.604 0.758 1560
3.057 7.826 0.751 1462
3.170 8.115 0.749 1608
3.170 8.116 0.723 1751
3.168 8.111 0.697 1574
3.261 8.348 0.688 1700
3.258 8.342 0.661 1435
3.414 8.741 0.659 1032
3.415 8.742 0.632 1304
3.415 8.743 0.605 1139
3.413 8.737 0.577 1030
3.413 8.738 0.550 1095
3.414 8.739 0.523 972
3.417 8.748 0.496 717
3.414 8.741 0.468 564
3.415 8.742 0.441 449
0.717 1.859 1.528 3979
0.718 1.863 1.522 7959
0.722 1.873 1.521 7603
0.724 1.877 1.516 7275
0.725 1.880 1.510 7275
0.734 1.902 1.518 7360
0.740 1.918 1.521 8568
0.739 1.916 1.511 7456
0.771 1.999 1.563 8895
0.772 2.003 1.557 8895
0.774 2.007 1.551 10049
0.773 2.004 1.540 11203
0.772 2.002 1.530 10110
0.771 2.000 1.519 9418
0.775 2.010 1.517 12281
0.779 2.020 1.516 15529
0.778 2.017 1.505 18056
0.779 2.021 1.499 20817
0.778 2.018 1.488 16645
0.780 2.022 1.482 12705
0.781 2.026 1.476 10306
0.782 2.029 1.470 7908
0.825 2.139 1.535 8587
0.785 2.036 1.458 8277
0.787 2.040 1.451 6000
0.844 2.188 1.540 6822
0.848 2.199 1.538 8670
0.852 2.209 1.535 7541
0.856 2.219 1.532 6678
0.859 2.229 1.530 7036
0.866 2.245 1.531 8647
0.870 2.256 1.528 10366
0.871 2.259 1.521 13718
0.875 2.270 1.518 16882
0.877 2.273 1.511 16545
0.878 2.277 1.504 16207
0.879 2.281 1.497 11218
0.878 2.278 1.486 6261
0.917 2.378 1.538 5629
0.919 2.382 1.530 6289
0.915 2.373 1.515 6009
0.916 2.377 1.508 5015
0.938 2.432 1.531 5985
0.937 2.430 1.520 5342
0.936 2.427 1.509 4899
0.940 2.437 1.505 5130
0.951 2.467 1.512 7488
0.953 2.471 1.505 9944
0.954 2.474 1.497 10083
0.958 2.485 1.493 7943
0.959 2.488 1.486 5478
0.989 2.564 1.518 6875
0.990 2.568 1.510 9739
0.992 2.572 1.502 12829
0.993 2.575 1.494 13512
1.002 2.599 1.497 10941
1.009 2.616 1.496 7240
1.010 2.620 1.488 6359
1.009 2.617 1.476 11236
1.013 2.627 1.472 14183
1.017 2.637 1.467 16329
1.021 2.647 1.462 14432
1.032 2.678 1.468 10390
1.031 2.675 1.456 10353
1.061 2.752 1.485 11316
1.068 2.769 1.483 11264
1.077 2.793 1.484 9952
1.078 2.796 1.476 8947
1.077 2.793 1.464 7499
1.078 2.797 1.455 5799
1.082 2.807 1.450 5287
1.086 2.818 1.444 7136
1.093 2.835 1.442 9798
1.115 2.892 1.459 8342
1.130 2.930 1.465 10308
1.126 2.920 1.450 11128
1.127 2.923 1.441 11013
1.129 2.927 1.432 8777
1.135 2.944 1.429 9490
1.139 2.954 1.423 11545
1.141 2.958 1.414 7561
1.168 3.030 1.435 9195
1.167 3.027 1.422 10113
1.208 3.133 1.457 8968
1.204 3.123 1.442 9165
1.203 3.119 1.429 8497
1.196 3.102 1.411 8110
1.216 3.154 1.421 11806
1.215 3.151 1.409 12857
1.216 3.154 1.399 9436
1.217 3.157 1.389 5405
1.245 3.230 1.407 9180
1.249 3.240 1.400 13055
1.251 3.244 1.390 12210
1.252 3.247 1.380 10216
1.264 3.278 1.381 7543
1.273 3.303 1.379 9200
1.304 3.383 1.397 11542
1.308 3.393 1.390 13761
1.312 3.403 1.382 12771
1.311 3.400 1.369 8783
1.307 3.389 1.353 6370
1.308 3.392 1.343 6279
1.317 3.417 1.340 6662
1.357 3.518 1.364 7903
1.361 3.528 1.356 13273
1.362 3.532 1.345 10675
1.385 3.591 1.353 8589
1.391 3.609 1.347 6469
1.398 3.626 1.340 4547
1.399 3.629 1.329 4752
1.395 3.618 1.313 7046
1.396 3.622 1.302 8077
1.439 3.731 1.325 8928
1.443 3.741 1.316 8785
1.444 3.744 1.304 10586
1.442 3.740 1.291 10457
1.443 3.744 1.279 4785
1.486 3.853 1.300 4609
1.481 3.842 1.284 5061
1.483 3.845 1.272 4860
1.514 3.927 1.283 5355
1.513 3.923 1.269 7849
1.516 3.933 1.259 6682
1.529 3.964 1.255 10975
1.530 3.967 1.243 11925
1.534 3.978 1.232 10989
1.535 3.981 1.220 13274
1.536 3.983 1.208 14055
1.540 3.994 1.197 9639
1.555 4.032 1.195 5234
1.589 4.121 1.205 4779
1.651 4.282 1.233 5030
1.649 4.278 1.218 6801
1.653 4.288 1.206 7556
1.657 4.298 1.195 8350
1.658 4.301 1.182 8852
1.659 4.304 1.168 7686
1.666 4.321 1.158 6752
1.815 4.706 1.235 4850
1.816 4.709 1.221 7036
1.820 4.719 1.208 5826
1.824 4.729 1.195 5575
1.825 4.732 1.180 4003
1.865 4.836 1.188 3428
1.866 4.839 1.173 3604
1.861 4.827 1.154 2627
1.924 4.990 1.173 2350
1.945 5.043 1.168 2743
1.946 5.046 1.152 2563
1.930 5.005 1.128 2564
1.998 5.182 1.147 3445
1.971 5.112 1.117 3465
1.997 5.180 1.113 2543
2.041 5.292 1.118 4099
2.039 5.287 1.100 5687
2.031 5.268 1.079 3980
2.060 5.344 1.076 3560
2.123 5.507 1.087 4497
2.124 5.509 1.070 4129
2.097 5.439 1.041 3285
2.098 5.441 1.024 4273
2.167 5.619 1.036 3702
2.167 5.621 1.018 3470
2.168 5.624 1.001 2765
2.169 5.626 0.983 2310
2.173 5.636 0.967 1672
2.354 6.106 1.017 1755
2.372 6.153 1.005 3394
2.373 6.155 0.986 3470
2.354 6.106 0.959 3505
2.386 6.189 0.951 3750
2.379 6.169 0.929 4030
2.382 6.178 0.911 3902
2.462 6.386 0.917 3992
2.466 6.395 0.898 3405
2.447 6.346 0.872 1957
2.547 6.605 0.882 1798
2.533 6.570 0.857 1567
2.704 7.013 0.884 1601
2.685 6.964 0.857 2082
2.711 7.032 0.842 1982
2.712 7.034 0.820 2038
2.920 7.573 0.849 1694
2.799 7.258 0.796 2320
2.796 7.253 0.773 2623
2.933 7.608 0.781 1711
