3.432 5.224 0.941 4484
3.442 5.240 0.925 4377
3.448 5.248 0.908 3050
3.604 5.486 0.923 3104
3.593 5.469 0.902 3174
3.590 5.464 0.882 2933
3.604 5.485 0.866 2735
3.622 5.513 0.850 2733
3.874 5.897 0.879 2745
3.875 5.898 0.859 3459
3.876 5.900 0.838 2286
3.973 6.047 0.835 1478
4.052 6.167 0.827 2056
4.057 6.175 0.806 2474
4.058 6.177 0.785 2337
4.055 6.172 0.763 1576
4.515 6.872 0.810 2569
4.516 6.874 0.786 4287
4.521 6.882 0.763 5048
4.522 6.884 0.739 5408
4.519 6.878 0.715 4939
4.516 6.873 0.690 4411
4.516 6.874 0.666 4333
4.517 6.876 0.642 4911
4.518 6.877 0.619 4958
4.519 6.878 0.595 4428
4.520 6.879 0.571 3348
4.520 6.880 0.547 1931
5.064 7.707 0.570 1320
5.069 7.715 0.543 1094
5.074 7.722 0.517 785
5.191 7.902 0.498 421
5.192 7.903 0.471 376
5.192 7.904 0.443 306
4.133 6.290 -0.274 395
4.132 6.289 -0.296 554
4.131 6.288 -0.318 730
4.126 6.280 -0.339 915
4.125 6.279 -0.361 915
4.129 6.285 -0.383 1072
4.132 6.290 -0.406 1225
4.131 6.288 -0.427 1683
4.131 6.287 -0.449 2127
4.130 6.286 -0.471 2478
4.124 6.277 -0.492 2853
4.128 6.283 -0.515 3144
4.126 6.281 -0.536 3459
4.125 6.279 -0.558 3459
4.120 6.271 -0.579 4095
4.119 6.269 -0.601 4788
4.113 6.261 -0.622 4785
4.112 6.259 -0.644 4853
4.111 6.257 -0.665 4191
4.105 6.248 -0.686 3552
4.104 6.246 -0.708 3552
4.102 6.244 -0.729 1776
1.158 1.754 1.607 2641
1.161 1.758 1.601 5282
1.163 1.761 1.595 5282
1.169 1.770 1.593 6063
1.175 1.779 1.592 7049
1.181 1.788 1.590 6370
1.183 1.792 1.584 5894
1.193 1.806 1.587 8194
1.195 1.810 1.581 10646
1.197 1.813 1.574 10646
1.200 1.817 1.568 12190
1.202 1.820 1.562 13734
1.208 1.829 1.560 10883
1.210 1.833 1.554 8036
1.227 1.858 1.565 5947
1.236 1.873 1.567 5012
1.235 1.871 1.557 6207
1.237 1.874 1.550 7515
1.240 1.877 1.544 8867
1.242 1.881 1.538 10219
1.240 1.879 1.527 11173
1.243 1.882 1.521 11802
1.245 1.885 1.514 11210
1.247 1.889 1.508 10482
1.253 1.898 1.505 9631
1.259 1.907 1.503 7468
1.295 1.961 1.534 5830
1.271 1.925 1.498 5762
1.277 1.934 1.496 5265
1.328 2.011 1.542 5823
1.334 2.020 1.539 8267
1.340 2.029 1.536 9386
1.342 2.032 1.529 8804
1.348 2.041 1.526 7647
1.346 2.039 1.515 4981
1.371 2.077 1.532 3828
1.366 2.069 1.517 5186
1.364 2.066 1.506 7264
1.374 2.081 1.507 9699
1.384 2.096 1.507 12349
1.390 2.105 1.504 12700
1.396 2.114 1.500 10631
1.433 2.170 1.527 12353
1.439 2.179 1.524 12772
1.441 2.182 1.516 13540
1.443 2.185 1.509 13640
1.445 2.189 1.501 11389
1.447 2.192 1.494 9038
1.454 2.201 1.490 9494
1.467 2.222 1.493 9868
1.473 2.231 1.489 10409
1.476 2.235 1.482 8795
1.478 2.238 1.474 6943
1.480 2.241 1.466 6758
1.478 2.238 1.455 6231
1.472 2.230 1.440 5121
1.537 2.328 1.489 4506
1.539 2.331 1.481 9618
1.545 2.340 1.476 13713
1.551 2.349 1.472 14765
1.553 2.353 1.464 11494
1.595 2.415 1.490 7954
1.601 2.425 1.485 10229
1.607 2.434 1.480 13206
1.605 2.431 1.468 14238
1.604 2.428 1.456 9316
1.645 2.492 1.481 9054
1.651 2.501 1.476 8392
1.658 2.510 1.470 7225
1.652 2.501 1.455 9609
1.650 2.499 1.443 14649
1.656 2.508 1.438 15804
1.658 2.511 1.429 16328
1.668 2.526 1.427 16987
1.678 2.542 1.425 17655
1.688 2.557 1.422 18164
1.698 2.572 1.419 16349
1.700 2.575 1.411 10927
1.719 2.603 1.414 6435
1.725 2.612 1.408 8240
1.735 2.627 1.405 9655
1.745 2.642 1.402 11685
1.751 2.652 1.396 11010
1.773 2.685 1.401 12192
1.779 2.695 1.395 16467
1.781 2.698 1.386 11343
1.787 2.707 1.379 6216
1.797 2.722 1.376 8025
1.812 2.744 1.375 9778
1.822 2.759 1.371 8098
1.869 2.830 1.392 6067
1.871 2.833 1.382 6855
1.889 2.861 1.384 5788
1.891 2.864 1.374 3273
1.926 2.917 1.386 4334
1.920 2.907 1.370 6412
1.913 2.898 1.355 6979
1.919 2.907 1.347 6516
1.946 2.947 1.353 5857
2.014 3.050 1.384 4398
2.020 3.059 1.376 3456
2.006 3.037 1.356 3790
2.012 3.047 1.348 4990
2.014 3.050 1.337 6556
2.061 3.121 1.354 6957
2.063 3.124 1.343 6929
2.036 3.083 1.315 7181
2.063 3.124 1.319 5325
2.094 3.171 1.325 7856
2.104 3.186 1.319 11157
2.106 3.189 1.308 12523
2.108 3.192 1.297 9883
2.114 3.201 1.288 6133
2.116 3.204 1.277 5117
2.113 3.200 1.264 6141
2.115 3.203 1.253 4609
2.184 3.307 1.277 2917
2.270 3.437 1.310 3539
2.271 3.440 1.298 6645
2.269 3.436 1.284 6085
2.275 3.445 1.274 4627
2.294 3.474 1.271 5729
2.304 3.489 1.263 5704
2.314 3.505 1.255 4194
2.333 3.533 1.251 3506
2.411 3.651 1.275 5021
2.408 3.647 1.260 8563
2.406 3.643 1.246 5959
2.416 3.659 1.237 4547
2.426 3.674 1.228 5631
2.305 3.491 1.160 4251
2.294 3.474 1.143 6165
2.291 3.470 1.129 9424
2.293 3.473 1.117 8965
2.549 3.861 1.214 7130
2.564 3.883 1.206 6349
2.574 3.898 1.196 3202
2.665 4.036 1.219 3450
2.671 4.045 1.207 4221
2.673 4.048 1.193 6160
2.674 4.050 1.179 7476
2.680 4.059 1.166 7116
2.691 4.075 1.155 6302
2.692 4.077 1.141 4424
2.694 4.079 1.127 3868
2.717 4.114 1.121 4359
2.761 4.181 1.122 4602
2.814 4.262 1.126 4866
2.820 4.270 1.113 5781
2.843 4.305 1.105 3784
2.853 4.321 1.093 4103
2.867 4.342 1.083 3164
2.920 4.423 1.084 3700
2.922 4.425 1.069 5347
2.992 4.531 1.075 5559
2.994 4.534 1.060 7058
2.991 4.529 1.043 5486
2.988 4.525 1.026 3294
3.123 4.729 1.049 3565
3.133 4.745 1.035 3665
3.139 4.753 1.020 3506
3.131 4.742 1.001 3205
3.124 4.731 0.983 2957
3.246 4.916 0.998 2189
3.373 5.108 1.014 2744
3.374 5.110 0.997 2906
3.428 5.191 0.992 3302
3.429 5.193 0.974 2816
3.435 5.201 0.957 3281
3.449 5.223 0.942 4538
3.454 5.232 0.925 4581
3.460 5.240 0.908 3181
3.613 5.471 0.923 2969
3.601 5.454 0.901 2923
3.602 5.455 0.882 2509
3.621 5.483 0.866 2126
3.635 5.505 0.850 2573
3.883 5.881 0.878 2658
3.889 5.889 0.859 3340
3.890 5.891 0.838 2148
3.987 6.038 0.835 1692
4.066 6.158 0.827 2114
4.071 6.166 0.806 2506
4.072 6.167 0.785 2383
4.073 6.169 0.763 1683
4.531 6.862 0.810 2540
4.532 6.863 0.786 4147
4.537 6.872 0.763 4794
4.538 6.873 0.739 5231
4.535 6.868 0.715 4939
4.532 6.863 0.690 4591
4.532 6.864 0.666 4678
4.533 6.865 0.642 5123
4.534 6.866 0.619 5021
4.535 6.868 0.595 4473
4.535 6.869 0.571 3483
4.536 6.870 0.547 2103
4.537 6.871 0.523 1371
5.082 7.697 0.543 1101
5.091 7.711 0.517 779
5.109 7.738 0.491 388
5.206 7.884 0.470 299
4.147 6.281 -0.274 320
4.147 6.280 -0.296 477
4.146 6.279 -0.318 671
4.141 6.271 -0.339 873
4.140 6.270 -0.361 873
4.139 6.268 -0.383 1062
4.143 6.274 -0.405 1245
4.142 6.272 -0.427 1618
4.141 6.271 -0.449 1984
4.140 6.269 -0.470 1956
4.134 6.261 -0.492 1947
4.133 6.260 -0.513 1988
4.132 6.258 -0.535 2030
4.131 6.256 -0.557 2030
4.130 6.255 -0.579 2686
4.125 6.246 -0.599 3349
4.123 6.245 -0.621 3402
4.122 6.243 -0.643 3455
4.117 6.234 -0.664 2859
4.115 6.232 -0.685 2309
4.114 6.230 -0.707 2309
4.112 6.228 -0.729 1154
1.163 1.751 1.607 2699
1.165 1.755 1.601 5398
1.168 1.758 1.595 5398
1.174 1.767 1.593 6085
1.179 1.776 1.592 7012
1.182 1.780 1.586 6422
1.188 1.789 1.584 5832
1.194 1.798 1.582 7563
1.200 1.807 1.581 9643
1.202 1.810 1.574 9643
1.204 1.814 1.568 11056
1.207 1.817 1.562 12468
1.209 1.820 1.556 9619
1.211 1.824 1.550 6769
1.210 1.822 1.539 5574
1.241 1.869 1.567 5155
1.240 1.867 1.557 6557
1.242 1.871 1.550 7982
1.245 1.874 1.544 9130
1.243 1.872 1.533 10282
1.245 1.875 1.527 11484
1.248 1.879 1.521 12393
1.250 1.882 1.514 11884
1.252 1.885 1.508 11235
1.258 1.894 1.505 10264
1.264 1.903 1.503 7792
1.300 1.957 1.534 5435
1.276 1.921 1.498 5313
1.282 1.930 1.496 4563
1.333 2.007 1.542 5705
1.339 2.016 1.539 8291
1.345 2.025 1.536 9554
1.347 2.029 1.529 9190
1.353 2.038 1.526 8173
1.352 2.035 1.515 5349
1.377 2.073 1.532 3914
1.371 2.065 1.517 5226
1.370 2.063 1.506 7119
1.380 2.077 1.507 9486
1.389 2.092 1.507 12710
1.395 2.101 1.504 13543
1.401 2.110 1.500 11844
1.434 2.160 1.523 12923
1.444 2.175 1.524 13084
1.447 2.178 1.516 13813
1.449 2.182 1.509 13516
1.451 2.185 1.501 10545
1.449 2.182 1.490 7955
1.463 2.203 1.494 9241
1.473 2.218 1.493 10434
1.479 2.227 1.489 10934
1.481 2.231 1.482 9067
1.480 2.228 1.470 7364
1.486 2.237 1.466 7466
1.480 2.229 1.451 6858
1.478 2.226 1.440 5632
1.539 2.318 1.485 5043
1.545 2.327 1.481 10785
1.551 2.336 1.476 14874
1.557 2.345 1.472 15362
1.564 2.354 1.467 11370
1.601 2.411 1.490 8913
1.607 2.421 1.485 10576
1.610 2.424 1.476 13379
1.612 2.427 1.468 14624
1.610 2.424 1.456 9985
1.652 2.487 1.481 9049
1.658 2.497 1.476 8194
1.664 2.506 1.470 7565
1.662 2.503 1.458 10584
1.660 2.500 1.447 15897
1.662 2.503 1.438 16623
1.665 2.507 1.429 15932
1.675 2.522 1.427 15792
1.685 2.537 1.425 17264
1.695 2.552 1.422 18304
1.705 2.568 1.419 16110
1.715 2.583 1.417 10492
1.721 2.592 1.411 6106
1.727 2.601 1.405 7649
1.738 2.617 1.402 9041
1.752 2.638 1.402 12116
1.750 2.635 1.390 11110
1.780 2.681 1.401 11093
1.786 2.690 1.395 16816
1.784 2.687 1.383 12663
1.794 2.702 1.379 7150
1.809 2.724 1.379 8632
1.819 2.739 1.375 10510
1.829 2.754 1.371 8803
1.856 2.794 1.378 6005
1.886 2.841 1.388 7260
1.897 2.856 1.384 6449
1.903 2.865 1.377 3557
1.929 2.905 1.383 5460
1.927 2.902 1.370 7767
1.921 2.893 1.355 7749
1.927 2.902 1.347 6758
1.954 2.942 1.353 6452
1.960 2.951 1.346 4556
1.974 2.973 1.343 3608
2.022 3.045 1.361 4188
2.024 3.048 1.350 5795
2.026 3.051 1.340 6513
2.028 3.053 1.329 6213
2.030 3.056 1.319 6001
2.044 3.078 1.315 7418
2.075 3.125 1.322 7024
2.094 3.153 1.320 8360
2.112 3.181 1.319 10890
2.114 3.184 1.308 12300
2.116 3.187 1.297 9752
2.118 3.189 1.286 5830
2.124 3.198 1.277 4741
2.122 3.195 1.264 5869
2.123 3.198 1.253 4692
2.121 3.194 1.240 2395
2.278 3.431 1.310 3358
2.280 3.434 1.298 6357
2.278 3.430 1.284 6153
2.284 3.440 1.274 5418
2.294 3.455 1.266 5473
2.309 3.477 1.261 4533
2.336 3.518 1.261 4060
2.342 3.527 1.251 3845
2.420 3.644 1.275 5923
2.418 3.641 1.260 10369
2.419 3.643 1.248 7927
2.425 3.652 1.237 6839
2.431 3.661 1.226 7068
2.510 3.779 1.248 4303
2.303 3.468 1.143 6658
2.300 3.464 1.129 9520
2.302 3.467 1.117 8870
2.559 3.854 1.214 5942
2.574 3.876 1.206 5149
2.580 3.885 1.194 2820
2.663 4.010 1.214 3236
2.656 3.999 1.196 3973
2.683 4.041 1.193 4873
2.681 4.037 1.177 6330
2.691 4.052 1.166 6390
2.701 4.068 1.155 5827
2.703 4.070 1.141 3992
2.709 4.079 1.129 3507
2.745 4.133 1.127 4694
2.763 4.161 1.119 4351
2.825 4.254 1.126 4862
2.827 4.257 1.111 5434
2.854 4.298 1.105 3776
2.864 4.313 1.093 4239
2.995 4.510 1.121 3604
2.992 4.506 1.104 3339
2.933 4.417 1.069 4247
3.004 4.524 1.075 5479
3.005 4.526 1.060 6797
3.003 4.522 1.043 5222
3.000 4.517 1.026 3130
3.139 4.728 1.051 3180
3.150 4.743 1.037 3000
3.168 4.771 1.025 3373
3.148 4.741 1.003 3177
3.145 4.736 0.985 2845
3.259 4.908 0.998 2673
3.386 5.099 1.014 2640
3.279 4.938 0.969 3022
3.441 5.182 0.992 3115
3.438 5.177 0.973 2580
3.448 5.192 0.957 3019
3.462 5.214 0.942 4394
3.468 5.222 0.925 4543
3.474 5.231 0.908 3166
3.627 5.462 0.923 2661
3.611 5.438 0.900 2741
3.612 5.439 0.881 2428
3.565 5.369 0.852 2090
3.649 5.495 0.850 2306
3.899 5.871 0.878 2601
3.900 5.873 0.858 3070
3.905 5.881 0.838 1881
4.002 6.027 0.835 1812
4.086 6.154 0.828 2103
4.092 6.162 0.807 2500
4.089 6.157 0.785 2431
4.085 6.152 0.763 1881
4.549 6.850 0.810 2352
4.550 6.852 0.786 3792
4.551 6.853 0.762 4331
4.552 6.855 0.738 4803
4.553 6.856 0.715 4706
4.545 6.844 0.690 4549
4.550 6.852 0.666 4720
4.551 6.853 0.642 5018
4.552 6.855 0.619 4810
4.553 6.856 0.595 4302
4.553 6.857 0.571 3452
4.554 6.858 0.547 2163
5.102 7.682 0.570 1370
5.102 7.683 0.543 1074
5.116 7.704 0.517 768
5.130 7.725 0.491 390
4.164 6.270 -0.274 252
4.163 6.269 -0.296 387
4.158 6.261 -0.317 600
4.157 6.260 -0.339 829
4.156 6.259 -0.361 829
4.151 6.251 -0.382 1034
4.155 6.256 -0.405 1245
4.154 6.255 -0.426 1342
4.157 6.260 -0.449 1440
4.156 6.259 -0.470 1314
4.159 6.264 -0.493 1209
4.154 6.256 -0.514 1363
4.149 6.247 -0.535 1543
4.148 6.246 -0.557 1543
4.142 6.237 -0.578 1434
4.132 6.222 -0.598 1450
4.131 6.221 -0.620 1585
4.134 6.225 -0.642 1728
4.128 6.217 -0.663 1586
4.127 6.215 -0.684 1451
4.126 6.213 -0.706 1451
4.124 6.211 -0.728 725
1.168 1.748 1.607 2831
1.170 1.752 1.601 5662
1.172 1.755 1.595 5662
1.175 1.759 1.589 6263
1.181 1.768 1.587 7081
1.183 1.771 1.581 6521
1.185 1.775 1.575 5961
1.195 1.789 1.578 7316
1.201 1.798 1.576 9077
1.203 1.801 1.570 9077
1.209 1.810 1.568 10190
1.212 1.814 1.562 11433
1.214 1.817 1.556 8569
1.212 1.815 1.545 5770
1.215 1.818 1.539 5298
1.243 1.860 1.563 5503
1.245 1.864 1.557 6944
1.247 1.867 1.550 8384
1.250 1.871 1.544 9302
1.248 1.869 1.533 10243
1.250 1.872 1.527 11717
1.253 1.875 1.521 12934
1.255 1.879 1.514 12355
1.257 1.882 1.508 11555
1.263 1.891 1.505 10453
1.269 1.900 1.503 7821
1.279 1.914 1.505 5199
1.281 1.918 1.498 4734
1.283 1.921 1.492 3836
1.338 2.003 1.542 5516
1.344 2.013 1.539 8295
1.350 2.022 1.536 9719
1.353 2.025 1.529 9590
1.359 2.034 1.526 8696
1.357 2.032 1.515 5770
1.378 2.064 1.528 3912
1.377 2.061 1.517 5113
1.375 2.059 1.506 6744
1.389 2.079 1.510 9083
1.395 2.088 1.507 12829
1.401 2.098 1.504 14083
1.407 2.107 1.500 12651
1.440 2.156 1.523 13090
1.450 2.171 1.524 12940
1.452 2.174 1.516 13573
1.455 2.178 1.509 12936
1.461 2.187 1.505 9652
1.467 2.196 1.501 7148
1.469 2.199 1.494 9019
1.479 2.214 1.493 10723
1.485 2.223 1.489 11149
1.487 2.227 1.482 9106
1.486 2.224 1.470 7731
1.488 2.227 1.463 8265
1.486 2.225 1.451 7538
1.484 2.222 1.440 6122
1.541 2.308 1.482 5747
1.552 2.323 1.481 11462
1.558 2.332 1.476 15304
1.568 2.347 1.475 15347
1.578 2.362 1.474 11563
1.604 2.401 1.486 9953
1.598 2.392 1.471 10601
1.616 2.419 1.476 12839
1.618 2.423 1.468 14341
1.616 2.420 1.456 10408
1.607 2.405 1.438 8823
1.661 2.486 1.472 7582
1.675 2.507 1.474 7598
1.669 2.499 1.458 11321
1.667 2.496 1.447 16801
1.669 2.499 1.438 17445
1.671 2.502 1.429 15574
1.682 2.517 1.427 14129
1.692 2.533 1.425 15968
1.702 2.548 1.422 17449
1.712 2.563 1.419 15071
1.722 2.578 1.417 9812
1.728 2.587 1.411 6248
1.730 2.590 1.402 7642
1.745 2.612 1.402 8429
1.759 2.633 1.402 12708
1.753 2.624 1.387 11738
1.787 2.676 1.401 11020
1.790 2.679 1.392 17951
1.792 2.682 1.383 14247
1.794 2.685 1.374 7648
1.812 2.713 1.376 8617
1.826 2.734 1.375 10684
1.841 2.755 1.374 9001
1.859 2.783 1.375 5920
1.898 2.842 1.391 7701
1.904 2.851 1.384 6923
1.939 2.903 1.396 4033
1.937 2.900 1.383 6937
1.935 2.897 1.370 8739
1.929 2.888 1.355 7863
2.014 3.015 1.397 8345
2.016 3.018 1.387 8810
2.018 3.021 1.377 5718
1.986 2.974 1.346 4311
2.034 3.045 1.363 4990
2.032 3.042 1.350 6270
2.034 3.045 1.340 5940
2.036 3.048 1.329 5420
2.038 3.051 1.319 6071
2.052 3.072 1.315 7714
2.084 3.119 1.322 9047
2.098 3.141 1.318 8582
2.121 3.175 1.319 9679
2.123 3.178 1.308 11015
2.125 3.181 1.297 8991
2.127 3.184 1.286 5411
2.128 3.186 1.275 4330
2.130 3.189 1.264 5231
2.132 3.192 1.253 4181
2.256 3.378 1.306 3027
2.288 3.425 1.310 3630
2.290 3.428 1.298 6033
2.292 3.431 1.286 6245
2.293 3.433 1.274 6220
2.299 3.442 1.264 5383
2.416 3.617 1.309 3684
2.350 3.518 1.263 3857
2.356 3.527 1.253 3969
2.430 3.638 1.275 6152
2.432 3.640 1.262 11284
2.429 3.637 1.248 9696
2.435 3.646 1.237 8825
2.441 3.655 1.226 8047
2.524 3.779 1.250 5066
2.312 3.462 1.143 6821
2.310 3.458 1.129 8974
2.311 3.460 1.117 7995
2.570 3.847 1.214 4592
2.580 3.863 1.204 4133
2.650 3.968 1.219 3035
2.661 3.983 1.208 3344
2.662 3.986 1.195 4032
2.660 3.982 1.179 4877
2.657 3.978 1.164 5088
2.702 4.045 1.166 5255
2.712 4.060 1.155 4839
2.718 4.069 1.143 3203
2.754 4.123 1.142 3245
2.756 4.126 1.127 4959
2.766 4.141 1.116 4146
2.832 4.240 1.124 4523
2.834 4.243 1.110 4820
2.870 4.297 1.107 3685
2.876 4.305 1.093 4242
3.007 4.502 1.121 4063
3.004 4.498 1.104 3299
2.950 4.416 1.070 3295
3.016 4.515 1.075 5033
3.018 4.518 1.060 6339
3.015 4.513 1.043 4864
3.012 4.509 1.026 2893
3.078 4.609 1.029 2743
3.102 4.643 1.019 3372
3.181 4.763 1.025 3379
3.165 4.739 1.004 3361
3.167 4.741 0.987 3011
3.277 4.906 1.000 3013
3.283 4.914 0.984 2809
3.293 4.929 0.969 3171
3.294 4.931 0.952 2858
3.535 5.292 0.993 2446
3.536 5.294 0.974 3370
3.481 5.211 0.943 4049
3.482 5.213 0.925 4213
3.488 5.221 0.908 2969
3.572 5.348 0.907 2681
3.626 5.428 0.900 2631
3.627 5.430 0.881 2384
3.764 5.634 0.889 2083
3.865 5.787 0.889 2210
3.915 5.860 0.878 2548
3.916 5.862 0.858 2906
3.921 5.870 0.838 1754
4.023 6.023 0.835 1880
4.103 6.142 0.828 2044
4.108 6.151 0.807 2431
4.105 6.146 0.785 2443
4.102 6.141 0.763 2120
4.567 6.838 0.810 2068
4.568 6.839 0.786 3360
4.569 6.841 0.762 3831
4.570 6.842 0.738 4298
4.567 6.837 0.714 4314
4.564 6.832 0.690 4265
4.569 6.840 0.666 4538
4.570 6.841 0.642 4675
4.570 6.842 0.619 4370
4.571 6.843 0.595 3928
4.572 6.844 0.571 3210
4.573 6.845 0.547 2044
5.122 7.668 0.570 1306
5.136 7.689 0.544 989
5.146 7.703 0.518 769
5.155 7.717 0.491 399
4.171 6.244 -0.295 360
4.170 6.243 -0.317 502
4.170 6.242 -0.339 645
4.169 6.241 -0.360 645
4.168 6.240 -0.382 736
4.167 6.238 -0.404 827
4.171 6.244 -0.426 836
4.174 6.249 -0.449 844
4.173 6.247 -0.470 969
4.176 6.252 -0.493 1101
4.171 6.244 -0.514 1335
4.166 6.236 -0.535 1591
4.164 6.234 -0.557 1591
4.168 6.239 -0.579 1364
4.175 6.251 -0.603 1160
4.161 6.229 -0.622 1285
4.160 6.227 -0.644 1440
4.154 6.219 -0.664 1231
4.148 6.210 -0.685 1046
4.147 6.208 -0.707 1046
4.146 6.206 -0.729 523
1.172 1.745 1.607 3053
1.174 1.749 1.601 6106
1.176 1.753 1.595 6106
1.179 1.756 1.589 6565
1.185 1.765 1.587 7126
1.187 1.768 1.581 6666
1.186 1.767 1.570 6250
1.195 1.781 1.573 7509
1.201 1.790 1.572 9187
1.204 1.793 1.566 9187
1.213 1.808 1.568 9647
1.216 1.811 1.562 10648
1.218 1.814 1.556 7699
1.216 1.812 1.545 4896
1.241 1.849 1.565 5069
1.247 1.858 1.563 5944
1.249 1.861 1.557 7356
1.252 1.865 1.550 8768
1.250 1.862 1.540 9431
1.252 1.866 1.533 10164
1.255 1.869 1.527 11733
1.257 1.873 1.521 13119
1.259 1.876 1.514 12477
1.261 1.879 1.508 11414
1.267 1.888 1.505 10289
1.273 1.897 1.503 7692
1.279 1.906 1.501 4967
1.282 1.909 1.494 3943
1.333 1.986 1.540 3284
1.343 2.001 1.542 5201
1.349 2.010 1.539 8136
1.351 2.013 1.532 9713
1.357 2.022 1.529 9728
1.359 2.025 1.522 8955
1.362 2.029 1.515 6064
1.383 2.061 1.528 3904
1.381 2.058 1.517 4918
1.376 2.050 1.502 6335
1.397 2.082 1.514 8542
1.404 2.091 1.511 12761
1.406 2.094 1.504 14299
1.412 2.103 1.500 13138
1.441 2.147 1.520 13068
1.455 2.168 1.524 12454
1.461 2.177 1.520 13000
1.463 2.180 1.512 12062
1.466 2.184 1.505 8778
1.472 2.193 1.501 6673
1.478 2.202 1.497 8874
1.484 2.211 1.493 10779
1.490 2.220 1.489 11074
1.492 2.223 1.482 8952
1.491 2.221 1.470 8079
1.493 2.224 1.463 9144
1.491 2.221 1.451 8187
1.493 2.224 1.444 6537
1.543 2.298 1.478 6464
1.557 2.319 1.481 11749
1.563 2.328 1.476 15049
1.577 2.349 1.479 14953
1.591 2.370 1.481 12270
1.601 2.386 1.479 11450
1.599 2.383 1.468 11708
1.618 2.410 1.473 11920
1.624 2.419 1.468 13640
1.622 2.416 1.456 10648
1.612 2.402 1.438 9305
1.618 2.411 1.433 7660
1.680 2.504 1.474 7499
1.679 2.501 1.462 11885
1.673 2.492 1.447 17171
1.675 2.495 1.438 17818
1.677 2.498 1.429 14818
1.687 2.514 1.427 11759
1.697 2.529 1.425 13640
1.708 2.544 1.422 15631
1.718 2.559 1.419 13438
1.728 2.574 1.417 8833
1.734 2.584 1.411 6566
1.732 2.581 1.399 7975
1.755 2.614 1.405 7938
1.761 2.623 1.399 12323
1.759 2.620 1.387 11661
1.802 2.684 1.407 11268
1.795 2.675 1.392 18639
1.793 2.672 1.380 14106
1.804 2.687 1.377 7014
1.818 2.709 1.376 8200
1.832 2.730 1.375 10238
1.847 2.751 1.374 8691
1.894 2.822 1.395 5985
1.904 2.837 1.391 8296
1.906 2.840 1.381 7449
1.942 2.893 1.393 5031
1.948 2.902 1.386 8634
1.942 2.893 1.370 9304
2.014 3.001 1.405 7530
2.020 3.010 1.397 10432
2.018 3.007 1.384 12315
2.020 3.010 1.374 8108
1.993 2.969 1.346 4821
2.037 3.035 1.361 5702
2.035 3.031 1.348 6525
2.041 3.040 1.340 5013
2.047 3.050 1.332 4761
2.049 3.053 1.321 6353
2.072 3.087 1.323 8297
2.086 3.108 1.319 11114
2.097 3.124 1.313 9205
2.128 3.170 1.319 7915
2.130 3.173 1.308 8963
2.132 3.176 1.297 7647
2.138 3.185 1.288 4729
2.140 3.188 1.277 3690
2.137 3.184 1.264 4306
2.198 3.275 1.284 3640
2.255 3.360 1.302 4256
2.291 3.413 1.308 4262
2.297 3.423 1.298 5875
2.299 3.425 1.286 6478
2.301 3.428 1.274 6881
2.307 3.437 1.264 5365
2.424 3.611 1.309 3592
2.370 3.532 1.269 3565
2.372 3.534 1.257 3991
2.434 3.626 1.273 5532
2.440 3.635 1.262 10664
2.442 3.638 1.250 10643
2.443 3.640 1.237 9744
2.445 3.643 1.224 7542
2.533 3.773 1.250 6009
2.534 3.776 1.237 6253
2.317 3.453 1.129 7304
2.319 3.455 1.117 6114
2.583 3.848 1.215 3176
2.589 3.857 1.204 3360
2.655 3.955 1.217 3858
2.661 3.965 1.205 3757
2.663 3.967 1.191 4015
2.664 3.970 1.177 5065
2.666 3.972 1.164 5329
2.271 3.383 0.998 4343
2.272 3.385 0.986 4194
2.278 3.394 0.976 3011
2.763 4.117 1.142 3746
2.765 4.119 1.127 4994
2.771 4.128 1.114 4002
2.820 4.202 1.117 4014
2.826 4.210 1.104 4172
2.880 4.290 1.107 3645
2.885 4.299 1.093 4154
3.017 4.495 1.121 4310
3.010 4.485 1.103 3082
3.033 4.519 1.094 2760
3.031 4.515 1.077 4280
3.028 4.511 1.060 5643
3.025 4.507 1.043 4438
3.022 4.502 1.026 2630
3.093 4.608 1.030 2414
3.116 4.643 1.021 3681
3.187 4.749 1.024 3439
3.180 4.738 1.005 3727
3.182 4.740 0.988 3309
3.288 4.898 1.000 3217
3.293 4.907 0.984 3027
3.299 4.915 0.968 3205
3.305 4.924 0.952 2634
3.547 5.284 0.993 2853
3.552 5.293 0.976 3685
3.493 5.203 0.943 3610
3.498 5.212 0.926 3660
3.504 5.220 0.909 2602
3.580 5.333 0.906 2581
3.835 5.714 0.941 2631
3.779 5.631 0.910 2396
3.877 5.776 0.909 2287
3.878 5.778 0.889 2452
3.923 5.845 0.877 2522
3.929 5.853 0.858 2803
3.939 5.868 0.839 1747
4.036 6.014 0.835 1887
4.117 6.133 0.828 2034
4.122 6.141 0.807 2426
4.114 6.130 0.784 2535
4.111 6.125 0.762 2441
4.587 6.834 0.811 1742
4.584 6.829 0.786 2910
4.585 6.831 0.762 3379
4.586 6.832 0.738 3710
4.582 6.827 0.714 3733
4.579 6.822 0.690 3776
4.584 6.830 0.666 4143
4.585 6.831 0.642 4158
4.586 6.832 0.619 3782
4.586 6.833 0.595 3391
4.587 6.834 0.571 2795
4.588 6.835 0.547 1772
5.139 7.657 0.570 1159
5.175 7.711 0.546 953
5.172 7.705 0.518 771
5.172 7.706 0.491 396
4.184 6.234 -0.317 408
4.183 6.233 -0.339 571
4.183 6.232 -0.360 571
4.177 6.224 -0.382 584
4.177 6.223 -0.403 598
4.180 6.228 -0.426 466
4.175 6.220 -0.447 335
4.178 6.225 -0.469 352
4.186 6.237 -0.492 382
4.189 6.242 -0.515 480
4.188 6.240 -0.536 589
4.187 6.238 -0.558 589
4.182 6.230 -0.579 857
4.176 6.222 -0.600 1163
4.175 6.220 -0.622 1413
4.173 6.218 -0.644 1664
4.172 6.216 -0.665 1428
4.171 6.214 -0.687 1193
4.170 6.212 -0.709 1193
4.168 6.210 -0.730 596
1.176 1.743 1.607 3314
1.178 1.746 1.601 6629
1.181 1.750 1.595 6629
1.183 1.753 1.589 6876
1.189 1.762 1.587 7171
1.188 1.760 1.577 6794
1.183 1.753 1.561 6656
1.196 1.773 1.569 7905
1.202 1.781 1.567 9695
1.204 1.785 1.561 9695
1.214 1.799 1.564 9416
1.220 1.808 1.562 10001
1.222 1.811 1.556 6937
1.239 1.837 1.567 4062
1.245 1.846 1.565 5207
1.251 1.855 1.563 6388
1.250 1.853 1.552 7750
1.252 1.856 1.546 9138
1.255 1.859 1.540 9428
1.257 1.863 1.533 9719
1.259 1.866 1.527 11317
1.261 1.870 1.521 12799
1.264 1.873 1.514 12256
1.266 1.876 1.508 11225
1.272 1.885 1.505 10026
1.278 1.894 1.503 7500
1.284 1.903 1.501 4778
1.282 1.901 1.490 3212
1.334 1.977 1.536 3004
1.348 1.997 1.542 4798
1.350 2.001 1.535 7819
1.356 2.010 1.532 9461
1.362 2.019 1.529 9500
1.364 2.022 1.522 8795
1.367 2.025 1.515 6118
1.388 2.057 1.528 3668
1.371 2.032 1.501 4695
1.377 2.041 1.498 5999
1.402 2.079 1.514 7957
1.409 2.088 1.511 12409
1.411 2.091 1.504 14171
1.417 2.100 1.500 13264
1.439 2.132 1.512 12952
1.460 2.164 1.524 11626
1.466 2.173 1.520 12056
1.469 2.177 1.512 10932
1.475 2.186 1.509 7934
1.481 2.195 1.505 6344
1.483 2.198 1.497 8726
1.493 2.213 1.497 10628
1.495 2.216 1.489 10723
1.498 2.220 1.482 8634
1.496 2.217 1.470 8272
1.498 2.220 1.463 9779
1.496 2.218 1.451 8685
1.506 2.233 1.451 7057
1.544 2.289 1.475 7212
1.558 2.310 1.477 11851
1.568 2.325 1.476 14349
1.591 2.357 1.485 14633
1.605 2.378 1.488 13664
1.607 2.382 1.479 13303
1.605 2.379 1.468 13127
1.615 2.394 1.466 11456
1.630 2.415 1.468 12538
1.628 2.412 1.456 10570
1.618 2.398 1.438 9247
1.624 2.407 1.433 7703
1.687 2.500 1.474 6993
1.685 2.497 1.462 11956
1.679 2.488 1.447 16869
1.681 2.491 1.438 17567
1.683 2.494 1.429 13712
1.693 2.509 1.427 9261
1.707 2.531 1.428 11100
1.714 2.540 1.422 13361
1.724 2.555 1.419 11688
1.734 2.570 1.417 7955
1.744 2.585 1.414 6796
1.738 2.576 1.399 7988
1.761 2.610 1.405 7944
1.767 2.619 1.399 12059
1.765 2.616 1.387 11143
1.812 2.686 1.410 11022
1.802 2.671 1.392 18409
1.800 2.668 1.380 13621
1.814 2.689 1.379 6518
1.825 2.704 1.376 7627
1.839 2.726 1.375 9355
1.862 2.759 1.379 7894
1.905 2.824 1.398 6274
1.911 2.833 1.391 8733
1.913 2.836 1.381 7833
1.949 2.888 1.393 6032
1.955 2.897 1.386 10118
1.953 2.894 1.373 9585
2.021 2.996 1.405 7773
2.024 2.999 1.395 12012
2.026 3.002 1.384 15303
2.028 3.005 1.374 10428
2.030 3.008 1.364 5166
2.048 3.036 1.363 6352
2.038 3.020 1.345 7132
2.040 3.023 1.335 4728
2.058 3.051 1.334 4574
2.069 3.066 1.328 6799
2.088 3.094 1.328 9419
2.094 3.103 1.319 12651
2.100 3.112 1.311 10063
2.131 3.159 1.317 6396
2.138 3.168 1.308 7145
2.139 3.171 1.297 6232
2.146 3.180 1.288 3782
2.215 3.283 1.314 3253
2.209 3.274 1.298 5016
2.206 3.270 1.284 5116
2.255 3.342 1.297 5307
2.299 3.408 1.308 4783
2.306 3.417 1.298 5829
2.303 3.414 1.284 6686
2.309 3.423 1.274 7204
2.315 3.432 1.264 5365
2.424 3.593 1.304 3517
2.383 3.532 1.271 3851
2.389 3.541 1.261 4679
2.413 3.576 1.259 5268
2.449 3.629 1.262 9117
2.450 3.632 1.250 11066
2.452 3.635 1.237 9990
2.454 3.637 1.224 6460
2.537 3.761 1.248 6657
2.548 3.776 1.239 6573
2.584 3.830 1.240 5673
2.327 3.450 1.117 4412
2.557 3.790 1.201 3312
2.585 3.831 1.198 3011
2.664 3.949 1.217 4306
2.666 3.952 1.203 4074
2.672 3.961 1.191 3992
2.674 3.963 1.177 5280
2.676 3.966 1.164 5508
2.279 3.378 0.998 4411
2.280 3.380 0.986 4371
2.286 3.388 0.976 3245
2.773 4.110 1.142 4171
2.775 4.113 1.127 4910
2.781 4.122 1.114 3878
2.830 4.195 1.117 4457
2.832 4.197 1.102 4098
2.894 4.290 1.108 3658
2.896 4.292 1.093 4029
3.028 4.488 1.121 4269
3.021 4.477 1.103 2986
3.062 4.538 1.099 2644
3.055 4.527 1.081 3555
3.039 4.504 1.060 5070
3.036 4.499 1.043 4280
3.028 4.489 1.024 2512
3.113 4.614 1.033 2181
3.128 4.635 1.021 3792
3.199 4.741 1.024 3464
3.192 4.730 1.005 3955
3.193 4.732 0.988 3524
3.300 4.890 1.000 3153
3.305 4.899 0.984 3090
3.311 4.907 0.968 3233
3.312 4.909 0.951 2406
3.559 5.275 0.993 3037
3.565 5.284 0.976 3674
3.509 5.201 0.944 3159
3.511 5.203 0.926 3018
3.516 5.212 0.909 2157
3.592 5.324 0.906 2436
3.849 5.704 0.941 2921
3.846 5.700 0.921 2740
3.790 5.617 0.889 2368
3.892 5.769 0.889 2604
3.937 5.836 0.877 2640
3.943 5.844 0.858 2875
3.953 5.859 0.839 1845
4.047 5.998 0.835 1773
4.131 6.123 0.828 2105
4.137 6.131 0.807 2456
4.129 6.120 0.784 2598
4.126 6.115 0.762 2581
4.118 6.103 0.739 1456
4.600 6.818 0.786 2596
4.601 6.819 0.762 3092
4.598 6.814 0.738 3225
4.594 6.809 0.713 3141
4.600 6.817 0.690 3165
4.605 6.825 0.667 3578
4.601 6.820 0.642 3511
4.602 6.821 0.619 3099
4.603 6.822 0.595 2740
4.604 6.823 0.571 2267
4.604 6.824 0.547 1413
5.180 7.677 0.571 1046
5.203 7.711 0.546 989
5.199 7.705 0.519 771
5.191 7.693 0.491 370
5.262 7.799 0.469 256
4.194 6.216 -0.338 292
4.193 6.215 -0.360 292
4.188 6.207 -0.381 300
4.187 6.206 -0.403 313
4.191 6.211 -0.425 273
4.178 6.192 -0.511 264
4.177 6.191 -0.532 325
4.176 6.189 -0.554 325
4.179 6.194 -0.576 471
4.182 6.198 -0.599 649
4.181 6.197 -0.620 842
4.180 6.195 -0.642 1034
4.183 6.199 -0.664 991
4.181 6.197 -0.686 949
4.180 6.195 -0.708 949
4.179 6.193 -0.729 474
1.179 1.740 1.607 3546
1.182 1.744 1.601 7092
1.184 1.747 1.595 7092
1.186 1.751 1.589 7127
1.192 1.760 1.587 7208
1.191 1.758 1.577 6837
1.183 1.745 1.557 6901
1.200 1.770 1.569 8177
1.206 1.779 1.567 10105
1.208 1.782 1.561 10105
1.218 1.797 1.564 9172
1.227 1.811 1.567 9406
1.230 1.814 1.560 6283
1.247 1.840 1.572 4196
1.249 1.843 1.565 5546
1.251 1.847 1.559 6897
1.254 1.850 1.552 8085
1.256 1.853 1.546 9272
1.258 1.857 1.540 9159
1.261 1.860 1.533 9045
1.263 1.864 1.527 10815
1.265 1.867 1.521 12501
1.267 1.870 1.514 11989
1.270 1.874 1.508 10969
1.276 1.882 1.505 9596
1.282 1.891 1.503 7183
1.284 1.895 1.496 4667
1.286 1.898 1.490 3102
1.338 1.974 1.536 2763
1.352 1.995 1.542 4412
1.354 1.998 1.535 7544
1.360 2.007 1.532 9178
1.366 2.016 1.529 9163
1.368 2.019 1.522 8474
1.371 2.023 1.515 6088
1.319 1.946 1.453 3729
1.375 2.029 1.501 4719
1.377 2.033 1.494 5737
1.411 2.082 1.518 7236
1.413 2.085 1.511 11821
1.415 2.088 1.504 13855
1.421 2.097 1.500 13235
1.435 2.118 1.505 12934
1.465 2.161 1.524 10510
1.471 2.170 1.520 10778
1.473 2.174 1.512 9559
1.479 2.183 1.509 7145
1.485 2.192 1.505 6171
1.488 2.195 1.497 8605
1.498 2.210 1.497 10379
1.504 2.219 1.493 10182
1.502 2.217 1.482 8217
1.500 2.214 1.470 8437
1.503 2.217 1.463 10365
1.497 2.209 1.448 9229
1.511 2.230 1.451 7799
1.517 2.239 1.447 8035
1.563 2.306 1.477 11822
1.569 2.316 1.473 13374
1.599 2.360 1.489 14580
1.614 2.381 1.491 15447
1.616 2.384 1.483 15421
1.614 2.382 1.471 14633
1.620 2.391 1.466 11894
1.634 2.412 1.468 11347
1.637 2.415 1.460 10392
1.623 2.394 1.438 8799
1.629 2.403 1.433 7355
1.692 2.496 1.474 6247
1.690 2.493 1.462 11459
1.684 2.485 1.447 16054
1.686 2.488 1.438 16816
1.688 2.491 1.429 12342
1.702 2.512 1.430 6697
1.717 2.533 1.431 8426
1.723 2.542 1.425 11025
1.733 2.558 1.423 9932
1.739 2.567 1.417 7143
1.754 2.588 1.417 6814
1.739 2.567 1.396 7551
1.766 2.606 1.405 8031
1.772 2.615 1.399 11556
1.770 2.612 1.387 10359
1.822 2.688 1.413 10790
1.811 2.673 1.395 17714
1.814 2.676 1.386 12456
1.820 2.685 1.379 5864
1.830 2.700 1.376 6956
1.844 2.722 1.375 8273
1.871 2.762 1.382 7236
1.911 2.820 1.398 6442
1.921 2.835 1.393 8874
1.915 2.826 1.378 7996
1.955 2.884 1.393 6913
1.961 2.893 1.386 11106
1.963 2.896 1.375 9430
2.023 2.986 1.403 7683
2.025 2.989 1.392 13128
2.027 2.992 1.382 17697
2.029 2.995 1.371 12468
2.040 3.010 1.366 5959
2.055 3.032 1.363 7182
2.044 3.016 1.345 8466
2.046 3.019 1.335 5671
2.073 3.059 1.339 5326
2.084 3.075 1.333 7568
2.098 3.096 1.330 10515
2.104 3.105 1.322 13396
2.106 3.108 1.311 10699
2.163 3.192 1.331 5593
2.144 3.164 1.308 5379
2.150 3.173 1.299 4855
2.156 3.182 1.291 2916
2.226 3.285 1.316 4003
2.220 3.275 1.300 6243
2.213 3.266 1.284 6498
2.262 3.338 1.297 5945
2.302 3.397 1.305 4958
2.312 3.412 1.298 5560
2.310 3.409 1.284 6707
2.316 3.418 1.274 7337
2.322 3.427 1.264 5406
2.324 3.430 1.252 3662
2.395 3.534 1.273 4600
2.401 3.543 1.263 5457
2.420 3.571 1.259 5766
2.452 3.618 1.260 6459
2.462 3.633 1.252 10235
2.460 3.630 1.237 9019
2.535 3.740 1.257 5252
2.545 3.756 1.248 7002
2.556 3.771 1.239 6897
2.588 3.818 1.238 6239
2.550 3.764 1.209 4507
2.569 3.792 1.203 4419
2.584 3.813 1.195 3846
2.672 3.944 1.217 4317
2.670 3.940 1.201 4074
2.624 3.872 1.169 4505
2.682 3.958 1.177 5296
2.684 3.960 1.164 5409
2.286 3.373 0.998 3970
2.287 3.375 0.986 4058
2.776 4.096 1.154 3111
2.782 4.105 1.142 4420
2.779 4.101 1.126 4571
2.794 4.122 1.116 3684
2.834 4.183 1.115 5130
2.836 4.185 1.101 4209
2.907 4.290 1.110 3573
2.909 4.293 1.095 3743
3.033 4.475 1.120 4018
3.030 4.471 1.103 3264
3.067 4.525 1.098 2602
3.068 4.527 1.082 3243
3.043 4.491 1.058 4567
3.045 4.493 1.043 4115
3.038 4.482 1.024 2368
3.144 4.640 1.039 2199
3.141 4.635 1.022 3870
3.134 4.625 1.003 3493
3.206 4.730 1.006 4027
3.203 4.726 0.988 3574
3.314 4.890 1.001 2994
3.315 4.892 0.984 3082
3.369 4.972 0.980 3541
3.366 4.968 0.961 2656
3.570 5.268 0.993 3050
3.576 5.277 0.976 3479
3.520 5.194 0.944 2853
3.521 5.196 0.926 2335
3.439 5.075 0.889 1996
3.603 5.317 0.906 2239
3.860 5.696 0.941 3134
3.857 5.692 0.921 3054
3.801 5.609 0.889 2321
3.899 5.754 0.888 2605
3.949 5.828 0.877 2742
3.955 5.836 0.858 3011
3.960 5.844 0.838 1960
4.059 5.989 0.835 1766
4.144 6.115 0.828 2096
4.145 6.117 0.806 2328
4.142 6.112 0.784 2480
4.138 6.107 0.762 2602
4.130 6.095 0.739 1549
4.614 6.809 0.786 2438
4.615 6.810 0.762 2949
4.612 6.805 0.738 2821
4.604 6.793 0.713 2598
4.613 6.808 0.690 2618
4.619 6.816 0.667 3055
4.615 6.810 0.642 2875
4.616 6.812 0.619 2447
4.617 6.813 0.595 2123
4.617 6.814 0.571 1726
5.186 7.653 0.597 1266
5.204 7.680 0.572 1002
5.218 7.701 0.546 965
5.215 7.695 0.519 738
5.206 7.683 0.491 356
5.273 7.782 0.469 262
4.190 6.183 -0.598 282
4.194 6.188 -0.620 362
4.192 6.186 -0.642 446
4.195 6.191 -0.664 509
4.194 6.189 -0.686 576
4.193 6.187 -0.708 576
4.191 6.185 -0.729 288
1.184 1.737 1.607 3815
1.186 1.741 1.601 7630
1.189 1.744 1.595 7630
1.191 1.748 1.589 7526
1.197 1.757 1.587 7507
1.196 1.755 1.577 7024
1.187 1.742 1.557 7073
1.200 1.762 1.564 8441
1.207 1.770 1.563 10456
1.209 1.774 1.557 10456
1.219 1.788 1.559 9013
1.232 1.808 1.567 8964
1.238 1.817 1.565 5930
1.252 1.836 1.572 4360
1.254 1.840 1.565 5691
1.256 1.843 1.559 7022
1.259 1.847 1.552 7878
1.261 1.850 1.546 8734
1.263 1.854 1.540 8537
1.265 1.857 1.533 8339
1.268 1.860 1.527 10096
1.270 1.864 1.521 11857
1.272 1.867 1.514 11381
1.275 1.870 1.508 10273
1.281 1.879 1.505 8962
1.287 1.888 1.503 6882
1.289 1.891 1.496 4671
1.291 1.895 1.490 3352
1.339 1.965 1.532 2700
1.353 1.985 1.538 4166
1.359 1.994 1.535 7235
1.365 2.003 1.532 8798
1.368 2.007 1.525 8702
1.370 2.010 1.518 8064
1.372 2.013 1.511 5984
1.324 1.943 1.453 4047
1.377 2.020 1.497 4767
1.379 2.023 1.490 5630
1.416 2.078 1.518 6513
1.418 2.081 1.511 11111
1.421 2.084 1.504 13429
1.427 2.093 1.500 13107
1.437 2.108 1.501 12963
1.462 2.146 1.516 9377
1.477 2.167 1.520 9314
1.479 2.170 1.512 8071
1.485 2.179 1.509 6338
1.491 2.188 1.505 6021
1.493 2.191 1.497 8483
1.504 2.206 1.497 10025
1.510 2.215 1.493 9573
1.508 2.213 1.482 7736
1.502 2.204 1.467 8518
1.508 2.213 1.463 10698
1.507 2.211 1.451 9677
1.521 2.231 1.454 8496
1.523 2.235 1.447 8895
1.565 2.296 1.474 11813
1.575 2.311 1.473 12409
1.606 2.356 1.489 14507
1.620 2.377 1.491 16909
1.622 2.380 1.483 17337
1.620 2.377 1.471 16113
1.626 2.387 1.466 12284
1.641 2.408 1.468 10555
1.643 2.411 1.460 10252
1.629 2.390 1.438 8096
1.635 2.399 1.433 6799
1.694 2.486 1.470 5483
1.696 2.489 1.462 10431
1.690 2.480 1.447 14707
1.688 2.477 1.435 15563
1.690 2.481 1.426 10875
1.717 2.520 1.436 4919
1.732 2.541 1.437 6646
1.734 2.544 1.428 9101
1.740 2.553 1.423 8629
1.750 2.568 1.420 6817
1.773 2.601 1.426 7116
1.746 2.562 1.396 6576
1.773 2.602 1.405 7729
1.775 2.605 1.396 10761
1.777 2.608 1.387 9452
1.829 2.684 1.413 10599
1.818 2.668 1.395 17090
1.825 2.677 1.389 11946
1.835 2.693 1.385 5654
1.841 2.702 1.379 6320
1.852 2.717 1.375 7290
1.883 2.763 1.385 6829
1.914 2.809 1.395 6488
1.929 2.830 1.393 8750
1.922 2.821 1.378 8120
1.962 2.879 1.393 7560
1.968 2.888 1.386 11454
1.970 2.891 1.375 8917
2.027 2.974 1.400 7494
2.029 2.977 1.390 13906
2.035 2.986 1.382 19374
2.037 2.989 1.371 14078
2.048 3.005 1.366 6795
2.062 3.026 1.363 8101
2.052 3.011 1.345 9985
2.054 3.014 1.335 7155
2.085 3.060 1.342 6331
2.092 3.069 1.333 8151
2.106 3.091 1.330 11043
2.112 3.100 1.322 13323
2.114 3.103 1.311 10740
2.189 3.211 1.340 5360
2.148 3.152 1.306 4097
2.158 3.167 1.299 3776
2.229 3.270 1.325 2854
2.235 3.279 1.316 4644
2.228 3.270 1.300 7167
2.221 3.260 1.284 7368
2.266 3.325 1.295 6313
2.311 3.391 1.305 4972
2.317 3.400 1.296 5316
2.319 3.403 1.284 6616
2.329 3.418 1.276 7486
2.331 3.421 1.264 5478
2.333 3.424 1.252 3813
2.404 3.527 1.273 5151
2.410 3.536 1.263 6088
2.425 3.558 1.257 6042
2.418 3.548 1.240 5386
2.472 3.627 1.252 8966
2.473 3.629 1.239 8084
2.544 3.734 1.257 5088
2.559 3.755 1.250 6998
2.565 3.764 1.239 7041
2.598 3.812 1.238 6664
2.586 3.795 1.220 4972
2.579 3.785 1.203 5120
2.594 3.807 1.195 4820
2.609 3.828 1.187 5156
2.624 3.850 1.179 4270
2.634 3.865 1.169 4957
2.692 3.951 1.177 5168
2.694 3.953 1.164 5140
2.295 3.367 0.998 3286
2.296 3.369 0.986 3469
2.786 4.089 1.154 3394
2.792 4.097 1.142 4393
2.790 4.093 1.126 4121
2.835 4.160 1.127 4378
2.841 4.169 1.114 5540
2.847 4.177 1.101 4218
2.919 4.283 1.110 3458
2.920 4.285 1.095 3321
3.044 4.467 1.120 3606
3.042 4.463 1.103 3503
3.052 4.479 1.090 3193
3.054 4.481 1.074 3079
3.055 4.483 1.058 4058
3.057 4.485 1.043 3885
3.049 4.474 1.024 2087
3.170 4.651 1.043 2528
3.158 4.634 1.023 3967
3.146 4.616 1.003 3732
3.218 4.722 1.006 3926
3.360 4.931 1.027 3541
3.335 4.894 1.003 2904
3.332 4.890 0.985 3093
3.382 4.963 0.980 4467
3.379 4.959 0.961 3520
3.584 5.259 0.993 2928
3.590 5.267 0.976 3166
3.534 5.185 0.944 2716
3.451 5.064 0.907 2298
3.452 5.066 0.889 2001
3.622 5.314 0.907 2082
3.875 5.686 0.941 3199
3.876 5.688 0.921 3170
3.878 5.690 0.902 2535
3.914 5.744 0.888 2498
3.960 5.811 0.877 2779
3.970 5.826 0.858 3047
3.980 5.840 0.839 2014
4.074 5.979 0.835 1631
4.160 6.104 0.828 2114
4.161 6.106 0.806 2296
4.158 6.101 0.784 2489
4.154 6.096 0.762 2680
4.151 6.091 0.740 1628
4.632 6.796 0.786 2384
4.633 6.798 0.762 2849
4.629 6.793 0.738 2469
4.621 6.781 0.713 2149
4.720 6.926 0.701 2411
4.721 6.928 0.677 2656
4.940 7.249 0.676 2435
4.945 7.257 0.651 2519
4.951 7.264 0.626 1559
4.635 6.802 0.571 1208
5.210 7.646 0.598 1147
5.229 7.673 0.573 961
5.239 7.687 0.546 985
5.239 7.688 0.519 741
5.307 7.787 0.497 329
5.298 7.775 0.469 256
4.221 6.194 -0.491 270
4.220 6.192 -0.513 282
4.219 6.191 -0.534 295
4.218 6.189 -0.556 295
4.217 6.187 -0.578 255
4.219 6.190 -0.622 323
4.217 6.188 -0.644 436
4.212 6.180 -0.664 467
4.210 6.178 -0.686 502
4.209 6.176 -0.708 502
4.207 6.174 -0.729 251
1.190 1.733 1.607 4166
1.192 1.736 1.601 8332
1.195 1.740 1.595 8332
1.201 1.749 1.593 8178
1.203 1.752 1.587 8091
1.202 1.750 1.577 7419
1.193 1.738 1.557 7348
1.207 1.757 1.564 8872
1.213 1.766 1.563 10994
1.215 1.769 1.557 10994
1.225 1.784 1.559 9189
1.235 1.798 1.562 8732
1.245 1.812 1.565 5788
1.262 1.837 1.576 4430
1.264 1.841 1.570 5654
1.267 1.844 1.563 6878
1.265 1.842 1.552 7455
1.268 1.846 1.546 8131
1.270 1.849 1.540 7746
1.272 1.852 1.533 7361
1.274 1.856 1.527 9094
1.277 1.859 1.521 10937
1.279 1.862 1.514 10653
1.281 1.866 1.508 9715
1.287 1.875 1.505 8457
1.293 1.883 1.503 6588
1.296 1.887 1.496 4731
1.302 1.896 1.494 3791
1.339 1.949 1.524 2855
1.356 1.975 1.534 4011
1.366 1.989 1.535 6857
1.372 1.998 1.532 8294
1.375 2.002 1.525 8131
1.377 2.005 1.518 7463
1.379 2.008 1.511 5784
1.331 1.938 1.453 4258
1.384 2.015 1.497 4911
1.386 2.018 1.490 5718
1.423 2.073 1.518 6073
1.426 2.076 1.511 10491
1.424 2.074 1.500 13052
1.430 2.083 1.497 12955
1.444 2.103 1.501 13067
1.447 2.106 1.493 9536
1.484 2.161 1.520 7880
1.487 2.165 1.512 6645
1.493 2.174 1.509 5567
1.499 2.183 1.505 5863
1.501 2.186 1.497 8359
1.511 2.201 1.497 9645
1.518 2.210 1.493 8904
1.516 2.207 1.482 7277
1.510 2.199 1.467 8524
1.516 2.208 1.463 10802
1.514 2.205 1.451 10042
1.529 2.226 1.454 9136
1.531 2.229 1.447 9625
1.573 2.291 1.474 11700
1.579 2.300 1.469 11520
1.618 2.356 1.492 14368
1.632 2.377 1.494 17905
1.635 2.380 1.486 18792
1.633 2.378 1.474 17609
1.639 2.387 1.470 12672
1.649 2.402 1.468 10361
1.656 2.411 1.463 10285
1.658 2.414 1.455 8059
1.664 2.423 1.449 6305
1.703 2.480 1.470 4717
1.705 2.483 1.462 9123
1.695 2.468 1.443 13276
1.697 2.471 1.435 14281
1.695 2.468 1.423 9927
1.730 2.519 1.440 5345
1.745 2.541 1.440 6334
1.747 2.544 1.431 8235
1.753 2.553 1.426 8243
1.759 2.562 1.420 7279
1.782 2.595 1.426 7184
1.780 2.592 1.414 5649
1.782 2.595 1.405 7205
1.784 2.598 1.396 9819
1.782 2.595 1.384 8647
1.834 2.671 1.410 10369
1.832 2.668 1.398 16230
1.838 2.677 1.392 11686
1.857 2.704 1.394 6084
1.859 2.707 1.384 5968
1.870 2.722 1.381 6814
1.897 2.762 1.388 6875
1.920 2.796 1.392 6716
1.935 2.817 1.391 8282
1.928 2.808 1.375 8130
1.968 2.866 1.390 7915
1.979 2.881 1.386 11198
1.989 2.896 1.381 8030
2.033 2.961 1.397 7636
2.040 2.970 1.390 14594
2.042 2.973 1.379 20358
2.048 2.982 1.371 15132
2.063 3.004 1.369 7585
2.073 3.019 1.363 8878
2.063 3.003 1.345 11276
2.065 3.006 1.335 8354
2.092 3.046 1.339 7131
2.103 3.062 1.333 8276
2.117 3.083 1.330 10802
2.123 3.092 1.322 12498
2.125 3.095 1.311 10171
2.132 3.104 1.302 5303
2.193 3.194 1.324 4033
2.195 3.197 1.313 3925
2.227 3.243 1.318 3551
2.242 3.265 1.314 5207
2.236 3.255 1.298 7646
2.233 3.252 1.284 7471
2.278 3.317 1.295 6455
2.323 3.383 1.305 4925
2.329 3.392 1.296 4909
2.335 3.401 1.286 6153
2.342 3.410 1.276 7106
2.348 3.419 1.266 5389
2.345 3.415 1.252 4043
2.416 3.519 1.273 5618
2.427 3.534 1.265 6473
2.438 3.549 1.257 6152
2.496 3.634 1.270 6073
2.489 3.624 1.254 7419
2.491 3.627 1.241 8430
2.501 3.642 1.232 6909
2.512 3.657 1.223 7049
2.579 3.755 1.239 6983
2.611 3.802 1.238 6921
2.596 3.779 1.218 5146
2.597 3.782 1.205 5226
2.608 3.797 1.195 5604
2.623 3.819 1.187 5922
2.637 3.840 1.179 5358
2.648 3.856 1.169 5622
2.706 3.941 1.177 5119
2.708 3.944 1.164 5126
2.714 3.952 1.151 2924
2.777 4.044 1.160 3392
2.792 4.066 1.151 3532
2.807 4.087 1.142 4020
2.800 4.077 1.124 3446
2.850 4.150 1.127 4980
2.856 4.159 1.114 5749
2.862 4.167 1.101 4153
2.934 4.272 1.110 3299
2.935 4.274 1.095 2878
3.060 4.456 1.120 3255
3.058 4.452 1.103 3761
3.064 4.461 1.088 3722
3.065 4.463 1.073 2961
3.071 4.472 1.058 3547
3.086 4.494 1.047 3737
3.114 4.534 1.039 2651
3.191 4.646 1.044 3052
3.174 4.622 1.023 4104
3.167 4.612 1.004 3916
3.235 4.710 1.006 3590
3.374 4.913 1.026 3689
3.353 4.882 1.003 2886
3.403 4.955 0.998 3171
3.400 4.951 0.980 5180
3.397 4.947 0.961 4230
3.598 5.240 0.992 2783
3.484 5.073 0.946 2901
3.485 5.075 0.929 3068
3.473 5.058 0.908 2507
3.470 5.053 0.889 1954
3.890 5.664 0.960 2016
3.895 5.672 0.941 3175
3.897 5.674 0.921 3239
3.898 5.676 0.902 2765
3.815 5.555 0.865 2495
3.981 5.797 0.877 2800
3.991 5.811 0.858 3018
4.001 5.826 0.839 1978
4.185 6.094 0.850 1604
4.182 6.089 0.828 2143
4.183 6.091 0.806 2265
4.179 6.086 0.784 2463
4.176 6.081 0.762 2635
4.173 6.076 0.740 1612
4.656 6.780 0.786 2365
4.657 6.781 0.762 2782
4.654 6.776 0.738 2268
4.650 6.771 0.713 1865
4.745 6.909 0.701 2581
4.746 6.911 0.677 2796
4.966 7.231 0.676 2522
4.971 7.239 0.651 2598
4.977 7.247 0.626 1565
4.749 6.915 0.579 1185
5.238 7.627 0.598 1061
5.252 7.647 0.572 848
5.270 7.675 0.547 889
5.271 7.676 0.520 663
5.330 7.761 0.496 328
1.195 1.729 1.607 4456
1.198 1.733 1.601 8912
1.200 1.736 1.595 8912
1.206 1.745 1.593 8720
1.209 1.748 1.587 8558
1.211 1.752 1.581 7805
1.199 1.734 1.557 7343
1.216 1.759 1.569 9329
1.218 1.762 1.563 11607
1.221 1.766 1.557 11607
1.227 1.774 1.555 9464
1.240 1.794 1.562 8527
1.250 1.808 1.565 5567
1.271 1.839 1.580 4569
1.270 1.837 1.570 5607
1.272 1.840 1.563 6694
1.271 1.838 1.552 6964
1.273 1.842 1.546 7413
1.276 1.845 1.540 6843
1.278 1.848 1.533 6273
1.280 1.852 1.527 8057
1.283 1.855 1.521 10060
1.285 1.858 1.514 9951
1.287 1.862 1.508 9095
1.293 1.871 1.505 7765
1.303 1.885 1.507 6275
1.305 1.888 1.501 4800
1.308 1.891 1.494 4338
1.341 1.939 1.520 3190
1.355 1.959 1.526 3924
1.369 1.980 1.531 6348
1.379 1.994 1.532 7582
1.381 1.997 1.525 7335
1.379 1.995 1.514 6633
1.386 2.004 1.511 5440
1.337 1.934 1.453 4448
1.394 2.016 1.501 5117
1.396 2.020 1.494 5915
1.430 2.068 1.518 6136
1.432 2.072 1.511 10062
1.431 2.069 1.500 12815
1.437 2.078 1.497 12914
1.451 2.099 1.501 13186
1.453 2.102 1.493 9947
1.455 2.105 1.486 6572
1.493 2.160 1.512 5223
1.500 2.169 1.509 4757
1.506 2.178 1.505 5622
1.508 2.181 1.497 8148
1.518 2.196 1.497 9168
1.525 2.205 1.493 8108
1.523 2.203 1.482 6830
1.517 2.194 1.467 8598
1.519 2.197 1.459 10978
1.521 2.201 1.451 10513
1.536 2.221 1.454 9938
1.538 2.224 1.447 10483
1.580 2.286 1.474 11498
1.619 2.342 1.497 10779
1.629 2.357 1.496 14296
1.640 2.372 1.494 18470
1.642 2.375 1.486 19771
1.640 2.372 1.474 18797
1.646 2.381 1.470 13448
1.657 2.396 1.468 10647
1.667 2.411 1.466 10570
1.678 2.427 1.464 8482
1.676 2.424 1.453 6075
1.653 2.391 1.425 4092
1.713 2.478 1.462 7473
1.699 2.457 1.440 11715
1.701 2.460 1.432 13013
1.695 2.451 1.417 10221
1.730 2.502 1.433 6743
1.736 2.511 1.428 6850
1.759 2.544 1.435 8409
1.761 2.547 1.426 8911
1.767 2.556 1.420 8328
1.786 2.583 1.423 7291
1.788 2.587 1.414 5267
1.790 2.590 1.405 6899
1.788 2.587 1.393 8988
1.790 2.590 1.384 8024
1.834 2.653 1.404 10231
1.841 2.662 1.398 14996
1.851 2.677 1.394 11387
1.866 2.698 1.394 6165
1.872 2.708 1.387 5630
1.882 2.723 1.383 6545
1.910 2.762 1.391 7342
1.924 2.784 1.389 7345
1.935 2.799 1.385 7634
1.933 2.796 1.373 8024
1.977 2.860 1.390 7885
1.988 2.875 1.386 10279
1.998 2.890 1.381 6874
2.038 2.948 1.395 8073
2.045 2.957 1.387 15257
2.051 2.967 1.379 20783
2.057 2.976 1.371 15732
2.072 2.997 1.369 8177
2.078 3.006 1.361 9208
2.072 2.997 1.345 12047
2.074 3.000 1.335 9117
2.102 3.040 1.339 7495
2.108 3.049 1.331 7808
2.127 3.076 1.330 9793
2.133 3.085 1.322 10956
2.135 3.088 1.311 9014
2.137 3.091 1.300 5411
2.203 3.187 1.324 4706
2.210 3.196 1.316 4856
2.233 3.230 1.316 4356
2.244 3.245 1.309 5843
2.246 3.248 1.298 7709
2.243 3.245 1.284 7061
2.288 3.310 1.295 6410
2.334 3.375 1.305 5038
2.340 3.384 1.296 4419
2.346 3.393 1.286 5574
2.357 3.409 1.278 6808
2.359 3.411 1.266 5300
2.426 3.508 1.286 5123
2.432 3.517 1.275 6393
2.442 3.533 1.267 6994
2.501 3.617 1.281 7738
2.503 3.620 1.268 7526
2.500 3.616 1.254 6828
2.502 3.619 1.241 8759
2.513 3.634 1.232 9449
2.519 3.643 1.221 8459
2.595 3.753 1.240 6714
2.619 3.788 1.237 6893
2.607 3.771 1.218 4973
2.609 3.774 1.205 4860
2.620 3.789 1.195 6077
2.635 3.811 1.187 6490
2.649 3.832 1.179 6230
2.656 3.841 1.167 6240
2.723 3.939 1.179 4935
2.721 3.935 1.164 4943
2.727 3.944 1.151 2777
2.790 4.035 1.160 3398
2.796 4.044 1.148 3712
2.811 4.066 1.138 3507
2.808 4.062 1.123 2925
2.863 4.141 1.127 5375
2.873 4.156 1.115 5859
2.875 4.158 1.101 4010
2.947 4.263 1.110 3129
3.020 4.368 1.118 3042
3.021 4.370 1.103 3433
3.072 4.443 1.103 3825
3.078 4.451 1.088 3908
3.079 4.454 1.073 2766
3.107 4.494 1.065 3255
3.109 4.497 1.049 3970
3.124 4.518 1.037 3406
3.210 4.642 1.046 3486
3.189 4.612 1.023 4207
3.181 4.602 1.004 4007
3.392 4.906 1.045 3311
3.389 4.902 1.026 3677
3.373 4.878 1.004 2906
3.419 4.945 0.998 3382
3.411 4.934 0.979 5735
3.413 4.936 0.961 4829
3.418 4.944 0.945 2642
3.500 5.062 0.946 3170
3.501 5.064 0.929 3462
3.494 5.053 0.909 2649
3.669 5.307 0.929 2102
3.907 5.652 0.960 1931
3.918 5.667 0.942 3059
3.915 5.662 0.921 3207
3.916 5.664 0.902 2887
3.828 5.536 0.864 2663
3.999 5.784 0.877 2708
4.009 5.799 0.858 2890
4.019 5.813 0.839 1880
4.200 6.074 0.849 1716
4.201 6.076 0.828 2225
4.202 6.078 0.806 2320
4.198 6.073 0.784 2480
4.195 6.068 0.762 2519
4.192 6.063 0.740 1478
4.677 6.765 0.786 2214
4.678 6.767 0.762 2548
4.679 6.768 0.738 2020
4.766 6.893 0.725 1849
4.767 6.894 0.701 2647
4.768 6.896 0.677 2849
4.989 7.216 0.676 2497
4.994 7.223 0.651 2551
4.995 7.224 0.626 1485
4.771 6.900 0.579 1167
5.262 7.610 0.598 977
5.100 7.377 0.558 785
5.299 7.665 0.547 844
5.300 7.665 0.520 633
5.359 7.751 0.497 324
1.200 1.726 1.607 4558
1.203 1.729 1.601 9116
1.205 1.733 1.595 9116
1.211 1.742 1.593 8848
1.217 1.750 1.592 8634
1.216 1.749 1.581 7852
1.218 1.752 1.575 7111
1.221 1.755 1.569 9398
1.223 1.759 1.563 11685
1.226 1.762 1.557 11685
1.232 1.771 1.555 9431
1.245 1.791 1.562 7983
1.255 1.805 1.565 5153
1.280 1.841 1.585 4746
1.279 1.839 1.574 5569
1.281 1.842 1.567 6409
1.276 1.835 1.552 6161
1.275 1.833 1.542 6206
1.281 1.842 1.540 5651
1.283 1.845 1.533 5149
1.285 1.848 1.527 6819
1.288 1.852 1.521 8825
1.290 1.855 1.514 8883
1.296 1.864 1.512 8076
1.298 1.867 1.505 6893
1.308 1.881 1.507 5972
1.314 1.890 1.505 4934
1.317 1.893 1.498 4902
1.327 1.908 1.500 3808
1.356 1.950 1.521 4045
1.374 1.976 1.531 5859
1.384 1.990 1.532 6788
1.386 1.994 1.525 6434
1.385 1.991 1.514 5778
1.391 2.000 1.511 4950
1.338 1.925 1.449 4535
1.403 2.018 1.505 5301
1.406 2.021 1.498 6272
1.432 2.059 1.514 6646
1.434 2.062 1.507 9976
1.436 2.065 1.500 12724
1.442 2.074 1.497 12998
1.453 2.089 1.497 13456
1.455 2.092 1.490 10437
1.461 2.101 1.486 7236
1.467 2.110 1.483 4791
1.510 2.171 1.512 3999
1.520 2.185 1.512 5378
1.518 2.183 1.501 7927
1.524 2.192 1.497 8690
1.531 2.201 1.493 7304
1.529 2.198 1.482 6485
1.523 2.190 1.467 8835
1.525 2.193 1.459 11290
1.527 2.196 1.451 11025
1.542 2.217 1.454 10612
1.544 2.220 1.447 11093
1.583 2.276 1.470 11339
1.625 2.337 1.497 10511
1.640 2.358 1.499 14085
1.646 2.367 1.494 18384
1.649 2.371 1.486 19975
1.651 2.374 1.478 19481
1.657 2.383 1.473 14178
1.668 2.398 1.471 11307
1.678 2.413 1.470 11141
1.684 2.422 1.464 9066
1.678 2.413 1.449 6432
1.668 2.399 1.431 4735
1.683 2.419 1.433 6005
1.697 2.440 1.434 10618
1.699 2.443 1.425 12376
1.701 2.447 1.417 10814
1.733 2.491 1.430 8842
1.739 2.500 1.425 8556
1.766 2.539 1.435 9233
1.768 2.542 1.426 10267
1.774 2.552 1.420 9700
1.789 2.573 1.420 7870
1.795 2.582 1.414 5398
1.797 2.585 1.405 6751
