2.252 -1.374 1.570 9227
2.250 -1.373 1.559 9758
2.248 -1.372 1.548 10629
2.251 -1.374 1.540 9343
2.267 -1.383 1.540 6184
2.276 -1.389 1.536 4414
2.291 -1.398 1.536 3913
2.373 -1.448 1.576 4978
2.454 -1.497 1.616 6010
2.458 -1.500 1.608 7843
2.455 -1.498 1.596 7991
2.447 -1.493 1.581 7880
2.450 -1.495 1.572 9856
2.460 -1.501 1.568 11713
2.470 -1.507 1.563 12129
2.479 -1.513 1.558 14545
2.477 -1.511 1.546 15798
2.480 -1.513 1.538 12451
2.478 -1.512 1.526 8276
2.487 -1.518 1.521 8297
2.491 -1.520 1.513 9297
2.494 -1.522 1.505 16139
2.504 -1.528 1.500 27910
2.507 -1.530 1.491 32346
2.516 -1.536 1.486 31702
2.514 -1.534 1.475 27126
2.517 -1.536 1.466 22110
2.520 -1.538 1.458 18511
2.530 -1.544 1.452 11536
2.533 -1.546 1.444 7059
2.530 -1.544 1.432 5972
2.712 -1.655 1.516 4181
2.759 -1.684 1.529 4287
2.769 -1.690 1.523 5037
2.785 -1.699 1.520 6990
2.794 -1.705 1.514 9094
2.792 -1.703 1.501 8509
2.795 -1.706 1.492 8334
2.805 -1.711 1.486 6577
2.939 -1.793 1.540 8581
2.936 -1.792 1.527 10163
2.940 -1.794 1.517 8826
2.949 -1.800 1.510 5993
3.028 -1.848 1.535 5626
3.013 -1.838 1.516 5891
2.985 -1.821 1.492 5122
3.070 -1.873 1.519 7027
3.073 -1.875 1.509 8633
3.083 -1.881 1.501 7820
3.086 -1.883 1.491 5504
3.077 -1.878 1.475 3676
3.163 -1.930 1.500 4447
3.166 -1.932 1.490 8947
3.170 -1.934 1.479 14701
3.179 -1.940 1.471 13637
3.183 -1.942 1.460 6531
3.275 -1.998 1.487 5141
3.278 -2.000 1.476 7422
3.275 -1.999 1.462 10785
3.278 -2.001 1.451 11988
3.288 -2.006 1.443 7625
3.272 -1.997 1.424 4846
3.282 -2.003 1.415 4876
3.452 -2.106 1.469 5244
3.455 -2.108 1.458 10495
3.458 -2.110 1.446 11276
3.455 -2.108 1.432 8530
3.452 -2.106 1.418 6215
3.449 -2.104 1.404 4197
3.445 -2.102 1.390 2640
3.732 -2.277 1.482 3212
3.736 -2.279 1.469 3185
3.758 -2.293 1.463 2697
3.774 -2.303 1.455 3312
3.778 -2.305 1.442 3909
3.839 -2.343 1.450 3637
3.836 -2.341 1.435 5884
3.839 -2.343 1.422 10953
3.849 -2.349 1.411 11440
3.859 -2.355 1.400 8911
3.875 -2.364 1.391 10582
3.884 -2.370 1.380 11262
3.901 -2.380 1.371 12461
3.910 -2.386 1.360 10890
3.907 -2.384 1.345 6327
3.896 -2.378 1.328 5524
3.899 -2.379 1.314 5149
4.190 -2.557 1.388 7323
3.912 -2.387 1.290 7408
3.915 -2.389 1.277 6333
4.206 -2.567 1.347 3285
4.367 -2.665 1.378 3030
4.357 -2.658 1.360 3658
4.333 -2.644 1.338 4234
4.422 -2.698 1.347 4213
4.425 -2.700 1.332 3594
4.513 -2.754 1.340 4829
4.516 -2.756 1.324 6903
4.526 -2.762 1.311 8139
4.529 -2.763 1.296 8541
4.532 -2.765 1.280 7345
4.534 -2.767 1.265 7027
4.544 -2.773 1.251 6737
4.540 -2.770 1.234 5560
4.543 -2.772 1.219 4731
4.969 -3.032 1.304 5416
4.966 -3.030 1.285 5408
4.968 -3.032 1.268 4241
4.991 -3.046 1.256 3185
5.087 -3.104 1.260 3698
5.083 -3.102 1.241 3944
5.159 -3.148 1.240 3511
5.155 -3.145 1.221 3841
5.244 -3.200 1.221 3684
5.253 -3.206 1.205 2960
5.349 -3.264 1.206 4046
5.352 -3.266 1.188 3004
5.594 -3.414 1.216 3231
5.717 -3.489 1.220 3461
5.720 -3.490 1.201 3113
5.716 -3.488 1.180 3303
5.865 -3.579 1.187 2824
6.142 -3.748 1.216 2347
6.151 -3.753 1.196 3506
6.154 -3.755 1.175 3566
6.364 -3.883 1.188 2779
6.487 -3.958 1.186 3152
6.483 -3.956 1.163 3302
6.485 -3.957 1.141 2530
6.488 -3.959 1.119 1913
6.618 -4.038 1.116 1533
6.989 -4.265 1.147 1616
6.991 -4.266 1.124 2298
7.101 -4.333 1.115 2697
7.103 -4.335 1.090 3138
7.106 -4.336 1.066 3524
7.108 -4.337 1.042 4103
7.110 -4.339 1.018 3775
7.482 -4.566 1.039 4430
7.471 -4.559 1.012 5942
7.453 -4.548 0.984 7187
7.448 -4.545 0.958 8613
7.457 -4.550 0.933 7589
7.472 -4.560 0.909 6676
7.474 -4.561 0.884 5210
7.483 -4.566 0.859 4313
7.485 -4.567 0.834 2956
7.486 -4.568 0.808 1646
8.061 -4.919 0.832 1574
8.063 -4.920 0.805 1376
8.064 -4.921 0.777 1121
8.059 -4.918 0.749 620
8.060 -4.919 0.722 257
1.736 -1.061 1.578 5369
1.739 -1.063 1.572 10739
1.748 -1.069 1.571 8244
1.758 -1.074 1.570 5743
1.893 -1.157 1.674 6023
1.903 -1.163 1.672 6566
1.912 -1.169 1.670 7269
1.910 -1.167 1.659 6997
1.920 -1.173 1.657 6891
1.923 -1.176 1.651 7108
1.933 -1.181 1.649 5616
1.942 -1.187 1.647 4411
1.963 -1.199 1.654 5099
1.966 -1.202 1.647 6244
1.970 -1.204 1.641 7214
1.974 -1.206 1.634 8183
1.972 -1.205 1.623 8367
1.970 -1.204 1.612 8620
1.979 -1.210 1.610 8591
1.989 -1.215 1.608 8761
1.992 -1.218 1.601 9145
2.013 -1.230 1.607 9099
2.028 -1.239 1.609 11017
2.037 -1.245 1.606 12547
2.041 -1.247 1.599 14413
2.050 -1.253 1.597 14858
2.054 -1.255 1.590 15319
2.052 -1.254 1.579 12227
2.050 -1.253 1.568 9356
2.059 -1.258 1.565 6084
2.109 -1.289 1.591 5272
2.118 -1.295 1.588 5703
2.151 -1.315 1.601 4781
2.190 -1.338 1.618 4091
2.193 -1.340 1.610 6205
2.191 -1.339 1.599 7446
2.189 -1.338 1.588 6792
2.157 -1.318 1.557 6496
2.196 -1.342 1.573 7484
2.205 -1.348 1.570 8676
2.233 -1.364 1.578 6794
2.248 -1.374 1.578 7462
2.251 -1.376 1.570 9072
2.249 -1.375 1.559 9536
2.247 -1.373 1.548 10320
2.250 -1.375 1.540 8949
2.260 -1.381 1.536 5790
2.269 -1.387 1.533 4011
2.380 -1.455 1.592 4072
2.378 -1.453 1.580 5199
2.453 -1.499 1.616 6259
2.451 -1.498 1.604 8021
2.454 -1.500 1.596 7975
2.446 -1.495 1.581 7763
2.449 -1.497 1.572 9540
2.453 -1.499 1.564 11284
2.469 -1.509 1.563 11941
2.478 -1.515 1.558 14926
2.476 -1.513 1.546 16341
2.479 -1.515 1.538 12979
2.477 -1.514 1.526 8995
2.480 -1.516 1.518 8714
2.483 -1.518 1.510 9199
2.493 -1.524 1.505 15639
2.502 -1.529 1.500 26909
2.512 -1.535 1.495 31565
2.515 -1.537 1.486 31263
2.513 -1.536 1.475 26867
2.516 -1.538 1.466 21818
2.519 -1.540 1.458 17753
2.529 -1.545 1.452 10641
2.655 -1.623 1.509 6360
2.529 -1.546 1.432 5553
2.705 -1.653 1.513 4499
2.758 -1.686 1.529 5230
2.768 -1.692 1.523 6231
2.784 -1.701 1.520 8017
2.787 -1.703 1.511 10043
2.790 -1.705 1.501 9394
2.794 -1.707 1.492 9096
2.803 -1.713 1.486 7154
2.938 -1.795 1.540 8780
2.935 -1.794 1.527 10521
2.945 -1.800 1.520 9128
2.948 -1.802 1.510 6231
3.027 -1.850 1.535 5346
2.986 -1.825 1.505 5806
2.983 -1.823 1.492 5110
3.069 -1.875 1.519 6777
3.072 -1.878 1.509 8354
3.082 -1.883 1.501 7798
3.079 -1.882 1.488 5700
3.076 -1.880 1.475 3946
3.161 -1.932 1.500 4178
3.165 -1.934 1.490 8423
3.168 -1.936 1.479 14520
3.172 -1.938 1.468 13986
3.175 -1.940 1.458 6945
3.267 -1.997 1.484 5545
3.277 -2.003 1.476 7861
3.274 -2.001 1.462 11176
3.277 -2.003 1.451 12461
3.287 -2.009 1.443 8173
3.271 -1.999 1.424 5254
3.280 -2.005 1.415 5335
3.457 -2.113 1.472 5188
3.453 -2.111 1.458 10261
3.457 -2.113 1.446 10803
3.454 -2.111 1.432 8023
3.450 -2.109 1.418 5817
3.453 -2.111 1.406 3758
3.727 -2.278 1.494 2585
3.731 -2.280 1.482 3386
3.734 -2.282 1.469 3498
3.757 -2.296 1.463 2789
3.773 -2.306 1.455 3250
3.783 -2.312 1.445 3672
3.844 -2.349 1.452 3834
3.834 -2.343 1.435 5915
3.838 -2.345 1.422 10667
3.847 -2.351 1.411 11147
3.857 -2.357 1.400 8687
3.880 -2.371 1.393 10078
3.883 -2.373 1.380 10138
3.899 -2.383 1.371 11191
3.908 -2.389 1.360 10073
3.911 -2.391 1.347 6325
3.901 -2.384 1.330 5406
4.205 -2.570 1.408 4813
4.195 -2.564 1.390 7363
4.192 -2.562 1.374 6612
3.913 -2.391 1.277 5321
4.204 -2.570 1.347 3131
4.365 -2.668 1.378 2973
4.368 -2.669 1.364 3415
4.338 -2.651 1.340 3637
4.420 -2.701 1.347 3647
4.416 -2.699 1.330 3226
4.505 -2.753 1.338 4803
4.514 -2.759 1.324 6751
4.524 -2.765 1.311 8083
4.527 -2.767 1.296 8307
4.530 -2.768 1.280 6812
4.532 -2.770 1.265 6383
4.535 -2.772 1.250 6302
4.538 -2.773 1.234 5360
4.541 -2.775 1.219 4609
4.967 -3.036 1.304 5278
4.963 -3.033 1.285 5419
4.973 -3.039 1.270 4550
4.989 -3.049 1.256 3417
5.085 -3.108 1.260 3589
5.081 -3.105 1.241 3896
5.157 -3.152 1.240 3626
5.153 -3.149 1.221 3976
5.242 -3.204 1.221 3587
5.251 -3.209 1.205 2774
5.347 -3.268 1.206 3994
5.343 -3.265 1.186 2991
5.599 -3.422 1.217 3313
5.715 -3.493 1.220 3461
5.717 -3.494 1.201 3073
5.713 -3.492 1.180 3243
5.863 -3.583 1.187 2835
6.133 -3.748 1.214 2398
6.142 -3.754 1.195 3467
6.151 -3.759 1.175 3396
6.361 -3.888 1.188 2888
6.484 -3.963 1.186 3190
6.480 -3.960 1.163 3392
6.482 -3.962 1.141 2719
6.485 -3.963 1.119 2083
6.615 -4.043 1.116 1476
6.979 -4.265 1.146 1680
6.982 -4.267 1.123 2462
6.991 -4.272 1.100 2665
7.107 -4.344 1.091 3016
7.459 -4.558 1.113 3462
7.105 -4.342 1.042 3720
7.483 -4.574 1.065 3702
7.479 -4.571 1.039 4444
7.468 -4.564 1.012 5883
7.450 -4.553 0.984 6948
7.445 -4.550 0.958 8285
7.454 -4.556 0.933 7384
7.469 -4.565 0.909 6754
7.471 -4.566 0.884 5318
7.480 -4.571 0.859 4371
7.481 -4.572 0.834 2974
7.483 -4.573 0.808 1612
8.057 -4.924 0.832 1534
8.059 -4.925 0.805 1330
8.061 -4.926 0.777 1092
8.055 -4.923 0.749 606
8.057 -4.924 0.722 256
1.734 -1.063 1.578 5032
1.738 -1.065 1.572 10065
1.747 -1.071 1.571 7814
1.762 -1.080 1.574 5520
1.892 -1.160 1.674 5909
1.901 -1.165 1.672 6520
1.905 -1.168 1.666 7274
1.909 -1.170 1.659 7047
1.918 -1.176 1.657 6957
1.922 -1.178 1.651 7182
1.931 -1.184 1.649 5680
1.940 -1.190 1.647 4505
1.961 -1.202 1.654 5183
1.965 -1.204 1.647 6285
1.968 -1.207 1.641 7108
1.972 -1.209 1.634 7931
1.970 -1.208 1.623 8269
1.974 -1.210 1.616 8649
1.978 -1.212 1.610 8649
1.987 -1.218 1.608 8869
1.991 -1.220 1.601 9245
2.011 -1.233 1.607 9031
2.026 -1.242 1.609 10772
2.036 -1.248 1.606 12484
2.039 -1.250 1.599 14479
2.049 -1.256 1.597 15140
2.052 -1.258 1.590 15809
2.050 -1.257 1.579 12689
2.054 -1.259 1.572 9776
2.057 -1.261 1.565 6261
2.107 -1.292 1.591 5246
2.117 -1.298 1.588 5509
2.149 -1.318 1.601 4845
2.188 -1.341 1.618 4145
2.191 -1.343 1.610 6207
2.189 -1.342 1.599 7414
2.187 -1.341 1.588 6811
2.155 -1.321 1.557 6603
2.188 -1.341 1.569 7564
2.198 -1.347 1.566 8776
2.189 -1.342 1.551 6681
2.246 -1.377 1.578 7368
2.250 -1.379 1.570 8916
2.247 -1.378 1.559 9327
2.245 -1.376 1.548 10033
2.248 -1.378 1.540 8609
2.258 -1.384 1.536 5489
2.404 -1.474 1.618 4163
2.384 -1.461 1.596 4465
2.382 -1.460 1.584 5578
2.451 -1.502 1.616 6508
2.449 -1.501 1.604 8247
2.452 -1.503 1.596 7992
2.444 -1.498 1.581 7713
2.447 -1.500 1.572 9307
2.451 -1.503 1.564 10937
2.467 -1.512 1.563 11736
2.476 -1.518 1.558 15155
2.474 -1.516 1.546 16666
2.477 -1.519 1.538 13376
2.468 -1.513 1.523 9770
2.478 -1.519 1.518 9179
2.481 -1.521 1.510 9118
2.491 -1.527 1.505 15029
2.500 -1.533 1.500 25737
2.510 -1.539 1.495 30685
2.513 -1.541 1.486 30768
2.510 -1.539 1.475 26588
2.514 -1.541 1.466 21519
2.517 -1.543 1.458 16999
2.526 -1.549 1.452 9766
2.653 -1.626 1.509 6447
2.681 -1.644 1.513 5356
2.703 -1.657 1.513 4754
2.762 -1.693 1.533 6237
2.765 -1.695 1.523 7406
2.775 -1.701 1.517 9064
2.785 -1.707 1.511 10970
2.788 -1.709 1.501 10215
2.791 -1.711 1.492 9789
2.801 -1.717 1.486 7657
2.935 -1.799 1.540 9113
2.933 -1.798 1.527 10878
2.942 -1.804 1.520 9438
2.946 -1.806 1.510 6453
3.024 -1.854 1.535 5008
2.978 -1.825 1.502 5717
2.981 -1.827 1.492 5142
3.066 -1.880 1.519 6501
3.070 -1.882 1.509 8081
3.079 -1.888 1.501 7872
3.076 -1.886 1.488 5946
3.073 -1.884 1.475 4198
3.159 -1.936 1.500 3964
3.156 -1.935 1.487 7981
3.166 -1.941 1.479 14298
3.169 -1.943 1.468 14295
3.172 -1.945 1.458 7502
3.264 -2.001 1.484 5948
3.274 -2.007 1.476 8221
3.271 -2.005 1.462 11462
3.274 -2.007 1.451 12823
3.284 -2.013 1.443 8777
3.274 -2.007 1.426 5818
3.278 -2.009 1.415 5873
3.287 -2.015 1.407 5188
3.451 -2.115 1.458 9814
3.454 -2.117 1.446 10130
3.451 -2.115 1.432 7410
3.454 -2.117 1.420 5367
3.451 -2.115 1.406 3366
3.731 -2.287 1.497 2624
3.728 -2.285 1.482 3520
3.731 -2.287 1.469 3846
3.754 -2.301 1.463 2942
3.770 -2.311 1.455 3167
3.773 -2.313 1.442 3320
3.847 -2.359 1.454 4026
3.831 -2.349 1.435 5923
3.834 -2.351 1.422 10317
3.844 -2.357 1.411 10750
3.854 -2.362 1.400 8408
3.876 -2.376 1.393 9604
3.886 -2.382 1.382 8937
3.896 -2.388 1.371 9749
3.905 -2.394 1.360 9084
3.908 -2.396 1.347 6281
3.898 -2.390 1.330 5437
4.241 -2.600 1.420 5136
4.192 -2.570 1.390 7515
4.195 -2.571 1.376 6662
3.910 -2.397 1.277 4289
4.201 -2.575 1.347 3036
4.204 -2.577 1.333 2892
4.371 -2.679 1.365 3271
4.341 -2.661 1.341 3168
4.410 -2.703 1.345 3091
4.491 -2.753 1.351 2882
4.501 -2.759 1.338 4770
4.511 -2.765 1.324 6550
4.520 -2.771 1.311 8017
4.523 -2.773 1.296 8054
4.526 -2.775 1.280 6263
4.529 -2.776 1.265 5666
4.531 -2.778 1.250 5769
4.534 -2.780 1.234 5088
4.537 -2.781 1.219 4463
4.963 -3.042 1.304 5105
4.959 -3.040 1.285 5401
4.975 -3.050 1.272 4925
4.985 -3.056 1.256 3659
5.080 -3.114 1.260 3545
5.077 -3.112 1.241 3879
5.152 -3.158 1.240 3701
5.148 -3.156 1.221 4096
5.237 -3.211 1.221 3523
5.247 -3.216 1.205 2609
5.342 -3.275 1.206 3890
5.591 -3.428 1.236 2976
5.594 -3.429 1.217 3533
5.710 -3.500 1.220 3401
5.713 -3.502 1.201 2996
5.702 -3.495 1.179 3177
5.858 -3.591 1.187 2830
6.127 -3.756 1.214 2441
6.137 -3.762 1.195 3454
6.146 -3.768 1.175 3248
6.356 -3.896 1.188 3016
6.479 -3.972 1.186 3219
6.475 -3.969 1.163 3386
6.470 -3.967 1.140 2792
6.480 -3.972 1.119 2169
6.609 -4.052 1.116 1413
6.973 -4.275 1.146 1780
6.976 -4.276 1.123 2677
6.985 -4.282 1.100 2765
7.101 -4.353 1.091 2827
7.452 -4.569 1.113 3597
7.455 -4.570 1.088 3723
7.471 -4.580 1.064 3837
7.473 -4.581 1.039 4450
7.462 -4.574 1.012 5731
7.444 -4.563 0.984 6621
7.439 -4.560 0.958 7842
7.448 -4.566 0.933 7048
7.463 -4.575 0.909 6724
7.472 -4.580 0.884 5385
7.480 -4.586 0.860 4426
7.475 -4.583 0.834 2988
7.477 -4.584 0.808 1566
8.051 -4.935 0.832 1454
8.052 -4.936 0.805 1247
8.054 -4.937 0.777 1023
8.049 -4.934 0.749 565
1.733 -1.065 1.578 4661
1.737 -1.067 1.572 9322
1.752 -1.076 1.575 7367
1.761 -1.082 1.574 5269
1.891 -1.161 1.674 5730
1.900 -1.167 1.672 6436
1.904 -1.170 1.666 7262
1.908 -1.172 1.659 7073
1.911 -1.174 1.653 7014
1.921 -1.180 1.651 7210
1.930 -1.186 1.649 5675
1.939 -1.191 1.647 4518
1.960 -1.204 1.654 5222
1.964 -1.206 1.647 6297
1.967 -1.209 1.641 6980
1.971 -1.211 1.634 7664
1.969 -1.210 1.623 8180
1.973 -1.212 1.616 8749
1.977 -1.214 1.610 8749
1.986 -1.220 1.608 9027
1.989 -1.222 1.601 9411
2.010 -1.235 1.607 8996
2.025 -1.244 1.609 10543
2.035 -1.250 1.606 12405
2.044 -1.256 1.604 14505
2.048 -1.258 1.597 15360
2.051 -1.260 1.590 16215
2.049 -1.259 1.579 13100
2.053 -1.261 1.572 10205
2.062 -1.267 1.569 6533
2.106 -1.294 1.591 5158
2.115 -1.299 1.588 5243
2.148 -1.319 1.601 4877
2.157 -1.325 1.598 4213
2.190 -1.345 1.610 6193
2.188 -1.344 1.599 7379
2.186 -1.343 1.588 6830
2.160 -1.327 1.561 6734
2.187 -1.344 1.569 7647
2.191 -1.346 1.562 8853
2.188 -1.344 1.551 6814
2.245 -1.379 1.578 7261
2.248 -1.381 1.570 8689
2.246 -1.380 1.559 9070
2.244 -1.378 1.548 9696
2.253 -1.384 1.544 8232
2.257 -1.386 1.536 5115
2.403 -1.476 1.618 4616
2.383 -1.464 1.596 4950
2.380 -1.462 1.584 6126
2.450 -1.505 1.616 6727
2.447 -1.503 1.604 8472
2.445 -1.502 1.592 8032
2.442 -1.500 1.581 7719
2.446 -1.503 1.572 9115
2.450 -1.505 1.564 10608
2.465 -1.514 1.563 11486
2.475 -1.520 1.558 15245
2.472 -1.519 1.546 16854
2.476 -1.521 1.538 13717
2.467 -1.515 1.523 10691
2.477 -1.521 1.518 9737
2.480 -1.523 1.510 9043
2.489 -1.529 1.505 14329
2.499 -1.535 1.500 24369
2.508 -1.541 1.495 29605
2.512 -1.543 1.486 30081
2.509 -1.541 1.475 26094
2.512 -1.543 1.466 21055
2.516 -1.545 1.458 16170
2.525 -1.551 1.452 8841
2.658 -1.633 1.512 6486
2.679 -1.646 1.513 5594
2.701 -1.659 1.513 5067
2.760 -1.696 1.533 7225
2.764 -1.698 1.523 8509
2.773 -1.704 1.517 10111
2.783 -1.710 1.511 11850
2.787 -1.712 1.501 11019
2.790 -1.714 1.492 10446
2.799 -1.720 1.486 8118
2.927 -1.798 1.537 9506
2.931 -1.800 1.527 11127
2.941 -1.806 1.520 9640
2.944 -1.809 1.510 6613
3.016 -1.853 1.532 4744
2.976 -1.828 1.502 5448
3.055 -1.876 1.527 5179
3.064 -1.882 1.519 6265
3.068 -1.885 1.509 7807
3.084 -1.894 1.504 7817
3.075 -1.889 1.488 5998
3.072 -1.887 1.475 4399
3.151 -1.935 1.498 3760
3.154 -1.938 1.487 7542
3.164 -1.943 1.479 13886
3.167 -1.946 1.468 14429
3.170 -1.948 1.458 8057
3.263 -2.004 1.484 6293
3.272 -2.010 1.476 8391
3.269 -2.008 1.462 11537
3.273 -2.010 1.451 13087
3.282 -2.016 1.443 9423
3.273 -2.010 1.426 6429
3.276 -2.012 1.415 6394
3.285 -2.018 1.407 5609
3.449 -2.118 1.458 9385
3.452 -2.120 1.446 9404
3.455 -2.122 1.434 6668
3.452 -2.120 1.420 4864
3.455 -2.122 1.409 3027
3.632 -2.231 1.461 2709
3.725 -2.289 1.482 3649
3.729 -2.291 1.469 4174
3.751 -2.304 1.463 3126
3.761 -2.310 1.453 3193
3.771 -2.316 1.442 3112
3.845 -2.362 1.454 4160
3.829 -2.352 1.435 5868
3.832 -2.354 1.422 9902
3.842 -2.360 1.411 10238
3.852 -2.366 1.400 7990
3.874 -2.380 1.393 9054
3.884 -2.386 1.382 7853
3.893 -2.392 1.371 8304
3.903 -2.398 1.360 8070
3.906 -2.399 1.347 6301
3.902 -2.397 1.332 5647
4.238 -2.604 1.420 5502
4.189 -2.573 1.390 7686
4.192 -2.575 1.376 6805
4.163 -2.557 1.352 4036
4.277 -2.627 1.370 3288
4.201 -2.581 1.333 2946
4.375 -2.687 1.367 3250
4.411 -2.709 1.362 2782
4.407 -2.707 1.345 2480
4.489 -2.758 1.351 3095
4.499 -2.763 1.338 4696
4.508 -2.769 1.324 6293
4.518 -2.775 1.311 7900
4.520 -2.777 1.296 7751
4.523 -2.779 1.280 5666
4.526 -2.780 1.265 4928
4.529 -2.782 1.250 5199
4.532 -2.784 1.234 4727
4.534 -2.785 1.219 4211
4.960 -3.047 1.304 4898
4.956 -3.045 1.285 5417
4.973 -3.055 1.272 5290
4.975 -3.056 1.255 3854
5.084 -3.123 1.261 3487
5.067 -3.113 1.240 3707
5.149 -3.163 1.240 3700
5.145 -3.161 1.221 4164
5.234 -3.215 1.221 3427
5.337 -3.278 1.224 2745
5.333 -3.276 1.205 3757
5.595 -3.437 1.238 3178
5.598 -3.439 1.219 3674
5.700 -3.502 1.219 3252
5.689 -3.495 1.197 2892
5.699 -3.501 1.179 3145
5.855 -3.596 1.187 2823
6.117 -3.758 1.213 2518
6.133 -3.768 1.195 3450
6.143 -3.773 1.175 3102
6.352 -3.902 1.188 3095
6.475 -3.978 1.186 3271
6.471 -3.975 1.163 3355
6.473 -3.977 1.141 2721
6.476 -3.978 1.119 2144
6.605 -4.058 1.116 1362
6.963 -4.277 1.145 1889
6.972 -4.283 1.123 2851
6.981 -4.288 1.100 2822
7.446 -4.574 1.138 2796
7.448 -4.575 1.113 3745
7.451 -4.577 1.088 3883
7.466 -4.587 1.064 3989
7.469 -4.588 1.039 4466
7.464 -4.585 1.012 5567
7.439 -4.570 0.984 6268
7.435 -4.567 0.958 7364
7.443 -4.572 0.933 6685
7.459 -4.582 0.909 6598
7.467 -4.587 0.884 5358
7.476 -4.592 0.860 4409
7.478 -4.594 0.834 2971
7.479 -4.595 0.809 1539
8.046 -4.943 0.832 1376
8.048 -4.944 0.805 1172
8.049 -4.945 0.777 967
8.051 -4.946 0.750 537
1.732 -1.067 1.578 4314
1.736 -1.069 1.572 8628
1.750 -1.078 1.575 6993
1.759 -1.084 1.574 5063
1.889 -1.164 1.674 5538
1.899 -1.169 1.672 6290
1.902 -1.172 1.666 7154
1.906 -1.174 1.659 7064
1.910 -1.176 1.653 7116
1.919 -1.182 1.651 7262
1.923 -1.184 1.644 5693
1.938 -1.194 1.647 4547
1.958 -1.206 1.654 5212
1.962 -1.209 1.647 6225
1.966 -1.211 1.641 6792
1.970 -1.213 1.634 7359
1.973 -1.215 1.627 8026
1.971 -1.214 1.616 8752
1.975 -1.217 1.610 8752
1.984 -1.222 1.608 9080
1.988 -1.224 1.601 9466
2.009 -1.237 1.607 8875
2.024 -1.246 1.609 10238
2.033 -1.252 1.606 12261
2.042 -1.258 1.604 14478
2.046 -1.260 1.597 15489
2.050 -1.262 1.590 16500
2.048 -1.261 1.579 13401
2.051 -1.263 1.572 10527
2.060 -1.269 1.569 6799
2.104 -1.296 1.591 5069
2.114 -1.302 1.588 4980
2.146 -1.322 1.601 4892
2.156 -1.328 1.598 4284
2.189 -1.348 1.610 6164
2.186 -1.347 1.599 7321
2.184 -1.345 1.588 6834
2.159 -1.329 1.561 6813
2.185 -1.346 1.569 7702
2.189 -1.348 1.562 8905
2.187 -1.347 1.551 6906
2.243 -1.382 1.578 7058
2.247 -1.384 1.570 8324
2.244 -1.382 1.559 8768
2.242 -1.381 1.548 9363
2.251 -1.387 1.544 7849
2.255 -1.389 1.536 4759
2.401 -1.479 1.618 5045
2.387 -1.470 1.599 5438
2.384 -1.469 1.588 6678
2.442 -1.504 1.613 6904
2.445 -1.506 1.604 8608
2.443 -1.505 1.592 8006
2.441 -1.503 1.581 7644
2.438 -1.502 1.569 8881
2.448 -1.508 1.564 10149
2.463 -1.517 1.563 11158
2.473 -1.523 1.558 15199
2.470 -1.522 1.546 16875
2.474 -1.524 1.538 13959
2.465 -1.518 1.523 11590
2.475 -1.524 1.518 10337
2.478 -1.526 1.510 9095
2.488 -1.532 1.505 13701
2.497 -1.538 1.500 22973
2.507 -1.544 1.495 28495
2.510 -1.546 1.486 29370
2.507 -1.544 1.475 25534
2.511 -1.546 1.466 20491
2.514 -1.548 1.458 15292
2.646 -1.630 1.518 8067
2.656 -1.636 1.512 6449
2.678 -1.649 1.513 5798
2.693 -1.659 1.510 5324
2.758 -1.699 1.533 8159
2.762 -1.701 1.523 9512
2.771 -1.707 1.517 10992
2.781 -1.713 1.511 12511
2.784 -1.715 1.501 11614
2.788 -1.717 1.492 10946
2.791 -1.719 1.483 8499
2.925 -1.802 1.537 9939
2.929 -1.804 1.527 11223
2.939 -1.810 1.520 9652
2.942 -1.812 1.510 6602
3.014 -1.856 1.532 4511
3.011 -1.855 1.519 5280
3.052 -1.880 1.527 5324
3.062 -1.886 1.519 6079
3.072 -1.892 1.512 7553
3.082 -1.898 1.504 7789
3.072 -1.892 1.488 6130
3.069 -1.890 1.475 4611
3.155 -1.943 1.500 3602
3.152 -1.941 1.487 7024
3.155 -1.943 1.476 13468
3.165 -1.949 1.468 14564
3.168 -1.951 1.458 8636
3.254 -2.004 1.482 6545
3.270 -2.014 1.476 8381
3.267 -2.012 1.462 11425
3.270 -2.014 1.451 13152
3.280 -2.020 1.443 9969
3.270 -2.014 1.426 6939
3.273 -2.016 1.415 6761
3.277 -2.018 1.404 5925
3.446 -2.123 1.458 8776
3.449 -2.125 1.446 8609
3.453 -2.127 1.434 5969
3.449 -2.125 1.420 4386
3.459 -2.130 1.411 2765
3.636 -2.239 1.463 2794
3.723 -2.293 1.482 3703
3.726 -2.295 1.469 4311
3.749 -2.309 1.463 3248
3.758 -2.315 1.453 3229
3.762 -2.317 1.440 2924
3.842 -2.367 1.454 4298
3.826 -2.357 1.435 5795
3.830 -2.359 1.422 9343
3.839 -2.365 1.411 9545
3.849 -2.371 1.400 7476
3.871 -2.384 1.393 8547
3.881 -2.390 1.382 6902
3.891 -2.396 1.371 7066
3.900 -2.402 1.360 7145
3.903 -2.404 1.347 6164
3.900 -2.402 1.332 5686
4.235 -2.609 1.420 5662
4.186 -2.578 1.390 7769
4.196 -2.584 1.378 6871
4.160 -2.562 1.352 4085
4.274 -2.632 1.370 3749
4.198 -2.586 1.333 2955
4.372 -2.693 1.367 3243
4.407 -2.715 1.362 2594
4.338 -2.672 1.327 2111
4.486 -2.763 1.351 3296
4.489 -2.765 1.336 4630
4.505 -2.775 1.324 6006
4.514 -2.780 1.311 7691
4.517 -2.782 1.296 7382
4.527 -2.788 1.282 5203
4.523 -2.786 1.265 4266
4.526 -2.787 1.250 4576
4.528 -2.789 1.234 4307
4.531 -2.791 1.219 3895
4.957 -3.053 1.304 4618
4.953 -3.051 1.285 5329
4.969 -3.060 1.272 5528
4.972 -3.062 1.255 3964
5.087 -3.133 1.263 3500
5.063 -3.119 1.240 3558
5.146 -3.169 1.240 3667
5.142 -3.167 1.221 4117
5.231 -3.222 1.221 3354
5.333 -3.285 1.224 2857
5.329 -3.282 1.205 3645
5.597 -3.448 1.239 3332
5.593 -3.445 1.219 3733
5.689 -3.504 1.217 3124
5.685 -3.502 1.197 2841
5.695 -3.507 1.179 3117
5.850 -3.603 1.187 2827
6.113 -3.765 1.213 2569
6.122 -3.771 1.194 3453
6.131 -3.777 1.174 2985
6.348 -3.910 1.188 3160
6.470 -3.985 1.186 3256
6.466 -3.983 1.163 3286
6.469 -3.984 1.141 2575
6.478 -3.990 1.120 2012
6.895 -4.247 1.160 1346
6.958 -4.285 1.145 1964
6.967 -4.291 1.123 3000
6.976 -4.297 1.100 2863
7.440 -4.583 1.138 2825
7.443 -4.584 1.113 3799
7.445 -4.586 1.088 3950
7.461 -4.595 1.064 4066
7.463 -4.597 1.039 4453
7.459 -4.594 1.012 5434
7.441 -4.583 0.985 5901
7.429 -4.576 0.958 6828
7.438 -4.581 0.933 6298
7.453 -4.591 0.909 6429
7.462 -4.596 0.884 5293
7.471 -4.601 0.860 4368
7.472 -4.602 0.834 2957
7.474 -4.603 0.809 1522
8.040 -4.952 0.832 1262
8.042 -4.953 0.805 1059
8.044 -4.954 0.777 874
8.045 -4.955 0.750 487
1.737 -1.072 1.582 3971
1.740 -1.074 1.577 7943
1.755 -1.083 1.580 6636
1.764 -1.089 1.579 4834
1.888 -1.165 1.674 5318
1.898 -1.171 1.672 6122
1.901 -1.173 1.666 7030
1.905 -1.176 1.659 6967
1.909 -1.178 1.653 7058
1.913 -1.180 1.646 7212
1.922 -1.186 1.644 5677
1.937 -1.195 1.647 4568
1.957 -1.208 1.654 5198
1.961 -1.210 1.647 6131
1.965 -1.213 1.641 6573
1.969 -1.215 1.634 7015
1.972 -1.217 1.627 7881
1.970 -1.216 1.616 8756
1.974 -1.218 1.610 8756
1.983 -1.224 1.608 9137
1.987 -1.226 1.601 9526
2.013 -1.242 1.611 8754
2.023 -1.248 1.609 9881
2.032 -1.254 1.606 12089
2.041 -1.260 1.604 14440
2.045 -1.262 1.597 15586
2.049 -1.264 1.590 16733
2.052 -1.266 1.583 13672
2.050 -1.265 1.572 10843
2.059 -1.271 1.569 7130
2.103 -1.298 1.591 4975
2.113 -1.304 1.588 4698
2.145 -1.324 1.601 4870
2.155 -1.330 1.598 4315
2.187 -1.350 1.610 6120
2.185 -1.349 1.599 7250
2.183 -1.347 1.588 6818
2.157 -1.331 1.561 6823
2.184 -1.348 1.569 7713
2.188 -1.350 1.562 8896
2.185 -1.349 1.551 6971
2.248 -1.387 1.582 6882
2.246 -1.386 1.570 7941
2.243 -1.384 1.559 8439
2.241 -1.383 1.548 8977
2.250 -1.389 1.544 7466
2.260 -1.394 1.540 4501
2.400 -1.481 1.618 5500
2.386 -1.472 1.599 6022
2.383 -1.471 1.588 7382
2.440 -1.506 1.613 7117
2.444 -1.508 1.604 8755
2.442 -1.507 1.592 8023
2.439 -1.505 1.581 7613
2.437 -1.504 1.569 8688
2.440 -1.506 1.561 9721
2.468 -1.523 1.567 10641
2.472 -1.525 1.558 14857
2.469 -1.524 1.546 16685
2.467 -1.522 1.535 14187
2.464 -1.521 1.523 12648
2.473 -1.526 1.518 11130
2.477 -1.529 1.510 9420
2.486 -1.534 1.505 13101
2.496 -1.540 1.500 21353
2.505 -1.546 1.495 27190
2.509 -1.548 1.486 28499
2.512 -1.550 1.478 24812
2.509 -1.548 1.466 19770
2.512 -1.550 1.458 14325
2.645 -1.632 1.518 7750
2.654 -1.638 1.512 6323
2.676 -1.651 1.513 5876
2.760 -1.703 1.545 5661
2.757 -1.701 1.533 9163
2.760 -1.704 1.523 10597
2.770 -1.709 1.517 11975
2.780 -1.715 1.511 13240
2.783 -1.717 1.501 12199
2.786 -1.720 1.492 11399
2.790 -1.722 1.483 8871
2.924 -1.804 1.537 10435
2.933 -1.810 1.530 11278
2.937 -1.812 1.520 9555
2.940 -1.815 1.510 6456
3.013 -1.859 1.532 4289
3.016 -1.861 1.522 5287
3.045 -1.879 1.524 5510
3.060 -1.889 1.519 5861
3.070 -1.895 1.512 7360
3.080 -1.901 1.504 7821
3.071 -1.895 1.488 6241
3.068 -1.893 1.475 4791
3.178 -1.961 1.512 3768
3.150 -1.944 1.487 6739
3.153 -1.946 1.476 13148
3.163 -1.952 1.468 14601
3.166 -1.954 1.458 9137
3.252 -2.007 1.482 6710
3.268 -2.017 1.476 8145
3.265 -2.015 1.462 11245
3.268 -2.017 1.451 13195
3.278 -2.023 1.443 10522
3.275 -2.021 1.429 7427
3.278 -2.023 1.418 7082
3.281 -2.025 1.407 6252
3.444 -2.126 1.458 8135
3.448 -2.128 1.446 7762
3.451 -2.130 1.434 5241
3.454 -2.132 1.423 3892
3.631 -2.240 1.476 2795
3.634 -2.243 1.463 2938
3.721 -2.296 1.482 3876
3.724 -2.298 1.469 4454
3.740 -2.308 1.461 3403
3.756 -2.318 1.453 3326
3.753 -2.316 1.438 2838
3.847 -2.374 1.457 4315
3.824 -2.360 1.435 5629
3.827 -2.362 1.422 8779
3.837 -2.368 1.411 8773
3.847 -2.374 1.400 6950
3.869 -2.388 1.393 8126
3.885 -2.398 1.384 6137
3.888 -2.400 1.371 5990
3.892 -2.402 1.358 6251
3.901 -2.407 1.347 6001
3.898 -2.405 1.332 5601
4.233 -2.612 1.420 5763
4.184 -2.582 1.390 7842
4.194 -2.588 1.378 6946
4.157 -2.566 1.352 4171
4.272 -2.636 1.370 4102
4.196 -2.590 1.333 2995
4.369 -2.696 1.367 3266
4.405 -2.719 1.362 2508
4.454 -2.749 1.359 2002
4.483 -2.767 1.351 3537
4.486 -2.769 1.336 4552
4.496 -2.774 1.323 5724
4.512 -2.784 1.311 7494
4.521 -2.790 1.297 7019
4.524 -2.792 1.282 4873
4.520 -2.790 1.265 3770
4.523 -2.791 1.250 3967
4.526 -2.793 1.234 3806
4.529 -2.795 1.219 3530
4.954 -3.057 1.304 4305
4.950 -3.055 1.285 5236
4.966 -3.065 1.272 5798
4.969 -3.067 1.255 4112
5.091 -3.142 1.264 3659
5.061 -3.123 1.240 3440
5.143 -3.174 1.240 3721
5.139 -3.171 1.221 4101
5.228 -3.226 1.221 3222
5.323 -3.285 1.223 2935
5.326 -3.287 1.205 3540
5.594 -3.452 1.239 3481
5.590 -3.450 1.219 3769
5.593 -3.452 1.200 3047
5.682 -3.507 1.197 2781
5.691 -3.512 1.179 3094
5.847 -3.608 1.187 2851
6.103 -3.766 1.212 2589
6.119 -3.776 1.194 3418
6.128 -3.782 1.174 2880
6.344 -3.915 1.188 3176
6.467 -3.991 1.186 3158
6.469 -3.992 1.164 3195
6.465 -3.990 1.141 2469
6.474 -3.996 1.120 1916
6.891 -4.253 1.160 1319
6.954 -4.291 1.145 2023
6.963 -4.297 1.123 3165
6.965 -4.299 1.099 2920
7.436 -4.589 1.138 2809
7.439 -4.591 1.113 3806
7.441 -4.592 1.088 3973
7.457 -4.602 1.064 4114
7.459 -4.603 1.039 4418
7.455 -4.600 1.012 5247
7.437 -4.589 0.985 5478
7.425 -4.582 0.958 6229
7.441 -4.592 0.934 5838
7.449 -4.597 0.909 6174
7.458 -4.603 0.884 5219
7.467 -4.608 0.860 4355
7.468 -4.609 0.834 2974
7.470 -4.610 0.809 1527
7.472 -4.611 0.783 1177
8.038 -4.960 0.805 967
8.039 -4.961 0.777 799
8.041 -4.962 0.750 443
1.735 -1.074 1.582 3665
1.739 -1.076 1.577 7330
1.753 -1.085 1.580 6307
1.762 -1.091 1.579 4628
1.887 -1.168 1.674 5089
1.896 -1.173 1.672 5956
1.900 -1.176 1.666 6911
1.904 -1.178 1.659 6874
1.907 -1.181 1.653 6998
1.911 -1.183 1.646 7159
1.921 -1.189 1.644 5580
1.935 -1.198 1.647 4494
1.956 -1.210 1.654 5145
1.960 -1.213 1.647 6029
1.963 -1.215 1.641 6365
1.967 -1.217 1.634 6700
1.971 -1.220 1.627 7721
1.974 -1.222 1.621 8743
1.978 -1.224 1.614 8743
1.982 -1.226 1.608 9144
1.985 -1.229 1.601 9545
2.012 -1.245 1.611 8627
2.021 -1.251 1.609 9533
2.030 -1.257 1.606 11893
2.040 -1.262 1.604 14351
2.043 -1.265 1.597 15562
2.047 -1.267 1.590 16773
2.051 -1.269 1.583 13791
2.048 -1.268 1.572 10988
2.058 -1.273 1.569 7375
2.096 -1.297 1.587 4925
2.111 -1.306 1.588 4456
2.144 -1.327 1.601 4795
2.153 -1.332 1.598 4291
2.180 -1.349 1.606 6071
2.184 -1.351 1.599 7167
2.181 -1.350 1.588 6786
2.156 -1.334 1.561 6885
2.183 -1.351 1.569 7702
2.186 -1.353 1.562 8848
2.184 -1.352 1.551 6998
2.246 -1.390 1.582 6690
2.238 -1.385 1.567 7473
2.241 -1.387 1.559 7982
2.245 -1.389 1.552 8491
2.248 -1.392 1.544 7012
2.270 -1.405 1.548 4459
2.398 -1.484 1.618 5943
2.384 -1.475 1.599 6599
2.381 -1.474 1.588 8064
2.433 -1.505 1.609 7322
2.442 -1.511 1.604 8877
2.440 -1.510 1.592 8032
2.437 -1.508 1.581 7528
2.435 -1.507 1.569 8375
2.439 -1.509 1.561 9247
2.466 -1.526 1.567 10031
2.470 -1.528 1.558 14330
2.467 -1.527 1.546 16285
2.465 -1.525 1.535 14381
2.462 -1.524 1.523 13544
2.471 -1.530 1.518 11792
2.475 -1.532 1.510 9731
2.484 -1.538 1.505 12559
2.494 -1.543 1.500 19844
2.503 -1.549 1.495 25993
2.507 -1.551 1.486 27719
2.510 -1.553 1.478 24168
2.507 -1.552 1.466 18988
2.510 -1.554 1.458 13360
2.643 -1.635 1.518 7340
2.652 -1.641 1.512 6101
2.674 -1.655 1.513 5817
2.757 -1.707 1.545 6081
2.755 -1.705 1.533 9851
2.758 -1.707 1.523 11376
2.768 -1.713 1.517 12699
2.777 -1.719 1.511 13796
2.781 -1.721 1.501 12631
2.784 -1.723 1.492 11661
2.788 -1.725 1.483 9093
2.921 -1.808 1.537 10893
2.931 -1.814 1.530 11310
2.935 -1.816 1.520 9460
2.938 -1.818 1.510 6413
3.010 -1.863 1.532 4164
3.020 -1.869 1.525 5548
3.036 -1.879 1.521 5713
3.052 -1.889 1.516 5702
3.068 -1.899 1.512 7211
3.077 -1.905 1.504 7782
3.068 -1.899 1.488 6244
3.065 -1.897 1.475 4926
3.176 -1.965 1.512 4083
3.148 -1.948 1.487 6220
3.151 -1.950 1.476 12449
3.161 -1.956 1.468 14340
3.164 -1.958 1.458 9505
3.243 -2.007 1.479 6761
3.266 -2.021 1.476 7779
3.263 -2.019 1.462 10959
3.266 -2.021 1.451 13087
3.282 -2.031 1.445 10903
3.272 -2.025 1.429 7720
3.275 -2.027 1.418 7268
3.279 -2.029 1.407 6485
3.442 -2.130 1.458 7344
3.445 -2.132 1.446 6881
3.448 -2.134 1.434 4562
3.451 -2.136 1.423 3476
3.628 -2.245 1.476 2948
3.631 -2.247 1.463 3104
3.718 -2.301 1.482 4019
3.721 -2.303 1.469 4562
3.737 -2.313 1.461 3513
3.747 -2.319 1.451 3430
3.750 -2.321 1.438 2837
3.844 -2.379 1.457 4332
3.821 -2.365 1.435 5382
3.824 -2.367 1.422 8116
3.834 -2.373 1.411 7907
3.870 -2.395 1.409 6663
3.866 -2.393 1.393 7794
3.882 -2.403 1.384 5857
3.892 -2.409 1.373 5426
3.888 -2.407 1.358 5518
3.898 -2.412 1.347 5735
3.894 -2.410 1.332 5376
4.230 -2.618 1.420 5704
4.181 -2.587 1.390 7937
4.190 -2.593 1.378 6970
4.259 -2.636 1.383 4472
4.268 -2.642 1.370 4297
4.356 -2.696 1.380 2953
4.366 -2.702 1.367 3445
4.402 -2.724 1.362 2537
4.451 -2.754 1.359 2356
4.480 -2.772 1.351 3683
4.483 -2.774 1.336 4370
4.499 -2.784 1.324 5384
4.508 -2.790 1.311 7195
4.518 -2.796 1.297 6650
4.521 -2.798 1.282 4801
4.510 -2.791 1.263 3586
4.513 -2.793 1.248 3406
4.522 -2.799 1.234 3315
4.525 -2.801 1.219 3182
4.950 -3.064 1.304 4016
4.946 -3.061 1.285 5182
4.962 -3.071 1.272 5959
4.965 -3.073 1.255 4163
5.094 -3.152 1.266 3945
5.129 -3.175 1.256 3476
5.139 -3.180 1.240 3778
5.135 -3.178 1.221 4032
5.217 -3.229 1.220 3139
5.319 -3.292 1.223 2948
5.594 -3.462 1.259 3404
5.597 -3.464 1.240 3653
5.593 -3.461 1.220 3839
5.595 -3.463 1.201 3071
5.678 -3.514 1.197 2688
5.687 -3.520 1.179 3003
5.843 -3.616 1.187 2879
6.098 -3.774 1.212 2631
6.114 -3.784 1.194 3420
6.123 -3.790 1.174 2827
6.339 -3.923 1.188 3232
6.462 -3.999 1.186 2956
6.458 -3.997 1.163 3047
6.460 -3.998 1.141 2415
6.469 -4.004 1.120 1846
6.886 -4.261 1.160 1316
6.948 -4.300 1.145 2077
6.951 -4.302 1.122 3279
6.960 -4.307 1.099 2923
7.430 -4.599 1.138 2787
7.433 -4.600 1.113 3781
7.435 -4.602 1.088 3949
7.451 -4.611 1.064 4072
7.453 -4.613 1.039 4308
7.449 -4.610 1.012 5021
7.438 -4.603 0.985 5012
7.419 -4.592 0.958 5574
7.435 -4.601 0.934 5300
7.444 -4.607 0.909 5827
7.452 -4.612 0.884 5082
7.461 -4.617 0.860 4298
7.462 -4.618 0.834 2965
7.464 -4.619 0.809 1509
7.466 -4.620 0.783 1129
8.031 -4.970 0.805 871
8.033 -4.971 0.777 711
8.035 -4.972 0.750 381
1.739 -1.080 1.587 3398
1.743 -1.082 1.581 6797
1.757 -1.091 1.585 6104
1.761 -1.093 1.579 4459
1.885 -1.171 1.674 4975
1.894 -1.176 1.672 5821
1.898 -1.179 1.666 6767
1.902 -1.181 1.659 6779
1.906 -1.183 1.653 6965
1.909 -1.186 1.646 7139
1.919 -1.192 1.644 5567
1.934 -1.201 1.647 4492
1.954 -1.213 1.654 5188
1.958 -1.216 1.647 6045
1.961 -1.218 1.641 6247
1.965 -1.220 1.634 6449
1.969 -1.223 1.627 7658
1.973 -1.225 1.621 8867
1.976 -1.227 1.614 8867
1.980 -1.230 1.608 9298
1.984 -1.232 1.601 9730
2.010 -1.248 1.611 8644
2.025 -1.257 1.613 9301
2.029 -1.260 1.606 11798
2.038 -1.265 1.604 14379
2.041 -1.268 1.597 15647
2.045 -1.270 1.590 16916
2.049 -1.272 1.583 14008
2.046 -1.271 1.572 11237
2.056 -1.277 1.569 7751
2.088 -1.297 1.583 4982
2.109 -1.310 1.588 4188
2.142 -1.330 1.601 4723
2.145 -1.332 1.594 4301
2.178 -1.352 1.606 6101
2.181 -1.355 1.599 7185
2.179 -1.353 1.588 6831
2.154 -1.337 1.561 6952
2.181 -1.354 1.569 7722
2.184 -1.356 1.562 8812
2.182 -1.355 1.551 7036
2.244 -1.393 1.582 6531
2.236 -1.388 1.567 6947
2.239 -1.391 1.559 7492
2.243 -1.393 1.552 8038
2.246 -1.395 1.544 6622
2.279 -1.415 1.555 4820
2.396 -1.488 1.618 6509
2.381 -1.479 1.599 7377
2.379 -1.477 1.588 9016
2.424 -1.506 1.605 7815
2.434 -1.511 1.601 9237
2.438 -1.514 1.592 8223
2.435 -1.512 1.581 7579
2.433 -1.511 1.569 8132
2.436 -1.513 1.561 8812
2.464 -1.530 1.567 9344
2.467 -1.532 1.558 13637
2.465 -1.531 1.546 15726
2.456 -1.525 1.531 14722
2.460 -1.527 1.523 14864
2.469 -1.533 1.518 12707
2.473 -1.535 1.510 10087
2.482 -1.541 1.505 11979
2.491 -1.547 1.500 18246
2.501 -1.553 1.495 24875
2.504 -1.555 1.486 27121
2.508 -1.557 1.478 23651
2.505 -1.555 1.466 18244
2.508 -1.558 1.458 12402
2.640 -1.639 1.518 6831
2.754 -1.710 1.567 6308
2.678 -1.663 1.516 5913
2.749 -1.707 1.542 6800
2.752 -1.709 1.533 10537
2.756 -1.711 1.523 12098
2.765 -1.717 1.517 13384
2.775 -1.723 1.511 14390
2.778 -1.725 1.501 13179
2.782 -1.727 1.492 12039
2.785 -1.729 1.483 9399
2.919 -1.813 1.537 11334
2.928 -1.819 1.530 11184
2.932 -1.821 1.520 9126
2.935 -1.823 1.510 6229
3.014 -1.871 1.535 4394
3.017 -1.874 1.525 6299
3.033 -1.883 1.521 6135
3.049 -1.893 1.516 5729
3.065 -1.903 1.512 7114
3.075 -1.909 1.504 7720
3.065 -1.904 1.488 6313
3.056 -1.898 1.472 5127
3.173 -1.970 1.512 4581
3.145 -1.953 1.487 5867
3.148 -1.955 1.476 11909
3.158 -1.961 1.468 14222
3.161 -1.963 1.458 9949
3.240 -2.012 1.479 6921
3.256 -2.022 1.473 7254
3.259 -2.024 1.462 10675
3.263 -2.026 1.451 13178
3.279 -2.036 1.445 11519
3.269 -2.030 1.429 8020
3.272 -2.032 1.418 7439
3.276 -2.034 1.407 6739
3.445 -2.139 1.460 6492
3.448 -2.141 1.449 5942
3.560 -2.211 1.478 4317
3.454 -2.145 1.425 3051
3.624 -2.251 1.476 3189
3.628 -2.253 1.463 3375
3.714 -2.307 1.482 4042
3.718 -2.309 1.469 4676
3.734 -2.319 1.461 3632
3.743 -2.325 1.451 3615
3.747 -2.327 1.438 2996
3.847 -2.389 1.459 4291
3.818 -2.371 1.435 5026
3.827 -2.377 1.424 7388
3.863 -2.399 1.422 7325
3.872 -2.405 1.411 6748
3.869 -2.403 1.395 7499
3.879 -2.409 1.384 5835
3.888 -2.415 1.373 5169
3.885 -2.412 1.358 4882
3.894 -2.418 1.347 5396
4.222 -2.622 1.435 5317
4.154 -2.580 1.398 5679
4.177 -2.594 1.390 8014
4.186 -2.600 1.378 6962
4.255 -2.642 1.383 4882
4.264 -2.648 1.370 4453
4.346 -2.699 1.378 3287
4.362 -2.709 1.367 3766
4.391 -2.727 1.360 2917
4.440 -2.757 1.358 2706
4.476 -2.779 1.351 3833
4.472 -2.777 1.334 4219
4.501 -2.795 1.326 5240
4.504 -2.797 1.311 6983
4.514 -2.803 1.297 6370
4.523 -2.809 1.284 5012
4.506 -2.798 1.263 3764
4.509 -2.800 1.248 3014
4.709 -2.924 1.281 2865
4.863 -3.020 1.301 2957
4.939 -3.067 1.302 3803
4.942 -3.069 1.285 5162
4.958 -3.079 1.272 6103
4.960 -3.080 1.255 4241
5.089 -3.160 1.266 4360
5.125 -3.182 1.256 3953
5.127 -3.184 1.238 3894
5.130 -3.186 1.221 4008
5.212 -3.237 1.220 3072
5.308 -3.296 1.221 3029
5.589 -3.471 1.259 3650
5.591 -3.472 1.240 3853
5.587 -3.470 1.220 3913
5.610 -3.484 1.205 3113
5.672 -3.523 1.197 2585
5.682 -3.528 1.179 2961
5.837 -3.625 1.187 2890
6.092 -3.783 1.212 2660
6.102 -3.789 1.192 3448
6.118 -3.799 1.174 2821
6.333 -3.933 1.188 3232
6.456 -4.009 1.186 2787
6.452 -4.006 1.163 2903
6.454 -4.008 1.141 2342
6.463 -4.014 1.120 1808
6.879 -4.272 1.160 1322
6.942 -4.311 1.145 2129
6.944 -4.312 1.122 3377
6.953 -4.318 1.099 2955
7.423 -4.610 1.138 2726
7.426 -4.611 1.113 3724
7.428 -4.613 1.088 3912
7.444 -4.623 1.064 4090
7.446 -4.624 1.039 4238
7.442 -4.621 1.012 4786
7.430 -4.614 0.985 4590
7.412 -4.603 0.958 4909
7.428 -4.613 0.934 4772
7.443 -4.622 0.910 5470
7.445 -4.623 0.884 4954
7.454 -4.629 0.860 4272
7.455 -4.630 0.834 2983
7.457 -4.631 0.809 1491
7.459 -4.632 0.783 1043
7.460 -4.633 0.758 799
8.025 -4.984 0.777 605
8.027 -4.985 0.750 332
1.744 -1.084 1.592 3102
1.747 -1.087 1.586 6204
1.757 -1.092 1.585 5719
1.760 -1.095 1.579 4158
1.884 -1.172 1.674 4803
1.888 -1.174 1.667 5622
1.897 -1.180 1.666 6532
1.901 -1.182 1.659 6488
1.905 -1.185 1.653 6624
1.909 -1.187 1.646 6804
1.918 -1.193 1.644 5286
1.933 -1.202 1.647 4274
1.953 -1.215 1.654 5036
1.957 -1.217 1.647 5869
1.961 -1.219 1.641 5949
1.970 -1.225 1.638 6046
1.968 -1.224 1.627 7358
1.972 -1.226 1.621 8686
1.976 -1.228 1.614 8686
1.979 -1.231 1.608 9128
1.983 -1.233 1.601 9570
2.009 -1.249 1.611 8409
2.024 -1.259 1.613 8871
2.028 -1.261 1.606 11368
2.037 -1.267 1.604 13974
2.041 -1.269 1.597 15238
2.044 -1.271 1.590 16503
2.048 -1.273 1.583 13787
2.046 -1.272 1.572 11165
2.055 -1.278 1.569 7950
2.087 -1.298 1.583 5090
2.108 -1.311 1.588 3947
2.141 -1.331 1.601 4555
2.115 -1.315 1.574 4259
2.177 -1.354 1.606 5984
2.181 -1.356 1.599 7045
2.178 -1.355 1.588 6704
2.153 -1.339 1.561 6758
2.180 -1.355 1.569 7517
2.183 -1.358 1.562 8532
2.175 -1.353 1.547 6912
2.249 -1.399 1.586 6324
2.235 -1.390 1.567 6302
2.238 -1.392 1.559 6880
2.242 -1.394 1.552 7458
2.251 -1.400 1.548 6199
2.284 -1.421 1.559 5161
2.389 -1.485 1.615 6883
2.380 -1.480 1.599 7902
2.378 -1.479 1.588 9657
2.394 -1.488 1.587 8288
2.433 -1.513 1.601 9429
2.437 -1.515 1.592 8272
2.434 -1.514 1.581 7533
2.426 -1.508 1.565 7880
2.429 -1.511 1.557 8333
2.463 -1.532 1.567 8572
2.466 -1.534 1.558 12698
2.458 -1.528 1.543 14862
2.455 -1.527 1.531 14754
2.459 -1.529 1.523 15613
2.468 -1.535 1.518 13244
2.472 -1.537 1.510 10295
2.481 -1.543 1.505 11341
2.491 -1.549 1.500 16604
2.500 -1.555 1.495 23538
2.503 -1.557 1.486 26202
2.507 -1.559 1.478 22783
2.504 -1.557 1.466 17191
2.507 -1.559 1.458 11323
2.639 -1.641 1.518 6159
2.747 -1.708 1.564 6501
2.744 -1.706 1.551 6160
2.748 -1.709 1.542 7378
2.751 -1.711 1.533 10907
2.755 -1.713 1.523 12433
2.764 -1.719 1.517 13628
2.774 -1.725 1.511 14521
2.771 -1.723 1.498 13202
2.780 -1.729 1.492 11859
2.784 -1.731 1.483 9277
2.924 -1.818 1.540 11412
2.927 -1.820 1.530 10673
2.931 -1.822 1.520 8459
2.928 -1.821 1.507 5852
3.019 -1.877 1.538 4804
3.022 -1.879 1.528 6960
3.026 -1.881 1.518 6394
3.048 -1.895 1.516 5614
3.064 -1.905 1.512 6883
3.073 -1.911 1.504 7609
3.064 -1.905 1.488 6338
3.055 -1.900 1.472 5036
3.178 -1.976 1.514 4846
3.181 -1.978 1.504 5726
3.153 -1.961 1.479 11082
3.156 -1.963 1.468 13593
3.160 -1.965 1.458 9910
3.188 -1.983 1.458 7256
3.249 -2.020 1.471 6532
3.258 -2.026 1.462 10148
3.261 -2.028 1.451 12849
3.277 -2.038 1.445 11658
3.274 -2.036 1.432 7927
3.271 -2.034 1.418 7255
3.274 -2.036 1.407 6749
3.443 -2.141 1.460 5746
3.568 -2.219 1.495 5538
3.559 -2.213 1.478 4490
3.581 -2.227 1.474 2987
3.623 -2.253 1.476 3283
3.626 -2.255 1.463 3490
3.713 -2.309 1.482 3907
3.716 -2.311 1.469 4561
3.732 -2.321 1.461 3642
3.742 -2.327 1.451 3595
3.745 -2.329 1.438 2958
3.845 -2.391 1.459 4170
3.848 -2.393 1.446 4647
3.839 -2.387 1.428 6722
3.868 -2.405 1.424 7319
3.871 -2.407 1.411 6919
3.868 -2.405 1.395 7193
3.884 -2.415 1.387 5823
3.880 -2.413 1.371 4949
4.059 -2.524 1.414 4695
3.893 -2.421 1.347 4889
4.221 -2.625 1.435 5198
4.152 -2.582 1.398 5589
4.175 -2.596 1.390 7774
4.185 -2.602 1.378 6586
4.253 -2.645 1.383 4966
4.263 -2.651 1.370 4313
4.344 -2.701 1.378 3712
4.354 -2.707 1.365 3988
4.383 -2.725 1.358 3171
4.438 -2.760 1.358 3019
4.474 -2.782 1.351 3864
4.477 -2.784 1.336 4031
4.506 -2.802 1.328 5240
4.502 -2.800 1.311 6810
4.512 -2.806 1.297 6070
4.521 -2.812 1.284 5233
4.511 -2.805 1.265 4164
4.501 -2.799 1.246 2838
4.707 -2.927 1.281 2748
4.862 -3.023 1.301 2878
4.937 -3.070 1.302 3634
4.940 -3.072 1.285 5027
4.956 -3.082 1.272 5991
4.959 -3.083 1.255 4111
5.093 -3.167 1.267 4632
5.123 -3.185 1.256 4309
5.125 -3.187 1.238 3964
5.128 -3.189 1.221 3905
5.210 -3.240 1.220 2994
5.306 -3.299 1.221 3023
5.586 -3.474 1.259 3718
5.589 -3.476 1.240 3843
5.585 -3.473 1.220 3720
5.608 -3.487 1.205 3069
5.664 -3.522 1.196 2410
5.679 -3.532 1.179 2816
5.835 -3.628 1.187 2802
6.090 -3.787 1.212 2665
6.099 -3.793 1.192 3450
6.109 -3.799 1.173 2817
6.337 -3.941 1.190 3177
6.300 -3.918 1.161 2620
6.449 -4.010 1.163 2637
6.452 -4.012 1.141 2106
6.461 -4.018 1.120 1644
6.723 -4.181 1.137 1326
6.939 -4.315 1.145 2118
6.942 -4.317 1.122 3323
6.951 -4.322 1.099 2833
7.421 -4.614 1.138 2617
7.423 -4.616 1.113 3579
7.432 -4.622 1.089 3768
7.441 -4.627 1.064 3978
7.443 -4.629 1.039 4036
7.439 -4.626 1.012 4416
7.428 -4.619 0.985 4126
7.410 -4.608 0.958 4290
7.425 -4.617 0.934 4215
7.440 -4.627 0.910 5010
7.442 -4.628 0.884 4665
7.451 -4.633 0.860 4090
7.453 -4.634 0.834 2885
7.461 -4.640 0.809 1424
7.463 -4.641 0.784 927
7.457 -4.637 0.758 693
8.022 -4.989 0.777 504
8.024 -4.990 0.750 273
1.748 -1.090 1.596 2895
1.752 -1.092 1.591 5791
1.761 -1.098 1.589 5433
1.764 -1.100 1.583 3937
1.883 -1.174 1.674 4613
1.887 -1.176 1.667 5499
1.896 -1.182 1.666 6390
1.894 -1.181 1.655 6382
1.903 -1.187 1.653 6481
1.907 -1.189 1.646 6670
1.917 -1.195 1.644 5148
1.931 -1.204 1.647 4119
1.952 -1.217 1.654 4910
1.956 -1.219 1.647 5750
1.965 -1.225 1.645 5739
1.969 -1.227 1.638 5768
1.972 -1.230 1.632 7183
1.976 -1.232 1.625 8599
1.980 -1.234 1.618 8599
1.983 -1.237 1.612 9078
1.987 -1.239 1.605 9558
2.008 -1.252 1.611 8288
2.023 -1.261 1.613 8541
2.026 -1.263 1.606 11018
2.036 -1.269 1.604 13643
2.039 -1.271 1.597 14861
2.043 -1.274 1.590 16080
2.046 -1.276 1.583 13551
2.044 -1.275 1.572 11073
2.053 -1.280 1.569 8171
2.086 -1.301 1.583 5219
2.095 -1.306 1.580 3898
2.139 -1.334 1.601 4358
2.108 -1.314 1.570 4391
2.175 -1.356 1.606 5875
2.179 -1.359 1.599 6917
2.177 -1.357 1.588 6605
2.157 -1.345 1.565 6699
2.172 -1.354 1.565 7407
2.182 -1.360 1.562 8362
2.173 -1.355 1.547 6862
2.253 -1.405 1.590 6342
2.233 -1.393 1.567 5590
2.237 -1.395 1.559 6211
2.240 -1.397 1.552 6831
2.250 -1.403 1.548 5816
2.283 -1.423 1.559 5649
2.387 -1.488 1.615 7312
2.379 -1.483 1.599 8454
2.376 -1.482 1.588 10298
2.392 -1.491 1.587 9000
2.431 -1.516 1.601 9715
2.435 -1.518 1.592 8429
2.432 -1.517 1.581 7636
2.424 -1.511 1.565 7785
2.427 -1.514 1.557 8078
2.461 -1.535 1.567 7824
2.465 -1.537 1.558 11840
2.456 -1.531 1.543 14306
2.453 -1.530 1.531 15074
2.457 -1.532 1.523 16555
2.466 -1.538 1.518 13748
2.470 -1.540 1.510 10383
2.479 -1.546 1.505 10726
2.489 -1.552 1.500 15215
2.498 -1.558 1.495 22516
2.501 -1.560 1.486 25556
2.505 -1.562 1.478 22109
2.502 -1.560 1.466 16223
2.505 -1.562 1.458 10340
2.741 -1.709 1.573 6100
2.745 -1.711 1.564 6596
2.742 -1.710 1.551 6526
2.746 -1.712 1.542 7726
2.749 -1.714 1.533 11033
2.752 -1.716 1.523 12512
2.762 -1.722 1.517 13676
2.772 -1.728 1.511 14566
2.769 -1.726 1.498 13191
2.778 -1.732 1.492 11638
2.782 -1.735 1.483 9078
2.922 -1.822 1.540 11632
2.925 -1.824 1.530 10187
2.928 -1.826 1.520 7742
2.926 -1.824 1.507 5474
3.016 -1.881 1.538 5491
3.020 -1.883 1.528 7677
3.023 -1.885 1.518 6682
3.039 -1.895 1.513 5580
3.068 -1.913 1.514 6886
3.071 -1.915 1.504 7673
3.062 -1.909 1.488 6400
3.053 -1.903 1.472 5051
3.175 -1.980 1.514 5210
3.185 -1.986 1.506 6196
3.151 -1.965 1.479 10411
3.154 -1.967 1.468 13025
3.157 -1.969 1.458 9863
3.192 -1.990 1.460 7713
3.195 -1.993 1.449 6822
3.256 -2.030 1.462 9671
3.265 -2.036 1.454 12715
3.275 -2.042 1.445 11797
3.272 -2.040 1.432 7830
3.269 -2.038 1.418 6984
3.272 -2.040 1.407 6623
3.441 -2.145 1.460 5008
3.572 -2.227 1.498 6115
3.556 -2.217 1.478 4842
3.578 -2.231 1.474 3013
3.620 -2.257 1.476 3361
3.623 -2.259 1.463 3606
3.710 -2.313 1.482 3725
3.713 -2.315 1.469 4291
3.729 -2.326 1.461 3634
3.739 -2.332 1.451 3560
3.742 -2.334 1.438 2911
3.849 -2.400 1.461 4128
3.852 -2.402 1.448 4651
3.849 -2.400 1.433 6488
3.865 -2.410 1.424 7425
3.874 -2.416 1.413 7094
3.871 -2.414 1.398 6891
3.881 -2.420 1.387 5779
3.877 -2.418 1.371 4811
4.062 -2.533 1.416 4983
3.883 -2.421 1.345 4310
4.211 -2.626 1.433 5140
4.149 -2.587 1.398 5487
4.172 -2.601 1.390 7419
4.182 -2.607 1.378 6111
4.256 -2.654 1.385 4894
4.259 -2.656 1.370 4231
4.341 -2.707 1.378 4238
4.350 -2.713 1.365 4433
4.373 -2.727 1.356 3728
4.435 -2.765 1.358 3217
4.470 -2.788 1.351 3876
4.473 -2.789 1.336 3896
4.503 -2.808 1.328 5290
4.499 -2.805 1.311 6595
4.508 -2.811 1.297 5856
4.518 -2.817 1.284 5643
4.507 -2.811 1.265 4758
4.497 -2.804 1.246 2745
4.704 -2.933 1.281 2644
4.864 -3.033 1.303 2840
4.933 -3.076 1.302 3491
4.936 -3.078 1.285 4910
4.945 -3.084 1.270 5887
5.067 -3.159 1.280 4050
5.090 -3.174 1.267 4980
5.112 -3.188 1.254 4691
5.121 -3.193 1.238 4002
5.124 -3.195 1.221 3763
5.206 -3.246 1.220 2968
5.295 -3.302 1.220 2972
5.582 -3.481 1.259 3894
5.585 -3.483 1.240 3895
5.588 -3.484 1.221 3568
5.604 -3.494 1.205 2972
5.659 -3.529 1.196 2259
5.675 -3.539 1.179 2652
5.830 -3.636 1.187 2717
6.085 -3.795 1.212 2602
6.095 -3.800 1.192 3387
6.104 -3.806 1.173 2789
6.346 -3.957 1.192 3167
6.295 -3.925 1.161 2637
6.444 -4.018 1.163 2369
6.600 -4.115 1.165 1883
6.456 -4.026 1.120 1460
6.725 -4.193 1.138 1427
6.934 -4.324 1.145 2079
6.936 -4.325 1.122 3197
6.945 -4.331 1.099 2660
7.415 -4.624 1.138 2497
7.417 -4.625 1.113 3415
7.426 -4.631 1.089 3589
7.435 -4.636 1.064 3795
7.438 -4.638 1.039 3777
7.433 -4.635 1.012 4008
7.429 -4.632 0.986 3681
7.404 -4.617 0.958 3662
7.426 -4.631 0.935 3717
7.435 -4.636 0.910 4556
7.437 -4.637 0.884 4346
7.445 -4.642 0.860 3857
7.447 -4.643 0.834 2760
7.455 -4.649 0.809 1394
7.457 -4.650 0.784 871
7.452 -4.646 0.758 637
7.460 -4.652 0.733 434
1.746 -1.092 1.596 2701
1.750 -1.095 1.591 5402
1.759 -1.100 1.589 5125
1.763 -1.103 1.583 3695
1.881 -1.177 1.674 4385
1.885 -1.179 1.667 5278
1.889 -1.181 1.661 6171
1.893 -1.184 1.655 6222
1.896 -1.186 1.648 6356
1.906 -1.192 1.646 6506
1.909 -1.194 1.640 5027
1.930 -1.207 1.647 3979
1.950 -1.220 1.654 4743
1.954 -1.222 1.647 5595
1.963 -1.228 1.645 5517
1.967 -1.230 1.638 5500
1.971 -1.233 1.632 6985
1.974 -1.235 1.625 8471
1.978 -1.237 1.618 8471
1.982 -1.239 1.612 8960
1.985 -1.242 1.605 9450
2.006 -1.255 1.611 8120
2.021 -1.264 1.613 8188
2.024 -1.266 1.606 10606
2.034 -1.272 1.604 13218
2.037 -1.274 1.597 14371
2.041 -1.277 1.590 15525
2.045 -1.279 1.583 13218
2.042 -1.277 1.572 10922
2.052 -1.283 1.569 8370
2.067 -1.293 1.570 5593
2.088 -1.306 1.576 4096
2.137 -1.337 1.601 4073
2.106 -1.317 1.570 4363
2.173 -1.359 1.606 5700
2.177 -1.362 1.599 6715
2.175 -1.360 1.588 6408
2.155 -1.348 1.565 6541
2.170 -1.358 1.565 7159
2.174 -1.360 1.558 8041
2.253 -1.409 1.601 7032
2.263 -1.415 1.597 6579
2.290 -1.432 1.605 5402
2.235 -1.398 1.559 5583
2.238 -1.400 1.552 6255
2.254 -1.410 1.552 5473
2.281 -1.427 1.559 6008
2.385 -1.492 1.615 7618
2.377 -1.487 1.599 8856
2.380 -1.489 1.591 10758
2.390 -1.495 1.587 9476
2.429 -1.519 1.601 9882
2.433 -1.522 1.592 8531
2.430 -1.520 1.581 7664
2.422 -1.515 1.565 7620
2.425 -1.517 1.557 7770
2.435 -1.523 1.552 7099
2.462 -1.540 1.558 10874
2.454 -1.535 1.543 13642
2.451 -1.533 1.531 15130
2.455 -1.535 1.523 17082
2.464 -1.541 1.518 13915
2.468 -1.543 1.510 10250
2.477 -1.549 1.505 10110
2.486 -1.555 1.500 14003
2.496 -1.561 1.495 21547
2.505 -1.567 1.490 24890
2.503 -1.565 1.478 21345
2.500 -1.564 1.466 15244
2.503 -1.566 1.458 9474
2.739 -1.713 1.573 6117
2.742 -1.715 1.564 6640
2.740 -1.714 1.551 6841
2.743 -1.716 1.542 7939
2.747 -1.718 1.533 10911
2.750 -1.720 1.523 12335
2.760 -1.726 1.517 13445
2.769 -1.732 1.511 14363
2.766 -1.730 1.498 12972
2.776 -1.736 1.492 11257
2.779 -1.738 1.483 8770
2.919 -1.826 1.540 11854
2.923 -1.828 1.530 9671
2.926 -1.830 1.520 7004
2.923 -1.828 1.507 5050
3.020 -1.889 1.541 6235
3.017 -1.887 1.528 8198
3.021 -1.889 1.518 6897
