6.195 -5.811 1.411 2938
6.432 -6.034 1.434 3221
6.772 -6.352 1.475 3382
6.758 -6.339 1.445 3554
6.761 -6.342 1.418 3300
6.780 -6.360 1.395 2321
6.800 -6.379 1.371 2029
6.797 -6.376 1.343 1620
6.811 -6.389 1.318 769
6.808 -6.386 1.289 514
6.805 -6.383 1.261 637
6.801 -6.380 1.233 429
1.167 -1.095 0.285 262
1.168 -1.095 0.281 312
1.168 -1.095 0.276 326
1.168 -1.096 0.272 329
1.168 -1.096 0.267 331
1.169 -1.096 0.263 306
1.169 -1.097 0.258 264
1.589 -1.495 1.685 1807
1.593 -1.498 1.679 3614
1.596 -1.501 1.672 3614
1.623 -1.526 1.689 4358
1.626 -1.529 1.683 5467
1.653 -1.554 1.699 6397
1.661 -1.562 1.697 8945
1.659 -1.560 1.686 8997
1.667 -1.568 1.684 12826
1.675 -1.575 1.682 16853
1.683 -1.583 1.680 17194
1.692 -1.591 1.678 18019
1.690 -1.589 1.667 12603
1.693 -1.592 1.660 7295
1.701 -1.600 1.658 4974
1.743 -1.639 1.686 3703
1.722 -1.619 1.658 3856
1.725 -1.622 1.651 5206
1.729 -1.625 1.644 5734
1.737 -1.633 1.642 5441
1.745 -1.641 1.639 5348
1.826 -1.717 1.701 4859
1.824 -1.715 1.689 6385
1.837 -1.728 1.690 8899
1.845 -1.735 1.687 11639
1.854 -1.743 1.684 9650
1.768 -1.663 1.602 9559
1.772 -1.666 1.595 8240
1.770 -1.664 1.584 7115
1.773 -1.667 1.577 6474
1.914 -1.800 1.685 6062
1.923 -1.808 1.681 6765
1.936 -1.820 1.682 7935
1.944 -1.828 1.678 6116
1.882 -1.770 1.618 4048
1.896 -1.783 1.619 3658
1.984 -1.865 1.679 4386
1.987 -1.868 1.671 5791
1.990 -1.871 1.663 5087
2.079 -1.955 1.722 5030
2.072 -1.948 1.706 7390
2.070 -1.947 1.694 10186
2.074 -1.950 1.686 10470
2.092 -1.967 1.689 7893
2.111 -1.985 1.692 7380
2.124 -1.997 1.691 7135
2.137 -2.010 1.690 7956
2.151 -2.023 1.689 7836
2.164 -2.035 1.688 8533
2.163 -2.034 1.676 8246
2.161 -2.032 1.664 8890
2.169 -2.040 1.659 8536
2.188 -2.057 1.662 8943
2.196 -2.065 1.656 9991
2.199 -2.068 1.648 12267
2.197 -2.066 1.636 13112
2.200 -2.069 1.627 10702
2.240 -2.106 1.643 8850
2.238 -2.104 1.631 9640
2.251 -2.117 1.629 8412
2.270 -2.135 1.630 10206
2.273 -2.138 1.621 10598
2.302 -2.165 1.630 9864
2.305 -2.168 1.621 9170
2.303 -2.166 1.608 6741
2.353 -2.213 1.629 6975
2.351 -2.211 1.617 7300
2.349 -2.209 1.604 6415
2.483 -2.335 1.677 8513
2.487 -2.338 1.667 11530
2.495 -2.346 1.661 11034
2.509 -2.359 1.658 12449
2.517 -2.367 1.651 16160
2.526 -2.375 1.644 17680
2.529 -2.378 1.634 18621
2.538 -2.386 1.627 19086
2.541 -2.389 1.617 15136
2.555 -2.402 1.613 9371
2.563 -2.410 1.606 7168
2.577 -2.423 1.602 7335
2.724 -2.561 1.675 11211
2.727 -2.564 1.664 15015
2.730 -2.567 1.653 20376
2.733 -2.570 1.642 24851
2.736 -2.573 1.631 22009
2.740 -2.576 1.621 18160
2.743 -2.579 1.610 16605
2.746 -2.582 1.599 14922
2.749 -2.585 1.588 12502
2.752 -2.588 1.577 9067
2.755 -2.591 1.566 5220
2.758 -2.594 1.555 2085
2.626 -2.469 1.475 2170
2.634 -2.477 1.467 2914
2.659 -2.500 1.468 3104
2.667 -2.508 1.460 3378
2.670 -2.511 1.450 2570
2.743 -2.580 1.474 2779
2.741 -2.577 1.460 2271
2.749 -2.585 1.452 2083
2.757 -2.593 1.444 3449
2.771 -2.605 1.438 3995
2.784 -2.618 1.432 3305
2.793 -2.626 1.424 2422
2.801 -2.634 1.415 3059
2.814 -2.646 1.409 3166
2.877 -2.706 1.426 1820
2.886 -2.713 1.417 2429
2.877 -2.706 1.400 2355
2.874 -2.703 1.387 2213
3.520 -3.310 1.655 2282
2.874 -2.703 1.361 2900
2.871 -2.700 1.348 2798
2.868 -2.697 1.334 2071
3.544 -3.333 1.604 1794
3.564 -3.351 1.597 1879
3.661 -3.442 1.621 3043
3.669 -3.450 1.609 5353
3.678 -3.459 1.597 4845
3.687 -3.467 1.584 3556
3.690 -3.470 1.570 2986
3.715 -3.493 1.563 2931
3.829 -3.601 1.591 3074
2.848 -2.678 1.203 2721
2.856 -2.685 1.194 3030
2.853 -2.682 1.181 1941
2.855 -2.684 1.169 2911
2.857 -2.686 1.158 4818
2.859 -2.688 1.147 4750
2.861 -2.691 1.136 3977
2.863 -2.692 1.124 3940
2.860 -2.689 1.111 3295
4.233 -3.981 1.567 2901
4.309 -4.052 1.574 3771
4.307 -4.050 1.555 4204
4.343 -4.084 1.549 3648
4.447 -4.182 1.565 6453
4.450 -4.185 1.547 10766
4.453 -4.188 1.529 13091
4.462 -4.196 1.513 11046
4.465 -4.198 1.496 7115
4.468 -4.201 1.478 3843
4.470 -4.204 1.460 2972
4.473 -4.206 1.442 2779
4.831 -4.543 1.527 2839
4.840 -4.551 1.510 2328
5.075 -4.772 1.556 1876
5.078 -4.775 1.536 2006
5.261 -4.948 1.565 2359
5.389 -5.068 1.577 3912
5.392 -5.070 1.556 5433
5.395 -5.073 1.534 5645
5.404 -5.081 1.514 5003
5.407 -5.084 1.493 4305
5.404 -5.081 1.470 4519
5.407 -5.084 1.448 4126
5.671 -5.332 1.490 3015
5.691 -5.351 1.471 3130
5.693 -5.354 1.448 2718
5.890 -5.538 1.470 1905
5.887 -5.536 1.445 2133
6.163 -5.795 1.482 1594
6.166 -5.798 1.457 1649
6.180 -5.811 1.435 2209
6.188 -5.819 1.411 3117
6.191 -5.822 1.387 3307
6.759 -6.355 1.474 3451
6.750 -6.347 1.445 3626
6.753 -6.350 1.418 3384
6.773 -6.369 1.395 2384
6.792 -6.387 1.371 2072
6.789 -6.384 1.343 1652
6.803 -6.397 1.318 745
6.800 -6.394 1.289 476
6.797 -6.391 1.261 626
6.799 -6.393 1.234 419
1.172 -1.102 0.286 272
1.166 -1.097 0.281 307
1.167 -1.097 0.276 316
1.167 -1.097 0.272 315
1.167 -1.097 0.267 308
1.167 -1.098 0.263 291
1.168 -1.098 0.258 265
1.639 -1.544 1.736 1620
1.643 -1.547 1.730 3240
1.646 -1.551 1.723 3240
1.621 -1.527 1.689 4002
1.625 -1.530 1.683 5015
1.656 -1.560 1.704 6660
1.659 -1.563 1.697 9421
1.663 -1.566 1.691 9421
1.666 -1.569 1.684 13301
1.674 -1.577 1.682 17330
1.682 -1.585 1.680 17557
1.690 -1.592 1.678 18306
1.689 -1.591 1.667 12855
1.692 -1.594 1.660 7518
1.700 -1.601 1.658 5103
1.741 -1.641 1.686 3658
1.721 -1.621 1.658 3874
1.724 -1.624 1.651 5266
1.727 -1.627 1.644 5833
1.735 -1.635 1.642 5591
1.743 -1.642 1.639 5551
1.824 -1.718 1.701 4966
1.823 -1.717 1.689 6495
1.836 -1.729 1.690 9036
1.844 -1.737 1.687 11850
1.852 -1.745 1.684 9880
1.875 -1.766 1.694 9153
1.873 -1.765 1.682 8044
1.876 -1.768 1.675 6953
1.880 -1.771 1.667 6545
1.893 -1.783 1.668 6243
1.866 -1.758 1.636 6884
1.934 -1.822 1.682 7841
1.942 -1.830 1.678 6074
1.965 -1.852 1.686 4237
1.894 -1.784 1.619 3583
1.982 -1.867 1.679 4452
1.980 -1.866 1.667 5916
1.988 -1.873 1.663 5285
2.072 -1.952 1.718 5264
2.070 -1.950 1.706 7725
2.069 -1.949 1.694 10578
2.072 -1.952 1.686 10677
2.090 -1.969 1.689 8137
2.109 -1.987 1.692 7797
2.122 -1.999 1.691 7587
2.136 -2.012 1.690 8332
2.149 -2.025 1.689 7932
2.162 -2.037 1.688 8724
2.161 -2.036 1.676 8719
2.159 -2.034 1.664 9367
2.167 -2.042 1.659 8980
2.181 -2.054 1.658 9436
2.194 -2.067 1.656 10557
2.197 -2.070 1.648 12874
2.201 -2.073 1.639 13572
2.199 -2.071 1.627 11003
2.238 -2.108 1.643 9435
2.236 -2.106 1.631 10321
2.249 -2.119 1.629 8960
2.268 -2.137 1.630 10812
2.271 -2.140 1.621 11337
2.300 -2.167 1.630 10117
2.303 -2.170 1.621 9312
2.301 -2.168 1.608 6980
2.351 -2.215 1.629 6909
2.349 -2.213 1.617 7131
2.347 -2.211 1.604 6066
2.481 -2.338 1.677 8490
2.485 -2.341 1.667 11526
2.493 -2.349 1.661 10951
2.507 -2.362 1.658 12260
2.515 -2.370 1.651 16221
2.524 -2.378 1.644 17843
2.527 -2.381 1.634 18683
2.535 -2.389 1.627 19040
2.539 -2.392 1.617 15135
2.547 -2.399 1.610 9071
2.555 -2.407 1.603 6519
2.718 -2.560 1.685 7807
2.721 -2.564 1.675 12233
2.724 -2.567 1.664 16221
2.728 -2.570 1.653 21431
2.731 -2.573 1.642 25634
2.734 -2.576 1.631 23071
2.737 -2.579 1.621 19777
2.740 -2.582 1.610 17957
2.743 -2.585 1.599 15855
2.747 -2.587 1.588 13492
2.750 -2.590 1.577 9856
2.753 -2.593 1.566 5636
2.756 -2.596 1.555 2304
2.624 -2.472 1.475 2498
2.632 -2.480 1.467 3328
2.646 -2.492 1.462 3092
2.659 -2.505 1.457 3126
2.662 -2.508 1.447 2403
2.735 -2.577 1.471 2789
2.738 -2.580 1.460 2306
2.741 -2.582 1.449 2153
2.749 -2.590 1.441 3507
2.768 -2.608 1.438 3987
2.782 -2.621 1.432 3352
2.790 -2.629 1.424 2430
2.798 -2.636 1.415 2875
2.806 -2.644 1.407 2844
2.875 -2.708 1.426 1826
2.883 -2.716 1.417 2476
2.880 -2.713 1.403 2258
2.872 -2.706 1.387 1984
3.517 -3.313 1.655 2483
2.872 -2.705 1.361 2853
2.869 -2.703 1.348 2695
2.866 -2.700 1.334 1903
3.541 -3.336 1.604 2022
3.561 -3.354 1.597 2091
3.657 -3.446 1.621 2781
3.666 -3.454 1.609 5071
3.675 -3.462 1.597 4739
3.683 -3.470 1.584 3579
3.736 -3.520 1.589 3290
3.712 -3.497 1.563 2855
3.826 -3.604 1.591 3137
2.851 -2.686 1.205 2565
2.853 -2.688 1.194 3050
2.850 -2.685 1.181 2050
2.852 -2.687 1.169 2943
2.854 -2.689 1.158 4864
2.857 -2.691 1.147 4889
2.859 -2.693 1.136 4199
2.861 -2.695 1.124 4184
2.857 -2.692 1.111 3490
4.224 -3.979 1.565 2811
4.305 -4.056 1.574 3541
4.303 -4.054 1.555 3921
4.339 -4.088 1.549 3409
4.443 -4.186 1.565 5400
4.446 -4.189 1.547 9209
4.449 -4.192 1.529 11350
4.458 -4.200 1.513 9886
4.461 -4.202 1.496 6528
4.464 -4.205 1.478 3661
4.467 -4.208 1.460 2718
4.469 -4.210 1.442 2451
4.827 -4.548 1.527 2730
4.830 -4.550 1.508 2355
5.014 -4.723 1.540 2110
5.056 -4.763 1.531 1973
5.263 -4.958 1.566 2303
5.384 -5.073 1.577 4093
5.393 -5.081 1.557 5677
5.390 -5.078 1.534 5897
5.399 -5.086 1.514 5252
5.402 -5.089 1.493 4510
5.399 -5.086 1.470 4716
5.402 -5.089 1.448 4421
5.666 -5.338 1.490 2916
5.686 -5.356 1.471 3162
5.688 -5.359 1.448 2762
5.884 -5.544 1.470 1991
5.882 -5.541 1.445 2262
6.152 -5.795 1.480 1672
6.160 -5.804 1.457 1711
6.186 -5.828 1.437 2308
6.183 -5.825 1.411 3224
6.186 -5.827 1.387 3335
6.753 -6.362 1.474 3529
6.744 -6.354 1.445 3682
6.747 -6.356 1.418 3416
6.767 -6.375 1.395 2428
6.787 -6.393 1.371 2126
6.783 -6.391 1.343 1691
6.797 -6.404 1.318 730
6.794 -6.401 1.289 443
6.791 -6.397 1.261 604
6.793 -6.400 1.234 417
1.171 -1.103 0.286 257
1.165 -1.098 0.281 287
1.166 -1.098 0.276 288
1.166 -1.098 0.272 291
1.166 -1.099 0.267 290
1.166 -1.099 0.263 272
1.638 -1.545 1.736 1788
1.641 -1.549 1.730 3576
1.645 -1.552 1.723 3576
1.620 -1.529 1.689 3897
1.623 -1.532 1.683 4862
1.655 -1.561 1.704 7006
1.658 -1.564 1.697 9914
1.662 -1.568 1.691 9914
1.665 -1.571 1.684 13764
1.673 -1.578 1.682 17757
1.681 -1.586 1.680 17874
1.689 -1.593 1.678 18546
1.687 -1.592 1.667 13083
1.691 -1.595 1.660 7732
1.694 -1.598 1.654 5240
1.740 -1.642 1.686 3627
1.719 -1.622 1.658 3925
1.723 -1.625 1.651 5368
1.726 -1.628 1.644 5981
1.734 -1.636 1.642 5794
1.742 -1.643 1.639 5805
1.823 -1.720 1.701 5044
1.821 -1.718 1.689 6568
1.834 -1.731 1.690 9127
1.842 -1.738 1.687 12002
1.851 -1.746 1.684 10066
1.874 -1.768 1.694 9429
1.872 -1.766 1.682 8329
1.870 -1.765 1.671 7272
1.878 -1.772 1.667 6799
1.867 -1.761 1.648 6445
1.865 -1.760 1.636 7089
1.933 -1.823 1.682 7808
1.941 -1.831 1.678 6096
1.964 -1.853 1.686 4548
1.972 -1.861 1.683 3545
1.981 -1.869 1.679 4612
1.979 -1.867 1.667 6054
1.987 -1.875 1.663 5477
2.005 -1.892 1.667 5536
2.069 -1.952 1.706 8047
2.067 -1.950 1.694 10955
2.075 -1.958 1.689 10894
2.089 -1.971 1.689 8392
2.107 -1.988 1.692 8241
2.116 -1.996 1.687 8061
2.129 -2.009 1.687 8756
2.148 -2.026 1.689 8013
2.161 -2.039 1.688 8850
2.159 -2.037 1.676 9118
2.157 -2.035 1.664 9772
2.166 -2.043 1.659 9356
2.179 -2.056 1.658 9845
2.193 -2.069 1.656 11006
2.201 -2.077 1.651 13412
2.199 -2.075 1.639 13969
2.197 -2.073 1.627 11251
2.236 -2.110 1.643 9981
2.234 -2.108 1.631 10894
2.248 -2.121 1.629 9431
2.266 -2.138 1.630 11323
2.270 -2.141 1.621 11933
2.299 -2.169 1.630 10334
2.302 -2.172 1.621 9511
2.305 -2.175 1.611 7088
2.350 -2.217 1.629 6819
2.348 -2.215 1.617 6884
2.340 -2.208 1.601 5747
2.485 -2.344 1.681 8405
2.488 -2.347 1.671 11398
2.491 -2.351 1.661 10780
2.505 -2.363 1.658 12059
2.514 -2.371 1.651 16210
2.522 -2.379 1.644 17944
2.525 -2.382 1.634 18711
2.534 -2.390 1.627 19001
2.537 -2.393 1.617 15200
2.545 -2.401 1.610 8907
2.554 -2.409 1.603 6032
2.716 -2.562 1.685 8314
2.719 -2.566 1.675 13204
2.723 -2.569 1.664 17376
2.726 -2.572 1.653 22400
2.729 -2.575 1.642 26253
2.732 -2.578 1.631 23981
2.735 -2.581 1.621 21305
2.738 -2.584 1.610 19165
2.742 -2.587 1.599 16614
2.745 -2.589 1.588 14346
2.748 -2.592 1.577 10536
2.751 -2.595 1.566 5979
2.754 -2.598 1.555 2489
2.617 -2.469 1.472 2921
2.625 -2.476 1.465 3788
2.638 -2.489 1.460 3296
2.647 -2.497 1.452 3034
2.655 -2.505 1.444 2304
2.733 -2.579 1.471 2819
2.736 -2.582 1.460 2360
2.739 -2.584 1.449 2227
2.747 -2.592 1.441 3515
2.766 -2.610 1.438 3832
2.780 -2.623 1.432 3248
2.783 -2.625 1.421 2372
2.791 -2.633 1.413 2716
2.805 -2.646 1.407 2578
2.878 -2.716 1.428 1753
2.881 -2.718 1.417 2402
2.878 -2.716 1.403 2068
2.870 -2.708 1.387 1736
3.515 -3.316 1.655 2688
2.870 -2.707 1.361 2749
2.872 -2.710 1.350 2538
3.519 -3.320 1.611 1933
3.538 -3.338 1.604 2224
3.553 -3.352 1.595 2218
3.633 -3.427 1.612 2626
3.664 -3.456 1.609 4806
3.672 -3.465 1.597 4663
3.681 -3.473 1.584 3600
3.734 -3.523 1.589 3735
3.715 -3.505 1.566 2899
3.823 -3.607 1.591 3292
2.849 -2.688 1.205 2418
2.851 -2.690 1.194 2987
3.854 -3.636 1.554 2134
2.850 -2.689 1.169 2941
2.852 -2.691 1.158 4824
2.855 -2.693 1.147 4894
2.857 -2.695 1.136 4248
2.859 -2.697 1.124 4304
2.855 -2.694 1.111 3517
4.221 -3.982 1.565 2611
4.302 -4.059 1.574 3203
4.305 -4.062 1.557 3518
4.336 -4.091 1.549 3183
4.440 -4.189 1.565 4532
4.443 -4.192 1.547 7817
4.446 -4.195 1.529 9733
4.455 -4.203 1.513 8759
4.458 -4.206 1.496 5871
4.466 -4.214 1.479 3502
4.463 -4.211 1.460 2474
4.466 -4.214 1.442 2050
4.824 -4.551 1.527 2909
4.827 -4.554 1.508 2566
5.010 -4.727 1.540 2075
5.053 -4.767 1.531 2166
5.355 -5.052 1.593 2405
5.381 -5.076 1.577 4274
5.389 -5.085 1.557 5723
5.387 -5.082 1.534 5986
5.390 -5.085 1.513 5455
5.393 -5.088 1.491 4646
5.395 -5.090 1.470 4873
5.398 -5.093 1.448 4674
5.668 -5.347 1.491 2800
5.682 -5.361 1.471 3213
5.690 -5.369 1.450 2888
5.880 -5.548 1.470 2058
5.878 -5.545 1.445 2392
6.148 -5.800 1.480 1754
6.156 -5.808 1.457 1755
6.182 -5.832 1.437 2435
6.179 -5.829 1.411 3335
6.181 -5.832 1.387 3375
6.748 -6.367 1.474 3534
6.740 -6.359 1.445 3658
6.742 -6.361 1.418 3384
6.762 -6.380 1.395 2394
6.782 -6.398 1.371 2082
6.779 -6.395 1.343 1678
6.793 -6.409 1.318 716
6.789 -6.406 1.289 413
6.786 -6.402 1.261 572
6.788 -6.405 1.234 403
1.164 -1.098 0.285 254
1.164 -1.099 0.281 273
1.165 -1.099 0.276 270
1.165 -1.099 0.272 281
1.165 -1.099 0.267 291
1.166 -1.100 0.263 262
1.636 -1.548 1.736 1965
1.639 -1.551 1.730 3930
1.643 -1.554 1.723 3930
1.651 -1.562 1.721 4189
1.677 -1.587 1.738 5056
1.653 -1.564 1.704 7354
1.656 -1.567 1.697 10344
1.659 -1.570 1.691 10344
1.662 -1.573 1.684 14176
1.671 -1.581 1.682 18133
1.679 -1.588 1.680 18119
1.687 -1.596 1.678 18695
1.685 -1.594 1.667 13223
1.688 -1.598 1.660 7856
1.691 -1.601 1.654 5331
1.738 -1.644 1.686 3556
1.712 -1.620 1.654 3952
1.720 -1.628 1.651 5427
1.724 -1.631 1.644 6088
1.732 -1.638 1.642 5952
1.740 -1.646 1.639 6003
1.820 -1.722 1.701 5055
1.819 -1.721 1.689 6572
1.832 -1.733 1.690 9149
1.840 -1.741 1.687 12082
1.848 -1.749 1.684 10204
1.871 -1.770 1.694 9696
1.869 -1.769 1.682 8584
1.868 -1.767 1.671 7556
1.871 -1.770 1.663 7028
1.864 -1.764 1.648 6643
1.867 -1.767 1.641 7252
1.930 -1.826 1.682 7759
1.938 -1.834 1.678 6116
1.961 -1.856 1.686 4856
1.970 -1.864 1.683 3885
1.978 -1.872 1.679 4837
1.976 -1.870 1.667 6204
1.989 -1.882 1.667 5686
2.003 -1.895 1.667 5896
2.066 -1.955 1.706 8290
2.064 -1.953 1.694 11235
2.073 -1.961 1.689 11080
2.091 -1.979 1.693 8655
2.104 -1.991 1.692 8682
2.113 -1.999 1.687 8502
2.126 -2.012 1.687 9136
2.145 -2.029 1.689 8039
2.153 -2.037 1.685 8903
2.151 -2.035 1.672 9453
2.154 -2.039 1.664 10123
2.163 -2.046 1.659 9729
2.176 -2.059 1.658 10279
2.190 -2.072 1.656 11399
2.198 -2.080 1.651 13782
2.196 -2.078 1.639 14127
2.194 -2.076 1.627 11311
2.233 -2.113 1.643 10485
2.231 -2.111 1.631 11464
2.245 -2.124 1.629 10008
2.263 -2.142 1.630 11844
2.266 -2.145 1.621 12410
2.296 -2.172 1.630 10267
2.299 -2.175 1.621 9388
2.302 -2.178 1.611 7194
2.341 -2.216 1.626 6794
2.345 -2.218 1.617 6673
2.332 -2.207 1.597 5545
2.481 -2.348 1.681 8230
2.485 -2.351 1.671 11170
2.488 -2.354 1.661 10478
2.502 -2.367 1.658 11645
2.510 -2.375 1.651 15901
2.519 -2.383 1.644 17795
2.522 -2.386 1.634 18552
2.530 -2.394 1.627 18837
2.533 -2.397 1.617 15214
2.536 -2.400 1.607 8915
2.545 -2.408 1.600 5831
2.712 -2.566 1.685 8717
2.716 -2.570 1.675 14063
2.719 -2.573 1.664 18446
2.722 -2.576 1.653 23266
2.725 -2.579 1.642 26660
2.728 -2.582 1.631 24646
2.732 -2.585 1.621 22635
2.735 -2.588 1.610 20189
2.738 -2.591 1.599 17209
2.741 -2.594 1.588 15028
2.744 -2.596 1.577 11071
2.747 -2.599 1.566 6239
2.610 -2.470 1.482 2971
2.613 -2.473 1.472 3427
2.621 -2.480 1.465 4299
2.629 -2.488 1.457 3645
2.638 -2.496 1.449 3058
2.651 -2.509 1.444 2218
2.730 -2.583 1.471 2786
2.733 -2.586 1.460 2390
2.735 -2.588 1.449 2323
2.743 -2.596 1.441 3559
2.763 -2.614 1.438 3690
2.776 -2.627 1.432 3128
2.779 -2.630 1.421 2349
2.787 -2.637 1.413 2590
2.795 -2.645 1.404 2312
2.874 -2.720 1.428 1695
2.877 -2.722 1.417 2362
2.874 -2.720 1.403 1933
3.501 -3.313 1.667 1794
3.510 -3.321 1.655 2820
2.871 -2.717 1.364 2576
2.868 -2.714 1.350 2337
3.514 -3.325 1.611 2111
3.534 -3.344 1.604 2400
3.548 -3.357 1.595 2417
3.617 -3.422 1.608 2832
3.659 -3.462 1.609 4488
3.667 -3.470 1.597 4583
3.676 -3.478 1.584 3659
3.734 -3.533 1.591 4205
3.815 -3.610 1.607 3037
3.818 -3.612 1.591 3305
3.832 -3.626 1.580 2426
2.847 -2.694 1.194 2844
3.849 -3.642 1.554 2486
2.846 -2.693 1.169 2935
2.848 -2.695 1.158 4801
2.851 -2.697 1.147 4824
2.853 -2.699 1.136 4135
2.855 -2.701 1.124 4221
2.851 -2.698 1.111 3459
4.215 -3.989 1.565 2454
4.296 -4.065 1.574 2846
4.299 -4.068 1.557 3088
4.336 -4.103 1.551 2890
4.434 -4.196 1.565 3839
4.437 -4.199 1.547 6613
4.440 -4.201 1.529 8259
4.449 -4.210 1.513 7755
4.457 -4.218 1.497 5395
4.460 -4.220 1.479 3373
4.457 -4.218 1.460 2285
4.460 -4.220 1.442 1714
4.817 -4.558 1.527 2442
4.820 -4.561 1.508 2073
5.105 -4.830 1.568 1712
5.057 -4.785 1.534 1996
5.348 -5.060 1.593 2447
5.373 -5.084 1.577 4415
5.382 -5.093 1.557 5833
5.379 -5.090 1.534 6088
5.382 -5.093 1.513 5659
5.385 -5.096 1.491 4781
5.388 -5.098 1.470 5098
5.396 -5.106 1.450 5104
5.399 -5.109 1.428 2995
5.674 -5.369 1.471 3133
5.682 -5.377 1.450 2898
5.867 -5.551 1.468 2135
5.869 -5.554 1.445 2518
6.139 -5.809 1.480 1777
6.238 -5.903 1.477 1931
6.173 -5.841 1.437 2536
6.170 -5.838 1.411 3409
6.173 -5.841 1.387 3334
6.739 -6.377 1.474 3570
6.730 -6.368 1.445 3648
6.733 -6.371 1.418 3358
6.559 -6.206 1.358 2391
6.772 -6.408 1.371 2048
6.769 -6.405 1.343 1643
6.783 -6.419 1.318 690
6.786 -6.421 1.290 387
6.782 -6.418 1.262 546
6.785 -6.420 1.235 387
1.163 -1.100 0.281 258
1.163 -1.101 0.276 250
1.163 -1.101 0.272 255
1.164 -1.101 0.267 262
1.634 -1.550 1.736 2179
1.637 -1.553 1.730 4359
1.640 -1.557 1.723 4359
1.648 -1.564 1.721 4581
1.670 -1.585 1.733 5547
1.650 -1.566 1.704 7685
1.654 -1.569 1.697 10733
1.657 -1.572 1.691 10733
1.660 -1.576 1.684 14545
1.668 -1.583 1.682 18471
1.676 -1.591 1.680 18327
1.684 -1.598 1.678 18802
1.683 -1.597 1.667 13337
1.686 -1.600 1.660 7960
1.689 -1.603 1.654 5398
1.735 -1.647 1.686 3479
1.710 -1.623 1.654 3981
1.718 -1.630 1.651 5489
1.721 -1.633 1.644 6213
1.729 -1.641 1.642 6150
1.737 -1.649 1.639 6253
1.823 -1.730 1.705 5094
1.816 -1.724 1.689 6570
1.829 -1.736 1.690 9126
1.837 -1.744 1.687 12096
1.850 -1.756 1.689 10327
1.868 -1.773 1.694 9938
1.867 -1.772 1.682 8809
1.865 -1.770 1.671 7788
1.868 -1.773 1.663 7237
1.862 -1.767 1.648 6819
1.865 -1.770 1.641 7438
1.868 -1.773 1.633 7946
1.940 -1.842 1.682 6203
1.959 -1.859 1.686 5176
1.967 -1.867 1.683 4227
1.970 -1.870 1.675 5078
1.973 -1.873 1.667 6341
1.987 -1.885 1.667 5873
2.000 -1.898 1.667 6195
2.063 -1.958 1.706 8499
2.061 -1.956 1.694 11466
2.070 -1.964 1.689 11230
2.088 -1.982 1.693 8905
2.101 -1.994 1.692 9090
2.110 -2.002 1.687 8913
2.123 -2.015 1.687 9511
2.142 -2.032 1.689 8091
2.150 -2.040 1.685 8957
2.148 -2.039 1.672 9725
2.151 -2.042 1.664 10368
2.165 -2.054 1.663 10041
2.173 -2.062 1.658 10715
2.187 -2.075 1.656 11865
2.195 -2.083 1.651 14254
2.198 -2.086 1.643 14382
2.222 -2.108 1.648 11454
2.230 -2.116 1.643 11026
2.228 -2.115 1.631 12156
2.242 -2.127 1.629 10688
2.260 -2.145 1.630 12491
2.263 -2.148 1.621 13046
2.277 -2.161 1.619 10431
2.295 -2.178 1.621 9402
2.299 -2.181 1.611 7357
2.312 -2.194 1.609 6966
2.341 -2.222 1.617 6523
2.324 -2.205 1.594 5423
2.478 -2.352 1.681 8024
2.481 -2.355 1.671 10893
2.484 -2.358 1.661 10103
2.498 -2.371 1.658 11042
2.507 -2.379 1.651 15176
2.515 -2.387 1.644 17092
2.523 -2.395 1.637 17809
2.527 -2.398 1.627 18175
2.530 -2.401 1.617 14902
2.533 -2.404 1.607 9006
2.536 -2.407 1.597 5893
2.708 -2.570 1.685 8998
2.712 -2.574 1.675 14813
2.710 -2.572 1.661 19486
2.718 -2.580 1.653 24030
2.721 -2.583 1.642 26861
2.725 -2.586 1.631 25112
2.728 -2.589 1.621 23876
2.731 -2.592 1.610 21110
2.734 -2.595 1.599 17690
2.737 -2.598 1.588 15651
2.740 -2.600 1.577 11573
2.743 -2.603 1.566 6466
2.607 -2.474 1.482 3806
2.609 -2.476 1.472 4037
2.618 -2.484 1.465 4864
2.620 -2.487 1.454 4142
2.629 -2.495 1.446 3239
2.642 -2.507 1.441 2223
2.726 -2.587 1.471 2728
2.729 -2.590 1.460 2355
2.731 -2.592 1.449 2365
2.740 -2.600 1.441 3591
2.759 -2.618 1.438 3528
2.772 -2.631 1.432 3010
2.775 -2.634 1.421 2317
2.783 -2.641 1.413 2493
2.786 -2.644 1.402 2154
2.870 -2.724 1.428 1661
2.873 -2.727 1.417 2263
3.466 -3.289 1.669 1837
3.496 -3.318 1.667 1847
3.505 -3.326 1.655 2945
3.497 -3.319 1.637 2547
3.495 -3.317 1.620 2179
3.509 -3.330 1.611 2369
3.523 -3.344 1.602 2598
3.603 -3.419 1.620 2576
3.612 -3.428 1.608 3120
3.653 -3.467 1.609 4208
3.662 -3.475 1.597 4478
3.671 -3.484 1.584 3635
3.723 -3.534 1.589 4584
3.809 -3.615 1.607 3122
3.818 -3.623 1.593 3350
3.827 -3.631 1.580 2809
2.843 -2.699 1.194 2608
3.844 -3.648 1.554 2856
4.080 -3.872 1.624 3243
2.845 -2.700 1.158 4614
2.847 -2.702 1.147 4597
2.849 -2.704 1.136 3851
2.851 -2.706 1.124 3848
2.847 -2.702 1.111 3210
4.209 -3.995 1.565 2280
4.296 -4.077 1.576 2486
4.294 -4.075 1.557 2685
4.324 -4.104 1.549 2622
4.428 -4.202 1.565 3632
4.425 -4.200 1.545 5840
4.434 -4.208 1.529 7053
4.448 -4.221 1.515 7086
4.457 -4.229 1.499 5035
4.454 -4.227 1.479 3198
4.451 -4.224 1.460 2081
4.841 -4.595 1.557 1447
4.811 -4.565 1.527 2737
4.813 -4.568 1.508 2424
4.996 -4.742 1.540 2058
5.033 -4.777 1.529 2251
5.177 -4.913 1.548 2744
5.366 -5.092 1.577 4441
5.374 -5.100 1.557 5757
5.372 -5.098 1.534 5972
5.375 -5.101 1.513 5516
5.378 -5.103 1.491 4701
5.380 -5.106 1.470 5166
5.389 -5.114 1.450 5336
5.397 -5.122 1.430 3226
5.672 -5.383 1.472 3099
5.674 -5.385 1.450 2931
5.836 -5.538 1.463 2223
5.861 -5.562 1.445 2591
6.221 -5.904 1.500 1864
6.230 -5.912 1.477 2154
6.164 -5.850 1.437 2652
6.162 -5.847 1.411 3500
6.164 -5.850 1.387 3338
6.729 -6.386 1.474 3539
6.721 -6.378 1.445 3564
6.724 -6.381 1.418 3281
6.550 -6.216 1.358 2400
6.547 -6.213 1.331 2003
6.760 -6.415 1.343 1574
6.774 -6.429 1.318 639
6.771 -6.425 1.289 337
6.773 -6.428 1.262 501
6.775 -6.430 1.235 368
1.161 -1.102 0.281 254
1.162 -1.103 0.272 250
1.162 -1.103 0.267 255
1.632 -1.552 1.736 2358
1.636 -1.555 1.730 4717
1.639 -1.558 1.723 4717
1.647 -1.566 1.721 4927
1.669 -1.587 1.733 6068
1.649 -1.568 1.704 7980
1.652 -1.571 1.697 11088
1.655 -1.574 1.691 11088
1.659 -1.577 1.684 14864
1.667 -1.585 1.682 18735
1.675 -1.592 1.680 18457
1.683 -1.600 1.678 18823
1.681 -1.598 1.667 13400
1.684 -1.602 1.660 8041
1.688 -1.605 1.654 5483
1.734 -1.649 1.686 3369
1.708 -1.624 1.654 4029
1.716 -1.632 1.651 5534
1.720 -1.635 1.644 6305
1.728 -1.643 1.642 6285
1.736 -1.650 1.639 6414
1.821 -1.731 1.705 5169
1.810 -1.721 1.685 6610
1.828 -1.738 1.690 9125
1.836 -1.745 1.687 12128
1.849 -1.758 1.689 10446
1.862 -1.770 1.690 10155
1.865 -1.773 1.682 8989
1.863 -1.772 1.671 7972
1.867 -1.775 1.663 7425
1.860 -1.769 1.648 6992
1.863 -1.772 1.641 7617
1.866 -1.775 1.633 8129
1.939 -1.843 1.682 6302
1.957 -1.861 1.686 5488
1.965 -1.868 1.683 4564
1.968 -1.871 1.675 5302
1.972 -1.875 1.667 6404
1.985 -1.887 1.667 5982
1.998 -1.900 1.667 6386
2.061 -1.960 1.706 8696
2.060 -1.958 1.694 11675
2.068 -1.966 1.689 11378
2.086 -1.984 1.693 9147
2.100 -1.996 1.692 9477
2.108 -2.004 1.687 9313
2.121 -2.017 1.687 9878
2.135 -2.030 1.686 8203
2.148 -2.042 1.685 8993
2.146 -2.041 1.672 9972
2.149 -2.044 1.664 10566
2.163 -2.056 1.663 10307
2.171 -2.064 1.658 11095
2.185 -2.077 1.656 12294
2.193 -2.085 1.651 14698
2.196 -2.088 1.643 14666
2.220 -2.111 1.648 11878
2.228 -2.118 1.643 11525
2.226 -2.117 1.631 12752
2.240 -2.129 1.629 11246
2.258 -2.147 1.630 13004
2.261 -2.150 1.621 13495
2.270 -2.158 1.616 10655
2.293 -2.181 1.621 9311
2.297 -2.184 1.611 7550
2.310 -2.196 1.609 7362
2.318 -2.204 1.603 6684
2.322 -2.207 1.594 5405
2.476 -2.354 1.681 7761
2.479 -2.357 1.671 10531
2.482 -2.360 1.661 9664
2.496 -2.373 1.658 10439
2.504 -2.381 1.651 14494
2.513 -2.389 1.644 16493
2.521 -2.397 1.637 17321
2.524 -2.400 1.627 17853
2.528 -2.403 1.617 15049
2.531 -2.406 1.607 9099
2.534 -2.409 1.597 5669
2.706 -2.573 1.685 9139
2.709 -2.576 1.675 15372
2.707 -2.574 1.661 20372
2.716 -2.582 1.653 24582
2.719 -2.585 1.642 26786
2.722 -2.588 1.631 25317
2.725 -2.591 1.621 24937
2.728 -2.594 1.610 21860
2.732 -2.597 1.599 18012
2.735 -2.600 1.588 16115
2.738 -2.603 1.577 11939
2.741 -2.606 1.566 6604
2.604 -2.476 1.482 4775
2.607 -2.479 1.472 4745
2.615 -2.487 1.465 5434
2.618 -2.489 1.454 4770
2.626 -2.497 1.446 3562
2.640 -2.510 1.441 2211
2.724 -2.589 1.471 2642
2.726 -2.592 1.460 2291
2.729 -2.595 1.449 2362
2.732 -2.597 1.439 3505
2.751 -2.615 1.436 3262
2.770 -2.634 1.432 2811
2.773 -2.636 1.421 2252
2.781 -2.644 1.413 2403
2.778 -2.641 1.399 2020
2.781 -2.644 1.388 1608
2.871 -2.729 1.417 2151
3.463 -3.292 1.669 2152
3.493 -3.321 1.667 1894
3.496 -3.324 1.653 3003
3.494 -3.322 1.637 2702
3.492 -3.320 1.620 2344
3.506 -3.333 1.611 2574
3.520 -3.347 1.602 2743
3.606 -3.428 1.622 2845
3.609 -3.431 1.608 3270
3.650 -3.471 1.609 3910
3.659 -3.479 1.597 4380
3.673 -3.492 1.586 3625
3.726 -3.542 1.591 4968
3.701 -3.519 1.566 3237
3.815 -3.627 1.593 3268
3.829 -3.640 1.582 3107
3.832 -3.643 1.567 2887
3.840 -3.651 1.554 3170
4.076 -3.875 1.624 3345
2.842 -2.702 1.158 4288
2.844 -2.704 1.147 4334
4.097 -3.895 1.579 4025
2.848 -2.708 1.124 3476
2.845 -2.705 1.111 2939
4.200 -3.993 1.563 2151
4.292 -4.081 1.576 2172
4.390 -4.174 1.591 2466
4.393 -4.177 1.573 2693
4.419 -4.201 1.563 3611
4.422 -4.204 1.545 5213
4.436 -4.217 1.531 6267
4.444 -4.225 1.515 6759
4.458 -4.239 1.501 4948
4.450 -4.231 1.479 3032
4.447 -4.228 1.460 1881
4.826 -4.588 1.553 1623
4.812 -4.575 1.529 2092
4.809 -4.573 1.508 1791
5.088 -4.837 1.567 2084
5.169 -4.915 1.569 2349
5.172 -4.918 1.548 3148
5.361 -5.097 1.577 4580
5.370 -5.105 1.557 5745
5.367 -5.103 1.534 5896
5.370 -5.106 1.513 5496
5.373 -5.108 1.491 4714
5.376 -5.111 1.470 5228
5.384 -5.119 1.450 5386
5.393 -5.127 1.430 3156
5.667 -5.388 1.472 3030
5.669 -5.390 1.450 2947
5.831 -5.544 1.463 2328
5.850 -5.562 1.444 2622
5.950 -5.657 1.442 2090
6.224 -5.918 1.477 2338
6.165 -5.861 1.438 2736
6.156 -5.853 1.411 3548
6.159 -5.856 1.387 3317
6.724 -6.393 1.474 3514
6.715 -6.384 1.445 3501
6.718 -6.387 1.418 3225
6.544 -6.222 1.358 2380
6.541 -6.219 1.331 1962
6.754 -6.422 1.343 1500
6.808 -6.473 1.325 663
6.708 -6.378 1.280 330
6.767 -6.434 1.262 451
6.769 -6.436 1.235 328
1.630 -1.554 1.736 2548
1.634 -1.557 1.730 5096
1.637 -1.560 1.723 5096
1.650 -1.572 1.726 5333
1.667 -1.589 1.733 6607
1.652 -1.574 1.708 8361
1.650 -1.573 1.697 11401
1.654 -1.576 1.691 11401
1.657 -1.579 1.684 15124
1.665 -1.587 1.682 18930
1.673 -1.594 1.680 18513
1.681 -1.602 1.678 18771
1.679 -1.601 1.667 13389
1.682 -1.604 1.660 8059
1.686 -1.607 1.654 5531
1.732 -1.651 1.686 3300
1.706 -1.626 1.654 4080
1.714 -1.634 1.651 5606
1.718 -1.637 1.644 6429
1.726 -1.645 1.642 6455
1.734 -1.652 1.639 6610
1.819 -1.734 1.705 5206
1.808 -1.723 1.685 6593
1.825 -1.740 1.690 9053
1.834 -1.748 1.687 12075
1.847 -1.760 1.689 10526
1.860 -1.772 1.690 10362
1.863 -1.776 1.682 9150
1.861 -1.774 1.671 8123
1.864 -1.777 1.663 7587
1.863 -1.775 1.652 7143
1.861 -1.774 1.641 7738
1.869 -1.782 1.637 8270
1.937 -1.846 1.682 6417
1.955 -1.863 1.686 5814
1.963 -1.871 1.683 4900
1.966 -1.874 1.675 5535
1.974 -1.882 1.671 6488
1.982 -1.890 1.667 6081
1.996 -1.902 1.667 6507
2.059 -1.962 1.706 8878
2.057 -1.961 1.694 11869
2.065 -1.969 1.689 11532
2.084 -1.986 1.693 9368
2.097 -1.999 1.692 9802
2.105 -2.007 1.687 9688
2.119 -2.019 1.687 10259
2.132 -2.032 1.686 8349
2.146 -2.045 1.685 8987
2.144 -2.043 1.672 10115
2.147 -2.046 1.664 10644
2.160 -2.059 1.663 10492
2.169 -2.067 1.658 11409
2.182 -2.080 1.656 12640
2.190 -2.088 1.651 14993
2.199 -2.096 1.646 14831
2.222 -2.118 1.652 12168
2.226 -2.121 1.643 11887
2.224 -2.119 1.631 13187
2.237 -2.132 1.629 11760
2.261 -2.155 1.634 13554
2.259 -2.153 1.621 13996
2.267 -2.161 1.616 11003
2.291 -2.183 1.621 9320
2.294 -2.186 1.611 7637
2.307 -2.199 1.609 7495
2.310 -2.202 1.600 6751
2.314 -2.205 1.591 5395
2.478 -2.362 1.684 7487
2.476 -2.360 1.671 10018
2.479 -2.363 1.661 9070
2.493 -2.376 1.658 9725
2.501 -2.384 1.651 13719
2.510 -2.392 1.644 15662
2.518 -2.400 1.637 16517
2.521 -2.403 1.627 17159
2.519 -2.401 1.614 14811
2.528 -2.409 1.607 9201
2.520 -2.402 1.591 5863
2.703 -2.576 1.685 9140
2.701 -2.574 1.672 15857
2.704 -2.577 1.661 21127
2.713 -2.586 1.653 24990
2.716 -2.589 1.642 26491
2.719 -2.592 1.631 25248
2.722 -2.595 1.621 25758
2.725 -2.598 1.610 22400
2.728 -2.600 1.599 18169
2.731 -2.603 1.588 16462
2.734 -2.606 1.577 12208
2.738 -2.609 1.566 6654
2.601 -2.479 1.482 5771
2.604 -2.482 1.472 5458
2.612 -2.490 1.465 5978
2.615 -2.492 1.454 5423
2.618 -2.495 1.444 3952
2.631 -2.508 1.439 2264
2.715 -2.588 1.468 2561
2.723 -2.595 1.460 2191
2.726 -2.598 1.449 2325
2.729 -2.601 1.439 3477
2.748 -2.619 1.436 3037
2.767 -2.637 1.432 2628
2.769 -2.640 1.421 2191
2.772 -2.642 1.410 2314
2.775 -2.645 1.399 1909
2.772 -2.642 1.386 1563
3.450 -3.288 1.680 2206
3.459 -3.297 1.669 2427
3.467 -3.305 1.657 2013
3.492 -3.329 1.653 3097
3.485 -3.321 1.634 2868
3.488 -3.324 1.620 2495
3.502 -3.338 1.611 2804
3.516 -3.351 1.602 2906
3.601 -3.432 1.622 3060
3.604 -3.435 1.608 3396
3.646 -3.475 1.609 3718
3.655 -3.483 1.597 4341
3.707 -3.533 1.602 3730
3.716 -3.542 1.589 5103
3.702 -3.529 1.568 3337
3.821 -3.642 1.598 3168
3.824 -3.645 1.582 3406
3.827 -3.648 1.567 3246
3.836 -3.656 1.554 3449
4.077 -3.886 1.626 3667
2.839 -2.706 1.158 3881
2.841 -2.708 1.147 3884
4.092 -3.900 1.579 4345
4.184 -3.988 1.594 3196
2.842 -2.708 1.111 2674
4.390 -4.184 1.629 2346
4.410 -4.203 1.617 2264
4.391 -4.185 1.592 2583
4.394 -4.188 1.575 2912
4.413 -4.207 1.563 3793
4.416 -4.209 1.545 4795
4.436 -4.228 1.533 5954
4.445 -4.236 1.517 6834
4.459 -4.250 1.502 5146
4.456 -4.247 1.483 2933
4.448 -4.239 1.462 1756
4.820 -4.594 1.553 1409
4.801 -4.576 1.527 2430
4.798 -4.573 1.507 2153
5.082 -4.843 1.567 2141
5.163 -4.921 1.569 2800
5.166 -4.924 1.548 3601
5.180 -4.938 1.530 4591
5.363 -5.112 1.557 5492
5.361 -5.109 1.534 5846
5.364 -5.112 1.513 5754
5.372 -5.120 1.493 4716
5.369 -5.118 1.470 4928
5.378 -5.126 1.450 5381
5.386 -5.134 1.430 3281
5.660 -5.395 1.472 2915
5.663 -5.397 1.450 2868
5.937 -5.659 1.489 2516
5.940 -5.661 1.465 2955
5.943 -5.664 1.442 2541
6.217 -5.926 1.477 2532
6.158 -5.869 1.438 2845
6.149 -5.861 1.411 3581
6.152 -5.863 1.387 3281
6.721 -6.406 1.475 3443
6.707 -6.393 1.445 3363
6.710 -6.395 1.418 3099
6.536 -6.230 1.358 2324
6.533 -6.227 1.331 1888
6.746 -6.430 1.343 1410
6.800 -6.481 1.325 702
6.700 -6.386 1.280 385
6.759 -6.442 1.262 393
6.761 -6.445 1.235 299
1.629 -1.555 1.736 2746
1.632 -1.559 1.730 5493
1.635 -1.562 1.723 5493
1.648 -1.574 1.726 5764
1.665 -1.591 1.733 7178
1.650 -1.576 1.708 8750
1.649 -1.575 1.697 11719
1.652 -1.578 1.691 11719
1.655 -1.581 1.684 15367
1.663 -1.588 1.682 19084
1.671 -1.596 1.680 18514
1.679 -1.604 1.678 18648
1.678 -1.602 1.667 13329
1.681 -1.605 1.660 8051
1.684 -1.608 1.654 5559
1.697 -1.621 1.656 3352
1.705 -1.628 1.654 4124
1.713 -1.636 1.651 5674
1.716 -1.639 1.644 6550
1.724 -1.646 1.642 6617
1.732 -1.654 1.639 6789
1.817 -1.735 1.705 5241
1.806 -1.725 1.685 6525
1.829 -1.746 1.695 8944
1.832 -1.750 1.687 11949
1.845 -1.762 1.689 10532
1.858 -1.774 1.690 10486
1.861 -1.777 1.682 9246
1.859 -1.776 1.671 8235
1.863 -1.779 1.663 7730
1.861 -1.777 1.652 7300
1.864 -1.780 1.645 7849
1.867 -1.783 1.637 8399
1.940 -1.852 1.686 6574
1.953 -1.865 1.686 6119
1.956 -1.868 1.679 5216
1.964 -1.876 1.675 5757
1.972 -1.884 1.671 6579
1.981 -1.892 1.667 6171
1.999 -1.909 1.671 6610
2.057 -1.964 1.706 9019
2.055 -1.963 1.694 12004
2.063 -1.971 1.689 11617
2.082 -1.988 1.693 9458
2.095 -2.001 1.692 10020
2.103 -2.009 1.687 10084
2.112 -2.017 1.683 10736
2.125 -2.030 1.682 8548
2.138 -2.042 1.681 9014
2.142 -2.045 1.672 10228
2.145 -2.048 1.664 10699
2.158 -2.061 1.663 10696
2.167 -2.069 1.658 11742
2.175 -2.077 1.653 12987
2.188 -2.090 1.651 15201
2.202 -2.103 1.650 14932
2.220 -2.120 1.652 12410
2.223 -2.123 1.643 12203
2.221 -2.122 1.631 13644
2.235 -2.134 1.629 12332
2.259 -2.157 1.634 14143
2.257 -2.155 1.621 14437
2.265 -2.163 1.616 11293
2.289 -2.186 1.621 9137
2.292 -2.189 1.611 7709
2.305 -2.202 1.609 7764
2.308 -2.205 1.600 6994
2.306 -2.203 1.587 5509
2.476 -2.364 1.684 7193
2.474 -2.363 1.671 9462
2.477 -2.366 1.661 8439
2.491 -2.379 1.658 8934
2.499 -2.387 1.651 12617
2.507 -2.395 1.644 14218
2.516 -2.403 1.637 15002
2.519 -2.406 1.627 15817
2.517 -2.404 1.614 14155
2.520 -2.407 1.604 9143
2.518 -2.405 1.591 6108
2.700 -2.579 1.685 9039
2.698 -2.577 1.672 16212
2.702 -2.580 1.661 21692
2.710 -2.588 1.653 25150
2.713 -2.591 1.642 25869
2.716 -2.594 1.631 24864
2.714 -2.592 1.618 26385
2.723 -2.600 1.610 22698
2.726 -2.603 1.599 18137
2.729 -2.606 1.588 16640
2.732 -2.609 1.577 12341
2.596 -2.479 1.493 7138
2.599 -2.482 1.482 6855
2.602 -2.485 1.472 6214
2.604 -2.487 1.462 6546
2.613 -2.495 1.454 6028
2.615 -2.498 1.444 4334
2.629 -2.511 1.439 2305
2.712 -2.590 1.468 2468
2.721 -2.598 1.460 2102
2.723 -2.601 1.449 2300
2.726 -2.604 1.439 3403
2.740 -2.616 1.433 2789
2.764 -2.640 1.432 2420
2.767 -2.642 1.421 2089
2.769 -2.645 1.410 2188
2.772 -2.647 1.399 1765
2.867 -2.738 1.430 1496
3.447 -3.292 1.680 2526
3.455 -3.300 1.669 2691
3.459 -3.303 1.655 2155
3.484 -3.327 1.651 3197
3.476 -3.320 1.632 2996
3.484 -3.328 1.620 2604
3.498 -3.341 1.611 3078
3.513 -3.355 1.602 3072
3.598 -3.436 1.622 3277
3.601 -3.439 1.608 3488
3.642 -3.479 1.609 3530
3.657 -3.492 1.599 4266
3.704 -3.537 1.602 3877
3.712 -3.545 1.589 5344
3.699 -3.532 1.568 3556
3.817 -3.646 1.598 3053
3.821 -3.649 1.582 3652
3.824 -3.652 1.567 3617
3.832 -3.660 1.554 3777
4.073 -3.890 1.626 3967
4.093 -3.909 1.616 3610
4.096 -3.912 1.600 4037
4.088 -3.904 1.579 4666
4.174 -3.986 1.592 3109
2.839 -2.711 1.111 2257
4.386 -4.189 1.629 2616
4.406 -4.207 1.617 2635
4.409 -4.210 1.600 2917
4.395 -4.197 1.577 3199
4.409 -4.211 1.563 4131
4.418 -4.219 1.547 4690
4.437 -4.238 1.534 6031
4.446 -4.246 1.518 7143
4.460 -4.260 1.504 5470
4.468 -4.268 1.488 2979
4.443 -4.244 1.462 1705
4.810 -4.594 1.552 1760
4.796 -4.581 1.527 2352
4.799 -4.583 1.508 1921
5.077 -4.849 1.567 2232
5.158 -4.926 1.569 3343
5.161 -4.929 1.548 4157
5.170 -4.937 1.529 5065
5.358 -5.117 1.557 5363
5.356 -5.115 1.534 5550
5.359 -5.118 1.513 5331
5.361 -5.120 1.491 4565
5.364 -5.123 1.470 5071
5.373 -5.131 1.450 5349
5.381 -5.139 1.430 3242
5.655 -5.400 1.472 2792
5.657 -5.403 1.450 2757
5.931 -5.665 1.489 2994
5.934 -5.667 1.465 3477
5.937 -5.670 1.442 2978
6.211 -5.932 1.477 2722
6.152 -5.875 1.438 2947
6.149 -5.872 1.413 3614
6.146 -5.869 1.387 3222
6.715 -6.413 1.475 3388
6.706 -6.405 1.446 3232
6.703 -6.402 1.418 2938
6.723 -6.421 1.395 2223
6.527 -6.234 1.331 1784
6.745 -6.442 1.344 1292
6.793 -6.488 1.325 749
6.693 -6.393 1.280 379
6.753 -6.449 1.262 337
6.755 -6.451 1.235 256
1.627 -1.557 1.736 2918
1.630 -1.561 1.730 5837
1.634 -1.564 1.723 5837
1.646 -1.576 1.726 6160
1.664 -1.592 1.733 7696
1.648 -1.578 1.708 9112
1.647 -1.576 1.697 12014
1.650 -1.580 1.691 12014
1.653 -1.583 1.684 15607
1.661 -1.590 1.682 19240
1.665 -1.593 1.676 18519
1.677 -1.606 1.678 18485
1.676 -1.604 1.667 13210
1.679 -1.607 1.660 7965
1.682 -1.610 1.654 5533
1.695 -1.622 1.656 3396
1.703 -1.630 1.654 4163
1.711 -1.638 1.651 5737
1.714 -1.641 1.644 6655
1.722 -1.648 1.642 6773
1.725 -1.651 1.635 6974
1.733 -1.659 1.632 5283
1.804 -1.727 1.685 6447
1.827 -1.748 1.695 8806
1.830 -1.752 1.687 11779
1.843 -1.764 1.689 10510
1.856 -1.776 1.690 10586
1.859 -1.780 1.682 9308
1.857 -1.778 1.671 8294
1.861 -1.781 1.663 7829
1.859 -1.779 1.652 7413
1.862 -1.783 1.645 7948
1.865 -1.786 1.637 8484
1.937 -1.855 1.686 6762
1.951 -1.867 1.686 6407
1.959 -1.875 1.683 5498
1.962 -1.878 1.675 5949
1.970 -1.886 1.671 6652
1.978 -1.894 1.667 6219
1.997 -1.911 1.671 6623
2.055 -1.967 1.706 9156
2.053 -1.965 1.694 12063
2.061 -1.973 1.689 11619
2.080 -1.991 1.693 9416
2.093 -2.003 1.692 10167
2.101 -2.011 1.687 10497
2.109 -2.019 1.683 11291
2.123 -2.032 1.682 8879
2.136 -2.045 1.681 9107
2.139 -2.048 1.672 10318
2.143 -2.051 1.664 10721
2.156 -2.064 1.663 10840
2.164 -2.072 1.658 11985
2.172 -2.080 1.653 13303
2.186 -2.092 1.651 15408
2.199 -2.105 1.650 15099
2.218 -2.123 1.652 12627
2.221 -2.126 1.643 12499
2.219 -2.124 1.631 14092
2.232 -2.137 1.629 12912
2.256 -2.160 1.634 14750
2.259 -2.163 1.625 14920
2.262 -2.166 1.616 11555
2.286 -2.188 1.621 9015
2.294 -2.196 1.615 7704
2.303 -2.204 1.609 7780
2.301 -2.202 1.597 7042
2.304 -2.205 1.587 5565
2.478 -2.372 1.687 6994
2.476 -2.370 1.674 9035
2.474 -2.369 1.661 7933
2.488 -2.382 1.658 8272
2.496 -2.390 1.651 11492
2.505 -2.398 1.644 12717
2.513 -2.406 1.637 13420
2.516 -2.409 1.627 14548
2.514 -2.407 1.614 13709
2.517 -2.410 1.604 9046
2.515 -2.408 1.591 6050
2.697 -2.582 1.685 8857
2.695 -2.580 1.672 16404
2.699 -2.583 1.661 22046
2.707 -2.591 1.653 25105
2.710 -2.594 1.642 25017
2.713 -2.597 1.631 24209
2.711 -2.595 1.618 26812
2.720 -2.603 1.610 22718
2.723 -2.606 1.599 17904
2.726 -2.609 1.588 16627
2.729 -2.612 1.577 12305
2.593 -2.482 1.493 8014
2.596 -2.485 1.482 7925
2.599 -2.488 1.472 6933
2.601 -2.490 1.462 7063
2.610 -2.498 1.454 6624
2.612 -2.501 1.444 4732
2.621 -2.508 1.436 2380
2.704 -2.588 1.466 2354
2.718 -2.601 1.460 1945
2.720 -2.604 1.449 2219
2.718 -2.601 1.436 3379
2.726 -2.609 1.428 2709
2.761 -2.643 1.432 2201
2.764 -2.646 1.421 1970
2.766 -2.648 1.410 2044
2.769 -2.651 1.399 1651
2.766 -2.648 1.386 1478
3.443 -3.296 1.680 2801
3.452 -3.304 1.669 2915
3.455 -3.307 1.655 2302
3.469 -3.321 1.646 3382
3.467 -3.318 1.629 3170
3.475 -3.327 1.618 2739
3.495 -3.345 1.611 3320
3.509 -3.359 1.602 3170
3.594 -3.440 1.622 3401
3.597 -3.443 1.608 3503
3.644 -3.488 1.611 3407
3.653 -3.496 1.599 4210
3.700 -3.541 1.602 4010
3.708 -3.550 1.589 5429
3.695 -3.537 1.568 3653
3.813 -3.650 1.598 2881
3.816 -3.653 1.582 3913
3.814 -3.651 1.565 3925
3.828 -3.664 1.554 3989
4.074 -3.900 1.628 4048
4.088 -3.913 1.616 3631
4.091 -3.916 1.600 4070
4.083 -3.909 1.579 4771
4.175 -3.997 1.594 3426
4.184 -4.005 1.579 2393
4.381 -4.194 1.629 2975
4.401 -4.213 1.617 3020
4.404 -4.216 1.600 3285
4.396 -4.208 1.579 3529
4.404 -4.216 1.563 4424
4.418 -4.230 1.549 4854
4.433 -4.243 1.534 6635
4.441 -4.251 1.518 7833
4.455 -4.265 1.504 5913
4.464 -4.273 1.488 3070
4.790 -4.586 1.568 1864
4.805 -4.599 1.552 1841
4.791 -4.586 1.527 1914
5.062 -4.846 1.586 1718
5.071 -4.854 1.567 2316
5.147 -4.927 1.567 3882
5.156 -4.935 1.548 4639
5.164 -4.943 1.529 5504
5.167 -4.946 1.508 4950
5.350 -5.121 1.534 5034
5.353 -5.124 1.513 5271
5.356 -5.127 1.491 4409
5.358 -5.129 1.470 4578
5.367 -5.137 1.450 4742
5.375 -5.145 1.430 2794
5.648 -5.407 1.472 2685
5.651 -5.410 1.450 2667
5.925 -5.671 1.489 3512
5.928 -5.674 1.465 4055
5.930 -5.677 1.442 3488
6.204 -5.939 1.477 2922
6.213 -5.947 1.453 3054
6.142 -5.879 1.413 3611
6.139 -5.876 1.387 3150
6.708 -6.421 1.475 3341
6.699 -6.413 1.446 3112
6.702 -6.415 1.419 2794
6.716 -6.429 1.395 2158
6.520 -6.241 1.331 1684
6.738 -6.450 1.344 1173
6.786 -6.496 1.325 787
6.686 -6.400 1.280 408
6.745 -6.457 1.262 293
0.622 -0.596 0.192 255
0.622 -0.596 0.190 262
0.622 -0.596 0.187 260
1.626 -1.559 1.736 3078
1.629 -1.562 1.730 6157
1.632 -1.565 1.723 6157
1.645 -1.577 1.726 6544
1.662 -1.594 1.733 8210
1.652 -1.584 1.713 9472
1.646 -1.578 1.697 12226
1.649 -1.581 1.691 12226
1.657 -1.589 1.689 15740
1.660 -1.592 1.682 19265
1.663 -1.595 1.676 18409
1.676 -1.607 1.678 18225
1.674 -1.606 1.667 13031
1.678 -1.609 1.660 7861
1.681 -1.612 1.654 5499
1.694 -1.624 1.656 3450
1.697 -1.627 1.649 4213
1.710 -1.639 1.651 5792
1.713 -1.642 1.644 6749
1.721 -1.650 1.642 6896
1.724 -1.653 1.635 7113
1.727 -1.656 1.628 5386
1.803 -1.728 1.685 6305
1.825 -1.750 1.695 8625
1.833 -1.758 1.692 11557
1.841 -1.766 1.689 10427
1.854 -1.778 1.690 10613
1.858 -1.781 1.682 9292
1.856 -1.780 1.671 8268
1.859 -1.783 1.663 7859
1.858 -1.781 1.652 7458
1.861 -1.784 1.645 7971
1.864 -1.787 1.637 8483
1.936 -1.856 1.686 6875
1.949 -1.869 1.686 6581
1.957 -1.877 1.683 5675
1.965 -1.885 1.679 6092
1.969 -1.888 1.671 6708
1.977 -1.895 1.667 6238
1.995 -1.913 1.671 6573
2.053 -1.969 1.706 9049
2.056 -1.972 1.698 11846
2.060 -1.975 1.689 11328
2.078 -1.992 1.693 9243
2.091 -2.005 1.692 10291
2.099 -2.013 1.687 10857
2.108 -2.021 1.683 11786
2.121 -2.034 1.682 9198
2.134 -2.047 1.681 9187
2.133 -2.045 1.669 10389
2.136 -2.048 1.660 10663
2.154 -2.066 1.663 10943
2.162 -2.073 1.658 12211
2.171 -2.081 1.653 13589
2.189 -2.099 1.655 15609
2.197 -2.107 1.650 15217
2.216 -2.125 1.652 12817
2.219 -2.128 1.643 12763
2.217 -2.126 1.631 14479
2.231 -2.139 1.629 13451
2.254 -2.161 1.634 15343
2.257 -2.164 1.625 15387
2.261 -2.167 1.616 11837
2.284 -2.190 1.621 9041
2.293 -2.198 1.615 7773
2.301 -2.206 1.609 7812
2.299 -2.204 1.597 7138
2.297 -2.202 1.584 5657
2.476 -2.374 1.687 6757
2.474 -2.372 1.674 8553
2.472 -2.371 1.661 7393
2.486 -2.384 1.658 7747
2.494 -2.392 1.651 10569
2.503 -2.400 1.644 11391
2.511 -2.408 1.637 11951
2.514 -2.411 1.627 13336
2.512 -2.409 1.614 13244
2.515 -2.412 1.604 8952
2.513 -2.410 1.591 6019
2.616 -2.509 1.639 9208
2.693 -2.582 1.672 16509
2.696 -2.585 1.661 22250
2.700 -2.589 1.650 24955
2.708 -2.597 1.642 23963
2.711 -2.600 1.631 23256
2.709 -2.598 1.618 26812
2.718 -2.606 1.610 22399
2.721 -2.609 1.599 17448
2.718 -2.606 1.585 16432
2.727 -2.614 1.577 12091
2.591 -2.484 1.493 8750
2.594 -2.487 1.482 8844
2.597 -2.490 1.472 7533
2.599 -2.492 1.462 7481
2.608 -2.500 1.454 7128
2.610 -2.503 1.444 5057
2.618 -2.511 1.436 2464
2.702 -2.591 1.466 2248
2.715 -2.604 1.460 1770
2.718 -2.606 1.449 2130
2.710 -2.599 1.433 3400
2.707 -2.596 1.420 2813
2.759 -2.645 1.432 1943
2.761 -2.648 1.421 1835
2.764 -2.650 1.410 1949
2.767 -2.653 1.399 1574
3.426 -3.285 1.689 1562
3.440 -3.299 1.680 3104
3.443 -3.302 1.666 3133
3.452 -3.310 1.655 2439
3.466 -3.323 1.646 3577
3.464 -3.321 1.629 3300
3.472 -3.329 1.618 2847
3.492 -3.348 1.611 3563
3.500 -3.356 1.599 3273
3.597 -3.448 1.624 3433
3.594 -3.446 1.608 3389
3.641 -3.491 1.611 3366
3.650 -3.499 1.599 4167
3.697 -3.544 1.602 4097
3.705 -3.553 1.589 5434
3.692 -3.540 1.568 3766
3.810 -3.653 1.598 2607
3.813 -3.656 1.582 4078
3.811 -3.654 1.565 4281
3.825 -3.667 1.554 4225
3.828 -3.670 1.539 4174
4.085 -3.917 1.616 3786
4.088 -3.920 1.600 4240
4.086 -3.917 1.581 4762
4.166 -3.995 1.592 3344
4.369 -4.189 1.645 2492
4.383 -4.203 1.631 3306
4.397 -4.216 1.617 3445
4.400 -4.219 1.600 3706
4.398 -4.217 1.580 3888
4.401 -4.220 1.563 4720
4.420 -4.239 1.550 5174
4.429 -4.247 1.534 7376
4.438 -4.255 1.518 8596
4.452 -4.268 1.504 6370
4.460 -4.276 1.488 3134
4.781 -4.584 1.566 1897
4.801 -4.603 1.552 1628
4.787 -4.590 1.527 1815
4.963 -4.759 1.558 1753
5.140 -4.928 1.588 2363
5.143 -4.931 1.567 4447
5.152 -4.939 1.548 5134
5.160 -4.948 1.529 5945
5.163 -4.950 1.508 5301
5.345 -5.125 1.534 4755
5.348 -5.128 1.513 4927
5.351 -5.131 1.491 4218
5.354 -5.134 1.470 4496
5.363 -5.142 1.450 4723
5.371 -5.150 1.430 2719
5.650 -5.417 1.474 2513
5.912 -5.668 1.512 2936
5.920 -5.676 1.489 4028
5.923 -5.679 1.465 4629
5.926 -5.682 1.442 3976
6.199 -5.944 1.477 3086
6.208 -5.952 1.453 3269
6.137 -5.884 1.413 3584
6.134 -5.882 1.387 3053
6.702 -6.426 1.475 3247
6.694 -6.418 1.446 2973
6.696 -6.421 1.419 2653
6.710 -6.434 1.395 2066
6.520 -6.252 1.332 1568
6.778 -6.499 1.352 1089
6.780 -6.501 1.325 802
6.681 -6.406 1.280 436
6.740 -6.462 1.262 251
0.622 -0.596 0.190 257
0.622 -0.596 0.187 263
1.628 -1.566 1.741 3217
1.631 -1.569 1.734 6434
1.634 -1.572 1.728 6434
1.647 -1.584 1.731 6900
1.660 -1.596 1.733 8714
1.649 -1.586 1.713 9872
1.648 -1.585 1.702 12520
1.651 -1.588 1.695 12520
1.654 -1.591 1.689 15873
1.653 -1.590 1.678 19227
1.661 -1.597 1.676 18238
1.673 -1.610 1.678 17884
1.672 -1.608 1.667 12784
1.675 -1.611 1.660 7694
1.678 -1.614 1.654 5416
1.691 -1.627 1.656 3477
1.694 -1.630 1.649 4258
1.707 -1.642 1.651 5859
1.710 -1.645 1.644 6843
1.718 -1.653 1.642 6998
1.721 -1.656 1.635 7210
1.724 -1.659 1.628 5475
1.795 -1.726 1.681 6134
1.822 -1.753 1.695 8404
1.831 -1.761 1.692 11308
1.839 -1.768 1.689 10307
1.852 -1.781 1.690 10587
1.855 -1.784 1.682 9220
1.853 -1.782 1.671 8170
1.856 -1.786 1.663 7840
1.860 -1.789 1.656 7510
1.863 -1.792 1.649 7981
1.861 -1.790 1.637 8470
1.933 -1.859 1.686 6919
1.946 -1.872 1.686 6699
1.954 -1.880 1.683 5812
1.962 -1.888 1.679 6219
1.966 -1.891 1.671 6755
1.974 -1.899 1.667 6237
1.992 -1.916 1.671 6457
2.050 -1.972 1.706 8794
2.053 -1.975 1.698 11465
2.057 -1.978 1.689 10889
2.075 -1.996 1.693 9017
2.088 -2.008 1.692 10409
2.096 -2.016 1.687 11182
2.105 -2.024 1.683 12235
2.113 -2.032 1.678 9564
2.131 -2.050 1.681 9241
2.129 -2.048 1.669 10413
2.133 -2.051 1.660 10537
2.156 -2.074 1.666 11002
2.159 -2.077 1.658 12365
2.168 -2.085 1.653 13808
2.186 -2.102 1.655 15745
2.199 -2.115 1.653 15278
2.213 -2.128 1.652 12954
2.216 -2.131 1.643 12979
2.214 -2.129 1.631 14791
2.227 -2.142 1.629 13953
2.251 -2.165 1.634 15870
2.254 -2.168 1.625 15772
2.262 -2.176 1.619 12057
2.281 -2.194 1.621 8946
2.289 -2.202 1.615 7728
2.297 -2.210 1.609 7769
2.295 -2.208 1.597 7177
2.293 -2.206 1.584 5723
2.473 -2.378 1.687 6481
2.471 -2.376 1.674 8013
2.474 -2.379 1.664 6881
2.482 -2.387 1.658 7233
2.491 -2.396 1.651 9584
2.499 -2.404 1.644 9993
2.513 -2.417 1.640 10348
2.511 -2.415 1.627 11960
2.508 -2.413 1.614 12659
2.512 -2.416 1.604 8856
2.504 -2.409 1.588 6104
2.612 -2.513 1.639 9545
2.689 -2.587 1.672 16468
2.692 -2.590 1.661 22241
2.696 -2.593 1.650 24716
2.704 -2.601 1.642 22731
2.702 -2.599 1.628 22205
2.705 -2.602 1.618 26503
2.708 -2.605 1.607 21849
2.717 -2.613 1.599 16768
2.714 -2.611 1.585 16065
2.723 -2.619 1.577 11735
2.587 -2.488 1.493 9364
2.595 -2.496 1.485 9635
2.593 -2.494 1.472 8016
2.596 -2.496 1.462 7784
2.604 -2.504 1.454 7522
2.606 -2.507 1.444 5317
2.615 -2.515 1.436 2526
2.692 -2.590 1.463 2169
2.711 -2.608 1.460 1570
2.714 -2.610 1.449 1997
2.701 -2.598 1.431 3455
2.698 -2.595 1.417 3048
2.701 -2.598 1.407 1726
2.757 -2.652 1.421 1668
2.765 -2.660 1.413 1809
2.763 -2.657 1.399 1460
3.421 -3.290 1.689 1782
3.430 -3.299 1.677 3367
3.438 -3.307 1.666 3298
3.447 -3.315 1.655 2553
3.455 -3.324 1.643 3719
3.459 -3.327 1.629 3448
3.467 -3.335 1.618 3053
3.487 -3.354 1.611 3917
3.495 -3.362 1.599 3456
3.591 -3.454 1.624 3593
3.589 -3.452 1.608 3427
3.652 -3.513 1.618 3454
3.650 -3.510 1.601 4152
3.691 -3.550 1.602 4109
3.700 -3.558 1.589 5258
3.686 -3.545 1.568 3741
3.805 -3.659 1.598 2397
3.802 -3.657 1.580 4277
3.805 -3.660 1.565 4573
3.814 -3.668 1.552 4468
3.822 -3.676 1.539 4459
4.079 -3.923 1.616 3712
4.087 -3.931 1.602 4044
4.085 -3.929 1.583 4551
4.165 -4.006 1.594 3076
4.368 -4.201 1.647 2659
4.376 -4.209 1.631 3613
4.391 -4.223 1.617 3809
4.399 -4.231 1.602 4058
4.391 -4.224 1.580 4162
4.394 -4.226 1.563 4886
4.414 -4.245 1.550 5521
4.428 -4.259 1.536 8156
4.431 -4.262 1.518 9381
4.445 -4.275 1.504 6868
4.453 -4.283 1.488 3261
4.780 -4.597 1.568 2171
4.794 -4.611 1.552 2058
2.748 -2.643 0.932 1403
5.051 -4.858 1.586 1746
5.132 -4.936 1.588 2653
5.135 -4.939 1.567 4974
5.144 -4.947 1.548 5555
5.152 -4.956 1.529 6249
5.155 -4.958 1.508 5532
5.337 -5.134 1.534 3931
5.340 -5.137 1.513 3990
5.343 -5.139 1.491 3932
5.352 -5.147 1.471 4686
5.354 -5.150 1.450 4863
5.363 -5.158 1.430 2880
5.641 -5.426 1.474 2455
5.903 -5.677 1.512 3196
5.911 -5.686 1.489 4552
5.914 -5.688 1.465 5256
5.917 -5.691 1.442 4538
6.190 -5.954 1.477 3244
6.198 -5.962 1.453 3473
6.128 -5.894 1.413 3546
6.125 -5.891 1.387 2971
6.692 -6.437 1.475 3182
6.689 -6.434 1.447 2846
6.692 -6.437 1.420 2514
6.700 -6.445 1.395 2031
6.511 -6.262 1.332 1460
6.768 -6.509 1.352 1084
6.770 -6.512 1.325 815
6.676 -6.422 1.281 441
0.626 -0.603 0.195 259
0.621 -0.597 0.192 285
0.621 -0.597 0.190 275
