3.555 3.314 1.151 3814
3.596 3.353 1.148 3318
3.604 3.360 1.135 3609
3.601 3.356 1.119 3679
3.699 3.448 1.131 5266
3.701 3.450 1.117 5579
3.738 3.484 1.111 5385
3.757 3.502 1.101 6439
3.770 3.514 1.089 4390
3.880 3.617 1.101 6232
3.882 3.619 1.086 5307
3.959 3.690 1.088 3054
3.983 3.713 1.078 3280
4.060 3.784 1.080 4280
4.044 3.770 1.060 4433
4.121 3.841 1.061 5132
4.083 3.806 1.035 3887
4.085 3.808 1.019 3437
4.109 3.831 1.008 3407
4.249 3.960 1.021 3029
4.256 3.967 1.005 2804
4.252 3.964 0.987 3080
4.535 4.227 1.026 2849
4.537 4.229 1.008 2706
4.544 4.236 0.991 2459
4.494 4.190 0.963 3334
4.479 4.175 0.942 3098
4.584 4.273 0.943 3053
4.741 4.419 0.952 3333
4.748 4.426 0.934 3367
4.779 4.455 0.920 2997
4.780 4.456 0.901 3138
4.782 4.458 0.882 2596
5.135 4.786 0.916 2964
5.142 4.793 0.897 2423
5.080 4.736 0.867 1993
5.076 4.732 0.847 2260
5.083 4.739 0.827 2478
5.096 4.751 0.809 1746
5.115 4.768 0.791 1222
5.647 5.264 0.836 1113
5.648 5.265 0.814 1132
5.632 5.250 0.790 1314
6.240 5.817 0.835 1840
6.241 5.818 0.811 1955
6.093 5.679 0.770 1632
6.244 5.821 0.761 2105
6.234 5.811 0.735 2925
6.235 5.812 0.710 3258
6.242 5.819 0.686 3285
6.243 5.820 0.661 2872
6.244 5.821 0.637 2000
6.245 5.822 0.612 1096
6.975 6.502 0.640 1071
6.982 6.508 0.612 871
0.493 0.459 0.168 759
6.874 6.408 0.550 757
6.880 6.414 0.523 685
0.498 0.465 0.163 487
0.499 0.465 0.161 626
0.499 0.465 0.159 719
0.499 0.465 0.158 741
0.499 0.465 0.156 885
0.493 0.459 0.154 1226
0.487 0.454 0.152 1433
0.487 0.454 0.150 1169
0.487 0.454 0.148 809
0.487 0.454 0.146 586
0.487 0.454 0.145 548
0.487 0.454 0.143 723
0.487 0.454 0.141 908
0.487 0.454 0.139 1083
0.487 0.454 0.138 1167
0.487 0.454 0.136 1060
0.487 0.454 0.134 1037
0.487 0.454 0.132 1139
0.487 0.454 0.130 1279
0.487 0.454 0.129 1715
0.487 0.454 0.127 2229
0.487 0.454 0.125 2242
0.487 0.454 0.123 1966
0.487 0.454 0.121 1450
0.487 0.454 0.120 1057
0.487 0.454 0.118 1173
0.487 0.454 0.116 1290
0.487 0.454 0.114 1510
0.487 0.454 0.113 1863
0.487 0.454 0.111 2060
0.487 0.454 0.109 2155
0.487 0.454 0.107 2344
0.487 0.454 0.105 2361
0.486 0.453 0.104 2251
0.486 0.453 0.102 2422
0.486 0.453 0.100 2866
0.486 0.453 0.098 3083
0.486 0.453 0.097 3307
0.486 0.453 0.095 3270
0.486 0.453 0.093 2910
0.486 0.453 0.091 2603
0.486 0.453 0.089 2247
0.486 0.453 0.088 1917
0.486 0.453 0.086 1674
0.485 0.452 0.084 1793
0.485 0.452 0.082 2015
0.485 0.452 0.081 1946
0.485 0.452 0.079 1711
0.485 0.452 0.077 1889
0.485 0.452 0.075 2003
0.485 0.452 0.074 2154
0.485 0.452 0.072 2460
0.484 0.452 0.070 2677
0.484 0.451 0.068 2920
0.484 0.451 0.066 2856
0.484 0.451 0.065 1636
1.551 1.438 1.616 4462
1.555 1.440 1.610 8925
1.558 1.443 1.604 8925
1.532 1.420 1.570 8723
1.535 1.423 1.564 10457
1.538 1.426 1.558 9935
1.541 1.428 1.552 9413
1.578 1.462 1.578 7906
1.591 1.474 1.581 8508
1.594 1.477 1.574 8508
1.597 1.480 1.568 6828
1.600 1.482 1.562 5147
1.603 1.485 1.556 6169
1.664 1.542 1.602 7968
1.667 1.545 1.596 8975
1.675 1.552 1.593 10133
1.678 1.555 1.587 7900
1.677 1.553 1.576 5702
1.684 1.561 1.574 4509
1.712 1.586 1.589 2844
1.651 1.530 1.527 2472
1.669 1.547 1.533 3367
1.677 1.554 1.531 4284
1.695 1.570 1.537 4822
1.713 1.587 1.543 6690
1.725 1.599 1.544 6110
1.738 1.611 1.546 5904
1.746 1.618 1.543 6549
1.779 1.649 1.561 7430
1.792 1.661 1.562 9627
1.795 1.663 1.555 13288
1.798 1.666 1.548 15554
1.801 1.669 1.541 14110
1.809 1.677 1.538 11480
1.812 1.679 1.531 11644
1.815 1.682 1.524 11809
1.813 1.680 1.513 11985
1.811 1.678 1.502 12536
1.814 1.681 1.495 12511
1.822 1.688 1.492 13724
1.825 1.691 1.485 15198
1.838 1.703 1.485 13466
1.846 1.710 1.482 12372
1.854 1.718 1.478 7655
1.923 1.782 1.520 4347
1.926 1.785 1.512 3829
1.909 1.768 1.490 3756
1.901 1.762 1.475 4179
1.904 1.764 1.468 4826
1.927 1.786 1.475 6739
1.935 1.793 1.471 8245
1.938 1.796 1.464 7277
1.972 1.827 1.478 4820
1.980 1.835 1.473 4223
2.035 1.886 1.501 4539
2.033 1.884 1.490 7038
2.030 1.881 1.478 9163
2.033 1.884 1.470 9803
2.041 1.891 1.466 9252
2.055 1.904 1.465 10333
2.057 1.906 1.457 9442
2.139 1.982 1.500 6477
2.142 1.985 1.491 7787
2.145 1.987 1.483 9075
2.148 1.990 1.475 8396
2.129 1.973 1.453 8347
2.132 1.976 1.445 10774
2.140 1.983 1.440 13118
2.148 1.991 1.434 13657
2.151 1.993 1.426 8101
2.207 2.045 1.450 12683
2.215 2.052 1.444 18095
2.223 2.060 1.439 22545
2.226 2.062 1.430 20718
2.223 2.060 1.418 15309
2.226 2.063 1.410 12025
2.288 2.120 1.435 11123
2.296 2.127 1.429 11668
2.309 2.140 1.426 10231
2.328 2.157 1.426 8263
2.331 2.160 1.417 10281
2.334 2.162 1.408 12182
2.336 2.165 1.399 10859
2.339 2.167 1.390 8649
2.347 2.175 1.383 10040
2.360 2.187 1.380 12174
2.369 2.195 1.374 9777
2.398 2.222 1.379 5372
2.450 2.270 1.395 5262
2.463 2.282 1.391 7087
2.433 2.255 1.364 6083
2.501 2.318 1.388 5865
2.498 2.315 1.375 5162
2.496 2.312 1.363 5367
2.564 2.376 1.386 7282
2.577 2.388 1.381 12617
2.585 2.396 1.373 16392
2.583 2.393 1.361 14866
2.585 2.395 1.350 13640
2.582 2.393 1.338 8298
2.678 2.482 1.371 5042
2.653 2.459 1.348 5972
2.656 2.461 1.338 6809
2.675 2.479 1.335 4522
2.722 2.522 1.344 4251
2.768 2.565 1.353 7979
2.777 2.573 1.345 8327
2.790 2.585 1.339 6783
2.820 2.613 1.340 7410
2.823 2.616 1.329 9727
2.826 2.618 1.317 8292
2.861 2.651 1.320 5986
2.869 2.659 1.311 5430
2.928 2.713 1.323 5914
2.913 2.699 1.305 5221
2.899 2.686 1.286 5174
2.913 2.699 1.280 4303
3.004 2.784 1.303 3637
3.018 2.797 1.296 4364
3.021 2.799 1.284 5631
3.101 2.874 1.302 5050
3.126 2.897 1.298 5076
3.145 2.915 1.292 5053
3.148 2.917 1.280 4875
3.173 2.940 1.275 4032
3.209 2.973 1.275 6346
3.206 2.970 1.260 9331
3.214 2.978 1.250 7537
3.222 2.985 1.239 7496
3.235 2.998 1.230 6640
3.249 3.010 1.221 5623
3.257 3.018 1.210 5858
3.355 3.109 1.229 4704
3.369 3.121 1.220 4609
3.394 3.144 1.214 5617
3.396 3.147 1.200 4658
3.404 3.154 1.189 3935
3.440 3.188 1.186 4387
3.442 3.190 1.172 6396
3.461 3.207 1.164 5254
3.475 3.220 1.153 4587
3.557 3.296 1.163 4067
3.570 3.308 1.152 4363
3.578 3.315 1.140 3493
3.609 3.344 1.134 3215
3.605 3.340 1.118 3371
3.710 3.437 1.131 4611
3.717 3.445 1.118 4725
3.742 3.468 1.110 4591
3.767 3.491 1.101 5404
3.775 3.498 1.087 3964
3.897 3.611 1.103 5902
3.893 3.608 1.086 5024
3.964 3.673 1.087 2943
3.995 3.701 1.078 2856
4.071 3.772 1.080 3701
4.050 3.753 1.058 4073
4.132 3.829 1.061 4725
4.100 3.799 1.037 3582
4.096 3.795 1.019 2961
4.333 4.015 1.053 2866
4.341 4.022 1.037 2825
4.337 4.019 1.019 2682
4.344 4.026 1.003 2763
4.547 4.214 1.026 2651
4.549 4.215 1.008 2421
4.407 4.084 0.963 2088
4.507 4.176 0.963 2586
4.491 4.162 0.942 2603
4.591 4.254 0.942 2605
4.760 4.410 0.953 3023
4.762 4.412 0.934 3010
4.798 4.446 0.921 2789
4.799 4.447 0.902 3092
4.795 4.443 0.882 2693
5.149 4.771 0.916 2793
5.156 4.778 0.897 2334
5.094 4.720 0.867 1835
5.096 4.722 0.847 2016
5.097 4.723 0.827 2095
5.110 4.735 0.809 1558
5.123 4.747 0.790 1140
5.663 5.247 0.836 1103
5.658 5.243 0.813 1070
5.648 5.234 0.790 1223
6.257 5.798 0.835 1615
6.259 5.799 0.811 1732
6.266 5.806 0.786 1446
6.261 5.802 0.761 1826
6.251 5.792 0.735 2541
6.258 5.799 0.711 2869
6.259 5.800 0.686 2956
6.261 5.801 0.661 2607
6.262 5.802 0.637 1797
6.263 5.803 0.612 968
0.500 0.463 0.172 1047
0.494 0.458 0.170 1138
0.488 0.452 0.168 1093
0.488 0.452 0.166 829
0.488 0.452 0.164 727
0.488 0.452 0.162 787
0.488 0.452 0.161 694
0.500 0.463 0.159 603
0.500 0.463 0.158 692
0.494 0.458 0.156 1013
0.488 0.453 0.154 1308
0.488 0.453 0.152 1334
0.489 0.453 0.150 1161
0.489 0.453 0.148 1301
0.489 0.453 0.146 1542
0.489 0.453 0.145 1658
0.489 0.453 0.143 1947
0.489 0.453 0.141 2088
0.489 0.453 0.139 2067
0.489 0.453 0.138 2037
0.489 0.453 0.136 1867
0.489 0.453 0.134 1867
0.489 0.453 0.132 2121
0.489 0.453 0.130 2320
0.489 0.453 0.129 2803
0.489 0.453 0.127 3326
0.488 0.453 0.125 3065
0.488 0.453 0.123 2861
0.488 0.453 0.121 3275
0.488 0.453 0.120 3658
0.488 0.452 0.118 3997
0.488 0.452 0.116 4090
0.488 0.452 0.114 4154
0.488 0.452 0.113 4082
0.488 0.452 0.111 3458
0.488 0.452 0.109 2702
0.488 0.452 0.107 2003
0.488 0.452 0.105 1565
0.488 0.452 0.104 2087
0.488 0.452 0.102 3140
0.488 0.452 0.100 4121
0.488 0.452 0.098 4531
0.488 0.452 0.097 4574
0.487 0.452 0.095 4253
0.487 0.452 0.093 3551
0.487 0.451 0.091 2884
0.487 0.451 0.089 2183
0.487 0.451 0.088 1528
0.487 0.451 0.086 1022
0.487 0.451 0.084 909
0.487 0.451 0.082 1137
0.487 0.451 0.081 2063
0.486 0.451 0.079 2756
0.486 0.451 0.077 3493
0.486 0.450 0.075 4051
0.486 0.450 0.074 4142
0.486 0.450 0.072 4474
0.486 0.450 0.070 4813
0.486 0.450 0.068 4970
0.485 0.450 0.066 4320
0.485 0.450 0.065 3049
1.556 1.433 1.616 4851
1.559 1.436 1.610 9702
1.562 1.439 1.604 9702
1.537 1.415 1.570 10123
1.540 1.418 1.564 12254
1.543 1.421 1.558 11475
1.546 1.424 1.552 10696
1.583 1.457 1.578 7922
1.595 1.469 1.581 8516
1.598 1.472 1.574 8516
1.601 1.475 1.568 6830
1.604 1.477 1.562 5145
1.608 1.480 1.556 6227
1.669 1.537 1.602 8226
1.672 1.540 1.596 9378
1.680 1.547 1.593 10666
1.683 1.550 1.587 8483
1.681 1.548 1.576 6333
1.689 1.556 1.574 5165
1.702 1.567 1.576 3561
1.705 1.570 1.569 2943
1.684 1.550 1.542 3529
1.692 1.558 1.539 4480
1.709 1.574 1.545 6303
1.717 1.582 1.543 9088
1.730 1.593 1.544 8376
1.738 1.601 1.542 8212
1.751 1.613 1.543 8740
1.754 1.616 1.536 9453
1.797 1.655 1.562 9512
1.800 1.658 1.555 13216
1.803 1.661 1.548 15319
1.806 1.664 1.541 13626
1.809 1.666 1.534 10910
1.818 1.674 1.531 10254
1.826 1.681 1.528 9789
1.823 1.679 1.517 10048
1.816 1.673 1.502 10543
1.819 1.675 1.495 10664
1.827 1.683 1.492 12141
1.830 1.685 1.485 13839
1.843 1.697 1.485 12524
1.856 1.709 1.486 11723
1.864 1.717 1.482 7221
1.913 1.762 1.509 4256
1.916 1.765 1.501 4194
1.919 1.767 1.494 4098
1.907 1.756 1.475 4148
1.920 1.768 1.475 4826
1.938 1.785 1.479 7069
1.941 1.787 1.471 8699
1.944 1.790 1.464 7572
1.952 1.797 1.460 4831
1.981 1.824 1.470 4055
1.984 1.827 1.462 4404
2.039 1.877 1.490 6074
2.026 1.865 1.471 8521
2.023 1.863 1.460 9594
2.047 1.885 1.466 9378
2.061 1.897 1.465 10980
2.063 1.900 1.457 9964
2.077 1.912 1.456 6919
2.143 1.973 1.488 8946
2.151 1.981 1.483 10192
2.154 1.983 1.475 9512
2.146 1.976 1.460 8640
2.138 1.969 1.445 10655
2.152 1.981 1.443 14019
2.154 1.984 1.434 15182
2.157 1.987 1.426 8856
2.213 2.038 1.450 12031
2.221 2.046 1.444 17780
2.229 2.053 1.439 21791
2.232 2.056 1.430 18725
2.230 2.053 1.418 13973
2.232 2.056 1.410 11931
2.289 2.108 1.432 12387
2.297 2.115 1.426 12341
2.305 2.123 1.420 10602
2.324 2.140 1.420 8435
2.337 2.152 1.417 9644
2.340 2.155 1.408 10504
2.343 2.157 1.399 9311
2.346 2.160 1.390 8086
2.354 2.167 1.383 9320
2.367 2.180 1.380 11671
2.375 2.187 1.374 10204
2.383 2.195 1.367 5447
2.457 2.262 1.395 5242
2.465 2.270 1.388 6713
2.440 2.247 1.364 6208
2.503 2.305 1.385 6030
2.506 2.307 1.375 6104
2.503 2.305 1.363 6533
2.571 2.368 1.386 7596
2.585 2.380 1.381 11629
2.587 2.383 1.371 15615
2.590 2.385 1.361 14757
2.593 2.387 1.350 13302
2.595 2.390 1.340 8443
2.598 2.392 1.330 5599
2.617 2.410 1.328 6192
2.653 2.443 1.333 5663
2.688 2.475 1.337 3441
2.729 2.513 1.344 4213
2.776 2.557 1.353 7353
2.790 2.569 1.347 8553
2.793 2.572 1.336 8068
2.823 2.600 1.337 7401
2.831 2.607 1.329 9328
2.834 2.609 1.317 7561
2.875 2.648 1.323 6102
2.883 2.655 1.314 5336
2.936 2.704 1.323 6210
2.944 2.711 1.314 5358
2.902 2.672 1.284 4167
3.010 2.772 1.315 4166
3.007 2.769 1.301 3812
3.032 2.792 1.298 4301
3.029 2.789 1.284 5423
3.110 2.864 1.302 5250
3.129 2.882 1.296 4868
3.143 2.894 1.288 4622
3.146 2.897 1.275 4955
3.210 2.956 1.285 4251
3.212 2.958 1.273 7676
3.220 2.966 1.262 11768
3.223 2.968 1.250 9151
3.225 2.970 1.237 8489
3.233 2.977 1.226 7234
3.258 3.000 1.221 5531
3.266 3.008 1.210 6304
3.274 3.015 1.199 3984
3.384 3.116 1.221 3613
3.403 3.134 1.214 4897
3.406 3.136 1.200 4225
3.408 3.138 1.187 3776
3.450 3.177 1.186 3934
3.452 3.179 1.172 6140
3.466 3.191 1.162 4639
3.553 3.272 1.174 3564
3.573 3.290 1.165 3555
3.586 3.302 1.154 4863
3.588 3.304 1.140 3884
3.596 3.312 1.127 2948
3.610 3.324 1.116 3093
3.720 3.426 1.131 3904
3.728 3.433 1.118 3955
3.742 3.446 1.107 3955
3.772 3.474 1.099 4418
3.780 3.481 1.086 3510
3.908 3.599 1.103 5011
3.904 3.595 1.086 4333
3.975 3.661 1.087 2735
4.012 3.694 1.080 2426
4.025 3.707 1.066 3140
4.050 3.730 1.056 3690
4.144 3.816 1.061 3903
4.117 3.791 1.038 3170
4.108 3.783 1.019 2330
4.351 4.007 1.054 2633
4.359 4.014 1.039 2651
4.355 4.010 1.020 2478
4.357 4.012 1.003 2468
4.560 4.200 1.026 2226
4.568 4.207 1.009 1900
4.426 4.076 0.964 1707
4.503 4.146 0.960 1735
4.499 4.143 0.941 1989
4.598 4.235 0.941 2280
4.779 4.401 0.954 2665
4.775 4.397 0.934 2535
4.817 4.436 0.922 2373
4.813 4.432 0.902 2774
4.809 4.428 0.882 2561
5.164 4.755 0.916 2441
5.171 4.762 0.897 2072
0.511 0.470 0.207 1904
0.511 0.470 0.205 2119
0.511 0.471 0.203 1832
0.511 0.471 0.201 1494
0.511 0.471 0.199 1329
0.511 0.471 0.197 1265
0.506 0.466 0.195 1230
5.659 5.211 0.789 1080
6.275 5.779 0.835 1328
6.277 5.780 0.811 1438
0.506 0.466 0.187 1236
6.279 5.782 0.761 1495
6.269 5.773 0.735 2030
6.276 5.779 0.711 2250
6.283 5.786 0.687 2334
6.278 5.782 0.661 2065
6.274 5.777 0.636 1438
0.501 0.461 0.174 1197
0.495 0.456 0.172 1326
0.489 0.451 0.170 1349
0.489 0.451 0.168 1394
0.490 0.451 0.166 1347
0.490 0.451 0.164 1227
0.490 0.451 0.162 1021
0.490 0.451 0.161 794
0.496 0.456 0.159 739
0.496 0.456 0.157 859
0.490 0.451 0.155 1098
0.490 0.451 0.154 1795
0.490 0.451 0.152 2672
0.490 0.451 0.150 3464
0.490 0.451 0.148 4376
0.490 0.451 0.146 4624
0.490 0.451 0.145 4232
0.490 0.451 0.143 3645
0.490 0.451 0.141 2695
0.490 0.451 0.139 1685
0.496 0.457 0.137 1434
0.496 0.457 0.136 1982
0.496 0.457 0.134 2986
0.490 0.451 0.132 4316
0.490 0.451 0.130 5119
0.490 0.451 0.129 5917
0.490 0.451 0.127 6723
0.490 0.451 0.125 6398
0.490 0.451 0.123 6014
0.490 0.451 0.121 5854
0.490 0.451 0.120 5446
0.490 0.451 0.118 5506
0.490 0.451 0.116 5503
0.490 0.451 0.114 5377
0.490 0.451 0.113 5188
0.490 0.451 0.111 4314
0.489 0.451 0.109 3487
0.489 0.451 0.107 3272
0.489 0.451 0.105 3179
0.489 0.451 0.104 3141
0.489 0.450 0.102 3500
0.489 0.450 0.100 3988
0.489 0.450 0.098 3968
0.489 0.450 0.097 3713
0.489 0.450 0.095 3194
0.489 0.450 0.093 2380
0.489 0.450 0.091 1643
0.489 0.450 0.089 1030
0.488 0.450 0.088 1018
0.488 0.450 0.086 1303
0.488 0.450 0.084 2255
0.488 0.449 0.082 3332
0.488 0.449 0.081 4500
0.488 0.449 0.079 5525
0.488 0.449 0.077 6075
0.488 0.449 0.075 6268
0.487 0.449 0.074 5855
0.487 0.449 0.072 5793
0.487 0.449 0.070 5558
0.487 0.448 0.068 5087
0.487 0.448 0.066 3966
0.487 0.448 0.065 1938
1.558 1.430 1.616 5091
1.561 1.433 1.610 10183
1.565 1.436 1.604 10183
1.544 1.417 1.575 11176
1.542 1.415 1.564 13508
1.545 1.418 1.558 12514
1.553 1.425 1.557 11531
1.585 1.455 1.578 7900
1.598 1.466 1.581 8564
1.601 1.469 1.574 8564
1.604 1.472 1.568 6934
1.607 1.475 1.562 5304
1.610 1.478 1.556 6337
1.671 1.534 1.602 8137
1.675 1.537 1.596 9407
1.683 1.544 1.593 10787
1.686 1.547 1.587 8671
1.684 1.545 1.576 6616
1.692 1.553 1.574 5634
1.700 1.560 1.572 4364
1.703 1.563 1.565 3931
1.701 1.561 1.554 4489
1.699 1.560 1.543 5170
1.717 1.576 1.549 7731
1.725 1.583 1.547 10678
1.733 1.591 1.544 10252
1.746 1.603 1.546 10451
1.754 1.610 1.543 10884
1.757 1.613 1.536 11474
1.755 1.611 1.526 9814
1.803 1.655 1.555 12976
1.801 1.653 1.544 15087
1.804 1.656 1.537 13244
1.807 1.659 1.530 10647
1.820 1.671 1.531 8972
1.833 1.683 1.532 8168
1.831 1.681 1.521 8132
1.824 1.674 1.506 8219
1.822 1.672 1.495 8435
1.830 1.680 1.492 10166
1.833 1.682 1.485 12005
1.851 1.699 1.489 11265
1.859 1.706 1.486 10788
1.872 1.718 1.486 6878
1.916 1.759 1.509 4668
1.919 1.761 1.501 4833
1.922 1.764 1.494 4517
1.935 1.776 1.494 4115
1.933 1.774 1.482 4808
1.941 1.782 1.479 7035
1.944 1.784 1.471 8592
1.947 1.787 1.464 7394
1.960 1.799 1.463 4923
1.979 1.816 1.466 4952
1.987 1.823 1.462 5381
2.005 1.840 1.465 6097
2.024 1.857 1.468 7800
2.026 1.860 1.460 9062
2.050 1.882 1.466 9250
2.064 1.894 1.465 11389
2.072 1.901 1.460 10430
2.080 1.909 1.456 7747
2.146 1.970 1.488 10071
2.154 1.977 1.483 11054
2.157 1.980 1.475 10663
2.155 1.978 1.463 9565
2.152 1.975 1.451 10657
2.155 1.978 1.443 14689
2.158 1.980 1.434 15917
2.166 1.988 1.429 9027
2.211 2.030 1.447 10843
2.225 2.042 1.444 16463
2.233 2.049 1.439 19844
2.236 2.052 1.430 16238
2.233 2.050 1.418 12481
2.289 2.101 1.441 11439
2.292 2.104 1.432 13297
2.295 2.106 1.423 12863
2.303 2.114 1.417 11475
2.322 2.131 1.417 9428
2.341 2.149 1.417 9376
2.344 2.151 1.408 9129
2.346 2.154 1.399 7987
2.349 2.156 1.390 7429
2.363 2.169 1.386 8598
2.371 2.176 1.380 10859
2.379 2.183 1.374 9957
2.447 2.246 1.399 6127
2.460 2.258 1.395 4821
2.430 2.231 1.368 5636
2.444 2.243 1.364 5695
2.507 2.301 1.385 6058
2.509 2.303 1.375 6894
2.501 2.296 1.360 7351
2.575 2.363 1.386 7607
2.583 2.371 1.378 10576
2.591 2.378 1.371 14895
2.594 2.381 1.361 14636
2.597 2.383 1.350 12982
2.599 2.386 1.340 8499
2.607 2.393 1.333 5995
2.632 2.416 1.333 6762
2.651 2.433 1.330 5581
2.725 2.502 1.352 3198
2.772 2.545 1.361 4266
2.781 2.552 1.353 6518
2.794 2.565 1.347 8485
2.797 2.567 1.336 9115
2.827 2.595 1.337 7033
2.835 2.602 1.329 8340
2.838 2.605 1.317 6615
2.885 2.648 1.325 6200
2.893 2.655 1.316 5745
2.940 2.699 1.323 6282
2.948 2.706 1.314 5595
2.973 2.729 1.311 3931
3.009 2.762 1.313 4358
3.012 2.764 1.301 3946
3.037 2.787 1.298 3940
3.034 2.784 1.284 4959
3.115 2.859 1.302 4844
3.129 2.872 1.294 4733
3.142 2.884 1.286 4596
3.139 2.881 1.271 5070
3.215 2.951 1.285 4400
3.217 2.953 1.273 8002
3.225 2.960 1.262 12604
3.228 2.963 1.250 10107
3.224 2.960 1.235 9486
3.227 2.962 1.222 7824
3.263 2.995 1.221 5186
3.271 3.002 1.210 6573
3.279 3.010 1.199 4716
3.395 3.116 1.223 2765
3.408 3.128 1.214 3953
3.411 3.131 1.200 3637
3.413 3.133 1.187 3363
3.455 3.171 1.186 3494
3.457 3.173 1.172 5458
3.465 3.181 1.160 3958
3.559 3.266 1.174 2903
3.584 3.289 1.166 2846
3.592 3.296 1.154 4698
3.594 3.298 1.140 3698
3.596 3.300 1.126 2832
3.604 3.308 1.113 2824
3.726 3.420 1.131 3149
3.739 3.432 1.120 3345
3.753 3.445 1.108 3537
3.778 3.468 1.099 3564
3.786 3.475 1.086 3012
3.914 3.592 1.103 3894
3.910 3.589 1.086 3407
3.976 3.649 1.086 2583
4.024 3.693 1.081 2374
4.031 3.700 1.066 2754
4.051 3.718 1.055 3364
4.047 3.714 1.037 3165
4.129 3.790 1.039 2665
4.120 3.781 1.021 1754
4.358 4.000 1.054 2468
4.360 4.001 1.037 2303
4.292 3.940 1.006 2020
4.364 4.005 1.003 2104
4.573 4.197 1.027 1620
4.581 4.204 1.010 1368
0.521 0.478 0.229 1539
0.521 0.479 0.227 1618
4.598 4.220 0.958 1573
4.600 4.222 0.940 2076
4.798 4.404 0.955 2380
4.782 4.389 0.934 2048
4.825 4.428 0.922 1764
4.820 4.424 0.902 2155
4.816 4.421 0.882 2203
0.517 0.474 0.211 2580
0.517 0.475 0.209 3008
0.511 0.469 0.207 2954
0.512 0.470 0.205 2387
0.512 0.470 0.203 1547
0.512 0.470 0.201 1326
0.512 0.470 0.199 1394
5.368 4.927 0.797 1179
5.369 4.928 0.776 979
5.667 5.201 0.789 852
6.285 5.768 0.835 1031
6.286 5.770 0.811 1120
0.513 0.471 0.188 1337
0.507 0.465 0.185 1880
0.501 0.460 0.183 2341
0.496 0.455 0.181 2285
0.496 0.455 0.179 1837
0.502 0.460 0.178 1682
0.502 0.460 0.176 1955
0.502 0.460 0.174 2308
0.502 0.461 0.172 2413
0.496 0.455 0.170 2399
0.496 0.455 0.168 2474
0.496 0.455 0.166 2276
0.496 0.455 0.165 2021
0.496 0.455 0.163 1737
0.502 0.461 0.161 1690
0.508 0.466 0.160 2350
0.502 0.461 0.158 3344
0.496 0.456 0.156 4366
0.496 0.456 0.154 5760
0.491 0.450 0.152 6886
0.491 0.450 0.150 6831
0.491 0.450 0.148 6438
0.491 0.450 0.146 5418
0.491 0.450 0.145 4124
0.491 0.450 0.143 3322
0.491 0.450 0.141 2744
0.497 0.456 0.139 2446
0.497 0.456 0.137 2827
0.497 0.456 0.136 3720
0.491 0.450 0.134 5252
0.491 0.450 0.132 6936
0.491 0.450 0.130 7325
0.491 0.450 0.129 7361
0.491 0.450 0.127 7007
0.491 0.450 0.125 5709
0.491 0.450 0.123 4475
0.491 0.450 0.121 4057
0.491 0.450 0.120 4320
0.490 0.450 0.118 5163
0.490 0.450 0.116 5628
0.490 0.450 0.114 5424
0.490 0.450 0.113 4907
0.490 0.450 0.111 3843
0.490 0.450 0.109 2880
0.490 0.450 0.107 2226
0.490 0.450 0.105 1767
0.490 0.450 0.104 2009
0.490 0.450 0.102 2806
0.490 0.450 0.100 3398
0.490 0.449 0.098 3299
0.490 0.449 0.097 2776
0.490 0.449 0.095 2301
0.489 0.449 0.093 1794
0.489 0.449 0.091 2181
0.489 0.449 0.089 2764
0.489 0.449 0.088 3161
0.489 0.449 0.086 3733
0.489 0.449 0.084 4752
0.489 0.449 0.082 5747
0.489 0.449 0.081 6217
0.489 0.448 0.079 6390
0.488 0.448 0.077 5692
0.488 0.448 0.075 4861
0.488 0.448 0.074 3824
0.488 0.448 0.072 3032
0.488 0.448 0.070 2668
0.488 0.448 0.068 2226
0.488 0.447 0.066 2064
0.487 0.447 0.065 1781
1.562 1.425 1.616 5315
1.566 1.428 1.610 10631
1.569 1.431 1.604 10631
1.548 1.412 1.575 12237
1.551 1.415 1.569 14764
1.554 1.418 1.563 13501
1.557 1.421 1.557 12237
1.565 1.428 1.555 8397
1.602 1.462 1.581 8648
1.605 1.464 1.574 8648
1.608 1.467 1.568 7128
1.606 1.466 1.558 5661
1.609 1.468 1.552 6571
1.676 1.529 1.602 7882
1.679 1.532 1.596 9270
1.687 1.539 1.593 10703
1.685 1.538 1.583 8772
1.688 1.540 1.576 6886
1.696 1.548 1.574 6007
1.705 1.555 1.572 4989
1.708 1.558 1.565 4700
1.706 1.556 1.554 5927
1.709 1.559 1.548 7209
1.722 1.571 1.549 9593
1.730 1.578 1.547 12534
1.738 1.585 1.544 12038
1.751 1.597 1.546 12739
1.759 1.605 1.543 13097
1.762 1.607 1.536 13531
1.760 1.606 1.526 11678
1.808 1.650 1.555 12691
1.806 1.648 1.544 15019
1.809 1.651 1.537 13259
1.812 1.653 1.530 10828
1.820 1.661 1.527 8587
1.838 1.677 1.532 7587
1.841 1.680 1.525 6948
1.844 1.683 1.518 6310
1.827 1.667 1.495 6171
1.835 1.674 1.492 8105
1.843 1.681 1.488 10076
1.856 1.693 1.489 9849
1.869 1.705 1.489 9755
1.877 1.713 1.486 6510
1.916 1.748 1.505 5099
1.919 1.751 1.497 5390
1.927 1.758 1.494 4839
1.941 1.770 1.494 4108
1.944 1.773 1.486 4739
1.946 1.776 1.479 6814
1.954 1.783 1.475 8293
1.952 1.781 1.464 7037
1.971 1.798 1.467 5378
1.989 1.815 1.470 6238
1.992 1.817 1.462 6526
2.005 1.830 1.461 6221
2.019 1.842 1.461 6936
2.027 1.849 1.456 8113
2.056 1.876 1.466 8743
2.069 1.888 1.465 11205
2.077 1.895 1.460 10438
2.091 1.908 1.459 8455
2.147 1.958 1.485 11078
2.155 1.966 1.480 11801
2.163 1.973 1.475 11638
2.166 1.976 1.466 10735
2.190 1.998 1.471 11759
2.166 1.976 1.446 15339
2.169 1.979 1.438 16177
2.172 1.981 1.429 8946
2.207 2.013 1.440 9645
2.231 2.035 1.444 14687
2.239 2.043 1.439 17330
2.236 2.040 1.427 13974
2.239 2.043 1.418 11465
2.296 2.094 1.441 11896
2.299 2.097 1.432 13600
2.301 2.100 1.423 12977
2.309 2.107 1.417 11940
2.323 2.119 1.414 10553
2.347 2.142 1.417 9419
2.356 2.149 1.411 8653
2.358 2.152 1.402 7344
2.361 2.154 1.393 6636
2.369 2.161 1.386 7745
2.383 2.174 1.383 9839
2.385 2.176 1.374 9169
2.454 2.238 1.399 7461
2.429 2.216 1.375 4586
2.432 2.218 1.365 4964
2.500 2.281 1.389 5053
2.508 2.288 1.382 6322
2.516 2.296 1.375 7557
2.508 2.288 1.360 8049
2.582 2.356 1.386 7299
2.590 2.363 1.378 9405
2.598 2.371 1.371 13973
2.601 2.373 1.361 14224
2.604 2.375 1.350 12340
2.612 2.383 1.343 8696
2.620 2.390 1.335 6709
2.645 2.413 1.335 7765
2.653 2.420 1.328 6326
2.733 2.493 1.352 3301
2.780 2.536 1.361 4264
2.788 2.544 1.353 5594
2.802 2.556 1.347 8317
2.805 2.559 1.336 10007
2.829 2.581 1.335 6601
2.849 2.599 1.331 7303
2.874 2.622 1.329 6017
2.893 2.639 1.325 6226
2.901 2.647 1.316 6336
2.937 2.680 1.318 6277
2.957 2.697 1.314 5613
2.959 2.700 1.302 4193
3.018 2.753 1.313 4378
3.015 2.750 1.299 4099
3.045 2.778 1.298 3527
3.048 2.781 1.286 4534
3.123 2.850 1.302 4289
3.137 2.862 1.294 4566
3.145 2.870 1.284 4838
3.148 2.872 1.271 5316
3.201 2.920 1.277 4262
3.232 2.948 1.275 7122
3.234 2.951 1.262 11102
3.231 2.948 1.248 9599
3.233 2.950 1.235 9737
3.236 2.952 1.222 7932
3.255 2.970 1.216 4579
3.286 2.998 1.212 6179
3.288 3.000 1.199 4859
3.285 2.997 1.185 2249
3.424 3.123 1.215 3181
3.420 3.120 1.200 3094
3.428 3.128 1.189 2783
3.465 3.161 1.186 2805
3.467 3.163 1.172 4232
3.469 3.165 1.159 3135
3.563 3.250 1.172 2295
3.599 3.284 1.168 2256
3.601 3.286 1.154 4071
3.598 3.282 1.138 3270
3.606 3.290 1.126 2646
3.602 3.286 1.110 2634
3.730 3.403 1.130 2167
3.761 3.431 1.123 2680
3.769 3.439 1.110 3193
3.783 3.451 1.098 3120
3.790 3.458 1.085 2468
3.798 3.465 1.071 2967
4.002 3.651 1.105 2736
3.986 3.637 1.086 2365
4.035 3.681 1.081 2514
4.042 3.688 1.066 2537
4.056 3.700 1.053 3130
4.052 3.697 1.036 2834
4.146 3.783 1.040 1776
0.527 0.481 0.244 1585
4.375 3.992 1.056 2228
0.522 0.476 0.239 1970
0.522 0.476 0.237 1845
4.294 3.918 0.987 1490
0.528 0.482 0.234 1464
0.528 0.482 0.232 1819
0.523 0.477 0.229 1945
4.487 4.094 0.954 1627
4.610 4.206 0.958 1355
4.612 4.208 0.940 1934
4.817 4.395 0.956 2059
4.801 4.380 0.935 1633
0.518 0.472 0.217 1669
0.518 0.473 0.215 2356
0.518 0.473 0.213 3092
0.518 0.473 0.211 3555
0.519 0.473 0.209 2912
5.160 4.707 0.872 2032
5.161 4.709 0.851 1689
0.513 0.468 0.203 1670
0.513 0.468 0.201 2027
0.508 0.463 0.198 1866
0.508 0.463 0.197 1505
0.508 0.463 0.195 1325
0.520 0.474 0.194 1579
0.514 0.469 0.192 2073
0.514 0.469 0.190 2540
0.514 0.469 0.188 2957
0.508 0.464 0.185 3683
0.503 0.459 0.183 4386
0.503 0.459 0.181 4688
0.503 0.459 0.179 5257
0.503 0.459 0.178 5620
0.503 0.459 0.176 4993
0.503 0.459 0.174 4222
0.503 0.459 0.172 3399
0.503 0.459 0.170 2597
0.503 0.459 0.169 1974
0.503 0.459 0.167 1449
0.503 0.459 0.165 1916
0.498 0.454 0.163 3136
0.503 0.459 0.161 4670
0.504 0.459 0.159 6454
0.498 0.454 0.157 7783
0.498 0.454 0.156 8194
0.498 0.454 0.154 8403
0.492 0.449 0.152 8318
0.492 0.449 0.150 6910
0.492 0.449 0.148 5487
0.492 0.449 0.146 4118
0.492 0.449 0.145 2896
0.492 0.449 0.143 2503
0.492 0.449 0.141 2862
0.492 0.449 0.139 3908
0.492 0.449 0.138 5276
0.492 0.449 0.136 6134
0.492 0.449 0.134 6693
0.492 0.449 0.132 6806
0.492 0.449 0.130 5619
0.492 0.449 0.129 4185
0.492 0.449 0.127 2919
0.492 0.449 0.125 2730
0.492 0.449 0.123 3952
0.492 0.449 0.121 5489
0.492 0.449 0.120 6214
0.492 0.449 0.118 6218
0.492 0.449 0.116 5527
0.492 0.449 0.114 4325
0.492 0.449 0.113 3274
0.492 0.448 0.111 2533
0.492 0.448 0.109 2377
0.491 0.448 0.107 2582
0.491 0.448 0.105 2859
0.491 0.448 0.104 2881
0.491 0.448 0.102 3052
0.491 0.448 0.100 3254
0.491 0.448 0.098 3166
0.491 0.448 0.097 3056
0.491 0.448 0.095 3166
0.491 0.448 0.093 3328
0.491 0.448 0.091 3831
0.491 0.448 0.089 4180
0.490 0.447 0.088 4193
0.490 0.447 0.086 4265
0.490 0.447 0.084 4543
0.490 0.447 0.082 4860
0.490 0.447 0.081 4562
0.490 0.447 0.079 3995
0.490 0.447 0.077 2929
0.490 0.447 0.075 2030
0.489 0.447 0.074 1466
0.489 0.446 0.072 966
0.489 0.446 0.070 1342
0.489 0.446 0.068 1634
0.489 0.446 0.066 1358
0.489 0.446 0.065 671
1.560 1.418 1.611 5458
1.564 1.421 1.605 10917
1.567 1.424 1.599 10917
1.551 1.409 1.575 13024
1.554 1.412 1.569 15750
1.557 1.415 1.563 14144
1.560 1.418 1.557 12538
1.568 1.425 1.555 8855
1.605 1.458 1.581 8625
1.608 1.461 1.574 8625
1.606 1.460 1.564 7323
1.609 1.462 1.558 6135
1.612 1.465 1.552 6853
1.615 1.468 1.545 7572
1.682 1.529 1.596 8963
1.685 1.531 1.589 10464
1.688 1.534 1.583 8745
1.691 1.537 1.576 7026
1.699 1.544 1.574 6266
1.703 1.547 1.567 5445
1.706 1.550 1.561 5260
1.709 1.553 1.554 7133
1.712 1.556 1.548 9007
1.725 1.567 1.549 11456
1.733 1.575 1.547 14575
1.746 1.587 1.548 13886
1.754 1.594 1.546 14888
1.762 1.601 1.543 15009
1.765 1.604 1.536 15169
1.763 1.602 1.526 13006
1.801 1.637 1.547 12231
1.804 1.640 1.540 14706
1.812 1.647 1.537 13210
1.815 1.650 1.530 11148
1.823 1.657 1.527 9149
1.837 1.669 1.528 7948
1.845 1.676 1.525 6317
1.858 1.688 1.525 5028
1.845 1.677 1.507 3954
1.838 1.671 1.492 5686
1.846 1.678 1.488 7614
1.865 1.694 1.493 7945
1.873 1.702 1.489 8239
1.886 1.714 1.490 5859
1.920 1.745 1.505 5241
1.923 1.747 1.497 5691
1.931 1.755 1.494 5012
1.944 1.767 1.494 4176
1.947 1.769 1.486 4560
1.955 1.777 1.482 6185
1.958 1.779 1.475 7468
1.961 1.782 1.467 6469
1.979 1.799 1.470 6020
1.993 1.811 1.470 7406
2.001 1.818 1.466 7500
2.009 1.826 1.461 6182
2.017 1.833 1.457 5903
2.030 1.845 1.456 6605
2.065 1.876 1.469 8082
2.073 1.884 1.465 10662
2.081 1.891 1.460 10204
2.137 1.942 1.486 9255
2.150 1.954 1.485 11938
2.159 1.962 1.480 12418
2.167 1.969 1.475 12511
2.175 1.977 1.470 12327
2.194 1.994 1.471 14505
2.181 1.982 1.453 16635
2.173 1.975 1.438 16136
2.176 1.977 1.429 8630
2.210 2.009 1.440 8232
2.235 2.031 1.444 12364
2.243 2.038 1.439 14202
2.246 2.041 1.430 11973
2.243 2.039 1.418 10471
2.300 2.090 1.441 11868
2.303 2.093 1.432 13291
2.305 2.095 1.423 12429
2.314 2.103 1.417 11808
2.327 2.115 1.414 11329
2.352 2.137 1.417 9763
2.360 2.144 1.411 9083
2.368 2.152 1.405 7389
2.420 2.199 1.422 6331
2.433 2.211 1.418 7464
2.447 2.224 1.415 8860
2.455 2.231 1.408 9787
2.458 2.234 1.399 8619
2.439 2.216 1.378 4685
2.436 2.214 1.365 3834
2.504 2.276 1.389 5136
2.512 2.283 1.382 6684
2.521 2.291 1.375 8039
2.512 2.283 1.360 8321
2.587 2.351 1.386 6929
2.595 2.358 1.378 8331
2.603 2.366 1.371 12687
2.606 2.368 1.361 13071
2.614 2.375 1.353 11152
2.622 2.383 1.346 8763
2.641 2.400 1.343 7549
2.649 2.408 1.335 8601
2.652 2.410 1.325 7206
2.654 2.412 1.315 3619
2.718 2.470 1.332 4118
2.804 2.548 1.358 4720
2.807 2.551 1.347 7959
2.809 2.553 1.336 10585
2.818 2.561 1.328 6573
2.854 2.593 1.331 6266
2.890 2.626 1.334 5819
2.898 2.634 1.325 5931
2.906 2.641 1.316 6496
2.931 2.664 1.314 6355
2.962 2.692 1.314 5419
2.964 2.694 1.302 4523
2.950 2.681 1.284 5088
3.020 2.744 1.299 4010
3.045 2.767 1.296 3452
3.047 2.769 1.284 4323
3.056 2.777 1.274 3946
3.143 2.856 1.294 4156
3.145 2.858 1.282 4414
3.148 2.861 1.269 4622
3.207 2.914 1.277 4318
3.232 2.937 1.273 5503
3.240 2.944 1.262 7869
3.237 2.941 1.248 7961
3.233 2.938 1.233 9179
3.241 2.946 1.222 7487
3.244 2.948 1.210 4482
3.292 2.991 1.212 5057
3.294 2.993 1.199 4247
3.290 2.990 1.185 1844
3.430 3.117 1.215 2775
3.420 3.108 1.198 3009
3.440 3.126 1.190 2520
3.482 3.165 1.189 2128
3.467 3.151 1.170 2769
3.469 3.153 1.157 2239
3.535 3.212 1.162 2363
3.606 3.277 1.168 2250
3.608 3.279 1.154 3338
3.604 3.275 1.138 2625
3.601 3.272 1.123 2149
0.536 0.487 0.274 2791
0.536 0.487 0.272 2803
3.797 3.450 1.130 2586
3.781 3.437 1.111 2846
3.778 3.433 1.095 2501
3.941 3.582 1.121 2036
3.816 3.468 1.074 2445
4.014 3.648 1.107 2113
4.034 3.666 1.095 2205
4.042 3.673 1.081 2269
4.049 3.680 1.066 2037
4.057 3.687 1.052 2631
4.053 3.684 1.035 2470
0.533 0.485 0.247 1588
0.534 0.485 0.245 2120
0.528 0.480 0.242 2325
0.528 0.480 0.240 2396
0.528 0.480 0.238 2144
0.529 0.480 0.236 1671
0.535 0.486 0.235 1663
0.529 0.481 0.232 1708
4.499 4.089 0.972 1702
4.501 4.090 0.955 1587
0.536 0.487 0.227 1073
4.626 4.204 0.941 1800
4.831 4.391 0.957 1967
0.524 0.477 0.220 2922
0.525 0.477 0.218 4295
0.519 0.472 0.215 4695
0.519 0.472 0.213 4192
0.519 0.472 0.211 3446
0.514 0.467 0.208 2910
0.520 0.472 0.207 3176
0.520 0.472 0.206 3527
0.514 0.467 0.203 3219
0.514 0.467 0.201 2814
0.508 0.462 0.198 2149
0.509 0.462 0.197 1746
0.509 0.462 0.195 2206
0.515 0.468 0.194 2821
0.515 0.468 0.192 3585
0.515 0.468 0.190 4942
0.515 0.468 0.188 6045
0.509 0.463 0.185 7132
0.509 0.463 0.184 7744
0.504 0.458 0.181 7445
0.510 0.463 0.180 6752
0.504 0.458 0.178 5259
0.504 0.458 0.176 3513
0.510 0.463 0.174 2581
0.504 0.458 0.172 2168
0.504 0.458 0.170 2371
0.504 0.458 0.169 3085
0.504 0.458 0.167 3980
0.504 0.458 0.165 5154
0.504 0.458 0.163 5759
0.504 0.458 0.161 6180
0.504 0.458 0.159 6783
0.499 0.453 0.157 6968
0.499 0.453 0.156 6576
0.499 0.453 0.154 6395
0.493 0.448 0.152 6258
0.493 0.448 0.150 5427
0.499 0.453 0.148 5026
0.499 0.453 0.147 4641
0.499 0.453 0.145 4827
0.499 0.453 0.143 5637
0.493 0.448 0.141 5910
0.493 0.448 0.139 6160
0.493 0.448 0.138 6277
0.493 0.448 0.136 5451
0.493 0.448 0.134 4568
0.493 0.448 0.132 3893
0.493 0.448 0.130 3044
0.493 0.448 0.129 2989
0.493 0.448 0.127 3651
0.493 0.448 0.125 4133
0.493 0.448 0.123 4786
0.493 0.448 0.121 5450
0.493 0.448 0.120 5163
0.493 0.448 0.118 4527
0.493 0.448 0.116 3627
0.493 0.448 0.114 2716
0.493 0.448 0.113 2243
0.492 0.448 0.111 1966
0.492 0.447 0.109 1954
0.492 0.447 0.107 1973
0.492 0.447 0.105 1930
0.492 0.447 0.104 1904
0.492 0.447 0.102 2100
0.492 0.447 0.100 2270
0.492 0.447 0.098 2227
0.492 0.447 0.097 2125
0.492 0.447 0.095 2090
0.492 0.447 0.093 2097
0.492 0.447 0.091 2329
0.491 0.447 0.089 2473
0.491 0.447 0.088 2546
0.491 0.446 0.086 2621
0.491 0.446 0.084 2666
0.491 0.446 0.082 2715
0.491 0.446 0.081 2392
0.491 0.446 0.079 1960
0.491 0.446 0.077 1487
0.490 0.446 0.075 1224
0.490 0.446 0.074 1441
0.490 0.445 0.072 1652
0.490 0.445 0.070 1889
0.490 0.445 0.068 1998
0.490 0.445 0.066 1641
0.490 0.445 0.065 1023
1.565 1.414 1.611 5595
1.568 1.416 1.605 11191
1.571 1.419 1.599 11191
1.560 1.409 1.579 13596
1.563 1.412 1.573 16361
1.561 1.410 1.563 14484
1.564 1.413 1.557 12616
1.577 1.425 1.560 9460
1.609 1.454 1.581 8893
1.612 1.457 1.574 8893
1.610 1.455 1.564 7830
1.609 1.453 1.553 6905
1.612 1.456 1.547 7345
1.615 1.459 1.541 7785
1.686 1.524 1.596 8623
1.690 1.527 1.589 10136
1.693 1.529 1.583 8513
1.696 1.532 1.576 6891
1.704 1.540 1.574 6493
1.707 1.542 1.567 6166
1.710 1.545 1.561 6082
1.713 1.548 1.554 8235
1.716 1.551 1.548 10388
1.729 1.562 1.549 12935
1.737 1.570 1.547 16194
1.745 1.577 1.544 15435
1.758 1.589 1.546 16644
1.767 1.596 1.543 16454
1.770 1.599 1.536 16322
1.768 1.597 1.526 13954
1.801 1.627 1.543 12008
1.809 1.634 1.540 14365
1.812 1.637 1.533 13036
1.820 1.644 1.530 11376
1.828 1.652 1.527 9897
1.836 1.659 1.524 9015
1.849 1.671 1.525 6188
1.873 1.692 1.533 4741
1.876 1.695 1.526 3136
1.848 1.670 1.496 3686
1.856 1.677 1.492 5430
1.875 1.694 1.497 6199
1.883 1.701 1.493 6779
1.891 1.708 1.490 5188
1.925 1.739 1.505 5194
1.928 1.742 1.497 5814
1.936 1.749 1.494 5192
1.954 1.766 1.497 4470
1.952 1.764 1.486 4421
1.955 1.766 1.479 5341
1.963 1.774 1.475 6309
1.971 1.781 1.471 5841
1.985 1.793 1.470 6511
1.998 1.805 1.470 8217
2.006 1.812 1.466 8197
2.009 1.815 1.458 6048
2.022 1.827 1.457 4914
2.125 1.920 1.516 5174
2.070 1.870 1.469 7376
2.073 1.873 1.461 9620
2.087 1.885 1.460 9515
2.137 1.931 1.483 9938
2.151 1.943 1.481 12186
2.159 1.951 1.476 12884
2.172 1.963 1.475 13284
2.191 1.980 1.476 14872
2.200 1.987 1.471 17390
2.197 1.985 1.459 19148
2.189 1.978 1.444 16279
2.197 1.985 1.439 8478
2.232 2.017 1.450 7568
2.241 2.024 1.444 10290
2.254 2.037 1.442 11595
2.257 2.039 1.433 10757
2.249 2.032 1.418 10116
2.311 2.088 1.444 11458
2.314 2.091 1.435 12369
2.311 2.088 1.423 11303
2.320 2.096 1.417 11299
2.333 2.108 1.414 11452
2.358 2.130 1.417 10125
2.366 2.138 1.411 9933
2.374 2.145 1.405 7970
2.420 2.187 1.419 6627
2.440 2.204 1.418 7814
2.453 2.217 1.415 9931
2.456 2.219 1.405 11332
2.459 2.222 1.396 10095
2.467 2.229 1.389 6001
2.503 2.261 1.396 4212
2.511 2.269 1.389 5615
2.514 2.271 1.380 7099
2.527 2.283 1.375 8327
2.519 2.276 1.360 8128
2.593 2.343 1.386 6471
2.602 2.351 1.378 7341
2.610 2.358 1.371 11301
2.612 2.360 1.361 11477
2.626 2.373 1.356 9698
2.640 2.385 1.351 8845
2.648 2.393 1.343 8318
2.656 2.400 1.335 9088
2.659 2.402 1.325 7932
2.661 2.405 1.315 3961
2.725 2.462 1.332 3935
2.812 2.540 1.358 3992
2.814 2.543 1.347 7278
2.811 2.540 1.334 10615
2.819 2.547 1.325 7016
2.850 2.575 1.326 5983
2.897 2.618 1.334 5619
2.906 2.625 1.325 5271
2.914 2.633 1.316 6009
2.933 2.650 1.311 6167
2.964 2.678 1.311 5192
2.966 2.680 1.300 4976
2.958 2.672 1.284 5876
3.028 2.736 1.299 3784
3.047 2.753 1.294 3723
3.055 2.761 1.284 4352
3.058 2.763 1.272 3801
3.151 2.847 1.294 3703
3.153 2.849 1.282 4186
3.156 2.851 1.269 4042
3.215 2.905 1.277 4231
3.223 2.912 1.267 3619
3.243 2.930 1.260 4000
3.239 2.927 1.246 6225
3.242 2.929 1.233 7838
3.244 2.931 1.221 6213
3.247 2.933 1.208 4244
3.323 3.002 1.220 3801
3.308 2.989 1.201 3180
3.305 2.986 1.187 1505
3.421 3.091 1.210 2145
3.429 3.099 1.198 2465
3.460 3.126 1.194 2293
3.468 3.134 1.182 1734
3.442 3.110 1.160 1778
3.467 3.133 1.154 1733
3.544 3.202 1.162 2446
3.615 3.266 1.168 2684
3.617 3.268 1.154 3092
0.542 0.490 0.279 2712
0.543 0.490 0.277 2807
0.543 0.491 0.275 2917
0.537 0.486 0.272 2410
3.812 3.445 1.132 2803
3.797 3.431 1.113 3028
0.527 0.476 0.263 2793
3.951 3.570 1.121 2315
3.954 3.572 1.105 1974
3.880 3.506 1.072 1686
4.056 3.665 1.098 1859
4.047 3.656 1.080 1745
4.153 3.752 1.088 1898
0.540 0.488 0.252 1978
0.535 0.483 0.249 2879
0.535 0.483 0.247 2987
0.535 0.483 0.245 2629
0.535 0.484 0.243 2172
0.535 0.484 0.241 1957
0.536 0.484 0.239 2111
0.536 0.484 0.237 2881
0.530 0.479 0.234 3324
0.525 0.474 0.231 2507
0.519 0.469 0.228 1548
4.530 4.093 0.958 1441
0.525 0.475 0.225 1301
0.525 0.475 0.223 2765
0.526 0.475 0.222 4766
0.526 0.475 0.220 5610
0.526 0.475 0.218 5237
0.526 0.475 0.216 4031
0.526 0.476 0.214 3232
0.521 0.470 0.211 3129
0.521 0.471 0.209 2819
0.527 0.476 0.208 2549
0.521 0.471 0.206 2630
0.515 0.466 0.203 2746
0.516 0.466 0.201 2861
0.510 0.461 0.198 2964
0.510 0.461 0.197 2955
0.522 0.471 0.196 3138
0.522 0.472 0.194 3820
0.516 0.466 0.192 5664
0.516 0.466 0.190 7692
0.511 0.461 0.187 7871
0.511 0.461 0.185 7408
0.511 0.461 0.184 6335
0.505 0.456 0.181 4617
0.505 0.456 0.179 2942
0.499 0.451 0.177 1565
6.750 6.099 0.670 1210
0.505 0.457 0.174 1322
0.511 0.462 0.173 1789
0.511 0.462 0.171 2457
0.511 0.462 0.169 3051
0.511 0.462 0.167 3476
0.506 0.457 0.165 3815
0.506 0.457 0.163 3713
0.506 0.457 0.161 3613
0.506 0.457 0.159 3894
0.506 0.457 0.158 4057
0.500 0.452 0.156 3797
0.500 0.452 0.154 3455
0.500 0.452 0.152 3007
0.500 0.452 0.150 2719
0.506 0.457 0.148 3274
0.500 0.452 0.147 3655
0.500 0.452 0.145 4178
0.500 0.452 0.143 4607
0.500 0.452 0.141 4249
0.494 0.447 0.139 3729
0.494 0.447 0.138 3115
0.494 0.447 0.136 2247
0.494 0.447 0.134 1688
0.494 0.447 0.132 1535
0.494 0.447 0.130 1537
0.494 0.446 0.129 1861
0.494 0.446 0.127 2252
0.494 0.446 0.125 2413
0.494 0.446 0.123 2755
0.494 0.446 0.121 3144
0.494 0.446 0.120 2905
0.494 0.446 0.118 2396
0.494 0.446 0.116 1763
0.494 0.446 0.114 1073
0.494 0.446 0.113 695
0.494 0.446 0.111 566
0.494 0.446 0.109 612
0.494 0.446 0.107 815
0.494 0.446 0.105 1057
0.493 0.446 0.104 1222
0.493 0.446 0.102 1461
0.493 0.446 0.100 1575
0.493 0.446 0.098 1506
0.493 0.446 0.097 1325
0.493 0.445 0.095 1229
0.493 0.445 0.093 1279
0.493 0.445 0.091 1576
0.493 0.445 0.089 1896
0.493 0.445 0.088 2077
0.493 0.445 0.086 2137
0.492 0.445 0.084 2116
0.492 0.445 0.082 2080
0.492 0.445 0.081 1793
0.492 0.445 0.079 1508
0.492 0.444 0.077 1328
0.492 0.444 0.075 1291
0.492 0.444 0.074 1475
0.491 0.444 0.072 1658
0.491 0.444 0.070 1814
0.491 0.444 0.068 1825
0.491 0.444 0.066 1563
0.491 0.443 0.065 1449
1.567 1.411 1.611 5570
1.570 1.414 1.605 11140
1.573 1.417 1.599 11140
1.562 1.407 1.579 13849
1.565 1.409 1.573 16710
1.568 1.412 1.567 14561
1.571 1.415 1.561 12412
1.579 1.422 1.560 9881
1.607 1.447 1.576 9063
1.610 1.449 1.570 9063
1.608 1.448 1.559 8253
1.606 1.446 1.549 7663
1.609 1.449 1.543 7822
1.617 1.456 1.541 8040
1.610 1.450 1.526 8303
1.692 1.524 1.589 9597
1.695 1.527 1.583 8110
1.694 1.525 1.572 6669
1.702 1.532 1.570 6761
1.710 1.539 1.567 7006
1.713 1.542 1.561 7036
1.716 1.545 1.554 9417
1.719 1.548 1.548 11799
1.732 1.559 1.549 14045
1.740 1.567 1.547 17273
1.748 1.574 1.544 16669
1.761 1.586 1.546 18091
1.769 1.593 1.543 17515
1.772 1.596 1.536 17089
1.775 1.599 1.530 14852
1.794 1.615 1.535 12142
1.807 1.627 1.536 13970
1.815 1.634 1.533 12779
1.823 1.641 1.530 11354
1.831 1.649 1.527 10388
1.839 1.656 1.524 9835
1.842 1.659 1.517 6648
1.881 1.694 1.537 4703
1.879 1.692 1.526 3179
1.928 1.736 1.553 2672
1.864 1.679 1.496 3523
1.878 1.691 1.497 4628
1.886 1.698 1.493 5376
1.899 1.710 1.493 4451
1.928 1.736 1.505 4928
1.931 1.738 1.497 5772
1.944 1.750 1.497 5506
1.957 1.762 1.497 5165
1.960 1.765 1.490 4436
1.953 1.758 1.475 4314
1.956 1.761 1.467 4868
1.969 1.773 1.467 4977
1.988 1.790 1.470 6507
2.001 1.802 1.470 8241
2.009 1.809 1.466 8139
2.017 1.816 1.461 5678
2.041 1.838 1.468 4701
2.129 1.917 1.516 5633
2.132 1.919 1.507 7945
2.140 1.927 1.503 8998
2.127 1.915 1.484 9595
2.140 1.927 1.483 10393
2.154 1.939 1.481 11903
2.162 1.947 1.476 12814
2.176 1.959 1.475 13554
2.195 1.976 1.476 16887
2.198 1.979 1.468 19158
2.200 1.981 1.459 20613
2.203 1.984 1.451 16505
2.212 1.991 1.445 8922
2.236 2.013 1.450 7707
2.249 2.025 1.448 8585
2.268 2.043 1.448 9729
2.266 2.040 1.436 9998
2.258 2.033 1.421 10174
2.315 2.084 1.444 10847
2.318 2.087 1.435 11538
2.320 2.089 1.426 10161
2.329 2.097 1.420 10546
2.342 2.109 1.417 11145
2.361 2.126 1.417 10498
2.370 2.134 1.411 11040
2.378 2.141 1.405 9111
2.424 2.183 1.419 6724
2.438 2.195 1.415 8027
2.457 2.212 1.415 10562
2.460 2.215 1.405 12255
2.463 2.217 1.396 10967
2.476 2.230 1.392 6898
2.496 2.247 1.391 5741
2.509 2.259 1.387 6356
2.517 2.267 1.380 7516
2.531 2.279 1.375 8217
2.523 2.272 1.360 7591
2.592 2.334 1.383 5835
2.600 2.341 1.375 6458
2.619 2.358 1.373 9896
2.616 2.356 1.361 9685
2.630 2.368 1.356 8384
2.644 2.381 1.351 8992
2.652 2.388 1.343 8651
2.660 2.395 1.335 9127
2.663 2.398 1.325 8291
2.660 2.395 1.312 4120
2.724 2.453 1.329 3993
2.721 2.450 1.316 3441
2.819 2.538 1.347 6365
2.816 2.535 1.334 10109
2.824 2.543 1.325 7288
2.849 2.565 1.324 6138
2.908 2.618 1.336 5144
2.910 2.620 1.325 4216
2.918 2.628 1.316 4884
2.938 2.645 1.311 5468
2.968 2.673 1.311 5048
2.965 2.670 1.298 5349
2.962 2.667 1.284 6182
2.965 2.669 1.272 3284
3.041 2.738 1.289 3946
3.055 2.750 1.282 4598
3.063 2.758 1.272 4224
3.156 2.842 1.294 3217
3.164 2.849 1.284 3548
3.223 2.902 1.292 3559
3.220 2.899 1.277 3827
3.217 2.896 1.263 2976
3.231 2.909 1.254 3314
3.239 2.916 1.244 4833
3.247 2.923 1.233 5539
3.255 2.931 1.222 4703
3.252 2.928 1.208 3649
3.254 2.930 1.195 3553
3.256 2.932 1.183 2036
3.447 3.104 1.231 1396
3.432 3.091 1.212 1905
3.435 3.093 1.198 2298
3.466 3.121 1.194 2561
3.491 3.143 1.187 1863
3.528 3.176 1.184 1680
3.570 3.215 1.182 1873
3.555 3.201 1.164 2734
0.543 0.489 0.283 2833
0.543 0.489 0.281 3174
0.549 0.494 0.281 3115
0.543 0.489 0.277 2448
0.544 0.490 0.275 1680
0.544 0.490 0.273 2495
0.539 0.485 0.270 4049
0.533 0.480 0.266 4361
0.528 0.475 0.263 3065
3.952 3.558 1.119 2330
3.942 3.550 1.101 2105
3.939 3.546 1.084 1880
3.941 3.548 1.069 1917
0.535 0.481 0.255 2305
0.541 0.487 0.254 2633
0.541 0.487 0.252 2899
0.541 0.487 0.250 2589
0.541 0.488 0.248 1970
4.330 3.899 1.058 1545
4.332 3.900 1.041 1990
0.542 0.488 0.242 2453
0.537 0.483 0.239 3618
0.531 0.478 0.236 4448
0.531 0.478 0.234 4080
0.526 0.473 0.231 2429
4.454 4.010 0.960 1756
0.526 0.474 0.227 2036
0.526 0.474 0.225 3584
0.526 0.474 0.223 5255
0.526 0.474 0.222 5549
0.527 0.474 0.220 3989
0.527 0.474 0.218 2331
0.527 0.474 0.216 1711
0.527 0.475 0.214 1613
0.521 0.470 0.211 1246
0.522 0.470 0.209 1436
0.522 0.470 0.207 2408
0.516 0.465 0.205 3053
0.516 0.465 0.203 2830
0.516 0.465 0.201 2455
0.522 0.470 0.200 2202
0.528 0.476 0.199 2216
0.523 0.471 0.196 3205
0.517 0.465 0.194 4594
0.517 0.465 0.192 5797
0.517 0.466 0.190 6170
0.517 0.466 0.188 5032
0.511 0.460 0.185 3692
0.506 0.455 0.183 2514
0.506 0.455 0.181 1584
0.512 0.461 0.180 1378
6.754 6.081 0.696 1409
6.761 6.088 0.670 1534
7.026 6.327 0.663 990
0.512 0.461 0.173 1011
0.512 0.461 0.171 1215
0.512 0.461 0.169 1490
0.512 0.461 0.167 1587
0.512 0.461 0.165 1440
0.506 0.456 0.163 1307
0.506 0.456 0.161 1642
0.507 0.456 0.159 2149
0.507 0.456 0.158 2139
0.507 0.456 0.156 1734
0.507 0.456 0.154 1460
0.507 0.456 0.152 1671
0.507 0.456 0.150 2260
0.501 0.451 0.148 2736
0.501 0.451 0.147 2666
0.501 0.451 0.145 2363
0.501 0.451 0.143 1959
0.501 0.451 0.141 1383
0.501 0.451 0.139 927
0.501 0.451 0.137 869
0.501 0.451 0.136 1049
0.501 0.451 0.134 1146
0.495 0.446 0.132 1172
0.495 0.446 0.130 1078
0.501 0.451 0.128 1146
0.501 0.451 0.127 1408
0.501 0.451 0.125 1682
0.495 0.446 0.123 2098
0.495 0.446 0.121 2443
0.495 0.445 0.120 2147
0.495 0.445 0.118 1635
0.495 0.445 0.116 1209
0.495 0.445 0.114 938
0.495 0.445 0.113 1020
0.495 0.445 0.111 1153
0.494 0.445 0.109 1213
0.494 0.445 0.107 1319
0.494 0.445 0.105 1326
0.494 0.445 0.104 1306
0.494 0.445 0.102 1399
0.494 0.445 0.100 1355
0.494 0.445 0.098 1150
0.494 0.445 0.097 866
0.494 0.445 0.095 818
0.494 0.445 0.093 1041
0.494 0.444 0.091 1441
0.494 0.444 0.089 1749
0.493 0.444 0.088 1865
0.493 0.444 0.086 1895
0.493 0.444 0.084 1899
0.493 0.444 0.082 1889
0.493 0.444 0.081 1682
0.493 0.444 0.079 1485
0.493 0.444 0.077 1419
0.493 0.443 0.075 1422
0.492 0.443 0.074 1458
0.492 0.443 0.072 1565
0.492 0.443 0.070 1630
0.492 0.443 0.068 1553
0.492 0.443 0.066 1358
0.492 0.443 0.065 1549
1.562 1.407 1.607 5472
1.565 1.409 1.601 10945
1.569 1.412 1.595 10945
1.562 1.407 1.579 13886
1.565 1.409 1.573 16791
1.568 1.412 1.567 14464
1.571 1.415 1.561 12137
1.579 1.422 1.560 10236
1.602 1.442 1.572 9191
1.605 1.445 1.566 9191
1.598 1.439 1.551 8805
1.601 1.442 1.544 8481
1.609 1.449 1.543 8348
1.612 1.452 1.537 8308
1.610 1.450 1.526 8780
1.609 1.448 1.516 9614
1.695 1.527 1.583 7833
1.694 1.525 1.572 6628
1.702 1.532 1.570 7114
1.705 1.535 1.563 7865
1.708 1.538 1.557 7979
1.716 1.545 1.554 10596
1.719 1.548 1.548 13265
1.732 1.559 1.549 15157
1.740 1.567 1.547 18333
1.748 1.574 1.544 17681
1.761 1.586 1.546 19091
1.769 1.593 1.543 18081
1.772 1.596 1.536 17344
1.775 1.599 1.530 15398
1.788 1.610 1.531 12562
1.807 1.627 1.536 13711
1.815 1.634 1.533 12283
1.823 1.641 1.530 10884
1.831 1.649 1.527 10272
1.839 1.656 1.524 9931
1.842 1.659 1.517 6998
1.881 1.694 1.537 4608
1.848 1.664 1.503 3652
1.851 1.667 1.496 2779
1.854 1.669 1.488 2351
1.883 1.695 1.500 3200
1.880 1.693 1.489 3936
1.899 1.710 1.493 3480
1.928 1.736 1.505 4546
1.936 1.743 1.501 5734
1.949 1.755 1.501 6169
1.957 1.762 1.497 6274
1.960 1.765 1.490 4999
1.942 1.749 1.468 3657
1.950 1.756 1.464 3414
1.969 1.773 1.467 4020
1.988 1.790 1.470 6254
1.996 1.797 1.466 7802
2.009 1.809 1.466 7660
2.023 1.821 1.465 5290
2.047 1.843 1.471 5351
2.134 1.921 1.519 5903
2.132 1.919 1.507 8449
2.135 1.922 1.499 9686
2.132 1.920 1.488 10278
2.140 1.927 1.483 10675
2.154 1.939 1.481 11317
2.157 1.942 1.473 12619
2.181 1.964 1.478 13881
2.195 1.976 1.476 18122
2.198 1.979 1.468 19907
2.200 1.981 1.459 21013
2.203 1.984 1.451 16676
2.222 2.001 1.452 9923
2.241 2.018 1.453 7842
2.266 2.040 1.457 7575
2.274 2.047 1.452 8605
2.277 2.050 1.443 9411
2.258 2.033 1.421 9759
2.315 2.084 1.444 9942
2.323 2.092 1.438 10494
2.320 2.089 1.426 8942
2.329 2.097 1.420 9429
2.342 2.109 1.417 10403
2.361 2.126 1.417 10698
2.370 2.134 1.411 12115
2.372 2.136 1.402 10298
2.424 2.183 1.419 6572
2.438 2.195 1.415 8071
2.452 2.207 1.412 10835
2.460 2.215 1.405 12577
2.463 2.217 1.396 11338
2.476 2.230 1.392 7560
2.496 2.247 1.391 6958
2.509 2.259 1.387 7171
2.517 2.267 1.380 7945
2.526 2.274 1.373 7733
2.523 2.272 1.360 6741
2.564 2.309 1.369 5893
2.578 2.321 1.365 5708
2.619 2.358 1.373 8112
2.622 2.361 1.363 7604
2.636 2.373 1.358 7163
2.644 2.381 1.351 8648
2.647 2.383 1.340 8465
2.660 2.395 1.335 8640
2.663 2.398 1.325 8201
2.660 2.395 1.312 4242
2.724 2.453 1.329 3921
2.721 2.450 1.316 3403
2.807 2.528 1.342 5296
2.816 2.535 1.334 8960
2.824 2.543 1.325 7087
2.849 2.565 1.324 6037
2.840 2.557 1.308 4961
2.916 2.625 1.327 3285
2.918 2.628 1.316 3605
2.932 2.640 1.309 4387
2.968 2.673 1.311 4719
2.965 2.670 1.298 5434
2.962 2.667 1.284 6042
2.959 2.664 1.270 3165
3.041 2.738 1.289 4009
3.049 2.745 1.280 4640
3.057 2.753 1.270 4494
3.065 2.760 1.260 3209
3.164 2.849 1.284 2549
3.229 2.907 1.294 3077
3.231 2.910 1.281 3360
3.228 2.907 1.267 3311
3.231 2.909 1.254 4580
3.233 2.911 1.242 5015
3.241 2.918 1.231 4399
3.255 2.931 1.222 3778
3.246 2.923 1.206 3251
3.248 2.925 1.193 3567
3.250 2.927 1.181 2273
3.419 3.078 1.221 1615
3.427 3.085 1.210 1827
3.446 3.103 1.202 2619
3.460 3.115 1.192 3084
3.502 3.154 1.191 2181
3.528 3.176 1.184 1776
0.548 0.493 0.289 2635
0.542 0.488 0.285 3573
0.543 0.489 0.283 3125
0.543 0.489 0.281 2993
0.543 0.489 0.279 3196
0.543 0.489 0.277 2229
0.544 0.490 0.275 2653
0.538 0.485 0.272 4349
0.533 0.480 0.268 4329
0.527 0.475 0.265 2824
3.834 3.452 1.105 1705
3.952 3.558 1.119 2298
3.942 3.550 1.101 2628
0.534 0.481 0.259 2802
0.534 0.481 0.257 2621
4.041 3.639 1.077 2260
4.136 3.724 1.082 2399
4.138 3.726 1.066 2932
4.140 3.728 1.050 1968
4.194 3.776 1.046 1463
4.341 3.909 1.060 1651
4.332 3.900 1.041 1950
0.542 0.488 0.242 2222
0.537 0.483 0.239 3180
0.531 0.478 0.236 3236
0.531 0.478 0.234 2306
4.423 3.982 0.972 2385
0.526 0.473 0.229 2555
0.526 0.474 0.227 3687
