4.067 3.598 1.075 4512
4.151 3.672 1.078 4494
4.159 3.679 1.064 6200
4.167 3.686 1.049 4817
4.350 3.848 1.072 2803
4.276 3.783 1.039 2891
4.278 3.785 1.023 2335
4.485 3.968 1.048 2109
4.487 3.970 1.031 3118
4.489 3.971 1.013 2702
4.420 3.911 0.983 2275
4.651 4.115 1.009 3146
4.653 4.117 0.991 3440
4.854 4.295 1.009 3361
4.851 4.291 0.989 2980
4.746 4.199 0.952 2909
4.836 4.279 0.949 3103
4.897 4.333 0.940 2767
4.893 4.329 0.920 3250
5.195 4.596 0.948 3787
5.191 4.592 0.927 3992
5.187 4.589 0.906 4141
5.188 4.590 0.886 3810
5.367 4.748 0.891 2369
5.362 4.744 0.869 2723
5.494 4.861 0.866 3164
5.495 4.862 0.844 2832
5.709 5.051 0.850 2602
5.711 5.053 0.828 3441
5.712 5.054 0.806 4163
5.720 5.060 0.784 4777
5.715 5.056 0.761 3654
5.953 5.267 0.764 2552
5.960 5.273 0.742 2875
5.997 5.306 0.722 2544
6.584 5.825 0.754 2575
6.591 5.831 0.729 3325
6.592 5.832 0.704 3484
6.600 5.839 0.679 3132
6.607 5.845 0.653 2781
6.602 5.841 0.627 2209
6.597 5.836 0.601 1868
6.598 5.837 0.576 1358
6.907 6.111 0.570 800
6.908 6.111 0.543 662
6.832 6.044 0.512 500
6.820 6.034 0.485 328
1.492 1.312 1.523 4626
1.495 1.314 1.518 9253
1.508 1.325 1.521 9858
1.515 1.332 1.520 10989
1.518 1.335 1.514 10989
1.575 1.385 1.558 10364
1.568 1.379 1.543 11975
1.576 1.386 1.542 9696
1.584 1.393 1.540 7850
1.588 1.396 1.534 7850
1.596 1.403 1.533 6191
1.623 1.427 1.549 5837
1.602 1.408 1.521 5587
1.600 1.406 1.510 6586
1.603 1.409 1.504 7145
1.606 1.412 1.498 7703
1.703 1.498 1.574 7825
1.707 1.500 1.568 8126
1.715 1.507 1.565 6717
1.718 1.510 1.559 5517
1.726 1.517 1.557 5721
1.729 1.520 1.550 8406
1.732 1.523 1.543 11091
1.745 1.534 1.545 15469
1.753 1.542 1.543 20584
1.756 1.544 1.536 21948
1.760 1.547 1.529 23312
1.768 1.554 1.527 20087
1.771 1.557 1.520 16045
1.779 1.564 1.517 13778
1.787 1.571 1.515 13288
1.795 1.578 1.512 14065
1.798 1.581 1.505 10973
1.811 1.593 1.506 8276
1.845 1.622 1.523 8032
1.848 1.625 1.516 8791
1.851 1.628 1.509 7298
1.854 1.630 1.502 5806
1.873 1.647 1.507 5952
1.876 1.649 1.499 5360
1.905 1.675 1.511 5445
1.908 1.677 1.504 7621
1.911 1.680 1.497 9135
1.950 1.715 1.516 9642
1.959 1.722 1.512 12583
1.956 1.720 1.501 14568
1.965 1.727 1.497 14645
1.978 1.739 1.497 13697
1.976 1.737 1.486 13562
1.979 1.740 1.479 10905
1.982 1.742 1.471 8269
1.995 1.754 1.471 7397
2.009 1.766 1.470 6618
2.043 1.797 1.484 7070
2.057 1.808 1.483 8750
2.065 1.816 1.479 9172
2.068 1.818 1.471 9902
2.071 1.821 1.463 11950
2.079 1.828 1.459 12737
2.088 1.835 1.454 12249
2.096 1.843 1.450 11740
2.142 1.883 1.469 8664
2.161 1.900 1.471 7412
2.158 1.897 1.459 7157
2.118 1.862 1.425 9376
2.213 1.945 1.473 13429
2.215 1.948 1.464 13457
2.218 1.950 1.456 11192
2.216 1.948 1.444 9871
2.219 1.951 1.436 10010
2.243 1.972 1.440 8703
2.257 1.984 1.438 8846
2.271 1.996 1.436 6955
2.306 2.028 1.446 4625
2.315 2.035 1.440 3438
2.307 2.028 1.425 4816
2.304 2.025 1.413 6244
2.340 2.057 1.423 8683
2.353 2.069 1.420 14102
2.373 2.086 1.420 11876
2.392 2.103 1.420 8993
2.384 2.096 1.405 9548
2.386 2.098 1.396 12248
2.395 2.105 1.390 9324
2.425 2.132 1.395 8824
2.444 2.149 1.394 9146
2.464 2.166 1.394 8759
2.472 2.173 1.387 7913
2.469 2.171 1.375 6001
2.505 2.203 1.382 5043
2.519 2.215 1.378 7614
2.527 2.222 1.371 9842
2.525 2.220 1.359 9052
2.522 2.217 1.347 7051
2.608 2.293 1.377 5411
2.611 2.295 1.367 8396
2.630 2.313 1.365 10561
2.644 2.325 1.361 7422
2.669 2.347 1.361 5129
2.672 2.349 1.351 6185
2.658 2.337 1.333 8520
2.660 2.339 1.323 8618
2.663 2.341 1.312 6487
2.739 2.408 1.335 5556
2.741 2.410 1.324 6581
2.676 2.353 1.284 4628
2.820 2.479 1.335 3615
2.828 2.487 1.326 3908
2.831 2.489 1.316 7523
2.828 2.486 1.302 9872
2.830 2.488 1.292 7258
2.839 2.496 1.283 4251
2.949 2.593 1.316 4624
2.946 2.590 1.302 4056
2.966 2.607 1.298 3403
2.980 2.620 1.291 4289
2.982 2.622 1.280 4919
3.002 2.639 1.275 5310
3.021 2.656 1.270 6112
3.047 2.679 1.267 5453
3.061 2.691 1.259 5766
3.075 2.703 1.252 5872
3.157 2.776 1.269 5686
3.154 2.773 1.255 4875
3.157 2.775 1.243 4970
3.199 2.813 1.245 8996
3.207 2.820 1.234 13101
3.216 2.827 1.224 8009
3.241 2.849 1.220 6706
3.284 2.887 1.221 8983
3.292 2.894 1.210 7112
3.311 2.911 1.203 5516
3.308 2.908 1.188 4965
3.466 3.048 1.225 3196
3.475 3.055 1.214 4471
3.477 3.057 1.200 4781
3.410 2.998 1.166 4979
3.482 3.061 1.174 4295
3.507 3.083 1.167 4595
3.579 3.146 1.174 4038
3.575 3.143 1.159 6597
3.578 3.145 1.145 5846
3.685 3.239 1.160 3595
3.681 3.236 1.145 3324
3.677 3.233 1.129 2725
3.779 3.322 1.141 3326
3.775 3.319 1.125 4781
3.865 3.398 1.133 5244
3.867 3.399 1.119 6143
3.869 3.401 1.104 4271
3.871 3.403 1.089 3815
3.902 3.431 1.081 3800
3.904 3.433 1.066 3274
4.070 3.578 1.090 4798
4.078 3.585 1.075 4796
4.180 3.675 1.082 4487
4.176 3.671 1.065 6058
4.178 3.673 1.049 5013
4.362 3.835 1.072 3147
4.282 3.764 1.038 3166
4.295 3.776 1.024 2220
4.303 3.783 1.009 2092
4.505 3.961 1.032 2814
4.507 3.962 1.015 2451
4.432 3.897 0.983 2478
4.670 4.105 1.010 3064
4.660 4.097 0.990 3342
4.862 4.275 1.008 3684
4.864 4.276 0.989 3371
4.765 4.190 0.953 3014
4.844 4.259 0.948 3021
4.911 4.317 0.940 3132
4.912 4.319 0.921 3758
5.209 4.580 0.948 3657
5.211 4.581 0.928 3813
5.201 4.572 0.906 3914
5.203 4.574 0.886 3686
5.216 4.586 0.867 2462
5.377 4.728 0.869 2588
5.509 4.843 0.866 3206
5.517 4.850 0.845 2928
5.725 5.033 0.850 2353
5.727 5.035 0.828 3118
5.728 5.036 0.806 3833
5.736 5.043 0.784 4384
5.731 5.039 0.761 3320
5.975 5.253 0.765 3049
5.977 5.255 0.742 3324
5.984 5.261 0.719 2876
6.602 5.804 0.754 2688
6.609 5.811 0.729 3530
6.611 5.812 0.704 3697
6.618 5.818 0.679 3210
6.625 5.824 0.653 2793
6.620 5.820 0.627 2296
6.615 5.816 0.601 2007
6.616 5.817 0.576 1503
6.926 6.089 0.570 953
6.927 6.090 0.543 772
6.928 6.091 0.516 551
6.988 6.143 0.492 304
6.929 6.092 0.462 250
1.490 1.303 1.519 5002
1.493 1.306 1.513 10004
1.511 1.321 1.521 10076
1.519 1.328 1.520 10944
1.522 1.331 1.514 10944
1.579 1.381 1.558 9815
1.572 1.375 1.543 11192
1.580 1.382 1.542 9041
1.588 1.389 1.540 7435
1.591 1.392 1.534 7435
1.599 1.399 1.533 6053
1.627 1.423 1.549 5570
1.605 1.404 1.521 5576
1.603 1.402 1.510 6551
1.606 1.405 1.504 6989
1.609 1.407 1.498 7428
1.707 1.493 1.574 7347
1.710 1.496 1.568 7668
1.719 1.503 1.565 6490
1.727 1.510 1.563 5436
1.755 1.535 1.578 5991
1.733 1.516 1.550 7882
1.736 1.518 1.543 10115
1.749 1.530 1.545 14787
1.757 1.537 1.543 20181
1.761 1.540 1.536 21450
1.764 1.542 1.529 22720
1.767 1.545 1.523 19782
1.775 1.552 1.520 15570
1.783 1.559 1.517 12863
1.791 1.566 1.515 12461
1.794 1.569 1.508 13460
1.802 1.576 1.505 10540
1.816 1.588 1.506 8185
1.844 1.613 1.519 8317
1.853 1.620 1.516 9110
1.856 1.623 1.509 7547
1.859 1.625 1.502 5983
1.877 1.642 1.507 5992
1.885 1.649 1.503 5580
1.909 1.670 1.511 6197
1.912 1.672 1.504 8751
1.915 1.675 1.497 10540
1.955 1.710 1.516 10197
1.958 1.712 1.509 13203
1.961 1.715 1.501 15059
1.969 1.722 1.497 15228
1.983 1.734 1.497 14631
1.980 1.732 1.486 14724
1.983 1.734 1.479 12409
1.986 1.737 1.471 9821
1.994 1.744 1.467 8682
2.013 1.761 1.470 7448
2.048 1.791 1.484 7943
2.062 1.803 1.483 9023
2.070 1.810 1.479 9336
2.073 1.813 1.471 9699
2.076 1.815 1.463 11508
2.084 1.823 1.459 12233
2.092 1.830 1.454 11782
2.101 1.837 1.450 11400
2.152 1.882 1.473 8541
2.166 1.894 1.471 7423
2.163 1.892 1.459 7160
2.204 1.927 1.475 8415
2.212 1.935 1.470 12394
2.215 1.937 1.461 12288
2.218 1.940 1.453 10235
2.216 1.937 1.441 9102
2.224 1.945 1.436 9477
2.248 1.966 1.440 8177
2.262 1.978 1.438 8353
2.276 1.990 1.436 6498
2.317 2.026 1.449 4242
2.325 2.034 1.443 2876
2.312 2.022 1.425 4723
2.315 2.024 1.416 6235
2.345 2.051 1.423 8681
2.364 2.068 1.423 14157
2.378 2.080 1.420 11659
2.397 2.097 1.420 8377
2.389 2.089 1.405 8682
2.386 2.087 1.393 10945
2.406 2.104 1.393 8599
2.431 2.126 1.395 9427
2.450 2.143 1.394 10225
2.470 2.160 1.394 8942
2.478 2.167 1.387 7480
2.469 2.160 1.372 5648
2.506 2.191 1.379 4164
2.525 2.208 1.378 7129
2.528 2.211 1.369 10167
2.530 2.213 1.359 10136
2.527 2.210 1.347 8153
2.620 2.291 1.380 5490
2.622 2.293 1.370 8772
2.636 2.306 1.365 11404
2.645 2.313 1.358 7783
2.659 2.325 1.353 5196
2.673 2.337 1.348 7311
2.664 2.330 1.333 9788
2.667 2.332 1.323 9749
2.675 2.339 1.315 6909
2.751 2.406 1.337 6580
2.748 2.403 1.324 6992
2.688 2.351 1.287 4566
2.759 2.412 1.306 3269
2.756 2.410 1.293 3436
2.832 2.477 1.313 7222
2.834 2.479 1.302 10142
2.837 2.481 1.292 7182
2.857 2.498 1.288 3926
2.950 2.580 1.314 4252
2.947 2.577 1.300 4112
2.990 2.615 1.305 3668
2.992 2.617 1.293 4283
2.995 2.619 1.282 4336
3.009 2.631 1.275 4786
3.023 2.643 1.267 5068
3.060 2.676 1.269 5264
3.068 2.683 1.259 5185
3.145 2.750 1.275 5144
3.165 2.768 1.269 6609
3.167 2.770 1.257 6592
3.164 2.767 1.243 6721
3.201 2.799 1.243 9002
3.215 2.811 1.234 13139
3.223 2.818 1.224 8298
3.289 2.876 1.233 6629
3.291 2.878 1.221 8553
3.299 2.885 1.210 7045
3.319 2.903 1.203 5602
3.316 2.900 1.188 5194
3.324 2.907 1.177 2776
3.378 2.954 1.181 3541
3.404 2.977 1.175 5050
3.418 2.989 1.166 5122
3.466 3.031 1.167 4330
3.492 3.054 1.160 4444
3.576 3.127 1.171 3899
3.578 3.129 1.157 5694
3.592 3.141 1.146 4942
3.699 3.235 1.162 3922
3.695 3.232 1.146 3719
3.686 3.223 1.129 2884
3.787 3.312 1.141 3319
3.784 3.309 1.125 5207
3.757 3.285 1.103 5549
3.887 3.400 1.122 5979
3.890 3.401 1.107 3545
3.997 3.495 1.118 4176
3.911 3.420 1.081 4282
3.913 3.422 1.066 3653
4.080 3.568 1.090 4802
4.088 3.575 1.075 4850
4.190 3.664 1.082 4329
4.186 3.660 1.065 5685
4.188 3.662 1.049 4927
4.284 3.746 1.053 3351
4.292 3.753 1.038 3365
4.300 3.760 1.023 2534
4.319 3.777 1.010 2537
4.515 3.949 1.032 2588
4.535 3.966 1.018 2452
4.449 3.890 0.984 2667
4.686 4.098 1.011 2915
4.671 4.084 0.990 3113
4.873 4.262 1.008 3896
4.875 4.263 0.989 3642
4.788 4.187 0.955 3061
4.855 4.246 0.948 2961
4.922 4.304 0.940 3431
4.924 4.306 0.921 4165
5.221 4.566 0.948 3314
5.223 4.568 0.928 3529
5.213 4.559 0.906 3720
5.221 4.565 0.887 3572
5.228 4.572 0.867 2488
5.396 4.719 0.870 2412
5.522 4.829 0.866 3186
5.535 4.841 0.846 2968
5.738 5.018 0.850 2057
5.740 5.020 0.828 2738
5.741 5.021 0.806 3395
5.749 5.027 0.784 3841
5.988 5.236 0.788 3676
5.989 5.238 0.765 3550
5.991 5.239 0.742 3733
5.992 5.240 0.719 3333
5.999 5.246 0.696 3202
6.625 5.793 0.729 3610
6.626 5.794 0.704 3796
6.633 5.801 0.679 3210
6.640 5.807 0.653 2712
6.635 5.803 0.627 2294
6.630 5.798 0.601 2069
6.631 5.799 0.576 1571
6.942 6.071 0.570 1047
6.943 6.071 0.543 831
6.944 6.072 0.516 598
6.938 6.068 0.489 314
6.939 6.068 0.462 260
1.488 1.296 1.514 5462
1.491 1.299 1.509 10925
1.509 1.314 1.517 10419
1.517 1.321 1.516 10879
1.520 1.324 1.510 10879
1.582 1.377 1.558 9192
1.570 1.367 1.539 10373
1.583 1.379 1.542 8296
1.596 1.390 1.545 6922
1.599 1.393 1.539 6922
1.607 1.400 1.537 5760
1.630 1.419 1.549 5143
1.608 1.401 1.521 5450
1.606 1.399 1.510 6426
1.609 1.401 1.504 6836
1.612 1.404 1.498 7246
1.715 1.494 1.578 6630
1.714 1.492 1.568 6900
1.722 1.499 1.565 6085
1.730 1.507 1.563 5346
1.763 1.536 1.582 6374
1.736 1.512 1.550 7223
1.739 1.515 1.543 8873
1.758 1.531 1.549 13864
1.761 1.533 1.543 19297
1.764 1.536 1.536 20478
1.767 1.539 1.529 21659
1.770 1.541 1.523 19057
1.773 1.544 1.516 14842
1.781 1.551 1.513 11980
1.794 1.563 1.515 11831
1.797 1.565 1.508 13085
1.805 1.572 1.505 10339
1.829 1.593 1.514 8468
1.848 1.609 1.519 8541
1.856 1.616 1.516 9344
1.859 1.619 1.509 7636
1.862 1.622 1.502 5929
1.886 1.642 1.510 5839
1.899 1.654 1.511 5997
1.907 1.661 1.508 6879
1.916 1.668 1.504 9731
1.919 1.671 1.497 11663
1.953 1.701 1.512 10497
1.961 1.708 1.509 12886
1.964 1.711 1.501 14460
1.978 1.723 1.501 14995
1.986 1.730 1.497 15087
1.989 1.732 1.490 15657
1.987 1.730 1.479 13826
1.990 1.733 1.471 11228
1.998 1.740 1.467 9892
2.017 1.757 1.470 7946
2.047 1.782 1.481 8464
2.071 1.803 1.487 9130
2.074 1.806 1.479 9495
2.071 1.804 1.468 9537
2.069 1.802 1.456 11021
2.083 1.814 1.455 11230
2.096 1.826 1.454 10794
2.104 1.833 1.450 10482
2.161 1.882 1.476 8239
2.170 1.889 1.471 7288
2.167 1.887 1.459 7424
2.208 1.923 1.475 8460
2.211 1.925 1.466 11489
2.219 1.933 1.461 11532
2.222 1.935 1.453 9670
2.220 1.933 1.441 8766
2.222 1.935 1.433 8879
2.252 1.962 1.440 7293
2.261 1.969 1.435 7653
2.307 2.010 1.452 6145
2.327 2.026 1.452 3914
2.330 2.029 1.443 2407
2.316 2.017 1.425 4283
2.319 2.019 1.416 5900
2.349 2.046 1.423 7907
2.374 2.068 1.426 13302
2.388 2.080 1.423 11607
2.407 2.096 1.423 8096
2.388 2.080 1.402 7701
2.391 2.082 1.393 9339
2.416 2.104 1.396 7988
2.435 2.121 1.395 9973
2.454 2.138 1.394 11378
2.474 2.155 1.394 9304
2.488 2.167 1.390 7499
2.474 2.154 1.372 5611
2.477 2.157 1.363 4069
2.530 2.203 1.378 6493
2.532 2.205 1.369 9831
2.535 2.208 1.359 10499
2.538 2.210 1.349 8801
2.624 2.286 1.380 5455
2.633 2.293 1.373 8961
2.641 2.300 1.365 11799
2.649 2.307 1.358 8742
2.652 2.310 1.348 6922
2.672 2.327 1.346 8857
2.669 2.324 1.333 10768
2.671 2.326 1.323 10302
2.680 2.334 1.315 7181
2.756 2.400 1.337 7605
2.758 2.402 1.327 7336
2.767 2.409 1.319 4210
2.769 2.412 1.308 3273
2.766 2.409 1.295 3542
2.831 2.466 1.311 7190
2.840 2.473 1.302 10104
2.842 2.475 1.292 7127
2.867 2.497 1.290 3845
2.956 2.574 1.314 3541
2.941 2.561 1.296 4188
2.915 2.539 1.273 4315
2.998 2.611 1.293 4430
3.000 2.613 1.282 4101
3.014 2.625 1.275 4354
3.028 2.637 1.267 3795
3.071 2.674 1.271 5113
3.073 2.677 1.259 4501
3.151 2.744 1.275 5651
3.165 2.756 1.267 7258
3.173 2.763 1.257 8274
3.170 2.760 1.243 8017
3.207 2.793 1.243 7936
3.221 2.805 1.234 11686
3.229 2.812 1.224 8650
3.220 2.804 1.208 7609
3.216 2.801 1.194 7729
3.311 2.884 1.212 6551
3.319 2.891 1.201 5462
3.327 2.898 1.190 5287
3.359 2.925 1.187 3821
3.378 2.942 1.179 4843
3.410 2.970 1.175 5746
3.430 2.987 1.167 5489
3.478 3.029 1.168 4600
3.486 3.036 1.157 5227
3.495 3.043 1.145 4305
3.578 3.116 1.155 4656
3.598 3.134 1.146 3845
3.705 3.227 1.162 4050
3.708 3.229 1.148 3980
3.681 3.205 1.126 3200
3.794 3.304 1.141 3301
3.785 3.296 1.124 5298
3.763 3.277 1.103 5855
3.888 3.386 1.120 5414
4.002 3.485 1.133 3838
4.004 3.487 1.118 4422
3.924 3.418 1.083 4470
3.926 3.419 1.067 3772
4.087 3.559 1.090 4615
4.095 3.566 1.075 4717
4.179 3.640 1.078 4119
4.193 3.652 1.065 5282
4.201 3.659 1.050 4629
4.291 3.737 1.053 3499
4.293 3.739 1.037 3292
4.307 3.751 1.023 2864
4.321 3.763 1.009 3037
4.417 3.847 1.011 2559
4.549 3.962 1.019 2554
4.468 3.891 0.986 2745
4.476 3.898 0.970 3349
4.874 4.245 1.025 2931
4.882 4.252 1.008 3957
4.884 4.253 0.989 3746
4.880 4.250 0.969 3075
4.864 4.236 0.948 2843
4.931 4.294 0.940 3579
4.927 4.291 0.920 4362
4.934 4.297 0.902 3176
5.232 4.557 0.928 3075
5.222 4.548 0.906 3360
5.230 4.555 0.887 3284
5.237 4.561 0.867 2334
5.417 4.718 0.872 2380
5.538 4.823 0.867 3044
5.551 4.834 0.847 2922
5.992 5.219 0.880 1952
5.750 5.008 0.828 2318
5.752 5.009 0.806 2853
5.997 5.223 0.811 3597
5.999 5.224 0.788 4182
6.000 5.225 0.765 3998
6.001 5.226 0.742 4004
6.003 5.228 0.719 3787
6.004 5.229 0.696 4053
6.005 5.230 0.673 4350
6.006 5.231 0.650 4164
6.007 5.232 0.626 3882
6.014 5.238 0.604 3042
6.021 5.244 0.581 2511
6.642 5.785 0.601 2087
6.643 5.786 0.576 1606
6.954 6.056 0.570 1131
6.955 6.057 0.543 886
6.950 6.053 0.516 644
6.951 6.053 0.489 333
6.952 6.054 0.462 263
1.492 1.292 1.514 5903
1.495 1.294 1.509 11806
1.508 1.305 1.512 10671
1.516 1.312 1.511 10529
1.519 1.315 1.505 10529
1.586 1.373 1.558 8556
1.574 1.363 1.539 9445
1.587 1.374 1.542 7464
1.600 1.385 1.545 6196
1.603 1.388 1.539 6196
1.611 1.395 1.537 5238
1.619 1.402 1.536 4379
1.612 1.396 1.521 4972
1.610 1.394 1.510 5852
1.613 1.397 1.504 6324
1.616 1.399 1.498 6797
1.624 1.406 1.496 6081
1.723 1.491 1.572 6103
1.726 1.494 1.565 5510
1.760 1.523 1.584 5347
1.768 1.530 1.582 6776
1.761 1.524 1.567 7010
1.759 1.523 1.556 7663
1.762 1.525 1.549 12878
1.765 1.528 1.543 18093
1.768 1.531 1.536 19137
1.771 1.533 1.529 20181
1.774 1.536 1.523 17770
1.778 1.539 1.516 13774
1.786 1.546 1.513 11054
1.799 1.557 1.515 11518
1.807 1.564 1.512 13059
1.815 1.571 1.509 10517
1.834 1.587 1.514 8894
1.853 1.604 1.519 8686
1.861 1.611 1.516 9452
1.864 1.613 1.509 7595
1.872 1.620 1.506 5783
1.891 1.637 1.510 5827
1.904 1.648 1.511 6398
1.912 1.655 1.508 7571
1.921 1.663 1.504 10417
1.929 1.670 1.501 12450
1.942 1.681 1.501 10817
1.967 1.702 1.509 11728
1.970 1.705 1.501 12874
1.983 1.717 1.501 14036
1.991 1.724 1.497 14984
1.994 1.726 1.490 16033
1.992 1.724 1.479 14552
1.995 1.727 1.471 11883
2.003 1.734 1.467 10465
2.022 1.750 1.470 7912
2.052 1.776 1.481 8496
2.076 1.797 1.487 9163
2.079 1.800 1.479 9674
2.066 1.788 1.461 9714
2.069 1.791 1.453 10781
2.083 1.803 1.452 10058
2.107 1.824 1.458 9678
2.110 1.826 1.450 9244
2.167 1.876 1.476 7852
2.175 1.883 1.471 7110
2.173 1.881 1.459 8041
2.170 1.879 1.448 9412
2.217 1.919 1.466 11216
2.220 1.921 1.458 11576
2.222 1.924 1.449 9848
2.225 1.926 1.441 8928
2.228 1.929 1.433 8405
2.258 1.955 1.440 6123
2.272 1.967 1.438 6707
2.319 2.007 1.455 5954
2.333 2.019 1.452 3835
2.341 2.027 1.447 2467
2.328 2.015 1.428 3828
2.330 2.017 1.419 5274
2.366 2.048 1.429 6969
2.391 2.070 1.432 12503
2.400 2.077 1.426 12238
2.414 2.089 1.423 8309
2.416 2.092 1.414 6938
2.403 2.080 1.396 7528
2.428 2.101 1.398 7714
2.441 2.113 1.395 10315
2.461 2.130 1.394 12160
2.480 2.147 1.394 9552
2.494 2.159 1.390 7611
2.480 2.147 1.372 5409
2.489 2.154 1.365 3981
2.536 2.195 1.378 5601
2.539 2.198 1.369 8701
2.542 2.200 1.359 10087
2.544 2.202 1.349 8854
2.558 2.214 1.345 5299
2.640 2.285 1.373 8755
2.648 2.292 1.365 11844
2.651 2.294 1.355 9901
2.659 2.302 1.348 9299
2.673 2.314 1.343 10992
2.676 2.316 1.333 12252
2.684 2.323 1.325 10946
2.692 2.330 1.317 7538
2.763 2.392 1.337 8266
2.777 2.404 1.332 7676
2.791 2.416 1.326 4912
2.794 2.418 1.315 3509
2.819 2.440 1.314 4069
2.833 2.452 1.308 7474
2.841 2.459 1.300 9566
2.855 2.472 1.294 6824
2.881 2.494 1.292 3391
2.889 2.501 1.284 2704
2.943 2.547 1.293 3932
2.923 2.530 1.273 4453
3.011 2.607 1.295 4417
3.014 2.609 1.284 4159
3.034 2.626 1.279 4436
3.076 2.663 1.283 4463
3.079 2.665 1.271 5465
3.087 2.672 1.261 4069
3.159 2.734 1.275 5738
3.173 2.746 1.267 7553
3.181 2.754 1.257 9460
3.184 2.756 1.245 8995
3.221 2.788 1.245 6837
3.223 2.790 1.232 9038
3.231 2.797 1.222 8344
3.228 2.794 1.208 8890
3.230 2.796 1.196 7865
3.320 2.874 1.212 5879
3.241 2.805 1.173 5507
3.336 2.888 1.190 5236
3.368 2.915 1.187 5354
3.382 2.927 1.177 6081
3.413 2.954 1.173 6348
3.433 2.971 1.166 5886
3.493 3.024 1.170 4527
3.496 3.026 1.157 5538
3.498 3.028 1.143 4459
3.582 3.100 1.153 3512
3.555 3.077 1.132 2989
3.715 3.216 1.162 3900
3.717 3.218 1.148 4028
3.690 3.194 1.126 3392
3.804 3.293 1.141 3416
3.794 3.284 1.124 5340
3.773 3.266 1.103 5698
3.893 3.370 1.119 4192
4.013 3.473 1.133 4074
4.015 3.475 1.118 4515
3.934 3.406 1.083 4144
3.937 3.407 1.067 3455
4.098 3.547 1.090 4286
4.106 3.554 1.075 4524
4.184 3.622 1.077 4306
4.198 3.634 1.064 5170
4.212 3.646 1.050 4274
4.303 3.724 1.053 3387
4.305 3.726 1.037 2972
4.313 3.733 1.021 3086
4.326 3.745 1.007 3501
4.429 3.834 1.011 2726
4.561 3.948 1.019 2618
4.480 3.878 0.986 2868
4.488 3.885 0.970 3864
4.887 4.230 1.025 3072
4.889 4.232 1.007 3962
4.897 4.239 0.989 3700
4.893 4.235 0.969 3050
4.829 4.180 0.940 2669
4.938 4.274 0.939 3420
4.940 4.276 0.920 4244
4.947 4.282 0.902 3233
5.139 4.448 0.912 3127
5.141 4.450 0.892 3317
5.244 4.539 0.887 2717
5.346 4.628 0.881 2280
5.437 4.707 0.872 2456
5.552 4.806 0.867 2912
5.566 4.818 0.847 2852
6.002 5.195 0.879 2227
5.998 5.192 0.856 2027
6.011 5.203 0.834 2635
6.013 5.205 0.811 4019
6.014 5.206 0.788 4631
6.016 5.207 0.765 4313
6.131 5.306 0.753 4403
6.018 5.209 0.719 4181
6.020 5.211 0.696 4973
6.021 5.212 0.673 5432
6.022 5.213 0.650 5187
6.023 5.214 0.626 4639
6.030 5.220 0.604 3388
6.037 5.226 0.581 2719
6.654 5.759 0.601 1971
6.661 5.765 0.576 1539
6.973 6.035 0.570 1129
6.968 6.031 0.542 865
6.968 6.032 0.516 635
6.963 6.027 0.489 333
6.964 6.028 0.462 258
1.497 1.285 1.514 6319
1.501 1.288 1.509 12639
1.508 1.295 1.508 11005
1.521 1.306 1.511 10144
1.524 1.308 1.505 10144
1.587 1.362 1.554 7913
1.580 1.356 1.539 8479
1.588 1.363 1.538 6664
1.606 1.378 1.545 5331
1.609 1.381 1.539 5331
1.597 1.371 1.520 4652
1.565 1.344 1.483 4397
1.598 1.372 1.503 4806
1.611 1.383 1.506 5414
1.614 1.386 1.500 5649
1.622 1.393 1.498 5894
1.630 1.399 1.496 5328
1.674 1.437 1.525 5604
1.697 1.457 1.535 5087
1.766 1.516 1.584 5434
1.774 1.523 1.582 7023
1.772 1.521 1.571 7034
1.770 1.520 1.560 7175
1.774 1.522 1.554 11912
1.777 1.525 1.547 16649
1.775 1.523 1.536 17528
1.773 1.522 1.525 18437
1.776 1.524 1.519 16185
1.784 1.531 1.516 12403
1.792 1.538 1.513 10235
1.811 1.554 1.519 11646
1.814 1.557 1.512 13509
1.822 1.564 1.509 11080
1.835 1.575 1.510 9382
1.854 1.591 1.515 8699
1.867 1.603 1.516 9340
1.876 1.610 1.513 7591
1.879 1.613 1.506 5887
1.897 1.629 1.510 6179
1.906 1.636 1.507 6797
1.914 1.643 1.504 8048
1.928 1.655 1.504 10771
1.936 1.662 1.501 12902
1.949 1.673 1.501 10949
1.968 1.690 1.505 10201
1.977 1.697 1.501 10777
1.990 1.708 1.501 12638
1.999 1.716 1.497 14478
2.002 1.718 1.490 15757
1.999 1.716 1.479 14309
2.002 1.719 1.471 11515
2.010 1.726 1.467 10244
2.024 1.737 1.467 7515
2.059 1.768 1.481 8074
2.084 1.789 1.487 9036
2.087 1.791 1.479 9782
2.068 1.775 1.457 9873
2.071 1.778 1.449 10669
2.090 1.794 1.452 9347
2.109 1.811 1.454 9004
2.118 1.818 1.450 8251
2.175 1.867 1.476 7419
2.183 1.874 1.471 6976
2.175 1.867 1.456 8980
2.178 1.870 1.448 11049
2.219 1.905 1.463 11406
2.227 1.912 1.458 12054
2.230 1.915 1.449 10542
2.233 1.917 1.441 9608
2.231 1.915 1.429 8203
2.266 1.946 1.440 5115
2.280 1.957 1.438 5891
2.327 1.998 1.455 5709
2.341 2.010 1.452 4131
2.361 2.026 1.453 3356
2.364 2.029 1.444 3951
2.339 2.008 1.419 4636
2.397 2.058 1.441 7046
2.405 2.065 1.435 12338
2.408 2.067 1.426 12886
2.422 2.079 1.423 8850
2.431 2.086 1.417 6632
2.445 2.098 1.414 7628
2.447 2.101 1.404 8416
2.450 2.103 1.395 10839
2.470 2.120 1.394 12494
2.484 2.132 1.391 9654
2.509 2.154 1.393 7830
2.512 2.156 1.383 5527
2.498 2.144 1.365 4086
2.551 2.190 1.381 4561
2.548 2.187 1.369 7143
2.551 2.189 1.359 9248
2.565 2.201 1.355 8594
2.573 2.209 1.348 5374
2.649 2.274 1.373 8077
2.658 2.281 1.365 11478
2.660 2.284 1.355 10751
2.669 2.291 1.348 11308
2.677 2.298 1.340 13303
2.685 2.305 1.333 14091
2.694 2.312 1.325 11915
2.702 2.319 1.317 7979
2.773 2.380 1.337 8444
2.787 2.392 1.332 7832
2.807 2.409 1.328 5924
2.804 2.407 1.315 4354
2.829 2.428 1.314 5296
2.837 2.436 1.306 7840
2.846 2.443 1.298 8767
2.860 2.455 1.292 6275
2.891 2.482 1.292 2662
2.894 2.484 1.281 2158
2.954 2.535 1.293 3436
2.939 2.523 1.275 4131
2.936 2.520 1.262 4526
2.938 2.522 1.251 4311
3.056 2.623 1.283 5327
3.082 2.645 1.281 6520
3.090 2.652 1.271 6184
3.104 2.664 1.263 3997
3.164 2.716 1.273 5288
3.178 2.728 1.265 7198
3.193 2.740 1.257 9642
3.201 2.748 1.247 9924
3.203 2.750 1.235 7269
3.229 2.772 1.230 7129
3.237 2.779 1.220 7678
3.240 2.781 1.208 9400
3.242 2.783 1.196 8195
3.244 2.785 1.183 6472
3.247 2.787 1.171 6685
3.348 2.874 1.190 5033
3.374 2.896 1.185 6588
3.382 2.903 1.174 7064
3.425 2.940 1.173 6838
3.445 2.957 1.166 6332
3.459 2.969 1.156 4637
3.584 3.077 1.179 5302
3.616 3.104 1.174 4532
3.518 3.020 1.132 2716
3.562 3.057 1.130 2756
3.734 3.206 1.164 3561
3.731 3.202 1.148 3781
3.709 3.184 1.127 3470
3.717 3.191 1.115 3511
3.808 3.269 1.124 5249
3.792 3.255 1.105 5207
3.877 3.328 1.111 3044
4.021 3.452 1.132 4243
4.029 3.459 1.118 4570
4.031 3.460 1.103 3622
3.957 3.396 1.069 2791
4.112 3.530 1.090 3985
4.120 3.537 1.075 4317
4.193 3.600 1.076 4695
4.213 3.617 1.064 5064
4.221 3.623 1.049 3701
4.158 3.569 1.019 3176
4.314 3.703 1.035 2403
4.328 3.715 1.021 2996
4.336 3.722 1.006 3680
4.451 3.820 1.012 2802
4.577 3.929 1.019 2595
4.502 3.864 0.987 2960
4.510 3.871 0.971 4189
4.898 4.205 1.024 3116
4.900 4.206 1.006 3863
4.908 4.213 0.988 3544
4.916 4.220 0.970 2984
4.840 4.155 0.939 2648
4.955 4.254 0.939 3075
4.957 4.255 0.920 3824
4.965 4.262 0.902 3009
5.152 4.422 0.911 3427
5.159 4.429 0.892 3648
5.161 4.430 0.872 2892
5.366 4.606 0.881 2569
5.463 4.689 0.873 2516
5.572 4.783 0.867 2802
5.586 4.795 0.847 2733
6.024 5.171 0.879 2367
6.019 5.167 0.856 2286
6.033 5.178 0.834 2921
6.034 5.180 0.811 4294
6.036 5.181 0.788 4870
6.037 5.182 0.765 4420
6.146 5.276 0.753 4655
6.142 5.272 0.729 4583
6.041 5.186 0.696 5675
6.042 5.187 0.673 6257
6.043 5.188 0.650 5977
6.045 5.189 0.626 5204
6.052 5.195 0.604 3596
6.053 5.196 0.581 2820
6.168 5.294 0.565 2036
6.684 5.738 0.576 1439
6.997 6.007 0.570 1050
6.992 6.002 0.542 769
6.987 5.998 0.515 580
6.982 5.993 0.488 319
1.500 1.282 1.514 6750
1.503 1.285 1.509 13500
1.511 1.292 1.508 11448
1.519 1.299 1.507 9857
1.522 1.301 1.501 9857
1.589 1.359 1.554 7374
1.583 1.353 1.539 7677
1.591 1.360 1.538 6006
1.534 1.311 1.478 5093
1.597 1.365 1.526 4544
1.565 1.338 1.489 4707
1.568 1.340 1.483 4707
1.606 1.373 1.508 5214
1.614 1.380 1.506 6013
1.617 1.382 1.500 5593
1.620 1.385 1.494 5173
1.628 1.392 1.492 4350
1.687 1.442 1.533 5354
1.695 1.449 1.531 4898
1.769 1.512 1.584 5305
1.777 1.519 1.582 6965
1.775 1.518 1.571 7004
1.779 1.520 1.564 7090
1.777 1.519 1.554 11022
1.780 1.521 1.547 15060
1.778 1.520 1.536 15768
1.776 1.518 1.525 16702
1.779 1.521 1.519 14527
1.787 1.528 1.516 10962
1.800 1.539 1.517 9710
1.814 1.551 1.519 12200
1.817 1.553 1.512 14192
1.825 1.560 1.509 11852
1.839 1.572 1.510 10069
1.857 1.588 1.515 8689
1.876 1.604 1.520 9246
1.884 1.611 1.517 7805
1.892 1.618 1.514 6614
1.901 1.625 1.510 6876
1.909 1.632 1.507 7318
1.917 1.639 1.504 8409
1.931 1.651 1.504 10795
1.939 1.658 1.501 12996
1.953 1.669 1.501 10906
1.961 1.676 1.497 9160
1.980 1.693 1.501 8970
1.994 1.704 1.501 11383
2.002 1.711 1.497 13836
2.000 1.709 1.486 15055
2.003 1.712 1.479 13327
2.011 1.719 1.475 10372
2.019 1.726 1.471 9460
2.028 1.733 1.467 7067
2.068 1.768 1.484 7465
2.093 1.789 1.491 8771
2.096 1.791 1.483 9721
2.066 1.766 1.454 9960
2.075 1.773 1.449 10600
2.088 1.785 1.449 9258
2.113 1.806 1.454 9033
2.116 1.809 1.446 8002
2.178 1.862 1.476 7163
2.187 1.869 1.471 7150
2.173 1.858 1.453 10115
2.182 1.865 1.448 12578
2.223 1.900 1.463 11793
2.231 1.907 1.458 12587
2.234 1.910 1.449 11356
2.237 1.912 1.441 10552
2.235 1.910 1.429 8320
2.237 1.913 1.421 4949
2.273 1.943 1.432 5486
2.337 1.998 1.458 5371
2.351 2.010 1.455 4563
2.365 2.022 1.453 4456
2.373 2.029 1.447 5223
2.376 2.031 1.438 5734
2.407 2.057 1.444 7328
2.415 2.065 1.438 12082
2.418 2.067 1.429 13452
2.421 2.069 1.420 9416
2.440 2.086 1.420 6574
2.449 2.093 1.414 8732
2.452 2.096 1.404 10015
2.454 2.098 1.395 11393
2.474 2.115 1.394 12456
2.488 2.127 1.391 9648
2.513 2.148 1.393 7825
2.499 2.136 1.375 6231
2.502 2.139 1.365 4730
2.572 2.199 1.389 3881
2.552 2.182 1.369 5545
2.555 2.184 1.359 8233
2.575 2.201 1.357 8268
2.577 2.203 1.348 5181
2.654 2.269 1.373 7279
2.662 2.276 1.365 10884
2.665 2.278 1.355 10897
2.673 2.285 1.348 12436
2.682 2.292 1.340 15076
2.690 2.300 1.333 15766
2.698 2.307 1.325 12994
2.707 2.314 1.317 8405
2.778 2.375 1.337 8269
2.798 2.391 1.334 7628
2.812 2.404 1.328 6744
2.809 2.401 1.315 5210
2.828 2.418 1.312 6431
2.831 2.420 1.301 8098
2.839 2.427 1.293 7886
2.830 2.419 1.278 5594
2.896 2.476 1.292 2332
2.899 2.478 1.281 2344
2.901 2.480 1.270 2898
2.961 2.531 1.282 3629
2.947 2.519 1.264 4655
2.949 2.521 1.253 5162
3.067 2.622 1.286 6164
3.081 2.634 1.278 8335
3.090 2.641 1.269 6828
3.109 2.658 1.263 4175
3.158 2.700 1.269 4585
3.184 2.722 1.265 6450
3.198 2.734 1.257 8921
3.212 2.746 1.249 10287
3.215 2.748 1.237 8718
3.229 2.760 1.228 7577
3.243 2.772 1.220 6901
3.239 2.769 1.206 8944
3.242 2.771 1.194 8664
3.244 2.773 1.181 7605
3.246 2.775 1.169 7058
3.360 2.872 1.192 4706
3.380 2.889 1.185 7262
3.382 2.891 1.172 7588
3.431 2.933 1.173 6897
3.445 2.945 1.164 6530
3.459 2.957 1.154 5537
3.591 3.069 1.179 4910
3.622 3.096 1.174 4467
3.642 3.114 1.165 2592
3.686 3.151 1.163 2307
3.747 3.203 1.165 3130
3.743 3.200 1.149 3437
3.722 3.182 1.129 3563
3.730 3.188 1.116 3845
3.815 3.261 1.124 5102
3.805 3.253 1.106 4881
3.884 3.320 1.111 2894
4.022 3.438 1.130 4190
4.036 3.450 1.118 4450
4.044 3.457 1.104 3707
4.052 3.464 1.090 2796
4.120 3.522 1.090 3903
4.128 3.528 1.075 4195
4.201 3.591 1.076 4934
4.221 3.608 1.064 5157
4.145 3.544 1.031 3750
4.165 3.561 1.019 3305
4.405 3.766 1.053 2021
4.336 3.706 1.021 2727
4.343 3.713 1.006 3595
4.458 3.811 1.012 2895
4.585 3.920 1.019 2499
4.522 3.865 0.989 3119
4.518 3.862 0.971 4394
4.520 3.864 0.954 3085
4.903 4.191 1.005 3717
4.911 4.198 0.987 3384
4.925 4.210 0.970 2967
4.849 4.145 0.939 2644
5.030 4.300 0.949 2681
4.966 4.245 0.920 3142
5.147 4.400 0.928 3157
5.161 4.411 0.911 3565
5.168 4.418 0.892 3805
5.170 4.419 0.872 3087
5.375 4.595 0.881 2813
5.472 4.678 0.873 2469
5.588 4.777 0.867 2685
5.595 4.783 0.847 2501
6.028 5.153 0.879 2313
6.030 5.155 0.856 2390
6.037 5.161 0.833 3058
6.045 5.167 0.811 4360
6.046 5.169 0.788 4862
6.048 5.170 0.765 4304
6.151 5.258 0.752 4646
6.152 5.259 0.729 4735
6.052 5.173 0.696 6010
6.053 5.174 0.673 6691
6.054 5.175 0.650 6400
6.055 5.176 0.626 5478
6.170 5.275 0.612 3659
6.063 5.183 0.581 2780
6.178 5.282 0.565 2116
6.179 5.282 0.542 1337
7.118 6.085 0.576 1051
7.119 6.086 0.549 827
6.993 5.978 0.515 547
6.982 5.969 0.488 339
1.503 1.279 1.514 6910
1.506 1.281 1.509 13821
1.514 1.288 1.508 11445
1.522 1.295 1.507 9168
1.525 1.297 1.501 9168
1.593 1.355 1.554 7052
1.586 1.349 1.539 7170
1.594 1.356 1.538 5631
1.537 1.308 1.478 5175
1.550 1.319 1.481 4355
1.568 1.334 1.489 4813
1.571 1.336 1.483 4813
1.609 1.369 1.508 5646
1.623 1.380 1.510 6959
1.621 1.378 1.500 6112
1.624 1.381 1.494 5309
1.632 1.388 1.492 3930
1.690 1.438 1.533 4228
1.693 1.440 1.527 4082
1.773 1.508 1.584 5080
1.781 1.515 1.582 6758
1.784 1.518 1.575 6895
1.788 1.520 1.569 7032
1.786 1.519 1.558 10073
1.784 1.517 1.547 13223
1.782 1.515 1.536 13811
1.780 1.513 1.525 14672
1.783 1.516 1.519 12498
1.791 1.523 1.516 9241
1.815 1.543 1.526 9323
1.823 1.550 1.523 12682
1.826 1.553 1.516 14849
1.834 1.560 1.513 12622
1.837 1.563 1.506 10835
1.861 1.583 1.515 8718
1.880 1.599 1.520 9203
1.888 1.606 1.517 8422
1.897 1.613 1.514 7696
1.900 1.616 1.507 7829
1.908 1.623 1.503 7884
1.916 1.630 1.500 8534
1.935 1.646 1.504 10336
1.949 1.657 1.505 12606
1.957 1.664 1.501 10585
1.960 1.667 1.494 8796
1.984 1.688 1.501 7795
1.998 1.699 1.501 10532
2.001 1.702 1.494 13279
2.004 1.704 1.486 14049
2.007 1.707 1.479 11688
2.015 1.714 1.475 8561
2.029 1.726 1.474 8068
2.032 1.728 1.467 6181
2.073 1.763 1.484 6726
2.097 1.784 1.491 8465
2.100 1.786 1.483 9487
2.071 1.761 1.454 9451
2.079 1.768 1.449 10046
2.093 1.780 1.449 9137
2.117 1.801 1.454 9146
2.115 1.799 1.443 8226
2.183 1.857 1.476 7079
2.175 1.850 1.461 7798
2.178 1.852 1.453 11235
2.187 1.860 1.448 13767
2.228 1.895 1.463 12059
2.231 1.897 1.455 12957
2.239 1.904 1.449 12006
2.248 1.911 1.444 11482
2.239 1.905 1.429 8466
2.242 1.907 1.421 5224
2.267 1.928 1.425 5716
2.270 1.931 1.417 5840
2.356 2.004 1.455 5118
2.364 2.011 1.450 5558
2.378 2.023 1.447 6264
2.387 2.030 1.441 6650
2.406 2.047 1.441 7474
2.420 2.058 1.438 11841
2.423 2.061 1.429 13720
2.426 2.063 1.420 9846
2.446 2.080 1.420 6673
2.454 2.087 1.414 9584
2.457 2.090 1.404 11200
2.460 2.092 1.395 11554
2.474 2.104 1.392 12134
2.493 2.121 1.391 9505
2.519 2.142 1.393 7561
2.510 2.135 1.378 7411
2.513 2.137 1.368 5874
2.572 2.188 1.387 3680
2.552 2.171 1.366 4568
2.566 2.183 1.362 7340
2.586 2.199 1.360 7850
2.611 2.221 1.361 5171
2.660 2.262 1.373 6552
2.668 2.269 1.365 10207
2.671 2.271 1.355 10403
2.679 2.278 1.348 12460
2.687 2.286 1.340 15705
2.696 2.293 1.333 16773
2.704 2.300 1.325 13712
2.712 2.307 1.317 8763
2.778 2.363 1.335 7888
2.798 2.380 1.332 7203
2.818 2.396 1.328 7247
2.820 2.399 1.318 5882
2.817 2.396 1.305 7447
2.820 2.398 1.294 8733
2.828 2.405 1.286 7583
2.831 2.407 1.275 5616
2.914 2.478 1.297 2345
2.905 2.471 1.281 3035
2.902 2.468 1.268 3129
2.985 2.539 1.289 3273
2.959 2.516 1.266 4420
2.955 2.513 1.253 5526
3.074 2.614 1.286 6567
3.082 2.621 1.276 9330
3.096 2.633 1.269 7318
3.116 2.650 1.263 4417
3.159 2.687 1.266 3885
3.185 2.709 1.263 5703
3.199 2.721 1.255 7632
3.219 2.738 1.249 9837
3.227 2.745 1.239 9941
3.236 2.752 1.228 8156
3.244 2.759 1.218 5916
3.246 2.761 1.206 7561
3.243 2.758 1.192 8760
3.251 2.765 1.181 8427
3.253 2.767 1.169 6712
3.390 2.884 1.199 5414
3.387 2.881 1.185 7215
3.378 2.873 1.168 7511
3.439 2.924 1.173 6435
3.453 2.936 1.164 6286
3.467 2.948 1.154 5985
3.598 3.060 1.179 4544
3.636 3.092 1.176 4340
3.650 3.104 1.165 3336
3.688 3.136 1.161 3008
3.761 3.198 1.167 2745
3.751 3.190 1.149 3141
3.742 3.182 1.132 3843
3.738 3.179 1.116 4055
3.823 3.251 1.124 4786
3.813 3.243 1.106 4515
3.981 3.386 1.134 2920
4.031 3.428 1.130 4171
4.045 3.440 1.118 4405
4.053 3.447 1.104 3812
4.079 3.469 1.094 3182
4.128 3.511 1.090 3882
4.202 3.574 1.090 4290
4.216 3.585 1.077 5096
4.224 3.592 1.062 5318
4.154 3.533 1.031 3823
4.168 3.545 1.018 3367
4.408 3.749 1.052 2163
4.387 3.731 1.030 2478
4.359 3.707 1.007 3258
4.468 3.800 1.012 2833
4.595 3.908 1.019 2447
4.532 3.854 0.989 3204
4.527 3.851 0.971 4301
4.529 3.852 0.954 2998
4.914 4.179 1.005 3478
4.915 4.181 0.986 3200
4.929 4.192 0.969 2964
4.853 4.128 0.938 2671
5.041 4.287 0.949 2693
5.138 4.370 0.945 3249
5.158 4.387 0.928 3333
5.166 4.393 0.910 3651
5.173 4.400 0.891 3871
5.181 4.406 0.872 3189
5.381 4.576 0.880 3065
5.604 4.766 0.889 2438
5.600 4.763 0.867 2546
5.601 4.764 0.846 2219
6.041 5.138 0.879 2195
6.043 5.139 0.856 2413
6.050 5.146 0.833 3085
6.058 5.152 0.811 4252
6.059 5.153 0.788 4629
6.067 5.160 0.766 4046
6.164 5.243 0.752 4464
6.166 5.244 0.729 4646
6.071 5.163 0.696 5996
6.072 5.164 0.673 6711
6.067 5.160 0.650 6380
6.068 5.161 0.626 5373
6.184 5.259 0.612 3532
6.076 5.168 0.581 2526
6.192 5.266 0.565 2050
6.187 5.262 0.541 1301
7.133 6.067 0.576 1109
7.134 6.068 0.549 866
7.135 6.068 0.522 522
6.985 5.941 0.487 348
1.512 1.278 1.519 6998
1.515 1.281 1.513 13996
1.518 1.283 1.508 11066
1.521 1.286 1.502 8136
1.524 1.288 1.496 8136
1.592 1.345 1.549 7270
1.590 1.344 1.539 7211
1.598 1.351 1.538 5737
1.541 1.303 1.478 5225
1.604 1.356 1.526 4440
1.572 1.329 1.489 4756
1.575 1.331 1.483 4756
1.619 1.368 1.512 6053
1.627 1.375 1.510 7756
1.630 1.377 1.504 6961
1.633 1.380 1.498 6167
1.636 1.383 1.492 4317
1.766 1.492 1.593 3386
1.769 1.495 1.587 3328
1.778 1.502 1.584 4836
1.786 1.509 1.582 6542
1.789 1.512 1.575 6872
1.792 1.515 1.569 7202
1.790 1.513 1.558 9311
1.793 1.516 1.551 11529
1.791 1.514 1.540 11950
1.789 1.512 1.529 12567
1.787 1.511 1.519 10288
1.796 1.518 1.516 7408
1.825 1.542 1.530 9089
1.828 1.545 1.523 13124
1.831 1.547 1.516 15421
1.839 1.554 1.513 13430
1.842 1.557 1.506 11780
1.861 1.573 1.511 8954
1.890 1.597 1.524 9487
1.893 1.600 1.517 9294
1.896 1.603 1.510 9102
1.905 1.610 1.507 9059
1.913 1.617 1.503 8549
1.916 1.619 1.496 8601
1.940 1.640 1.504 9576
1.954 1.651 1.505 11800
1.962 1.658 1.501 10013
1.965 1.661 1.494 8395
1.990 1.681 1.501 7186
2.003 1.693 1.501 10069
2.006 1.696 1.494 12774
2.009 1.698 1.486 12889
2.012 1.701 1.479 9643
2.042 1.726 1.489 6968
2.045 1.728 1.482 6447
2.070 1.749 1.488 5755
2.089 1.765 1.491 6151
2.103 1.777 1.491 8165
2.106 1.780 1.483 9202
2.076 1.755 1.454 8493
2.085 1.762 1.449 9151
2.098 1.773 1.449 8914
2.118 1.790 1.451 9104
2.121 1.792 1.443 8694
2.189 1.850 1.476 7080
2.181 1.843 1.461 8635
2.184 1.846 1.453 12177
2.192 1.853 1.448 14656
2.228 1.883 1.460 12237
2.237 1.890 1.455 13080
2.245 1.897 1.449 12361
2.253 1.904 1.444 12201
2.245 1.898 1.429 8641
2.248 1.900 1.421 5515
2.268 1.916 1.422 6338
2.270 1.919 1.414 6267
2.362 1.996 1.455 5806
2.371 2.003 1.450 6661
2.385 2.015 1.447 7263
2.393 2.022 1.441 7515
2.407 2.034 1.438 7783
2.427 2.051 1.438 11504
2.430 2.053 1.429 13793
2.432 2.056 1.420 10206
2.452 2.072 1.420 6874
2.461 2.080 1.414 10179
2.463 2.082 1.404 11882
2.466 2.084 1.395 11347
2.480 2.096 1.392 11642
2.494 2.108 1.388 9440
2.508 2.120 1.384 7550
2.517 2.127 1.378 8780
2.525 2.134 1.371 7288
2.556 2.160 1.375 4795
2.559 2.163 1.366 4947
2.584 2.184 1.367 7074
2.599 2.196 1.363 7583
2.624 2.218 1.364 5300
2.667 2.254 1.373 6059
2.669 2.256 1.363 9552
2.672 2.258 1.353 9527
2.686 2.270 1.348 11531
2.694 2.277 1.340 15136
2.703 2.284 1.333 17012
2.711 2.291 1.325 14004
2.720 2.298 1.317 9102
2.780 2.349 1.332 8021
2.788 2.356 1.324 7094
2.825 2.388 1.328 7281
2.828 2.390 1.318 6138
2.825 2.387 1.305 8226
2.827 2.389 1.294 9344
2.836 2.396 1.286 7675
2.838 2.399 1.275 5439
2.922 2.469 1.297 2906
2.918 2.466 1.284 4009
2.915 2.464 1.270 3527
2.993 2.529 1.289 3262
2.978 2.517 1.271 4151
2.963 2.504 1.253 5444
3.082 2.605 1.286 6570
3.090 2.612 1.276 9525
3.104 2.624 1.269 7562
3.124 2.641 1.263 4714
3.127 2.643 1.252 3495
3.188 2.694 1.261 4803
3.202 2.706 1.253 6105
3.228 2.728 1.249 8401
3.236 2.735 1.239 9801
3.244 2.742 1.228 8010
3.258 2.754 1.220 4928
3.249 2.746 1.204 6086
3.251 2.748 1.192 8628
3.260 2.755 1.181 8543
3.262 2.757 1.169 5831
3.399 2.873 1.199 6600
3.390 2.865 1.183 6702
3.386 2.862 1.168 6876
3.453 2.919 1.175 5742
3.462 2.926 1.164 5629
3.476 2.937 1.154 5935
3.602 3.044 1.177 4482
3.646 3.081 1.176 4315
3.654 3.088 1.164 4266
3.674 3.105 1.155 3920
3.670 3.102 1.139 2977
3.637 3.074 1.116 2960
3.752 3.171 1.132 3918
3.748 3.167 1.116 3943
3.833 3.239 1.124 4395
3.823 3.231 1.106 4096
3.980 3.364 1.131 3583
4.035 3.411 1.129 4127
4.056 3.427 1.118 4421
4.070 3.439 1.105 4027
4.096 3.461 1.096 3757
4.133 3.493 1.088 4149
4.213 3.560 1.090 4173
4.227 3.572 1.077 4925
4.235 3.579 1.062 5282
4.219 3.566 1.043 4163
4.179 3.532 1.018 3358
4.420 3.736 1.052 2495
4.398 3.717 1.030 2397
4.376 3.699 1.009 2743
4.486 3.791 1.013 2674
4.613 3.899 1.020 2370
4.544 3.840 0.989 3173
4.545 3.842 0.972 4023
4.925 4.162 1.023 2998
4.921 4.159 1.004 3259
4.922 4.160 0.985 2991
4.936 4.172 0.968 2879
4.860 4.108 0.937 2721
5.150 4.352 0.965 2771
5.152 4.354 0.945 3239
5.172 4.371 0.928 3396
5.179 4.377 0.910 3641
5.187 4.384 0.891 3856
5.189 4.385 0.871 3275
5.395 4.559 0.880 3178
5.619 4.749 0.889 2613
5.621 4.750 0.868 2423
5.616 4.746 0.846 1905
6.051 5.114 0.878 2047
6.053 5.115 0.855 2389
6.060 5.122 0.833 2987
6.074 5.133 0.811 3983
6.075 5.135 0.788 4201
6.089 5.146 0.766 3682
6.175 5.218 0.751 4144
6.182 5.225 0.729 4336
6.087 5.144 0.696 5615
6.088 5.145 0.673 6303
6.083 5.141 0.650 5949
6.084 5.142 0.626 4934
6.200 5.240 0.612 3214
6.201 5.241 0.589 2290
6.202 5.242 0.565 1878
6.203 5.242 0.541 1190
7.146 6.039 0.576 1096
7.147 6.040 0.549 854
7.142 6.036 0.521 523
7.004 5.919 0.487 343
1.850 1.563 -0.152 296
1.515 1.275 1.519 7040
1.518 1.278 1.513 14080
1.521 1.280 1.508 10520
1.578 1.329 1.552 7035
1.591 1.340 1.555 7970
1.590 1.338 1.545 7823
1.593 1.341 1.539 7676
1.601 1.348 1.538 6120
1.544 1.300 1.478 5426
1.612 1.357 1.530 4824
1.610 1.355 1.520 4808
1.573 1.324 1.478 4645
1.626 1.369 1.516 6316
1.629 1.372 1.510 8154
1.633 1.374 1.504 7449
1.636 1.377 1.498 6744
1.644 1.384 1.496 4671
1.769 1.489 1.593 2953
1.772 1.492 1.587 2928
1.780 1.499 1.584 4455
1.789 1.506 1.582 6127
1.792 1.509 1.575 6655
1.795 1.511 1.569 7184
1.798 1.514 1.562 8593
1.796 1.512 1.551 10038
1.800 1.515 1.544 10339
1.798 1.513 1.534 10708
1.790 1.507 1.519 8211
1.830 1.540 1.540 6463
1.828 1.539 1.530 8547
1.831 1.541 1.523 13139
1.834 1.544 1.516 15603
1.842 1.551 1.513 13981
1.845 1.553 1.506 12655
1.859 1.565 1.507 9391
1.893 1.594 1.524 9876
1.896 1.596 1.517 10164
1.899 1.599 1.510 10452
1.908 1.606 1.507 10272
1.911 1.609 1.499 9184
1.919 1.616 1.496 8599
1.938 1.632 1.500 8604
1.957 1.647 1.505 10671
1.965 1.655 1.501 9179
1.968 1.657 1.494 7798
1.993 1.678 1.501 6712
2.007 1.689 1.501 9612
2.004 1.687 1.490 12281
2.013 1.694 1.486 11731
2.043 1.719 1.497 8020
2.072 1.745 1.507 7103
2.075 1.747 1.500 6344
2.089 1.759 1.499 5510
2.098 1.766 1.495 5726
2.112 1.778 1.494 7757
2.109 1.776 1.483 8765
2.080 1.751 1.454 7365
2.093 1.762 1.453 8116
2.107 1.774 1.452 8547
2.121 1.786 1.451 8688
2.124 1.788 1.443 8986
2.132 1.795 1.439 7495
2.185 1.839 1.461 9181
2.187 1.841 1.453 12643
2.190 1.844 1.445 15034
2.226 1.874 1.456 12142
2.235 1.881 1.451 12785
2.249 1.893 1.449 12206
2.257 1.900 1.444 12524
2.255 1.898 1.433 8947
2.257 1.900 1.424 5904
2.271 1.912 1.422 6977
2.274 1.914 1.414 6493
2.366 1.992 1.455 6288
2.374 1.999 1.450 7436
2.389 2.011 1.447 7861
2.397 2.018 1.441 7870
2.405 2.025 1.435 8011
2.431 2.046 1.438 10749
2.434 2.049 1.429 13362
2.436 2.051 1.420 10248
2.462 2.072 1.423 7194
2.465 2.075 1.414 10480
2.462 2.072 1.401 12061
2.470 2.080 1.395 10964
2.484 2.091 1.392 11279
2.493 2.098 1.385 9376
2.507 2.110 1.381 7688
2.521 2.122 1.378 9828
2.529 2.129 1.371 8514
2.560 2.155 1.375 6099
2.569 2.163 1.369 6109
2.589 2.179 1.367 7471
2.608 2.196 1.366 7584
2.628 2.213 1.364 5519
2.665 2.244 1.370 5768
2.674 2.251 1.363 9034
2.676 2.253 1.353 8559
2.691 2.265 1.348 9781
2.699 2.272 1.340 13293
2.707 2.279 1.333 16082
2.710 2.281 1.323 13580
2.787 2.346 1.345 9402
2.784 2.344 1.332 8623
2.787 2.346 1.322 7954
2.836 2.387 1.331 6643
2.832 2.384 1.318 5691
2.829 2.382 1.305 8386
2.832 2.384 1.294 9581
2.840 2.391 1.286 7584
2.843 2.393 1.275 5068
2.932 2.468 1.299 3789
2.929 2.466 1.286 5185
2.920 2.458 1.270 4043
2.992 2.519 1.287 3479
2.983 2.511 1.271 3667
2.968 2.499 1.253 4901
3.087 2.599 1.286 6216
3.095 2.606 1.276 8653
3.109 2.618 1.269 7272
3.129 2.634 1.263 4883
3.132 2.637 1.252 3652
3.181 2.678 1.257 4406
3.184 2.680 1.245 5974
3.221 2.712 1.245 6881
3.241 2.729 1.239 8263
3.255 2.740 1.230 7114
3.270 2.752 1.222 4756
3.254 2.740 1.204 5272
3.257 2.742 1.192 8164
3.271 2.753 1.183 7957
3.391 2.854 1.208 6604
3.405 2.866 1.199 7884
3.401 2.863 1.185 6243
3.392 2.855 1.168 5883
3.459 2.912 1.175 5218
3.467 2.919 1.164 4932
3.487 2.936 1.156 5453
3.490 2.938 1.143 4333
3.652 3.074 1.176 4466
3.654 3.076 1.162 5367
3.674 3.093 1.153 4683
3.676 3.095 1.139 3387
3.643 3.067 1.116 2958
3.758 3.163 1.132 3587
3.754 3.160 1.116 3450
3.833 3.227 1.122 3814
3.830 3.224 1.106 3616
3.969 3.341 1.126 4316
4.042 3.403 1.129 3830
4.062 3.420 1.118 4224
4.088 3.441 1.108 4213
4.102 3.453 1.096 4257
4.140 3.485 1.088 4484
4.148 3.492 1.074 3848
4.240 3.569 1.078 4270
4.242 3.571 1.062 4932
4.226 3.558 1.043 4505
4.180 3.519 1.016 3378
4.427 3.727 1.052 2784
4.411 3.714 1.031 2433
4.389 3.695 1.010 2384
4.493 3.782 1.013 2429
4.621 3.890 1.020 2145
4.551 3.831 0.989 3067
4.553 3.833 0.972 3667
4.933 4.152 1.023 2924
4.851 4.083 0.990 3281
4.846 4.080 0.970 3042
4.872 4.102 0.956 2782
4.862 4.093 0.936 2778
5.158 4.342 0.965 2598
5.154 4.339 0.944 3086
5.180 4.361 0.928 3353
5.188 4.367 0.910 3523
5.196 4.374 0.891 3715
5.197 4.375 0.871 3260
5.398 4.544 0.879 3192
5.628 4.738 0.889 2766
5.630 4.739 0.868 2427
5.378 4.527 0.815 1687
6.055 5.097 0.877 1906
6.063 5.104 0.855 2296
6.070 5.110 0.833 2771
6.084 5.122 0.811 3524
6.085 5.123 0.788 3596
6.105 5.139 0.767 3241
6.185 5.206 0.751 3612
6.198 5.218 0.729 3772
6.097 5.132 0.696 5016
6.098 5.133 0.673 5652
6.099 5.134 0.650 5319
6.094 5.130 0.626 4326
6.204 5.223 0.612 2792
6.211 5.229 0.589 2019
6.212 5.230 0.565 1663
6.213 5.230 0.541 1054
7.152 6.020 0.575 1012
7.147 6.016 0.548 799
7.147 6.017 0.521 521
7.015 5.905 0.487 330
1.853 1.560 -0.152 296
1.523 1.275 1.523 7041
1.526 1.277 1.518 14083
1.525 1.276 1.508 9766
1.582 1.324 1.552 8175
1.585 1.327 1.546 8810
1.594 1.334 1.545 8579
1.597 1.336 1.539 8362
1.605 1.343 1.538 6549
1.553 1.299 1.482 5671
1.621 1.357 1.534 5254
1.619 1.355 1.524 5019
1.622 1.358 1.518 4763
1.630 1.364 1.516 6575
1.639 1.371 1.515 8397
1.642 1.374 1.509 7755
1.645 1.376 1.503 7114
1.653 1.383 1.501 4893
1.661 1.390 1.499 2842
1.684 1.410 1.510 3037
1.785 1.494 1.584 3993
1.788 1.496 1.578 5548
1.796 1.503 1.575 6200
1.800 1.506 1.569 6853
1.803 1.509 1.562 7792
1.806 1.511 1.555 8730
1.809 1.514 1.548 9042
1.812 1.517 1.542 9354
1.826 1.528 1.543 7119
1.850 1.548 1.553 6336
1.827 1.529 1.526 7764
1.835 1.536 1.523 12653
1.838 1.538 1.516 15254
1.847 1.545 1.513 14121
1.850 1.548 1.506 13292
1.858 1.555 1.503 9872
1.898 1.588 1.524 10199
1.901 1.591 1.517 10825
1.909 1.598 1.514 11453
1.912 1.600 1.507 11278
1.915 1.603 1.499 9745
1.919 1.606 1.492 8389
1.991 1.666 1.535 7912
1.962 1.642 1.505 9313
1.970 1.649 1.501 8092
1.973 1.651 1.494 6912
1.982 1.658 1.490 6122
2.006 1.679 1.497 8908
2.009 1.681 1.490 11486
2.018 1.688 1.486 10519
2.058 1.722 1.504 7862
2.072 1.734 1.504 7169
2.081 1.741 1.500 6038
2.100 1.757 1.503 5238
2.103 1.760 1.495 5280
2.117 1.771 1.494 7378
2.120 1.774 1.486 8382
2.139 1.790 1.489 7450
2.104 1.761 1.456 7235
2.112 1.768 1.452 7879
2.121 1.775 1.448 7758
2.129 1.782 1.443 8893
2.143 1.793 1.442 8666
2.190 1.833 1.461 9280
2.193 1.835 1.453 12457
2.196 1.838 1.445 14839
2.226 1.863 1.453 11897
2.235 1.870 1.448 12368
2.249 1.882 1.446 11761
2.263 1.894 1.444 12459
2.260 1.891 1.433 9284
2.263 1.894 1.424 6495
2.277 1.905 1.422 7668
2.280 1.908 1.414 6621
2.372 1.985 1.455 6484
2.380 1.992 1.450 7762
2.394 2.004 1.447 7923
2.403 2.011 1.441 7592
2.411 2.018 1.435 7862
2.437 2.039 1.438 9778
2.440 2.042 1.429 12534
2.448 2.049 1.423 10033
2.468 2.065 1.423 7644
2.471 2.068 1.414 10546
2.468 2.065 1.401 11726
2.476 2.072 1.395 10318
2.490 2.084 1.392 10898
2.499 2.091 1.385 9329
2.513 2.103 1.381 7487
2.538 2.124 1.383 10372
2.541 2.127 1.374 9147
2.567 2.148 1.375 6793
2.587 2.165 1.374 7351
2.595 2.172 1.367 8018
2.609 2.183 1.363 7518
2.635 2.205 1.364 5589
2.672 2.236 1.370 5312
2.680 2.243 1.363 8323
2.677 2.240 1.350 7808
2.697 2.257 1.348 7536
2.711 2.269 1.343 10532
2.714 2.271 1.333 14023
2.717 2.273 1.323 12296
2.794 2.338 1.345 9649
2.791 2.336 1.332 9246
2.794 2.338 1.322 8917
2.796 2.340 1.311 6956
2.787 2.333 1.296 5165
2.836 2.373 1.305 8045
2.839 2.376 1.294 9412
2.847 2.383 1.286 7351
2.850 2.385 1.275 4724
2.945 2.465 1.302 4440
2.942 2.462 1.288 6278
2.956 2.474 1.282 4698
2.999 2.510 1.287 3796
2.990 2.502 1.271 3024
2.975 2.490 1.253 4113
3.089 2.585 1.283 5550
3.103 2.597 1.276 7043
3.117 2.609 1.269 6417
3.137 2.625 1.263 4820
3.145 2.632 1.254 3898
3.183 2.664 1.254 4662
3.191 2.671 1.245 7299
3.200 2.678 1.235 7206
3.237 2.709 1.235 6327
3.258 2.726 1.228 6623
3.278 2.743 1.222 6256
3.280 2.745 1.210 5932
3.271 2.737 1.194 7186
3.279 2.744 1.183 6767
3.399 2.845 1.208 7800
3.413 2.856 1.199 8813
3.422 2.863 1.188 6227
3.400 2.846 1.168 4745
3.474 2.907 1.177 4859
3.476 2.909 1.164 4259
3.496 2.926 1.156 4814
3.551 2.972 1.158 4792
3.660 3.063 1.176 4975
3.663 3.065 1.162 6522
3.671 3.072 1.150 5473
3.685 3.084 1.139 3554
3.646 3.051 1.114 2896
3.767 3.152 1.132 2961
3.918 3.279 1.157 2911
3.896 3.261 1.136 3347
3.952 3.307 1.135 3552
3.978 3.329 1.126 4559
4.010 3.356 1.118 3501
4.078 3.413 1.119 3940
4.098 3.430 1.108 4294
4.106 3.436 1.094 4615
4.144 3.468 1.087 4752
4.158 3.480 1.074 3889
4.256 3.562 1.080 3600
4.258 3.564 1.064 4583
4.392 3.676 1.076 4592
4.406 3.687 1.062 3673
4.432 3.709 1.050 2902
4.422 3.701 1.031 2431
4.514 3.778 1.033 2553
4.498 3.764 1.012 2219
4.632 3.877 1.020 1852
4.556 3.813 0.988 2877
4.564 3.819 0.972 3190
4.873 4.078 1.010 2965
4.868 4.074 0.991 3525
4.864 4.071 0.971 3191
4.866 4.072 0.953 2928
4.874 4.079 0.936 2797
5.165 4.322 0.964 2388
5.167 4.324 0.944 2845
5.193 4.346 0.928 3186
5.194 4.347 0.909 3379
5.202 4.353 0.890 3540
5.210 4.360 0.871 3119
5.411 4.528 0.879 2985
5.618 4.701 0.886 2856
5.650 4.728 0.869 2410
5.391 4.512 0.815 1804
6.058 5.069 0.876 1788
5.908 4.944 0.835 2318
5.686 4.758 0.787 2473
6.099 5.104 0.811 2910
6.106 5.110 0.789 2880
6.132 5.132 0.768 2782
6.158 5.153 0.747 3088
6.207 5.195 0.729 3078
6.112 5.115 0.696 4196
6.113 5.116 0.673 4755
6.114 5.117 0.650 4457
6.115 5.118 0.627 3564
6.219 5.205 0.612 2277
6.220 5.205 0.588 1673
6.221 5.206 0.565 1376
6.895 5.770 0.585 946
7.157 5.989 0.575 929
7.164 5.995 0.548 732
7.165 5.996 0.521 504
7.026 5.880 0.487 309
1.857 1.554 -0.152 310
1.525 1.273 1.523 6842
1.528 1.275 1.518 13684
1.536 1.282 1.517 9045
1.579 1.318 1.548 9559
1.587 1.325 1.546 9965
1.590 1.327 1.540 9610
1.598 1.334 1.539 9315
1.601 1.337 1.533 7226
1.559 1.302 1.487 6019
