9.175 -1.989 0.282 526
1.925 -0.422 1.531 5020
1.929 -0.423 1.526 10041
1.932 -0.424 1.520 7938
1.918 -0.421 1.501 6224
1.921 -0.421 1.495 6224
1.944 -0.426 1.503 5917
2.049 -0.450 1.570 7390
2.054 -0.450 1.564 9116
2.051 -0.450 1.554 10917
2.055 -0.451 1.548 10917
2.059 -0.452 1.542 9519
2.076 -0.455 1.545 8164
2.080 -0.456 1.539 8650
2.078 -0.456 1.528 9186
2.107 -0.462 1.540 8372
2.111 -0.463 1.533 8189
2.115 -0.464 1.527 6452
2.119 -0.465 1.521 4714
2.143 -0.470 1.528 4173
2.160 -0.474 1.530 4388
2.163 -0.475 1.524 5878
2.167 -0.475 1.518 7368
2.171 -0.476 1.511 8158
2.175 -0.477 1.505 9646
2.179 -0.478 1.499 8879
2.203 -0.483 1.505 8394
2.220 -0.487 1.507 8081
2.230 -0.489 1.504 6513
2.234 -0.490 1.498 9149
2.238 -0.491 1.491 11537
2.248 -0.493 1.489 12200
2.252 -0.494 1.482 12962
2.249 -0.493 1.472 10425
2.327 -0.510 1.509 9535
2.324 -0.510 1.498 11273
2.328 -0.511 1.492 13043
2.332 -0.511 1.485 12325
2.329 -0.511 1.474 11962
2.332 -0.512 1.467 8556
2.363 -0.518 1.476 4817
2.380 -0.522 1.477 4820
2.384 -0.523 1.470 5868
2.395 -0.525 1.467 7011
2.419 -0.531 1.471 6569
2.423 -0.531 1.464 6151
2.420 -0.531 1.453 5722
2.417 -0.530 1.443 4978
2.413 -0.529 1.432 4449
2.499 -0.548 1.469 3899
2.489 -0.546 1.455 5950
2.486 -0.545 1.444 6787
2.483 -0.545 1.433 5841
2.507 -0.550 1.436 5013
2.518 -0.552 1.433 5826
2.611 -0.573 1.472 8248
2.615 -0.574 1.464 13070
2.626 -0.576 1.460 13537
2.615 -0.574 1.445 10468
2.675 -0.587 1.466 10493
2.685 -0.589 1.461 14256
2.689 -0.590 1.454 14000
2.714 -0.595 1.456 11315
2.724 -0.598 1.451 11370
2.728 -0.598 1.443 12699
2.725 -0.598 1.432 13217
2.715 -0.595 1.417 12640
2.711 -0.595 1.406 12352
2.708 -0.594 1.395 11481
2.725 -0.598 1.393 12562
2.736 -0.600 1.389 11734
2.775 -0.609 1.397 8717
2.785 -0.611 1.392 9106
2.789 -0.612 1.384 9806
2.800 -0.614 1.379 8706
2.938 -0.644 1.431 9890
2.948 -0.647 1.426 12150
2.945 -0.646 1.414 13709
2.949 -0.647 1.405 14562
2.952 -0.648 1.396 15212
2.963 -0.650 1.391 15289
2.974 -0.652 1.385 12306
2.991 -0.656 1.383 9864
3.024 -0.663 1.386 11779
3.034 -0.666 1.380 11006
3.038 -0.666 1.371 11945
3.041 -0.667 1.362 12783
3.030 -0.665 1.347 10678
3.034 -0.665 1.338 10760
3.045 -0.668 1.332 11283
3.055 -0.670 1.326 12315
3.051 -0.669 1.314 11470
3.040 -0.667 1.300 10171
3.043 -0.668 1.291 12041
3.054 -0.670 1.285 13062
3.057 -0.671 1.276 10892
3.068 -0.673 1.269 8387
3.071 -0.674 1.260 6128
3.067 -0.673 1.249 5352
3.099 -0.680 1.250 5141
3.124 -0.685 1.249 6871
3.127 -0.686 1.240 10667
3.123 -0.685 1.228 10654
3.119 -0.684 1.216 7239
3.122 -0.685 1.207 7205
3.125 -0.685 1.198 9779
3.135 -0.688 1.191 7257
3.505 -0.769 1.306 4156
3.501 -0.768 1.294 3851
3.556 -0.780 1.300 3657
3.574 -0.784 1.295 4101
3.570 -0.783 1.282 5219
3.640 -0.798 1.293 5494
3.650 -0.801 1.284 7336
3.661 -0.803 1.276 6710
3.686 -0.809 1.272 4407
3.712 -0.814 1.268 5565
3.715 -0.815 1.257 6630
3.733 -0.819 1.250 6234
3.759 -0.824 1.246 5921
3.858 -0.846 1.264 6201
3.861 -0.847 1.252 6896
3.872 -0.849 1.243 8085
3.868 -0.848 1.229 8555
3.871 -0.849 1.218 7433
3.911 -0.858 1.217 7121
3.944 -0.865 1.214 9962
3.962 -0.869 1.206 11698
3.965 -0.870 1.195 10642
3.976 -0.872 1.185 10588
3.994 -0.876 1.177 12022
4.011 -0.880 1.169 8047
4.037 -0.885 1.163 6995
4.047 -0.888 1.153 6519
4.230 -0.928 1.186 5838
4.233 -0.929 1.174 6388
4.251 -0.933 1.165 5381
4.262 -0.935 1.154 6497
4.257 -0.934 1.140 6486
4.298 -0.943 1.136 3781
4.331 -0.950 1.130 3388
4.356 -0.955 1.123 4700
4.382 -0.961 1.115 7769
4.392 -0.963 1.104 7008
4.395 -0.964 1.091 5022
4.405 -0.966 1.080 3865
4.559 -1.000 1.099 3406
4.547 -0.997 1.082 3413
4.526 -0.993 1.064 2401
4.658 -1.022 1.077 3206
4.759 -1.044 1.083 4977
4.747 -1.041 1.066 5482
4.734 -1.038 1.049 4310
4.729 -1.037 1.033 3784
4.929 -1.081 1.057 5149
4.917 -1.078 1.039 4907
4.866 -1.067 1.015 4222
5.067 -1.111 1.036 3430
5.062 -1.110 1.020 4437
5.064 -1.111 1.005 5032
5.066 -1.111 0.990 3744
5.214 -1.144 0.999 2344
5.247 -1.151 0.988 3392
5.257 -1.153 0.974 3134
5.259 -1.154 0.959 2932
5.254 -1.152 0.942 2179
5.379 -1.180 0.945 2596
5.542 -1.215 0.953 3402
5.513 -1.209 0.932 4423
5.676 -1.245 0.938 4724
5.671 -1.244 0.920 4093
5.911 -1.296 0.936 4606
5.905 -1.295 0.917 4470
5.915 -1.297 0.901 3922
5.917 -1.298 0.883 4044
5.919 -1.298 0.866 3349
5.952 -1.306 0.852 2684
6.046 -1.326 0.845 2808
6.056 -1.328 0.828 3044
6.481 -1.422 0.858 2991
6.552 -1.437 0.846 2063
6.569 -1.441 0.828 2211
6.594 -1.446 0.811 2706
6.573 -1.442 0.789 2511
6.513 -1.429 0.764 2744
6.515 -1.429 0.744 2293
6.671 -1.463 0.739 2070
7.019 -1.540 0.750 2778
7.037 -1.543 0.730 2984
7.069 -1.551 0.712 2898
7.240 -1.588 0.704 3139
7.226 -1.585 0.681 3666
7.228 -1.585 0.660 3534
7.368 -1.616 0.648 2918
7.609 -1.669 0.642 3185
7.610 -1.669 0.620 3768
7.604 -1.668 0.596 2941
7.760 -1.702 0.583 1831
7.761 -1.702 0.560 1745
7.770 -1.704 0.537 1339
8.620 -1.891 0.555 1199
9.101 -1.996 0.551 1403
7.842 -1.720 0.471 1340
8.956 -1.964 0.492 1290
8.965 -1.966 0.465 1080
8.641 -1.895 0.428 880
9.245 -2.028 0.420 782
9.245 -2.028 0.393 955
9.122 -2.001 0.362 1007
9.123 -2.001 0.335 821
9.162 -2.010 0.309 715
9.170 -2.011 0.282 501
9.248 -2.028 0.256 266
1.924 -0.425 1.531 4704
1.928 -0.426 1.526 9409
1.932 -0.427 1.520 7422
1.917 -0.424 1.501 5810
1.921 -0.425 1.495 5810
1.944 -0.430 1.503 5543
2.049 -0.453 1.570 7791
2.053 -0.454 1.564 9554
2.050 -0.453 1.554 11461
2.055 -0.454 1.548 11461
2.059 -0.455 1.542 9671
2.075 -0.459 1.545 8070
2.079 -0.460 1.539 8435
2.077 -0.459 1.528 8809
2.107 -0.466 1.540 8001
2.111 -0.467 1.533 7621
2.114 -0.467 1.527 6081
2.131 -0.471 1.530 4558
2.142 -0.473 1.528 4956
2.152 -0.476 1.526 5561
2.163 -0.478 1.524 6482
2.167 -0.479 1.518 7422
2.171 -0.480 1.511 8295
2.174 -0.481 1.505 9892
2.185 -0.483 1.503 9491
2.195 -0.485 1.501 9335
2.212 -0.489 1.503 8755
2.229 -0.493 1.504 6912
2.233 -0.494 1.498 9146
2.237 -0.495 1.491 11194
2.248 -0.497 1.489 11836
2.252 -0.498 1.482 12538
2.249 -0.497 1.472 10142
2.326 -0.514 1.509 8919
2.323 -0.513 1.498 10893
2.327 -0.514 1.492 12902
2.331 -0.515 1.485 12255
2.328 -0.515 1.474 11879
2.332 -0.515 1.467 8467
2.356 -0.521 1.472 4566
2.373 -0.525 1.473 4128
2.383 -0.527 1.470 5330
2.401 -0.531 1.471 6663
2.418 -0.534 1.471 6579
2.429 -0.537 1.468 5991
2.426 -0.536 1.457 5000
2.423 -0.535 1.446 3608
2.508 -0.554 1.484 3181
2.505 -0.554 1.473 4262
2.502 -0.553 1.462 5610
2.485 -0.549 1.444 5877
2.482 -0.549 1.433 5231
2.506 -0.554 1.436 4516
2.517 -0.556 1.433 5005
2.610 -0.577 1.472 8582
2.614 -0.578 1.464 13084
2.625 -0.580 1.460 13699
2.649 -0.586 1.463 9798
2.674 -0.591 1.466 9399
2.684 -0.593 1.461 12492
2.688 -0.594 1.454 12323
2.720 -0.601 1.459 10098
2.730 -0.604 1.455 10180
2.727 -0.603 1.443 11520
2.724 -0.602 1.432 12572
2.714 -0.600 1.417 12709
2.710 -0.599 1.406 12651
2.707 -0.598 1.395 11962
2.717 -0.601 1.390 12615
2.728 -0.603 1.385 11574
2.767 -0.612 1.394 7033
2.784 -0.615 1.392 6964
2.788 -0.616 1.384 7648
2.799 -0.619 1.379 6987
2.937 -0.649 1.431 9924
2.947 -0.652 1.426 12635
2.951 -0.652 1.417 13631
2.948 -0.652 1.405 13266
2.951 -0.652 1.396 13069
2.955 -0.653 1.388 12919
2.965 -0.656 1.382 11006
2.998 -0.663 1.386 10370
3.023 -0.668 1.386 13040
3.033 -0.670 1.380 11797
3.044 -0.673 1.374 12556
3.040 -0.672 1.362 12969
3.037 -0.671 1.350 9166
3.033 -0.670 1.338 8044
3.043 -0.673 1.332 8722
3.054 -0.675 1.326 9634
3.050 -0.674 1.314 9461
3.039 -0.672 1.300 9276
3.042 -0.672 1.291 10761
3.053 -0.675 1.285 10937
3.056 -0.676 1.276 9152
3.067 -0.678 1.269 7565
3.070 -0.679 1.260 5300
3.073 -0.679 1.251 4647
3.193 -0.706 1.285 4532
3.152 -0.697 1.260 6199
3.133 -0.693 1.243 8021
3.122 -0.690 1.228 7239
3.403 -0.752 1.317 5989
3.414 -0.755 1.309 7605
3.124 -0.691 1.198 5749
3.134 -0.693 1.191 4071
3.482 -0.770 1.299 4391
3.485 -0.770 1.289 4306
3.511 -0.776 1.286 3154
3.580 -0.791 1.297 4121
3.569 -0.789 1.282 4966
3.638 -0.804 1.293 4819
3.649 -0.807 1.284 6402
3.660 -0.809 1.276 5784
3.685 -0.815 1.272 4713
3.703 -0.819 1.266 6329
3.714 -0.821 1.257 6890
3.732 -0.825 1.250 5851
3.854 -0.852 1.275 5849
3.857 -0.853 1.264 7280
3.860 -0.853 1.252 8956
3.871 -0.856 1.243 10288
3.874 -0.856 1.232 10245
3.869 -0.855 1.218 8604
3.910 -0.864 1.217 6909
3.943 -0.872 1.214 9448
3.968 -0.877 1.208 12155
3.971 -0.878 1.197 11274
3.982 -0.880 1.187 11557
4.000 -0.884 1.179 12494
4.018 -0.888 1.171 8292
4.028 -0.890 1.161 7741
4.046 -0.894 1.153 7909
4.229 -0.935 1.186 5226
4.232 -0.935 1.174 5413
4.250 -0.939 1.165 5419
4.260 -0.942 1.154 7434
4.263 -0.942 1.142 6669
4.319 -0.955 1.141 3906
4.329 -0.957 1.130 3649
4.355 -0.963 1.123 4821
4.380 -0.968 1.115 8079
4.383 -0.969 1.102 7177
4.393 -0.971 1.091 4745
4.403 -0.973 1.080 3214
4.565 -1.009 1.100 3871
4.560 -1.008 1.085 3573
4.646 -1.027 1.089 2753
4.656 -1.029 1.077 3789
4.742 -1.048 1.080 4775
4.730 -1.046 1.063 5638
4.733 -1.046 1.049 4088
4.940 -1.092 1.074 3523
4.935 -1.091 1.058 6052
4.915 -1.086 1.039 5765
4.872 -1.077 1.016 4227
5.057 -1.118 1.035 3587
5.060 -1.118 1.020 5113
5.070 -1.121 1.006 6015
5.065 -1.120 0.990 4305
5.220 -1.154 1.000 2733
5.237 -1.158 0.987 3620
5.247 -1.160 0.973 2895
5.479 -1.211 0.993 2749
5.397 -1.193 0.964 2380
5.384 -1.190 0.946 3054
5.547 -1.226 0.954 3591
5.504 -1.217 0.931 4285
5.674 -1.254 0.938 4722
5.669 -1.253 0.920 3868
5.909 -1.306 0.936 4640
5.896 -1.303 0.916 4811
5.905 -1.305 0.900 4268
5.915 -1.308 0.883 4394
5.917 -1.308 0.866 3784
5.950 -1.315 0.852 3291
5.960 -1.317 0.835 3075
6.046 -1.336 0.827 3207
6.494 -1.435 0.859 2612
6.550 -1.448 0.846 1979
6.559 -1.450 0.827 2229
6.592 -1.457 0.811 2601
6.563 -1.451 0.788 2623
6.519 -1.441 0.764 2664
6.521 -1.441 0.745 2246
6.676 -1.476 0.740 2165
7.009 -1.549 0.749 2995
7.026 -1.553 0.729 2999
7.059 -1.560 0.711 2618
7.238 -1.600 0.704 3084
7.224 -1.597 0.681 3761
7.225 -1.597 0.660 3674
7.366 -1.628 0.648 3230
7.606 -1.681 0.642 3242
7.608 -1.682 0.620 3867
7.601 -1.680 0.596 3033
7.587 -1.677 0.573 1713
7.758 -1.715 0.560 1415
8.601 -1.901 0.580 1263
8.617 -1.905 0.555 1254
9.097 -2.011 0.551 1301
9.098 -2.011 0.524 1163
8.953 -1.979 0.492 1135
8.954 -1.979 0.465 994
8.638 -1.909 0.428 766
9.241 -2.043 0.420 804
9.242 -2.043 0.393 948
9.243 -2.043 0.365 953
9.120 -2.016 0.335 722
9.167 -2.026 0.309 670
9.175 -2.028 0.282 482
9.245 -2.043 0.256 282
1.922 -0.433 1.531 4326
1.926 -0.434 1.526 8652
1.930 -0.435 1.520 6799
1.915 -0.431 1.501 5285
1.919 -0.432 1.495 5285
2.036 -0.459 1.572 5744
2.047 -0.461 1.570 8223
2.045 -0.461 1.560 10011
2.049 -0.461 1.554 11953
2.053 -0.462 1.548 11953
2.057 -0.463 1.542 9807
2.073 -0.467 1.545 7955
2.077 -0.468 1.539 8197
2.081 -0.469 1.533 8439
2.105 -0.474 1.540 7541
2.115 -0.476 1.538 7071
2.119 -0.477 1.532 5965
2.123 -0.478 1.526 4859
2.133 -0.481 1.524 5715
2.144 -0.483 1.522 6683
2.161 -0.487 1.524 6821
2.171 -0.489 1.522 7203
2.169 -0.488 1.511 8167
2.173 -0.489 1.505 9894
2.183 -0.492 1.503 9942
2.193 -0.494 1.501 10256
2.210 -0.498 1.503 9322
2.227 -0.502 1.504 7208
2.231 -0.503 1.498 8974
2.242 -0.505 1.495 10641
2.246 -0.506 1.489 11257
2.250 -0.507 1.482 11873
2.247 -0.506 1.472 9743
2.324 -0.523 1.509 7994
2.321 -0.523 1.498 10190
2.325 -0.524 1.492 12386
2.329 -0.525 1.485 11808
2.326 -0.524 1.474 11440
2.330 -0.525 1.467 8217
2.347 -0.529 1.468 4414
2.357 -0.531 1.465 3806
2.381 -0.536 1.470 4831
2.405 -0.542 1.475 6383
2.416 -0.544 1.471 6547
2.433 -0.548 1.472 5915
2.437 -0.549 1.465 4762
2.454 -0.553 1.465 3451
2.499 -0.563 1.480 3603
2.496 -0.562 1.469 4795
2.507 -0.565 1.466 5753
2.538 -0.572 1.473 5777
2.541 -0.572 1.466 5227
2.580 -0.581 1.476 5252
2.583 -0.582 1.469 5987
2.601 -0.586 1.468 9116
2.618 -0.590 1.468 13321
2.622 -0.591 1.460 14021
2.647 -0.596 1.463 9582
2.671 -0.602 1.466 8198
2.682 -0.604 1.461 10579
2.693 -0.607 1.457 10695
2.717 -0.612 1.459 9139
2.742 -0.618 1.462 9141
2.718 -0.612 1.440 10393
2.721 -0.613 1.432 11836
2.711 -0.611 1.417 12572
2.708 -0.610 1.406 12729
2.704 -0.609 1.395 12042
2.715 -0.612 1.390 12298
2.726 -0.614 1.385 11082
2.729 -0.615 1.377 6425
2.782 -0.627 1.392 5294
2.785 -0.627 1.384 5921
2.923 -0.658 1.436 6019
2.934 -0.661 1.431 9334
2.945 -0.663 1.426 12343
2.948 -0.664 1.417 13031
2.952 -0.665 1.408 11977
2.949 -0.664 1.396 10886
2.952 -0.665 1.388 10671
2.963 -0.667 1.382 9807
3.002 -0.676 1.389 11107
3.013 -0.679 1.383 14191
3.031 -0.683 1.380 12293
3.041 -0.685 1.374 12746
3.045 -0.686 1.365 12692
3.034 -0.683 1.350 7981
3.037 -0.684 1.341 5668
3.055 -0.688 1.338 6392
3.066 -0.691 1.332 7140
3.055 -0.688 1.317 7433
3.036 -0.684 1.300 7853
3.040 -0.685 1.291 8902
3.050 -0.687 1.285 8443
3.061 -0.689 1.278 7248
3.071 -0.692 1.272 6680
3.074 -0.692 1.263 5008
3.078 -0.693 1.254 4885
3.175 -0.715 1.280 5001
3.157 -0.711 1.262 6476
3.131 -0.705 1.243 6106
3.119 -0.703 1.228 4662
3.400 -0.766 1.317 6228
3.403 -0.767 1.307 8204
3.421 -0.771 1.302 4711
3.476 -0.783 1.309 3874
3.472 -0.782 1.296 4855
3.482 -0.784 1.289 4757
3.493 -0.787 1.281 3106
3.584 -0.807 1.300 3934
3.566 -0.803 1.282 4507
3.554 -0.801 1.266 3977
3.646 -0.821 1.284 5279
3.664 -0.825 1.278 4575
3.689 -0.831 1.274 4932
3.700 -0.833 1.266 6754
3.710 -0.836 1.257 6599
3.728 -0.840 1.250 5228
3.850 -0.867 1.275 6230
3.853 -0.868 1.264 7752
3.857 -0.869 1.252 10217
3.867 -0.871 1.243 11703
3.870 -0.872 1.232 11062
3.866 -0.871 1.218 9102
3.906 -0.880 1.217 6645
3.939 -0.887 1.214 8492
3.980 -0.896 1.212 12570
3.983 -0.897 1.201 11588
3.986 -0.898 1.189 12145
3.996 -0.900 1.179 12875
4.014 -0.904 1.171 8687
4.024 -0.906 1.161 8017
4.042 -0.911 1.153 8670
4.135 -0.931 1.164 4953
4.146 -0.934 1.153 5096
4.246 -0.956 1.165 5208
4.256 -0.959 1.154 8156
4.259 -0.959 1.142 6840
4.315 -0.972 1.141 4008
4.325 -0.974 1.130 3728
4.351 -0.980 1.123 4950
4.384 -0.987 1.117 8277
4.379 -0.986 1.102 7093
4.389 -0.989 1.091 4285
4.573 -1.030 1.117 3337
4.568 -1.029 1.102 4330
4.564 -1.028 1.087 4046
4.627 -1.042 1.086 3336
4.645 -1.046 1.075 4479
4.655 -1.048 1.063 5000
4.726 -1.064 1.063 5922
4.728 -1.065 1.049 4084
4.898 -1.103 1.067 3382
4.931 -1.111 1.058 6426
4.911 -1.106 1.039 6190
4.875 -1.098 1.018 4314
5.045 -1.136 1.033 3787
5.055 -1.139 1.020 5792
5.065 -1.141 1.006 6941
5.060 -1.140 0.990 4802
5.215 -1.175 1.000 3114
5.233 -1.179 0.987 3992
5.456 -1.229 1.007 3218
5.474 -1.233 0.993 3340
5.392 -1.215 0.964 2830
5.387 -1.213 0.947 3550
5.558 -1.252 0.956 3652
5.667 -1.276 0.955 4222
5.669 -1.277 0.938 4576
5.664 -1.276 0.920 3586
5.896 -1.328 0.935 4585
5.890 -1.327 0.916 4975
5.900 -1.329 0.900 4335
5.910 -1.331 0.883 4401
5.912 -1.332 0.866 3948
5.945 -1.339 0.852 3759
5.947 -1.340 0.834 3563
6.041 -1.361 0.827 3345
6.496 -1.463 0.860 2299
6.505 -1.465 0.842 1945
6.546 -1.474 0.826 2233
6.548 -1.475 0.807 2554
6.550 -1.475 0.788 2730
6.521 -1.469 0.765 2604
6.515 -1.467 0.745 2154
7.001 -1.577 0.770 2258
7.003 -1.577 0.749 3104
7.012 -1.580 0.729 3010
7.052 -1.589 0.711 2266
7.231 -1.629 0.704 2954
7.217 -1.626 0.681 3754
7.219 -1.626 0.660 3687
7.359 -1.658 0.648 3460
7.599 -1.712 0.642 3216
7.601 -1.712 0.620 3856
7.594 -1.711 0.596 3009
7.580 -1.707 0.573 1648
8.036 -1.810 0.575 1156
8.817 -1.986 0.592 1313
8.602 -1.938 0.555 1241
9.105 -2.051 0.552 1158
9.167 -2.065 0.528 1178
9.169 -2.065 0.500 995
8.946 -2.015 0.465 864
8.638 -1.946 0.428 709
9.233 -2.080 0.420 784
9.234 -2.080 0.393 913
9.234 -2.080 0.365 938
9.235 -2.080 0.338 638
9.166 -2.065 0.309 586
9.167 -2.065 0.282 425
9.236 -2.080 0.256 264
1.921 -0.438 1.531 3916
1.925 -0.439 1.526 7832
1.929 -0.440 1.520 6151
1.914 -0.437 1.501 4799
1.918 -0.438 1.495 4799
2.035 -0.464 1.572 6041
2.046 -0.467 1.570 8558
2.043 -0.466 1.560 10363
2.047 -0.467 1.554 12275
2.051 -0.468 1.548 12275
2.055 -0.469 1.542 9890
2.072 -0.473 1.545 7869
2.076 -0.474 1.539 7979
2.074 -0.473 1.528 8106
2.103 -0.480 1.540 6987
2.114 -0.482 1.538 6454
2.118 -0.483 1.532 6002
2.115 -0.483 1.521 5683
2.126 -0.485 1.519 6544
2.136 -0.487 1.517 7702
2.153 -0.491 1.520 6984
2.170 -0.495 1.522 6843
2.167 -0.495 1.511 7850
2.171 -0.495 1.505 9725
2.175 -0.496 1.499 10236
2.192 -0.500 1.501 10988
2.209 -0.504 1.503 9713
2.226 -0.508 1.504 7377
2.237 -0.510 1.502 8642
2.240 -0.511 1.495 9858
2.244 -0.512 1.489 10367
2.248 -0.513 1.482 10877
2.252 -0.514 1.476 9229
2.249 -0.513 1.465 7699
2.319 -0.529 1.498 9271
2.323 -0.530 1.492 11533
2.320 -0.530 1.481 11011
2.324 -0.530 1.474 10658
2.328 -0.531 1.467 7826
2.345 -0.535 1.468 4332
2.349 -0.536 1.461 3713
2.360 -0.538 1.458 4662
2.404 -0.549 1.475 6229
2.421 -0.552 1.475 6507
2.432 -0.555 1.472 6126
2.442 -0.557 1.468 5199
2.453 -0.560 1.465 4542
2.470 -0.564 1.465 4119
2.494 -0.569 1.469 5343
2.505 -0.572 1.466 6092
2.543 -0.580 1.477 6641
2.547 -0.581 1.469 6351
2.578 -0.588 1.476 6427
2.582 -0.589 1.469 7279
2.599 -0.593 1.468 9426
2.617 -0.597 1.468 13240
2.621 -0.598 1.460 13992
2.617 -0.597 1.449 9501
2.676 -0.611 1.469 6924
2.687 -0.613 1.465 8618
2.698 -0.616 1.460 9021
2.716 -0.620 1.459 8437
2.740 -0.625 1.462 8451
2.716 -0.620 1.440 9789
2.720 -0.621 1.432 11307
2.709 -0.618 1.417 12155
2.706 -0.618 1.406 12235
2.703 -0.617 1.395 11388
2.713 -0.619 1.390 11320
2.724 -0.622 1.385 10134
2.727 -0.622 1.377 6044
2.801 -0.639 1.402 4726
2.784 -0.635 1.384 4969
2.921 -0.667 1.436 5122
2.932 -0.669 1.431 8199
2.943 -0.672 1.426 11426
2.954 -0.674 1.420 12140
2.957 -0.675 1.411 10729
2.947 -0.672 1.396 8959
2.950 -0.673 1.388 8830
2.961 -0.676 1.382 9000
3.000 -0.685 1.389 12061
3.011 -0.687 1.383 15075
3.029 -0.691 1.380 12454
3.039 -0.694 1.374 12563
3.043 -0.694 1.365 12120
3.039 -0.694 1.353 7627
3.071 -0.701 1.356 5101
3.075 -0.702 1.347 5664
3.085 -0.704 1.340 5905
3.082 -0.703 1.329 6552
3.099 -0.707 1.325 6707
3.045 -0.695 1.294 6778
3.055 -0.697 1.287 5964
3.102 -0.708 1.295 6343
3.105 -0.709 1.286 5828
3.116 -0.711 1.279 5732
3.126 -0.713 1.273 5493
3.166 -0.722 1.277 5667
3.162 -0.722 1.265 6558
3.143 -0.717 1.248 4783
3.227 -0.736 1.267 4707
3.398 -0.775 1.317 6222
3.401 -0.776 1.307 8407
3.426 -0.782 1.304 5003
3.474 -0.793 1.309 4437
3.470 -0.792 1.296 5117
3.480 -0.794 1.289 4844
3.469 -0.792 1.273 3275
3.597 -0.821 1.304 3359
3.556 -0.811 1.279 3810
3.552 -0.811 1.266 3552
3.644 -0.831 1.284 3942
3.713 -0.847 1.294 3476
3.702 -0.845 1.279 5336
3.698 -0.844 1.266 6844
3.708 -0.846 1.257 5952
3.830 -0.874 1.282 5319
3.833 -0.875 1.271 6517
3.844 -0.877 1.261 7439
3.854 -0.880 1.252 10387
3.865 -0.882 1.243 12080
3.868 -0.883 1.232 10727
3.864 -0.882 1.218 8489
3.904 -0.891 1.217 5957
3.989 -0.910 1.228 8923
3.984 -0.909 1.214 12916
3.980 -0.908 1.201 11012
3.983 -0.909 1.189 12022
3.993 -0.911 1.179 12964
4.019 -0.917 1.173 9102
4.022 -0.918 1.161 7628
4.040 -0.922 1.153 8652
4.058 -0.926 1.145 5056
4.135 -0.944 1.152 5163
4.243 -0.968 1.165 5172
4.254 -0.971 1.154 8651
4.272 -0.975 1.145 7015
4.297 -0.981 1.138 4159
4.315 -0.985 1.129 3730
4.348 -0.992 1.123 4957
4.381 -1.000 1.117 8192
4.376 -0.999 1.102 6653
4.386 -1.001 1.091 3612
4.570 -1.043 1.117 3400
4.565 -1.042 1.102 4456
4.576 -1.044 1.090 4374
4.601 -1.050 1.081 4182
4.642 -1.059 1.075 4951
4.652 -1.062 1.063 5336
4.723 -1.078 1.063 6103
4.725 -1.078 1.049 4247
4.895 -1.117 1.067 4112
4.920 -1.123 1.057 6583
4.908 -1.120 1.039 6409
4.880 -1.114 1.019 4335
5.042 -1.151 1.033 3973
5.052 -1.153 1.020 6297
5.062 -1.155 1.006 7547
5.057 -1.154 0.990 5068
5.212 -1.189 1.000 3443
5.222 -1.192 0.986 4485
5.461 -1.246 1.008 3577
5.471 -1.248 0.993 3835
5.389 -1.230 0.964 3189
5.384 -1.229 0.947 3862
5.562 -1.269 0.957 3705
5.663 -1.292 0.955 4151
5.566 -1.270 0.924 4279
5.660 -1.292 0.920 3259
5.884 -1.343 0.934 4413
5.887 -1.343 0.916 4823
5.896 -1.346 0.900 4184
5.906 -1.348 0.883 4172
5.908 -1.348 0.866 3869
5.941 -1.356 0.852 4046
5.943 -1.356 0.834 3902
6.045 -1.379 0.828 3370
6.438 -1.469 0.854 2222
6.317 -1.442 0.822 2087
6.503 -1.484 0.822 2373
6.505 -1.485 0.803 2899
6.538 -1.492 0.787 2837
6.532 -1.491 0.767 2533
6.518 -1.487 0.746 2010
7.004 -1.598 0.770 2297
6.998 -1.597 0.749 3108
7.008 -1.599 0.729 2941
7.040 -1.607 0.710 1913
7.227 -1.649 0.704 2735
7.213 -1.646 0.681 3551
7.353 -1.678 0.670 3622
7.354 -1.678 0.648 3503
7.595 -1.733 0.642 3072
7.596 -1.733 0.620 3660
7.590 -1.732 0.596 2834
7.575 -1.729 0.573 1536
8.031 -1.833 0.575 1112
8.803 -2.009 0.591 1370
9.121 -2.081 0.580 1325
9.130 -2.083 0.554 1215
9.162 -2.091 0.528 1328
9.163 -2.091 0.500 1129
8.639 -1.971 0.454 747
8.779 -2.003 0.433 677
9.227 -2.106 0.420 756
9.228 -2.106 0.393 886
9.229 -2.106 0.365 925
9.229 -2.106 0.338 622
9.160 -2.090 0.309 541
9.168 -2.092 0.282 400
4.814 -1.099 -0.286 283
4.813 -1.098 -0.300 273
4.811 -1.098 -0.315 264
1.920 -0.442 1.531 3435
1.924 -0.443 1.526 6871
1.928 -0.444 1.520 5398
1.995 -0.459 1.560 4580
2.005 -0.461 1.559 4780
2.034 -0.468 1.572 6386
2.045 -0.470 1.570 8938
2.043 -0.470 1.560 10706
2.047 -0.471 1.554 12533
2.051 -0.472 1.548 12533
2.055 -0.473 1.542 9947
2.071 -0.476 1.545 7798
2.075 -0.477 1.539 7775
2.073 -0.477 1.528 7821
2.102 -0.484 1.540 6448
2.119 -0.488 1.542 5950
2.110 -0.485 1.527 6100
2.114 -0.486 1.521 6540
2.125 -0.489 1.519 7334
2.135 -0.491 1.517 8464
2.146 -0.494 1.515 7031
2.169 -0.499 1.522 6264
2.166 -0.498 1.511 7426
2.170 -0.499 1.505 9385
2.174 -0.500 1.499 10338
2.185 -0.503 1.496 11516
2.208 -0.508 1.503 9922
2.219 -0.510 1.500 7417
2.236 -0.514 1.502 8206
2.246 -0.517 1.500 8996
2.243 -0.516 1.489 9315
2.247 -0.517 1.482 9678
2.251 -0.518 1.476 8665
2.255 -0.519 1.469 7652
2.312 -0.532 1.495 8340
2.322 -0.534 1.492 10511
2.320 -0.534 1.481 10056
2.323 -0.534 1.474 9650
2.327 -0.535 1.467 7334
2.338 -0.538 1.464 4304
2.348 -0.540 1.461 3759
2.352 -0.541 1.455 4576
2.403 -0.553 1.475 6030
2.420 -0.557 1.475 6367
2.431 -0.559 1.472 6467
2.441 -0.562 1.468 5996
2.452 -0.564 1.465 5586
2.428 -0.559 1.443 5107
2.487 -0.572 1.466 6030
2.504 -0.576 1.466 6431
2.549 -0.586 1.480 7488
2.546 -0.586 1.469 7242
2.570 -0.591 1.473 7108
2.581 -0.594 1.469 8028
2.598 -0.598 1.468 9621
2.616 -0.602 1.468 13176
2.620 -0.603 1.460 13975
2.616 -0.602 1.449 9662
2.675 -0.615 1.469 5795
2.686 -0.618 1.465 6820
2.697 -0.620 1.460 7526
2.714 -0.624 1.459 7765
2.718 -0.625 1.451 7812
2.708 -0.623 1.437 9517
2.712 -0.624 1.429 10797
2.708 -0.623 1.417 11450
2.705 -0.622 1.406 11380
2.702 -0.621 1.395 10334
2.712 -0.624 1.390 9902
2.723 -0.626 1.385 8787
2.768 -0.637 1.397 6063
2.800 -0.644 1.402 5002
2.797 -0.643 1.390 5233
2.807 -0.646 1.385 5477
2.931 -0.674 1.431 6584
2.942 -0.677 1.426 10032
2.952 -0.679 1.420 11040
2.956 -0.680 1.411 9635
2.953 -0.679 1.400 7750
2.949 -0.678 1.388 7872
2.953 -0.679 1.379 8971
2.999 -0.690 1.389 12923
3.010 -0.692 1.383 15434
3.020 -0.695 1.377 12336
3.038 -0.699 1.374 12080
3.042 -0.700 1.365 11030
3.045 -0.700 1.356 7497
3.070 -0.706 1.356 5513
3.081 -0.709 1.350 5254
3.084 -0.709 1.340 5216
3.088 -0.710 1.331 6965
3.098 -0.713 1.325 8568
3.109 -0.715 1.319 7350
3.119 -0.718 1.312 6820
3.108 -0.715 1.298 7114
3.119 -0.717 1.291 6695
3.136 -0.721 1.287 8142
3.132 -0.721 1.276 7262
3.157 -0.726 1.274 6228
3.161 -0.727 1.265 6349
3.317 -0.763 1.311 4414
3.225 -0.742 1.267 4698
3.396 -0.781 1.317 5869
3.400 -0.782 1.307 8079
3.469 -0.798 1.319 5081
3.465 -0.797 1.307 4971
3.461 -0.796 1.294 5371
3.479 -0.800 1.289 5000
3.460 -0.796 1.271 3968
3.471 -0.798 1.263 3010
3.540 -0.814 1.275 3393
3.543 -0.815 1.264 3187
3.664 -0.843 1.291 2851
3.712 -0.854 1.294 4595
3.708 -0.853 1.281 6201
3.703 -0.852 1.268 6691
3.707 -0.853 1.257 5249
3.791 -0.872 1.271 6164
3.824 -0.880 1.268 6811
3.842 -0.884 1.261 6455
3.853 -0.886 1.252 9626
3.863 -0.889 1.243 11508
3.866 -0.889 1.232 9414
3.855 -0.887 1.216 7108
3.932 -0.905 1.225 5361
3.995 -0.919 1.230 9951
3.990 -0.918 1.216 13174
3.978 -0.915 1.201 9905
3.981 -0.916 1.189 11075
3.999 -0.920 1.181 12554
4.025 -0.926 1.175 9369
4.028 -0.927 1.163 6690
4.038 -0.929 1.153 7881
4.056 -0.933 1.145 4967
4.134 -0.951 1.152 4787
4.249 -0.977 1.167 5285
4.252 -0.978 1.154 8780
4.270 -0.982 1.145 7164
4.288 -0.986 1.136 4146
4.306 -0.990 1.127 3499
4.346 -1.000 1.123 4848
4.379 -1.007 1.117 7729
4.374 -1.006 1.102 5893
4.385 -1.009 1.091 2880
4.561 -1.049 1.115 3287
4.571 -1.052 1.104 4172
4.574 -1.052 1.090 4218
4.607 -1.060 1.083 4618
4.640 -1.067 1.075 5206
4.650 -1.070 1.063 5366
4.721 -1.086 1.063 5898
4.716 -1.085 1.047 4298
4.893 -1.126 1.067 4788
4.911 -1.130 1.055 6350
4.906 -1.128 1.039 6219
4.885 -1.124 1.020 4359
5.032 -1.158 1.032 4131
5.050 -1.162 1.020 6625
5.060 -1.164 1.006 7797
5.055 -1.163 0.990 5041
5.210 -1.198 1.000 3710
5.220 -1.201 0.986 4921
5.458 -1.256 1.008 3822
5.468 -1.258 0.993 4158
5.532 -1.273 0.987 3416
5.550 -1.277 0.973 4034
5.567 -1.281 0.958 3715
5.661 -1.302 0.955 3966
5.541 -1.275 0.921 4297
5.536 -1.273 0.903 3153
5.874 -1.351 0.933 4218
5.884 -1.354 0.916 4434
5.894 -1.356 0.900 3776
5.904 -1.358 0.883 3665
5.906 -1.359 0.866 3532
5.946 -1.368 0.853 4148
5.941 -1.367 0.834 4026
6.042 -1.390 0.828 3210
6.428 -1.479 0.853 2659
6.315 -1.453 0.822 2176
6.508 -1.497 0.823 2643
6.510 -1.498 0.804 3329
6.528 -1.502 0.786 3030
6.529 -1.502 0.767 2451
6.885 -1.584 0.780 1964
7.002 -1.611 0.770 2211
6.996 -1.609 0.749 2941
7.005 -1.611 0.729 2784
6.999 -1.610 0.707 1850
7.216 -1.660 0.703 2506
7.218 -1.660 0.682 3250
7.350 -1.691 0.670 3590
7.351 -1.691 0.648 3443
7.591 -1.746 0.642 2723
7.593 -1.747 0.620 3227
7.587 -1.745 0.596 2463
7.904 -1.818 0.592 1634
7.913 -1.820 0.569 1195
8.792 -2.023 0.591 1429
9.125 -2.099 0.581 1439
9.141 -2.103 0.554 1307
9.158 -2.107 0.528 1398
9.159 -2.107 0.500 1214
8.790 -2.022 0.460 695
8.783 -2.020 0.433 792
9.223 -2.122 0.420 713
9.224 -2.122 0.393 864
9.225 -2.122 0.365 918
9.210 -2.119 0.338 634
9.164 -2.108 0.309 476
9.165 -2.108 0.282 355
4.458 -1.026 -0.254 294
4.457 -1.025 -0.268 279
4.456 -1.025 -0.281 264
4.455 -1.025 -0.294 264
1.919 -0.448 1.531 3035
1.923 -0.449 1.526 6071
1.927 -0.450 1.520 4779
2.000 -0.467 1.565 4599
2.004 -0.467 1.559 4888
2.027 -0.473 1.567 6602
2.043 -0.477 1.570 9135
2.041 -0.476 1.560 10870
2.045 -0.477 1.554 12610
2.049 -0.478 1.548 12610
2.059 -0.480 1.546 9965
2.070 -0.483 1.545 7776
2.067 -0.482 1.534 7641
2.065 -0.482 1.524 7671
2.101 -0.490 1.540 5951
2.124 -0.496 1.547 5501
2.109 -0.492 1.527 6151
2.106 -0.491 1.517 7197
2.117 -0.494 1.515 7987
2.127 -0.496 1.513 9020
2.138 -0.499 1.511 6994
2.154 -0.503 1.513 5526
2.158 -0.504 1.507 6994
2.169 -0.506 1.505 8921
2.173 -0.507 1.499 10280
2.183 -0.509 1.496 11867
2.200 -0.513 1.498 10126
2.217 -0.517 1.500 7394
2.234 -0.521 1.502 7666
2.244 -0.524 1.500 8310
2.248 -0.525 1.493 8254
2.246 -0.524 1.482 8213
2.249 -0.525 1.476 7967
2.253 -0.526 1.469 7720
2.304 -0.537 1.491 7612
2.314 -0.540 1.488 9453
2.318 -0.541 1.481 8974
2.322 -0.542 1.474 8495
2.325 -0.543 1.467 6811
2.336 -0.545 1.464 4339
2.346 -0.547 1.461 3846
2.350 -0.548 1.455 4481
2.408 -0.562 1.478 5796
2.418 -0.564 1.475 6090
2.429 -0.567 1.472 6771
2.439 -0.569 1.468 6842
2.450 -0.572 1.465 6560
2.427 -0.566 1.443 6309
2.478 -0.578 1.462 6856
2.509 -0.585 1.469 7005
2.547 -0.594 1.480 8754
2.544 -0.593 1.469 8614
2.568 -0.599 1.473 8525
2.579 -0.602 1.469 9554
2.596 -0.606 1.468 9937
2.614 -0.610 1.468 12785
2.618 -0.611 1.460 13506
2.608 -0.608 1.445 9845
2.584 -0.603 1.424 6456
2.684 -0.626 1.465 5430
2.695 -0.629 1.460 6180
2.706 -0.631 1.456 6948
2.668 -0.622 1.427 7836
2.699 -0.630 1.433 9448
2.710 -0.632 1.429 10373
2.706 -0.631 1.417 10461
2.703 -0.631 1.406 10172
2.700 -0.630 1.395 8986
2.710 -0.632 1.390 8426
2.721 -0.635 1.385 7590
2.773 -0.647 1.400 6931
2.798 -0.653 1.402 5709
2.802 -0.654 1.394 6348
2.812 -0.656 1.389 7079
2.837 -0.662 1.390 5734
2.947 -0.687 1.429 8389
2.957 -0.690 1.423 9700
2.954 -0.689 1.411 8488
2.950 -0.688 1.400 6959
2.947 -0.688 1.388 7893
2.950 -0.688 1.379 9828
2.997 -0.699 1.389 13523
3.007 -0.702 1.383 15165
3.018 -0.704 1.377 11723
3.036 -0.708 1.374 11251
3.039 -0.709 1.365 9488
3.043 -0.710 1.356 7223
3.061 -0.714 1.353 5980
3.078 -0.718 1.350 4796
3.082 -0.719 1.340 4883
3.093 -0.721 1.334 8136
3.096 -0.722 1.325 10753
3.114 -0.726 1.322 9318
3.124 -0.729 1.315 8604
3.113 -0.726 1.300 8622
3.124 -0.729 1.294 8747
3.134 -0.731 1.287 10590
3.137 -0.732 1.278 9090
3.155 -0.736 1.274 6399
3.158 -0.737 1.265 5704
3.314 -0.773 1.311 5365
3.318 -0.774 1.301 5001
3.394 -0.792 1.317 5334
3.405 -0.794 1.309 7324
3.466 -0.809 1.319 5334
3.462 -0.808 1.307 5385
3.458 -0.807 1.294 5626
3.469 -0.809 1.286 5225
3.465 -0.808 1.273 4906
3.483 -0.813 1.268 4009
3.523 -0.822 1.270 3527
3.533 -0.824 1.262 2889
3.691 -0.861 1.301 3869
3.709 -0.865 1.294 5776
3.712 -0.866 1.283 7149
3.708 -0.865 1.270 6692
3.704 -0.864 1.257 4853
3.788 -0.884 1.271 6997
3.806 -0.888 1.264 7049
3.832 -0.894 1.259 5110
3.857 -0.900 1.254 8146
3.860 -0.901 1.243 9963
3.864 -0.901 1.232 7341
3.882 -0.906 1.224 5382
3.937 -0.918 1.227 5293
3.992 -0.931 1.230 10541
3.987 -0.930 1.216 12989
3.983 -0.929 1.203 8653
3.979 -0.928 1.189 9761
4.004 -0.934 1.183 12317
4.022 -0.938 1.175 9643
3.038 -0.709 0.909 5494
4.035 -0.941 1.153 6675
4.053 -0.946 1.145 4687
4.131 -0.964 1.152 4058
4.246 -0.991 1.167 5434
4.249 -0.991 1.154 8516
4.274 -0.997 1.147 6999
4.285 -1.000 1.136 3923
4.295 -1.002 1.125 3207
4.381 -1.022 1.131 4884
4.376 -1.021 1.117 6801
4.371 -1.020 1.102 4869
4.517 -1.054 1.121 2850
4.550 -1.062 1.114 3099
4.560 -1.064 1.102 3477
4.593 -1.072 1.095 3641
4.619 -1.078 1.086 4875
4.636 -1.082 1.075 5317
4.647 -1.084 1.063 5103
4.717 -1.101 1.063 5564
4.894 -1.142 1.083 4574
4.889 -1.141 1.067 5362
4.907 -1.145 1.055 5918
4.895 -1.142 1.038 5777
4.882 -1.139 1.020 4288
5.029 -1.173 1.032 4322
5.039 -1.176 1.018 6861
5.056 -1.180 1.006 7659
5.059 -1.180 0.991 4744
5.213 -1.216 1.001 3848
5.216 -1.217 0.986 5177
5.447 -1.271 1.007 3886
5.464 -1.275 0.993 4249
5.520 -1.288 0.985 3866
5.538 -1.292 0.971 4408
5.555 -1.296 0.957 3592
5.543 -1.293 0.938 3777
5.530 -1.290 0.920 4410
5.532 -1.291 0.903 3113
5.870 -1.370 0.933 4007
5.872 -1.370 0.915 3929
5.890 -1.374 0.900 3310
5.892 -1.375 0.882 3130
6.062 -1.414 0.886 3124
5.942 -1.386 0.853 4134
5.936 -1.385 0.834 4060
6.421 -1.498 0.872 3049
6.423 -1.499 0.853 2992
6.433 -1.501 0.835 2185
6.511 -1.519 0.824 2877
6.513 -1.520 0.805 3682
6.515 -1.520 0.785 3240
6.517 -1.520 0.766 2364
6.872 -1.603 0.780 2158
6.789 -1.584 0.751 2234
6.998 -1.633 0.750 2705
7.000 -1.633 0.729 2608
6.994 -1.632 0.707 1811
7.211 -1.682 0.703 2218
7.212 -1.683 0.682 2816
7.345 -1.714 0.670 3527
7.346 -1.714 0.648 3336
7.586 -1.770 0.642 2309
7.587 -1.770 0.620 2706
7.581 -1.769 0.596 2031
7.898 -1.843 0.592 1775
7.907 -1.845 0.569 1269
8.778 -2.048 0.590 1516
9.118 -2.127 0.581 1512
9.127 -2.129 0.554 1381
9.151 -2.135 0.528 1447
9.152 -2.135 0.500 1290
8.784 -2.049 0.460 799
8.777 -2.048 0.433 883
8.793 -2.051 0.407 808
9.218 -2.150 0.393 846
9.211 -2.149 0.365 889
9.196 -2.145 0.337 646
9.165 -2.138 0.310 472
9.158 -2.137 0.282 334
4.363 -1.018 -0.246 267
4.354 -1.016 -0.258 262
4.353 -1.016 -0.271 258
4.352 -1.015 -0.284 258
1.918 -0.451 1.531 2747
1.922 -0.452 1.526 5494
1.926 -0.453 1.520 4259
1.999 -0.470 1.565 4644
2.009 -0.472 1.564 5004
2.026 -0.476 1.567 6750
2.036 -0.479 1.566 9226
2.040 -0.480 1.560 10865
2.044 -0.481 1.554 12504
2.048 -0.482 1.548 12504
2.059 -0.484 1.546 9914
2.069 -0.486 1.545 7758
2.067 -0.486 1.534 7632
2.064 -0.485 1.524 7725
2.062 -0.485 1.513 5738
2.123 -0.499 1.547 5019
2.108 -0.496 1.527 6131
2.106 -0.495 1.517 7575
2.116 -0.498 1.515 8365
2.120 -0.498 1.509 9277
2.137 -0.502 1.511 6919
2.147 -0.505 1.509 5033
2.151 -0.506 1.503 6524
2.161 -0.508 1.501 8472
2.165 -0.509 1.494 10041
2.182 -0.513 1.496 11946
2.186 -0.514 1.490 10228
2.183 -0.513 1.480 7376
2.240 -0.527 1.506 7213
2.250 -0.529 1.504 7863
2.247 -0.528 1.493 7340
2.245 -0.528 1.482 6830
2.255 -0.530 1.480 7392
2.259 -0.531 1.473 7963
2.296 -0.540 1.487 7400
2.313 -0.544 1.488 8587
2.317 -0.545 1.481 8010
2.321 -0.546 1.474 7432
2.318 -0.545 1.463 6451
2.322 -0.546 1.457 4527
2.345 -0.552 1.461 3976
2.349 -0.552 1.455 4399
2.407 -0.566 1.478 5653
2.417 -0.568 1.475 5892
2.428 -0.571 1.472 7077
2.432 -0.572 1.465 7738
2.449 -0.576 1.465 7420
2.419 -0.569 1.439 7224
2.470 -0.581 1.458 7580
2.535 -0.596 1.484 7487
2.546 -0.599 1.480 9641
2.543 -0.598 1.469 9792
2.560 -0.602 1.469 9740
2.571 -0.605 1.465 10654
2.588 -0.609 1.465 10109
2.613 -0.614 1.468 12412
2.617 -0.615 1.460 13307
2.600 -0.611 1.442 10664
2.583 -0.607 1.424 7515
2.586 -0.608 1.416 5588
2.673 -0.629 1.450 5276
2.670 -0.628 1.439 6402
2.667 -0.627 1.427 8663
2.677 -0.629 1.423 9704
2.709 -0.637 1.429 9868
2.705 -0.636 1.417 9276
2.702 -0.635 1.406 8770
2.706 -0.636 1.398 7594
2.772 -0.652 1.420 7179
2.776 -0.653 1.412 7598
2.772 -0.652 1.400 7729
2.797 -0.658 1.402 6313
2.801 -0.659 1.394 7490
2.811 -0.661 1.389 8635
2.836 -0.667 1.390 6534
2.953 -0.694 1.432 6833
2.956 -0.695 1.423 8364
2.960 -0.696 1.414 7356
2.949 -0.693 1.400 6312
2.946 -0.693 1.388 8361
2.949 -0.693 1.379 11014
2.996 -0.704 1.389 13543
3.006 -0.707 1.383 14201
3.017 -0.709 1.377 10675
3.035 -0.714 1.374 10337
3.045 -0.716 1.368 8175
3.049 -0.717 1.359 6913
3.052 -0.718 1.350 6798
3.070 -0.722 1.347 4697
3.081 -0.724 1.340 4969
3.091 -0.727 1.334 9669
3.095 -0.728 1.325 13005
3.112 -0.732 1.322 11350
3.123 -0.734 1.315 10470
3.112 -0.732 1.300 10347
3.122 -0.734 1.294 10948
3.133 -0.737 1.287 12691
3.136 -0.737 1.278 10430
3.147 -0.740 1.272 6374
3.310 -0.778 1.320 6424
3.313 -0.779 1.311 6348
3.316 -0.780 1.301 5906
3.393 -0.798 1.317 4707
3.403 -0.800 1.309 6305
3.472 -0.816 1.322 5329
3.461 -0.814 1.307 5711
3.457 -0.813 1.294 5900
3.460 -0.814 1.284 5409
3.485 -0.820 1.281 5728
3.489 -0.820 1.271 5425
3.507 -0.825 1.265 4325
3.517 -0.827 1.257 2869
3.682 -0.866 1.298 4829
3.700 -0.870 1.292 6490
3.711 -0.873 1.283 7718
3.707 -0.872 1.270 6942
3.702 -0.871 1.257 4885
3.787 -0.890 1.271 6937
3.798 -0.893 1.262 6832
3.823 -0.899 1.257 4406
3.841 -0.903 1.250 6447
3.859 -0.907 1.243 7869
3.862 -0.908 1.232 5205
3.924 -0.923 1.237 5888
3.942 -0.927 1.230 5530
3.990 -0.938 1.230 10372
3.993 -0.939 1.218 12795
3.981 -0.936 1.203 7902
3.977 -0.935 1.189 8609
4.010 -0.943 1.185 12371
4.028 -0.947 1.177 9868
3.051 -0.718 0.913 6747
3.061 -0.720 0.905 5702
4.051 -0.953 1.145 4231
3.073 -0.723 0.889 3788
4.244 -0.998 1.167 5721
4.255 -1.000 1.156 7903
4.273 -1.005 1.147 6496
4.283 -1.007 1.136 3519
4.376 -1.029 1.144 3470
4.379 -1.030 1.131 4902
4.382 -1.030 1.119 5370
4.377 -1.029 1.104 3739
4.515 -1.062 1.121 3069
4.511 -1.061 1.106 3185
4.468 -1.051 1.083 2683
4.629 -1.089 1.103 3574
4.624 -1.087 1.087 4941
4.635 -1.090 1.075 5195
4.652 -1.094 1.065 4831
4.708 -1.107 1.061 5180
4.907 -1.154 1.086 5337
4.895 -1.151 1.068 5720
4.905 -1.153 1.055 5739
4.893 -1.150 1.038 5424
4.880 -1.147 1.020 4100
5.027 -1.182 1.032 4625
5.037 -1.184 1.018 7048
5.054 -1.188 1.006 7281
5.064 -1.191 0.992 4352
5.211 -1.225 1.001 3854
5.214 -1.226 0.986 5242
5.445 -1.280 1.007 3873
5.462 -1.284 0.993 4131
5.518 -1.298 0.985 4120
5.528 -1.300 0.970 4690
5.546 -1.304 0.956 3500
5.533 -1.301 0.937 3659
5.527 -1.300 0.920 4280
5.529 -1.300 0.903 2904
5.860 -1.378 0.932 3746
5.870 -1.380 0.915 3406
6.040 -1.420 0.920 2870
6.050 -1.423 0.903 3338
6.052 -1.423 0.885 3581
5.940 -1.397 0.853 3955
5.942 -1.397 0.835 3971
6.418 -1.509 0.872 3214
6.420 -1.510 0.853 3080
6.430 -1.512 0.835 2276
6.516 -1.532 0.825 3123
6.511 -1.531 0.805 3964
6.513 -1.531 0.785 3361
6.514 -1.532 0.766 2224
6.869 -1.615 0.780 2310
6.809 -1.601 0.754 2252
6.819 -1.603 0.734 2672
6.821 -1.604 0.714 2566
6.876 -1.617 0.698 1827
7.200 -1.693 0.703 1946
7.202 -1.693 0.681 2367
7.342 -1.726 0.670 3318
7.343 -1.727 0.648 3093
7.345 -1.727 0.626 2060
7.584 -1.783 0.620 2136
8.286 -1.948 0.639 1718
7.895 -1.856 0.592 1873
7.904 -1.858 0.569 1329
8.767 -2.061 0.590 1630
8.776 -2.064 0.564 1557
9.123 -2.145 0.554 1363
9.148 -2.151 0.528 1402
9.149 -2.151 0.500 1288
8.788 -2.066 0.460 904
8.781 -2.065 0.433 974
8.789 -2.067 0.407 881
8.798 -2.069 0.381 834
9.199 -2.163 0.365 873
9.192 -2.161 0.337 648
9.162 -2.154 0.310 475
9.154 -2.153 0.282 330
4.530 -1.065 -0.261 281
4.529 -1.065 -0.275 275
4.528 -1.065 -0.288 269
4.526 -1.064 -0.302 269
1.917 -0.457 1.531 2486
1.921 -0.458 1.526 4972
2.000 -0.477 1.575 4187
2.004 -0.478 1.570 4722
2.008 -0.479 1.564 5100
2.024 -0.483 1.567 6833
2.035 -0.485 1.566 9178
2.039 -0.486 1.560 10707
2.043 -0.487 1.554 12236
2.047 -0.488 1.548 12236
2.057 -0.491 1.546 9767
2.067 -0.493 1.545 7709
2.065 -0.493 1.534 7614
2.056 -0.490 1.519 7820
2.060 -0.491 1.513 6165
2.058 -0.491 1.503 4655
2.100 -0.501 1.523 5936
2.104 -0.502 1.517 7476
2.114 -0.504 1.515 8342
2.118 -0.505 1.509 9339
2.122 -0.506 1.503 6903
2.139 -0.510 1.505 4769
2.149 -0.513 1.503 6170
2.160 -0.515 1.501 7912
2.164 -0.516 1.494 9753
2.174 -0.519 1.492 11891
2.184 -0.521 1.490 10481
2.182 -0.520 1.480 8151
2.225 -0.531 1.498 7017
2.242 -0.535 1.500 7741
2.252 -0.537 1.497 6676
2.236 -0.533 1.478 5747
2.267 -0.541 1.488 7040
2.270 -0.542 1.481 8416
2.294 -0.547 1.487 7549
2.311 -0.551 1.488 7898
2.308 -0.551 1.477 7194
2.312 -0.552 1.470 6590
2.309 -0.551 1.460 6205
2.313 -0.552 1.453 4859
2.337 -0.557 1.458 4188
2.347 -0.560 1.455 4341
2.398 -0.572 1.475 5621
2.416 -0.576 1.475 5800
2.426 -0.579 1.472 7443
2.430 -0.580 1.465 8748
2.413 -0.576 1.446 8300
2.417 -0.576 1.439 8193
2.468 -0.589 1.458 8061
2.506 -0.598 1.469 7794
2.544 -0.607 1.480 10077
2.541 -0.606 1.469 10377
2.558 -0.610 1.469 10473
2.569 -0.613 1.465 11421
2.580 -0.615 1.461 10503
2.611 -0.623 1.468 12007
2.615 -0.624 1.460 12681
2.598 -0.620 1.442 10359
2.601 -0.620 1.434 7336
2.633 -0.628 1.440 6551
2.636 -0.629 1.433 6397
2.661 -0.635 1.435 7128
2.664 -0.636 1.427 9441
2.668 -0.636 1.420 10466
2.700 -0.644 1.425 9347
2.717 -0.648 1.424 8012
2.707 -0.646 1.409 7406
2.759 -0.658 1.425 7371
2.763 -0.659 1.417 7053
2.774 -0.662 1.412 8165
2.777 -0.662 1.404 8428
2.795 -0.667 1.402 6858
2.798 -0.667 1.394 8430
2.809 -0.670 1.389 9796
2.834 -0.676 1.390 7139
2.880 -0.687 1.400 5651
2.954 -0.705 1.423 6925
2.958 -0.705 1.414 6134
2.983 -0.711 1.415 5845
2.944 -0.702 1.388 8825
2.954 -0.705 1.382 12002
2.993 -0.714 1.389 13076
3.004 -0.716 1.383 12725
3.015 -0.719 1.377 9320
3.040 -0.725 1.377 9707
3.050 -0.728 1.371 7627
3.046 -0.727 1.359 7362
3.050 -0.727 1.350 8379
3.075 -0.733 1.350 5265
3.085 -0.736 1.343 5335
3.089 -0.737 1.334 11099
3.092 -0.738 1.325 14836
3.110 -0.742 1.322 12959
3.121 -0.744 1.315 11865
3.109 -0.742 1.300 11564
3.120 -0.744 1.294 12580
3.131 -0.747 1.287 13697
3.134 -0.747 1.278 10663
3.304 -0.788 1.330 6006
3.307 -0.789 1.320 6939
3.311 -0.790 1.311 7112
3.314 -0.790 1.301 6769
3.317 -0.791 1.291 5160
3.401 -0.811 1.309 5065
3.470 -0.828 1.322 5065
3.458 -0.825 1.307 5809
3.462 -0.826 1.296 6294
3.465 -0.826 1.286 5830
3.490 -0.832 1.283 7022
3.493 -0.833 1.273 7213
3.504 -0.836 1.265 5494
3.507 -0.836 1.255 3176
3.679 -0.878 1.298 5437
3.697 -0.882 1.292 6840
3.708 -0.884 1.283 7782
3.711 -0.885 1.272 7081
3.700 -0.882 1.257 5058
3.777 -0.901 1.268 6406
3.780 -0.902 1.257 6379
3.820 -0.911 1.257 4371
3.831 -0.914 1.248 5633
3.849 -0.918 1.241 5795
3.896 -0.929 1.242 4430
3.922 -0.935 1.237 6569
3.939 -0.940 1.230 5808
3.995 -0.953 1.232 9912
3.990 -0.952 1.218 12683
4.008 -0.956 1.211 8232
4.011 -0.957 1.199 8105
4.014 -0.957 1.187 12447
4.032 -0.962 1.179 10520
3.057 -0.729 0.914 6915
3.074 -0.733 0.909 6969
3.068 -0.732 0.898 5012
4.246 -1.013 1.181 5288
4.241 -1.012 1.167 6152
4.252 -1.014 1.156 7174
4.277 -1.020 1.149 6044
4.325 -1.032 1.147 3843
4.358 -1.039 1.141 4995
4.376 -1.044 1.131 4841
4.386 -1.046 1.120 3800
4.396 -1.049 1.109 2703
4.512 -1.076 1.121 3248
4.500 -1.073 1.104 3254
4.465 -1.065 1.083 2907
4.633 -1.105 1.104 3678
4.628 -1.104 1.089 4818
4.631 -1.105 1.075 4902
4.664 -1.112 1.068 4715
4.704 -1.122 1.061 4952
4.911 -1.171 1.087 6055
4.914 -1.172 1.073 6063
4.901 -1.169 1.055 5551
4.896 -1.168 1.039 4943
4.876 -1.163 1.020 3878
5.030 -1.200 1.033 4933
5.033 -1.200 1.018 7078
5.051 -1.205 1.006 6661
5.068 -1.209 0.994 3997
5.215 -1.244 1.003 3671
5.210 -1.243 0.986 4990
5.433 -1.296 1.006 3791
5.451 -1.300 0.992 3902
5.521 -1.317 0.987 4204
5.524 -1.318 0.970 4844
5.534 -1.320 0.955 3598
5.650 -1.348 0.955 3618
5.515 -1.316 0.919 4010
5.525 -1.318 0.903 2600
5.848 -1.395 0.931 3478
5.866 -1.399 0.915 2871
6.043 -1.441 0.921 2979
6.046 -1.442 0.903 3584
6.048 -1.442 0.885 3789
5.935 -1.416 0.853 3604
5.937 -1.416 0.835 3687
6.414 -1.530 0.872 3210
6.416 -1.530 0.853 3002
6.425 -1.533 0.835 2270
6.519 -1.555 0.826 3382
6.513 -1.554 0.805 4155
6.515 -1.554 0.786 3401
6.502 -1.551 0.765 2023
6.864 -1.637 0.780 2361
6.812 -1.625 0.754 2305
6.814 -1.625 0.734 2723
6.823 -1.627 0.714 2599
6.871 -1.639 0.698 1951
7.602 -1.813 0.735 2065
7.335 -1.749 0.692 2125
7.328 -1.748 0.669 3030
7.338 -1.750 0.648 2759
7.339 -1.750 0.626 1762
8.278 -1.974 0.664 1536
8.279 -1.975 0.639 1690
7.889 -1.882 0.592 1854
7.898 -1.884 0.569 1323
8.760 -2.089 0.590 1692
8.769 -2.092 0.564 1600
8.778 -2.094 0.538 1290
9.141 -2.180 0.528 1263
9.142 -2.180 0.500 1216
8.781 -2.094 0.460 946
8.774 -2.093 0.433 990
8.783 -2.095 0.407 900
8.791 -2.097 0.381 833
9.184 -2.191 0.365 828
9.177 -2.189 0.337 617
9.155 -2.184 0.310 442
9.148 -2.182 0.282 294
4.795 -1.144 -0.285 274
4.794 -1.143 -0.300 263
4.793 -1.143 -0.314 253
1.916 -0.460 1.531 2277
1.920 -0.461 1.526 4555
1.999 -0.480 1.575 4335
2.003 -0.481 1.570 4775
2.013 -0.484 1.568 5171
2.023 -0.486 1.567 6906
2.034 -0.489 1.566 9042
2.038 -0.490 1.560 10420
2.042 -0.491 1.554 11797
2.046 -0.492 1.548 11797
2.050 -0.492 1.542 9560
2.067 -0.497 1.545 7646
2.058 -0.494 1.530 7589
2.055 -0.494 1.519 7965
2.059 -0.495 1.513 6610
2.057 -0.494 1.503 5326
2.099 -0.504 1.523 5547
2.103 -0.505 1.517 6877
2.107 -0.506 1.511 8016
2.117 -0.509 1.509 9163
2.115 -0.508 1.498 7181
2.119 -0.509 1.492 5207
2.142 -0.515 1.499 6045
2.152 -0.517 1.497 7328
2.163 -0.520 1.494 9326
2.173 -0.522 1.492 11692
2.183 -0.525 1.490 10819
2.181 -0.524 1.480 9098
2.211 -0.531 1.490 7659
2.234 -0.537 1.495 8066
2.232 -0.536 1.485 6604
2.262 -0.543 1.494 5348
2.272 -0.546 1.492 7148
2.276 -0.547 1.485 8973
2.287 -0.549 1.483 7827
2.310 -0.555 1.488 7427
2.308 -0.554 1.477 6621
2.305 -0.554 1.466 5945
2.308 -0.555 1.460 6054
2.312 -0.556 1.453 5189
2.336 -0.561 1.458 4522
2.400 -0.577 1.485 4728
2.397 -0.576 1.475 5870
2.415 -0.580 1.475 5959
2.418 -0.581 1.468 7858
2.429 -0.584 1.465 9589
2.412 -0.580 1.446 8973
2.416 -0.580 1.439 8599
2.467 -0.593 1.458 8335
2.532 -0.608 1.484 8302
2.543 -0.611 1.480 10810
2.540 -0.610 1.469 11163
2.557 -0.614 1.469 11651
2.568 -0.617 1.465 12981
2.579 -0.620 1.461 11829
2.603 -0.625 1.464 11769
2.614 -0.628 1.460 12037
2.604 -0.626 1.445 10188
2.614 -0.628 1.441 7921
2.639 -0.634 1.444 8462
2.635 -0.633 1.433 7906
2.646 -0.636 1.428 7785
2.663 -0.640 1.427 10036
2.667 -0.641 1.420 11133
2.692 -0.647 1.422 9010
2.723 -0.654 1.427 7092
2.741 -0.658 1.426 6463
2.751 -0.661 1.421 7259
2.762 -0.664 1.417 6904
2.773 -0.666 1.412 8476
2.776 -0.667 1.404 8961
2.780 -0.668 1.395 7410
2.797 -0.672 1.394 9206
2.808 -0.675 1.389 10680
2.833 -0.681 1.390 7402
2.886 -0.693 1.404 5986
2.960 -0.711 1.426 5409
2.872 -0.690 1.377 4820
2.910 -0.699 1.384 5563
2.942 -0.707 1.388 9266
2.953 -0.709 1.382 12539
2.992 -0.719 1.389 12216
2.996 -0.720 1.380 10904
3.028 -0.727 1.383 7927
3.045 -0.732 1.380 9393
3.056 -0.734 1.374 8194
3.052 -0.733 1.362 9007
3.056 -0.734 1.353 10877
3.074 -0.738 1.350 7295
3.077 -0.739 1.340 6317
3.081 -0.740 1.331 12056
3.091 -0.743 1.325 15884
3.109 -0.747 1.322 14029
3.119 -0.749 1.315 12845
3.115 -0.749 1.303 12496
3.119 -0.749 1.294 13708
3.129 -0.752 1.287 13744
3.133 -0.753 1.278 10106
3.303 -0.793 1.330 6116
3.306 -0.794 1.320 7080
3.309 -0.795 1.311 7712
3.313 -0.796 1.301 7537
3.323 -0.798 1.294 5588
3.392 -0.815 1.307 3947
3.468 -0.833 1.322 4620
3.457 -0.831 1.307 5757
3.460 -0.831 1.296 6675
3.478 -0.836 1.291 6168
3.489 -0.838 1.283 8043
3.492 -0.839 1.273 8825
3.503 -0.841 1.265 6617
3.506 -0.842 1.255 3670
3.678 -0.884 1.298 5625
3.689 -0.886 1.290 6757
3.707 -0.891 1.283 7318
3.710 -0.891 1.272 6766
3.706 -0.890 1.259 4957
3.760 -0.903 1.264 5423
3.771 -0.906 1.255 5515
3.819 -0.917 1.257 4282
3.814 -0.916 1.244 5353
3.884 -0.933 1.252 4374
3.909 -0.939 1.246 5337
3.920 -0.942 1.237 7028
3.938 -0.946 1.230 5739
4.008 -0.963 1.236 9876
3.996 -0.960 1.220 12441
4.007 -0.963 1.211 9541
4.002 -0.962 1.197 8488
4.013 -0.964 1.187 11917
4.038 -0.970 1.181 11811
3.070 -0.738 0.918 6536
3.073 -0.738 0.909 6604
4.241 -1.019 1.194 5905
4.237 -1.018 1.179 7139
4.240 -1.019 1.167 6623
4.265 -1.025 1.160 7002
4.283 -1.029 1.151 6637
4.323 -1.039 1.147 6035
4.333 -1.041 1.136 7531
4.359 -1.047 1.128 5035
4.414 -1.061 1.127 3515
4.425 -1.063 1.116 2802
4.510 -1.084 1.121 3348
4.468 -1.073 1.098 3177
4.470 -1.074 1.084 2909
4.639 -1.115 1.106 3596
4.627 -1.112 1.089 4220
4.637 -1.114 1.077 4402
4.677 -1.124 1.071 4793
4.899 -1.177 1.100 4933
4.909 -1.179 1.087 6611
4.920 -1.182 1.074 6434
4.907 -1.179 1.057 5603
4.902 -1.178 1.041 4612
4.882 -1.173 1.022 3521
5.028 -1.208 1.033 5250
5.031 -1.209 1.018 7060
5.049 -1.213 1.006 6036
5.074 -1.219 0.995 3884
5.213 -1.252 1.003 3389
5.208 -1.251 0.986 4468
5.423 -1.303 1.005 3833
5.426 -1.304 0.989 3815
5.519 -1.326 0.987 4194
5.514 -1.325 0.969 4930
5.524 -1.327 0.954 3717
5.648 -1.357 0.955 4126
5.513 -1.325 0.919 3581
5.729 -1.376 0.932 2330
5.838 -1.403 0.930 3265
5.848 -1.405 0.913 2444
6.041 -1.451 0.921 2875
6.043 -1.452 0.903 3505
6.045 -1.452 0.885 3699
5.933 -1.425 0.853 3068
5.935 -1.426 0.835 3220
6.411 -1.540 0.872 3087
6.413 -1.541 0.853 2806
6.522 -1.567 0.846 2318
6.517 -1.566 0.826 3581
6.511 -1.564 0.805 4235
6.513 -1.565 0.786 3328
6.491 -1.560 0.764 1768
6.854 -1.647 0.779 2374
6.817 -1.638 0.755 2318
6.819 -1.638 0.735 2685
6.828 -1.640 0.715 2583
6.868 -1.650 0.698 2074
7.599 -1.826 0.735 2171
7.593 -1.824 0.712 1992
7.326 -1.760 0.669 2664
7.327 -1.760 0.648 2343
7.828 -1.881 0.659 1620
7.837 -1.883 0.636 1776
7.854 -1.887 0.614 1683
7.886 -1.895 0.592 1729
8.740 -2.100 0.615 1286
8.749 -2.102 0.590 1722
8.758 -2.104 0.564 1644
8.775 -2.108 0.538 1270
9.137 -2.195 0.528 1163
9.138 -2.196 0.500 1169
8.778 -2.109 0.460 944
8.779 -2.109 0.434 1010
8.779 -2.109 0.407 903
8.788 -2.111 0.381 816
9.173 -2.204 0.365 753
9.174 -2.204 0.337 563
9.151 -2.199 0.310 405
9.144 -2.197 0.282 270
1.989 -0.484 1.587 2255
1.993 -0.485 1.581 4510
1.997 -0.486 1.575 4446
2.008 -0.488 1.574 4872
2.012 -0.489 1.568 5306
2.022 -0.492 1.567 6985
2.026 -0.493 1.561 8863
2.030 -0.494 1.555 10021
2.034 -0.495 1.549 11179
2.045 -0.497 1.548 11178
2.048 -0.498 1.542 9266
2.059 -0.501 1.540 7618
2.056 -0.500 1.530 7609
2.054 -0.500 1.519 8048
2.058 -0.501 1.513 6963
2.055 -0.500 1.503 5905
2.066 -0.502 1.501 5151
2.102 -0.511 1.517 6006
2.106 -0.512 1.511 7498
2.109 -0.513 1.505 8990
2.120 -0.516 1.503 7558
2.124 -0.517 1.496 6156
2.141 -0.521 1.499 6184
2.151 -0.523 1.497 6740
2.161 -0.526 1.494 8870
2.172 -0.528 1.492 11446
2.182 -0.531 1.490 11224
2.186 -0.532 1.484 10171
2.203 -0.536 1.485 8887
2.220 -0.540 1.487 9027
2.224 -0.541 1.481 7110
2.267 -0.551 1.499 5716
2.271 -0.552 1.492 7565
2.275 -0.553 1.485 9414
2.285 -0.556 1.483 7984
2.302 -0.560 1.484 7051
2.299 -0.559 1.473 6177
2.296 -0.559 1.462 5468
2.300 -0.559 1.456 5945
2.311 -0.562 1.453 5485
2.334 -0.568 1.458 4970
2.399 -0.583 1.485 5368
2.396 -0.583 1.475 6383
2.406 -0.585 1.471 6417
2.417 -0.588 1.468 8471
2.427 -0.590 1.465 10475
2.417 -0.588 1.450 9422
2.414 -0.587 1.439 8736
2.466 -0.600 1.458 8477
2.537 -0.617 1.488 9114
2.541 -0.618 1.480 11866
2.538 -0.617 1.469 12197
2.549 -0.620 1.465 12911
2.566 -0.624 1.465 14469
2.577 -0.627 1.461 12856
2.601 -0.633 1.464 12144
2.612 -0.635 1.460 12377
2.602 -0.633 1.445 10883
2.633 -0.640 1.452 9178
2.637 -0.641 1.444 10282
2.640 -0.642 1.436 9207
2.644 -0.643 1.428 8407
2.662 -0.647 1.427 10325
2.665 -0.648 1.420 11533
2.690 -0.654 1.422 8641
2.721 -0.662 1.427 6282
2.739 -0.666 1.426 6152
2.749 -0.669 1.421 6848
2.760 -0.671 1.417 6432
