1.349 1.765 1.499 9040
1.351 1.769 1.493 7254
1.370 1.793 1.503 5629
1.377 1.802 1.501 5944
1.387 1.815 1.503 4618
1.394 1.824 1.501 3562
1.408 1.843 1.506 3936
1.423 1.863 1.512 4647
1.430 1.871 1.509 5220
1.440 1.885 1.511 4636
1.447 1.894 1.508 3719
1.433 1.875 1.485 4958
1.435 1.878 1.478 6230
1.442 1.887 1.476 6263
1.448 1.896 1.473 6554
1.459 1.910 1.474 6917
1.461 1.913 1.467 7414
1.468 1.921 1.464 6178
1.516 1.985 1.499 5867
1.523 1.993 1.496 8656
1.530 2.002 1.493 9545
1.519 1.989 1.474 9167
1.547 2.025 1.490 8306
1.549 2.028 1.482 7996
1.552 2.031 1.475 9406
1.558 2.040 1.471 8892
1.565 2.048 1.468 7240
1.572 2.057 1.464 7686
1.574 2.060 1.457 7455
1.576 2.063 1.449 6702
1.583 2.072 1.446 5098
1.615 2.114 1.463 4648
1.639 2.145 1.473 5957
1.646 2.154 1.469 8139
1.648 2.157 1.461 8193
1.646 2.154 1.450 6669
1.739 2.276 1.516 8915
1.733 2.268 1.500 14426
1.740 2.277 1.496 20214
1.742 2.280 1.488 27166
1.744 2.283 1.479 32446
1.751 2.292 1.474 32005
1.753 2.295 1.466 28382
1.751 2.292 1.455 28354
1.754 2.295 1.446 30743
1.756 2.298 1.438 29218
1.758 2.301 1.430 23108
1.765 2.310 1.425 13589
1.772 2.319 1.420 8997
1.862 2.437 1.476 6659
1.869 2.446 1.470 6366
1.871 2.449 1.461 8381
1.886 2.469 1.462 11858
1.889 2.472 1.453 12515
1.882 2.464 1.438 10322
1.885 2.467 1.429 9910
1.887 2.469 1.420 7861
2.027 2.652 1.505 5386
1.936 2.534 1.432 7132
2.036 2.665 1.489 9269
2.038 2.668 1.479 11548
2.050 2.683 1.476 10502
2.056 2.691 1.469 9584
2.059 2.695 1.459 8872
2.061 2.698 1.449 6606
2.140 2.800 1.488 6033
2.142 2.803 1.478 5653
2.095 2.742 1.437 5778
2.165 2.833 1.469 5709
2.171 2.842 1.462 5469
2.174 2.845 1.452 6402
2.172 2.842 1.438 6402
2.210 2.892 1.450 4577
2.221 2.907 1.445 5736
2.224 2.910 1.434 6367
2.231 2.919 1.426 5012
2.265 2.964 1.434 4873
2.280 2.985 1.431 6462
2.287 2.994 1.423 7440
2.299 3.008 1.417 6044
2.346 3.071 1.432 6475
2.349 3.074 1.421 9050
2.397 3.137 1.435 7275
2.403 3.146 1.426 8720
2.415 3.160 1.419 5308
2.440 3.193 1.420 4367
2.451 3.208 1.413 6031
2.458 3.217 1.404 6413
2.460 3.220 1.392 3467
2.495 3.265 1.397 3090
2.492 3.262 1.383 6884
2.499 3.271 1.374 7766
2.506 3.280 1.364 7225
2.508 3.283 1.352 5907
2.566 3.358 1.367 6630
2.563 3.355 1.353 7801
2.574 3.369 1.345 6429
2.581 3.378 1.335 5221
2.602 3.405 1.331 4636
2.627 3.438 1.329 6412
2.643 3.459 1.323 6899
2.645 3.462 1.311 4447
2.708 3.544 1.325 4432
2.728 3.571 1.320 5052
2.777 3.634 1.327 5655
2.779 3.637 1.314 6151
2.762 3.615 1.293 5491
2.774 3.630 1.284 7670
2.785 3.645 1.274 9361
2.792 3.654 1.263 6814
2.901 3.797 1.293 5555
2.912 3.812 1.283 5498
2.905 3.802 1.265 4538
2.888 3.780 1.244 4097
3.050 3.991 1.291 4383
3.042 3.982 1.273 5277
3.044 3.984 1.259 6074
3.051 3.993 1.246 5465
3.165 4.143 1.272 4698
3.163 4.139 1.256 5394
3.160 4.136 1.239 2870
3.223 4.218 1.245 2188
3.216 4.209 1.227 1745
3.364 4.402 1.260 3280
3.370 4.411 1.246 5256
3.363 4.401 1.227 5505
3.431 4.490 1.232 4205
3.400 4.449 1.205 3338
3.397 4.446 1.188 2281
3.545 4.640 1.216 3786
3.547 4.642 1.200 3597
3.662 4.793 1.216 3438
3.678 4.814 1.203 2667
3.851 5.040 1.234 2372
3.876 5.073 1.223 2805
3.878 5.076 1.204 2946
4.136 5.414 1.255 3161
4.148 5.429 1.238 2424
4.164 5.450 1.222 1911
4.327 5.663 1.244 2246
4.115 5.386 1.169 2529
4.122 5.395 1.151 2438
4.338 5.677 1.183 2683
4.673 6.115 1.241 2700
4.670 6.112 1.218 4346
4.667 6.108 1.195 5831
4.678 6.123 1.174 6121
4.685 6.131 1.153 5371
4.934 6.458 1.184 4688
4.936 6.461 1.160 6216
4.938 6.463 1.136 5896
4.940 6.465 1.113 5883
4.942 6.467 1.089 5410
4.943 6.470 1.066 3624
5.413 7.084 1.128 2463
5.697 7.456 1.153 2332
5.703 7.464 1.126 2297
5.700 7.460 1.098 2541
5.707 7.469 1.072 2451
5.708 7.471 1.044 2134
5.705 7.467 1.016 2081
5.706 7.469 0.989 1921
5.708 7.471 0.962 1849
5.709 7.472 0.935 1458
5.711 7.474 0.907 849
5.712 7.476 0.880 444
5.718 7.484 0.853 265
1.223 1.598 1.542 6071
1.225 1.601 1.536 12143
1.232 1.609 1.535 11972
1.238 1.618 1.534 12098
1.241 1.621 1.528 12098
1.247 1.629 1.527 8919
1.254 1.638 1.525 6496
1.276 1.667 1.542 8444
1.282 1.675 1.540 11577
1.285 1.679 1.534 11577
1.287 1.682 1.528 12149
1.290 1.685 1.522 12721
1.292 1.688 1.516 9380
1.299 1.697 1.515 6237
1.305 1.705 1.513 3904
1.340 1.750 1.542 2598
1.338 1.748 1.531 4224
1.337 1.746 1.520 5924
1.343 1.755 1.518 8820
1.346 1.758 1.512 11773
1.348 1.761 1.506 10351
1.350 1.764 1.499 8929
1.353 1.767 1.493 7304
1.372 1.792 1.503 5798
1.378 1.800 1.501 6093
1.389 1.814 1.503 4632
1.395 1.823 1.501 3514
1.414 1.848 1.510 3899
1.425 1.861 1.512 4661
1.431 1.870 1.509 5245
1.442 1.884 1.511 4735
1.432 1.871 1.492 3841
1.434 1.874 1.485 5106
1.437 1.877 1.478 6372
1.443 1.886 1.476 6341
1.450 1.894 1.473 6518
1.461 1.908 1.474 6756
1.463 1.911 1.467 7195
1.469 1.920 1.464 5958
1.514 1.978 1.496 6040
1.525 1.992 1.496 9003
1.531 2.001 1.493 10002
1.525 1.993 1.478 9604
1.545 2.018 1.486 8729
1.551 2.027 1.482 8394
1.554 2.030 1.475 9868
1.560 2.038 1.471 9358
1.567 2.047 1.468 7641
1.569 2.050 1.460 7781
1.576 2.059 1.457 7196
1.578 2.062 1.449 6374
1.580 2.065 1.442 4786
1.617 2.113 1.463 4629
1.641 2.144 1.473 6058
1.647 2.153 1.469 8460
1.650 2.156 1.461 8643
1.648 2.153 1.450 7062
1.741 2.275 1.516 9688
1.739 2.272 1.504 15472
1.741 2.275 1.496 21543
1.744 2.278 1.488 28609
1.746 2.282 1.479 33715
1.753 2.290 1.474 33203
1.755 2.293 1.466 29700
1.753 2.291 1.455 29485
1.756 2.294 1.446 31737
1.758 2.297 1.438 30262
1.760 2.300 1.430 24035
1.767 2.309 1.425 14618
1.774 2.317 1.420 10087
1.864 2.435 1.476 6723
1.866 2.438 1.467 6497
1.873 2.447 1.461 8253
1.889 2.467 1.462 11545
1.891 2.470 1.453 12267
1.884 2.462 1.438 10556
1.887 2.465 1.429 10360
1.889 2.468 1.420 8198
2.029 2.651 1.505 5269
1.938 2.532 1.432 6869
2.038 2.663 1.489 8973
2.041 2.666 1.479 11406
2.052 2.681 1.476 10550
2.059 2.690 1.469 9845
2.061 2.693 1.459 9320
2.063 2.696 1.449 6913
2.142 2.798 1.488 5672
2.149 2.807 1.481 4999
2.097 2.740 1.437 6069
2.167 2.831 1.469 5465
2.169 2.834 1.459 5781
2.176 2.843 1.452 6555
2.179 2.846 1.441 6032
2.212 2.891 1.450 4464
2.265 2.959 1.469 5835
2.226 2.909 1.434 6098
2.233 2.917 1.426 4765
2.272 2.968 1.437 4082
2.283 2.983 1.431 6134
2.290 2.992 1.423 7620
2.301 3.006 1.417 6164
2.349 3.069 1.432 5426
2.351 3.072 1.421 8162
2.399 3.135 1.435 7403
2.406 3.144 1.426 8894
2.417 3.158 1.419 5388
2.443 3.191 1.420 4194
2.454 3.206 1.413 5678
2.461 3.215 1.404 6125
2.463 3.218 1.392 3403
2.497 3.263 1.397 3013
2.495 3.260 1.383 6428
2.502 3.269 1.374 7118
2.509 3.278 1.364 6830
2.511 3.280 1.352 5771
2.568 3.356 1.367 6906
2.566 3.352 1.353 8345
2.577 3.367 1.345 6597
2.589 3.382 1.337 5089
2.605 3.403 1.331 4639
2.630 3.436 1.329 6332
2.646 3.457 1.323 6844
2.648 3.460 1.311 4451
2.711 3.541 1.325 4609
2.727 3.562 1.318 5101
2.780 3.632 1.327 5172
2.782 3.635 1.314 5243
2.765 3.613 1.293 4712
2.777 3.628 1.284 7121
2.788 3.643 1.274 8985
2.795 3.651 1.263 6614
2.904 3.795 1.293 5230
2.916 3.809 1.283 5560
2.908 3.800 1.265 4644
2.892 3.778 1.244 4078
3.053 3.989 1.291 4485
3.050 3.985 1.275 5354
3.048 3.982 1.259 6147
3.054 3.990 1.246 5427
3.169 4.140 1.272 4559
3.166 4.137 1.256 5225
3.159 4.127 1.237 2813
3.227 4.216 1.245 2191
3.224 4.212 1.228 1723
3.367 4.399 1.260 3499
3.369 4.402 1.244 5141
3.366 4.398 1.227 5395
3.434 4.487 1.232 4354
3.403 4.447 1.205 3541
3.400 4.443 1.188 2428
3.549 4.637 1.216 3613
3.551 4.639 1.200 3359
3.662 4.784 1.215 3323
3.687 4.817 1.204 2601
3.855 5.037 1.234 2118
3.881 5.070 1.223 2708
3.883 5.073 1.204 2904
4.141 5.410 1.255 3188
4.147 5.419 1.237 2395
4.168 5.446 1.222 1857
4.332 5.660 1.244 2070
4.120 5.383 1.169 2287
4.126 5.391 1.151 2212
4.347 5.680 1.184 2542
4.678 6.112 1.241 2660
4.675 6.108 1.218 4341
4.672 6.104 1.195 5855
4.683 6.119 1.174 6253
4.690 6.128 1.153 5655
4.940 6.454 1.184 4558
4.942 6.456 1.160 6175
4.943 6.459 1.136 5830
4.945 6.461 1.113 5951
4.947 6.463 1.089 5608
4.949 6.466 1.066 3731
4.955 6.474 1.043 2563
5.703 7.451 1.153 2300
5.709 7.459 1.126 2264
5.706 7.455 1.098 2513
5.713 7.464 1.072 2442
5.714 7.466 1.044 2113
5.711 7.462 1.016 2041
5.713 7.464 0.989 1884
5.714 7.466 0.962 1823
5.716 7.468 0.935 1436
5.717 7.470 0.907 836
5.718 7.471 0.880 437
5.724 7.479 0.853 260
1.225 1.596 1.542 6233
1.227 1.600 1.536 12467
1.234 1.608 1.535 12345
1.240 1.616 1.534 12526
1.242 1.620 1.528 12526
1.249 1.628 1.527 9244
1.255 1.636 1.525 6649
1.278 1.666 1.542 8723
1.284 1.674 1.540 12031
1.287 1.677 1.534 12031
1.289 1.680 1.528 12498
1.291 1.684 1.522 12965
1.294 1.687 1.516 9588
1.300 1.695 1.515 6400
1.303 1.698 1.509 3978
1.342 1.749 1.542 2407
1.340 1.747 1.531 4013
1.334 1.740 1.516 5818
1.341 1.748 1.514 8617
1.347 1.757 1.512 11521
1.350 1.760 1.506 10248
1.352 1.763 1.499 8975
1.355 1.766 1.493 7580
1.365 1.780 1.495 6312
1.376 1.794 1.497 6500
1.370 1.786 1.482 4897
1.397 1.821 1.501 3504
1.420 1.851 1.515 3913
1.427 1.860 1.512 4755
1.437 1.874 1.513 5403
1.440 1.877 1.507 4987
1.434 1.869 1.492 4207
1.436 1.873 1.485 5428
1.439 1.876 1.478 6650
1.445 1.884 1.476 6542
1.452 1.893 1.473 6591
1.463 1.907 1.474 6730
1.465 1.910 1.467 7114
1.472 1.918 1.464 5807
1.516 1.976 1.496 6402
1.527 1.990 1.496 9649
1.533 1.999 1.493 10799
1.527 1.991 1.478 10345
1.547 2.016 1.486 9510
1.553 2.025 1.482 9160
1.556 2.028 1.475 10714
1.562 2.037 1.471 10187
1.569 2.045 1.468 8353
1.571 2.048 1.460 8006
1.578 2.057 1.457 6853
1.580 2.060 1.449 5938
1.608 2.097 1.464 4431
1.624 2.117 1.467 4610
1.643 2.142 1.473 6184
1.650 2.151 1.469 8911
1.652 2.154 1.461 9342
1.650 2.151 1.450 7719
1.743 2.273 1.516 10815
1.741 2.270 1.504 17058
1.744 2.273 1.496 23501
1.746 2.277 1.488 30768
1.749 2.280 1.479 35627
1.755 2.288 1.474 34987
1.758 2.292 1.466 31674
1.756 2.289 1.455 31257
1.758 2.292 1.446 33270
1.760 2.295 1.438 31808
1.763 2.298 1.430 25351
1.769 2.307 1.425 16044
1.776 2.315 1.420 11615
1.866 2.433 1.476 7120
1.869 2.436 1.467 6930
1.876 2.445 1.461 8144
1.891 2.465 1.462 11034
1.893 2.468 1.453 11929
1.887 2.460 1.438 10855
1.889 2.463 1.429 10891
1.892 2.466 1.420 8601
2.032 2.649 1.505 5172
1.941 2.530 1.432 6611
2.041 2.661 1.489 8550
2.043 2.664 1.479 11097
2.055 2.679 1.476 10695
2.062 2.688 1.469 10257
2.064 2.691 1.459 9784
2.066 2.694 1.449 7289
2.140 2.790 1.486 6326
2.120 2.764 1.461 5588
2.109 2.750 1.443 6248
2.161 2.817 1.464 5649
2.163 2.820 1.453 6302
2.179 2.841 1.452 6266
2.186 2.850 1.444 5697
2.216 2.888 1.450 4549
2.268 2.956 1.469 6034
2.229 2.906 1.434 5996
2.236 2.915 1.426 4601
2.266 2.954 1.432 4083
2.282 2.974 1.429 6137
2.293 2.989 1.423 7649
2.304 3.004 1.417 6206
2.348 3.061 1.429 6647
2.354 3.069 1.421 10188
2.361 3.078 1.412 8591
2.409 3.141 1.426 9255
2.421 3.156 1.419 5749
2.441 3.183 1.418 4096
2.453 3.198 1.411 5358
2.464 3.213 1.404 5916
2.466 3.215 1.392 3591
2.496 3.254 1.395 2996
2.499 3.257 1.383 5725
2.505 3.266 1.374 6196
2.512 3.275 1.364 6310
2.510 3.272 1.350 5684
2.572 3.353 1.367 7231
2.569 3.350 1.353 9049
2.576 3.359 1.343 6736
2.592 3.379 1.337 4913
2.608 3.400 1.331 4577
2.634 3.433 1.329 6244
2.650 3.454 1.323 6776
2.652 3.457 1.311 4393
2.714 3.539 1.325 4630
2.726 3.553 1.316 5163
2.756 3.593 1.315 4714
2.786 3.632 1.314 3845
2.774 3.616 1.295 3748
2.785 3.631 1.286 6567
2.797 3.646 1.276 8318
2.799 3.648 1.263 6378
2.908 3.791 1.293 4877
2.920 3.806 1.283 5734
2.912 3.797 1.265 4867
2.900 3.781 1.246 4047
3.057 3.985 1.291 4749
3.054 3.982 1.275 5444
3.052 3.978 1.259 6148
3.063 3.993 1.248 5343
3.178 4.143 1.274 4519
3.171 4.133 1.256 5031
3.163 4.124 1.237 2728
3.236 4.218 1.247 2210
3.360 4.381 1.273 1976
3.367 4.390 1.259 3877
3.374 4.398 1.244 5133
3.371 4.395 1.227 5245
3.444 4.490 1.234 4460
3.408 4.443 1.205 3821
3.405 4.439 1.188 2634
3.554 4.633 1.216 3399
3.556 4.636 1.200 3042
3.667 4.780 1.215 3162
3.830 4.993 1.244 2547
3.832 4.995 1.226 2126
3.891 5.072 1.224 2478
4.140 5.397 1.274 2752
4.147 5.406 1.255 3280
4.153 5.414 1.237 2406
4.108 5.355 1.205 1918
4.338 5.655 1.244 1829
4.130 5.385 1.170 2032
4.137 5.393 1.152 1993
4.353 5.675 1.184 2359
4.689 6.113 1.243 2645
4.681 6.103 1.218 4339
4.678 6.099 1.195 5876
4.690 6.114 1.174 6446
4.696 6.123 1.153 6102
4.947 6.449 1.184 4467
4.949 6.451 1.160 6262
4.950 6.454 1.136 5876
4.952 6.456 1.113 6123
4.954 6.458 1.089 5917
4.955 6.460 1.066 3878
4.962 6.469 1.043 2713
4.963 6.471 1.019 2493
5.717 7.453 1.126 2209
5.714 7.449 1.098 2469
5.721 7.458 1.072 2417
5.722 7.460 1.044 2043
5.719 7.456 1.016 1928
5.721 7.458 0.989 1797
5.722 7.460 0.962 1769
5.724 7.462 0.935 1401
5.725 7.463 0.907 827
5.726 7.465 0.880 432
5.732 7.473 0.853 251
1.226 1.595 1.542 6215
1.229 1.599 1.536 12430
1.235 1.607 1.535 12284
1.241 1.615 1.534 12468
1.244 1.619 1.528 12468
1.250 1.627 1.527 9234
1.257 1.635 1.525 6591
1.283 1.670 1.546 8783
1.285 1.673 1.540 12106
1.288 1.676 1.534 12106
1.290 1.679 1.528 12479
1.293 1.683 1.522 12853
1.299 1.691 1.521 9554
1.302 1.694 1.515 6426
1.304 1.697 1.509 4070
1.343 1.748 1.542 2249
1.329 1.730 1.518 3901
1.336 1.738 1.516 5604
1.342 1.747 1.514 8272
1.349 1.755 1.512 11033
1.351 1.759 1.506 9918
1.354 1.762 1.499 8804
1.356 1.765 1.493 7626
1.367 1.779 1.495 6615
1.373 1.787 1.493 6677
1.372 1.785 1.482 5170
1.399 1.820 1.501 3423
1.422 1.850 1.515 3920
1.432 1.864 1.516 4801
1.439 1.873 1.513 5527
1.442 1.876 1.507 5178
1.436 1.868 1.492 4521
1.438 1.871 1.485 5638
1.440 1.874 1.478 6756
1.447 1.883 1.476 6572
1.454 1.892 1.473 6501
1.460 1.900 1.470 6598
1.467 1.909 1.467 6918
1.473 1.917 1.464 5611
1.518 1.975 1.496 6649
1.529 1.989 1.496 10073
1.535 1.998 1.493 11302
1.529 1.990 1.478 10792
1.548 2.015 1.486 10032
1.555 2.024 1.482 9699
1.557 2.027 1.475 11240
1.564 2.035 1.471 10674
1.571 2.044 1.468 8776
1.573 2.047 1.460 8022
1.580 2.056 1.457 6434
1.582 2.059 1.449 5483
1.610 2.095 1.464 4467
1.625 2.115 1.467 4555
1.645 2.141 1.473 6148
1.652 2.149 1.469 9139
1.654 2.152 1.461 9844
1.656 2.155 1.454 8271
1.745 2.271 1.516 11621
1.743 2.269 1.504 18160
1.746 2.272 1.496 24788
1.748 2.275 1.488 32107
1.751 2.278 1.479 36619
1.757 2.287 1.474 35841
1.760 2.290 1.466 32757
1.758 2.287 1.455 32133
1.760 2.290 1.446 33779
1.762 2.293 1.438 32299
1.765 2.296 1.430 25735
1.771 2.305 1.425 16759
1.778 2.314 1.420 12569
1.869 2.432 1.476 7457
1.871 2.435 1.467 7279
1.882 2.449 1.464 7900
1.893 2.464 1.462 10315
1.896 2.467 1.453 11319
1.889 2.458 1.438 10749
1.891 2.461 1.429 10976
1.898 2.470 1.423 8693
2.034 2.647 1.505 5059
1.947 2.534 1.435 6228
1.954 2.543 1.429 8286
2.046 2.662 1.479 10618
2.057 2.677 1.476 10676
2.064 2.686 1.469 10623
2.066 2.689 1.459 10298
2.069 2.692 1.449 7770
2.143 2.788 1.486 7134
2.123 2.762 1.461 5681
2.112 2.748 1.443 4938
2.154 2.804 1.458 5693
2.166 2.818 1.453 5819
2.177 2.833 1.449 5544
2.189 2.848 1.444 5332
2.168 2.822 1.420 4910
2.270 2.954 1.469 5993
2.236 2.910 1.437 5602
2.239 2.913 1.426 4477
2.268 2.952 1.432 4766
2.280 2.966 1.426 6523
2.295 2.987 1.423 7574
2.307 3.002 1.417 5923
2.355 3.064 1.432 6699
2.357 3.067 1.421 10362
2.364 3.076 1.412 8923
2.412 3.139 1.426 9293
2.423 3.154 1.419 5985
2.440 3.175 1.415 4110
2.451 3.190 1.409 5083
2.467 3.210 1.404 5740
2.474 3.219 1.395 3905
2.495 3.246 1.393 3092
2.497 3.249 1.381 5029
2.508 3.264 1.374 5349
2.515 3.273 1.364 5826
2.513 3.270 1.350 5511
2.575 3.351 1.367 7355
2.572 3.347 1.353 9502
2.579 3.356 1.343 6720
2.600 3.383 1.339 4669
2.611 3.398 1.331 4487
2.637 3.431 1.329 6078
2.653 3.452 1.323 6587
2.655 3.455 1.311 4273
2.717 3.536 1.325 4453
2.729 3.551 1.316 5045
2.759 3.590 1.315 4427
2.733 3.556 1.290 2579
2.810 3.656 1.309 3491
2.798 3.641 1.290 6130
2.800 3.643 1.276 7483
2.802 3.646 1.263 5886
2.916 3.795 1.295 4416
2.923 3.804 1.283 5672
2.916 3.794 1.265 4848
2.913 3.791 1.250 3887
3.061 3.983 1.291 4852
3.058 3.979 1.275 5371
3.055 3.976 1.259 5975
3.067 3.991 1.248 5217
3.182 4.140 1.274 4508
3.174 4.131 1.256 4848
3.171 4.127 1.239 2682
3.244 4.222 1.248 2407
3.364 4.378 1.273 2349
3.371 4.387 1.259 4093
3.378 4.395 1.244 4954
3.375 4.392 1.227 4891
3.448 4.487 1.234 4523
3.407 4.434 1.204 4007
3.409 4.436 1.188 2835
3.558 4.630 1.216 3114
3.664 4.768 1.231 2809
3.671 4.777 1.215 3025
3.829 4.983 1.243 2554
3.831 4.986 1.225 2247
3.895 5.069 1.224 2326
4.140 5.387 1.273 2703
4.146 5.396 1.254 3256
4.153 5.405 1.236 2391
4.112 5.351 1.205 2014
4.109 5.348 1.184 1665
4.240 5.518 1.197 1899
4.585 5.967 1.261 2126
4.363 5.678 1.185 2118
4.694 6.109 1.243 2603
4.687 6.099 1.218 4215
4.688 6.101 1.196 5750
4.695 6.110 1.174 6434
4.702 6.118 1.153 6332
4.952 6.445 1.184 4333
4.949 6.441 1.159 6280
4.956 6.449 1.136 5864
4.958 6.452 1.113 6149
4.955 6.448 1.088 5996
4.961 6.456 1.066 3864
4.967 6.464 1.043 2747
4.969 6.466 1.019 2567
5.719 7.442 1.125 2132
5.725 7.451 1.099 2383
5.727 7.453 1.072 2326
5.729 7.455 1.044 1927
5.726 7.451 1.016 1783
5.727 7.453 0.989 1654
5.729 7.455 0.962 1636
5.730 7.457 0.935 1294
5.736 7.465 0.908 765
5.733 7.460 0.880 400
1.228 1.594 1.542 6237
1.230 1.597 1.536 12474
1.237 1.606 1.535 12311
1.243 1.614 1.534 12510
1.245 1.617 1.528 12510
1.252 1.626 1.527 9280
1.258 1.634 1.525 6560
1.285 1.668 1.546 8947
1.287 1.672 1.540 12314
1.290 1.675 1.534 12314
1.292 1.678 1.528 12587
1.295 1.681 1.522 12860
1.301 1.690 1.521 9638
1.304 1.693 1.515 6519
1.306 1.696 1.509 4232
1.325 1.720 1.520 2377
1.331 1.729 1.518 3912
1.334 1.732 1.512 5492
1.344 1.746 1.514 8032
1.347 1.749 1.508 10696
1.353 1.757 1.506 9689
1.356 1.760 1.499 8702
1.358 1.763 1.493 7733
1.369 1.777 1.495 6940
1.375 1.786 1.493 6923
1.373 1.784 1.482 5456
1.368 1.776 1.468 3578
1.424 1.849 1.515 3965
1.434 1.863 1.516 4908
1.441 1.871 1.513 5712
1.443 1.874 1.507 5443
1.437 1.867 1.492 4935
1.440 1.870 1.485 5920
1.442 1.873 1.478 6905
1.449 1.882 1.476 6618
1.455 1.890 1.473 6395
1.462 1.899 1.470 6546
1.469 1.907 1.467 6893
1.475 1.916 1.464 5614
1.520 1.973 1.496 6954
1.531 1.988 1.496 10555
1.537 1.996 1.493 11863
1.540 1.999 1.486 11294
1.550 2.013 1.486 10624
1.557 2.022 1.482 10311
1.559 2.025 1.475 11815
1.566 2.034 1.471 11172
1.573 2.042 1.468 9183
1.575 2.046 1.460 8047
1.625 2.110 1.493 6651
1.631 2.119 1.489 5911
1.617 2.099 1.467 4577
1.632 2.119 1.470 4536
1.643 2.133 1.470 6172
1.654 2.148 1.469 9373
1.656 2.151 1.461 10394
1.659 2.154 1.454 8909
1.748 2.269 1.516 12377
1.746 2.267 1.504 19181
1.748 2.270 1.496 25984
1.751 2.273 1.488 33372
1.753 2.276 1.479 37550
1.760 2.285 1.474 36620
1.762 2.288 1.466 33764
1.760 2.286 1.455 32958
1.762 2.289 1.446 34193
1.765 2.292 1.438 32665
1.767 2.295 1.430 25993
1.774 2.303 1.425 17359
1.780 2.312 1.420 13429
1.871 2.430 1.476 7861
1.873 2.433 1.467 7674
1.885 2.447 1.464 7748
1.896 2.462 1.462 9632
1.898 2.465 1.453 10667
1.892 2.456 1.438 10519
1.898 2.465 1.432 11015
1.901 2.468 1.423 8713
2.037 2.645 1.505 4884
1.950 2.532 1.435 5940
1.957 2.541 1.429 8062
2.053 2.666 1.482 10228
2.064 2.681 1.479 10470
2.067 2.684 1.469 10473
2.069 2.687 1.459 10229
2.071 2.690 1.449 7685
2.146 2.786 1.486 6599
2.157 2.801 1.481 5269
2.105 2.734 1.437 4309
2.162 2.807 1.461 5368
2.169 2.816 1.453 5912
2.180 2.831 1.449 5390
2.151 2.793 1.419 5245
2.166 2.813 1.417 5225
2.273 2.952 1.469 5896
2.239 2.908 1.437 5274
2.246 2.917 1.429 3876
2.271 2.949 1.432 4515
2.278 2.958 1.424 6573
2.294 2.979 1.421 7455
2.310 3.000 1.417 5548
2.353 3.056 1.429 5701
2.360 3.065 1.421 9314
2.367 3.074 1.412 8452
2.415 3.136 1.426 9354
2.422 3.145 1.417 6284
2.438 3.166 1.413 4427
2.450 3.181 1.406 4949
2.470 3.208 1.404 5677
2.477 3.217 1.395 4398
2.493 3.238 1.390 3258
2.495 3.241 1.378 4377
2.511 3.261 1.374 4586
2.514 3.264 1.362 5447
2.511 3.261 1.348 5320
2.578 3.348 1.367 7438
2.576 3.345 1.353 9915
2.583 3.354 1.343 6719
2.603 3.381 1.339 4385
2.615 3.395 1.331 4174
2.640 3.428 1.329 5836
2.656 3.449 1.323 6484
2.658 3.452 1.311 4192
2.721 3.533 1.325 4273
2.737 3.554 1.318 4972
2.744 3.563 1.307 4229
2.722 3.535 1.284 2702
2.813 3.654 1.309 3533
2.806 3.644 1.292 5854
2.803 3.641 1.276 6505
2.805 3.643 1.263 5446
2.878 3.737 1.278 4232
2.927 3.801 1.283 5747
2.919 3.791 1.265 4963
2.950 3.831 1.263 3838
3.065 3.980 1.291 4946
3.062 3.976 1.275 5294
3.064 3.979 1.261 5860
3.071 3.988 1.248 5133
3.186 4.137 1.274 4575
3.178 4.128 1.256 4593
3.176 4.124 1.239 2603
3.248 4.219 1.248 2624
3.369 4.375 1.273 2699
3.371 4.377 1.257 4348
3.382 4.392 1.244 5018
3.384 4.395 1.228 4951
3.452 4.483 1.234 4485
3.412 4.430 1.204 4205
3.413 4.433 1.188 3024
3.563 4.626 1.216 2912
3.669 4.765 1.231 2634
3.676 4.773 1.215 2810
3.834 4.980 1.243 2610
3.832 4.976 1.224 2512
3.900 5.065 1.224 2201
3.855 5.006 1.192 2814
4.152 5.392 1.254 3316
4.149 5.388 1.233 2514
4.122 5.353 1.206 2208
4.115 5.343 1.184 1584
4.245 5.513 1.197 1851
4.586 5.956 1.260 2294
4.593 5.965 1.240 2006
4.705 6.110 1.244 2626
4.693 6.094 1.218 4020
4.695 6.097 1.196 5570
4.701 6.105 1.174 6432
4.708 6.114 1.153 6591
4.705 6.110 1.130 4349
4.956 6.436 1.159 6358
4.958 6.438 1.136 5912
4.964 6.447 1.113 6194
4.961 6.443 1.088 6127
4.967 6.451 1.066 3840
4.974 6.459 1.043 2732
4.976 6.461 1.019 2597
5.726 7.436 1.125 2039
5.733 7.445 1.099 2285
5.735 7.447 1.072 2206
5.736 7.449 1.044 1763
5.733 7.445 1.016 1591
5.735 7.447 0.989 1488
5.736 7.449 0.962 1496
5.737 7.451 0.935 1185
5.744 7.459 0.908 717
5.740 7.454 0.880 388
1.229 1.593 1.542 6191
1.232 1.596 1.536 12382
1.238 1.605 1.535 12198
1.244 1.613 1.534 12401
1.247 1.616 1.528 12401
1.253 1.625 1.527 9211
1.260 1.633 1.525 6468
1.286 1.667 1.546 8996
1.289 1.670 1.540 12347
1.291 1.674 1.534 12347
1.294 1.677 1.528 12536
1.296 1.680 1.522 12726
1.303 1.688 1.521 9638
1.309 1.697 1.519 6621
1.312 1.700 1.513 4396
1.326 1.719 1.520 2565
1.329 1.722 1.514 3903
1.335 1.731 1.512 5326
1.346 1.744 1.514 7691
1.348 1.748 1.508 10274
1.355 1.756 1.506 9355
1.357 1.759 1.499 8507
1.360 1.762 1.493 7753
1.370 1.776 1.495 7180
1.377 1.784 1.493 7092
1.371 1.777 1.478 5709
1.369 1.775 1.468 3730
1.425 1.847 1.515 3973
1.436 1.861 1.516 4943
1.443 1.870 1.513 5823
1.445 1.873 1.507 5664
1.439 1.865 1.492 5371
1.442 1.869 1.485 6183
1.448 1.877 1.482 6997
1.451 1.880 1.476 6600
1.457 1.889 1.473 6250
1.464 1.897 1.470 6487
1.470 1.906 1.467 6875
1.477 1.914 1.464 5572
1.517 1.967 1.492 7198
1.532 1.986 1.496 10931
1.539 1.995 1.493 12252
1.546 2.003 1.489 11636
1.552 2.012 1.486 11062
1.559 2.021 1.482 10798
1.561 2.024 1.475 12226
1.568 2.032 1.471 11512
1.575 2.041 1.468 9467
1.577 2.044 1.460 7981
1.627 2.108 1.493 6938
1.633 2.117 1.489 6195
1.618 2.098 1.467 4638
1.634 2.118 1.470 4471
1.645 2.132 1.470 6077
1.656 2.146 1.469 9433
1.658 2.149 1.461 10802
1.660 2.152 1.454 9452
1.750 2.268 1.516 12796
1.748 2.265 1.504 19783
1.750 2.269 1.496 26654
1.753 2.272 1.488 34011
1.755 2.275 1.479 37802
1.762 2.284 1.474 36716
1.764 2.287 1.466 34125
1.762 2.284 1.455 33257
1.764 2.287 1.446 34126
1.767 2.290 1.438 32555
1.769 2.293 1.430 25819
1.776 2.302 1.425 17643
1.782 2.310 1.420 14029
1.873 2.428 1.476 8167
1.880 2.437 1.470 7966
1.887 2.446 1.464 7504
1.898 2.460 1.462 8883
1.900 2.463 1.453 10022
1.898 2.460 1.441 10250
1.901 2.463 1.432 10945
1.903 2.466 1.423 8653
2.039 2.643 1.505 4780
1.957 2.536 1.438 5743
1.959 2.539 1.429 7953
2.055 2.664 1.482 9679
2.067 2.679 1.479 10213
2.069 2.682 1.469 10447
2.071 2.685 1.459 10337
2.078 2.694 1.452 7895
2.076 2.691 1.440 5455
2.119 2.747 1.456 5190
2.126 2.755 1.448 5707
2.164 2.805 1.461 5765
2.171 2.814 1.453 6659
2.178 2.823 1.446 5104
2.153 2.791 1.419 3838
2.223 2.882 1.450 4584
2.276 2.950 1.469 6021
2.246 2.912 1.440 5172
2.281 2.956 1.448 3711
2.278 2.953 1.434 4602
2.285 2.962 1.426 6449
2.297 2.977 1.421 7087
2.313 2.998 1.417 5149
2.356 3.054 1.429 4848
2.363 3.063 1.421 8575
2.370 3.072 1.412 8444
2.418 3.134 1.426 9298
2.425 3.143 1.417 6507
2.436 3.158 1.410 4814
2.452 3.179 1.406 4912
2.473 3.206 1.404 5676
2.485 3.221 1.397 4911
2.491 3.229 1.388 3471
2.494 3.232 1.376 3940
2.510 3.253 1.371 4051
2.517 3.262 1.362 5222
2.514 3.259 1.348 5141
2.581 3.346 1.367 7332
2.579 3.343 1.353 10083
2.586 3.351 1.343 6691
2.611 3.384 1.341 4123
2.618 3.393 1.331 3861
2.648 3.432 1.331 5603
2.659 3.447 1.323 6359
2.661 3.450 1.311 4069
2.724 3.531 1.325 3950
2.745 3.558 1.320 4829
2.747 3.561 1.307 3962
2.726 3.533 1.284 2979
2.812 3.645 1.307 4106
2.809 3.642 1.292 5365
2.807 3.638 1.276 5353
2.809 3.641 1.263 4898
2.933 3.802 1.299 4042
2.926 3.792 1.281 5742
2.923 3.789 1.265 4937
2.953 3.828 1.263 3816
3.068 3.977 1.291 5010
3.065 3.974 1.275 5169
3.067 3.976 1.261 5700
3.074 3.985 1.248 5038
3.189 4.134 1.274 4558
3.182 4.125 1.256 4186
3.250 4.213 1.264 2776
3.257 4.222 1.250 2853
3.373 4.372 1.273 2879
3.375 4.374 1.257 4297
3.386 4.389 1.244 4808
3.388 4.392 1.228 4799
3.456 4.480 1.234 4436
3.416 4.427 1.204 4227
3.417 4.430 1.188 3036
3.538 4.586 1.208 2730
3.668 4.755 1.230 2485
3.675 4.764 1.214 2654
3.839 4.976 1.243 2656
3.831 4.966 1.222 2700
3.843 4.981 1.207 2458
3.854 4.996 1.191 2984
4.157 5.388 1.254 3283
4.140 5.366 1.229 2751
4.127 5.350 1.206 2408
4.129 5.352 1.186 1566
4.250 5.509 1.197 1810
4.592 5.952 1.260 2433
4.599 5.961 1.240 2114
4.715 6.112 1.245 2624
4.703 6.096 1.219 3764
4.700 6.092 1.196 5288
4.707 6.101 1.174 6313
4.713 6.110 1.153 6702
4.715 6.112 1.131 4411
4.962 6.431 1.159 6392
4.963 6.434 1.136 5958
4.965 6.436 1.112 6219
4.967 6.438 1.088 6147
4.968 6.440 1.065 3754
4.980 6.455 1.043 2662
4.981 6.457 1.019 2577
4.983 6.459 0.996 1970
5.740 7.440 1.099 2178
5.741 7.442 1.072 2071
5.743 7.444 1.044 1602
5.740 7.440 1.016 1401
5.741 7.442 0.989 1313
5.743 7.444 0.962 1339
5.744 7.446 0.935 1065
5.750 7.454 0.908 657
5.747 7.449 0.880 345
1.235 1.597 1.547 6221
1.237 1.600 1.541 12443
1.240 1.603 1.535 12218
1.246 1.612 1.534 12436
1.249 1.615 1.528 12436
1.255 1.623 1.527 9334
1.261 1.632 1.525 6586
1.288 1.666 1.546 9219
1.290 1.669 1.540 12585
1.293 1.672 1.534 12585
1.295 1.676 1.528 12645
1.302 1.684 1.527 12713
1.304 1.687 1.521 9734
1.311 1.696 1.519 6842
1.317 1.704 1.517 4702
1.328 1.718 1.520 2846
1.330 1.721 1.514 3996
1.337 1.729 1.512 5176
1.347 1.743 1.514 7377
1.350 1.746 1.508 9922
1.356 1.755 1.506 9110
1.359 1.758 1.499 8417
1.365 1.766 1.497 7875
1.372 1.775 1.495 7505
1.378 1.783 1.493 7326
1.373 1.776 1.478 6030
1.371 1.773 1.468 3964
1.427 1.846 1.515 4062
1.438 1.860 1.516 5082
1.444 1.869 1.513 6073
1.443 1.866 1.503 6061
1.441 1.864 1.492 5979
1.443 1.867 1.485 6576
1.450 1.876 1.482 7187
1.452 1.879 1.476 6629
1.459 1.887 1.473 6119
1.466 1.896 1.470 6441
1.472 1.904 1.467 6859
1.479 1.913 1.464 5586
1.519 1.965 1.492 7543
1.534 1.985 1.496 11392
1.541 1.993 1.493 12728
1.548 2.002 1.489 12063
1.554 2.011 1.486 11623
1.561 2.019 1.482 11451
1.563 2.022 1.475 12781
1.570 2.031 1.471 11959
1.572 2.034 1.464 9872
1.579 2.043 1.460 7989
1.629 2.107 1.493 7252
1.631 2.110 1.486 6541
1.629 2.107 1.474 4836
1.636 2.116 1.470 4470
1.647 2.130 1.470 6009
1.658 2.145 1.469 9492
1.660 2.148 1.461 11246
1.663 2.151 1.454 10042
1.752 2.266 1.516 13243
1.750 2.264 1.504 20428
1.752 2.267 1.496 27371
1.755 2.270 1.488 34724
1.757 2.273 1.479 38087
1.764 2.282 1.474 36787
1.766 2.285 1.466 34480
1.764 2.282 1.455 33605
1.767 2.285 1.446 34066
1.769 2.288 1.438 32407
1.771 2.291 1.430 25569
1.778 2.300 1.425 17840
1.785 2.309 1.420 14544
1.876 2.426 1.476 8561
1.882 2.435 1.470 8395
1.889 2.444 1.464 7383
1.905 2.464 1.465 8182
1.903 2.461 1.453 9367
1.901 2.459 1.441 9956
1.903 2.462 1.432 10866
1.905 2.465 1.423 8586
1.916 2.479 1.420 4580
1.959 2.534 1.438 5714
1.966 2.543 1.432 7858
2.062 2.668 1.485 9344
2.074 2.682 1.482 9846
2.076 2.686 1.472 9802
2.078 2.689 1.462 9679
2.081 2.692 1.452 7668
2.101 2.718 1.454 5607
2.122 2.744 1.456 6679
2.133 2.759 1.451 7142
2.167 2.803 1.461 6965
2.174 2.812 1.453 6694
2.176 2.815 1.443 4395
2.165 2.800 1.425 2798
2.222 2.874 1.447 3940
2.279 2.948 1.469 5953
2.249 2.910 1.440 5366
2.293 2.966 1.453 4235
2.290 2.963 1.440 4995
2.288 2.960 1.426 6234
2.300 2.975 1.421 6414
2.316 2.995 1.417 4717
2.355 3.046 1.427 4384
2.366 3.061 1.421 8240
2.373 3.069 1.412 8731
2.421 3.132 1.426 9152
2.428 3.141 1.417 6651
2.435 3.150 1.408 5194
2.451 3.170 1.404 4898
2.481 3.209 1.407 5761
2.488 3.218 1.397 5491
2.490 3.221 1.385 3749
2.488 3.218 1.371 3933
2.504 3.239 1.367 3874
2.515 3.254 1.359 5231
2.517 3.256 1.348 4968
2.580 3.337 1.365 7254
2.582 3.340 1.353 10230
2.584 3.343 1.340 6776
2.619 3.388 1.343 3946
2.626 3.397 1.333 3520
2.656 3.435 1.334 5462
2.663 3.444 1.323 6344
2.665 3.447 1.311 4009
2.728 3.528 1.325 3528
2.753 3.561 1.322 4822
2.751 3.558 1.307 3724
2.814 3.639 1.320 3419
2.816 3.642 1.307 5189
2.818 3.645 1.294 4867
2.815 3.641 1.278 4250
2.812 3.638 1.263 4396
2.937 3.799 1.299 3865
2.929 3.789 1.281 5700
2.927 3.786 1.265 5000
2.952 3.819 1.261 3738
3.072 3.974 1.291 5030
3.074 3.977 1.277 5061
3.071 3.973 1.261 5515
3.078 3.982 1.248 4883
3.194 4.131 1.274 4624
3.186 4.121 1.256 3927
3.254 4.210 1.264 2946
3.261 4.218 1.250 3000
3.372 4.362 1.272 3148
3.379 4.371 1.257 4447
3.390 4.386 1.244 4931
3.392 4.388 1.228 4764
3.461 4.477 1.234 4302
3.420 4.424 1.204 4347
3.422 4.426 1.188 3233
3.538 4.577 1.206 2776
3.668 4.745 1.228 2315
3.661 4.735 1.208 2498
3.839 4.966 1.242 2725
3.836 4.962 1.222 3004
3.843 4.971 1.205 2802
3.854 4.986 1.190 3222
4.157 5.378 1.253 3234
4.145 5.362 1.229 3013
4.137 5.352 1.207 2670
4.139 5.354 1.188 1610
4.596 5.945 1.282 1756
4.598 5.947 1.260 2587
4.605 5.956 1.240 2204
4.721 6.107 1.245 2635
4.709 6.091 1.219 3475
4.706 6.088 1.196 4986
4.713 6.096 1.174 6164
4.719 6.105 1.153 6814
4.721 6.107 1.131 4578
4.968 6.426 1.159 6460
4.970 6.429 1.136 6036
4.972 6.431 1.112 6273
4.973 6.433 1.088 6194
4.975 6.435 1.065 3734
4.986 6.450 1.043 2624
4.988 6.452 1.019 2586
4.989 6.454 0.996 1942
5.747 7.434 1.099 2047
5.749 7.436 1.072 1913
5.750 7.438 1.044 1393
5.747 7.434 1.016 1168
5.749 7.436 0.989 1138
5.750 7.438 0.962 1195
5.756 7.446 0.935 959
5.758 7.448 0.908 598
5.754 7.444 0.880 307
1.236 1.596 1.547 6099
1.238 1.599 1.541 12198
1.241 1.603 1.535 11932
1.251 1.616 1.538 12210
1.254 1.619 1.533 12210
1.256 1.622 1.527 9241
1.263 1.631 1.525 6576
1.285 1.660 1.542 9202
1.292 1.668 1.540 12468
1.294 1.671 1.534 12468
1.297 1.675 1.528 12412
1.303 1.683 1.527 12391
1.306 1.686 1.521 9575
1.312 1.695 1.519 6913
1.319 1.703 1.517 4906
1.325 1.711 1.516 3072
1.332 1.720 1.514 4004
1.334 1.723 1.507 4955
1.345 1.737 1.510 6978
1.351 1.745 1.508 9404
1.358 1.754 1.506 8698
1.364 1.762 1.504 8180
1.367 1.765 1.497 7805
1.373 1.774 1.495 7554
1.376 1.777 1.489 7321
1.374 1.775 1.478 6125
1.372 1.772 1.468 4028
1.433 1.850 1.519 4048
1.439 1.859 1.516 5078
1.446 1.867 1.513 6157
1.444 1.865 1.503 6341
1.442 1.863 1.492 6444
1.445 1.866 1.485 6834
1.451 1.875 1.482 7245
1.454 1.878 1.476 6540
1.460 1.886 1.473 5895
1.467 1.895 1.470 6323
1.474 1.903 1.467 6807
1.480 1.912 1.464 5555
1.521 1.964 1.492 7709
1.536 1.984 1.496 11585
1.542 1.992 1.493 12871
1.549 2.001 1.489 12161
1.556 2.009 1.486 11881
1.562 2.018 1.482 11827
1.565 2.021 1.475 13017
1.571 2.030 1.471 12082
1.574 2.033 1.464 10005
1.576 2.036 1.457 7883
1.630 2.106 1.493 7376
1.633 2.109 1.486 6722
1.635 2.112 1.478 4950
1.637 2.115 1.470 4384
1.648 2.129 1.470 5790
1.659 2.143 1.469 9334
1.662 2.146 1.461 11430
1.664 2.149 1.454 10397
1.754 2.265 1.516 13266
1.752 2.262 1.504 20508
1.754 2.266 1.496 27391
1.757 2.269 1.488 34592
1.759 2.272 1.479 37515
1.766 2.281 1.474 36046
1.768 2.284 1.466 34071
1.766 2.281 1.455 33261
1.768 2.284 1.446 33340
1.771 2.287 1.438 31617
1.773 2.290 1.430 24808
1.780 2.299 1.425 17598
1.786 2.307 1.420 14643
1.877 2.425 1.476 8730
1.884 2.434 1.470 8614
1.891 2.442 1.464 7227
1.902 2.457 1.462 7509
1.905 2.460 1.453 8701
1.902 2.457 1.441 9498
1.909 2.466 1.435 10586
1.907 2.463 1.423 8295
1.918 2.478 1.420 4491
1.961 2.533 1.438 5657
1.968 2.541 1.432 7737
2.064 2.666 1.485 8973
2.076 2.681 1.482 9545
2.078 2.684 1.472 9777
2.080 2.687 1.462 9902
2.083 2.690 1.452 7723
2.094 2.705 1.448 5292
2.124 2.743 1.456 5114
2.162 2.793 1.468 4798
2.165 2.796 1.458 6752
2.167 2.799 1.448 6159
2.169 2.802 1.438 3645
2.153 2.781 1.417 3004
2.283 2.949 1.483 3394
2.281 2.946 1.469 5544
2.251 2.908 1.440 5474
2.299 2.970 1.456 4825
2.293 2.961 1.440 5595
2.290 2.958 1.426 6444
2.297 2.967 1.418 5894
2.318 2.994 1.417 4248
2.352 3.038 1.424 4065
2.364 3.053 1.418 7859
2.375 3.068 1.412 8736
2.423 3.130 1.426 8842
2.430 3.139 1.417 6619
2.437 3.148 1.408 5471
2.449 3.163 1.401 4899
2.483 3.207 1.407 5877
2.490 3.216 1.397 5921
2.488 3.213 1.383 3978
2.485 3.210 1.369 4143
2.501 3.231 1.364 4043
2.518 3.252 1.359 5324
2.515 3.248 1.345 4772
2.582 3.335 1.365 7072
2.585 3.338 1.353 10158
2.587 3.341 1.340 6783
2.626 3.392 1.346 3866
2.628 3.395 1.333 3218
2.658 3.434 1.334 5400
2.670 3.448 1.325 6277
2.672 3.451 1.313 3869
2.763 3.569 1.339 3779
2.760 3.565 1.324 4868
2.795 3.610 1.325 4010
2.811 3.631 1.318 4709
2.818 3.640 1.307 6179
2.820 3.643 1.294 4515
2.822 3.645 1.280 3599
2.820 3.642 1.265 4050
2.939 3.797 1.299 3774
2.927 3.781 1.279 5631
2.934 3.790 1.267 5021
2.955 3.817 1.261 3771
3.075 3.972 1.291 5012
3.077 3.974 1.277 4949
3.074 3.971 1.261 5315
3.081 3.979 1.248 4696
3.201 4.135 1.276 4642
3.189 4.119 1.256 3635
3.258 4.207 1.264 3014
3.264 4.216 1.250 3118
3.375 4.360 1.272 3178
3.382 4.368 1.257 4229
3.394 4.383 1.244 4856
3.396 4.386 1.228 4810
3.407 4.400 1.215 4491
3.423 4.421 1.204 4430
3.420 4.418 1.186 3275
3.541 4.574 1.206 2804
3.667 4.736 1.227 2141
3.660 4.727 1.207 2413
3.843 4.963 1.242 2743
3.840 4.960 1.222 3195
3.847 4.968 1.205 3070
3.858 4.983 1.190 3400
4.161 5.375 1.253 3160
4.149 5.359 1.229 3180
4.141 5.349 1.207 2828
4.076 5.265 1.171 1622
4.600 5.941 1.282 1840
4.602 5.944 1.260 2659
4.724 6.101 1.267 2261
4.726 6.104 1.245 2596
4.714 6.088 1.219 3125
4.711 6.084 1.196 4588
4.717 6.093 1.174 5913
4.729 6.108 1.154 6801
4.726 6.104 1.131 4660
4.968 6.416 1.158 6513
4.970 6.419 1.135 6022
4.976 6.427 1.112 6187
4.973 6.423 1.087 6088
4.980 6.432 1.065 3617
5.453 7.043 1.127 2546
4.993 6.448 1.019 2490
4.994 6.450 0.996 1839
5.752 7.430 1.099 1872
5.759 7.438 1.073 1714
5.833 7.534 1.057 1168
5.753 7.430 1.016 933
5.754 7.432 0.989 951
5.756 7.434 0.962 1032
5.762 7.442 0.935 830
5.763 7.444 0.908 521
5.765 7.446 0.881 267
1.236 1.596 1.547 6391
1.239 1.599 1.541 12782
1.245 1.607 1.540 12189
1.252 1.615 1.538 12270
1.254 1.619 1.533 12270
1.257 1.622 1.527 9372
1.263 1.630 1.525 6733
1.286 1.659 1.542 9363
1.288 1.662 1.536 12548
1.295 1.671 1.534 12528
1.297 1.674 1.528 12391
1.304 1.682 1.527 12265
1.306 1.686 1.521 9583
1.317 1.699 1.523 7151
1.319 1.702 1.517 5223
1.326 1.711 1.516 3385
1.332 1.719 1.514 4094
1.335 1.722 1.507 4838
1.345 1.736 1.510 6701
1.352 1.745 1.508 9034
1.359 1.753 1.506 8429
1.369 1.767 1.508 8111
1.367 1.765 1.497 7860
1.374 1.773 1.495 7696
1.376 1.776 1.489 7414
1.375 1.774 1.478 6272
1.373 1.772 1.468 4158
1.433 1.850 1.519 4141
1.440 1.858 1.516 5173
1.447 1.867 1.513 6385
1.445 1.865 1.503 6834
1.443 1.862 1.492 7176
1.446 1.865 1.485 7311
1.452 1.874 1.482 7459
1.455 1.877 1.476 6575
1.465 1.891 1.477 5798
1.468 1.894 1.470 6314
1.474 1.903 1.467 6855
1.481 1.911 1.464 5617
1.522 1.963 1.492 8072
1.537 1.983 1.496 12067
1.543 1.991 1.493 13290
1.550 2.000 1.489 12501
1.561 2.014 1.490 12419
1.563 2.017 1.482 12510
1.566 2.020 1.475 13525
1.568 2.023 1.468 12396
1.575 2.032 1.464 10226
1.577 2.035 1.457 7862
1.631 2.105 1.493 7564
1.634 2.108 1.486 7002
1.636 2.111 1.478 5158
1.638 2.114 1.470 4337
1.649 2.128 1.470 5552
1.660 2.143 1.469 9152
1.663 2.146 1.461 11687
1.665 2.149 1.454 10866
1.750 2.258 1.512 13406
1.753 2.262 1.504 20757
1.755 2.265 1.496 27595
1.758 2.268 1.488 34665
1.764 2.277 1.483 37120
1.767 2.280 1.474 35398
1.769 2.283 1.466 33787
1.767 2.280 1.455 33155
1.769 2.283 1.446 32778
1.772 2.286 1.438 30917
1.774 2.289 1.430 24013
1.785 2.304 1.428 17421
1.787 2.307 1.420 14660
1.878 2.424 1.476 9081
1.885 2.433 1.470 9037
1.892 2.441 1.464 7365
1.903 2.456 1.462 7023
1.906 2.459 1.453 8121
1.908 2.462 1.444 9158
1.910 2.465 1.435 10319
1.913 2.468 1.426 8034
1.919 2.477 1.420 4420
1.962 2.532 1.438 5775
1.969 2.541 1.432 7528
2.066 2.665 1.485 7906
2.077 2.680 1.482 9024
2.079 2.683 1.472 9371
2.082 2.686 1.462 9392
2.089 2.695 1.455 7196
2.095 2.704 1.448 4815
2.125 2.742 1.456 4525
2.168 2.798 1.471 4031
2.170 2.801 1.461 5445
2.168 2.798 1.448 6175
2.157 2.783 1.429 4232
2.146 2.769 1.411 3571
2.284 2.948 1.483 3298
2.282 2.945 1.469 4880
2.253 2.907 1.440 5532
2.296 2.963 1.453 5630
2.294 2.960 1.440 6269
2.292 2.957 1.426 6201
2.294 2.960 1.415 5348
2.315 2.987 1.415 3882
2.354 3.037 1.424 3907
2.365 3.052 1.418 7521
2.377 3.067 1.412 8688
2.425 3.129 1.426 8585
2.432 3.138 1.417 6614
2.439 3.147 1.408 5743
2.436 3.144 1.394 5148
2.439 3.147 1.383 6315
2.492 3.215 1.397 6400
2.494 3.218 1.385 4351
2.487 3.209 1.369 4646
2.508 3.236 1.367 4644
2.519 3.251 1.359 5684
2.517 3.247 1.345 4726
2.584 3.334 1.365 6795
2.586 3.337 1.353 10007
2.588 3.340 1.340 6891
2.632 3.397 1.348 3803
2.639 3.405 1.338 2984
2.665 3.438 1.336 5568
2.671 3.447 1.325 6296
2.674 3.450 1.313 3822
2.769 3.573 1.341 4786
2.762 3.564 1.324 5036
2.811 3.627 1.331 4681
2.813 3.630 1.318 6104
2.820 3.639 1.307 7361
2.822 3.641 1.294 4825
2.824 3.644 1.280 3579
2.826 3.647 1.267 4108
2.932 3.783 1.295 3701
2.929 3.780 1.279 5589
2.936 3.788 1.267 4956
3.023 3.901 1.286 3945
3.077 3.970 1.291 5022
3.084 3.979 1.279 4824
3.081 3.976 1.262 5151
3.083 3.978 1.248 4515
3.203 4.133 1.276 4699
3.196 4.124 1.257 3310
3.264 4.212 1.265 3136
3.266 4.215 1.250 3319
3.377 4.358 1.272 3142
3.384 4.367 1.257 3911
3.400 4.388 1.246 4673
3.398 4.384 1.228 4695
3.409 4.399 1.215 4512
3.420 4.414 1.202 4485
3.422 4.416 1.186 3432
3.539 4.566 1.205 2830
3.669 4.735 1.227 2006
3.662 4.725 1.207 2451
3.845 4.962 1.242 2777
3.842 4.958 1.222 3426
3.849 4.967 1.205 3366
3.860 4.981 1.190 3569
3.867 4.990 1.173 3120
4.151 5.357 1.229 3384
4.144 5.347 1.207 3053
4.078 5.263 1.171 1747
4.603 5.939 1.282 1942
4.605 5.942 1.260 2761
4.727 6.099 1.267 2432
4.729 6.102 1.245 2618
4.716 6.086 1.219 2807
4.713 6.082 1.196 4203
4.720 6.091 1.174 5686
4.732 6.105 1.154 6822
4.733 6.108 1.132 4834
4.971 6.414 1.158 6593
4.973 6.417 1.135 6106
4.974 6.419 1.111 6180
4.976 6.421 1.087 6066
4.978 6.423 1.064 3553
5.457 7.041 1.127 2487
4.991 6.440 1.018 2433
5.474 7.064 1.078 1846
5.756 7.427 1.099 1724
5.762 7.436 1.073 1535
5.836 7.531 1.057 1141
5.838 7.533 1.029 920
5.762 7.436 0.990 761
5.759 7.431 0.962 858
5.765 7.439 0.935 701
5.767 7.441 0.908 455
1.238 1.595 1.547 6236
1.240 1.598 1.541 12472
1.247 1.606 1.540 12094
1.253 1.614 1.538 12268
1.256 1.618 1.533 12268
1.258 1.621 1.527 9420
1.265 1.629 1.525 6835
1.287 1.658 1.542 9241
1.290 1.661 1.536 12308
1.296 1.670 1.534 12194
1.299 1.673 1.528 12020
1.305 1.681 1.527 11845
1.308 1.685 1.521 9329
1.318 1.698 1.523 7222
1.321 1.701 1.517 5336
1.327 1.710 1.516 3535
1.334 1.718 1.514 4054
1.336 1.721 1.507 4602
1.347 1.735 1.510 6287
1.353 1.744 1.508 8487
1.360 1.752 1.506 7996
1.371 1.766 1.508 7904
1.369 1.764 1.497 7724
1.375 1.772 1.495 7658
1.378 1.775 1.489 7347
1.376 1.773 1.478 6264
1.374 1.771 1.468 4158
1.435 1.849 1.519 4125
1.442 1.857 1.516 5129
1.444 1.860 1.509 6462
1.446 1.863 1.503 7155
1.445 1.861 1.492 7698
1.447 1.864 1.485 7597
1.454 1.873 1.482 7512
1.456 1.876 1.476 6468
1.467 1.890 1.477 5600
1.469 1.893 1.470 6156
1.476 1.901 1.467 6752
1.483 1.910 1.464 5553
1.523 1.962 1.492 8191
1.538 1.982 1.496 12155
1.549 1.996 1.497 13329
1.552 1.999 1.489 12482
1.563 2.013 1.490 12598
1.565 2.016 1.482 12791
1.567 2.019 1.475 13653
1.570 2.022 1.468 12401
1.576 2.031 1.464 10197
1.574 2.028 1.453 7787
1.633 2.104 1.493 7528
1.635 2.107 1.486 7052
1.638 2.110 1.478 5215
1.640 2.113 1.470 4207
1.651 2.127 1.470 5221
1.662 2.141 1.469 8817
1.664 2.144 1.461 11649
1.667 2.147 1.454 11023
1.691 2.178 1.463 13278
1.754 2.260 1.504 20345
1.757 2.263 1.496 27017
1.759 2.267 1.488 33888
1.766 2.275 1.483 36029
1.768 2.278 1.474 34106
1.771 2.281 1.466 32833
1.773 2.284 1.458 32347
1.771 2.282 1.446 31655
1.774 2.285 1.438 29722
1.776 2.288 1.430 22863
1.787 2.302 1.428 16889
1.789 2.305 1.420 14298
1.880 2.422 1.476 9226
1.887 2.431 1.470 9227
1.894 2.440 1.464 7439
1.905 2.455 1.462 6591
1.903 2.452 1.450 7563
1.910 2.461 1.444 8775
1.917 2.469 1.438 9869
1.915 2.467 1.426 7631
1.921 2.475 1.420 4247
1.964 2.530 1.438 5824
1.971 2.539 1.432 7165
2.072 2.669 1.488 7635
2.079 2.678 1.482 8525
2.086 2.687 1.475 8733
2.084 2.685 1.462 8951
2.091 2.693 1.455 6602
2.120 2.731 1.463 4870
2.127 2.740 1.456 5682
2.138 2.755 1.451 5083
2.173 2.799 1.461 5579
2.175 2.802 1.451 5892
2.186 2.817 1.446 3609
2.216 2.855 1.452 2868
2.287 2.946 1.483 3229
2.289 2.949 1.472 4570
2.255 2.905 1.440 5479
2.294 2.955 1.450 6143
2.296 2.958 1.440 6791
2.294 2.955 1.426 5834
2.292 2.952 1.413 4641
2.317 2.985 1.415 3548
2.351 3.029 1.422 3943
2.367 3.050 1.418 7082
2.374 3.059 1.410 8341
2.427 3.127 1.426 8196
2.434 3.136 1.417 6448
2.441 3.145 1.408 5851
2.439 3.142 1.394 5301
2.441 3.145 1.383 6711
2.494 3.213 1.397 6621
2.496 3.216 1.385 4599
2.489 3.207 1.369 4939
2.510 3.234 1.367 5205
2.522 3.249 1.359 6036
2.524 3.251 1.348 4690
2.586 3.332 1.365 6454
2.589 3.335 1.353 9664
2.586 3.332 1.338 6927
2.635 3.395 1.348 3745
2.674 3.446 1.353 3048
2.672 3.442 1.338 5657
2.674 3.445 1.325 6210
2.676 3.448 1.313 3761
2.772 3.571 1.341 5472
2.769 3.568 1.326 5055
2.814 3.625 1.331 5343
2.816 3.628 1.318 7134
2.818 3.631 1.305 8208
2.825 3.639 1.294 5557
2.827 3.642 1.280 4112
2.829 3.645 1.267 4231
2.930 3.775 1.293 3756
2.927 3.771 1.277 5493
2.939 3.786 1.267 4852
3.026 3.898 1.286 4345
3.070 3.956 1.288 4990
3.087 3.977 1.279 4693
3.084 3.973 1.262 5040
3.091 3.982 1.250 4345
3.206 4.131 1.276 4594
3.199 4.121 1.257 3018
3.267 4.209 1.265 3112
3.269 4.212 1.250 3329
3.381 4.355 1.272 3039
3.388 4.364 1.257 3609
3.404 4.385 1.246 4554
3.401 4.382 1.228 4551
3.417 4.402 1.217 4488
3.424 4.411 1.202 4514
3.426 4.413 1.186 3458
3.542 4.563 1.205 2748
3.616 4.658 1.210 2017
3.651 4.704 1.202 2283
3.849 4.959 1.242 2753
3.846 4.955 1.222 3525
3.848 4.957 1.204 3566
3.859 4.972 1.188 3609
3.871 4.987 1.173 3101
4.155 5.353 1.229 3441
4.153 5.350 1.208 3132
4.087 5.266 1.172 1841
4.607 5.936 1.282 1968
4.609 5.938 1.260 2776
4.731 6.096 1.267 2459
4.733 6.098 1.245 2573
4.726 6.088 1.220 2572
4.723 6.085 1.197 3816
4.730 6.093 1.176 5388
4.736 6.102 1.154 6732
4.738 6.104 1.132 4919
4.971 6.404 1.157 6607
4.978 6.413 1.135 6048
4.979 6.415 1.111 6063
4.981 6.417 1.087 5911
4.983 6.419 1.064 3446
5.462 7.037 1.127 2361
4.996 6.436 1.018 2309
5.480 7.060 1.078 1861
5.762 7.423 1.099 1564
5.768 7.431 1.073 1336
5.842 7.527 1.057 1086
5.844 7.529 1.029 922
5.802 7.475 0.995 643
5.765 7.427 0.962 689
5.771 7.435 0.935 579
5.772 7.437 0.908 400
5.851 7.538 0.891 250
1.239 1.593 1.547 6374
1.242 1.596 1.541 12749
1.248 1.605 1.540 12237
1.255 1.613 1.538 12313
1.257 1.616 1.533 12313
1.264 1.625 1.531 9667
1.266 1.628 1.525 7239
1.289 1.657 1.542 9450
1.287 1.655 1.532 12431
1.298 1.668 1.534 12116
1.300 1.672 1.528 11883
1.303 1.675 1.522 11651
1.309 1.683 1.521 9242
1.320 1.697 1.523 7504
1.327 1.705 1.522 5645
1.329 1.708 1.516 3845
1.336 1.717 1.514 4153
1.338 1.720 1.507 4480
1.345 1.728 1.506 6042
1.355 1.742 1.508 8116
1.362 1.750 1.506 7741
1.372 1.764 1.508 7873
1.375 1.767 1.502 7767
1.377 1.770 1.495 7726
1.380 1.774 1.489 7367
1.378 1.771 1.478 6342
1.376 1.769 1.468 4247
1.437 1.847 1.519 4223
1.444 1.856 1.516 5195
1.446 1.859 1.509 6723
1.448 1.862 1.503 7722
1.447 1.860 1.492 8545
1.449 1.863 1.485 8161
1.456 1.871 1.482 7779
1.458 1.874 1.476 6487
1.469 1.888 1.477 5463
1.476 1.897 1.474 6097
1.478 1.900 1.467 6780
1.485 1.908 1.464 5621
1.525 1.961 1.492 8475
1.540 1.980 1.496 12402
1.551 1.994 1.497 13503
1.558 2.003 1.493 12593
1.565 2.011 1.490 12914
1.567 2.014 1.482 13206
1.569 2.018 1.475 13871
1.572 2.021 1.468 12455
1.579 2.029 1.464 10197
1.577 2.027 1.453 7863
1.635 2.102 1.493 7587
1.637 2.105 1.486 7238
1.640 2.108 1.478 5392
1.642 2.111 1.470 4086
1.653 2.125 1.470 4792
1.664 2.140 1.469 8387
1.667 2.143 1.461 11644
1.669 2.146 1.454 11292
1.693 2.177 1.463 14067
1.757 2.258 1.504 20000
1.759 2.262 1.496 26504
1.762 2.265 1.488 33194
1.769 2.273 1.483 34953
1.771 2.276 1.474 32790
1.773 2.280 1.466 31898
1.776 2.283 1.458 31704
1.774 2.280 1.446 30665
1.776 2.283 1.438 28599
1.783 2.292 1.433 21747
1.789 2.300 1.428 16260
1.796 2.309 1.423 13921
1.887 2.426 1.479 9555
1.890 2.429 1.470 9579
1.897 2.438 1.464 7724
1.903 2.447 1.459 6375
1.906 2.450 1.450 7101
1.917 2.464 1.447 8431
1.919 2.467 1.438 9463
1.922 2.470 1.429 7207
1.924 2.473 1.420 4081
1.967 2.528 1.438 6116
1.974 2.537 1.432 6875
2.075 2.667 1.488 7046
2.082 2.676 1.482 7919
2.089 2.685 1.475 8099
2.087 2.682 1.462 8260
2.094 2.691 1.455 6016
2.119 2.723 1.460 4317
2.134 2.744 1.458 4922
2.141 2.753 1.451 4508
2.171 2.791 1.458 5559
2.173 2.794 1.448 6348
2.171 2.791 1.435 3598
2.278 2.929 1.488 2573
2.290 2.944 1.483 3193
2.247 2.888 1.445 4132
2.258 2.903 1.440 5674
2.297 2.953 1.450 7031
2.299 2.956 1.440 7368
2.297 2.953 1.426 5557
2.295 2.950 1.413 4145
2.315 2.976 1.412 3307
2.350 3.021 1.419 4433
2.366 3.042 1.416 6825
2.378 3.056 1.410 8029
2.431 3.124 1.426 7861
2.438 3.133 1.417 6315
2.444 3.142 1.408 5999
2.442 3.139 1.394 5521
2.444 3.142 1.383 7249
2.498 3.211 1.397 7017
2.500 3.213 1.385 5078
2.493 3.204 1.369 5384
2.518 3.237 1.369 6015
2.525 3.246 1.359 6577
2.527 3.249 1.348 4753
2.590 3.329 1.365 6116
2.592 3.332 1.353 9271
2.590 3.329 1.338 7138
2.587 3.326 1.324 3894
2.673 3.437 1.350 3253
2.676 3.439 1.338 5803
2.678 3.442 1.325 6083
2.680 3.445 1.313 3778
2.781 3.574 1.343 6491
2.792 3.589 1.334 5805
2.818 3.622 1.331 6130
2.820 3.625 1.318 8106
2.822 3.628 1.305 9091
2.824 3.630 1.292 6716
2.826 3.633 1.278 5150
2.833 3.642 1.267 4700
2.934 3.772 1.293 3885
2.927 3.762 1.276 5416
2.943 3.783 1.267 4726
3.030 3.895 1.286 4693
3.070 3.946 1.286 5149
3.096 3.979 1.281 4593
3.088 3.970 1.262 4795
3.095 3.978 1.250 4075
3.211 4.127 1.276 4452
3.208 4.124 1.259 2731
3.272 4.206 1.265 3167
3.274 4.209 1.250 3484
3.385 4.352 1.272 2896
3.406 4.379 1.262 3323
3.408 4.381 1.246 4476
3.406 4.378 1.228 4538
3.422 4.399 1.217 4573
3.429 4.407 1.202 4528
3.431 4.410 1.186 3458
3.547 4.560 1.205 2678
3.621 4.654 1.210 2127
3.651 4.694 1.201 2443
3.849 4.948 1.240 2726
3.847 4.945 1.221 3621
3.853 4.953 1.204 3719
3.865 4.968 1.188 3682
3.876 4.983 1.173 3194
4.161 5.349 1.229 3510
4.158 5.345 1.208 3267
4.098 5.268 1.173 1963
4.614 5.931 1.282 2014
4.616 5.933 1.260 2779
4.733 6.084 1.266 2542
4.735 6.087 1.244 2651
4.732 6.083 1.220 2521
4.729 6.080 1.197 3480
4.736 6.088 1.176 5077
4.743 6.097 1.154 6596
4.745 6.099 1.132 5032
4.978 6.399 1.157 6594
4.984 6.407 1.135 5974
4.986 6.410 1.111 5927
4.983 6.406 1.087 5718
4.985 6.408 1.063 3340
5.470 7.031 1.127 2237
5.003 6.431 1.018 2216
5.487 7.054 1.078 1871
5.770 7.417 1.099 1383
5.776 7.425 1.073 1128
5.850 7.520 1.057 1070
5.852 7.522 1.029 960
5.810 7.469 0.995 609
5.797 7.452 0.965 549
5.784 7.435 0.936 456
5.858 7.530 0.918 396
5.859 7.532 0.891 271
1.241 1.592 1.547 6331
1.243 1.595 1.541 12663
1.250 1.604 1.540 12065
1.256 1.612 1.538 12060
1.259 1.615 1.533 12060
1.265 1.624 1.531 9742
1.268 1.627 1.525 7573
1.274 1.635 1.524 9711
1.285 1.649 1.527 12407
1.299 1.667 1.534 11696
1.302 1.670 1.528 11408
1.304 1.674 1.522 11121
1.311 1.682 1.521 8870
1.326 1.701 1.528 7562
1.328 1.704 1.522 5769
1.335 1.712 1.520 3992
1.337 1.716 1.514 4151
1.340 1.719 1.507 4310
1.346 1.727 1.506 5771
1.353 1.736 1.504 7637
1.363 1.749 1.506 7353
1.374 1.763 1.508 7655
1.376 1.766 1.502 7590
1.379 1.769 1.495 7524
1.381 1.772 1.489 7131
1.380 1.770 1.478 6173
1.432 1.837 1.521 4313
1.438 1.846 1.519 4232
1.441 1.849 1.512 5171
1.448 1.857 1.509 6860
1.446 1.855 1.499 8161
1.448 1.858 1.492 9184
1.451 1.861 1.485 8551
1.453 1.865 1.478 7918
1.460 1.873 1.476 6420
