1.557 1.343 1.548 9435
1.561 1.346 1.542 9592
1.569 1.353 1.540 8299
1.582 1.364 1.543 7056
1.604 1.384 1.555 6863
1.612 1.391 1.554 7996
1.616 1.393 1.548 7996
1.619 1.396 1.542 7318
1.617 1.394 1.531 6665
1.625 1.401 1.530 4863
1.718 1.482 1.602 3271
1.636 1.411 1.522 4175
1.644 1.418 1.520 5343
1.657 1.429 1.522 6632
1.660 1.432 1.516 7975
1.678 1.448 1.523 6001
1.752 1.511 1.576 8718
1.761 1.518 1.573 11061
1.759 1.517 1.563 11418
1.741 1.502 1.539 14064
1.770 1.526 1.554 15604
1.773 1.529 1.547 19706
1.781 1.536 1.544 17970
1.784 1.539 1.538 16351
1.777 1.533 1.523 12295
1.775 1.531 1.512 8073
1.804 1.556 1.526 7314
1.822 1.572 1.531 9819
1.826 1.574 1.524 11585
1.829 1.577 1.517 9463
1.847 1.593 1.522 7640
1.861 1.605 1.523 8379
1.869 1.612 1.520 10150
1.877 1.619 1.517 10911
1.880 1.622 1.510 11703
1.888 1.629 1.507 11343
1.902 1.640 1.507 9074
1.926 1.661 1.515 7390
1.934 1.668 1.512 9678
1.943 1.675 1.508 12368
1.951 1.682 1.505 11785
1.970 1.699 1.509 12267
1.978 1.706 1.505 12967
1.986 1.713 1.501 14611
1.995 1.720 1.497 15726
1.992 1.718 1.486 14253
2.011 1.735 1.490 12700
2.025 1.746 1.489 14717
2.028 1.749 1.482 14116
2.031 1.751 1.474 9908
2.050 1.768 1.477 6645
2.053 1.770 1.469 6374
2.061 1.777 1.465 7469
2.064 1.780 1.457 8915
2.067 1.783 1.449 7596
2.167 1.869 1.504 11090
2.170 1.871 1.496 13085
2.173 1.874 1.488 14098
2.187 1.886 1.486 12382
2.200 1.898 1.485 11471
2.203 1.900 1.476 9778
2.228 1.922 1.481 10521
2.231 1.924 1.473 10865
2.234 1.927 1.464 9705
2.242 1.934 1.459 9624
2.251 1.941 1.454 8000
2.243 1.934 1.439 6829
2.256 1.946 1.437 5661
2.320 2.001 1.464 5203
2.334 2.013 1.461 5201
2.347 2.025 1.459 3586
2.383 2.056 1.468 2573
2.331 2.011 1.428 3363
2.329 2.008 1.416 4260
2.387 2.058 1.438 7187
2.395 2.066 1.432 11344
2.409 2.078 1.429 10120
2.417 2.085 1.423 7609
2.420 2.087 1.414 6476
2.423 2.090 1.405 6279
2.442 2.106 1.404 7160
2.468 2.128 1.407 10009
2.482 2.140 1.403 13207
2.490 2.147 1.397 12600
2.498 2.155 1.390 10321
2.495 2.152 1.378 6325
2.521 2.174 1.379 3704
2.551 2.200 1.384 6046
2.554 2.203 1.374 7448
2.579 2.224 1.375 8479
2.588 2.232 1.368 8397
2.607 2.249 1.367 4731
2.650 2.285 1.375 5929
2.664 2.297 1.371 6575
2.666 2.299 1.361 5127
2.680 2.312 1.356 6279
2.689 2.319 1.348 7652
2.691 2.321 1.338 7736
2.756 2.377 1.356 8881
2.759 2.379 1.345 8965
2.762 2.382 1.335 6929
2.798 2.413 1.339 6783
2.818 2.431 1.336 6877
2.827 2.438 1.328 5454
2.858 2.465 1.329 5565
2.855 2.462 1.316 6376
2.874 2.479 1.312 4828
2.917 2.516 1.317 5494
2.931 2.528 1.311 3627
2.951 2.545 1.307 3602
2.948 2.542 1.293 5353
3.031 2.614 1.314 5509
3.028 2.611 1.300 3907
3.030 2.613 1.288 2926
3.050 2.630 1.283 4834
3.075 2.652 1.281 5082
3.090 2.664 1.273 7575
3.098 2.672 1.263 8258
3.158 2.724 1.273 6570
3.166 2.731 1.263 8298
3.180 2.743 1.255 7107
3.194 2.755 1.247 6555
3.191 2.752 1.233 4278
3.263 2.814 1.244 6893
3.266 2.816 1.232 6960
3.268 2.818 1.220 5679
3.311 2.856 1.221 5649
3.313 2.858 1.208 4886
3.333 2.875 1.201 4585
3.341 2.882 1.190 4371
3.431 2.959 1.205 4226
3.433 2.961 1.192 5129
3.442 2.968 1.181 4937
3.438 2.965 1.166 5124
3.569 3.078 1.191 4131
3.577 3.085 1.179 4575
3.603 3.107 1.172 4335
3.611 3.114 1.160 4324
3.619 3.121 1.148 4121
3.774 3.255 1.177 3940
3.776 3.257 1.162 4545
3.790 3.269 1.151 3921
3.845 3.316 1.151 3289
3.853 3.323 1.138 3809
3.879 3.345 1.129 5496
3.899 3.363 1.119 7284
3.895 3.359 1.102 5740
3.897 3.361 1.087 4784
3.911 3.373 1.075 3591
4.114 3.548 1.108 2580
4.116 3.550 1.093 3566
4.171 3.597 1.089 4255
4.191 3.614 1.077 4508
4.217 3.637 1.066 5822
4.225 3.643 1.052 4968
4.404 3.798 1.073 3123
4.412 3.805 1.058 3488
4.438 3.827 1.046 3619
4.446 3.834 1.030 3282
4.448 3.836 1.013 3924
4.479 3.863 1.002 3986
4.487 3.870 0.986 4637
4.495 3.877 0.970 5207
4.520 3.899 0.957 3946
4.891 4.218 1.006 2204
4.702 4.055 0.954 3461
4.692 4.047 0.934 3366
4.866 4.197 0.945 2662
4.934 4.255 0.937 2476
4.941 4.262 0.919 2802
5.265 4.540 0.950 3056
5.266 4.542 0.930 4306
5.256 4.533 0.908 4946
5.258 4.534 0.888 4361
5.259 4.536 0.867 2855
5.523 4.764 0.883 2104
5.543 4.780 0.864 2440
5.312 4.581 0.813 2241
5.313 4.582 0.793 1951
5.548 4.784 0.801 2119
6.063 5.229 0.839 2511
6.058 5.225 0.815 3265
6.048 5.216 0.791 2999
6.139 5.294 0.777 2865
6.146 5.301 0.754 3224
6.058 5.224 0.722 3787
6.059 5.225 0.698 5521
6.060 5.226 0.675 4380
6.061 5.227 0.652 2906
6.056 5.223 0.628 2756
6.058 5.224 0.605 2065
7.034 6.067 0.654 1633
7.029 6.062 0.626 1977
7.024 6.058 0.599 1772
6.983 6.023 0.570 1749
6.984 6.024 0.543 1513
6.985 6.024 0.516 1045
7.130 6.149 0.496 355
7.119 6.139 0.469 319
0.678 0.585 0.115 287
0.684 0.590 0.112 294
0.684 0.590 0.110 289
0.684 0.590 0.107 291
0.684 0.590 0.105 269
1.502 1.290 1.519 6089
1.505 1.293 1.513 12179
1.552 1.333 1.549 9397
1.560 1.340 1.548 10459
1.563 1.343 1.542 10645
1.566 1.346 1.536 9099
1.569 1.348 1.530 7554
1.607 1.381 1.555 6762
1.615 1.388 1.554 8102
1.618 1.390 1.548 8102
1.621 1.393 1.542 7869
1.620 1.391 1.531 7706
1.628 1.398 1.530 6305
1.631 1.401 1.523 4974
1.624 1.395 1.509 5091
1.627 1.397 1.503 5384
1.635 1.404 1.501 5557
1.643 1.411 1.499 5963
1.646 1.414 1.493 5931
1.755 1.508 1.576 8624
1.763 1.515 1.573 11081
1.762 1.513 1.563 11205
1.744 1.499 1.539 12513
1.773 1.523 1.554 14756
1.776 1.526 1.547 18230
1.784 1.533 1.544 16682
1.787 1.536 1.538 15191
1.790 1.538 1.531 11769
1.804 1.550 1.532 7961
1.812 1.557 1.530 8660
1.826 1.568 1.531 11020
1.829 1.571 1.524 12521
1.832 1.574 1.517 10474
1.835 1.576 1.510 8427
1.864 1.601 1.523 8449
1.877 1.613 1.524 10127
1.880 1.615 1.517 10558
1.883 1.618 1.510 10988
1.892 1.625 1.507 10644
1.910 1.641 1.511 8896
1.924 1.653 1.511 7830
1.937 1.664 1.512 10520
1.946 1.672 1.508 13737
1.954 1.679 1.505 13137
1.968 1.690 1.505 13464
1.976 1.697 1.501 13644
1.990 1.709 1.501 14963
1.998 1.716 1.497 16088
1.996 1.714 1.486 14557
2.015 1.731 1.490 12838
2.028 1.742 1.489 15134
2.031 1.745 1.482 14295
2.039 1.752 1.478 9784
2.053 1.764 1.477 6631
2.094 1.799 1.494 6494
2.064 1.774 1.465 7658
2.067 1.776 1.457 8863
2.070 1.779 1.449 7693
2.165 1.860 1.500 10600
2.173 1.867 1.496 12172
2.176 1.870 1.488 12942
2.190 1.882 1.486 12071
2.204 1.893 1.485 11467
2.207 1.896 1.476 10090
2.232 1.917 1.481 10706
2.235 1.920 1.473 11061
2.243 1.927 1.468 10194
2.251 1.934 1.463 10170
2.254 1.937 1.454 8468
2.246 1.930 1.439 6779
2.260 1.942 1.437 5362
2.324 1.996 1.464 5121
2.337 2.008 1.461 5047
2.357 2.025 1.462 3760
2.387 2.051 1.468 2752
2.335 2.006 1.428 3085
2.332 2.004 1.416 3887
2.402 2.063 1.444 6974
2.410 2.070 1.438 11375
2.419 2.078 1.432 11105
2.421 2.080 1.423 8553
2.430 2.087 1.417 6564
2.433 2.090 1.408 5771
2.447 2.102 1.404 7151
2.466 2.119 1.404 10478
2.480 2.131 1.400 12623
2.494 2.143 1.397 11486
2.502 2.150 1.390 9724
2.505 2.152 1.381 6098
2.508 2.154 1.371 3234
2.567 2.205 1.389 4801
2.564 2.203 1.377 6275
2.584 2.220 1.375 8676
2.592 2.227 1.368 8797
2.612 2.244 1.367 5186
2.654 2.280 1.375 5705
2.668 2.292 1.371 6490
2.671 2.294 1.361 6062
2.679 2.301 1.353 8366
2.687 2.309 1.346 9393
2.696 2.316 1.338 8581
2.761 2.372 1.356 9094
2.764 2.374 1.345 9644
2.766 2.376 1.335 7204
2.803 2.408 1.339 7447
2.817 2.420 1.333 7594
2.831 2.432 1.328 5589
2.834 2.434 1.317 5360
2.842 2.442 1.308 6018
2.845 2.444 1.298 4478
2.922 2.510 1.317 5306
2.942 2.527 1.313 3695
2.950 2.534 1.304 3317
2.935 2.522 1.286 5081
3.036 2.608 1.314 4709
3.038 2.610 1.302 3234
3.052 2.622 1.295 3638
3.055 2.624 1.283 6052
3.069 2.637 1.276 5634
3.095 2.659 1.273 7004
3.103 2.666 1.263 7873
3.169 2.722 1.275 6577
3.172 2.725 1.263 8853
3.186 2.737 1.255 7666
3.200 2.749 1.247 6764
3.202 2.751 1.235 4326
3.269 2.808 1.244 5175
3.271 2.810 1.232 6224
3.273 2.812 1.220 5506
3.311 2.844 1.219 5377
3.313 2.846 1.206 4786
3.374 2.898 1.212 4299
3.341 2.870 1.188 4388
3.431 2.947 1.203 3359
3.439 2.955 1.192 5013
3.447 2.962 1.181 5475
3.450 2.964 1.167 5556
3.563 3.061 1.187 4143
3.577 3.073 1.177 5206
3.603 3.095 1.171 4150
3.623 3.112 1.162 3658
3.643 3.129 1.153 3922
3.768 3.237 1.173 4287
3.777 3.244 1.161 4614
3.785 3.251 1.148 3976
3.858 3.314 1.152 3325
3.866 3.321 1.139 4203
3.886 3.338 1.129 5868
3.899 3.350 1.117 7249
3.902 3.352 1.102 5609
3.910 3.359 1.089 4726
3.924 3.371 1.077 3530
4.121 3.540 1.108 2543
4.117 3.537 1.091 3202
4.178 3.589 1.089 4381
4.186 3.596 1.074 4565
4.224 3.628 1.066 5568
4.226 3.630 1.050 4787
4.411 3.790 1.073 3111
4.443 3.817 1.063 3362
4.451 3.824 1.047 3675
4.453 3.826 1.030 3405
4.461 3.832 1.014 3949
4.487 3.854 1.002 3946
4.495 3.861 0.986 4831
4.502 3.868 0.970 5673
4.522 3.885 0.956 3919
4.893 4.203 1.005 2128
4.710 4.046 0.954 3345
4.700 4.038 0.934 3311
4.785 4.111 0.930 2965
4.793 4.117 0.912 2599
4.950 4.252 0.919 2878
5.279 4.535 0.951 2402
5.275 4.532 0.930 3654
5.265 4.523 0.908 4453
5.267 4.524 0.888 3973
5.268 4.526 0.867 2662
5.533 4.753 0.883 1952
5.319 4.570 0.834 2315
5.321 4.571 0.813 2265
5.322 4.572 0.793 1904
6.077 5.221 0.863 2340
6.073 5.217 0.839 2987
6.062 5.208 0.814 3952
6.058 5.204 0.791 3521
6.155 5.288 0.777 3239
6.162 5.294 0.755 3696
6.068 5.213 0.722 3731
6.069 5.214 0.698 5753
6.070 5.215 0.675 4797
6.071 5.216 0.652 3305
6.067 5.212 0.628 3020
6.068 5.213 0.605 2160
6.075 5.219 0.582 1549
7.047 6.054 0.627 1847
7.042 6.050 0.599 1651
6.995 6.009 0.570 1603
6.996 6.010 0.543 1390
6.997 6.011 0.516 957
6.998 6.012 0.489 307
7.124 6.120 0.468 271
0.679 0.583 0.115 281
0.685 0.589 0.112 288
0.685 0.588 0.110 283
0.685 0.588 0.107 283
0.685 0.588 0.105 261
1.510 1.290 1.523 6480
1.514 1.293 1.518 12960
1.556 1.329 1.549 10240
1.559 1.331 1.543 11441
1.567 1.338 1.542 11655
1.570 1.341 1.536 9987
1.573 1.344 1.530 8319
1.576 1.346 1.524 7081
1.619 1.383 1.554 8443
1.622 1.386 1.548 8443
1.620 1.384 1.537 8474
1.624 1.387 1.531 8645
1.632 1.394 1.530 8018
1.640 1.400 1.528 7611
1.633 1.394 1.513 6623
1.631 1.393 1.503 6267
1.634 1.395 1.496 5430
1.758 1.502 1.593 5087
1.756 1.500 1.582 5518
1.765 1.507 1.580 8354
1.768 1.510 1.573 10856
1.771 1.513 1.567 10931
1.754 1.498 1.543 11261
1.777 1.518 1.554 13476
1.786 1.525 1.551 15987
1.789 1.528 1.544 14663
1.797 1.535 1.542 13436
1.800 1.537 1.535 10912
1.813 1.549 1.536 8698
1.822 1.556 1.534 9661
1.825 1.559 1.527 12203
1.828 1.561 1.520 13661
1.836 1.568 1.517 11595
1.839 1.571 1.510 9581
1.868 1.596 1.523 8550
1.882 1.607 1.524 10199
1.885 1.610 1.517 10326
1.888 1.612 1.510 10453
1.896 1.620 1.507 10089
1.920 1.640 1.515 9166
1.929 1.647 1.511 8161
1.942 1.659 1.512 10694
1.951 1.666 1.508 14133
1.959 1.673 1.505 13540
1.973 1.685 1.505 13837
1.981 1.692 1.501 13547
1.994 1.703 1.501 14541
2.003 1.711 1.497 15680
2.001 1.709 1.486 14038
2.020 1.725 1.490 12668
2.033 1.736 1.489 15325
2.036 1.739 1.482 14353
2.045 1.746 1.478 9652
2.064 1.762 1.481 6548
2.099 1.793 1.494 7469
2.102 1.795 1.486 7943
2.067 1.765 1.454 8762
2.075 1.773 1.449 7855
2.170 1.854 1.500 9711
2.179 1.861 1.496 10933
2.187 1.868 1.491 11587
2.201 1.880 1.490 11596
2.204 1.882 1.481 11104
2.212 1.890 1.476 10051
2.232 1.906 1.478 10731
2.240 1.913 1.473 11389
2.243 1.916 1.464 10759
2.257 1.928 1.463 10563
2.260 1.930 1.454 8822
2.252 1.923 1.439 6680
2.266 1.935 1.437 4890
2.329 1.989 1.464 4811
2.343 2.001 1.461 4946
2.363 2.018 1.462 4176
2.388 2.039 1.465 3455
2.391 2.042 1.456 3650
2.405 2.054 1.453 4676
2.413 2.061 1.447 7182
2.416 2.063 1.438 11329
2.425 2.071 1.432 12032
2.433 2.078 1.426 9543
2.447 2.090 1.423 7024
2.450 2.092 1.414 6107
2.453 2.095 1.404 7930
2.472 2.111 1.404 11962
2.486 2.123 1.400 13457
2.500 2.135 1.397 11899
2.509 2.143 1.390 10827
2.511 2.145 1.381 8689
2.514 2.147 1.371 5633
2.573 2.198 1.389 4238
2.582 2.205 1.382 5358
2.590 2.212 1.375 8521
2.598 2.219 1.368 8830
2.612 2.231 1.364 5383
2.660 2.272 1.375 5421
2.669 2.279 1.368 6160
2.677 2.287 1.361 6405
2.686 2.294 1.353 10042
2.694 2.301 1.346 11726
2.702 2.308 1.338 9905
2.768 2.364 1.356 9411
2.776 2.371 1.348 10289
2.779 2.373 1.337 7996
2.810 2.400 1.339 8201
2.824 2.412 1.333 8152
2.833 2.419 1.325 5687
2.835 2.421 1.314 5713
2.832 2.419 1.301 6610
2.835 2.421 1.291 4861
2.941 2.511 1.322 4719
2.949 2.519 1.313 3918
2.952 2.521 1.302 3309
2.937 2.508 1.284 4967
3.043 2.599 1.314 4018
3.069 2.621 1.311 3378
3.066 2.618 1.297 4852
3.068 2.621 1.286 7253
3.077 2.628 1.276 6588
3.102 2.650 1.273 6187
3.111 2.657 1.263 6462
3.171 2.708 1.273 6625
3.174 2.710 1.261 9153
3.188 2.723 1.253 8049
3.202 2.735 1.245 6951
3.210 2.742 1.235 4572
3.271 2.793 1.242 4243
3.273 2.796 1.230 5568
3.281 2.803 1.220 4894
3.319 2.835 1.219 4900
3.315 2.832 1.204 4795
3.347 2.859 1.201 3717
3.349 2.861 1.188 4505
3.381 2.888 1.185 3322
3.459 2.955 1.195 4014
3.450 2.947 1.179 5495
3.458 2.954 1.167 5891
3.466 2.960 1.156 4496
3.586 3.063 1.177 6191
3.606 3.080 1.169 4359
3.638 3.107 1.164 3174
3.652 3.119 1.153 3860
3.766 3.216 1.170 4989
3.780 3.228 1.159 4834
3.788 3.235 1.146 4039
3.879 3.313 1.155 3274
3.881 3.315 1.141 4401
3.901 3.332 1.130 5944
3.909 3.339 1.117 7061
4.018 3.431 1.129 5753
4.026 3.438 1.115 4924
3.939 3.364 1.078 3611
4.089 3.493 1.098 3177
4.091 3.494 1.083 3475
4.194 3.582 1.090 4423
4.196 3.584 1.074 4795
4.335 3.702 1.089 5667
4.236 3.618 1.050 4336
4.416 3.772 1.072 3029
4.419 3.774 1.055 3082
4.468 3.816 1.048 3562
4.464 3.813 1.030 3574
4.466 3.814 1.013 4107
4.498 3.841 1.002 3799
4.512 3.853 0.987 4939
4.514 3.855 0.970 5860
4.527 3.867 0.955 3824
4.613 3.939 0.953 2392
4.722 4.033 0.954 2864
4.783 4.085 0.946 3208
4.797 4.097 0.930 3452
4.805 4.104 0.912 3071
4.956 4.233 0.918 2888
4.969 4.244 0.901 2233
5.276 4.506 0.928 2770
5.278 4.508 0.908 3565
5.280 4.509 0.888 3298
5.365 4.582 0.879 3411
5.361 4.578 0.858 2417
5.338 4.559 0.834 2441
5.334 4.555 0.813 2310
6.084 5.197 0.885 2073
6.092 5.203 0.863 2628
6.088 5.199 0.839 3314
6.077 5.190 0.814 4542
6.073 5.186 0.791 4042
6.182 5.280 0.779 3637
6.190 5.286 0.756 4221
6.089 5.200 0.722 3580
6.084 5.196 0.698 5833
6.085 5.197 0.675 5090
6.086 5.198 0.652 3623
6.082 5.194 0.628 3172
6.083 5.195 0.605 2163
6.090 5.201 0.582 1570
7.064 6.034 0.627 1694
7.060 6.029 0.599 1485
7.012 5.989 0.570 1381
7.013 5.990 0.543 1205
7.014 5.991 0.516 829
7.015 5.991 0.489 263
0.681 0.581 0.115 266
0.687 0.587 0.112 273
0.687 0.587 0.110 268
0.687 0.586 0.107 269
1.519 1.290 1.528 6708
1.522 1.293 1.522 13417
1.555 1.320 1.544 10929
1.563 1.327 1.543 12357
1.571 1.334 1.542 12555
1.574 1.337 1.536 10792
1.577 1.339 1.530 9029
1.580 1.342 1.524 7374
1.623 1.378 1.554 8894
1.626 1.381 1.548 8894
1.624 1.379 1.537 9099
1.627 1.382 1.531 9350
1.636 1.389 1.530 9337
1.644 1.396 1.528 9613
1.642 1.394 1.517 8549
1.640 1.392 1.507 7690
1.643 1.395 1.501 5947
1.762 1.497 1.593 4881
1.761 1.495 1.582 5228
1.769 1.502 1.580 7913
1.777 1.509 1.578 10347
1.775 1.508 1.567 10370
1.778 1.510 1.560 10415
1.782 1.513 1.554 11623
1.790 1.520 1.551 12957
1.798 1.527 1.548 11996
1.801 1.530 1.542 11204
1.810 1.537 1.539 9725
1.823 1.548 1.540 8732
1.826 1.551 1.534 10134
1.829 1.553 1.527 12990
1.832 1.556 1.520 14445
1.835 1.559 1.513 12385
1.844 1.566 1.510 10439
1.868 1.586 1.519 8603
1.886 1.602 1.524 10205
1.889 1.605 1.517 10077
1.892 1.607 1.510 9950
1.906 1.619 1.510 9632
1.925 1.635 1.515 9168
1.933 1.642 1.511 8110
1.947 1.653 1.512 9883
1.955 1.660 1.508 12843
1.964 1.668 1.505 12174
1.977 1.679 1.505 12316
1.991 1.691 1.505 12113
1.999 1.698 1.501 13403
2.008 1.705 1.497 14648
2.011 1.708 1.490 12751
2.030 1.724 1.493 11863
2.043 1.735 1.493 14669
2.041 1.733 1.482 13534
2.055 1.745 1.481 8980
2.085 1.770 1.491 6802
2.104 1.787 1.494 8328
2.107 1.789 1.486 8740
2.077 1.764 1.457 8141
2.080 1.767 1.449 7621
2.175 1.848 1.500 8672
2.184 1.855 1.496 9610
2.192 1.862 1.491 10136
2.206 1.874 1.490 10773
2.209 1.876 1.481 10416
2.218 1.883 1.476 9619
2.237 1.900 1.478 10528
2.246 1.907 1.473 11438
2.249 1.910 1.464 10877
2.257 1.917 1.459 10530
2.265 1.924 1.454 8833
2.252 1.912 1.436 6244
2.266 1.924 1.434 3866
2.340 1.988 1.467 4474
2.354 1.999 1.464 4958
2.368 2.011 1.462 4682
2.388 2.028 1.462 4309
2.396 2.035 1.456 5136
2.399 2.038 1.447 6322
2.419 2.054 1.447 7327
2.427 2.061 1.441 11046
2.430 2.064 1.432 12453
2.439 2.071 1.426 10122
2.458 2.088 1.426 7482
2.461 2.090 1.417 6782
2.464 2.093 1.407 8739
2.478 2.105 1.404 13751
2.492 2.116 1.400 15492
2.506 2.128 1.397 13166
2.515 2.136 1.390 12090
2.517 2.138 1.381 10492
2.526 2.145 1.374 6831
2.579 2.190 1.389 4266
2.588 2.198 1.382 5189
2.596 2.205 1.375 8217
2.605 2.212 1.368 8683
2.619 2.224 1.364 5564
2.661 2.260 1.373 5155
2.675 2.272 1.368 5632
2.684 2.279 1.361 6129
2.692 2.286 1.353 10761
2.700 2.293 1.346 13137
2.709 2.300 1.338 11055
2.780 2.361 1.358 10121
2.783 2.363 1.348 10935
2.785 2.366 1.337 9166
2.817 2.392 1.339 9063
2.831 2.404 1.333 8428
2.839 2.411 1.325 5651
2.842 2.413 1.314 6251
2.839 2.411 1.301 7311
2.841 2.413 1.291 5078
2.953 2.508 1.324 4344
2.956 2.510 1.313 4371
2.953 2.508 1.300 3576
2.938 2.495 1.282 4669
2.946 2.502 1.273 3588
3.076 2.612 1.311 3788
3.079 2.615 1.299 6090
3.076 2.612 1.286 8158
3.084 2.619 1.276 7476
3.104 2.636 1.271 5537
3.118 2.648 1.263 4556
3.179 2.699 1.273 6792
3.181 2.702 1.261 9356
3.195 2.714 1.253 7975
3.209 2.726 1.245 6893
3.224 2.738 1.237 4780
3.261 2.769 1.236 5101
3.269 2.776 1.226 5794
3.289 2.793 1.220 5553
3.321 2.820 1.217 4931
3.323 2.822 1.204 4702
3.355 2.849 1.201 3562
3.363 2.856 1.190 4836
3.377 2.868 1.181 3719
3.397 2.885 1.174 3785
3.452 2.932 1.177 5277
3.466 2.944 1.167 6075
3.475 2.951 1.156 5132
3.595 3.053 1.177 7014
3.603 3.060 1.165 4788
3.705 3.147 1.180 2804
3.684 3.129 1.160 4002
3.775 3.206 1.170 5762
3.777 3.208 1.156 5077
3.791 3.220 1.145 3698
3.894 3.307 1.157 3350
3.890 3.304 1.141 4373
3.910 3.321 1.130 5962
3.918 3.328 1.117 6839
4.027 3.420 1.129 6183
4.035 3.427 1.115 5177
3.960 3.363 1.081 3711
4.099 3.481 1.098 3937
4.101 3.483 1.083 3880
4.204 3.571 1.090 4366
4.206 3.572 1.074 4742
4.345 3.690 1.089 5982
4.342 3.687 1.071 4215
4.427 3.760 1.072 2948
4.501 3.822 1.070 3069
4.491 3.814 1.051 3533
4.475 3.800 1.030 3609
4.477 3.802 1.013 3945
4.592 3.900 1.018 3616
4.522 3.841 0.987 4718
4.524 3.842 0.970 5504
4.532 3.849 0.954 3543
4.785 4.064 0.981 2739
4.787 4.065 0.963 3091
4.795 4.072 0.946 3538
4.808 4.084 0.930 3731
4.810 4.085 0.911 3399
5.129 4.356 0.943 3052
5.131 4.358 0.924 2269
5.277 4.481 0.926 2294
5.284 4.488 0.907 2924
5.376 4.566 0.900 3308
5.378 4.567 0.879 4168
5.373 4.563 0.858 2944
5.357 4.549 0.835 2507
5.353 4.546 0.814 2310
6.099 5.180 0.885 2189
6.101 5.181 0.862 2823
6.096 5.177 0.838 3504
6.092 5.173 0.814 4858
6.087 5.169 0.791 4366
6.209 5.273 0.780 4059
6.210 5.274 0.756 4726
6.206 5.270 0.732 3577
6.105 5.184 0.699 5621
6.100 5.180 0.675 5058
6.101 5.181 0.652 3680
6.096 5.177 0.628 3099
6.200 5.265 0.613 2021
6.104 5.184 0.582 1453
7.087 6.019 0.627 1511
7.076 6.010 0.599 1283
7.029 5.969 0.570 1154
7.024 5.965 0.542 1028
7.025 5.966 0.516 712
0.682 0.580 0.115 253
0.682 0.580 0.112 251
1.846 1.568 -0.152 262
1.522 1.286 1.528 6932
1.525 1.289 1.522 13865
1.558 1.317 1.544 11728
1.566 1.323 1.543 13296
1.574 1.330 1.542 13436
1.577 1.333 1.536 11745
1.580 1.335 1.530 10055
1.583 1.338 1.524 8060
1.621 1.370 1.549 8830
1.624 1.373 1.543 8830
1.628 1.376 1.537 9435
1.631 1.378 1.531 10040
1.639 1.385 1.530 10281
1.642 1.388 1.523 10737
1.645 1.390 1.517 10346
1.643 1.389 1.507 9985
1.651 1.395 1.505 7815
1.654 1.398 1.499 5675
1.764 1.491 1.582 4690
1.772 1.498 1.580 7268
1.781 1.505 1.578 9643
1.784 1.508 1.571 9794
1.782 1.506 1.560 9956
1.790 1.513 1.558 10185
1.799 1.520 1.555 10464
1.802 1.523 1.548 9938
1.810 1.530 1.546 9449
1.818 1.537 1.543 8579
1.827 1.544 1.540 8134
1.830 1.546 1.534 9963
1.833 1.549 1.527 13227
1.836 1.552 1.520 14662
1.839 1.554 1.513 12754
1.847 1.561 1.510 10877
1.877 1.586 1.523 8657
1.895 1.602 1.528 10438
1.893 1.600 1.517 10082
1.896 1.603 1.510 9838
1.910 1.614 1.510 9423
1.924 1.626 1.511 8818
1.937 1.637 1.511 7933
1.946 1.644 1.508 9429
1.954 1.651 1.505 11926
1.968 1.663 1.505 11027
1.976 1.670 1.501 10754
1.995 1.686 1.505 10573
2.003 1.693 1.501 12121
2.012 1.700 1.497 13504
2.015 1.703 1.490 11515
2.034 1.719 1.493 10861
2.053 1.735 1.497 13755
2.051 1.733 1.485 12463
2.070 1.749 1.488 8329
2.094 1.770 1.495 7192
2.108 1.782 1.494 9045
2.127 1.798 1.497 9524
2.087 1.764 1.461 7490
2.085 1.762 1.449 7174
2.180 1.842 1.500 7553
2.183 1.845 1.492 8303
2.202 1.861 1.494 8677
2.211 1.868 1.490 9729
2.214 1.871 1.481 9491
2.217 1.873 1.473 8836
2.242 1.894 1.478 9869
2.245 1.897 1.470 11257
2.248 1.899 1.461 10674
2.256 1.907 1.456 10788
2.259 1.909 1.447 9388
2.262 1.912 1.439 5817
2.342 1.979 1.476 3276
2.351 1.987 1.470 4164
2.365 1.998 1.467 5175
2.368 2.001 1.459 5327
2.387 2.017 1.459 5218
2.396 2.025 1.453 6660
2.404 2.032 1.447 7945
2.413 2.039 1.441 7784
2.432 2.056 1.441 10452
2.435 2.058 1.432 12330
2.444 2.065 1.426 10335
2.463 2.082 1.426 7963
2.472 2.089 1.419 7546
2.469 2.087 1.407 9193
2.483 2.099 1.404 14185
2.497 2.110 1.400 16042
2.506 2.118 1.394 12673
2.520 2.129 1.390 11424
2.528 2.137 1.383 10485
2.542 2.148 1.379 7818
2.568 2.170 1.381 5492
2.587 2.187 1.380 5957
2.596 2.194 1.373 7679
2.610 2.206 1.368 8048
2.630 2.222 1.367 5636
2.667 2.254 1.373 5193
2.681 2.265 1.368 5231
2.689 2.273 1.361 5197
2.698 2.280 1.353 10265
2.706 2.287 1.346 13637
2.709 2.289 1.335 11945
2.786 2.354 1.358 10910
2.788 2.357 1.348 11242
2.791 2.359 1.337 10096
2.823 2.385 1.339 9579
2.831 2.392 1.331 8352
2.834 2.395 1.320 5815
2.842 2.402 1.312 6905
2.845 2.404 1.301 7569
2.847 2.406 1.291 4831
2.959 2.501 1.324 3868
2.962 2.503 1.313 4780
2.953 2.496 1.298 4240
2.950 2.493 1.284 4520
2.952 2.495 1.273 3465
3.083 2.605 1.311 4099
3.085 2.607 1.299 6950
3.082 2.605 1.286 8490
3.090 2.612 1.276 7963
3.104 2.624 1.269 5137
3.188 2.695 1.287 2761
3.185 2.692 1.273 6640
3.182 2.689 1.259 9274
3.202 2.706 1.253 7172
3.216 2.718 1.245 6188
3.259 2.755 1.247 5558
3.274 2.767 1.238 6044
3.276 2.769 1.226 6162
3.296 2.785 1.220 6564
3.298 2.787 1.207 5968
3.330 2.814 1.204 4408
3.368 2.846 1.203 3469
3.370 2.848 1.190 5005
3.378 2.855 1.179 3767
3.445 2.912 1.186 3658
3.454 2.919 1.175 5220
3.468 2.931 1.166 6295
3.482 2.942 1.156 5572
3.602 3.044 1.177 7539
3.610 3.051 1.165 5093
3.719 3.143 1.182 2962
3.697 3.125 1.161 4003
3.777 3.192 1.169 6374
3.779 3.194 1.154 5387
3.781 3.196 1.140 3642
3.902 3.298 1.157 3333
3.904 3.300 1.142 4161
3.924 3.316 1.132 5707
3.932 3.323 1.119 6500
4.036 3.410 1.129 6363
4.050 3.422 1.116 5314
4.093 3.459 1.111 4410
4.102 3.466 1.097 4680
4.110 3.473 1.083 4337
4.213 3.560 1.090 4078
4.215 3.562 1.074 4376
4.360 3.685 1.090 6126
4.356 3.682 1.072 4407
4.358 3.683 1.056 3077
4.510 3.811 1.070 2999
4.518 3.818 1.054 3410
4.484 3.789 1.030 3561
4.480 3.786 1.012 3854
4.596 3.884 1.017 3551
4.532 3.830 0.987 4358
4.539 3.836 0.971 4951
4.793 4.051 0.999 3454
4.795 4.052 0.981 2946
4.803 4.059 0.964 3302
4.810 4.065 0.947 3407
4.818 4.072 0.930 3495
4.820 4.073 0.911 3229
5.140 4.344 0.943 3153
5.142 4.345 0.924 2322
5.269 4.453 0.923 2292
5.289 4.470 0.906 2606
5.387 4.553 0.900 3527
5.389 4.554 0.879 4616
5.390 4.555 0.859 3241
5.368 4.536 0.835 2458
5.363 4.533 0.814 2253
6.105 5.160 0.885 2187
6.113 5.166 0.862 2825
6.109 5.162 0.838 3494
6.104 5.159 0.814 4926
6.100 5.155 0.791 4524
6.228 5.263 0.781 4477
6.229 5.264 0.757 5165
6.224 5.260 0.733 3758
6.117 5.170 0.699 5238
6.112 5.166 0.675 4815
6.113 5.166 0.652 3580
6.115 5.167 0.629 2924
6.212 5.250 0.613 1908
6.117 5.169 0.582 1311
7.126 6.022 0.629 1420
7.097 5.998 0.600 1107
7.043 5.952 0.570 964
7.038 5.948 0.542 877
7.039 5.949 0.516 609
7.137 6.031 0.494 264
1.530 1.287 1.533 6938
1.533 1.290 1.527 13876
1.561 1.313 1.544 11924
1.569 1.320 1.543 13357
1.577 1.327 1.542 13485
1.580 1.329 1.536 11913
1.583 1.332 1.530 10340
1.591 1.339 1.529 8220
1.624 1.367 1.549 8276
1.628 1.369 1.543 8276
1.631 1.372 1.537 9228
1.634 1.375 1.531 10180
1.642 1.381 1.530 10680
1.645 1.384 1.523 11363
1.648 1.387 1.517 10649
1.646 1.385 1.507 9992
1.649 1.387 1.501 7712
1.652 1.390 1.495 5431
1.655 1.393 1.488 4618
1.776 1.494 1.580 6392
1.784 1.501 1.578 8627
1.787 1.504 1.571 8995
1.791 1.506 1.564 9362
1.799 1.513 1.562 8773
1.807 1.520 1.559 8327
1.810 1.523 1.553 8027
1.813 1.526 1.546 7727
1.827 1.537 1.547 7334
1.835 1.544 1.545 7377
1.833 1.542 1.534 9619
1.831 1.541 1.523 13401
1.839 1.548 1.520 14611
1.843 1.550 1.513 12917
1.846 1.553 1.506 11223
1.880 1.582 1.523 8766
1.899 1.598 1.528 10701
1.897 1.596 1.517 10208
1.900 1.598 1.510 10003
1.908 1.605 1.507 9507
1.927 1.621 1.511 8474
1.941 1.633 1.511 7655
1.949 1.640 1.508 9282
1.958 1.647 1.505 11823
1.966 1.654 1.501 10852
1.974 1.661 1.497 10253
1.999 1.682 1.505 9353
2.012 1.693 1.505 11090
2.015 1.696 1.497 12732
2.024 1.703 1.494 10852
2.065 1.737 1.511 10203
2.068 1.739 1.504 13137
2.065 1.738 1.492 11359
2.079 1.749 1.492 7817
2.098 1.765 1.495 7470
2.112 1.777 1.494 9569
2.131 1.793 1.497 10099
2.140 1.800 1.492 7289
2.094 1.762 1.453 6802
2.113 1.778 1.455 7022
2.127 1.790 1.454 8396
2.135 1.797 1.450 7732
2.220 1.868 1.493 8599
2.223 1.871 1.485 8314
2.221 1.869 1.473 7642
2.185 1.839 1.441 8918
2.249 1.892 1.470 10868
2.252 1.895 1.461 10395
2.255 1.897 1.453 11310
2.258 1.899 1.444 10478
2.288 1.925 1.452 5788
2.324 1.956 1.463 3164
2.355 1.981 1.470 3985
2.369 1.993 1.467 5500
2.372 1.996 1.459 6069
2.392 2.012 1.459 5982
2.400 2.019 1.453 7824
2.403 2.022 1.444 9092
2.412 2.029 1.438 8485
2.431 2.046 1.438 9450
2.440 2.053 1.432 11649
2.448 2.060 1.426 10294
2.468 2.076 1.426 8346
2.471 2.079 1.417 7942
2.474 2.081 1.407 8913
2.482 2.088 1.401 12958
2.496 2.100 1.397 14736
2.510 2.112 1.394 11023
2.530 2.129 1.393 10653
2.533 2.131 1.383 11761
2.547 2.143 1.379 9611
2.567 2.159 1.378 7190
2.592 2.181 1.380 7642
2.601 2.188 1.373 7978
2.615 2.200 1.368 7998
2.635 2.217 1.367 5866
2.672 2.248 1.373 5218
2.680 2.255 1.365 5121
2.694 2.267 1.361 4168
2.703 2.274 1.353 9022
2.705 2.276 1.343 13336
2.714 2.283 1.335 12368
2.791 2.348 1.358 11023
2.794 2.350 1.348 11237
2.796 2.353 1.337 10839
2.816 2.369 1.334 9765
2.836 2.386 1.331 7927
2.839 2.388 1.320 5832
2.847 2.395 1.312 7217
2.850 2.398 1.301 7499
2.858 2.405 1.293 4539
2.959 2.490 1.322 3500
2.956 2.487 1.309 5357
2.953 2.484 1.295 5290
2.955 2.486 1.284 4776
2.970 2.498 1.278 3527
3.088 2.598 1.311 4102
3.091 2.600 1.299 7203
3.093 2.603 1.288 8195
3.096 2.605 1.276 7809
3.116 2.622 1.271 5179
3.194 2.688 1.287 2647
3.185 2.680 1.271 6087
3.188 2.682 1.259 8817
3.190 2.684 1.247 6032
3.228 2.716 1.247 4873
3.265 2.747 1.247 5849
3.286 2.764 1.240 6780
3.288 2.766 1.228 6699
3.302 2.778 1.220 7412
3.305 2.780 1.207 6961
3.278 2.757 1.185 4506
3.403 2.863 1.212 4319
3.376 2.841 1.190 5286
3.385 2.848 1.179 3796
3.452 2.904 1.186 4786
3.454 2.906 1.173 5434
3.474 2.923 1.166 6319
3.488 2.935 1.156 5675
3.609 3.036 1.177 7413
3.611 3.038 1.164 5164
3.732 3.140 1.184 3313
3.764 3.166 1.178 4373
3.778 3.178 1.167 6799
3.780 3.180 1.153 5410
3.776 3.177 1.137 3583
3.773 3.174 1.121 3354
3.912 3.291 1.142 3807
3.938 3.313 1.133 5366
3.946 3.320 1.120 6011
4.043 3.402 1.129 6146
4.063 3.418 1.118 5180
4.101 3.450 1.111 5146
4.109 3.457 1.097 5368
4.123 3.469 1.084 4683
4.090 3.441 1.060 3873
4.366 3.673 1.107 4069
4.368 3.675 1.090 5952
4.365 3.672 1.072 4438
4.367 3.674 1.056 3324
4.410 3.711 1.048 2911
4.526 3.808 1.054 3328
4.492 3.779 1.030 3550
4.584 3.857 1.031 3768
4.604 3.874 1.017 3362
4.540 3.820 0.987 3942
4.548 3.826 0.971 4371
4.796 4.035 0.998 3631
4.816 4.052 0.983 2982
4.818 4.053 0.965 3249
4.825 4.060 0.948 3110
4.833 4.066 0.931 3237
4.829 4.063 0.911 3214
5.149 4.332 0.943 3109
4.838 4.071 0.876 2326
5.279 4.442 0.923 2426
5.293 4.453 0.905 2471
5.397 4.541 0.900 3521
5.399 4.542 0.879 4754
5.400 4.544 0.859 3336
5.384 4.530 0.836 2367
5.380 4.526 0.815 2202
6.057 5.095 0.877 2098
6.064 5.102 0.855 2966
6.108 5.139 0.837 3313
6.116 5.145 0.814 4742
6.111 5.141 0.791 4446
6.239 5.249 0.781 4775
6.241 5.250 0.757 5487
6.242 5.252 0.733 3917
6.128 5.156 0.699 4744
6.124 5.152 0.675 4409
6.125 5.153 0.652 3333
6.126 5.154 0.629 2645
6.671 5.613 0.647 1845
7.138 6.005 0.656 1450
7.139 6.006 0.629 1452
7.140 6.007 0.602 1065
7.063 5.942 0.570 822
7.051 5.933 0.542 765
7.046 5.928 0.515 531
7.150 6.015 0.494 261
1.859 1.564 -0.153 253
1.532 1.285 1.533 6813
1.535 1.287 1.527 13626
1.563 1.311 1.544 11801
1.571 1.317 1.543 13035
1.579 1.324 1.542 13141
1.582 1.327 1.536 11840
1.585 1.330 1.530 10540
1.588 1.332 1.524 8410
1.626 1.364 1.549 7555
1.630 1.367 1.543 7555
1.633 1.369 1.537 8708
1.636 1.372 1.531 9861
1.644 1.379 1.530 10731
1.652 1.386 1.528 11963
1.650 1.384 1.517 11355
1.653 1.387 1.511 10849
1.651 1.385 1.501 7701
1.649 1.383 1.490 4814
1.652 1.386 1.484 4104
1.778 1.491 1.580 5465
1.786 1.498 1.578 7549
1.790 1.501 1.571 8136
1.798 1.508 1.569 8792
1.806 1.515 1.566 7815
1.820 1.526 1.568 7262
1.818 1.525 1.557 6837
1.816 1.523 1.546 6513
1.829 1.534 1.547 6478
1.838 1.541 1.545 6691
1.830 1.535 1.530 9358
1.834 1.538 1.523 13252
1.837 1.540 1.516 14169
1.845 1.547 1.513 12640
1.848 1.550 1.506 11278
1.883 1.579 1.523 8852
1.901 1.595 1.528 10842
1.905 1.597 1.521 10435
1.902 1.595 1.510 10310
1.911 1.602 1.507 9824
1.930 1.618 1.511 8298
1.943 1.630 1.511 7186
1.957 1.641 1.512 8630
1.965 1.648 1.508 11162
1.968 1.651 1.501 10168
1.977 1.658 1.497 9395
1.996 1.674 1.501 7998
2.015 1.690 1.505 10441
2.018 1.693 1.497 12522
2.026 1.700 1.494 10612
2.067 1.734 1.511 10636
2.076 1.741 1.507 13007
2.079 1.743 1.500 10699
2.087 1.750 1.495 7309
2.101 1.762 1.495 7517
2.115 1.774 1.494 9852
2.134 1.790 1.497 10496
2.143 1.797 1.492 7687
2.097 1.758 1.453 6334
2.116 1.775 1.455 6861
2.135 1.791 1.458 8836
2.138 1.793 1.450 8701
2.229 1.869 1.496 7236
2.232 1.872 1.488 6886
2.163 1.814 1.436 6692
2.188 1.835 1.441 9119
2.241 1.879 1.463 10467
2.249 1.886 1.458 10197
2.252 1.889 1.449 11290
2.255 1.891 1.441 10711
2.252 1.889 1.429 5778
2.327 1.952 1.463 3538
2.358 1.978 1.470 4031
2.367 1.985 1.464 5974
2.370 1.987 1.455 6843
2.395 2.009 1.459 6413
2.403 2.016 1.453 8337
2.406 2.018 1.444 9444
2.415 2.025 1.438 8774
2.429 2.037 1.435 8395
2.449 2.054 1.435 10675
2.457 2.061 1.429 10241
2.471 2.073 1.426 8781
2.474 2.075 1.417 7916
2.477 2.077 1.407 8590
2.485 2.084 1.401 12528
2.499 2.096 1.397 14344
2.508 2.103 1.391 10480
2.533 2.125 1.393 10582
2.542 2.132 1.386 12592
2.550 2.139 1.379 10588
2.570 2.156 1.378 8691
2.590 2.172 1.377 9540
2.598 2.179 1.370 8571
2.624 2.201 1.371 8085
2.638 2.212 1.367 6307
2.675 2.244 1.373 5513
2.678 2.246 1.363 5734
2.675 2.243 1.350 4564
2.706 2.270 1.353 7409
2.709 2.272 1.343 12239
2.717 2.279 1.335 11943
2.795 2.344 1.358 11123
2.797 2.346 1.348 11264
2.800 2.348 1.337 10996
2.808 2.355 1.329 9893
2.834 2.377 1.328 7050
2.837 2.379 1.318 5623
2.851 2.391 1.312 7244
2.854 2.393 1.301 7202
2.868 2.405 1.295 4296
2.951 2.475 1.317 3495
2.954 2.478 1.306 6046
2.957 2.480 1.295 6222
2.965 2.487 1.286 5037
2.985 2.503 1.282 3634
3.086 2.589 1.309 3996
3.095 2.596 1.299 6998
3.092 2.593 1.286 7357
3.106 2.605 1.278 6889
3.126 2.622 1.273 5477
3.140 2.634 1.266 2742
3.189 2.675 1.271 5397
3.180 2.667 1.254 8018
3.177 2.664 1.240 5565
3.179 2.666 1.228 4815
3.270 2.742 1.247 5617
3.296 2.764 1.242 7494
3.298 2.766 1.230 7781
3.306 2.773 1.220 8191
3.309 2.775 1.207 7394
3.288 2.757 1.187 4953
3.402 2.853 1.210 5189
3.381 2.835 1.190 5713
3.454 2.897 1.199 5052
3.456 2.899 1.186 5605
3.459 2.901 1.173 5533
3.473 2.913 1.164 5989
3.493 2.929 1.156 5259
3.607 3.026 1.176 7067
3.610 3.027 1.162 5187
3.737 3.134 1.184 3625
3.763 3.156 1.176 4553
3.783 3.173 1.167 6587
3.785 3.174 1.153 5073
3.775 3.166 1.135 3499
3.778 3.168 1.121 3501
3.821 3.205 1.118 3548
3.943 3.307 1.133 4784
3.963 3.323 1.123 5553
4.048 3.395 1.129 5784
4.068 3.412 1.118 4982
4.112 3.449 1.112 5512
4.115 3.451 1.097 5639
4.135 3.468 1.086 4791
4.089 3.429 1.059 4196
4.372 3.667 1.107 3700
4.374 3.668 1.090 5388
4.370 3.665 1.072 4149
4.372 3.667 1.056 3330
4.380 3.674 1.040 2893
4.520 3.791 1.052 3038
4.498 3.773 1.030 3635
4.590 3.850 1.031 3755
4.592 3.851 1.013 3003
4.546 3.813 0.987 3557
4.806 4.031 1.018 4037
4.802 4.027 0.998 3797
4.822 4.044 0.983 3117
4.830 4.051 0.966 3362
4.838 4.057 0.949 2898
4.840 4.059 0.931 2783
4.998 4.192 0.938 3137
5.156 4.324 0.943 2991
5.206 4.366 0.931 2371
5.256 4.408 0.919 2439
5.216 4.374 0.893 2486
5.410 4.537 0.900 3320
5.406 4.534 0.879 4620
5.407 4.535 0.859 3283
5.397 4.526 0.837 2284
5.393 4.523 0.815 2166
6.064 5.086 0.877 2334
6.072 5.093 0.855 3245
6.074 5.094 0.832 3318
6.123 5.136 0.814 4235
6.119 5.132 0.791 4024
6.253 5.245 0.781 4840
6.255 5.246 0.758 5541
6.256 5.247 0.734 3976
6.136 5.147 0.699 4074
6.132 5.143 0.675 3803
6.133 5.143 0.652 2911
6.134 5.144 0.629 2252
6.680 5.602 0.647 1969
7.147 5.994 0.656 1752
7.149 5.995 0.629 1562
7.144 5.991 0.601 1107
7.090 5.946 0.571 767
7.055 5.917 0.542 705
7.055 5.917 0.515 484
7.117 5.969 0.492 259
7.112 5.964 0.464 275
1.541 1.284 1.537 6430
1.544 1.287 1.532 12861
1.567 1.306 1.544 11614
1.575 1.313 1.543 12764
1.583 1.320 1.542 12830
1.586 1.322 1.536 11834
1.589 1.325 1.530 10838
1.592 1.327 1.524 8613
1.631 1.359 1.549 6951
1.634 1.362 1.543 6951
1.637 1.365 1.537 8315
1.640 1.367 1.531 9679
1.648 1.374 1.530 10561
1.656 1.381 1.528 11735
1.659 1.383 1.522 11803
1.663 1.386 1.516 11871
1.666 1.388 1.509 8545
1.684 1.404 1.516 5740
1.662 1.385 1.488 3682
1.783 1.486 1.580 4500
1.791 1.493 1.578 6474
1.799 1.500 1.575 7418
1.802 1.503 1.569 8434
1.811 1.510 1.566 7482
1.824 1.521 1.568 7083
1.828 1.523 1.561 6528
1.826 1.522 1.550 6141
1.829 1.524 1.543 6223
1.837 1.531 1.540 6440
1.830 1.525 1.526 9363
1.838 1.532 1.523 12700
1.841 1.535 1.516 13083
1.844 1.537 1.509 11850
1.853 1.544 1.506 10877
1.893 1.578 1.527 8959
1.911 1.593 1.532 10843
1.909 1.592 1.521 10555
1.965 1.638 1.553 10582
1.915 1.597 1.507 10120
1.929 1.608 1.507 8114
1.953 1.628 1.515 6659
1.962 1.635 1.512 7604
1.970 1.642 1.508 9690
1.973 1.645 1.501 8675
1.982 1.652 1.497 7732
1.996 1.664 1.497 7125
2.020 1.684 1.505 10438
2.023 1.687 1.497 12827
2.037 1.698 1.497 11002
2.067 1.723 1.508 11234
2.081 1.735 1.507 12989
2.084 1.737 1.500 10209
2.092 1.744 1.495 6780
2.106 1.756 1.495 7318
2.126 1.772 1.498 9827
2.140 1.784 1.497 10727
2.148 1.791 1.492 8113
2.107 1.757 1.456 5524
2.132 1.777 1.462 6623
2.146 1.789 1.461 9022
2.149 1.791 1.453 9307
2.157 1.798 1.449 7140
2.243 1.870 1.491 5772
2.174 1.813 1.439 6911
2.199 1.833 1.445 9113
2.235 1.863 1.456 10490
2.244 1.870 1.451 10290
2.252 1.878 1.446 11053
2.261 1.885 1.441 10340
2.291 1.910 1.449 5712
2.328 1.940 1.459 4089
2.358 1.966 1.467 4279
2.373 1.978 1.464 6587
2.376 1.980 1.455 7641
2.401 2.001 1.459 6495
2.415 2.013 1.456 8201
2.418 2.016 1.447 9049
2.415 2.013 1.435 8535
2.424 2.020 1.429 7456
2.455 2.046 1.435 9748
2.469 2.058 1.432 10335
2.477 2.065 1.426 9862
2.480 2.068 1.417 8514
2.483 2.070 1.407 8602
2.492 2.077 1.401 12631
2.500 2.084 1.394 14239
2.514 2.096 1.391 9693
2.545 2.122 1.396 10056
2.554 2.129 1.389 12136
2.568 2.141 1.385 10950
2.582 2.153 1.381 9590
2.596 2.164 1.377 10852
2.605 2.171 1.370 9173
2.630 2.193 1.371 8546
2.645 2.205 1.367 6386
2.682 2.236 1.373 5412
2.679 2.233 1.360 6131
2.670 2.226 1.345 5407
2.701 2.252 1.348 6113
2.710 2.259 1.340 10658
2.718 2.266 1.333 10762
2.802 2.335 1.358 10820
2.804 2.338 1.348 10457
2.807 2.340 1.337 10288
2.810 2.342 1.327 9585
2.824 2.354 1.321 6371
2.844 2.371 1.318 5321
2.858 2.383 1.312 7013
2.861 2.385 1.301 6611
2.881 2.401 1.298 4273
2.953 2.462 1.315 3582
2.956 2.464 1.304 6767
2.964 2.471 1.295 7124
2.972 2.478 1.286 5086
2.998 2.499 1.284 3718
3.088 2.574 1.307 4119
3.097 2.582 1.297 6880
3.099 2.584 1.286 6581
3.114 2.596 1.278 5760
3.140 2.617 1.275 5561
3.148 2.624 1.266 3620
3.186 2.656 1.266 5258
3.182 2.653 1.252 7839
3.179 2.650 1.238 6446
3.187 2.657 1.228 5619
3.284 2.737 1.249 5077
3.310 2.759 1.244 7754
3.306 2.756 1.230 9055
3.309 2.758 1.218 8697
3.323 2.770 1.209 7097
3.302 2.752 1.189 4723
3.410 2.843 1.210 5798
3.395 2.830 1.192 6024
3.463 2.886 1.199 6057
3.465 2.888 1.186 5647
3.467 2.890 1.173 5042
3.481 2.902 1.164 5000
3.507 2.924 1.158 4265
3.616 3.015 1.176 6284
3.613 3.012 1.160 4959
3.746 3.123 1.184 3960
3.772 3.144 1.176 4560
3.786 3.156 1.165 6221
3.794 3.163 1.153 4715
3.797 3.165 1.138 3307
3.811 3.177 1.127 3554
3.831 3.194 1.118 3717
3.952 3.295 1.133 4028
3.979 3.317 1.125 4886
4.058 3.383 1.129 5221
4.079 3.400 1.118 4596
4.123 3.437 1.112 5775
4.125 3.439 1.097 5729
4.151 3.460 1.087 4710
4.099 3.417 1.059 4424
4.101 3.419 1.044 3601
4.385 3.655 1.090 4496
4.381 3.652 1.072 3613
4.449 3.709 1.070 3494
4.451 3.711 1.053 3051
4.531 3.777 1.052 2784
4.515 3.764 1.031 3459
4.602 3.836 1.031 3673
4.598 3.833 1.012 2582
4.557 3.799 0.987 3156
4.818 4.016 1.018 4022
4.820 4.018 0.999 3606
4.677 3.899 0.956 2952
4.854 4.046 0.968 2887
4.856 4.048 0.950 2434
4.984 4.155 0.953 2394
5.010 4.177 0.938 3153
5.169 4.309 0.943 2849
5.225 4.356 0.932 2669
5.269 4.392 0.919 2687
5.229 4.359 0.893 2606
5.424 4.521 0.900 2991
5.419 4.518 0.879 4212
5.421 4.519 0.859 3033
5.411 4.510 0.837 2164
5.406 4.507 0.815 2106
6.080 5.068 0.877 2413
6.087 5.074 0.855 3302
6.089 5.076 0.832 3310
6.139 5.117 0.814 3646
6.140 5.119 0.791 3528
6.269 5.226 0.781 4723
6.270 5.227 0.758 5380
6.272 5.228 0.734 3880
6.485 5.406 0.730 3757
6.487 5.407 0.705 3386
7.149 5.960 0.736 2369
7.145 5.956 0.709 2339
7.146 5.957 0.682 2418
7.159 5.968 0.656 2261
7.160 5.969 0.629 1910
7.155 5.965 0.601 1443
7.138 5.950 0.573 969
7.145 5.956 0.546 736
7.146 5.957 0.519 523
7.129 5.943 0.491 333
7.129 5.943 0.464 313
7.136 5.949 0.438 255
1.860 1.551 -0.152 253
1.549 1.284 1.542 6238
1.552 1.287 1.536 12476
1.570 1.301 1.544 11866
1.579 1.308 1.543 12904
1.582 1.311 1.537 12904
1.590 1.318 1.536 11863
1.593 1.320 1.530 10849
1.596 1.323 1.524 8578
1.579 1.309 1.500 6364
1.638 1.357 1.543 6105
1.641 1.360 1.537 7842
1.644 1.362 1.531 9579
1.652 1.369 1.530 10285
1.660 1.376 1.528 11423
1.663 1.379 1.522 11781
1.667 1.381 1.516 12139
1.675 1.388 1.514 9293
1.688 1.399 1.516 6876
1.691 1.402 1.510 4350
1.792 1.485 1.584 3684
1.800 1.492 1.582 5569
1.804 1.495 1.575 6869
1.812 1.502 1.573 8291
1.820 1.509 1.570 7718
1.829 1.516 1.568 7451
1.827 1.514 1.557 6977
1.830 1.517 1.550 6543
1.833 1.519 1.543 6652
1.831 1.517 1.532 6764
1.834 1.520 1.526 9737
1.837 1.523 1.519 12100
1.846 1.530 1.516 11784
1.849 1.532 1.509 10963
1.857 1.539 1.506 10368
1.902 1.577 1.531 9057
1.916 1.588 1.532 10646
1.914 1.586 1.521 10446
1.912 1.584 1.510 10694
1.920 1.591 1.507 10271
1.928 1.598 1.503 8082
1.958 1.623 1.515 6532
1.967 1.630 1.512 6978
1.975 1.637 1.508 8593
1.978 1.639 1.501 7674
1.987 1.646 1.497 6791
2.000 1.658 1.497 6592
2.025 1.678 1.505 10412
2.033 1.685 1.501 12861
2.047 1.697 1.501 11662
2.072 1.717 1.508 11690
2.086 1.729 1.507 12601
2.089 1.731 1.500 9515
2.097 1.738 1.495 6081
2.111 1.750 1.495 6866
2.131 1.766 1.498 9609
2.145 1.777 1.497 10760
2.148 1.780 1.489 8509
2.162 1.791 1.488 5720
2.143 1.776 1.466 6963
2.157 1.787 1.465 9289
2.154 1.785 1.453 9560
2.163 1.792 1.449 7404
2.259 1.872 1.498 5467
2.180 1.806 1.439 6851
2.216 1.836 1.451 9210
2.235 1.852 1.453 10563
2.244 1.859 1.448 10439
2.258 1.871 1.446 10910
2.266 1.878 1.441 10470
2.291 1.899 1.445 6256
2.305 1.911 1.443 4350
2.314 1.918 1.438 4719
2.378 1.971 1.464 7022
2.381 1.973 1.455 8226
2.390 1.980 1.450 6506
2.421 2.006 1.456 7469
2.429 2.013 1.450 7954
2.421 2.006 1.435 7515
2.424 2.009 1.426 6543
2.466 2.044 1.438 9072
2.480 2.056 1.435 10774
2.483 2.058 1.426 10845
2.486 2.060 1.417 8689
2.489 2.063 1.407 8071
2.498 2.070 1.401 12150
2.506 2.077 1.394 13910
2.515 2.084 1.388 9554
2.552 2.115 1.396 9678
2.566 2.126 1.392 12140
2.580 2.138 1.388 10673
2.588 2.145 1.381 9761
2.597 2.152 1.374 11271
2.611 2.164 1.370 9251
2.637 2.185 1.371 9056
2.657 2.202 1.369 6588
2.694 2.233 1.375 5407
2.679 2.221 1.357 6244
2.676 2.218 1.345 5825
2.702 2.239 1.345 5804
2.716 2.251 1.340 9383
2.725 2.258 1.333 9348
2.808 2.327 1.358 9549
2.811 2.330 1.348 9416
2.808 2.327 1.335 9696
2.811 2.329 1.324 9137
2.813 2.331 1.314 6313
2.862 2.372 1.323 5257
2.865 2.374 1.312 6716
2.868 2.376 1.301 5897
2.888 2.393 1.298 4277
2.890 2.395 1.287 3352
2.963 2.455 1.304 6849
2.971 2.462 1.295 7355
2.985 2.474 1.289 4849
3.011 2.496 1.287 3899
3.096 2.566 1.307 4138
3.104 2.573 1.297 6596
3.107 2.575 1.286 5868
3.127 2.591 1.281 4679
3.153 2.613 1.277 5456
3.161 2.620 1.268 3896
3.187 2.642 1.264 5163
3.184 2.639 1.250 7825
3.187 2.641 1.238 7323
3.207 2.657 1.233 6597
3.303 2.738 1.253 4663
3.318 2.750 1.244 6893
3.314 2.747 1.230 9727
3.317 2.749 1.218 9259
3.337 2.765 1.211 6625
3.316 2.748 1.191 4710
3.419 2.833 1.210 5946
3.457 2.865 1.209 6662
3.465 2.871 1.198 6649
3.467 2.873 1.185 5631
3.476 2.880 1.173 4418
3.484 2.887 1.162 3842
3.623 3.002 1.189 3678
3.625 3.004 1.176 5470
3.628 3.006 1.162 4740
3.755 3.112 1.184 4150
3.781 3.133 1.176 4305
3.795 3.145 1.165 5817
3.798 3.147 1.151 4472
3.806 3.154 1.138 3435
3.814 3.161 1.126 3788
3.834 3.178 1.116 3682
4.022 3.333 1.149 3771
4.000 3.315 1.128 4317
4.068 3.371 1.129 4656
4.148 3.438 1.132 4637
4.139 3.430 1.114 5813
4.129 3.422 1.096 5443
4.173 3.458 1.090 4424
4.121 3.415 1.062 4317
4.111 3.407 1.044 3273
4.396 3.643 1.090 3553
4.458 3.694 1.086 3034
4.460 3.696 1.070 3953
4.468 3.703 1.054 3388
4.530 3.754 1.050 2720
4.532 3.756 1.033 3501
4.613 3.823 1.031 3650
4.603 3.814 1.011 2341
4.562 3.781 0.986 2958
4.830 4.003 1.018 3838
4.693 3.889 0.974 3628
4.870 4.036 0.988 3162
4.775 3.957 0.953 3232
4.783 3.964 0.936 2376
4.990 4.136 0.952 2479
5.028 4.167 0.939 3070
5.181 4.294 0.943 2660
5.238 4.341 0.932 2804
5.282 4.377 0.919 2881
5.241 4.344 0.893 2620
5.443 4.511 0.901 2654
5.432 4.502 0.879 3629
5.434 4.503 0.859 2630
5.654 4.686 0.867 2197
5.425 4.496 0.816 2073
6.094 5.050 0.877 2358
6.102 5.057 0.855 3186
6.103 5.058 0.832 3134
6.154 5.100 0.814 2950
6.155 5.101 0.791 2952
6.284 5.208 0.781 4366
6.285 5.209 0.758 4961
6.293 5.215 0.734 3621
6.501 5.388 0.730 3653
6.502 5.389 0.705 3295
7.160 5.934 0.736 2965
7.162 5.935 0.709 2992
7.163 5.936 0.682 3063
7.170 5.942 0.655 2904
7.171 5.943 0.628 2556
7.160 5.934 0.600 2115
7.155 5.930 0.573 1469
7.156 5.931 0.546 1120
7.157 5.931 0.519 822
7.146 5.922 0.491 463
7.146 5.923 0.464 367
7.153 5.928 0.438 297
1.557 1.285 1.547 6086
1.560 1.287 1.541 12173
1.573 1.298 1.544 11745
1.581 1.305 1.543 12599
1.585 1.307 1.537 12599
1.593 1.314 1.536 11610
1.596 1.317 1.530 10683
1.599 1.319 1.524 8556
1.582 1.305 1.500 6788
1.610 1.329 1.517 5839
1.644 1.356 1.537 7336
1.642 1.355 1.527 9450
1.655 1.366 1.530 9678
1.663 1.372 1.528 10778
1.666 1.375 1.522 11904
1.675 1.382 1.520 13314
1.683 1.389 1.518 10957
1.691 1.395 1.516 8955
1.699 1.402 1.514 5596
1.718 1.417 1.521 3298
1.804 1.488 1.582 4753
1.812 1.495 1.579 6321
1.815 1.498 1.573 7950
1.824 1.505 1.570 7884
1.827 1.507 1.563 8021
1.830 1.510 1.557 7653
1.833 1.513 1.550 7285
1.836 1.515 1.543 7287
1.824 1.505 1.524 7753
1.837 1.516 1.526 10061
1.840 1.519 1.519 11399
1.849 1.526 1.516 10333
1.857 1.533 1.513 9958
1.871 1.544 1.514 9955
1.900 1.568 1.527 9129
1.919 1.584 1.532 10233
1.912 1.578 1.517 10237
1.915 1.580 1.510 10857
1.918 1.583 1.503 10533
1.927 1.590 1.499 8265
1.967 1.623 1.519 6737
1.975 1.630 1.516 6725
1.979 1.633 1.508 7840
1.982 1.635 1.501 7160
1.990 1.642 1.497 6497
1.998 1.649 1.494 5712
2.034 1.678 1.509 9203
2.042 1.685 1.505 11378
2.056 1.697 1.505 11428
2.070 1.708 1.504 11674
2.089 1.724 1.507 11710
2.093 1.727 1.500 8530
2.107 1.738 1.499 5212
2.126 1.754 1.502 6350
2.134 1.761 1.498 9068
2.148 1.773 1.497 10510
2.151 1.775 1.489 8803
2.160 1.782 1.484 6833
2.163 1.785 1.476 8129
2.166 1.787 1.468 9922
2.163 1.785 1.457 9789
2.166 1.788 1.449 7302
2.263 1.868 1.498 5993
2.261 1.865 1.486 6539
2.225 1.836 1.455 10020
2.239 1.848 1.453 10838
2.248 1.855 1.448 10640
2.262 1.866 1.446 10830
2.276 1.878 1.444 10556
2.295 1.894 1.445 6817
2.309 1.906 1.443 4737
2.318 1.913 1.438 5162
2.382 1.966 1.464 7309
2.385 1.968 1.455 8724
2.388 1.971 1.447 6678
2.436 2.010 1.462 6364
2.445 2.017 1.456 6789
2.442 2.015 1.444 6107
2.411 1.990 1.417 5860
2.471 2.039 1.438 8449
2.485 2.050 1.435 11323
2.488 2.053 1.426 11968
2.491 2.055 1.417 8976
2.499 2.062 1.410 7917
2.508 2.069 1.404 12304
2.510 2.072 1.394 13850
2.519 2.079 1.388 9090
2.556 2.109 1.396 10184
2.570 2.121 1.392 11530
2.584 2.133 1.388 9736
2.593 2.140 1.381 8956
2.601 2.147 1.374 10777
2.610 2.154 1.367 8756
2.647 2.184 1.374 9618
2.667 2.201 1.372 7313
2.704 2.232 1.378 5286
2.678 2.210 1.355 5880
2.681 2.212 1.345 5513
2.707 2.234 1.345 5628
2.715 2.241 1.338 8066
2.730 2.252 1.333 7658
2.813 2.321 1.358 8242
2.810 2.319 1.345 8996
2.813 2.321 1.335 9258
2.816 2.323 1.324 8377
2.812 2.321 1.311 6210
2.867 2.366 1.323 5223
2.876 2.373 1.314 6517
2.873 2.370 1.301 5218
2.887 2.382 1.295 4154
2.889 2.384 1.285 3889
2.962 2.444 1.302 6802
2.971 2.451 1.293 7269
3.008 2.482 1.296 4366
3.017 2.489 1.287 3978
3.095 2.554 1.304 4135
3.110 2.566 1.297 6212
3.112 2.568 1.286 5479
3.162 2.609 1.291 4151
3.164 2.611 1.280 5151
3.173 2.618 1.270 3667
3.187 2.630 1.262 4827
3.184 2.627 1.248 8026
3.210 2.649 1.245 8463
3.218 2.656 1.235 7428
3.309 2.731 1.253 4521
3.318 2.738 1.242 5537
3.314 2.735 1.228 9425
3.323 2.742 1.218 8789
3.349 2.763 1.213 5560
3.327 2.746 1.193 4340
3.425 2.826 1.210 5699
3.469 2.862 1.211 7196
3.471 2.864 1.198 6849
3.473 2.866 1.185 5406
3.482 2.873 1.173 3970
3.490 2.880 1.162 3429
3.647 3.009 1.194 3677
3.638 3.002 1.177 4795
3.634 2.999 1.162 4497
3.761 3.104 1.184 4178
3.794 3.130 1.178 3861
3.802 3.137 1.165 5402
3.810 3.144 1.153 4553
3.819 3.151 1.140 3689
3.827 3.158 1.127 3887
3.841 3.169 1.116 3739
4.047 3.339 1.153 4021
4.049 3.341 1.138 4519
4.015 3.313 1.114 4380
4.156 3.429 1.132 5130
4.152 3.426 1.115 5940
4.136 3.413 1.096 5344
4.210 3.474 1.097 4263
4.128 3.406 1.062 4160
4.148 3.423 1.050 3198
4.457 3.678 1.102 2660
4.466 3.685 1.086 3548
4.474 3.692 1.071 4366
4.476 3.693 1.054 3706
4.532 3.740 1.048 2717
4.631 3.821 1.051 3647
4.621 3.813 1.031 3736
4.611 3.805 1.011 2280
4.570 3.771 0.986 2921
4.838 3.992 1.018 3585
4.701 3.879 0.974 3747
4.890 4.035 0.990 3609
4.783 3.947 0.953 3531
4.779 3.944 0.934 2729
4.993 4.120 0.951 2557
5.037 4.156 0.939 2886
5.191 4.283 0.943 2431
5.314 4.385 0.942 2823
5.291 4.366 0.919 2900
5.244 4.327 0.892 2535
5.361 4.424 0.888 2311
5.448 4.495 0.880 2982
5.444 4.492 0.859 2239
5.658 4.669 0.866 2241
5.441 4.489 0.817 2056
6.105 5.037 0.877 2169
6.113 5.044 0.855 2904
6.114 5.045 0.832 2832
6.164 5.087 0.814 2178
6.172 5.093 0.792 2336
6.295 5.194 0.781 3846
6.297 5.196 0.758 4348
6.304 5.202 0.734 3199
6.512 5.374 0.730 3369
7.172 5.918 0.763 3244
7.173 5.919 0.736 3564
7.174 5.920 0.709 3611
7.176 5.921 0.682 3676
7.183 5.927 0.655 3597
7.178 5.923 0.628 3414
7.173 5.919 0.600 2959
7.168 5.915 0.573 2092
7.169 5.915 0.546 1616
7.170 5.916 0.519 1242
7.164 5.912 0.492 670
7.159 5.907 0.464 458
7.172 5.918 0.438 375
7.179 5.924 0.411 254
1.565 1.284 1.551 5928
1.569 1.287 1.545 11856
1.577 1.294 1.544 11678
1.585 1.300 1.543 12425
1.588 1.303 1.537 12425
1.591 1.306 1.531 11583
1.599 1.312 1.530 10806
1.603 1.315 1.524 8940
1.585 1.301 1.500 7374
1.614 1.324 1.517 6565
1.627 1.335 1.520 7742
1.635 1.342 1.518 9631
1.654 1.357 1.525 8947
1.667 1.368 1.528 9837
1.675 1.375 1.526 11947
1.678 1.377 1.520 14231
1.687 1.384 1.518 12098
1.695 1.391 1.516 10113
1.698 1.393 1.510 6261
1.722 1.413 1.521 3624
1.725 1.415 1.514 4340
1.816 1.490 1.579 5902
1.819 1.493 1.573 7608
1.823 1.495 1.566 8053
1.826 1.498 1.559 8498
1.834 1.505 1.557 8273
1.837 1.508 1.550 8057
1.841 1.510 1.543 8019
1.828 1.500 1.524 8781
1.842 1.511 1.526 10505
1.850 1.518 1.523 10832
1.858 1.525 1.520 9197
1.867 1.532 1.517 9197
1.886 1.547 1.522 9800
1.905 1.563 1.527 9246
