1.912 2.620 1.358 6718
1.953 2.677 1.374 7807
1.959 2.686 1.367 9004
1.962 2.689 1.358 10925
1.964 2.692 1.348 11711
1.970 2.701 1.341 10768
1.981 2.715 1.337 7456
1.996 2.736 1.335 8338
2.003 2.745 1.328 12409
2.084 2.856 1.366 10136
2.090 2.865 1.358 12061
2.119 2.905 1.364 6639
2.143 2.938 1.366 4287
2.136 2.928 1.351 6115
2.138 2.931 1.340 8203
2.149 2.946 1.335 6708
2.178 2.985 1.339 10236
2.184 2.994 1.331 7467
2.222 3.046 1.340 9084
2.228 3.055 1.331 10466
2.226 3.051 1.318 9541
2.233 3.060 1.310 6047
2.257 3.094 1.310 4065
2.268 3.109 1.304 5068
2.274 3.117 1.295 6378
2.281 3.126 1.286 5791
2.314 3.172 1.291 5093
2.352 3.224 1.298 6842
2.354 3.226 1.286 7296
2.356 3.229 1.275 4887
2.456 3.367 1.311 2911
2.440 3.345 1.290 4662
2.451 3.360 1.283 5033
2.462 3.375 1.275 5327
2.469 3.384 1.265 4462
2.493 3.418 1.263 3646
2.545 3.488 1.273 5326
2.533 3.472 1.255 6892
2.526 3.463 1.238 5868
2.587 3.546 1.252 7108
2.598 3.561 1.243 7327
2.599 3.563 1.230 7020
2.606 3.572 1.219 5268
2.658 3.643 1.227 6332
2.664 3.652 1.216 7464
2.675 3.667 1.207 7456
2.681 3.675 1.195 8339
2.683 3.678 1.182 5101
2.789 3.824 1.210 3562
2.773 3.801 1.189 4562
2.770 3.797 1.174 6419
2.818 3.862 1.177 6350
2.819 3.865 1.164 7285
2.826 3.873 1.151 4938
2.878 3.945 1.155 3374
2.879 3.947 1.141 3711
2.890 3.962 1.130 3216
2.988 4.096 1.149 2998
2.990 4.098 1.134 3445
2.982 4.088 1.117 5045
2.998 4.109 1.107 4571
2.995 4.105 1.090 3660
3.102 4.252 1.109 3404
3.099 4.248 1.093 3001
3.169 4.345 1.098 3541
3.148 4.315 1.076 4146
3.150 4.318 1.060 4562
3.179 4.358 1.053 5011
3.199 4.385 1.043 5750
3.200 4.387 1.027 4579
3.262 4.471 1.028 4195
3.176 4.353 0.988 3043
3.325 4.557 1.012 3481
3.405 4.667 1.016 3183
3.425 4.694 1.004 3115
3.343 4.582 0.966 2408
3.460 4.743 0.978 3116
3.531 4.840 0.978 3511
3.509 4.810 0.955 3571
3.506 4.805 0.937 3095
3.715 5.093 0.966 3740
3.717 5.095 0.948 3792
3.810 5.223 0.950 3802
3.867 5.301 0.942 4301
3.864 5.297 0.923 3692
3.833 5.254 0.897 3656
3.825 5.243 0.876 4492
3.822 5.239 0.857 3781
4.059 5.565 0.882 3578
4.061 5.566 0.862 3042
4.234 5.803 0.872 2164
4.332 5.939 0.867 2624
4.329 5.934 0.845 3497
4.326 5.929 0.823 2803
4.392 6.020 0.812 2068
4.398 6.028 0.791 2554
4.399 6.030 0.769 2536
4.344 5.955 0.740 2226
4.340 5.950 0.718 2151
4.858 6.659 0.764 2807
4.854 6.654 0.739 2788
4.850 6.649 0.715 2034
5.238 7.180 0.735 1634
5.239 7.181 0.709 1948
5.230 7.170 0.682 1713
5.222 7.158 0.656 1624
5.479 7.511 0.654 1539
5.475 7.505 0.627 1844
5.471 7.500 0.599 1978
5.472 7.501 0.573 1744
5.487 7.521 0.547 1416
5.497 7.535 0.520 1068
5.507 7.549 0.494 573
5.577 7.645 0.471 595
5.578 7.646 0.443 498
5.602 7.679 0.417 408
5.598 7.673 0.389 351
1.225 1.669 1.583 3325
1.227 1.672 1.578 6651
1.233 1.681 1.576 5820
1.247 1.700 1.584 4247
1.261 1.719 1.592 3837
1.264 1.722 1.586 5318
1.266 1.726 1.579 6799
1.273 1.734 1.578 7384
1.275 1.738 1.572 8030
1.278 1.741 1.566 8030
1.284 1.750 1.564 7874
1.294 1.764 1.567 8422
1.289 1.756 1.552 9215
1.287 1.754 1.541 10558
1.294 1.763 1.539 11378
1.300 1.772 1.537 12460
1.322 1.802 1.552 12097
1.329 1.810 1.550 13335
1.327 1.808 1.540 12800
1.322 1.801 1.525 13207
1.328 1.810 1.523 12773
1.334 1.818 1.521 13499
1.341 1.827 1.518 14825
1.347 1.836 1.516 12382
1.353 1.844 1.514 10050
1.360 1.853 1.511 8959
1.382 1.883 1.525 10776
1.376 1.876 1.510 12432
1.379 1.879 1.504 13579
1.381 1.882 1.497 12884
1.388 1.891 1.495 10437
1.394 1.900 1.492 8553
1.396 1.903 1.485 7845
1.403 1.911 1.482 7188
1.409 1.920 1.480 6063
1.415 1.929 1.477 5438
1.471 2.004 1.521 5282
1.473 2.007 1.514 5592
1.471 2.005 1.503 4863
1.494 2.036 1.515 3534
1.505 2.050 1.515 4785
1.528 2.082 1.527 7356
1.534 2.090 1.523 9203
1.536 2.094 1.516 9195
1.539 2.097 1.509 9188
1.525 2.078 1.486 6969
1.572 2.143 1.520 5136
1.575 2.146 1.512 5070
1.581 2.155 1.508 6424
1.588 2.164 1.504 9117
1.599 2.178 1.504 10544
1.605 2.187 1.500 12749
1.607 2.190 1.492 14799
1.606 2.188 1.481 12655
1.608 2.191 1.473 9135
1.627 2.217 1.479 6147
1.642 2.237 1.482 5891
1.636 2.229 1.467 6918
1.638 2.232 1.459 9000
1.649 2.247 1.458 9808
1.655 2.256 1.453 7221
1.670 2.276 1.456 5630
1.706 2.325 1.474 6318
1.679 2.288 1.443 8364
1.681 2.291 1.435 9112
1.688 2.300 1.430 6850
1.694 2.309 1.425 6581
1.701 2.318 1.420 6043
1.724 2.350 1.428 8428
1.726 2.353 1.420 8964
1.729 2.356 1.411 5761
1.795 2.446 1.451 4519
1.784 2.432 1.433 5998
1.782 2.429 1.421 9128
1.785 2.432 1.412 12855
1.791 2.441 1.407 11717
1.789 2.438 1.395 6371
1.787 2.435 1.383 4339
1.845 2.514 1.414 5404
1.852 2.523 1.408 9297
1.858 2.532 1.402 12240
1.856 2.529 1.390 11296
1.854 2.526 1.378 7704
1.921 2.618 1.413 5606
1.928 2.627 1.407 6330
1.926 2.624 1.394 6844
1.897 2.585 1.365 6980
1.908 2.600 1.362 7622
1.915 2.609 1.355 7244
1.960 2.672 1.374 7561
1.967 2.680 1.367 8463
1.965 2.677 1.355 9731
1.971 2.686 1.348 10540
1.978 2.695 1.341 9712
1.988 2.710 1.337 7095
2.004 2.731 1.335 8402
2.010 2.739 1.328 12644
2.012 2.742 1.318 10298
2.103 2.866 1.361 11309
2.131 2.905 1.366 7156
2.142 2.920 1.361 4014
2.153 2.934 1.356 5351
2.151 2.931 1.343 6904
2.175 2.964 1.345 6613
2.182 2.973 1.337 10130
2.188 2.982 1.328 7367
2.230 3.040 1.340 8403
2.237 3.048 1.331 9381
2.235 3.045 1.318 8557
2.241 3.054 1.310 5288
2.265 3.087 1.310 4045
2.276 3.102 1.304 5365
2.283 3.111 1.295 5872
2.289 3.120 1.286 4883
2.350 3.202 1.305 5178
2.361 3.217 1.298 6941
2.363 3.220 1.286 7178
2.365 3.222 1.275 4784
2.470 3.366 1.313 2808
2.441 3.326 1.286 3840
2.456 3.347 1.280 4244
2.472 3.368 1.275 5370
2.478 3.377 1.265 4874
2.503 3.411 1.263 4302
2.550 3.475 1.271 5183
2.543 3.465 1.255 6830
2.586 3.523 1.260 6989
2.592 3.532 1.250 6868
2.608 3.553 1.243 6822
2.609 3.556 1.230 6583
2.620 3.571 1.221 5139
2.668 3.635 1.227 5806
2.674 3.644 1.216 6028
2.685 3.659 1.207 7139
2.692 3.668 1.195 8421
2.693 3.670 1.182 4880
2.800 3.816 1.210 3406
2.784 3.793 1.189 4918
2.781 3.790 1.174 6803
2.833 3.861 1.179 5944
2.830 3.857 1.164 7116
2.837 3.866 1.151 4947
2.893 3.943 1.157 3480
2.890 3.939 1.141 3746
2.901 3.954 1.130 3388
2.999 4.088 1.149 3007
2.997 4.084 1.133 3635
2.994 4.080 1.117 5626
3.014 4.107 1.108 4846
3.025 4.122 1.096 4000
3.118 4.250 1.111 3904
3.115 4.246 1.094 3344
3.089 4.210 1.070 3677
3.160 4.307 1.076 4403
3.162 4.309 1.060 4696
3.163 4.311 1.045 4895
3.220 4.389 1.045 5700
3.217 4.384 1.028 4070
3.274 4.462 1.028 3995
3.336 4.546 1.028 2964
3.337 4.548 1.012 3716
3.330 4.538 0.993 2970
3.447 4.697 1.006 2579
3.467 4.725 0.994 2174
3.473 4.733 0.978 2622
3.544 4.830 0.978 3497
3.522 4.800 0.955 3576
3.519 4.796 0.937 2963
3.729 5.082 0.966 3915
3.731 5.084 0.948 4211
3.825 5.213 0.950 4174
3.808 5.189 0.927 4155
3.795 5.172 0.905 3714
3.848 5.243 0.897 3722
3.840 5.233 0.876 4634
3.836 5.228 0.857 3963
4.075 5.553 0.882 3477
4.076 5.555 0.862 2996
4.250 5.792 0.872 1931
4.349 5.927 0.867 2454
4.346 5.922 0.845 3122
4.342 5.917 0.823 2470
4.413 6.014 0.813 2407
4.414 6.016 0.791 2915
4.416 6.017 0.769 2825
4.356 5.936 0.739 2262
4.357 5.937 0.718 2077
4.876 6.645 0.764 2627
4.873 6.640 0.739 2603
4.869 6.635 0.715 1893
5.258 7.165 0.735 1827
5.259 7.166 0.709 2193
5.255 7.161 0.683 1834
5.242 7.144 0.656 1516
5.495 7.489 0.654 1891
5.496 7.490 0.627 2276
5.492 7.485 0.599 2342
5.493 7.486 0.573 2015
5.503 7.500 0.546 1669
5.513 7.513 0.520 1197
5.523 7.527 0.493 587
5.599 7.630 0.471 595
5.599 7.630 0.443 508
5.623 7.663 0.417 445
5.619 7.657 0.389 371
1.232 1.672 1.588 3382
1.234 1.675 1.582 6765
1.240 1.684 1.581 6081
1.251 1.698 1.584 4640
1.265 1.717 1.592 4098
1.267 1.720 1.586 5725
1.270 1.723 1.579 7353
1.276 1.732 1.578 8206
1.278 1.735 1.572 9134
1.281 1.739 1.566 9134
1.287 1.747 1.564 8406
1.298 1.761 1.567 8299
1.292 1.754 1.552 8525
1.291 1.752 1.541 9447
1.297 1.761 1.539 10275
1.303 1.769 1.537 11536
1.325 1.799 1.552 11380
1.332 1.808 1.550 12672
1.330 1.806 1.540 12128
1.325 1.799 1.525 12969
1.331 1.807 1.523 12385
1.338 1.816 1.521 13117
1.344 1.824 1.518 14433
1.350 1.833 1.516 12066
1.357 1.842 1.514 9777
1.363 1.850 1.511 8767
1.386 1.881 1.525 10598
1.380 1.873 1.510 12262
1.382 1.876 1.504 13771
1.385 1.880 1.497 13500
1.391 1.888 1.495 11161
1.397 1.897 1.492 9145
1.400 1.900 1.485 7947
1.406 1.909 1.482 6815
1.412 1.917 1.480 5742
1.419 1.926 1.477 5141
1.474 2.001 1.521 4923
1.477 2.005 1.514 5077
1.479 2.008 1.507 4129
1.502 2.039 1.519 3129
1.521 2.064 1.527 4743
1.531 2.079 1.527 8265
1.538 2.088 1.523 10544
1.540 2.091 1.516 10390
1.547 2.100 1.512 10260
1.545 2.097 1.501 7230
1.576 2.140 1.520 4555
1.579 2.143 1.512 3765
1.585 2.152 1.508 5644
1.592 2.161 1.504 9196
1.603 2.175 1.504 11316
1.605 2.179 1.496 13962
1.611 2.188 1.492 16334
1.610 2.185 1.481 13951
1.612 2.188 1.473 10013
1.635 2.220 1.483 6968
1.646 2.234 1.482 6593
1.644 2.232 1.470 7779
1.646 2.235 1.462 9798
1.653 2.244 1.458 10425
1.659 2.253 1.453 7534
1.674 2.273 1.456 5592
1.711 2.322 1.474 7181
1.709 2.320 1.463 8841
1.690 2.294 1.438 9554
1.692 2.297 1.430 7230
1.698 2.306 1.425 6831
1.709 2.320 1.423 6238
1.728 2.346 1.428 8115
1.731 2.349 1.420 8342
1.772 2.405 1.440 6655
1.778 2.414 1.435 5999
1.780 2.417 1.426 8907
1.787 2.426 1.421 12981
1.793 2.435 1.415 13832
1.800 2.443 1.410 9911
1.815 2.464 1.410 5250
1.830 2.485 1.411 3768
1.850 2.511 1.414 5383
1.861 2.526 1.411 10002
1.863 2.529 1.402 13757
1.865 2.532 1.393 12111
1.863 2.529 1.381 7559
1.930 2.621 1.416 5932
1.941 2.635 1.413 6658
1.948 2.644 1.406 6509
1.902 2.582 1.365 7758
1.913 2.597 1.362 8462
1.919 2.606 1.355 7781
1.970 2.674 1.377 7164
1.972 2.677 1.367 7975
1.970 2.674 1.355 8819
1.972 2.677 1.345 9363
1.978 2.685 1.338 8479
1.993 2.706 1.337 6335
2.009 2.727 1.335 8108
2.015 2.736 1.328 12100
2.013 2.733 1.316 9911
2.112 2.868 1.364 11083
2.132 2.895 1.364 8310
2.139 2.904 1.356 4216
2.163 2.937 1.358 4346
2.161 2.933 1.345 5244
2.181 2.960 1.345 6581
2.187 2.969 1.337 9956
2.171 2.948 1.316 7890
2.232 3.029 1.337 7435
2.247 3.050 1.334 7823
2.245 3.047 1.320 7198
2.251 3.056 1.312 4595
2.271 3.083 1.310 4045
2.282 3.098 1.304 5678
2.289 3.107 1.295 5302
2.331 3.165 1.305 5375
2.360 3.204 1.307 5517
2.371 3.219 1.300 6799
2.369 3.215 1.286 6749
2.371 3.218 1.275 4577
2.467 3.350 1.309 2673
2.438 3.309 1.282 3249
2.453 3.330 1.276 3424
2.478 3.364 1.275 5564
2.480 3.366 1.263 5362
2.509 3.406 1.263 5276
2.552 3.464 1.269 5688
2.554 3.467 1.257 6535
2.587 3.512 1.258 8656
2.589 3.515 1.246 6626
2.609 3.542 1.241 6061
2.616 3.551 1.230 6342
2.645 3.591 1.229 5376
2.674 3.631 1.227 5372
2.681 3.639 1.216 4762
2.687 3.648 1.205 6559
2.694 3.657 1.194 7998
2.700 3.665 1.182 4827
2.807 3.811 1.210 3451
2.795 3.795 1.191 4993
2.788 3.785 1.174 6518
2.840 3.855 1.179 5450
2.837 3.852 1.164 6680
2.839 3.854 1.150 4690
2.910 3.950 1.160 3504
2.898 3.934 1.141 3603
2.913 3.955 1.132 3451
2.938 3.988 1.126 3384
3.004 4.078 1.133 3617
3.006 4.080 1.118 5892
3.021 4.101 1.108 4973
3.037 4.123 1.098 4219
3.131 4.250 1.112 4134
3.128 4.246 1.095 3533
3.097 4.204 1.070 4031
3.168 4.301 1.076 4607
3.165 4.297 1.059 4811
3.167 4.299 1.044 5105
3.238 4.395 1.048 5891
3.244 4.404 1.033 3923
3.282 4.456 1.028 3687
3.349 4.546 1.029 3305
3.346 4.542 1.012 3903
3.338 4.531 0.993 2925
3.469 4.710 1.010 2249
3.480 4.725 0.995 2016
3.570 4.846 1.000 2369
3.562 4.836 0.980 3428
3.531 4.794 0.955 3440
3.523 4.783 0.936 2714
3.739 5.075 0.966 4046
3.740 5.077 0.948 4651
3.835 5.206 0.950 4367
3.822 5.188 0.928 4292
3.814 5.178 0.907 3750
3.853 5.230 0.896 3652
3.845 5.219 0.876 4617
3.846 5.221 0.857 3995
4.085 5.546 0.882 3347
4.086 5.547 0.862 2936
4.265 5.790 0.872 1759
4.360 5.919 0.867 2283
4.356 5.914 0.845 2734
4.348 5.903 0.822 2172
4.424 6.006 0.813 2725
4.425 6.008 0.791 3256
4.427 6.009 0.769 3101
4.367 5.928 0.739 2230
4.368 5.929 0.718 2032
4.884 6.630 0.763 2290
4.885 6.631 0.739 2348
4.881 6.626 0.715 1819
5.271 7.155 0.735 1976
5.272 7.157 0.709 2379
5.268 7.152 0.683 1920
5.471 7.427 0.677 1447
5.509 7.479 0.654 2183
5.510 7.480 0.627 2626
5.506 7.475 0.599 2618
5.507 7.476 0.573 2200
5.517 7.489 0.546 1841
5.527 7.503 0.520 1282
5.537 7.517 0.493 581
5.613 7.619 0.471 603
5.613 7.620 0.443 521
5.637 7.653 0.417 476
5.633 7.647 0.389 394
5.633 7.648 0.362 266
1.236 1.668 1.588 3632
1.239 1.672 1.582 7265
1.245 1.680 1.581 6699
1.255 1.694 1.584 5141
1.270 1.713 1.592 4312
1.272 1.716 1.586 6059
1.275 1.720 1.579 7807
1.281 1.728 1.578 8825
1.283 1.732 1.572 9940
1.286 1.735 1.566 9940
1.292 1.744 1.564 8701
1.303 1.758 1.567 8123
1.301 1.756 1.556 7684
1.296 1.748 1.541 8186
1.302 1.757 1.539 9076
1.312 1.771 1.542 10665
1.335 1.801 1.557 10553
1.337 1.804 1.550 11746
1.332 1.797 1.535 11185
1.330 1.795 1.525 12414
1.332 1.798 1.518 11784
1.343 1.812 1.521 12390
1.349 1.821 1.518 13631
1.356 1.829 1.516 11423
1.362 1.838 1.514 9274
1.368 1.846 1.511 8350
1.391 1.877 1.525 10178
1.385 1.869 1.510 11918
1.388 1.872 1.504 13795
1.390 1.876 1.497 13879
1.396 1.884 1.495 11645
1.403 1.893 1.492 9537
1.405 1.896 1.485 7956
1.412 1.905 1.482 6430
1.418 1.913 1.480 5364
1.424 1.922 1.477 4742
1.480 1.997 1.521 4649
1.482 2.000 1.514 4669
1.489 2.009 1.510 3431
1.520 2.051 1.530 2652
1.531 2.066 1.531 4570
1.541 2.080 1.531 8975
1.544 2.083 1.523 11755
1.546 2.086 1.516 11531
1.553 2.095 1.512 11362
1.551 2.093 1.501 8237
1.549 2.090 1.490 4874
1.552 2.094 1.483 4465
1.587 2.142 1.505 4940
1.602 2.162 1.508 9223
1.609 2.171 1.504 11933
1.611 2.174 1.496 14953
1.618 2.183 1.492 17488
1.616 2.180 1.481 14803
1.618 2.183 1.473 10615
1.642 2.215 1.483 7932
1.652 2.230 1.482 7508
1.650 2.227 1.470 8817
1.653 2.230 1.462 10708
1.659 2.239 1.458 10950
1.666 2.248 1.453 7782
1.711 2.308 1.479 5751
1.717 2.317 1.474 7709
1.715 2.315 1.463 9127
1.696 2.289 1.438 9884
1.699 2.292 1.430 7599
1.705 2.301 1.425 7058
1.716 2.315 1.423 6399
1.735 2.341 1.428 7636
1.738 2.344 1.420 7330
1.778 2.400 1.440 6536
1.785 2.409 1.435 6194
1.792 2.417 1.429 9718
1.794 2.420 1.421 14051
1.805 2.435 1.418 15200
1.807 2.438 1.410 12328
1.814 2.447 1.404 7354
1.811 2.444 1.392 4689
1.857 2.506 1.414 5646
1.868 2.520 1.411 10878
1.870 2.523 1.402 15331
1.872 2.526 1.393 12860
1.879 2.535 1.387 7326
1.934 2.609 1.413 6447
1.949 2.630 1.413 7151
1.960 2.645 1.409 6618
1.909 2.576 1.365 8340
1.920 2.591 1.362 9258
1.931 2.606 1.358 8406
1.977 2.668 1.377 6798
1.980 2.671 1.367 7506
1.977 2.668 1.355 7966
1.975 2.665 1.343 8309
1.982 2.674 1.336 7381
1.992 2.688 1.332 5289
2.012 2.715 1.333 7313
2.019 2.724 1.326 10748
2.119 2.859 1.374 9391
2.125 2.868 1.366 11100
2.136 2.882 1.361 9341
2.143 2.891 1.353 4931
2.172 2.930 1.358 2999
2.178 2.939 1.350 3467
2.189 2.954 1.345 6279
2.191 2.957 1.334 9822
2.180 2.942 1.316 8857
2.236 3.017 1.335 6542
2.256 3.044 1.334 5994
2.258 3.047 1.323 5797
2.265 3.056 1.314 4090
2.285 3.083 1.313 4180
2.291 3.091 1.304 6055
2.293 3.094 1.293 4854
2.345 3.164 1.307 6148
2.369 3.197 1.307 5700
2.380 3.212 1.300 6535
2.441 3.294 1.317 6469
2.448 3.303 1.308 4792
2.468 3.330 1.304 3203
2.447 3.302 1.282 3152
2.499 3.372 1.293 3406
2.488 3.357 1.275 5790
2.490 3.359 1.263 5840
2.519 3.399 1.263 6442
2.557 3.451 1.267 6087
2.582 3.484 1.265 6218
2.598 3.505 1.258 10103
2.595 3.501 1.244 6652
2.620 3.535 1.241 5532
2.622 3.537 1.228 6524
2.660 3.589 1.231 5869
2.680 3.617 1.225 5831
2.687 3.625 1.214 4349
2.693 3.634 1.203 5882
2.704 3.649 1.194 7204
2.711 3.658 1.182 4812
2.823 3.809 1.212 3735
2.811 3.793 1.193 4752
2.794 3.770 1.172 5478
2.851 3.847 1.179 4804
2.848 3.843 1.164 5911
2.850 3.846 1.150 4225
2.926 3.948 1.162 3550
2.904 3.919 1.140 3389
2.925 3.946 1.132 3295
2.949 3.980 1.126 3812
2.951 3.982 1.111 3653
3.018 4.072 1.118 6070
3.029 4.086 1.107 4743
3.053 4.120 1.099 4081
3.143 4.241 1.112 4059
3.112 4.199 1.087 3596
3.109 4.195 1.070 4148
3.181 4.292 1.076 4780
3.178 4.287 1.059 4893
3.179 4.290 1.044 5351
3.255 4.392 1.049 6055
3.261 4.400 1.035 3981
3.295 4.446 1.028 3303
3.367 4.543 1.030 3791
3.359 4.532 1.012 3957
3.346 4.515 0.992 2816
3.423 4.618 0.994 2773
3.499 4.721 0.996 2025
3.598 4.855 1.003 2492
3.590 4.844 0.983 3444
3.545 4.783 0.955 3251
3.752 5.062 0.984 2702
3.753 5.064 0.966 4204
3.755 5.066 0.948 5126
3.761 5.075 0.931 4395
3.837 5.177 0.928 4285
3.829 5.167 0.907 3947
3.854 5.200 0.893 3558
3.860 5.208 0.876 4587
3.861 5.210 0.857 4002
4.101 5.534 0.882 3148
4.103 5.536 0.862 2803
4.104 5.537 0.842 1680
4.377 5.906 0.867 2169
4.374 5.901 0.845 2445
4.445 5.998 0.835 2403
4.442 5.993 0.813 2931
4.443 5.995 0.791 3501
4.444 5.996 0.769 3339
4.661 6.289 0.778 2193
4.658 6.284 0.754 2151
4.654 6.280 0.731 2327
4.904 6.617 0.739 2039
4.449 6.003 0.661 1828
5.292 7.140 0.735 2084
5.293 7.142 0.709 2503
5.294 7.143 0.683 1972
5.492 7.411 0.677 1602
5.531 7.463 0.654 2417
5.532 7.464 0.627 2912
5.528 7.459 0.599 2808
5.529 7.460 0.573 2294
5.539 7.473 0.546 1948
5.549 7.487 0.520 1344
5.559 7.501 0.493 586
5.635 7.603 0.471 615
5.635 7.604 0.443 540
5.659 7.636 0.417 494
5.660 7.637 0.389 397
5.660 7.638 0.362 272
1.239 1.667 1.588 3982
1.241 1.670 1.582 7965
1.247 1.678 1.581 7540
1.258 1.692 1.584 5739
1.272 1.711 1.592 4462
1.274 1.715 1.586 6345
1.277 1.718 1.579 8227
1.283 1.727 1.578 9319
1.290 1.735 1.576 10592
1.292 1.739 1.570 10592
1.299 1.747 1.568 8861
1.305 1.756 1.567 7818
1.307 1.759 1.560 7118
1.298 1.747 1.541 6915
1.308 1.761 1.543 8285
1.315 1.769 1.542 10083
1.337 1.799 1.557 9768
1.344 1.808 1.555 10756
1.330 1.790 1.531 10265
1.332 1.793 1.525 11658
1.335 1.796 1.518 11025
1.345 1.810 1.521 11430
1.352 1.819 1.518 12506
1.358 1.827 1.516 10532
1.365 1.836 1.514 8625
1.371 1.845 1.511 7813
1.394 1.875 1.525 9590
1.388 1.867 1.510 11443
1.386 1.865 1.500 13666
1.393 1.874 1.497 14032
1.399 1.882 1.495 11950
1.405 1.891 1.492 9790
1.408 1.894 1.485 7874
1.414 1.903 1.482 6010
1.421 1.911 1.480 4908
1.476 1.986 1.524 4520
1.483 1.995 1.521 4451
1.489 2.004 1.518 4416
1.496 2.013 1.514 3051
1.523 2.049 1.530 2194
1.534 2.063 1.531 4210
1.544 2.078 1.531 9500
1.547 2.081 1.523 12910
1.549 2.084 1.516 12699
1.556 2.093 1.512 12546
1.554 2.091 1.501 9510
1.556 2.094 1.494 6452
1.559 2.097 1.486 6373
1.561 2.100 1.479 5472
1.605 2.160 1.508 9360
1.612 2.169 1.504 12475
1.614 2.172 1.496 15793
1.621 2.181 1.492 18334
1.623 2.184 1.484 15353
1.625 2.187 1.476 11112
1.645 2.213 1.483 9016
1.664 2.239 1.489 8699
1.658 2.230 1.474 10230
1.656 2.228 1.462 11823
1.662 2.237 1.458 11589
1.669 2.246 1.453 8148
1.688 2.272 1.459 5863
1.720 2.315 1.474 7672
1.714 2.306 1.459 8962
1.699 2.287 1.438 10002
1.702 2.290 1.430 7980
1.704 2.293 1.422 7346
1.719 2.313 1.423 6512
1.738 2.339 1.428 6904
1.767 2.377 1.439 7057
1.782 2.397 1.440 8167
1.784 2.400 1.432 7257
1.791 2.409 1.426 9418
1.797 2.418 1.421 13531
1.804 2.427 1.415 14461
1.815 2.442 1.413 10956
1.821 2.450 1.407 7750
1.815 2.442 1.392 5820
1.860 2.503 1.414 5854
1.871 2.518 1.411 12065
1.874 2.521 1.402 17002
1.876 2.524 1.393 13721
1.904 2.562 1.402 8101
1.937 2.606 1.413 7030
1.948 2.621 1.410 7522
1.964 2.642 1.409 6441
1.913 2.574 1.365 9136
1.924 2.589 1.362 10151
1.935 2.603 1.358 9071
1.981 2.666 1.377 6578
1.988 2.674 1.370 7061
1.981 2.665 1.355 7141
1.979 2.662 1.343 7397
1.981 2.665 1.333 6395
1.992 2.680 1.329 4418
2.016 2.712 1.333 6104
2.022 2.721 1.326 8852
2.122 2.856 1.374 9147
2.134 2.871 1.369 11396
2.140 2.880 1.361 10199
2.142 2.882 1.351 6064
2.149 2.891 1.343 2591
2.137 2.876 1.325 2370
2.193 2.951 1.345 5875
2.191 2.948 1.332 9730
2.184 2.939 1.316 9786
2.240 3.014 1.335 5987
2.229 2.999 1.317 4698
2.271 3.056 1.328 4737
2.278 3.065 1.319 3846
2.302 3.098 1.320 4597
2.295 3.088 1.304 6425
2.293 3.085 1.291 4611
2.349 3.161 1.307 6845
2.374 3.194 1.307 5707
2.389 3.215 1.302 6257
2.441 3.285 1.315 6357
2.452 3.300 1.308 5365
2.463 3.315 1.300 4430
2.456 3.305 1.284 3426
2.504 3.369 1.293 4104
2.488 3.347 1.273 5812
2.517 3.387 1.273 5979
2.523 3.395 1.263 7756
2.530 3.404 1.253 6908
2.600 3.499 1.271 7162
2.602 3.501 1.258 11407
2.600 3.498 1.244 7668
2.602 3.500 1.231 6444
2.613 3.515 1.222 7581
2.670 3.592 1.233 6187
2.685 3.613 1.225 6654
2.683 3.609 1.211 4549
2.689 3.618 1.199 5238
2.709 3.645 1.194 6152
2.716 3.654 1.182 4655
2.828 3.805 1.212 4018
2.825 3.801 1.196 4697
2.790 3.754 1.169 4438
2.852 3.837 1.177 4188
2.849 3.833 1.162 5142
2.851 3.836 1.148 3669
2.936 3.950 1.164 3624
2.905 3.909 1.138 3251
2.930 3.942 1.132 3040
2.950 3.970 1.124 4135
2.957 3.978 1.111 4111
3.023 4.068 1.118 6068
3.020 4.064 1.102 4407
3.064 4.122 1.101 3620
3.070 4.131 1.087 4449
3.113 4.189 1.085 3809
3.110 4.185 1.069 3943
3.186 4.287 1.076 4942
3.183 4.283 1.059 4804
3.259 4.385 1.065 5458
3.261 4.388 1.049 5966
3.267 4.396 1.035 3899
3.376 4.542 1.048 2927
3.373 4.538 1.030 4237
3.365 4.528 1.012 4001
3.404 4.580 1.005 3379
3.429 4.613 0.994 3373
3.430 4.615 0.978 2633
3.605 4.850 1.003 2491
3.606 4.852 0.985 3565
3.551 4.778 0.955 2949
3.759 5.057 0.984 2686
3.760 5.059 0.966 4327
3.766 5.068 0.949 5577
3.768 5.069 0.931 4839
3.839 5.166 0.927 3952
3.836 5.161 0.907 3871
4.011 5.397 0.923 3911
4.012 5.398 0.903 4538
3.863 5.198 0.856 3872
4.109 5.528 0.882 2963
4.110 5.530 0.862 2633
4.116 5.538 0.842 1713
4.385 5.900 0.867 2022
4.382 5.895 0.845 2129
4.453 5.992 0.835 2644
4.450 5.987 0.813 3096
4.451 5.989 0.791 3680
4.452 5.990 0.769 3536
4.670 6.283 0.778 2310
4.666 6.278 0.754 2365
4.667 6.280 0.732 2612
4.668 6.281 0.709 1994
4.744 6.384 0.695 1806
5.306 7.139 0.735 2189
5.307 7.141 0.710 2616
4.752 6.394 0.626 2046
4.748 6.388 0.603 1711
5.541 7.455 0.654 2522
5.542 7.456 0.627 3056
5.538 7.451 0.599 2882
5.543 7.459 0.573 2324
5.554 7.472 0.547 2029
5.559 7.480 0.520 1401
5.588 7.519 0.495 613
5.588 7.519 0.467 602
5.650 7.603 0.444 527
5.670 7.629 0.417 483
5.670 7.629 0.389 384
5.671 7.630 0.362 263
1.248 1.667 1.593 4377
1.251 1.671 1.587 8754
1.253 1.674 1.581 8384
1.260 1.683 1.579 6366
1.266 1.691 1.578 4653
1.280 1.710 1.586 6469
1.283 1.713 1.579 8415
1.289 1.722 1.578 9472
1.296 1.731 1.576 10806
1.298 1.734 1.570 10806
1.305 1.743 1.568 8669
1.315 1.756 1.571 7294
1.314 1.755 1.560 6729
1.316 1.758 1.554 6198
1.319 1.761 1.548 7948
1.321 1.764 1.542 9699
1.344 1.794 1.557 8810
1.350 1.803 1.555 9608
1.336 1.785 1.531 9419
1.335 1.783 1.521 10804
1.341 1.791 1.518 10119
1.352 1.805 1.521 10262
1.358 1.814 1.518 11074
1.365 1.822 1.516 9390
1.371 1.831 1.514 7799
1.378 1.840 1.511 7065
1.400 1.870 1.525 8683
1.394 1.862 1.510 10681
1.393 1.860 1.500 13264
1.399 1.869 1.497 13859
1.406 1.877 1.495 11868
1.412 1.886 1.492 9673
1.415 1.889 1.485 7622
1.421 1.898 1.482 5613
1.423 1.901 1.476 4449
1.483 1.981 1.524 4479
1.494 1.995 1.525 4353
1.496 1.998 1.518 4357
1.503 2.007 1.514 3187
1.509 2.016 1.511 1842
1.545 2.064 1.534 3797
1.548 2.067 1.527 9698
1.554 2.076 1.523 13667
1.557 2.079 1.516 13501
1.563 2.088 1.512 13400
1.566 2.091 1.505 10608
1.564 2.088 1.494 8105
1.566 2.092 1.486 8343
1.573 2.100 1.482 6882
1.609 2.148 1.504 9427
1.615 2.157 1.500 12902
1.622 2.166 1.496 16172
1.628 2.175 1.492 18532
1.631 2.178 1.484 15352
1.637 2.187 1.480 11268
1.657 2.213 1.486 9962
1.672 2.233 1.489 9773
1.670 2.230 1.477 11604
1.664 2.222 1.462 12871
1.670 2.231 1.458 12202
1.677 2.240 1.453 8739
1.692 2.260 1.456 5964
1.729 2.309 1.474 6903
1.722 2.300 1.459 8062
1.712 2.286 1.441 9797
1.710 2.283 1.430 8470
1.712 2.286 1.422 7932
1.719 2.295 1.417 6805
1.742 2.327 1.425 5992
1.779 2.376 1.442 5989
1.786 2.385 1.437 6496
1.793 2.394 1.432 5794
1.804 2.409 1.429 6724
1.810 2.417 1.424 11244
1.812 2.420 1.415 15532
1.815 2.423 1.407 12512
1.830 2.444 1.407 7013
1.841 2.459 1.405 4927
1.869 2.497 1.414 5891
1.880 2.511 1.411 12767
1.883 2.514 1.402 18169
1.889 2.523 1.396 14997
1.913 2.555 1.402 8498
1.942 2.594 1.410 7435
1.953 2.608 1.407 7579
1.920 2.564 1.374 6706
1.922 2.567 1.365 9556
1.938 2.588 1.364 11027
1.944 2.596 1.358 9824
1.991 2.658 1.377 6336
2.006 2.679 1.375 7201
2.008 2.682 1.366 6786
1.988 2.655 1.343 6644
1.995 2.664 1.336 5670
2.019 2.696 1.340 4178
2.021 2.699 1.330 5083
2.028 2.708 1.323 6711
2.137 2.854 1.376 8755
2.144 2.863 1.369 11460
2.150 2.872 1.361 10302
2.153 2.875 1.351 6715
2.164 2.890 1.346 4045
2.166 2.892 1.335 4137
2.199 2.937 1.342 5782
2.197 2.934 1.329 9555
2.190 2.925 1.314 10265
2.188 2.921 1.301 6521
2.239 2.991 1.317 5803
2.241 2.993 1.306 4343
2.320 3.099 1.336 4416
2.318 3.096 1.322 5110
2.306 3.080 1.304 6648
2.358 3.149 1.318 4917
2.360 3.152 1.307 7348
2.381 3.179 1.305 5474
2.401 3.206 1.302 5975
2.448 3.270 1.313 5924
2.460 3.285 1.305 5469
2.475 3.306 1.300 5404
2.477 3.308 1.288 4327
2.511 3.354 1.291 4546
2.500 3.338 1.273 5693
2.534 3.384 1.275 6997
2.540 3.392 1.265 8948
2.547 3.401 1.255 8331
2.613 3.490 1.271 8609
2.615 3.492 1.258 12436
2.612 3.489 1.244 8720
2.619 3.497 1.233 8067
2.621 3.500 1.221 9170
2.687 3.588 1.235 6422
2.698 3.603 1.225 7619
2.691 3.594 1.209 5029
2.697 3.602 1.198 4796
2.727 3.642 1.195 5340
2.729 3.644 1.182 4525
2.837 3.789 1.210 4017
2.843 3.797 1.198 4619
2.790 3.726 1.164 4123
2.852 3.808 1.172 3722
2.858 3.817 1.160 4403
2.948 3.937 1.178 3627
2.917 3.896 1.152 3665
2.914 3.892 1.137 3083
2.949 3.938 1.134 2621
2.964 3.959 1.124 4166
2.966 3.961 1.110 4291
3.038 4.057 1.118 5744
3.030 4.047 1.101 4169
3.106 4.148 1.110 3500
3.075 4.107 1.085 4559
3.124 4.172 1.084 3733
3.205 4.280 1.093 3916
3.202 4.276 1.076 4796
3.203 4.278 1.060 4223
3.275 4.374 1.065 5585
3.277 4.376 1.049 5570
3.283 4.384 1.035 3673
3.289 4.393 1.020 3226
3.389 4.526 1.030 4524
3.381 4.516 1.012 3924
3.420 4.568 1.005 3983
3.445 4.601 0.994 3835
3.447 4.603 0.978 3131
3.500 4.674 0.974 2440
3.623 4.839 0.985 3506
3.625 4.841 0.968 3030
3.777 5.044 0.984 2583
3.783 5.052 0.967 4327
3.780 5.048 0.948 5808
3.786 5.056 0.931 5087
3.801 5.077 0.915 3816
3.854 5.148 0.907 3617
4.030 5.382 0.923 4289
4.032 5.384 0.903 4919
4.028 5.380 0.883 3960
4.025 5.375 0.863 2908
4.130 5.515 0.862 2475
4.164 5.561 0.847 1789
4.161 5.556 0.826 2094
4.157 5.552 0.806 2048
4.475 5.976 0.835 2701
4.471 5.971 0.813 3086
4.472 5.973 0.791 3655
4.473 5.974 0.769 3556
4.692 6.266 0.778 2282
4.688 6.261 0.754 2504
4.685 6.257 0.731 2875
4.690 6.264 0.709 2206
4.767 6.367 0.695 1698
5.332 7.120 0.735 2181
5.333 7.122 0.710 2597
4.775 6.377 0.626 2250
4.776 6.378 0.603 1813
5.567 7.435 0.654 2496
5.568 7.437 0.627 3042
5.564 7.431 0.599 2813
5.570 7.439 0.573 2281
5.580 7.452 0.547 2074
5.586 7.460 0.520 1437
5.643 7.537 0.496 621
5.620 7.506 0.468 601
5.678 7.582 0.444 528
5.697 7.608 0.417 467
5.697 7.609 0.389 360
1.253 1.664 1.593 4830
1.256 1.667 1.587 9660
1.258 1.670 1.581 9328
1.265 1.679 1.579 7067
1.267 1.682 1.573 5074
1.278 1.696 1.577 6661
1.284 1.705 1.575 8608
1.294 1.718 1.578 9439
1.301 1.727 1.576 10736
1.303 1.730 1.570 10736
1.314 1.744 1.573 8325
1.320 1.753 1.571 6702
1.323 1.756 1.565 6552
1.321 1.754 1.554 6408
1.328 1.763 1.552 7944
1.330 1.766 1.546 9485
1.333 1.769 1.540 8408
1.355 1.799 1.555 8278
1.338 1.776 1.527 8679
1.340 1.779 1.521 10029
1.342 1.782 1.514 9132
1.357 1.801 1.521 8925
1.363 1.810 1.518 9389
1.370 1.819 1.516 8038
1.376 1.827 1.514 6817
1.387 1.841 1.515 6149
1.410 1.871 1.529 7465
1.400 1.858 1.510 9609
1.398 1.856 1.500 12455
1.405 1.865 1.497 13203
1.411 1.873 1.495 11311
1.418 1.882 1.492 9129
1.420 1.885 1.485 7083
1.426 1.894 1.482 5117
1.482 1.968 1.527 4008
1.489 1.977 1.524 4421
1.500 1.991 1.525 4412
1.502 1.994 1.518 4513
1.505 1.997 1.510 3652
1.499 1.989 1.496 2278
1.551 2.059 1.534 3346
1.554 2.062 1.527 9676
1.560 2.071 1.523 14114
1.563 2.074 1.516 14065
1.569 2.083 1.512 14067
1.572 2.086 1.505 11433
1.574 2.089 1.497 9295
1.576 2.093 1.490 9792
1.579 2.096 1.482 8080
1.615 2.144 1.504 9526
1.617 2.147 1.497 13264
1.624 2.156 1.492 16245
1.635 2.170 1.492 18161
1.637 2.173 1.484 14830
1.648 2.188 1.483 11126
1.663 2.208 1.486 10598
1.678 2.228 1.489 10565
1.676 2.225 1.477 12838
1.674 2.223 1.466 13827
1.677 2.226 1.458 12721
1.683 2.235 1.453 9631
1.699 2.255 1.456 6128
1.735 2.304 1.474 5624
1.712 2.272 1.446 6585
1.718 2.281 1.441 9176
1.716 2.278 1.430 8975
1.719 2.281 1.422 8604
1.725 2.290 1.417 7288
1.771 2.351 1.441 5330
1.791 2.377 1.445 5681
1.789 2.374 1.434 5666
1.782 2.366 1.419 5248
1.802 2.392 1.423 6945
1.808 2.401 1.418 10122
1.811 2.404 1.409 15551
1.813 2.407 1.400 16791
1.806 2.398 1.386 10667
1.804 2.395 1.374 8273
1.806 2.398 1.365 7240
1.888 2.506 1.411 12690
1.890 2.509 1.402 18846
1.896 2.518 1.396 16081
1.899 2.520 1.387 8804
1.945 2.582 1.407 7546
1.925 2.556 1.383 7391
1.923 2.553 1.371 7457
1.930 2.561 1.365 10107
1.945 2.582 1.364 12063
1.956 2.597 1.361 10369
1.998 2.653 1.377 6626
2.014 2.673 1.375 7848
2.025 2.688 1.371 7271
2.000 2.655 1.345 5850
2.025 2.688 1.349 5254
2.036 2.702 1.345 5871
2.033 2.699 1.333 4871
2.031 2.696 1.320 4673
2.150 2.854 1.379 8297
2.152 2.857 1.369 11118
2.154 2.860 1.358 9727
2.107 2.797 1.320 6797
2.186 2.901 1.353 5777
2.183 2.898 1.340 6125
2.203 2.925 1.340 6240
2.205 2.928 1.329 9116
2.198 2.918 1.314 10173
2.196 2.915 1.301 6817
2.252 2.990 1.319 7093
2.255 2.993 1.308 4972
2.329 3.092 1.336 4713
2.322 3.083 1.320 5402
2.311 3.067 1.302 6715
2.367 3.143 1.318 5158
2.369 3.145 1.307 7418
2.394 3.178 1.307 5123
2.415 3.205 1.304 5687
2.458 3.263 1.313 5268
2.469 3.278 1.305 5270
2.485 3.299 1.300 5823
2.487 3.301 1.288 4953
2.512 3.334 1.287 4807
2.509 3.331 1.273 5333
2.548 3.382 1.277 8076
2.550 3.385 1.265 9661
2.557 3.394 1.255 9362
2.623 3.482 1.271 9831
2.620 3.478 1.256 13358
2.622 3.481 1.244 9740
2.629 3.490 1.233 9707
2.631 3.492 1.221 10905
2.707 3.593 1.238 6879
2.709 3.596 1.225 8458
2.706 3.592 1.211 5546
2.703 3.588 1.196 4503
2.737 3.634 1.195 5049
2.739 3.636 1.182 4369
2.848 3.780 1.210 3812
2.859 3.795 1.200 4615
2.856 3.792 1.184 4738
2.853 3.788 1.169 4076
2.864 3.802 1.159 4104
2.931 3.891 1.168 4197
2.929 3.888 1.152 3984
2.921 3.878 1.135 2810
2.969 3.942 1.137 2284
2.976 3.950 1.124 3900
2.978 3.953 1.110 4226
3.049 4.048 1.118 5440
3.042 4.038 1.101 4225
3.114 4.133 1.108 3631
3.078 4.086 1.082 4498
3.075 4.082 1.065 3881
3.222 4.277 1.094 3696
3.219 4.273 1.077 4325
3.286 4.362 1.081 3843
3.288 4.364 1.065 5422
3.289 4.366 1.049 4924
3.234 4.294 1.018 3445
3.297 4.377 1.019 3383
3.402 4.516 1.030 4592
3.390 4.500 1.010 3826
3.433 4.558 1.005 4340
3.435 4.560 0.988 4184
3.455 4.587 0.977 3434
3.513 4.664 0.974 3171
3.642 4.835 0.987 3253
3.639 4.831 0.968 3037
3.791 5.033 0.984 2370
3.798 5.041 0.967 4106
3.794 5.037 0.948 5705
3.800 5.045 0.931 5077
3.816 5.066 0.915 3525
3.869 5.136 0.907 3392
4.046 5.371 0.923 4620
4.047 5.372 0.903 5201
4.048 5.374 0.884 4129
4.036 5.357 0.862 2851
4.027 5.346 0.841 2345
4.180 5.549 0.847 1972
4.290 5.695 0.845 2446
4.173 5.540 0.806 2061
4.492 5.963 0.835 2629
4.488 5.958 0.813 3014
4.490 5.960 0.791 3548
4.491 5.961 0.769 3470
4.710 6.253 0.778 2159
4.707 6.248 0.754 2476
4.703 6.243 0.731 2940
4.704 6.244 0.708 2253
4.771 6.334 0.693 1630
4.787 6.354 0.672 2138
4.787 6.355 0.649 2545
4.788 6.356 0.626 2246
5.445 7.229 0.667 1850
5.599 7.432 0.655 2355
5.595 7.427 0.627 2886
5.591 7.422 0.600 2607
5.601 7.435 0.574 2137
5.607 7.443 0.547 2040
5.607 7.443 0.520 1430
5.727 7.602 0.500 683
5.642 7.489 0.468 580
5.699 7.566 0.444 526
5.719 7.592 0.417 449
5.719 7.592 0.389 339
1.256 1.661 1.593 5239
1.259 1.665 1.587 10479
1.262 1.668 1.581 10161
1.268 1.676 1.579 7658
1.271 1.680 1.573 5388
1.277 1.688 1.572 6978
1.283 1.697 1.570 8794
1.294 1.711 1.573 9285
1.300 1.719 1.572 10394
1.303 1.722 1.566 10394
1.317 1.741 1.573 7806
1.324 1.750 1.571 6018
1.326 1.753 1.565 6584
1.329 1.757 1.558 7150
1.331 1.760 1.552 8302
1.334 1.763 1.546 9454
1.336 1.767 1.540 8252
1.359 1.796 1.555 7061
1.341 1.773 1.527 8199
1.343 1.776 1.521 9349
1.346 1.779 1.514 8352
1.360 1.799 1.521 7777
1.367 1.807 1.518 7853
1.373 1.816 1.516 6853
1.380 1.824 1.514 6012
1.390 1.838 1.515 5322
1.413 1.869 1.529 6104
1.399 1.850 1.506 8462
1.402 1.853 1.500 11342
1.408 1.862 1.497 12113
1.415 1.871 1.495 10358
1.421 1.879 1.492 8272
1.424 1.882 1.485 6388
1.430 1.891 1.482 4637
1.482 1.960 1.523 4027
1.493 1.974 1.524 4243
1.504 1.988 1.525 4444
1.506 1.991 1.518 4709
1.500 1.983 1.503 4319
1.503 1.987 1.496 3226
1.534 2.028 1.515 3260
1.558 2.059 1.527 9508
1.560 2.062 1.520 14350
1.567 2.071 1.516 14318
1.573 2.080 1.512 14437
1.576 2.083 1.505 11833
1.578 2.086 1.497 9949
1.580 2.090 1.490 10668
1.583 2.093 1.482 8931
1.619 2.141 1.504 9570
1.621 2.144 1.497 13673
1.628 2.153 1.492 16136
1.635 2.161 1.488 17425
1.641 2.170 1.484 13996
1.652 2.185 1.483 10829
1.667 2.205 1.486 10889
1.683 2.225 1.489 10923
1.685 2.228 1.481 13586
1.679 2.220 1.466 14501
1.681 2.223 1.458 13185
1.688 2.231 1.453 10709
1.694 2.240 1.449 6825
1.688 2.232 1.434 5134
1.712 2.263 1.443 5484
1.719 2.272 1.438 8467
1.721 2.275 1.430 9500
1.719 2.272 1.418 9267
1.725 2.281 1.413 7808
1.789 2.365 1.451 6663
1.791 2.368 1.442 7653
1.793 2.371 1.434 8073
1.791 2.368 1.422 7984
1.798 2.377 1.417 9436
1.791 2.368 1.402 12113
1.811 2.394 1.406 16836
1.813 2.397 1.397 19744
1.811 2.394 1.386 14723
1.809 2.391 1.374 11667
1.811 2.394 1.365 9539
1.892 2.502 1.411 12307
1.895 2.505 1.402 18878
1.901 2.514 1.396 16504
1.899 2.511 1.384 8992
1.937 2.561 1.398 8033
1.926 2.546 1.380 9079
1.928 2.549 1.371 8313
1.939 2.564 1.368 10859
1.950 2.578 1.364 13046
1.961 2.593 1.361 11019
1.994 2.637 1.371 6731
2.023 2.675 1.378 8421
2.030 2.684 1.371 7522
2.014 2.663 1.351 5576
2.039 2.696 1.355 7065
2.046 2.704 1.348 8330
2.043 2.701 1.335 6048
2.108 2.787 1.363 4098
2.155 2.850 1.379 7701
2.158 2.853 1.369 10194
2.160 2.856 1.358 8400
2.112 2.793 1.320 8378
2.196 2.903 1.356 7189
2.193 2.900 1.343 7501
2.200 2.909 1.335 7045
2.207 2.917 1.327 8594
2.204 2.914 1.314 9619
2.202 2.911 1.301 6743
2.258 2.986 1.319 7809
2.265 2.994 1.311 5623
2.335 3.088 1.336 4652
2.324 3.072 1.317 5533
2.317 3.063 1.302 6725
2.378 3.144 1.321 4984
2.380 3.147 1.309 6842
2.432 3.216 1.323 5174
2.421 3.201 1.304 5424
2.460 3.252 1.311 4609
2.471 3.267 1.303 5053
2.487 3.288 1.298 5645
2.516 3.327 1.299 5037
2.518 3.330 1.287 4856
2.539 3.357 1.283 5519
2.550 3.371 1.275 9214
2.556 3.380 1.265 9837
2.563 3.389 1.255 9907
2.625 3.471 1.269 10821
2.627 3.473 1.256 13855
2.629 3.476 1.244 10263
2.636 3.485 1.233 10526
2.637 3.487 1.221 11825
2.718 3.594 1.240 7327
2.720 3.596 1.227 9154
2.713 3.587 1.211 6204
2.715 3.589 1.198 4574
2.744 3.628 1.195 5024
2.751 3.637 1.184 4251
2.855 3.775 1.210 3466
2.862 3.784 1.198 4569
2.863 3.786 1.184 5086
2.861 3.782 1.169 4323
2.886 3.815 1.164 3896
2.939 3.886 1.168 4738
2.936 3.882 1.152 4061
2.924 3.866 1.133 2579
3.005 3.973 1.146 2454
2.983 3.945 1.124 3451
2.985 3.947 1.110 4024
3.057 4.042 1.118 5257
3.059 4.044 1.104 4336
3.122 4.127 1.108 3654
3.086 4.080 1.082 4265
3.083 4.076 1.065 3775
3.239 4.283 1.097 4052
3.222 4.260 1.076 4358
3.294 4.356 1.081 3615
3.296 4.358 1.065 5022
3.246 4.292 1.035 4289
3.243 4.287 1.018 3494
3.306 4.370 1.019 3344
3.406 4.503 1.029 4506
3.398 4.493 1.010 3753
3.438 4.545 1.004 4364
3.439 4.547 0.987 4402
3.431 4.536 0.968 3795
3.522 4.657 0.974 3554
3.651 4.828 0.987 2969
3.643 4.817 0.967 2916
3.640 4.813 0.948 2120
3.807 5.034 0.967 3683
3.804 5.030 0.948 5374
3.810 5.038 0.931 4827
3.826 5.058 0.915 3150
4.055 5.361 0.942 3120
4.061 5.369 0.924 4692
4.062 5.371 0.904 5134
4.059 5.366 0.884 4051
4.046 5.349 0.862 2616
4.038 5.338 0.841 2194
4.305 5.692 0.867 2207
4.301 5.687 0.845 2785
4.303 5.689 0.825 2238
4.503 5.954 0.835 2480
4.500 5.950 0.813 2924
4.501 5.951 0.791 3409
4.502 5.953 0.769 3352
4.503 5.954 0.748 2104
4.714 6.232 0.754 2344
4.710 6.228 0.730 2875
4.711 6.229 0.708 2203
4.779 6.318 0.693 1652
4.794 6.339 0.672 2166
4.800 6.346 0.649 2543
4.801 6.347 0.626 2172
5.464 7.224 0.667 1937
5.627 7.440 0.656 2335
5.614 7.422 0.628 2757
5.615 7.423 0.601 2391
5.615 7.424 0.574 1971
5.621 7.432 0.547 1958
5.622 7.433 0.520 1392
5.742 7.591 0.500 724
5.714 7.554 0.471 537
5.724 7.568 0.444 516
5.729 7.574 0.417 418
5.739 7.588 0.390 305
1.260 1.658 1.593 5616
1.263 1.662 1.587 11232
1.266 1.665 1.581 10924
1.272 1.673 1.579 8190
1.275 1.677 1.573 5655
1.281 1.685 1.572 7382
1.284 1.689 1.566 9233
1.294 1.702 1.569 9354
1.300 1.711 1.567 10153
1.303 1.714 1.561 10153
1.321 1.738 1.573 7240
1.328 1.747 1.571 5328
1.330 1.750 1.565 6719
1.337 1.759 1.563 8191
1.335 1.757 1.552 8833
1.338 1.760 1.546 9556
1.340 1.763 1.540 8310
1.343 1.767 1.533 7063
1.345 1.770 1.527 8042
1.348 1.773 1.521 9020
1.350 1.776 1.514 7781
1.361 1.790 1.516 6781
1.367 1.799 1.514 6401
1.378 1.813 1.516 5765
1.384 1.821 1.514 5307
1.391 1.830 1.511 4582
1.401 1.844 1.513 4777
1.404 1.847 1.506 7272
1.406 1.850 1.500 10112
1.413 1.859 1.497 10895
1.419 1.867 1.495 9287
1.426 1.876 1.492 7323
1.428 1.879 1.485 5604
1.480 1.947 1.526 4273
1.487 1.956 1.523 3979
1.506 1.981 1.532 3877
1.508 1.984 1.525 4334
1.511 1.988 1.518 4791
1.501 1.974 1.499 4945
1.507 1.983 1.496 3987
1.535 2.019 1.511 4161
1.558 2.050 1.523 9425
1.565 2.059 1.520 14285
1.572 2.067 1.516 14261
1.574 2.071 1.509 14574
1.581 2.079 1.505 11817
1.583 2.083 1.497 10017
1.585 2.086 1.490 10902
1.588 2.089 1.482 9570
1.620 2.131 1.501 9777
1.622 2.134 1.493 14303
1.629 2.143 1.489 15847
1.640 2.157 1.488 16246
1.651 2.172 1.488 12943
1.662 2.186 1.487 10430
1.673 2.201 1.486 10951
1.684 2.215 1.485 10892
1.686 2.218 1.477 13780
1.688 2.221 1.469 14894
1.691 2.224 1.461 13752
1.693 2.227 1.453 11956
1.695 2.230 1.445 8511
1.698 2.233 1.437 6749
1.704 2.242 1.433 5499
1.724 2.268 1.438 7833
1.722 2.265 1.426 9980
1.724 2.268 1.418 9959
1.731 2.277 1.413 8456
1.790 2.355 1.447 7202
1.797 2.363 1.442 7784
1.803 2.372 1.437 7841
1.801 2.369 1.425 7771
1.803 2.372 1.417 9475
1.797 2.364 1.402 13075
1.812 2.384 1.403 15981
1.819 2.393 1.397 19365
1.817 2.390 1.386 16354
1.814 2.387 1.374 13574
1.817 2.390 1.365 11510
1.899 2.498 1.411 11395
1.901 2.500 1.402 18114
1.903 2.503 1.393 16373
1.905 2.506 1.384 9217
1.939 2.550 1.396 9515
1.932 2.541 1.380 10741
1.934 2.544 1.371 8851
1.945 2.559 1.368 11057
1.956 2.573 1.364 13782
1.967 2.588 1.361 11661
1.992 2.620 1.365 7192
2.030 2.670 1.378 8984
2.032 2.673 1.369 7848
2.030 2.670 1.356 6187
2.050 2.697 1.357 8926
2.052 2.700 1.348 10863
2.050 2.696 1.335 7806
2.061 2.711 1.331 4494
2.108 2.773 1.347 7154
2.169 2.853 1.371 8653
2.112 2.779 1.327 8587
2.123 2.793 1.323 9638
2.203 2.898 1.356 7831
2.200 2.895 1.343 8115
2.207 2.903 1.335 7494
2.218 2.918 1.329 8070
2.211 2.909 1.314 8854
2.263 2.977 1.330 6499
2.270 2.986 1.322 8144
2.272 2.989 1.311 6394
2.338 3.076 1.333 4220
2.331 3.067 1.317 5429
2.324 3.057 1.302 6479
2.386 3.138 1.321 4537
2.388 3.141 1.309 5793
2.440 3.210 1.323 5083
2.433 3.201 1.307 5089
2.463 3.240 1.308 3982
2.483 3.267 1.305 5036
2.495 3.282 1.298 5595
2.543 3.345 1.307 5752
2.545 3.348 1.295 5408
2.551 3.356 1.285 6715
2.558 3.365 1.275 10267
2.560 3.368 1.263 9626
2.571 3.383 1.255 10072
2.633 3.464 1.269 11115
2.635 3.467 1.256 13410
2.637 3.470 1.244 10220
2.639 3.472 1.231 10445
2.646 3.481 1.221 11629
2.727 3.587 1.240 7551
2.733 3.596 1.229 9758
2.726 3.586 1.212 7372
2.723 3.583 1.198 5511
2.744 3.610 1.192 5252
2.764 3.637 1.186 4239
2.860 3.762 1.208 3007
2.871 3.777 1.198 4290
2.873 3.779 1.184 4923
2.865 3.769 1.167 4300
2.900 3.815 1.165 4236
2.948 3.879 1.168 4987
2.945 3.875 1.152 3907
3.008 3.957 1.159 2252
3.015 3.966 1.146 2472
3.007 3.956 1.129 2999
2.999 3.946 1.111 3830
3.072 4.041 1.120 5411
3.073 4.043 1.105 4695
3.099 4.076 1.098 4007
3.096 4.072 1.082 4056
3.097 4.075 1.067 3645
3.250 4.275 1.097 4341
3.209 4.221 1.069 5107
3.296 4.335 1.078 3227
3.307 4.350 1.065 4317
3.261 4.290 1.036 3990
3.253 4.280 1.018 3298
3.415 4.493 1.046 3103
3.412 4.489 1.028 4343
3.395 4.466 1.007 3737
3.449 4.537 1.004 4166
3.431 4.514 0.983 4537
3.437 4.522 0.967 4111
3.534 4.649 0.974 3622
3.535 4.650 0.957 2717
3.650 4.802 0.966 2743
3.642 4.792 0.946 2099
3.815 5.018 0.966 3139
3.811 5.014 0.947 4933
3.818 5.022 0.930 4488
3.833 5.043 0.914 2765
4.072 5.357 0.943 3060
4.074 5.359 0.924 4467
4.075 5.361 0.904 4756
4.072 5.357 0.884 3684
4.187 5.509 0.885 2386
4.046 5.322 0.840 2109
4.319 5.681 0.867 2418
4.310 5.670 0.845 2895
4.312 5.672 0.824 2400
4.375 5.755 0.813 2414
4.371 5.750 0.791 2905
4.515 5.940 0.791 3127
4.517 5.942 0.769 3123
4.518 5.943 0.748 2062
4.719 6.208 0.752 2206
4.720 6.210 0.730 2794
4.721 6.211 0.707 2160
4.794 6.307 0.693 1583
4.814 6.333 0.672 2152
4.815 6.334 0.649 2525
4.816 6.336 0.626 2065
5.482 7.211 0.667 1929
5.650 7.433 0.656 2366
5.641 7.421 0.629 2632
5.637 7.416 0.601 2208
5.638 7.417 0.574 1844
5.644 7.424 0.547 1921
5.640 7.419 0.520 1380
5.760 7.577 0.500 747
5.679 7.471 0.468 503
5.747 7.560 0.444 501
5.747 7.561 0.417 398
5.757 7.574 0.390 285
1.266 1.654 1.593 5804
1.269 1.657 1.587 11609
1.271 1.661 1.581 11296
1.278 1.669 1.579 8427
1.280 1.672 1.573 5752
1.283 1.676 1.567 7679
1.285 1.679 1.561 9607
1.296 1.693 1.564 9623
1.302 1.701 1.563 10148
1.305 1.704 1.557 10148
1.303 1.703 1.546 7181
1.334 1.742 1.571 4857
1.336 1.746 1.565 6832
1.343 1.754 1.563 8952
1.341 1.752 1.552 9133
1.344 1.755 1.546 9460
1.346 1.759 1.540 8293
1.345 1.757 1.529 7138
1.351 1.765 1.527 8012
1.354 1.768 1.521 8898
1.356 1.772 1.514 7384
1.363 1.780 1.512 5977
1.373 1.794 1.514 5158
1.384 1.808 1.516 4768
1.391 1.816 1.514 4633
1.397 1.825 1.511 3958
1.408 1.839 1.513 3780
1.410 1.842 1.506 6068
1.413 1.845 1.500 8730
1.419 1.854 1.497 9495
1.426 1.862 1.495 7997
1.432 1.871 1.492 6197
1.484 1.939 1.533 5067
1.487 1.942 1.526 4433
1.494 1.951 1.523 3841
1.517 1.981 1.536 3430
1.515 1.979 1.525 4037
1.518 1.982 1.518 4658
1.507 1.969 1.499 5246
1.514 1.978 1.496 4369
1.542 2.014 1.511 5061
1.557 2.034 1.516 9618
1.568 2.048 1.516 13971
1.574 2.057 1.512 13910
1.581 2.065 1.509 14310
1.583 2.068 1.501 11308
1.590 2.077 1.497 9397
1.593 2.080 1.490 10359
1.595 2.083 1.482 9718
1.614 2.109 1.490 10308
1.625 2.123 1.489 14823
1.632 2.132 1.485 15369
1.647 2.152 1.488 14734
1.658 2.166 1.488 11657
1.674 2.186 1.491 9813
1.680 2.195 1.486 10696
1.687 2.204 1.482 10639
1.694 2.212 1.477 13332
1.696 2.215 1.469 14818
1.698 2.218 1.461 14109
1.701 2.222 1.453 13007
1.703 2.225 1.445 10224
1.710 2.233 1.441 8698
1.712 2.236 1.433 6484
1.732 2.262 1.438 7607
1.730 2.259 1.426 10115
1.732 2.262 1.418 10205
1.739 2.271 1.413 8883
1.798 2.348 1.447 7979
1.805 2.357 1.442 8282
1.811 2.366 1.437 7564
1.809 2.363 1.425 7236
1.807 2.360 1.414 10350
1.809 2.363 1.405 15579
1.816 2.372 1.400 17899
1.827 2.387 1.397 20826
1.825 2.384 1.386 18317
1.827 2.387 1.377 14952
1.825 2.384 1.365 11682
1.907 2.491 1.411 10465
1.909 2.494 1.402 17046
1.912 2.497 1.393 16012
1.914 2.500 1.384 9453
1.947 2.544 1.396 11443
1.940 2.535 1.380 11902
1.947 2.543 1.374 9290
1.958 2.558 1.371 11458
1.965 2.567 1.364 13641
1.972 2.575 1.358 11155
2.001 2.614 1.365 7083
2.034 2.658 1.375 9176
2.037 2.660 1.366 8655
2.039 2.663 1.356 7195
2.059 2.690 1.357 10228
2.061 2.693 1.348 12234
2.063 2.695 1.338 8774
2.075 2.710 1.334 5964
2.104 2.748 1.340 8491
2.115 2.763 1.335 9099
2.122 2.772 1.327 9223
2.133 2.786 1.323 10048
2.149 2.807 1.320 7671
2.210 2.887 1.343 7932
2.217 2.896 1.335 7419
2.233 2.916 1.332 7489
2.221 2.901 1.314 7732
2.278 2.976 1.332 6427
2.280 2.978 1.322 7822
2.287 2.987 1.313 6612
2.289 2.990 1.302 4461
2.337 3.053 1.315 5007
2.334 3.049 1.302 5940
2.332 3.046 1.288 4302
2.403 3.139 1.311 4503
2.456 3.208 1.325 4766
2.449 3.199 1.309 4716
2.474 3.231 1.308 4054
2.494 3.258 1.305 4969
2.506 3.273 1.298 5454
2.559 3.342 1.310 6151
2.561 3.345 1.297 6076
2.567 3.354 1.287 7717
2.569 3.356 1.275 10556
2.572 3.359 1.263 9068
2.587 3.380 1.257 9871
2.641 3.449 1.267 10555
2.643 3.452 1.254 11758
2.649 3.461 1.244 9470
2.651 3.463 1.231 9452
2.658 3.472 1.221 9945
2.734 3.572 1.238 7553
2.746 3.587 1.229 10015
2.738 3.577 1.212 8348
2.731 3.567 1.196 6716
2.747 3.588 1.188 5992
2.791 3.645 1.191 4044
2.877 3.758 1.210 2613
2.888 3.773 1.200 3861
2.900 3.788 1.189 4481
2.883 3.765 1.169 3915
2.913 3.805 1.165 4340
2.962 3.869 1.168 4661
2.963 3.871 1.154 3361
3.017 3.941 1.157 2249
3.028 3.956 1.146 2293
3.025 3.952 1.130 2864
3.018 3.942 1.113 3841
3.085 4.030 1.120 5643
3.092 4.039 1.107 4944
3.108 4.060 1.096 4178
3.109 4.062 1.082 3941
3.111 4.064 1.067 3598
3.264 4.264 1.097 4397
3.223 4.211 1.069 5754
3.225 4.213 1.054 3759
3.307 4.320 1.061 3727
3.290 4.297 1.040 3744
3.249 4.244 1.013 2988
3.426 4.475 1.044 2938
3.428 4.477 1.028 4089
3.405 4.448 1.006 3625
3.440 4.494 0.998 3711
3.446 4.502 0.983 4416
3.453 4.510 0.967 4134
3.549 4.636 0.974 3396
3.680 4.806 0.987 2572
3.662 4.783 0.965 2599
3.654 4.773 0.945 2181
3.832 5.005 0.966 2532
3.824 4.995 0.946 4448
3.825 4.997 0.928 4176
3.850 5.030 0.914 2482
4.091 5.343 0.943 2902
4.092 5.345 0.924 4112
4.093 5.347 0.904 4278
4.210 5.499 0.906 3391
4.206 5.494 0.885 2428
4.145 5.415 0.854 2108
4.333 5.660 0.866 2508
4.330 5.656 0.845 2967
4.331 5.657 0.824 2558
4.394 5.740 0.813 2682
4.391 5.735 0.791 3260
4.382 5.724 0.769 2848
4.537 5.926 0.769 2853
4.874 6.366 0.793 2030
4.731 6.180 0.751 2125
4.737 6.187 0.729 2716
4.738 6.189 0.707 2156
4.816 6.290 0.693 1432
4.836 6.317 0.672 2078
4.837 6.318 0.649 2407
4.842 6.325 0.626 1894
5.511 7.199 0.668 1915
5.675 7.413 0.656 2372
5.667 7.402 0.629 2526
5.667 7.403 0.601 2051
5.668 7.404 0.574 1705
5.669 7.405 0.547 1835
5.665 7.400 0.520 1338
5.786 7.558 0.500 741
5.777 7.546 0.472 478
5.772 7.540 0.444 492
5.778 7.547 0.417 376
5.783 7.554 0.390 257
1.271 1.650 1.593 5897
1.274 1.653 1.587 11795
1.277 1.657 1.581 11461
1.283 1.665 1.579 8489
1.286 1.668 1.573 5733
1.288 1.672 1.567 7881
1.291 1.675 1.561 10029
1.297 1.683 1.560 10045
1.304 1.692 1.558 10494
1.306 1.695 1.552 10494
1.309 1.698 1.546 7776
1.307 1.696 1.536 5087
1.342 1.741 1.565 6981
1.348 1.750 1.563 9445
1.351 1.753 1.556 9261
1.350 1.751 1.546 9233
1.352 1.754 1.540 8231
1.350 1.752 1.529 7262
1.357 1.761 1.527 8108
1.359 1.764 1.521 8987
1.366 1.773 1.518 7241
1.368 1.776 1.512 5503
1.371 1.779 1.506 4365
1.390 1.803 1.516 4011
1.396 1.812 1.514 4137
1.399 1.815 1.507 3510
1.409 1.829 1.509 3045
1.416 1.838 1.506 4834
1.418 1.841 1.500 7138
1.425 1.849 1.497 7832
1.436 1.863 1.499 6442
1.488 1.931 1.540 5802
1.495 1.940 1.537 5586
1.497 1.943 1.530 4622
1.500 1.946 1.523 3648
1.527 1.982 1.540 2893
1.505 1.953 1.509 3634
1.503 1.950 1.498 4620
1.510 1.959 1.495 5233
1.537 1.995 1.511 4514
1.552 2.014 1.515 5923
1.563 2.029 1.516 9868
1.574 2.043 1.516 13414
1.581 2.052 1.512 13321
1.588 2.060 1.509 13771
1.590 2.063 1.501 10465
1.597 2.072 1.497 8208
1.599 2.075 1.490 9134
1.602 2.078 1.482 9452
1.621 2.104 1.490 11210
1.628 2.112 1.486 15161
1.635 2.121 1.482 14801
1.654 2.146 1.488 12977
1.669 2.166 1.491 10317
1.681 2.181 1.491 9140
1.687 2.189 1.486 10259
1.690 2.193 1.478 10386
1.696 2.201 1.474 12518
1.703 2.210 1.469 14354
1.705 2.213 1.461 14324
1.708 2.216 1.453 13999
1.714 2.225 1.449 12021
1.721 2.233 1.444 10984
1.732 2.248 1.443 8210
1.743 2.262 1.441 8216
1.741 2.260 1.430 9961
1.739 2.257 1.418 10129
1.746 2.265 1.413 9132
1.805 2.343 1.447 8116
1.812 2.351 1.442 8493
1.819 2.360 1.437 8688
1.817 2.357 1.425 9277
1.819 2.360 1.417 12487
1.817 2.358 1.405 16636
1.824 2.366 1.400 14786
1.830 2.375 1.394 15231
1.832 2.378 1.386 16465
1.835 2.381 1.377 14964
1.832 2.378 1.365 11310
1.910 2.479 1.408 8880
1.917 2.488 1.402 15194
1.919 2.491 1.393 15049
1.949 2.529 1.402 10366
1.955 2.537 1.396 13396
1.949 2.529 1.380 12316
1.955 2.537 1.374 9441
1.966 2.552 1.371 11902
1.973 2.560 1.364 13334
1.980 2.569 1.358 10556
1.991 2.584 1.354 7398
2.043 2.651 1.375 8967
2.045 2.654 1.366 9440
2.047 2.657 1.356 8317
2.068 2.683 1.357 11217
2.074 2.692 1.350 12765
2.072 2.689 1.338 9181
2.088 2.709 1.336 7584
2.108 2.736 1.337 10263
2.119 2.750 1.332 10673
2.126 2.759 1.325 9784
2.142 2.779 1.323 9957
2.158 2.800 1.320 8452
2.178 2.826 1.320 8669
2.226 2.889 1.335 6945
2.247 2.915 1.334 6838
2.230 2.894 1.314 6525
2.292 2.974 1.335 6279
