1.909 2.749 1.398 5984
1.919 2.765 1.393 9963
1.913 2.755 1.378 11294
1.915 2.758 1.369 8832
1.908 2.749 1.353 4422
1.961 2.825 1.377 5663
1.968 2.834 1.369 7550
1.995 2.874 1.375 7340
2.014 2.902 1.376 11750
2.004 2.886 1.358 12293
2.001 2.883 1.345 10106
2.029 2.923 1.351 9367
2.039 2.938 1.346 9070
2.063 2.971 1.348 6643
2.073 2.987 1.343 8311
2.084 3.002 1.337 7419
2.103 3.029 1.337 6494
2.096 3.020 1.321 5579
2.159 3.109 1.345 3607
2.169 3.125 1.339 6348
2.184 3.146 1.335 6695
2.208 3.180 1.336 7360
2.210 3.183 1.324 4752
2.203 3.173 1.309 4957
2.213 3.189 1.302 6061
2.250 3.241 1.309 6266
2.252 3.244 1.298 4404
2.289 3.297 1.304 4474
2.290 3.299 1.293 5812
2.284 3.290 1.277 5719
2.299 3.311 1.272 4363
2.340 3.370 1.280 3811
2.385 3.436 1.289 4455
2.417 3.482 1.292 4587
2.445 3.523 1.292 9716
2.447 3.525 1.280 9625
2.467 3.553 1.275 7234
2.464 3.550 1.261 9323
2.466 3.552 1.248 7018
2.455 3.536 1.230 5767
2.457 3.539 1.218 4916
2.489 3.585 1.219 4482
2.486 3.582 1.204 5521
2.488 3.584 1.192 5285
2.635 3.795 1.240 4325
2.470 3.558 1.157 4857
2.471 3.560 1.145 3819
2.561 3.689 1.168 7571
2.563 3.691 1.155 11566
2.560 3.688 1.140 11822
2.562 3.690 1.127 11632
2.568 3.699 1.116 11217
2.565 3.695 1.102 9184
2.566 3.697 1.089 6169
2.572 3.706 1.077 3023
2.821 4.064 1.154 1831
2.854 4.111 1.151 2285
2.856 4.114 1.137 2664
2.871 4.135 1.127 2860
2.895 4.170 1.120 3556
2.901 4.178 1.107 4060
2.978 4.289 1.117 3495
2.988 4.304 1.105 2324
3.021 4.351 1.100 2584
3.022 4.354 1.084 3514
3.024 4.356 1.069 3116
3.110 4.480 1.080 2573
3.107 4.476 1.062 2545
3.109 4.478 1.047 2179
3.217 4.634 1.062 2370
3.214 4.630 1.044 2562
3.207 4.619 1.026 1928
3.297 4.750 1.034 1399
3.299 4.752 1.017 1783
3.305 4.760 1.001 1976
3.306 4.762 0.985 1850
3.401 4.900 0.992 1973
3.407 4.908 0.975 2133
3.373 4.859 0.949 1964
3.365 4.848 0.930 1411
3.613 5.204 0.970 1563
3.524 5.077 0.932 1427
3.544 5.105 0.918 2029
3.549 5.113 0.901 2295
3.542 5.102 0.881 1448
3.718 5.356 0.899 1543
3.701 5.331 0.876 1730
3.702 5.333 0.858 1482
3.704 5.335 0.839 1404
3.812 5.492 0.840 1562
4.097 5.901 0.872 1382
4.098 5.903 0.851 1565
4.193 6.040 0.846 1381
4.199 6.049 0.825 1824
4.200 6.050 0.804 1880
4.197 6.045 0.782 1388
4.612 6.643 0.822 1293
0.379 0.545 0.189 1099
0.379 0.546 0.187 1138
4.480 6.453 0.734 1490
4.746 6.837 0.745 1368
4.747 6.839 0.721 1478
4.865 7.009 0.711 1716
4.866 7.010 0.686 1667
4.867 7.011 0.661 1536
4.877 7.025 0.638 1497
4.743 6.832 0.600 1353
0.456 0.657 0.178 1175
0.452 0.650 0.176 1257
0.452 0.651 0.174 1306
0.452 0.651 0.172 1262
0.456 0.657 0.170 1247
0.456 0.657 0.168 1259
0.461 0.664 0.166 1255
0.461 0.664 0.163 1330
0.456 0.657 0.161 1550
0.456 0.658 0.159 1453
0.452 0.651 0.157 1360
0.452 0.651 0.154 1304
0.452 0.651 0.152 1145
0.452 0.651 0.150 1074
0.457 0.658 0.148 991
0.457 0.658 0.146 903
0.457 0.658 0.144 879
0.457 0.658 0.141 824
0.457 0.658 0.139 808
0.457 0.658 0.137 809
0.457 0.658 0.135 723
0.457 0.658 0.133 660
0.452 0.651 0.131 575
0.452 0.651 0.129 437
0.452 0.651 0.126 382
0.452 0.651 0.124 335
0.452 0.651 0.122 276
0.456 0.658 0.120 253
0.456 0.657 0.118 260
0.456 0.657 0.115 278
0.452 0.651 0.114 267
1.188 1.703 1.588 3297
1.190 1.706 1.582 6594
1.200 1.720 1.585 6272
1.210 1.735 1.589 6133
1.220 1.749 1.592 6435
1.222 1.752 1.586 6417
1.232 1.766 1.588 6636
1.238 1.775 1.587 5734
1.248 1.789 1.590 5254
1.251 1.793 1.583 5254
1.261 1.807 1.586 4514
1.271 1.821 1.589 4256
1.269 1.819 1.578 4693
1.245 1.785 1.541 5683
1.266 1.815 1.556 8744
1.269 1.819 1.550 12039
1.275 1.827 1.548 11319
1.281 1.836 1.546 10972
1.283 1.840 1.540 9540
1.286 1.843 1.533 8109
1.288 1.846 1.527 6583
1.302 1.866 1.533 5607
1.304 1.869 1.527 6015
1.307 1.873 1.520 5290
1.309 1.876 1.514 4566
1.323 1.896 1.520 4673
1.333 1.910 1.521 5532
1.331 1.908 1.510 6561
1.334 1.911 1.504 6112
1.351 1.937 1.513 5023
1.334 1.912 1.486 5421
1.336 1.916 1.480 6407
1.339 1.919 1.473 6509
1.345 1.928 1.470 6641
1.422 2.038 1.539 5757
1.424 2.041 1.532 8052
1.422 2.039 1.521 9116
1.421 2.036 1.510 10639
1.427 2.045 1.507 10105
1.429 2.048 1.499 9589
1.435 2.057 1.496 10427
1.446 2.072 1.497 11646
1.452 2.081 1.493 12897
1.458 2.090 1.490 11803
1.468 2.105 1.490 10925
1.471 2.108 1.483 7629
1.525 2.186 1.523 5790
1.527 2.189 1.516 8066
1.525 2.186 1.505 9254
1.528 2.190 1.497 8576
1.530 2.193 1.489 6563
1.512 2.167 1.464 6801
1.518 2.176 1.460 8461
1.524 2.185 1.456 10095
1.531 2.194 1.451 10245
1.602 2.296 1.504 10365
1.608 2.305 1.499 9310
1.566 2.244 1.453 8194
1.633 2.341 1.500 9621
1.639 2.350 1.496 12761
1.642 2.353 1.488 12043
1.640 2.350 1.476 12064
1.646 2.360 1.471 13731
1.648 2.363 1.463 14924
1.655 2.372 1.458 16180
1.673 2.398 1.463 15678
1.680 2.408 1.458 15310
1.682 2.411 1.449 15906
1.684 2.414 1.441 13529
1.682 2.411 1.429 8316
1.701 2.438 1.434 8314
1.703 2.441 1.425 12043
1.709 2.450 1.420 13884
1.720 2.465 1.418 12468
1.747 2.504 1.428 9441
1.757 2.519 1.425 11502
1.759 2.522 1.416 11941
1.762 2.525 1.408 10626
1.780 2.552 1.411 10537
1.787 2.561 1.405 9500
1.789 2.564 1.396 7709
1.791 2.567 1.387 8144
1.835 2.630 1.408 9094
1.837 2.633 1.398 9114
1.839 2.636 1.389 7212
1.850 2.651 1.386 6860
1.856 2.660 1.379 5638
1.879 2.694 1.384 4578
1.902 2.727 1.389 5941
1.921 2.754 1.391 9678
1.919 2.751 1.378 11606
1.921 2.754 1.369 9493
1.911 2.739 1.351 4559
1.964 2.815 1.374 5236
1.974 2.830 1.369 7342
2.002 2.869 1.375 7918
2.017 2.891 1.373 12294
2.015 2.888 1.361 13310
2.012 2.884 1.348 10307
2.053 2.942 1.361 9116
2.055 2.945 1.351 9165
2.070 2.967 1.348 6709
2.080 2.982 1.343 7873
2.095 3.003 1.340 6896
2.132 3.055 1.349 7522
2.138 3.064 1.341 6435
2.144 3.074 1.332 4365
2.176 3.120 1.339 6003
2.191 3.141 1.335 6403
2.215 3.175 1.336 7425
2.217 3.178 1.324 4686
2.210 3.168 1.309 4934
2.217 3.177 1.300 6318
2.232 3.199 1.296 5711
2.281 3.270 1.309 4453
2.292 3.285 1.302 4377
2.298 3.294 1.293 5308
2.296 3.291 1.279 5556
2.306 3.306 1.272 4483
2.339 3.352 1.275 3535
2.406 3.449 1.295 3728
2.425 3.477 1.292 4310
2.454 3.517 1.292 9266
2.460 3.526 1.282 8755
2.479 3.554 1.277 6740
2.477 3.550 1.263 8859
2.479 3.553 1.250 7851
2.463 3.530 1.230 6631
2.465 3.533 1.218 5496
2.497 3.580 1.219 4682
2.495 3.576 1.204 5794
2.496 3.578 1.192 5497
2.476 3.549 1.170 4761
2.478 3.552 1.157 5370
2.480 3.554 1.145 3957
2.570 3.683 1.168 5672
2.567 3.679 1.153 6895
2.569 3.682 1.140 7377
2.570 3.684 1.127 9862
2.576 3.693 1.116 13284
2.573 3.689 1.102 15188
2.575 3.691 1.089 14597
2.577 3.693 1.076 11959
2.578 3.695 1.063 9577
2.584 3.704 1.051 8071
2.586 3.706 1.038 5358
2.880 4.129 1.127 2950
2.904 4.163 1.120 3475
2.986 4.280 1.132 4162
2.988 4.282 1.117 4528
2.998 4.297 1.105 2805
3.053 4.376 1.107 2734
3.032 4.347 1.084 3539
3.034 4.349 1.069 3112
3.116 4.466 1.078 2754
3.113 4.462 1.061 2697
3.115 4.464 1.045 2184
3.223 4.620 1.061 2387
3.225 4.622 1.044 2687
3.217 4.612 1.026 1916
3.304 4.736 1.032 1714
3.310 4.744 1.017 2332
3.316 4.753 1.001 2506
3.317 4.755 0.985 2171
3.413 4.892 0.992 1813
3.419 4.900 0.975 1973
3.384 4.851 0.949 1936
3.426 4.910 0.942 1532
3.629 5.202 0.971 1708
3.613 5.178 0.949 1366
3.565 5.109 0.920 1568
3.561 5.105 0.901 1884
3.549 5.087 0.880 1383
3.730 5.347 0.899 1689
3.727 5.342 0.879 1825
3.719 5.331 0.859 1506
3.775 5.410 0.850 1642
3.825 5.483 0.840 1646
4.110 5.891 0.872 1415
4.111 5.893 0.851 1580
4.207 6.031 0.846 1465
4.213 6.039 0.825 1931
4.214 6.040 0.804 1992
4.211 6.035 0.782 1466
4.627 6.632 0.822 1187
0.380 0.545 0.189 1154
4.751 6.810 0.792 1232
4.495 6.443 0.734 1509
4.762 6.826 0.745 1477
4.763 6.827 0.721 1544
4.882 6.997 0.711 1774
4.883 6.999 0.686 1733
4.884 7.000 0.661 1660
4.889 7.008 0.637 1685
4.759 6.821 0.600 1352
4.759 6.822 0.575 999
0.453 0.649 0.176 1071
0.453 0.650 0.174 1223
0.453 0.650 0.172 1285
0.458 0.656 0.170 1322
0.458 0.656 0.168 1275
0.462 0.663 0.166 1123
0.462 0.663 0.163 1107
0.458 0.656 0.161 1310
0.458 0.656 0.159 1301
0.453 0.650 0.157 1320
0.454 0.650 0.154 1343
0.454 0.650 0.152 1243
0.458 0.657 0.150 1195
0.458 0.657 0.148 1114
0.458 0.657 0.146 1021
0.458 0.657 0.144 981
0.458 0.657 0.141 903
0.458 0.657 0.139 885
0.458 0.657 0.137 890
0.458 0.657 0.135 785
0.458 0.657 0.133 708
0.454 0.650 0.131 619
0.454 0.650 0.129 480
0.454 0.650 0.126 418
0.454 0.650 0.124 366
0.453 0.650 0.122 309
0.458 0.656 0.120 288
0.458 0.656 0.118 303
0.458 0.656 0.115 326
0.453 0.650 0.114 306
0.458 0.656 0.111 266
1.187 1.696 1.583 3236
1.189 1.699 1.578 6473
1.199 1.713 1.581 5866
1.209 1.728 1.584 5577
1.219 1.742 1.587 5827
1.225 1.750 1.586 6122
1.231 1.759 1.584 6609
1.241 1.773 1.587 5292
1.255 1.793 1.594 4648
1.257 1.796 1.588 4648
1.267 1.811 1.590 4619
1.269 1.814 1.584 4683
1.268 1.812 1.573 5421
1.267 1.810 1.563 6391
1.269 1.813 1.556 10161
1.271 1.817 1.550 13931
1.277 1.826 1.548 13137
1.284 1.834 1.546 12726
1.286 1.838 1.540 11365
1.288 1.841 1.533 10005
1.291 1.845 1.527 8241
1.305 1.864 1.533 7178
1.303 1.862 1.522 7537
1.309 1.871 1.520 5902
1.311 1.874 1.514 4275
1.333 1.905 1.528 4889
1.339 1.914 1.525 6493
1.338 1.912 1.515 7237
1.336 1.910 1.504 6436
1.354 1.935 1.513 4842
1.337 1.910 1.486 5392
1.339 1.914 1.480 6300
1.345 1.922 1.477 6538
1.347 1.926 1.470 6940
1.424 2.036 1.539 5857
1.427 2.039 1.532 8348
1.429 2.042 1.525 9323
1.423 2.034 1.510 10636
1.430 2.043 1.507 9941
1.432 2.046 1.499 8905
1.442 2.061 1.500 9505
1.448 2.070 1.497 11031
1.455 2.079 1.493 12273
1.461 2.088 1.490 11424
1.471 2.103 1.490 11186
1.477 2.111 1.486 8086
1.528 2.183 1.523 5939
1.530 2.187 1.516 8101
1.532 2.190 1.508 8922
1.535 2.193 1.501 7954
1.537 2.197 1.493 6167
1.511 2.159 1.460 6179
1.521 2.174 1.460 7903
1.528 2.183 1.456 9019
1.534 2.192 1.451 9101
1.605 2.294 1.504 10838
1.611 2.303 1.499 9310
1.569 2.242 1.453 7353
1.636 2.339 1.500 8548
1.643 2.348 1.496 11257
1.645 2.351 1.488 10460
1.643 2.348 1.476 10180
1.649 2.357 1.471 11184
1.656 2.366 1.466 12933
1.658 2.369 1.458 14925
1.677 2.396 1.463 14346
1.683 2.405 1.458 14250
1.685 2.408 1.449 15201
1.683 2.406 1.438 13133
1.681 2.403 1.426 8073
1.708 2.441 1.437 7979
1.706 2.439 1.425 10660
1.713 2.448 1.420 12438
1.723 2.463 1.418 11262
1.763 2.519 1.437 8117
1.765 2.522 1.428 9844
1.759 2.513 1.413 10173
1.744 2.493 1.392 8699
1.788 2.555 1.414 7966
1.790 2.558 1.405 7308
1.792 2.561 1.396 7257
1.794 2.564 1.387 8943
1.839 2.628 1.408 8660
1.845 2.637 1.401 9149
1.851 2.646 1.395 8475
1.853 2.649 1.386 9031
1.860 2.658 1.379 7324
1.883 2.691 1.384 5686
1.889 2.700 1.378 6788
1.925 2.751 1.391 9180
1.923 2.748 1.378 11659
1.925 2.751 1.369 10107
1.914 2.736 1.351 5499
1.963 2.806 1.371 4870
1.974 2.821 1.367 6815
2.006 2.867 1.375 7752
2.021 2.888 1.373 11894
2.019 2.885 1.361 13428
2.016 2.882 1.348 9770
2.057 2.940 1.361 9072
2.063 2.949 1.353 9301
2.074 2.964 1.348 6861
2.080 2.973 1.340 7281
2.130 3.043 1.357 7523
2.136 3.052 1.349 8961
2.142 3.062 1.341 7833
2.149 3.071 1.332 5685
2.181 3.117 1.339 6092
2.174 3.107 1.323 6674
2.219 3.172 1.336 6596
2.226 3.181 1.327 4404
2.215 3.165 1.309 5018
2.221 3.174 1.300 6852
2.232 3.189 1.293 5851
2.290 3.273 1.311 4295
2.296 3.282 1.302 4130
2.303 3.291 1.293 4657
2.305 3.294 1.281 5283
2.307 3.296 1.270 4623
2.343 3.349 1.275 3318
2.411 3.445 1.295 3488
2.430 3.473 1.292 4185
2.458 3.513 1.292 8310
2.465 3.522 1.282 7320
2.489 3.557 1.279 5570
2.482 3.547 1.263 7981
2.479 3.543 1.248 8798
2.468 3.527 1.230 8024
2.470 3.529 1.218 6716
2.498 3.570 1.217 5105
2.495 3.566 1.202 5414
2.493 3.562 1.188 5488
2.477 3.540 1.168 5752
2.478 3.542 1.155 5861
2.480 3.544 1.143 4006
2.575 3.679 1.168 4088
2.572 3.676 1.153 5746
2.574 3.678 1.140 11971
2.575 3.680 1.127 20487
2.581 3.689 1.116 26544
2.583 3.691 1.103 29396
2.580 3.687 1.089 27878
2.582 3.690 1.076 22767
2.583 3.692 1.063 17764
2.589 3.700 1.051 14514
2.591 3.703 1.038 9943
2.592 3.705 1.025 6025
2.598 3.713 1.014 4477
2.992 4.276 1.132 4926
2.994 4.278 1.117 5238
3.004 4.293 1.105 3045
3.059 4.372 1.107 2902
3.043 4.349 1.086 3517
3.045 4.351 1.070 3054
3.086 4.411 1.067 2911
3.119 4.458 1.061 2886
3.116 4.454 1.044 2481
3.225 4.609 1.059 2358
3.227 4.611 1.043 2811
3.224 4.607 1.026 1982
3.310 4.731 1.032 1921
3.316 4.740 1.017 2725
3.322 4.748 1.001 2890
3.324 4.750 0.985 2352
3.388 4.842 0.984 1667
3.425 4.895 0.975 1844
3.391 4.846 0.949 1842
3.491 4.989 0.956 1741
3.497 4.998 0.939 1807
3.494 4.993 0.920 1600
3.590 5.130 0.924 1506
3.604 5.151 0.909 1653
3.750 5.359 0.921 1490
3.742 5.348 0.900 1784
3.739 5.343 0.880 1914
3.745 5.352 0.862 1540
3.777 5.399 0.849 1998
3.833 5.478 0.840 1744
3.838 5.486 0.821 1409
4.120 5.887 0.851 1504
4.216 6.025 0.846 1582
4.217 6.026 0.825 2051
4.222 6.034 0.804 2102
4.219 6.030 0.782 1590
4.460 6.374 0.796 1169
4.470 6.388 0.775 1284
4.480 6.403 0.754 1389
4.762 6.805 0.768 1537
4.767 6.813 0.745 1524
4.768 6.814 0.721 1521
4.891 6.990 0.711 1749
4.892 6.992 0.686 1716
4.893 6.993 0.661 1645
4.899 7.001 0.637 1678
4.908 7.015 0.613 1370
4.769 6.815 0.575 937
0.454 0.649 0.176 999
0.454 0.649 0.174 1259
0.454 0.649 0.172 1418
0.459 0.656 0.170 1499
0.459 0.656 0.168 1413
0.459 0.656 0.165 1168
0.459 0.656 0.163 1085
0.459 0.656 0.161 1287
0.459 0.656 0.159 1396
0.454 0.649 0.157 1492
0.454 0.649 0.154 1556
0.454 0.649 0.152 1451
0.454 0.649 0.150 1356
0.459 0.656 0.148 1249
0.459 0.656 0.146 1140
0.459 0.656 0.144 1068
0.459 0.656 0.141 953
0.459 0.656 0.139 917
0.459 0.656 0.137 912
0.459 0.656 0.135 800
0.459 0.656 0.133 729
0.454 0.650 0.131 655
0.454 0.649 0.129 530
0.454 0.649 0.126 472
0.454 0.649 0.124 420
0.459 0.656 0.122 370
0.459 0.656 0.120 361
0.459 0.656 0.118 368
0.459 0.656 0.115 377
0.454 0.649 0.114 342
0.459 0.656 0.111 288
0.459 0.656 0.109 259
1.191 1.693 1.583 3163
1.194 1.696 1.578 6326
1.200 1.705 1.576 5539
1.213 1.724 1.584 5047
1.223 1.738 1.587 5285
1.229 1.747 1.586 5833
1.236 1.756 1.584 6541
1.242 1.765 1.582 4944
1.256 1.784 1.590 4020
1.258 1.788 1.583 4020
1.272 1.807 1.590 4467
1.274 1.811 1.584 4947
1.273 1.809 1.573 5938
1.271 1.807 1.563 7124
1.274 1.810 1.556 11246
1.276 1.813 1.550 15368
1.282 1.822 1.548 14607
1.289 1.831 1.546 14250
1.291 1.834 1.540 12981
1.293 1.838 1.533 11713
1.296 1.841 1.527 9941
1.306 1.855 1.529 8935
1.308 1.859 1.522 9336
1.310 1.862 1.516 6918
1.316 1.871 1.514 4500
1.342 1.907 1.532 5266
1.344 1.910 1.525 7434
1.343 1.908 1.515 8021
1.341 1.906 1.504 6907
1.355 1.926 1.509 4966
1.346 1.912 1.490 5341
1.344 1.910 1.480 5930
1.350 1.919 1.477 6471
1.357 1.928 1.474 7182
1.367 1.942 1.476 5844
1.432 2.035 1.532 8525
1.434 2.038 1.525 9461
1.433 2.036 1.514 10641
1.435 2.039 1.507 9625
1.437 2.043 1.499 7965
1.448 2.057 1.500 8368
1.454 2.066 1.497 10085
1.456 2.069 1.489 11386
1.467 2.084 1.490 10877
1.477 2.099 1.490 11448
1.483 2.107 1.486 8806
1.534 2.179 1.523 5996
1.536 2.183 1.516 8007
1.538 2.186 1.508 8541
1.541 2.189 1.501 7570
1.547 2.198 1.497 6085
1.517 2.155 1.460 5970
1.523 2.164 1.456 7627
1.529 2.173 1.452 8023
1.605 2.280 1.508 8856
1.611 2.289 1.504 10890
1.618 2.299 1.499 9092
1.595 2.267 1.470 6699
1.593 2.264 1.459 7885
1.649 2.343 1.496 9439
1.651 2.346 1.488 8739
1.629 2.315 1.459 8883
1.652 2.347 1.468 9077
1.662 2.362 1.466 11015
1.668 2.371 1.461 13225
1.679 2.386 1.460 12602
1.689 2.401 1.458 12773
1.692 2.404 1.449 14008
1.690 2.401 1.438 12445
1.688 2.398 1.426 7813
1.715 2.437 1.437 7377
1.713 2.434 1.425 8874
1.719 2.443 1.420 10468
1.730 2.458 1.418 9820
1.774 2.520 1.440 7132
1.776 2.524 1.431 8249
1.753 2.491 1.404 8744
1.751 2.488 1.392 7769
1.799 2.557 1.417 5688
1.801 2.560 1.408 5553
1.799 2.557 1.396 7028
1.806 2.566 1.390 9674
1.799 2.557 1.375 7720
1.856 2.638 1.404 8561
1.863 2.647 1.398 9295
1.865 2.650 1.389 10516
1.867 2.653 1.379 8569
1.886 2.680 1.381 6635
1.896 2.695 1.378 7570
1.924 2.734 1.385 8633
1.930 2.743 1.378 11397
1.933 2.746 1.369 10462
1.922 2.731 1.351 6606
1.941 2.758 1.352 5400
1.981 2.816 1.367 6043
2.009 2.855 1.373 7038
2.028 2.882 1.373 10882
2.026 2.879 1.361 12922
2.028 2.882 1.350 9081
2.069 2.940 1.364 8912
2.075 2.949 1.356 9274
2.082 2.958 1.348 7188
2.088 2.967 1.340 6954
2.138 3.038 1.357 7944
2.140 3.041 1.347 10173
2.155 3.062 1.343 8744
2.161 3.071 1.335 6772
2.185 3.105 1.336 6292
2.182 3.101 1.323 7330
2.228 3.166 1.336 5410
2.247 3.193 1.334 4136
2.223 3.159 1.309 4661
2.229 3.168 1.300 6711
2.240 3.183 1.293 6137
2.299 3.267 1.311 4252
2.305 3.276 1.302 4307
2.307 3.278 1.291 4372
2.309 3.281 1.279 5198
2.315 3.290 1.270 4865
2.374 3.374 1.286 3204
2.416 3.433 1.293 3659
2.440 3.467 1.292 4254
2.463 3.501 1.290 6981
2.474 3.516 1.282 5642
2.498 3.550 1.279 3971
2.491 3.540 1.263 6749
2.484 3.530 1.246 9150
2.477 3.520 1.230 8418
2.479 3.523 1.218 6885
2.512 3.569 1.219 5193
2.518 3.578 1.208 4692
2.493 3.543 1.184 5918
2.486 3.533 1.168 6529
2.488 3.535 1.155 5970
2.490 3.538 1.143 3744
2.584 3.673 1.168 5366
2.586 3.675 1.155 10222
2.588 3.677 1.142 20499
2.590 3.680 1.129 32391
2.591 3.682 1.116 40029
2.593 3.684 1.103 42671
2.590 3.680 1.089 39534
2.592 3.683 1.076 32167
2.593 3.685 1.063 24976
2.599 3.693 1.051 20311
2.601 3.696 1.038 14250
2.602 3.698 1.025 9140
2.608 3.706 1.014 6872
2.610 3.708 1.000 5226
3.005 4.270 1.117 5427
3.011 4.279 1.103 3071
3.071 4.364 1.107 3006
3.055 4.341 1.086 3477
3.106 4.413 1.086 3181
3.098 4.402 1.067 3213
3.127 4.443 1.060 3034
3.128 4.445 1.044 2862
3.229 4.588 1.057 2383
3.239 4.603 1.043 2858
3.241 4.605 1.027 2089
3.292 4.677 1.024 2339
3.329 4.731 1.017 2892
3.335 4.739 1.001 3071
3.409 4.844 1.003 2321
3.460 4.916 0.998 1589
3.452 4.905 0.979 1980
3.453 4.907 0.961 1829
3.504 4.980 0.956 2360
3.510 4.988 0.939 2378
3.512 4.990 0.922 1982
3.508 4.986 0.903 1708
3.627 5.154 0.910 1606
3.769 5.356 0.922 1551
3.766 5.351 0.902 1687
3.753 5.333 0.880 1754
3.782 5.374 0.866 1665
3.792 5.388 0.849 2213
3.847 5.467 0.840 1833
3.853 5.475 0.821 1589
4.135 5.876 0.851 1327
4.227 6.007 0.845 1656
4.233 6.015 0.825 2100
4.239 6.023 0.804 2146
4.235 6.018 0.782 1689
4.227 6.007 0.759 1241
4.487 6.376 0.775 1494
4.497 6.391 0.754 1578
4.775 6.786 0.768 1566
4.740 6.736 0.739 1526
4.786 6.802 0.721 1390
4.910 6.977 0.711 1667
4.911 6.979 0.686 1634
4.912 6.980 0.661 1589
4.917 6.988 0.637 1615
4.927 7.002 0.613 1306
5.101 7.248 0.604 1027
0.460 0.654 0.176 1063
0.456 0.648 0.174 1364
0.456 0.648 0.172 1544
0.456 0.648 0.169 1628
0.460 0.654 0.168 1550
0.461 0.654 0.165 1346
0.461 0.654 0.163 1261
0.461 0.655 0.161 1476
0.461 0.655 0.159 1639
0.461 0.655 0.157 1762
0.456 0.648 0.154 1835
0.456 0.648 0.152 1694
0.456 0.648 0.150 1545
0.461 0.655 0.148 1382
0.461 0.655 0.146 1223
0.461 0.655 0.144 1079
0.461 0.655 0.141 909
0.461 0.655 0.139 857
0.461 0.655 0.137 865
0.461 0.655 0.135 780
0.461 0.655 0.133 730
0.461 0.655 0.131 678
0.461 0.655 0.128 570
0.461 0.655 0.126 515
0.456 0.648 0.124 465
0.461 0.655 0.122 410
0.461 0.655 0.120 393
0.461 0.655 0.118 384
0.461 0.654 0.115 376
0.456 0.648 0.114 337
0.460 0.654 0.111 283
0.460 0.654 0.109 264
1.190 1.686 1.579 3119
1.193 1.689 1.573 6239
1.203 1.703 1.576 5304
1.216 1.722 1.584 4513
1.226 1.736 1.587 4751
1.232 1.745 1.586 5564
1.239 1.754 1.584 6435
1.241 1.757 1.578 5027
1.251 1.771 1.581 3778
1.253 1.775 1.574 3778
1.267 1.794 1.582 4227
1.273 1.803 1.580 5105
1.272 1.801 1.569 6285
1.274 1.805 1.563 7602
1.277 1.808 1.556 11984
1.283 1.817 1.554 16371
1.285 1.820 1.548 15717
1.292 1.829 1.546 15496
1.294 1.832 1.540 14263
1.296 1.836 1.533 13029
1.302 1.844 1.531 11448
1.309 1.853 1.529 10610
1.311 1.856 1.522 11088
1.313 1.860 1.516 8111
1.320 1.869 1.514 5046
1.345 1.905 1.532 5787
1.348 1.908 1.525 8292
1.346 1.906 1.515 8797
1.344 1.904 1.504 7569
1.347 1.907 1.497 5483
1.349 1.910 1.490 5448
1.351 1.913 1.484 5570
1.357 1.922 1.481 6286
1.364 1.931 1.478 7175
1.374 1.945 1.480 6195
1.436 2.033 1.532 8462
1.438 2.036 1.525 9358
1.436 2.034 1.514 10438
1.439 2.037 1.507 9021
1.441 2.040 1.499 6728
1.451 2.055 1.500 6902
1.457 2.064 1.497 8935
1.460 2.067 1.489 10469
1.470 2.082 1.490 10357
1.484 2.102 1.494 11946
1.491 2.111 1.490 9801
1.497 2.120 1.486 6990
1.540 2.180 1.516 7819
1.542 2.183 1.508 8154
1.544 2.187 1.501 7434
1.551 2.196 1.497 6488
1.569 2.222 1.503 6833
1.527 2.162 1.456 7506
1.529 2.165 1.448 7084
1.609 2.278 1.508 8600
1.615 2.287 1.504 10675
1.621 2.296 1.499 8829
1.624 2.299 1.491 6493
1.601 2.267 1.462 7927
1.603 2.271 1.454 7925
1.626 2.303 1.464 7494
1.628 2.306 1.456 8476
1.631 2.309 1.447 8421
1.674 2.371 1.473 9769
1.672 2.368 1.461 11171
1.679 2.377 1.456 10603
1.689 2.392 1.455 10900
1.691 2.395 1.446 12463
1.689 2.392 1.434 11493
1.733 2.454 1.458 7701
1.731 2.452 1.447 6446
1.717 2.431 1.425 6662
1.723 2.440 1.420 8084
1.730 2.449 1.414 8493
1.732 2.452 1.406 6844
1.742 2.467 1.403 7168
1.753 2.482 1.401 7200
1.751 2.479 1.389 6422
1.753 2.482 1.380 4547
1.810 2.563 1.411 4909
1.808 2.560 1.399 7077
1.810 2.563 1.390 9663
1.803 2.554 1.375 7599
1.861 2.635 1.404 7390
1.871 2.650 1.401 9331
1.869 2.647 1.389 10800
1.871 2.650 1.379 9102
1.890 2.677 1.381 7183
1.897 2.686 1.375 8050
1.924 2.725 1.382 8220
1.935 2.740 1.378 10918
1.937 2.743 1.369 10469
1.926 2.728 1.351 7458
1.941 2.749 1.349 6262
1.969 2.788 1.356 5659
2.014 2.852 1.373 5790
2.038 2.885 1.376 9441
2.035 2.882 1.363 11967
2.093 2.964 1.387 8195
2.078 2.943 1.366 8691
2.085 2.952 1.358 9100
2.091 2.961 1.351 7456
2.093 2.964 1.340 6537
2.143 3.034 1.357 8074
2.145 3.037 1.347 10843
2.160 3.058 1.343 9135
2.166 3.067 1.335 7425
2.172 3.076 1.326 6530
2.183 3.092 1.320 7736
2.190 3.100 1.312 5556
2.231 3.159 1.322 3520
2.228 3.155 1.309 4215
2.235 3.164 1.300 6275
2.250 3.186 1.296 6293
2.304 3.263 1.311 4718
2.306 3.266 1.300 5452
2.308 3.268 1.288 5103
2.314 3.277 1.279 5485
2.321 3.286 1.270 5128
2.384 3.376 1.288 3705
2.421 3.429 1.293 4033
2.441 3.456 1.290 4365
2.460 3.484 1.286 5758
2.471 3.499 1.277 4443
2.500 3.539 1.277 2314
2.493 3.530 1.261 5304
2.486 3.520 1.244 8979
2.483 3.516 1.230 7878
2.494 3.531 1.221 6032
2.513 3.559 1.217 5427
2.520 3.568 1.206 4456
2.490 3.526 1.180 6434
2.492 3.529 1.168 6735
2.494 3.531 1.155 5527
2.593 3.672 1.183 4477
2.591 3.668 1.168 9814
2.592 3.671 1.155 17945
2.594 3.673 1.142 30295
2.596 3.676 1.129 43889
2.597 3.678 1.116 50797
2.599 3.680 1.103 51723
2.596 3.676 1.089 48048
2.598 3.678 1.076 39368
2.599 3.681 1.063 30216
2.605 3.689 1.051 24444
2.607 3.691 1.038 17234
2.608 3.693 1.025 11171
2.614 3.702 1.014 8375
2.616 3.704 1.000 6388
3.012 4.265 1.117 5253
3.014 4.267 1.102 2956
3.074 4.352 1.105 3009
3.062 4.336 1.086 3256
3.113 4.408 1.086 3468
3.105 4.397 1.067 3308
3.134 4.438 1.060 3146
3.135 4.440 1.044 3267
3.232 4.576 1.055 2434
3.247 4.597 1.043 2859
3.271 4.632 1.033 2335
3.299 4.672 1.024 2614
3.292 4.661 1.005 2818
3.343 4.734 1.001 2994
3.417 4.838 1.003 2425
3.468 4.911 0.998 1678
3.460 4.900 0.979 2177
3.498 4.953 0.970 2088
3.513 4.974 0.956 2885
3.519 4.982 0.939 2884
3.520 4.984 0.922 2274
3.585 5.076 0.918 2066
3.640 5.155 0.911 1695
3.778 5.349 0.922 1592
3.779 5.351 0.903 1692
3.762 5.327 0.880 1587
3.790 5.368 0.866 1840
3.801 5.382 0.849 2374
3.856 5.461 0.840 1892
3.862 5.469 0.821 1712
3.872 5.484 0.804 1086
4.237 6.000 0.845 1705
4.243 6.008 0.825 2104
4.249 6.016 0.804 2152
4.241 6.005 0.781 1788
4.237 6.000 0.759 1388
4.498 6.369 0.775 1558
4.503 6.377 0.753 1661
4.782 6.771 0.767 1554
4.756 6.734 0.740 1626
4.752 6.729 0.715 1402
4.917 6.963 0.710 1446
0.456 0.646 0.187 1559
0.457 0.646 0.184 1588
4.929 6.980 0.637 1455
5.112 7.239 0.630 1244
5.108 7.234 0.604 1239
0.461 0.653 0.176 1041
0.457 0.647 0.174 1295
0.457 0.647 0.172 1447
0.457 0.647 0.169 1527
0.457 0.647 0.167 1510
0.462 0.654 0.165 1391
0.466 0.660 0.163 1376
0.462 0.654 0.161 1647
0.462 0.654 0.159 1833
0.457 0.647 0.157 1952
0.457 0.647 0.154 2022
0.457 0.647 0.152 1861
0.457 0.648 0.150 1709
0.457 0.648 0.148 1514
0.462 0.654 0.146 1293
0.462 0.654 0.144 1070
0.462 0.654 0.141 849
0.462 0.654 0.139 780
0.462 0.654 0.137 781
0.462 0.654 0.135 723
0.462 0.654 0.133 699
0.462 0.654 0.131 681
0.462 0.654 0.128 595
0.462 0.654 0.126 543
0.462 0.654 0.124 492
0.462 0.654 0.122 421
0.462 0.654 0.120 391
0.462 0.654 0.118 361
0.462 0.654 0.115 337
0.457 0.647 0.114 305
0.462 0.654 0.111 261
0.462 0.654 0.109 257
1.195 1.682 1.579 3082
1.198 1.686 1.573 6165
1.207 1.700 1.576 5189
1.217 1.714 1.579 4131
1.235 1.738 1.592 4504
1.237 1.742 1.586 5497
1.240 1.745 1.579 6491
1.242 1.748 1.573 5739
1.241 1.747 1.563 5040
1.243 1.750 1.557 5040
1.268 1.785 1.577 4379
1.278 1.800 1.580 5202
1.277 1.798 1.569 6459
1.280 1.801 1.563 7779
1.282 1.804 1.556 12270
1.288 1.813 1.554 16869
1.294 1.822 1.552 16234
1.297 1.825 1.546 16088
1.299 1.829 1.540 14946
1.302 1.832 1.533 13804
1.308 1.841 1.531 12459
1.314 1.849 1.529 11867
1.316 1.853 1.522 12453
1.319 1.856 1.516 9107
1.309 1.843 1.497 5641
1.351 1.901 1.532 6332
1.353 1.904 1.525 8992
1.351 1.902 1.515 9449
1.350 1.900 1.504 8288
1.352 1.903 1.497 6305
1.354 1.906 1.490 5693
1.361 1.915 1.488 5321
1.367 1.924 1.485 6081
1.369 1.927 1.478 6977
1.379 1.941 1.480 6256
1.441 2.029 1.532 8192
1.444 2.032 1.525 9047
1.442 2.030 1.514 10046
1.444 2.033 1.507 8298
1.443 2.031 1.496 5627
1.457 2.051 1.500 5495
1.463 2.060 1.497 7773
1.466 2.063 1.489 9518
1.484 2.089 1.497 9987
1.494 2.103 1.497 12765
1.501 2.112 1.494 10876
1.503 2.115 1.486 7879
1.546 2.176 1.516 7472
1.548 2.179 1.508 7755
1.554 2.188 1.504 7495
1.557 2.191 1.497 7044
1.575 2.217 1.503 7967
1.578 2.221 1.495 8850
1.580 2.224 1.488 7583
1.615 2.273 1.508 8213
1.617 2.276 1.500 10334
1.624 2.285 1.496 8645
1.610 2.266 1.474 6673
1.612 2.269 1.466 8085
1.614 2.272 1.458 8287
1.625 2.287 1.457 7529
1.635 2.301 1.456 7978
1.683 2.369 1.485 8536
1.681 2.366 1.473 9264
1.683 2.369 1.465 9113
1.685 2.372 1.456 8704
1.688 2.375 1.448 9173
1.694 2.384 1.443 10782
1.696 2.388 1.434 10653
1.740 2.450 1.458 8042
1.738 2.447 1.447 6250
1.745 2.456 1.441 4684
1.747 2.459 1.433 6201
1.741 2.450 1.418 7857
1.747 2.459 1.412 8347
1.749 2.462 1.403 7887
1.751 2.465 1.395 5866
1.753 2.468 1.386 4948
1.815 2.554 1.420 3768
1.817 2.557 1.411 5652
1.819 2.560 1.402 7643
1.817 2.557 1.390 9115
1.811 2.548 1.375 6987
1.872 2.635 1.407 5893
1.883 2.650 1.404 8699
1.881 2.647 1.392 10170
1.879 2.644 1.379 8802
1.894 2.665 1.379 7178
1.904 2.680 1.375 8128
1.932 2.719 1.382 7812
1.938 2.728 1.375 10250
1.941 2.731 1.366 10067
1.934 2.722 1.351 7765
1.949 2.743 1.349 6627
1.968 2.770 1.350 5432
1.970 2.773 1.341 4930
2.046 2.879 1.376 7756
2.048 2.882 1.366 10632
2.102 2.958 1.387 8240
2.100 2.955 1.374 8511
2.097 2.952 1.361 8576
2.104 2.961 1.353 7467
2.106 2.964 1.343 6001
2.147 3.022 1.355 8307
2.149 3.025 1.344 10858
2.168 3.052 1.343 9034
2.175 3.061 1.335 7630
2.177 3.064 1.324 6937
2.192 3.085 1.320 7592
2.198 3.094 1.312 5629
2.222 3.128 1.313 3544
2.233 3.143 1.306 4082
2.244 3.158 1.300 5936
2.259 3.179 1.296 6046
2.314 3.256 1.311 5373
2.315 3.259 1.300 6812
2.313 3.256 1.286 6262
2.319 3.265 1.277 5779
2.330 3.280 1.270 5111
2.416 3.400 1.299 4378
2.431 3.422 1.293 4163
2.446 3.443 1.287 4524
2.466 3.471 1.284 5161
2.472 3.480 1.273 4454
2.465 3.470 1.257 2118
2.489 3.504 1.255 4507
2.491 3.506 1.242 8355
2.493 3.509 1.230 6701
2.513 3.537 1.225 4881
2.519 3.545 1.215 5365
2.503 3.523 1.195 5356
2.500 3.519 1.180 6343
2.502 3.522 1.168 6008
2.504 3.524 1.155 4555
2.604 3.665 1.183 7458
2.601 3.661 1.168 15491
2.603 3.663 1.155 26116
2.604 3.666 1.142 39138
2.606 3.668 1.129 51154
2.608 3.670 1.116 55378
2.609 3.673 1.103 55107
2.607 3.669 1.089 51588
2.608 3.671 1.076 42802
2.610 3.673 1.063 32653
2.616 3.682 1.051 26155
2.617 3.684 1.038 18278
2.619 3.686 1.025 11654
2.625 3.694 1.014 8547
2.631 3.703 1.002 6501
3.024 4.257 1.117 4661
3.021 4.252 1.100 2746
3.086 4.344 1.105 2881
3.124 4.397 1.101 3001
3.121 4.393 1.084 3558
3.113 4.382 1.066 3194
3.147 4.429 1.060 3147
3.148 4.431 1.044 3552
3.236 4.554 1.053 2571
3.264 4.595 1.044 2857
3.284 4.622 1.033 2499
3.313 4.663 1.024 2780
3.300 4.645 1.004 2960
3.429 4.826 1.020 2833
3.430 4.828 1.003 2458
3.477 4.894 0.997 1787
3.474 4.890 0.979 2426
3.512 4.943 0.970 2375
3.527 4.964 0.956 3182
3.537 4.979 0.940 3187
3.593 5.058 0.935 2512
3.599 5.066 0.918 2267
3.660 5.151 0.912 1878
3.661 5.153 0.894 1652
3.799 5.347 0.904 1649
3.823 5.381 0.889 1463
3.810 5.363 0.867 1925
3.816 5.371 0.849 2437
3.817 5.373 0.830 1900
3.878 5.458 0.821 1710
3.888 5.472 0.804 1132
4.254 5.988 0.845 1728
4.260 5.996 0.825 2059
4.266 6.004 0.804 2108
4.258 5.993 0.781 1774
4.254 5.988 0.759 1375
4.516 6.356 0.775 1502
4.521 6.364 0.753 1642
4.778 6.726 0.764 1587
4.775 6.721 0.740 1669
4.771 6.716 0.715 1405
4.928 6.936 0.709 1264
5.025 7.072 0.695 1520
0.458 0.645 0.184 1514
0.458 0.645 0.182 1333
5.133 7.224 0.630 1392
5.129 7.219 0.604 1396
5.134 7.227 0.579 1182
0.459 0.646 0.174 934
0.459 0.646 0.172 1033
0.459 0.646 0.169 1108
0.459 0.646 0.167 1179
0.463 0.652 0.165 1184
0.468 0.659 0.163 1239
0.464 0.652 0.161 1534
0.464 0.653 0.159 1755
0.459 0.646 0.157 1912
0.459 0.646 0.154 2015
0.459 0.646 0.152 1897
0.459 0.646 0.150 1809
0.459 0.646 0.148 1636
0.459 0.646 0.146 1379
0.459 0.646 0.144 1131
0.464 0.653 0.141 904
0.464 0.653 0.139 821
0.464 0.653 0.137 802
0.464 0.653 0.135 745
0.464 0.653 0.133 724
0.464 0.653 0.131 704
0.464 0.653 0.128 608
0.464 0.653 0.126 551
0.459 0.646 0.124 490
0.464 0.653 0.122 403
0.464 0.653 0.120 365
0.464 0.652 0.118 315
0.464 0.652 0.115 285
0.463 0.652 0.113 270
1.203 1.685 1.583 3058
1.205 1.688 1.578 6117
1.211 1.697 1.576 5156
1.225 1.716 1.584 3956
1.243 1.741 1.596 4537
1.241 1.739 1.586 5602
1.244 1.742 1.579 6711
1.246 1.746 1.573 6473
1.249 1.749 1.567 6235
1.251 1.752 1.561 6235
1.269 1.777 1.573 4836
1.283 1.797 1.580 5381
1.281 1.795 1.569 6550
1.284 1.798 1.563 7729
1.286 1.801 1.556 12180
1.292 1.810 1.554 16814
1.299 1.819 1.552 16253
1.305 1.828 1.550 16233
1.303 1.826 1.540 15089
1.306 1.829 1.533 14111
1.308 1.832 1.527 12924
1.318 1.846 1.529 12561
1.321 1.850 1.522 13251
1.323 1.853 1.516 9711
1.325 1.856 1.510 6013
1.355 1.898 1.532 6777
1.357 1.901 1.525 9449
1.356 1.899 1.515 9879
1.354 1.897 1.504 8945
1.357 1.900 1.497 7227
1.363 1.909 1.495 6134
1.369 1.918 1.492 5402
1.371 1.921 1.485 6060
1.374 1.924 1.478 6719
1.384 1.938 1.480 6160
1.446 2.025 1.532 7842
1.448 2.029 1.525 8681
1.447 2.026 1.514 9620
1.449 2.030 1.507 7599
1.447 2.027 1.496 4750
1.466 2.053 1.504 4304
1.468 2.056 1.497 6648
1.470 2.059 1.489 8578
1.497 2.097 1.505 10426
1.503 2.105 1.501 13723
1.506 2.109 1.494 11876
1.508 2.112 1.486 8528
1.514 2.121 1.483 7108
1.553 2.175 1.508 7348
1.560 2.184 1.504 7587
1.574 2.205 1.507 7735
1.581 2.214 1.503 9143
1.583 2.217 1.495 10318
1.585 2.220 1.488 8707
1.620 2.269 1.508 7822
1.623 2.273 1.500 10021
1.629 2.282 1.496 8555
1.615 2.262 1.474 7129
1.617 2.265 1.466 8608
1.623 2.274 1.461 9058
1.630 2.283 1.457 7956
1.640 2.298 1.456 7518
1.684 2.359 1.481 9085
1.687 2.362 1.473 8829
1.689 2.365 1.465 7226
1.683 2.357 1.450 7390
1.689 2.366 1.445 8554
1.695 2.375 1.440 9763
1.698 2.378 1.431 10153
1.742 2.440 1.455 8336
1.744 2.443 1.447 6486
1.772 2.481 1.457 5137
1.757 2.461 1.436 6404
1.751 2.452 1.421 8479
1.757 2.461 1.415 10516
1.759 2.464 1.407 9003
1.753 2.455 1.392 5153
1.755 2.458 1.383 3601
1.812 2.538 1.414 4140
1.823 2.553 1.411 6731
1.825 2.556 1.402 8414
1.823 2.553 1.390 8485
1.817 2.544 1.375 6291
1.887 2.643 1.413 4610
1.893 2.652 1.407 8152
1.891 2.649 1.394 9107
1.885 2.640 1.379 7997
1.887 2.643 1.370 6913
1.911 2.676 1.375 7818
1.917 2.685 1.368 7434
1.945 2.724 1.375 9496
1.943 2.721 1.363 9356
1.936 2.712 1.348 7595
1.951 2.733 1.347 6570
1.966 2.754 1.345 5486
1.972 2.763 1.338 5557
2.057 2.881 1.379 6315
2.059 2.884 1.369 9567
2.104 2.947 1.384 8114
2.102 2.944 1.371 8270
2.104 2.947 1.361 7826
2.119 2.968 1.358 7441
2.143 3.002 1.360 6615
2.150 3.011 1.352 8391
2.156 3.020 1.344 10342
2.180 3.053 1.346 8690
2.186 3.062 1.337 7564
2.184 3.059 1.324 6907
2.199 3.080 1.320 7076
2.214 3.101 1.317 5702
2.225 3.116 1.310 3882
2.240 3.138 1.306 4018
2.251 3.153 1.300 5388
2.266 3.174 1.296 5285
2.321 3.251 1.311 6045
2.319 3.248 1.298 8037
2.321 3.250 1.286 7415
2.327 3.259 1.277 6015
2.422 3.392 1.311 6006
2.419 3.389 1.297 4956
2.412 3.379 1.280 4211
2.454 3.437 1.287 4729
2.474 3.465 1.284 4713
2.480 3.474 1.273 4874
2.478 3.470 1.259 3280
2.489 3.486 1.251 4711
2.495 3.494 1.240 7433
2.506 3.509 1.232 5466
2.521 3.531 1.225 3802
2.518 3.527 1.211 5057
2.511 3.517 1.195 6036
2.558 3.582 1.201 6388
2.559 3.585 1.188 5512
2.610 3.656 1.196 5515
2.608 3.652 1.181 10107
2.610 3.655 1.168 20367
2.611 3.657 1.155 32767
2.613 3.660 1.142 44419
2.615 3.662 1.129 54375
2.616 3.664 1.116 57694
2.618 3.667 1.103 56877
2.615 3.663 1.089 53126
2.617 3.665 1.076 43729
2.618 3.667 1.063 32838
2.624 3.676 1.051 25934
2.626 3.678 1.038 17741
2.627 3.680 1.025 10877
2.633 3.688 1.014 7743
2.639 3.697 1.002 5792
2.636 3.692 0.987 4036
2.642 3.701 0.976 2918
3.087 4.324 1.103 2629
3.139 4.396 1.103 3143
3.131 4.385 1.084 3520
3.124 4.375 1.066 3130
3.157 4.422 1.060 3095
3.163 4.430 1.045 3752
3.251 4.553 1.054 2572
3.275 4.587 1.044 2885
3.295 4.614 1.033 2673
3.323 4.655 1.024 2691
3.307 4.631 1.003 2887
3.436 4.812 1.019 2902
3.442 4.820 1.003 2582
3.489 4.886 0.997 1798
3.490 4.888 0.980 2609
3.491 4.890 0.963 2588
3.538 4.956 0.956 3290
3.549 4.971 0.940 3363
3.550 4.972 0.923 2581
3.606 5.051 0.917 2158
3.676 5.149 0.913 2090
3.677 5.151 0.895 1846
3.688 5.165 0.879 1636
3.835 5.372 0.889 1602
3.823 5.354 0.867 1916
3.829 5.362 0.849 2361
3.830 5.364 0.830 1837
3.895 5.455 0.822 1596
4.047 5.669 0.829 1191
4.268 5.978 0.845 1683
4.274 5.986 0.825 1950
4.275 5.988 0.803 2001
4.272 5.983 0.781 1696
4.268 5.978 0.759 1300
4.535 6.352 0.776 1359
4.536 6.353 0.753 1500
4.794 6.714 0.764 1470
4.786 6.703 0.739 1575
4.787 6.704 0.715 1353
4.930 6.905 0.708 1285
5.041 7.061 0.695 1500
5.042 7.062 0.670 1331
5.153 7.218 0.656 1226
5.154 7.219 0.630 1441
5.146 7.207 0.604 1437
5.151 7.215 0.579 1246
5.156 7.222 0.553 946
5.162 7.229 0.528 851
0.456 0.638 0.169 689
0.465 0.651 0.168 859
0.465 0.651 0.165 908
0.470 0.658 0.163 944
0.465 0.651 0.161 1219
0.465 0.651 0.159 1514
0.461 0.645 0.157 1747
0.461 0.645 0.154 1900
0.461 0.645 0.152 1871
0.461 0.645 0.150 1890
0.461 0.645 0.148 1763
0.461 0.645 0.146 1513
0.461 0.645 0.144 1282
0.465 0.652 0.141 1058
0.465 0.652 0.139 967
0.465 0.652 0.137 918
0.465 0.652 0.135 826
0.465 0.652 0.133 780
0.465 0.652 0.131 729
0.465 0.652 0.128 607
0.465 0.652 0.126 541
0.461 0.645 0.124 471
0.465 0.651 0.122 377
0.465 0.651 0.120 328
0.465 0.651 0.118 262
1.206 1.683 1.583 3119
1.208 1.686 1.578 6238
1.214 1.695 1.576 5296
1.228 1.714 1.584 4054
1.246 1.738 1.596 4816
1.248 1.742 1.590 5845
1.247 1.740 1.579 6960
1.249 1.743 1.573 7066
1.252 1.747 1.567 7173
1.254 1.750 1.561 7173
1.264 1.764 1.564 5452
1.286 1.794 1.580 5716
1.284 1.792 1.569 6628
1.287 1.796 1.563 7543
1.289 1.799 1.556 11801
1.296 1.808 1.554 16308
1.302 1.817 1.552 15849
1.308 1.825 1.550 16059
1.310 1.829 1.544 14926
1.309 1.827 1.533 14028
1.311 1.830 1.527 12956
1.321 1.844 1.529 12737
1.324 1.847 1.522 13494
1.326 1.851 1.516 9904
1.329 1.854 1.510 6131
1.362 1.901 1.536 7030
1.361 1.899 1.525 9638
1.359 1.897 1.515 10089
1.358 1.894 1.504 9539
1.360 1.898 1.497 8195
1.366 1.906 1.495 6892
1.376 1.921 1.496 5937
1.375 1.918 1.485 6206
1.377 1.922 1.478 6493
1.387 1.936 1.480 5994
1.450 2.023 1.532 7788
1.452 2.026 1.525 8626
1.450 2.024 1.514 9474
1.453 2.027 1.507 7143
1.455 2.030 1.499 4094
1.506 2.101 1.538 4857
1.508 2.104 1.531 7073
1.510 2.108 1.523 8398
1.509 2.105 1.512 11490
1.507 2.103 1.501 14788
1.509 2.106 1.494 12682
1.512 2.109 1.486 8950
1.518 2.118 1.483 7346
1.557 2.173 1.508 6783
1.563 2.182 1.504 7644
1.578 2.202 1.507 8623
1.584 2.211 1.503 10311
1.583 2.208 1.492 11855
1.585 2.212 1.484 9996
1.620 2.261 1.505 7560
1.627 2.270 1.500 9845
1.633 2.279 1.496 8573
1.619 2.259 1.474 7738
1.625 2.268 1.469 9348
1.627 2.271 1.461 10015
1.634 2.280 1.457 8401
1.682 2.347 1.486 7202
1.688 2.356 1.481 9579
1.691 2.359 1.473 8601
1.659 2.316 1.438 7198
1.670 2.330 1.436 7361
1.689 2.357 1.441 9096
1.695 2.366 1.436 9701
1.702 2.375 1.431 9939
1.742 2.431 1.452 8774
1.744 2.434 1.443 7143
1.772 2.472 1.454 5585
1.761 2.458 1.436 7406
1.759 2.455 1.424 9894
1.766 2.464 1.418 12346
1.768 2.467 1.410 10338
1.766 2.464 1.398 4983
1.802 2.514 1.414 3778
1.817 2.535 1.414 4591
1.827 2.550 1.411 7873
1.830 2.553 1.402 9545
1.827 2.550 1.390 8210
1.821 2.541 1.375 5578
1.900 2.652 1.419 4599
1.902 2.655 1.410 8254
1.900 2.652 1.397 8233
1.885 2.631 1.377 7187
1.887 2.634 1.367 6382
1.915 2.673 1.375 7162
1.922 2.681 1.368 7341
1.950 2.721 1.375 8812
1.947 2.717 1.363 8601
1.941 2.708 1.348 7123
1.956 2.729 1.347 6116
1.966 2.744 1.342 5466
1.977 2.759 1.338 5957
1.984 2.768 1.331 6371
2.068 2.886 1.371 9010
2.101 2.932 1.379 8090
2.107 2.941 1.371 7708
2.114 2.950 1.364 6938
2.129 2.971 1.361 7521
2.148 2.998 1.360 7634
2.155 3.007 1.352 8211
2.157 3.010 1.342 9543
2.185 3.049 1.346 8379
2.196 3.065 1.340 7371
2.189 3.055 1.324 6447
2.200 3.070 1.318 6168
2.224 3.104 1.319 5796
2.235 3.119 1.313 4096
2.255 3.146 1.311 4150
2.257 3.149 1.300 4666
2.329 3.250 1.325 5083
2.327 3.247 1.311 6660
2.324 3.243 1.298 8777
2.326 3.246 1.286 8123
2.333 3.255 1.277 5949
2.428 3.388 1.311 6369
2.425 3.384 1.297 5071
2.418 3.375 1.280 4385
2.456 3.427 1.285 4922
2.462 3.436 1.275 4307
2.486 3.470 1.273 5250
2.506 3.497 1.269 4470
2.490 3.475 1.249 4859
2.497 3.484 1.238 6031
2.507 3.499 1.230 4157
2.554 3.564 1.237 3038
2.520 3.517 1.209 4709
2.522 3.519 1.197 6125
2.564 3.578 1.201 7123
2.566 3.580 1.188 6067
2.617 3.652 1.196 6263
2.614 3.648 1.181 11388
2.616 3.650 1.168 22881
2.618 3.653 1.155 36092
2.619 3.655 1.142 46552
2.621 3.658 1.129 55282
2.623 3.660 1.116 58428
2.624 3.662 1.103 57394
2.621 3.658 1.089 53290
2.623 3.660 1.076 42895
2.625 3.663 1.063 31071
2.631 3.671 1.051 24068
2.632 3.673 1.038 16083
2.634 3.675 1.025 9379
2.640 3.684 1.014 6336
2.646 3.692 1.002 4642
2.647 3.694 0.989 3386
3.007 4.196 1.090 3066
3.008 4.198 1.075 2648
3.146 4.390 1.103 3204
3.139 4.380 1.084 3355
3.122 4.357 1.063 3109
3.169 4.422 1.061 3098
3.171 4.425 1.045 3910
3.168 4.420 1.028 2448
3.283 4.581 1.044 2781
3.303 4.609 1.033 2805
3.332 4.649 1.024 2491
3.420 4.772 1.030 2771
3.444 4.806 1.019 2916
3.445 4.808 1.002 2676
3.497 4.880 0.997 1769
3.498 4.882 0.980 2707
3.504 4.890 0.964 2697
3.547 4.950 0.956 3197
3.558 4.964 0.940 3355
3.559 4.966 0.923 2547
3.615 5.045 0.917 1815
3.685 5.142 0.913 2274
3.686 5.144 0.895 2014
3.688 5.146 0.877 1774
3.840 5.359 0.888 1689
3.837 5.354 0.868 1891
3.833 5.349 0.848 2214
3.839 5.357 0.830 1691
4.056 5.660 0.849 1486
4.062 5.668 0.830 1216
4.279 5.971 0.845 1565
4.284 5.979 0.825 1775
4.285 5.980 0.803 1845
4.287 5.982 0.782 1564
4.278 5.970 0.759 1167
4.574 6.382 0.780 1441
4.552 6.352 0.754 1401
4.806 6.706 0.764 1307
4.797 6.695 0.739 1420
4.798 6.696 0.715 1241
4.937 6.890 0.707 1352
5.178 7.225 0.709 1601
5.179 7.227 0.683 1342
5.166 7.209 0.656 1276
5.167 7.210 0.630 1409
5.158 7.198 0.604 1413
5.164 7.206 0.579 1249
5.169 7.213 0.553 915
5.174 7.220 0.528 764
0.466 0.650 0.170 715
0.466 0.650 0.168 908
0.466 0.650 0.165 899
0.466 0.651 0.163 768
0.466 0.651 0.161 874
0.466 0.651 0.159 1188
0.462 0.644 0.157 1512
0.462 0.644 0.154 1749
0.462 0.644 0.152 1844
0.462 0.644 0.150 1962
0.462 0.644 0.148 1881
0.462 0.644 0.146 1671
0.462 0.644 0.144 1485
0.466 0.651 0.141 1265
0.466 0.651 0.139 1137
0.466 0.651 0.137 1041
0.466 0.651 0.135 889
0.466 0.651 0.133 811
0.466 0.651 0.131 727
0.466 0.651 0.128 579
0.466 0.651 0.126 512
0.466 0.651 0.124 450
0.466 0.651 0.122 363
0.466 0.651 0.120 304
0.471 0.657 0.113 251
1.210 1.680 1.583 3234
1.212 1.683 1.578 6468
1.218 1.692 1.576 5594
1.232 1.711 1.584 4394
1.250 1.735 1.596 5189
1.249 1.734 1.586 6115
1.251 1.737 1.579 7136
1.254 1.740 1.573 7461
1.260 1.749 1.572 7863
1.262 1.752 1.566 7863
1.276 1.772 1.573 5977
1.290 1.791 1.580 6112
1.289 1.789 1.569 6677
1.291 1.793 1.563 7269
1.297 1.801 1.561 11173
1.300 1.805 1.554 15385
1.310 1.819 1.557 15102
1.312 1.822 1.550 15455
1.315 1.826 1.544 14378
1.313 1.823 1.533 13569
1.316 1.827 1.527 12615
1.326 1.841 1.529 12481
1.328 1.844 1.522 13255
1.331 1.847 1.516 9713
1.321 1.834 1.497 6005
1.367 1.898 1.536 7153
1.365 1.896 1.525 9613
1.360 1.888 1.510 10204
1.362 1.891 1.504 10154
1.368 1.900 1.501 9231
1.375 1.909 1.499 7894
1.381 1.917 1.496 6799
1.383 1.921 1.489 6537
1.386 1.924 1.482 6276
1.392 1.932 1.480 5807
1.454 2.019 1.532 7421
1.457 2.023 1.525 8265
1.459 2.026 1.518 9108
1.461 2.029 1.510 6763
1.512 2.100 1.550 4469
1.515 2.103 1.542 5652
1.513 2.101 1.531 8464
1.515 2.104 1.523 9937
1.514 2.102 1.512 12710
1.516 2.105 1.505 15667
1.514 2.102 1.494 13231
1.517 2.106 1.486 9148
1.519 2.109 1.479 7484
1.525 2.118 1.475 6396
1.569 2.178 1.504 7776
1.583 2.198 1.507 9521
1.586 2.201 1.500 11507
1.588 2.205 1.492 13407
1.590 2.208 1.484 11369
1.593 2.211 1.476 8515
1.628 2.260 1.497 9873
1.634 2.269 1.492 8799
1.624 2.255 1.474 8464
1.631 2.264 1.469 10218
1.637 2.273 1.465 11163
1.644 2.282 1.460 9029
1.688 2.343 1.486 7675
1.690 2.346 1.478 10224
1.692 2.349 1.470 8736
1.665 2.312 1.438 7960
1.676 2.326 1.436 7585
1.695 2.353 1.441 10124
1.701 2.362 1.436 10278
1.708 2.371 1.431 9874
1.743 2.421 1.449 9577
1.750 2.430 1.443 8182
1.756 2.439 1.438 6596
1.763 2.447 1.433 8757
1.765 2.451 1.424 11310
1.771 2.459 1.418 13579
1.774 2.462 1.410 11415
1.797 2.495 1.416 5622
1.808 2.510 1.414 4179
1.823 2.531 1.414 4950
1.834 2.546 1.411 8901
1.836 2.549 1.402 10848
1.838 2.552 1.393 8408
1.831 2.543 1.378 4953
1.907 2.647 1.419 5914
1.913 2.656 1.413 9111
1.920 2.665 1.406 7948
1.883 2.614 1.371 7044
1.889 2.623 1.364 6123
1.930 2.680 1.381 6595
1.932 2.683 1.371 7076
1.956 2.716 1.375 8310
1.945 2.701 1.358 7876
1.947 2.704 1.348 6321
1.958 2.718 1.344 5314
1.973 2.739 1.342 5163
1.980 2.748 1.335 5958
1.986 2.757 1.328 6460
2.080 2.887 1.374 8832
2.099 2.914 1.374 8262
2.110 2.929 1.369 7034
2.125 2.951 1.366 6170
2.140 2.972 1.363 7625
2.156 2.993 1.360 8193
2.158 2.996 1.350 7724
2.164 3.005 1.342 8545
2.197 3.050 1.348 8027
2.208 3.065 1.342 7306
2.197 3.050 1.324 5865
2.203 3.059 1.316 5212
2.236 3.104 1.321 5776
2.242 3.113 1.313 4510
2.262 3.141 1.311 4522
2.260 3.137 1.298 4069
2.333 3.238 1.323 5742
2.335 3.241 1.311 7156
2.337 3.244 1.300 8958
2.334 3.241 1.286 8227
2.336 3.243 1.275 5537
2.440 3.388 1.313 5917
2.433 3.378 1.297 4582
2.426 3.369 1.280 4308
2.446 3.396 1.277 5374
2.466 3.424 1.273 4752
2.499 3.470 1.275 5495
2.515 3.491 1.269 5574
2.499 3.469 1.249 4773
2.500 3.472 1.236 4923
2.516 3.493 1.230 3237
2.567 3.564 1.239 4161
2.573 3.573 1.228 5570
2.580 3.582 1.217 6636
2.573 3.572 1.201 7767
2.574 3.574 1.188 6253
2.626 3.645 1.196 6230
2.627 3.648 1.183 11183
2.625 3.644 1.168 22778
2.626 3.646 1.155 35792
2.628 3.649 1.142 45878
2.630 3.651 1.129 54604
2.631 3.653 1.116 57867
2.633 3.656 1.103 56737
2.635 3.658 1.090 52247
2.632 3.654 1.076 40466
2.633 3.656 1.063 27585
2.640 3.665 1.051 20694
2.641 3.667 1.038 13404
2.643 3.669 1.025 7470
2.649 3.677 1.014 4833
2.655 3.686 1.002 3432
3.093 4.294 1.130 2802
3.017 4.189 1.090 3349
3.019 4.191 1.075 3030
3.157 4.383 1.103 3171
3.154 4.379 1.086 3133
3.124 4.337 1.060 3201
3.184 4.421 1.062 3204
3.186 4.423 1.047 4071
3.183 4.419 1.030 2566
3.299 4.580 1.046 2726
3.309 4.594 1.032 2832
3.425 4.755 1.046 2405
3.431 4.764 1.030 2941
3.456 4.798 1.019 2925
3.457 4.800 1.002 2660
3.463 4.808 0.986 1762
3.515 4.880 0.981 2686
3.521 4.888 0.965 2677
3.554 4.935 0.955 2866
3.570 4.956 0.940 3075
3.571 4.958 0.923 2343
3.701 5.138 0.933 2025
3.702 5.140 0.914 2341
3.699 5.135 0.895 2075
3.700 5.137 0.877 1878
3.853 5.349 0.888 1748
3.850 5.345 0.868 1878
3.846 5.340 0.848 2099
4.059 5.636 0.867 1742
4.070 5.650 0.849 1470
4.075 5.658 0.830 1172
4.293 5.960 0.845 1416
4.294 5.962 0.824 1564
4.300 5.970 0.803 1641
4.301 5.971 0.782 1389
0.466 0.648 0.202 1124
4.589 6.371 0.780 1595
4.595 6.379 0.757 1337
4.974 6.906 0.784 1193
4.814 6.683 0.739 1195
4.676 6.492 0.698 1267
4.954 6.878 0.707 1396
5.200 7.219 0.710 1720
5.196 7.214 0.683 1444
0.463 0.642 0.182 1322
5.184 7.197 0.630 1279
5.434 7.545 0.627 1367
5.435 7.546 0.600 1241
5.431 7.541 0.573 865
0.468 0.649 0.172 805
0.468 0.649 0.170 1085
0.468 0.649 0.168 1230
0.468 0.649 0.165 1146
0.468 0.649 0.163 928
0.468 0.649 0.161 820
0.468 0.649 0.159 998
0.463 0.643 0.157 1371
0.463 0.643 0.154 1681
0.463 0.643 0.152 1862
0.463 0.643 0.150 2025
0.463 0.643 0.148 1969
0.463 0.643 0.146 1797
0.463 0.643 0.144 1640
0.468 0.650 0.141 1400
0.468 0.650 0.139 1228
0.468 0.650 0.137 1075
0.468 0.650 0.135 868
0.468 0.650 0.133 762
0.468 0.650 0.131 666
0.468 0.650 0.128 522
0.468 0.650 0.126 465
0.468 0.650 0.124 425
0.468 0.650 0.122 344
0.463 0.643 0.120 281
0.468 0.649 0.118 256
0.468 0.649 0.115 266
0.468 0.649 0.113 272
0.876 1.216 0.000 252
0.876 1.216 -0.004 273
0.875 1.215 -0.008 276
0.880 1.221 -0.013 281
0.879 1.221 -0.018 256
1.216 1.683 1.588 3431
1.219 1.686 1.582 6863
1.221 1.690 1.576 6082
1.235 1.709 1.584 4941
1.253 1.733 1.596 5578
1.252 1.731 1.586 6369
1.254 1.735 1.579 7222
1.260 1.743 1.578 7682
1.263 1.747 1.572 8260
1.265 1.750 1.566 8260
1.279 1.770 1.573 6478
1.293 1.789 1.580 6603
1.292 1.787 1.569 6749
1.294 1.790 1.563 6978
1.301 1.799 1.561 10493
1.307 1.808 1.559 14263
1.313 1.817 1.557 14264
1.320 1.825 1.555 14797
1.318 1.823 1.544 13545
1.313 1.816 1.529 12928
1.319 1.824 1.527 11931
1.325 1.833 1.525 11822
1.331 1.842 1.522 12537
1.334 1.845 1.516 9153
1.324 1.832 1.497 5682
1.374 1.901 1.540 7138
1.373 1.899 1.529 9430
1.363 1.886 1.510 10232
1.365 1.889 1.504 10681
1.372 1.897 1.501 10118
1.378 1.906 1.499 8802
1.384 1.915 1.496 7511
1.387 1.918 1.489 6768
1.389 1.921 1.482 6025
1.395 1.930 1.480 5547
1.458 2.017 1.532 6043
1.460 2.020 1.525 6788
1.463 2.023 1.518 7533
1.469 2.032 1.514 5766
1.516 2.097 1.550 4726
1.518 2.100 1.542 6211
1.517 2.098 1.531 9577
1.519 2.101 1.523 11213
1.521 2.105 1.516 13652
1.520 2.102 1.505 16309
1.518 2.100 1.494 13389
1.520 2.103 1.486 9107
1.523 2.106 1.479 7555
1.529 2.115 1.475 6608
1.576 2.181 1.508 7862
1.587 2.195 1.507 10243
1.589 2.199 1.500 12544
1.592 2.202 1.492 14713
1.590 2.199 1.481 12592
1.596 2.208 1.476 9498
1.632 2.257 1.497 10158
1.634 2.261 1.489 9188
1.628 2.252 1.474 9194
1.635 2.261 1.469 11020
1.641 2.270 1.465 12087
1.647 2.279 1.460 9661
1.687 2.334 1.483 8126
1.694 2.343 1.478 10689
1.692 2.341 1.466 9089
1.669 2.309 1.438 8405
1.688 2.335 1.443 7886
1.703 2.356 1.445 11046
1.705 2.359 1.436 10862
1.716 2.374 1.434 9644
1.743 2.412 1.445 10520
1.750 2.421 1.440 9120
1.761 2.435 1.438 7447
1.763 2.439 1.429 9878
1.765 2.442 1.421 12243
1.776 2.456 1.418 14101
1.778 2.459 1.410 11957
1.797 2.486 1.413 6275
1.808 2.501 1.411 4727
1.831 2.534 1.417 5329
1.838 2.542 1.411 9842
1.840 2.545 1.402 12301
1.842 2.548 1.393 9121
1.879 2.599 1.408 5960
1.911 2.644 1.419 7255
1.918 2.653 1.413 9866
1.924 2.662 1.406 8157
1.883 2.605 1.368 7656
1.885 2.608 1.359 6289
1.944 2.689 1.386 6714
1.937 2.679 1.371 6862
1.961 2.712 1.375 8254
1.950 2.697 1.358 7192
1.948 2.694 1.345 5466
1.958 2.709 1.341 4360
1.978 2.736 1.342 4489
1.984 2.745 1.335 5378
1.991 2.754 1.328 5944
2.085 2.884 1.374 9041
2.095 2.899 1.369 8809
2.111 2.920 1.366 6878
2.130 2.947 1.366 6356
2.150 2.974 1.366 7845
2.161 2.989 1.360 8054
2.163 2.992 1.350 6988
2.165 2.995 1.339 7782
2.202 3.046 1.348 7852
2.209 3.055 1.340 7384
2.206 3.052 1.326 5709
2.204 3.049 1.313 4586
2.246 3.107 1.324 5532
2.252 3.116 1.315 4974
2.268 3.137 1.311 5025
2.336 3.232 1.334 4082
2.338 3.234 1.323 6322
2.340 3.237 1.311 7460
2.342 3.240 1.300 8565
2.340 3.237 1.286 7759
2.342 3.239 1.275 4969
2.446 3.384 1.313 4889
2.444 3.380 1.299 3955
2.450 3.389 1.289 4291
2.452 3.392 1.277 5848
2.463 3.407 1.269 5540
2.505 3.466 1.275 5697
2.521 3.487 1.269 6328
