2.895 3.119 1.165 4758
3.180 3.426 1.253 4471
3.182 3.428 1.240 4625
3.189 3.436 1.228 5164
3.197 3.444 1.216 3887
3.015 3.248 1.141 4903
3.012 3.245 1.126 5043
3.014 3.247 1.114 5231
3.021 3.255 1.103 5717
3.023 3.257 1.090 4046
3.014 3.247 1.074 2338
3.021 3.255 1.062 1699
3.435 3.700 1.175 1644
3.447 3.714 1.164 2410
3.460 3.727 1.152 2969
3.198 3.445 1.061 3251
3.501 3.771 1.133 4648
3.524 3.796 1.125 5363
3.542 3.815 1.114 6926
3.554 3.829 1.102 6762
3.561 3.837 1.088 3451
3.659 3.941 1.098 3844
3.682 3.966 1.088 3518
3.684 3.968 1.073 4888
3.680 3.965 1.056 6245
3.687 3.972 1.041 4277
3.716 4.003 1.032 2836
3.840 4.136 1.046 3645
3.847 4.144 1.030 4426
3.854 4.152 1.015 3547
3.845 4.142 0.997 2650
3.916 4.219 0.996 2364
3.912 4.215 0.978 2406
4.159 4.481 1.013 2752
4.161 4.482 0.995 2317
4.136 4.455 0.972 2558
4.143 4.463 0.956 3518
4.369 4.706 0.982 4255
4.376 4.714 0.964 4653
4.377 4.716 0.946 5836
4.374 4.712 0.926 5719
4.391 4.730 0.910 4777
4.398 4.738 0.892 4876
4.405 4.745 0.875 4447
4.401 4.741 0.855 3394
4.386 4.725 0.834 2476
4.832 5.206 0.884 2476
4.823 5.196 0.862 2987
4.819 5.191 0.841 2201
4.826 5.199 0.821 1574
4.827 5.200 0.800 1454
4.952 5.334 0.796 1345
5.184 5.584 0.805 1249
5.206 5.609 0.786 1351
5.648 6.084 0.817 2053
5.660 6.097 0.794 2831
5.667 6.105 0.770 2964
5.662 6.100 0.745 2561
5.594 6.026 0.714 2421
5.589 6.021 0.690 2187
5.585 6.017 0.665 1503
5.919 6.377 0.672 1263
5.921 6.378 0.646 1314
5.674 6.113 0.601 1180
6.493 6.994 0.640 1167
6.494 6.995 0.612 1147
6.494 6.996 0.585 1194
6.501 7.003 0.557 1290
6.501 7.004 0.530 1081
6.502 7.005 0.502 806
6.498 7.000 0.474 743
6.509 7.012 0.447 607
6.510 7.013 0.419 406
6.505 7.007 0.391 334
6.505 7.008 0.363 332
0.475 0.511 0.149 311
0.469 0.506 0.147 407
0.469 0.506 0.145 464
0.464 0.500 0.143 465
0.469 0.506 0.141 417
0.469 0.506 0.139 406
0.469 0.506 0.137 393
0.469 0.506 0.136 352
0.469 0.506 0.134 303
0.469 0.505 0.112 258
0.469 0.505 0.110 291
0.469 0.505 0.108 334
0.469 0.505 0.106 333
0.469 0.505 0.104 290
1.434 1.537 1.607 4009
1.437 1.540 1.601 8018
1.440 1.543 1.595 8018
1.443 1.546 1.589 11532
1.446 1.550 1.583 15046
1.448 1.553 1.577 15012
1.456 1.560 1.575 15122
1.459 1.564 1.569 13690
1.466 1.571 1.567 12496
1.469 1.574 1.561 12496
1.476 1.582 1.559 13182
1.483 1.590 1.558 14175
1.491 1.598 1.556 11286
1.511 1.620 1.567 11346
1.514 1.623 1.561 9920
1.508 1.617 1.546 8652
1.502 1.610 1.531 6213
1.500 1.608 1.520 4275
1.548 1.660 1.557 6331
1.547 1.658 1.546 9726
1.549 1.661 1.540 10258
1.552 1.664 1.533 12508
1.555 1.667 1.527 14225
1.562 1.675 1.524 12351
1.570 1.683 1.522 11024
1.582 1.695 1.524 8283
1.607 1.723 1.538 7106
1.619 1.736 1.539 6899
1.627 1.744 1.536 7014
1.634 1.752 1.534 6720
1.642 1.760 1.531 6971
1.644 1.763 1.524 6998
1.652 1.771 1.521 6431
1.655 1.774 1.514 6083
1.662 1.782 1.511 7022
1.665 1.785 1.504 8018
1.672 1.792 1.501 9016
1.675 1.795 1.494 10174
1.678 1.798 1.487 8659
1.727 1.852 1.519 7003
1.730 1.855 1.511 6958
1.690 1.812 1.470 7528
1.698 1.820 1.467 8933
1.710 1.833 1.467 8662
1.731 1.856 1.475 10653
1.734 1.859 1.468 11393
1.737 1.862 1.460 12252
1.744 1.870 1.457 12749
1.752 1.878 1.453 11441
1.759 1.886 1.449 9404
1.766 1.893 1.446 8643
1.769 1.896 1.438 6363
1.796 1.925 1.449 3953
1.803 1.933 1.445 4293
1.810 1.941 1.441 3819
1.857 1.990 1.465 4494
1.859 1.993 1.457 5996
1.867 2.001 1.453 6442
1.874 2.009 1.449 6288
1.886 2.022 1.448 6428
1.894 2.030 1.443 6322
1.921 2.059 1.452 8235
1.928 2.067 1.447 10598
1.936 2.075 1.443 9552
1.943 2.083 1.438 10061
1.946 2.086 1.430 9615
2.012 2.157 1.464 9014
2.015 2.160 1.456 9343
2.018 2.163 1.447 7787
2.010 2.155 1.433 7482
2.013 2.158 1.424 11931
2.015 2.160 1.416 14686
2.028 2.174 1.414 13194
2.040 2.187 1.411 10188
2.058 2.206 1.412 7315
2.065 2.214 1.407 8062
2.088 2.238 1.410 7223
2.105 2.257 1.411 6324
2.098 2.249 1.396 8417
2.110 2.262 1.393 9418
2.143 2.297 1.402 9498
2.140 2.294 1.390 9161
2.132 2.286 1.375 7876
2.180 2.337 1.393 7088
2.178 2.334 1.380 6158
2.180 2.337 1.371 5087
2.182 2.340 1.362 6704
2.190 2.348 1.356 7382
2.202 2.361 1.352 5107
2.276 2.439 1.382 5392
2.288 2.453 1.378 9120
2.291 2.455 1.369 9209
2.283 2.447 1.353 6740
2.290 2.455 1.347 5473
2.303 2.469 1.342 5134
2.326 2.493 1.343 4905
2.409 2.583 1.376 4587
2.381 2.553 1.350 5183
2.389 2.561 1.343 6495
2.417 2.591 1.346 6913
2.424 2.599 1.338 7069
2.437 2.612 1.333 6414
2.455 2.631 1.330 5063
2.518 2.700 1.350 5498
2.531 2.713 1.344 9850
2.539 2.721 1.336 13870
2.546 2.729 1.328 12398
2.548 2.732 1.317 9167
2.561 2.745 1.311 7833
2.594 2.781 1.314 8303
2.597 2.784 1.303 9783
2.594 2.780 1.290 5879
2.643 2.833 1.300 3496
2.640 2.830 1.286 5135
2.652 2.843 1.280 4863
2.670 2.862 1.275 5875
2.683 2.876 1.268 4918
2.815 3.017 1.312 5835
2.822 3.025 1.302 6839
2.814 3.017 1.286 7294
2.822 3.025 1.276 9867
2.829 3.033 1.266 10315
2.837 3.041 1.257 7828
2.839 3.043 1.245 10511
2.841 3.045 1.233 11321
2.838 3.042 1.219 6325
2.871 3.078 1.219 3921
2.884 3.092 1.210 6230
2.886 3.094 1.198 6321
3.092 3.315 1.261 7649
3.095 3.317 1.248 5538
2.903 3.112 1.165 4092
3.178 3.407 1.250 4820
3.180 3.409 1.236 4797
3.182 3.411 1.223 4888
3.195 3.425 1.213 3253
3.018 3.235 1.139 4870
3.020 3.237 1.126 4946
3.022 3.239 1.114 5006
3.029 3.247 1.103 5239
3.026 3.244 1.088 3947
3.017 3.234 1.072 2690
3.029 3.248 1.062 1695
3.444 3.692 1.175 2136
3.456 3.705 1.164 2890
3.458 3.707 1.149 3655
3.455 3.704 1.133 3482
3.510 3.763 1.133 4293
3.533 3.788 1.125 5021
3.551 3.807 1.114 6618
3.564 3.820 1.102 6298
3.566 3.822 1.087 3118
3.674 3.938 1.100 3650
3.665 3.929 1.081 3340
3.693 3.959 1.073 4368
3.690 3.956 1.056 5456
3.729 3.997 1.049 3399
3.789 4.062 1.048 2893
3.786 4.058 1.030 3466
3.793 4.066 1.016 4119
3.789 4.062 0.998 3883
3.780 4.053 0.980 2796
3.996 4.283 1.011 2769
3.933 4.216 0.980 2574
4.170 4.470 1.013 2932
4.177 4.478 0.997 2423
4.147 4.445 0.972 2390
4.154 4.453 0.956 3359
4.380 4.696 0.982 4614
4.393 4.709 0.965 5209
4.389 4.705 0.946 6239
4.390 4.706 0.927 6001
4.403 4.720 0.910 5176
4.410 4.727 0.892 5397
4.416 4.734 0.875 4909
4.413 4.730 0.855 3710
4.403 4.720 0.835 2817
4.845 5.194 0.884 2417
4.836 5.184 0.862 2934
4.837 5.185 0.841 2206
4.838 5.187 0.821 1622
4.845 5.194 0.801 1477
5.196 5.570 0.827 1520
5.203 5.577 0.806 1493
5.220 5.596 0.786 1558
5.668 6.076 0.817 2137
5.675 6.083 0.794 3126
5.682 6.091 0.770 3285
5.683 6.092 0.746 2777
5.614 6.018 0.715 2760
5.610 6.013 0.690 2494
5.627 6.032 0.668 1697
5.628 6.033 0.644 1441
5.936 6.363 0.646 1463
5.689 6.099 0.601 1318
6.510 6.978 0.640 1056
6.511 6.979 0.612 1061
6.512 6.980 0.585 1115
6.518 6.987 0.557 1194
6.519 6.988 0.530 1008
6.519 6.989 0.502 726
6.515 6.984 0.474 642
6.521 6.990 0.446 511
0.470 0.504 0.158 381
0.470 0.504 0.156 321
6.528 6.998 0.363 288
0.481 0.516 0.151 259
0.476 0.510 0.149 349
0.476 0.510 0.147 435
0.471 0.504 0.145 486
0.471 0.504 0.143 528
0.471 0.504 0.141 527
0.471 0.504 0.139 508
0.471 0.504 0.137 449
0.476 0.510 0.136 390
0.471 0.504 0.134 344
0.465 0.499 0.132 265
1.436 1.535 1.607 3849
1.439 1.538 1.601 7698
1.442 1.541 1.595 7698
1.445 1.544 1.589 11412
1.448 1.547 1.583 15126
1.451 1.550 1.577 15003
1.458 1.558 1.575 15003
1.461 1.561 1.569 12902
1.468 1.569 1.567 10977
1.471 1.572 1.561 10977
1.478 1.580 1.559 11775
1.486 1.588 1.558 12759
1.493 1.596 1.556 10347
1.518 1.623 1.572 11235
1.517 1.621 1.561 9903
1.511 1.614 1.546 8772
1.518 1.622 1.544 6298
1.553 1.659 1.568 4327
1.551 1.657 1.557 7738
1.549 1.655 1.546 11493
1.552 1.658 1.540 11908
1.555 1.661 1.533 13492
1.557 1.664 1.527 14661
1.565 1.672 1.524 12392
1.581 1.690 1.530 11052
1.593 1.703 1.532 9079
1.610 1.721 1.538 8580
1.617 1.729 1.535 7602
1.629 1.741 1.536 6844
1.637 1.749 1.534 6559
1.644 1.757 1.531 7016
1.647 1.760 1.524 7317
1.655 1.768 1.521 6648
1.657 1.771 1.514 6167
1.665 1.779 1.511 6706
1.667 1.782 1.504 7273
1.675 1.790 1.501 8031
1.682 1.798 1.498 9085
1.685 1.801 1.491 7556
1.725 1.844 1.515 7742
1.728 1.847 1.508 7711
1.702 1.819 1.477 7057
1.705 1.822 1.470 9063
1.713 1.830 1.467 9378
1.734 1.853 1.475 11098
1.737 1.856 1.468 11236
1.740 1.859 1.460 11596
1.747 1.867 1.457 11960
1.754 1.875 1.453 10752
1.762 1.883 1.449 9176
1.769 1.891 1.446 8563
1.772 1.894 1.438 6404
1.861 1.989 1.495 3938
1.806 1.930 1.445 3721
1.813 1.938 1.441 3192
1.860 1.987 1.465 4494
1.862 1.990 1.457 6140
1.870 1.998 1.453 6383
1.877 2.006 1.449 6420
1.885 2.014 1.444 6715
1.892 2.022 1.440 6396
1.919 2.051 1.449 8430
1.927 2.059 1.444 10636
1.934 2.067 1.439 9421
1.946 2.080 1.438 9873
1.949 2.083 1.430 9007
2.016 2.154 1.464 9469
2.018 2.157 1.456 9965
2.021 2.160 1.447 9239
2.018 2.157 1.436 8717
2.016 2.155 1.424 11117
2.019 2.157 1.416 12715
2.026 2.165 1.410 11358
2.044 2.184 1.411 8438
2.061 2.203 1.412 5959
2.083 2.227 1.416 7988
2.096 2.240 1.413 8329
2.108 2.253 1.411 7063
2.101 2.245 1.396 7840
2.108 2.253 1.390 8466
2.151 2.299 1.405 8794
2.144 2.291 1.390 8092
2.141 2.288 1.378 7560
2.179 2.328 1.390 9401
2.181 2.331 1.380 8126
2.179 2.328 1.368 6547
2.186 2.336 1.362 7796
2.193 2.344 1.356 7910
2.206 2.358 1.352 5378
2.284 2.441 1.385 4647
2.292 2.449 1.378 8285
2.294 2.452 1.369 9036
2.287 2.444 1.353 7104
2.294 2.452 1.347 5797
2.307 2.465 1.342 5506
2.350 2.511 1.354 4916
2.413 2.579 1.376 4242
2.380 2.544 1.347 5319
2.388 2.552 1.340 6681
2.421 2.587 1.346 6696
2.428 2.595 1.338 6739
2.441 2.608 1.333 5958
2.459 2.627 1.330 5102
2.476 2.646 1.327 6041
2.535 2.709 1.344 8281
2.543 2.717 1.336 11421
2.550 2.725 1.328 10286
2.553 2.728 1.317 7668
2.560 2.736 1.308 7271
2.599 2.777 1.314 8882
2.601 2.780 1.303 10038
2.598 2.777 1.290 6031
2.642 2.823 1.298 3098
2.639 2.820 1.284 4942
2.651 2.834 1.278 4932
2.674 2.858 1.275 6223
2.687 2.872 1.268 5244
2.819 3.013 1.312 5020
2.827 3.021 1.302 6216
2.824 3.018 1.288 6198
2.826 3.020 1.276 8617
2.834 3.028 1.266 9441
2.841 3.036 1.257 7111
2.849 3.044 1.247 9433
2.851 3.047 1.235 9825
2.853 3.049 1.223 5450
3.038 3.247 1.280 4465
2.883 3.082 1.208 5858
3.059 3.269 1.260 5658
3.097 3.310 1.261 7122
3.100 3.313 1.248 4891
3.170 3.388 1.259 4175
3.172 3.390 1.246 5831
3.175 3.393 1.232 5732
3.177 3.395 1.219 6035
3.189 3.409 1.209 3496
3.023 3.231 1.139 4483
3.025 3.233 1.126 4536
3.022 3.229 1.112 4607
3.029 3.237 1.101 4521
3.025 3.233 1.086 3655
3.022 3.230 1.072 2811
3.447 3.684 1.190 1720
3.444 3.681 1.174 2762
3.457 3.694 1.162 3263
3.464 3.702 1.149 4203
3.455 3.693 1.131 4351
3.516 3.757 1.133 4319
3.539 3.782 1.125 4453
3.557 3.801 1.114 5827
3.569 3.815 1.102 5451
3.571 3.817 1.087 2757
3.685 3.938 1.101 3483
3.666 3.917 1.080 3257
3.673 3.925 1.066 3538
3.691 3.944 1.054 4354
3.740 3.997 1.051 3156
3.796 4.056 1.048 3157
3.792 4.053 1.030 3513
3.794 4.055 1.014 4337
3.801 4.062 0.999 4062
4.006 4.281 1.029 2759
4.002 4.277 1.011 3264
3.940 4.210 0.980 2880
4.177 4.464 1.013 2966
4.189 4.477 0.998 2506
4.293 4.588 1.000 2336
4.375 4.676 0.998 3180
4.393 4.695 0.983 4945
4.405 4.708 0.966 5756
4.401 4.704 0.947 6488
4.398 4.700 0.927 6038
4.410 4.713 0.910 5352
4.417 4.720 0.892 5661
4.424 4.728 0.875 5125
4.425 4.729 0.856 3818
4.410 4.713 0.835 2967
4.406 4.709 0.815 2320
4.844 5.176 0.862 2770
4.845 5.178 0.841 2166
4.846 5.179 0.821 1574
5.198 5.555 0.848 1369
5.205 5.562 0.827 1773
5.211 5.569 0.806 1720
5.229 5.588 0.786 1707
5.677 6.068 0.817 2193
5.684 6.075 0.794 3333
5.691 6.082 0.770 3508
5.692 6.083 0.746 2907
5.623 6.009 0.715 3157
5.624 6.011 0.691 2879
5.636 6.023 0.668 2092
5.637 6.024 0.644 1646
5.946 6.354 0.646 1550
5.947 6.356 0.621 1407
5.948 6.357 0.596 1031
6.521 6.969 0.612 949
6.522 6.970 0.585 1007
6.529 6.977 0.557 1074
6.529 6.978 0.530 912
6.530 6.979 0.502 648
6.525 6.974 0.474 567
6.526 6.974 0.446 457
0.477 0.509 0.158 356
0.477 0.509 0.156 348
0.477 0.509 0.154 354
0.477 0.509 0.152 314
0.477 0.509 0.151 374
0.477 0.509 0.149 495
0.477 0.509 0.147 549
0.471 0.504 0.145 571
0.471 0.504 0.143 579
0.471 0.504 0.141 590
0.471 0.504 0.139 611
0.471 0.504 0.137 576
0.471 0.504 0.136 505
0.471 0.504 0.134 440
0.471 0.504 0.132 358
0.466 0.498 0.130 262
1.436 1.526 1.602 3834
1.439 1.529 1.596 7669
1.442 1.532 1.590 7669
1.445 1.535 1.584 11472
1.452 1.543 1.583 15283
1.455 1.546 1.577 15142
1.463 1.554 1.575 15113
1.466 1.557 1.569 12296
1.473 1.565 1.567 9545
1.476 1.568 1.561 9545
1.483 1.576 1.559 10268
1.486 1.579 1.553 11163
1.498 1.591 1.556 9127
1.523 1.618 1.572 10947
1.526 1.621 1.565 9584
1.515 1.610 1.546 8560
1.523 1.618 1.544 6355
1.557 1.655 1.568 5587
1.556 1.653 1.557 9171
1.554 1.651 1.546 12977
1.557 1.654 1.540 13280
1.560 1.657 1.533 14176
1.562 1.660 1.527 14769
1.570 1.668 1.524 12243
1.591 1.690 1.534 11483
1.603 1.703 1.536 10058
1.615 1.716 1.538 9776
1.622 1.724 1.535 8084
1.635 1.737 1.536 6509
1.642 1.745 1.534 6306
1.649 1.752 1.531 7019
1.652 1.755 1.524 7528
1.660 1.763 1.521 6836
1.667 1.771 1.518 6302
1.670 1.774 1.511 6456
1.673 1.777 1.504 6609
1.680 1.785 1.501 7194
1.697 1.803 1.506 8407
1.714 1.821 1.510 7513
1.731 1.839 1.515 8229
1.734 1.842 1.508 8208
1.717 1.825 1.485 7432
1.715 1.822 1.474 9406
1.723 1.830 1.471 10183
1.740 1.848 1.475 11518
1.742 1.851 1.468 10928
1.745 1.854 1.460 10533
1.757 1.867 1.460 10734
1.765 1.875 1.457 10035
1.767 1.878 1.449 9212
1.775 1.886 1.446 8906
1.777 1.888 1.438 6760
1.862 1.978 1.492 5323
1.875 1.992 1.491 4267
1.872 1.989 1.480 3577
1.865 1.982 1.465 4964
1.873 1.990 1.461 6492
1.880 1.998 1.456 6622
1.883 2.001 1.449 6874
1.886 2.003 1.441 7241
1.893 2.011 1.436 6642
1.930 2.050 1.452 8653
1.933 2.053 1.444 10412
1.945 2.066 1.443 8807
1.957 2.080 1.441 8726
1.965 2.088 1.436 7398
2.017 2.143 1.461 9688
2.025 2.151 1.456 10247
2.032 2.159 1.451 10731
2.030 2.156 1.439 10357
2.027 2.154 1.427 10337
2.025 2.151 1.416 10571
2.033 2.159 1.410 9246
2.045 2.173 1.408 6571
2.072 2.202 1.415 4936
2.095 2.226 1.419 8946
2.108 2.239 1.416 9865
2.110 2.242 1.408 8056
2.108 2.239 1.396 7507
2.120 2.252 1.393 7469
2.158 2.292 1.405 8018
2.145 2.279 1.387 7081
2.183 2.319 1.399 7830
2.185 2.322 1.390 11893
2.183 2.319 1.378 10234
2.185 2.322 1.368 7956
2.188 2.324 1.359 8473
2.200 2.338 1.356 8066
2.213 2.351 1.352 5492
2.297 2.440 1.388 4591
2.299 2.443 1.378 7836
2.296 2.440 1.366 8824
2.294 2.437 1.353 7118
2.301 2.445 1.347 5931
2.380 2.529 1.377 5909
2.367 2.515 1.359 5538
2.370 2.518 1.349 4544
2.382 2.531 1.345 5374
2.395 2.545 1.340 6619
2.428 2.580 1.346 6423
2.441 2.593 1.340 6422
2.448 2.601 1.333 5263
2.466 2.620 1.330 4880
2.484 2.639 1.327 6678
2.497 2.653 1.322 6940
2.551 2.710 1.336 8448
2.558 2.718 1.328 7747
2.555 2.715 1.314 6130
2.568 2.728 1.308 6650
2.612 2.775 1.317 9216
2.609 2.772 1.303 9757
2.606 2.769 1.290 5913
2.650 2.815 1.298 3172
2.647 2.812 1.284 4553
2.660 2.826 1.278 4771
2.683 2.850 1.275 6438
2.690 2.858 1.266 5329
2.833 3.010 1.314 4126
2.836 3.013 1.302 5340
2.838 3.015 1.290 5251
2.840 3.018 1.278 7197
2.848 3.026 1.269 7793
2.855 3.034 1.259 5979
2.863 3.041 1.249 8274
2.860 3.038 1.235 8470
3.019 3.208 1.283 5458
3.043 3.233 1.278 4890
3.071 3.263 1.275 6026
3.068 3.260 1.260 6859
3.102 3.296 1.259 5914
3.109 3.304 1.248 3875
3.180 3.379 1.259 5270
3.182 3.381 1.246 6642
3.179 3.378 1.231 6671
3.187 3.386 1.219 7267
3.194 3.394 1.207 4007
3.027 3.216 1.137 3948
3.029 3.218 1.125 3976
3.031 3.220 1.112 4029
3.033 3.222 1.099 3749
3.035 3.224 1.086 3352
3.031 3.221 1.072 2814
3.453 3.668 1.188 2171
3.455 3.671 1.174 3368
3.462 3.678 1.161 3471
3.470 3.686 1.148 4517
3.466 3.683 1.131 5120
3.527 3.747 1.133 4454
3.529 3.749 1.119 3856
3.568 3.791 1.114 4606
3.581 3.804 1.102 4222
3.583 3.806 1.087 2391
3.702 3.933 1.103 3145
3.656 3.884 1.075 3264
3.684 3.914 1.066 3300
3.681 3.911 1.049 3782
3.752 3.986 1.051 2959
3.813 4.051 1.049 3363
3.804 4.041 1.030 3321
3.806 4.043 1.014 4216
3.813 4.051 0.999 3916
4.013 4.264 1.028 2989
4.015 4.265 1.011 3552
3.957 4.205 0.981 3183
4.190 4.452 1.013 2850
4.208 4.471 0.999 2510
4.306 4.575 1.000 2442
4.394 4.668 0.999 3132
4.407 4.682 0.983 5021
4.424 4.701 0.967 6106
4.421 4.697 0.948 6518
4.411 4.687 0.927 5779
4.429 4.706 0.911 5265
4.436 4.713 0.893 5686
4.443 4.720 0.876 5134
4.444 4.722 0.857 3806
4.424 4.700 0.835 3009
4.426 4.702 0.816 2423
4.859 5.162 0.862 2533
4.860 5.164 0.841 2071
4.862 5.165 0.821 1478
5.214 5.540 0.848 1440
5.221 5.547 0.827 1940
5.228 5.554 0.806 1873
5.240 5.567 0.785 1774
5.695 6.051 0.817 2209
5.702 6.058 0.794 3459
5.709 6.065 0.770 3639
5.710 6.066 0.746 2957
5.641 5.993 0.715 3512
5.647 6.000 0.691 3203
5.654 6.007 0.668 2428
5.655 6.008 0.644 1844
5.965 6.337 0.646 1596
5.960 6.332 0.621 1495
5.961 6.333 0.596 1107
6.542 6.950 0.612 778
6.543 6.951 0.585 848
6.554 6.964 0.558 922
6.555 6.965 0.530 793
6.551 6.960 0.502 544
6.540 6.949 0.474 471
6.547 6.955 0.446 382
6.558 6.967 0.419 276
6.558 6.968 0.391 262
0.478 0.508 0.154 251
0.478 0.508 0.151 325
0.473 0.502 0.149 445
0.473 0.502 0.147 490
0.473 0.502 0.145 531
0.473 0.502 0.143 533
0.478 0.508 0.141 535
0.478 0.508 0.139 609
0.473 0.502 0.137 612
0.473 0.502 0.136 535
0.478 0.508 0.134 462
0.473 0.502 0.132 379
0.473 0.502 0.130 272
0.455 0.483 0.081 262
1.441 1.522 1.602 3946
1.444 1.525 1.596 7893
1.442 1.523 1.585 8003
1.450 1.531 1.584 11719
1.453 1.534 1.578 15545
1.460 1.542 1.577 15324
1.467 1.550 1.575 15244
1.470 1.553 1.569 11846
1.473 1.556 1.563 8447
1.476 1.559 1.557 8447
1.483 1.566 1.555 8952
1.491 1.574 1.553 9549
1.521 1.606 1.573 7941
1.528 1.614 1.572 10375
1.531 1.617 1.565 9134
1.520 1.605 1.546 8182
1.555 1.642 1.570 6857
1.562 1.650 1.568 6816
1.561 1.648 1.557 10435
1.564 1.651 1.550 14211
1.566 1.654 1.544 14411
1.565 1.652 1.533 14587
1.567 1.655 1.527 14609
1.575 1.663 1.524 11921
1.601 1.690 1.539 11799
1.613 1.703 1.540 10754
1.620 1.711 1.538 10590
1.623 1.714 1.531 8304
1.598 1.687 1.500 6149
1.601 1.690 1.493 6193
1.655 1.747 1.531 6970
1.658 1.750 1.524 7623
1.665 1.758 1.521 6926
1.673 1.766 1.518 6407
1.675 1.769 1.511 6181
1.678 1.772 1.504 5956
1.695 1.790 1.509 6735
1.707 1.803 1.510 8211
1.719 1.816 1.510 7683
1.736 1.834 1.515 8303
1.734 1.832 1.504 8398
1.728 1.824 1.489 8498
1.721 1.817 1.474 10042
1.733 1.830 1.475 11167
1.740 1.838 1.471 12144
1.743 1.841 1.464 10815
1.751 1.849 1.460 9325
1.768 1.867 1.464 9244
1.770 1.869 1.457 9520
1.773 1.872 1.449 9902
1.776 1.875 1.442 10008
1.778 1.878 1.435 7591
1.863 1.968 1.488 6962
1.876 1.981 1.488 5266
1.874 1.978 1.476 4630
1.871 1.976 1.465 5781
1.879 1.984 1.461 7012
1.886 1.992 1.456 7456
1.889 1.995 1.449 8023
1.892 1.998 1.441 8425
1.894 2.000 1.433 7401
1.941 2.050 1.456 8264
1.939 2.047 1.444 9431
1.951 2.061 1.443 7955
1.974 2.084 1.448 7944
1.986 2.097 1.446 7000
2.018 2.131 1.458 9457
2.031 2.145 1.456 10038
2.039 2.153 1.451 12058
2.036 2.150 1.439 12132
2.034 2.148 1.427 9902
2.032 2.145 1.416 8422
2.039 2.153 1.410 7109
2.047 2.161 1.405 4857
2.109 2.227 1.434 4816
2.107 2.225 1.422 10398
2.114 2.233 1.416 11509
2.117 2.235 1.408 9470
2.114 2.233 1.396 7410
2.142 2.262 1.402 6925
2.155 2.275 1.399 7357
2.152 2.273 1.387 6365
2.185 2.307 1.396 9177
2.187 2.310 1.387 14386
2.190 2.313 1.378 12333
2.192 2.315 1.368 9201
2.195 2.318 1.359 8806
2.207 2.331 1.356 8156
2.220 2.344 1.352 5741
2.294 2.422 1.382 4737
2.312 2.441 1.381 7435
2.299 2.427 1.363 8389
2.301 2.430 1.353 6892
2.309 2.438 1.347 6006
2.383 2.516 1.375 6141
2.380 2.513 1.362 6137
2.372 2.505 1.347 5307
2.385 2.519 1.342 5482
2.398 2.532 1.337 6248
2.446 2.583 1.351 6247
2.454 2.591 1.343 6546
2.456 2.594 1.333 4957
2.469 2.607 1.328 4662
2.497 2.637 1.330 7070
2.510 2.650 1.324 7918
2.549 2.691 1.331 5238
2.561 2.705 1.325 5145
2.548 2.691 1.307 5028
2.618 2.764 1.328 6227
2.625 2.772 1.319 9455
2.617 2.764 1.303 9187
2.615 2.761 1.290 5515
2.659 2.807 1.298 3196
2.723 2.876 1.314 4123
2.668 2.818 1.278 4198
2.692 2.842 1.275 6527
2.699 2.850 1.266 5385
2.774 2.930 1.286 4348
2.782 2.938 1.276 4616
2.852 3.012 1.292 4957
2.860 3.020 1.283 6440
2.857 3.017 1.269 5655
2.922 3.086 1.282 4418
2.872 3.033 1.249 6752
3.006 3.174 1.288 7432
3.019 3.188 1.279 6076
3.042 3.212 1.274 5371
3.081 3.254 1.275 7622
3.083 3.256 1.262 7754
3.086 3.258 1.249 5070
3.119 3.294 1.248 3227
3.190 3.369 1.259 5960
3.193 3.371 1.246 6967
3.190 3.368 1.231 7288
3.197 3.376 1.219 7983
3.199 3.378 1.206 4193
3.037 3.207 1.137 3261
3.034 3.203 1.123 3233
3.035 3.205 1.110 3328
3.037 3.207 1.097 3109
3.039 3.210 1.085 3059
3.036 3.206 1.070 2611
3.453 3.647 1.185 2707
3.466 3.660 1.174 3787
3.473 3.668 1.161 3506
3.475 3.670 1.146 4710
3.472 3.666 1.130 5858
3.511 3.708 1.126 4650
3.524 3.721 1.114 3699
3.585 3.786 1.116 3317
3.592 3.793 1.102 2884
3.717 3.925 1.120 2152
3.719 3.927 1.104 2727
3.668 3.873 1.075 3303
3.675 3.880 1.060 3571
3.687 3.894 1.048 4219
3.684 3.890 1.031 2865
3.825 4.039 1.049 3308
3.822 4.036 1.032 2897
3.813 4.026 1.013 3864
3.825 4.039 0.999 3570
4.026 4.251 1.028 3178
4.028 4.253 1.011 3704
3.970 4.192 0.981 3277
4.198 4.433 1.012 2548
4.221 4.458 0.999 2360
4.320 4.562 1.000 2471
4.408 4.655 0.999 2911
4.426 4.674 0.984 4917
4.439 4.687 0.967 6170
4.440 4.689 0.949 6316
4.431 4.679 0.928 5161
4.449 4.698 0.912 4993
4.450 4.700 0.893 5505
4.457 4.707 0.876 4966
4.459 4.708 0.857 3624
4.433 4.681 0.834 2903
4.440 4.688 0.816 2444
4.880 5.153 0.863 2329
4.870 5.143 0.841 1960
4.866 5.139 0.819 1327
5.236 5.529 0.849 1528
5.243 5.537 0.828 2065
5.244 5.538 0.806 2007
5.257 5.551 0.785 1836
5.719 6.039 0.818 2115
5.720 6.041 0.794 3412
5.727 6.048 0.770 3610
5.728 6.049 0.746 2897
5.664 5.982 0.715 3939
5.666 5.983 0.691 3589
5.672 5.990 0.668 2801
5.673 5.991 0.644 2036
5.777 6.101 0.629 1756
5.979 6.314 0.621 1606
5.980 6.315 0.596 1218
5.981 6.316 0.570 868
6.069 6.409 0.551 742
6.576 6.944 0.558 746
6.576 6.945 0.530 656
6.572 6.940 0.502 440
6.562 6.929 0.474 372
6.562 6.930 0.446 313
6.579 6.947 0.419 273
6.580 6.948 0.391 285
0.485 0.512 0.151 259
0.480 0.507 0.149 351
0.474 0.501 0.147 424
0.474 0.501 0.145 491
0.474 0.501 0.143 500
0.480 0.507 0.141 456
0.480 0.507 0.139 478
0.480 0.507 0.137 475
0.480 0.507 0.136 445
0.480 0.507 0.134 415
0.480 0.507 0.132 339
0.474 0.501 0.130 253
0.456 0.482 0.081 264
1.440 1.514 1.597 4071
1.443 1.517 1.591 8142
1.446 1.520 1.585 8248
1.453 1.528 1.584 11665
1.456 1.531 1.578 15306
1.464 1.538 1.577 15088
1.471 1.546 1.575 15005
1.474 1.549 1.569 11559
1.477 1.552 1.563 8113
1.480 1.555 1.557 8113
1.482 1.558 1.551 8016
1.490 1.566 1.549 7968
1.533 1.612 1.582 7087
1.536 1.615 1.576 9536
1.539 1.618 1.570 8445
1.524 1.602 1.546 7482
1.559 1.638 1.570 7202
1.566 1.646 1.568 7578
1.564 1.644 1.557 11011
1.567 1.647 1.550 14629
1.570 1.650 1.544 14788
1.568 1.649 1.533 14279
1.571 1.652 1.527 13834
1.579 1.659 1.524 11146
1.605 1.687 1.539 11557
1.617 1.699 1.540 10809
1.624 1.707 1.538 10705
1.627 1.710 1.531 8058
1.602 1.684 1.500 5975
1.604 1.687 1.493 5977
1.659 1.744 1.531 6714
1.662 1.747 1.524 7384
1.669 1.754 1.521 6709
1.677 1.762 1.518 6258
1.679 1.765 1.511 5784
1.692 1.778 1.512 5438
1.704 1.791 1.513 6524
1.711 1.799 1.510 7991
1.719 1.807 1.507 7665
1.736 1.825 1.511 8113
1.734 1.823 1.500 8302
1.732 1.820 1.489 9316
1.730 1.818 1.478 10755
1.737 1.826 1.475 12050
1.745 1.834 1.471 12847
1.747 1.837 1.464 10961
1.755 1.845 1.460 8255
1.777 1.868 1.468 7910
1.775 1.865 1.457 9113
1.777 1.868 1.449 10801
1.780 1.871 1.442 11122
1.860 1.955 1.492 8805
1.868 1.963 1.488 8371
1.875 1.971 1.484 6341
1.878 1.974 1.476 5766
1.881 1.977 1.469 6716
1.888 1.985 1.464 7537
1.891 1.988 1.456 8512
1.894 1.991 1.449 9484
1.891 1.988 1.437 9766
1.894 1.991 1.429 8437
1.946 2.045 1.456 7798
1.948 2.048 1.447 8197
1.956 2.056 1.443 7128
1.978 2.080 1.448 7299
2.001 2.103 1.453 7104
2.018 2.122 1.455 9032
2.036 2.140 1.456 9463
2.044 2.148 1.451 12987
2.041 2.146 1.439 13543
2.044 2.148 1.431 9807
2.051 2.156 1.425 7195
2.054 2.159 1.417 5867
2.077 2.183 1.421 4213
2.099 2.207 1.425 6151
2.112 2.220 1.422 11556
2.119 2.228 1.416 12653
2.122 2.231 1.408 10635
2.119 2.228 1.396 7478
2.147 2.257 1.402 6594
2.160 2.270 1.399 7037
2.162 2.273 1.390 6187
2.190 2.302 1.396 10969
2.193 2.305 1.387 16147
2.195 2.308 1.378 13515
2.203 2.315 1.371 9831
2.205 2.318 1.362 8719
2.218 2.331 1.359 8043
2.225 2.339 1.352 6014
2.315 2.433 1.391 4766
2.312 2.430 1.378 7119
2.304 2.422 1.363 7784
2.302 2.419 1.351 6570
2.309 2.427 1.344 6077
2.383 2.505 1.372 5817
2.386 2.508 1.362 6549
2.378 2.500 1.347 6338
2.391 2.513 1.342 5836
2.403 2.526 1.337 5974
2.457 2.583 1.353 6122
2.465 2.591 1.346 6571
2.514 2.643 1.358 4747
2.475 2.602 1.328 4217
2.503 2.631 1.330 6940
2.516 2.645 1.324 8385
2.513 2.642 1.311 4596
2.552 2.682 1.318 3783
2.549 2.679 1.305 4459
2.629 2.764 1.330 6115
2.632 2.766 1.319 9265
2.624 2.758 1.303 8260
2.621 2.755 1.290 4945
2.712 2.851 1.318 3320
2.725 2.864 1.311 4524
2.722 2.861 1.298 3872
2.698 2.836 1.275 6030
2.705 2.844 1.266 5051
2.781 2.923 1.286 4357
2.789 2.931 1.276 4364
2.864 3.011 1.295 5282
2.867 3.014 1.283 6556
2.874 3.021 1.273 4196
2.929 3.079 1.282 4755
2.884 3.032 1.251 5218
3.013 3.167 1.288 7908
3.020 3.175 1.277 6482
3.044 3.200 1.272 5847
3.088 3.247 1.275 8216
3.091 3.249 1.262 7900
3.098 3.257 1.251 4694
3.185 3.348 1.269 3515
3.198 3.362 1.259 5828
3.200 3.364 1.246 6416
3.197 3.361 1.231 7107
3.205 3.369 1.219 7768
3.207 3.371 1.206 4135
3.039 3.194 1.136 2492
3.041 3.196 1.123 2522
3.037 3.193 1.108 2678
3.039 3.195 1.096 2757
3.036 3.191 1.081 2893
3.043 3.199 1.070 2312
3.456 3.633 1.183 3289
3.469 3.647 1.172 3914
3.476 3.654 1.159 3439
3.484 3.662 1.146 4811
3.480 3.659 1.130 6233
3.520 3.700 1.126 4751
3.527 3.708 1.113 3967
3.599 3.783 1.117 2526
3.601 3.785 1.102 2208
3.544 3.725 1.071 2021
3.664 3.851 1.087 2524
3.676 3.865 1.075 3271
3.684 3.872 1.060 3898
3.691 3.880 1.046 4597
3.779 3.972 1.052 3164
3.834 4.031 1.049 3116
3.879 4.078 1.043 3096
3.822 4.017 1.013 3578
3.834 4.031 0.999 3199
4.030 4.236 1.027 3230
4.032 4.238 1.010 3729
3.980 4.183 0.981 3113
4.208 4.424 1.012 2195
4.232 4.448 0.999 2120
4.325 4.547 0.999 2531
4.419 4.645 0.999 2573
4.437 4.664 0.984 4554
4.449 4.677 0.967 5789
4.451 4.679 0.949 5735
4.442 4.669 0.928 4286
4.465 4.693 0.913 4493
4.461 4.689 0.893 4992
4.468 4.697 0.876 4519
4.475 4.704 0.858 3297
4.444 4.671 0.834 2657
4.451 4.678 0.816 2322
4.892 5.142 0.863 2114
4.877 5.126 0.840 1996
4.867 5.116 0.818 1485
5.249 5.517 0.849 1669
5.256 5.525 0.828 2230
5.262 5.532 0.806 2155
5.269 5.539 0.785 1879
5.727 6.020 0.817 1997
5.734 6.028 0.794 3223
5.741 6.035 0.770 3388
5.677 5.967 0.739 2824
5.678 5.969 0.715 4203
5.679 5.970 0.691 3783
5.686 5.977 0.668 2998
5.687 5.978 0.644 2134
5.797 6.093 0.629 2062
5.994 6.300 0.621 1636
5.995 6.301 0.596 1280
5.990 6.297 0.570 937
6.084 6.395 0.551 754
6.079 6.390 0.525 688
6.080 6.391 0.499 595
5.819 6.116 0.459 432
5.819 6.117 0.435 350
0.481 0.505 0.160 267
6.595 6.932 0.419 268
6.595 6.933 0.391 283
0.481 0.505 0.151 336
0.481 0.505 0.149 430
0.481 0.506 0.147 515
0.475 0.500 0.145 586
0.475 0.500 0.143 623
0.475 0.500 0.141 596
0.475 0.500 0.139 576
0.481 0.506 0.137 517
0.481 0.506 0.136 438
0.481 0.506 0.134 368
0.481 0.506 0.132 264
0.457 0.481 0.082 251
1.443 1.511 1.597 4138
1.446 1.514 1.591 8277
1.449 1.517 1.585 8342
1.457 1.524 1.584 11494
1.459 1.527 1.578 14960
1.467 1.535 1.577 14782
1.474 1.543 1.575 14725
1.477 1.546 1.569 11494
1.480 1.549 1.563 8263
1.483 1.552 1.557 8263
1.486 1.555 1.551 7496
1.489 1.558 1.544 6728
1.542 1.613 1.587 6606
1.540 1.612 1.576 8620
1.547 1.619 1.574 7862
1.555 1.627 1.572 7152
1.562 1.635 1.570 7396
1.570 1.643 1.568 8043
1.568 1.641 1.557 11130
1.571 1.644 1.550 14456
1.574 1.647 1.544 14602
1.577 1.650 1.537 13604
1.575 1.648 1.527 12762
1.591 1.666 1.533 10322
1.613 1.688 1.543 10943
1.620 1.696 1.540 10386
1.628 1.704 1.538 10292
1.631 1.707 1.531 7507
1.601 1.675 1.496 5432
1.603 1.678 1.489 5457
1.663 1.740 1.531 6410
1.665 1.743 1.524 7002
1.673 1.751 1.521 6336
1.680 1.759 1.518 5965
1.688 1.767 1.515 5449
1.700 1.779 1.516 5181
1.708 1.787 1.513 6376
1.715 1.795 1.510 7778
1.718 1.798 1.503 7740
1.730 1.811 1.503 8021
1.733 1.814 1.496 8235
1.736 1.817 1.489 9831
1.738 1.819 1.482 11588
1.746 1.827 1.478 12856
1.749 1.830 1.471 13550
1.747 1.828 1.460 11293
1.754 1.836 1.457 7914
1.791 1.874 1.475 7015
1.774 1.856 1.453 9014
1.776 1.859 1.446 11675
1.784 1.867 1.442 11970
1.860 1.946 1.489 9683
1.872 1.959 1.488 9430
1.880 1.967 1.484 7253
1.882 1.970 1.476 6847
1.885 1.973 1.469 7665
1.893 1.981 1.464 8137
1.895 1.984 1.456 9658
1.898 1.986 1.449 11102
1.896 1.984 1.437 11169
1.898 1.987 1.429 9406
1.955 2.046 1.459 7596
1.963 2.054 1.454 7463
1.965 2.057 1.446 6860
1.983 2.075 1.448 6866
2.000 2.094 1.450 7357
2.018 2.112 1.451 8638
2.046 2.141 1.459 8817
2.048 2.144 1.451 13687
2.046 2.141 1.439 14621
2.053 2.149 1.434 9941
2.061 2.157 1.428 7467
2.084 2.181 1.433 7003
2.086 2.184 1.424 5757
2.104 2.202 1.425 7655
2.117 2.215 1.422 12374
2.124 2.223 1.416 13381
2.127 2.226 1.408 11630
2.129 2.229 1.399 7993
2.152 2.252 1.402 6499
2.165 2.266 1.399 6973
2.183 2.284 1.399 6594
2.195 2.297 1.396 12494
2.198 2.300 1.387 16923
2.200 2.303 1.378 13782
2.213 2.316 1.374 10325
2.215 2.319 1.365 8644
2.223 2.327 1.359 7964
2.236 2.340 1.355 6312
2.320 2.428 1.391 4741
2.317 2.425 1.378 6810
2.304 2.412 1.360 7051
2.307 2.414 1.351 6270
2.314 2.422 1.344 5982
2.312 2.419 1.332 5532
2.391 2.503 1.362 6809
2.389 2.500 1.349 7198
2.396 2.508 1.342 6102
2.409 2.521 1.337 5635
2.473 2.589 1.358 5879
2.476 2.591 1.348 6515
2.514 2.632 1.356 4923
2.486 2.602 1.330 3897
2.514 2.631 1.332 6699
2.522 2.639 1.324 8264
2.519 2.636 1.311 4637
2.558 2.677 1.318 3948
2.555 2.674 1.305 3869
2.635 2.758 1.330 5837
2.638 2.761 1.319 8672
2.625 2.747 1.301 7287
2.622 2.744 1.288 4373
2.718 2.845 1.318 3648
2.731 2.858 1.311 4870
2.775 2.905 1.318 4328
2.778 2.907 1.307 5274
2.780 2.909 1.295 5083
2.788 2.917 1.286 4092
2.790 2.920 1.274 3999
2.871 3.005 1.295 5407
2.879 3.013 1.285 6304
2.939 3.076 1.296 4394
2.941 3.078 1.284 5036
3.017 3.158 1.300 5480
3.020 3.161 1.288 7663
3.027 3.168 1.277 6269
3.051 3.193 1.272 5849
3.090 3.234 1.273 8031
3.098 3.242 1.262 7349
3.111 3.256 1.253 4214
3.097 3.241 1.235 3727
3.205 3.355 1.259 5124
3.208 3.357 1.246 5447
3.205 3.354 1.231 6609
3.212 3.362 1.219 7011
3.214 3.364 1.206 3862
3.200 3.350 1.187 2167
3.208 3.357 1.175 2033
3.039 3.181 1.107 2254
3.036 3.177 1.092 2750
3.038 3.179 1.080 2791
3.451 3.612 1.194 2552
3.459 3.620 1.182 3886
3.477 3.639 1.172 3858
3.490 3.652 1.161 3369
3.492 3.654 1.146 4879
3.488 3.651 1.130 6257
3.523 3.687 1.124 4487
3.535 3.700 1.113 3902
3.618 3.786 1.120 2689
3.614 3.783 1.103 2651
3.611 3.779 1.087 2216
3.677 3.849 1.089 2320
3.679 3.851 1.073 3091
3.692 3.864 1.060 3981
3.699 3.872 1.046 4730
3.798 3.975 1.055 3711
3.892 4.073 1.061 3561
3.888 4.069 1.043 3501
3.809 3.986 1.008 3182
3.805 3.983 0.991 2966
4.039 4.228 1.027 3299
4.041 4.230 1.010 3673
4.135 4.328 1.012 3248
4.142 4.335 0.996 2311
4.323 4.524 1.015 2174
4.335 4.537 0.999 2632
4.131 4.323 0.941 2392
4.447 4.654 0.984 4079
4.454 4.662 0.966 5249
4.461 4.669 0.949 4979
4.468 4.676 0.931 3544
4.475 4.684 0.913 3969
4.477 4.685 0.894 4342
4.484 4.693 0.876 3947
4.485 4.694 0.858 2885
4.459 4.667 0.835 2390
4.662 4.879 0.847 2286
4.903 5.131 0.863 1924
4.882 5.110 0.839 2173
4.873 5.100 0.817 1735
5.266 5.512 0.850 1783
5.268 5.513 0.828 2315
5.275 5.520 0.806 2223
5.281 5.527 0.785 1862
5.697 5.962 0.812 1967
5.747 6.015 0.794 2961
5.754 6.022 0.770 3089
5.690 5.955 0.739 3057
5.691 5.956 0.715 4327
5.692 5.957 0.691 3862
5.693 5.959 0.667 3115
5.814 6.085 0.654 2219
5.810 6.081 0.629 2410
5.942 6.219 0.615 1761
5.795 6.065 0.579 1299
5.807 6.078 0.556 1016
5.808 6.079 0.531 771
6.093 6.377 0.525 685
6.094 6.378 0.499 581
5.832 6.104 0.459 425
5.827 6.099 0.435 329
0.476 0.499 0.158 269
6.611 6.919 0.391 285
0.482 0.504 0.154 320
0.476 0.499 0.152 329
0.476 0.499 0.150 384
0.482 0.504 0.149 458
0.477 0.499 0.147 495
0.477 0.499 0.145 566
0.477 0.499 0.143 619
0.477 0.499 0.141 623
0.477 0.499 0.139 629
0.477 0.499 0.137 577
0.482 0.504 0.136 507
0.477 0.499 0.134 426
0.477 0.499 0.132 313
0.459 0.480 0.086 254
0.458 0.480 0.084 297
0.458 0.480 0.082 320
0.458 0.480 0.081 282
0.458 0.479 0.079 258
1.446 1.508 1.597 4312
1.449 1.511 1.591 8625
1.452 1.514 1.585 8624
1.459 1.522 1.584 11468
1.462 1.525 1.578 14701
1.470 1.532 1.577 14521
1.477 1.540 1.575 14484
1.480 1.543 1.569 11730
1.483 1.546 1.563 8977
1.486 1.549 1.557 8977
1.489 1.552 1.551 7540
1.492 1.555 1.544 6102
1.545 1.610 1.587 6442
1.547 1.613 1.580 7817
1.555 1.621 1.578 7368
1.558 1.624 1.572 7014
1.570 1.637 1.574 7482
1.573 1.640 1.568 8247
1.576 1.643 1.561 10889
1.574 1.641 1.550 13761
1.581 1.649 1.548 13965
1.580 1.647 1.537 12697
1.578 1.645 1.527 11499
1.595 1.663 1.533 9412
1.616 1.685 1.543 10088
1.628 1.698 1.544 9645
1.631 1.701 1.538 9444
1.639 1.708 1.535 6707
1.604 1.672 1.496 4802
1.607 1.675 1.489 4900
1.666 1.737 1.531 6010
1.669 1.740 1.524 6475
1.676 1.748 1.521 5737
1.688 1.760 1.522 5546
1.696 1.768 1.519 5094
1.708 1.781 1.520 4926
1.711 1.784 1.513 6176
1.719 1.792 1.510 7510
1.717 1.790 1.499 7929
1.729 1.803 1.499 8113
1.732 1.805 1.492 8149
1.739 1.813 1.489 10123
1.747 1.821 1.486 12396
1.749 1.824 1.478 13577
1.752 1.827 1.471 14325
1.750 1.825 1.460 12118
1.748 1.822 1.449 9122
1.760 1.835 1.449 7382
1.772 1.848 1.449 9709
1.780 1.856 1.446 12514
1.788 1.864 1.442 12543
1.863 1.943 1.489 10174
1.876 1.956 1.488 10125
1.879 1.959 1.481 7938
1.886 1.967 1.476 7736
1.894 1.974 1.472 8521
1.896 1.977 1.464 8637
1.899 1.980 1.456 10743
1.902 1.983 1.449 12712
1.899 1.980 1.437 12508
1.902 1.983 1.429 10299
1.905 1.986 1.421 7590
1.977 2.061 1.461 7461
1.974 2.058 1.449 6967
1.987 2.072 1.448 6785
2.004 2.090 1.450 7496
2.012 2.098 1.445 8220
2.055 2.142 1.463 8170
2.052 2.140 1.451 13955
2.050 2.137 1.439 15236
2.058 2.145 1.434 10061
2.080 2.169 1.438 8028
2.088 2.177 1.433 8247
2.095 2.185 1.427 7028
2.108 2.198 1.425 8793
2.121 2.211 1.422 12715
2.128 2.219 1.416 13638
2.131 2.222 1.408 12416
2.139 2.230 1.402 8872
2.156 2.248 1.402 6591
2.169 2.262 1.399 7035
2.187 2.280 1.399 7327
2.200 2.293 1.396 13484
2.202 2.296 1.387 16803
2.210 2.304 1.380 13553
2.222 2.317 1.377 10975
2.225 2.320 1.368 8807
2.232 2.328 1.362 8015
2.240 2.336 1.355 6685
2.330 2.429 1.393 4682
2.317 2.415 1.375 6663
2.309 2.407 1.360 6717
2.306 2.405 1.348 6236
2.319 2.418 1.344 5659
2.316 2.415 1.332 4911
2.396 2.498 1.362 6932
2.398 2.501 1.352 7875
2.406 2.509 1.345 6369
2.414 2.517 1.337 5556
2.483 2.589 1.361 6221
2.491 2.597 1.353 6590
2.519 2.627 1.356 5092
2.522 2.629 1.345 3909
2.519 2.627 1.332 6321
2.527 2.634 1.324 7621
2.586 2.697 1.341 4776
2.573 2.683 1.323 4738
2.565 2.675 1.307 3475
2.635 2.748 1.328 5171
2.643 2.756 1.319 7546
2.630 2.742 1.301 6429
2.648 2.761 1.297 3973
2.724 2.840 1.318 4086
2.731 2.848 1.309 4997
2.781 2.899 1.318 4842
2.783 2.902 1.307 5685
2.785 2.904 1.295 4859
2.793 2.912 1.286 3663
2.795 2.915 1.274 3604
2.877 2.999 1.295 5415
2.884 3.007 1.285 5944
2.945 3.070 1.296 4897
2.947 3.073 1.284 5468
3.023 3.152 1.300 5178
3.026 3.155 1.288 6965
3.028 3.157 1.275 5652
3.062 3.193 1.274 5329
3.091 3.223 1.271 7591
3.099 3.231 1.260 6589
3.122 3.255 1.255 3918
3.103 3.235 1.235 4172
3.212 3.349 1.259 4186
3.219 3.357 1.248 4317
3.211 3.348 1.231 5945
3.213 3.350 1.217 6015
3.215 3.352 1.204 3358
3.207 3.343 1.187 2383
3.209 3.346 1.174 2021
3.040 3.169 1.105 1953
3.042 3.171 1.092 2532
3.044 3.173 1.080 2506
3.458 3.606 1.194 2994
3.460 3.608 1.180 4366
3.457 3.604 1.164 3713
3.497 3.646 1.161 3171
3.499 3.648 1.146 4585
3.495 3.644 1.130 5822
3.530 3.680 1.124 4152
3.537 3.688 1.111 3761
3.620 3.774 1.118 3181
3.622 3.776 1.103 3585
3.618 3.772 1.087 2554
3.755 3.915 1.107 2816
3.687 3.844 1.073 2690
3.705 3.863 1.062 3959
3.804 3.966 1.070 5418
3.806 3.968 1.055 4434
3.905 4.071 1.062 4097
3.901 4.068 1.044 3809
4.028 4.199 1.057 2917
4.013 4.184 1.036 3046
4.042 4.214 1.025 3431
4.141 4.318 1.030 3598
4.143 4.320 1.012 3695
4.150 4.327 0.996 2533
4.331 4.516 1.015 2316
4.344 4.529 0.999 2744
4.139 4.316 0.941 2794
4.456 4.646 0.984 3441
4.463 4.653 0.966 4480
4.470 4.661 0.949 4025
4.482 4.674 0.932 2904
4.484 4.675 0.913 3398
4.486 4.677 0.894 3677
4.498 4.690 0.877 3348
4.494 4.686 0.858 2459
4.659 4.857 0.864 2167
4.671 4.870 0.847 2391
4.809 5.014 0.847 1919
4.887 5.095 0.838 2451
4.883 5.091 0.817 2022
5.277 5.502 0.850 1839
5.278 5.503 0.828 2335
5.285 5.510 0.806 2227
5.707 5.950 0.836 1805
5.708 5.951 0.812 2023
5.759 6.004 0.794 2639
5.760 6.006 0.770 2725
5.701 5.944 0.739 3159
5.702 5.945 0.715 4313
5.703 5.947 0.691 3825
5.705 5.948 0.667 3144
5.952 6.205 0.665 2542
5.827 6.075 0.630 2689
5.822 6.071 0.605 2023
5.823 6.072 0.580 1589
5.824 6.072 0.556 1297
5.820 6.068 0.531 904
6.100 6.360 0.525 657
5.826 6.075 0.483 551
5.838 6.087 0.459 402
5.839 6.088 0.435 299
6.624 6.906 0.391 270
0.477 0.498 0.154 287
0.477 0.498 0.152 301
0.483 0.504 0.151 373
0.477 0.498 0.149 442
0.477 0.498 0.147 435
0.477 0.498 0.145 472
0.478 0.498 0.143 516
0.478 0.498 0.141 523
0.483 0.504 0.139 574
0.483 0.504 0.137 558
0.483 0.504 0.136 521
0.483 0.504 0.134 489
0.477 0.498 0.132 402
0.472 0.492 0.130 283
1.450 1.495 1.593 4513
1.453 1.498 1.587 9026
1.456 1.502 1.581 8881
1.468 1.514 1.584 11269
1.475 1.522 1.583 14140
1.478 1.525 1.577 14029
1.485 1.532 1.575 14045
1.488 1.535 1.569 11912
1.496 1.543 1.567 9964
1.499 1.546 1.561 9964
1.502 1.549 1.555 8062
1.504 1.552 1.549 6160
1.549 1.597 1.582 6219
1.561 1.610 1.585 7000
1.564 1.613 1.578 6930
1.567 1.616 1.572 6859
1.579 1.628 1.574 7452
1.586 1.636 1.572 8238
1.585 1.634 1.561 10348
1.587 1.637 1.555 12668
1.590 1.640 1.548 12951
1.593 1.643 1.542 11397
1.587 1.637 1.527 9957
1.608 1.659 1.537 8332
1.630 1.681 1.547 8960
1.637 1.689 1.544 8548
1.645 1.697 1.542 8265
1.648 1.700 1.535 5744
1.613 1.664 1.496 4017
1.616 1.666 1.489 4242
1.670 1.723 1.527 5552
1.673 1.726 1.520 5820
1.686 1.739 1.521 4894
1.703 1.756 1.526 4926
1.710 1.764 1.523 4687
1.718 1.772 1.520 4609
1.721 1.775 1.513 5881
1.723 1.778 1.506 7152
1.726 1.781 1.499 8161
1.724 1.778 1.488 8456
1.741 1.796 1.492 7953
1.749 1.804 1.489 10181
1.756 1.812 1.486 13040
1.759 1.815 1.478 14098
1.762 1.817 1.471 15136
1.760 1.815 1.460 13171
1.758 1.813 1.449 11174
1.760 1.816 1.442 10359
1.778 1.833 1.446 11053
1.790 1.846 1.446 12850
1.793 1.849 1.438 12602
1.874 1.933 1.489 10550
1.881 1.941 1.485 10701
1.889 1.948 1.481 8593
1.897 1.956 1.476 8491
1.909 1.969 1.476 9361
1.912 1.972 1.468 9346
1.910 1.970 1.456 11882
1.912 1.973 1.449 14473
1.910 1.970 1.437 14032
1.913 1.973 1.429 11309
1.915 1.976 1.421 7784
1.993 2.055 1.464 8000
1.995 2.058 1.456 7464
1.993 2.056 1.445 6975
2.016 2.079 1.450 7390
2.018 2.082 1.441 7677
2.016 2.079 1.430 7717
2.064 2.129 1.451 13678
2.061 2.126 1.439 15225
2.069 2.134 1.434 9829
2.092 2.158 1.438 8055
2.094 2.160 1.429 8575
2.107 2.174 1.427 7585
2.125 2.192 1.428 9375
2.133 2.200 1.422 12523
2.135 2.202 1.413 13464
2.143 2.210 1.408 13018
2.151 2.218 1.402 9995
2.168 2.237 1.402 6883
2.186 2.255 1.402 7202
2.199 2.268 1.399 7951
2.212 2.281 1.396 13824
2.214 2.284 1.387 15907
2.227 2.297 1.383 13005
2.240 2.310 1.380 11677
2.242 2.313 1.371 8975
2.245 2.316 1.362 8144
2.253 2.323 1.355 7106
2.291 2.363 1.365 4893
2.325 2.398 1.373 6693
2.317 2.390 1.358 6747
2.314 2.387 1.345 6604
2.327 2.400 1.341 5701
2.391 2.467 1.364 4787
2.409 2.485 1.362 7156
2.417 2.493 1.355 8640
2.430 2.506 1.350 6987
2.427 2.504 1.337 5718
2.497 2.576 1.361 6612
2.505 2.584 1.353 6208
2.534 2.613 1.356 4935
2.531 2.610 1.343 4259
2.538 2.618 1.335 5782
2.541 2.621 1.324 6449
2.596 2.677 1.338 5457
2.593 2.674 1.325 5097
2.621 2.704 1.326 3617
2.634 2.717 1.320 4692
2.632 2.714 1.307 6054
2.644 2.728 1.301 5521
2.668 2.752 1.299 3917
2.739 2.825 1.318 4404
2.757 2.844 1.314 4617
2.796 2.884 1.318 5099
2.799 2.887 1.307 5813
2.801 2.889 1.295 4423
2.809 2.897 1.286 3299
2.912 3.003 1.315 3506
2.898 2.989 1.297 5206
2.906 2.997 1.287 5505
2.961 3.054 1.296 5073
2.964 3.057 1.284 5635
3.040 3.136 1.300 4621
3.037 3.133 1.285 6111
3.040 3.135 1.273 4998
3.085 3.182 1.276 4929
3.103 3.201 1.269 7357
3.111 3.209 1.258 6515
3.134 3.233 1.253 4064
3.126 3.224 1.236 4298
3.224 3.326 1.257 3456
3.189 3.290 1.231 3427
3.229 3.331 1.231 5283
3.226 3.327 1.215 5106
3.217 3.318 1.198 3112
3.219 3.321 1.185 2647
3.221 3.323 1.172 2118
3.218 3.319 1.157 1822
3.064 3.161 1.094 2148
3.061 3.157 1.080 2082
3.472 3.581 1.193 3254
3.474 3.584 1.178 4644
3.466 3.575 1.161 3952
3.522 3.632 1.162 2964
3.524 3.635 1.148 4148
3.515 3.626 1.130 5149
3.555 3.667 1.126 4113
3.562 3.674 1.113 3667
3.640 3.754 1.118 3563
3.647 3.762 1.105 4413
3.644 3.759 1.088 2985
3.776 3.895 1.107 3714
3.778 3.897 1.091 3032
3.812 3.932 1.084 4061
3.820 3.940 1.069 6074
3.827 3.947 1.055 5040
3.927 4.050 1.062 4504
3.923 4.047 1.044 4000
4.050 4.178 1.057 3190
4.036 4.163 1.036 3534
4.065 4.193 1.025 3630
4.164 4.296 1.030 3972
4.172 4.303 1.013 3954
4.173 4.305 0.996 2669
4.355 4.492 1.015 2356
4.373 4.511 1.000 2852
4.162 4.293 0.941 3125
4.481 4.622 0.984 2788
4.488 4.629 0.966 3592
4.495 4.636 0.949 2951
4.409 4.548 0.914 2784
4.509 4.651 0.913 2802
4.516 4.658 0.895 2996
4.523 4.666 0.877 2722
4.919 5.074 0.922 2213
4.674 4.821 0.863 2240
4.697 4.845 0.847 2410
4.836 4.988 0.847 2201
4.914 5.069 0.838 2785
4.910 5.064 0.817 2301
5.306 5.473 0.850 1841
5.313 5.480 0.828 2300
5.315 5.482 0.806 2194
5.739 5.919 0.836 1789
5.740 5.921 0.812 1958
5.791 5.973 0.794 2244
5.732 5.912 0.763 2289
5.733 5.913 0.739 3212
5.734 5.915 0.715 4241
5.735 5.916 0.691 3722
5.736 5.917 0.667 3098
5.985 6.173 0.665 2792
5.859 6.044 0.630 2864
5.855 6.039 0.605 2277
5.856 6.040 0.580 1972
5.857 6.041 0.556 1604
5.852 6.036 0.531 1019
5.853 6.037 0.507 656
5.854 6.038 0.483 570
5.865 6.050 0.459 388
5.866 6.051 0.434 275
6.661 6.870 0.391 257
0.486 0.501 0.151 309
0.480 0.495 0.149 390
0.480 0.495 0.147 425
0.480 0.495 0.145 460
0.480 0.495 0.143 478
0.486 0.501 0.141 474
0.486 0.501 0.139 498
0.486 0.501 0.137 470
0.486 0.501 0.136 428
0.486 0.501 0.134 421
0.486 0.501 0.132 375
0.475 0.490 0.130 301
0.462 0.476 0.082 260
0.462 0.476 0.081 272
0.462 0.476 0.079 251
1.454 1.492 1.593 4697
1.457 1.495 1.587 9394
1.460 1.498 1.581 9033
1.472 1.510 1.584 11005
1.479 1.518 1.583 13595
1.482 1.521 1.577 13475
1.489 1.528 1.575 13477
1.492 1.531 1.569 11945
1.500 1.539 1.567 10769
1.503 1.542 1.561 10769
1.506 1.545 1.555 8732
1.541 1.581 1.580 6980
1.548 1.589 1.578 6229
1.570 1.611 1.589 6361
1.572 1.614 1.583 6562
1.575 1.617 1.576 6762
1.583 1.624 1.574 7373
1.591 1.632 1.572 8208
1.589 1.630 1.561 9663
1.592 1.633 1.555 11400
1.595 1.636 1.548 11695
1.597 1.639 1.542 10108
1.596 1.637 1.531 8418
1.613 1.655 1.537 7269
1.639 1.682 1.551 7920
1.646 1.689 1.548 7442
1.649 1.692 1.542 6992
1.657 1.700 1.539 4839
1.612 1.654 1.492 3302
1.667 1.711 1.530 3874
1.675 1.719 1.527 5265
1.678 1.722 1.520 5361
1.685 1.729 1.517 4099
1.712 1.757 1.530 4363
1.720 1.765 1.527 4309
1.722 1.767 1.520 4291
1.725 1.770 1.513 5599
1.728 1.773 1.506 6907
1.731 1.776 1.499 8343
1.729 1.774 1.488 8667
1.741 1.787 1.488 7593
1.754 1.799 1.489 10063
1.761 1.807 1.486 13355
1.764 1.810 1.478 14396
1.767 1.813 1.471 15715
1.764 1.811 1.460 13944
1.762 1.808 1.449 12634
1.765 1.811 1.442 12598
1.777 1.824 1.442 12472
1.790 1.837 1.442 12680
1.797 1.844 1.438 12314
1.879 1.928 1.489 10738
1.886 1.936 1.485 11246
1.894 1.944 1.481 9180
1.902 1.951 1.476 9107
1.914 1.964 1.476 10287
1.917 1.967 1.468 10157
1.915 1.965 1.456 12970
1.917 1.968 1.449 15947
1.915 1.965 1.437 15293
1.918 1.968 1.429 12097
1.920 1.971 1.421 7747
2.003 2.055 1.468 8467
2.001 2.053 1.456 7979
1.993 2.045 1.441 7258
2.021 2.074 1.450 7198
2.019 2.071 1.438 7305
2.016 2.069 1.426 8067
2.069 2.123 1.451 12956
2.067 2.121 1.439 14612
2.075 2.129 1.434 9288
2.092 2.147 1.435 7453
2.100 2.155 1.429 8074
2.113 2.168 1.427 7434
2.131 2.186 1.428 9355
2.138 2.194 1.422 11945
2.141 2.197 1.413 13067
2.149 2.205 1.408 13374
2.156 2.213 1.402 11032
2.169 2.226 1.399 7269
2.197 2.255 1.405 7305
2.205 2.263 1.399 8190
2.213 2.270 1.393 13421
2.220 2.278 1.387 14456
2.233 2.291 1.383 12395
2.246 2.305 1.380 12197
2.248 2.307 1.371 8995
2.251 2.310 1.362 8083
2.259 2.318 1.355 7372
2.297 2.357 1.365 5635
2.320 2.381 1.367 7125
2.323 2.384 1.358 7475
2.320 2.381 1.345 7130
2.333 2.394 1.341 5759
2.393 2.455 1.361 5412
2.411 2.474 1.359 7325
2.429 2.492 1.357 9230
2.447 2.511 1.355 7880
2.496 2.561 1.369 5916
2.504 2.569 1.361 6791
2.512 2.577 1.353 5500
2.540 2.607 1.356 4780
2.538 2.604 1.343 4776
2.545 2.612 1.335 5307
2.548 2.614 1.324 5073
2.603 2.671 1.338 5389
2.605 2.673 1.328 5111
2.629 2.697 1.326 4295
2.631 2.700 1.316 4396
2.633 2.702 1.305 4969
2.652 2.721 1.301 4524
2.728 2.799 1.323 4372
2.746 2.818 1.318 4567
2.807 2.880 1.332 4198
2.804 2.877 1.318 5112
2.806 2.879 1.307 5641
2.809 2.882 1.295 3937
2.816 2.890 1.286 3031
2.919 2.996 1.315 3360
2.911 2.987 1.299 4768
2.919 2.995 1.289 5346
2.975 3.052 1.298 5164
2.977 3.055 1.286 5854
3.049 3.128 1.300 3984
3.046 3.125 1.285 5461
3.043 3.122 1.271 4652
3.098 3.179 1.278 4695
3.106 3.187 1.267 7323
3.119 3.200 1.258 6862
3.143 3.225 1.253 5110
3.145 3.227 1.240 4555
3.212 3.295 1.250 3800
3.203 3.287 1.233 4334
3.227 3.311 1.227 4572
3.229 3.313 1.214 4514
3.220 3.305 1.197 3127
3.228 3.312 1.185 2709
3.225 3.309 1.170 2178
3.227 3.311 1.157 1912
3.072 3.153 1.094 1771
3.458 3.548 1.200 1758
3.476 3.567 1.191 3386
3.478 3.569 1.177 4688
3.469 3.560 1.159 4161
3.471 3.562 1.145 3572
3.533 3.625 1.148 3594
3.530 3.622 1.131 4289
3.575 3.668 1.129 4567
3.583 3.676 1.116 4109
3.650 3.745 1.118 3688
3.657 3.753 1.105 4929
3.659 3.755 1.090 3456
3.786 3.885 1.107 4485
3.793 3.892 1.093 4008
3.823 3.922 1.084 4600
3.830 3.930 1.069 6617
3.837 3.937 1.055 5642
3.943 4.046 1.063 4932
3.934 4.036 1.044 4191
4.055 4.161 1.055 3243
4.046 4.152 1.036 3770
4.076 4.182 1.025 3783
4.176 4.285 1.030 4020
4.183 4.292 1.013 3943
4.185 4.294 0.996 2685
4.214 4.324 0.984 2363
4.385 4.500 1.000 3007
4.173 4.282 0.941 3385
4.334 4.447 0.954 2405
4.494 4.612 0.965 2788
4.408 4.523 0.931 2842
4.421 4.536 0.914 3062
4.527 4.645 0.914 2215
4.534 4.652 0.896 2340
4.936 5.065 0.943 2117
4.932 5.061 0.922 2411
4.686 4.809 0.863 2272
4.842 4.968 0.867 2499
4.849 4.975 0.847 2552
4.927 5.056 0.838 3036
4.901 5.029 0.814 2557
4.897 5.025 0.793 2027
5.327 5.467 0.828 2168
5.329 5.468 0.806 2061
5.760 5.910 0.837 1692
5.755 5.906 0.812 1796
5.751 5.902 0.787 1974
5.747 5.897 0.763 2306
5.754 5.904 0.740 3213
5.750 5.900 0.715 4123
5.751 5.901 0.691 3512
6.005 6.162 0.691 3112
6.001 6.158 0.665 2974
5.875 6.029 0.630 2886
5.871 6.024 0.605 2460
5.877 6.031 0.581 2317
5.878 6.031 0.556 1891
5.873 6.027 0.532 1110
5.869 6.022 0.507 658
5.869 6.023 0.483 565
5.875 6.029 0.458 368
5.882 6.035 0.434 260
6.679 6.853 0.391 255
0.487 0.500 0.154 309
0.487 0.500 0.152 364
0.481 0.494 0.150 426
0.481 0.494 0.149 488
0.487 0.500 0.147 526
0.481 0.494 0.145 568
0.481 0.494 0.143 561
0.487 0.500 0.141 524
0.481 0.494 0.139 542
0.481 0.494 0.137 515
0.487 0.500 0.136 429
0.487 0.500 0.134 344
1.453 1.484 1.588 4957
1.456 1.487 1.582 9914
1.463 1.494 1.581 9178
1.475 1.507 1.584 10726
1.483 1.514 1.583 13004
1.485 1.517 1.577 12798
1.493 1.525 1.575 12744
1.496 1.528 1.569 11804
1.503 1.536 1.567 11332
1.506 1.538 1.561 11332
1.514 1.546 1.559 9339
1.540 1.573 1.575 8026
1.547 1.580 1.573 6542
1.578 1.612 1.593 5779
1.576 1.610 1.583 6147
1.579 1.613 1.576 6596
1.587 1.621 1.574 7240
1.594 1.628 1.572 8118
1.597 1.631 1.565 8945
1.600 1.634 1.559 10120
1.603 1.637 1.552 10469
1.601 1.635 1.542 8753
1.604 1.638 1.535 7053
1.616 1.651 1.537 6245
1.647 1.683 1.555 6943
1.650 1.686 1.548 6329
1.658 1.693 1.546 5779
1.661 1.696 1.539 4143
1.626 1.660 1.500 2957
1.667 1.702 1.526 3868
1.674 1.710 1.523 5182
1.677 1.713 1.516 5143
