2.107 4.952 1.163 2357
2.108 4.955 1.148 2934
2.149 5.051 1.151 2694
2.156 5.068 1.138 2285
2.169 5.099 1.128 2578
2.170 5.102 1.112 2391
2.196 5.162 1.107 3062
2.203 5.179 1.093 3002
2.186 5.138 1.069 3145
2.190 5.148 1.054 2899
2.295 5.395 1.081 2756
2.305 5.419 1.068 2746
2.306 5.421 1.051 2667
2.304 5.417 1.033 3269
2.308 5.426 1.017 2848
2.315 5.443 1.002 1673
2.418 5.683 1.022 1814
2.520 5.924 1.041 2227
2.521 5.926 1.022 2404
2.463 5.791 0.983 2763
2.464 5.793 0.965 3186
2.521 5.926 0.965 2474
2.522 5.928 0.947 2487
2.522 5.930 0.928 2340
2.511 5.903 0.905 1766
0.259 0.609 0.210 1480
2.774 6.522 0.945 2804
2.775 6.525 0.924 4184
2.776 6.527 0.904 4546
2.780 6.536 0.884 3680
2.787 6.552 0.865 2815
2.785 6.547 0.844 3901
2.783 6.542 0.822 4386
2.780 6.536 0.801 4169
2.781 6.538 0.780 2965
2.905 6.830 0.788 1965
2.915 6.853 0.768 1812
3.040 7.146 0.772 2078
3.043 7.154 0.751 2450
3.044 7.156 0.728 2633
3.051 7.172 0.707 1967
3.311 7.784 0.731 1636
3.309 7.778 0.706 1940
3.418 8.034 0.699 2351
3.415 8.028 0.673 2276
3.589 8.437 0.674 3266
3.586 8.431 0.647 2869
3.336 7.843 0.586 2106
3.588 8.434 0.594 2253
3.591 8.442 0.567 1933
3.601 8.465 0.542 1518
3.598 8.459 0.515 1327
3.596 8.453 0.488 840
3.676 8.643 0.468 644
3.677 8.644 0.441 554
3.600 8.463 0.408 483
3.600 8.463 0.381 381
3.600 8.464 0.355 258
3.108 7.306 -0.390 252
3.079 7.239 -0.408 311
3.082 7.245 -0.431 309
3.081 7.243 -0.454 298
3.077 7.235 -0.476 291
3.074 7.226 -0.498 270
3.107 7.304 -0.528 290
3.109 7.309 -0.552 250
0.781 1.827 1.523 4173
0.782 1.830 1.518 8346
0.784 1.834 1.512 6836
0.816 1.909 1.561 7958
0.820 1.919 1.560 9257
0.822 1.923 1.554 9002
0.826 1.932 1.552 8832
0.828 1.936 1.546 7344
0.842 1.970 1.563 6603
0.844 1.974 1.557 6603
0.845 1.978 1.551 8209
0.849 1.987 1.549 9954
0.856 2.003 1.552 11543
0.863 2.019 1.554 13977
0.867 2.029 1.552 11228
0.872 2.039 1.550 8650
0.878 2.055 1.552 7748
0.883 2.065 1.550 7758
0.887 2.075 1.548 8685
0.891 2.085 1.546 9998
0.895 2.095 1.544 9548
0.900 2.105 1.542 9411
0.901 2.108 1.535 9512
0.903 2.112 1.529 11003
0.904 2.116 1.522 12494
0.906 2.120 1.515 11364
0.908 2.123 1.509 10398
0.906 2.121 1.498 9098
0.908 2.124 1.492 8239
0.963 2.253 1.566 12168
0.965 2.257 1.559 17025
0.969 2.267 1.556 18260
0.968 2.264 1.545 14834
0.967 2.262 1.534 11053
0.968 2.266 1.527 8038
0.981 2.295 1.536 5937
0.966 2.260 1.505 5167
0.962 2.251 1.490 5864
0.967 2.261 1.487 5741
0.984 2.303 1.503 5959
0.989 2.313 1.500 6962
1.009 2.361 1.519 8827
1.016 2.378 1.520 11105
1.018 2.382 1.512 9888
1.019 2.385 1.505 8671
1.021 2.389 1.497 6395
1.047 2.450 1.523 4467
1.046 2.448 1.512 5461
1.045 2.445 1.501 6202
1.044 2.442 1.490 7895
1.048 2.452 1.486 8629
1.052 2.462 1.482 8644
1.054 2.466 1.474 11302
1.055 2.469 1.466 13792
1.054 2.466 1.455 12821
1.050 2.457 1.440 8876
1.082 2.532 1.471 5625
1.098 2.569 1.481 6683
1.119 2.618 1.497 9400
1.120 2.622 1.489 12816
1.122 2.625 1.481 12584
1.126 2.635 1.476 10023
1.128 2.639 1.468 7648
1.149 2.689 1.483 8525
1.154 2.699 1.478 11003
1.155 2.702 1.470 11978
1.157 2.706 1.461 11811
1.155 2.703 1.449 9076
1.162 2.720 1.447 5369
1.198 2.803 1.478 5920
1.185 2.773 1.453 6928
1.190 2.783 1.448 7517
1.208 2.827 1.458 8375
1.218 2.850 1.459 10278
1.226 2.867 1.456 11502
1.227 2.871 1.447 15210
1.231 2.881 1.441 18410
1.233 2.885 1.432 16475
1.234 2.888 1.423 11328
1.236 2.891 1.414 5724
1.252 2.929 1.420 3859
1.262 2.952 1.420 5102
1.278 2.989 1.425 5708
1.282 3.000 1.419 5994
1.292 3.023 1.418 5878
1.299 3.040 1.415 6354
1.315 3.078 1.420 5746
1.317 3.081 1.410 5508
1.333 3.118 1.414 5621
1.334 3.122 1.405 6613
1.336 3.125 1.395 6079
1.337 3.129 1.385 6316
1.350 3.159 1.386 8650
1.355 3.169 1.379 11287
1.362 3.186 1.375 7827
1.369 3.203 1.370 4154
1.412 3.303 1.397 6095
1.413 3.306 1.387 11962
1.412 3.303 1.374 11388
1.410 3.299 1.361 10172
1.411 3.302 1.351 11214
1.422 3.326 1.348 11242
1.423 3.329 1.338 10523
1.451 3.395 1.350 9902
1.461 3.419 1.347 12878
1.466 3.429 1.338 11863
1.467 3.432 1.328 9609
1.477 3.456 1.324 9280
1.493 3.494 1.325 10193
1.495 3.497 1.314 7416
1.520 3.556 1.322 7351
1.527 3.573 1.316 9029
1.534 3.590 1.309 11975
1.539 3.600 1.300 12592
1.537 3.596 1.287 12970
1.538 3.599 1.275 11857
1.540 3.602 1.264 8810
1.541 3.605 1.253 7689
1.587 3.713 1.274 6392
1.603 3.751 1.273 4664
1.617 3.783 1.270 4975
1.621 3.793 1.260 11452
1.622 3.796 1.248 16372
1.627 3.806 1.238 11943
1.631 3.816 1.228 7513
1.674 3.917 1.245 6808
1.681 3.934 1.236 5847
1.686 3.944 1.226 6173
1.687 3.947 1.214 6658
1.688 3.950 1.201 6948
1.692 3.960 1.191 7329
1.700 3.977 1.182 5624
1.716 4.015 1.179 4087
1.708 3.996 1.161 4841
1.706 3.992 1.147 4507
1.704 3.988 1.132 2458
1.751 4.097 1.146 1284
1.749 4.092 1.132 1583
1.747 4.088 1.117 1736
1.724 4.034 1.091 1445
1.996 4.669 1.227 1332
2.009 4.701 1.219 1959
2.007 4.696 1.203 2591
2.005 4.692 1.186 2088
2.059 4.816 1.199 2181
2.060 4.819 1.184 2865
2.058 4.815 1.167 2916
2.059 4.817 1.152 2102
2.115 4.949 1.163 1922
2.113 4.944 1.146 2200
2.157 5.047 1.151 2426
2.165 5.064 1.138 2194
2.178 5.096 1.128 2926
2.179 5.098 1.112 2816
2.195 5.137 1.103 2949
2.194 5.132 1.085 2568
2.195 5.135 1.069 2723
2.199 5.144 1.054 2499
2.304 5.391 1.081 2763
2.302 5.386 1.063 2690
2.316 5.417 1.051 2263
2.313 5.413 1.033 3016
2.318 5.422 1.017 2991
2.322 5.432 1.001 1811
2.430 5.686 1.023 1710
2.530 5.919 1.041 2087
2.528 5.914 1.021 2193
2.477 5.794 0.984 2508
2.474 5.789 0.965 2837
2.528 5.914 0.964 2485
2.529 5.916 0.946 2630
2.527 5.911 0.926 2420
2.518 5.892 0.905 1869
0.260 0.609 0.210 1470
2.786 6.518 0.945 3146
2.787 6.520 0.924 4394
2.788 6.522 0.904 4673
2.788 6.524 0.883 3775
2.795 6.540 0.864 3146
2.796 6.542 0.844 4683
2.794 6.537 0.822 5161
2.792 6.531 0.801 4787
2.792 6.533 0.780 3302
2.920 6.832 0.788 1863
2.927 6.848 0.768 1965
3.052 7.140 0.772 2075
3.053 7.142 0.750 2424
3.056 7.151 0.728 2579
3.057 7.152 0.705 1892
3.325 7.778 0.731 1770
3.322 7.773 0.706 2306
3.317 7.760 0.680 2710
3.320 7.768 0.656 2287
3.604 8.431 0.674 2897
3.601 8.425 0.647 2518
3.350 7.838 0.586 2312
3.602 8.428 0.594 1871
3.609 8.443 0.568 1627
3.616 8.459 0.542 1315
3.613 8.453 0.515 1144
3.610 8.447 0.488 718
3.514 8.222 0.452 456
3.614 8.456 0.435 481
3.614 8.456 0.408 429
3.615 8.457 0.381 331
3.092 7.234 -0.408 293
3.091 7.232 -0.430 292
3.091 7.231 -0.453 281
3.087 7.222 -0.475 273
3.119 7.298 -0.528 267
0.784 1.825 1.523 3844
0.786 1.829 1.518 7688
0.787 1.832 1.512 6254
0.820 1.907 1.561 8785
0.824 1.917 1.560 10216
0.826 1.921 1.554 9750
0.830 1.931 1.552 9489
0.834 1.941 1.551 8256
0.843 1.962 1.558 7739
0.845 1.966 1.552 7739
0.849 1.976 1.551 9003
0.851 1.980 1.544 10372
0.858 1.996 1.547 11755
0.864 2.012 1.550 13783
0.871 2.027 1.552 10414
0.876 2.037 1.550 7394
0.882 2.053 1.552 6953
0.887 2.063 1.550 7037
0.888 2.067 1.544 8140
0.893 2.077 1.542 9307
0.899 2.093 1.544 8597
0.904 2.103 1.542 8486
0.905 2.107 1.535 8605
0.907 2.110 1.529 10457
0.908 2.114 1.522 12310
0.910 2.118 1.515 11286
0.912 2.121 1.509 10448
0.911 2.119 1.498 9208
0.912 2.123 1.492 8452
0.970 2.257 1.570 13603
0.972 2.261 1.563 18786
0.973 2.265 1.556 19941
0.975 2.269 1.549 16180
0.971 2.260 1.534 11907
0.976 2.270 1.531 8964
0.983 2.286 1.532 6856
0.973 2.265 1.509 5431
0.972 2.262 1.498 5361
0.974 2.266 1.491 5349
0.989 2.301 1.503 6428
0.990 2.305 1.496 7151
1.017 2.366 1.523 8462
1.021 2.376 1.520 11359
1.023 2.380 1.512 10299
1.027 2.390 1.509 9260
1.026 2.387 1.497 6789
1.038 2.416 1.505 4738
1.045 2.433 1.505 5573
1.044 2.430 1.494 6842
1.046 2.434 1.486 8748
1.047 2.437 1.478 9319
1.054 2.454 1.478 8992
1.056 2.457 1.470 11466
1.060 2.467 1.466 13984
1.059 2.464 1.455 12829
1.055 2.455 1.440 8981
1.054 2.452 1.429 5698
1.106 2.573 1.484 6231
1.124 2.616 1.497 9073
1.126 2.619 1.489 12279
1.130 2.630 1.484 12429
1.132 2.633 1.476 10399
1.133 2.637 1.468 8345
1.154 2.686 1.483 8482
1.156 2.690 1.475 10614
1.158 2.694 1.466 11771
1.159 2.697 1.458 11827
1.161 2.701 1.449 9687
1.165 2.711 1.444 6060
1.204 2.801 1.478 5674
1.191 2.771 1.453 7014
1.195 2.781 1.448 7728
1.214 2.825 1.458 7857
1.224 2.848 1.459 9198
1.228 2.858 1.453 9952
1.233 2.868 1.447 14154
1.237 2.879 1.441 17374
1.239 2.882 1.432 15754
1.237 2.879 1.420 11334
1.239 2.882 1.411 6109
1.246 2.899 1.408 3151
1.268 2.950 1.420 3784
1.287 2.994 1.428 5466
1.291 3.004 1.422 6183
1.304 3.034 1.424 6857
1.308 3.045 1.418 7099
1.321 3.075 1.420 5969
1.311 3.051 1.399 5196
1.327 3.089 1.403 5404
1.338 3.112 1.402 6771
1.342 3.123 1.395 5334
1.343 3.126 1.385 4684
1.359 3.163 1.389 7509
1.361 3.167 1.379 9951
1.374 3.197 1.380 7119
1.393 3.242 1.386 4477
1.412 3.286 1.392 6198
1.417 3.297 1.384 11116
1.418 3.300 1.374 10600
1.417 3.296 1.361 9788
1.418 3.300 1.351 11071
1.428 3.323 1.348 10455
1.433 3.334 1.340 9523
1.461 3.399 1.352 10828
1.465 3.409 1.344 13794
1.469 3.419 1.336 12427
1.474 3.429 1.328 9807
1.481 3.446 1.322 8751
1.503 3.498 1.328 9538
1.502 3.494 1.314 7166
1.527 3.553 1.322 6098
1.534 3.570 1.316 8263
1.542 3.587 1.309 11303
1.543 3.590 1.298 11608
1.544 3.593 1.287 12562
1.545 3.596 1.275 12331
1.547 3.599 1.264 9675
1.548 3.602 1.253 8418
1.597 3.717 1.276 6090
1.608 3.741 1.271 5324
1.618 3.765 1.266 4757
1.628 3.789 1.260 10077
1.630 3.792 1.248 15133
1.634 3.802 1.238 11510
1.638 3.812 1.228 7451
1.682 3.914 1.245 5355
1.689 3.931 1.236 5652
1.693 3.941 1.226 6345
1.695 3.944 1.214 7442
1.696 3.946 1.201 7867
1.697 3.949 1.189 6671
1.704 3.966 1.180 4515
1.715 3.990 1.173 2775
1.716 3.993 1.161 4512
1.714 3.989 1.147 4538
1.712 3.984 1.132 2110
1.756 4.086 1.144 1415
1.757 4.089 1.132 1621
1.755 4.084 1.117 1716
1.729 4.023 1.089 1452
2.008 4.672 1.229 1449
2.021 4.704 1.221 2080
2.020 4.700 1.204 2505
2.021 4.702 1.190 2077
1.829 4.256 1.075 1615
2.069 4.815 1.184 2411
2.067 4.811 1.167 2244
2.124 4.942 1.179 1444
2.122 4.937 1.162 1427
2.172 5.054 1.170 1529
2.167 5.043 1.151 2125
2.165 5.038 1.134 2152
2.185 5.084 1.126 2831
2.189 5.094 1.112 2951
2.202 5.125 1.101 2940
2.200 5.121 1.084 2317
2.189 5.094 1.062 2163
2.209 5.140 1.054 1908
2.312 5.379 1.080 2680
2.310 5.375 1.062 2572
2.311 5.377 1.045 1955
2.324 5.408 1.033 2807
2.328 5.418 1.017 3178
2.329 5.420 1.000 2036
2.386 5.552 1.003 1866
2.539 5.907 1.040 1869
2.536 5.902 1.020 1933
2.488 5.789 0.984 2096
2.532 5.892 0.981 2332
2.539 5.909 0.964 2433
2.537 5.904 0.945 2594
2.535 5.899 0.925 2436
2.530 5.887 0.905 1950
2.798 6.510 0.965 1723
2.799 6.512 0.945 3398
2.799 6.514 0.924 4442
2.800 6.516 0.904 4620
2.801 6.518 0.883 3762
2.808 6.535 0.864 3434
2.809 6.537 0.844 5277
2.810 6.539 0.823 5703
2.808 6.533 0.802 5253
2.808 6.535 0.781 3542
2.937 6.834 0.789 1692
2.941 6.843 0.768 2008
3.066 7.134 0.772 2016
3.067 7.136 0.750 2363
3.070 7.145 0.728 2513
3.071 7.146 0.705 1858
3.340 7.772 0.731 1839
3.334 7.759 0.705 2652
3.332 7.753 0.680 3285
3.336 7.762 0.656 2791
3.617 8.417 0.673 2471
3.365 7.830 0.611 2391
3.365 7.831 0.586 2420
3.366 7.832 0.562 1880
3.529 8.211 0.556 1671
3.529 8.212 0.530 1461
3.530 8.213 0.504 1123
3.533 8.221 0.479 678
3.533 8.222 0.453 537
3.631 8.448 0.435 393
3.631 8.449 0.408 344
3.631 8.450 0.381 267
3.215 7.482 -0.427 282
3.215 7.480 -0.451 281
3.214 7.479 -0.474 269
3.210 7.470 -0.497 263
0.787 1.824 1.523 3578
0.788 1.828 1.518 7156
0.823 1.909 1.572 6465
0.822 1.906 1.561 9528
0.826 1.916 1.560 11033
0.831 1.926 1.558 10381
0.832 1.930 1.552 9965
0.836 1.939 1.551 8955
0.846 1.961 1.558 8585
0.847 1.965 1.552 8585
0.849 1.969 1.546 9689
0.853 1.979 1.544 10826
0.857 1.988 1.543 12083
0.864 2.004 1.545 13920
0.871 2.020 1.548 9900
0.875 2.030 1.546 6462
0.880 2.040 1.544 6180
0.887 2.056 1.546 6286
0.888 2.060 1.540 7526
0.890 2.063 1.533 8765
0.894 2.073 1.531 7761
0.909 2.108 1.546 7361
0.911 2.112 1.539 7460
0.910 2.109 1.529 9568
0.911 2.113 1.522 11719
0.915 2.123 1.520 10865
0.917 2.127 1.513 10232
0.913 2.118 1.498 8949
0.969 2.246 1.573 9404
0.973 2.256 1.570 14814
0.975 2.260 1.563 20205
0.976 2.264 1.556 21263
0.978 2.268 1.549 17284
0.974 2.259 1.534 12661
0.981 2.275 1.535 9801
0.985 2.285 1.532 7566
0.992 2.301 1.532 5943
1.010 2.343 1.549 5756
1.004 2.328 1.530 5616
0.992 2.300 1.503 6807
0.993 2.304 1.496 7210
1.022 2.371 1.527 8211
1.024 2.375 1.520 11305
1.028 2.385 1.516 10422
1.030 2.388 1.509 9568
1.032 2.392 1.501 7188
1.041 2.415 1.505 5881
1.043 2.419 1.497 6934
1.045 2.422 1.490 8395
1.046 2.426 1.482 10073
1.050 2.436 1.478 10344
1.052 2.439 1.471 9669
1.059 2.456 1.470 11439
1.063 2.466 1.466 13692
1.062 2.463 1.455 12390
1.058 2.454 1.440 8739
1.065 2.470 1.440 5940
1.069 2.480 1.435 7087
1.127 2.614 1.497 8460
1.132 2.624 1.492 11326
1.133 2.628 1.484 11922
1.135 2.632 1.476 10475
1.139 2.642 1.471 8753
1.158 2.685 1.483 8105
1.159 2.688 1.475 9917
1.161 2.692 1.466 11266
1.162 2.696 1.458 11677
1.164 2.699 1.449 10127
1.168 2.709 1.444 7038
1.184 2.746 1.452 5545
1.194 2.769 1.453 6919
1.199 2.780 1.448 7842
1.217 2.823 1.458 7578
1.225 2.840 1.455 8438
1.232 2.857 1.453 8848
1.236 2.867 1.447 12812
1.238 2.870 1.438 15766
1.239 2.874 1.429 14491
1.241 2.877 1.420 11049
1.242 2.881 1.411 6683
1.247 2.891 1.405 3489
1.295 3.002 1.444 2919
1.293 2.999 1.431 5010
1.300 3.016 1.428 6367
1.308 3.033 1.424 7954
1.312 3.043 1.418 7841
1.325 3.073 1.420 5968
1.324 3.070 1.407 5104
1.331 3.087 1.403 6088
1.339 3.104 1.399 7538
1.343 3.114 1.392 5239
1.368 3.172 1.405 3919
1.363 3.162 1.389 6654
1.368 3.172 1.382 8686
1.384 3.209 1.386 6856
1.397 3.240 1.386 5141
1.413 3.278 1.389 6963
1.421 3.295 1.384 10130
1.422 3.298 1.374 9913
1.424 3.301 1.364 9618
1.425 3.305 1.353 10910
1.432 3.322 1.348 9391
1.443 3.346 1.345 8268
1.465 3.397 1.352 11588
1.469 3.407 1.344 14265
1.474 3.417 1.336 12185
1.475 3.421 1.325 9503
1.473 3.417 1.312 8590
1.508 3.496 1.328 8440
1.506 3.492 1.314 6895
1.531 3.551 1.322 4983
1.539 3.568 1.316 7151
1.546 3.585 1.309 9885
1.547 3.588 1.298 9986
1.549 3.591 1.287 11168
1.550 3.594 1.275 11379
1.551 3.597 1.264 9378
1.553 3.600 1.253 8197
1.602 3.715 1.276 6641
1.609 3.732 1.269 5812
1.614 3.742 1.259 4987
1.630 3.780 1.258 8047
1.631 3.783 1.246 12434
1.636 3.793 1.236 10233
1.640 3.803 1.226 7663
1.638 3.799 1.213 4442
1.694 3.929 1.236 4973
1.695 3.932 1.224 5735
1.700 3.941 1.214 7116
1.701 3.944 1.201 7742
1.702 3.947 1.189 5501
1.706 3.957 1.178 3371
1.714 3.974 1.170 2346
1.721 3.991 1.161 4146
1.719 3.986 1.147 4157
1.717 3.982 1.132 2079
1.764 4.091 1.146 1378
1.756 4.072 1.128 1453
1.797 4.167 1.138 1449
1.728 4.007 1.086 1535
2.023 4.691 1.234 1560
2.027 4.701 1.221 2032
2.029 4.704 1.206 2258
1.830 4.244 1.087 2110
1.834 4.254 1.075 1865
2.072 4.805 1.182 2139
2.073 4.808 1.167 1662
2.130 4.939 1.179 1439
2.094 4.856 1.146 1332
2.178 5.052 1.170 1375
2.161 5.012 1.145 1875
2.168 5.029 1.132 2194
2.191 5.081 1.126 2910
2.195 5.091 1.112 2931
2.206 5.115 1.100 2589
2.207 5.118 1.084 2106
2.193 5.084 1.061 2099
2.218 5.144 1.055 1957
2.318 5.376 1.080 2471
2.316 5.372 1.062 2337
2.314 5.367 1.043 1834
2.334 5.412 1.034 2706
2.335 5.415 1.017 3387
2.336 5.417 1.000 2335
2.390 5.542 1.002 2118
2.388 5.537 0.983 1810
2.541 5.892 1.019 1715
2.492 5.779 0.983 1976
2.537 5.882 0.980 2334
2.534 5.877 0.960 2448
2.545 5.901 0.945 2465
2.542 5.896 0.925 2357
2.537 5.883 0.905 1933
2.806 6.506 0.965 2035
2.807 6.509 0.945 3497
2.808 6.511 0.924 4325
2.809 6.513 0.904 4404
2.809 6.515 0.883 3619
2.816 6.531 0.864 3638
2.817 6.533 0.844 5663
2.818 6.535 0.823 6033
2.816 6.530 0.802 5496
2.817 6.531 0.781 3677
2.945 6.830 0.789 1498
2.949 6.839 0.768 1922
3.072 7.123 0.772 1937
3.076 7.132 0.750 2278
3.079 7.141 0.728 2447
3.080 7.142 0.705 1841
3.328 7.717 0.727 1900
3.341 7.747 0.705 2998
3.342 7.749 0.680 3801
3.345 7.758 0.656 3287
3.368 7.810 0.635 2387
3.375 7.826 0.611 2449
3.378 7.834 0.587 2471
3.376 7.828 0.562 1942
3.539 8.207 0.556 1770
3.539 8.208 0.530 1535
3.540 8.209 0.504 1168
3.543 8.217 0.479 712
3.544 8.218 0.453 586
3.541 8.211 0.426 426
3.225 7.478 -0.427 254
3.227 7.483 -0.451 254
0.791 1.822 1.523 3490
0.793 1.826 1.518 6981
0.828 1.906 1.572 7223
0.827 1.904 1.561 10331
0.831 1.914 1.560 11866
0.835 1.924 1.558 10984
0.837 1.928 1.552 10359
0.841 1.937 1.551 9483
0.851 1.959 1.558 9186
0.852 1.963 1.552 9186
0.854 1.967 1.546 10241
0.856 1.970 1.540 11296
0.862 1.986 1.543 12587
0.867 1.996 1.541 14381
0.868 2.000 1.535 10154
0.859 1.979 1.511 6310
0.882 2.032 1.540 5786
0.889 2.048 1.542 5593
0.891 2.051 1.535 7060
0.892 2.055 1.529 8527
0.897 2.065 1.527 7212
0.914 2.106 1.546 6319
0.916 2.109 1.539 6309
0.918 2.113 1.533 8571
0.916 2.111 1.522 10885
0.921 2.121 1.520 10316
0.922 2.124 1.513 9865
0.921 2.122 1.502 8511
0.977 2.250 1.577 10225
0.979 2.254 1.570 15806
0.980 2.257 1.563 21335
0.982 2.261 1.556 22294
0.984 2.265 1.549 18148
0.982 2.263 1.538 13279
0.987 2.273 1.535 10418
0.991 2.283 1.532 7964
0.998 2.299 1.532 6407
1.016 2.341 1.549 6266
1.010 2.325 1.530 6522
1.000 2.304 1.507 7260
0.999 2.301 1.496 7185
1.031 2.375 1.531 8160
1.033 2.378 1.523 11194
1.034 2.382 1.516 10425
1.036 2.386 1.509 9657
1.040 2.396 1.505 7732
1.047 2.412 1.505 7381
1.049 2.416 1.497 8902
1.051 2.420 1.490 10362
1.052 2.423 1.482 11815
1.054 2.427 1.475 11808
1.055 2.430 1.467 10970
1.065 2.453 1.470 11653
1.070 2.463 1.466 13565
1.068 2.460 1.455 12125
1.070 2.464 1.447 8897
1.074 2.474 1.443 7196
1.076 2.477 1.435 8527
1.077 2.481 1.428 8686
1.138 2.622 1.492 10014
1.140 2.625 1.484 10917
1.141 2.629 1.476 10050
1.146 2.639 1.471 8607
1.165 2.682 1.483 7522
1.166 2.686 1.475 9129
1.168 2.689 1.466 10532
1.169 2.693 1.458 11103
1.171 2.696 1.449 10014
1.175 2.706 1.444 7692
1.182 2.723 1.442 6097
1.201 2.766 1.453 6766
1.206 2.777 1.448 8004
1.213 2.793 1.445 7932
1.217 2.803 1.440 8409
1.236 2.847 1.450 8420
1.241 2.857 1.444 11524
1.245 2.867 1.438 13795
1.247 2.871 1.429 12916
1.248 2.874 1.420 10596
1.250 2.878 1.411 7293
1.251 2.881 1.402 4329
1.258 2.898 1.399 3178
1.304 3.002 1.434 4524
1.311 3.019 1.431 6543
1.318 3.036 1.427 8814
1.320 3.040 1.418 8461
1.324 3.050 1.411 6177
1.332 3.067 1.407 5255
1.339 3.084 1.403 7053
1.346 3.101 1.399 8629
1.348 3.104 1.389 6528
1.343 3.094 1.374 4526
1.380 3.179 1.397 6353
1.376 3.168 1.382 7844
1.395 3.213 1.388 6506
1.405 3.237 1.386 5497
1.419 3.267 1.387 7875
1.426 3.284 1.382 9130
1.433 3.301 1.377 9538
1.432 3.298 1.364 9840
1.433 3.301 1.353 10786
1.438 3.311 1.346 8317
1.457 3.356 1.350 7500
1.473 3.393 1.352 11929
1.478 3.403 1.344 14216
1.482 3.414 1.336 11239
1.481 3.410 1.323 8945
1.482 3.413 1.312 8655
1.516 3.492 1.328 7137
1.515 3.489 1.314 6690
1.513 3.485 1.301 4544
1.539 3.543 1.309 5978
1.555 3.581 1.309 7897
1.556 3.584 1.298 7933
1.558 3.587 1.287 9084
1.559 3.590 1.275 9398
1.560 3.594 1.264 8237
1.562 3.597 1.253 7181
1.608 3.704 1.274 7572
1.613 3.714 1.265 6372
1.620 3.731 1.257 5333
1.634 3.762 1.254 6044
1.641 3.779 1.246 8957
1.645 3.789 1.236 8594
1.647 3.792 1.224 8395
1.648 3.795 1.213 5305
1.698 3.910 1.232 4011
1.705 3.927 1.224 4719
1.710 3.937 1.214 6039
1.711 3.940 1.201 6687
1.709 3.936 1.187 4432
1.704 3.925 1.171 2438
1.724 3.970 1.170 2231
1.731 3.987 1.161 3607
1.729 3.982 1.147 3477
1.733 3.992 1.136 2147
1.741 4.009 1.127 2055
1.742 4.011 1.114 1709
1.737 4.000 1.098 1593
1.738 4.002 1.086 2032
1.736 3.998 1.071 1733
2.039 4.696 1.221 1805
2.047 4.713 1.209 1929
1.841 4.240 1.087 2239
1.845 4.249 1.075 2129
2.084 4.800 1.182 1875
2.138 4.924 1.193 1854
2.142 4.934 1.179 1545
2.106 4.851 1.146 1441
2.108 4.854 1.130 1603
2.174 5.006 1.145 1718
2.178 5.016 1.131 2262
2.201 5.069 1.125 2742
2.205 5.078 1.110 2505
2.216 5.102 1.099 1994
2.217 5.105 1.082 1798
2.205 5.079 1.061 2091
2.231 5.139 1.055 1874
2.335 5.378 1.081 2187
2.330 5.366 1.062 2040
2.325 5.354 1.042 1750
2.348 5.407 1.034 2706
2.349 5.409 1.017 3597
2.350 5.411 1.000 2632
2.404 5.536 1.002 2310
2.402 5.531 0.983 1986
2.552 5.878 1.018 1521
2.550 5.873 0.998 1825
2.548 5.869 0.979 2320
2.549 5.871 0.960 2429
2.553 5.880 0.943 2233
2.554 5.882 0.924 2133
2.668 6.144 0.940 1876
2.822 6.499 0.965 2229
2.823 6.502 0.945 3489
2.821 6.496 0.923 4152
2.825 6.506 0.904 4108
2.826 6.508 0.883 3398
2.833 6.524 0.864 3762
2.834 6.526 0.844 5790
2.835 6.528 0.823 6072
2.832 6.523 0.802 5464
2.836 6.532 0.782 3655
2.918 6.721 0.779 1513
2.966 6.831 0.768 1720
3.090 7.115 0.772 1863
3.093 7.124 0.750 2172
3.097 7.133 0.728 2386
3.098 7.135 0.705 1847
3.347 7.708 0.727 1958
3.360 7.739 0.705 3263
3.361 7.740 0.680 4204
3.368 7.756 0.657 3750
3.372 7.765 0.633 2687
3.397 7.824 0.611 2461
3.398 7.825 0.587 2491
3.395 7.819 0.562 1958
3.560 8.198 0.556 1830
3.560 8.199 0.530 1574
3.560 8.200 0.504 1186
3.564 8.208 0.479 718
3.561 8.202 0.452 601
3.562 8.202 0.426 435
0.787 1.831 1.528 3496
0.788 1.835 1.522 6992
0.820 1.910 1.572 7734
0.820 1.907 1.561 10804
0.824 1.917 1.560 12307
0.828 1.927 1.558 11239
0.830 1.931 1.552 10446
0.834 1.941 1.551 9576
0.841 1.956 1.554 9256
0.842 1.960 1.548 9256
0.844 1.964 1.542 10345
0.845 1.968 1.536 11433
0.855 1.990 1.543 12805
0.859 1.999 1.541 14734
0.861 2.003 1.535 10556
0.857 1.995 1.520 6629
0.872 2.029 1.535 5610
0.876 2.039 1.533 5136
0.880 2.049 1.531 6737
0.882 2.052 1.525 8391
0.886 2.062 1.523 6850
0.890 2.072 1.521 5438
0.897 2.088 1.522 5354
0.909 2.117 1.533 7548
0.911 2.120 1.526 9884
0.913 2.124 1.520 9506
0.917 2.134 1.517 9236
0.913 2.125 1.502 7814
0.968 2.254 1.577 10627
0.970 2.257 1.570 16181
0.972 2.261 1.563 21666
0.973 2.265 1.556 22522
0.975 2.269 1.549 18330
0.974 2.266 1.538 13454
0.978 2.276 1.535 10499
0.982 2.286 1.532 7868
0.989 2.303 1.532 6579
1.007 2.345 1.549 6474
1.001 2.329 1.530 7190
1.005 2.339 1.526 7913
0.990 2.305 1.496 6919
1.022 2.379 1.531 7895
1.024 2.382 1.523 10704
1.025 2.386 1.516 10065
1.027 2.390 1.509 9427
1.031 2.400 1.505 8101
1.038 2.416 1.505 8718
1.040 2.420 1.497 10535
1.041 2.424 1.490 11944
1.043 2.427 1.482 13126
1.044 2.431 1.475 12899
1.046 2.434 1.467 11944
1.056 2.457 1.470 11693
1.060 2.467 1.466 13220
1.059 2.464 1.455 11667
1.063 2.475 1.451 9136
1.065 2.478 1.443 8418
1.069 2.488 1.439 9899
1.071 2.492 1.431 9673
1.097 2.554 1.454 9037
1.133 2.636 1.488 9833
1.129 2.627 1.473 9342
1.133 2.637 1.468 8092
1.109 2.581 1.429 7257
1.108 2.578 1.418 8979
1.157 2.694 1.466 9608
1.159 2.697 1.458 10144
1.158 2.694 1.446 9493
1.165 2.711 1.444 8094
1.172 2.728 1.442 6975
1.188 2.764 1.450 6675
1.195 2.781 1.448 8198
1.202 2.798 1.445 8709
1.207 2.808 1.440 9553
1.208 2.812 1.431 9819
1.230 2.862 1.444 10310
1.234 2.872 1.438 11578
1.236 2.876 1.429 11098
1.237 2.879 1.420 9908
1.238 2.882 1.411 7636
1.240 2.886 1.402 5003
1.244 2.896 1.396 3936
1.292 3.007 1.434 4169
1.299 3.024 1.431 6417
1.304 3.034 1.424 9060
1.308 3.045 1.418 8548
1.310 3.048 1.408 6353
1.323 3.079 1.410 5363
1.330 3.096 1.406 7715
1.334 3.106 1.399 9399
1.336 3.109 1.389 7796
1.331 3.099 1.374 5269
1.365 3.177 1.395 6369
1.364 3.174 1.382 7420
1.383 3.218 1.388 5921
1.393 3.242 1.386 5365
1.403 3.266 1.384 8379
1.405 3.269 1.374 8962
1.421 3.307 1.377 9240
1.419 3.303 1.364 9884
1.421 3.306 1.353 10397
1.425 3.317 1.346 7731
1.447 3.368 1.353 6823
1.460 3.399 1.352 11558
1.465 3.409 1.344 13464
1.466 3.412 1.333 9767
1.465 3.409 1.320 8056
1.469 3.419 1.312 8550
1.506 3.505 1.330 6004
1.504 3.501 1.317 6375
1.500 3.491 1.301 4378
1.525 3.549 1.309 4848
1.538 3.580 1.307 6057
1.534 3.569 1.291 6423
1.541 3.586 1.284 7035
1.545 3.596 1.275 7011
1.547 3.599 1.264 6632
1.548 3.602 1.253 5840
1.594 3.710 1.274 8199
1.596 3.713 1.262 6612
1.603 3.730 1.255 5296
1.607 3.740 1.245 4858
1.620 3.771 1.242 5717
1.628 3.788 1.234 6946
1.632 3.798 1.224 8944
1.633 3.801 1.213 6235
1.644 3.825 1.207 4122
1.684 3.920 1.220 3724
1.695 3.944 1.214 4655
1.693 3.940 1.199 5236
1.688 3.928 1.183 4103
1.683 3.917 1.167 2756
1.693 3.941 1.160 2031
1.710 3.979 1.157 2964
1.714 3.989 1.147 2688
1.721 4.006 1.138 2005
1.725 4.015 1.127 2235
1.726 4.018 1.114 1802
1.718 3.999 1.096 1908
1.719 4.002 1.084 2533
1.721 4.004 1.071 2101
2.021 4.704 1.221 1445
1.824 4.244 1.100 1774
1.825 4.247 1.087 2125
1.832 4.264 1.077 2291
1.839 4.280 1.066 1988
2.119 4.932 1.193 2075
2.126 4.949 1.181 1629
2.088 4.859 1.146 1356
2.089 4.862 1.130 1809
2.090 4.864 1.115 1934
2.153 5.010 1.128 2329
2.175 5.063 1.122 2432
2.180 5.073 1.108 1910
2.156 5.018 1.081 1343
2.234 5.199 1.098 1559
2.186 5.087 1.061 1939
2.249 5.233 1.071 2264
2.314 5.387 1.081 1891
2.312 5.382 1.063 1849
2.338 5.442 1.056 1748
2.330 5.423 1.035 2787
2.328 5.418 1.017 3697
2.329 5.420 1.000 2798
2.382 5.545 1.002 2253
2.380 5.540 0.983 2019
0.276 0.643 0.228 1424
0.282 0.657 0.228 1776
2.526 5.878 0.979 2351
2.524 5.873 0.959 2330
2.509 5.839 0.936 1927
2.529 5.885 0.923 1800
2.644 6.154 0.940 1997
2.800 6.517 0.966 2291
2.798 6.512 0.945 3317
2.796 6.507 0.923 3832
2.800 6.517 0.904 3698
2.801 6.519 0.883 3069
2.808 6.535 0.864 3715
2.809 6.537 0.844 5657
2.810 6.539 0.823 5832
2.807 6.533 0.802 5198
2.811 6.542 0.782 3525
2.893 6.732 0.779 1491
2.999 6.981 0.781 1662
3.059 7.120 0.771 1789
3.066 7.136 0.750 2062
3.070 7.145 0.728 2323
3.071 7.147 0.705 1855
3.274 7.620 0.719 1988
3.331 7.752 0.705 3386
3.331 7.753 0.680 4424
3.338 7.769 0.657 4138
3.342 7.778 0.633 3058
3.367 7.837 0.611 2416
3.368 7.838 0.587 2448
3.365 7.832 0.562 1919
3.528 8.211 0.556 1785
3.526 8.205 0.530 1516
3.529 8.213 0.504 1134
3.533 8.222 0.479 689
3.533 8.222 0.453 582
3.530 8.216 0.426 422
1.324 3.080 -0.043 250
1.323 3.080 -0.053 279
1.323 3.079 -0.063 304
1.326 3.086 -0.073 338
1.329 3.093 -0.083 316
1.332 3.099 -0.093 305
1.331 3.099 -0.103 267
0.790 1.830 1.528 3476
0.791 1.833 1.522 6952
0.821 1.902 1.567 8077
0.823 1.906 1.561 11065
0.827 1.916 1.560 12495
0.828 1.920 1.554 11281
0.833 1.930 1.552 10357
0.837 1.939 1.551 9424
0.844 1.955 1.554 9050
0.845 1.959 1.548 9050
0.847 1.963 1.542 10248
0.849 1.966 1.536 11446
0.858 1.988 1.543 12961
0.862 1.998 1.541 15082
0.864 2.002 1.535 11001
0.863 1.999 1.524 6987
0.867 2.009 1.522 5750
0.877 2.031 1.529 4767
0.881 2.041 1.527 6506
0.882 2.045 1.521 8264
0.887 2.055 1.518 6648
0.894 2.071 1.521 5050
0.900 2.087 1.522 4865
0.915 2.121 1.537 6792
0.917 2.125 1.530 8955
0.919 2.129 1.524 8782
0.923 2.139 1.521 8614
0.967 2.242 1.580 7963
0.972 2.252 1.577 10804
0.973 2.256 1.570 16242
0.975 2.260 1.563 21603
0.977 2.264 1.556 22352
0.978 2.267 1.549 18114
0.977 2.265 1.538 13272
0.982 2.275 1.535 10225
0.986 2.285 1.532 7466
0.993 2.301 1.532 6593
1.000 2.318 1.533 6641
1.002 2.321 1.526 7714
1.009 2.338 1.526 8674
0.994 2.303 1.496 6590
1.026 2.377 1.531 7516
1.027 2.381 1.523 10035
1.032 2.391 1.520 9532
1.033 2.394 1.512 9107
1.038 2.405 1.509 8360
1.042 2.415 1.505 9687
1.044 2.418 1.497 11626
1.045 2.422 1.490 12978
1.047 2.426 1.482 13982
1.048 2.429 1.475 13635
1.050 2.433 1.467 12629
1.060 2.456 1.470 11782
1.064 2.466 1.466 12958
1.066 2.469 1.459 11473
1.067 2.473 1.451 9820
1.071 2.483 1.447 9991
1.073 2.486 1.439 11455
1.077 2.496 1.435 10789
1.101 2.552 1.454 9649
1.103 2.556 1.446 9462
1.127 2.612 1.466 8791
1.126 2.609 1.454 7951
1.110 2.573 1.426 7856
1.112 2.576 1.418 9738
1.162 2.692 1.466 8283
1.163 2.695 1.458 8598
1.162 2.692 1.446 8449
1.172 2.716 1.447 8215
1.176 2.726 1.442 7769
1.192 2.762 1.450 6784
1.199 2.779 1.448 8645
1.207 2.796 1.445 9522
1.211 2.806 1.440 10326
1.215 2.816 1.434 10709
1.234 2.860 1.444 9226
1.239 2.870 1.438 9429
1.240 2.874 1.429 9327
1.242 2.877 1.420 9194
1.243 2.880 1.411 7837
1.244 2.884 1.402 5399
1.249 2.894 1.396 4591
1.253 2.904 1.390 4453
1.304 3.022 1.431 6071
1.309 3.032 1.424 8745
1.313 3.043 1.418 8083
1.314 3.046 1.408 6314
1.331 3.083 1.413 5411
1.335 3.093 1.406 8095
1.339 3.104 1.399 9864
1.341 3.107 1.389 8633
1.339 3.104 1.377 5813
1.370 3.175 1.395 6309
1.369 3.172 1.382 7318
1.385 3.209 1.386 5359
1.398 3.240 1.386 4996
1.405 3.257 1.381 8616
1.410 3.267 1.374 9087
1.426 3.305 1.377 9086
1.424 3.301 1.364 9816
1.426 3.304 1.353 9873
1.427 3.308 1.343 7585
1.441 3.338 1.343 6362
1.466 3.397 1.352 10823
1.470 3.407 1.344 12550
1.466 3.396 1.328 8248
1.467 3.399 1.318 6984
1.477 3.423 1.314 8225
1.479 3.426 1.304 5476
1.510 3.499 1.317 6044
1.505 3.488 1.301 4199
1.507 3.491 1.290 3692
1.532 3.550 1.298 5149
1.530 3.546 1.284 6004
1.541 3.570 1.280 5501
1.551 3.594 1.275 4819
1.552 3.597 1.264 5015
1.599 3.705 1.286 5126
1.600 3.708 1.274 8341
1.601 3.711 1.262 6408
1.609 3.728 1.255 4808
1.610 3.731 1.243 4363
1.617 3.748 1.236 3887
1.631 3.779 1.232 5795
1.635 3.789 1.222 9088
1.642 3.806 1.215 6938
1.653 3.830 1.209 5565
1.657 3.840 1.198 4225
1.701 3.941 1.214 3410
1.696 3.930 1.197 3846
1.691 3.919 1.181 4190
1.683 3.900 1.163 3383
1.684 3.903 1.151 2234
1.710 3.962 1.154 2494
1.711 3.965 1.141 2002
1.727 4.003 1.138 1701
1.732 4.013 1.127 2129
1.730 4.008 1.112 1829
1.725 3.997 1.096 2224
1.726 3.999 1.084 2868
1.724 3.995 1.070 2357
1.719 3.983 1.054 1629
1.717 3.978 1.040 1613
1.831 4.244 1.087 1825
1.842 4.268 1.078 2269
1.846 4.277 1.066 2072
2.127 4.929 1.193 2041
2.131 4.939 1.179 1693
1.720 3.985 0.963 1500
2.097 4.858 1.130 1915
2.098 4.861 1.115 2052
2.164 5.014 1.130 2339
2.177 5.045 1.119 2316
2.178 5.048 1.104 1685
2.167 5.022 1.082 1243
2.245 5.203 1.100 1735
2.250 5.213 1.085 2146
2.254 5.223 1.070 2749
2.267 5.254 1.058 2025
2.324 5.385 1.064 1730
2.341 5.424 1.053 1938
2.338 5.419 1.035 2827
2.336 5.414 1.017 3624
2.337 5.417 1.000 2804
2.391 5.541 1.002 2001
2.392 5.543 0.984 1910
0.277 0.642 0.228 1477
0.283 0.657 0.228 1852
2.532 5.867 0.978 2335
2.523 5.848 0.956 2276
2.515 5.828 0.935 1926
2.625 6.083 0.950 1634
2.654 6.150 0.940 2015
2.811 6.513 0.966 2240
2.808 6.508 0.945 3062
2.806 6.503 0.923 3469
2.810 6.512 0.904 3271
2.814 6.521 0.884 2704
2.818 6.531 0.864 3551
2.819 6.532 0.844 5342
2.820 6.534 0.823 5382
2.821 6.536 0.802 4742
2.821 6.538 0.782 3262
2.906 6.735 0.780 1456
3.007 6.969 0.780 1735
3.058 7.086 0.769 1877
3.074 7.124 0.749 1991
3.081 7.140 0.728 2286
3.082 7.142 0.705 1880
3.286 7.614 0.719 1999
3.343 7.747 0.705 3408
3.347 7.755 0.681 4527
3.350 7.764 0.657 4399
3.354 7.773 0.633 3378
3.380 7.832 0.611 2312
3.380 7.833 0.587 2341
3.378 7.827 0.562 1839
3.538 8.198 0.556 1734
3.538 8.200 0.530 1456
3.542 8.208 0.504 1060
3.546 8.216 0.479 608
3.546 8.217 0.453 496
3.543 8.210 0.426 356
1.272 2.948 -0.026 276
1.266 2.933 -0.035 311
1.266 2.933 -0.044 359
1.268 2.939 -0.053 377
1.271 2.946 -0.063 412
1.271 2.946 -0.072 380
1.277 2.960 -0.083 360
1.274 2.952 -0.091 308
1.273 2.951 -0.100 254
0.794 1.828 1.528 3486
0.795 1.832 1.522 6972
0.825 1.901 1.567 8276
0.827 1.904 1.561 11176
0.831 1.914 1.560 12487
0.833 1.918 1.554 11192
0.837 1.928 1.552 10149
0.839 1.931 1.546 9066
0.851 1.959 1.558 8583
0.852 1.963 1.552 8583
0.854 1.967 1.546 9924
0.856 1.971 1.540 11265
0.865 1.992 1.547 13005
0.869 2.002 1.545 15361
0.871 2.006 1.539 11416
0.873 2.010 1.533 7471
0.871 2.007 1.522 5943
0.881 2.029 1.529 4457
0.885 2.039 1.527 6222
0.887 2.043 1.521 8046
0.891 2.053 1.518 6535
0.898 2.069 1.521 5081
0.905 2.085 1.522 4988
0.920 2.119 1.537 6299
0.922 2.123 1.530 8241
0.926 2.133 1.528 8158
0.928 2.137 1.521 8116
0.972 2.240 1.580 8022
0.977 2.250 1.577 10678
0.978 2.254 1.570 15919
0.980 2.258 1.563 21080
0.982 2.261 1.556 21738
0.983 2.265 1.549 17509
0.982 2.263 1.538 12768
0.984 2.266 1.531 9645
0.991 2.283 1.532 6787
0.998 2.299 1.532 6437
1.002 2.309 1.529 6854
1.007 2.319 1.526 8061
1.014 2.336 1.526 9184
1.018 2.346 1.523 6765
1.031 2.375 1.531 6939
1.033 2.378 1.523 9149
1.037 2.389 1.520 8836
1.039 2.392 1.512 8569
1.043 2.402 1.509 8421
1.047 2.412 1.505 10369
1.049 2.416 1.497 12334
1.050 2.420 1.490 13667
1.052 2.423 1.482 14545
1.054 2.427 1.475 14090
1.055 2.430 1.467 12985
1.065 2.453 1.470 11612
1.069 2.463 1.466 12430
1.071 2.467 1.459 11146
1.075 2.477 1.454 10659
1.077 2.480 1.447 11863
1.081 2.491 1.442 13132
1.086 2.501 1.438 11888
1.107 2.550 1.454 10056
1.108 2.553 1.446 9990
1.130 2.603 1.462 8566
1.131 2.606 1.454 7937
1.116 2.570 1.426 8453
1.117 2.574 1.418 10337
1.116 2.571 1.407 8174
1.169 2.693 1.458 6925
1.171 2.696 1.449 7318
1.178 2.713 1.447 8541
1.182 2.723 1.442 8526
1.198 2.760 1.450 7161
1.208 2.783 1.451 9419
1.213 2.793 1.445 10301
1.217 2.804 1.440 10652
1.222 2.814 1.434 10949
1.240 2.857 1.444 8298
1.274 2.934 1.469 7648
1.278 2.945 1.463 7993
1.245 2.868 1.417 8671
1.249 2.878 1.411 7873
1.251 2.881 1.402 5442
1.255 2.891 1.396 5079
1.257 2.895 1.387 5380
1.305 3.006 1.425 5755
1.315 3.029 1.424 7894
1.317 3.033 1.415 7245
1.321 3.043 1.408 6018
1.337 3.080 1.413 5496
1.345 3.097 1.409 8272
1.346 3.101 1.399 10000
1.345 3.097 1.387 8997
1.346 3.101 1.377 5966
1.377 3.172 1.395 6151
1.376 3.169 1.382 7486
1.386 3.192 1.380 5370
1.411 3.250 1.392 4689
1.413 3.254 1.381 8536
1.414 3.257 1.371 9040
1.433 3.301 1.377 8794
1.432 3.298 1.364 9427
1.433 3.301 1.353 9133
1.432 3.297 1.340 7571
1.445 3.328 1.340 6490
1.473 3.393 1.352 9765
1.478 3.404 1.344 11444
1.470 3.386 1.326 6724
1.471 3.389 1.315 5698
1.485 3.420 1.314 7754
1.486 3.423 1.304 5542
1.521 3.502 1.319 5571
1.507 3.471 1.296 4511
1.508 3.474 1.285 4097
1.540 3.547 1.298 4450
1.538 3.543 1.284 5707
1.548 3.567 1.280 4675
1.562 3.598 1.278 3587
1.566 3.608 1.268 4025
1.607 3.701 1.286 4622
1.608 3.704 1.274 7848
1.610 3.707 1.262 5793
1.617 3.724 1.255 4100
1.618 3.727 1.243 3688
1.632 3.758 1.240 3386
1.639 3.775 1.232 6155
1.643 3.785 1.222 8769
1.657 3.816 1.219 7783
1.661 3.826 1.209 7127
1.668 3.843 1.200 5421
1.715 3.951 1.218 2679
1.723 3.968 1.209 2887
1.700 3.915 1.181 4090
1.692 3.896 1.163 3802
1.687 3.885 1.147 2445
1.715 3.951 1.152 2303
1.717 3.954 1.139 1798
1.724 3.971 1.130 1369
1.740 4.009 1.127 1735
1.732 3.990 1.109 1863
1.733 3.993 1.096 2418
1.731 3.988 1.082 3012
1.729 3.984 1.068 2481
1.727 3.979 1.054 1788
1.725 3.974 1.040 1943
1.720 3.963 1.024 1937
1.851 4.264 1.078 1910
1.852 4.266 1.065 1916
2.132 4.910 1.190 1979
1.727 3.979 0.976 2315
1.728 3.981 0.963 2080
2.107 4.854 1.130 1824
0.267 0.616 0.254 1963
2.175 5.009 1.130 2239
2.185 5.033 1.118 2373
2.189 5.043 1.104 1749
2.259 5.203 1.118 1518
2.257 5.198 1.100 2016
2.261 5.208 1.085 2592
2.265 5.218 1.070 3149
2.279 5.249 1.058 2305
2.336 5.380 1.064 1677
2.352 5.419 1.053 2083
2.350 5.414 1.035 2812
2.348 5.409 1.017 3507
2.352 5.419 1.001 2727
2.435 5.608 1.013 1858
2.414 5.560 0.988 1911
2.465 5.677 0.987 1750
0.285 0.656 0.228 1933
2.542 5.854 0.977 2404
2.533 5.835 0.955 2448
2.528 5.823 0.935 1949
2.638 6.077 0.950 1566
2.667 6.144 0.940 1957
2.706 6.233 0.931 2146
2.823 6.502 0.945 2759
2.820 6.497 0.923 3097
2.825 6.506 0.904 2849
2.832 6.522 0.885 2306
2.833 6.524 0.864 3249
2.833 6.526 0.844 4883
2.834 6.528 0.823 4799
2.835 6.530 0.802 4184
2.836 6.532 0.782 2912
3.025 6.967 0.803 1440
3.019 6.955 0.780 1871
3.070 7.072 0.768 1941
3.074 7.081 0.746 1980
3.097 7.133 0.728 2256
3.101 7.142 0.706 1930
3.350 7.716 0.727 1957
3.360 7.739 0.705 3332
3.367 7.755 0.681 4534
3.367 7.757 0.657 4575
3.368 7.758 0.632 3673
3.397 7.824 0.611 2158
3.397 7.826 0.587 2179
3.395 7.820 0.562 1681
3.556 8.191 0.556 1651
3.556 8.192 0.530 1385
3.560 8.200 0.504 1047
3.564 8.208 0.479 600
3.564 8.209 0.453 437
3.561 8.203 0.426 299
1.276 2.939 -0.017 258
1.276 2.938 -0.026 315
1.269 2.923 -0.034 339
1.269 2.923 -0.043 381
1.269 2.922 -0.052 399
1.272 2.929 -0.062 428
1.274 2.936 -0.072 384
1.277 2.942 -0.081 361
1.277 2.942 -0.091 324
1.277 2.941 -0.100 291
0.800 1.832 1.533 3668
0.801 1.836 1.527 7336
0.829 1.899 1.567 8342
0.830 1.903 1.561 11150
0.835 1.913 1.560 12291
0.836 1.916 1.554 10974
0.841 1.926 1.552 9840
0.842 1.930 1.546 8574
0.854 1.958 1.558 7875
0.856 1.961 1.552 7875
0.858 1.965 1.546 9393
0.862 1.975 1.544 10970
0.869 1.991 1.547 13113
0.873 2.001 1.545 15769
0.875 2.004 1.539 12035
0.879 2.014 1.537 8425
0.883 2.024 1.535 6387
0.885 2.028 1.529 4352
0.889 2.038 1.527 6005
0.891 2.041 1.521 7719
0.895 2.051 1.518 6401
0.907 2.079 1.529 5448
0.909 2.083 1.522 5578
0.924 2.118 1.537 6178
0.928 2.127 1.534 7865
0.930 2.131 1.528 7775
0.934 2.141 1.525 7812
0.977 2.238 1.580 7875
0.981 2.248 1.577 10246
0.983 2.252 1.570 15232
0.984 2.256 1.563 20140
0.986 2.259 1.556 20717
0.988 2.263 1.549 16542
0.984 2.254 1.534 12024
0.988 2.265 1.531 8843
0.995 2.281 1.532 5911
1.000 2.291 1.529 6152
1.007 2.307 1.529 6945
1.011 2.317 1.526 8201
1.018 2.334 1.526 9423
1.023 2.344 1.523 6954
1.030 2.360 1.523 6145
1.037 2.376 1.523 7998
1.041 2.387 1.520 7859
1.046 2.397 1.516 7859
1.050 2.407 1.512 8254
1.052 2.410 1.505 10681
1.053 2.414 1.497 12590
1.055 2.418 1.490 14049
1.057 2.421 1.482 14929
1.058 2.425 1.475 14351
1.060 2.428 1.467 13047
1.070 2.451 1.470 11222
1.074 2.461 1.466 11803
1.079 2.471 1.462 10937
1.080 2.475 1.454 11717
1.082 2.478 1.447 13630
1.086 2.488 1.442 14854
1.090 2.498 1.438 13092
1.112 2.548 1.454 10620
1.113 2.551 1.446 10505
1.118 2.561 1.442 8406
1.134 2.598 1.451 7645
1.121 2.568 1.426 8971
1.122 2.572 1.418 10902
1.118 2.562 1.403 8723
1.174 2.691 1.458 5338
1.179 2.701 1.453 6321
1.186 2.717 1.451 8980
1.190 2.728 1.445 9470
1.206 2.764 1.453 7849
1.214 2.781 1.451 10561
1.218 2.791 1.445 11014
1.222 2.801 1.440 10334
1.227 2.811 1.434 10260
1.246 2.855 1.444 7593
1.279 2.932 1.469 6837
1.284 2.942 1.463 7004
1.250 2.865 1.417 8369
1.255 2.875 1.411 7905
1.256 2.879 1.402 5389
1.261 2.889 1.396 5558
1.262 2.892 1.387 6460
1.302 2.983 1.416 6162
1.318 3.020 1.421 6619
1.322 3.030 1.415 5983
1.327 3.041 1.408 5452
1.346 3.085 1.416 5510
1.351 3.095 1.409 8179
1.352 3.098 1.399 9830
1.351 3.095 1.387 8790
1.352 3.098 1.377 5632
1.383 3.169 1.395 5871
1.385 3.173 1.385 7798
1.392 3.190 1.380 6042
1.420 3.254 1.394 4591
1.416 3.244 1.379 8227
1.417 3.247 1.369 8724
1.437 3.292 1.374 8263
1.438 3.295 1.364 8850
1.439 3.298 1.353 8234
1.441 3.302 1.343 7257
1.448 3.319 1.338 6487
1.480 3.391 1.352 8366
1.487 3.408 1.347 10310
1.494 3.425 1.341 6353
1.487 3.407 1.323 4577
1.491 3.417 1.314 7061
1.496 3.427 1.306 5515
1.527 3.500 1.319 5036
1.513 3.468 1.296 5288
1.515 3.471 1.285 4830
1.559 3.571 1.307 4373
1.554 3.561 1.291 5149
1.567 3.592 1.289 4371
1.572 3.602 1.280 3144
1.579 3.619 1.273 3794
1.583 3.629 1.264 4727
1.615 3.701 1.274 6696
1.617 3.704 1.262 4744
1.624 3.721 1.255 3132
1.625 3.724 1.243 2987
1.660 3.804 1.254 4773
1.643 3.765 1.230 6529
1.666 3.817 1.233 8705
1.667 3.820 1.221 8917
1.671 3.830 1.211 8607
1.676 3.840 1.200 6821
1.680 3.850 1.190 2997
1.730 3.965 1.209 2693
1.707 3.912 1.181 3722
1.696 3.886 1.162 3767
1.688 3.868 1.144 2579
1.717 3.934 1.148 2293
1.721 3.944 1.137 2003
1.842 4.222 1.195 1482
1.751 4.013 1.129 1199
1.737 3.980 1.107 1754
1.741 3.990 1.096 2354
1.739 3.985 1.082 2912
1.737 3.980 1.068 2492
1.735 3.976 1.054 1813
1.733 3.971 1.040 2001
1.728 3.959 1.024 2354
1.729 3.962 1.011 2426
1.733 3.971 1.001 1778
1.734 3.973 0.988 2103
1.735 3.976 0.976 2911
1.736 3.978 0.963 2673
0.278 0.636 0.260 2049
0.269 0.615 0.254 2212
2.187 5.012 1.131 1997
2.195 5.029 1.118 2378
2.196 5.032 1.102 1858
2.269 5.198 1.118 1725
2.270 5.201 1.101 2231
2.271 5.204 1.085 2947
2.275 5.213 1.070 3409
2.289 5.244 1.058 2493
2.349 5.383 1.065 1685
2.363 5.414 1.053 2195
2.364 5.417 1.036 2679
2.359 5.405 1.017 3242
2.363 5.414 1.001 2568
2.445 5.603 1.013 1910
2.430 5.569 0.990 2214
2.475 5.672 0.987 2070
0.286 0.656 0.228 1987
2.549 5.842 0.976 2476
2.547 5.837 0.956 2685
2.542 5.825 0.936 2047
2.546 5.834 0.918 1474
2.679 6.139 0.940 1777
2.718 6.228 0.931 2006
2.835 6.496 0.945 2386
2.833 6.491 0.923 2676
2.755 6.313 0.882 2426
2.753 6.308 0.861 2448
2.848 6.526 0.865 2832
2.846 6.521 0.844 4279
2.846 6.523 0.823 4096
2.847 6.525 0.802 3529
2.851 6.534 0.783 2496
3.035 6.954 0.802 1591
3.032 6.949 0.780 1921
3.084 7.066 0.768 1985
3.084 7.068 0.746 1988
3.110 7.127 0.728 2173
3.114 7.136 0.706 1923
3.317 7.601 0.719 1916
3.375 7.733 0.705 3145
3.385 7.756 0.682 4479
3.385 7.757 0.657 4666
3.383 7.752 0.632 3897
3.386 7.760 0.608 2089
3.412 7.819 0.587 1956
3.400 7.791 0.560 1491
3.568 8.177 0.555 1438
3.566 8.171 0.529 1148
3.547 8.128 0.501 825
3.579 8.201 0.479 524
3.576 8.195 0.452 433
3.577 8.196 0.426 306
0.914 2.095 0.022 283
0.914 2.095 0.016 342
0.911 2.087 0.010 358
0.908 2.080 0.004 388
0.911 2.087 -0.003 385
0.914 2.093 -0.010 390
0.917 2.100 -0.017 362
0.919 2.107 -0.024 358
0.919 2.107 -0.031 335
0.919 2.106 -0.037 312
0.919 2.106 -0.044 252
0.803 1.831 1.533 3852
0.805 1.835 1.527 7705
0.830 1.892 1.563 8212
0.834 1.901 1.561 10863
0.835 1.905 1.555 11838
0.840 1.915 1.554 10532
0.844 1.925 1.552 9351
0.846 1.928 1.546 7932
0.858 1.956 1.558 7220
0.859 1.960 1.552 7220
0.864 1.970 1.551 8818
0.868 1.979 1.549 10594
0.875 1.995 1.552 13023
0.877 1.999 1.545 15957
0.881 2.009 1.543 12628
0.885 2.019 1.542 9565
0.887 2.022 1.535 7097
0.889 2.026 1.529 4628
0.893 2.036 1.527 5930
0.897 2.046 1.525 7316
0.918 2.092 1.548 6881
0.917 2.090 1.537 6315
0.915 2.088 1.527 6328
0.928 2.116 1.537 6405
0.932 2.126 1.534 7796
0.937 2.136 1.532 7595
0.941 2.146 1.529 7581
0.981 2.236 1.580 7475
0.985 2.246 1.577 9496
0.987 2.250 1.570 14117
0.988 2.254 1.563 18683
0.990 2.258 1.556 19206
0.992 2.261 1.549 15120
0.988 2.253 1.534 11027
0.990 2.256 1.527 7957
0.994 2.266 1.524 4905
1.004 2.289 1.529 5702
1.011 2.305 1.529 6791
1.015 2.315 1.526 8011
1.023 2.332 1.526 9237
1.027 2.342 1.523 6826
1.031 2.352 1.519 5573
1.039 2.368 1.520 6698
1.046 2.385 1.520 6672
1.053 2.401 1.520 7029
1.055 2.405 1.512 7793
1.056 2.408 1.505 10294
1.058 2.412 1.497 12031
1.059 2.416 1.490 13761
1.061 2.419 1.482 14930
1.063 2.423 1.475 14369
1.064 2.426 1.467 12871
1.074 2.449 1.470 10706
1.081 2.466 1.470 11197
1.083 2.469 1.462 10832
1.085 2.473 1.454 12610
1.086 2.477 1.447 14970
1.090 2.486 1.442 16198
1.095 2.496 1.438 14015
1.102 2.513 1.437 10758
1.118 2.549 1.446 10729
1.122 2.559 1.442 8909
1.138 2.595 1.451 7842
1.125 2.566 1.426 9609
1.124 2.563 1.415 11332
1.123 2.560 1.403 9044
1.124 2.563 1.395 5206
1.204 2.745 1.476 6440
1.191 2.715 1.451 9455
1.195 2.725 1.445 10305
1.214 2.769 1.456 8713
1.219 2.779 1.451 11701
1.223 2.789 1.445 11535
1.227 2.799 1.440 9340
1.235 2.816 1.437 8649
1.254 2.859 1.447 7164
1.285 2.930 1.469 5829
1.254 2.860 1.426 6391
1.253 2.856 1.414 8331
1.257 2.866 1.408 7945
1.264 2.883 1.405 5302
1.266 2.887 1.396 5944
1.303 2.971 1.422 7580
1.304 2.974 1.413 7383
1.321 3.011 1.418 5196
1.328 3.028 1.415 4561
1.338 3.052 1.414 4817
1.355 3.089 1.419 5322
1.359 3.099 1.412 7867
1.358 3.096 1.399 9443
1.356 3.092 1.387 7985
1.358 3.096 1.377 4816
1.392 3.174 1.397 5685
1.393 3.177 1.387 8237
1.398 3.187 1.380 7142
1.402 3.197 1.373 5653
1.416 3.228 1.373 8054
1.414 3.224 1.361 8338
1.436 3.276 1.369 7582
1.441 3.286 1.361 8314
1.445 3.296 1.353 7410
1.447 3.299 1.343 6567
1.451 3.309 1.335 6149
1.486 3.388 1.352 6734
1.496 3.412 1.349 9047
1.507 3.436 1.346 6562
1.496 3.411 1.325 4102
1.497 3.415 1.314 6106
1.502 3.425 1.306 5356
1.515 3.455 1.305 4597
1.517 3.458 1.294 5864
1.524 3.475 1.288 5405
1.565 3.569 1.307 4534
1.566 3.572 1.296 4787
1.571 3.582 1.287 4333
1.584 3.613 1.284 3021
1.592 3.630 1.277 4136
1.590 3.626 1.264 4940
1.625 3.705 1.276 5166
1.623 3.701 1.262 3401
1.674 3.816 1.285 2161
1.650 3.763 1.256 3469
1.652 3.766 1.244 6002
1.684 3.839 1.253 7569
1.679 3.828 1.237 9572
1.674 3.817 1.221 9683
1.681 3.834 1.213 9738
1.686 3.844 1.202 8001
1.684 3.840 1.188 3992
1.688 3.849 1.178 3347
1.702 3.880 1.174 3262
1.700 3.876 1.160 3287
1.692 3.858 1.142 2361
1.727 3.938 1.150 2010
1.846 4.209 1.206 2194
1.850 4.219 1.195 2313
1.848 4.214 1.180 1721
1.846 4.210 1.165 2009
1.847 4.213 1.152 2069
1.743 3.975 1.080 2594
1.741 3.970 1.066 2319
1.742 3.973 1.054 1769
1.737 3.961 1.038 2033
1.735 3.956 1.024 2623
1.736 3.958 1.011 2709
1.740 3.968 1.001 1824
2.143 4.888 1.187 2292
1.742 3.972 0.976 3320
1.743 3.975 0.963 3101
0.276 0.629 0.258 2222
0.270 0.615 0.254 2349
2.168 4.944 1.118 1894
2.204 5.025 1.118 2397
2.205 5.028 1.102 1991
2.278 5.194 1.118 1699
2.279 5.197 1.101 2280
2.280 5.200 1.085 3113
2.281 5.202 1.068 3385
2.301 5.247 1.060 2440
2.356 5.372 1.064 1714
2.372 5.410 1.053 2129
2.374 5.412 1.036 2433
2.368 5.400 1.017 2908
2.379 5.424 1.003 2375
2.446 5.577 1.010 2094
2.441 5.565 0.990 2646
2.482 5.661 0.986 2284
2.468 5.627 0.963 2227
2.560 5.838 0.976 2476
2.558 5.833 0.956 2936
2.556 5.828 0.937 2222
2.594 5.916 0.930 1747
2.576 5.875 0.905 1566
2.726 6.215 0.930 1792
2.638 6.016 0.885 2068
2.775 6.328 0.904 2355
2.766 6.308 0.882 2728
2.764 6.303 0.861 2919
2.860 6.521 0.865 2333
2.857 6.516 0.844 3592
2.858 6.518 0.823 3326
2.859 6.519 0.802 2805
2.863 6.528 0.783 2039
3.047 6.949 0.802 1689
3.042 6.936 0.779 1901
3.096 7.061 0.768 1987
3.097 7.062 0.746 1968
3.123 7.122 0.728 2045
3.127 7.131 0.706 1888
3.331 7.595 0.719 1837
3.398 7.748 0.706 2960
3.402 7.757 0.682 4302
3.399 7.751 0.657 4616
3.397 7.745 0.632 4021
3.397 7.747 0.608 2156
3.426 7.813 0.587 1681
3.586 8.176 0.582 1380
3.580 8.163 0.555 1379
3.568 8.135 0.528 1241
3.562 8.122 0.501 928
3.559 8.115 0.475 485
3.636 8.290 0.456 392
3.633 8.284 0.430 306
0.950 2.166 0.025 260
0.950 2.166 0.018 323
0.947 2.158 0.012 393
0.943 2.151 0.006 402
0.940 2.143 -0.001 426
0.943 2.150 -0.008 412
0.946 2.157 -0.015 402
0.949 2.164 -0.022 373
0.955 2.178 -0.030 380
0.952 2.170 -0.036 355
0.951 2.169 -0.043 332
0.948 2.162 -0.049 273
0.810 1.835 1.537 3939
0.812 1.839 1.532 7879
0.834 1.890 1.563 7935
0.838 1.899 1.561 10333
0.840 1.903 1.555 11183
0.844 1.913 1.554 9924
0.849 1.923 1.552 8810
0.850 1.926 1.546 7322
0.863 1.954 1.558 6790
0.864 1.958 1.552 6790
0.869 1.968 1.551 8254
0.876 1.983 1.553 10066
0.880 1.993 1.552 12794
0.884 2.003 1.550 15824
0.886 2.007 1.543 13060
0.890 2.016 1.542 10584
0.892 2.020 1.535 7836
0.896 2.030 1.533 5104
0.917 2.076 1.557 6140
0.918 2.080 1.550 7976
0.923 2.090 1.548 7709
0.922 2.088 1.537 7142
0.921 2.085 1.527 7030
0.930 2.107 1.533 6868
0.937 2.124 1.534 7982
0.942 2.133 1.532 7550
0.946 2.143 1.529 7383
0.986 2.234 1.580 6794
0.991 2.244 1.577 8416
0.992 2.248 1.570 12589
0.994 2.251 1.563 16754
0.996 2.255 1.556 17281
0.997 2.259 1.549 13344
0.991 2.244 1.530 9946
0.992 2.248 1.523 7231
0.994 2.251 1.516 4515
1.007 2.280 1.525 5111
1.014 2.297 1.525 6527
1.018 2.307 1.522 7552
1.028 2.329 1.526 8706
1.033 2.339 1.523 6467
1.037 2.349 1.519 5074
1.042 2.359 1.516 5685
1.052 2.382 1.520 5419
1.062 2.405 1.524 6202
1.063 2.409 1.516 7081
1.062 2.406 1.505 9169
1.061 2.403 1.494 10651
1.065 2.413 1.490 12884
1.067 2.417 1.482 14706
1.068 2.420 1.475 14294
1.073 2.430 1.471 12573
1.080 2.447 1.470 10010
1.087 2.463 1.470 10411
1.089 2.467 1.462 10544
1.091 2.470 1.454 13280
1.095 2.480 1.450 16008
1.096 2.484 1.442 17259
1.101 2.494 1.438 14672
1.108 2.510 1.437 10963
1.110 2.514 1.429 10782
1.129 2.556 1.442 9095
1.130 2.560 1.434 7883
1.132 2.563 1.426 9759
1.130 2.560 1.415 11315
1.129 2.557 1.403 8736
1.206 2.732 1.481 5972
1.207 2.735 1.472 7851
1.200 2.719 1.454 9920
1.199 2.716 1.442 10999
1.227 2.779 1.463 9586
1.228 2.782 1.454 12558
1.233 2.793 1.448 11746
1.237 2.803 1.443 7915
1.256 2.846 1.453 7067
1.264 2.863 1.450 7139
1.268 2.873 1.444 6003
1.261 2.856 1.426 6385
1.260 2.853 1.414 8674
1.264 2.863 1.408 8034
1.271 2.880 1.405 5256
1.300 2.944 1.423 6516
1.310 2.967 1.422 9046
1.311 2.971 1.413 8454
1.313 2.974 1.404 4659
1.344 3.045 1.423 3557
1.358 3.075 1.425 4151
1.362 3.086 1.419 4873
1.367 3.096 1.412 7367
1.365 3.092 1.399 8918
1.364 3.089 1.387 6832
1.362 3.086 1.374 4063
1.403 3.177 1.400 5697
1.401 3.174 1.387 8739
1.405 3.184 1.380 8313
1.410 3.194 1.373 6848
1.420 3.218 1.371 8281
1.419 3.214 1.358 7992
1.441 3.265 1.366 6805
1.449 3.282 1.361 7941
1.456 3.299 1.356 7010
1.461 3.309 1.348 5885
1.459 3.306 1.335 5469
1.494 3.384 1.352 5382
1.508 3.415 1.352 7775
1.512 3.425 1.343 6195
1.504 3.408 1.325 3766
1.506 3.411 1.314 5007
1.513 3.428 1.308 4999
1.521 3.445 1.302 4695
1.525 3.455 1.294 5917
1.542 3.492 1.295 5935
1.571 3.558 1.304 4760
1.575 3.568 1.296 4715
1.576 3.571 1.284 4448
1.562 3.539 1.262 3220
