1.682 1.462 1.576 16432
1.685 1.465 1.570 15754
1.689 1.468 1.563 15076
1.702 1.479 1.565 14555
1.715 1.491 1.568 15454
1.718 1.493 1.561 14112
1.726 1.501 1.559 13199
1.734 1.508 1.557 14139
1.748 1.519 1.558 10626
1.771 1.539 1.569 10070
1.774 1.542 1.562 8846
1.737 1.510 1.522 8953
1.786 1.552 1.553 10815
1.794 1.559 1.550 14425
1.797 1.562 1.543 13020
1.800 1.565 1.536 11614
1.813 1.576 1.538 8819
1.827 1.588 1.539 6625
1.835 1.595 1.536 6974
1.838 1.598 1.529 7357
1.841 1.600 1.522 7445
1.844 1.603 1.515 9535
1.847 1.606 1.508 11624
1.855 1.613 1.505 9938
1.915 1.665 1.541 10974
1.913 1.663 1.530 9616
1.916 1.666 1.523 8309
1.919 1.668 1.515 9950
1.928 1.676 1.512 10462
1.952 1.696 1.520 11709
1.955 1.699 1.512 11391
1.958 1.702 1.505 11072
1.961 1.704 1.497 9478
1.969 1.712 1.494 9984
1.977 1.719 1.490 12480
1.975 1.717 1.479 11326
1.994 1.733 1.482 8164
2.007 1.745 1.482 8011
2.064 1.794 1.510 9111
2.061 1.792 1.499 12152
2.070 1.799 1.495 10486
2.083 1.811 1.494 9362
2.081 1.809 1.483 9863
2.078 1.807 1.471 9554
2.076 1.804 1.460 7969
2.090 1.816 1.459 7245
2.093 1.819 1.451 7671
2.095 1.821 1.443 6892
2.168 1.885 1.479 7662
2.177 1.892 1.474 11924
2.180 1.895 1.466 17629
2.183 1.897 1.458 20304
2.180 1.895 1.446 13582
2.178 1.893 1.435 9911
2.186 1.900 1.430 8801
2.270 1.973 1.470 7934
2.273 1.976 1.462 9228
2.282 1.983 1.456 8696
2.285 1.986 1.448 7586
2.293 1.993 1.442 5212
2.340 2.034 1.459 5249
2.348 2.041 1.453 6314
2.334 2.029 1.435 5392
2.321 2.017 1.416 4386
2.395 2.082 1.447 5153
2.393 2.080 1.435 7555
2.384 2.073 1.420 6957
2.470 2.147 1.456 10609
2.479 2.154 1.450 9659
2.487 2.162 1.443 10806
2.501 2.174 1.440 12849
2.526 2.196 1.442 10701
2.540 2.208 1.438 10375
2.543 2.210 1.428 9980
2.529 2.198 1.410 7485
2.627 2.283 1.448 7878
2.635 2.290 1.441 7612
2.576 2.239 1.401 5020
2.669 2.320 1.435 3495
2.683 2.332 1.430 3848
2.714 2.359 1.434 4468
2.733 2.376 1.431 6439
2.736 2.378 1.421 6459
2.728 2.371 1.405 6540
2.804 2.437 1.429 7256
2.812 2.444 1.421 9267
2.821 2.452 1.413 8729
2.835 2.464 1.407 8447
2.832 2.462 1.394 8298
2.835 2.464 1.383 9847
2.849 2.476 1.377 7874
2.908 2.528 1.391 10690
2.922 2.540 1.385 12651
2.942 2.557 1.381 10045
2.956 2.570 1.375 7473
3.022 2.626 1.390 8406
3.019 2.624 1.376 7593
3.090 2.686 1.393 5595
3.098 2.693 1.383 5943
3.095 2.691 1.369 5078
3.081 2.678 1.350 4796
3.101 2.695 1.345 3574
3.109 2.702 1.336 4422
3.117 2.710 1.326 5076
3.281 2.852 1.375 4123
3.289 2.859 1.365 6255
3.298 2.866 1.355 7344
3.295 2.864 1.340 6045
3.378 2.936 1.357 4663
3.381 2.938 1.344 3961
3.395 2.951 1.335 3910
3.524 3.063 1.367 5907
3.527 3.066 1.353 11156
3.536 3.073 1.342 9892
3.556 3.091 1.334 7307
3.552 3.088 1.319 7901
3.538 3.075 1.299 8122
3.679 3.198 1.332 6034
3.752 3.261 1.340 4683
3.760 3.268 1.328 4569
3.850 3.346 1.341 6049
3.858 3.354 1.328 6943
3.867 3.361 1.315 5972
3.887 3.378 1.305 4526
3.901 3.391 1.294 4999
3.979 3.459 1.301 4255
3.982 3.461 1.286 4048
4.002 3.478 1.276 2624
4.238 3.684 1.327 3592
4.246 3.691 1.312 4517
4.249 3.693 1.296 2788
4.322 3.757 1.299 2497
4.225 3.672 1.255 3034
4.303 3.741 1.259 2891
4.376 3.804 1.261 3111
4.613 4.010 1.304 4998
4.616 4.012 1.286 6447
4.624 4.020 1.270 4970
4.680 4.068 1.265 4496
4.682 4.070 1.247 4006
4.790 4.164 1.254 3837
4.663 4.054 1.206 2703
5.043 4.383 1.274 2409
5.234 4.549 1.296 2505
5.230 4.546 1.275 3883
5.221 4.538 1.252 3862
5.530 4.807 1.297 2896
5.373 4.671 1.243 2347
5.541 4.816 1.256 2337
5.544 4.819 1.234 2477
5.694 4.949 1.242 2226
6.305 5.481 1.336 2919
6.308 5.483 1.312 4574
6.322 5.495 1.290 5952
6.325 5.498 1.266 7014
6.327 5.500 1.242 5719
6.330 5.502 1.217 3549
6.320 5.494 1.191 2500
6.524 5.671 1.200 2443
7.019 6.101 1.253 2558
7.021 6.103 1.226 3130
7.024 6.105 1.199 3496
7.026 6.107 1.172 3845
7.028 6.109 1.145 3937
7.030 6.111 1.118 3786
7.032 6.113 1.091 3151
7.034 6.115 1.064 2313
7.756 6.742 1.129 2405
7.776 6.759 1.102 2547
7.844 6.818 1.080 2516
7.834 6.809 1.048 3047
7.866 6.837 1.021 3001
7.873 6.844 0.992 3616
7.881 6.850 0.962 2572
9.146 7.950 1.059 1372
9.148 7.952 1.024 1534
9.382 8.155 1.010 1529
9.384 8.157 0.974 1884
9.386 8.159 0.938 1440
10.527 9.150 0.995 985
10.612 9.224 0.961 877
10.119 8.795 0.883 818
10.860 9.440 0.896 762
10.874 9.452 0.855 809
11.019 9.578 0.822 764
13.909 12.090 0.948 774
13.905 12.086 0.894 756
13.906 12.088 0.841 803
14.320 12.447 0.806 742
14.321 12.448 0.751 637
14.317 12.444 0.695 560
14.318 12.445 0.640 423
14.271 12.405 0.583 386
14.272 12.406 0.528 291
1.919 1.668 -0.137 262
1.913 1.662 -0.144 291
1.912 1.662 -0.151 329
1.911 1.661 -0.158 339
1.911 1.661 -0.165 406
1.568 1.352 1.583 6636
1.571 1.354 1.578 13272
1.574 1.357 1.572 14353
1.577 1.360 1.566 16561
1.580 1.363 1.560 17687
1.584 1.365 1.554 14550
1.592 1.372 1.552 11447
1.590 1.371 1.542 13974
1.593 1.373 1.536 16533
1.601 1.380 1.534 16370
1.604 1.383 1.528 15468
1.617 1.394 1.531 15629
1.680 1.448 1.578 12563
1.688 1.456 1.576 16184
1.691 1.458 1.570 14771
1.700 1.465 1.567 13482
1.708 1.472 1.565 12484
1.726 1.488 1.572 12651
1.724 1.486 1.561 11212
1.727 1.489 1.555 9994
1.735 1.496 1.552 10315
1.764 1.521 1.567 8476
1.777 1.532 1.569 8707
1.780 1.535 1.562 8059
1.804 1.555 1.572 7424
1.807 1.558 1.565 10884
1.810 1.561 1.558 14345
1.819 1.568 1.555 12695
1.822 1.571 1.549 11065
1.825 1.573 1.542 7398
1.833 1.580 1.539 4089
1.841 1.588 1.536 4532
1.855 1.599 1.537 6391
1.858 1.602 1.530 7858
1.850 1.595 1.515 9081
1.854 1.598 1.508 10534
1.919 1.655 1.548 8686
1.922 1.657 1.541 11182
1.920 1.655 1.530 10430
1.913 1.649 1.515 10065
1.916 1.652 1.508 10464
1.940 1.672 1.516 9684
1.959 1.689 1.520 12611
1.967 1.696 1.516 11946
1.970 1.698 1.509 11659
1.983 1.710 1.509 11087
1.992 1.717 1.505 12686
1.995 1.720 1.497 13601
1.992 1.718 1.486 10695
2.006 1.730 1.486 7714
2.014 1.737 1.482 8452
2.039 1.758 1.489 9663
2.068 1.783 1.499 11942
2.077 1.791 1.495 10417
2.085 1.798 1.491 10906
2.083 1.796 1.479 12992
2.086 1.798 1.471 12854
2.083 1.796 1.460 11699
2.097 1.808 1.459 11344
2.105 1.815 1.454 11819
2.103 1.813 1.443 9084
2.176 1.876 1.479 10073
2.179 1.879 1.471 14322
2.187 1.886 1.466 18219
2.190 1.888 1.458 19150
2.188 1.886 1.446 12081
2.185 1.884 1.435 8051
2.243 1.934 1.459 8936
2.251 1.941 1.454 8821
2.287 1.972 1.465 9905
2.290 1.974 1.456 10288
2.287 1.972 1.444 10258
2.279 1.965 1.429 8039
2.282 1.967 1.421 5529
2.373 2.046 1.462 3628
2.403 2.072 1.469 3680
2.345 2.022 1.426 4448
2.398 2.068 1.444 5649
2.395 2.065 1.432 8313
2.398 2.068 1.423 6533
2.479 2.137 1.456 11171
2.487 2.144 1.450 11740
2.496 2.152 1.443 13578
2.510 2.164 1.440 14462
2.529 2.181 1.439 10906
2.554 2.202 1.441 10076
2.546 2.195 1.425 10373
2.543 2.193 1.413 9187
2.636 2.272 1.448 7557
2.644 2.280 1.441 7432
2.613 2.253 1.414 6419
2.622 2.261 1.407 4308
2.720 2.345 1.444 4021
2.729 2.353 1.436 5244
2.737 2.360 1.429 6396
2.734 2.358 1.416 6909
2.732 2.355 1.403 7878
2.819 2.431 1.432 7164
2.828 2.438 1.424 9015
2.842 2.450 1.418 8605
2.850 2.458 1.410 8153
2.848 2.455 1.396 7334
2.845 2.453 1.383 8184
2.881 2.484 1.387 7518
2.924 2.521 1.394 11189
2.938 2.533 1.387 14000
2.958 2.550 1.384 11822
2.967 2.558 1.375 8001
3.044 2.624 1.395 8364
3.052 2.631 1.385 8044
3.106 2.678 1.395 7134
3.121 2.691 1.388 7354
3.118 2.688 1.374 5647
3.103 2.675 1.355 5072
3.152 2.717 1.361 4598
3.149 2.715 1.347 4892
3.128 2.697 1.326 4840
3.286 2.834 1.373 4208
3.306 2.851 1.367 6145
3.321 2.863 1.359 7327
3.335 2.875 1.351 6529
3.372 2.908 1.351 6580
3.381 2.915 1.340 4520
3.412 2.942 1.337 3232
3.548 3.059 1.371 6859
3.545 3.057 1.355 13127
3.542 3.054 1.340 11474
3.603 3.106 1.346 7233
3.611 3.114 1.334 7591
3.550 3.061 1.299 10071
3.558 3.068 1.288 8600
3.759 3.241 1.338 6198
3.796 3.273 1.335 4595
3.799 3.275 1.320 5503
3.872 3.338 1.328 5644
3.857 3.325 1.308 4764
3.912 3.373 1.309 4589
3.914 3.375 1.294 5438
3.993 3.443 1.301 3595
3.996 3.445 1.286 3980
4.074 3.513 1.293 2679
4.200 3.621 1.312 4022
4.197 3.618 1.294 3886
4.182 3.605 1.273 2875
4.343 3.744 1.300 2534
4.240 3.655 1.255 2207
4.313 3.718 1.258 2597
4.650 4.010 1.328 3057
4.559 3.931 1.286 4893
4.638 3.999 1.288 5097
4.646 4.006 1.272 4736
4.661 4.018 1.257 4203
4.693 4.046 1.246 3168
4.943 4.262 1.286 3108
4.686 4.040 1.207 3035
4.688 4.042 1.189 2782
5.252 4.528 1.296 2647
5.243 4.520 1.274 3848
5.233 4.512 1.251 4308
5.544 4.780 1.296 3005
5.434 4.685 1.251 2550
5.418 4.672 1.227 2150
5.563 4.796 1.234 2032
5.714 4.926 1.242 2314
5.853 5.046 1.246 1894
6.330 5.458 1.312 3357
6.344 5.470 1.290 4775
6.347 5.472 1.266 5992
6.355 5.479 1.243 5034
6.358 5.482 1.218 2789
6.657 5.740 1.243 2382
7.041 6.070 1.280 2140
7.043 6.073 1.253 2905
7.046 6.075 1.226 3279
7.048 6.077 1.199 3655
7.050 6.079 1.172 4115
7.053 6.081 1.145 4544
7.055 6.083 1.118 4762
7.057 6.084 1.091 3803
7.775 6.703 1.158 2666
7.777 6.705 1.128 3752
7.797 6.723 1.101 3741
7.811 6.735 1.072 3257
7.819 6.742 1.043 2895
7.887 6.800 1.020 2534
7.901 6.812 0.992 2782
7.921 6.829 0.963 2003
9.178 7.913 1.059 1553
9.186 7.920 1.025 1675
9.421 8.123 1.011 1531
9.423 8.124 0.975 1499
9.419 8.121 0.938 1212
10.564 9.108 0.995 965
10.110 8.717 0.919 776
10.884 9.384 0.937 961
10.892 9.391 0.896 929
12.469 10.750 0.958 1009
12.470 10.752 0.910 948
14.083 12.142 0.955 884
14.085 12.144 0.901 934
14.087 12.145 0.847 891
14.376 12.395 0.806 970
14.377 12.396 0.751 906
14.373 12.392 0.696 805
14.374 12.393 0.640 563
14.381 12.399 0.585 421
14.340 12.364 0.529 276
1.932 1.666 -0.138 269
1.931 1.665 -0.146 298
1.925 1.659 -0.152 330
1.918 1.654 -0.158 340
1.917 1.653 -0.165 407
1.580 1.347 1.588 6667
1.584 1.350 1.582 13334
1.587 1.352 1.576 14081
1.585 1.351 1.566 15284
1.593 1.358 1.564 15696
1.596 1.360 1.558 13360
1.594 1.359 1.548 11076
1.598 1.362 1.542 14328
1.601 1.364 1.536 17580
1.609 1.371 1.534 17236
1.612 1.374 1.528 16151
1.625 1.385 1.531 16085
1.638 1.396 1.534 11985
1.696 1.446 1.576 14560
1.705 1.453 1.574 12960
1.713 1.460 1.572 11493
1.721 1.467 1.570 9912
1.740 1.483 1.576 9916
1.738 1.481 1.565 8282
1.700 1.449 1.525 9486
1.708 1.456 1.523 9342
1.711 1.459 1.516 9365
1.725 1.470 1.518 8940
1.789 1.525 1.562 7864
1.813 1.545 1.572 8332
1.821 1.552 1.569 11453
1.829 1.559 1.566 14786
1.833 1.562 1.560 13519
1.841 1.569 1.557 12277
1.844 1.572 1.550 8275
1.863 1.588 1.555 3496
1.882 1.603 1.560 3093
1.874 1.597 1.545 4523
1.872 1.596 1.534 6427
1.865 1.589 1.519 6431
1.863 1.587 1.508 6804
1.929 1.644 1.548 8282
1.932 1.646 1.541 11154
1.935 1.649 1.534 11024
1.933 1.647 1.523 11030
1.936 1.650 1.515 9173
1.970 1.679 1.531 8889
1.968 1.677 1.520 12026
1.982 1.689 1.520 12054
1.990 1.696 1.516 13488
1.999 1.703 1.512 14996
2.002 1.706 1.505 15447
2.005 1.708 1.497 14150
2.008 1.711 1.490 10117
2.021 1.723 1.490 7017
2.030 1.730 1.486 8398
2.038 1.737 1.482 9204
2.073 1.767 1.495 9830
2.087 1.779 1.495 9571
2.090 1.781 1.487 12912
2.093 1.784 1.479 16588
2.096 1.786 1.471 16693
2.094 1.784 1.460 15267
2.107 1.796 1.459 13498
2.116 1.803 1.454 13753
2.113 1.801 1.443 9819
2.187 1.864 1.479 14829
2.190 1.866 1.471 19660
2.193 1.869 1.463 20446
2.201 1.876 1.458 17165
2.209 1.883 1.453 9524
2.245 1.913 1.464 9820
2.248 1.916 1.456 11612
2.251 1.918 1.447 10868
2.232 1.902 1.426 9727
2.240 1.909 1.421 10983
2.282 1.945 1.435 11694
2.290 1.952 1.429 9623
2.293 1.954 1.421 6292
2.373 2.023 1.456 4608
2.371 2.020 1.444 7113
2.374 2.023 1.435 8090
2.376 2.025 1.426 7086
2.407 2.051 1.432 7350
2.482 2.116 1.462 5993
2.469 2.104 1.444 11004
2.488 2.121 1.444 12522
2.508 2.137 1.443 14914
2.522 2.149 1.440 14787
2.536 2.161 1.436 10829
2.567 2.188 1.441 8872
2.553 2.176 1.422 9536
2.561 2.183 1.416 9821
2.570 2.190 1.409 8972
2.595 2.212 1.410 8012
2.626 2.238 1.414 7624
2.578 2.197 1.380 5743
2.592 2.209 1.375 4542
2.657 2.265 1.396 5897
2.671 2.277 1.391 9130
2.686 2.289 1.386 7859
2.734 2.330 1.397 8985
2.737 2.332 1.387 7814
2.842 2.422 1.424 8534
2.862 2.439 1.421 8538
2.870 2.446 1.412 7745
2.862 2.439 1.396 5979
2.864 2.441 1.386 6043
2.901 2.473 1.390 6680
2.938 2.504 1.394 10853
2.958 2.521 1.390 14860
2.973 2.533 1.384 12525
2.975 2.536 1.372 7446
3.064 2.612 1.397 8323
3.084 2.629 1.392 9704
3.104 2.646 1.388 9315
3.130 2.668 1.385 7709
3.127 2.665 1.371 5224
3.176 2.707 1.378 4166
3.173 2.704 1.363 6310
3.176 2.706 1.351 5369
3.207 2.733 1.350 4611
3.308 2.820 1.375 4025
3.323 2.832 1.367 5708
3.337 2.844 1.359 5441
3.369 2.871 1.357 6809
3.377 2.878 1.346 6813
3.392 2.890 1.338 4124
3.511 2.992 1.366 3649
3.566 3.039 1.371 6727
3.563 3.036 1.355 12335
3.565 3.038 1.342 9520
3.615 3.081 1.344 8621
3.623 3.088 1.332 10011
3.567 3.040 1.299 9119
3.576 3.047 1.288 9368
3.766 3.209 1.334 6907
3.803 3.241 1.331 3527
3.824 3.259 1.322 4667
3.838 3.271 1.311 4571
3.864 3.293 1.304 5347
3.925 3.345 1.307 4916
3.934 3.353 1.294 5851
3.930 3.350 1.277 3652
4.021 3.427 1.288 4159
4.195 3.575 1.321 2531
4.215 3.592 1.310 4229
4.200 3.579 1.289 4616
4.196 3.576 1.272 3643
4.382 3.734 1.305 2271
4.384 3.737 1.288 2418
4.363 3.719 1.265 3233
4.431 3.776 1.266 3257
4.575 3.899 1.285 3995
4.584 3.907 1.269 3763
4.693 3.999 1.277 4641
4.689 3.997 1.258 4264
4.704 4.009 1.243 2997
4.967 4.233 1.286 3405
4.792 4.084 1.226 3156
4.711 4.015 1.189 2800
5.254 4.478 1.291 2607
5.251 4.475 1.270 3591
5.253 4.477 1.250 3978
5.262 4.484 1.231 2711
5.460 4.654 1.251 2719
5.457 4.651 1.229 3004
5.459 4.653 1.208 2609
5.754 4.904 1.244 1983
5.762 4.911 1.223 1877
5.872 5.004 1.221 2060
6.376 5.434 1.290 2794
6.384 5.441 1.267 3708
6.381 5.438 1.242 3344
6.688 5.700 1.269 2724
6.690 5.702 1.243 2455
7.075 6.030 1.280 1923
6.898 5.879 1.225 2661
6.895 5.876 1.197 3889
6.903 5.883 1.172 4416
6.911 5.890 1.147 4745
7.081 6.035 1.144 4445
7.084 6.037 1.117 5157
7.086 6.039 1.090 3983
7.819 6.664 1.159 3371
7.821 6.666 1.129 4341
7.830 6.673 1.100 4217
7.844 6.685 1.072 3564
7.858 6.697 1.043 3075
7.854 6.693 1.012 2299
7.856 6.695 0.982 1740
7.846 6.686 0.951 1752
9.223 7.860 1.059 1588
9.231 7.867 1.025 1752
9.233 7.869 0.989 1495
9.241 7.875 0.955 1381
9.243 7.877 0.919 1256
9.232 7.868 0.883 1038
12.163 10.366 1.074 920
10.938 9.322 0.937 1056
12.528 10.677 1.006 1045
12.530 10.679 0.958 1193
12.532 10.680 0.910 1113
14.153 12.062 0.955 977
14.161 12.068 0.902 1001
14.427 12.295 0.861 977
14.435 12.302 0.806 945
14.171 12.077 0.739 807
14.437 12.304 0.695 662
14.427 12.295 0.640 446
14.416 12.285 0.584 382
14.416 12.286 0.529 295
14.170 12.076 0.468 252
1.947 1.660 -0.139 298
1.941 1.654 -0.146 325
1.940 1.653 -0.153 352
1.933 1.648 -0.159 362
1.933 1.647 -0.166 433
1.588 1.338 1.588 6351
1.591 1.341 1.582 12702
1.594 1.344 1.576 13169
1.597 1.346 1.570 13684
1.600 1.349 1.564 13731
1.604 1.352 1.558 12468
1.607 1.354 1.552 11206
1.605 1.353 1.542 14178
1.608 1.355 1.536 17247
1.611 1.358 1.530 16953
1.619 1.365 1.528 15694
1.633 1.376 1.531 15230
1.641 1.383 1.530 10875
1.709 1.441 1.580 12519
1.718 1.448 1.578 11352
1.726 1.455 1.576 10581
1.739 1.466 1.578 8874
1.753 1.477 1.580 8931
1.761 1.484 1.578 8210
1.708 1.440 1.525 9233
1.711 1.442 1.518 8970
1.719 1.449 1.516 9182
1.738 1.465 1.522 9898
1.797 1.515 1.562 8073
1.821 1.535 1.572 9041
1.830 1.542 1.569 11621
1.838 1.549 1.566 14734
1.846 1.556 1.564 14328
1.849 1.559 1.557 14054
1.853 1.562 1.550 10711
1.856 1.564 1.543 5967
1.864 1.571 1.540 4059
1.862 1.569 1.529 3686
1.881 1.585 1.534 4213
1.900 1.601 1.539 4160
1.924 1.622 1.548 4908
1.937 1.633 1.548 7581
1.946 1.640 1.545 10568
1.949 1.643 1.538 10913
1.952 1.645 1.530 11258
1.955 1.648 1.523 9383
1.979 1.668 1.531 8596
1.983 1.671 1.523 9796
1.996 1.683 1.524 11643
2.005 1.690 1.520 14752
2.008 1.692 1.512 16706
2.011 1.695 1.505 15536
2.014 1.698 1.497 12413
2.017 1.700 1.490 8279
2.031 1.712 1.490 5577
2.039 1.719 1.486 6986
2.042 1.721 1.478 7569
2.050 1.728 1.474 6247
2.097 1.767 1.495 8299
2.100 1.770 1.487 14971
2.103 1.772 1.479 19450
2.106 1.775 1.471 19744
2.109 1.777 1.463 17159
2.117 1.784 1.459 13198
2.131 1.796 1.458 13119
2.161 1.822 1.467 9311
2.197 1.852 1.479 18445
2.200 1.854 1.471 24482
2.203 1.857 1.463 22621
2.211 1.864 1.458 14649
2.236 1.885 1.463 8708
2.250 1.897 1.461 10071
2.253 1.899 1.453 10891
2.245 1.892 1.438 9115
2.237 1.885 1.423 9142
2.251 1.897 1.421 11082
2.265 1.909 1.419 12023
2.267 1.911 1.410 9134
2.270 1.914 1.402 5874
2.379 2.005 1.453 6531
2.387 2.012 1.447 8638
2.390 2.015 1.438 8980
2.393 2.017 1.429 7055
2.413 2.034 1.429 5538
2.477 2.088 1.453 7571
2.474 2.086 1.441 10741
2.477 2.088 1.432 11122
2.514 2.119 1.440 12703
2.534 2.136 1.440 12509
2.548 2.148 1.436 9597
2.556 2.155 1.429 6866
2.570 2.167 1.425 7616
2.573 2.169 1.416 9983
2.582 2.176 1.409 11125
2.590 2.183 1.402 9166
2.638 2.224 1.414 7691
2.596 2.188 1.382 8161
2.610 2.200 1.378 7943
2.664 2.245 1.393 7343
2.678 2.257 1.388 9753
2.698 2.274 1.386 7361
2.746 2.315 1.397 9186
2.749 2.317 1.387 8244
2.855 2.406 1.424 8210
2.869 2.418 1.418 7507
2.889 2.435 1.415 7162
2.846 2.399 1.384 5193
2.952 2.488 1.418 5994
2.944 2.481 1.402 6443
2.958 2.493 1.396 8827
2.972 2.505 1.390 12284
2.986 2.517 1.384 10077
2.983 2.515 1.370 6077
3.090 2.605 1.402 8569
3.099 2.612 1.392 11072
3.113 2.624 1.385 9865
3.145 2.651 1.385 6445
3.165 2.668 1.380 4090
3.197 2.694 1.380 4908
3.193 2.692 1.366 5923
3.196 2.694 1.354 4935
3.228 2.721 1.353 5249
3.347 2.821 1.384 4579
3.338 2.814 1.367 5320
3.399 2.865 1.376 4567
3.396 2.862 1.361 4881
3.399 2.865 1.348 4163
3.524 2.970 1.379 3535
3.527 2.973 1.366 4646
3.518 2.965 1.349 5876
3.579 3.017 1.355 8320
3.617 3.049 1.354 7718
3.620 3.051 1.340 11934
3.628 3.058 1.329 13021
3.643 3.070 1.319 9320
3.598 3.033 1.290 5892
3.795 3.199 1.338 6407
3.809 3.211 1.328 3933
3.853 3.248 1.326 2921
3.856 3.250 1.311 3877
3.882 3.272 1.304 5192
3.938 3.319 1.305 5290
3.946 3.326 1.292 5743
4.031 3.398 1.301 4070
4.034 3.400 1.286 4192
4.119 3.472 1.294 3053
4.134 3.484 1.282 3640
4.213 3.551 1.288 3562
4.210 3.548 1.270 2781
4.402 3.711 1.305 1981
4.405 3.713 1.288 2652
4.389 3.700 1.267 3460
4.505 3.797 1.279 3703
4.709 3.970 1.313 3953
4.718 3.977 1.297 3979
4.721 3.979 1.279 4692
4.717 3.976 1.259 4235
4.743 3.998 1.247 3227
4.919 4.146 1.269 3069
4.814 4.058 1.226 2790
4.924 4.150 1.232 2681
5.057 4.263 1.242 3227
5.269 4.441 1.268 3483
5.277 4.448 1.250 3166
5.471 4.612 1.269 3038
5.474 4.614 1.249 2707
5.476 4.616 1.228 3173
5.479 4.618 1.207 2876
5.481 4.620 1.186 2176
5.807 4.894 1.227 1732
6.253 5.270 1.287 2179
6.255 5.272 1.263 3128
6.264 5.280 1.240 2990
6.284 5.297 1.220 2582
6.719 5.663 1.269 2195
6.721 5.665 1.243 1942
6.934 5.845 1.252 2203
6.924 5.836 1.224 3285
6.933 5.844 1.198 5181
6.935 5.846 1.172 6405
6.943 5.853 1.147 6438
6.946 5.854 1.120 5247
7.110 5.993 1.116 4891
7.106 5.990 1.089 3758
7.855 6.621 1.159 3478
7.858 6.623 1.129 3744
7.872 6.635 1.101 3758
7.880 6.642 1.072 3336
7.882 6.644 1.042 2730
7.890 6.650 1.012 2004
7.850 6.616 0.978 1546
7.870 6.633 0.950 1904
9.501 8.008 1.083 1477
9.014 7.598 1.000 1640
9.016 7.600 0.965 1434
9.284 7.825 0.955 1318
9.279 7.821 0.919 1206
9.378 7.904 0.891 981
12.219 10.300 1.074 996
10.983 9.257 0.937 986
12.586 10.609 1.006 961
12.588 10.610 0.958 1105
12.590 10.612 0.910 1043
14.218 11.984 0.955 840
14.480 12.205 0.915 931
14.488 12.212 0.860 946
14.495 12.218 0.806 806
13.734 11.577 0.718 793
13.736 11.578 0.666 754
13.737 11.579 0.614 533
14.337 12.084 0.580 399
14.338 12.085 0.525 348
14.339 12.086 0.470 296
1.950 1.644 -0.138 287
1.950 1.643 -0.146 325
1.943 1.638 -0.152 366
1.942 1.637 -0.159 377
1.936 1.632 -0.165 453
1.595 1.330 1.588 5742
1.598 1.332 1.582 11484
1.596 1.331 1.572 11574
1.604 1.338 1.570 11899
1.613 1.345 1.569 12325
1.611 1.343 1.558 11765
1.614 1.346 1.552 11355
1.617 1.348 1.546 13605
1.615 1.347 1.536 16171
1.618 1.349 1.530 15988
1.627 1.356 1.528 14876
1.635 1.363 1.527 14198
1.643 1.370 1.525 9742
1.722 1.436 1.585 10797
1.730 1.443 1.583 10847
1.734 1.446 1.576 11001
1.742 1.452 1.574 9229
1.766 1.472 1.585 8984
1.769 1.475 1.578 8798
1.711 1.426 1.521 8371
1.765 1.472 1.557 8251
1.768 1.474 1.550 9080
1.771 1.477 1.543 9910
1.806 1.505 1.562 7710
1.829 1.525 1.572 8735
1.838 1.532 1.569 11082
1.846 1.539 1.566 13947
1.855 1.546 1.564 14685
1.858 1.549 1.557 15556
1.861 1.552 1.550 12829
1.859 1.550 1.539 8763
1.867 1.557 1.536 6685
1.865 1.555 1.525 5431
1.895 1.580 1.538 5010
1.903 1.587 1.535 5829
1.911 1.594 1.532 6885
1.925 1.605 1.532 6497
1.955 1.630 1.545 8984
1.958 1.632 1.538 10112
1.961 1.635 1.530 11241
1.964 1.638 1.523 10596
1.983 1.653 1.527 7438
1.997 1.665 1.527 6806
2.005 1.672 1.524 10317
2.008 1.675 1.516 13970
2.017 1.682 1.512 15544
2.020 1.684 1.505 13289
2.023 1.687 1.497 9394
2.031 1.694 1.494 5934
2.078 1.732 1.515 4239
2.054 1.712 1.489 5381
2.046 1.706 1.474 5595
2.054 1.713 1.470 4800
2.101 1.751 1.491 7189
2.109 1.759 1.487 16510
2.112 1.761 1.479 21336
2.115 1.764 1.471 21632
2.124 1.771 1.467 17781
2.132 1.778 1.462 12148
2.151 1.794 1.465 12933
2.176 1.815 1.470 12297
2.201 1.835 1.476 20512
2.204 1.838 1.468 27324
2.207 1.840 1.459 24143
2.216 1.847 1.455 13074
2.235 1.864 1.456 8480
2.244 1.871 1.451 10689
2.241 1.869 1.440 11771
2.244 1.871 1.431 9575
2.247 1.873 1.423 7173
2.261 1.885 1.421 8770
2.269 1.892 1.416 9803
2.266 1.890 1.404 8400
2.275 1.897 1.399 6748
2.389 1.992 1.453 6976
2.404 2.004 1.450 7407
2.412 2.011 1.444 8314
2.415 2.014 1.435 7850
2.412 2.011 1.423 7182
2.494 2.079 1.456 9763
2.491 2.077 1.444 9130
2.483 2.070 1.429 8234
2.469 2.058 1.411 9647
2.472 2.061 1.401 8428
2.559 2.134 1.436 7181
2.573 2.146 1.432 5405
2.582 2.153 1.425 6440
2.585 2.155 1.416 10391
2.593 2.162 1.409 12286
2.613 2.179 1.408 9548
2.616 2.181 1.398 7493
2.613 2.179 1.385 9879
2.622 2.186 1.378 10825
2.664 2.222 1.387 8363
2.684 2.238 1.386 8786
2.779 2.317 1.418 8716
2.776 2.315 1.405 8149
2.848 2.374 1.426 7035
2.850 2.377 1.416 8194
2.870 2.393 1.413 6138
2.908 2.425 1.417 6487
2.870 2.393 1.389 4902
2.862 2.386 1.373 5371
2.962 2.470 1.405 5866
2.960 2.468 1.391 6054
2.985 2.489 1.390 6840
2.988 2.492 1.379 7013
3.101 2.586 1.413 5446
3.104 2.588 1.402 8696
3.113 2.595 1.392 10367
3.121 2.602 1.383 7325
3.170 2.643 1.390 4115
3.196 2.665 1.387 3623
3.211 2.677 1.380 5167
3.214 2.680 1.368 5461
3.234 2.696 1.363 5158
3.248 2.708 1.355 5323
3.356 2.798 1.382 4870
3.359 2.801 1.369 4811
3.414 2.847 1.376 4063
3.364 2.805 1.344 3519
3.531 2.944 1.390 5899
3.528 2.942 1.375 5393
3.531 2.944 1.362 4728
3.540 2.951 1.351 6105
3.542 2.953 1.337 6194
3.633 3.029 1.354 7488
3.636 3.032 1.340 14450
3.639 3.034 1.327 16376
3.647 3.041 1.315 9144
3.821 3.186 1.356 6637
3.824 3.188 1.342 6577
3.832 3.195 1.329 4057
3.876 3.232 1.328 4257
3.873 3.229 1.311 4410
3.899 3.251 1.304 4524
3.961 3.303 1.307 4280
3.964 3.305 1.292 5016
4.067 3.391 1.306 3569
4.129 3.443 1.308 4205
4.126 3.440 1.291 4695
4.152 3.462 1.282 3790
4.173 3.479 1.271 3117
4.229 3.526 1.270 2474
4.356 3.632 1.287 2037
4.359 3.634 1.271 2852
4.391 3.661 1.262 3335
4.400 3.668 1.247 3021
4.743 3.954 1.316 3710
4.745 3.956 1.298 4161
4.742 3.954 1.279 4584
4.738 3.951 1.259 4483
4.759 3.968 1.246 2985
4.929 4.110 1.267 2544
4.937 4.117 1.249 3097
4.952 4.129 1.233 2870
5.080 4.236 1.242 3588
5.077 4.233 1.222 3542
5.505 4.590 1.293 2902
5.496 4.582 1.269 3006
5.450 4.544 1.239 3340
5.477 4.566 1.223 2725
5.491 4.578 1.205 2376
5.493 4.580 1.184 2035
5.833 4.863 1.227 1808
5.853 4.880 1.208 2019
6.283 5.239 1.263 2688
5.611 4.678 1.120 2637
5.619 4.685 1.100 3147
5.621 4.687 1.079 2620
6.969 5.810 1.279 1537
6.959 5.802 1.251 2128
6.955 5.799 1.224 3486
6.964 5.806 1.198 5996
6.966 5.808 1.172 7817
6.968 5.810 1.146 7552
6.977 5.817 1.120 5515
6.985 5.824 1.095 4245
7.846 6.542 1.183 4078
7.836 6.534 1.152 4252
7.832 6.531 1.122 4244
7.835 6.532 1.092 3545
7.837 6.534 1.062 3003
7.833 6.531 1.032 2890
7.865 6.558 1.006 2476
7.873 6.564 0.977 2540
7.881 6.571 0.947 2278
7.901 6.588 0.919 1454
9.055 7.550 1.000 1383
10.203 8.507 1.070 1233
10.205 8.509 1.032 1363
10.389 8.662 1.008 1192
10.664 8.892 0.991 1083
10.666 8.893 0.951 1031
13.776 11.486 1.136 934
13.784 11.493 1.084 987
13.798 11.505 1.033 916
13.800 11.507 0.980 853
13.802 11.508 0.928 941
13.798 11.504 0.875 1115
13.799 11.506 0.823 934
13.795 11.502 0.770 849
13.796 11.503 0.718 943
13.797 11.504 0.666 886
13.798 11.505 0.614 613
13.909 11.597 0.565 420
13.910 11.598 0.512 334
13.904 11.593 0.459 254
1.958 1.633 -0.146 301
1.958 1.632 -0.153 357
1.951 1.627 -0.159 366
1.950 1.626 -0.166 422
1.598 1.316 1.583 5367
1.601 1.319 1.578 10734
1.604 1.322 1.572 10440
1.617 1.333 1.575 10916
1.631 1.343 1.578 12672
1.629 1.342 1.567 12030
1.627 1.340 1.557 11595
1.625 1.339 1.546 13068
1.623 1.337 1.536 14803
1.626 1.340 1.530 14747
1.635 1.347 1.528 14206
1.643 1.353 1.527 13809
1.646 1.356 1.521 9945
1.736 1.430 1.589 10284
1.739 1.433 1.583 11075
1.742 1.435 1.576 11866
1.750 1.442 1.574 9858
1.774 1.462 1.585 9013
1.777 1.464 1.578 8821
1.776 1.463 1.567 8310
1.774 1.461 1.557 8035
1.777 1.464 1.550 8580
1.780 1.467 1.543 9125
1.783 1.469 1.537 6856
1.844 1.519 1.576 7353
1.847 1.522 1.569 9969
1.855 1.528 1.566 12835
1.864 1.535 1.564 14351
1.867 1.538 1.557 16083
1.870 1.541 1.550 13552
1.873 1.543 1.543 9863
1.876 1.546 1.536 8042
1.885 1.553 1.533 6885
1.904 1.569 1.538 7536
1.907 1.571 1.531 8585
1.910 1.574 1.524 9635
1.924 1.585 1.525 7693
1.964 1.618 1.545 7054
1.962 1.616 1.534 8980
1.965 1.619 1.526 11017
1.968 1.622 1.519 11355
1.982 1.633 1.519 8151
1.990 1.640 1.516 6028
2.004 1.651 1.516 8670
2.013 1.658 1.512 12040
2.027 1.670 1.512 12750
2.030 1.672 1.505 10390
2.038 1.679 1.501 6979
2.047 1.686 1.497 4909
2.088 1.720 1.515 5842
2.091 1.723 1.507 7240
2.083 1.716 1.492 5799
2.086 1.719 1.485 4841
2.111 1.739 1.491 8159
2.119 1.746 1.487 17056
2.122 1.749 1.479 21628
2.131 1.756 1.475 21551
2.134 1.758 1.467 17282
2.175 1.792 1.483 11858
2.189 1.804 1.482 14399
2.192 1.806 1.474 15573
2.201 1.813 1.469 22268
2.209 1.820 1.464 28245
2.212 1.823 1.456 25158
2.221 1.830 1.451 13927
2.240 1.846 1.453 9718
2.249 1.853 1.448 12690
2.252 1.855 1.440 14367
2.255 1.858 1.431 11958
2.263 1.865 1.426 6497
2.283 1.881 1.427 6394
2.280 1.879 1.416 7680
2.283 1.881 1.407 7836
2.286 1.883 1.399 7641
2.390 1.969 1.447 6910
2.432 2.004 1.459 7119
2.441 2.011 1.453 9052
2.432 2.004 1.438 8560
2.492 2.053 1.460 8431
2.500 2.060 1.453 10865
2.509 2.067 1.447 7745
2.472 2.037 1.417 6907
2.481 2.044 1.411 9328
2.489 2.051 1.404 6869
2.589 2.133 1.445 5018
2.609 2.149 1.444 4635
2.600 2.142 1.428 6742
2.597 2.140 1.416 10226
2.617 2.157 1.414 11086
2.632 2.168 1.410 9667
2.635 2.171 1.401 7694
2.637 2.173 1.391 10113
2.640 2.175 1.381 11292
2.672 2.201 1.385 8960
2.789 2.298 1.429 8109
2.792 2.301 1.418 11640
2.807 2.312 1.413 7270
2.856 2.353 1.424 7123
2.858 2.355 1.413 8385
2.850 2.348 1.397 5484
2.928 2.412 1.420 6423
2.936 2.419 1.412 5923
2.881 2.374 1.375 6223
2.977 2.453 1.405 5480
2.968 2.445 1.389 5778
3.035 2.500 1.405 6238
3.009 2.479 1.381 7064
3.081 2.539 1.399 6051
3.119 2.570 1.402 8110
3.122 2.572 1.390 7646
3.125 2.574 1.378 4832
3.209 2.644 1.399 3113
3.218 2.651 1.390 3209
3.227 2.658 1.380 4510
3.235 2.665 1.370 5703
3.250 2.677 1.363 5522
3.264 2.689 1.355 4986
3.373 2.779 1.382 5592
3.381 2.786 1.372 5108
3.384 2.788 1.359 3787
3.387 2.790 1.346 4245
3.543 2.919 1.388 5635
3.545 2.921 1.375 5819
3.412 2.812 1.315 5078
3.569 2.940 1.355 5917
3.583 2.952 1.345 8440
3.639 2.998 1.350 6938
3.654 3.010 1.340 12517
3.656 3.012 1.327 14604
3.671 3.024 1.317 7445
3.839 3.163 1.356 8122
3.842 3.166 1.342 6390
3.886 3.202 1.341 5127
3.889 3.204 1.326 5581
3.892 3.207 1.311 4909
3.906 3.219 1.300 4096
4.111 3.387 1.346 3666
4.114 3.390 1.330 5013
4.117 3.392 1.315 3451
4.149 3.419 1.308 4584
4.140 3.411 1.289 6112
4.143 3.413 1.274 4124
4.247 3.499 1.286 3042
4.285 3.531 1.280 2903
4.396 3.622 1.292 2851
4.398 3.624 1.276 3457
4.520 3.724 1.290 3506
4.643 3.825 1.303 3579
4.622 3.808 1.280 4377
4.618 3.805 1.261 3734
4.771 3.931 1.280 4332
4.761 3.923 1.259 4158
4.926 4.059 1.280 2973
4.935 4.066 1.262 3373
4.955 4.083 1.248 3286
5.211 4.293 1.286 3676
5.087 4.191 1.238 3433
5.089 4.193 1.219 3305
5.345 4.404 1.253 2532
5.450 4.490 1.255 3094
5.471 4.507 1.238 3922
5.473 4.509 1.217 2969
5.500 4.531 1.201 2013
5.828 4.802 1.243 1965
5.994 4.939 1.252 2439
6.003 4.946 1.230 2588
5.636 4.644 1.142 2328
5.638 4.645 1.120 2686
5.646 4.652 1.100 2973
5.649 4.654 1.079 2351
5.657 4.661 1.059 1448
7.072 5.826 1.264 1732
6.995 5.764 1.225 3365
6.998 5.766 1.198 6095
7.000 5.767 1.172 7866
7.002 5.769 1.146 7339
7.005 5.771 1.119 5017
7.864 6.479 1.210 3750
7.878 6.491 1.182 4958
7.874 6.488 1.152 5329
7.870 6.485 1.122 5445
7.873 6.486 1.092 4692
7.881 6.493 1.063 4032
7.871 6.485 1.032 3780
7.897 6.507 1.005 3321
7.911 6.518 0.977 3252
7.907 6.515 0.946 2558
7.909 6.516 0.916 1503
10.256 8.450 1.110 1260
9.527 7.850 1.004 1337
10.255 8.449 1.032 1313
10.439 8.601 1.008 1152
10.716 8.829 0.991 1032
10.718 8.830 0.951 981
12.318 10.149 1.026 916
13.851 11.412 1.084 1032
13.859 11.419 1.032 988
13.867 11.426 0.980 920
13.869 11.427 0.928 1035
13.871 11.429 0.876 1201
13.885 11.440 0.824 1036
13.862 11.421 0.770 812
13.857 11.417 0.718 874
13.864 11.423 0.666 816
14.085 11.605 0.621 702
14.087 11.606 0.568 684
14.087 11.607 0.515 501
14.088 11.607 0.462 318
1.968 1.621 -0.146 287
1.967 1.621 -0.153 337
1.961 1.615 -0.159 344
1.960 1.615 -0.166 387
1.604 1.309 1.583 5791
1.607 1.311 1.578 11583
1.610 1.314 1.572 10782
1.624 1.325 1.575 11842
1.632 1.332 1.573 14843
1.635 1.334 1.567 13841
1.638 1.337 1.561 12839
1.631 1.331 1.546 13319
1.630 1.330 1.536 14023
1.633 1.332 1.530 14102
1.641 1.339 1.528 14411
1.644 1.341 1.522 14809
1.647 1.344 1.516 11707
1.748 1.426 1.593 10512
1.751 1.429 1.587 11492
1.749 1.427 1.576 12493
1.757 1.434 1.574 10102
1.781 1.453 1.585 8638
1.784 1.456 1.578 8288
1.783 1.454 1.567 7334
1.781 1.453 1.557 6839
1.784 1.455 1.550 7086
1.787 1.458 1.543 7333
1.790 1.461 1.537 5756
1.851 1.510 1.576 5441
1.854 1.513 1.569 8529
1.862 1.520 1.566 11620
1.871 1.527 1.564 13464
1.874 1.529 1.557 15657
1.877 1.532 1.550 13067
1.891 1.543 1.551 10111
1.894 1.546 1.544 8965
1.903 1.552 1.541 8516
1.911 1.559 1.538 9718
1.914 1.562 1.531 10437
1.918 1.565 1.524 11156
1.915 1.563 1.513 8751
1.918 1.565 1.506 6477
1.959 1.598 1.526 7955
1.967 1.605 1.523 10702
1.971 1.608 1.515 11601
1.974 1.610 1.508 9603
1.993 1.626 1.512 7335
1.996 1.629 1.505 8895
1.999 1.631 1.497 10455
2.035 1.660 1.512 9935
2.043 1.667 1.509 8852
2.046 1.670 1.501 7268
2.055 1.676 1.497 6128
2.085 1.701 1.508 6745
2.094 1.708 1.504 8377
2.097 1.711 1.496 7570
2.100 1.713 1.488 6854
2.114 1.725 1.488 9199
2.128 1.736 1.487 16505
2.131 1.738 1.479 20294
2.139 1.745 1.475 19728
2.148 1.752 1.470 15456
2.189 1.786 1.487 12371
2.203 1.798 1.485 16885
2.206 1.800 1.477 18680
2.210 1.803 1.469 23773
2.213 1.805 1.461 27072
2.221 1.812 1.456 24390
2.230 1.819 1.451 14179
2.255 1.840 1.456 10247
2.258 1.842 1.448 13119
2.266 1.849 1.443 15020
2.275 1.856 1.438 13430
2.295 1.872 1.439 9757
2.292 1.870 1.427 8816
2.295 1.872 1.419 9484
2.298 1.875 1.410 9090
2.301 1.877 1.402 8128
2.444 1.994 1.472 8185
2.453 2.001 1.466 9402
2.456 2.004 1.456 11416
2.465 2.011 1.450 10058
2.490 2.032 1.453 10090
2.504 2.043 1.450 10737
2.513 2.050 1.444 7032
2.488 2.030 1.420 7516
2.496 2.037 1.414 9030
2.505 2.044 1.407 5651
2.599 2.120 1.445 4198
2.608 2.128 1.438 5601
2.616 2.135 1.431 7822
2.613 2.132 1.419 8622
2.645 2.158 1.423 8532
2.654 2.165 1.416 9731
2.651 2.163 1.403 9137
2.648 2.160 1.391 10196
2.656 2.167 1.384 10188
2.688 2.193 1.387 8750
2.795 2.280 1.426 12722
2.803 2.287 1.418 15620
2.800 2.285 1.405 10167
2.867 2.339 1.424 6650
2.864 2.337 1.411 7307
2.832 2.311 1.384 6450
2.939 2.398 1.420 6311
2.942 2.401 1.409 7476
2.904 2.370 1.381 7097
2.977 2.429 1.400 5778
2.986 2.436 1.391 7230
3.047 2.486 1.405 8166
3.026 2.469 1.384 8649
3.029 2.471 1.372 7052
3.108 2.536 1.392 8429
3.117 2.543 1.383 6524
3.137 2.559 1.378 5072
3.140 2.562 1.367 4040
3.154 2.574 1.360 3414
3.251 2.652 1.384 4141
3.248 2.650 1.370 6220
3.262 2.662 1.363 5608
3.283 2.679 1.357 5207
3.392 2.767 1.384 5922
3.400 2.774 1.374 5392
3.409 2.781 1.363 3582
3.412 2.784 1.351 3764
3.420 2.791 1.340 4626
3.417 2.788 1.325 5731
3.426 2.795 1.315 4962
3.594 2.933 1.359 5642
3.603 2.940 1.347 8496
3.641 2.971 1.346 6642
3.674 2.998 1.342 9963
3.677 3.000 1.329 10830
3.852 3.143 1.371 7013
3.735 3.048 1.318 7636
3.857 3.147 1.342 6425
3.890 3.174 1.337 5731
3.904 3.186 1.326 5038
3.907 3.188 1.311 4112
3.910 3.190 1.297 4030
4.128 3.368 1.346 2949
4.124 3.365 1.329 4126
4.127 3.367 1.313 3216
4.148 3.384 1.303 4795
4.150 3.386 1.288 6555
4.153 3.388 1.272 4449
4.317 3.523 1.301 3805
4.320 3.525 1.285 3759
4.533 3.699 1.324 3545
4.530 3.696 1.305 4846
4.532 3.698 1.289 4625
4.541 3.705 1.273 4013
4.640 3.786 1.280 5299
4.636 3.783 1.261 4393
4.808 3.923 1.285 4323
4.810 3.925 1.267 4413
4.946 4.035 1.280 3492
4.954 4.042 1.262 3984
5.084 4.148 1.272 3852
5.086 4.150 1.253 4418
5.089 4.152 1.234 4301
5.091 4.154 1.215 3633
5.087 4.151 1.195 2963
5.471 4.464 1.255 2700
5.480 4.471 1.235 3905
5.482 4.473 1.215 2941
5.491 4.480 1.195 1784
5.845 4.769 1.242 2185
6.012 4.905 1.251 3083
6.026 4.917 1.230 3233
5.658 4.617 1.142 2028
6.280 5.124 1.229 2524
5.456 4.451 1.064 2604
5.452 4.448 1.042 2752
5.454 4.450 1.022 1875
7.033 5.738 1.253 2158
7.029 5.735 1.226 3849
7.031 5.737 1.199 5717
7.028 5.734 1.172 6545
7.030 5.736 1.146 5811
7.032 5.738 1.119 4192
7.888 6.436 1.210 4051
7.903 6.448 1.182 4939
7.899 6.445 1.151 5364
7.901 6.447 1.122 5713
7.904 6.449 1.092 5162
7.912 6.455 1.063 4419
7.908 6.452 1.033 4104
7.922 6.464 1.004 3472
7.936 6.475 0.976 3153
7.932 6.472 0.946 2421
7.921 6.463 0.915 1544
10.297 8.401 1.110 1325
10.293 8.398 1.070 1327
10.411 8.495 1.042 1138
10.487 8.556 1.009 1066
10.489 8.558 0.970 999
14.011 11.432 1.197 1133
14.008 11.429 1.144 965
13.201 10.771 1.036 1017
13.203 10.773 0.986 1159
13.377 10.914 0.947 886
13.930 11.366 0.928 886
13.932 11.367 0.876 1062
13.945 11.378 0.824 981
14.180 11.570 0.782 822
14.187 11.576 0.729 779
14.146 11.542 0.674 702
14.141 11.538 0.621 916
14.142 11.539 0.568 867
14.143 11.539 0.515 632
14.144 11.540 0.462 396
14.175 11.566 0.409 277
1.969 1.607 -0.152 296
1.962 1.601 -0.158 312
1.962 1.600 -0.165 352
1.605 1.297 1.579 6205
1.608 1.300 1.573 12410
1.611 1.302 1.567 11472
1.630 1.317 1.575 12699
1.638 1.324 1.573 15962
1.641 1.326 1.567 14619
1.640 1.325 1.557 13328
1.638 1.323 1.546 13288
1.641 1.326 1.540 13431
1.639 1.325 1.530 13488
1.647 1.331 1.528 14392
1.650 1.334 1.522 15353
1.653 1.336 1.516 12766
1.754 1.418 1.593 10558
1.757 1.420 1.587 11292
1.761 1.423 1.580 12026
1.764 1.426 1.574 9418
1.788 1.445 1.585 7857
1.791 1.448 1.578 7474
1.789 1.446 1.567 6238
1.787 1.444 1.557 5579
1.791 1.447 1.550 5590
1.799 1.454 1.548 5607
1.813 1.465 1.549 4906
1.832 1.480 1.555 5393
1.856 1.500 1.565 7775
1.864 1.507 1.562 10971
1.878 1.518 1.564 12314
1.881 1.520 1.557 14369
1.890 1.527 1.554 12036
1.909 1.543 1.559 10357
1.907 1.541 1.548 9657
1.910 1.544 1.541 9318
1.918 1.550 1.538 9934
1.922 1.553 1.531 10041
1.919 1.551 1.520 10155
1.923 1.554 1.513 8050
1.920 1.552 1.502 6005
1.961 1.585 1.522 7154
1.975 1.596 1.523 9927
1.978 1.599 1.515 11168
1.987 1.605 1.512 10630
1.995 1.612 1.508 8808
1.998 1.615 1.501 9641
2.001 1.617 1.494 10474
1.993 1.611 1.479 8949
2.045 1.653 1.505 9239
2.054 1.660 1.501 9264
2.057 1.662 1.494 8155
2.087 1.687 1.504 6772
2.102 1.698 1.504 8120
2.105 1.701 1.496 8060
2.113 1.708 1.492 7917
2.122 1.715 1.488 9409
2.136 1.726 1.487 14951
2.139 1.728 1.479 17710
2.147 1.735 1.475 16659
2.156 1.742 1.470 12459
2.203 1.781 1.490 11580
2.217 1.792 1.489 16979
2.215 1.790 1.477 19312
2.218 1.792 1.469 22855
2.221 1.795 1.461 24058
2.230 1.802 1.456 22102
2.249 1.818 1.458 14826
2.269 1.834 1.460 11915
2.272 1.836 1.451 13101
2.275 1.839 1.443 14109
2.289 1.850 1.441 12870
2.303 1.861 1.439 10883
2.306 1.864 1.431 10063
2.304 1.862 1.419 10300
2.306 1.864 1.410 9628
2.309 1.866 1.402 8116
2.459 1.987 1.475 9686
2.462 1.990 1.466 11175
2.471 1.997 1.460 12371
2.480 2.004 1.454 10882
2.500 2.020 1.453 10080
2.514 2.032 1.450 8870
2.517 2.034 1.441 6522
2.497 2.018 1.420 8323
2.506 2.025 1.414 8966
2.514 2.032 1.407 5395
2.603 2.104 1.442 4343
2.612 2.111 1.435 6550
2.620 2.118 1.428 8546
2.618 2.115 1.416 7847
2.655 2.146 1.423 6094
2.664 2.153 1.416 8818
2.667 2.155 1.406 9659
2.658 2.148 1.391 9853
2.678 2.164 1.389 8901
2.791 2.255 1.431 8668
2.805 2.267 1.426 15798
2.808 2.269 1.416 17921
2.811 2.272 1.405 11745
2.808 2.269 1.392 7123
2.828 2.286 1.390 8078
2.831 2.288 1.379 8951
2.834 2.290 1.369 5545
2.948 2.382 1.407 7326
2.956 2.389 1.398 7514
2.971 2.401 1.392 6561
2.997 2.422 1.391 7455
3.012 2.434 1.385 8151
3.032 2.450 1.381 9509
3.041 2.457 1.372 7870
3.102 2.507 1.385 10064
3.117 2.519 1.378 8507
3.149 2.545 1.378 6743
3.152 2.547 1.367 5191
3.154 2.549 1.355 3957
3.263 2.637 1.384 4471
3.260 2.635 1.370 6729
3.281 2.651 1.365 5867
3.295 2.663 1.357 6116
3.304 2.670 1.347 5843
3.407 2.754 1.372 5275
3.422 2.766 1.363 4160
3.431 2.773 1.353 4100
3.433 2.775 1.340 4453
3.436 2.777 1.327 5458
3.540 2.861 1.350 4574
3.608 2.916 1.359 5169
3.629 2.933 1.351 6093
3.661 2.959 1.348 7066
3.676 2.971 1.338 9606
3.685 2.978 1.327 8688
3.861 3.120 1.369 7495
3.863 3.122 1.354 6917
3.872 3.129 1.342 6693
3.905 3.156 1.337 6291
3.919 3.167 1.326 4436
3.928 3.174 1.313 3571
3.931 3.177 1.299 4022
4.065 3.285 1.323 3476
4.068 3.288 1.308 4569
4.077 3.295 1.294 3429
4.163 3.365 1.303 4287
4.166 3.367 1.288 5229
4.307 3.481 1.310 5050
4.334 3.502 1.301 5139
4.349 3.514 1.288 4422
4.556 3.682 1.326 4256
4.547 3.675 1.305 5545
4.549 3.677 1.289 4880
4.570 3.693 1.276 4683
4.657 3.764 1.280 5044
4.660 3.766 1.263 4504
4.832 3.905 1.286 4371
4.829 3.902 1.267 5055
4.825 3.899 1.247 3575
5.100 4.122 1.291 3486
5.103 4.124 1.272 4242
5.106 4.126 1.253 4660
5.108 4.128 1.234 4255
5.110 4.130 1.215 3439
5.368 4.338 1.250 3054
5.365 4.335 1.228 2841
5.495 4.441 1.234 3470
5.497 4.443 1.214 2696
5.670 4.582 1.226 2239
5.679 4.589 1.206 2336
6.041 4.882 1.252 3075
6.049 4.889 1.230 3362
6.052 4.891 1.208 1957
6.298 5.090 1.228 2758
5.470 4.421 1.063 4244
5.466 4.418 1.041 4497
5.462 4.414 1.020 2919
7.059 5.705 1.253 3191
7.056 5.702 1.226 4736
7.058 5.704 1.199 5535
7.054 5.701 1.172 5045
7.057 5.703 1.146 4299
7.408 5.987 1.168 3808
7.410 5.989 1.140 3644
7.927 6.406 1.181 4179
7.929 6.408 1.151 4523
7.932 6.410 1.122 4879
7.934 6.412 1.092 4572
7.936 6.413 1.062 3993
7.938 6.415 1.033 3733
7.946 6.422 1.004 2992
7.960 6.433 0.975 2459
7.950 6.425 0.944 2004
7.945 6.421 0.914 1375
9.943 8.035 1.073 1277
10.332 8.350 1.070 1208
9.578 7.741 0.966 1182
10.533 8.512 1.009 1018
10.455 8.449 0.964 1004
14.065 11.366 1.197 1165
14.067 11.368 1.144 993
13.251 10.709 1.036 1196
13.253 10.711 0.986 1282
13.261 10.717 0.937 902
14.444 11.673 0.954 991
14.188 11.466 0.887 1072
14.226 11.497 0.835 1180
14.240 11.508 0.783 1344
14.248 11.514 0.730 1301
14.249 11.515 0.676 963
14.195 11.471 0.621 909
14.196 11.472 0.568 840
14.197 11.473 0.515 620
14.234 11.503 0.462 515
14.235 11.504 0.409 508
14.236 11.504 0.356 379
14.230 11.500 0.303 262
1.970 1.592 -0.151 253
1.970 1.592 -0.158 263
1.969 1.591 -0.165 290
1.613 1.286 1.579 6459
1.617 1.289 1.573 12919
1.620 1.292 1.567 11812
1.633 1.302 1.570 12833
1.642 1.309 1.569 15758
1.645 1.312 1.563 14383
1.648 1.314 1.557 13008
1.646 1.313 1.546 12735
1.650 1.315 1.540 12519
1.648 1.314 1.530 12627
1.656 1.320 1.528 13984
1.664 1.327 1.527 15577
1.667 1.329 1.521 13502
1.671 1.332 1.515 11426
1.767 1.409 1.587 10564
1.770 1.411 1.580 10716
1.773 1.414 1.574 8055
1.797 1.433 1.585 6646
1.801 1.436 1.578 6438
1.799 1.434 1.567 5408
1.792 1.429 1.552 4857
1.795 1.431 1.546 4776
1.803 1.438 1.543 4698
1.838 1.466 1.562 5538
1.841 1.468 1.555 6942
1.855 1.479 1.557 8349
1.869 1.490 1.558 11018
1.883 1.501 1.560 11513
1.891 1.508 1.557 12898
1.905 1.519 1.558 11369
1.919 1.530 1.559 11398
1.917 1.528 1.548 10918
1.925 1.535 1.545 9435
1.934 1.542 1.542 8369
1.932 1.540 1.531 7495
1.924 1.534 1.516 6851
1.927 1.537 1.509 5773
1.957 1.561 1.521 4709
1.971 1.572 1.522 6739
1.985 1.583 1.523 9214
1.994 1.590 1.519 10555
1.997 1.592 1.512 11073
2.000 1.595 1.505 9922
2.009 1.602 1.501 9769
2.012 1.604 1.494 9693
2.026 1.615 1.494 8567
2.056 1.640 1.505 10622
2.065 1.646 1.501 12212
2.068 1.649 1.494 10869
2.077 1.656 1.490 7158
2.113 1.684 1.504 7363
2.121 1.691 1.500 8070
2.130 1.698 1.495 8740
2.138 1.705 1.491 9027
2.147 1.712 1.487 12062
2.156 1.719 1.483 13636
2.159 1.721 1.475 12027
2.167 1.728 1.470 8196
2.220 1.770 1.494 9526
2.229 1.777 1.489 14632
2.227 1.775 1.477 17077
2.230 1.778 1.469 19207
2.233 1.780 1.461 18865
2.253 1.796 1.463 18652
2.272 1.812 1.465 18149
2.281 1.819 1.460 16745
2.290 1.826 1.455 15501
2.293 1.828 1.446 14451
2.296 1.830 1.438 11474
2.332 1.860 1.449 11200
2.324 1.853 1.434 10529
2.321 1.851 1.422 9981
2.324 1.853 1.414 9166
2.327 1.856 1.405 7227
2.472 1.971 1.475 10161
2.475 1.974 1.466 11561
2.484 1.981 1.460 11832
2.493 1.988 1.454 10462
2.507 1.999 1.450 8714
2.516 2.006 1.444 5921
2.519 2.008 1.435 6220
2.516 2.006 1.423 10066
2.519 2.008 1.414 10038
2.533 2.020 1.410 5883
2.617 2.086 1.442 6433
2.626 2.093 1.435 8058
2.629 2.096 1.425 9458
2.631 2.098 1.416 8687
2.629 2.096 1.403 6273
2.689 2.144 1.422 8707
2.692 2.147 1.412 8874
2.666 2.126 1.388 8643
2.785 2.221 1.433 7489
2.805 2.237 1.431 10391
2.814 2.244 1.423 16402
2.823 2.251 1.416 16950
2.826 2.253 1.405 10320
2.829 2.255 1.395 6782
2.837 2.262 1.387 8948
2.846 2.269 1.379 9924
2.855 2.276 1.371 6501
2.922 2.330 1.389 6078
2.972 2.370 1.398 8762
2.975 2.372 1.387 8396
3.019 2.407 1.394 8373
3.022 2.409 1.383 8909
3.048 2.430 1.381 8963
3.151 2.512 1.411 7168
3.119 2.486 1.385 10293
3.133 2.498 1.378 9744
3.154 2.515 1.374 7927
3.168 2.526 1.367 5967
3.248 2.590 1.385 5162
3.263 2.602 1.378 6229
3.277 2.613 1.370 8039
3.298 2.630 1.365 6780
3.313 2.641 1.357 6892
3.321 2.648 1.347 6099
3.431 2.736 1.374 4979
3.440 2.743 1.363 6616
3.455 2.755 1.355 5862
3.464 2.762 1.344 4440
3.460 2.759 1.329 5010
3.577 2.852 1.356 5159
3.681 2.935 1.377 5494
3.696 2.947 1.368 5728
3.687 2.939 1.350 7867
3.689 2.942 1.336 10216
3.692 2.944 1.323 7575
3.881 3.094 1.369 7993
3.727 2.972 1.305 7063
3.892 3.104 1.342 6188
3.925 3.130 1.337 6099
3.946 3.146 1.328 4930
4.069 3.245 1.349 4899
4.042 3.223 1.325 3753
4.087 3.259 1.323 4822
4.090 3.261 1.308 6645
4.098 3.268 1.294 4580
4.318 3.443 1.340 3184
4.333 3.455 1.328 3717
4.336 3.457 1.312 4715
4.345 3.464 1.297 5549
4.359 3.476 1.285 4053
4.574 3.647 1.324 4088
4.577 3.649 1.307 5239
4.580 3.652 1.290 4586
4.600 3.668 1.278 4760
4.676 3.728 1.279 3939
4.679 3.730 1.261 4310
4.699 3.747 1.248 4035
4.854 3.870 1.267 4317
4.851 3.868 1.247 3332
5.133 4.093 1.293 2459
5.130 4.090 1.272 3111
5.078 4.049 1.241 3524
5.105 4.070 1.228 3354
5.272 4.203 1.244 2647
5.397 4.303 1.250 3456
5.369 4.281 1.223 3477
5.762 4.595 1.282 3417
5.716 4.558 1.251 2466
5.706 4.550 1.227 2000
5.715 4.557 1.207 2240
6.073 4.842 1.252 2625
6.081 4.849 1.230 2924
5.489 4.377 1.102 1842
5.491 4.378 1.082 3656
5.499 4.385 1.063 6145
5.495 4.382 1.041 6446
5.491 4.378 1.020 4101
7.097 5.658 1.253 3724
7.099 5.660 1.227 5368
7.095 5.657 1.199 5262
7.098 5.659 1.173 3813
7.439 5.931 1.195 3627
7.102 5.663 1.120 3707
7.105 5.665 1.094 3485
7.107 5.667 1.067 3057
7.971 6.356 1.151 3078
7.973 6.358 1.122 3250
7.976 6.359 1.092 3183
7.978 6.361 1.062 3072
7.974 6.358 1.032 3055
7.982 6.364 1.003 2235
9.594 7.650 1.143 1539
9.602 7.656 1.108 1546
9.969 7.948 1.107 1374
10.230 8.157 1.095 1422
9.621 7.671 1.001 1450
9.623 7.673 0.966 1597
10.249 8.172 0.981 1104
11.863 9.459 1.070 1219
11.871 9.465 1.027 1144
11.879 9.472 0.983 974
13.322 10.622 1.036 1199
13.330 10.628 0.987 1241
14.519 11.576 1.008 1083
14.521 11.578 0.954 1210
14.529 11.584 0.901 1253
14.308 11.408 0.836 1552
14.315 11.414 0.783 1861
14.323 11.420 0.730 1828
14.331 11.426 0.677 1513
14.338 11.432 0.623 974
14.333 11.428 0.570 718
14.321 11.419 0.516 706
14.316 11.415 0.463 740
14.317 11.415 0.409 769
14.311 11.411 0.356 605
14.299 11.401 0.302 417
14.299 11.401 0.249 320
14.083 11.229 0.195 306
14.083 11.229 0.143 259
1.615 1.274 1.574 5866
1.619 1.276 1.568 11732
1.627 1.283 1.567 10600
1.635 1.289 1.566 11186
1.649 1.300 1.569 13339
1.647 1.299 1.558 12144
1.650 1.301 1.552 11030
1.654 1.304 1.546 10852
1.652 1.302 1.536 10819
1.655 1.305 1.530 10921
1.668 1.315 1.533 12762
1.677 1.322 1.531 15230
1.680 1.324 1.525 13530
1.683 1.327 1.519 11830
1.774 1.399 1.587 8980
1.773 1.398 1.576 8676
1.776 1.400 1.570 6670
1.748 1.378 1.538 5659
1.803 1.422 1.574 5312
1.801 1.420 1.563 5572
1.794 1.415 1.548 5226
1.797 1.417 1.542 5857
1.801 1.420 1.535 6306
1.846 1.455 1.562 6769
1.855 1.462 1.559 8482
1.868 1.473 1.561 9335
1.877 1.480 1.558 11517
1.891 1.491 1.560 11540
1.899 1.498 1.557 12217
1.908 1.504 1.554 12244
1.922 1.515 1.555 12957
1.925 1.518 1.548 12261
1.934 1.525 1.545 8687
1.948 1.536 1.546 6106
1.973 1.555 1.555 4183
2.008 1.583 1.571 4217
1.984 1.565 1.544 4587
1.971 1.554 1.525 6225
1.985 1.565 1.526 7858
1.994 1.572 1.523 9378
2.003 1.579 1.519 10231
2.006 1.581 1.512 10381
2.014 1.588 1.508 9435
2.017 1.591 1.501 8783
2.026 1.597 1.497 8195
2.057 1.621 1.509 8465
2.065 1.628 1.505 11561
2.074 1.635 1.501 14161
2.077 1.638 1.494 12477
2.080 1.640 1.486 7456
2.127 1.677 1.507 7220
2.136 1.684 1.503 8071
2.145 1.691 1.499 8819
2.148 1.693 1.491 7995
2.162 1.705 1.491 8428
2.171 1.711 1.486 9138
2.174 1.714 1.478 7297
2.177 1.716 1.470 5145
2.230 1.758 1.494 6791
2.228 1.756 1.482 10725
2.225 1.754 1.470 12851
2.234 1.761 1.466 13325
2.248 1.772 1.464 12114
2.268 1.788 1.466 14284
2.282 1.799 1.465 19810
2.297 1.811 1.463 19882
2.300 1.813 1.455 17121
2.303 1.815 1.446 14061
2.306 1.818 1.438 9255
2.348 1.851 1.452 10323
2.329 1.836 1.431 9906
2.326 1.834 1.419 8757
2.334 1.841 1.414 8310
2.343 1.847 1.408 6722
2.489 1.962 1.478 8963
2.486 1.960 1.466 10048
2.449 1.931 1.435 9776
2.498 1.969 1.450 8681
2.495 1.967 1.438 6988
2.487 1.960 1.423 5869
2.507 1.976 1.423 6734
2.521 1.988 1.420 11348
2.530 1.995 1.414 10773
2.625 2.070 1.451 9787
2.634 2.077 1.445 9774
2.637 2.079 1.435 10016
2.640 2.081 1.425 10041
2.643 2.084 1.416 10331
2.646 2.086 1.406 10215
2.701 2.130 1.422 8778
2.710 2.136 1.414 6693
2.800 2.208 1.446 6726
2.803 2.210 1.436 6783
2.818 2.222 1.431 9194
2.826 2.228 1.423 12612
2.829 2.231 1.413 11350
2.838 2.238 1.405 6000
2.853 2.249 1.400 5312
2.856 2.251 1.390 7875
2.864 2.258 1.382 8382
2.873 2.265 1.374 5978
2.941 2.318 1.391 6348
2.979 2.349 1.396 8687
2.976 2.346 1.382 9593
3.032 2.390 1.394 9326
3.029 2.388 1.380 8039
3.067 2.418 1.384 6349
3.171 2.500 1.413 7088
3.168 2.497 1.399 7029
3.153 2.486 1.381 8234
3.161 2.493 1.371 7746
3.176 2.504 1.364 4587
3.274 2.581 1.390 6621
3.277 2.584 1.378 8710
3.286 2.591 1.368 8077
3.318 2.616 1.367 6682
3.327 2.623 1.357 6147
3.348 2.640 1.351 4892
3.452 2.722 1.376 4161
3.461 2.729 1.365 8806
3.464 2.731 1.353 8223
3.497 2.757 1.351 5970
3.499 2.759 1.338 5087
3.604 2.842 1.360 5256
3.613 2.849 1.349 6648
3.622 2.855 1.337 5358
3.709 2.924 1.352 8557
3.711 2.926 1.338 10808
3.720 2.933 1.327 8114
3.904 3.078 1.371 6931
3.738 2.947 1.303 6061
3.915 3.087 1.344 4671
3.942 3.108 1.337 4611
4.084 3.220 1.365 5409
4.087 3.222 1.349 6385
4.059 3.201 1.325 4798
4.099 3.231 1.321 4612
4.107 3.238 1.308 6201
4.104 3.236 1.291 4095
4.246 3.348 1.315 3540
4.316 3.403 1.318 3542
4.324 3.409 1.304 4139
4.351 3.431 1.294 5100
4.494 3.543 1.315 3608
4.497 3.545 1.299 3818
4.475 3.528 1.276 2890
4.612 3.636 1.293 3134
4.621 3.643 1.278 3338
4.849 3.823 1.316 3484
4.687 3.695 1.258 4236
4.714 3.716 1.247 3663
4.728 3.728 1.232 2649
4.884 3.851 1.250 2678
4.911 3.872 1.238 2781
4.913 3.874 1.219 2837
5.100 4.021 1.241 3012
