2.500 2.421 1.403 8611
2.508 2.429 1.396 8418
2.521 2.442 1.391 4854
2.561 2.481 1.400 5133
2.575 2.494 1.395 7447
2.583 2.501 1.387 9982
2.585 2.504 1.377 7536
2.636 2.553 1.390 6462
2.644 2.561 1.382 6405
2.663 2.579 1.379 7348
2.671 2.587 1.370 6755
2.674 2.589 1.360 4696
2.768 2.681 1.391 7370
2.787 2.699 1.387 8132
2.789 2.702 1.376 6253
2.781 2.694 1.360 4943
2.757 2.670 1.337 3777
2.954 2.861 1.411 2758
2.952 2.859 1.397 5144
2.954 2.861 1.385 5814
2.930 2.837 1.362 4166
2.998 2.903 1.378 3718
2.995 2.900 1.363 6787
3.003 2.908 1.354 6507
3.011 2.916 1.344 4917
3.013 2.918 1.332 3645
3.120 3.021 1.361 3247
3.133 3.035 1.353 4406
3.136 3.037 1.340 2842
3.193 3.092 1.348 3176
3.174 3.074 1.327 3593
3.154 3.055 1.306 4320
3.376 3.270 1.375 4719
3.384 3.278 1.364 7777
3.387 3.280 1.350 10346
3.384 3.277 1.334 15140
3.386 3.280 1.321 13196
3.400 3.293 1.311 8878
3.391 3.285 1.294 8435
3.399 3.292 1.282 5170
3.518 3.407 1.307 4237
3.520 3.409 1.293 4484
3.506 3.396 1.273 2961
3.747 3.629 1.336 3550
3.755 3.636 1.323 4268
3.774 3.655 1.313 4062
3.765 3.647 1.294 4243
3.767 3.649 1.279 3310
3.792 3.673 1.271 2536
3.800 3.680 1.257 2945
3.897 3.774 1.270 2072
4.072 3.944 1.304 2791
4.063 3.935 1.284 4411
4.071 3.943 1.269 3574
4.112 3.983 1.264 3248
4.238 4.104 1.281 3584
4.123 3.993 1.232 3182
4.455 4.314 1.303 3544
4.451 4.311 1.283 3137
4.493 4.352 1.275 2883
4.456 4.316 1.247 3285
4.447 4.307 1.227 2956
4.696 4.548 1.268 2786
4.698 4.551 1.249 2886
4.706 4.558 1.232 2869
4.832 4.680 1.241 3626
4.834 4.682 1.222 3030
4.825 4.674 1.200 2547
5.131 4.970 1.246 2419
5.128 4.966 1.224 2345
5.304 5.137 1.240 2055
5.312 5.145 1.220 2023
5.264 5.098 1.188 3140
5.294 5.127 1.173 2705
5.516 5.342 1.194 1926
5.496 5.323 1.167 1790
5.864 5.680 1.212 1979
5.872 5.687 1.190 1580
6.168 5.973 1.218 1747
6.633 6.424 1.272 2181
6.635 6.426 1.246 3046
6.643 6.434 1.220 4141
6.645 6.436 1.193 5383
6.636 6.427 1.164 4364
6.627 6.418 1.136 2921
6.635 6.426 1.110 2664
6.642 6.433 1.084 2196
6.661 6.452 1.059 1836
6.663 6.453 1.032 1773
6.654 6.444 1.004 1265
6.729 6.517 0.986 650
6.725 6.513 0.958 595
6.727 6.515 0.931 454
1.456 1.407 1.551 4279
1.459 1.410 1.545 8558
1.467 1.417 1.544 7171
1.488 1.438 1.557 6293
1.496 1.445 1.555 7075
1.504 1.453 1.554 5055
1.525 1.474 1.566 3152
1.510 1.458 1.542 3179
1.513 1.461 1.536 3313
1.516 1.464 1.530 3275
1.523 1.472 1.528 4058
1.531 1.479 1.527 4858
1.538 1.486 1.525 4803
1.556 1.503 1.532 5772
1.587 1.533 1.552 9160
1.590 1.536 1.546 13119
1.598 1.544 1.544 12755
1.601 1.546 1.538 12407
1.599 1.545 1.527 10274
1.602 1.547 1.521 8346
1.605 1.550 1.514 7667
1.608 1.553 1.508 6988
1.615 1.560 1.506 5852
1.623 1.568 1.503 4334
1.713 1.655 1.572 6004
1.721 1.663 1.569 7230
1.724 1.665 1.562 8531
1.722 1.664 1.551 9754
1.720 1.662 1.540 11209
1.728 1.669 1.538 9686
1.736 1.677 1.535 8449
1.739 1.680 1.528 8392
1.746 1.687 1.525 8410
1.754 1.695 1.522 8715
1.767 1.707 1.523 6830
1.790 1.729 1.532 6673
1.798 1.737 1.529 6986
1.805 1.744 1.525 7470
1.813 1.752 1.522 8773
1.816 1.755 1.515 9933
1.819 1.757 1.508 8628
1.817 1.755 1.497 6531
1.815 1.753 1.486 5385
1.863 1.800 1.512 6287
1.866 1.802 1.505 7580
1.868 1.805 1.497 6208
1.891 1.827 1.505 5614
1.924 1.859 1.520 6384
1.897 1.833 1.490 7363
1.900 1.836 1.482 6631
1.908 1.843 1.478 4609
1.916 1.851 1.474 5329
1.918 1.853 1.467 7359
1.921 1.856 1.459 8529
1.939 1.874 1.462 8455
1.968 1.901 1.472 9426
1.965 1.899 1.461 9664
1.963 1.896 1.449 6815
2.012 1.944 1.473 3374
2.040 1.971 1.482 2631
2.064 1.994 1.488 3458
2.071 2.001 1.483 5826
2.079 2.009 1.478 7230
2.082 2.012 1.470 7294
2.106 2.034 1.475 8602
2.052 1.982 1.430 9102
2.054 1.985 1.422 8230
2.088 2.017 1.433 7300
2.174 2.100 1.477 5515
2.177 2.103 1.468 4734
2.174 2.100 1.456 4877
2.172 2.098 1.444 5876
2.185 2.111 1.442 6424
2.235 2.159 1.462 7391
2.248 2.172 1.459 8260
2.261 2.184 1.456 5301
2.217 2.142 1.419 4069
2.230 2.154 1.417 3127
2.280 2.203 1.435 4061
2.288 2.210 1.429 5982
2.306 2.228 1.429 5675
2.314 2.236 1.423 5455
2.386 2.305 1.452 7465
2.383 2.302 1.440 9508
2.396 2.315 1.436 8242
2.399 2.318 1.426 7133
2.402 2.320 1.417 7929
2.405 2.323 1.407 7566
2.434 2.351 1.412 6733
2.442 2.359 1.405 5397
2.508 2.423 1.428 6384
2.506 2.421 1.416 6102
2.503 2.418 1.403 8128
2.511 2.426 1.396 7902
2.551 2.465 1.404 4530
2.564 2.478 1.400 5425
2.578 2.490 1.395 7988
2.580 2.493 1.384 10481
2.583 2.496 1.374 7749
2.639 2.550 1.390 6190
2.653 2.563 1.384 6174
2.666 2.576 1.379 7042
2.674 2.584 1.370 6470
2.763 2.670 1.400 4775
2.771 2.677 1.391 7585
2.785 2.690 1.385 8193
2.798 2.703 1.379 5934
2.790 2.695 1.363 4952
2.776 2.682 1.344 3665
2.877 2.779 1.376 2727
2.955 2.855 1.397 4831
2.958 2.858 1.385 5164
2.906 2.807 1.351 3923
3.001 2.899 1.378 3626
2.998 2.897 1.363 6650
3.006 2.904 1.354 6367
3.014 2.912 1.344 4733
3.017 2.915 1.332 3466
3.129 3.023 1.363 2734
3.137 3.031 1.353 4298
3.134 3.028 1.338 2752
3.197 3.088 1.348 3160
3.177 3.070 1.327 4062
3.163 3.056 1.308 4921
3.386 3.271 1.377 4611
3.389 3.274 1.364 7788
3.391 3.276 1.350 10037
3.388 3.273 1.334 14611
3.391 3.276 1.321 13330
3.404 3.289 1.311 9229
3.395 3.280 1.294 7930
3.403 3.288 1.282 4476
3.522 3.403 1.307 4471
3.524 3.405 1.293 4693
3.516 3.397 1.275 2978
3.751 3.624 1.336 3813
3.759 3.632 1.323 4365
3.778 3.650 1.313 4078
3.775 3.647 1.296 4397
3.772 3.644 1.279 3639
3.791 3.663 1.269 2728
3.805 3.676 1.257 2902
3.902 3.769 1.270 1949
4.077 3.939 1.304 2984
4.068 3.930 1.284 4395
4.076 3.938 1.269 3532
4.112 3.973 1.262 3058
4.243 4.099 1.281 3857
4.128 3.988 1.232 3121
4.455 4.303 1.301 3534
4.457 4.306 1.283 3087
4.504 4.351 1.277 2675
4.456 4.305 1.246 3024
4.453 4.302 1.227 2811
4.702 4.542 1.268 2835
4.704 4.545 1.249 2948
4.706 4.547 1.231 2903
4.838 4.674 1.241 3765
4.840 4.676 1.222 3223
4.826 4.662 1.199 2864
5.143 4.968 1.248 2278
5.297 5.118 1.259 2048
5.305 5.125 1.239 2108
5.313 5.133 1.219 2010
5.270 5.091 1.188 3479
5.295 5.115 1.172 2864
5.523 5.335 1.194 1862
5.502 5.316 1.167 1791
5.877 5.678 1.213 1949
5.659 5.467 1.150 1620
6.424 6.206 1.261 1661
6.641 6.416 1.272 2216
6.643 6.418 1.246 3078
6.651 6.425 1.220 4138
6.653 6.428 1.193 5388
6.644 6.419 1.164 4392
6.641 6.415 1.136 3023
6.643 6.417 1.110 2860
6.650 6.425 1.084 2439
6.664 6.438 1.058 1954
6.665 6.439 1.032 1792
6.662 6.436 1.004 1291
6.737 6.509 0.986 584
6.733 6.505 0.958 523
6.735 6.507 0.931 395
1.458 1.405 1.551 4558
1.461 1.408 1.545 9117
1.469 1.415 1.544 7639
1.476 1.422 1.543 6601
1.498 1.443 1.555 7344
1.506 1.451 1.554 5250
1.523 1.467 1.561 3410
1.516 1.461 1.546 3112
1.515 1.459 1.536 3013
1.518 1.462 1.530 2971
1.525 1.469 1.528 3642
1.533 1.477 1.527 4358
1.545 1.489 1.530 4373
1.562 1.505 1.537 5475
1.594 1.536 1.556 9285
1.597 1.538 1.550 13225
1.600 1.541 1.544 12773
1.603 1.544 1.538 12320
1.606 1.547 1.531 10166
1.604 1.545 1.521 8184
1.607 1.548 1.514 7469
1.610 1.551 1.508 6755
1.617 1.558 1.506 5611
1.625 1.566 1.503 4159
1.715 1.653 1.572 5808
1.723 1.660 1.569 6810
1.726 1.663 1.562 7863
1.724 1.661 1.551 8910
1.722 1.659 1.540 10250
1.730 1.667 1.538 8613
1.743 1.679 1.539 7467
1.741 1.677 1.528 7394
1.749 1.685 1.525 7618
1.757 1.692 1.522 8112
1.769 1.705 1.523 6591
1.792 1.727 1.532 6445
1.800 1.734 1.529 6857
1.808 1.742 1.525 7457
1.816 1.749 1.522 8718
1.819 1.752 1.515 9859
1.817 1.750 1.504 8540
1.819 1.753 1.497 6221
1.877 1.809 1.531 5334
1.870 1.802 1.516 6274
1.873 1.805 1.509 7467
1.881 1.812 1.505 6157
1.894 1.825 1.505 5783
1.927 1.857 1.520 6769
1.900 1.830 1.490 7551
1.908 1.838 1.486 6599
1.910 1.840 1.478 4536
1.918 1.848 1.474 5548
1.926 1.856 1.470 7558
1.929 1.858 1.463 8577
1.947 1.876 1.466 8882
1.965 1.893 1.469 10083
1.968 1.896 1.461 10369
1.966 1.894 1.449 7322
1.963 1.891 1.438 3356
2.043 1.968 1.482 2517
2.071 1.996 1.491 3097
2.074 1.998 1.483 5553
2.082 2.006 1.478 7123
2.085 2.009 1.470 7355
2.109 2.031 1.475 8592
2.054 1.979 1.430 8994
2.057 1.982 1.422 8203
2.086 2.009 1.430 7456
2.177 2.097 1.477 5052
2.185 2.105 1.471 4490
2.182 2.102 1.459 4848
2.180 2.100 1.448 5905
2.188 2.108 1.442 6610
2.238 2.156 1.462 7693
2.251 2.169 1.459 8717
2.259 2.176 1.453 5547
2.225 2.144 1.423 4321
2.291 2.207 1.450 3331
2.288 2.204 1.438 4098
2.291 2.207 1.429 5601
2.309 2.225 1.429 5344
2.317 2.233 1.423 5677
2.389 2.301 1.452 7586
2.386 2.299 1.440 9478
2.400 2.312 1.436 8399
2.402 2.314 1.426 7489
2.405 2.317 1.417 8182
2.413 2.325 1.410 7900
2.437 2.348 1.412 7130
2.445 2.356 1.405 5541
2.512 2.420 1.428 6477
2.514 2.422 1.418 5996
2.506 2.415 1.403 7664
2.509 2.417 1.393 7380
2.555 2.461 1.404 4428
2.568 2.474 1.400 5612
2.581 2.487 1.395 8374
2.584 2.489 1.384 10859
2.587 2.492 1.374 7991
2.648 2.551 1.392 5995
2.656 2.559 1.384 5977
2.664 2.567 1.376 6659
2.678 2.580 1.370 6130
2.767 2.666 1.400 4924
2.775 2.673 1.391 7596
2.788 2.686 1.385 8063
2.802 2.699 1.379 5567
2.794 2.691 1.363 4917
2.791 2.689 1.349 3681
2.886 2.780 1.378 3042
2.878 2.772 1.362 4507
2.962 2.853 1.385 4448
2.910 2.803 1.351 3882
3.005 2.895 1.378 3602
3.002 2.892 1.363 6557
3.010 2.900 1.354 6222
3.018 2.908 1.344 4609
3.021 2.910 1.332 3369
3.133 3.018 1.363 2683
3.141 3.026 1.353 4406
3.138 3.023 1.338 3158
3.201 3.084 1.348 3455
3.154 3.039 1.317 3857
3.157 3.041 1.304 4459
3.390 3.266 1.377 4360
3.393 3.269 1.364 7461
3.396 3.271 1.350 9600
3.393 3.268 1.334 13990
3.395 3.271 1.321 13159
3.409 3.284 1.311 9410
3.406 3.281 1.295 7369
3.480 3.353 1.306 4687
3.527 3.398 1.307 4643
3.529 3.400 1.293 4814
3.521 3.392 1.275 2926
3.751 3.613 1.334 4020
3.764 3.626 1.323 4448
3.783 3.645 1.313 4061
3.780 3.642 1.296 4472
3.783 3.644 1.281 3809
3.796 3.657 1.269 2827
3.804 3.665 1.256 2833
3.918 3.775 1.273 1892
4.082 3.933 1.304 3181
4.074 3.924 1.284 4403
4.082 3.932 1.269 3509
4.252 4.096 1.299 3035
4.249 4.093 1.281 4128
4.133 3.982 1.232 3041
4.461 4.297 1.301 3469
4.463 4.300 1.283 3013
4.516 4.351 1.278 2448
4.456 4.293 1.244 2839
4.464 4.301 1.228 2764
4.708 4.536 1.268 2836
4.705 4.533 1.248 3017
4.713 4.540 1.231 3013
4.844 4.667 1.241 3840
4.841 4.664 1.221 3395
4.832 4.655 1.199 3165
5.144 4.956 1.246 3031
5.141 4.953 1.224 2527
5.312 5.118 1.239 2104
5.281 5.087 1.211 2140
5.277 5.084 1.188 3733
5.302 5.108 1.172 2981
5.767 5.556 1.239 1764
5.504 5.303 1.166 1773
5.885 5.669 1.213 1940
5.667 5.459 1.150 1711
6.432 6.197 1.261 1742
6.650 6.406 1.272 2193
6.652 6.408 1.246 3032
6.654 6.411 1.219 4101
6.662 6.418 1.193 5361
6.653 6.410 1.164 4373
6.650 6.406 1.136 3068
6.652 6.408 1.110 2951
6.659 6.416 1.084 2568
6.673 6.428 1.058 2067
6.674 6.430 1.032 1886
6.671 6.426 1.004 1354
6.661 6.417 0.976 588
6.742 6.496 0.958 475
6.744 6.497 0.931 365
1.460 1.403 1.551 4693
1.463 1.406 1.545 9386
1.470 1.414 1.544 7881
1.478 1.421 1.543 6792
1.500 1.442 1.555 7436
1.512 1.454 1.558 5346
1.524 1.465 1.561 3628
1.518 1.459 1.546 3048
1.516 1.458 1.536 2770
1.519 1.460 1.530 2722
1.527 1.468 1.528 3267
1.530 1.471 1.522 3881
1.594 1.533 1.573 4077
1.593 1.531 1.563 5369
1.596 1.534 1.556 9226
1.599 1.537 1.550 13083
1.602 1.540 1.544 12543
1.605 1.542 1.538 12004
1.607 1.545 1.531 9860
1.606 1.543 1.521 7818
1.608 1.546 1.514 7056
1.611 1.549 1.508 6294
1.614 1.552 1.502 5185
1.714 1.648 1.579 3881
1.717 1.651 1.572 5373
1.725 1.658 1.569 6043
1.728 1.661 1.562 6767
1.721 1.655 1.547 7761
1.724 1.657 1.540 9101
1.732 1.665 1.538 7568
1.745 1.677 1.539 6704
1.743 1.675 1.528 6808
1.751 1.683 1.525 6862
1.759 1.690 1.522 7270
1.776 1.708 1.527 6138
1.794 1.725 1.532 5964
1.802 1.732 1.529 6578
1.810 1.740 1.525 7345
1.813 1.743 1.518 8586
1.821 1.750 1.515 9718
1.818 1.748 1.504 8446
1.821 1.751 1.497 5888
1.879 1.807 1.531 5390
1.877 1.805 1.520 6178
1.875 1.803 1.509 7271
1.883 1.810 1.505 6068
1.896 1.823 1.505 5905
1.929 1.854 1.520 7033
1.902 1.828 1.490 7648
1.910 1.836 1.486 6567
1.917 1.843 1.482 4546
1.920 1.846 1.474 5664
1.928 1.854 1.470 7608
1.931 1.856 1.463 8418
1.949 1.874 1.466 9211
1.967 1.891 1.469 10629
1.970 1.894 1.461 10919
1.968 1.891 1.449 7705
1.965 1.889 1.438 3580
1.978 1.902 1.437 2608
2.053 1.974 1.477 2908
2.076 1.996 1.483 5284
2.084 2.004 1.478 6896
2.087 2.006 1.470 7247
2.111 2.029 1.475 8350
2.057 1.977 1.430 8665
2.064 1.985 1.425 8051
2.088 2.007 1.430 7605
2.096 2.015 1.425 5132
2.192 2.107 1.475 4319
2.185 2.100 1.459 4759
2.182 2.098 1.448 5839
2.190 2.105 1.442 6652
2.240 2.153 1.462 7795
2.253 2.166 1.459 8958
2.261 2.174 1.453 5752
2.227 2.141 1.423 4446
2.293 2.204 1.450 3619
2.291 2.202 1.438 4237
2.299 2.210 1.432 5130
2.312 2.222 1.429 4872
2.320 2.230 1.423 5794
2.391 2.299 1.452 7651
2.389 2.296 1.440 9371
2.402 2.309 1.436 8514
2.405 2.312 1.426 7816
2.408 2.314 1.417 8256
2.416 2.322 1.410 7952
2.440 2.345 1.412 7265
2.448 2.353 1.405 5638
2.514 2.417 1.428 6371
2.517 2.420 1.418 5882
2.509 2.412 1.403 7153
2.512 2.415 1.393 6831
2.563 2.463 1.407 4240
2.571 2.471 1.400 5719
2.584 2.484 1.395 8652
2.587 2.487 1.384 11058
2.584 2.484 1.371 8070
2.651 2.549 1.392 5869
2.659 2.556 1.384 5793
2.667 2.564 1.376 6280
2.681 2.577 1.370 5726
2.770 2.663 1.400 5074
2.778 2.670 1.391 7505
2.791 2.683 1.385 7790
2.805 2.696 1.379 5193
2.802 2.694 1.365 4934
2.810 2.701 1.356 3875
2.889 2.777 1.378 3357
2.881 2.769 1.362 5342
2.905 2.793 1.360 4583
2.907 2.795 1.348 3950
2.905 2.792 1.334 3483
3.006 2.889 1.363 6240
3.014 2.897 1.354 5851
3.022 2.905 1.344 4376
3.024 2.907 1.332 3234
3.142 3.020 1.365 2468
3.144 3.023 1.353 4145
3.141 3.020 1.338 3523
3.144 3.022 1.325 3548
3.152 3.030 1.315 4316
3.160 3.038 1.304 4551
3.394 3.263 1.377 4073
3.402 3.271 1.366 7155
3.399 3.268 1.350 8796
3.396 3.265 1.334 12714
3.399 3.267 1.321 12561
3.412 3.280 1.311 9187
3.415 3.283 1.297 6753
3.484 3.349 1.306 4806
3.530 3.394 1.307 4707
3.533 3.396 1.293 4779
3.524 3.388 1.275 2768
3.755 3.609 1.334 4140
3.768 3.622 1.323 4472
3.787 3.641 1.313 4070
3.784 3.638 1.296 4449
3.787 3.640 1.281 3814
3.873 3.723 1.291 3049
3.808 3.661 1.256 2780
4.084 3.926 1.320 2045
4.087 3.928 1.304 3230
4.078 3.920 1.284 4279
4.086 3.928 1.269 3382
4.256 4.091 1.299 3147
4.253 4.088 1.281 4262
4.138 3.978 1.232 2932
4.465 4.292 1.301 3454
4.468 4.295 1.283 2946
4.515 4.340 1.277 2232
4.461 4.289 1.244 2596
4.469 4.296 1.228 2581
4.713 4.531 1.268 2820
4.710 4.528 1.248 3139
4.718 4.535 1.231 3201
4.850 4.662 1.241 3871
4.841 4.653 1.219 3519
4.837 4.650 1.199 3369
5.155 4.956 1.248 2661
5.146 4.947 1.224 2784
5.143 4.944 1.203 2167
5.286 5.082 1.211 2260
5.283 5.078 1.188 3877
5.308 5.102 1.172 3018
5.768 5.545 1.238 1733
5.510 5.297 1.166 1706
5.891 5.663 1.213 1891
5.672 5.453 1.150 1755
6.439 6.190 1.261 1790
6.657 6.399 1.272 2132
6.659 6.401 1.246 2954
6.661 6.404 1.219 3974
6.669 6.411 1.193 5201
6.660 6.402 1.164 4225
6.656 6.399 1.136 3009
6.664 6.406 1.111 2999
6.666 6.408 1.084 2671
6.674 6.416 1.058 2111
6.681 6.423 1.032 1865
6.678 6.419 1.004 1323
6.674 6.416 0.976 573
6.749 6.488 0.958 372
6.757 6.495 0.932 279
1.462 1.401 1.551 4826
1.465 1.404 1.545 9653
1.472 1.411 1.544 8203
1.480 1.419 1.543 7114
1.502 1.439 1.555 7678
1.514 1.451 1.558 5586
1.527 1.463 1.561 3945
1.520 1.457 1.546 3110
1.514 1.451 1.532 2729
1.521 1.458 1.530 2637
1.529 1.466 1.528 3087
1.532 1.468 1.522 3643
1.597 1.530 1.573 4165
1.595 1.529 1.563 5523
1.598 1.532 1.556 9394
1.601 1.534 1.550 13265
1.604 1.537 1.544 12655
1.607 1.540 1.538 12045
1.610 1.543 1.531 9841
1.608 1.541 1.521 7662
1.611 1.544 1.514 6783
1.614 1.547 1.508 5904
1.616 1.549 1.502 4836
1.716 1.645 1.579 3855
1.720 1.648 1.572 5279
1.727 1.656 1.569 5548
1.735 1.663 1.566 5904
1.724 1.652 1.547 6902
1.722 1.650 1.536 8134
1.730 1.658 1.534 6790
1.747 1.675 1.539 6229
1.740 1.668 1.524 6574
1.753 1.680 1.525 6403
1.766 1.693 1.526 6808
1.779 1.705 1.527 5944
1.797 1.722 1.532 5658
1.804 1.730 1.529 6377
1.812 1.737 1.525 7245
1.815 1.740 1.518 8509
1.823 1.748 1.515 9659
1.821 1.745 1.504 8428
1.819 1.743 1.493 5652
1.882 1.804 1.531 5425
1.880 1.802 1.520 6092
1.878 1.800 1.509 7000
1.891 1.812 1.509 5955
1.899 1.820 1.505 6063
1.932 1.852 1.520 7330
1.904 1.825 1.490 7823
1.912 1.833 1.486 6618
1.940 1.860 1.497 4737
1.928 1.848 1.478 5872
1.931 1.851 1.470 7664
1.934 1.853 1.463 8243
1.957 1.876 1.469 9645
1.970 1.888 1.469 11268
1.973 1.891 1.461 11527
1.970 1.889 1.449 8135
1.973 1.891 1.442 3864
1.981 1.899 1.437 3117
2.046 1.961 1.470 3179
2.079 1.993 1.483 5211
2.082 1.996 1.474 6934
2.080 1.994 1.463 7361
2.062 1.976 1.441 8247
2.059 1.974 1.430 8348
2.067 1.982 1.425 7926
2.091 2.004 1.430 7732
2.099 2.012 1.425 5317
2.195 2.104 1.475 4318
2.188 2.097 1.459 4695
2.185 2.095 1.448 5830
2.198 2.107 1.445 6792
2.243 2.150 1.462 7906
2.256 2.163 1.459 9176
2.264 2.171 1.453 6012
2.236 2.143 1.426 4697
2.302 2.206 1.454 3912
2.299 2.204 1.441 4465
2.307 2.211 1.435 4760
2.320 2.224 1.432 4381
2.328 2.232 1.426 5925
2.395 2.295 1.452 7802
2.392 2.293 1.440 9280
2.411 2.311 1.439 8609
2.408 2.308 1.426 8134
2.411 2.311 1.417 8355
2.419 2.319 1.410 8117
2.438 2.337 1.409 7555
2.446 2.344 1.402 5781
2.518 2.413 1.428 6259
2.521 2.416 1.418 5825
2.513 2.408 1.403 6688
2.515 2.411 1.393 6295
2.566 2.460 1.407 4274
2.574 2.467 1.400 5923
2.588 2.480 1.395 8967
2.590 2.483 1.384 11341
2.587 2.480 1.371 8389
2.660 2.550 1.395 5917
2.668 2.558 1.387 5720
2.671 2.560 1.376 5909
2.766 2.651 1.408 5421
2.774 2.659 1.400 5206
2.782 2.666 1.391 7368
2.795 2.679 1.385 7542
2.809 2.692 1.379 5035
2.811 2.695 1.368 5238
2.814 2.697 1.356 4309
2.893 2.773 1.378 3664
2.885 2.765 1.362 6129
2.898 2.778 1.355 5094
2.911 2.791 1.348 4087
2.909 2.788 1.334 3706
3.015 2.890 1.366 6035
3.018 2.893 1.354 5531
3.026 2.900 1.344 4177
3.028 2.903 1.332 3171
3.146 3.016 1.365 2404
3.149 3.018 1.353 4057
3.146 3.015 1.338 3899
3.148 3.018 1.325 4311
3.156 3.025 1.315 4656
3.159 3.028 1.302 4531
3.250 3.115 1.322 3917
3.407 3.266 1.366 6333
3.404 3.263 1.350 7832
3.401 3.260 1.334 11683
3.403 3.262 1.321 12030
3.417 3.275 1.311 8683
3.514 3.368 1.330 6087
3.488 3.344 1.306 4953
3.535 3.389 1.307 4842
3.538 3.391 1.293 4743
3.529 3.383 1.275 2599
3.760 3.604 1.334 4259
3.773 3.617 1.323 4410
3.793 3.635 1.313 3928
3.795 3.638 1.298 4335
3.792 3.635 1.281 3821
3.884 3.723 1.293 3515
3.813 3.655 1.256 2763
4.084 3.915 1.319 2285
4.087 3.917 1.302 3265
4.083 3.914 1.284 4071
4.091 3.922 1.269 3203
4.262 4.085 1.299 3350
4.259 4.082 1.281 4497
4.256 4.079 1.262 2879
4.471 4.286 1.301 3318
4.474 4.288 1.283 2864
4.274 4.097 1.214 2402
4.462 4.277 1.243 2458
4.475 4.290 1.228 2594
4.720 4.524 1.268 2817
4.716 4.521 1.248 3264
4.719 4.523 1.229 3420
4.856 4.655 1.241 3837
4.847 4.646 1.219 3604
4.844 4.643 1.199 3538
5.162 4.948 1.248 2733
5.176 4.961 1.229 2249
5.325 5.104 1.239 1992
5.294 5.074 1.211 2415
5.290 5.071 1.188 4105
5.309 5.089 1.170 3126
5.776 5.536 1.238 1761
5.512 5.283 1.165 1695
5.899 5.655 1.213 1881
5.680 5.445 1.150 1810
6.448 6.181 1.261 1842
6.666 6.389 1.272 2076
6.668 6.392 1.246 2860
6.670 6.394 1.219 3836
6.678 6.401 1.193 5015
6.669 6.393 1.164 4148
6.666 6.389 1.136 3023
6.673 6.397 1.111 3007
6.675 6.399 1.084 2695
6.683 6.406 1.058 2139
6.691 6.413 1.032 1877
6.687 6.410 1.004 1332
6.683 6.406 0.976 588
6.679 6.402 0.949 359
6.686 6.409 0.922 269
1.463 1.400 1.551 4829
1.466 1.402 1.545 9658
1.474 1.410 1.544 8284
1.482 1.417 1.543 7212
1.503 1.438 1.555 7685
1.516 1.450 1.558 5676
1.528 1.461 1.561 4180
1.526 1.460 1.551 3190
1.515 1.449 1.532 2738
1.523 1.456 1.530 2609
1.531 1.464 1.528 2972
1.533 1.467 1.522 3474
1.598 1.529 1.573 4170
1.597 1.527 1.563 5571
1.600 1.530 1.556 9396
1.603 1.533 1.550 13222
1.606 1.535 1.544 12584
1.608 1.538 1.538 11947
1.611 1.541 1.531 9732
1.614 1.544 1.525 7517
1.617 1.547 1.518 6481
1.615 1.545 1.508 5461
1.618 1.548 1.502 4449
1.718 1.643 1.579 3900
1.721 1.646 1.572 5342
1.724 1.649 1.565 5425
1.737 1.661 1.566 5649
1.725 1.650 1.547 6596
1.724 1.648 1.536 7831
1.726 1.651 1.530 6404
1.749 1.673 1.539 5684
1.742 1.666 1.524 5962
1.755 1.678 1.525 5498
1.778 1.700 1.534 6090
1.791 1.712 1.535 5530
1.803 1.725 1.536 5367
1.806 1.728 1.529 6152
1.814 1.735 1.525 7092
1.817 1.738 1.518 8350
1.825 1.745 1.515 9525
1.823 1.743 1.504 8367
1.821 1.741 1.493 5480
1.884 1.802 1.531 5397
1.882 1.800 1.520 5965
1.880 1.798 1.509 6674
1.893 1.810 1.509 5777
1.901 1.818 1.505 6115
1.939 1.854 1.523 7453
1.906 1.823 1.490 7852
1.919 1.836 1.490 6571
1.948 1.863 1.500 5222
1.930 1.846 1.478 6066
1.933 1.849 1.470 7658
1.936 1.851 1.463 8019
1.959 1.874 1.469 10035
1.967 1.881 1.465 11751
1.975 1.889 1.461 11949
1.972 1.886 1.449 8427
1.980 1.894 1.445 4115
1.988 1.902 1.441 3544
2.043 1.953 1.467 3643
2.061 1.971 1.469 5536
2.074 1.984 1.468 7216
2.072 1.981 1.456 7643
2.064 1.974 1.441 8106
2.067 1.977 1.433 7936
2.090 1.999 1.438 7893
2.093 2.002 1.430 7794
2.101 2.009 1.425 5457
2.198 2.102 1.475 4385
2.195 2.099 1.463 4693
2.193 2.097 1.451 5769
2.201 2.105 1.445 6871
2.246 2.148 1.462 7859
2.259 2.160 1.459 9125
2.267 2.168 1.453 6094
2.238 2.140 1.426 4780
2.304 2.204 1.454 4165
2.307 2.206 1.444 4757
2.310 2.209 1.435 4475
2.323 2.222 1.432 3884
2.331 2.229 1.426 5970
2.392 2.288 1.449 7974
2.395 2.290 1.440 9157
2.424 2.318 1.445 8773
2.416 2.311 1.429 8443
2.414 2.308 1.417 8430
2.422 2.316 1.410 8207
2.414 2.308 1.395 7849
2.416 2.311 1.385 5896
2.521 2.411 1.428 6014
2.529 2.418 1.421 5753
2.521 2.411 1.406 6257
2.518 2.408 1.393 5815
2.569 2.457 1.407 4307
2.577 2.465 1.400 6007
2.585 2.472 1.392 9093
2.588 2.475 1.382 11435
2.590 2.477 1.371 8563
2.663 2.547 1.395 6072
2.671 2.555 1.387 5684
2.674 2.557 1.376 5479
2.769 2.648 1.408 5635
2.777 2.656 1.400 5283
2.785 2.663 1.391 7072
2.798 2.676 1.385 7083
2.812 2.689 1.379 4985
2.814 2.692 1.368 5723
2.817 2.694 1.356 4645
2.896 2.770 1.378 3914
2.888 2.762 1.362 6759
2.896 2.769 1.353 5592
2.915 2.788 1.348 4240
2.917 2.790 1.337 3851
3.018 2.887 1.366 5661
3.015 2.884 1.351 5074
3.029 2.897 1.344 3911
3.032 2.899 1.332 3087
3.128 2.991 1.356 2441
3.147 3.009 1.350 4019
3.149 3.012 1.338 4246
3.152 3.014 1.325 5182
3.154 3.017 1.313 5016
3.162 3.024 1.302 4517
3.253 3.111 1.322 3853
3.411 3.262 1.366 5508
3.408 3.259 1.350 6970
3.405 3.256 1.334 10349
3.407 3.258 1.321 11102
3.421 3.271 1.311 7923
3.518 3.364 1.330 5903
3.492 3.340 1.306 4984
3.539 3.385 1.307 4852
3.542 3.387 1.293 4538
3.750 3.587 1.346 2520
3.764 3.600 1.334 4292
3.777 3.613 1.323 4303
3.797 3.631 1.313 3772
3.799 3.633 1.298 4117
3.802 3.636 1.283 3647
3.888 3.718 1.293 3908
3.818 3.651 1.256 2640
4.089 3.910 1.319 2410
4.091 3.913 1.302 3220
4.088 3.910 1.284 3858
4.096 3.917 1.269 3019
4.261 4.075 1.298 3518
4.263 4.077 1.281 4615
4.266 4.080 1.264 2826
4.476 4.281 1.301 3233
4.479 4.283 1.283 2805
4.278 4.092 1.214 2486
4.461 4.266 1.242 2285
4.480 4.285 1.228 2456
4.725 4.519 1.268 2714
4.721 4.515 1.248 3326
4.724 4.518 1.229 3599
4.861 4.649 1.241 3749
4.853 4.641 1.219 3659
4.849 4.638 1.199 3694
5.162 4.937 1.246 3081
5.159 4.934 1.224 2636
5.325 5.093 1.238 1880
5.294 5.063 1.210 2497
5.296 5.065 1.188 4137
5.315 5.083 1.170 3112
5.782 5.530 1.238 1713
6.113 5.846 1.276 1735
5.900 5.643 1.212 1873
5.686 5.438 1.150 1793
6.455 6.173 1.261 1897
6.673 6.382 1.272 1965
6.675 6.384 1.246 2721
6.678 6.386 1.219 3648
6.686 6.394 1.193 4786
6.676 6.385 1.164 3921
6.673 6.382 1.136 2929
6.681 6.389 1.111 3022
6.683 6.391 1.084 2748
6.690 6.398 1.058 2161
6.698 6.406 1.032 1820
6.694 6.402 1.004 1283
6.690 6.398 0.976 556
6.686 6.395 0.949 328
1.465 1.398 1.551 4937
1.468 1.400 1.545 9875
1.476 1.408 1.544 8477
1.484 1.415 1.543 7360
1.510 1.440 1.560 7768
1.518 1.448 1.558 5824
1.530 1.459 1.561 4509
1.533 1.462 1.555 3353
1.512 1.443 1.527 2850
1.520 1.450 1.526 2712
1.528 1.457 1.524 2959
1.535 1.465 1.522 3415
1.600 1.526 1.573 4236
1.599 1.525 1.563 5707
1.602 1.528 1.556 9515
1.605 1.530 1.550 13324
1.608 1.533 1.544 12656
1.611 1.536 1.538 11988
1.614 1.539 1.531 9741
1.616 1.542 1.525 7495
1.619 1.545 1.518 6312
1.617 1.543 1.508 5049
1.620 1.545 1.502 4095
1.721 1.641 1.579 3986
1.724 1.644 1.572 5438
1.727 1.647 1.565 5476
1.739 1.659 1.566 5672
1.723 1.643 1.543 6642
1.726 1.646 1.536 7865
1.729 1.649 1.530 6337
1.751 1.670 1.539 5562
1.739 1.659 1.520 6100
1.752 1.671 1.521 5373
1.785 1.702 1.538 5845
1.803 1.719 1.543 5283
1.806 1.722 1.536 4974
1.814 1.730 1.532 5973
1.817 1.733 1.525 7022
1.820 1.735 1.518 8283
1.822 1.738 1.511 9518
1.825 1.741 1.504 8389
1.823 1.739 1.493 5454
1.886 1.799 1.531 5363
1.884 1.797 1.520 5897
1.882 1.795 1.509 6450
1.895 1.808 1.509 5687
1.903 1.815 1.505 6215
1.941 1.852 1.523 7615
1.909 1.821 1.490 7885
1.922 1.833 1.490 6566
1.950 1.860 1.500 5661
1.938 1.848 1.482 6216
1.935 1.846 1.470 7580
1.943 1.854 1.466 7833
1.967 1.876 1.473 10496
1.975 1.883 1.469 12264
1.977 1.886 1.461 12376
1.975 1.884 1.449 8686
1.983 1.891 1.445 4388
1.991 1.899 1.441 3975
2.045 1.951 1.467 4240
2.048 1.953 1.459 6494
2.066 1.971 1.461 7976
2.069 1.974 1.453 8195
2.067 1.971 1.441 7918
2.069 1.974 1.433 7473
2.093 1.996 1.438 7994
2.101 2.004 1.433 7907
2.104 2.006 1.425 5621
2.201 2.099 1.475 4591
2.198 2.097 1.463 4739
2.196 2.094 1.451 5652
2.209 2.107 1.448 6890
2.248 2.145 1.462 7798
2.262 2.157 1.459 9055
2.270 2.165 1.453 6167
2.241 2.137 1.426 4854
2.307 2.200 1.454 4464
2.315 2.208 1.447 5155
2.318 2.211 1.438 4289
2.368 2.259 1.456 4086
2.334 2.226 1.426 5916
2.395 2.284 1.449 8283
2.398 2.287 1.440 9049
2.427 2.315 1.445 9065
2.419 2.307 1.429 8871
2.417 2.305 1.417 8577
2.425 2.313 1.410 8329
2.417 2.305 1.395 8245
2.414 2.302 1.382 6251
2.524 2.407 1.428 5759
2.532 2.415 1.421 5766
2.524 2.407 1.406 5856
2.516 2.400 1.390 5221
2.572 2.453 1.407 4395
2.586 2.466 1.402 6076
2.588 2.469 1.392 9133
2.591 2.471 1.382 11383
2.594 2.474 1.371 8532
2.667 2.543 1.395 6442
2.675 2.551 1.387 5749
2.759 2.631 1.414 5568
2.772 2.644 1.408 5838
2.780 2.652 1.400 5341
2.788 2.660 1.391 6682
2.807 2.678 1.387 6516
2.821 2.691 1.381 5203
2.823 2.693 1.370 6394
2.826 2.695 1.359 4959
2.905 2.771 1.381 4155
2.897 2.763 1.364 7241
2.899 2.765 1.353 6035
2.918 2.784 1.348 4410
2.921 2.786 1.337 3979
3.022 2.883 1.366 5253
3.019 2.880 1.351 4629
3.027 2.888 1.342 3687
3.035 2.895 1.332 3028
3.126 2.982 1.354 2549
3.145 3.000 1.348 3959
3.148 3.002 1.336 4631
3.156 3.010 1.325 5972
3.158 3.012 1.313 5357
3.166 3.020 1.302 4144
3.257 3.107 1.322 4461
3.404 3.247 1.362 4934
3.401 3.244 1.346 6401
3.409 3.251 1.334 9144
3.411 3.254 1.321 10037
3.425 3.267 1.311 6958
3.522 3.359 1.330 5672
3.497 3.335 1.306 4916
3.544 3.380 1.307 4776
3.546 3.382 1.293 4227
3.755 3.581 1.346 2622
3.769 3.595 1.334 4247
3.782 3.608 1.323 4110
3.802 3.626 1.313 3595
3.810 3.634 1.300 3812
3.896 3.716 1.310 3680
3.893 3.713 1.293 4217
3.822 3.646 1.256 2464
4.094 3.905 1.319 2576
4.096 3.907 1.302 3142
4.093 3.904 1.284 3572
4.101 3.912 1.269 2763
4.267 4.069 1.298 3676
4.269 4.072 1.281 4612
4.271 4.074 1.264 2710
4.482 4.275 1.301 3059
4.479 4.272 1.282 2697
4.284 4.086 1.214 2607
4.444 4.239 1.236 2219
4.486 4.279 1.228 2278
4.725 4.507 1.267 2699
4.728 4.509 1.248 3437
4.730 4.511 1.229 3804
4.868 4.643 1.241 3633
4.853 4.629 1.218 3656
4.855 4.631 1.199 3723
5.180 4.941 1.249 2932
5.211 4.970 1.234 2300
5.224 4.983 1.215 1827
5.300 5.056 1.210 2556
5.303 5.058 1.188 4168
5.305 5.060 1.167 3116
5.789 5.522 1.238 1669
6.195 5.908 1.290 1828
6.197 5.911 1.265 1903
5.694 5.431 1.150 1759
6.463 6.165 1.261 1921
6.466 6.167 1.235 1939
6.684 6.375 1.246 2565
6.686 6.377 1.219 3427
6.694 6.385 1.193 4511
6.685 6.376 1.164 3740
6.681 6.373 1.136 2822
6.689 6.380 1.111 2900
6.691 6.382 1.084 2644
6.693 6.384 1.057 2080
6.701 6.391 1.031 1751
6.703 6.393 1.004 1224
6.699 6.389 0.976 541
6.695 6.386 0.949 333
1.467 1.396 1.551 4980
1.470 1.399 1.545 9961
1.478 1.406 1.544 8559
1.485 1.413 1.543 7417
1.507 1.434 1.555 7745
1.520 1.446 1.558 5853
1.532 1.457 1.561 4708
1.535 1.460 1.555 3475
1.514 1.441 1.527 2957
1.522 1.448 1.526 2773
1.530 1.455 1.524 2965
1.537 1.463 1.522 3374
1.602 1.524 1.573 4306
1.601 1.523 1.563 5845
1.604 1.526 1.556 9605
1.607 1.528 1.550 13365
1.610 1.531 1.544 12677
1.613 1.534 1.538 11990
1.615 1.537 1.531 9740
1.618 1.540 1.525 7489
1.621 1.543 1.518 6201
1.619 1.541 1.508 4747
1.622 1.543 1.502 3857
1.723 1.639 1.579 3863
1.726 1.642 1.572 5231
1.729 1.645 1.565 5176
1.742 1.657 1.566 5311
1.720 1.636 1.539 6347
1.723 1.639 1.532 7431
1.726 1.642 1.526 6140
1.734 1.649 1.523 5639
1.742 1.657 1.520 6796
1.754 1.669 1.521 6116
1.787 1.700 1.538 5989
1.805 1.717 1.543 5252
1.813 1.725 1.540 4738
1.816 1.728 1.532 5873
1.819 1.730 1.525 7009
1.827 1.738 1.522 8283
1.825 1.736 1.511 9554
1.828 1.739 1.504 8446
1.825 1.737 1.493 5559
1.884 1.792 1.527 5324
1.887 1.795 1.520 5788
1.889 1.798 1.512 6252
1.897 1.805 1.509 5583
1.905 1.813 1.505 6256
1.888 1.796 1.483 7699
1.911 1.818 1.490 7848
1.924 1.831 1.490 6507
1.952 1.858 1.500 5972
1.945 1.851 1.485 6386
1.938 1.844 1.470 7419
1.946 1.851 1.466 7593
1.969 1.873 1.473 10877
1.977 1.881 1.469 12647
1.980 1.884 1.461 12666
1.983 1.886 1.453 8867
1.985 1.889 1.445 4565
1.993 1.896 1.441 4281
2.048 1.948 1.467 4736
2.050 1.951 1.459 7462
2.064 1.963 1.458 8809
2.066 1.966 1.449 8685
2.069 1.969 1.441 7678
2.072 1.971 1.433 7025
2.096 1.994 1.438 8068
2.103 2.001 1.433 7989
2.106 2.004 1.425 5745
2.198 2.091 1.471 4777
2.201 2.094 1.463 4791
2.198 2.091 1.451 5683
2.212 2.104 1.448 7045
2.246 2.137 1.459 7685
2.264 2.154 1.459 8850
2.273 2.162 1.453 6156
2.244 2.135 1.426 4769
2.310 2.198 1.454 4711
2.318 2.205 1.447 5556
2.326 2.213 1.441 4209
2.371 2.256 1.456 4407
2.337 2.223 1.426 5759
2.398 2.281 1.449 8540
2.401 2.284 1.440 8902
2.430 2.312 1.445 9246
2.422 2.304 1.429 9143
2.420 2.302 1.417 8594
2.428 2.310 1.410 8341
2.425 2.307 1.398 8527
2.417 2.299 1.382 6494
2.527 2.404 1.428 5401
2.535 2.412 1.421 5716
2.527 2.404 1.406 5576
2.519 2.396 1.390 4820
2.575 2.450 1.407 4618
2.589 2.463 1.402 6151
2.591 2.465 1.392 9080
2.594 2.468 1.382 11233
2.597 2.470 1.371 8458
2.670 2.540 1.395 6720
2.678 2.548 1.387 5691
2.762 2.628 1.414 5653
2.776 2.641 1.408 5951
2.784 2.648 1.400 5319
2.792 2.656 1.391 6242
2.811 2.674 1.387 5963
2.830 2.692 1.384 5530
2.827 2.689 1.370 7078
2.829 2.692 1.359 5232
2.903 2.762 1.378 4309
2.900 2.759 1.364 7548
2.903 2.762 1.353 6323
2.922 2.780 1.348 4505
2.924 2.782 1.337 3969
3.026 2.879 1.366 4910
3.012 2.866 1.347 4338
3.031 2.884 1.342 3531
3.039 2.891 1.332 2975
3.130 2.978 1.354 2722
3.149 2.996 1.348 3785
3.157 3.004 1.338 4636
3.165 3.011 1.327 6299
3.162 3.008 1.313 5462
3.170 3.016 1.302 4056
3.322 3.161 1.345 4462
3.397 3.232 1.357 4966
3.399 3.234 1.344 6523
3.407 3.242 1.332 8267
3.416 3.250 1.321 9072
3.429 3.262 1.311 6224
3.526 3.355 1.330 5279
3.501 3.331 1.306 4660
3.570 3.397 1.315 4695
3.550 3.378 1.293 3953
3.637 3.460 1.306 2816
3.773 3.590 1.334 4159
3.787 3.603 1.323 3968
3.801 3.616 1.311 3427
3.814 3.629 1.300 3399
3.901 3.711 1.310 3822
3.898 3.708 1.293 4366
4.085 3.886 1.332 2379
4.093 3.894 1.317 2606
4.096 3.897 1.301 2971
4.098 3.899 1.284 3249
4.106 3.907 1.269 2479
4.272 4.064 1.298 3755
4.274 4.066 1.281 4582
4.276 4.069 1.264 2630
4.482 4.264 1.300 2916
4.484 4.266 1.282 2714
4.441 4.226 1.252 2827
4.449 4.233 1.236 2442
4.491 4.273 1.228 2041
4.731 4.501 1.267 2675
4.733 4.503 1.248 3524
4.736 4.505 1.229 3940
4.874 4.637 1.241 3445
4.859 4.623 1.218 3597
4.861 4.625 1.199 3699
5.186 4.934 1.249 3005
5.223 4.969 1.235 2394
5.231 4.976 1.215 1884
5.307 5.049 1.210 2545
5.309 5.051 1.188 4115
5.311 5.053 1.167 3070
5.518 5.250 1.185 1622
6.202 5.901 1.290 2052
6.205 5.903 1.265 2205
6.213 5.911 1.242 1736
6.226 5.924 1.219 1958
6.223 5.920 1.193 2182
6.692 6.367 1.246 2421
6.694 6.369 1.219 3193
6.697 6.371 1.192 4122
6.693 6.368 1.164 3428
6.690 6.364 1.136 2672
6.697 6.372 1.111 2810
6.699 6.374 1.084 2569
6.701 6.376 1.057 2016
6.709 6.383 1.031 1643
6.711 6.385 1.004 1117
6.707 6.381 0.976 474
6.703 6.377 0.949 284
1.468 1.395 1.551 4968
1.471 1.398 1.545 9936
1.478 1.405 1.544 8576
1.486 1.413 1.543 7439
1.512 1.438 1.560 7696
1.525 1.450 1.563 5914
1.537 1.461 1.566 4991
1.536 1.460 1.555 3667
1.515 1.440 1.527 3178
1.518 1.443 1.521 2958
1.530 1.455 1.524 3098
1.538 1.462 1.522 3484
1.603 1.524 1.573 4381
1.601 1.522 1.563 5980
1.604 1.525 1.556 9691
1.607 1.528 1.550 13402
1.610 1.531 1.544 12696
1.613 1.534 1.538 11989
1.616 1.536 1.531 9730
1.624 1.544 1.529 7504
1.627 1.547 1.523 6146
1.625 1.545 1.512 4532
1.623 1.543 1.502 3697
1.723 1.638 1.579 3739
1.726 1.641 1.572 4987
1.724 1.639 1.561 4741
1.693 1.610 1.525 5582
1.706 1.622 1.527 6206
1.714 1.629 1.524 6922
1.722 1.637 1.521 5888
1.734 1.649 1.523 5823
1.747 1.661 1.524 7462
1.755 1.668 1.521 6953
1.768 1.681 1.522 6846
1.806 1.717 1.543 5400
1.814 1.724 1.540 4740
1.816 1.727 1.532 5931
1.824 1.734 1.529 7133
1.827 1.737 1.522 8404
1.825 1.735 1.511 9693
1.828 1.738 1.504 8629
1.826 1.736 1.493 5838
1.884 1.791 1.527 5203
1.887 1.794 1.520 5640
1.890 1.797 1.512 6077
1.898 1.804 1.509 5448
1.906 1.812 1.505 6231
1.889 1.795 1.483 7830
1.912 1.817 1.490 7726
1.925 1.830 1.490 6381
1.948 1.852 1.497 6203
1.946 1.850 1.485 6540
1.938 1.843 1.470 7212
1.972 1.875 1.484 7821
1.970 1.873 1.473 11306
1.978 1.880 1.469 13069
1.980 1.883 1.461 12965
1.983 1.885 1.453 9091
1.986 1.888 1.445 4750
1.994 1.896 1.441 4543
2.048 1.947 1.467 5266
2.051 1.950 1.459 8472
2.059 1.958 1.454 9785
2.067 1.965 1.449 9238
2.070 1.968 1.441 7440
2.073 1.970 1.433 6560
2.096 1.993 1.438 8091
2.104 2.000 1.433 8039
2.107 2.003 1.425 5873
2.193 2.085 1.468 5101
2.202 2.093 1.463 4903
2.204 2.096 1.454 5646
2.212 2.103 1.448 7121
2.247 2.136 1.459 7554
2.265 2.154 1.459 8566
2.273 2.161 1.453 6110
2.244 2.134 1.426 4639
2.316 2.202 1.457 5001
2.319 2.204 1.447 6066
2.332 2.217 1.444 4359
2.372 2.255 1.456 4814
2.380 2.263 1.450 5893
2.393 2.275 1.446 8943
2.402 2.283 1.440 8794
2.436 2.316 1.448 9408
2.423 2.304 1.429 9459
2.420 2.301 1.417 8691
2.428 2.309 1.410 8436
2.426 2.306 1.398 8914
2.418 2.298 1.382 6772
2.528 2.403 1.428 5012
2.536 2.411 1.421 5632
2.539 2.413 1.411 5316
2.520 2.395 1.390 4346
2.576 2.449 1.407 4809
2.590 2.462 1.402 6186
2.592 2.465 1.392 8960
2.595 2.467 1.382 10940
2.598 2.470 1.371 8268
2.671 2.539 1.395 7141
2.679 2.547 1.387 5706
2.763 2.627 1.414 5661
2.776 2.640 1.408 6025
2.785 2.647 1.400 5311
2.793 2.655 1.391 5772
2.812 2.673 1.387 5413
2.831 2.691 1.384 6027
2.833 2.694 1.372 7912
2.830 2.691 1.359 5540
2.904 2.761 1.378 4464
2.901 2.758 1.364 7780
2.909 2.766 1.355 6524
2.923 2.779 1.348 4533
2.931 2.786 1.339 3899
3.027 2.878 1.366 4424
3.008 2.859 1.345 4152
3.032 2.883 1.342 3352
3.112 2.958 1.360 2910
3.131 2.977 1.354 2853
3.145 2.989 1.346 3647
3.153 2.997 1.336 4688
3.166 3.010 1.327 6496
3.163 3.007 1.313 5451
3.166 3.010 1.300 3835
3.323 3.159 1.345 4773
3.398 3.230 1.357 5260
3.395 3.228 1.342 6437
3.409 3.241 1.332 7454
3.417 3.248 1.321 8309
3.425 3.256 1.309 5436
3.533 3.359 1.332 4797
3.502 3.329 1.306 4348
3.577 3.401 1.316 4667
3.574 3.398 1.300 3618
3.638 3.458 1.306 3004
3.775 3.588 1.334 3956
3.788 3.601 1.323 3740
3.802 3.614 1.311 3276
3.816 3.627 1.300 2936
3.902 3.710 1.310 3909
3.899 3.707 1.293 4457
4.087 3.885 1.332 2424
4.095 3.893 1.317 2613
4.097 3.895 1.301 2732
4.100 3.897 1.284 2794
4.259 4.049 1.312 2296
4.273 4.062 1.298 3814
4.276 4.065 1.281 4418
4.284 4.072 1.265 2518
4.489 4.268 1.301 2611
4.486 4.264 1.282 2483
4.443 4.224 1.252 3081
4.451 4.231 1.236 2612
4.374 4.158 1.199 2086
4.733 4.499 1.267 2618
4.735 4.501 1.248 3531
4.737 4.504 1.229 4006
4.740 4.506 1.210 3258
4.855 4.616 1.217 3498
4.857 4.618 1.197 3620
5.183 4.927 1.248 3244
5.225 4.967 1.235 2490
5.233 4.975 1.215 1935
5.309 5.047 1.210 2528
5.311 5.049 1.188 4002
5.313 5.051 1.167 2988
5.520 5.248 1.185 1617
6.204 5.898 1.290 2320
6.207 5.901 1.265 2538
6.215 5.908 1.242 2075
6.223 5.916 1.218 2336
6.225 5.918 1.193 2535
6.694 6.364 1.246 2208
6.697 6.366 1.219 2926
6.705 6.374 1.193 3778
6.695 6.365 1.164 3118
6.692 6.362 1.136 2468
6.700 6.369 1.111 2614
6.702 6.371 1.084 2395
6.704 6.373 1.057 1895
6.711 6.380 1.031 1547
6.713 6.382 1.004 1040
6.709 6.378 0.976 421
1.469 1.393 1.551 4949
1.472 1.396 1.545 9899
1.475 1.399 1.540 8572
1.488 1.411 1.543 7420
1.514 1.436 1.560 7586
1.527 1.448 1.563 5938
1.539 1.460 1.566 5250
1.537 1.458 1.555 3838
1.512 1.434 1.523 3433
1.519 1.441 1.521 3218
1.532 1.453 1.524 3284
1.535 1.456 1.518 3661
1.605 1.522 1.573 4435
1.603 1.520 1.563 6079
1.606 1.523 1.556 9766
1.609 1.526 1.550 13453
1.612 1.529 1.544 12752
1.615 1.532 1.538 12050
1.618 1.534 1.531 9777
1.626 1.542 1.529 7603
1.629 1.545 1.523 6235
1.627 1.543 1.512 4524
1.625 1.541 1.502 3728
1.725 1.636 1.579 3643
1.728 1.639 1.572 4769
1.692 1.605 1.532 5037
1.695 1.608 1.525 6166
1.703 1.615 1.523 6589
1.711 1.622 1.520 6810
1.719 1.630 1.517 5761
1.736 1.647 1.523 5730
1.749 1.659 1.524 7469
1.757 1.666 1.521 7114
1.770 1.679 1.522 7319
1.778 1.686 1.519 5765
1.816 1.722 1.540 4897
1.819 1.725 1.532 6160
1.827 1.732 1.529 7472
1.829 1.735 1.522 8674
1.827 1.733 1.511 9954
1.830 1.736 1.504 8936
1.828 1.734 1.493 6214
1.881 1.784 1.523 5057
1.884 1.787 1.516 5531
1.887 1.790 1.509 6005
1.900 1.802 1.509 5362
1.908 1.810 1.505 6167
1.891 1.793 1.483 7879
1.904 1.806 1.482 7598
1.942 1.842 1.501 6361
1.950 1.850 1.497 6414
1.948 1.848 1.485 6662
1.941 1.840 1.470 6992
1.974 1.872 1.484 7950
1.972 1.870 1.473 11607
1.980 1.878 1.469 13379
1.983 1.880 1.461 13171
1.985 1.883 1.453 9253
1.993 1.891 1.449 4943
1.996 1.893 1.441 4802
2.051 1.945 1.467 5770
2.054 1.948 1.459 9383
2.062 1.955 1.454 10705
2.070 1.963 1.449 9766
2.072 1.965 1.441 7272
2.075 1.968 1.433 6188
2.099 1.990 1.438 8190
2.107 1.998 1.433 8139
2.109 2.001 1.425 6004
2.196 2.083 1.468 5505
2.199 2.085 1.459 5027
2.207 2.093 1.454 5644
2.220 2.106 1.452 7238
2.249 2.133 1.459 7427
2.268 2.151 1.459 8165
2.281 2.163 1.456 5968
2.247 2.131 1.426 4482
2.319 2.199 1.457 5295
2.327 2.207 1.450 6680
2.340 2.219 1.447 4813
2.380 2.257 1.459 5234
2.388 2.265 1.453 6302
2.396 2.273 1.446 9354
2.404 2.280 1.440 8726
2.439 2.313 1.448 9589
2.426 2.301 1.429 9786
2.423 2.298 1.417 8832
2.426 2.301 1.407 8568
2.429 2.303 1.398 9270
2.420 2.296 1.382 6950
2.520 2.390 1.423 4688
2.539 2.408 1.421 5505
2.541 2.410 1.411 5111
2.555 2.423 1.406 4162
2.579 2.446 1.407 5106
2.593 2.459 1.402 6179
2.595 2.461 1.392 8778
2.598 2.464 1.382 10626
2.601 2.466 1.371 8037
2.674 2.536 1.395 7490
2.682 2.543 1.387 5751
2.766 2.623 1.414 5655
2.780 2.636 1.408 6004
2.788 2.644 1.400 5221
2.796 2.652 1.391 5239
2.815 2.670 1.387 4868
2.839 2.693 1.386 6578
2.837 2.690 1.372 8631
2.834 2.687 1.359 5818
2.908 2.757 1.378 4527
2.905 2.755 1.364 7832
2.913 2.762 1.355 6614
2.926 2.775 1.348 4516
2.934 2.783 1.339 3775
3.030 2.874 1.366 4017
3.005 2.850 1.342 4059
3.030 2.874 1.339 3195
3.121 2.960 1.362 3076
3.129 2.968 1.352 2926
3.148 2.986 1.346 3307
3.167 3.004 1.340 4600
3.170 3.006 1.327 6672
3.167 3.003 1.313 5445
3.269 3.100 1.337 3938
3.333 3.161 1.347 4737
3.402 3.226 1.357 5278
3.399 3.224 1.342 5888
3.413 3.236 1.332 6244
3.421 3.244 1.321 7195
3.423 3.247 1.307 4578
3.537 3.355 1.332 4374
3.506 3.325 1.306 4066
3.581 3.396 1.316 4728
3.578 3.393 1.300 3634
3.631 3.444 1.302 3267
3.779 3.584 1.334 3692
3.793 3.597 1.323 3461
3.801 3.604 1.310 3069
3.803 3.607 1.294 2443
3.907 3.705 1.310 3890
3.903 3.702 1.293 4370
4.091 3.880 1.332 2403
4.032 3.824 1.297 2539
4.096 3.885 1.299 2433
3.947 3.743 1.240 2600
4.259 4.039 1.310 2592
4.272 4.052 1.296 3837
4.280 4.060 1.281 4187
4.289 4.067 1.265 2402
4.325 4.102 1.257 2617
4.299 4.077 1.232 2533
4.448 4.219 1.252 3213
4.450 4.221 1.235 2675
4.379 4.153 1.199 2152
4.738 4.493 1.267 2518
4.735 4.490 1.247 3532
4.743 4.498 1.229 4065
4.745 4.500 1.210 3212
4.855 4.604 1.215 3420
4.863 4.612 1.197 3517
5.189 4.921 1.248 3083
5.231 4.961 1.235 2626
5.239 4.968 1.215 2033
5.315 5.040 1.210 2498
5.317 5.043 1.188 3865
5.319 5.045 1.167 2882
6.215 5.894 1.316 1725
6.211 5.891 1.290 2603
6.220 5.899 1.266 2899
6.222 5.901 1.242 2435
6.230 5.908 1.218 2734
6.232 5.911 1.193 2908
6.234 5.913 1.168 2097
6.704 6.358 1.219 2601
6.712 6.366 1.193 3370
6.703 6.357 1.164 2808
6.700 6.354 1.136 2272
6.702 6.356 1.110 2412
6.704 6.358 1.083 2199
6.711 6.365 1.057 1721
6.719 6.372 1.031 1391
6.721 6.374 1.004 925
6.723 6.376 0.977 380
1.471 1.392 1.551 4858
1.474 1.395 1.545 9716
1.477 1.397 1.540 8426
1.489 1.409 1.543 7233
1.516 1.434 1.560 7338
1.528 1.446 1.563 5930
1.541 1.458 1.566 5539
1.539 1.456 1.555 4057
1.514 1.432 1.523 3769
1.521 1.439 1.521 3549
1.529 1.447 1.520 3590
1.537 1.454 1.518 3966
1.607 1.520 1.573 4465
1.605 1.518 1.563 6160
1.608 1.521 1.556 9770
1.611 1.524 1.550 13380
1.614 1.527 1.544 12673
1.617 1.530 1.538 11966
1.620 1.532 1.531 9715
1.628 1.540 1.529 7625
1.630 1.543 1.523 6283
1.629 1.541 1.512 4527
1.627 1.539 1.502 3772
1.727 1.634 1.579 3534
1.725 1.632 1.568 4549
1.694 1.603 1.532 5473
1.697 1.606 1.525 6677
1.700 1.608 1.519 7001
1.713 1.620 1.520 6915
1.716 1.623 1.513 5775
1.733 1.640 1.519 5394
1.751 1.657 1.524 6809
1.764 1.669 1.525 6487
1.777 1.681 1.526 7020
1.780 1.684 1.519 5937
1.813 1.715 1.536 5142
1.821 1.723 1.532 6467
1.829 1.730 1.529 7878
1.832 1.733 1.522 8981
1.834 1.736 1.515 10215
1.832 1.734 1.504 9223
1.830 1.732 1.493 6542
1.873 1.772 1.516 5069
1.886 1.785 1.516 5493
1.889 1.788 1.509 6031
1.902 1.800 1.509 5306
1.915 1.812 1.509 6045
1.893 1.791 1.483 7752
1.901 1.798 1.479 7425
1.945 1.840 1.501 6229
1.953 1.847 1.497 6419
1.955 1.850 1.489 6613
1.948 1.843 1.474 6693
1.976 1.870 1.484 8021
1.974 1.868 1.473 11792
1.982 1.875 1.469 13567
1.985 1.878 1.461 13278
1.993 1.886 1.456 9351
1.996 1.888 1.449 5070
1.998 1.891 1.441 4944
2.058 1.947 1.470 6291
2.056 1.945 1.459 10139
2.064 1.953 1.454 11446
2.072 1.960 1.449 10157
2.075 1.963 1.441 7217
2.083 1.970 1.436 6014
2.101 1.988 1.438 8128
2.109 1.995 1.433 8088
2.117 2.003 1.428 6102
2.193 2.075 1.465 5910
2.201 2.083 1.459 5077
2.215 2.095 1.457 5602
2.223 2.103 1.452 7300
2.252 2.130 1.459 7302
2.270 2.148 1.459 7752
2.284 2.161 1.456 5812
2.292 2.168 1.450 4382
2.326 2.201 1.460 5556
2.329 2.204 1.450 7285
2.343 2.216 1.447 5357
2.383 2.254 1.459 5592
2.391 2.262 1.453 6720
2.399 2.270 1.446 9734
2.407 2.277 1.440 8696
2.442 2.310 1.448 9657
2.429 2.298 1.429 9939
2.426 2.295 1.417 8833
2.429 2.298 1.407 8587
2.431 2.300 1.398 9428
2.423 2.293 1.382 7012
2.507 2.372 1.414 4630
2.542 2.405 1.421 5331
2.544 2.407 1.411 4870
2.563 2.425 1.409 4210
2.582 2.443 1.407 5302
2.596 2.456 1.402 6085
2.598 2.458 1.392 8494
2.601 2.461 1.382 10131
2.604 2.463 1.371 7610
2.677 2.533 1.395 7696
2.679 2.535 1.384 5831
2.769 2.620 1.414 5566
2.783 2.633 1.408 5910
2.791 2.641 1.400 5117
2.799 2.648 1.391 4700
2.818 2.666 1.387 4408
2.843 2.689 1.386 7080
2.840 2.687 1.372 9157
2.837 2.684 1.359 6056
2.911 2.754 1.378 4510
2.908 2.751 1.364 7706
2.916 2.759 1.355 6584
2.935 2.777 1.351 4434
2.943 2.785 1.341 3543
3.034 2.870 1.366 3636
3.009 2.847 1.342 4020
3.023 2.860 1.335 3200
3.130 2.961 1.365 3269
3.133 2.964 1.352 3024
3.152 2.982 1.346 2999
3.171 3.000 1.340 4510
3.173 3.002 1.327 6638
3.176 3.005 1.315 5411
3.273 3.096 1.337 4145
3.331 3.151 1.345 4757
3.406 3.222 1.357 4786
3.408 3.225 1.344 4765
3.416 3.232 1.332 5052
3.419 3.235 1.319 5921
3.539 3.348 1.346 3712
3.586 3.393 1.347 4228
3.516 3.326 1.308 3682
3.585 3.392 1.316 4676
3.582 3.389 1.300 3714
3.635 3.439 1.302 3589
3.649 3.452 1.291 3610
3.797 3.592 1.323 3267
3.805 3.600 1.310 2973
3.908 3.698 1.325 2220
3.911 3.700 1.310 3852
3.908 3.697 1.293 4279
4.096 3.875 1.332 2360
4.036 3.819 1.297 2625
4.056 3.837 1.286 2600
3.951 3.738 1.240 2653
4.264 4.034 1.310 2780
4.277 4.047 1.296 3789
4.285 4.054 1.281 3949
4.322 4.089 1.273 2506
4.330 4.096 1.257 2896
4.304 4.072 1.232 2593
4.447 4.208 1.251 3330
4.455 4.215 1.235 2707
4.384 4.148 1.199 2132
4.738 4.482 1.266 2445
4.740 4.485 1.247 3519
4.742 4.487 1.228 4105
4.750 4.494 1.210 3185
4.838 4.577 1.210 3527
4.868 4.606 1.197 3339
5.200 4.920 1.249 2873
5.237 4.954 1.235 2606
5.245 4.962 1.215 2028
5.315 5.029 1.208 2425
5.323 5.036 1.188 3672
5.325 5.038 1.167 2732
6.216 5.881 1.315 1843
6.219 5.883 1.290 2863
6.227 5.891 1.266 3214
6.229 5.893 1.242 2744
6.237 5.901 1.218 3090
6.239 5.903 1.193 3229
6.241 5.905 1.168 2295
6.712 6.350 1.219 2305
6.720 6.358 1.193 2892
6.711 6.349 1.164 2414
6.707 6.346 1.136 2024
6.709 6.348 1.110 2197
6.711 6.350 1.083 2005
6.719 6.357 1.057 1546
6.727 6.364 1.031 1210
6.728 6.366 1.004 797
6.736 6.373 0.978 315
1.473 1.390 1.551 4812
1.476 1.393 1.545 9625
1.479 1.396 1.540 8327
1.486 1.403 1.538 7039
1.489 1.406 1.533 7039
1.535 1.449 1.567 5918
1.542 1.456 1.566 5883
1.546 1.459 1.560 4353
1.515 1.430 1.523 4341
1.523 1.437 1.521 4066
1.531 1.445 1.520 4060
1.538 1.452 1.518 4444
1.608 1.518 1.573 4563
1.607 1.516 1.563 6306
1.610 1.519 1.556 9894
1.613 1.522 1.550 13483
1.616 1.525 1.544 12768
1.619 1.528 1.538 12054
1.622 1.530 1.531 9809
1.629 1.538 1.529 7792
1.632 1.541 1.523 6491
1.635 1.543 1.516 4704
1.628 1.537 1.502 3975
1.729 1.632 1.579 3486
1.688 1.593 1.534 4795
1.696 1.601 1.532 6041
1.699 1.603 1.525 7346
1.702 1.606 1.519 7604
1.710 1.614 1.516 7242
1.713 1.616 1.509 6071
1.730 1.633 1.515 5113
1.748 1.650 1.520 5894
1.811 1.709 1.561 6004
1.814 1.712 1.554 6848
1.812 1.710 1.543 6151
1.815 1.713 1.536 5461
1.823 1.720 1.532 6991
1.826 1.723 1.525 8608
1.834 1.731 1.522 9594
1.837 1.733 1.515 10795
1.834 1.731 1.504 9763
1.837 1.734 1.497 7022
1.840 1.737 1.489 5571
1.884 1.778 1.512 5498
1.892 1.785 1.509 6130
1.905 1.798 1.509 5318
1.918 1.810 1.509 5928
1.895 1.789 1.483 7597
1.903 1.796 1.479 7234
1.947 1.837 1.501 5994
1.955 1.845 1.497 6301
1.958 1.848 1.489 6487
1.950 1.841 1.474 6392
1.979 1.868 1.484 8100
1.976 1.865 1.473 11993
1.984 1.873 1.469 13764
1.987 1.876 1.461 13367
1.995 1.883 1.456 9511
1.998 1.886 1.449 5180
2.001 1.888 1.441 5053
2.061 1.945 1.470 6993
2.058 1.943 1.459 10893
2.066 1.950 1.454 12136
2.074 1.958 1.449 10510
2.077 1.960 1.441 7325
2.085 1.968 1.436 6146
2.103 1.985 1.438 8188
2.111 1.993 1.433 8133
2.119 2.000 1.428 6297
2.159 2.038 1.442 6413
2.199 2.075 1.456 5137
2.217 2.093 1.457 5563
2.225 2.100 1.452 7362
2.254 2.128 1.459 7156
2.273 2.145 1.459 7275
2.286 2.158 1.456 5644
2.321 2.191 1.466 4405
2.329 2.198 1.460 5936
2.332 2.201 1.450 8052
2.351 2.219 1.450 6116
2.385 2.251 1.459 6037
2.399 2.264 1.456 7221
2.402 2.267 1.446 10185
2.410 2.274 1.440 8734
2.445 2.307 1.448 9776
2.431 2.295 1.429 10156
2.429 2.292 1.417 8936
2.431 2.295 1.407 8721
2.434 2.297 1.398 9645
2.426 2.290 1.382 7010
2.504 2.363 1.412 4790
2.528 2.386 1.413 5228
2.553 2.409 1.414 4655
2.572 2.427 1.412 4402
2.585 2.440 1.407 5671
2.599 2.453 1.402 6071
2.601 2.455 1.392 8210
2.604 2.458 1.382 9593
2.607 2.460 1.371 7158
2.680 2.529 1.395 8022
2.677 2.527 1.382 6101
2.772 2.617 1.414 5508
2.786 2.630 1.408 5842
2.794 2.637 1.400 5096
2.802 2.645 1.391 4138
2.838 2.678 1.395 4083
2.846 2.686 1.386 7587
2.843 2.683 1.372 9600
2.840 2.681 1.359 6319
2.914 2.750 1.378 4470
2.917 2.753 1.367 7472
2.919 2.755 1.355 6468
2.938 2.773 1.351 4337
3.046 2.875 1.382 3468
3.015 2.846 1.357 3412
3.012 2.843 1.342 3997
3.026 2.856 1.335 3247
3.134 2.958 1.365 3272
3.136 2.960 1.352 3098
3.150 2.973 1.344 2786
3.175 2.996 1.340 4427
3.183 3.004 1.329 6676
3.180 3.001 1.315 5418
3.277 3.093 1.337 4672
3.340 3.153 1.347 5042
3.343 3.155 1.333 4953
3.418 3.226 1.346 3771
3.426 3.234 1.334 4197
3.434 3.241 1.323 4554
3.565 3.365 1.353 3337
3.590 3.388 1.347 4132
3.598 3.396 1.334 3376
3.589 3.388 1.316 4634
3.586 3.385 1.300 3841
3.639 3.435 1.302 3972
3.653 3.448 1.291 3722
3.801 3.588 1.323 3162
3.809 3.595 1.310 2906
3.913 3.693 1.325 2217
3.915 3.696 1.310 3657
3.918 3.698 1.294 3976
4.027 3.801 1.310 2298
4.047 3.819 1.299 2813
4.060 3.832 1.286 3031
3.950 3.728 1.238 2651
4.268 4.029 1.310 2927
4.282 4.042 1.296 3665
4.290 4.049 1.281 3625
4.327 4.084 1.273 2626
