2.232 1.698 1.457 8055
2.304 1.753 1.490 10791
2.307 1.755 1.481 14334
2.310 1.757 1.473 16172
2.313 1.760 1.465 15302
2.322 1.766 1.460 8577
2.365 1.799 1.474 7316
2.397 1.824 1.482 9891
2.405 1.830 1.477 13091
2.414 1.837 1.471 10941
2.423 1.844 1.466 9089
2.449 1.864 1.470 10960
2.458 1.870 1.464 11577
2.461 1.873 1.455 7625
2.453 1.866 1.440 6923
2.462 1.873 1.435 7567
2.528 1.924 1.460 9813
2.526 1.922 1.447 12483
2.529 1.924 1.438 12568
2.532 1.926 1.429 9536
2.546 1.937 1.426 9179
2.561 1.949 1.423 8357
2.599 1.977 1.431 11490
2.590 1.971 1.416 15960
2.593 1.973 1.407 12800
2.608 1.984 1.403 7257
2.646 2.013 1.411 5786
2.643 2.011 1.399 6966
2.652 2.018 1.392 7194
2.655 2.020 1.382 9225
2.664 2.027 1.375 9165
2.684 2.042 1.374 5727
2.711 2.062 1.375 6362
2.714 2.065 1.366 8008
2.740 2.085 1.367 6625
2.767 2.105 1.367 5673
2.805 2.134 1.373 8369
2.802 2.132 1.361 9745
2.799 2.130 1.348 6199
2.873 2.186 1.369 5762
2.894 2.202 1.366 7151
2.891 2.199 1.353 10362
2.888 2.197 1.340 11161
2.890 2.199 1.330 9935
2.899 2.206 1.322 9681
2.926 2.226 1.321 9905
2.917 2.219 1.306 8378
2.913 2.217 1.293 6248
2.970 2.260 1.304 5717
2.979 2.266 1.295 5112
3.072 2.337 1.320 5069
2.996 2.280 1.278 3898
3.119 2.373 1.314 3689
3.128 2.380 1.305 4182
3.143 2.391 1.298 3517
3.157 2.402 1.291 3521
3.160 2.404 1.280 3830
3.169 2.411 1.270 3295
3.256 2.478 1.289 4229
3.295 2.507 1.290 3432
3.310 2.519 1.283 4731
3.325 2.530 1.275 6047
3.358 2.555 1.273 6338
3.367 2.562 1.263 7451
3.381 2.573 1.255 6397
3.439 2.616 1.261 6624
3.441 2.618 1.248 8839
3.438 2.616 1.234 6421
3.440 2.618 1.221 5232
3.449 2.624 1.211 6410
3.464 2.635 1.202 5268
3.631 2.763 1.240 4866
3.640 2.770 1.229 5242
3.704 2.818 1.234 3819
3.706 2.820 1.221 6246
3.715 2.827 1.209 6898
3.736 2.843 1.201 6067
3.757 2.858 1.193 6877
3.759 2.860 1.179 7296
3.768 2.867 1.167 6198
3.770 2.869 1.153 5471
3.773 2.870 1.140 4737
3.867 2.943 1.151 5795
3.870 2.944 1.137 4280
3.965 3.017 1.146 3169
3.967 3.018 1.132 3699
3.982 3.029 1.121 3550
4.064 3.092 1.126 3850
4.042 3.075 1.105 3209
4.149 3.157 1.116 3615
4.151 3.159 1.100 3945
4.129 3.142 1.080 4821
4.323 3.289 1.108 4098
4.325 3.291 1.093 4121
4.315 3.283 1.074 2873
4.380 3.332 1.072 2917
4.382 3.334 1.056 3814
4.521 3.440 1.068 3733
4.548 3.460 1.057 3115
4.599 3.500 1.050 3796
4.813 3.662 1.075 2709
4.828 3.673 1.060 2257
4.780 3.637 1.033 2788
4.807 3.658 1.020 4835
4.809 3.659 1.003 6313
4.811 3.661 0.985 4137
5.237 3.985 1.042 3187
5.152 3.920 1.008 4644
5.229 3.979 1.002 5285
5.250 3.994 0.986 4297
5.258 4.001 0.967 4298
5.235 3.983 0.944 4966
5.237 3.984 0.925 4089
5.232 3.981 0.905 2376
5.522 4.201 0.928 2097
5.517 4.198 0.907 2333
5.519 4.199 0.887 2150
5.721 4.353 0.893 1460
5.830 4.436 0.886 1697
5.869 4.466 0.870 1561
6.328 4.815 0.904 1537
6.349 4.831 0.883 2249
6.357 4.837 0.861 2853
6.352 4.833 0.837 2603
6.367 4.844 0.815 2223
6.374 4.850 0.793 2551
6.370 4.846 0.769 2275
6.352 4.833 0.744 2044
6.347 4.829 0.720 1723
6.902 5.251 0.746 1819
6.903 5.252 0.721 1792
7.068 5.378 0.709 1379
7.063 5.374 0.682 1517
7.070 5.380 0.657 1523
7.065 5.376 0.631 996
7.054 5.367 0.604 658
7.049 5.363 0.578 498
2.869 2.183 -0.068 278
2.856 2.173 -0.077 279
2.855 2.173 -0.087 282
2.902 2.208 -0.154 271
2.885 2.195 -0.216 251
2.884 2.194 -0.226 322
2.890 2.199 -0.237 259
2.742 2.086 -0.258 252
1.583 1.200 1.523 3019
1.586 1.203 1.518 6039
1.589 1.205 1.512 6180
1.598 1.211 1.511 6488
1.601 1.214 1.505 6488
1.609 1.220 1.504 6339
1.612 1.223 1.498 6305
1.615 1.225 1.493 6215
1.619 1.227 1.487 6125
1.669 1.265 1.521 5963
1.667 1.264 1.511 6254
1.670 1.266 1.505 6290
1.689 1.281 1.512 8485
1.697 1.287 1.510 11770
1.700 1.289 1.504 11466
1.704 1.292 1.498 11161
1.707 1.294 1.492 8955
1.705 1.293 1.482 6756
1.718 1.303 1.484 8172
1.721 1.305 1.478 9772
1.730 1.312 1.476 8736
1.733 1.314 1.470 7873
1.827 1.385 1.535 6559
1.836 1.392 1.533 7825
1.839 1.394 1.526 9104
1.842 1.397 1.520 8851
1.851 1.403 1.517 8557
1.854 1.406 1.510 7981
1.862 1.412 1.508 7687
1.860 1.411 1.497 7187
1.858 1.409 1.486 7024
1.872 1.419 1.488 7372
1.957 1.484 1.541 8703
1.965 1.490 1.538 9152
1.969 1.493 1.531 8742
1.977 1.499 1.528 8398
1.964 1.489 1.509 6524
1.962 1.488 1.498 5406
1.965 1.490 1.491 6762
1.985 1.505 1.496 8436
1.988 1.507 1.488 8510
2.063 1.564 1.531 8633
2.072 1.571 1.527 11986
2.080 1.578 1.524 10962
2.089 1.584 1.520 10312
2.081 1.578 1.505 9858
2.068 1.568 1.486 12843
2.071 1.570 1.479 13707
2.074 1.573 1.471 10583
2.155 1.634 1.515 7564
2.159 1.637 1.507 10372
2.156 1.635 1.496 11630
2.159 1.637 1.488 11405
2.168 1.644 1.484 8011
2.205 1.672 1.498 7211
2.214 1.679 1.493 9387
2.217 1.681 1.485 11812
2.220 1.683 1.477 11937
2.218 1.682 1.466 8575
2.221 1.684 1.458 7172
2.326 1.764 1.511 9099
2.306 1.749 1.490 11593
2.310 1.751 1.481 14922
2.313 1.754 1.473 16957
2.316 1.756 1.465 16002
2.319 1.758 1.456 8496
2.385 1.809 1.484 6704
2.400 1.820 1.482 9512
2.414 1.831 1.480 12471
2.423 1.837 1.475 10891
2.432 1.844 1.469 9843
2.447 1.855 1.467 11781
2.461 1.866 1.464 11724
2.470 1.873 1.459 7198
2.450 1.858 1.437 5689
2.534 1.922 1.472 6688
2.531 1.920 1.460 9268
2.535 1.922 1.450 11789
2.532 1.920 1.438 12198
2.541 1.927 1.432 9548
2.555 1.938 1.429 9790
2.564 1.944 1.423 9108
2.596 1.969 1.428 10515
2.593 1.967 1.416 14442
2.596 1.969 1.407 11364
2.611 1.980 1.403 6171
2.643 2.005 1.408 5177
2.652 2.011 1.401 5726
2.655 2.013 1.392 5834
2.658 2.016 1.382 8261
2.667 2.022 1.375 8741
2.693 2.042 1.377 6441
2.708 2.054 1.373 6348
2.717 2.060 1.366 7473
2.743 2.080 1.367 5944
2.776 2.105 1.370 5315
2.814 2.134 1.376 8979
2.811 2.132 1.363 9684
2.808 2.130 1.350 5924
2.877 2.181 1.369 5665
2.891 2.193 1.364 7933
2.900 2.199 1.356 11826
2.897 2.197 1.343 12344
2.900 2.199 1.332 11507
2.903 2.201 1.322 11709
2.917 2.212 1.316 11599
2.914 2.210 1.303 10390
2.911 2.207 1.290 7498
2.980 2.259 1.306 5682
2.988 2.266 1.298 5160
3.075 2.332 1.320 5215
3.000 2.275 1.278 3852
3.129 2.373 1.316 3817
3.138 2.379 1.307 4508
3.153 2.391 1.300 3989
3.167 2.402 1.293 3943
3.170 2.404 1.282 4340
3.179 2.410 1.272 3841
3.260 2.472 1.289 4065
3.305 2.507 1.292 3423
3.314 2.513 1.283 5053
3.335 2.529 1.277 6688
3.362 2.549 1.273 7031
3.371 2.556 1.263 7641
3.386 2.567 1.255 6212
3.443 2.611 1.261 7817
3.446 2.613 1.248 9020
3.442 2.610 1.234 7011
3.445 2.612 1.221 5757
3.459 2.623 1.213 6284
3.474 2.634 1.204 5074
3.642 2.762 1.242 4416
3.645 2.764 1.229 5208
3.715 2.817 1.236 3982
3.711 2.814 1.221 5868
3.720 2.821 1.209 5920
3.747 2.841 1.203 6001
3.755 2.848 1.191 6517
3.758 2.850 1.177 5976
3.766 2.856 1.165 4965
3.775 2.862 1.153 4751
3.870 2.934 1.165 4874
3.872 2.936 1.151 5936
3.874 2.938 1.137 4118
3.957 3.001 1.143 3455
3.966 3.007 1.130 3524
4.055 3.075 1.138 3850
4.069 3.086 1.126 3914
4.047 3.069 1.105 3402
4.154 3.150 1.116 3489
4.157 3.152 1.100 3857
4.140 3.139 1.081 4449
4.335 3.287 1.110 3904
4.337 3.289 1.094 4464
4.321 3.276 1.074 3391
4.460 3.382 1.088 3055
4.512 3.421 1.082 3812
4.526 3.432 1.068 4327
4.535 3.438 1.053 3348
4.605 3.492 1.050 3511
4.626 3.508 1.037 1965
4.834 3.665 1.060 1910
4.836 3.667 1.043 2554
4.819 3.654 1.022 4785
4.815 3.651 1.003 5872
4.811 3.648 0.984 3685
5.156 3.910 1.027 3671
5.158 3.912 1.008 5280
5.142 3.899 0.986 5709
5.131 3.891 0.965 4583
5.258 3.987 0.966 3621
5.241 3.974 0.944 4563
5.237 3.971 0.924 3649
5.564 4.220 0.953 2405
5.566 4.221 0.933 2171
5.531 4.194 0.908 2097
5.526 4.190 0.887 1969
5.841 4.430 0.908 1550
5.843 4.431 0.887 1962
5.876 4.456 0.870 1576
6.343 4.810 0.905 1704
6.351 4.816 0.882 2265
6.359 4.822 0.860 2591
6.360 4.823 0.837 2301
6.374 4.834 0.815 2085
6.389 4.844 0.793 2574
6.711 5.089 0.802 2220
6.706 5.085 0.777 2160
6.632 5.029 0.745 1668
6.910 5.240 0.746 1758
6.912 5.241 0.721 1719
6.932 5.256 0.697 1371
7.072 5.362 0.682 1440
7.079 5.368 0.657 1450
7.074 5.364 0.631 954
7.069 5.360 0.605 625
7.064 5.356 0.579 471
2.779 2.107 -0.161 272
2.784 2.111 -0.172 290
2.796 2.120 -0.184 307
2.795 2.120 -0.194 298
1.586 1.196 1.523 2497
1.590 1.198 1.518 4994
1.593 1.200 1.512 5048
1.601 1.207 1.511 5128
1.604 1.209 1.505 5128
1.607 1.211 1.500 5294
1.616 1.218 1.498 5665
1.619 1.220 1.493 5314
1.674 1.262 1.532 5509
1.672 1.260 1.521 5666
1.670 1.259 1.511 5952
1.674 1.261 1.505 6079
1.693 1.276 1.512 8397
1.701 1.282 1.510 11593
1.704 1.284 1.504 11142
1.707 1.287 1.498 10691
1.711 1.289 1.492 8144
1.708 1.287 1.482 5646
1.722 1.298 1.484 6831
1.725 1.300 1.478 8264
1.734 1.307 1.476 7760
1.737 1.309 1.470 7314
1.831 1.380 1.535 6740
1.840 1.386 1.533 8056
1.843 1.389 1.526 9495
1.846 1.391 1.520 9053
1.849 1.394 1.513 8641
1.853 1.396 1.506 8972
1.861 1.403 1.504 9970
1.859 1.401 1.493 10439
1.862 1.403 1.486 9822
1.876 1.414 1.488 9695
1.874 1.412 1.477 8214
1.970 1.485 1.538 8601
1.979 1.491 1.535 8298
1.982 1.494 1.528 8186
1.996 1.504 1.529 6027
1.966 1.482 1.498 4778
1.975 1.488 1.495 6553
1.995 1.503 1.499 9111
1.998 1.506 1.492 9188
2.067 1.558 1.531 8660
2.076 1.565 1.527 11792
2.085 1.571 1.524 10679
2.094 1.578 1.520 10080
2.069 1.559 1.494 9924
2.072 1.562 1.486 13456
2.075 1.564 1.479 14348
2.079 1.566 1.471 11187
2.160 1.628 1.515 6878
2.163 1.630 1.507 9588
2.161 1.629 1.496 11026
2.164 1.631 1.488 10915
2.173 1.638 1.484 7876
2.210 1.665 1.498 7315
2.213 1.668 1.490 9629
2.222 1.675 1.485 11713
2.231 1.681 1.481 11272
2.222 1.675 1.466 7309
2.305 1.737 1.506 6914
2.326 1.753 1.508 9964
2.317 1.746 1.493 12062
2.315 1.744 1.481 14807
2.318 1.747 1.473 17001
2.321 1.749 1.465 16193
2.324 1.751 1.456 8565
2.396 1.806 1.487 6312
2.411 1.817 1.485 8986
2.420 1.824 1.480 11746
2.429 1.830 1.475 10832
2.437 1.837 1.469 10302
2.452 1.848 1.467 12140
2.467 1.859 1.464 11398
2.476 1.866 1.459 7026
2.467 1.859 1.443 4688
2.534 1.910 1.469 6492
2.537 1.912 1.460 8465
2.540 1.914 1.450 10835
2.537 1.912 1.438 11424
2.546 1.919 1.432 9377
2.561 1.930 1.429 10170
2.570 1.937 1.423 9554
2.590 1.952 1.422 9567
2.599 1.959 1.416 12486
2.608 1.966 1.410 10020
2.623 1.977 1.406 5949
2.643 1.992 1.405 4845
2.658 2.003 1.401 4593
2.673 2.014 1.398 4737
2.664 2.008 1.382 7267
2.679 2.019 1.378 8262
2.705 2.039 1.380 7087
2.714 2.045 1.373 6299
2.723 2.052 1.366 6918
2.750 2.072 1.367 5405
2.812 2.119 1.383 5885
2.821 2.126 1.376 10051
2.818 2.124 1.363 9737
2.821 2.126 1.353 5510
2.883 2.173 1.369 5531
2.898 2.184 1.364 8555
2.907 2.191 1.356 13006
2.910 2.193 1.345 13877
2.912 2.195 1.335 13021
2.915 2.197 1.324 13678
2.918 2.199 1.314 14060
2.921 2.201 1.303 12155
2.917 2.199 1.290 8346
2.986 2.251 1.306 5157
3.001 2.262 1.300 5212
3.016 2.273 1.294 5647
3.012 2.270 1.281 3859
3.142 2.368 1.318 4045
3.145 2.370 1.307 4966
3.160 2.381 1.300 4424
3.175 2.392 1.293 4454
3.177 2.394 1.282 4760
3.186 2.401 1.272 4256
3.262 2.458 1.287 4058
3.319 2.501 1.295 3616
3.328 2.508 1.285 5415
3.343 2.519 1.277 7056
3.364 2.535 1.271 7434
3.372 2.541 1.261 7166
3.454 2.603 1.275 7474
3.451 2.601 1.261 8482
3.453 2.603 1.248 7966
3.456 2.605 1.236 7290
3.459 2.606 1.223 6271
3.467 2.613 1.213 5772
3.494 2.633 1.208 5341
3.484 2.626 1.192 4050
3.653 2.753 1.229 4765
3.723 2.806 1.236 3714
3.719 2.803 1.221 5148
3.740 2.819 1.213 5288
3.761 2.835 1.205 6057
3.764 2.837 1.191 6106
3.766 2.838 1.177 4794
3.775 2.845 1.165 3658
3.783 2.851 1.153 3750
3.885 2.928 1.166 5597
3.887 2.929 1.152 6081
3.889 2.931 1.138 3926
3.966 2.989 1.143 3547
3.968 2.991 1.129 2861
4.064 3.062 1.138 4264
4.066 3.064 1.123 4050
4.056 3.057 1.105 3753
4.052 3.054 1.089 3537
4.303 3.243 1.132 3673
4.143 3.122 1.080 4054
4.345 3.274 1.110 3707
4.347 3.276 1.094 4638
4.442 3.348 1.099 3664
4.463 3.364 1.086 3917
4.459 3.361 1.069 4018
4.536 3.419 1.068 4693
4.545 3.425 1.053 3506
4.615 3.478 1.050 3195
4.643 3.499 1.039 1744
4.845 3.651 1.060 1739
4.853 3.657 1.044 2878
4.836 3.645 1.023 4807
4.832 3.642 1.004 5477
4.815 3.629 0.983 3246
5.162 3.890 1.025 4122
5.170 3.896 1.008 5585
5.153 3.884 0.986 6155
5.143 3.876 0.965 4995
5.220 3.934 0.958 3523
5.247 3.954 0.943 4106
5.249 3.956 0.924 3307
5.577 4.203 0.953 2490
5.579 4.204 0.933 2248
5.574 4.201 0.912 1822
5.545 4.179 0.888 1741
5.848 4.407 0.907 1701
5.856 4.414 0.887 2150
5.883 4.434 0.869 1570
6.357 4.791 0.905 1880
6.365 4.797 0.882 2282
6.373 4.803 0.860 2390
6.375 4.804 0.837 2055
6.382 4.810 0.814 2029
6.403 4.825 0.793 2594
6.726 5.069 0.802 2358
6.721 5.065 0.777 2408
6.723 5.066 0.752 1841
6.919 5.215 0.745 1696
6.933 5.225 0.721 1643
6.954 5.241 0.697 1440
7.087 5.341 0.682 1351
7.095 5.347 0.657 1367
7.090 5.343 0.631 890
7.085 5.339 0.605 572
7.433 5.602 0.601 437
2.831 2.133 -0.003 300
2.837 2.138 -0.013 286
2.849 2.147 -0.024 284
2.783 2.098 -0.182 276
2.776 2.092 -0.191 339
2.776 2.092 -0.201 287
2.846 2.145 -0.272 280
1.594 1.196 1.528 1956
1.598 1.198 1.522 3912
1.596 1.197 1.512 3884
1.599 1.199 1.507 3939
1.602 1.201 1.501 3939
1.610 1.208 1.500 4317
1.624 1.218 1.503 5048
1.674 1.255 1.538 4907
1.677 1.258 1.532 5318
1.675 1.256 1.521 5416
1.679 1.259 1.515 5734
1.677 1.257 1.505 6015
1.696 1.271 1.512 8523
1.704 1.278 1.510 11572
1.707 1.280 1.504 10903
1.710 1.283 1.498 10234
1.714 1.285 1.492 7422
1.711 1.283 1.482 4661
1.731 1.298 1.488 5533
1.734 1.300 1.482 6651
1.737 1.302 1.476 6671
1.745 1.309 1.474 6791
1.834 1.376 1.535 7123
1.843 1.382 1.533 8381
1.846 1.385 1.526 9893
1.850 1.387 1.520 9289
1.853 1.389 1.513 8826
1.856 1.392 1.506 10123
1.859 1.394 1.500 12458
1.862 1.397 1.493 13638
1.865 1.399 1.486 12644
1.874 1.405 1.484 12156
1.877 1.408 1.477 10354
1.880 1.410 1.470 8553
1.883 1.412 1.464 7976
1.991 1.493 1.532 7772
2.005 1.504 1.532 6090
2.030 1.523 1.541 4921
2.012 1.509 1.518 6784
1.998 1.498 1.499 9701
2.001 1.501 1.492 9785
2.066 1.549 1.527 8491
2.080 1.560 1.527 11265
2.089 1.566 1.524 10087
2.098 1.573 1.520 9551
2.067 1.550 1.490 9780
2.076 1.557 1.486 13772
2.079 1.559 1.479 14803
2.077 1.557 1.468 11832
2.080 1.560 1.460 6819
2.162 1.621 1.504 8901
2.165 1.623 1.496 10345
2.168 1.626 1.488 10201
2.177 1.632 1.484 7609
2.208 1.656 1.494 7639
2.217 1.663 1.490 9979
2.226 1.669 1.485 11589
2.235 1.676 1.481 10772
2.232 1.674 1.469 6216
2.309 1.732 1.506 7580
2.330 1.747 1.508 10423
2.321 1.741 1.493 11942
2.319 1.739 1.481 13869
2.322 1.741 1.473 16243
2.325 1.744 1.465 15923
2.322 1.742 1.453 8910
2.400 1.800 1.487 5944
2.415 1.811 1.485 8333
2.424 1.818 1.480 10848
2.433 1.824 1.475 10412
2.442 1.831 1.469 10073
2.456 1.842 1.467 11660
2.471 1.853 1.464 10215
2.486 1.864 1.462 6828
2.512 1.884 1.465 5702
2.539 1.904 1.469 5993
2.542 1.906 1.460 7342
2.545 1.908 1.450 9465
2.548 1.911 1.441 10193
2.557 1.917 1.435 8863
2.566 1.924 1.429 10109
2.574 1.931 1.423 9662
2.589 1.942 1.419 8646
2.604 1.953 1.416 10345
2.613 1.959 1.410 9140
2.628 1.970 1.406 6428
2.636 1.977 1.399 4969
2.663 1.997 1.401 3761
2.701 2.026 1.409 4459
2.693 2.019 1.393 6480
2.707 2.030 1.389 8202
2.716 2.037 1.382 7471
2.719 2.039 1.373 6237
2.728 2.046 1.366 6273
2.784 2.088 1.380 5053
2.817 2.112 1.383 6786
2.826 2.119 1.376 11354
2.829 2.121 1.366 10056
2.832 2.123 1.356 5282
2.846 2.134 1.351 5368
2.903 2.177 1.364 8687
2.912 2.184 1.356 13688
2.915 2.186 1.345 14944
2.918 2.188 1.335 14066
2.920 2.190 1.324 15537
2.923 2.192 1.314 16398
2.926 2.194 1.303 13293
2.923 2.192 1.290 8750
2.931 2.198 1.282 4608
3.013 2.259 1.302 5583
3.021 2.266 1.294 6354
3.024 2.268 1.283 4270
3.148 2.360 1.318 4189
3.157 2.367 1.309 5164
3.171 2.378 1.302 4784
3.180 2.385 1.293 4927
3.183 2.387 1.282 5116
3.198 2.398 1.275 4718
3.261 2.446 1.285 4209
3.325 2.493 1.295 3757
3.328 2.495 1.283 5482
3.349 2.511 1.277 6938
3.370 2.527 1.271 7185
3.378 2.533 1.261 5840
3.461 2.595 1.275 8973
3.463 2.597 1.263 8568
3.466 2.599 1.250 5856
3.468 2.601 1.238 7206
3.471 2.603 1.225 6362
3.559 2.669 1.240 5614
3.501 2.625 1.208 5907
3.491 2.618 1.192 3990
3.659 2.744 1.229 4002
3.693 2.769 1.225 3160
3.732 2.799 1.223 4464
3.753 2.815 1.215 5077
3.768 2.826 1.205 5735
3.764 2.823 1.189 5551
3.761 2.820 1.174 4159
3.850 2.887 1.184 3088
3.852 2.889 1.170 3726
3.898 2.923 1.168 6236
3.900 2.925 1.154 6509
3.896 2.922 1.138 3958
3.967 2.975 1.142 3367
4.062 3.046 1.151 2662
4.065 3.048 1.136 4536
4.067 3.050 1.121 4213
4.063 3.047 1.105 3842
4.308 3.231 1.148 3741
4.310 3.232 1.132 3733
4.151 3.113 1.080 3629
4.359 3.268 1.111 3577
4.361 3.270 1.095 4581
4.450 3.337 1.099 3923
4.471 3.353 1.086 4659
4.467 3.350 1.069 4601
4.544 3.408 1.068 4710
4.547 3.409 1.052 3436
4.624 3.467 1.050 2815
4.663 3.497 1.041 1696
4.847 3.635 1.059 1931
4.868 3.650 1.045 3011
4.851 3.638 1.024 4838
4.841 3.630 1.004 5176
4.818 3.613 0.982 2899
5.171 3.878 1.025 4301
5.179 3.884 1.008 5458
5.156 3.867 0.985 6311
5.146 3.859 0.964 5260
5.229 3.921 0.958 3461
5.256 3.942 0.943 3485
5.258 3.943 0.924 2813
5.581 4.185 0.953 2502
5.595 4.196 0.934 2229
5.591 4.192 0.913 1762
5.599 4.198 0.894 1762
5.859 4.393 0.907 1656
5.867 4.399 0.887 2115
5.888 4.415 0.868 1461
6.368 4.775 0.905 1974
6.383 4.786 0.883 2229
6.384 4.788 0.860 2187
6.386 4.789 0.837 1855
6.388 4.790 0.814 2055
6.408 4.805 0.793 2607
6.732 5.048 0.801 2533
6.733 5.049 0.777 2647
6.735 5.050 0.752 2017
6.932 5.198 0.745 1550
6.959 5.218 0.722 1568
6.783 5.086 0.683 1478
6.778 5.083 0.658 1314
7.108 5.330 0.657 1225
7.103 5.326 0.631 827
7.458 5.593 0.629 565
7.465 5.598 0.602 437
7.479 5.608 0.575 320
7.474 5.604 0.548 315
2.917 2.187 -0.165 271
2.922 2.191 -0.176 294
2.915 2.186 -0.186 254
1.525 1.138 1.463 1802
1.528 1.140 1.458 3604
1.603 1.197 1.517 2804
1.601 1.195 1.507 2972
1.605 1.198 1.501 2972
1.618 1.208 1.504 3589
1.627 1.214 1.503 4449
1.677 1.252 1.538 4590
1.675 1.250 1.527 5054
1.678 1.253 1.521 5085
1.681 1.255 1.515 5529
1.685 1.257 1.509 5942
1.698 1.268 1.512 8699
1.707 1.274 1.510 11603
1.710 1.276 1.504 10681
1.713 1.279 1.498 9759
1.716 1.281 1.492 6783
1.714 1.280 1.482 3842
1.733 1.294 1.488 4334
1.742 1.300 1.487 5052
1.745 1.303 1.480 5706
1.748 1.305 1.474 6361
1.832 1.368 1.531 7703
1.846 1.378 1.533 8741
1.849 1.380 1.526 10253
1.853 1.383 1.520 9558
1.856 1.385 1.513 9109
1.859 1.388 1.506 11188
1.862 1.390 1.500 14851
1.860 1.388 1.489 16720
1.869 1.395 1.486 15438
1.877 1.401 1.484 14732
1.880 1.404 1.477 12520
1.883 1.406 1.470 10309
1.887 1.408 1.464 9177
1.890 1.410 1.457 8045
1.893 1.413 1.450 6106
2.034 1.518 1.541 5152
2.015 1.504 1.518 7102
2.002 1.494 1.499 10163
2.005 1.496 1.492 10267
2.064 1.540 1.523 8149
2.078 1.551 1.523 10442
2.092 1.562 1.524 9157
2.107 1.573 1.524 8710
2.071 1.546 1.490 9354
2.079 1.552 1.486 13682
2.083 1.555 1.479 14898
2.080 1.553 1.468 12297
2.083 1.555 1.460 7443
2.165 1.616 1.504 8422
2.168 1.619 1.496 9722
2.172 1.621 1.488 9379
2.180 1.628 1.484 7327
2.206 1.647 1.491 8311
2.215 1.653 1.486 10403
2.230 1.664 1.485 11463
2.244 1.675 1.484 10452
2.282 1.703 1.497 6279
2.313 1.727 1.506 7882
2.334 1.742 1.508 10420
2.337 1.744 1.500 11421
2.328 1.738 1.485 12117
2.332 1.740 1.476 14784
2.323 1.734 1.461 15137
2.321 1.732 1.450 9109
2.410 1.799 1.491 5556
2.419 1.806 1.485 7515
2.434 1.817 1.483 9940
2.443 1.823 1.478 9823
2.457 1.834 1.476 9388
2.461 1.837 1.467 10441
2.475 1.848 1.464 8331
2.496 1.863 1.465 6521
2.505 1.870 1.459 7194
2.508 1.872 1.450 5948
2.546 1.900 1.460 6121
2.549 1.903 1.450 8077
2.552 1.905 1.441 9048
2.561 1.912 1.435 8253
2.570 1.918 1.429 9461
2.579 1.925 1.423 9208
2.594 1.936 1.419 7494
2.608 1.947 1.416 8290
2.617 1.954 1.410 8899
2.626 1.960 1.403 7241
2.629 1.962 1.394 5681
2.638 1.969 1.387 4389
2.718 2.029 1.414 4703
2.709 2.022 1.399 6317
2.712 2.024 1.389 7957
2.721 2.031 1.382 7468
2.730 2.037 1.375 6197
2.750 2.053 1.374 5654
2.795 2.086 1.383 5776
2.822 2.106 1.383 7851
2.831 2.113 1.376 12540
2.833 2.115 1.366 10395
2.836 2.117 1.356 5343
2.851 2.128 1.351 5524
2.914 2.175 1.366 8449
2.923 2.182 1.358 14053
2.926 2.184 1.348 15804
2.928 2.186 1.337 14724
2.931 2.188 1.327 16683
2.928 2.186 1.314 17811
2.931 2.188 1.303 13342
2.927 2.185 1.290 8324
2.936 2.192 1.282 4402
3.024 2.257 1.305 5897
3.026 2.259 1.294 7041
3.029 2.261 1.283 4874
3.159 2.358 1.321 4530
3.168 2.365 1.311 5289
3.177 2.371 1.302 5230
3.186 2.378 1.293 5432
3.188 2.380 1.282 5249
3.203 2.391 1.275 5054
3.267 2.438 1.285 4453
3.330 2.486 1.295 3736
3.333 2.488 1.283 5237
3.360 2.508 1.279 6114
3.381 2.524 1.273 6004
3.457 2.581 1.286 5888
3.466 2.587 1.275 10439
3.469 2.589 1.263 8627
3.478 2.596 1.252 4847
3.480 2.598 1.240 7970
3.483 2.600 1.227 6955
3.565 2.661 1.240 5467
3.500 2.613 1.206 6792
3.496 2.610 1.192 4354
3.567 2.662 1.199 3765
3.582 2.673 1.190 3235
3.745 2.795 1.224 4393
3.766 2.811 1.216 5271
3.774 2.817 1.205 5223
3.771 2.815 1.189 4968
3.761 2.807 1.172 3983
3.856 2.878 1.184 3287
3.858 2.880 1.170 4301
3.904 2.914 1.168 6530
3.913 2.921 1.155 6760
3.909 2.918 1.140 3969
3.973 2.966 1.142 3074
4.063 3.033 1.149 2778
4.071 3.039 1.136 4353
4.080 3.046 1.123 4157
4.070 3.038 1.105 3817
4.315 3.221 1.148 3784
4.318 3.223 1.132 3525
4.158 3.103 1.080 3174
4.366 3.259 1.111 3494
4.368 3.261 1.095 4343
4.477 3.341 1.103 4018
4.479 3.343 1.086 5116
4.475 3.340 1.069 4946
4.552 3.398 1.068 4415
4.466 3.334 1.034 3151
4.757 3.551 1.075 2930
4.840 3.613 1.074 1983
4.849 3.619 1.058 2199
4.876 3.640 1.045 2931
4.859 3.627 1.024 4753
4.855 3.624 1.005 4855
5.033 3.757 1.019 2706
5.180 3.866 1.025 4103
5.182 3.868 1.007 5220
5.158 3.851 0.984 6430
5.154 3.847 0.964 5375
5.232 3.905 0.957 3280
5.246 3.916 0.941 2830
5.267 3.931 0.924 2153
5.590 4.173 0.953 2293
5.604 4.183 0.934 2034
5.625 4.199 0.916 1623
5.614 4.191 0.894 1905
5.622 4.197 0.875 1873
5.870 4.382 0.886 2052
6.251 4.666 0.912 1409
6.379 4.761 0.905 2012
6.393 4.772 0.883 2143
6.401 4.778 0.861 2014
6.397 4.775 0.837 1754
6.392 4.771 0.813 2230
6.412 4.786 0.792 2613
6.743 5.033 0.801 2611
6.744 5.034 0.777 2820
6.752 5.040 0.753 2231
6.931 5.173 0.744 1623
6.983 5.212 0.723 1525
6.794 5.071 0.683 1486
6.789 5.068 0.658 1273
7.113 5.310 0.657 1075
7.114 5.310 0.631 696
7.477 5.581 0.629 555
7.484 5.586 0.602 443
7.491 5.592 0.575 372
7.486 5.588 0.548 385
7.487 5.589 0.521 290
2.922 2.181 -0.049 252
2.922 2.181 -0.154 254
1.527 1.136 1.463 2157
1.530 1.138 1.458 4315
1.517 1.129 1.439 3238
1.614 1.201 1.516 2773
1.617 1.203 1.510 2773
1.625 1.209 1.509 3480
1.691 1.258 1.557 4454
1.684 1.253 1.542 4533
1.677 1.248 1.527 4934
1.685 1.254 1.526 4852
1.694 1.260 1.524 5452
1.697 1.263 1.518 6044
1.700 1.265 1.512 8849
1.704 1.267 1.506 11653
1.712 1.274 1.504 10429
1.715 1.276 1.498 9259
1.719 1.278 1.492 6228
1.727 1.285 1.490 3208
1.789 1.331 1.531 3684
1.798 1.337 1.529 4873
1.753 1.304 1.485 4984
1.826 1.358 1.533 6303
1.834 1.365 1.531 8471
1.843 1.371 1.529 9312
1.852 1.377 1.526 10786
1.855 1.380 1.520 10089
1.858 1.382 1.513 9728
1.861 1.385 1.506 12272
1.859 1.383 1.496 17068
1.862 1.385 1.489 19747
1.871 1.392 1.486 18213
1.879 1.398 1.484 17345
1.883 1.400 1.477 14594
1.886 1.403 1.470 11843
1.889 1.405 1.464 10142
1.892 1.407 1.457 8442
1.889 1.406 1.446 6728
1.887 1.404 1.436 5239
2.012 1.497 1.514 7312
2.010 1.495 1.503 10494
2.007 1.493 1.492 10624
2.010 1.496 1.485 8544
2.080 1.548 1.523 9501
2.095 1.558 1.524 7931
2.109 1.569 1.524 7646
2.107 1.567 1.512 8527
2.082 1.549 1.486 12998
2.085 1.551 1.479 14449
2.083 1.549 1.468 12375
2.091 1.556 1.464 8026
2.168 1.613 1.504 8436
2.171 1.615 1.496 9398
2.174 1.617 1.488 8714
2.189 1.628 1.488 7453
2.203 1.639 1.487 9631
2.212 1.646 1.483 11394
2.227 1.656 1.482 11476
2.253 1.676 1.488 10264
2.284 1.699 1.497 7086
2.310 1.719 1.503 8018
2.331 1.734 1.505 10212
2.340 1.740 1.500 10707
2.343 1.743 1.491 10189
2.334 1.737 1.476 13040
2.326 1.730 1.461 13995
2.323 1.728 1.450 8942
2.413 1.795 1.491 4989
2.422 1.802 1.485 6603
2.437 1.813 1.483 9295
2.446 1.819 1.478 9254
2.466 1.835 1.479 8698
2.464 1.833 1.467 8875
2.461 1.831 1.455 6243
2.499 1.859 1.465 6155
2.502 1.861 1.456 8722
2.505 1.864 1.447 7405
2.514 1.870 1.441 5795
2.552 1.899 1.450 7102
2.555 1.901 1.441 8187
2.570 1.912 1.438 7608
2.579 1.918 1.432 8167
2.582 1.921 1.423 8029
2.597 1.932 1.419 6363
2.611 1.943 1.416 7003
2.620 1.949 1.410 9358
2.629 1.956 1.403 8097
2.632 1.958 1.394 6523
2.641 1.965 1.387 5334
2.733 2.033 1.420 5380
2.736 2.035 1.410 6256
2.715 2.020 1.389 7218
2.724 2.026 1.382 6895
2.739 2.037 1.378 6420
2.783 2.071 1.387 6368
2.798 2.082 1.383 6505
2.825 2.102 1.383 8954
2.834 2.108 1.376 13629
2.831 2.106 1.363 10769
2.840 2.113 1.356 5620
2.855 2.124 1.351 5725
2.917 2.170 1.366 8423
2.926 2.177 1.358 14753
2.929 2.179 1.348 16864
2.932 2.181 1.337 15409
2.935 2.183 1.327 17256
2.938 2.185 1.316 18024
2.934 2.183 1.303 12307
2.931 2.180 1.290 7230
2.940 2.187 1.282 4111
3.027 2.252 1.305 5589
3.030 2.254 1.294 6996
3.039 2.261 1.285 5291
3.163 2.353 1.321 5082
3.172 2.360 1.311 5551
3.181 2.366 1.302 5896
3.189 2.373 1.293 6176
3.186 2.370 1.280 5566
3.207 2.386 1.275 5257
3.265 2.429 1.283 4889
3.304 2.458 1.284 3709
3.337 2.483 1.283 4631
3.370 2.507 1.281 4683
3.392 2.523 1.275 4208
3.462 2.575 1.286 7067
3.470 2.582 1.275 12448
3.473 2.584 1.263 9820
3.482 2.590 1.252 6131
3.484 2.592 1.240 9882
3.487 2.594 1.227 8636
3.496 2.601 1.217 6611
3.498 2.602 1.204 8041
3.495 2.600 1.190 5447
3.571 2.657 1.199 4603
3.586 2.668 1.190 3554
3.755 2.794 1.226 4927
3.770 2.805 1.216 5743
3.779 2.811 1.205 4849
3.769 2.804 1.187 4399
3.765 2.801 1.172 4023
3.904 2.904 1.196 3719
3.888 2.892 1.177 4678
3.903 2.903 1.166 6418
3.918 2.914 1.155 6732
3.957 2.944 1.151 4474
3.985 2.964 1.143 2808
4.062 3.021 1.148 2999
4.076 3.032 1.136 4185
4.091 3.043 1.124 4097
4.075 3.031 1.105 3678
4.320 3.214 1.148 3705
4.104 3.053 1.082 3572
4.169 3.101 1.081 2802
4.365 3.247 1.110 3317
4.373 3.253 1.095 3847
4.482 3.334 1.103 3985
4.484 3.336 1.086 5264
4.480 3.333 1.069 4966
4.558 3.390 1.068 3963
4.760 3.541 1.092 2776
4.763 3.543 1.075 2959
4.859 3.615 1.076 2417
4.848 3.607 1.057 2305
4.882 3.632 1.045 2646
4.872 3.624 1.025 4482
4.861 3.616 1.005 4416
4.825 3.590 0.981 2508
5.180 3.853 1.024 3634
5.156 3.836 1.001 5007
5.158 3.837 0.983 6335
5.160 3.839 0.964 5208
5.238 3.897 0.957 2925
5.240 3.898 0.939 2395
5.210 3.876 0.915 1959
5.748 4.276 0.975 1972
5.611 4.174 0.934 1779
5.632 4.190 0.916 1728
5.621 4.182 0.894 2008
5.977 4.446 0.921 2060
5.985 4.452 0.900 2009
6.258 4.656 0.912 1619
6.254 4.652 0.889 2085
6.407 4.766 0.884 2046
6.409 4.768 0.861 1872
6.404 4.764 0.837 1671
6.393 4.756 0.812 2442
6.408 4.767 0.791 2705
6.757 5.027 0.802 2302
6.759 5.028 0.777 2657
6.760 5.029 0.753 2368
6.768 5.035 0.729 1665
6.991 5.201 0.723 1423
6.796 5.056 0.682 1455
6.797 5.057 0.658 1212
7.122 5.298 0.657 916
7.491 5.573 0.656 677
7.492 5.573 0.629 594
7.506 5.584 0.603 492
7.507 5.584 0.576 452
7.502 5.580 0.548 489
7.496 5.576 0.521 381
2.843 2.115 -0.238 294
2.842 2.114 -0.249 294
1.530 1.131 1.463 2524
1.534 1.133 1.458 5048
1.521 1.124 1.439 3832
1.618 1.195 1.516 3149
1.621 1.197 1.510 3149
1.629 1.204 1.509 3696
1.701 1.256 1.561 4766
1.699 1.255 1.551 4778
1.681 1.242 1.527 5016
1.695 1.252 1.530 4947
1.698 1.254 1.524 5624
1.701 1.257 1.518 6339
1.705 1.259 1.512 8963
1.708 1.262 1.506 11588
1.716 1.268 1.504 10145
1.720 1.270 1.498 8764
1.723 1.273 1.492 5787
1.731 1.279 1.490 2898
1.793 1.325 1.531 3862
1.802 1.331 1.529 5138
1.811 1.338 1.527 5141
1.825 1.348 1.529 6806
1.839 1.358 1.531 8903
1.848 1.365 1.529 9588
1.856 1.371 1.526 10978
1.859 1.374 1.520 10406
1.863 1.376 1.513 10214
1.860 1.374 1.502 12848
1.864 1.377 1.496 18391
1.867 1.379 1.489 21710
1.875 1.385 1.486 20082
1.884 1.392 1.484 19157
1.887 1.394 1.477 15955
1.890 1.396 1.470 12753
1.894 1.399 1.464 10775
1.897 1.401 1.457 8797
1.894 1.399 1.446 7222
1.892 1.397 1.436 5812
2.017 1.490 1.514 7294
2.009 1.484 1.499 10429
2.012 1.486 1.492 10578
2.015 1.489 1.485 8933
2.080 1.537 1.520 8521
2.106 1.555 1.527 6521
2.126 1.570 1.531 6456
2.118 1.564 1.516 7600
2.087 1.542 1.486 12031
2.090 1.544 1.479 13806
2.088 1.542 1.468 12328
2.097 1.549 1.464 8555
2.173 1.605 1.504 8972
2.176 1.608 1.496 9514
2.180 1.610 1.488 8742
2.194 1.621 1.488 8368
2.203 1.627 1.483 11443
2.212 1.634 1.479 12710
2.226 1.645 1.478 11800
2.258 1.668 1.488 10059
2.290 1.692 1.497 7272
2.316 1.711 1.503 7609
2.336 1.726 1.505 9350
2.345 1.733 1.500 9556
2.354 1.739 1.495 9253
2.352 1.737 1.483 11633
2.326 1.718 1.458 12889
2.323 1.716 1.446 8509
2.332 1.723 1.441 4435
2.428 1.794 1.485 5620
2.443 1.805 1.483 8714
2.452 1.811 1.478 8703
2.472 1.826 1.479 7913
2.475 1.829 1.470 7184
2.490 1.840 1.467 4472
2.505 1.851 1.465 5803
2.508 1.853 1.456 9552
2.511 1.855 1.447 8306
2.520 1.862 1.441 6350
2.529 1.868 1.435 6870
2.567 1.897 1.444 7873
2.576 1.903 1.438 6994
2.591 1.914 1.435 6605
2.600 1.921 1.429 6797
2.644 1.954 1.440 6201
2.636 1.947 1.425 7159
2.627 1.941 1.410 10001
2.630 1.943 1.400 8735
2.639 1.949 1.394 7091
2.648 1.956 1.387 5850
2.746 2.028 1.423 5938
2.749 2.030 1.413 6488
2.722 2.011 1.389 6227
2.737 2.022 1.385 5971
2.758 2.037 1.384 6931
2.784 2.057 1.385 7553
2.805 2.072 1.383 6806
2.832 2.092 1.383 9450
2.841 2.099 1.376 14137
2.838 2.096 1.363 10993
2.847 2.103 1.356 6005
2.856 2.110 1.348 6113
2.931 2.165 1.369 8514
2.934 2.167 1.358 15038
2.943 2.174 1.350 17578
2.945 2.176 1.340 16018
2.948 2.178 1.329 17155
2.945 2.175 1.316 17452
2.948 2.177 1.306 10981
2.944 2.175 1.293 5979
3.032 2.240 1.316 3827
3.035 2.242 1.305 5051
3.044 2.248 1.296 6477
3.046 2.250 1.285 5416
3.171 2.342 1.321 5491
3.180 2.349 1.311 5780
3.189 2.355 1.302 6531
3.191 2.357 1.291 6760
3.188 2.355 1.277 5889
3.215 2.375 1.275 5248
3.279 2.422 1.285 5143
3.294 2.433 1.277 4079
3.339 2.467 1.280 4443
3.410 2.519 1.292 3401
3.437 2.539 1.288 4196
3.470 2.564 1.286 7646
3.479 2.570 1.275 13410
3.482 2.572 1.263 10910
3.491 2.579 1.252 7335
3.493 2.580 1.240 10269
3.490 2.578 1.225 9479
3.498 2.584 1.215 8181
3.501 2.586 1.202 9000
3.503 2.588 1.190 6025
3.586 2.649 1.201 5193
3.595 2.656 1.190 3955
3.765 2.781 1.226 5437
3.773 2.787 1.215 6215
3.788 2.798 1.205 4789
3.778 2.791 1.187 4021
3.905 2.885 1.208 4211
3.908 2.887 1.194 3986
3.904 2.884 1.179 4789
3.913 2.890 1.166 5944
3.927 2.901 1.155 6417
3.961 2.926 1.149 5039
3.982 2.942 1.140 2753
4.065 3.003 1.146 2955
4.087 3.019 1.136 3618
4.101 3.030 1.124 4200
4.085 3.018 1.105 3503
4.106 3.033 1.095 3531
4.114 3.039 1.082 4219
4.110 3.036 1.065 3331
4.369 3.228 1.108 3373
4.384 3.239 1.095 3468
4.493 3.319 1.103 3755
4.489 3.316 1.085 5027
4.485 3.313 1.068 4689
4.563 3.370 1.067 3478
4.772 3.525 1.092 2468
4.774 3.527 1.075 2651
4.871 3.598 1.076 2582
4.861 3.591 1.057 2311
4.894 3.615 1.045 2257
4.884 3.608 1.025 4007
4.879 3.604 1.006 3938
4.837 3.573 0.981 2417
5.148 3.803 1.017 4138
5.157 3.809 0.999 5594
5.165 3.815 0.982 6210
5.167 3.817 0.963 4938
5.232 3.865 0.955 2483
5.234 3.866 0.936 2097
5.223 3.858 0.915 2128
5.762 4.257 0.975 2057
5.752 4.249 0.952 1710
5.652 4.176 0.917 1798
5.635 4.163 0.894 2062
5.992 4.426 0.921 2407
6.000 4.432 0.900 2282
6.274 4.635 0.912 1828
6.269 4.631 0.889 2236
6.265 4.628 0.865 1988
6.425 4.746 0.861 1681
6.376 4.710 0.832 1779
6.403 4.730 0.812 2641
6.423 4.745 0.791 2836
6.774 5.004 0.802 2148
6.668 4.926 0.767 2499
6.783 5.011 0.754 2188
6.791 5.017 0.730 1769
6.799 5.022 0.706 1493
6.807 5.028 0.682 1461
6.814 5.034 0.658 1139
7.521 5.556 0.684 867
7.516 5.552 0.657 714
7.511 5.548 0.629 656
7.525 5.558 0.603 547
7.526 5.559 0.576 495
7.514 5.551 0.548 551
7.515 5.551 0.521 447
2.946 2.176 -0.156 251
1.533 1.127 1.463 2926
1.536 1.129 1.458 5853
1.524 1.120 1.439 4550
1.517 1.114 1.424 3749
1.525 1.120 1.424 3595
1.638 1.203 1.513 3699
1.704 1.252 1.561 5031
1.707 1.254 1.555 5110
1.674 1.230 1.518 5286
1.703 1.252 1.534 5269
1.707 1.254 1.528 6003
1.710 1.256 1.522 6737
1.713 1.259 1.516 9119
1.711 1.257 1.506 11514
1.720 1.264 1.504 9969
1.723 1.266 1.498 8436
1.731 1.272 1.496 5524
1.778 1.306 1.525 3178
1.792 1.316 1.527 4048
1.806 1.327 1.529 5332
1.814 1.333 1.527 5399
1.828 1.343 1.529 7029
1.837 1.350 1.527 9032
1.851 1.360 1.529 9596
1.860 1.366 1.526 10919
1.863 1.369 1.520 10600
1.866 1.371 1.513 10657
1.864 1.370 1.502 13131
1.867 1.372 1.496 18977
1.870 1.374 1.489 22831
1.879 1.381 1.486 21214
1.888 1.387 1.484 20308
1.891 1.389 1.477 16830
1.894 1.392 1.470 13352
1.897 1.394 1.464 11086
1.900 1.396 1.457 8821
1.898 1.394 1.446 7307
1.895 1.393 1.436 6113
2.010 1.477 1.507 7335
2.013 1.479 1.499 10110
2.016 1.481 1.492 10255
2.019 1.484 1.485 9259
2.017 1.482 1.474 8375
2.037 1.496 1.478 7100
2.051 1.507 1.479 5824
2.077 1.526 1.486 6871
2.091 1.536 1.486 10932
2.094 1.539 1.479 13019
2.097 1.541 1.471 12120
2.101 1.543 1.464 8942
2.177 1.600 1.504 9883
2.181 1.602 1.496 10005
2.184 1.605 1.488 9355
2.193 1.611 1.484 9706
2.207 1.622 1.483 13407
2.216 1.628 1.479 14212
2.225 1.635 1.475 12491
2.262 1.662 1.488 9844
2.289 1.681 1.494 7072
2.315 1.701 1.499 6876
2.341 1.720 1.505 8055
2.356 1.731 1.503 8234
2.365 1.737 1.498 8436
2.356 1.731 1.483 10696
2.325 1.708 1.455 12205
2.316 1.702 1.440 8072
2.313 1.700 1.428 4264
2.438 1.792 1.489 4598
2.447 1.798 1.483 8031
2.456 1.805 1.478 8101
2.471 1.816 1.476 6917
2.480 1.822 1.470 5549
2.501 1.837 1.471 3642
2.504 1.840 1.462 5664
2.507 1.842 1.453 9784
2.516 1.849 1.447 8528
2.531 1.859 1.444 6545
2.563 1.883 1.450 7268
2.572 1.890 1.444 8188
2.581 1.897 1.438 6703
2.608 1.916 1.441 5313
2.641 1.940 1.447 6640
2.650 1.947 1.440 6814
2.647 1.945 1.428 8336
2.632 1.934 1.410 10939
2.635 1.936 1.400 9505
2.656 1.951 1.399 7759
2.659 1.953 1.390 6223
2.751 2.021 1.423 6222
2.754 2.023 1.413 6597
2.715 1.995 1.384 5271
2.748 2.019 1.388 5089
2.763 2.030 1.384 7658
2.778 2.041 1.379 9101
2.805 2.061 1.380 6691
2.844 2.089 1.386 9302
2.846 2.091 1.376 13972
2.843 2.089 1.363 10880
2.846 2.091 1.353 6422
2.861 2.102 1.348 6673
2.936 2.157 1.369 8889
2.945 2.164 1.361 15227
2.948 2.166 1.350 18051
2.957 2.173 1.342 16551
2.954 2.170 1.329 16885
2.957 2.172 1.319 16398
2.953 2.170 1.306 9828
2.950 2.167 1.293 5023
3.032 2.227 1.313 4339
3.041 2.234 1.305 4232
3.049 2.240 1.296 5578
3.131 2.301 1.316 5579
3.177 2.334 1.321 5780
3.186 2.341 1.311 6219
3.188 2.343 1.300 7158
3.197 2.349 1.291 7151
3.194 2.347 1.277 6180
3.221 2.367 1.275 5101
3.291 2.418 1.287 5323
3.300 2.425 1.277 4504
3.352 2.463 1.283 4368
3.422 2.514 1.294 3281
3.450 2.534 1.290 4534
3.477 2.555 1.286 7819
3.486 2.561 1.275 13837
3.488 2.563 1.263 12204
3.491 2.565 1.250 9077
3.494 2.567 1.238 9957
3.496 2.569 1.225 9016
3.499 2.571 1.213 8682
3.507 2.577 1.202 9225
3.510 2.579 1.190 6382
3.593 2.640 1.201 5477
3.602 2.646 1.190 4383
3.772 2.771 1.226 5946
3.781 2.778 1.215 6684
3.789 2.784 1.203 4833
3.786 2.781 1.187 3548
3.913 2.875 1.208 4049
3.915 2.877 1.194 3980
3.911 2.874 1.179 4709
3.926 2.885 1.168 5312
3.941 2.896 1.157 6039
3.968 2.916 1.149 5410
3.977 2.922 1.137 3037
4.067 2.988 1.144 2688
4.101 3.013 1.138 3207
4.109 3.019 1.124 4306
4.111 3.021 1.110 3553
4.139 3.041 1.101 3974
4.122 3.029 1.082 4702
4.118 3.026 1.065 3580
4.378 3.216 1.108 3482
4.393 3.227 1.095 3303
4.502 3.308 1.103 3389
4.498 3.305 1.085 4673
4.494 3.302 1.068 4348
4.571 3.359 1.067 3168
4.555 3.346 1.047 2296
4.714 3.464 1.062 2356
4.887 3.590 1.078 2624
4.763 3.499 1.036 2355
4.878 3.584 1.040 1990
4.893 3.595 1.025 3513
4.889 3.592 1.006 3506
5.150 3.784 1.034 2992
5.158 3.790 1.017 5148
5.160 3.791 0.998 6211
5.168 3.797 0.981 6161
5.177 3.804 0.963 4691
5.160 3.791 0.942 2337
5.421 3.983 0.963 2042
5.227 3.840 0.914 2230
5.773 4.242 0.975 2085
5.782 4.248 0.955 1855
5.669 4.166 0.918 1873
5.646 4.148 0.894 2045
6.003 4.411 0.921 2714
6.011 4.417 0.900 2489
6.280 4.614 0.911 2022
6.281 4.615 0.889 2342
6.277 4.612 0.865 2137
6.253 4.594 0.840 1704
6.375 4.684 0.831 1897
6.409 4.709 0.811 2763
6.429 4.724 0.790 2932
6.673 4.902 0.791 2121
6.680 4.908 0.767 2444
6.796 4.993 0.754 2191
6.798 4.995 0.729 1757
6.806 5.000 0.705 1465
7.526 5.530 0.738 1508
7.534 5.535 0.712 1270
7.535 5.536 0.684 911
7.530 5.533 0.657 767
7.531 5.534 0.630 747
7.539 5.539 0.603 629
7.534 5.535 0.575 562
7.528 5.531 0.548 617
7.529 5.532 0.521 503
7.524 5.528 0.493 251
1.536 1.123 1.463 3209
1.539 1.125 1.458 6418
1.527 1.116 1.439 5113
1.519 1.111 1.424 4332
1.528 1.117 1.424 4210
1.531 1.119 1.418 3786
1.707 1.248 1.561 5279
1.710 1.250 1.555 5565
1.719 1.257 1.554 5862
1.722 1.259 1.548 5862
1.710 1.250 1.528 6448
1.713 1.252 1.522 7264
1.716 1.255 1.516 9288
1.720 1.257 1.510 11311
1.723 1.259 1.504 9676
1.726 1.262 1.498 8041
1.735 1.268 1.496 5331
1.775 1.298 1.520 3538
1.795 1.312 1.527 4278
1.809 1.322 1.529 5550
1.817 1.329 1.527 5583
1.832 1.339 1.529 7097
1.840 1.345 1.527 9015
1.854 1.355 1.529 9561
1.863 1.362 1.526 10817
1.866 1.364 1.520 10851
1.870 1.367 1.513 11217
1.867 1.365 1.502 13195
1.871 1.367 1.496 18863
1.874 1.370 1.489 23059
1.882 1.376 1.486 21585
1.891 1.382 1.484 20792
1.894 1.385 1.477 17213
1.897 1.387 1.470 13635
1.901 1.389 1.464 10894
1.904 1.392 1.457 8153
1.901 1.390 1.446 7068
1.899 1.388 1.436 6289
2.008 1.468 1.503 7589
2.016 1.474 1.499 9482
2.020 1.476 1.492 9535
2.023 1.479 1.485 9321
2.026 1.481 1.478 9170
2.046 1.496 1.482 7783
2.066 1.510 1.486 6547
2.075 1.517 1.483 6663
2.095 1.531 1.486 9660
2.098 1.534 1.479 11974
2.101 1.536 1.471 11681
2.104 1.538 1.464 9113
2.181 1.594 1.504 11020
2.185 1.597 1.496 10734
2.188 1.599 1.488 10189
2.197 1.606 1.484 11333
2.205 1.612 1.480 15362
2.214 1.619 1.476 15744
2.223 1.625 1.471 13193
2.267 1.657 1.488 9667
2.287 1.672 1.490 6785
2.313 1.691 1.496 6306
2.339 1.710 1.501 6699
2.360 1.725 1.503 7005
2.369 1.732 1.498 8000
2.366 1.730 1.486 10218
2.317 1.694 1.448 11977
2.315 1.692 1.436 7668
2.312 1.690 1.425 3910
2.344 1.713 1.433 4214
2.452 1.792 1.483 7340
2.461 1.799 1.478 7442
2.476 1.810 1.476 6053
2.490 1.820 1.473 4326
2.517 1.840 1.477 3704
2.508 1.834 1.462 5517
2.512 1.836 1.453 9404
2.526 1.847 1.450 8226
2.541 1.858 1.447 6665
2.568 1.877 1.450 8177
2.577 1.884 1.444 8984
2.580 1.886 1.435 6854
2.642 1.931 1.456 4903
2.645 1.934 1.447 6518
2.654 1.940 1.440 7254
2.651 1.938 1.428 9784
2.637 1.927 1.410 12013
2.640 1.929 1.400 10156
2.666 1.949 1.402 8358
2.663 1.947 1.390 6394
2.756 2.014 1.423 6288
2.759 2.017 1.413 6523
2.696 1.971 1.373 4682
2.759 2.017 1.391 4306
2.774 2.028 1.386 8081
2.783 2.034 1.379 10517
2.798 2.045 1.375 6869
2.849 2.082 1.386 8815
2.852 2.084 1.376 13458
2.848 2.082 1.363 10472
2.851 2.084 1.353 6708
2.866 2.095 1.348 7044
2.942 2.150 1.369 9417
2.951 2.157 1.361 15450
2.953 2.159 1.350 18491
2.962 2.165 1.342 17395
2.965 2.167 1.332 16709
2.962 2.165 1.319 15406
2.965 2.167 1.308 8925
3.028 2.214 1.322 5224
3.037 2.220 1.313 4668
3.052 2.231 1.307 3327
3.122 2.282 1.322 4952
3.137 2.293 1.316 6085
3.183 2.326 1.321 5900
3.191 2.333 1.311 6536
3.194 2.335 1.300 7501
3.203 2.341 1.291 7096
3.193 2.334 1.275 6279
3.227 2.359 1.275 4983
3.303 2.415 1.289 5412
3.306 2.417 1.277 4840
3.370 2.464 1.287 4652
3.379 2.470 1.277 3558
3.456 2.526 1.290 4886
3.483 2.546 1.286 7544
3.486 2.548 1.273 13439
3.495 2.554 1.263 12416
3.497 2.556 1.250 9867
3.500 2.558 1.238 9540
3.502 2.560 1.225 9182
3.505 2.562 1.213 9309
3.507 2.564 1.200 8739
3.516 2.570 1.190 5788
3.606 2.636 1.203 5465
3.608 2.637 1.190 4677
3.779 2.762 1.226 6272
3.781 2.764 1.213 7064
3.790 2.770 1.201 4969
3.792 2.772 1.187 3393
3.920 2.865 1.208 3671
3.910 2.858 1.191 3929
3.912 2.860 1.177 4485
3.933 2.875 1.168 4717
3.948 2.886 1.157 5649
3.969 2.901 1.148 5560
3.978 2.908 1.135 3323
4.055 2.964 1.140 2956
4.083 2.984 1.131 2867
4.117 3.009 1.124 4229
4.119 3.011 1.110 3724
4.146 3.031 1.101 4365
4.130 3.019 1.082 4980
4.126 3.016 1.065 3527
4.392 3.210 1.110 3956
4.400 3.217 1.095 3607
4.415 3.227 1.082 3351
4.506 3.294 1.085 4285
4.495 3.286 1.066 4101
4.573 3.343 1.066 2895
4.701 3.437 1.075 2295
4.723 3.452 1.062 2805
4.763 3.481 1.052 2607
4.771 3.488 1.036 2698
4.742 3.466 1.013 1955
4.895 3.578 1.024 2992
4.891 3.575 1.005 3083
5.153 3.766 1.033 3665
5.167 3.777 1.017 5836
5.169 3.779 0.998 6553
5.178 3.785 0.981 6060
5.180 3.786 0.962 4423
5.169 3.778 0.942 2387
5.431 3.970 0.963 2110
5.236 3.827 0.914 2188
5.790 4.232 0.976 2131
5.792 4.234 0.955 1932
5.686 4.156 0.919 2013
5.650 4.130 0.894 2047
6.014 4.396 0.921 2777
6.022 4.402 0.900 2509
6.291 4.598 0.911 2228
6.293 4.600 0.889 2444
6.282 4.592 0.865 2260
6.264 4.579 0.840 1904
6.387 4.669 0.831 1956
6.414 4.688 0.810 2887
6.434 4.703 0.789 2958
6.684 4.886 0.791 2200
6.692 4.892 0.767 2358
6.687 4.888 0.743 2011
6.816 4.983 0.730 1699
7.545 5.515 0.766 1520
7.540 5.511 0.738 1782
7.547 5.517 0.712 1445
7.555 5.523 0.685 956
7.537 5.510 0.656 811
7.538 5.510 0.629 840
7.546 5.516 0.603 713
7.541 5.512 0.575 609
7.542 5.513 0.548 638
7.543 5.513 0.521 530
7.543 5.514 0.494 280
2.934 2.145 -0.101 252
2.934 2.145 -0.111 277
1.533 1.116 1.459 3370
1.537 1.118 1.453 6740
1.529 1.112 1.439 5711
1.527 1.111 1.429 4934
1.535 1.117 1.428 4856
1.533 1.115 1.418 4194
1.710 1.244 1.561 5512
1.719 1.250 1.560 6098
1.722 1.253 1.554 6698
1.725 1.255 1.548 6698
1.718 1.250 1.533 7075
1.716 1.248 1.522 7838
1.719 1.251 1.516 9467
1.722 1.253 1.510 11096
1.726 1.255 1.504 9421
1.734 1.262 1.503 7800
1.737 1.264 1.496 5343
1.778 1.294 1.520 3980
1.792 1.304 1.523 4545
1.806 1.314 1.525 5785
1.815 1.320 1.523 5664
1.835 1.335 1.529 6943
1.843 1.341 1.527 8747
1.857 1.351 1.529 9488
1.866 1.358 1.526 10742
1.869 1.360 1.520 11243
1.873 1.362 1.513 11999
1.870 1.361 1.502 13165
1.874 1.363 1.496 18169
1.877 1.365 1.489 22523
1.886 1.372 1.486 21376
1.889 1.374 1.480 21004
1.892 1.376 1.473 17297
1.901 1.383 1.470 13681
1.904 1.385 1.464 10407
1.907 1.387 1.457 7132
1.904 1.385 1.446 6584
2.002 1.457 1.506 7448
2.011 1.463 1.503 7940
2.014 1.465 1.496 8698
2.017 1.468 1.488 8567
2.026 1.474 1.485 9124
2.029 1.476 1.478 9851
2.049 1.491 1.482 8507
2.075 1.510 1.490 7865
2.078 1.512 1.483 6710
2.098 1.527 1.486 8437
2.102 1.529 1.479 10861
2.105 1.531 1.471 11149
2.182 1.587 1.511 9959
2.185 1.589 1.504 12351
2.188 1.592 1.496 11665
2.191 1.594 1.488 11143
2.200 1.601 1.484 12936
2.209 1.607 1.480 17295
2.218 1.614 1.476 17087
2.227 1.620 1.471 13808
2.236 1.626 1.467 9925
2.279 1.658 1.483 6857
2.311 1.681 1.492 5878
2.286 1.663 1.467 5839
2.289 1.665 1.459 6191
2.373 1.726 1.498 7719
2.370 1.724 1.486 9995
2.362 1.718 1.471 12179
2.371 1.725 1.466 7324
2.397 1.744 1.471 4069
2.377 1.729 1.449 4459
2.456 1.787 1.483 6458
2.465 1.793 1.478 6479
2.468 1.795 1.469 5152
2.489 1.810 1.470 3988
2.521 1.834 1.477 3976
2.507 1.824 1.459 5405
2.510 1.826 1.450 8299
2.537 1.845 1.453 7385
2.569 1.869 1.460 7514
2.572 1.871 1.450 9149
2.581 1.878 1.444 9878
2.584 1.880 1.435 7179
2.647 1.925 1.456 4846
2.650 1.928 1.447 6138
2.659 1.934 1.440 7254
2.656 1.932 1.428 10882
2.641 1.921 1.410 13014
2.644 1.923 1.400 10531
2.677 1.947 1.405 8553
2.674 1.945 1.393 6345
2.760 2.008 1.423 6084
2.757 2.006 1.410 6189
2.695 1.960 1.370 4499
2.769 2.015 1.393 3626
2.778 2.021 1.386 8095
2.781 2.023 1.377 11443
2.790 2.030 1.369 7735
2.853 2.076 1.386 7758
2.856 2.078 1.376 12256
2.859 2.080 1.366 9978
2.862 2.082 1.356 6679
2.871 2.089 1.348 6828
2.947 2.143 1.369 9748
2.956 2.150 1.361 15422
2.958 2.152 1.350 18643
2.967 2.159 1.342 18061
2.970 2.161 1.332 16675
2.973 2.163 1.321 14345
2.976 2.165 1.311 8286
3.033 2.207 1.322 5484
3.036 2.209 1.311 4614
3.094 2.251 1.321 3188
3.127 2.275 1.322 5505
3.142 2.286 1.316 6359
3.182 2.315 1.318 5758
3.191 2.321 1.309 6588
3.200 2.327 1.300 7425
3.208 2.334 1.291 6557
3.193 2.323 1.273 6184
3.226 2.347 1.272 4993
3.241 2.358 1.265 5588
3.312 2.409 1.277 4981
3.376 2.456 1.287 5063
3.385 2.462 1.277 4643
3.455 2.514 1.288 5003
3.489 2.538 1.286 6670
3.492 2.540 1.273 12061
3.500 2.546 1.263 11637
3.503 2.548 1.250 9836
3.506 2.550 1.238 8210
3.508 2.552 1.225 7916
3.505 2.549 1.211 8689
3.507 2.551 1.198 7539
3.522 2.562 1.190 5047
3.612 2.627 1.203 5210
3.620 2.634 1.192 4742
3.785 2.753 1.226 6288
3.787 2.755 1.213 6989
3.796 2.762 1.201 4898
3.799 2.763 1.187 3382
3.926 2.856 1.208 3033
3.904 2.840 1.188 4328
3.906 2.841 1.174 4980
3.940 2.866 1.168 4291
3.955 2.877 1.157 4874
3.970 2.888 1.146 5374
3.978 2.894 1.134 3518
4.062 2.955 1.140 2980
4.071 2.961 1.127 2706
4.123 3.000 1.124 3770
4.145 3.015 1.114 3790
4.153 3.021 1.101 4542
4.143 3.014 1.083 5099
4.410 3.208 1.128 3423
4.406 3.205 1.111 4864
4.408 3.206 1.095 4353
4.423 3.217 1.082 3664
4.507 3.279 1.084 3913
4.503 3.276 1.066 4162
4.575 3.328 1.064 2784
4.703 3.421 1.073 3129
4.724 3.437 1.060 3331
4.739 3.447 1.046 2756
4.779 3.477 1.036 2948
4.756 3.460 1.014 2207
4.897 3.563 1.023 2415
4.861 3.536 0.998 2724
5.161 3.755 1.033 4198
5.170 3.761 1.016 6177
5.178 3.767 0.998 6602
5.186 3.773 0.981 5807
5.188 3.774 0.962 4027
5.171 3.762 0.941 2255
5.446 3.962 0.964 2050
5.239 3.811 0.913 2134
5.800 4.219 0.976 2112
5.802 4.220 0.955 1932
5.702 4.148 0.920 2200
5.659 4.117 0.894 1951
6.024 4.382 0.921 2679
6.038 4.393 0.901 2432
6.308 4.589 0.912 2432
6.303 4.585 0.889 2513
6.292 4.577 0.865 2291
6.275 4.564 0.840 1992
6.397 4.654 0.831 1956
6.418 4.669 0.810 2939
6.656 4.842 0.811 3030
6.657 4.843 0.787 2357
6.704 4.877 0.767 2219
6.699 4.873 0.743 1951
7.486 5.445 0.787 1587
7.551 5.493 0.765 1737
7.552 5.494 0.738 2064
7.560 5.500 0.712 1675
7.568 5.505 0.685 1055
7.550 5.492 0.656 842
7.551 5.493 0.629 911
7.552 5.494 0.602 787
7.553 5.495 0.575 649
7.548 5.491 0.548 638
7.555 5.496 0.521 532
7.556 5.497 0.494 286
1.537 1.111 1.459 3671
1.540 1.113 1.453 7343
1.538 1.112 1.444 6353
1.536 1.110 1.434 5528
1.539 1.112 1.428 5528
1.542 1.115 1.423 4505
1.714 1.239 1.561 5518
1.722 1.245 1.560 6399
1.726 1.247 1.554 7313
1.729 1.250 1.548 7313
1.727 1.248 1.537 7684
1.725 1.247 1.527 8424
1.728 1.249 1.521 9623
1.732 1.252 1.515 10821
1.735 1.254 1.509 9231
1.738 1.256 1.503 7640
1.747 1.263 1.501 5565
1.777 1.284 1.516 4392
1.791 1.295 1.518 4828
1.810 1.309 1.525 5926
1.814 1.311 1.518 5500
1.839 1.329 1.529 6448
1.847 1.335 1.527 8104
1.856 1.342 1.524 9256
1.865 1.348 1.522 10643
1.868 1.350 1.515 11520
1.871 1.353 1.509 12822
1.869 1.351 1.498 13072
1.872 1.353 1.492 17179
1.881 1.360 1.489 21522
1.884 1.362 1.482 20926
1.893 1.368 1.480 21047
1.896 1.371 1.473 17390
1.899 1.373 1.466 13734
1.908 1.379 1.464 9860
1.917 1.385 1.461 6246
1.998 1.444 1.509 6323
2.007 1.451 1.506 8287
2.015 1.457 1.503 8090
2.019 1.459 1.496 7875
2.022 1.462 1.488 7461
2.031 1.468 1.485 8692
2.039 1.474 1.482 10320
2.059 1.489 1.486 9179
2.080 1.503 1.490 9143
2.083 1.506 1.483 7099
2.103 1.520 1.486 7741
2.106 1.523 1.479 9938
2.109 1.525 1.471 10731
2.186 1.581 1.511 10998
2.190 1.583 1.504 13565
2.193 1.585 1.496 12571
2.196 1.588 1.488 12001
2.205 1.594 1.484 14193
2.214 1.600 1.480 18748
2.223 1.607 1.476 18022
2.232 1.613 1.471 14159
2.241 1.620 1.467 10432
2.278 1.647 1.480 7000
2.287 1.654 1.475 5865
2.291 1.656 1.467 6601
2.294 1.658 1.459 7081
2.384 1.723 1.502 7455
2.311 1.671 1.449 10223
2.367 1.711 1.471 13089
2.382 1.722 1.470 9026
2.391 1.728 1.464 5868
2.388 1.726 1.453 5269
2.467 1.783 1.487 5391
2.464 1.782 1.475 5290
2.473 1.788 1.469 4277
2.482 1.795 1.464 3923
2.509 1.814 1.467 3975
2.506 1.812 1.455 5000
2.509 1.814 1.447 6894
2.560 1.850 1.462 6955
2.569 1.857 1.456 8277
2.578 1.863 1.450 9747
2.587 1.870 1.444 10501
2.584 1.868 1.432 7608
2.581 1.866 1.420 4977
2.655 1.920 1.447 5514
2.664 1.926 1.440 6792
2.656 1.920 1.425 11236
2.647 1.913 1.410 13642
2.650 1.915 1.400 10665
2.683 1.939 1.405 8164
2.686 1.941 1.396 6104
2.766 2.000 1.423 5744
2.763 1.998 1.410 5834
2.694 1.948 1.367 4660
2.739 1.980 1.377 3200
2.784 2.013 1.386 7687
2.787 2.015 1.377 11847
2.796 2.021 1.369 8755
2.860 2.067 1.386 6908
2.863 2.069 1.376 10932
2.865 2.071 1.366 9361
2.868 2.074 1.356 6265
2.877 2.080 1.348 6332
2.953 2.135 1.369 9453
2.962 2.141 1.361 14859
2.965 2.143 1.350 18082
2.968 2.145 1.340 18245
2.977 2.152 1.332 16846
2.979 2.154 1.321 13918
2.988 2.160 1.313 8094
3.034 2.193 1.319 5499
3.024 2.186 1.304 4511
3.107 2.246 1.324 3486
3.134 2.266 1.322 5712
