2.700 1.076 1.241 10397
2.703 1.077 1.232 7161
2.712 1.081 1.227 6175
2.750 1.096 1.232 8889
2.739 1.092 1.218 9763
2.749 1.096 1.213 8177
2.772 1.105 1.212 10551
2.775 1.106 1.204 11465
2.792 1.113 1.201 7920
2.836 1.131 1.208 6382
2.839 1.132 1.199 9443
2.842 1.133 1.190 13386
2.852 1.137 1.184 11813
2.855 1.138 1.175 13337
2.865 1.142 1.169 14734
2.867 1.143 1.160 10403
2.947 1.175 1.179 9147
2.950 1.176 1.170 12192
2.973 1.185 1.168 12393
2.969 1.183 1.156 15213
2.965 1.182 1.145 15011
2.968 1.183 1.136 14893
2.977 1.187 1.129 15557
2.980 1.188 1.120 12816
2.983 1.189 1.110 9477
3.049 1.215 1.122 8405
3.051 1.216 1.113 7305
3.061 1.220 1.105 5895
3.092 1.232 1.105 6269
3.094 1.233 1.095 7160
3.104 1.237 1.088 6700
3.107 1.238 1.078 5265
3.152 1.256 1.082 6504
3.168 1.263 1.076 7770
3.270 1.303 1.096 20060
3.273 1.304 1.086 36726
3.275 1.305 1.076 48736
3.278 1.306 1.065 54300
3.280 1.307 1.055 56036
3.283 1.308 1.045 56000
3.285 1.309 1.035 56764
3.288 1.310 1.025 51126
3.290 1.311 1.015 36312
3.292 1.312 1.004 22715
3.302 1.316 0.996 11150
3.440 1.371 1.021 7589
3.449 1.375 1.012 13136
3.452 1.376 1.002 15123
3.454 1.377 0.991 8293
3.571 1.423 1.009 3776
3.595 1.433 1.003 7161
3.597 1.434 0.992 10957
3.600 1.435 0.981 8006
3.753 1.496 1.005 7121
3.777 1.505 0.998 7782
3.793 1.512 0.990 9127
3.803 1.516 0.979 7770
3.827 1.525 0.972 5157
3.851 1.535 0.965 5555
3.860 1.539 0.955 6243
3.891 1.551 0.949 7157
3.908 1.558 0.940 5331
3.953 1.576 0.937 3558
3.963 1.579 0.926 4932
3.965 1.580 0.914 4525
4.039 1.610 0.915 4418
4.172 1.663 0.928 5016
4.152 1.655 0.911 6252
4.147 1.653 0.896 5392
4.236 1.688 0.899 3728
4.231 1.686 0.885 5981
4.225 1.684 0.870 5397
4.358 1.737 0.880 4693
4.331 1.726 0.861 5013
4.340 1.730 0.849 4325
4.248 1.693 0.820 4440
4.278 1.705 0.812 3285
4.491 1.790 0.831 3896
4.486 1.788 0.816 3786
4.575 1.824 0.815 5438
4.584 1.827 0.802 7215
4.593 1.831 0.789 7627
4.588 1.829 0.774 5269
4.699 1.873 0.774 3877
4.686 1.868 0.758 4472
4.680 1.866 0.742 3921
4.697 1.872 0.730 3988
4.698 1.873 0.715 4079
4.985 1.987 0.735 3790
5.008 1.996 0.722 4208
5.017 2.000 0.707 4875
5.011 1.997 0.691 4228
5.071 2.021 0.681 4815
5.080 2.025 0.666 4492
5.199 2.072 0.662 3469
5.207 2.076 0.647 3567
5.231 2.085 0.633 4094
5.210 2.077 0.615 4149
5.211 2.077 0.598 4144
5.279 2.104 0.588 4264
5.280 2.104 0.571 4381
5.296 2.111 0.556 3299
5.590 2.228 0.562 3444
5.606 2.234 0.546 5495
5.622 2.241 0.529 7197
5.637 2.247 0.513 6742
5.653 2.253 0.496 6725
5.647 2.251 0.478 5052
5.640 2.248 0.460 3793
5.736 2.287 0.448 4071
5.730 2.284 0.429 4531
5.723 2.281 0.411 4340
5.724 2.282 0.393 3460
5.828 2.323 0.380 2568
5.887 2.347 0.364 3109
5.888 2.347 0.345 3103
5.888 2.347 0.327 2421
6.190 2.467 0.318 2655
6.066 2.418 0.295 2565
6.059 2.415 0.276 2927
6.059 2.415 0.257 2558
6.184 2.465 0.240 2285
6.883 2.744 0.230 2383
6.876 2.741 0.209 1913
7.001 2.791 0.188 1816
7.001 2.791 0.166 1914
7.509 2.993 0.145 1821
7.494 2.987 0.121 2284
7.501 2.990 0.098 1809
7.258 2.893 0.077 1516
7.898 3.148 0.046 1389
8.140 3.245 0.018 1700
8.133 3.242 -0.007 2287
8.125 3.238 -0.033 2327
8.124 3.238 -0.058 2407
8.116 3.235 -0.083 2044
8.380 3.340 -0.117 1914
8.380 3.340 -0.143 1990
8.379 3.340 -0.169 2065
8.077 3.219 -0.183 1641
8.487 3.383 -0.226 1575
8.486 3.383 -0.253 1504
8.544 3.406 -0.282 1550
8.543 3.405 -0.309 1388
8.527 3.399 -0.335 1260
8.525 3.398 -0.361 1005
1.872 0.746 0.026 1150
1.865 0.743 0.021 1876
1.857 0.740 0.016 2701
1.849 0.737 0.011 3349
1.842 0.734 0.005 4346
1.841 0.734 -0.000 4413
1.841 0.734 -0.006 4321
1.841 0.734 -0.011 3947
1.847 0.736 -0.018 3667
1.847 0.736 -0.023 2738
1.847 0.736 -0.029 1808
1.853 0.739 -0.035 1282
1.868 0.744 -0.042 856
1.867 0.744 -0.048 856
1.867 0.744 -0.054 735
1.859 0.741 -0.059 626
1.858 0.741 -0.064 412
1.767 0.699 1.480 7169
1.770 0.700 1.475 14338
1.780 0.704 1.474 14829
1.784 0.705 1.468 15658
1.787 0.707 1.463 15658
1.797 0.710 1.462 19457
1.800 0.712 1.457 23479
1.804 0.713 1.451 25468
1.802 0.712 1.441 27918
1.799 0.711 1.431 23052
1.802 0.713 1.426 18694
1.806 0.714 1.420 16544
1.822 0.720 1.423 15964
1.825 0.722 1.418 17667
1.829 0.723 1.412 14961
1.844 0.729 1.416 13019
1.872 0.740 1.427 13580
1.888 0.747 1.430 16264
1.892 0.748 1.424 13573
1.901 0.752 1.423 10913
1.905 0.753 1.417 10755
1.908 0.755 1.411 10596
1.912 0.756 1.405 9094
1.909 0.755 1.395 7669
1.912 0.756 1.390 6283
1.922 0.760 1.388 4950
1.963 0.776 1.407 6351
1.973 0.780 1.405 8082
1.982 0.784 1.403 8731
1.992 0.788 1.401 9654
1.996 0.789 1.395 8572
2.005 0.793 1.393 7533
2.015 0.797 1.391 6605
2.025 0.801 1.389 6131
2.054 0.812 1.399 7273
2.063 0.816 1.396 9694
2.067 0.817 1.390 8315
2.064 0.816 1.380 5869
2.054 0.812 1.366 5461
2.064 0.816 1.363 4562
2.125 0.840 1.392 5225
2.135 0.844 1.389 5126
2.119 0.838 1.371 6026
2.135 0.844 1.372 9542
2.145 0.848 1.369 14531
2.148 0.849 1.363 16709
2.158 0.853 1.360 12635
2.174 0.860 1.361 10682
2.178 0.861 1.354 11318
2.181 0.862 1.347 14772
2.184 0.864 1.341 18271
2.188 0.865 1.334 18098
2.204 0.871 1.335 18193
2.207 0.873 1.328 20328
2.210 0.874 1.321 19934
2.213 0.875 1.314 16643
2.223 0.879 1.311 10696
2.292 0.906 1.339 7630
2.296 0.908 1.332 11499
2.299 0.909 1.325 13884
2.328 0.921 1.332 14284
2.325 0.919 1.322 14738
2.328 0.921 1.314 14169
2.351 0.930 1.318 12003
2.361 0.934 1.314 10756
2.364 0.935 1.306 10790
2.381 0.941 1.306 9990
2.391 0.945 1.302 9405
2.394 0.947 1.294 10024
2.451 0.969 1.313 10093
2.461 0.973 1.309 9171
2.450 0.969 1.295 7294
2.487 0.983 1.304 6197
2.497 0.987 1.299 7069
2.500 0.989 1.291 8761
2.503 0.990 1.284 6937
2.554 1.010 1.298 5783
2.550 1.008 1.287 8914
2.567 1.015 1.285 10806
2.577 1.019 1.280 11024
2.586 1.023 1.276 8910
2.596 1.027 1.271 6635
2.586 1.022 1.257 8726
2.589 1.024 1.249 10535
2.612 1.033 1.250 7563
2.643 1.045 1.253 6264
2.652 1.049 1.248 7577
2.669 1.055 1.246 11575
2.693 1.065 1.246 14952
2.703 1.069 1.241 12501
2.712 1.073 1.235 8280
2.709 1.071 1.224 6521
2.746 1.086 1.230 8847
2.742 1.084 1.218 11271
2.745 1.085 1.210 9323
2.775 1.097 1.212 10287
2.778 1.099 1.204 10922
2.788 1.102 1.198 8124
2.826 1.117 1.203 7054
2.842 1.124 1.199 8266
2.845 1.125 1.190 10407
2.855 1.129 1.184 11350
2.865 1.133 1.178 15437
2.868 1.134 1.169 16047
2.870 1.135 1.160 9549
2.950 1.166 1.179 9436
2.953 1.168 1.170 11591
2.977 1.177 1.168 10441
2.972 1.175 1.156 13792
2.968 1.174 1.145 14664
2.971 1.175 1.136 15536
2.981 1.179 1.129 17621
2.983 1.180 1.120 15185
2.986 1.181 1.110 10150
2.982 1.179 1.099 6471
3.062 1.211 1.115 6504
3.085 1.220 1.112 6677
3.102 1.227 1.107 7521
3.105 1.228 1.098 6928
3.114 1.231 1.090 5704
3.138 1.241 1.087 5429
3.155 1.248 1.082 7817
3.165 1.251 1.074 9238
3.267 1.292 1.094 19108
3.276 1.295 1.086 34098
3.279 1.296 1.076 45846
3.281 1.297 1.065 51741
3.284 1.298 1.055 53739
3.286 1.299 1.045 55440
3.289 1.300 1.035 56264
3.291 1.301 1.025 52260
3.294 1.302 1.015 38984
3.296 1.303 1.004 24372
3.305 1.307 0.996 12441
3.444 1.362 1.021 6665
3.460 1.368 1.014 10406
3.456 1.366 1.002 12086
3.465 1.370 0.993 7280
3.561 1.408 1.005 5068
3.599 1.423 1.003 8145
3.608 1.427 0.993 11976
3.603 1.425 0.981 8401
3.750 1.483 1.003 5809
3.774 1.492 0.996 6141
3.797 1.502 0.990 7643
3.807 1.505 0.979 7410
3.831 1.515 0.972 5771
3.848 1.521 0.964 6086
3.857 1.525 0.953 5304
3.903 1.543 0.950 6382
3.912 1.547 0.940 4655
3.965 1.568 0.938 2635
3.967 1.569 0.926 4212
3.969 1.569 0.914 4018
4.036 1.596 0.914 3777
4.060 1.605 0.906 4039
4.142 1.638 0.908 5724
4.144 1.639 0.895 5342
4.153 1.642 0.884 3644
4.235 1.675 0.885 5205
4.237 1.675 0.872 4263
4.356 1.722 0.879 4718
4.336 1.714 0.861 5497
4.345 1.718 0.849 4887
4.252 1.681 0.820 4298
4.363 1.725 0.824 3509
4.489 1.775 0.830 3732
4.491 1.776 0.816 3441
4.573 1.808 0.814 5661
4.589 1.815 0.802 7496
4.598 1.818 0.789 8083
4.600 1.819 0.775 5424
4.697 1.857 0.773 3523
4.691 1.855 0.758 3976
4.678 1.850 0.741 3679
4.694 1.856 0.729 3709
4.711 1.863 0.716 3945
4.734 1.872 0.704 3929
5.014 1.982 0.722 3527
5.023 1.986 0.707 4101
5.075 2.007 0.697 3765
5.077 2.007 0.681 5099
5.086 2.011 0.666 4619
5.204 2.058 0.662 3531
5.213 2.061 0.647 3735
5.236 2.071 0.633 4205
5.216 2.062 0.615 4157
5.217 2.063 0.598 3980
5.284 2.089 0.588 4975
5.285 2.090 0.571 5240
5.294 2.093 0.555 3950
5.596 2.213 0.562 3595
5.612 2.219 0.546 5424
5.628 2.225 0.529 7001
5.643 2.231 0.513 6530
5.659 2.238 0.496 6414
5.653 2.235 0.478 4683
5.639 2.230 0.460 3568
5.750 2.274 0.448 4009
5.744 2.271 0.430 4821
5.737 2.268 0.411 4603
5.738 2.269 0.394 3703
5.834 2.307 0.380 2884
5.893 2.330 0.364 3337
5.894 2.331 0.345 3216
5.895 2.331 0.327 2368
6.094 2.410 0.315 2372
6.072 2.401 0.295 2460
6.065 2.398 0.276 2792
6.066 2.398 0.257 2425
6.184 2.445 0.240 1938
6.891 2.725 0.230 2161
6.883 2.722 0.209 1723
7.215 2.853 0.189 1584
7.215 2.853 0.167 1874
7.215 2.853 0.144 1899
7.502 2.966 0.121 2266
7.509 2.969 0.098 1773
7.259 2.870 0.077 1639
7.907 3.126 0.046 1351
7.906 3.126 0.022 1642
8.141 3.219 -0.007 2104
8.134 3.216 -0.033 2201
8.133 3.216 -0.058 2327
8.125 3.213 -0.083 1966
8.390 3.317 -0.117 1793
8.389 3.317 -0.143 1896
8.388 3.317 -0.169 2000
8.085 3.197 -0.183 1827
8.497 3.360 -0.226 1843
8.488 3.356 -0.252 1852
1.846 0.730 0.051 2254
1.839 0.727 0.045 2767
1.838 0.727 0.040 3309
1.831 0.724 0.035 3218
1.830 0.724 0.029 3192
1.830 0.724 0.023 2765
1.822 0.721 0.018 2395
1.829 0.723 0.012 2936
1.829 0.723 0.007 3655
1.843 0.729 -0.000 4196
1.850 0.732 -0.006 4793
1.850 0.731 -0.012 4124
1.857 0.734 -0.018 3498
1.856 0.734 -0.024 2241
1.819 0.719 -0.026 1014
1.826 0.722 -0.032 810
1.862 0.736 -0.042 607
1.862 0.736 -0.047 607
1.854 0.733 -0.052 358
1.768 0.695 1.480 7147
1.772 0.696 1.475 14294
1.782 0.700 1.474 14432
1.785 0.701 1.468 15028
1.789 0.703 1.463 15028
1.798 0.707 1.462 18803
1.802 0.708 1.457 22742
1.800 0.707 1.447 25282
1.803 0.708 1.441 28213
1.801 0.707 1.431 23809
1.804 0.709 1.426 19675
1.808 0.710 1.420 17466
1.817 0.714 1.419 16174
1.821 0.715 1.414 17139
1.830 0.719 1.412 14537
1.846 0.725 1.416 12508
1.880 0.739 1.432 13840
1.890 0.742 1.430 16936
1.893 0.744 1.424 14121
1.903 0.748 1.423 11360
1.906 0.749 1.417 10324
1.910 0.750 1.411 9287
1.907 0.749 1.401 8061
1.911 0.751 1.395 6887
1.914 0.752 1.390 5456
1.961 0.770 1.413 4690
1.971 0.774 1.411 6279
1.974 0.776 1.405 7893
1.984 0.779 1.403 8434
1.994 0.783 1.401 9167
1.997 0.785 1.395 7802
2.007 0.788 1.393 6550
2.017 0.792 1.391 6773
2.033 0.799 1.393 7524
2.049 0.805 1.395 9032
2.059 0.809 1.392 11452
2.068 0.813 1.390 9405
2.072 0.814 1.384 5654
2.056 0.808 1.366 4550
2.059 0.809 1.359 3970
2.140 0.841 1.399 4949
2.143 0.842 1.393 4882
2.114 0.831 1.367 5999
2.137 0.840 1.372 9303
2.147 0.843 1.369 14068
2.150 0.845 1.363 16200
2.160 0.849 1.360 12334
2.176 0.855 1.361 11092
2.180 0.856 1.354 12227
2.183 0.858 1.347 15220
2.186 0.859 1.341 18299
2.189 0.860 1.334 18252
2.206 0.867 1.335 19099
2.216 0.870 1.331 21685
2.212 0.869 1.321 21193
2.215 0.870 1.314 17222
2.225 0.874 1.311 10153
2.294 0.901 1.339 7248
2.298 0.903 1.332 11311
2.307 0.907 1.329 14191
2.324 0.913 1.329 14812
2.327 0.914 1.322 14543
2.330 0.916 1.314 12961
2.347 0.922 1.314 10119
2.357 0.926 1.310 8703
2.366 0.930 1.306 9180
2.383 0.936 1.306 10354
2.393 0.940 1.302 11243
2.403 0.944 1.298 11510
2.392 0.940 1.284 9165
2.469 0.970 1.312 8231
2.479 0.974 1.308 6694
2.489 0.978 1.304 5297
2.499 0.982 1.299 5653
2.509 0.986 1.295 6871
2.512 0.987 1.287 6231
2.549 1.001 1.295 5957
2.552 1.003 1.287 8348
2.569 1.009 1.285 9954
2.579 1.013 1.280 10242
2.589 1.017 1.276 9089
2.592 1.018 1.268 7954
2.595 1.019 1.260 10065
2.591 1.018 1.249 11282
2.594 1.019 1.241 7603
2.645 1.039 1.253 5329
2.655 1.043 1.248 8198
2.671 1.050 1.246 12739
2.688 1.056 1.243 16512
2.705 1.063 1.241 13963
2.715 1.067 1.235 9120
2.711 1.065 1.224 6959
2.735 1.074 1.224 9198
2.744 1.078 1.218 12830
2.747 1.079 1.210 10323
2.771 1.089 1.210 9598
2.781 1.092 1.204 10102
2.797 1.099 1.201 8674
2.828 1.111 1.203 9200
2.838 1.115 1.196 8416
2.848 1.119 1.190 8643
2.851 1.120 1.182 11647
2.867 1.127 1.178 17126
2.877 1.130 1.172 17013
2.880 1.131 1.163 8863
2.960 1.163 1.181 9765
2.955 1.161 1.170 10349
2.972 1.168 1.166 8235
2.975 1.169 1.156 11847
2.971 1.167 1.145 13500
2.973 1.168 1.136 15612
2.983 1.172 1.129 19023
2.986 1.173 1.120 16721
2.989 1.174 1.110 10427
2.984 1.172 1.099 6872
3.015 1.184 1.099 6078
3.095 1.216 1.114 7392
3.105 1.220 1.107 8148
3.107 1.221 1.098 6791
3.138 1.233 1.097 5665
3.141 1.234 1.087 5548
3.158 1.241 1.082 8710
3.167 1.244 1.074 10292
3.269 1.284 1.094 16997
3.272 1.285 1.084 29630
3.282 1.289 1.076 39174
3.284 1.290 1.065 45089
3.287 1.291 1.055 49204
3.289 1.292 1.045 53203
3.292 1.293 1.035 54052
3.294 1.294 1.025 49967
3.296 1.295 1.015 37034
3.299 1.296 1.004 22742
3.308 1.300 0.996 12189
3.311 1.301 0.986 6094
3.463 1.361 1.014 7879
3.459 1.359 1.002 8634
3.583 1.408 1.022 5997
3.571 1.403 1.007 6275
3.602 1.415 1.003 9129
3.611 1.419 0.993 12537
3.614 1.420 0.982 8597
3.753 1.474 1.003 5089
3.770 1.481 0.995 5037
3.808 1.496 0.991 6239
3.818 1.500 0.981 6687
3.841 1.509 0.974 6388
3.851 1.513 0.964 6980
3.860 1.517 0.953 4692
3.913 1.537 0.952 5506
4.024 1.581 0.962 4239
3.975 1.562 0.940 2186
3.970 1.560 0.926 3582
3.980 1.564 0.915 3662
4.033 1.584 0.912 3156
4.122 1.619 0.917 3630
4.131 1.623 0.905 5447
4.148 1.629 0.895 4908
4.171 1.639 0.886 4176
4.232 1.662 0.884 4672
4.234 1.663 0.870 3861
4.352 1.710 0.877 4536
4.339 1.705 0.861 5578
4.356 1.711 0.850 5175
4.365 1.715 0.838 4477
4.360 1.713 0.823 3944
4.376 1.719 0.812 3537
4.582 1.800 0.830 3496
4.570 1.795 0.813 6237
4.593 1.805 0.802 7483
4.602 1.808 0.789 8345
4.611 1.812 0.776 5678
4.664 1.832 0.768 3492
4.688 1.842 0.757 3577
4.675 1.837 0.740 3464
4.794 1.883 0.741 3406
4.737 1.861 0.719 3639
4.738 1.862 0.704 4155
4.732 1.859 0.688 3656
5.108 2.007 0.716 3411
5.087 1.999 0.698 3957
5.081 1.996 0.681 5132
5.090 2.000 0.666 4525
5.216 2.049 0.663 3433
5.218 2.050 0.647 3790
5.241 2.059 0.633 4264
5.220 2.051 0.615 4071
5.273 2.072 0.603 3671
5.282 2.075 0.587 5504
5.290 2.078 0.571 5959
5.291 2.079 0.555 4576
5.601 2.200 0.562 3548
5.624 2.210 0.546 5137
5.633 2.213 0.529 6529
5.648 2.219 0.513 6088
5.664 2.225 0.496 5922
5.665 2.226 0.478 4322
5.622 2.209 0.458 3529
5.762 2.264 0.448 4129
5.756 2.261 0.430 4999
5.742 2.256 0.411 4763
5.743 2.256 0.394 3886
5.832 2.291 0.379 2893
5.899 2.317 0.364 3135
5.899 2.318 0.345 2949
6.062 2.381 0.332 2288
6.099 2.396 0.315 2255
6.070 2.385 0.295 2334
6.070 2.385 0.276 2652
6.071 2.385 0.257 2259
7.220 2.837 0.257 1748
6.904 2.712 0.230 1936
7.221 2.837 0.212 1662
7.214 2.834 0.189 1781
7.214 2.834 0.167 1991
7.221 2.837 0.144 2001
7.509 2.950 0.121 2159
7.516 2.953 0.098 1693
7.265 2.854 0.077 1713
7.567 2.973 0.050 1309
7.913 3.109 0.022 1590
8.149 3.201 -0.007 1868
8.141 3.198 -0.033 2019
8.140 3.198 -0.058 2195
8.132 3.195 -0.083 1856
8.095 3.180 -0.107 1656
8.101 3.183 -0.133 1840
8.101 3.183 -0.158 2025
8.092 3.179 -0.183 1877
8.504 3.341 -0.226 1833
8.495 3.338 -0.252 1948
8.487 3.334 -0.278 2118
1.833 0.720 0.046 2257
1.833 0.720 0.040 2888
1.832 0.720 0.035 4012
1.832 0.720 0.029 5135
1.824 0.717 0.024 5503
1.824 0.717 0.018 5895
1.824 0.716 0.013 5542
1.823 0.716 0.007 5360
1.823 0.716 0.002 4799
1.823 0.716 -0.004 4067
1.822 0.716 -0.010 3350
1.829 0.719 -0.016 2633
1.821 0.716 -0.021 2084
1.821 0.715 -0.026 1535
1.820 0.715 -0.032 1375
1.827 0.718 -0.038 1117
1.834 0.721 -0.044 1032
1.834 0.720 -0.050 700
1.848 0.726 -0.057 389
1.757 0.687 1.471 7072
1.761 0.689 1.465 14144
1.777 0.695 1.469 13752
1.786 0.699 1.468 14156
1.790 0.700 1.463 14156
1.799 0.704 1.462 17849
1.803 0.705 1.457 21667
1.801 0.704 1.447 24612
1.804 0.706 1.441 27847
1.802 0.705 1.431 23814
1.805 0.706 1.426 19856
1.809 0.707 1.420 17645
1.818 0.711 1.419 15816
1.822 0.713 1.414 16174
1.831 0.716 1.412 13590
1.841 0.720 1.411 11563
1.881 0.736 1.432 13757
1.891 0.740 1.430 17222
1.894 0.741 1.424 14377
1.904 0.745 1.423 11652
1.908 0.746 1.417 9900
1.911 0.748 1.411 8148
1.908 0.746 1.401 7127
1.912 0.748 1.395 6131
1.921 0.752 1.394 4671
1.969 0.770 1.417 4520
1.972 0.771 1.411 5875
1.976 0.773 1.405 7230
1.985 0.777 1.403 7617
1.989 0.778 1.397 8114
1.998 0.782 1.395 6546
2.014 0.788 1.397 5331
2.024 0.792 1.395 6928
2.034 0.796 1.393 8886
2.050 0.802 1.395 10844
2.060 0.806 1.392 13416
2.063 0.807 1.386 10584
2.073 0.811 1.384 5776
2.057 0.805 1.366 3891
2.061 0.806 1.359 3842
2.147 0.840 1.403 4635
2.144 0.839 1.393 4610
2.116 0.828 1.367 6105
2.138 0.836 1.372 8903
2.148 0.840 1.369 13276
2.151 0.842 1.363 15323
2.161 0.845 1.360 11892
2.178 0.852 1.361 11445
2.181 0.853 1.354 12947
2.184 0.854 1.347 15224
2.187 0.856 1.341 17566
2.191 0.857 1.334 17276
2.207 0.863 1.335 18788
2.217 0.867 1.331 21928
2.214 0.866 1.321 21471
2.223 0.870 1.318 17328
2.226 0.871 1.311 9646
2.296 0.898 1.339 6892
2.299 0.899 1.332 10763
2.309 0.903 1.329 14038
2.319 0.907 1.325 14862
2.328 0.911 1.322 13762
2.332 0.912 1.314 11315
2.342 0.916 1.311 8310
2.358 0.922 1.310 6777
2.368 0.926 1.306 7605
2.391 0.935 1.309 10834
2.394 0.937 1.302 12815
2.404 0.940 1.298 12661
2.394 0.936 1.284 9097
2.471 0.966 1.312 7920
2.481 0.970 1.308 6803
2.491 0.974 1.304 4762
2.507 0.981 1.302 4467
2.524 0.987 1.301 5336
2.547 0.996 1.303 6192
2.551 0.998 1.295 6249
2.554 0.999 1.287 7464
2.570 1.005 1.285 8896
2.587 1.012 1.284 9320
2.577 1.008 1.269 9290
2.593 1.014 1.268 9523
2.603 1.018 1.263 11296
2.599 1.017 1.252 11646
2.596 1.015 1.241 7747
2.653 1.038 1.256 4489
2.663 1.042 1.251 8729
2.680 1.048 1.249 13599
2.690 1.052 1.243 17764
2.707 1.059 1.241 15078
2.716 1.063 1.235 9900
2.706 1.058 1.221 7695
2.729 1.068 1.221 9822
2.746 1.074 1.218 13959
2.749 1.075 1.210 10787
2.766 1.082 1.207 8456
2.782 1.088 1.204 8921
2.799 1.095 1.201 9241
2.830 1.107 1.203 11890
2.840 1.111 1.196 9746
2.849 1.115 1.190 8477
2.852 1.116 1.182 12542
2.869 1.122 1.178 18136
2.879 1.126 1.172 17279
2.882 1.127 1.163 8347
2.961 1.158 1.181 10197
2.915 1.140 1.155 10241
2.925 1.144 1.148 6485
2.977 1.164 1.156 9770
2.972 1.163 1.145 11832
2.975 1.164 1.136 15049
2.985 1.168 1.129 19653
2.988 1.169 1.120 17329
2.990 1.170 1.110 10357
2.993 1.171 1.101 7286
3.003 1.174 1.094 6870
3.104 1.214 1.117 7531
3.114 1.218 1.109 8164
3.116 1.219 1.100 6623
3.140 1.228 1.097 6085
3.185 1.246 1.100 5640
3.160 1.236 1.082 8917
3.162 1.237 1.072 10682
3.264 1.277 1.092 14399
3.267 1.278 1.082 24170
3.276 1.282 1.074 30736
3.286 1.285 1.065 35996
3.289 1.286 1.055 43217
3.291 1.287 1.045 49533
3.293 1.288 1.035 49133
3.296 1.289 1.025 43967
3.291 1.287 1.013 31528
3.301 1.291 1.004 18255
3.310 1.295 0.996 10090
3.456 1.352 1.023 5426
3.458 1.353 1.012 5518
3.461 1.354 1.002 5044
3.592 1.405 1.023 7101
3.587 1.403 1.010 7635
3.604 1.410 1.003 9984
3.614 1.413 0.993 12341
3.616 1.414 0.982 8335
3.676 1.438 0.985 4883
3.765 1.473 0.993 4582
3.817 1.493 0.993 5149
3.827 1.497 0.983 5755
3.844 1.503 0.974 7022
3.860 1.510 0.965 8195
3.855 1.508 0.952 4452
3.937 1.540 0.957 5042
4.012 1.569 0.959 4321
3.992 1.562 0.943 2246
3.973 1.554 0.926 3159
3.997 1.563 0.918 3693
4.028 1.575 0.911 2716
4.124 1.613 0.917 3476
4.126 1.614 0.904 5152
4.143 1.620 0.894 4292
4.181 1.635 0.887 4671
4.183 1.636 0.875 5476
4.192 1.640 0.863 4606
4.347 1.700 0.876 4348
4.342 1.698 0.861 5479
4.359 1.705 0.850 5346
4.368 1.708 0.838 4894
4.362 1.706 0.823 4455
4.371 1.710 0.811 3873
4.578 1.791 0.828 3603
4.565 1.786 0.812 6865
4.596 1.798 0.802 7043
4.612 1.804 0.790 8149
4.621 1.808 0.777 5964
4.660 1.823 0.767 4235
4.676 1.829 0.755 3438
4.670 1.827 0.739 3538
4.796 1.876 0.741 3755
4.754 1.860 0.720 3560
4.741 1.854 0.704 4347
4.735 1.852 0.688 3885
5.111 1.999 0.716 4019
5.097 1.994 0.699 4209
5.084 1.989 0.681 4956
5.093 1.992 0.666 4225
5.219 2.042 0.663 3342
5.228 2.045 0.648 3836
5.237 2.048 0.632 4319
5.231 2.046 0.615 3880
5.283 2.067 0.604 3806
5.285 2.067 0.587 5750
5.286 2.068 0.571 6419
5.294 2.071 0.555 5015
5.347 2.091 0.542 3613
5.635 2.204 0.547 4809
5.643 2.207 0.530 6004
5.652 2.211 0.513 5586
5.667 2.217 0.496 5183
5.676 2.220 0.479 3821
5.618 2.197 0.458 3734
5.773 2.258 0.449 4427
5.759 2.253 0.430 5315
5.753 2.250 0.412 4989
5.746 2.248 0.394 4087
5.828 2.280 0.379 2985
5.902 2.309 0.364 3030
5.903 2.309 0.345 2807
6.058 2.370 0.332 2113
6.110 2.390 0.315 2091
6.074 2.376 0.295 2107
6.067 2.373 0.276 2363
6.067 2.373 0.257 1951
7.225 2.826 0.257 1799
7.232 2.829 0.235 1883
7.225 2.826 0.212 1850
7.218 2.823 0.189 1978
7.218 2.823 0.167 2095
7.225 2.826 0.144 2058
7.454 2.916 0.121 2174
7.454 2.916 0.098 1751
7.269 2.843 0.077 1797
7.579 2.964 0.050 1456
7.726 3.022 0.024 1586
7.718 3.019 0.001 2042
8.145 3.186 -0.033 1824
8.138 3.183 -0.058 2060
8.130 3.180 -0.083 1728
8.100 3.168 -0.107 1631
8.099 3.168 -0.133 1776
8.105 3.170 -0.158 1926
8.097 3.167 -0.183 1803
8.509 3.328 -0.226 2005
8.500 3.325 -0.252 2191
8.499 3.325 -0.279 2416
8.498 3.324 -0.305 2061
1.819 0.711 0.041 2018
1.819 0.711 0.035 2555
1.818 0.711 0.030 3092
1.818 0.711 0.024 3177
1.818 0.711 0.019 3261
1.817 0.711 0.013 3266
1.817 0.711 0.008 3299
1.817 0.711 0.002 3093
1.816 0.710 -0.003 2859
1.816 0.710 -0.009 2310
1.815 0.710 -0.014 1761
1.815 0.710 -0.020 1244
1.807 0.707 -0.025 730
1.807 0.707 -0.030 616
1.799 0.704 -0.035 384
1.753 0.681 1.466 7091
1.757 0.683 1.461 14182
1.778 0.691 1.469 13080
1.788 0.695 1.468 13187
1.791 0.696 1.463 13187
1.801 0.700 1.462 16642
1.805 0.701 1.457 20228
1.802 0.700 1.447 23437
1.800 0.699 1.437 26985
1.803 0.701 1.431 23188
1.807 0.702 1.426 19392
1.810 0.704 1.420 17246
1.820 0.707 1.419 15000
1.823 0.709 1.414 14802
1.827 0.710 1.408 12348
1.842 0.716 1.411 10308
1.889 0.734 1.436 13479
1.899 0.738 1.435 17090
1.902 0.739 1.429 14409
1.906 0.741 1.423 11729
1.909 0.742 1.417 9459
1.913 0.743 1.411 7189
1.916 0.745 1.405 6339
1.920 0.746 1.400 5490
1.960 0.762 1.419 4339
1.970 0.766 1.417 4214
1.974 0.767 1.411 5282
1.977 0.769 1.405 6350
1.987 0.772 1.403 6571
1.990 0.774 1.397 6822
2.006 0.780 1.399 5198
2.022 0.786 1.401 4480
2.032 0.790 1.399 7339
2.036 0.791 1.393 10270
2.045 0.795 1.391 12761
2.055 0.799 1.388 15617
2.065 0.803 1.386 12190
2.075 0.806 1.384 6375
2.059 0.800 1.366 3746
2.069 0.804 1.363 4205
2.072 0.805 1.357 4720
2.101 0.817 1.366 4989
2.111 0.821 1.363 6172
2.140 0.832 1.372 8265
2.150 0.836 1.369 12238
2.153 0.837 1.363 14116
2.163 0.841 1.360 11274
2.186 0.850 1.365 11631
2.183 0.848 1.354 13347
2.193 0.852 1.351 14847
2.196 0.854 1.344 16405
2.199 0.855 1.338 15294
2.209 0.859 1.335 16864
2.219 0.862 1.331 20204
2.215 0.861 1.321 19939
2.225 0.865 1.318 16322
2.228 0.866 1.311 8829
2.291 0.891 1.336 6484
2.301 0.894 1.332 9816
2.311 0.898 1.329 13291
2.321 0.902 1.325 14257
2.330 0.906 1.322 12507
2.340 0.910 1.318 9567
2.343 0.911 1.311 6606
2.360 0.917 1.310 4969
2.377 0.924 1.310 6269
2.393 0.930 1.309 11460
2.403 0.934 1.305 13983
2.406 0.935 1.298 13344
2.403 0.934 1.287 9573
2.473 0.961 1.312 7890
2.476 0.962 1.305 7551
2.493 0.969 1.304 4816
2.516 0.978 1.305 3969
2.546 0.990 1.310 4804
2.550 0.991 1.303 6445
2.546 0.990 1.292 6442
2.563 0.996 1.290 6363
2.579 1.003 1.288 7507
2.596 1.009 1.287 8216
2.572 1.000 1.266 9581
2.589 1.006 1.265 11156
2.612 1.015 1.266 12566
2.608 1.014 1.255 12022
2.605 1.012 1.244 7887
2.642 1.027 1.250 5171
2.665 1.036 1.251 9081
2.682 1.043 1.249 14115
2.692 1.046 1.243 18532
2.709 1.053 1.241 15652
2.726 1.059 1.238 10576
2.701 1.050 1.218 8871
2.731 1.062 1.221 10343
2.748 1.068 1.218 14273
2.751 1.069 1.210 10710
2.796 1.087 1.218 7258
2.792 1.085 1.206 8067
2.808 1.092 1.203 10123
2.832 1.101 1.203 14559
2.842 1.105 1.196 11794
2.852 1.109 1.190 9483
2.855 1.110 1.182 13647
2.871 1.116 1.178 18186
2.881 1.120 1.172 16614
2.891 1.124 1.165 7825
2.971 1.155 1.184 10651
2.911 1.131 1.152 9907
2.927 1.138 1.148 6423
2.979 1.158 1.156 7753
2.975 1.156 1.145 10034
2.978 1.157 1.136 13824
2.987 1.161 1.129 19279
2.997 1.165 1.122 17029
2.993 1.163 1.110 10086
2.995 1.164 1.101 7968
3.005 1.168 1.094 7557
3.114 1.210 1.119 7178
3.123 1.214 1.112 7654
3.133 1.218 1.104 6543
3.150 1.224 1.099 6456
3.188 1.239 1.100 6487
3.162 1.229 1.082 8434
3.158 1.227 1.070 10133
3.238 1.259 1.083 13637
3.255 1.265 1.077 19710
3.279 1.275 1.074 21829
3.289 1.278 1.065 26786
3.291 1.279 1.055 35330
3.294 1.280 1.045 41835
3.296 1.281 1.035 38983
3.291 1.279 1.023 33155
3.294 1.280 1.013 23450
3.303 1.284 1.004 11674
3.313 1.288 0.996 6543
3.545 1.378 1.045 5255
3.547 1.379 1.035 5977
3.571 1.388 1.029 6141
3.609 1.403 1.027 8353
3.605 1.401 1.014 9366
3.607 1.402 1.003 10710
3.617 1.406 0.993 11657
3.626 1.409 0.984 8034
3.672 1.427 0.983 5683
3.681 1.431 0.973 4716
3.828 1.488 0.995 4543
3.837 1.492 0.984 4761
3.854 1.498 0.976 7496
3.871 1.505 0.967 9442
3.895 1.514 0.959 4900
3.948 1.534 0.958 4847
3.993 1.552 0.955 4804
4.003 1.556 0.944 3083
4.005 1.557 0.932 3552
4.007 1.558 0.919 4008
4.075 1.584 0.920 2884
4.120 1.602 0.915 3209
4.122 1.602 0.902 4617
4.190 1.629 0.902 4198
4.192 1.629 0.889 5054
4.187 1.627 0.875 6122
4.196 1.631 0.863 5568
4.344 1.688 0.875 4001
4.338 1.686 0.860 5117
4.369 1.698 0.852 5462
4.371 1.699 0.838 5333
4.366 1.697 0.823 5094
4.375 1.701 0.811 4445
4.574 1.778 0.827 3592
4.569 1.776 0.812 7139
4.578 1.779 0.799 6692
4.616 1.794 0.790 7607
4.625 1.798 0.777 5907
4.664 1.813 0.767 4578
4.673 1.816 0.754 3603
4.674 1.817 0.739 3743
4.800 1.866 0.741 3950
4.773 1.855 0.722 3688
4.752 1.847 0.705 4524
4.746 1.845 0.689 4050
5.122 1.991 0.717 4519
5.116 1.989 0.700 4521
5.096 1.981 0.682 4550
5.090 1.978 0.666 3691
5.231 2.033 0.664 3217
5.232 2.034 0.648 3872
5.241 2.037 0.632 4374
5.235 2.035 0.615 3704
5.288 2.055 0.604 3802
5.289 2.056 0.587 5713
5.290 2.056 0.571 6650
5.291 2.057 0.554 5306
5.344 2.077 0.542 3765
5.647 2.195 0.547 4454
5.655 2.198 0.530 5448
5.664 2.202 0.513 5081
5.672 2.205 0.496 4408
5.680 2.208 0.479 3306
5.615 2.183 0.457 4128
5.778 2.246 0.449 4825
5.771 2.243 0.430 5701
5.765 2.241 0.412 5266
5.758 2.238 0.394 4234
5.825 2.264 0.379 3126
5.826 2.265 0.361 2999
5.908 2.296 0.345 2270
6.063 2.357 0.332 1850
6.115 2.377 0.315 1899
1.542 0.599 0.178 1943
1.542 0.599 0.173 2203
1.535 0.597 0.168 2233
1.535 0.597 0.164 2164
1.535 0.597 0.159 2020
7.231 2.811 0.212 2031
7.224 2.808 0.189 2141
1.542 0.600 0.145 2186
7.231 2.811 0.144 2084
7.460 2.900 0.121 2224
7.460 2.900 0.098 1823
7.283 2.831 0.077 1827
7.585 2.948 0.050 1590
7.740 3.009 0.024 1718
7.732 3.006 0.000 2202
7.732 3.005 -0.024 1701
8.144 3.166 -0.058 1839
8.129 3.160 -0.083 1560
8.106 3.151 -0.107 1553
8.106 3.151 -0.133 1669
8.105 3.150 -0.158 1786
8.104 3.150 -0.183 1652
8.516 3.310 -0.226 2195
8.507 3.307 -0.252 2488
8.506 3.306 -0.279 2834
8.505 3.306 -0.305 2402
8.511 3.308 -0.332 2011
8.510 3.308 -0.359 1497
1.820 0.707 0.030 1600
1.820 0.707 0.024 1651
1.827 0.710 0.018 1714
1.811 0.704 0.014 1818
1.811 0.704 0.008 1970
1.811 0.704 0.003 1685
1.818 0.707 -0.003 1430
1.832 0.712 -0.010 1021
1.890 0.735 -0.021 698
1.890 0.735 -0.027 895
1.890 0.734 -0.032 1091
1.889 0.734 -0.038 1055
1.889 0.734 -0.044 1019
1.888 0.734 -0.050 1019
1.888 0.734 -0.055 777
1.887 0.734 -0.061 535
1.887 0.733 -0.067 330
1.754 0.679 1.466 7111
1.758 0.680 1.461 14222
1.779 0.689 1.469 12197
1.789 0.692 1.468 11867
1.792 0.694 1.463 11867
1.802 0.697 1.462 15061
1.806 0.699 1.457 18386
1.803 0.698 1.447 21737
1.801 0.697 1.437 25577
1.804 0.698 1.431 22044
1.808 0.700 1.426 18512
1.811 0.701 1.420 16455
1.821 0.705 1.419 13894
1.824 0.706 1.414 13258
1.828 0.707 1.408 11103
1.887 0.730 1.442 9622
1.896 0.734 1.440 13017
1.900 0.735 1.435 16709
1.903 0.737 1.429 14178
1.913 0.740 1.427 11733
1.910 0.739 1.417 9099
1.914 0.741 1.411 6551
1.923 0.744 1.410 5831
1.939 0.751 1.412 5473
1.968 0.762 1.423 4307
1.978 0.765 1.421 3770
1.981 0.767 1.415 4542
1.985 0.768 1.409 5314
1.988 0.769 1.403 5283
1.991 0.771 1.397 5251
2.014 0.779 1.403 4018
2.049 0.793 1.417 4705
2.040 0.789 1.403 7981
2.043 0.791 1.397 11493
2.047 0.792 1.391 14416
2.056 0.796 1.388 17572
2.060 0.797 1.382 13746
2.076 0.803 1.384 7187
2.086 0.807 1.381 4335
2.083 0.806 1.371 5112
2.080 0.805 1.361 6010
2.096 0.811 1.362 6115
2.106 0.815 1.359 6551
2.141 0.829 1.372 7620
2.151 0.832 1.369 11176
2.154 0.834 1.363 12717
2.164 0.838 1.360 10498
2.187 0.846 1.365 11892
2.190 0.848 1.358 13930
2.194 0.849 1.351 14837
2.197 0.850 1.344 15550
2.200 0.852 1.338 13634
2.210 0.855 1.335 14311
2.220 0.859 1.331 17155
2.223 0.860 1.325 16898
2.226 0.862 1.318 13919
2.236 0.865 1.315 7431
2.292 0.887 1.336 5895
2.309 0.893 1.336 8472
2.319 0.897 1.332 12135
2.322 0.899 1.325 13213
2.332 0.902 1.322 11152
2.342 0.906 1.318 8207
2.338 0.905 1.307 5527
2.361 0.914 1.310 4006
2.398 0.928 1.320 5891
2.394 0.927 1.309 11579
2.404 0.930 1.305 14283
2.407 0.932 1.298 13348
2.411 0.933 1.290 10457
2.454 0.950 1.303 9228
2.464 0.954 1.298 8811
2.487 0.963 1.300 5463
2.504 0.969 1.299 4160
2.541 0.983 1.307 4729
2.544 0.985 1.299 6584
2.541 0.983 1.289 6517
2.510 0.971 1.265 6439
2.588 1.001 1.291 6264
2.598 1.005 1.287 7431
2.567 0.993 1.263 9778
2.590 1.002 1.265 12311
2.614 1.011 1.266 13403
2.617 1.013 1.258 12384
2.620 1.014 1.250 8656
2.643 1.023 1.250 6497
2.660 1.029 1.248 8953
2.684 1.039 1.249 14093
2.694 1.042 1.243 18891
2.703 1.046 1.238 15827
2.713 1.050 1.232 11085
2.709 1.048 1.221 10068
2.733 1.058 1.221 10858
2.750 1.064 1.218 13852
2.753 1.065 1.210 10266
2.804 1.085 1.220 6993
2.800 1.084 1.209 7635
2.810 1.087 1.203 10798
2.834 1.097 1.203 16194
2.844 1.100 1.196 13301
2.853 1.104 1.190 10356
2.856 1.105 1.182 14129
2.866 1.109 1.175 17179
2.883 1.116 1.172 15086
2.970 1.149 1.193 8240
2.973 1.150 1.184 10944
2.905 1.124 1.150 9303
2.992 1.158 1.171 6058
2.981 1.154 1.156 7111
2.977 1.152 1.145 8952
2.986 1.156 1.138 12088
2.996 1.159 1.131 18137
2.999 1.161 1.122 16181
2.994 1.159 1.110 9754
2.997 1.160 1.101 8594
3.000 1.161 1.092 7939
3.123 1.208 1.121 6468
3.132 1.212 1.114 6824
3.142 1.216 1.106 6228
3.159 1.222 1.101 6759
3.190 1.234 1.100 6989
3.164 1.224 1.082 7672
3.159 1.223 1.070 8969
3.240 1.254 1.083 14057
3.243 1.255 1.073 17788
3.274 1.267 1.071 15737
3.284 1.271 1.063 20971
3.293 1.274 1.055 28067
3.296 1.275 1.045 32640
3.298 1.276 1.035 28081
3.293 1.275 1.023 23353
3.281 1.270 1.009 17957
3.499 1.354 1.056 7628
3.508 1.358 1.047 6037
3.554 1.375 1.047 5397
3.556 1.376 1.036 7316
3.573 1.383 1.029 6960
3.619 1.400 1.029 9500
3.607 1.396 1.014 10489
3.609 1.397 1.003 11065
3.619 1.400 0.993 10824
3.635 1.407 0.986 7729
3.674 1.422 0.983 6437
3.676 1.423 0.972 5773
3.837 1.485 0.996 3930
3.840 1.486 0.984 3934
3.864 1.495 0.977 7795
3.873 1.499 0.967 10483
3.897 1.508 0.959 5852
3.979 1.540 0.964 4700
3.996 1.546 0.955 5078
4.012 1.553 0.945 4030
4.022 1.556 0.935 4448
4.009 1.552 0.919 4427
4.077 1.578 0.920 3450
4.079 1.579 0.907 3358
4.117 1.593 0.901 4212
4.200 1.625 0.903 4780
4.194 1.623 0.889 5186
4.182 1.618 0.873 6390
4.198 1.625 0.863 6009
4.229 1.637 0.855 3915
4.341 1.680 0.860 4474
4.372 1.692 0.852 5371
4.374 1.693 0.838 5691
4.368 1.691 0.823 5753
4.378 1.694 0.811 5097
4.569 1.768 0.826 3772
4.571 1.769 0.812 7375
4.573 1.770 0.798 6723
4.619 1.787 0.790 7005
4.643 1.797 0.779 5772
4.659 1.803 0.766 5251
4.668 1.806 0.753 3914
4.670 1.807 0.738 3614
4.803 1.859 0.741 3796
4.797 1.857 0.725 3813
4.762 1.843 0.706 4639
4.749 1.838 0.689 4148
5.125 1.983 0.717 4770
5.119 1.981 0.700 4694
5.099 1.973 0.682 4081
5.093 1.971 0.666 3061
5.219 2.020 0.662 3072
5.228 2.023 0.647 3857
5.244 2.029 0.632 4347
5.245 2.030 0.616 3515
5.291 2.047 0.604 3693
5.292 2.048 0.587 5462
5.293 2.048 0.571 6579
5.294 2.049 0.554 5364
5.332 2.064 0.541 3820
5.665 2.192 0.548 4093
5.659 2.190 0.530 4807
5.667 2.193 0.513 4470
5.675 2.196 0.496 3509
5.610 2.171 0.474 3709
5.618 2.174 0.457 4606
5.781 2.237 0.449 4969
5.775 2.235 0.430 5809
5.768 2.232 0.412 5316
5.769 2.232 0.394 4105
5.829 2.256 0.379 3079
5.822 2.253 0.360 2949
5.830 2.256 0.343 1989
6.066 2.348 0.332 1498
6.126 2.371 0.315 1653
6.082 2.354 0.295 1441
6.075 2.351 0.276 1576
7.234 2.800 0.279 1666
7.235 2.800 0.257 1806
7.242 2.803 0.235 1978
1.543 0.597 0.155 2223
1.543 0.597 0.150 2604
1.543 0.597 0.145 2661
1.543 0.597 0.141 2196
7.465 2.889 0.121 2182
7.464 2.889 0.098 1817
7.287 2.820 0.077 1879
7.597 2.940 0.050 1698
7.744 2.997 0.024 1812
7.737 2.994 0.000 2282
7.736 2.994 -0.024 1738
8.149 3.154 -0.058 1539
8.126 3.145 -0.083 1374
8.111 3.139 -0.107 1425
8.110 3.139 -0.133 1536
8.117 3.141 -0.158 1649
8.522 3.298 -0.200 1647
8.521 3.297 -0.226 2216
8.512 3.294 -0.252 2508
8.511 3.294 -0.279 2874
8.510 3.293 -0.305 2410
8.516 3.296 -0.332 1980
8.515 3.295 -0.359 1428
1.880 0.727 0.026 1501
1.872 0.725 0.021 1742
1.864 0.722 0.016 2003
1.864 0.721 0.010 1555
1.871 0.724 0.004 1115
1.878 0.727 -0.002 854
1.885 0.730 -0.009 605
1.885 0.729 -0.014 647
1.884 0.729 -0.020 688
1.876 0.726 -0.025 570
1.854 0.717 -0.029 485
1.853 0.717 -0.035 429
1.853 0.717 -0.040 373
1.852 0.717 -0.046 373
1.859 0.720 -0.052 294
1.750 0.671 1.461 7241
1.753 0.673 1.456 14482
1.763 0.677 1.455 11402
1.791 0.687 1.468 10376
1.794 0.689 1.463 10376
1.798 0.690 1.458 13438
1.808 0.694 1.457 16651
1.805 0.693 1.447 19970
1.803 0.692 1.437 23916
1.806 0.693 1.431 20664
1.810 0.694 1.426 17412
1.813 0.696 1.420 15417
1.823 0.699 1.419 12660
1.826 0.701 1.414 11762
1.830 0.702 1.408 9916
1.889 0.725 1.442 9401
1.898 0.728 1.440 12687
1.902 0.730 1.435 16017
1.912 0.734 1.433 13797
1.915 0.735 1.427 11712
1.919 0.736 1.421 8961
1.916 0.735 1.411 6255
1.926 0.739 1.410 5782
1.948 0.747 1.416 5918
1.970 0.756 1.423 4351
2.005 0.769 1.438 3543
1.983 0.761 1.415 3900
1.987 0.762 1.409 4402
1.990 0.764 1.403 4115
1.987 0.763 1.393 3832
2.029 0.779 1.411 3706
2.045 0.785 1.413 5253
2.048 0.786 1.407 8757
2.045 0.785 1.397 12408
2.055 0.789 1.395 15665
2.059 0.790 1.388 19070
2.062 0.791 1.382 15174
2.072 0.795 1.380 7979
2.088 0.801 1.381 4907
2.085 0.800 1.371 5964
2.082 0.799 1.361 7080
2.098 0.805 1.362 7201
2.101 0.806 1.356 7096
2.144 0.823 1.372 7247
2.153 0.826 1.369 10502
2.157 0.828 1.363 11625
2.167 0.831 1.360 9784
2.190 0.840 1.365 11488
2.193 0.841 1.358 13561
2.196 0.843 1.351 14000
2.206 0.847 1.348 14261
2.209 0.848 1.341 12148
2.219 0.852 1.338 12136
2.222 0.853 1.331 14352
2.226 0.854 1.325 14056
2.229 0.855 1.318 11577
2.245 0.862 1.318 6508
2.288 0.878 1.332 5290
2.311 0.887 1.336 7145
2.321 0.891 1.332 10975
2.324 0.892 1.325 12142
2.334 0.896 1.322 10035
2.344 0.900 1.318 7491
2.341 0.898 1.307 5318
2.377 0.912 1.317 4573
2.407 0.924 1.323 6734
2.397 0.920 1.309 11177
2.407 0.924 1.305 13684
2.410 0.925 1.298 12718
2.420 0.929 1.294 11271
2.443 0.938 1.296 11533
2.460 0.944 1.295 10111
2.490 0.956 1.300 5987
2.500 0.959 1.296 4709
2.530 0.971 1.301 4790
2.540 0.975 1.296 6628
2.509 0.963 1.273 7024
2.512 0.964 1.265 7538
2.522 0.968 1.261 6863
2.539 0.974 1.259 8372
2.563 0.983 1.260 10230
2.593 0.995 1.265 12846
2.623 1.007 1.269 13508
2.626 1.008 1.261 12426
2.629 1.009 1.253 9432
2.646 1.015 1.250 7590
2.663 1.022 1.248 8648
2.687 1.031 1.249 13852
2.696 1.035 1.243 19033
2.706 1.039 1.238 15637
2.709 1.040 1.229 11396
2.712 1.041 1.221 11014
2.736 1.050 1.221 10899
2.753 1.056 1.218 12839
2.763 1.060 1.213 9664
2.807 1.077 1.220 7516
2.803 1.076 1.209 7867
2.813 1.079 1.203 11170
2.837 1.089 1.203 16441
2.847 1.092 1.196 13621
2.857 1.096 1.190 10488
2.859 1.097 1.182 13722
2.869 1.101 1.175 15465
2.886 1.107 1.172 12989
2.980 1.144 1.196 9309
2.983 1.145 1.186 11054
2.993 1.148 1.180 9751
2.995 1.149 1.171 8197
2.984 1.145 1.156 8252
2.980 1.144 1.145 8857
2.983 1.145 1.136 10496
2.999 1.151 1.131 16443
3.002 1.152 1.122 15229
2.998 1.150 1.110 9583
3.000 1.151 1.101 8881
3.003 1.152 1.092 7986
3.133 1.202 1.124 5670
3.143 1.206 1.116 5976
3.153 1.210 1.109 5672
3.169 1.216 1.103 6816
3.193 1.225 1.100 6858
3.167 1.215 1.082 7115
3.163 1.214 1.070 7549
3.251 1.248 1.085 14194
3.254 1.249 1.075 16756
3.277 1.258 1.071 14563
3.287 1.261 1.063 20431
3.297 1.265 1.055 24343
3.299 1.266 1.045 26716
3.302 1.267 1.035 22150
3.290 1.262 1.021 19193
3.285 1.261 1.009 18760
3.295 1.264 1.001 9029
3.498 1.342 1.043 6292
3.565 1.368 1.049 5390
3.560 1.366 1.036 7901
3.498 1.342 1.009 7329
3.623 1.390 1.029 9808
3.618 1.388 1.016 10494
3.613 1.386 1.003 10772
3.623 1.390 0.993 10094
3.639 1.397 0.986 7395
3.678 1.411 0.983 6794
3.680 1.412 0.972 6418
3.841 1.474 0.996 3917
3.844 1.475 0.984 4091
3.868 1.484 0.977 7984
3.877 1.488 0.967 10858
3.901 1.497 0.959 6448
3.976 1.526 0.963 4412
4.000 1.535 0.955 5035
4.031 1.547 0.948 4976
4.033 1.548 0.936 5315
4.014 1.540 0.919 4788
4.081 1.566 0.920 3948
4.083 1.567 0.907 3603
4.202 1.612 0.916 4272
4.204 1.613 0.903 4993
4.192 1.609 0.887 5005
4.179 1.604 0.872 6504
4.196 1.610 0.862 6007
4.227 1.622 0.854 3716
4.346 1.668 0.860 3597
4.377 1.680 0.852 5101
4.379 1.680 0.838 5960
4.373 1.678 0.823 6296
4.375 1.679 0.810 5721
4.487 1.722 0.813 3948
4.569 1.753 0.811 7469
4.571 1.754 0.797 6709
4.624 1.774 0.790 6361
4.648 1.783 0.779 5495
4.664 1.790 0.766 5365
4.673 1.793 0.753 4019
4.645 1.783 0.735 3653
4.816 1.848 0.742 3500
4.803 1.843 0.725 3885
5.054 1.939 0.740 4835
4.754 1.824 0.689 4284
5.131 1.969 0.717 4651
5.125 1.967 0.700 4593
5.001 1.919 0.671 3688
5.209 1.999 0.677 2498
5.225 2.005 0.662 2947
5.234 2.008 0.647 3752
5.242 2.012 0.631 4211
5.251 2.015 0.616 3284
5.297 2.033 0.604 3488
5.290 2.030 0.587 5125
5.292 2.031 0.570 6305
5.300 2.034 0.554 5232
5.331 2.046 0.540 3790
5.678 2.179 0.549 3742
5.672 2.177 0.531 4171
5.673 2.177 0.513 3893
5.571 2.138 0.489 3028
5.609 2.152 0.474 4186
5.617 2.155 0.457 5069
5.788 2.221 0.449 4644
5.781 2.218 0.430 5416
5.774 2.216 0.412 5019
5.775 2.216 0.394 3733
5.835 2.239 0.379 2618
1.529 0.587 0.196 2614
1.529 0.587 0.191 4495
1.530 0.587 0.187 6813
1.530 0.587 0.182 7932
1.530 0.587 0.178 7931
1.530 0.587 0.173 6531
1.530 0.587 0.168 5290
1.530 0.587 0.164 3824
1.530 0.587 0.159 2206
7.243 2.780 0.212 1970
7.236 2.777 0.189 2064
7.229 2.774 0.167 2035
7.236 2.777 0.144 1872
7.465 2.865 0.121 2120
7.473 2.868 0.098 1788
7.628 2.927 0.074 1937
7.613 2.921 0.050 1762
7.760 2.978 0.024 1786
7.745 2.972 0.000 2196
7.745 2.972 -0.024 1649
8.143 3.125 -0.057 1267
8.128 3.119 -0.082 1214
8.534 3.275 -0.120 1383
8.119 3.116 -0.133 1349
8.126 3.118 -0.158 1441
8.538 3.277 -0.200 1618
8.538 3.276 -0.226 2165
8.529 3.273 -0.253 2428
8.521 3.270 -0.279 2753
8.519 3.269 -0.305 2269
8.526 3.272 -0.332 1808
8.524 3.271 -0.359 1263
1.852 0.711 0.028 830
1.852 0.711 0.022 743
1.852 0.711 0.017 655
1.844 0.708 0.012 690
1.836 0.705 0.007 777
1.836 0.705 0.001 649
1.828 0.702 -0.004 512
1.835 0.704 -0.010 378
1.849 0.710 -0.017 265
1.856 0.712 -0.023 256
1.856 0.712 -0.029 253
1.744 0.685 1.461 7325
1.748 0.687 1.456 14650
1.752 0.688 1.451 11272
1.779 0.699 1.464 9036
1.783 0.701 1.458 9036
1.792 0.704 1.458 11914
1.802 0.708 1.457 14937
1.793 0.705 1.442 18209
1.797 0.706 1.437 21993
1.800 0.708 1.431 19058
1.804 0.709 1.426 16123
1.807 0.710 1.420 14201
1.817 0.714 1.419 11372
1.827 0.718 1.418 10369
1.824 0.717 1.408 8851
1.889 0.742 1.446 9607
1.892 0.744 1.440 12350
1.902 0.747 1.439 15188
1.906 0.749 1.433 13375
1.915 0.753 1.432 11659
1.913 0.752 1.421 8925
1.916 0.753 1.416 6288
1.938 0.762 1.422 6150
1.942 0.763 1.416 6551
1.964 0.772 1.423 4611
1.999 0.785 1.438 3466
1.983 0.779 1.419 3698
1.981 0.778 1.409 3993
1.984 0.780 1.403 3609
1.981 0.779 1.393 3319
1.991 0.782 1.391 4188
2.039 0.801 1.413 5848
2.036 0.800 1.403 9421
2.039 0.801 1.397 12995
2.049 0.805 1.395 16541
2.052 0.806 1.388 20145
2.056 0.808 1.382 16357
2.065 0.812 1.380 8886
2.082 0.818 1.381 5666
2.079 0.817 1.371 6905
2.082 0.818 1.365 8234
2.085 0.819 1.358 7983
2.095 0.823 1.356 7357
2.111 0.830 1.357 6971
2.147 0.844 1.369 9750
2.150 0.845 1.363 10437
2.160 0.849 1.360 8948
2.189 0.860 1.368 10667
2.186 0.859 1.358 12455
2.196 0.863 1.355 12446
2.199 0.864 1.348 12305
2.202 0.865 1.341 10791
2.212 0.869 1.338 11072
2.215 0.871 1.331 12951
2.219 0.872 1.325 12745
2.222 0.873 1.318 10812
2.251 0.885 1.325 7028
2.268 0.891 1.325 5070
2.311 0.908 1.339 6035
2.314 0.909 1.332 9950
2.311 0.908 1.322 11363
2.320 0.912 1.318 9401
2.337 0.918 1.318 7311
2.360 0.927 1.321 5695
2.397 0.942 1.331 6375
2.406 0.946 1.327 7790
2.396 0.942 1.313 10430
2.393 0.940 1.302 12437
2.403 0.944 1.298 11632
2.412 0.948 1.294 11628
2.429 0.955 1.293 13111
2.446 0.961 1.292 10925
2.482 0.975 1.300 6190
2.492 0.979 1.296 4987
2.509 0.986 1.295 5021
2.526 0.992 1.293 6663
2.495 0.980 1.270 7608
2.505 0.984 1.265 8500
2.521 0.991 1.264 8310
2.538 0.997 1.262 9823
2.548 1.001 1.257 10817
2.585 1.016 1.265 12787
2.608 1.025 1.266 12954
2.625 1.032 1.264 12092
2.628 1.033 1.255 10043
2.645 1.039 1.253 8398
2.655 1.043 1.248 8707
2.678 1.052 1.249 13751
2.681 1.054 1.240 19142
2.691 1.057 1.235 15302
2.701 1.061 1.229 11511
2.704 1.063 1.221 11480
2.734 1.075 1.224 10363
2.751 1.081 1.221 11364
2.754 1.082 1.213 8839
2.799 1.100 1.220 7859
2.801 1.101 1.212 8061
2.804 1.102 1.203 11126
2.828 1.111 1.203 15516
2.838 1.115 1.196 12926
2.848 1.119 1.190 10002
2.851 1.120 1.182 12667
2.860 1.124 1.175 13260
2.877 1.131 1.172 10570
2.971 1.167 1.196 10170
2.974 1.168 1.186 10991
2.983 1.172 1.180 10130
2.986 1.173 1.171 9568
2.975 1.169 1.156 9321
2.971 1.167 1.145 8742
2.973 1.168 1.136 9058
2.990 1.175 1.131 14667
2.993 1.176 1.122 14385
2.988 1.174 1.110 9524
2.984 1.173 1.099 8788
2.987 1.174 1.090 7612
3.123 1.227 1.124 4885
3.133 1.231 1.116 5184
3.143 1.235 1.109 5155
3.160 1.242 1.103 6625
3.169 1.245 1.096 6396
3.186 1.252 1.090 6584
3.231 1.270 1.093 7212
3.248 1.276 1.087 13852
3.251 1.277 1.077 16231
3.274 1.287 1.074 15647
3.284 1.290 1.065 22316
3.287 1.291 1.055 23333
3.282 1.290 1.043 24718
3.284 1.291 1.033 21945
3.280 1.289 1.021 19840
3.282 1.290 1.011 20689
3.291 1.293 1.003 12489
3.473 1.365 1.039 6419
3.504 1.377 1.036 5234
3.549 1.395 1.036 7777
3.487 1.370 1.009 8251
3.611 1.419 1.029 9423
3.614 1.420 1.018 9464
3.602 1.415 1.003 9796
3.611 1.419 0.993 9340
3.628 1.426 0.986 7049
3.666 1.441 0.983 6848
3.676 1.444 0.973 6601
3.678 1.445 0.962 3927
3.839 1.509 0.986 4152
3.856 1.515 0.977 7601
3.865 1.519 0.967 10285
3.882 1.525 0.958 6480
3.964 1.558 0.963 4028
3.988 1.567 0.955 4794
4.033 1.585 0.951 5886
4.021 1.580 0.936 5968
3.994 1.570 0.918 5138
4.069 1.599 0.920 4235
4.064 1.597 0.906 3837
4.095 1.609 0.898 4259
4.097 1.610 0.886 5507
4.157 1.633 0.884 5004
4.166 1.637 0.872 6502
4.183 1.644 0.862 5821
4.206 1.653 0.852 3527
4.216 1.657 0.841 3116
4.363 1.715 0.852 4630
4.358 1.712 0.837 6135
4.360 1.713 0.823 6661
4.361 1.714 0.810 6234
4.473 1.758 0.813 4432
4.555 1.790 0.811 7194
4.557 1.791 0.797 6494
4.610 1.811 0.790 5867
4.640 1.824 0.780 5132
4.650 1.827 0.766 5348
4.651 1.828 0.752 4216
4.631 1.820 0.735 3808
4.632 1.820 0.720 3495
4.766 1.873 0.722 3921
5.038 1.980 0.740 5108
4.740 1.862 0.689 4477
4.968 1.952 0.700 4333
4.977 1.956 0.686 4328
4.986 1.959 0.671 3511
5.185 2.038 0.676 2453
5.209 2.047 0.662 2817
5.217 2.050 0.647 3605
5.226 2.054 0.631 3997
5.242 2.060 0.617 3081
5.273 2.072 0.603 3279
5.274 2.072 0.587 4761
5.275 2.073 0.570 5945
5.276 2.073 0.554 5010
5.314 2.088 0.540 3679
5.521 2.170 0.539 3402
5.655 2.222 0.531 3453
5.656 2.222 0.513 3243
5.546 2.179 0.489 3199
5.591 2.197 0.474 4472
5.600 2.200 0.457 5274
5.600 2.201 0.440 4438
5.770 2.268 0.431 4607
5.764 2.265 0.413 4321
5.757 2.262 0.394 3094
5.817 2.286 0.379 1854
1.524 0.599 0.196 2140
1.525 0.599 0.191 2422
1.517 0.596 0.187 2121
1.518 0.596 0.182 1693
1.518 0.596 0.177 1637
1.518 0.596 0.173 2162
1.518 0.596 0.168 3020
1.511 0.594 0.163 3920
1.518 0.596 0.159 4835
1.525 0.599 0.154 6391
1.525 0.599 0.150 7993
1.525 0.599 0.145 8660
1.525 0.599 0.141 7722
1.518 0.597 0.136 5568
1.518 0.597 0.131 4126
1.518 0.597 0.127 2770
7.596 2.985 0.050 1824
7.736 3.040 0.024 1672
7.728 3.037 0.000 2004
7.728 3.037 -0.024 1486
8.103 3.184 -0.057 1092
8.522 3.349 -0.094 1219
8.514 3.346 -0.120 1456
8.514 3.345 -0.147 1231
8.100 3.183 -0.158 1188
8.512 3.345 -0.200 1509
8.511 3.344 -0.226 2012
8.503 3.341 -0.253 2246
8.494 3.338 -0.279 2528
8.493 3.337 -0.305 2089
8.499 3.340 -0.332 1660
8.490 3.336 -0.358 1161
8.489 3.336 -0.385 671
1.846 0.726 0.022 588
1.846 0.725 0.017 661
1.846 0.725 0.011 521
1.816 0.714 0.008 393
1.838 0.722 0.000 433
1.845 0.725 -0.006 491
1.844 0.725 -0.011 427
1.844 0.724 -0.017 364
1.740 0.680 1.457 7218
1.743 0.681 1.452 14437
1.747 0.682 1.446 11061
1.739 0.679 1.432 8002
1.784 0.697 1.458 7894
1.794 0.701 1.458 10571
1.803 0.704 1.457 13522
1.795 0.701 1.442 16560
1.792 0.700 1.432 20210
1.802 0.704 1.431 17422
1.805 0.705 1.426 14791
1.809 0.707 1.420 12884
1.825 0.713 1.423 10072
1.840 0.719 1.427 9493
1.881 0.735 1.447 9447
1.890 0.738 1.446 10209
1.894 0.740 1.440 12146
1.904 0.744 1.439 14404
1.907 0.745 1.433 12911
1.917 0.749 1.432 11598
1.920 0.750 1.426 9031
1.918 0.749 1.416 6592
1.940 0.758 1.422 6743
1.943 0.759 1.416 7333
1.940 0.758 1.406 5284
1.975 0.772 1.421 3701
1.985 0.775 1.419 3964
1.988 0.777 1.413 4233
1.986 0.776 1.403 4107
1.983 0.774 1.393 4158
1.992 0.778 1.391 5623
2.002 0.782 1.389 7246
2.037 0.796 1.403 9976
2.047 0.800 1.401 13319
2.051 0.801 1.395 17011
2.054 0.802 1.388 20703
2.057 0.804 1.382 17174
2.061 0.805 1.376 9488
2.083 0.814 1.381 5894
2.080 0.813 1.371 7203
2.084 0.814 1.365 8605
2.087 0.815 1.358 8201
2.097 0.819 1.356 7403
2.106 0.823 1.353 6926
2.149 0.839 1.369 9461
2.152 0.841 1.363 9961
2.162 0.844 1.360 8501
2.191 0.856 1.368 9855
2.194 0.857 1.362 11496
2.198 0.858 1.355 10910
2.201 0.860 1.348 10205
2.204 0.861 1.341 9448
2.214 0.865 1.338 10166
2.224 0.869 1.335 11808
2.220 0.867 1.325 12013
2.230 0.871 1.321 11088
2.247 0.878 1.322 7996
2.256 0.881 1.318 5485
2.319 0.906 1.343 5233
2.309 0.902 1.329 9143
2.312 0.903 1.322 11027
2.316 0.904 1.315 9219
2.339 0.914 1.318 7560
2.382 0.930 1.331 7208
2.398 0.937 1.331 8332
2.408 0.941 1.327 9031
2.398 0.937 1.313 9658
2.395 0.935 1.302 10767
2.405 0.939 1.298 10201
2.414 0.943 1.294 11414
2.431 0.950 1.293 13808
2.448 0.956 1.292 11180
2.484 0.970 1.300 6048
2.494 0.974 1.296 4868
2.491 0.973 1.285 5312
2.521 0.985 1.290 6724
2.497 0.975 1.270 8125
2.507 0.979 1.265 9171
2.530 0.988 1.267 9674
2.540 0.992 1.262 11256
2.543 0.993 1.254 11231
2.587 1.010 1.265 12192
2.610 1.020 1.266 12013
2.627 1.026 1.264 11458
2.637 1.030 1.258 10455
2.647 1.034 1.253 8978
2.657 1.038 1.248 9215
2.674 1.044 1.246 14322
2.683 1.048 1.240 19764
2.693 1.052 1.235 15325
2.703 1.056 1.229 11437
2.706 1.057 1.221 11554
2.744 1.072 1.227 9558
2.760 1.078 1.224 9778
2.784 1.087 1.224 8621
2.808 1.097 1.223 8095
2.804 1.095 1.212 8330
2.807 1.096 1.203 10910
2.823 1.103 1.200 14034
2.840 1.109 1.196 11619
2.850 1.113 1.190 9116
2.853 1.114 1.182 11125
2.863 1.118 1.175 10762
2.879 1.125 1.172 8136
2.973 1.161 1.196 10792
2.976 1.162 1.186 10866
2.986 1.166 1.180 10071
2.989 1.167 1.171 10346
2.977 1.163 1.156 9811
2.973 1.161 1.145 8524
2.976 1.162 1.136 8232
2.993 1.169 1.131 13019
2.995 1.170 1.122 13601
2.991 1.168 1.110 9647
2.993 1.169 1.101 8552
3.067 1.198 1.115 7257
3.062 1.196 1.103 4433
3.136 1.225 1.116 4503
3.152 1.231 1.111 4706
3.162 1.235 1.103 6026
3.165 1.236 1.094 5851
3.189 1.245 1.090 6215
3.234 1.263 1.093 7249
3.258 1.272 1.090 12930
3.253 1.271 1.077 15391
3.284 1.283 1.076 16582
3.287 1.284 1.065 23577
3.289 1.285 1.055 22653
3.285 1.283 1.043 24250
3.294 1.287 1.035 23771
3.289 1.285 1.023 21339
3.285 1.283 1.011 21471
3.301 1.289 1.004 14577
3.311 1.293 0.996 6277
3.507 1.370 1.036 5448
3.502 1.368 1.024 7393
3.490 1.363 1.009 8271
3.614 1.412 1.029 8641
3.610 1.410 1.016 7828
3.612 1.411 1.005 8334
3.614 1.412 0.993 8453
3.638 1.421 0.987 6986
3.669 1.433 0.983 6752
3.679 1.437 0.973 6612
3.681 1.438 0.962 4040
3.842 1.501 0.986 4732
3.859 1.507 0.977 7201
3.868 1.511 0.967 9174
3.885 1.517 0.958 5959
3.967 1.549 0.963 3688
