1.267 2.345 1.418 8700
1.272 2.354 1.414 9990
1.274 2.358 1.406 12103
1.276 2.361 1.399 12154
1.281 2.370 1.394 9677
1.293 2.393 1.397 6912
1.295 2.396 1.389 6737
1.399 2.588 1.481 7289
1.404 2.598 1.476 5588
1.379 2.551 1.441 4807
1.425 2.637 1.476 5538
1.427 2.640 1.467 7023
1.429 2.644 1.458 6364
1.420 2.628 1.440 4966
1.446 2.676 1.454 6982
1.451 2.685 1.448 9379
1.450 2.682 1.436 7753
1.469 2.718 1.443 5470
1.470 2.721 1.435 6219
1.514 2.801 1.463 7515
1.488 2.753 1.429 8923
1.493 2.763 1.423 11991
1.495 2.766 1.414 11603
1.500 2.776 1.408 10392
1.502 2.779 1.399 9179
1.518 2.808 1.402 8313
1.533 2.838 1.404 7167
1.535 2.841 1.395 6029
1.586 2.935 1.426 5895
1.591 2.945 1.420 5531
1.586 2.935 1.404 4879
1.588 2.938 1.395 4463
1.625 3.006 1.413 5269
1.626 3.010 1.403 5573
1.596 2.954 1.369 4024
1.605 2.970 1.364 2716
1.681 3.111 1.412 4282
1.686 3.121 1.404 7544
1.695 3.137 1.400 8854
1.697 3.140 1.389 8317
1.706 3.157 1.384 8253
1.708 3.160 1.374 12108
1.709 3.163 1.364 14688
1.711 3.166 1.353 12049
1.738 3.215 1.361 9366
1.743 3.225 1.353 13404
1.745 3.228 1.342 12374
1.743 3.225 1.329 9110
1.744 3.228 1.319 5735
1.800 3.330 1.345 6083
1.801 3.333 1.334 7103
1.806 3.343 1.325 7106
1.808 3.346 1.314 5232
1.810 3.349 1.303 3929
1.837 3.399 1.309 3772
1.842 3.408 1.300 6687
1.840 3.404 1.286 7479
1.885 3.487 1.302 6637
1.893 3.504 1.295 12417
1.899 3.513 1.286 11484
1.904 3.523 1.277 5565
1.924 3.559 1.276 4170
1.921 3.556 1.262 5017
1.930 3.572 1.255 6204
1.932 3.575 1.243 3822
1.970 3.645 1.252 3383
2.004 3.708 1.259 5006
2.009 3.718 1.249 6002
2.083 3.855 1.277 6543
2.045 3.784 1.242 7643
2.046 3.787 1.230 8169
2.059 3.810 1.223 7271
2.068 3.826 1.215 5325
2.051 3.795 1.193 3883
2.107 3.899 1.208 4184
2.112 3.909 1.198 4600
2.117 3.918 1.187 3465
2.042 3.779 1.136 3451
2.076 3.842 1.139 2845
2.085 3.858 1.130 2593
2.112 3.908 1.130 2417
2.117 3.918 1.119 3842
2.119 3.920 1.106 3328
2.035 3.766 1.055 2557
2.033 3.762 1.041 2484
2.388 4.418 1.185 1877
2.466 4.564 1.204 2133
2.464 4.560 1.188 3249
2.466 4.563 1.173 2958
2.497 4.620 1.170 2705
2.498 4.623 1.155 4109
2.492 4.612 1.137 4461
2.497 4.621 1.123 3286
2.613 4.836 1.153 3494
2.589 4.790 1.127 3388
2.594 4.800 1.112 3700
2.599 4.809 1.098 3331
2.652 4.908 1.101 3027
2.653 4.910 1.085 3876
2.655 4.912 1.069 4332
2.693 4.984 1.066 3312
2.724 5.041 1.060 4946
2.737 5.064 1.047 4923
2.749 5.087 1.034 4690
2.754 5.096 1.018 4025
2.748 5.084 0.999 2820
2.808 5.197 1.001 3224
2.828 5.234 0.989 3717
2.837 5.249 0.974 3828
2.901 5.369 0.976 3630
2.906 5.378 0.959 3077
2.922 5.408 0.945 2234
3.039 5.624 0.959 2461
3.048 5.640 0.943 3478
3.101 5.739 0.938 4944
3.102 5.741 0.919 5028
3.103 5.743 0.900 3273
3.127 5.786 0.886 3690
3.124 5.781 0.866 3321
3.121 5.776 0.847 2340
3.358 6.214 0.880 2264
3.355 6.209 0.859 2269
3.353 6.204 0.837 2275
3.515 6.504 0.850 1631
3.516 6.505 0.828 2417
3.517 6.507 0.807 2681
3.517 6.509 0.786 2118
3.773 6.982 0.810 1667
3.722 6.887 0.778 2039
3.745 6.930 0.759 2003
3.757 6.953 0.738 1859
3.758 6.954 0.715 1752
4.078 7.546 0.739 1818
4.067 7.527 0.713 2173
4.061 7.514 0.687 2152
4.054 7.502 0.661 1446
4.100 7.587 0.642 1323
4.311 7.977 0.641 1345
4.312 7.978 0.615 1311
4.312 7.980 0.589 1046
4.320 7.995 0.563 699
4.321 7.996 0.537 621
4.321 7.997 0.510 426
4.548 8.415 0.502 263
4.491 8.311 -0.381 335
4.491 8.310 -0.408 495
4.486 8.301 -0.435 556
4.482 8.293 -0.462 635
4.413 8.166 -0.480 746
4.412 8.165 -0.507 1028
4.411 8.163 -0.534 1045
4.410 8.161 -0.560 1062
4.409 8.159 -0.587 1062
4.405 8.151 -0.614 1148
4.400 8.142 -0.640 1278
4.402 8.147 -0.667 1045
4.409 8.158 -0.696 920
4.408 8.156 -0.723 739
4.200 7.773 -0.708 681
4.199 7.770 -0.733 681
4.198 7.768 -0.759 503
3.957 7.322 -0.732 454
3.851 7.126 -0.732 481
3.850 7.124 -0.755 514
3.849 7.122 -0.779 514
3.847 7.119 -0.802 257
0.987 1.819 1.583 4056
0.989 1.823 1.578 8112
0.991 1.827 1.572 7094
1.000 1.842 1.575 6249
1.002 1.845 1.569 6370
1.007 1.855 1.567 6796
1.009 1.858 1.561 7320
1.014 1.868 1.560 6363
1.016 1.871 1.554 5410
1.018 1.875 1.548 5410
1.051 1.936 1.586 6782
1.053 1.940 1.580 9068
1.058 1.950 1.578 9122
1.066 1.965 1.580 9630
1.075 1.980 1.583 8288
1.080 1.990 1.580 7291
1.088 2.005 1.583 5998
1.100 2.026 1.589 6443
1.102 2.030 1.582 5949
1.107 2.040 1.580 6352
1.112 2.049 1.578 7184
1.111 2.047 1.567 6343
1.110 2.045 1.556 5669
1.112 2.048 1.549 8998
1.110 2.046 1.539 12381
1.116 2.056 1.536 13381
1.118 2.059 1.529 14435
1.120 2.063 1.523 11573
1.128 2.078 1.524 7251
1.136 2.094 1.526 7738
1.145 2.109 1.527 10208
1.150 2.119 1.524 11804
1.158 2.134 1.525 8796
1.177 2.168 1.538 7163
1.185 2.184 1.539 7623
1.194 2.199 1.540 9210
1.196 2.203 1.532 10068
1.198 2.206 1.525 10927
1.203 2.216 1.522 10615
1.208 2.226 1.519 9792
1.210 2.229 1.511 8013
1.218 2.245 1.512 5593
1.234 2.273 1.520 5531
1.226 2.258 1.501 7431
1.227 2.261 1.494 9700
1.226 2.259 1.483 10227
1.224 2.256 1.471 9321
1.233 2.272 1.472 7776
1.242 2.288 1.471 11851
1.250 2.303 1.471 20675
1.252 2.307 1.464 24747
1.254 2.310 1.456 22740
1.252 2.307 1.445 19758
1.254 2.311 1.438 18194
1.256 2.314 1.430 17997
1.264 2.330 1.430 14425
1.270 2.339 1.426 11849
1.271 2.343 1.418 10580
1.273 2.346 1.410 11462
1.278 2.355 1.406 13838
1.280 2.359 1.399 13274
1.285 2.368 1.394 9748
1.359 2.503 1.458 7883
1.364 2.513 1.453 7188
1.400 2.580 1.478 7235
1.395 2.570 1.463 5913
1.383 2.548 1.441 6695
1.382 2.545 1.430 6859
1.376 2.536 1.415 6881
1.433 2.641 1.458 6038
1.425 2.625 1.440 5051
1.451 2.673 1.454 6982
1.456 2.683 1.448 8854
1.458 2.686 1.440 7197
1.463 2.696 1.434 5506
1.472 2.712 1.431 5975
1.519 2.799 1.463 7800
1.514 2.789 1.447 8509
1.498 2.760 1.423 11544
1.500 2.764 1.414 11255
1.505 2.773 1.408 9892
1.514 2.790 1.405 8828
1.526 2.812 1.405 8808
1.532 2.822 1.398 6562
1.582 2.916 1.430 5428
1.588 2.925 1.423 6093
1.597 2.942 1.420 5570
1.588 2.925 1.401 5359
1.590 2.929 1.392 5747
1.595 2.938 1.385 5266
1.600 2.948 1.378 4753
1.602 2.951 1.369 3903
1.625 2.994 1.375 3212
1.690 3.114 1.415 5566
1.696 3.124 1.407 9131
1.701 3.134 1.400 10013
1.703 3.137 1.389 9415
1.708 3.147 1.382 9341
1.713 3.157 1.374 13190
1.715 3.160 1.364 15802
1.717 3.163 1.353 12799
1.743 3.212 1.361 10505
1.749 3.222 1.353 15448
1.750 3.225 1.342 13798
1.748 3.221 1.329 9476
1.747 3.218 1.316 5940
1.802 3.320 1.342 4947
1.804 3.323 1.331 6101
1.813 3.340 1.325 6342
1.814 3.343 1.314 4963
1.816 3.346 1.303 4138
1.825 3.362 1.297 4006
1.852 3.411 1.302 5972
1.842 3.394 1.284 6902
1.891 3.484 1.302 6911
1.900 3.500 1.295 13107
1.905 3.510 1.286 11733
1.907 3.513 1.275 5332
1.966 3.623 1.298 4402
1.972 3.633 1.288 5195
1.937 3.568 1.255 6974
1.938 3.571 1.243 4207
1.980 3.648 1.254 4043
2.007 3.698 1.257 5965
2.012 3.707 1.247 6589
2.090 3.852 1.277 6521
2.092 3.854 1.264 6459
2.061 3.797 1.234 7008
2.080 3.833 1.231 6827
2.100 3.870 1.228 5924
2.058 3.791 1.193 4219
2.169 3.997 1.237 3774
2.171 4.000 1.224 4117
2.128 3.921 1.188 3145
2.049 3.775 1.136 2912
2.131 3.927 1.163 2347
2.169 3.997 1.167 2073
2.174 4.006 1.156 1977
2.124 3.914 1.119 2891
2.126 3.916 1.106 2692
2.352 4.334 1.195 2512
2.350 4.330 1.179 2363
2.392 4.407 1.183 1735
2.478 4.567 1.206 2226
2.476 4.562 1.189 3206
2.474 4.558 1.173 2997
2.505 4.616 1.170 3597
2.506 4.618 1.155 4412
2.504 4.614 1.138 4606
2.509 4.623 1.124 3721
2.596 4.783 1.142 3277
2.597 4.786 1.127 3309
2.647 4.877 1.129 3608
2.652 4.887 1.115 3115
2.680 4.937 1.108 3328
2.662 4.905 1.085 4223
2.664 4.908 1.069 4540
2.669 4.917 1.054 3300
2.733 5.036 1.060 4646
2.749 5.066 1.048 4782
2.758 5.082 1.034 4458
2.763 5.091 1.018 3723
2.805 5.169 1.014 2531
2.825 5.206 1.003 3084
2.838 5.228 0.989 3992
2.846 5.244 0.974 4150
2.847 5.246 0.957 3754
2.920 5.380 0.960 3260
2.932 5.402 0.945 2707
3.057 5.632 0.961 2528
3.058 5.634 0.943 3708
3.111 5.733 0.938 4190
3.113 5.735 0.919 4425
3.114 5.737 0.900 2997
3.137 5.780 0.886 3436
3.138 5.782 0.867 3038
3.304 6.088 0.886 2209
3.366 6.201 0.879 2376
3.367 6.203 0.859 2368
3.368 6.205 0.838 2326
3.530 6.504 0.851 1553
3.527 6.499 0.828 2390
3.532 6.508 0.808 2707
3.529 6.503 0.786 2212
3.782 6.969 0.809 1635
3.776 6.956 0.785 1869
3.773 6.951 0.761 1791
3.774 6.953 0.738 1773
3.774 6.954 0.715 1638
4.092 7.539 0.739 2060
4.085 7.526 0.713 2457
4.078 7.514 0.687 2417
4.083 7.522 0.663 1731
4.114 7.579 0.642 1232
4.325 7.969 0.641 1284
4.326 7.971 0.615 1288
4.391 8.090 0.596 1034
4.399 8.105 0.570 731
4.343 8.002 0.538 668
4.340 7.996 0.511 450
4.563 8.407 0.502 327
4.432 8.165 -0.345 262
4.506 8.303 -0.381 454
4.506 8.302 -0.408 665
4.505 8.300 -0.435 724
4.500 8.292 -0.462 801
4.428 8.158 -0.480 1033
4.427 8.157 -0.507 1411
4.426 8.155 -0.534 1382
4.429 8.160 -0.561 1363
4.428 8.158 -0.588 1363
4.419 8.143 -0.614 1445
4.415 8.134 -0.640 1583
4.421 8.145 -0.668 1377
4.424 8.150 -0.696 1300
4.422 8.148 -0.723 1058
3.985 7.342 -0.661 933
3.984 7.340 -0.686 933
3.975 7.324 -0.708 815
3.970 7.315 -0.732 734
3.868 7.126 -0.733 643
3.867 7.124 -0.756 690
3.865 7.122 -0.780 690
3.864 7.119 -0.803 345
0.992 1.817 1.583 3650
0.994 1.820 1.578 7300
0.999 1.830 1.576 6430
1.005 1.839 1.575 5412
1.007 1.843 1.569 5155
1.012 1.852 1.567 5787
1.017 1.861 1.566 6588
1.019 1.865 1.560 5554
1.021 1.869 1.554 4520
1.023 1.872 1.548 4520
1.056 1.934 1.586 6327
1.058 1.937 1.580 8580
1.063 1.947 1.578 8759
1.069 1.956 1.576 9286
1.080 1.977 1.583 7893
1.085 1.987 1.580 6825
1.062 1.944 1.540 5991
1.064 1.947 1.533 5822
1.111 2.033 1.587 5287
1.116 2.042 1.584 5850
1.118 2.046 1.578 6792
1.117 2.044 1.567 5963
1.115 2.042 1.556 5406
1.114 2.039 1.545 8638
1.116 2.043 1.539 11934
1.121 2.053 1.536 13478
1.123 2.056 1.529 15258
1.125 2.060 1.523 12897
1.134 2.075 1.524 9177
1.139 2.085 1.521 8713
1.147 2.100 1.523 10314
1.156 2.116 1.524 12156
1.164 2.131 1.525 9386
1.176 2.153 1.530 7978
1.188 2.174 1.535 7592
1.200 2.196 1.540 8661
1.202 2.200 1.532 9461
1.203 2.203 1.525 10261
1.209 2.213 1.522 9699
1.214 2.222 1.519 8618
1.219 2.232 1.515 6731
1.224 2.242 1.512 5172
1.236 2.263 1.516 5614
1.232 2.255 1.501 7943
1.234 2.258 1.494 10454
1.232 2.255 1.483 10649
1.231 2.253 1.471 9288
1.239 2.268 1.472 7518
1.248 2.284 1.471 11556
1.256 2.300 1.471 20827
1.258 2.303 1.464 25389
1.257 2.301 1.453 24407
1.259 2.304 1.445 22439
1.260 2.307 1.438 20827
1.262 2.311 1.430 20961
1.271 2.326 1.430 17261
1.276 2.336 1.426 14029
1.278 2.339 1.418 12075
1.280 2.342 1.410 12426
1.285 2.352 1.406 14957
1.287 2.355 1.399 13893
1.292 2.365 1.394 9610
1.366 2.500 1.458 9674
1.371 2.509 1.453 8802
1.400 2.563 1.471 7422
1.385 2.535 1.446 7381
1.387 2.538 1.438 8580
1.388 2.542 1.430 8729
1.383 2.532 1.415 8015
1.392 2.548 1.413 5976
1.449 2.653 1.456 4932
1.458 2.669 1.454 6662
1.463 2.679 1.448 8053
1.469 2.689 1.443 6764
1.477 2.705 1.440 6389
1.518 2.778 1.466 6407
1.527 2.795 1.463 8237
1.521 2.785 1.447 9098
1.509 2.763 1.426 11390
1.507 2.760 1.414 11106
1.516 2.776 1.411 9890
1.525 2.792 1.408 7787
1.544 2.827 1.414 8058
1.546 2.831 1.404 6604
1.590 2.911 1.430 5727
1.596 2.921 1.423 6190
1.605 2.937 1.420 5587
1.596 2.921 1.401 5290
1.597 2.924 1.392 6619
1.603 2.934 1.385 5978
1.608 2.944 1.378 4761
1.620 2.966 1.377 4414
1.629 2.983 1.373 4642
1.699 3.110 1.415 6720
1.704 3.120 1.407 10137
1.709 3.129 1.400 10774
1.711 3.133 1.389 10362
1.717 3.142 1.382 10413
1.718 3.145 1.371 13756
1.724 3.155 1.364 16133
1.725 3.158 1.353 13010
1.752 3.207 1.361 11140
1.757 3.217 1.353 16876
1.759 3.220 1.342 14649
1.757 3.217 1.329 9391
1.755 3.213 1.316 5573
1.807 3.309 1.340 4026
1.802 3.299 1.324 5100
1.818 3.328 1.323 5361
1.823 3.338 1.314 4772
1.829 3.347 1.306 4689
1.830 3.350 1.295 4786
1.864 3.413 1.304 5212
1.852 3.389 1.284 6471
1.900 3.479 1.302 7500
1.906 3.489 1.293 13519
1.915 3.505 1.286 11595
1.913 3.501 1.272 5202
1.976 3.618 1.298 4414
1.949 3.567 1.269 5800
1.946 3.563 1.255 8429
1.948 3.566 1.243 5031
1.994 3.649 1.257 4737
2.013 3.686 1.255 6600
2.022 3.702 1.247 6841
2.097 3.839 1.275 5908
2.095 3.835 1.260 5843
2.086 3.818 1.242 7448
2.091 3.828 1.231 7114
2.111 3.864 1.228 6063
2.068 3.786 1.193 4730
2.180 3.991 1.237 4803
2.182 3.994 1.224 4884
2.187 4.003 1.212 3378
2.196 4.020 1.203 3043
2.197 4.022 1.190 2484
2.180 3.991 1.167 2432
2.185 4.001 1.156 2341
2.179 3.990 1.139 2302
2.055 3.761 1.069 2188
2.360 4.321 1.194 2368
2.362 4.323 1.179 2260
2.486 4.550 1.219 1950
2.491 4.560 1.206 2384
2.489 4.556 1.189 3161
2.494 4.565 1.176 3187
2.518 4.609 1.170 4357
2.515 4.604 1.153 4648
2.517 4.607 1.138 4817
2.526 4.623 1.126 4153
2.609 4.776 1.142 3504
2.659 4.867 1.145 3296
2.660 4.870 1.129 4369
2.692 4.927 1.124 3665
2.693 4.930 1.108 3935
2.679 4.905 1.086 4352
2.677 4.900 1.069 4459
2.686 4.916 1.055 3604
2.739 5.015 1.057 4394
2.729 4.997 1.037 4773
2.772 5.074 1.034 4342
2.777 5.083 1.018 3498
2.782 5.093 1.003 2256
2.843 5.205 1.004 2934
2.852 5.221 0.989 4059
2.857 5.230 0.973 4254
2.862 5.239 0.957 3799
2.938 5.378 0.961 3505
2.951 5.401 0.946 3244
2.963 5.424 0.932 2950
3.077 5.633 0.944 3742
3.078 5.635 0.925 3323
3.128 5.726 0.919 3706
3.103 5.680 0.893 2978
3.157 5.779 0.887 3102
3.154 5.774 0.867 2721
3.325 6.086 0.887 2338
3.382 6.192 0.879 2314
3.387 6.201 0.859 2307
3.388 6.202 0.839 2269
3.552 6.502 0.851 1469
3.549 6.496 0.829 2305
3.550 6.498 0.808 2663
3.551 6.500 0.786 2253
3.801 6.958 0.809 1585
3.798 6.953 0.785 1872
3.807 6.969 0.764 1828
3.800 6.956 0.739 1814
3.797 6.951 0.716 1629
4.112 7.528 0.739 2298
4.105 7.515 0.713 2764
4.102 7.510 0.688 2718
4.103 7.511 0.663 2027
4.183 7.658 0.648 1119
4.347 7.958 0.641 1146
4.416 8.084 0.623 1213
4.417 8.085 0.596 1064
4.421 8.093 0.570 736
4.368 7.997 0.538 732
4.369 7.998 0.511 486
4.571 8.367 0.501 346
4.548 8.326 0.472 253
4.454 8.153 -0.345 376
4.529 8.291 -0.381 563
4.528 8.289 -0.408 819
4.527 8.288 -0.435 880
4.523 8.280 -0.462 949
4.450 8.146 -0.480 1384
4.449 8.145 -0.507 1880
4.448 8.143 -0.534 1819
4.451 8.148 -0.561 1788
4.450 8.146 -0.588 1788
4.441 8.131 -0.614 1822
4.437 8.122 -0.640 1949
4.443 8.133 -0.668 1761
4.446 8.138 -0.696 1718
4.445 8.136 -0.723 1428
4.001 7.325 -0.661 1602
4.000 7.323 -0.685 1602
3.995 7.314 -0.708 1410
3.994 7.311 -0.732 1218
3.887 7.116 -0.733 887
3.886 7.113 -0.756 968
3.885 7.111 -0.780 968
3.883 7.109 -0.803 484
0.998 1.821 1.588 3285
1.000 1.824 1.582 6570
1.002 1.828 1.576 5862
1.011 1.843 1.579 4759
1.016 1.852 1.578 4193
1.018 1.856 1.572 5028
1.020 1.860 1.566 5863
1.025 1.869 1.564 4850
1.065 1.942 1.612 4072
1.067 1.945 1.606 4072
1.056 1.926 1.582 6145
1.058 1.930 1.575 8372
1.063 1.939 1.573 8575
1.069 1.949 1.572 8944
1.067 1.946 1.561 7564
1.066 1.944 1.550 6277
1.065 1.942 1.540 5995
1.067 1.946 1.533 5760
1.114 2.031 1.587 4841
1.119 2.041 1.584 5455
1.121 2.044 1.578 6318
1.120 2.042 1.567 5513
1.119 2.040 1.556 5055
1.117 2.038 1.545 8317
1.119 2.041 1.539 11642
1.125 2.051 1.536 13772
1.127 2.054 1.529 16292
1.128 2.058 1.523 14328
1.137 2.073 1.524 11134
1.142 2.083 1.521 9638
1.151 2.098 1.523 10128
1.159 2.114 1.524 12192
1.171 2.135 1.529 9993
1.179 2.151 1.530 8843
1.188 2.166 1.531 7619
1.203 2.194 1.540 7903
1.205 2.198 1.532 8576
1.210 2.207 1.529 9249
1.212 2.211 1.522 8573
1.221 2.226 1.523 7487
1.223 2.230 1.515 6032
1.228 2.240 1.512 5042
1.237 2.255 1.512 5654
1.235 2.253 1.501 8017
1.237 2.256 1.494 10515
1.236 2.253 1.483 10509
1.238 2.257 1.475 9145
1.243 2.266 1.472 7611
1.252 2.282 1.471 11279
1.257 2.292 1.468 20408
1.262 2.301 1.464 25317
1.260 2.298 1.453 25498
1.262 2.302 1.445 24553
1.264 2.305 1.438 22888
1.266 2.308 1.430 23208
1.275 2.324 1.430 19232
1.280 2.334 1.426 15460
1.278 2.331 1.415 12768
1.283 2.340 1.410 12307
1.289 2.350 1.406 14742
1.290 2.353 1.399 13282
1.371 2.500 1.469 8754
1.373 2.504 1.461 11651
1.375 2.507 1.453 10557
1.387 2.529 1.455 8698
1.389 2.533 1.446 9227
1.391 2.536 1.438 10362
1.393 2.539 1.430 10408
1.387 2.530 1.415 8799
1.389 2.533 1.407 5978
1.454 2.651 1.456 4595
1.462 2.667 1.454 6025
1.468 2.676 1.448 7116
1.477 2.693 1.446 6681
1.482 2.702 1.440 7106
1.522 2.776 1.466 6872
1.528 2.786 1.460 8681
1.522 2.776 1.444 9437
1.517 2.767 1.429 11499
1.519 2.770 1.420 11525
1.524 2.780 1.414 10800
1.533 2.796 1.411 9069
1.546 2.818 1.411 8008
1.561 2.847 1.413 6752
1.577 2.876 1.415 5767
1.600 2.918 1.423 5367
1.613 2.941 1.422 4511
1.593 2.906 1.396 4949
1.599 2.915 1.389 6884
1.604 2.925 1.382 5832
1.613 2.941 1.378 4487
1.629 2.970 1.380 5111
1.634 2.980 1.373 5525
1.707 3.113 1.417 7368
1.709 3.117 1.407 10541
1.715 3.127 1.400 10985
1.716 3.130 1.389 10721
1.718 3.133 1.379 10757
1.723 3.143 1.371 13444
1.729 3.152 1.364 15644
1.730 3.155 1.353 12811
1.757 3.205 1.361 10963
1.763 3.214 1.353 17303
1.764 3.217 1.342 14931
1.762 3.214 1.329 9170
1.757 3.204 1.314 5405
1.802 3.286 1.332 4024
1.804 3.289 1.322 5212
1.823 3.325 1.323 5322
1.829 3.335 1.314 5109
1.834 3.344 1.306 5391
1.836 3.347 1.295 5898
1.845 3.364 1.288 4931
1.857 3.386 1.284 6086
1.906 3.476 1.302 8013
1.911 3.485 1.293 13397
1.920 3.502 1.286 10955
1.918 3.498 1.272 4876
1.975 3.601 1.294 4348
1.954 3.564 1.269 7635
1.952 3.560 1.255 10279
1.954 3.563 1.243 6289
1.996 3.639 1.254 5219
2.016 3.676 1.253 6620
2.025 3.692 1.245 6741
2.089 3.809 1.267 5440
2.090 3.812 1.254 5498
2.092 3.815 1.242 8792
2.097 3.824 1.231 7675
2.110 3.847 1.224 5184
2.082 3.796 1.197 5243
2.187 3.987 1.237 5564
2.192 3.997 1.225 5422
2.197 4.007 1.214 3508
2.199 4.009 1.201 3145
2.189 3.992 1.182 2917
2.187 3.988 1.167 2723
2.192 3.997 1.156 2657
2.190 3.993 1.141 2687
2.184 3.982 1.125 1831
2.367 4.317 1.194 2071
2.369 4.319 1.179 1980
2.493 4.546 1.219 2416
2.495 4.549 1.204 2563
2.500 4.558 1.191 3214
2.505 4.568 1.177 3558
2.525 4.605 1.170 4565
2.523 4.600 1.153 4624
2.524 4.603 1.138 4938
2.533 4.619 1.126 4349
2.617 4.772 1.142 3497
2.667 4.863 1.145 3564
2.668 4.866 1.129 4881
2.700 4.923 1.124 4343
2.701 4.925 1.108 4479
2.695 4.914 1.089 4473
2.692 4.910 1.072 4340
2.697 4.919 1.057 4108
2.740 4.997 1.054 4711
2.738 4.992 1.037 5076
2.780 5.070 1.034 4332
2.785 5.079 1.018 3317
2.794 5.095 1.004 2054
2.859 5.214 1.007 2830
2.860 5.216 0.989 3930
2.865 5.225 0.973 4157
2.870 5.234 0.957 3634
2.951 5.381 0.962 3739
2.959 5.396 0.946 3696
2.972 5.419 0.932 3432
3.086 5.628 0.944 3582
3.087 5.630 0.925 3086
3.138 5.721 0.919 2899
3.112 5.675 0.893 3196
3.113 5.677 0.875 3421
3.110 5.672 0.855 2699
3.335 6.081 0.887 2396
3.392 6.186 0.879 2132
3.401 6.202 0.860 2161
3.402 6.204 0.840 2136
3.403 6.206 0.819 1547
3.559 6.491 0.829 2210
3.560 6.492 0.808 2578
3.561 6.494 0.786 2261
3.812 6.952 0.809 1560
3.813 6.954 0.786 1904
3.818 6.962 0.764 1893
3.815 6.957 0.740 1878
3.812 6.952 0.716 1633
4.124 7.521 0.739 2477
4.121 7.515 0.714 3015
4.118 7.510 0.688 2990
4.115 7.504 0.663 2262
4.200 7.658 0.648 1158
4.428 8.075 0.649 1068
4.429 8.077 0.623 1256
4.430 8.078 0.596 1067
4.385 7.996 0.565 752
4.385 7.997 0.538 763
4.386 7.998 0.512 495
4.599 8.387 0.502 343
4.472 8.154 -0.318 317
4.467 8.146 -0.345 490
4.543 8.283 -0.381 651
4.546 8.289 -0.408 955
4.541 8.281 -0.435 1024
4.468 8.147 -0.453 1133
4.463 8.139 -0.480 1729
4.462 8.137 -0.507 2343
4.465 8.143 -0.534 2248
4.464 8.141 -0.561 2190
4.463 8.139 -0.588 2190
4.459 8.130 -0.614 2146
4.450 8.114 -0.640 2231
4.456 8.126 -0.668 2025
4.459 8.131 -0.696 1977
4.014 7.320 -0.636 1874
4.013 7.318 -0.661 2409
4.012 7.316 -0.685 2409
4.011 7.314 -0.709 2074
4.010 7.312 -0.733 1740
4.008 7.309 -0.757 1189
3.897 7.107 -0.756 1202
3.896 7.105 -0.780 1202
3.895 7.102 -0.803 601
1.003 1.818 1.588 2973
1.005 1.822 1.582 5947
1.010 1.831 1.581 5462
1.019 1.846 1.584 4363
1.024 1.856 1.583 3688
1.029 1.865 1.581 4545
1.037 1.880 1.584 5577
1.049 1.901 1.591 4629
1.070 1.939 1.612 4288
1.072 1.943 1.606 4288
1.058 1.918 1.577 6412
1.060 1.921 1.571 8689
1.062 1.925 1.565 8807
1.067 1.934 1.563 9015
1.069 1.938 1.556 7554
1.068 1.936 1.546 6129
1.070 1.939 1.540 5841
1.069 1.937 1.529 5567
1.119 2.028 1.587 4505
1.124 2.038 1.584 5029
1.130 2.047 1.582 5745
1.128 2.045 1.571 4999
1.108 2.008 1.535 4571
1.123 2.035 1.545 7968
1.125 2.038 1.539 11460
1.130 2.048 1.536 14126
1.132 2.051 1.529 17297
1.137 2.061 1.527 15750
1.142 2.070 1.524 12760
1.147 2.080 1.521 10205
1.156 2.095 1.523 9624
1.168 2.117 1.528 11971
1.180 2.138 1.533 10645
1.185 2.148 1.530 9587
1.194 2.163 1.531 7752
1.205 2.185 1.536 7166
1.211 2.195 1.532 7497
1.216 2.204 1.529 7972
1.218 2.208 1.522 7316
1.227 2.223 1.523 6776
1.229 2.227 1.515 6059
1.230 2.230 1.508 5277
1.242 2.252 1.512 5607
1.241 2.249 1.501 7800
1.243 2.253 1.494 10148
1.245 2.256 1.486 10031
1.243 2.254 1.475 8795
1.249 2.263 1.472 7573
1.257 2.279 1.471 10737
1.263 2.288 1.468 19436
1.268 2.298 1.464 24535
1.266 2.295 1.453 25929
1.268 2.299 1.445 25972
1.270 2.302 1.438 24274
1.272 2.305 1.430 24587
1.277 2.315 1.426 20235
1.282 2.324 1.422 15964
1.284 2.328 1.415 12589
1.289 2.337 1.410 11090
1.295 2.346 1.406 13337
1.296 2.350 1.399 11704
1.378 2.497 1.469 10212
1.379 2.500 1.461 13620
1.385 2.510 1.456 12533
1.394 2.526 1.455 10682
1.395 2.529 1.446 11121
1.394 2.526 1.435 12048
1.396 2.530 1.426 11890
1.394 2.526 1.415 9305
1.392 2.523 1.403 5881
1.460 2.647 1.456 4079
1.466 2.657 1.451 5190
1.475 2.673 1.448 6172
1.483 2.689 1.446 6707
1.489 2.699 1.440 7539
1.529 2.772 1.466 7170
1.535 2.782 1.460 9041
1.529 2.772 1.444 9662
1.524 2.763 1.429 11139
1.526 2.766 1.420 11617
1.535 2.782 1.417 11881
1.540 2.792 1.411 9814
1.542 2.795 1.402 5752
1.579 2.863 1.422 6557
1.581 2.866 1.413 6120
1.608 2.914 1.423 4443
1.535 2.782 1.354 3704
1.537 2.785 1.344 5042
1.538 2.788 1.335 5875
1.540 2.791 1.326 5890
1.620 2.937 1.378 4694
1.629 2.953 1.374 5508
1.638 2.969 1.370 6193
1.715 3.109 1.417 7477
1.721 3.119 1.410 10375
1.722 3.122 1.400 10863
1.724 3.125 1.389 10776
1.726 3.129 1.379 10686
1.731 3.138 1.371 12799
1.737 3.148 1.364 14906
1.738 3.151 1.353 12466
1.769 3.207 1.363 10696
1.771 3.210 1.353 17077
1.773 3.213 1.342 14238
1.767 3.203 1.327 8225
1.769 3.206 1.316 4811
1.810 3.281 1.332 4667
1.816 3.291 1.324 5339
1.832 3.320 1.323 5694
1.837 3.330 1.314 5447
1.842 3.340 1.306 6224
1.844 3.343 1.295 6944
1.849 3.352 1.286 5663
1.862 3.375 1.282 5977
1.915 3.471 1.302 8084
1.920 3.481 1.293 12652
1.929 3.497 1.286 9853
1.957 3.546 1.290 6424
1.962 3.556 1.281 6617
1.960 3.552 1.267 10322
1.961 3.555 1.255 12457
1.963 3.558 1.243 7894
1.998 3.621 1.250 5680
2.025 3.671 1.253 5954
2.034 3.687 1.245 6256
2.095 3.797 1.265 5295
2.093 3.793 1.250 5292
2.098 3.803 1.240 9485
2.103 3.812 1.229 8346
2.090 3.788 1.209 5994
2.102 3.811 1.202 5893
2.201 3.989 1.239 5755
2.206 3.998 1.227 5830
2.211 4.008 1.216 3625
2.198 3.983 1.195 3270
2.195 3.979 1.181 3650
2.197 3.982 1.167 2996
2.198 3.985 1.154 2942
2.200 3.987 1.141 3194
2.194 3.976 1.125 2162
2.378 4.311 1.194 1639
2.503 4.537 1.234 1671
2.505 4.540 1.219 2670
2.506 4.543 1.204 2747
2.511 4.552 1.191 3389
2.520 4.568 1.179 3884
2.537 4.598 1.170 4367
2.534 4.594 1.153 4397
2.540 4.603 1.140 4984
2.545 4.613 1.126 4284
2.625 4.758 1.141 3394
2.679 4.856 1.145 3844
2.681 4.859 1.129 5105
2.712 4.916 1.124 5008
2.713 4.918 1.108 4973
2.715 4.921 1.092 4755
2.712 4.916 1.074 4463
2.714 4.919 1.058 4461
2.753 4.990 1.054 5140
2.750 4.985 1.037 5348
2.793 5.063 1.034 4377
2.798 5.072 1.018 3364
2.811 5.095 1.005 2146
2.876 5.213 1.008 2688
2.877 5.216 0.990 3611
2.879 5.218 0.973 3806
2.880 5.220 0.956 3323
2.964 5.373 0.962 3900
2.973 5.389 0.946 4017
2.986 5.412 0.932 3686
3.100 5.620 0.944 3137
3.102 5.622 0.925 2682
3.106 5.631 0.907 2486
3.127 5.667 0.893 3277
3.128 5.669 0.875 3607
3.125 5.664 0.855 2910
3.350 6.072 0.887 2471
3.351 6.074 0.867 1812
3.421 6.200 0.861 2009
3.422 6.202 0.841 1934
3.464 6.280 0.828 1591
3.580 6.488 0.830 2151
3.581 6.490 0.808 2488
3.578 6.485 0.786 2240
3.769 6.832 0.798 1533
3.831 6.944 0.786 1926
3.832 6.946 0.763 1924
3.833 6.947 0.740 1853
3.830 6.942 0.716 1584
4.143 7.510 0.739 2598
4.140 7.505 0.714 3155
4.137 7.499 0.688 3170
4.134 7.494 0.663 2411
4.120 7.468 0.636 1267
4.453 8.071 0.650 1019
4.450 8.065 0.623 1145
4.450 8.066 0.596 1007
4.416 8.005 0.566 821
4.409 7.992 0.539 802
4.605 8.347 0.529 570
4.605 8.348 0.501 392
4.579 8.300 0.471 292
4.489 8.136 -0.318 388
4.488 8.135 -0.345 604
4.567 8.279 -0.381 714
4.567 8.277 -0.408 1063
4.562 8.269 -0.435 1132
4.489 8.136 -0.453 1356
4.488 8.135 -0.480 2042
4.483 8.126 -0.507 2760
4.486 8.131 -0.534 2633
4.485 8.129 -0.561 2537
4.484 8.128 -0.588 2537
4.479 8.119 -0.614 2386
4.470 8.103 -0.640 2401
4.477 8.115 -0.668 2206
4.483 8.127 -0.696 2204
4.033 7.310 -0.636 2347
4.032 7.308 -0.661 2894
4.031 7.306 -0.685 2894
4.029 7.304 -0.709 2410
4.028 7.302 -0.733 1926
3.917 7.099 -0.733 1315
3.915 7.097 -0.756 1396
3.914 7.095 -0.780 1396
3.913 7.092 -0.803 698
1.009 1.822 1.593 2667
1.012 1.826 1.587 5335
1.017 1.835 1.585 4982
1.022 1.844 1.584 3926
1.030 1.859 1.587 3399
1.045 1.886 1.599 4528
1.044 1.884 1.588 5826
1.052 1.899 1.591 5138
1.057 1.908 1.590 4687
1.059 1.912 1.583 4687
1.061 1.916 1.577 7089
1.063 1.919 1.571 9490
1.065 1.923 1.565 9431
1.067 1.927 1.558 9371
1.069 1.930 1.552 7634
1.068 1.928 1.542 5923
1.070 1.932 1.535 5603
1.072 1.935 1.529 5284
1.126 2.032 1.591 4170
1.131 2.042 1.589 4499
1.133 2.045 1.582 5046
1.132 2.043 1.571 4315
1.111 2.006 1.535 4083
1.126 2.033 1.545 7528
1.128 2.036 1.539 11267
1.133 2.046 1.536 14387
1.135 2.049 1.529 18095
1.141 2.059 1.527 16890
1.146 2.068 1.524 14007
1.151 2.078 1.521 10506
1.166 2.105 1.531 9285
1.175 2.121 1.532 12058
1.184 2.136 1.533 11293
1.192 2.152 1.534 10116
1.197 2.161 1.531 7848
1.206 2.177 1.532 6582
1.215 2.192 1.532 6393
1.220 2.202 1.529 6559
1.225 2.211 1.526 6186
1.231 2.221 1.523 6372
1.229 2.219 1.511 6590
1.231 2.222 1.504 5915
1.243 2.244 1.508 5489
1.245 2.247 1.501 7490
1.247 2.251 1.494 9492
1.249 2.254 1.486 9414
1.251 2.258 1.479 8221
1.253 2.261 1.472 7106
1.261 2.277 1.471 9737
1.267 2.286 1.468 17875
1.272 2.296 1.464 23027
1.270 2.293 1.453 25618
1.272 2.296 1.445 26568
1.274 2.300 1.438 24880
1.276 2.303 1.430 25098
1.281 2.312 1.426 20447
1.286 2.322 1.422 15952
1.288 2.325 1.415 11877
1.290 2.328 1.407 9505
1.295 2.338 1.403 11567
1.301 2.347 1.399 9978
1.386 2.501 1.473 11581
1.387 2.504 1.464 15625
1.389 2.507 1.456 14543
1.398 2.523 1.455 12811
1.400 2.527 1.446 12846
1.398 2.524 1.435 13495
1.400 2.527 1.426 12966
1.402 2.530 1.418 9533
1.397 2.521 1.403 5653
1.427 2.575 1.421 3925
1.471 2.654 1.451 4366
1.476 2.664 1.445 5404
1.485 2.680 1.443 6794
1.494 2.696 1.440 7637
1.531 2.763 1.462 6676
1.536 2.773 1.456 8622
1.531 2.763 1.441 9463
1.533 2.766 1.432 10819
1.535 2.770 1.423 11448
1.540 2.779 1.417 12074
1.542 2.783 1.408 10380
1.551 2.799 1.405 5743
1.585 2.860 1.422 5554
1.590 2.870 1.415 5168
1.610 2.905 1.420 4154
1.583 2.857 1.388 4042
1.588 2.866 1.381 3442
1.619 2.921 1.395 4390
1.620 2.924 1.385 4701
1.629 2.941 1.381 4660
1.638 2.957 1.377 6192
1.644 2.966 1.370 7445
1.660 2.995 1.371 7687
1.726 3.116 1.410 9930
1.732 3.126 1.402 10757
1.734 3.129 1.392 10243
1.732 3.125 1.379 9751
1.737 3.135 1.371 11949
1.742 3.145 1.364 14094
1.744 3.148 1.353 11673
1.775 3.203 1.363 9922
1.777 3.207 1.353 15593
1.778 3.210 1.342 13005
1.776 3.206 1.329 7461
1.778 3.209 1.319 4593
1.813 3.271 1.330 5861
1.818 3.281 1.322 5744
1.838 3.317 1.323 6055
1.843 3.327 1.314 5739
1.849 3.336 1.306 6765
1.850 3.339 1.295 7417
1.855 3.349 1.286 5932
1.868 3.372 1.282 5921
1.925 3.474 1.305 7613
1.927 3.477 1.293 11293
1.943 3.507 1.291 8658
1.963 3.543 1.290 8528
1.965 3.546 1.278 9988
1.966 3.549 1.267 12750
1.968 3.551 1.255 14261
1.969 3.554 1.243 9732
2.000 3.611 1.248 6734
2.035 3.674 1.255 4907
2.041 3.683 1.245 5634
2.098 3.786 1.263 4723
2.099 3.789 1.250 4653
2.105 3.799 1.240 9296
2.110 3.808 1.229 8467
2.097 3.784 1.209 6299
2.106 3.800 1.200 6427
2.215 3.998 1.242 5609
2.217 4.001 1.229 6211
2.218 4.004 1.216 3837
2.201 3.973 1.194 3827
2.203 3.975 1.181 4179
2.200 3.971 1.166 3099
2.206 3.981 1.154 3165
2.203 3.976 1.139 3696
2.197 3.965 1.123 2576
2.180 3.934 1.102 1397
2.511 4.532 1.234 1664
2.513 4.535 1.219 2693
2.203 3.975 1.071 2934
2.520 4.547 1.191 3457
2.529 4.564 1.179 3919
2.545 4.594 1.170 3794
2.547 4.596 1.155 3946
2.548 4.599 1.140 4986
2.557 4.615 1.127 4176
2.611 4.713 1.132 3602
2.684 4.845 1.144 3969
2.689 4.854 1.129 4909
2.721 4.911 1.124 5471
2.722 4.914 1.108 5303
2.724 4.916 1.092 4816
2.725 4.918 1.076 4454
2.738 4.941 1.063 4621
2.762 4.985 1.054 5528
2.763 4.987 1.038 5723
2.798 5.051 1.032 4501
2.807 5.067 1.018 3413
2.824 5.096 1.006 2332
2.886 5.208 1.008 2455
2.887 5.210 0.990 3214
2.888 5.213 0.973 3310
2.889 5.215 0.956 2904
2.978 5.375 0.963 3943
2.987 5.390 0.947 4157
2.995 5.406 0.932 3724
3.111 5.614 0.944 2527
3.112 5.616 0.925 2178
3.254 5.873 0.941 2344
3.133 5.655 0.892 3123
3.138 5.663 0.875 3495
3.318 5.989 0.897 3058
3.319 5.991 0.877 2536
3.366 6.075 0.867 1842
3.436 6.201 0.862 1948
3.437 6.203 0.841 1920
3.468 6.260 0.827 1783
3.591 6.482 0.830 2110
3.592 6.484 0.808 2408
3.589 6.478 0.786 2213
3.782 6.825 0.798 1987
3.779 6.820 0.775 1936
3.845 6.939 0.763 1897
3.845 6.940 0.740 1823
4.145 7.481 0.762 1635
4.161 7.510 0.740 2662
4.158 7.504 0.714 3200
4.155 7.499 0.689 3257
4.152 7.493 0.663 2511
4.141 7.474 0.637 1388
4.621 8.339 0.667 981
4.468 8.064 0.623 1115
4.465 8.058 0.596 958
4.431 7.997 0.566 946
4.424 7.984 0.539 869
4.620 8.338 0.529 588
4.601 8.305 0.500 400
4.586 8.278 0.471 332
4.588 8.281 -0.299 255
4.507 8.135 -0.318 446
4.503 8.127 -0.345 688
4.498 8.118 -0.371 787
4.582 8.269 -0.408 1147
4.577 8.261 -0.435 1211
4.503 8.128 -0.453 1558
4.503 8.126 -0.480 2336
4.498 8.118 -0.507 3138
4.501 8.123 -0.534 2985
4.500 8.121 -0.561 2857
4.499 8.119 -0.588 2857
4.498 8.118 -0.615 2575
4.485 8.095 -0.640 2478
4.495 8.114 -0.669 2325
4.498 8.118 -0.696 2376
4.042 7.296 -0.636 2475
4.041 7.294 -0.660 2914
4.040 7.292 -0.684 2914
4.043 7.296 -0.709 2269
4.045 7.301 -0.734 1653
3.930 7.092 -0.733 1326
3.928 7.090 -0.756 1379
3.927 7.088 -0.780 1379
3.926 7.085 -0.803 689
1.015 1.819 1.593 2357
1.017 1.822 1.587 4714
1.022 1.832 1.585 4497
1.031 1.847 1.589 3515
1.052 1.884 1.610 3460
1.051 1.882 1.599 4707
1.053 1.886 1.593 6013
1.058 1.896 1.591 5680
1.060 1.899 1.585 5476
1.062 1.903 1.579 5476
1.064 1.907 1.573 8100
1.066 1.910 1.567 10725
1.068 1.914 1.560 10261
1.074 1.923 1.558 9833
1.072 1.921 1.548 7742
1.074 1.925 1.542 5687
1.076 1.928 1.535 5298
1.078 1.932 1.529 4908
1.132 2.028 1.591 3933
1.138 2.038 1.589 4029
1.140 2.042 1.582 4298
1.142 2.045 1.575 3679
1.114 1.996 1.531 3643
1.133 2.029 1.545 7135
1.131 2.027 1.534 11178
1.140 2.042 1.536 14646
1.142 2.046 1.529 18775
1.147 2.055 1.527 17859
1.153 2.065 1.524 15040
1.158 2.074 1.521 10841
1.186 2.125 1.547 10115
1.185 2.123 1.536 12560
1.194 2.138 1.537 11914
1.199 2.148 1.534 10552
1.204 2.157 1.531 7941
1.213 2.173 1.532 6230
1.218 2.182 1.529 5551
1.227 2.198 1.529 5255
1.236 2.214 1.530 5557
1.234 2.211 1.519 6483
1.233 2.209 1.508 7385
1.238 2.218 1.504 6772
1.244 2.228 1.501 5960
1.252 2.243 1.501 7184
1.258 2.253 1.497 8783
1.256 2.250 1.486 8671
1.258 2.254 1.479 7341
1.263 2.263 1.475 6207
1.269 2.273 1.471 8312
1.274 2.282 1.468 15946
1.276 2.286 1.460 21341
1.274 2.283 1.449 24735
1.276 2.286 1.442 26570
1.281 2.296 1.438 24794
1.283 2.299 1.430 24842
1.289 2.308 1.426 19924
1.294 2.318 1.422 15336
1.296 2.321 1.415 10710
1.384 2.480 1.494 7524
1.390 2.489 1.489 9132
1.392 2.493 1.481 8590
1.393 2.496 1.473 12678
1.395 2.500 1.464 17309
1.401 2.509 1.459 16494
1.406 2.519 1.455 14971
1.408 2.522 1.446 14264
1.406 2.519 1.435 14386
1.408 2.523 1.426 13429
1.410 2.526 1.418 9347
1.443 2.586 1.439 5571
1.442 2.583 1.427 4746
1.451 2.599 1.425 5333
1.456 2.608 1.420 5376
1.493 2.675 1.443 6988
1.499 2.685 1.437 7373
1.543 2.764 1.466 6235
1.541 2.761 1.453 8513
1.540 2.758 1.441 9446
1.542 2.762 1.432 10569
1.543 2.765 1.423 12252
1.545 2.768 1.414 14679
1.551 2.778 1.408 13620
1.556 2.787 1.402 7974
1.601 2.868 1.428 6650
1.606 2.877 1.421 4941
1.529 2.739 1.348 4076
1.534 2.749 1.342 5697
1.540 2.758 1.336 5434
1.664 2.981 1.423 5150
1.662 2.977 1.410 5691
1.642 2.942 1.384 4952
1.648 2.951 1.377 6457
1.653 2.961 1.370 8352
1.666 2.984 1.368 8275
1.740 3.117 1.412 9375
1.742 3.120 1.402 10429
1.743 3.123 1.392 9459
1.742 3.120 1.379 8470
1.747 3.130 1.371 10937
1.752 3.139 1.364 13163
1.754 3.142 1.353 10778
1.789 3.204 1.366 9176
1.787 3.201 1.353 13615
1.789 3.204 1.342 11395
1.798 3.220 1.337 6761
1.825 3.269 1.343 5003
1.823 3.266 1.330 7253
1.828 3.275 1.322 6393
1.848 3.311 1.323 6257
1.857 3.327 1.317 6058
1.859 3.330 1.306 7267
1.861 3.333 1.295 7484
1.866 3.343 1.286 5513
1.879 3.366 1.282 5774
1.936 3.468 1.305 6621
1.941 3.478 1.295 9466
1.969 3.527 1.299 8247
1.974 3.537 1.290 10095
1.976 3.539 1.278 12631
1.974 3.536 1.265 14345
1.979 3.545 1.255 15412
1.981 3.548 1.243 11351
2.012 3.604 1.248 8039
1.987 3.560 1.222 5219
2.052 3.677 1.245 5176
2.050 3.673 1.231 5358
2.052 3.675 1.219 4151
2.113 3.785 1.238 8412
2.122 3.802 1.229 8079
2.112 3.784 1.211 6023
2.118 3.794 1.200 6672
2.228 3.991 1.242 5538
2.229 3.994 1.229 6001
2.227 3.990 1.214 3898
2.210 3.959 1.192 4261
2.211 3.962 1.179 4470
2.209 3.958 1.164 3121
2.214 3.967 1.153 3381
2.216 3.969 1.139 4230
2.210 3.958 1.123 3139
2.200 3.941 1.105 1955
2.292 4.105 1.132 1860
2.214 3.966 1.084 3235
2.211 3.961 1.069 3751
2.534 4.539 1.191 3237
2.543 4.556 1.179 3590
2.563 4.592 1.171 3318
2.565 4.595 1.156 3691
2.566 4.597 1.141 4897
2.572 4.607 1.127 4029
2.622 4.698 1.131 3557
2.700 4.836 1.144 3846
2.701 4.839 1.128 4359
2.737 4.902 1.124 5581
2.738 4.905 1.108 5347
2.739 4.907 1.092 4651
2.752 4.930 1.079 4288
2.757 4.939 1.064 4635
2.778 4.976 1.054 5784
2.779 4.978 1.038 5998
2.811 5.035 1.031 4485
2.823 5.058 1.018 3300
2.840 5.087 1.006 2476
2.902 5.199 1.008 2137
2.903 5.201 0.990 2757
2.905 5.203 0.973 2692
2.997 5.370 0.982 2458
2.995 5.365 0.963 3774
3.000 5.374 0.946 4035
3.085 5.527 0.951 3561
3.082 5.522 0.932 2462
3.248 5.819 0.955 1952
3.272 5.862 0.941 2319
3.274 5.864 0.922 3051
3.271 5.859 0.902 3758
3.337 5.978 0.897 3431
3.342 5.987 0.878 2748
3.385 6.064 0.867 1905
3.459 6.197 0.863 1943
3.460 6.199 0.842 1965
3.477 6.228 0.825 1964
3.451 6.181 0.799 2026
3.613 6.472 0.808 2221
3.614 6.474 0.787 2107
3.803 6.813 0.798 2433
3.800 6.808 0.775 2448
3.801 6.809 0.752 1965
3.802 6.811 0.730 1803
4.168 7.467 0.762 1647
4.185 7.497 0.740 2569
4.182 7.491 0.714 3104
4.179 7.486 0.689 3220
4.176 7.480 0.663 2503
4.165 7.461 0.637 1520
4.281 7.669 0.626 1071
4.644 8.319 0.639 1027
4.456 7.982 0.592 898
4.456 7.983 0.566 1012
4.453 7.977 0.539 900
4.646 8.324 0.529 617
4.632 8.297 0.500 455
4.617 8.270 0.471 348
4.621 8.278 0.444 260
4.614 8.266 -0.299 264
4.529 8.113 -0.318 484
4.528 8.112 -0.345 740
4.524 8.104 -0.371 862
4.608 8.254 -0.408 1182
4.526 8.108 -0.426 1299
4.529 8.114 -0.453 1697
4.528 8.112 -0.480 2554
4.524 8.104 -0.507 3426
4.526 8.109 -0.534 3263
4.529 8.114 -0.562 3120
4.528 8.112 -0.589 3120
4.523 8.103 -0.615 2681
4.511 8.081 -0.640 2444
4.521 8.099 -0.669 2314
4.524 8.104 -0.696 2424
4.069 7.290 -0.636 2316
4.068 7.288 -0.661 2368
4.067 7.286 -0.685 2368
4.070 7.290 -0.710 1926
4.068 7.288 -0.734 1521
3.860 6.915 -0.712 1336
3.859 6.913 -0.735 1793
3.858 6.910 -0.758 1793
3.856 6.908 -0.781 896
1.022 1.822 1.597 2115
1.024 1.826 1.591 4230
1.026 1.830 1.585 4076
1.035 1.845 1.589 3250
1.053 1.877 1.605 3525
1.055 1.880 1.599 4823
1.057 1.884 1.593 6121
1.059 1.888 1.587 6284
1.064 1.897 1.585 6526
1.066 1.901 1.579 6526
1.068 1.904 1.573 9275
1.070 1.908 1.567 12024
1.072 1.912 1.560 11150
1.074 1.915 1.554 10275
1.076 1.919 1.548 7798
1.075 1.917 1.537 5364
1.080 1.926 1.535 4882
1.082 1.930 1.529 4443
1.133 2.020 1.587 3723
1.142 2.036 1.589 3549
1.144 2.039 1.582 3579
1.143 2.037 1.571 3202
1.118 1.994 1.531 3230
1.137 2.027 1.545 6870
1.136 2.024 1.534 11056
1.144 2.040 1.536 14789
1.146 2.043 1.529 19162
1.152 2.053 1.527 18475
1.157 2.062 1.524 15751
1.162 2.072 1.521 11127
1.191 2.123 1.547 11302
1.193 2.126 1.540 13244
1.198 2.136 1.537 12443
1.203 2.145 1.534 10772
1.212 2.161 1.535 8055
1.221 2.176 1.536 6194
1.226 2.186 1.532 5217
1.232 2.195 1.529 4422
1.237 2.205 1.526 5441
1.239 2.209 1.519 6983
1.237 2.206 1.508 8069
1.239 2.209 1.500 7443
1.245 2.219 1.497 6531
1.257 2.241 1.501 6944
1.262 2.250 1.497 8246
1.264 2.254 1.490 8037
1.266 2.257 1.483 6344
1.271 2.267 1.479 4943
1.273 2.270 1.471 6679
1.279 2.280 1.468 13898
1.281 2.283 1.460 19447
1.279 2.280 1.449 23530
1.281 2.283 1.442 25702
1.286 2.293 1.438 23893
1.288 2.296 1.430 23671
1.293 2.306 1.426 18558
1.299 2.315 1.422 14022
1.301 2.318 1.415 9270
1.389 2.477 1.494 8146
1.395 2.486 1.489 9976
1.393 2.484 1.477 9111
1.399 2.493 1.473 13408
1.401 2.497 1.464 18656
1.406 2.506 1.459 18425
1.411 2.516 1.455 16922
1.417 2.526 1.450 15323
1.412 2.516 1.435 14528
1.413 2.520 1.426 13118
1.415 2.523 1.418 8650
1.463 2.608 1.452 6559
1.451 2.586 1.431 6152
1.456 2.596 1.425 6801
1.461 2.605 1.420 6737
1.495 2.666 1.440 7180
1.504 2.682 1.437 7065
1.513 2.698 1.435 5529
1.547 2.758 1.453 7881
1.545 2.755 1.441 8714
1.547 2.758 1.432 10289
1.549 2.762 1.423 12499
1.551 2.765 1.414 14623
1.556 2.775 1.408 13204
1.594 2.842 1.428 8496
1.535 2.736 1.369 7313
1.537 2.739 1.360 6576
1.538 2.742 1.351 5292
1.544 2.752 1.345 4587
1.542 2.748 1.333 3807
1.670 2.977 1.423 5836
1.668 2.974 1.410 7017
1.656 2.951 1.389 6077
1.657 2.955 1.380 7663
1.659 2.958 1.370 9050
1.672 2.980 1.368 8749
1.750 3.120 1.415 8819
1.748 3.116 1.402 10246
1.750 3.120 1.392 8723
1.752 3.123 1.382 7181
1.757 3.132 1.374 9944
1.763 3.142 1.366 12087
1.761 3.139 1.353 9661
1.799 3.207 1.368 8404
1.797 3.204 1.355 11288
1.799 3.207 1.345 9732
1.812 3.230 1.342 7487
1.832 3.265 1.343 6134
1.830 3.262 1.330 8218
1.835 3.271 1.322 7095
1.855 3.307 1.323 6032
1.864 3.324 1.317 6197
1.866 3.327 1.306 7608
1.868 3.330 1.295 6795
1.877 3.346 1.288 4551
1.886 3.362 1.282 5471
1.943 3.464 1.305 5373
1.948 3.474 1.295 7508
1.976 3.523 1.299 8227
1.982 3.532 1.290 10823
1.983 3.535 1.278 13804
1.981 3.532 1.265 14863
1.983 3.534 1.253 15637
1.988 3.544 1.243 12226
2.019 3.600 1.248 8649
1.991 3.549 1.220 5588
2.064 3.679 1.247 5405
2.058 3.668 1.231 6073
2.059 3.671 1.219 4406
2.121 3.781 1.238 7357
2.123 3.784 1.225 7278
2.124 3.786 1.213 5364
2.126 3.789 1.200 6135
2.236 3.986 1.242 5944
2.234 3.982 1.227 6057
2.236 3.985 1.214 4777
2.218 3.954 1.192 4722
2.220 3.957 1.179 4415
2.217 3.953 1.164 3055
2.219 3.956 1.151 3629
2.220 3.958 1.138 4825
2.214 3.947 1.121 3884
2.208 3.936 1.105 2733
2.209 3.939 1.092 2585
2.218 3.954 1.082 4218
2.220 3.957 1.069 4626
2.221 3.959 1.056 2886
2.556 4.557 1.180 3123
2.581 4.600 1.175 3352
2.578 4.596 1.158 3952
2.580 4.599 1.143 4974
2.585 4.608 1.129 4145
2.632 4.692 1.131 3277
2.710 4.830 1.144 3529
2.742 4.887 1.139 3901
2.747 4.897 1.124 5380
2.748 4.899 1.108 5115
2.750 4.902 1.092 4267
2.762 4.924 1.079 4048
2.771 4.940 1.066 4462
2.788 4.970 1.054 5851
2.789 4.972 1.038 6000
2.813 5.016 1.029 4596
2.830 5.045 1.017 3152
2.850 5.081 1.006 2631
2.852 5.084 0.989 2039
2.914 5.195 0.990 2401
2.919 5.204 0.974 2116
3.005 5.357 0.981 2210
3.002 5.352 0.962 3234
3.096 5.518 0.969 4235
3.097 5.520 0.951 4003
3.094 5.516 0.932 2644
3.222 5.744 0.945 2341
3.288 5.862 0.942 2401
3.286 5.857 0.922 3221
3.283 5.853 0.902 3984
3.353 5.978 0.898 3650
3.358 5.987 0.879 2969
3.402 6.064 0.868 1850
3.383 6.032 0.844 1942
3.477 6.198 0.843 2004
3.486 6.214 0.824 2122
3.483 6.209 0.802 2224
3.626 6.465 0.808 1988
3.624 6.460 0.786 1955
3.817 6.805 0.798 2820
3.814 6.800 0.775 2830
3.815 6.801 0.752 2452
3.816 6.803 0.730 2447
3.813 6.798 0.707 2078
4.200 7.488 0.740 2420
4.197 7.482 0.714 2921
4.194 7.477 0.689 3090
4.191 7.471 0.663 2464
4.180 7.452 0.637 1664
4.297 7.660 0.626 1093
4.661 8.309 0.639 1112
4.476 7.980 0.593 935
4.473 7.974 0.566 1049
4.470 7.968 0.539 912
4.664 8.314 0.529 610
4.645 8.280 0.500 380
4.626 8.247 0.471 358
4.627 8.248 0.443 270
4.632 8.257 -0.299 257
4.546 8.104 -0.318 511
4.545 8.103 -0.345 774
4.541 8.095 -0.371 906
4.625 8.245 -0.408 1203
4.543 8.099 -0.426 1360
4.546 8.104 -0.453 1785
4.545 8.103 -0.480 2693
4.540 8.094 -0.507 3605
4.543 8.099 -0.534 3448
4.546 8.104 -0.562 3314
4.545 8.103 -0.589 3314
4.540 8.094 -0.615 2702
4.528 8.071 -0.640 2363
4.090 7.292 -0.589 2577
4.089 7.290 -0.613 2833
4.088 7.288 -0.637 2689
4.087 7.286 -0.661 2546
4.086 7.284 -0.686 2546
4.085 7.282 -0.710 2199
4.084 7.280 -0.734 1851
4.082 7.278 -0.758 1367
3.962 7.062 -0.755 1263
3.960 7.060 -0.779 1263
3.959 7.058 -0.802 631
1.023 1.814 1.593 1875
1.025 1.818 1.587 3750
1.030 1.827 1.585 3595
1.042 1.848 1.593 2994
1.057 1.874 1.605 3568
1.059 1.878 1.599 4825
1.061 1.882 1.593 6082
1.063 1.885 1.587 6776
1.068 1.895 1.585 7489
1.071 1.898 1.579 7489
1.073 1.902 1.573 10314
1.075 1.906 1.567 13139
1.077 1.909 1.560 11893
1.079 1.913 1.554 10648
1.081 1.916 1.548 7823
1.079 1.914 1.537 5023
1.081 1.918 1.531 4500
1.083 1.921 1.525 3977
1.138 2.018 1.587 3533
1.140 2.021 1.580 3243
1.145 2.031 1.578 3006
1.144 2.029 1.567 2984
1.123 1.991 1.531 3012
1.142 2.024 1.545 6702
1.140 2.022 1.534 10779
1.149 2.037 1.536 14660
1.151 2.041 1.529 19109
1.156 2.050 1.527 18628
1.161 2.060 1.524 16079
1.163 2.063 1.517 11317
1.196 2.120 1.547 12331
1.198 2.124 1.540 13835
1.203 2.133 1.537 12751
1.208 2.143 1.534 10765
1.217 2.158 1.535 8140
1.229 2.180 1.540 6443
1.231 2.183 1.532 5434
1.199 2.127 1.486 4439
1.242 2.202 1.526 5661
1.240 2.200 1.515 7515
1.242 2.203 1.508 8420
1.244 2.207 1.500 7804
1.250 2.216 1.497 6955
1.265 2.244 1.505 6760
1.271 2.253 1.501 7933
1.273 2.257 1.494 7524
1.275 2.260 1.486 5399
1.280 2.270 1.483 3716
1.279 2.267 1.471 5232
1.280 2.270 1.464 12246
1.282 2.274 1.457 17713
1.284 2.277 1.449 21874
1.286 2.281 1.442 24100
1.291 2.290 1.438 22264
1.293 2.293 1.430 21773
1.295 2.297 1.423 16685
1.300 2.306 1.419 12427
1.306 2.315 1.415 8219
1.395 2.474 1.494 8744
1.397 2.477 1.485 10802
1.399 2.481 1.477 9599
1.404 2.490 1.473 13861
1.410 2.500 1.468 19689
1.412 2.503 1.459 20076
1.417 2.513 1.455 18473
1.426 2.529 1.453 16084
1.421 2.519 1.438 14034
1.419 2.516 1.426 12132
1.421 2.520 1.418 7589
1.469 2.605 1.452 7709
1.460 2.589 1.434 7597
1.462 2.592 1.425 8114
1.467 2.602 1.420 7904
1.480 2.624 1.421 7858
1.510 2.678 1.437 6742
1.552 2.751 1.462 4970
1.550 2.748 1.450 7209
1.552 2.752 1.441 7891
1.554 2.755 1.432 9446
1.555 2.758 1.423 12328
1.561 2.768 1.417 14186
1.563 2.771 1.408 13468
1.597 2.832 1.425 9588
1.606 2.848 1.422 6002
1.550 2.749 1.366 6583
1.545 2.739 1.351 7007
1.543 2.735 1.339 6781
1.548 2.745 1.333 5846
1.673 2.967 1.420 6848
1.675 2.970 1.410 8543
1.673 2.967 1.398 7032
1.668 2.957 1.382 7746
1.673 2.967 1.375 9001
1.682 2.983 1.371 8422
1.757 3.116 1.415 8468
1.759 3.119 1.405 10129
1.757 3.116 1.392 8368
1.759 3.119 1.382 6678
1.768 3.135 1.377 9422
1.773 3.145 1.369 11193
1.771 3.141 1.356 8281
1.806 3.203 1.368 7711
1.804 3.200 1.355 9097
1.821 3.229 1.355 8991
1.823 3.232 1.344 7942
1.839 3.261 1.343 6679
1.837 3.258 1.330 8534
1.843 3.267 1.322 7630
1.863 3.303 1.323 5786
1.868 3.313 1.314 6172
1.874 3.322 1.306 7582
1.879 3.332 1.297 5999
1.892 3.355 1.293 3880
1.897 3.364 1.284 5114
1.944 3.446 1.300 4961
1.971 3.496 1.304 6263
1.984 3.518 1.299 7766
1.990 3.528 1.290 10616
1.991 3.531 1.278 13430
1.989 3.527 1.265 14313
1.991 3.530 1.253 15024
1.996 3.539 1.243 12088
2.031 3.602 1.250 8851
1.999 3.545 1.220 5355
2.072 3.674 1.247 5735
2.066 3.664 1.231 6647
2.068 3.667 1.219 4547
2.126 3.769 1.236 6021
2.127 3.772 1.223 6122
2.174 3.855 1.234 5739
2.176 3.858 1.221 5252
2.249 3.988 1.244 5125
2.243 3.977 1.227 5585
2.241 3.973 1.212 4660
2.223 3.943 1.190 4812
2.225 3.945 1.177 4116
2.223 3.941 1.162 2900
2.224 3.944 1.149 3900
2.225 3.946 1.136 5426
2.223 3.942 1.121 4627
2.217 3.931 1.105 3588
2.218 3.934 1.092 3654
2.227 3.949 1.082 5299
2.229 3.952 1.069 5522
2.226 3.947 1.054 3645
2.578 4.572 1.185 2705
2.591 4.595 1.175 3586
2.593 4.597 1.159 4395
2.590 4.593 1.143 5000
2.599 4.609 1.130 4181
2.604 4.618 1.116 3015
2.717 4.818 1.142 2995
2.753 4.881 1.139 3461
2.758 4.890 1.124 4923
2.759 4.893 1.108 4637
2.761 4.895 1.092 3778
2.777 4.925 1.081 3884
2.794 4.955 1.070 4543
2.799 4.964 1.054 5850
2.804 4.973 1.039 5870
2.821 5.002 1.028 4721
2.838 5.032 1.016 3086
2.858 5.068 1.005 2743
2.863 5.077 0.989 2061
2.930 5.195 0.992 2203
2.962 5.252 0.983 2132
2.971 5.268 0.968 2630
2.976 5.277 0.952 3090
3.108 5.511 0.969 4375
3.109 5.513 0.951 4199
3.234 5.734 0.964 2771
3.235 5.736 0.945 2682
3.232 5.732 0.925 2624
3.299 5.850 0.922 3129
3.296 5.845 0.902 3858
3.367 5.970 0.898 3685
3.372 5.979 0.879 3126
3.392 6.015 0.863 2134
3.397 6.024 0.844 2218
3.495 6.197 0.844 2006
3.496 6.199 0.823 2265
3.497 6.201 0.802 2445
3.498 6.202 0.782 1785
3.832 6.795 0.821 2070
3.833 6.796 0.798 3075
3.834 6.798 0.776 3065
3.831 6.793 0.752 2731
3.832 6.794 0.730 2859
3.829 6.789 0.707 2400
4.217 7.478 0.740 2211
4.214 7.473 0.714 2648
4.211 7.467 0.689 2842
4.208 7.462 0.663 2345
4.197 7.443 0.637 1748
4.314 7.650 0.626 1042
4.684 8.306 0.640 1022
4.494 7.969 0.593 908
4.491 7.964 0.566 1018
4.492 7.965 0.539 879
4.683 8.303 0.529 721
4.671 8.284 0.500 441
4.645 8.236 0.471 341
4.645 8.237 0.443 266
4.564 8.094 -0.318 500
4.564 8.092 -0.345 760
4.559 8.084 -0.371 903
4.644 8.234 -0.408 1173
4.561 8.088 -0.426 1390
4.564 8.094 -0.453 1850
4.564 8.092 -0.480 2778
4.563 8.091 -0.507 3706
4.562 8.089 -0.534 3560
4.565 8.094 -0.562 3452
4.564 8.092 -0.589 3452
4.559 8.084 -0.615 2706
4.108 7.285 -0.564 2895
4.107 7.283 -0.589 3395
4.106 7.281 -0.613 3895
4.105 7.279 -0.637 3667
4.104 7.277 -0.661 3438
4.103 7.275 -0.686 3438
4.097 7.266 -0.709 2797
4.096 7.264 -0.733 2223
3.894 6.905 -0.713 1519
3.889 6.896 -0.735 1962
3.888 6.894 -0.758 1962
3.886 6.891 -0.781 981
1.024 1.807 1.588 1726
1.026 1.810 1.582 3452
1.025 1.808 1.572 3327
1.049 1.851 1.598 2814
1.058 1.866 1.601 3657
1.060 1.870 1.595 4866
1.062 1.874 1.588 6075
1.067 1.883 1.587 7205
1.072 1.892 1.585 8415
1.074 1.896 1.579 8415
1.077 1.900 1.573 11278
1.079 1.903 1.567 14140
1.081 1.907 1.560 12566
1.083 1.911 1.554 10992
1.085 1.914 1.548 7872
1.087 1.918 1.542 4753
1.089 1.921 1.535 4141
1.087 1.919 1.525 3587
1.132 1.998 1.574 3395
1.131 1.996 1.563 3799
1.126 1.988 1.548 3717
1.128 1.991 1.542 3552
1.130 1.995 1.535 3299
1.146 2.022 1.545 6680
1.148 2.025 1.539 10361
1.153 2.035 1.536 14302
1.155 2.038 1.529 18720
1.160 2.048 1.527 18454
1.162 2.051 1.520 16266
1.168 2.061 1.517 11564
1.200 2.118 1.547 13080
1.202 2.121 1.540 14144
1.207 2.131 1.537 12770
1.216 2.146 1.538 10597
1.225 2.162 1.539 8158
1.237 2.183 1.544 6938
1.236 2.181 1.532 6104
1.238 2.184 1.525 5421
1.243 2.194 1.522 6349
1.245 2.197 1.515 7918
1.247 2.201 1.508 8405
1.249 2.204 1.500 7777
1.254 2.214 1.497 7164
1.270 2.241 1.505 6595
1.279 2.257 1.505 7662
1.277 2.254 1.494 7127
1.279 2.258 1.486 4759
1.285 2.267 1.483 3032
1.283 2.264 1.471 4402
1.282 2.262 1.460 10948
1.284 2.265 1.453 15903
1.285 2.268 1.446 20022
1.291 2.278 1.442 21875
1.296 2.287 1.438 20058
1.298 2.291 1.430 19375
1.300 2.294 1.423 14660
1.305 2.303 1.419 10745
1.307 2.307 1.411 7329
1.397 2.465 1.490 9543
1.402 2.474 1.485 11878
1.404 2.478 1.477 10264
1.409 2.487 1.473 14168
1.415 2.497 1.468 20238
1.417 2.500 1.459 21322
1.426 2.516 1.458 19599
1.431 2.526 1.453 16562
1.430 2.523 1.441 13450
1.428 2.520 1.430 10644
1.472 2.598 1.461 7277
1.474 2.602 1.452 8900
1.466 2.586 1.434 8850
1.467 2.589 1.425 9093
1.473 2.599 1.420 8769
1.485 2.621 1.421 8664
1.505 2.656 1.428 6621
1.554 2.742 1.459 4468
1.556 2.745 1.450 6334
1.557 2.748 1.441 6745
1.559 2.752 1.432 8277
1.561 2.755 1.423 11207
1.563 2.758 1.414 13763
1.568 2.768 1.408 13874
1.570 2.771 1.399 10944
1.565 2.761 1.384 7140
1.378 2.431 1.223 5202
1.641 2.896 1.423 3898
1.647 2.906 1.417 4200
1.648 2.909 1.407 4599
1.679 2.963 1.420 7652
1.681 2.967 1.410 9237
