2.488 2.935 1.304 4345
2.490 2.938 1.293 6366
2.497 2.946 1.284 6767
2.499 2.949 1.273 4024
2.644 3.119 1.327 4776
2.631 3.105 1.308 4488
2.638 3.113 1.299 4150
2.665 3.145 1.298 6006
2.687 3.170 1.295 5378
2.704 3.190 1.289 4551
2.741 3.234 1.292 4132
2.753 3.248 1.284 6740
2.765 3.262 1.275 6688
2.772 3.271 1.265 6151
2.754 3.250 1.245 6633
2.845 3.357 1.268 6643
2.843 3.354 1.254 7463
2.840 3.351 1.239 6519
2.847 3.359 1.228 4868
2.854 3.367 1.217 4290
2.851 3.364 1.203 4157
2.718 3.208 1.140 3776
3.004 3.545 1.232 4695
3.006 3.547 1.219 5869
3.018 3.561 1.209 5515
3.080 3.634 1.217 5240
3.087 3.643 1.205 4073
3.109 3.668 1.198 6075
3.111 3.671 1.184 7888
3.118 3.679 1.172 6516
3.125 3.687 1.160 5714
3.127 3.689 1.146 5307
3.189 3.763 1.151 3604
3.246 3.830 1.154 2480
3.238 3.820 1.137 2307
3.265 3.852 1.130 1714
3.272 3.860 1.117 3745
3.349 3.951 1.125 6400
3.351 3.954 1.110 6110
3.358 3.962 1.096 4415
3.359 3.964 1.081 3137
3.371 3.978 1.069 1537
3.313 3.908 1.037 1537
3.314 3.910 1.022 1497
3.467 4.091 1.048 1023
3.444 4.063 1.026 1620
3.435 4.053 1.008 2484
3.447 4.067 0.995 2792
3.459 4.081 0.982 3214
3.465 4.089 0.968 2662
3.472 4.097 0.953 2223
3.468 4.092 0.937 1921
3.809 4.494 0.998 2407
3.846 4.538 0.989 2718
3.848 4.540 0.972 3237
3.854 4.548 0.956 3003
4.039 4.765 0.977 4851
4.035 4.761 0.958 4590
4.082 4.817 0.949 3076
4.089 4.824 0.932 2820
4.090 4.826 0.913 2420
4.351 5.134 0.943 2139
4.195 4.950 0.895 3014
4.201 4.957 0.877 3768
4.213 4.971 0.860 3586
4.458 5.261 0.882 2807
4.490 5.298 0.867 2995
4.512 5.324 0.851 2697
4.524 5.338 0.832 2045
4.632 5.465 0.828 2265
4.628 5.461 0.806 2656
4.900 5.781 0.823 2548
4.625 5.458 0.764 2060
4.958 5.850 0.787 1991
5.066 5.978 0.778 2410
5.256 6.202 0.779 3687
5.263 6.210 0.756 4082
5.565 6.566 0.766 3951
5.571 6.574 0.742 5072
5.572 6.575 0.717 4680
5.573 6.576 0.692 4179
5.580 6.583 0.667 3535
5.688 6.711 0.652 3185
5.689 6.712 0.626 2972
5.710 6.738 0.603 2119
5.691 6.714 0.575 1781
6.065 7.156 0.577 1283
6.071 7.163 0.550 1238
6.184 7.296 0.530 1280
6.184 7.297 0.502 1241
6.139 7.244 0.472 1231
6.155 7.262 0.445 932
6.166 7.275 0.418 545
6.182 7.294 0.391 451
6.187 7.300 0.363 316
5.939 7.008 -0.500 280
5.938 7.006 -0.527 253
5.938 7.006 -0.634 275
5.936 7.004 -0.661 288
5.934 7.002 -0.687 301
1.354 1.583 1.593 4312
1.356 1.586 1.587 8624
1.355 1.585 1.576 8706
1.358 1.588 1.570 9589
1.360 1.591 1.564 10370
1.367 1.599 1.563 9654
1.370 1.602 1.557 8960
1.373 1.605 1.551 7369
1.371 1.604 1.540 5963
1.374 1.607 1.534 5963
1.385 1.620 1.537 4791
1.417 1.658 1.562 5182
1.429 1.671 1.565 7111
1.436 1.679 1.563 9663
1.443 1.687 1.561 9309
1.445 1.691 1.554 8993
1.457 1.704 1.557 6716
1.477 1.727 1.568 6087
1.484 1.735 1.565 7196
1.491 1.744 1.563 8564
1.493 1.747 1.557 8663
1.487 1.740 1.542 9707
1.490 1.743 1.535 10685
1.506 1.761 1.541 10177
1.517 1.775 1.543 11512
1.524 1.783 1.540 11354
1.531 1.791 1.538 12083
1.538 1.799 1.535 10888
1.541 1.802 1.528 9590
1.548 1.811 1.526 8273
1.555 1.819 1.523 8108
1.558 1.822 1.516 9045
1.565 1.830 1.513 10948
1.567 1.833 1.506 12903
1.570 1.836 1.499 14049
1.572 1.839 1.492 15195
1.571 1.837 1.482 14243
1.569 1.835 1.471 13459
1.576 1.843 1.468 12418
1.583 1.851 1.465 8920
1.590 1.859 1.462 6339
1.588 1.857 1.451 6262
1.649 1.929 1.493 8405
1.647 1.926 1.482 8031
1.631 1.908 1.460 8330
1.634 1.911 1.453 7976
1.632 1.909 1.442 6788
1.634 1.911 1.435 5887
1.641 1.920 1.431 4742
1.730 2.024 1.493 7475
1.728 2.022 1.482 10027
1.736 2.030 1.478 9929
1.743 2.038 1.474 7051
1.754 2.052 1.473 4644
1.734 2.028 1.448 3603
1.801 2.106 1.490 3528
1.813 2.120 1.489 4187
1.815 2.123 1.481 5295
1.808 2.115 1.466 7708
1.811 2.118 1.458 9509
1.813 2.121 1.450 10830
1.816 2.124 1.442 12220
1.823 2.132 1.437 12401
1.830 2.141 1.433 10937
1.903 2.225 1.475 15113
1.905 2.228 1.466 19924
1.908 2.231 1.458 20486
1.910 2.234 1.449 16650
1.908 2.232 1.438 13686
1.910 2.234 1.429 14093
1.922 2.248 1.427 11289
1.934 2.262 1.425 9104
1.941 2.271 1.420 8986
1.986 2.323 1.440 13194
1.993 2.331 1.434 13761
1.996 2.334 1.425 11411
2.012 2.354 1.426 10875
2.015 2.357 1.417 8838
2.008 2.348 1.402 6760
2.001 2.340 1.387 7238
2.070 2.421 1.420 11719
2.077 2.429 1.414 19234
2.084 2.438 1.408 17953
2.101 2.457 1.407 13470
2.108 2.466 1.401 11354
2.120 2.480 1.397 10118
2.122 2.482 1.388 9835
2.125 2.485 1.379 9123
2.127 2.488 1.369 7589
2.139 2.502 1.365 8129
2.160 2.527 1.367 10695
2.168 2.535 1.360 9173
2.170 2.538 1.351 5971
2.172 2.541 1.341 5095
2.228 2.606 1.361 3708
2.298 2.688 1.389 6303
2.300 2.690 1.379 8643
2.259 2.642 1.345 6662
2.261 2.645 1.335 6585
2.322 2.716 1.356 4382
2.324 2.718 1.346 4267
2.351 2.749 1.348 6498
2.348 2.746 1.335 8366
2.345 2.743 1.322 6184
2.401 2.809 1.339 10557
2.399 2.806 1.326 12301
2.396 2.803 1.313 9651
2.472 2.891 1.339 7500
2.450 2.865 1.316 6102
2.442 2.856 1.300 4245
2.513 2.939 1.322 4544
2.505 2.930 1.306 4159
2.503 2.927 1.293 5735
2.510 2.936 1.284 5971
2.512 2.938 1.273 3498
2.657 3.108 1.327 4797
2.654 3.105 1.313 4574
2.657 3.107 1.301 4858
2.674 3.127 1.296 6266
2.686 3.141 1.288 5363
2.708 3.167 1.285 3582
2.769 3.239 1.298 3538
2.767 3.236 1.284 7383
2.774 3.244 1.273 7824
2.776 3.247 1.261 7843
2.768 3.238 1.245 8722
2.770 3.240 1.232 7104
2.857 3.342 1.254 5532
2.854 3.338 1.239 5118
2.861 3.347 1.228 4218
2.868 3.355 1.217 3810
2.870 3.357 1.205 3951
2.737 3.202 1.142 3710
3.024 3.538 1.234 5578
3.021 3.534 1.219 6941
3.029 3.542 1.207 5926
3.046 3.562 1.199 5434
3.113 3.641 1.208 5135
3.120 3.649 1.196 7414
3.122 3.651 1.182 8226
3.129 3.660 1.170 5571
3.136 3.668 1.158 5426
3.143 3.676 1.146 5864
3.205 3.749 1.151 4052
3.207 3.751 1.137 2751
3.335 3.901 1.162 2336
3.281 3.838 1.130 1781
3.359 3.929 1.138 3704
3.366 3.937 1.125 6535
3.368 3.939 1.110 5853
3.375 3.947 1.096 4424
3.382 3.955 1.083 3583
3.383 3.957 1.067 1993
3.334 3.900 1.039 1957
3.336 3.902 1.024 1768
3.490 4.082 1.049 1154
3.476 4.066 1.030 1532
3.468 4.056 1.012 2024
3.475 4.064 0.997 2427
3.481 4.072 0.983 3114
3.483 4.074 0.968 2749
3.495 4.088 0.955 2423
3.491 4.083 0.938 2052
3.818 4.466 0.996 2169
3.932 4.599 1.004 2447
3.908 4.571 0.981 2965
3.899 4.561 0.961 3007
4.059 4.748 0.977 4589
4.056 4.744 0.958 4239
4.103 4.799 0.949 3143
4.110 4.807 0.932 2719
4.096 4.791 0.910 2435
4.312 5.043 0.932 2097
4.216 4.931 0.895 3427
4.223 4.939 0.877 4283
4.234 4.953 0.860 3756
4.481 5.241 0.882 3217
4.508 5.273 0.867 3337
4.525 5.292 0.849 2591
4.547 5.318 0.832 1952
4.655 5.445 0.828 2053
4.928 5.764 0.846 2509
4.930 5.766 0.824 2613
4.531 5.300 0.748 1959
4.983 5.829 0.787 1953
4.974 5.818 0.763 2278
5.283 6.179 0.779 3204
5.289 6.187 0.756 3476
5.593 6.542 0.766 3677
5.600 6.550 0.742 4769
5.601 6.551 0.717 4442
5.607 6.558 0.692 4054
5.608 6.559 0.667 3433
5.712 6.681 0.652 3450
5.718 6.688 0.626 3042
5.739 6.713 0.603 2192
5.725 6.696 0.576 1820
6.095 7.130 0.577 1339
6.101 7.136 0.550 1258
6.097 7.131 0.523 1185
6.180 7.228 0.500 1115
6.175 7.223 0.472 1140
6.186 7.236 0.445 883
6.192 7.243 0.418 483
6.213 7.267 0.391 346
5.974 6.988 -0.501 288
5.973 6.987 -0.527 261
5.969 6.982 -0.607 263
5.973 6.986 -0.635 293
5.971 6.984 -0.661 310
5.970 6.983 -0.688 327
5.968 6.981 -0.715 251
1.353 1.575 1.588 3741
1.356 1.578 1.582 7482
1.359 1.581 1.576 7615
1.362 1.584 1.570 8616
1.364 1.588 1.564 9484
1.371 1.596 1.563 8990
1.378 1.604 1.561 8554
1.377 1.602 1.551 6690
1.375 1.600 1.540 4950
1.378 1.603 1.534 4950
1.389 1.616 1.537 4270
1.426 1.659 1.567 4921
1.437 1.672 1.569 6929
1.444 1.681 1.567 9628
1.451 1.689 1.565 9455
1.454 1.692 1.559 9379
1.461 1.700 1.557 7988
1.477 1.718 1.563 7479
1.484 1.727 1.561 8007
1.491 1.735 1.559 9405
1.498 1.743 1.557 9657
1.492 1.736 1.542 10762
1.494 1.739 1.535 11840
1.510 1.757 1.541 11189
1.517 1.766 1.539 12078
1.529 1.779 1.540 10719
1.536 1.787 1.538 10810
1.543 1.795 1.535 9794
1.550 1.804 1.532 8848
1.557 1.812 1.530 8425
1.564 1.820 1.527 9074
1.567 1.823 1.520 9973
1.569 1.826 1.513 11598
1.567 1.824 1.502 13245
1.575 1.832 1.499 14104
1.577 1.835 1.492 14984
1.575 1.833 1.482 13723
1.573 1.831 1.471 12732
1.580 1.839 1.468 11809
1.587 1.847 1.465 8628
1.594 1.855 1.462 6177
1.592 1.853 1.451 5950
1.654 1.924 1.493 8368
1.652 1.922 1.482 8043
1.636 1.904 1.460 8027
1.639 1.907 1.453 7609
1.637 1.904 1.442 6301
1.639 1.907 1.435 5217
1.742 2.027 1.508 4669
1.731 2.014 1.490 7983
1.734 2.017 1.482 10998
1.736 2.020 1.474 10920
1.743 2.028 1.470 7475
1.755 2.042 1.470 4608
1.730 2.013 1.441 3760
1.802 2.096 1.486 3897
1.813 2.110 1.485 4365
1.811 2.108 1.474 5259
1.814 2.111 1.466 7620
1.816 2.114 1.458 9544
1.819 2.117 1.450 10690
1.826 2.125 1.445 11636
1.828 2.128 1.437 11448
1.836 2.136 1.433 10258
1.908 2.221 1.475 13843
1.911 2.223 1.466 19015
1.913 2.226 1.458 20318
1.916 2.229 1.449 16979
1.914 2.227 1.438 14541
1.921 2.235 1.433 14906
1.928 2.243 1.427 11751
1.940 2.257 1.425 9393
1.942 2.260 1.417 8996
1.992 2.318 1.440 11057
1.999 2.326 1.434 12005
1.997 2.324 1.422 10822
2.018 2.349 1.426 10490
2.026 2.357 1.420 8383
2.014 2.343 1.402 6219
2.007 2.335 1.387 7212
2.076 2.415 1.420 11216
2.083 2.424 1.414 18709
2.090 2.432 1.408 17710
2.102 2.446 1.404 13120
2.114 2.460 1.401 10651
2.126 2.474 1.397 9313
2.129 2.477 1.388 8791
2.131 2.480 1.379 7820
2.133 2.482 1.369 6618
2.145 2.496 1.365 6838
2.167 2.522 1.367 8274
2.174 2.530 1.360 7406
2.172 2.527 1.348 5748
2.179 2.535 1.341 5496
2.181 2.538 1.332 3646
2.305 2.682 1.389 6705
2.307 2.685 1.379 9044
2.319 2.699 1.374 6668
2.268 2.639 1.335 5306
2.329 2.710 1.356 5077
2.331 2.712 1.346 4458
2.358 2.743 1.348 6298
2.355 2.740 1.335 8214
2.406 2.800 1.350 6586
2.413 2.808 1.342 11090
2.406 2.800 1.326 12411
2.403 2.797 1.313 8975
2.479 2.885 1.339 7949
2.481 2.888 1.328 5924
2.449 2.850 1.300 3894
2.520 2.933 1.322 4656
2.518 2.930 1.309 4174
2.515 2.927 1.295 4764
2.517 2.929 1.284 4876
2.633 3.064 1.325 3667
2.670 3.107 1.329 4424
2.667 3.104 1.315 4640
2.665 3.101 1.301 5431
2.677 3.115 1.294 6691
2.684 3.123 1.284 5580
2.691 3.131 1.274 3103
2.778 3.232 1.298 4451
2.775 3.229 1.284 8156
2.782 3.237 1.273 8832
2.779 3.234 1.259 9541
2.781 3.237 1.247 10922
2.783 3.239 1.234 8253
2.860 3.329 1.252 3614
2.863 3.331 1.239 3550
2.750 3.200 1.182 3528
2.982 3.470 1.257 3333
2.979 3.467 1.242 4077
3.036 3.533 1.250 3971
3.033 3.530 1.234 6370
3.035 3.532 1.221 7443
3.037 3.535 1.207 5756
3.055 3.555 1.199 5209
3.122 3.633 1.208 6006
3.124 3.635 1.195 8572
3.126 3.638 1.181 8420
3.133 3.646 1.169 4994
3.145 3.660 1.158 5219
3.152 3.668 1.146 6082
3.215 3.741 1.151 4324
3.222 3.749 1.138 2964
3.350 3.898 1.163 2835
3.367 3.918 1.153 2099
3.369 3.920 1.138 4195
3.376 3.928 1.125 6772
3.378 3.931 1.110 5814
3.385 3.939 1.096 4804
3.392 3.947 1.083 4277
3.393 3.949 1.067 2588
3.354 3.903 1.041 2396
3.346 3.894 1.024 1948
3.505 4.079 1.050 1281
3.492 4.063 1.031 1515
3.590 4.178 1.040 2141
3.597 4.186 1.025 2268
3.492 4.063 0.983 2815
3.493 4.065 0.968 2588
3.505 4.079 0.955 2428
3.501 4.074 0.938 2041
3.814 4.439 0.993 2204
3.806 4.429 0.974 2312
3.915 4.555 0.980 2756
3.911 4.551 0.961 3102
4.066 4.731 0.976 4205
4.068 4.733 0.958 3709
4.115 4.789 0.949 2979
4.112 4.784 0.930 2505
4.108 4.780 0.910 2491
4.325 5.032 0.932 2132
4.224 4.915 0.894 3584
4.235 4.928 0.877 4458
4.493 5.228 0.902 3813
4.500 5.236 0.883 3527
4.516 5.256 0.866 3625
4.523 5.263 0.847 2708
4.545 5.289 0.830 1907
4.546 5.290 0.809 1900
4.943 5.752 0.846 2601
4.944 5.753 0.824 2786
4.956 5.767 0.804 2045
4.972 5.786 0.784 1888
4.984 5.800 0.763 2091
5.299 6.166 0.779 2583
5.439 6.329 0.771 2840
5.615 6.534 0.767 3299
5.616 6.535 0.742 4318
5.617 6.537 0.717 4044
5.624 6.544 0.692 3760
5.625 6.545 0.667 3150
5.729 6.666 0.652 3784
5.740 6.679 0.627 3163
5.756 6.698 0.603 2344
5.742 6.681 0.576 1870
6.113 7.114 0.577 1349
6.114 7.115 0.550 1234
6.115 7.116 0.523 1133
6.203 7.219 0.500 1031
6.194 7.207 0.472 1053
6.199 7.214 0.445 839
6.205 7.221 0.417 432
6.108 7.107 0.386 301
5.992 6.973 -0.501 300
5.991 6.971 -0.527 278
5.984 6.964 -0.553 259
5.983 6.962 -0.580 259
5.987 6.967 -0.607 285
5.990 6.971 -0.635 316
5.989 6.969 -0.661 330
5.993 6.973 -0.689 345
5.991 6.972 -0.715 274
1.357 1.572 1.588 3030
1.359 1.575 1.582 6061
1.362 1.578 1.576 6243
1.365 1.582 1.570 7440
1.368 1.585 1.564 8455
1.374 1.593 1.563 8211
1.381 1.601 1.561 8103
1.384 1.604 1.555 6263
1.387 1.607 1.549 4422
1.390 1.610 1.543 4422
1.427 1.653 1.573 4518
1.429 1.656 1.567 5268
1.445 1.674 1.573 7202
1.452 1.683 1.572 9989
1.455 1.686 1.565 9925
1.457 1.689 1.559 9861
1.464 1.697 1.557 9305
1.476 1.710 1.559 9235
1.483 1.718 1.557 9086
1.494 1.732 1.559 10014
1.501 1.740 1.557 10423
1.495 1.733 1.542 11655
1.498 1.736 1.535 12892
1.509 1.749 1.537 12226
1.516 1.757 1.534 12718
1.528 1.771 1.536 10301
1.539 1.784 1.538 9457
1.547 1.792 1.535 8611
1.562 1.811 1.540 8233
1.565 1.814 1.534 8676
1.568 1.817 1.527 9928
1.570 1.820 1.520 10738
1.573 1.823 1.513 12026
1.571 1.821 1.502 13381
1.578 1.829 1.499 13882
1.581 1.832 1.492 14449
1.579 1.830 1.482 12826
1.577 1.828 1.471 11588
1.584 1.836 1.468 10780
1.591 1.844 1.465 8006
1.594 1.847 1.458 5829
1.651 1.913 1.497 5625
1.653 1.916 1.489 8105
1.656 1.919 1.482 7800
1.640 1.901 1.460 7463
1.643 1.903 1.453 6943
1.640 1.901 1.442 5739
1.643 1.904 1.435 4679
1.742 2.018 1.505 4713
1.735 2.011 1.490 8475
1.738 2.014 1.482 11699
1.740 2.017 1.474 11750
1.743 2.020 1.467 8082
1.759 2.039 1.470 4803
1.725 1.999 1.434 4449
1.732 2.007 1.430 4163
1.818 2.106 1.485 4320
1.816 2.104 1.474 4925
1.813 2.102 1.462 7375
1.816 2.104 1.454 9361
1.823 2.113 1.450 10254
1.830 2.121 1.445 10881
1.833 2.124 1.437 10298
1.840 2.132 1.433 9622
1.913 2.217 1.475 11901
1.915 2.220 1.466 17009
1.918 2.222 1.458 18905
1.920 2.225 1.449 16343
1.923 2.228 1.441 14765
1.925 2.231 1.433 14836
1.928 2.234 1.424 11211
1.940 2.248 1.422 8857
1.942 2.251 1.414 8563
2.001 2.319 1.443 8722
2.004 2.322 1.434 10123
2.002 2.320 1.422 10107
2.014 2.334 1.419 9624
2.026 2.347 1.417 7540
2.018 2.339 1.402 5745
2.011 2.331 1.387 7066
2.081 2.411 1.420 10618
2.088 2.420 1.414 17625
2.095 2.428 1.408 16885
2.107 2.442 1.404 12161
2.119 2.456 1.401 9574
2.131 2.470 1.397 8209
2.134 2.473 1.388 7508
2.136 2.475 1.379 6273
2.143 2.484 1.372 5552
2.150 2.492 1.365 6176
2.172 2.517 1.367 6028
2.174 2.520 1.358 5969
2.177 2.522 1.348 5812
2.184 2.531 1.341 5860
2.186 2.533 1.332 3989
2.310 2.677 1.389 6808
2.317 2.685 1.381 9203
2.325 2.694 1.374 7275
2.337 2.708 1.369 6223
2.339 2.711 1.358 6214
2.351 2.725 1.353 4742
2.363 2.739 1.348 5888
2.361 2.736 1.335 7634
2.417 2.801 1.352 6945
2.424 2.809 1.344 11378
2.412 2.795 1.326 12439
2.409 2.792 1.313 8335
2.485 2.880 1.339 7960
2.487 2.882 1.328 6166
2.455 2.845 1.300 3636
2.531 2.933 1.324 4504
2.524 2.925 1.309 4116
2.521 2.921 1.295 4090
2.637 3.056 1.337 4846
2.639 3.059 1.325 3988
2.676 3.102 1.329 3686
2.679 3.104 1.317 4355
2.671 3.095 1.301 5725
2.678 3.104 1.291 7148
2.685 3.112 1.282 5941
2.692 3.120 1.272 3347
2.779 3.221 1.296 5223
2.782 3.223 1.284 8536
2.784 3.226 1.271 9453
2.786 3.228 1.259 10198
2.788 3.231 1.247 11849
2.790 3.233 1.234 9078
2.787 3.230 1.220 3859
2.724 3.157 1.183 3486
2.786 3.229 1.194 3768
2.909 3.371 1.227 3553
2.986 3.460 1.242 4117
3.038 3.521 1.248 4348
3.041 3.524 1.234 6904
3.043 3.526 1.221 7691
3.045 3.528 1.207 5556
3.062 3.548 1.199 4995
3.129 3.627 1.208 6453
3.131 3.629 1.195 9322
3.133 3.631 1.181 8449
3.141 3.639 1.169 4862
3.153 3.653 1.158 5201
3.160 3.662 1.146 5770
3.222 3.734 1.151 4300
3.229 3.742 1.138 3051
3.363 3.897 1.165 3196
3.375 3.911 1.153 2690
3.377 3.913 1.138 4469
3.384 3.921 1.125 6871
3.391 3.930 1.111 6027
3.393 3.932 1.096 5533
3.400 3.940 1.083 5062
3.396 3.936 1.066 3083
3.373 3.908 1.044 2873
3.369 3.904 1.028 2203
3.376 3.912 1.014 1478
3.383 3.920 1.001 1896
3.604 4.176 1.041 2578
3.606 4.178 1.025 2789
3.500 4.056 0.983 2386
3.507 4.064 0.969 2310
3.513 4.071 0.955 2340
3.510 4.067 0.938 1959
3.828 4.437 0.994 2402
3.820 4.427 0.975 2545
3.924 4.547 0.980 2493
3.915 4.537 0.960 3072
4.076 4.723 0.976 3810
4.072 4.719 0.957 3128
4.130 4.786 0.950 2647
4.183 4.847 0.942 2339
4.113 4.766 0.909 2595
4.129 4.785 0.894 2211
4.234 4.906 0.894 3560
4.245 4.920 0.877 4355
4.504 5.219 0.902 4069
4.510 5.227 0.883 3776
4.527 5.246 0.866 3873
4.528 5.248 0.846 3004
4.617 5.351 0.839 1966
4.814 5.579 0.848 2026
4.960 5.748 0.847 2814
4.961 5.749 0.825 3108
4.967 5.757 0.804 2534
4.974 5.764 0.782 2045
4.991 5.783 0.762 1878
5.451 6.316 0.796 1970
5.452 6.318 0.771 2671
5.628 6.522 0.767 2813
5.630 6.524 0.742 3734
5.631 6.525 0.717 3493
5.637 6.532 0.692 3276
5.741 6.653 0.677 3445
5.742 6.654 0.652 4109
5.759 6.673 0.627 3359
5.770 6.686 0.603 2607
5.766 6.681 0.577 1941
6.128 7.102 0.577 1327
6.129 7.102 0.550 1199
6.130 7.103 0.523 1015
6.223 7.212 0.501 952
6.214 7.201 0.472 960
6.214 7.201 0.445 782
6.215 7.202 0.417 417
6.122 7.095 0.386 279
6.012 6.966 -0.501 275
6.010 6.965 -0.635 271
6.008 6.963 -0.662 291
6.007 6.961 -0.689 312
6.005 6.959 -0.715 250
1.361 1.568 1.588 2189
1.363 1.572 1.582 4378
1.362 1.570 1.572 4643
1.369 1.578 1.570 6064
1.376 1.586 1.569 7385
1.383 1.594 1.567 7278
1.394 1.607 1.570 7512
1.393 1.605 1.560 6199
1.395 1.608 1.554 4891
1.398 1.612 1.548 4891
1.427 1.644 1.568 5410
1.438 1.657 1.571 6269
1.449 1.671 1.573 8023
1.456 1.679 1.572 10736
1.459 1.682 1.565 10518
1.466 1.690 1.563 10344
1.469 1.693 1.557 10502
1.476 1.701 1.555 10985
1.487 1.715 1.557 10182
1.503 1.733 1.563 10378
1.506 1.736 1.557 10925
1.500 1.729 1.542 12312
1.503 1.732 1.535 13723
1.514 1.745 1.537 13106
1.521 1.753 1.534 13400
1.528 1.762 1.532 10319
1.540 1.775 1.534 8211
1.551 1.788 1.535 7472
1.572 1.812 1.545 8333
1.574 1.815 1.538 9156
1.573 1.813 1.527 10544
1.575 1.816 1.520 11186
1.578 1.819 1.513 12171
1.576 1.817 1.502 13214
1.583 1.825 1.499 13370
1.586 1.828 1.492 13583
1.584 1.826 1.482 11543
1.582 1.823 1.471 10010
1.589 1.832 1.468 9320
1.596 1.840 1.465 7027
1.598 1.843 1.458 5209
1.656 1.908 1.497 5299
1.658 1.911 1.489 7643
1.661 1.914 1.482 7335
1.650 1.902 1.464 6699
1.648 1.899 1.453 6066
1.645 1.897 1.442 5122
1.717 1.979 1.490 4388
1.729 1.993 1.490 4927
1.736 2.001 1.486 8772
1.738 2.004 1.478 12034
1.745 2.012 1.474 12202
1.748 2.015 1.467 8492
1.764 2.034 1.470 5094
1.730 1.994 1.434 5172
1.746 2.013 1.437 5208
1.758 2.027 1.436 5839
1.770 2.040 1.435 5182
1.810 2.086 1.455 6994
1.817 2.094 1.451 9175
1.829 2.108 1.450 9570
1.841 2.122 1.449 10067
1.848 2.130 1.444 9190
1.855 2.138 1.439 9077
1.914 2.206 1.471 9521
1.921 2.215 1.466 13992
1.924 2.217 1.458 16289
1.931 2.226 1.453 14861
1.929 2.223 1.441 14386
1.931 2.226 1.433 13827
1.934 2.229 1.424 9759
1.941 2.237 1.419 7420
1.943 2.240 1.410 7518
1.950 2.248 1.405 7012
2.010 2.317 1.434 8251
2.008 2.314 1.422 9270
2.010 2.317 1.413 8663
2.032 2.342 1.417 6418
2.025 2.334 1.402 5331
2.017 2.326 1.387 6671
2.082 2.400 1.417 10020
2.089 2.409 1.411 15947
2.102 2.422 1.408 15364
2.109 2.431 1.401 10720
2.126 2.450 1.401 8321
2.133 2.459 1.394 7049
2.140 2.467 1.388 6212
2.147 2.475 1.381 4880
2.159 2.489 1.378 4895
2.162 2.492 1.368 5820
2.184 2.517 1.370 4891
2.181 2.514 1.358 5164
2.178 2.511 1.345 5920
2.191 2.525 1.341 5952
2.193 2.528 1.332 4306
2.317 2.671 1.389 6570
2.324 2.679 1.381 9034
2.332 2.688 1.374 7649
2.344 2.702 1.369 7377
2.346 2.704 1.358 7522
2.358 2.718 1.353 5165
2.370 2.732 1.348 5254
2.368 2.729 1.335 6594
2.434 2.806 1.357 7326
2.431 2.803 1.344 11086
2.419 2.788 1.326 11579
2.421 2.791 1.315 7445
2.493 2.873 1.339 8510
2.495 2.876 1.328 6676
2.532 2.918 1.333 3255
2.534 2.921 1.322 4158
2.526 2.912 1.306 3874
2.643 3.046 1.348 3532
2.645 3.049 1.337 5331
2.642 3.046 1.323 4080
2.680 3.089 1.327 2981
2.687 3.097 1.317 3996
2.679 3.088 1.301 5770
2.681 3.091 1.289 7442
2.688 3.099 1.280 6295
2.691 3.102 1.268 3652
2.788 3.214 1.296 5616
2.790 3.216 1.284 8812
2.792 3.219 1.271 9386
2.794 3.221 1.259 9486
2.791 3.218 1.245 10963
2.794 3.220 1.232 8741
2.796 3.223 1.220 4404
2.793 3.219 1.206 4557
2.790 3.216 1.192 4462
2.913 3.357 1.225 4045
2.995 3.453 1.242 3845
3.048 3.513 1.248 4200
3.050 3.516 1.234 6603
3.052 3.518 1.221 7264
3.054 3.520 1.207 5118
3.071 3.540 1.199 4511
3.139 3.618 1.208 6184
3.141 3.621 1.195 9333
3.148 3.629 1.182 8204
3.155 3.637 1.170 4731
3.167 3.651 1.160 4725
3.164 3.647 1.144 4875
3.232 3.726 1.151 3927
3.173 3.658 1.118 2874
3.378 3.894 1.166 3490
3.385 3.902 1.153 3201
3.387 3.905 1.138 4367
3.399 3.918 1.126 6503
3.401 3.921 1.111 6135
3.403 3.923 1.096 6242
3.410 3.931 1.083 5755
3.402 3.921 1.065 3362
3.388 3.905 1.046 3158
3.385 3.901 1.029 2510
3.391 3.909 1.016 1847
3.393 3.911 1.001 2407
3.615 4.167 1.041 3122
3.622 4.175 1.027 3515
3.618 4.171 1.009 2155
3.538 4.078 0.974 2051
3.529 4.068 0.956 1968
3.844 4.431 1.012 2290
3.840 4.427 0.994 2752
3.837 4.423 0.976 2740
3.936 4.537 0.980 2297
3.932 4.533 0.961 2969
4.083 4.706 0.975 3516
4.079 4.702 0.956 2790
4.199 4.841 0.961 2122
4.196 4.836 0.942 2418
4.120 4.749 0.909 2697
4.147 4.780 0.895 2251
4.241 4.889 0.893 3262
4.253 4.903 0.876 3971
4.517 5.207 0.902 4089
4.524 5.215 0.883 3808
4.541 5.234 0.866 3868
4.542 5.236 0.846 3138
4.827 5.565 0.869 2254
4.829 5.566 0.848 2406
4.980 5.740 0.848 3172
4.981 5.742 0.826 3550
4.983 5.744 0.804 3091
4.968 5.727 0.780 2472
4.964 5.722 0.757 2073
5.467 6.302 0.796 1782
5.468 6.304 0.771 2435
5.475 6.311 0.748 2225
5.647 6.509 0.742 3002
5.762 6.642 0.729 2901
5.763 6.643 0.703 3352
5.759 6.638 0.677 3806
5.760 6.639 0.652 4385
5.781 6.664 0.628 3590
5.787 6.671 0.603 2918
5.783 6.666 0.577 2078
6.147 7.085 0.577 1288
6.148 7.086 0.550 1177
6.268 7.225 0.530 964
6.242 7.196 0.501 851
6.233 7.184 0.472 820
6.233 7.185 0.445 683
6.223 7.174 0.417 407
6.219 7.168 0.389 282
6.025 6.945 -0.501 262
6.023 6.943 -0.635 265
6.022 6.941 -0.661 275
6.020 6.939 -0.688 285
1.356 1.555 1.579 1482
1.359 1.558 1.573 2964
1.362 1.561 1.567 3383
1.377 1.579 1.575 4755
1.384 1.587 1.573 6438
1.396 1.600 1.577 6696
1.411 1.618 1.584 7740
1.414 1.621 1.578 6789
1.417 1.624 1.572 5838
1.420 1.628 1.566 5838
1.427 1.636 1.564 6509
1.442 1.654 1.571 7553
1.454 1.667 1.573 9115
1.461 1.675 1.572 11678
1.464 1.678 1.565 11176
1.471 1.686 1.563 10813
1.473 1.689 1.557 11431
1.480 1.697 1.555 12367
1.488 1.706 1.553 11015
1.508 1.729 1.563 10459
1.510 1.732 1.557 11094
1.504 1.725 1.542 12615
1.507 1.728 1.535 14159
1.514 1.736 1.533 13591
1.521 1.744 1.530 13788
1.528 1.752 1.528 10645
1.535 1.761 1.525 7834
1.565 1.794 1.543 6888
1.576 1.808 1.545 8758
1.579 1.811 1.538 9688
1.577 1.809 1.527 10839
1.580 1.812 1.520 11265
1.583 1.815 1.513 12008
1.581 1.813 1.502 12753
1.588 1.821 1.499 12640
1.591 1.824 1.492 12528
1.589 1.821 1.482 10138
1.587 1.819 1.471 8301
1.594 1.827 1.468 7738
1.601 1.835 1.465 5909
1.603 1.838 1.458 4484
1.661 1.904 1.497 4941
1.663 1.907 1.489 7019
1.666 1.910 1.482 6698
1.655 1.897 1.464 5942
1.648 1.890 1.449 5265
1.646 1.887 1.438 4559
1.722 1.974 1.490 4749
1.720 1.972 1.479 5332
1.741 1.996 1.486 8830
1.744 1.999 1.478 11964
1.751 2.007 1.474 12180
1.758 2.016 1.470 8550
1.774 2.035 1.473 5413
1.735 1.990 1.434 5661
1.766 2.024 1.447 6757
1.768 2.027 1.440 8146
1.780 2.041 1.439 7121
1.796 2.060 1.442 7659
1.808 2.073 1.441 9008
1.839 2.109 1.453 8841
1.851 2.122 1.452 9310
1.858 2.130 1.447 8462
1.865 2.139 1.443 8954
1.877 2.152 1.441 9516
1.932 2.215 1.470 10749
1.930 2.212 1.458 12964
1.937 2.221 1.453 12928
1.939 2.224 1.444 13611
1.937 2.221 1.433 12314
1.940 2.224 1.424 7810
1.942 2.227 1.416 5575
1.949 2.235 1.410 6152
1.961 2.249 1.408 7055
2.011 2.306 1.431 7295
2.009 2.304 1.419 8632
2.007 2.301 1.407 7997
2.000 2.293 1.392 6289
2.002 2.295 1.384 5173
2.038 2.337 1.396 6225
2.084 2.389 1.414 9325
2.096 2.403 1.411 13984
2.108 2.417 1.408 13374
2.115 2.425 1.401 9369
2.132 2.445 1.401 7373
2.135 2.447 1.392 6205
2.147 2.461 1.388 5199
2.159 2.475 1.384 3952
2.185 2.506 1.389 5305
2.183 2.503 1.377 6365
2.190 2.511 1.370 5372
2.188 2.508 1.358 5405
2.185 2.505 1.345 6132
2.197 2.519 1.341 5790
2.204 2.527 1.334 4469
2.324 2.665 1.389 6022
2.331 2.673 1.381 8515
2.339 2.682 1.374 7684
2.351 2.696 1.369 8227
2.358 2.704 1.361 8743
2.365 2.712 1.353 5727
2.378 2.726 1.348 4702
2.434 2.791 1.365 5587
2.441 2.799 1.357 7478
2.444 2.802 1.347 10549
2.431 2.788 1.328 10253
2.429 2.785 1.315 6657
2.500 2.867 1.339 8912
2.503 2.869 1.328 6726
2.544 2.917 1.336 3066
2.542 2.914 1.322 3752
2.534 2.906 1.306 3606
2.651 3.039 1.348 3525
2.653 3.042 1.337 5547
2.650 3.039 1.323 4106
2.653 3.042 1.311 3089
2.695 3.090 1.317 3606
2.687 3.081 1.301 5603
2.694 3.089 1.291 7603
2.697 3.092 1.280 6644
2.699 3.094 1.268 3856
2.796 3.206 1.296 5439
2.798 3.209 1.284 8256
2.801 3.211 1.271 8453
2.803 3.214 1.259 7713
2.800 3.210 1.245 8727
2.802 3.213 1.232 7039
2.794 3.204 1.216 4523
2.796 3.206 1.204 5813
2.798 3.208 1.192 5356
2.719 3.118 1.149 3989
2.726 3.126 1.139 3462
3.052 3.499 1.246 3708
3.059 3.508 1.234 5751
3.056 3.504 1.219 6278
3.063 3.512 1.207 4318
3.075 3.526 1.197 3798
3.149 3.610 1.208 5402
3.151 3.612 1.195 8544
3.158 3.621 1.182 7611
2.666 3.057 1.006 4700
3.182 3.648 1.161 3675
3.174 3.639 1.144 3651
3.237 3.711 1.149 3235
3.183 3.649 1.118 3161
3.389 3.885 1.166 3422
3.396 3.893 1.153 3398
3.403 3.901 1.140 4294
3.410 3.909 1.126 6262
3.417 3.917 1.113 6097
3.419 3.920 1.098 6648
3.415 3.916 1.081 6113
3.412 3.912 1.065 3475
3.398 3.896 1.046 3161
3.620 4.151 1.089 2735
3.402 3.900 1.016 2166
3.408 3.908 1.002 2826
3.631 4.163 1.043 3647
3.638 4.171 1.028 4356
3.634 4.167 1.011 2519
3.559 4.081 0.976 2153
3.854 4.419 1.029 1904
3.855 4.420 1.012 2621
3.852 4.416 0.994 3076
3.848 4.412 0.976 2868
3.948 4.526 0.980 2175
3.949 4.528 0.963 2802
4.095 4.696 0.975 3250
4.081 4.680 0.954 2709
4.197 4.812 0.958 1811
4.214 4.831 0.943 2257
4.132 4.738 0.909 2701
4.160 4.770 0.895 2290
4.456 5.109 0.929 2928
4.530 5.194 0.922 3650
4.531 5.195 0.902 3953
4.538 5.203 0.883 3687
4.555 5.222 0.866 3616
4.556 5.224 0.846 2948
4.842 5.552 0.869 2547
4.844 5.554 0.848 2765
4.995 5.727 0.848 3527
4.996 5.729 0.826 3972
4.998 5.730 0.804 3572
4.983 5.714 0.780 2895
4.974 5.703 0.756 2298
4.970 5.699 0.734 1767
5.480 6.283 0.771 2155
5.123 5.874 0.707 1951
5.669 6.500 0.742 2335
5.779 6.626 0.729 2959
5.780 6.628 0.703 3431
5.776 6.623 0.677 3949
5.777 6.624 0.652 4481
5.794 6.643 0.627 3660
5.800 6.650 0.602 3086
5.801 6.651 0.577 2170
6.171 7.075 0.577 1288
6.166 7.070 0.550 1194
6.287 7.208 0.530 972
6.266 7.185 0.501 790
6.251 7.168 0.472 806
6.247 7.163 0.445 695
6.237 7.151 0.417 437
6.238 7.152 0.389 269
5.924 6.793 -0.672 260
1.376 1.572 1.597 1132
1.379 1.575 1.591 2265
1.361 1.554 1.563 2596
1.385 1.581 1.579 4103
1.396 1.594 1.583 6069
1.407 1.607 1.586 6927
1.414 1.615 1.584 8427
1.417 1.619 1.578 7684
1.420 1.622 1.572 6940
1.423 1.625 1.566 6940
1.430 1.633 1.564 7503
1.445 1.651 1.571 8681
1.457 1.664 1.573 10131
1.464 1.672 1.572 12539
1.471 1.680 1.570 11756
1.474 1.683 1.563 11136
1.481 1.691 1.561 12044
1.484 1.695 1.555 13270
1.491 1.703 1.553 11542
1.498 1.711 1.550 10371
1.514 1.729 1.557 10902
1.508 1.722 1.542 12571
1.510 1.725 1.535 14206
1.518 1.733 1.533 13748
1.525 1.741 1.530 13864
1.527 1.744 1.524 10894
1.534 1.752 1.521 8022
1.573 1.796 1.547 6995
1.584 1.810 1.549 9286
1.587 1.813 1.542 10110
1.585 1.811 1.531 10823
1.584 1.809 1.520 10920
1.586 1.812 1.513 11494
1.589 1.815 1.506 12068
1.591 1.818 1.499 11747
1.594 1.821 1.492 11426
1.597 1.824 1.486 8917
1.590 1.816 1.471 6705
1.597 1.824 1.468 6266
1.600 1.827 1.461 4844
1.607 1.835 1.458 3816
1.664 1.901 1.497 4547
1.671 1.909 1.493 6340
1.669 1.907 1.482 5961
1.654 1.889 1.460 5264
1.647 1.881 1.445 4566
1.650 1.884 1.438 4081
1.721 1.966 1.486 4868
1.724 1.969 1.479 5627
1.745 1.993 1.486 8527
1.747 1.996 1.478 11426
1.755 2.004 1.474 11699
1.762 2.012 1.470 8382
1.783 2.036 1.477 5749
1.776 2.029 1.462 6096
1.774 2.026 1.451 8594
1.777 2.029 1.443 10480
1.784 2.037 1.439 8974
1.796 2.051 1.438 8349
1.803 2.059 1.434 9070
1.843 2.105 1.453 8221
1.860 2.124 1.456 8661
1.867 2.132 1.451 7839
1.869 2.135 1.443 8942
1.881 2.149 1.441 10201
1.936 2.211 1.470 7975
1.939 2.214 1.461 9664
1.941 2.217 1.453 10699
1.944 2.220 1.444 12590
1.946 2.223 1.436 10857
1.944 2.220 1.424 6083
1.942 2.217 1.412 4094
1.958 2.237 1.414 4937
1.970 2.250 1.411 7639
1.987 2.269 1.412 7675
2.014 2.300 1.419 8113
2.006 2.291 1.404 7576
2.004 2.289 1.392 6395
2.006 2.292 1.384 5153
2.047 2.338 1.399 6066
2.084 2.380 1.411 8444
2.091 2.388 1.405 11983
2.108 2.407 1.405 11175
2.115 2.416 1.398 8252
2.137 2.440 1.401 6907
2.110 2.410 1.374 5742
2.127 2.429 1.374 5167
2.129 2.432 1.364 4085
2.190 2.501 1.389 6243
2.193 2.504 1.379 7443
2.195 2.507 1.370 6119
2.188 2.498 1.355 5983
2.195 2.507 1.348 6179
2.202 2.515 1.341 5532
2.209 2.523 1.334 4654
2.329 2.660 1.389 5192
2.337 2.669 1.381 7707
2.344 2.677 1.374 7407
2.356 2.691 1.369 8490
2.363 2.699 1.361 9370
2.371 2.708 1.353 6177
2.408 2.750 1.361 4432
2.440 2.786 1.365 5460
2.447 2.795 1.357 7290
2.449 2.797 1.347 9709
2.437 2.783 1.328 8972
2.439 2.786 1.318 6156
2.506 2.862 1.339 9099
2.513 2.870 1.330 6716
2.545 2.907 1.333 2997
2.543 2.904 1.320 3613
2.540 2.901 1.306 3656
2.657 3.034 1.348 3393
2.659 3.037 1.337 5415
2.656 3.034 1.323 4075
2.659 3.036 1.311 3005
2.696 3.079 1.315 3252
2.698 3.082 1.303 5367
2.700 3.084 1.291 7653
2.703 3.087 1.280 6760
2.705 3.089 1.268 3841
2.797 3.195 1.294 5012
2.800 3.197 1.282 6915
2.807 3.206 1.271 6836
2.809 3.208 1.259 5499
2.806 3.205 1.245 6536
2.803 3.202 1.230 5921
2.785 3.181 1.210 4963
2.797 3.195 1.202 6387
2.799 3.197 1.190 6026
2.725 3.113 1.149 4181
2.727 3.115 1.137 3248
2.729 3.117 1.125 3359
3.066 3.502 1.234 4624
3.063 3.498 1.219 4919
3.070 3.506 1.207 3479
3.082 3.520 1.197 3504
3.156 3.604 1.208 4453
3.158 3.606 1.195 7192
3.165 3.614 1.182 6522
2.672 3.052 1.006 4598
2.669 3.048 0.993 3989
2.676 3.056 0.983 3174
3.188 3.641 1.132 2944
3.195 3.649 1.119 3022
3.335 3.809 1.148 3153
3.342 3.817 1.134 3623
3.415 3.901 1.141 4231
3.422 3.909 1.128 6074
3.424 3.911 1.113 5997
3.426 3.913 1.098 6760
3.423 3.909 1.081 6176
3.420 3.905 1.065 3470
3.411 3.896 1.047 3106
3.629 4.144 1.089 3435
3.641 4.158 1.076 2752
3.416 3.901 1.002 3056
3.644 4.162 1.044 4100
3.646 4.164 1.028 5219
3.648 4.166 1.012 2964
3.577 4.085 0.979 2331
3.584 4.093 0.964 2139
3.864 4.413 1.012 2976
3.860 4.409 0.994 3321
3.862 4.411 0.977 2886
3.957 4.519 0.980 2041
3.989 4.556 0.969 2670
4.099 4.682 0.974 2978
4.091 4.672 0.954 2805
4.087 4.668 0.935 1770
4.135 4.723 0.926 2162
4.137 4.724 0.908 2650
4.169 4.761 0.895 2207
4.466 5.100 0.929 2776
4.467 5.102 0.910 3334
4.541 5.186 0.902 3618
4.465 5.099 0.870 3724
4.560 5.207 0.865 3502
4.566 5.215 0.846 2920
4.853 5.542 0.869 2786
4.854 5.544 0.848 3048
5.006 5.718 0.848 3726
5.008 5.719 0.826 4203
5.009 5.721 0.804 3844
4.995 5.704 0.780 3176
4.985 5.694 0.756 2511
4.987 5.695 0.734 1930
5.263 6.011 0.744 2071
5.134 5.864 0.707 1959
5.130 5.859 0.683 1818
5.787 6.609 0.728 2803
5.793 6.616 0.703 3262
5.789 6.612 0.677 3814
5.790 6.613 0.652 4321
5.807 6.632 0.627 3476
5.813 6.639 0.602 2990
5.814 6.640 0.577 2138
6.184 7.063 0.577 1243
6.086 6.951 0.543 1279
6.092 6.958 0.517 1095
6.135 7.006 0.493 742
6.260 7.150 0.472 816
6.256 7.144 0.444 721
6.251 7.139 0.417 463
6.252 7.140 0.389 264
1.381 1.568 1.597 1345
1.384 1.571 1.591 2691
1.387 1.574 1.585 2732
1.398 1.587 1.589 4326
1.405 1.595 1.587 6261
1.417 1.608 1.590 7547
1.419 1.611 1.584 9227
1.422 1.614 1.578 8658
1.421 1.612 1.567 8121
1.423 1.615 1.561 8121
1.431 1.624 1.559 8405
1.451 1.646 1.571 9591
1.466 1.664 1.578 10975
1.469 1.667 1.572 13163
1.476 1.676 1.570 12111
1.479 1.679 1.563 11253
1.486 1.687 1.561 12401
1.489 1.690 1.555 13780
1.496 1.698 1.553 11760
1.503 1.706 1.550 10196
1.519 1.724 1.557 10405
1.513 1.717 1.542 12180
1.516 1.720 1.535 13807
1.523 1.728 1.533 13399
1.530 1.737 1.530 13401
1.533 1.740 1.524 10798
1.535 1.743 1.517 8195
1.583 1.796 1.551 7437
1.590 1.805 1.549 9872
1.593 1.808 1.542 10520
1.596 1.811 1.535 10672
1.589 1.804 1.520 10289
1.592 1.807 1.513 10756
1.595 1.810 1.506 11224
1.597 1.813 1.499 10779
1.604 1.821 1.496 10390
1.602 1.819 1.486 7834
1.600 1.816 1.475 5373
1.603 1.819 1.468 4986
1.610 1.827 1.465 3912
1.613 1.830 1.458 3270
1.675 1.901 1.500 4115
1.677 1.904 1.493 5653
1.680 1.907 1.486 5207
1.660 1.884 1.460 4661
1.658 1.881 1.449 3806
1.655 1.879 1.438 3562
1.727 1.960 1.486 4841
1.725 1.958 1.475 5700
1.746 1.982 1.482 8000
1.754 1.990 1.478 10542
1.761 1.999 1.474 10870
1.773 2.012 1.474 8055
1.789 2.031 1.477 6141
1.783 2.023 1.462 6829
1.781 2.021 1.451 10111
1.783 2.024 1.443 12300
1.790 2.032 1.439 10384
1.802 2.045 1.438 8677
1.805 2.048 1.430 8723
1.850 2.099 1.453 7850
1.866 2.118 1.456 8192
1.874 2.126 1.451 7219
1.881 2.135 1.446 8870
1.893 2.148 1.445 10691
1.891 2.146 1.433 7563
1.955 2.219 1.468 6977
1.948 2.211 1.453 8576
1.946 2.208 1.441 11501
1.953 2.217 1.436 9810
1.956 2.219 1.427 5094
1.944 2.206 1.409 3528
1.980 2.247 1.423 4846
1.987 2.255 1.418 8733
1.994 2.263 1.412 8868
2.016 2.288 1.416 7739
2.009 2.280 1.401 7147
2.011 2.282 1.392 6422
2.018 2.291 1.387 5095
2.055 2.332 1.399 5812
2.086 2.368 1.408 7486
2.093 2.376 1.402 10443
2.110 2.395 1.402 9446
2.123 2.409 1.398 7569
2.144 2.434 1.401 6888
2.118 2.403 1.374 6022
2.130 2.417 1.371 5500
2.132 2.420 1.362 4648
2.203 2.500 1.392 6689
2.205 2.503 1.382 7914
2.203 2.500 1.370 6567
2.195 2.492 1.355 6582
2.203 2.500 1.348 6174
2.215 2.514 1.344 5070
2.252 2.555 1.353 4822
2.244 2.547 1.338 5845
2.345 2.661 1.381 6751
2.352 2.670 1.374 6931
2.365 2.684 1.369 8270
2.372 2.692 1.361 9408
2.384 2.706 1.356 6367
2.416 2.742 1.361 4219
2.448 2.779 1.365 4995
2.456 2.787 1.357 6952
2.458 2.790 1.347 9075
2.460 2.792 1.336 7916
2.502 2.840 1.345 7715
2.510 2.848 1.336 9759
2.522 2.862 1.330 6828
2.534 2.876 1.324 3076
2.537 2.879 1.313 3641
2.544 2.887 1.304 3897
2.666 3.026 1.348 3161
2.669 3.029 1.337 4971
2.666 3.026 1.323 3924
2.673 3.034 1.313 2796
2.706 3.071 1.315 3073
2.703 3.067 1.301 5142
2.710 3.076 1.291 7444
2.712 3.078 1.280 6492
2.709 3.075 1.266 3552
2.802 3.180 1.292 4160
2.810 3.189 1.282 5352
2.812 3.191 1.269 5110
2.814 3.194 1.257 3736
2.811 3.190 1.243 4835
2.798 3.176 1.224 5220
2.790 3.166 1.208 5469
2.807 3.186 1.202 6725
2.809 3.188 1.190 6585
2.735 3.104 1.149 4323
2.737 3.106 1.137 3471
2.739 3.108 1.125 3891
2.741 3.111 1.113 4709
3.079 3.494 1.221 3870
3.086 3.503 1.209 2865
3.098 3.516 1.199 3245
3.167 3.594 1.208 3744
3.169 3.596 1.195 5633
3.176 3.604 1.182 5120
2.682 3.044 1.006 3546
2.683 3.046 0.994 3865
2.685 3.047 0.983 3456
3.215 3.648 1.137 2812
3.216 3.650 1.123 2766
3.342 3.792 1.146 3403
3.349 3.800 1.133 3659
3.428 3.890 1.141 4292
3.435 3.898 1.128 5872
3.442 3.906 1.114 5802
3.443 3.908 1.099 6522
3.435 3.898 1.081 5764
3.432 3.895 1.065 3340
3.640 4.131 1.105 3470
3.647 4.139 1.090 4051
3.654 4.147 1.076 3367
3.428 3.891 1.002 3155
3.657 4.151 1.044 4572
3.659 4.153 1.028 5892
3.661 4.154 1.012 3328
3.590 4.074 0.979 2325
3.597 4.082 0.964 2350
3.878 4.401 1.012 3265
3.879 4.403 0.995 3487
3.876 4.399 0.977 2782
4.012 4.553 0.989 2108
4.003 4.544 0.969 2747
4.005 4.545 0.952 3014
4.105 4.659 0.954 2814
4.101 4.655 0.935 2004
4.155 4.715 0.927 2383
4.276 4.853 0.931 2588
4.283 4.860 0.913 2110
4.482 5.086 0.929 2519
4.483 5.088 0.910 3098
4.479 5.084 0.889 3419
4.486 5.091 0.870 3640
4.576 5.193 0.865 3319
4.582 5.201 0.846 2923
4.870 5.527 0.869 2911
4.872 5.529 0.848 3210
5.024 5.702 0.848 3774
5.031 5.709 0.826 4246
5.027 5.705 0.804 3903
5.007 5.683 0.779 3228
4.993 5.666 0.755 2599
5.004 5.679 0.734 2058
5.005 5.681 0.712 2107
5.153 5.848 0.707 1944
5.149 5.843 0.683 1790
5.808 6.591 0.728 2478
5.814 6.598 0.703 2904
5.810 6.594 0.677 3457
5.811 6.595 0.652 3956
5.822 6.608 0.627 3130
5.833 6.621 0.602 2675
5.834 6.622 0.577 1988
6.217 7.056 0.578 1244
6.108 6.932 0.543 1383
6.156 6.986 0.520 1201
6.162 6.993 0.493 896
6.283 7.130 0.472 787
6.278 7.125 0.444 705
6.268 7.114 0.416 470
6.274 7.120 0.389 276
1.385 1.565 1.597 1921
1.387 1.568 1.591 3843
1.390 1.571 1.585 3822
1.406 1.589 1.593 4948
1.413 1.597 1.592 6657
1.420 1.605 1.590 8267
1.423 1.608 1.584 10091
1.426 1.611 1.578 9664
1.424 1.609 1.567 9311
1.427 1.612 1.561 9311
1.434 1.620 1.559 9168
1.454 1.643 1.571 10278
1.470 1.661 1.578 11653
1.473 1.664 1.572 13572
1.480 1.672 1.570 12338
1.483 1.676 1.563 11341
1.490 1.684 1.561 12600
1.493 1.687 1.555 14003
1.500 1.695 1.553 11730
1.507 1.703 1.550 9803
1.514 1.711 1.548 9839
1.517 1.714 1.542 11481
1.520 1.717 1.535 13000
1.527 1.725 1.533 12641
1.529 1.728 1.526 12713
1.532 1.731 1.520 10396
1.539 1.739 1.517 8102
1.587 1.793 1.551 7949
1.594 1.801 1.549 10392
1.597 1.804 1.542 10818
1.599 1.807 1.535 10354
1.593 1.800 1.520 9374
1.596 1.803 1.513 9777
1.598 1.806 1.506 10180
1.601 1.809 1.499 9705
1.608 1.817 1.496 9406
1.611 1.820 1.489 6915
1.613 1.823 1.482 4424
1.611 1.821 1.472 3894
1.614 1.824 1.465 3135
1.649 1.863 1.485 3287
1.679 1.897 1.500 3849
1.686 1.905 1.497 5223
1.689 1.908 1.490 4650
1.664 1.880 1.460 4074
1.699 1.919 1.479 3197
1.715 1.938 1.483 3433
1.727 1.951 1.483 4855
1.730 1.954 1.475 5725
1.751 1.978 1.482 7340
1.758 1.987 1.478 9465
1.765 1.995 1.474 9833
1.782 2.014 1.478 7800
1.794 2.027 1.477 6451
1.792 2.025 1.466 7410
1.785 2.017 1.451 11106
1.792 2.025 1.447 13506
1.795 2.028 1.439 11190
1.807 2.041 1.438 8361
1.809 2.044 1.430 7726
1.854 2.095 1.453 7654
1.876 2.119 1.459 7789
1.883 2.128 1.454 6476
1.885 2.131 1.446 8608
1.902 2.150 1.448 11005
1.900 2.147 1.436 7296
1.965 2.220 1.471 5191
1.948 2.201 1.449 7053
1.951 2.204 1.441 10316
1.963 2.218 1.439 8844
1.989 2.248 1.447 6002
2.006 2.267 1.448 4674
1.989 2.248 1.426 6122
1.992 2.251 1.418 9780
2.004 2.264 1.415 9711
2.011 2.273 1.410 7487
2.014 2.275 1.401 6587
2.016 2.278 1.392 6152
2.028 2.292 1.390 4852
2.060 2.327 1.399 5291
2.091 2.363 1.408 6487
2.099 2.371 1.402 9336
2.116 2.391 1.402 8527
2.137 2.415 1.404 7527
2.150 2.429 1.401 7139
2.128 2.404 1.377 6108
2.130 2.407 1.368 5732
2.132 2.410 1.359 5069
2.208 2.495 1.392 6820
2.211 2.498 1.382 7736
2.208 2.495 1.370 6431
2.201 2.487 1.355 6817
2.208 2.495 1.348 6140
2.279 2.576 1.377 5458
2.257 2.551 1.353 5444
2.250 2.542 1.338 6495
2.351 2.656 1.381 5741
2.358 2.665 1.374 6392
2.365 2.673 1.366 7848
2.378 2.687 1.361 9113
2.390 2.701 1.356 6411
2.402 2.715 1.351 4156
2.454 2.773 1.365 4243
2.457 2.776 1.355 6313
2.464 2.784 1.347 8072
2.471 2.793 1.338 6954
2.509 2.835 1.345 8811
2.516 2.843 1.336 9888
2.523 2.851 1.328 6648
2.540 2.871 1.324 3269
2.548 2.879 1.315 3806
2.550 2.882 1.304 4007
2.673 3.020 1.348 2910
2.675 3.023 1.337 4453
2.677 3.025 1.325 3810
2.690 3.039 1.318 2659
2.707 3.059 1.313 2803
2.709 3.062 1.301 4681
2.717 3.070 1.291 6940
2.724 3.078 1.282 5982
2.792 3.155 1.297 3642
2.799 3.163 1.287 3626
2.806 3.171 1.277 3925
2.809 3.174 1.265 3758
2.785 3.148 1.243 2810
2.803 3.167 1.237 3465
2.800 3.164 1.222 4327
2.797 3.160 1.208 5505
2.809 3.174 1.200 7098
2.816 3.182 1.190 6483
2.742 3.098 1.149 4316
2.739 3.095 1.135 3786
2.746 3.103 1.125 4319
2.748 3.105 1.113 4972
2.754 3.113 1.103 3859
2.664 3.011 1.059 2871
3.106 3.510 1.199 3244
2.688 3.038 1.043 3387
3.177 3.590 1.195 4360
3.189 3.603 1.184 3785
3.201 3.617 1.174 2899
2.690 3.040 0.994 3092
2.692 3.042 0.983 3303
3.238 3.659 1.141 3034
3.322 3.754 1.153 2643
3.344 3.779 1.144 3579
3.357 3.793 1.133 3473
3.431 3.877 1.140 4432
3.443 3.891 1.128 5599
3.455 3.904 1.116 5675
3.452 3.901 1.099 6225
3.443 3.891 1.081 5143
3.440 3.887 1.065 3123
3.648 4.123 1.105 3774
3.655 4.131 1.090 4571
3.662 4.139 1.076 3843
3.669 4.147 1.061 3221
3.671 4.149 1.045 4903
3.668 4.145 1.028 6219
3.675 4.152 1.013 3572
3.692 4.172 1.001 2177
3.688 4.168 0.983 2391
3.892 4.398 1.013 3471
3.889 4.394 0.995 3546
3.885 4.390 0.977 2570
4.017 4.539 0.988 2243
4.013 4.535 0.969 2623
4.015 4.537 0.952 2792
4.115 4.650 0.954 2655
4.111 4.646 0.935 2124
4.186 4.730 0.931 2819
4.292 4.849 0.932 2642
4.293 4.851 0.913 2271
4.493 5.077 0.929 2118
4.494 5.078 0.910 2677
4.490 5.074 0.889 3015
4.497 5.082 0.870 3317
4.420 4.995 0.838 3100
4.661 5.268 0.856 3130
4.882 5.517 0.869 2870
4.883 5.518 0.848 3286
5.036 5.691 0.848 3709
5.043 5.699 0.826 4163
5.039 5.694 0.804 3803
5.019 5.672 0.779 3027
5.005 5.656 0.755 2541
5.022 5.675 0.735 2140
5.023 5.676 0.713 2146
5.160 5.831 0.706 1772
5.496 6.211 0.719 1649
5.822 6.579 0.728 2059
5.828 6.586 0.703 2432
5.824 6.581 0.677 2960
5.825 6.582 0.652 3437
5.836 6.595 0.627 2651
5.848 6.608 0.602 2171
5.849 6.609 0.577 1709
6.237 7.048 0.578 1309
6.123 6.919 0.543 1427
6.176 6.979 0.520 1287
6.182 6.986 0.493 991
6.293 7.111 0.472 777
6.288 7.106 0.444 693
6.283 7.100 0.416 441
5.901 6.668 0.374 269
1.389 1.561 1.597 2443
1.391 1.564 1.591 4887
1.394 1.567 1.585 4824
1.410 1.585 1.593 5377
1.417 1.593 1.592 6925
1.424 1.601 1.590 8859
1.427 1.604 1.584 10919
1.430 1.607 1.578 10608
1.428 1.606 1.567 10372
1.431 1.609 1.561 10372
1.442 1.622 1.564 9716
1.463 1.644 1.575 10691
1.474 1.657 1.578 12072
1.477 1.661 1.572 13709
1.484 1.669 1.570 12415
1.487 1.672 1.563 11411
1.494 1.680 1.561 12601
1.497 1.683 1.555 13862
1.504 1.691 1.553 11410
1.511 1.699 1.550 9194
1.514 1.702 1.544 9158
1.521 1.710 1.542 10575
1.524 1.713 1.535 11954
1.527 1.716 1.529 11649
1.534 1.724 1.526 11835
1.536 1.727 1.520 9763
1.544 1.735 1.517 7726
1.591 1.789 1.551 8408
1.599 1.797 1.549 10754
1.601 1.800 1.542 10952
1.604 1.803 1.535 9868
1.598 1.796 1.520 8320
1.600 1.799 1.513 8706
1.603 1.802 1.506 9092
1.606 1.805 1.499 8656
1.613 1.813 1.496 8503
1.615 1.816 1.489 6210
1.627 1.829 1.490 4055
1.639 1.843 1.491 3227
1.646 1.851 1.488 2994
1.653 1.859 1.485 3549
1.688 1.898 1.504 4370
1.696 1.906 1.501 6030
1.703 1.914 1.497 5412
1.710 1.923 1.494 5017
1.708 1.920 1.483 4183
1.711 1.923 1.475 4224
1.718 1.931 1.472 5091
1.734 1.950 1.475 5480
1.756 1.974 1.482 6614
1.768 1.987 1.482 8360
1.770 1.990 1.474 8702
1.787 2.009 1.478 7483
1.799 2.022 1.477 6511
1.792 2.015 1.462 7613
1.790 2.012 1.451 11411
1.797 2.021 1.447 13842
1.800 2.023 1.439 11281
1.807 2.032 1.435 7565
1.814 2.040 1.430 6374
1.864 2.096 1.457 7721
1.881 2.115 1.459 7370
1.888 2.123 1.454 5767
1.891 2.126 1.446 8157
1.912 2.150 1.451 11133
1.915 2.153 1.443 7329
1.975 2.220 1.474 3971
1.949 2.191 1.446 6309
1.951 2.194 1.438 9182
1.978 2.224 1.445 8130
1.995 2.243 1.447 6659
2.007 2.256 1.444 5433
2.000 2.248 1.429 6823
2.002 2.251 1.421 10097
2.010 2.259 1.415 9859
2.017 2.268 1.410 7150
2.019 2.270 1.401 6050
2.027 2.279 1.395 5801
2.034 2.287 1.390 4586
2.066 2.322 1.399 4588
2.097 2.358 1.408 5552
2.109 2.372 1.405 8802
2.122 2.385 1.402 8414
2.144 2.410 1.404 7781
2.151 2.418 1.398 7350
2.139 2.404 1.380 6274
2.136 2.402 1.368 5831
2.139 2.404 1.359 5132
2.215 2.490 1.392 6492
2.217 2.493 1.382 7126
2.215 2.490 1.370 6097
2.212 2.487 1.358 6555
2.214 2.489 1.348 5770
2.286 2.570 1.377 5879
2.264 2.545 1.353 5762
2.261 2.542 1.341 6739
2.258 2.539 1.328 5050
2.365 2.659 1.374 5689
2.372 2.667 1.366 7214
2.384 2.681 1.361 8502
2.397 2.695 1.356 6157
2.399 2.697 1.346 4376
2.391 2.689 1.330 4145
2.464 2.770 1.355 5539
2.471 2.778 1.347 7189
2.478 2.786 1.338 6045
2.516 2.828 1.345 8946
2.523 2.837 1.336 9555
2.530 2.845 1.328 6285
2.548 2.864 1.324 3465
2.555 2.873 1.315 4075
2.557 2.875 1.304 4202
2.555 2.872 1.291 2836
2.688 3.022 1.339 3844
2.685 3.019 1.325 3767
2.687 3.021 1.313 3091
2.705 3.041 1.308 2674
2.717 3.055 1.301 4150
2.724 3.063 1.291 6396
2.732 3.071 1.282 5383
2.795 3.142 1.295 3794
2.802 3.150 1.285 3565
2.799 3.147 1.271 3717
2.806 3.155 1.261 3436
2.814 3.163 1.251 3070
2.801 3.149 1.233 3646
2.803 3.151 1.220 3561
2.805 3.153 1.208 4864
2.817 3.167 1.200 7347
2.824 3.175 1.190 6400
2.750 3.091 1.149 4044
2.746 3.088 1.135 3870
2.748 3.090 1.123 4429
2.755 3.098 1.113 4949
2.762 3.106 1.103 3789
2.672 3.004 1.059 3062
2.684 3.018 1.051 3879
2.691 3.025 1.041 4551
2.693 3.027 1.029 3554
3.208 3.607 1.188 3129
3.215 3.615 1.175 3402
3.207 3.606 1.158 2756
3.271 3.677 1.164 3720
3.252 3.656 1.143 3301
3.331 3.745 1.153 3084
3.349 3.765 1.143 3816
3.428 3.854 1.151 3551
3.435 3.862 1.138 4925
3.458 3.888 1.129 5150
3.470 3.901 1.117 5511
3.467 3.898 1.100 5939
3.448 3.877 1.080 4590
3.455 3.884 1.066 2879
3.664 4.119 1.106 3910
3.666 4.121 1.090 4800
3.673 4.129 1.076 4030
3.680 4.137 1.061 3445
3.682 4.139 1.045 5088
3.683 4.141 1.029 6149
3.690 4.149 1.014 3661
3.702 4.163 1.001 2644
3.699 4.159 0.983 2944
3.903 4.388 1.013 3533
3.900 4.385 0.995 3400
4.027 4.527 1.005 2583
4.028 4.529 0.988 2342
4.145 4.659 0.994 2374
4.026 4.527 0.952 2405
4.122 4.634 0.953 2404
4.196 4.718 0.949 2281
4.193 4.714 0.930 3188
4.309 4.844 0.933 2634
4.316 4.852 0.915 2452
4.307 4.842 0.894 2070
4.298 4.832 0.874 2509
4.304 4.839 0.856 2693
4.358 4.900 0.846 3049
4.433 4.984 0.838 2956
4.675 5.256 0.856 3528
4.681 5.263 0.837 3148
4.897 5.506 0.848 3159
5.051 5.678 0.848 3488
5.057 5.686 0.826 3901
5.053 5.681 0.804 3554
5.013 5.636 0.776 2852
5.014 5.637 0.754 2420
5.036 5.662 0.735 2175
5.037 5.663 0.713 2132
5.521 6.207 0.744 1743
5.512 6.197 0.719 2061
5.649 6.351 0.709 1940
5.650 6.353 0.684 2145
5.840 6.566 0.677 2343
5.842 6.567 0.652 2832
5.848 6.574 0.626 2116
6.127 6.888 0.623 2326
6.123 6.884 0.596 1798
6.255 7.032 0.578 1367
6.140 6.903 0.543 1396
6.194 6.963 0.520 1301
6.200 6.970 0.493 1017
6.216 6.988 0.467 795
6.306 7.090 0.444 681
6.301 7.084 0.416 421
5.918 6.653 0.374 259
1.387 1.554 1.593 2979
1.390 1.557 1.587 5959
1.397 1.565 1.585 5842
1.408 1.578 1.589 5775
1.420 1.591 1.592 7034
1.427 1.599 1.590 9422
1.429 1.602 1.584 11826
1.432 1.605 1.578 11629
1.431 1.603 1.567 11483
1.433 1.607 1.561 11483
1.445 1.619 1.564 10209
1.470 1.647 1.580 11026
1.477 1.655 1.578 12340
1.480 1.658 1.572 13727
1.487 1.666 1.570 12482
1.490 1.669 1.563 11617
1.497 1.677 1.561 12614
1.500 1.681 1.555 13617
1.507 1.689 1.553 11009
1.514 1.697 1.550 8521
1.517 1.700 1.544 8455
1.519 1.703 1.537 9592
1.522 1.706 1.531 10795
1.529 1.714 1.529 10530
1.536 1.722 1.526 10693
1.539 1.725 1.520 8860
1.578 1.768 1.546 7124
1.594 1.787 1.551 8629
1.597 1.790 1.545 10913
1.604 1.798 1.542 10874
1.607 1.801 1.535 9277
1.610 1.804 1.528 7352
1.603 1.797 1.513 7719
1.606 1.800 1.506 8212
1.613 1.808 1.503 7959
1.620 1.816 1.500 7946
1.623 1.819 1.493 5942
1.644 1.842 1.502 4486
1.646 1.845 1.495 3657
1.654 1.853 1.492 3229
1.647 1.846 1.477 3585
1.640 1.839 1.462 4128
1.703 1.909 1.505 5465
1.710 1.917 1.501 5254
1.718 1.925 1.497 5365
1.706 1.912 1.479 5283
1.709 1.915 1.471 6403
1.712 1.918 1.464 7026
1.724 1.932 1.464 6148
1.759 1.971 1.482 5861
1.771 1.985 1.482 7342
1.778 1.993 1.478 7566
1.790 2.006 1.478 6954
1.797 2.014 1.473 6274
1.795 2.012 1.462 7475
1.793 2.010 1.451 11215
1.796 2.012 1.443 13572
1.803 2.021 1.439 10838
1.805 2.023 1.431 6517
1.860 2.085 1.461 6364
1.867 2.093 1.457 7721
1.884 2.112 1.459 6711
1.839 2.061 1.417 5467
1.918 2.150 1.463 7743
1.916 2.147 1.451 10893
1.923 2.155 1.446 7372
1.930 2.164 1.441 4085
1.938 2.172 1.436 6293
1.945 2.180 1.431 8443
1.986 2.226 1.449 7360
1.998 2.240 1.447 6489
2.006 2.248 1.441 5603
2.003 2.245 1.429 6775
2.006 2.248 1.421 9505
2.013 2.256 1.415 9255
2.020 2.264 1.410 6649
2.023 2.267 1.401 5534
2.030 2.275 1.395 5375
2.038 2.284 1.390 4219
2.069 2.319 1.399 3874
2.106 2.360 1.411 4809
2.118 2.374 1.408 8860
2.130 2.387 1.405 8813
2.147 2.407 1.404 7679
2.155 2.415 1.398 7326
2.142 2.401 1.380 6834
2.140 2.398 1.368 5970
2.142 2.401 1.359 4950
2.219 2.486 1.392 5884
2.221 2.489 1.382 6045
2.218 2.486 1.370 5532
2.216 2.483 1.358 6251
2.283 2.558 1.384 5358
2.290 2.566 1.377 5825
2.263 2.536 1.350 5924
2.265 2.538 1.341 6816
2.267 2.541 1.331 4934
2.364 2.649 1.371 4518
2.376 2.663 1.366 6164
2.389 2.677 1.361 7522
2.396 2.685 1.353 5629
2.398 2.688 1.343 4808
2.396 2.685 1.330 5285
2.403 2.693 1.322 4562
