5.148 -4.212 1.431 3040
5.157 -4.219 1.414 3017
5.154 -4.216 1.393 3149
5.157 -4.219 1.373 3174
5.214 -4.265 1.367 3129
5.211 -4.263 1.346 2569
5.485 -4.487 1.389 2639
5.488 -4.489 1.368 2851
5.605 -4.585 1.373 3272
5.614 -4.593 1.354 3509
5.604 -4.585 1.330 2348
5.819 -4.760 1.354 2868
5.816 -4.758 1.330 2070
6.224 -5.092 1.391 2333
5.803 -4.747 1.283 2291
6.235 -5.101 1.345 2192
6.226 -5.093 1.320 1944
5.816 -4.758 1.219 1900
6.565 -5.371 1.334 2110
6.568 -5.373 1.309 2657
6.831 -5.589 1.331 2574
6.828 -5.586 1.304 4010
6.830 -5.588 1.278 5002
6.833 -5.590 1.253 4666
6.829 -5.587 1.226 3673
6.838 -5.594 1.201 3330
6.840 -5.596 1.176 3203
6.843 -5.598 1.150 2443
6.851 -5.605 1.125 1910
7.024 -5.746 1.124 1549
7.044 -5.763 1.100 1167
7.065 -5.779 1.076 863
7.073 -5.786 1.050 909
7.075 -5.788 1.024 805
7.077 -5.789 0.997 645
7.079 -5.791 0.971 444
2.041 -1.670 0.330 266
2.042 -1.670 0.322 349
2.042 -1.671 0.315 335
0.961 -0.786 0.210 342
0.961 -0.786 0.206 424
0.961 -0.786 0.203 472
0.961 -0.786 0.199 536
2.032 -1.663 0.261 625
2.033 -1.663 0.254 894
2.033 -1.663 0.246 1088
2.033 -1.663 0.239 1207
2.033 -1.663 0.231 1338
2.033 -1.664 0.224 1440
2.040 -1.669 0.217 1603
2.034 -1.664 0.209 2063
2.028 -1.659 0.201 2438
2.034 -1.664 0.194 2768
2.034 -1.664 0.186 3122
2.034 -1.664 0.179 3121
2.034 -1.664 0.171 2729
2.041 -1.669 0.164 1978
2.041 -1.669 0.156 1567
2.034 -1.664 0.149 1202
2.034 -1.664 0.141 846
2.034 -1.664 0.134 580
1.802 -1.474 0.128 365
1.802 -1.474 0.121 271
1.698 -1.391 1.694 3193
1.701 -1.393 1.688 6386
1.705 -1.396 1.682 6386
1.708 -1.399 1.675 5767
1.707 -1.398 1.665 5166
1.715 -1.405 1.663 7457
1.718 -1.408 1.656 9767
1.722 -1.410 1.650 10968
1.730 -1.417 1.648 12274
1.739 -1.424 1.646 12748
1.752 -1.435 1.649 9749
1.761 -1.442 1.647 7303
1.779 -1.458 1.654 8033
1.783 -1.460 1.647 9345
1.791 -1.467 1.645 8534
1.800 -1.474 1.643 8058
1.839 -1.506 1.667 6365
1.853 -1.518 1.668 7468
1.856 -1.520 1.662 9216
1.865 -1.527 1.659 9080
1.878 -1.539 1.661 9513
1.903 -1.558 1.671 8677
1.911 -1.566 1.668 9040
1.920 -1.573 1.665 7848
1.928 -1.580 1.662 6874
1.937 -1.587 1.659 6391
1.951 -1.598 1.660 6561
1.949 -1.597 1.649 6624
1.942 -1.591 1.634 7244
1.961 -1.606 1.639 7663
1.970 -1.614 1.636 9080
1.984 -1.625 1.636 7309
2.008 -1.645 1.645 7716
2.017 -1.652 1.642 5781
2.068 -1.694 1.670 2747
2.076 -1.701 1.667 3686
2.096 -1.717 1.671 4127
2.099 -1.720 1.663 4236
2.108 -1.727 1.659 4097
2.122 -1.738 1.659 4353
2.147 -1.759 1.667 5909
2.150 -1.761 1.659 7138
2.164 -1.773 1.659 5876
2.205 -1.807 1.677 4269
2.225 -1.823 1.681 4992
2.234 -1.830 1.676 4604
2.178 -1.784 1.627 5621
2.181 -1.787 1.618 6192
2.212 -1.812 1.629 5952
2.231 -1.828 1.632 7190
2.235 -1.831 1.624 6792
2.244 -1.838 1.619 5004
2.285 -1.872 1.636 4618
2.288 -1.874 1.628 5689
2.297 -1.882 1.623 6599
2.300 -1.884 1.614 6445
2.304 -1.887 1.606 5289
2.340 -1.917 1.618 4872
2.420 -1.983 1.659 6344
2.418 -1.981 1.646 7342
2.399 -1.966 1.623 11246
2.403 -1.968 1.615 12496
2.412 -1.976 1.609 10900
2.432 -1.992 1.610 12372
2.440 -1.999 1.605 16649
2.449 -2.006 1.599 17812
2.453 -2.009 1.590 13690
2.534 -2.075 1.627 12370
2.520 -2.065 1.608 15898
2.524 -2.067 1.599 21542
2.532 -2.074 1.592 24019
2.536 -2.077 1.583 24274
2.539 -2.080 1.574 19440
2.537 -2.078 1.561 13208
2.545 -2.085 1.555 8617
2.667 -2.184 1.612 8379
2.681 -2.196 1.608 8525
2.690 -2.204 1.601 6259
2.693 -2.206 1.591 4034
2.714 -2.223 1.590 5382
2.706 -2.216 1.574 7356
2.782 -2.279 1.603 9021
2.786 -2.282 1.593 12197
2.795 -2.289 1.586 14886
2.798 -2.292 1.575 16408
2.807 -2.299 1.568 11882
2.844 -2.330 1.575 8751
2.853 -2.337 1.567 8890
2.828 -2.316 1.542 6610
2.837 -2.324 1.534 8337
2.851 -2.336 1.530 8066
2.975 -2.437 1.578 8110
2.978 -2.439 1.567 9904
2.987 -2.447 1.559 7642
3.082 -2.525 1.591 5345
2.970 -2.433 1.525 3702
2.985 -2.445 1.520 2424
3.074 -2.518 1.549 4434
3.083 -2.526 1.540 6553
3.092 -2.533 1.531 4472
3.107 -2.545 1.525 2331
3.104 -2.543 1.511 3413
3.101 -2.541 1.497 3361
3.093 -2.534 1.480 2468
2.841 -2.327 1.357 1638
3.029 -2.481 1.427 2080
3.026 -2.479 1.413 2009
2.855 -2.338 1.328 2112
3.049 -2.498 1.398 3151
3.052 -2.500 1.387 2839
2.857 -2.340 1.294 1610
3.128 -2.562 1.392 1629
3.125 -2.560 1.378 1696
3.139 -2.572 1.371 1729
3.154 -2.584 1.364 1955
3.168 -2.595 1.357 1618
3.183 -2.607 1.350 1665
3.180 -2.605 1.336 2811
3.182 -2.607 1.324 3702
3.185 -2.609 1.312 2504
3.211 -2.631 1.309 1585
3.220 -2.638 1.299 1499
3.228 -2.645 1.289 1608
4.034 -3.304 1.564 1653
4.043 -3.312 1.551 2433
4.034 -3.305 1.531 3943
4.037 -3.307 1.516 4299
4.058 -3.324 1.507 4184
4.067 -3.332 1.494 5273
4.070 -3.334 1.479 4494
4.251 -3.483 1.522 3122
4.260 -3.490 1.508 3499
4.353 -3.565 1.521 4279
4.362 -3.573 1.506 5737
4.371 -3.580 1.492 5355
4.374 -3.583 1.476 4980
4.377 -3.585 1.459 4945
4.374 -3.583 1.441 4132
4.377 -3.585 1.425 3148
4.517 -3.700 1.449 2347
4.574 -3.747 1.447 2741
4.642 -3.803 1.449 4129
4.663 -3.820 1.436 4746
4.666 -3.822 1.419 3582
4.933 -4.041 1.474 2853
4.846 -3.969 1.431 2430
4.939 -4.046 1.437 2706
4.942 -4.048 1.418 3854
4.938 -4.045 1.398 3490
5.146 -4.215 1.431 2963
5.154 -4.222 1.414 2943
5.151 -4.220 1.393 3049
5.154 -4.222 1.373 2984
5.211 -4.269 1.367 3080
5.208 -4.266 1.346 2497
5.596 -4.584 1.415 2604
5.485 -4.493 1.368 2768
5.608 -4.594 1.375 3177
5.617 -4.601 1.355 3516
5.602 -4.589 1.330 2221
5.810 -4.759 1.352 3089
5.812 -4.761 1.330 2311
6.221 -5.096 1.391 2322
6.229 -5.103 1.369 2201
6.232 -5.105 1.345 2127
6.223 -5.097 1.320 1940
5.813 -4.762 1.219 1865
6.561 -5.375 1.334 2130
6.564 -5.377 1.309 2523
6.828 -5.593 1.331 2521
6.824 -5.590 1.304 3876
6.833 -5.597 1.279 4712
6.829 -5.594 1.253 4295
6.826 -5.591 1.226 3379
6.834 -5.598 1.201 3115
6.837 -5.600 1.176 2964
6.839 -5.602 1.150 2240
6.999 -5.734 1.147 2092
7.014 -5.745 1.123 1718
7.040 -5.767 1.100 1215
7.061 -5.784 1.076 905
7.069 -5.791 1.050 988
7.071 -5.792 1.024 876
7.067 -5.789 0.996 700
7.075 -5.796 0.971 478
2.041 -1.672 0.315 253
2.035 -1.667 0.307 261
2.030 -1.663 0.299 262
0.960 -0.786 0.210 299
0.960 -0.787 0.206 382
0.960 -0.787 0.203 431
0.961 -0.787 0.199 480
0.961 -0.787 0.196 500
0.961 -0.787 0.192 491
0.961 -0.787 0.189 478
0.961 -0.787 0.185 408
2.038 -1.670 0.232 528
2.038 -1.670 0.224 678
2.039 -1.670 0.217 700
2.045 -1.675 0.209 703
2.045 -1.675 0.202 713
2.045 -1.675 0.194 809
2.039 -1.670 0.186 931
2.039 -1.671 0.179 964
2.039 -1.671 0.171 847
1.813 -1.485 0.161 574
1.813 -1.485 0.154 593
1.813 -1.485 0.148 613
1.813 -1.485 0.141 551
1.813 -1.485 0.134 378
1.819 -1.490 0.128 268
2.039 -1.671 0.119 261
2.039 -1.671 0.111 266
1.696 -1.392 1.694 3146
1.700 -1.395 1.688 6293
1.703 -1.398 1.682 6293
1.707 -1.401 1.675 5619
1.710 -1.404 1.669 4945
1.714 -1.407 1.663 7565
1.717 -1.409 1.656 10186
1.720 -1.412 1.650 11498
1.729 -1.419 1.648 12963
1.737 -1.426 1.646 13436
1.746 -1.433 1.644 10210
1.754 -1.440 1.642 7533
1.768 -1.451 1.645 7953
1.776 -1.458 1.643 9060
1.790 -1.469 1.645 8330
1.798 -1.476 1.643 7931
1.837 -1.508 1.667 6275
1.851 -1.519 1.668 7262
1.855 -1.522 1.662 8869
1.863 -1.529 1.659 8707
1.877 -1.541 1.661 9195
1.901 -1.560 1.671 8792
1.910 -1.567 1.668 9234
1.913 -1.570 1.661 7947
1.922 -1.577 1.658 6855
1.935 -1.589 1.659 6256
1.949 -1.600 1.660 6434
1.948 -1.599 1.649 6542
1.940 -1.593 1.634 7225
1.960 -1.608 1.639 7703
1.968 -1.615 1.636 9140
1.982 -1.627 1.636 7328
2.006 -1.647 1.645 7735
2.010 -1.650 1.638 5798
2.055 -1.687 1.662 2973
2.070 -1.699 1.663 4056
2.094 -1.719 1.671 4188
2.098 -1.722 1.663 4246
2.106 -1.729 1.659 4078
2.120 -1.740 1.659 4255
2.140 -1.756 1.663 5626
2.149 -1.764 1.659 6812
2.163 -1.775 1.659 5708
2.198 -1.804 1.674 4370
2.223 -1.825 1.681 5075
2.232 -1.832 1.676 4745
2.176 -1.786 1.627 5657
2.185 -1.793 1.622 6291
2.215 -1.818 1.633 6255
2.230 -1.830 1.632 7536
2.233 -1.833 1.624 6974
2.242 -1.840 1.619 4980
2.283 -1.874 1.636 4494
2.286 -1.877 1.628 5455
2.295 -1.884 1.623 6390
2.299 -1.887 1.614 6389
2.313 -1.898 1.613 5357
2.338 -1.919 1.618 4915
2.418 -1.985 1.659 6743
2.416 -1.983 1.646 7521
2.398 -1.968 1.623 11129
2.401 -1.971 1.615 12516
2.410 -1.978 1.609 11112
2.424 -1.990 1.607 12528
2.438 -2.001 1.605 16874
2.447 -2.009 1.599 18233
2.451 -2.011 1.590 14087
2.532 -2.078 1.627 12213
2.518 -2.067 1.608 15308
2.522 -2.070 1.599 20645
2.530 -2.077 1.592 23007
2.534 -2.080 1.583 23169
2.537 -2.082 1.574 18415
2.535 -2.080 1.561 12266
2.543 -2.088 1.555 7675
2.659 -2.182 1.608 7805
2.679 -2.199 1.608 7401
2.694 -2.211 1.604 5740
2.691 -2.209 1.591 4004
2.711 -2.226 1.590 5502
2.703 -2.219 1.574 7459
2.780 -2.282 1.603 9000
2.783 -2.285 1.593 12056
2.792 -2.292 1.586 14626
2.796 -2.295 1.575 16155
2.805 -2.302 1.568 11624
2.842 -2.333 1.575 8062
2.856 -2.345 1.570 8682
2.848 -2.338 1.554 6243
2.834 -2.326 1.534 7537
2.895 -2.376 1.552 7283
2.972 -2.440 1.578 7708
2.975 -2.442 1.567 9434
2.979 -2.445 1.556 7464
3.074 -2.523 1.589 5529
2.968 -2.436 1.525 3997
2.982 -2.448 1.520 2670
3.066 -2.517 1.546 4273
3.075 -2.524 1.537 6536
3.090 -2.536 1.531 4363
3.104 -2.548 1.525 2371
3.102 -2.546 1.511 3549
3.099 -2.544 1.497 3579
3.096 -2.541 1.483 2656
2.838 -2.330 1.357 1707
3.027 -2.484 1.427 2138
3.024 -2.482 1.413 2169
3.033 -2.489 1.404 2196
3.047 -2.501 1.398 3207
3.050 -2.503 1.387 2899
2.854 -2.343 1.294 1998
3.120 -2.561 1.390 1776
3.122 -2.563 1.378 1886
3.131 -2.570 1.369 1841
3.146 -2.582 1.362 1967
3.166 -2.599 1.357 1568
3.180 -2.610 1.350 1644
3.177 -2.608 1.336 2871
3.180 -2.610 1.324 3790
3.183 -2.612 1.312 2606
3.203 -2.629 1.307 1617
4.030 -3.308 1.596 1502
3.974 -3.262 1.559 1658
4.031 -3.308 1.564 1701
4.046 -3.321 1.553 2439
4.031 -3.309 1.531 3432
4.040 -3.316 1.518 4008
4.061 -3.333 1.509 4451
4.064 -3.336 1.494 5009
4.067 -3.338 1.479 4164
4.242 -3.482 1.520 3262
4.257 -3.494 1.508 3434
4.349 -3.570 1.521 4200
4.358 -3.577 1.506 5586
4.367 -3.585 1.492 5215
4.370 -3.587 1.476 4901
4.373 -3.590 1.459 4922
4.370 -3.587 1.441 3936
4.480 -3.678 1.457 3136
4.513 -3.704 1.449 2343
4.570 -3.751 1.447 2820
4.639 -3.807 1.449 4279
4.660 -3.825 1.436 4958
4.662 -3.827 1.419 3640
4.929 -4.045 1.474 2832
4.842 -3.974 1.431 2474
4.935 -4.050 1.437 2632
4.938 -4.053 1.418 3851
4.928 -4.045 1.396 3570
5.147 -4.225 1.433 2901
5.150 -4.227 1.414 2872
5.147 -4.225 1.393 2986
5.150 -4.227 1.373 2847
5.213 -4.279 1.368 3150
5.204 -4.271 1.346 2411
5.598 -4.595 1.417 2641
5.595 -4.592 1.394 2618
5.610 -4.604 1.376 3135
5.618 -4.612 1.356 3555
5.808 -4.767 1.375 2285
5.805 -4.765 1.352 3293
5.808 -4.767 1.330 2504
6.216 -5.102 1.391 2257
6.224 -5.109 1.369 2104
6.227 -5.111 1.345 2044
6.218 -5.103 1.320 1925
5.809 -4.768 1.219 1867
6.556 -5.381 1.334 2165
6.559 -5.383 1.309 2398
6.822 -5.600 1.331 2404
6.819 -5.597 1.304 3640
6.827 -5.604 1.279 4405
6.824 -5.601 1.253 4013
6.820 -5.598 1.226 3168
6.829 -5.605 1.201 2919
6.831 -5.607 1.176 2756
6.973 -5.724 1.171 2117
6.994 -5.741 1.147 2284
7.008 -5.752 1.123 1849
7.035 -5.774 1.100 1265
7.055 -5.791 1.076 926
7.063 -5.798 1.050 1024
7.065 -5.799 1.024 916
7.067 -5.801 0.997 735
7.069 -5.802 0.971 502
2.039 -1.674 0.322 346
2.039 -1.674 0.315 362
2.034 -1.669 0.307 282
0.959 -0.787 0.210 252
0.959 -0.788 0.206 329
0.960 -0.788 0.203 369
0.960 -0.788 0.199 406
0.960 -0.788 0.196 422
0.960 -0.788 0.192 415
0.960 -0.788 0.189 409
2.030 -1.666 0.239 476
2.031 -1.667 0.231 953
2.031 -1.667 0.224 1322
2.031 -1.667 0.216 1549
2.031 -1.667 0.209 1747
2.031 -1.667 0.201 1770
2.031 -1.667 0.194 1707
2.031 -1.667 0.186 1639
2.032 -1.667 0.179 1636
2.032 -1.668 0.171 1604
2.032 -1.668 0.164 1461
2.032 -1.668 0.156 1355
2.032 -1.668 0.149 1141
2.032 -1.668 0.141 921
2.032 -1.668 0.134 736
2.032 -1.668 0.126 549
2.032 -1.668 0.119 459
2.038 -1.673 0.111 297
1.695 -1.394 1.694 3079
1.698 -1.397 1.688 6159
1.702 -1.400 1.682 6159
1.705 -1.403 1.675 5449
1.709 -1.405 1.669 4739
1.712 -1.408 1.663 7668
1.716 -1.411 1.656 10597
1.719 -1.414 1.650 12000
1.727 -1.421 1.648 13611
1.736 -1.428 1.646 14082
1.744 -1.435 1.644 10711
1.753 -1.442 1.642 7825
1.761 -1.449 1.640 7859
1.775 -1.460 1.643 8719
1.788 -1.471 1.645 8130
1.797 -1.478 1.643 7850
1.836 -1.510 1.667 6152
1.850 -1.521 1.668 7039
1.853 -1.524 1.662 8510
1.862 -1.531 1.659 8363
1.875 -1.543 1.661 8901
1.899 -1.562 1.671 8806
1.908 -1.569 1.668 9270
1.911 -1.572 1.661 7946
1.920 -1.579 1.658 6753
1.934 -1.591 1.659 6001
1.948 -1.602 1.660 6179
1.946 -1.601 1.649 6327
1.939 -1.595 1.634 7166
1.958 -1.610 1.639 7661
1.966 -1.618 1.636 9153
1.980 -1.629 1.636 7338
2.005 -1.649 1.645 7777
2.008 -1.652 1.638 5826
2.054 -1.689 1.662 3091
2.068 -1.701 1.663 4225
2.087 -1.717 1.667 4231
2.096 -1.724 1.663 4267
2.099 -1.727 1.655 4120
2.113 -1.738 1.655 4167
2.138 -1.759 1.663 5360
2.147 -1.766 1.659 6501
2.161 -1.777 1.659 5534
2.196 -1.807 1.674 4433
2.221 -1.827 1.681 5114
2.230 -1.834 1.676 4869
2.174 -1.789 1.627 5762
2.183 -1.796 1.622 6473
2.214 -1.821 1.633 6615
2.228 -1.832 1.632 7814
2.231 -1.835 1.624 7069
2.240 -1.842 1.619 4960
2.276 -1.872 1.632 4510
2.285 -1.879 1.628 5371
2.293 -1.886 1.623 6271
2.297 -1.889 1.614 6357
2.311 -1.901 1.613 5426
2.407 -1.980 1.664 4897
2.416 -1.987 1.659 7012
2.414 -1.986 1.646 7654
2.395 -1.970 1.623 10982
2.399 -1.973 1.615 12483
2.408 -1.980 1.609 11359
2.422 -1.992 1.607 12880
2.436 -2.004 1.605 17195
2.440 -2.007 1.596 18793
2.448 -2.014 1.590 14628
2.529 -2.081 1.627 11886
2.516 -2.070 1.608 14780
2.519 -2.072 1.599 19685
2.528 -2.080 1.592 21699
2.532 -2.082 1.583 21823
2.535 -2.085 1.574 17400
2.532 -2.083 1.561 11460
2.541 -2.090 1.555 7394
2.651 -2.181 1.605 7399
2.677 -2.202 1.608 6423
2.691 -2.214 1.604 5369
2.689 -2.212 1.591 4014
2.709 -2.228 1.590 5490
2.701 -2.222 1.574 7441
2.778 -2.285 1.603 8858
2.781 -2.288 1.593 11763
2.790 -2.295 1.586 14241
2.793 -2.298 1.575 15899
2.802 -2.305 1.568 11523
2.822 -2.322 1.566 7669
2.854 -2.348 1.570 8331
2.846 -2.341 1.554 5889
2.832 -2.329 1.534 6704
2.892 -2.379 1.552 7191
2.970 -2.443 1.578 7265
2.973 -2.445 1.567 8905
2.976 -2.448 1.556 7262
3.071 -2.526 1.589 5705
2.971 -2.444 1.528 4278
2.980 -2.451 1.520 2921
3.063 -2.520 1.546 4223
3.072 -2.527 1.537 6506
3.087 -2.539 1.531 4273
3.102 -2.551 1.525 2468
3.099 -2.549 1.511 3717
3.096 -2.547 1.497 3774
3.094 -2.545 1.483 2827
3.021 -2.485 1.438 1662
3.024 -2.488 1.427 2397
3.021 -2.485 1.413 2448
3.024 -2.487 1.402 2431
3.044 -2.504 1.398 3301
3.047 -2.506 1.387 3014
2.852 -2.346 1.294 2067
3.117 -2.564 1.390 1934
3.120 -2.566 1.378 2047
3.128 -2.573 1.369 1930
3.143 -2.585 1.362 1993
3.157 -2.597 1.355 1539
3.172 -2.609 1.347 1584
3.174 -2.611 1.336 2869
3.177 -2.613 1.324 3796
3.180 -2.616 1.312 2684
3.200 -2.632 1.307 1662
4.026 -3.312 1.596 1520
3.977 -3.271 1.562 1758
4.027 -3.312 1.564 1780
4.048 -3.330 1.555 2541
4.028 -3.313 1.531 2944
4.037 -3.320 1.518 3703
4.057 -3.337 1.509 4533
4.060 -3.340 1.494 4402
4.058 -3.338 1.477 3728
4.244 -3.491 1.522 3433
4.253 -3.499 1.508 3450
4.345 -3.574 1.521 4091
4.354 -3.582 1.506 5403
4.363 -3.589 1.492 5094
4.366 -3.592 1.476 4845
4.369 -3.594 1.459 4793
4.366 -3.592 1.441 3661
4.477 -3.682 1.457 3228
4.551 -3.744 1.461 2608
4.560 -3.751 1.445 2922
4.641 -3.817 1.451 4329
4.656 -3.829 1.436 5148
4.658 -3.832 1.419 3654
4.919 -4.046 1.472 2734
4.838 -3.979 1.431 2491
4.930 -4.056 1.437 2519
4.933 -4.058 1.418 3846
4.924 -4.050 1.396 3687
5.143 -4.230 1.433 2847
5.146 -4.233 1.414 2771
5.137 -4.225 1.391 2849
5.146 -4.232 1.373 2593
5.208 -4.284 1.368 3106
5.205 -4.282 1.348 2315
5.593 -4.601 1.417 2660
5.596 -4.603 1.396 2595
5.605 -4.610 1.376 3073
5.620 -4.622 1.358 3514
5.737 -4.719 1.361 2586
5.800 -4.771 1.352 3491
5.797 -4.768 1.329 2720
6.210 -5.108 1.391 2148
6.219 -5.115 1.369 1941
6.216 -5.113 1.344 1881
6.212 -5.110 1.320 1865
5.804 -4.774 1.219 1877
6.551 -5.388 1.334 2157
6.553 -5.390 1.309 2237
6.816 -5.607 1.331 2275
6.813 -5.604 1.304 3391
6.822 -5.611 1.279 4051
6.818 -5.608 1.253 3671
6.814 -5.605 1.226 2885
6.823 -5.612 1.201 2664
6.825 -5.614 1.176 2507
6.967 -5.731 1.171 2257
6.988 -5.748 1.147 2434
7.002 -5.760 1.123 1961
6.907 -5.681 1.083 1330
7.049 -5.798 1.076 955
7.057 -5.805 1.050 1063
7.059 -5.807 1.024 944
7.061 -5.808 0.997 755
7.063 -5.810 0.971 516
7.083 -5.826 0.946 255
0.959 -0.789 0.206 296
0.959 -0.789 0.203 330
0.959 -0.789 0.199 357
0.959 -0.789 0.196 373
0.959 -0.789 0.192 370
2.028 -1.668 0.246 583
2.035 -1.674 0.239 824
2.029 -1.669 0.231 1278
2.029 -1.669 0.224 1581
2.029 -1.669 0.216 1697
2.029 -1.669 0.209 1656
2.023 -1.664 0.201 1558
2.023 -1.664 0.194 1519
2.030 -1.670 0.186 1619
2.030 -1.670 0.179 1743
2.030 -1.670 0.171 1745
2.030 -1.670 0.164 1623
2.030 -1.670 0.156 1501
2.030 -1.670 0.149 1262
2.030 -1.670 0.141 1020
2.030 -1.670 0.134 763
2.024 -1.665 0.126 497
2.024 -1.665 0.119 355
1.694 -1.395 1.694 2967
1.697 -1.398 1.688 5935
1.701 -1.401 1.682 5935
1.704 -1.404 1.675 5221
1.708 -1.406 1.669 4507
1.711 -1.409 1.663 7711
1.715 -1.412 1.656 10914
1.718 -1.415 1.650 12411
1.727 -1.422 1.648 14165
1.735 -1.429 1.646 14623
1.743 -1.436 1.644 11157
1.752 -1.443 1.642 8108
1.760 -1.450 1.640 7846
1.774 -1.461 1.643 8365
1.787 -1.472 1.645 7855
1.796 -1.479 1.643 7667
1.835 -1.511 1.667 6050
1.849 -1.522 1.668 6812
1.852 -1.525 1.662 8124
1.861 -1.532 1.659 7963
1.880 -1.548 1.665 8550
1.898 -1.563 1.671 8831
1.907 -1.570 1.668 9357
1.911 -1.573 1.661 8007
1.919 -1.580 1.658 6682
1.933 -1.592 1.659 5755
1.947 -1.603 1.660 5926
1.945 -1.602 1.649 6079
1.938 -1.596 1.634 6957
1.957 -1.612 1.639 7574
1.966 -1.619 1.636 9122
1.979 -1.630 1.636 7331
2.004 -1.650 1.645 7825
2.007 -1.653 1.638 5872
2.053 -1.690 1.662 3233
2.067 -1.702 1.663 4405
2.086 -1.718 1.667 4249
2.095 -1.725 1.663 4239
2.098 -1.728 1.655 4113
2.112 -1.739 1.655 4080
2.137 -1.760 1.663 5008
2.146 -1.767 1.659 6075
2.160 -1.779 1.659 5262
2.195 -1.808 1.674 4458
2.220 -1.828 1.681 5106
2.229 -1.836 1.676 4977
2.173 -1.790 1.627 5955
2.188 -1.801 1.626 6812
2.212 -1.822 1.633 7044
2.227 -1.834 1.632 8139
2.230 -1.836 1.624 7238
2.239 -1.844 1.619 4983
2.275 -1.873 1.632 4510
2.278 -1.876 1.624 5265
2.292 -1.888 1.623 6157
2.301 -1.895 1.618 6374
2.304 -1.898 1.609 5477
2.401 -1.977 1.661 5088
2.410 -1.984 1.655 7297
2.413 -1.987 1.646 7804
2.394 -1.972 1.623 10916
2.403 -1.979 1.618 12559
2.407 -1.982 1.609 11679
2.421 -1.994 1.607 13170
2.435 -2.005 1.605 17244
2.439 -2.008 1.596 19087
2.447 -2.015 1.590 14948
2.528 -2.082 1.627 11870
2.515 -2.071 1.608 14535
2.518 -2.074 1.599 19208
2.527 -2.081 1.592 20971
2.530 -2.084 1.583 20656
2.534 -2.086 1.574 16082
2.531 -2.084 1.561 10456
2.646 -2.179 1.615 7152
2.650 -2.182 1.605 7427
2.659 -2.189 1.599 6191
2.696 -2.220 1.607 5338
2.688 -2.213 1.591 4229
2.708 -2.230 1.590 5435
2.700 -2.223 1.574 7335
2.776 -2.286 1.603 8607
2.780 -2.289 1.593 11373
2.783 -2.292 1.583 13795
2.792 -2.299 1.575 15479
2.795 -2.302 1.565 11446
2.815 -2.318 1.563 7553
2.853 -2.349 1.570 7922
2.856 -2.352 1.559 5517
2.831 -2.331 1.534 5878
2.891 -2.381 1.552 6988
2.968 -2.444 1.578 6715
2.971 -2.447 1.567 8215
2.975 -2.450 1.556 6994
3.070 -2.528 1.589 5870
2.970 -2.445 1.528 4494
2.978 -2.453 1.520 3009
3.056 -2.517 1.543 4226
3.071 -2.529 1.537 6483
3.086 -2.541 1.531 4224
3.100 -2.553 1.525 2580
3.098 -2.551 1.511 3893
3.095 -2.549 1.497 4011
3.092 -2.546 1.483 3001
3.020 -2.487 1.438 1709
3.017 -2.484 1.424 2447
3.014 -2.482 1.411 2637
3.017 -2.484 1.399 2730
3.043 -2.506 1.398 3300
3.046 -2.508 1.387 2987
2.851 -2.347 1.294 2108
3.116 -2.566 1.390 2049
3.118 -2.568 1.378 2175
3.127 -2.575 1.369 1996
3.136 -2.582 1.360 2004
3.150 -2.594 1.352 1504
3.159 -2.601 1.343 1591
3.167 -2.608 1.333 2879
3.176 -2.615 1.324 3784
3.178 -2.617 1.312 2741
3.193 -2.629 1.304 1680
4.025 -3.314 1.596 1519
3.975 -3.273 1.562 1782
3.984 -3.281 1.549 1867
4.046 -3.332 1.555 2716
4.037 -3.325 1.535 2577
4.046 -3.332 1.522 3567
4.061 -3.345 1.511 4597
4.053 -3.337 1.492 3908
4.056 -3.340 1.477 3249
4.242 -3.494 1.522 3488
4.251 -3.501 1.508 3577
4.343 -3.577 1.521 3902
4.352 -3.584 1.506 5038
4.361 -3.592 1.492 4770
4.364 -3.594 1.476 4602
4.367 -3.597 1.459 4587
4.364 -3.594 1.441 3401
4.475 -3.685 1.457 3335
4.549 -3.746 1.461 2852
4.558 -3.753 1.445 2974
4.644 -3.825 1.452 4301
4.653 -3.832 1.436 5115
4.656 -3.834 1.419 3594
4.916 -4.049 1.472 2622
4.835 -3.982 1.431 2451
4.928 -4.058 1.437 2374
4.931 -4.061 1.418 3774
4.922 -4.053 1.396 3755
5.147 -4.238 1.434 2794
5.132 -4.226 1.411 2627
5.134 -4.228 1.391 2754
5.209 -4.290 1.389 2639
5.206 -4.287 1.368 3083
5.203 -4.285 1.348 2176
5.597 -4.609 1.418 2674
5.599 -4.611 1.397 2606
5.608 -4.618 1.377 3057
5.617 -4.626 1.358 3528
5.734 -4.722 1.361 2882
5.797 -4.774 1.352 3672
5.794 -4.771 1.329 2946
6.207 -5.112 1.391 2000
6.216 -5.119 1.369 1744
6.213 -5.116 1.344 1705
6.209 -5.114 1.320 1773
5.801 -4.777 1.219 1875
6.547 -5.392 1.334 2109
6.550 -5.394 1.309 2080
6.813 -5.611 1.331 2097
6.810 -5.608 1.304 3119
6.818 -5.615 1.279 3694
6.815 -5.612 1.253 3317
6.817 -5.614 1.227 2593
6.820 -5.616 1.201 2381
6.901 -5.683 1.188 2706
6.964 -5.735 1.171 2422
6.985 -5.752 1.147 2582
6.993 -5.759 1.122 2065
6.904 -5.685 1.083 1486
7.046 -5.802 1.076 959
7.054 -5.809 1.050 1079
7.056 -5.811 1.024 977
7.058 -5.812 0.997 791
7.060 -5.814 0.971 539
7.080 -5.830 0.946 265
2.036 -1.677 0.330 252
2.036 -1.677 0.322 305
2.031 -1.672 0.314 268
0.958 -0.789 0.203 264
0.958 -0.789 0.199 287
2.033 -1.674 0.262 347
2.033 -1.674 0.254 773
2.040 -1.680 0.247 1056
2.040 -1.680 0.239 1127
2.040 -1.680 0.232 978
2.046 -1.685 0.225 983
2.040 -1.680 0.217 1446
2.034 -1.675 0.209 2243
2.035 -1.676 0.201 2759
2.035 -1.676 0.194 2907
2.035 -1.676 0.186 2818
2.035 -1.676 0.179 2581
2.035 -1.676 0.171 2110
2.035 -1.676 0.164 1274
2.029 -1.671 0.156 932
2.029 -1.671 0.149 727
2.029 -1.671 0.141 522
2.035 -1.676 0.134 395
2.035 -1.676 0.126 262
1.693 -1.397 1.694 2853
1.696 -1.400 1.688 5707
1.700 -1.402 1.682 5707
1.703 -1.405 1.675 4989
1.711 -1.412 1.674 4291
1.715 -1.415 1.667 7742
1.718 -1.418 1.661 11193
1.722 -1.421 1.655 12768
1.725 -1.424 1.648 14649
1.734 -1.431 1.646 15085
1.742 -1.438 1.644 11571
1.750 -1.444 1.642 8404
1.754 -1.447 1.636 7857
1.772 -1.463 1.643 8050
1.786 -1.474 1.645 7644
1.794 -1.481 1.643 7550
1.834 -1.513 1.667 5933
1.847 -1.524 1.668 6551
1.851 -1.527 1.662 7660
1.859 -1.534 1.659 7514
1.893 -1.562 1.678 8338
1.897 -1.565 1.671 8857
1.905 -1.572 1.668 9441
1.909 -1.575 1.661 8063
1.912 -1.578 1.654 6685
1.931 -1.594 1.659 5527
1.950 -1.609 1.665 5766
1.949 -1.608 1.653 5833
1.936 -1.598 1.634 6743
1.955 -1.614 1.639 7425
1.964 -1.621 1.636 8997
1.983 -1.636 1.641 7284
2.002 -1.652 1.645 7836
2.006 -1.655 1.638 5891
2.051 -1.693 1.662 3408
2.065 -1.704 1.663 4632
2.084 -1.720 1.667 4295
2.088 -1.723 1.659 4215
2.096 -1.730 1.655 4068
2.111 -1.742 1.655 3968
2.130 -1.758 1.659 4748
2.144 -1.769 1.659 5712
2.158 -1.781 1.659 5043
2.194 -1.810 1.674 4527
2.218 -1.831 1.681 5141
2.227 -1.838 1.676 5138
2.172 -1.792 1.627 6175
2.191 -1.808 1.630 7250
2.211 -1.824 1.633 7575
2.225 -1.836 1.632 8551
2.228 -1.839 1.624 7482
2.237 -1.846 1.619 5019
2.267 -1.871 1.629 4611
2.276 -1.878 1.624 5208
2.290 -1.890 1.623 5932
2.299 -1.897 1.618 6227
2.302 -1.900 1.609 5415
2.399 -1.979 1.661 5389
2.408 -1.987 1.655 7642
2.411 -1.990 1.646 7984
2.392 -1.974 1.623 10872
2.401 -1.981 1.618 12784
2.405 -1.984 1.609 12124
2.419 -1.996 1.607 13685
2.428 -2.003 1.601 17514
2.436 -2.011 1.596 19565
2.445 -2.018 1.590 15404
2.526 -2.085 1.627 11320
2.513 -2.074 1.608 13792
2.516 -2.076 1.599 18097
2.525 -2.084 1.592 19602
2.528 -2.086 1.583 19132
2.531 -2.089 1.574 14537
2.529 -2.087 1.561 8989
2.644 -2.182 1.615 7255
2.647 -2.185 1.605 7459
2.651 -2.187 1.595 6434
2.693 -2.223 1.607 5426
2.685 -2.216 1.591 4471
2.706 -2.233 1.590 5305
2.698 -2.226 1.574 7169
2.774 -2.289 1.603 8269
2.777 -2.292 1.593 10872
2.781 -2.295 1.583 13321
2.790 -2.302 1.575 15063
2.793 -2.305 1.565 11345
2.807 -2.317 1.560 7559
2.856 -2.357 1.573 7591
2.871 -2.369 1.568 5388
2.879 -2.376 1.560 5522
2.888 -2.383 1.552 6742
2.966 -2.447 1.578 6274
2.969 -2.450 1.567 7719
2.972 -2.453 1.556 6905
3.067 -2.531 1.589 6078
2.967 -2.448 1.528 4529
2.982 -2.460 1.522 3031
3.054 -2.520 1.543 4296
3.068 -2.532 1.537 6528
3.083 -2.544 1.531 4211
3.098 -2.556 1.525 2732
3.095 -2.554 1.511 4073
3.092 -2.552 1.497 4153
3.090 -2.550 1.483 3079
3.012 -2.485 1.436 1853
3.014 -2.488 1.424 2662
3.012 -2.485 1.411 2932
3.014 -2.487 1.399 3056
3.035 -2.504 1.395 3329
3.043 -2.511 1.387 2995
2.848 -2.350 1.294 1984
3.107 -2.564 1.387 2243
3.116 -2.571 1.378 2323
3.124 -2.578 1.369 2070
3.133 -2.585 1.360 2030
3.142 -2.592 1.350 1490
3.150 -2.599 1.341 1615
3.164 -2.611 1.333 2842
3.173 -2.618 1.324 3732
3.176 -2.621 1.312 2781
3.184 -2.628 1.302 1686
4.021 -3.318 1.596 1540
3.972 -3.277 1.562 1881
3.981 -3.285 1.549 2174
4.049 -3.341 1.557 2990
4.040 -3.334 1.537 2549
4.049 -3.341 1.524 3690
4.058 -3.349 1.511 4314
4.049 -3.341 1.492 3039
4.230 -3.490 1.536 2853
4.239 -3.498 1.522 3430
4.248 -3.505 1.508 3485
4.340 -3.581 1.521 3723
4.349 -3.589 1.506 4735
4.453 -3.674 1.522 4699
4.361 -3.599 1.476 4155
4.364 -3.601 1.459 4172
4.361 -3.599 1.441 3134
4.465 -3.684 1.455 3403
4.539 -3.746 1.459 3099
4.548 -3.753 1.444 3065
4.647 -3.834 1.454 4386
4.649 -3.837 1.436 5111
4.652 -3.839 1.419 3521
4.912 -4.054 1.472 2502
4.831 -3.987 1.431 2386
4.840 -3.994 1.414 2284
4.927 -4.066 1.418 3646
4.918 -4.058 1.396 3737
5.148 -4.248 1.436 2857
5.127 -4.231 1.411 2559
5.130 -4.233 1.391 2616
5.205 -4.295 1.389 2661
5.202 -4.292 1.368 3041
5.198 -4.290 1.348 2070
5.592 -4.614 1.418 2652
5.595 -4.617 1.397 2640
5.610 -4.629 1.379 3068
5.618 -4.636 1.359 3524
5.730 -4.728 1.361 3168
5.793 -4.780 1.352 3770
5.789 -4.777 1.329 3109
6.202 -5.118 1.391 1890
6.307 -5.205 1.388 1675
6.208 -5.123 1.344 1574
6.204 -5.120 1.320 1681
5.802 -4.788 1.220 1948
6.542 -5.398 1.334 2050
6.545 -5.401 1.309 1910
6.807 -5.618 1.331 1984
6.804 -5.615 1.304 2947
6.813 -5.622 1.279 3415
6.809 -5.619 1.253 2976
6.884 -5.681 1.239 2392
6.887 -5.683 1.213 2579
6.895 -5.690 1.188 2904
6.958 -5.742 1.171 2549
6.979 -5.759 1.147 2711
6.987 -5.766 1.122 2165
6.898 -5.692 1.083 1630
6.900 -5.694 1.057 1012
7.048 -5.816 1.050 1080
7.050 -5.818 1.024 979
7.052 -5.819 0.997 790
7.054 -5.821 0.971 541
7.068 -5.833 0.945 275
0.958 -0.790 0.199 257
2.037 -1.681 0.262 375
2.038 -1.681 0.255 725
2.038 -1.682 0.247 1046
2.038 -1.682 0.239 1231
2.032 -1.677 0.232 1296
2.032 -1.677 0.224 1287
2.033 -1.677 0.217 1180
2.033 -1.677 0.209 982
2.033 -1.678 0.201 871
2.033 -1.678 0.194 729
2.039 -1.683 0.187 470
1.820 -1.502 0.175 488
1.820 -1.502 0.168 472
2.046 -1.688 0.164 464
2.040 -1.683 0.156 493
2.040 -1.683 0.149 414
2.040 -1.683 0.141 335
1.692 -1.398 1.694 2719
1.695 -1.401 1.688 5439
1.699 -1.404 1.682 5439
1.702 -1.406 1.675 4728
1.711 -1.413 1.674 4100
1.714 -1.416 1.667 7786
1.717 -1.419 1.661 11473
1.721 -1.422 1.655 13140
1.724 -1.425 1.648 15100
1.733 -1.432 1.646 15525
1.741 -1.439 1.644 11988
1.744 -1.441 1.638 8783
1.753 -1.448 1.636 7973
1.771 -1.464 1.643 7688
1.785 -1.475 1.645 7361
1.793 -1.482 1.643 7347
1.833 -1.514 1.667 5890
1.846 -1.525 1.668 6363
1.850 -1.528 1.662 7271
1.858 -1.535 1.659 7122
1.892 -1.564 1.678 8284
1.896 -1.567 1.671 8899
1.904 -1.574 1.668 9523
1.908 -1.576 1.661 8093
1.911 -1.579 1.654 6663
1.930 -1.595 1.659 5270
1.949 -1.611 1.665 5598
1.947 -1.609 1.653 5619
1.935 -1.599 1.634 6539
1.954 -1.615 1.639 7295
1.963 -1.622 1.636 8900
1.982 -1.638 1.641 7252
2.001 -1.653 1.645 7843
2.004 -1.656 1.638 5883
2.050 -1.694 1.662 3602
2.064 -1.705 1.663 4862
2.078 -1.717 1.663 4460
2.087 -1.724 1.659 4397
2.090 -1.727 1.651 4158
2.099 -1.734 1.648 3920
2.123 -1.755 1.655 4488
2.143 -1.771 1.659 5342
2.157 -1.782 1.659 4842
2.192 -1.812 1.674 4630
2.212 -1.828 1.677 5215
2.221 -1.835 1.672 5393
2.176 -1.798 1.630 6438
2.190 -1.810 1.630 7851
2.209 -1.826 1.633 8173
2.224 -1.837 1.632 8821
2.227 -1.840 1.624 7620
2.236 -1.847 1.619 5033
2.266 -1.872 1.629 4711
2.275 -1.880 1.624 5125
2.289 -1.891 1.623 5770
2.298 -1.899 1.618 6226
2.301 -1.901 1.609 5453
2.397 -1.981 1.661 5622
2.401 -1.984 1.652 7948
2.410 -1.991 1.646 8144
2.397 -1.980 1.627 11026
2.400 -1.983 1.618 13254
2.409 -1.990 1.612 12892
2.418 -1.998 1.607 14327
2.426 -2.005 1.601 17841
2.435 -2.012 1.596 19977
2.444 -2.019 1.590 15797
2.530 -2.091 1.631 10811
2.511 -2.075 1.608 12721
2.515 -2.078 1.599 16542
2.524 -2.085 1.592 17844
2.527 -2.088 1.583 17276
2.530 -2.091 1.574 12879
2.528 -2.089 1.561 7827
2.643 -2.184 1.615 7288
2.640 -2.182 1.602 7542
2.644 -2.184 1.592 6889
2.664 -2.201 1.592 5977
2.684 -2.218 1.591 4891
2.710 -2.239 1.593 5301
2.696 -2.228 1.574 7075
2.694 -2.226 1.561 8398
2.776 -2.294 1.593 10258
2.779 -2.296 1.583 12748
2.782 -2.299 1.572 14701
2.791 -2.306 1.565 11207
2.806 -2.318 1.560 7706
2.854 -2.359 1.573 7287
2.875 -2.375 1.571 5314
2.884 -2.383 1.563 5293
2.887 -2.385 1.552 6396
2.964 -2.449 1.578 5883
2.967 -2.452 1.567 7277
2.971 -2.455 1.556 6828
3.065 -2.533 1.589 6281
2.965 -2.450 1.528 4417
2.992 -2.472 1.528 3041
3.046 -2.517 1.541 4458
3.067 -2.534 1.537 6543
3.081 -2.546 1.531 4194
3.096 -2.558 1.525 2948
3.093 -2.556 1.511 4260
3.091 -2.554 1.497 4294
3.088 -2.551 1.483 3150
3.010 -2.487 1.436 1880
3.013 -2.489 1.424 2735
3.010 -2.487 1.411 3139
3.013 -2.489 1.399 3317
3.033 -2.506 1.395 3268
3.047 -2.518 1.389 2847
3.091 -2.554 1.394 2031
3.100 -2.561 1.385 2457
3.108 -2.568 1.376 2444
3.123 -2.580 1.369 2090
3.125 -2.582 1.357 2058
3.140 -2.594 1.350 1525
3.148 -2.601 1.341 1657
3.163 -2.613 1.333 2753
3.171 -2.620 1.324 3565
3.174 -2.623 1.312 2753
3.182 -2.630 1.302 1743
4.019 -3.321 1.596 1523
3.999 -3.304 1.572 1991
3.979 -3.287 1.549 2464
4.052 -3.348 1.559 3271
4.061 -3.356 1.546 2731
4.053 -3.349 1.526 3926
4.056 -3.351 1.511 3964
4.118 -3.403 1.516 2679
4.115 -3.400 1.499 2994
4.237 -3.501 1.522 3486
4.246 -3.508 1.508 3529
4.337 -3.584 1.521 3455
4.346 -3.591 1.506 4211
4.444 -3.672 1.520 4723
4.358 -3.601 1.476 3843
4.361 -3.604 1.459 3771
4.358 -3.601 1.441 2869
4.462 -3.687 1.455 3364
4.537 -3.749 1.459 3351
4.546 -3.756 1.444 3140
4.644 -3.837 1.454 4504
4.647 -3.840 1.436 5210
4.650 -3.842 1.419 3497
4.910 -4.057 1.472 2321
4.829 -3.990 1.431 2286
4.838 -3.997 1.414 2281
4.918 -4.064 1.417 3468
4.915 -4.061 1.396 3638
5.152 -4.257 1.437 2828
5.190 -4.289 1.427 2432
5.127 -4.237 1.391 2412
5.202 -4.298 1.389 2743
5.199 -4.296 1.368 2973
5.202 -4.298 1.349 1938
5.595 -4.623 1.419 2632
5.598 -4.625 1.398 2731
5.625 -4.648 1.383 3216
5.730 -4.734 1.384 3605
5.727 -4.732 1.361 3464
5.789 -4.784 1.352 3902
5.780 -4.776 1.328 3303
6.199 -5.122 1.391 1734
6.304 -5.209 1.388 1735
6.204 -5.127 1.344 1446
5.803 -4.795 1.243 1706
5.799 -4.792 1.220 1962
6.539 -5.403 1.334 1976
6.729 -5.560 1.343 1838
6.804 -5.622 1.331 1792
6.800 -5.619 1.304 2706
6.809 -5.626 1.279 3109
6.812 -5.628 1.254 2658
6.881 -5.685 1.239 2594
6.883 -5.687 1.213 2822
6.892 -5.694 1.188 3131
6.955 -5.746 1.171 2685
6.975 -5.763 1.147 2823
6.983 -5.770 1.122 2253
6.895 -5.697 1.083 1752
6.897 -5.699 1.057 1078
7.044 -5.821 1.050 1073
7.046 -5.822 1.024 974
7.048 -5.824 0.997 781
7.050 -5.826 0.971 530
7.064 -5.837 0.945 255
2.040 -1.685 0.323 299
2.040 -1.686 0.315 284
2.037 -1.683 0.247 374
2.037 -1.683 0.239 566
2.031 -1.678 0.232 940
2.031 -1.678 0.224 1260
2.032 -1.679 0.217 1394
2.032 -1.679 0.209 1403
2.032 -1.679 0.201 1341
2.032 -1.679 0.194 1146
2.026 -1.674 0.186 752
2.026 -1.674 0.179 577
2.026 -1.674 0.171 513
2.032 -1.679 0.164 403
2.032 -1.679 0.156 340
2.032 -1.679 0.149 261
1.690 -1.400 1.694 2582
1.694 -1.402 1.688 5164
1.697 -1.405 1.682 5164
1.706 -1.412 1.680 4504
1.709 -1.415 1.674 3887
1.713 -1.418 1.667 7743
1.716 -1.421 1.661 11599
1.719 -1.424 1.655 13338
1.723 -1.427 1.648 15351
1.731 -1.433 1.646 15760
1.735 -1.436 1.640 12280
1.743 -1.443 1.638 9103
1.751 -1.450 1.636 8029
1.765 -1.461 1.638 7375
1.783 -1.477 1.645 7105
1.792 -1.484 1.643 7174
1.831 -1.516 1.667 5761
1.845 -1.527 1.668 6093
1.848 -1.530 1.662 6751
1.857 -1.537 1.659 6635
1.891 -1.566 1.678 8152
1.894 -1.569 1.671 8876
1.898 -1.571 1.664 9601
1.901 -1.574 1.657 8074
1.910 -1.581 1.654 6572
1.923 -1.593 1.655 4973
1.953 -1.617 1.669 5479
1.951 -1.616 1.657 5342
1.928 -1.597 1.630 6250
1.953 -1.617 1.639 7061
1.961 -1.624 1.636 8670
1.985 -1.644 1.645 7130
1.999 -1.656 1.645 7784
2.003 -1.658 1.638 5827
2.048 -1.696 1.662 3707
2.062 -1.708 1.663 4939
2.076 -1.719 1.663 4503
2.085 -1.726 1.659 4433
2.088 -1.729 1.651 4185
2.092 -1.732 1.644 3937
2.122 -1.757 1.655 4240
2.141 -1.773 1.659 4953
2.155 -1.784 1.659 4619
2.191 -1.814 1.674 4746
2.210 -1.830 1.677 5284
2.219 -1.837 1.672 5647
2.174 -1.800 1.630 6752
2.193 -1.816 1.633 8509
2.208 -1.828 1.633 8789
2.222 -1.840 1.632 9139
2.225 -1.842 1.624 7742
2.234 -1.850 1.619 4947
2.264 -1.875 1.629 4655
2.268 -1.878 1.620 4971
2.287 -1.894 1.623 5594
2.296 -1.901 1.618 6265
2.299 -1.904 1.609 5587
2.395 -1.983 1.661 5714
2.399 -1.986 1.652 8075
2.408 -1.994 1.646 8177
2.395 -1.983 1.627 11211
2.398 -1.986 1.618 13663
2.407 -1.993 1.612 13665
2.415 -2.000 1.607 15049
2.424 -2.007 1.601 18133
2.433 -2.015 1.596 20317
2.442 -2.022 1.590 16189
2.528 -2.093 1.631 10634
2.509 -2.078 1.608 12105
2.513 -2.081 1.599 15487
2.521 -2.088 1.592 16463
2.525 -2.091 1.583 15703
2.528 -2.093 1.574 11665
2.531 -2.096 1.564 7168
2.635 -2.182 1.612 7548
2.638 -2.185 1.602 7830
2.641 -2.187 1.592 7637
2.656 -2.199 1.589 6775
2.676 -2.216 1.588 5216
2.707 -2.242 1.593 5184
2.694 -2.231 1.574 6678
2.691 -2.229 1.561 8260
2.768 -2.292 1.590 9602
2.777 -2.299 1.583 12096
2.780 -2.302 1.572 14239
2.783 -2.305 1.562 10903
2.803 -2.321 1.560 7709
2.858 -2.366 1.576 6961
2.872 -2.378 1.571 5149
2.881 -2.386 1.563 4956
2.884 -2.388 1.552 5933
2.962 -2.452 1.578 5418
2.965 -2.455 1.567 6715
2.962 -2.453 1.553 6691
3.063 -2.536 1.589 6524
2.963 -2.453 1.528 4279
3.023 -2.503 1.544 3255
3.044 -2.520 1.541 4598
3.058 -2.532 1.535 6584
3.079 -2.549 1.531 4173
3.093 -2.561 1.525 3118
3.091 -2.559 1.511 4421
3.088 -2.557 1.497 4385
3.085 -2.555 1.483 3161
3.007 -2.490 1.436 1922
3.010 -2.493 1.424 2790
3.007 -2.490 1.411 3247
3.004 -2.488 1.397 3538
3.030 -2.509 1.395 3177
3.045 -2.521 1.389 2756
3.083 -2.552 1.392 2303
3.097 -2.564 1.385 2644
3.106 -2.572 1.376 2501
3.120 -2.583 1.369 2028
3.123 -2.586 1.357 1994
3.131 -2.593 1.348 1543
3.140 -2.600 1.338 1742
3.160 -2.617 1.333 2662
3.169 -2.624 1.324 3376
3.165 -2.621 1.310 2722
3.162 -2.618 1.296 1824
3.963 -3.281 1.576 1481
3.995 -3.308 1.572 2126
3.975 -3.292 1.549 2791
4.043 -3.348 1.557 3572
4.052 -3.355 1.544 3012
4.049 -3.353 1.526 4213
4.058 -3.360 1.513 3912
4.114 -3.407 1.516 2843
4.112 -3.405 1.499 3093
4.233 -3.505 1.522 3475
4.242 -3.512 1.508 3399
4.334 -3.588 1.521 3192
4.343 -3.596 1.506 3847
4.429 -3.667 1.516 4756
4.361 -3.611 1.477 3451
4.358 -3.608 1.459 3325
4.473 -3.704 1.477 2935
4.459 -3.692 1.455 3267
4.533 -3.753 1.459 3562
4.536 -3.756 1.442 3240
4.646 -3.847 1.456 4290
4.643 -3.845 1.436 4905
4.646 -3.847 1.419 3215
4.899 -4.057 1.470 2209
4.825 -3.995 1.431 2224
4.834 -4.002 1.414 2258
4.914 -4.069 1.417 3289
4.911 -4.066 1.396 3586
5.153 -4.267 1.439 2929
5.186 -4.294 1.427 2457
5.117 -4.237 1.390 2225
5.198 -4.304 1.389 2745
5.194 -4.301 1.368 2823
5.197 -4.303 1.349 1766
5.590 -4.629 1.419 2587
5.593 -4.631 1.398 2831
5.620 -4.653 1.383 3377
5.725 -4.740 1.384 3758
5.722 -4.738 1.361 3689
5.778 -4.785 1.351 3939
5.775 -4.782 1.328 3423
5.742 -4.754 1.299 1704
6.299 -5.216 1.388 1838
6.199 -5.133 1.344 1324
5.798 -4.801 1.243 1769
5.794 -4.798 1.220 1988
6.533 -5.409 1.334 1913
6.723 -5.567 1.343 1919
6.725 -5.569 1.318 1714
6.795 -5.626 1.304 2416
6.803 -5.633 1.279 2730
6.878 -5.696 1.266 2580
6.875 -5.693 1.239 2814
6.877 -5.695 1.213 3077
6.880 -5.697 1.187 3362
6.882 -5.699 1.161 2844
6.969 -5.771 1.147 2913
6.977 -5.778 1.122 2319
6.889 -5.704 1.083 1870
6.891 -5.706 1.057 1141
7.038 -5.828 1.050 1036
7.040 -5.830 1.024 936
7.042 -5.831 0.997 747
7.044 -5.833 0.971 506
2.029 -1.680 0.254 422
2.029 -1.680 0.247 698
2.029 -1.680 0.239 1001
2.023 -1.675 0.231 1557
2.030 -1.681 0.224 2040
2.030 -1.681 0.217 2411
2.030 -1.681 0.209 2632
2.024 -1.676 0.201 2701
2.024 -1.676 0.194 2531
2.024 -1.676 0.186 2233
2.024 -1.676 0.179 2105
2.024 -1.676 0.171 1965
2.031 -1.681 0.164 1636
2.025 -1.676 0.156 1441
2.025 -1.676 0.149 1181
2.025 -1.676 0.141 923
2.031 -1.681 0.134 672
2.031 -1.681 0.126 405
2.025 -1.676 0.119 250
1.695 -1.404 1.699 2416
1.698 -1.407 1.693 4833
1.702 -1.410 1.686 4833
1.705 -1.413 1.680 4271
1.713 -1.420 1.678 3729
1.712 -1.419 1.667 7670
1.715 -1.422 1.661 11631
1.719 -1.424 1.655 13432
1.722 -1.427 1.648 15482
1.731 -1.434 1.646 15864
1.734 -1.437 1.640 12522
1.742 -1.444 1.638 9386
1.746 -1.447 1.632 8086
1.759 -1.458 1.634 7047
1.788 -1.482 1.649 6863
1.791 -1.485 1.643 7026
1.835 -1.521 1.671 5703
1.844 -1.528 1.668 5859
1.847 -1.531 1.662 6272
1.861 -1.542 1.663 6194
1.895 -1.571 1.682 7937
1.894 -1.569 1.671 8756
1.897 -1.572 1.664 9581
1.900 -1.575 1.657 8079
1.904 -1.578 1.650 6577
1.918 -1.589 1.651 4696
1.957 -1.622 1.673 5380
1.950 -1.616 1.657 5130
1.928 -1.598 1.630 5965
1.952 -1.618 1.639 6820
1.960 -1.625 1.636 8431
1.985 -1.645 1.645 7010
1.999 -1.656 1.645 7659
2.002 -1.659 1.638 5710
2.047 -1.697 1.662 3746
2.061 -1.708 1.663 4924
2.070 -1.716 1.659 4452
2.084 -1.727 1.659 4330
2.087 -1.730 1.651 4052
2.091 -1.733 1.644 3774
2.116 -1.753 1.651 4018
2.140 -1.774 1.659 4502
2.165 -1.794 1.666 4412
2.195 -1.819 1.677 4830
2.209 -1.831 1.677 5333
2.213 -1.834 1.669 5963
2.179 -1.806 1.634 7142
2.193 -1.817 1.633 9231
2.207 -1.829 1.633 9414
2.221 -1.841 1.632 9419
2.224 -1.843 1.624 7808
2.233 -1.851 1.619 4800
2.263 -1.876 1.629 4763
2.267 -1.879 1.620 5019
2.286 -1.895 1.623 5462
2.301 -1.907 1.621 6262
2.304 -1.909 1.613 5590
2.389 -1.980 1.657 5805
2.392 -1.983 1.648 8206
2.396 -1.986 1.639 8254
2.394 -1.984 1.627 11379
2.402 -1.991 1.621 14031
2.406 -1.994 1.612 14326
2.415 -2.001 1.607 15685
2.423 -2.008 1.601 18339
2.432 -2.016 1.596 20590
2.441 -2.023 1.590 16544
2.527 -2.095 1.631 10291
2.503 -2.074 1.605 11192
2.512 -2.082 1.599 13994
2.521 -2.089 1.592 14734
2.524 -2.092 1.583 13885
2.527 -2.094 1.574 10100
2.631 -2.180 1.622 6588
2.634 -2.183 1.612 7882
2.637 -2.186 1.602 8195
2.641 -2.188 1.592 8368
2.655 -2.200 1.589 7687
2.675 -2.217 1.588 5700
2.706 -2.243 1.593 5091
2.693 -2.232 1.574 6242
2.690 -2.230 1.561 8210
2.767 -2.293 1.590 8830
2.776 -2.301 1.583 11298
2.779 -2.303 1.572 13595
2.782 -2.306 1.562 10637
2.802 -2.323 1.560 7544
2.857 -2.368 1.576 6532
2.871 -2.380 1.571 4933
2.880 -2.387 1.563 4594
2.883 -2.390 1.552 5427
2.961 -2.454 1.578 5084
2.964 -2.456 1.567 6380
2.961 -2.454 1.553 6703
3.062 -2.537 1.589 6731
2.968 -2.459 1.531 4034
3.022 -2.505 1.544 3499
3.043 -2.522 1.541 4734
3.057 -2.534 1.535 6661
3.078 -2.551 1.531 4204
3.092 -2.563 1.525 3329
3.090 -2.561 1.511 4561
3.093 -2.563 1.499 4430
3.084 -2.556 1.483 3110
3.006 -2.492 1.436 1990
3.009 -2.494 1.424 2885
3.006 -2.492 1.411 3482
3.003 -2.489 1.397 3832
3.029 -2.511 1.395 3090
3.044 -2.523 1.389 2585
3.081 -2.554 1.392 2525
3.090 -2.561 1.383 2870
3.104 -2.573 1.376 2605
3.119 -2.585 1.369 2013
3.122 -2.587 1.357 1979
3.124 -2.589 1.346 1573
3.139 -2.601 1.338 1768
3.153 -2.613 1.331 2526
3.167 -2.625 1.324 3141
3.164 -2.622 1.310 2641
3.161 -2.620 1.296 1911
3.967 -3.288 1.579 1555
3.988 -3.305 1.570 2309
3.974 -3.293 1.549 3093
4.041 -3.350 1.557 3671
4.045 -3.352 1.542 3204
4.048 -3.355 1.526 4570
4.057 -3.362 1.513 4390
4.113 -3.409 1.516 3189
4.110 -3.406 1.499 3214
4.231 -3.507 1.522 3559
4.246 -3.519 1.510 3821
4.243 -3.517 1.492 3119
4.341 -3.598 1.506 3318
4.421 -3.664 1.514 4770
4.418 -3.662 1.496 3226
4.356 -3.610 1.459 2841
4.472 -3.706 1.477 3019
4.457 -3.694 1.455 3195
4.531 -3.755 1.459 3710
4.534 -3.758 1.442 3356
4.644 -3.849 1.456 4350
4.647 -3.852 1.438 4878
4.644 -3.849 1.419 3095
4.898 -4.059 1.470 2131
4.823 -3.997 1.431 2035
5.041 -4.178 1.470 2173
4.912 -4.071 1.417 3227
4.909 -4.069 1.396 3547
5.157 -4.274 1.440 3022
5.184 -4.296 1.427 2514
5.115 -4.239 1.390 2034
5.202 -4.311 1.391 2745
5.199 -4.308 1.370 2745
5.195 -4.306 1.349 1696
5.594 -4.636 1.421 2557
5.597 -4.639 1.400 2950
5.612 -4.651 1.381 3462
5.723 -4.743 1.384 3921
5.719 -4.740 1.361 3901
5.776 -4.787 1.351 3955
5.773 -4.785 1.328 3522
5.746 -4.762 1.300 1974
6.296 -5.218 1.388 1897
5.799 -4.806 1.266 1417
5.795 -4.803 1.243 1839
5.792 -4.800 1.220 1999
6.531 -5.412 1.334 1815
6.720 -5.570 1.343 1995
6.723 -5.572 1.318 1758
6.792 -5.629 1.304 2174
6.879 -5.701 1.293 2538
6.876 -5.699 1.266 2663
6.872 -5.696 1.239 2979
6.875 -5.698 1.213 3264
6.877 -5.700 1.187 3526
6.879 -5.702 1.161 3005
6.966 -5.774 1.147 3017
6.884 -5.705 1.109 2455
6.886 -5.707 1.083 1961
6.888 -5.709 1.057 1191
7.036 -5.831 1.050 1014
7.038 -5.833 1.024 911
7.040 -5.834 0.997 726
7.042 -5.836 0.971 492
2.050 -1.699 0.317 289
2.044 -1.694 0.308 314
2.028 -1.681 0.254 558
2.028 -1.681 0.247 794
2.022 -1.676 0.239 967
2.023 -1.676 0.231 1429
2.029 -1.681 0.224 1858
2.029 -1.682 0.217 2186
2.023 -1.677 0.209 2332
2.023 -1.677 0.201 2360
2.023 -1.677 0.194 2317
2.024 -1.677 0.186 2255
2.024 -1.677 0.179 2236
2.030 -1.682 0.171 2076
2.030 -1.682 0.164 1691
2.024 -1.677 0.156 1439
2.024 -1.677 0.149 1176
2.024 -1.677 0.141 913
2.030 -1.682 0.134 673
2.030 -1.682 0.126 418
2.030 -1.682 0.119 269
1.693 -1.406 1.699 2269
1.696 -1.409 1.693 4539
1.700 -1.412 1.686 4539
1.703 -1.415 1.680 4057
1.712 -1.422 1.678 3676
1.710 -1.421 1.667 7603
1.714 -1.424 1.661 11631
1.717 -1.427 1.655 13494
1.720 -1.429 1.648 15583
1.729 -1.436 1.646 15938
1.732 -1.439 1.640 12737
1.741 -1.446 1.638 9657
1.744 -1.449 1.632 8215
1.752 -1.456 1.630 6844
1.786 -1.484 1.649 6603
1.795 -1.491 1.647 6821
1.834 -1.523 1.671 5643
1.842 -1.530 1.668 5636
1.846 -1.533 1.662 5821
1.859 -1.545 1.663 5804
1.893 -1.573 1.682 7792
1.892 -1.572 1.671 8646
1.895 -1.574 1.664 9564
1.898 -1.577 1.657 8109
1.902 -1.580 1.650 6654
1.916 -1.592 1.651 4516
1.955 -1.625 1.673 5386
1.954 -1.623 1.662 4972
1.926 -1.600 1.630 5712
1.950 -1.620 1.639 6594
1.958 -1.627 1.636 8198
1.983 -1.647 1.645 6899
1.997 -1.659 1.645 7572
2.000 -1.662 1.638 5632
2.045 -1.699 1.662 3818
2.059 -1.711 1.663 4973
2.068 -1.718 1.659 4484
2.082 -1.730 1.659 4323
2.085 -1.733 1.651 3980
2.094 -1.740 1.648 3636
2.113 -1.756 1.651 3814
2.133 -1.772 1.655 4066
2.163 -1.797 1.666 4229
2.193 -1.822 1.677 4901
2.207 -1.834 1.677 5347
2.210 -1.836 1.669 6209
2.198 -1.826 1.649 7685
2.196 -1.824 1.637 9936
2.205 -1.832 1.633 10039
2.219 -1.843 1.632 9702
2.222 -1.846 1.624 7913
2.247 -1.867 1.630 4925
2.261 -1.879 1.629 5241
2.264 -1.881 1.620 5447
2.289 -1.902 1.626 5622
2.298 -1.909 1.621 6413
2.302 -1.912 1.613 5679
2.387 -1.983 1.657 5869
2.390 -1.986 1.648 8310
2.393 -1.988 1.639 8357
2.391 -1.987 1.627 11564
2.400 -1.994 1.621 14473
2.403 -1.997 1.612 14951
2.412 -2.004 1.607 16350
2.421 -2.011 1.601 18657
2.430 -2.019 1.596 20965
2.433 -2.021 1.587 17007
2.525 -2.098 1.631 9858
2.500 -2.077 1.605 10274
2.509 -2.085 1.599 12577
2.518 -2.092 1.592 13099
2.521 -2.095 1.583 12338
2.519 -2.093 1.570 9048
2.628 -2.183 1.622 6669
2.631 -2.186 1.612 7931
2.635 -2.189 1.602 8449
2.638 -2.192 1.592 8983
2.658 -2.208 1.592 8487
2.672 -2.220 1.588 6185
2.704 -2.246 1.593 5137
2.696 -2.240 1.577 5972
2.688 -2.233 1.561 8104
2.696 -2.240 1.554 8511
2.773 -2.304 1.583 10582
2.776 -2.307 1.572 12911
2.779 -2.309 1.562 10287
2.788 -2.317 1.554 7322
2.854 -2.371 1.576 6076
2.868 -2.383 1.571 4658
2.883 -2.395 1.566 4234
2.886 -2.398 1.555 4920
2.958 -2.457 1.578 4833
2.966 -2.465 1.570 6030
2.958 -2.458 1.553 6581
3.064 -2.546 1.591 6911
3.067 -2.549 1.580 4090
3.019 -2.508 1.544 3709
3.034 -2.521 1.538 4841
3.054 -2.537 1.535 6673
3.074 -2.554 1.531 4263
3.089 -2.567 1.525 3582
3.092 -2.569 1.513 4747
3.090 -2.567 1.499 4511
3.081 -2.560 1.483 3070
2.997 -2.490 1.433 1989
3.006 -2.498 1.424 2815
2.997 -2.490 1.408 3482
3.000 -2.493 1.397 3976
3.026 -2.514 1.395 2952
3.041 -2.526 1.389 2449
3.078 -2.558 1.392 2800
3.087 -2.565 1.383 3092
3.095 -2.572 1.374 2630
3.110 -2.584 1.367 1944
3.113 -2.586 1.355 1918
3.121 -2.593 1.346 1578
3.130 -2.600 1.336 1766
3.150 -2.617 1.331 2359
3.164 -2.629 1.324 2884
3.155 -2.621 1.308 2632
3.158 -2.624 1.296 2026
3.963 -3.293 1.579 1606
3.972 -3.300 1.566 2476
3.970 -3.298 1.549 3355
4.037 -3.354 1.557 3842
4.041 -3.357 1.542 3393
4.044 -3.360 1.526 4755
4.059 -3.372 1.515 5036
4.103 -3.409 1.514 3716
4.106 -3.411 1.499 3411
4.227 -3.512 1.522 3342
4.236 -3.519 1.508 3565
4.239 -3.522 1.492 3045
4.414 -3.667 1.531 3254
4.417 -3.670 1.514 4709
4.402 -3.657 1.492 3121
4.476 -3.719 1.497 3048
4.473 -3.717 1.479 3112
4.453 -3.699 1.455 3097
4.521 -3.756 1.457 3821
4.530 -3.763 1.442 3355
4.640 -3.855 1.456 4114
4.643 -3.857 1.438 4527
4.640 -3.855 1.419 2820
4.887 -4.060 1.469 2015
4.812 -3.998 1.429 1922
5.036 -4.184 1.470 2180
4.907 -4.077 1.417 2982
4.904 -4.075 1.396 3378
5.152 -4.280 1.440 3087
5.179 -4.303 1.427 2499
5.194 -4.315 1.410 1998
5.197 -4.317 1.391 2656
5.187 -4.310 1.368 2634
5.190 -4.312 1.349 1635
5.588 -4.643 1.421 2553
5.597 -4.650 1.401 3089
5.606 -4.658 1.381 3537
5.717 -4.750 1.384 3948
5.714 -4.747 1.361 4021
5.759 -4.784 1.348 3945
5.761 -4.787 1.327 3597
5.740 -4.769 1.300 2175
6.290 -5.226 1.388 1980
5.793 -4.813 1.266 1605
5.790 -4.810 1.243 1908
5.786 -4.807 1.220 1993
6.687 -5.556 1.364 1774
6.708 -5.573 1.342 2042
6.716 -5.580 1.318 1778
6.870 -5.708 1.319 2074
6.872 -5.710 1.293 2548
6.869 -5.707 1.266 2674
6.865 -5.704 1.239 3042
6.868 -5.706 1.213 3378
6.870 -5.708 1.187 3647
6.873 -5.710 1.161 3159
6.959 -5.782 1.147 3016
6.877 -5.714 1.109 2609
6.879 -5.715 1.083 2055
6.881 -5.717 1.057 1237
7.029 -5.840 1.050 987
7.031 -5.841 1.024 894
7.033 -5.843 0.997 717
7.035 -5.844 0.971 486
2.026 -1.683 0.254 332
2.026 -1.683 0.247 465
2.032 -1.689 0.239 548
2.033 -1.689 0.232 552
2.033 -1.689 0.224 503
2.033 -1.689 0.217 434
2.033 -1.689 0.209 342
2.027 -1.684 0.201 305
2.027 -1.684 0.194 393
2.028 -1.685 0.186 507
2.028 -1.685 0.179 532
2.028 -1.685 0.171 452
2.022 -1.680 0.164 335
2.028 -1.685 0.156 293
2.028 -1.685 0.149 255
1.692 -1.408 1.699 2119
1.695 -1.411 1.693 4238
1.699 -1.414 1.686 4238
1.707 -1.421 1.685 3906
1.735 -1.444 1.701 3692
1.709 -1.422 1.667 7481
1.712 -1.425 1.661 11515
1.716 -1.428 1.655 13441
1.719 -1.431 1.648 15568
1.727 -1.438 1.646 15899
1.731 -1.441 1.640 12887
1.739 -1.448 1.638 9904
1.743 -1.451 1.632 8331
1.746 -1.453 1.625 6757
1.785 -1.486 1.649 6416
1.793 -1.493 1.647 6697
1.832 -1.525 1.671 5624
1.841 -1.532 1.668 5446
1.844 -1.535 1.662 5417
1.858 -1.546 1.663 5430
1.892 -1.575 1.682 7577
1.890 -1.573 1.671 8459
1.894 -1.576 1.664 9461
1.892 -1.575 1.652 8096
1.895 -1.578 1.645 6731
1.909 -1.589 1.647 4410
1.959 -1.631 1.677 5356
1.952 -1.625 1.662 4863
1.924 -1.602 1.630 5517
1.954 -1.626 1.643 6414
1.957 -1.629 1.636 7982
1.981 -1.649 1.645 6801
1.995 -1.661 1.645 7480
1.998 -1.663 1.638 5522
2.049 -1.706 1.666 3845
2.058 -1.713 1.663 4917
2.066 -1.720 1.659 4438
2.080 -1.732 1.659 4300
2.084 -1.735 1.651 3965
2.087 -1.737 1.644 3629
2.106 -1.753 1.648 3670
2.131 -1.774 1.655 3667
2.166 -1.803 1.670 4085
2.191 -1.824 1.677 4970
2.205 -1.836 1.677 5368
2.203 -1.834 1.665 6560
2.196 -1.828 1.649 8419
2.194 -1.826 1.637 10804
2.203 -1.834 1.633 10758
2.217 -1.845 1.632 9920
2.215 -1.844 1.620 7940
2.251 -1.873 1.634 4905
2.259 -1.881 1.629 5406
2.263 -1.883 1.620 5559
2.282 -1.900 1.623 5768
2.296 -1.912 1.621 6590
2.300 -1.914 1.613 5802
2.385 -1.985 1.657 5906
2.388 -1.988 1.648 8376
2.392 -1.991 1.639 8493
2.389 -1.989 1.627 11785
2.398 -1.996 1.621 14894
2.402 -1.999 1.612 15514
2.410 -2.006 1.607 16932
2.419 -2.014 1.601 18842
2.428 -2.021 1.596 21159
2.431 -2.024 1.587 17348
2.523 -2.100 1.631 9672
2.498 -2.080 1.605 9592
2.507 -2.087 1.599 11445
2.516 -2.094 1.592 11800
2.519 -2.097 1.583 10922
2.517 -2.095 1.570 7766
2.626 -2.186 1.622 6708
