2.280 2.904 1.350 6093
2.292 2.918 1.344 7400
2.294 2.921 1.333 7074
2.291 2.918 1.320 6235
2.312 2.944 1.319 5216
2.379 3.030 1.342 5576
2.391 3.045 1.336 5643
2.398 3.053 1.327 3800
2.465 3.139 1.348 3086
2.495 3.178 1.351 3151
2.493 3.175 1.337 4764
2.490 3.172 1.323 4416
2.530 3.222 1.329 4526
2.546 3.243 1.324 4762
2.558 3.257 1.316 4346
2.560 3.260 1.304 6207
2.562 3.263 1.292 4895
2.602 3.313 1.297 3133
2.613 3.328 1.290 3506
2.625 3.343 1.282 4290
2.721 3.465 1.310 5099
2.719 3.462 1.296 8683
2.740 3.489 1.291 10865
2.742 3.491 1.278 14845
2.744 3.494 1.265 17718
2.746 3.497 1.253 14174
2.748 3.499 1.240 9187
2.754 3.508 1.229 8522
2.752 3.504 1.214 6532
2.773 3.531 1.209 4177
2.908 3.703 1.247 4507
2.914 3.711 1.235 6432
2.921 3.720 1.224 4831
2.942 3.747 1.217 2815
2.939 3.743 1.201 4299
2.941 3.746 1.188 5875
2.943 3.748 1.174 3941
2.983 3.799 1.174 5370
2.980 3.795 1.158 5040
3.092 3.938 1.182 4806
3.089 3.934 1.166 3427
3.120 3.973 1.161 3045
3.122 3.975 1.146 3564
3.114 3.965 1.128 3035
3.140 3.998 1.121 3674
3.146 4.007 1.108 3926
3.081 3.923 1.073 4309
3.087 3.931 1.060 4126
3.286 4.185 1.104 3419
3.292 4.193 1.090 3366
3.299 4.201 1.076 3976
3.329 4.240 1.069 3996
3.408 4.340 1.074 2777
3.424 4.361 1.062 5275
3.421 4.357 1.045 6787
3.399 4.328 1.023 4432
3.516 4.478 1.037 4841
3.585 4.566 1.037 4312
3.616 4.605 1.028 4938
3.618 4.607 1.011 4063
3.658 4.658 1.003 4047
3.616 4.605 0.976 3838
3.792 4.829 0.999 3667
3.793 4.831 0.981 4115
3.790 4.826 0.962 3576
3.782 4.816 0.942 2846
3.865 4.923 0.942 1922
3.823 4.869 0.915 2234
3.825 4.871 0.897 1926
3.627 4.619 0.840 1280
3.657 4.658 0.829 1133
3.659 4.659 0.812 1912
3.655 4.655 0.794 2547
3.651 4.650 0.776 3488
3.652 4.651 0.758 4343
3.653 4.653 0.741 5256
3.654 4.654 0.724 6404
3.656 4.655 0.707 6636
3.657 4.657 0.690 5898
3.658 4.658 0.673 5398
3.658 4.659 0.656 5110
3.659 4.660 0.639 3762
3.660 4.661 0.621 2939
3.661 4.662 0.604 2398
5.188 6.607 0.776 2111
5.194 6.614 0.752 2316
5.190 6.610 0.727 2216
5.606 7.139 0.748 2088
5.602 7.134 0.721 2253
5.393 6.868 0.674 2072
5.750 7.323 0.682 1450
5.883 7.492 0.667 2395
5.884 7.493 0.639 2828
5.880 7.488 0.611 2202
5.866 7.471 0.583 1281
5.857 7.459 0.554 1093
5.868 7.473 0.527 851
5.878 7.486 0.500 628
5.874 7.480 0.472 524
5.909 7.525 0.447 408
5.909 7.525 0.419 312
0.499 0.636 0.155 254
0.900 1.146 0.127 252
0.905 1.153 0.123 258
0.910 1.159 0.119 254
0.900 1.146 0.099 254
0.888 1.131 0.042 261
0.883 1.125 0.039 295
0.869 1.106 0.037 334
0.863 1.100 0.033 277
1.295 1.639 1.597 2152
1.298 1.643 1.591 4305
1.300 1.646 1.585 4319
1.303 1.649 1.579 3550
1.330 1.683 1.601 3210
1.332 1.687 1.595 4998
1.335 1.690 1.588 6787
1.334 1.688 1.578 6461
1.336 1.691 1.572 6193
1.339 1.695 1.566 6193
1.341 1.698 1.559 5471
1.348 1.706 1.558 4763
1.351 1.710 1.552 4489
1.361 1.723 1.554 4275
1.376 1.742 1.561 5050
1.387 1.756 1.563 6349
1.385 1.754 1.552 6729
1.384 1.752 1.542 7130
1.386 1.755 1.535 6159
1.385 1.753 1.525 5286
1.433 1.814 1.565 4713
1.440 1.822 1.563 5610
1.442 1.826 1.556 6511
1.445 1.829 1.549 6696
1.447 1.832 1.543 6881
1.446 1.830 1.532 5469
1.444 1.828 1.521 4186
1.446 1.831 1.515 4757
1.453 1.839 1.512 4588
1.460 1.848 1.509 3952
1.521 1.926 1.559 4412
1.528 1.934 1.556 5128
1.531 1.938 1.549 5605
1.533 1.941 1.542 5238
1.540 1.949 1.539 4967
1.543 1.953 1.532 4745
1.575 1.994 1.552 4244
1.582 2.002 1.549 4460
1.584 2.006 1.541 4009
1.591 2.014 1.538 3642
1.594 2.017 1.531 3724
1.605 2.031 1.531 3858
1.612 2.040 1.527 4227
1.614 2.043 1.520 3911
1.621 2.052 1.516 3788
1.624 2.055 1.509 3279
0.404 0.511 0.455 2975
0.404 0.511 0.453 2989
1.648 2.086 1.501 3708
1.651 2.089 1.493 5678
1.653 2.093 1.486 6241
1.656 2.096 1.478 5054
1.702 2.154 1.506 4655
1.704 2.157 1.498 4031
1.694 2.144 1.480 3352
1.687 2.136 1.465 3915
1.707 2.161 1.471 4549
1.727 2.186 1.477 5070
1.743 2.206 1.480 7014
1.745 2.209 1.472 8882
1.743 2.207 1.460 10382
1.750 2.215 1.456 10446
1.757 2.224 1.451 9308
1.764 2.232 1.446 6306
1.788 2.264 1.455 4279
1.844 2.334 1.486 4327
1.829 2.315 1.464 4112
1.822 2.306 1.449 3288
1.851 2.343 1.461 5138
1.849 2.341 1.449 8063
1.852 2.344 1.440 8740
1.858 2.352 1.435 8898
1.870 2.367 1.433 8859
1.886 2.387 1.433 10329
1.902 2.407 1.434 10530
1.913 2.421 1.431 5956
1.942 2.459 1.441 4474
1.940 2.456 1.429 2905
1.979 2.505 1.444 2631
1.986 2.513 1.438 3673
1.993 2.522 1.432 5494
1.977 2.502 1.411 8954
1.979 2.505 1.402 10301
1.986 2.514 1.396 6673
1.983 2.511 1.383 3528
2.063 2.612 1.423 4734
2.070 2.621 1.417 5053
2.068 2.618 1.404 4300
2.057 2.603 1.386 4675
2.063 2.612 1.379 6881
2.075 2.626 1.375 8442
2.082 2.635 1.369 6124
2.121 2.684 1.381 4796
2.128 2.693 1.374 7299
2.088 2.643 1.340 5243
2.095 2.652 1.333 4578
2.180 2.760 1.371 7998
2.187 2.769 1.363 12521
2.194 2.777 1.356 11966
2.252 2.850 1.377 8614
2.250 2.847 1.364 5034
2.284 2.891 1.371 5232
2.286 2.894 1.360 6353
2.293 2.903 1.352 6167
2.300 2.911 1.344 6813
2.298 2.908 1.331 6358
2.300 2.911 1.320 6047
2.381 3.014 1.351 5114
2.388 3.023 1.342 6021
2.395 3.032 1.333 5834
2.402 3.040 1.324 3729
2.474 3.132 1.348 3226
2.505 3.171 1.351 3522
2.502 3.167 1.337 5527
2.523 3.194 1.334 5556
2.540 3.214 1.329 5037
2.561 3.241 1.326 4183
2.567 3.250 1.316 4070
2.565 3.246 1.302 6356
2.567 3.249 1.290 5040
2.612 3.306 1.297 3766
2.623 3.320 1.290 3854
2.635 3.335 1.282 4343
2.736 3.463 1.312 4980
2.734 3.460 1.298 8172
2.750 3.481 1.291 10372
2.752 3.483 1.278 15160
2.749 3.480 1.263 19685
2.756 3.488 1.253 15834
2.758 3.491 1.240 9414
2.765 3.500 1.229 8452
2.762 3.496 1.214 6442
2.778 3.517 1.207 4362
2.919 3.694 1.247 4362
2.925 3.703 1.235 5860
2.927 3.705 1.222 4013
2.972 3.762 1.224 2119
2.955 3.741 1.203 4270
2.952 3.737 1.188 6466
3.002 3.800 1.191 4070
2.999 3.796 1.175 5981
2.996 3.793 1.160 5089
3.104 3.929 1.182 4264
3.053 3.864 1.149 3787
3.055 3.866 1.135 2964
3.066 3.881 1.124 2885
3.106 3.932 1.122 2734
3.132 3.965 1.115 3154
3.086 3.906 1.086 4183
3.092 3.914 1.073 5968
3.094 3.916 1.058 5482
3.096 3.918 1.044 3910
3.310 4.189 1.091 3243
3.316 4.198 1.077 3965
3.342 4.230 1.069 3851
3.363 4.257 1.058 2828
3.437 4.351 1.062 5146
3.434 4.347 1.045 6546
3.412 4.318 1.023 4070
3.529 4.467 1.037 5046
3.599 4.555 1.037 3896
3.635 4.600 1.029 4669
3.636 4.602 1.012 3837
3.633 4.598 0.994 3871
3.629 4.594 0.976 3740
3.806 4.817 0.999 3164
3.807 4.819 0.981 3734
3.804 4.815 0.962 3283
3.796 4.805 0.942 2531
3.875 4.905 0.941 1583
3.838 4.858 0.915 1735
3.839 4.859 0.897 1517
3.641 4.608 0.840 1332
3.671 4.647 0.829 1320
3.672 4.648 0.812 2348
3.664 4.638 0.793 3341
3.665 4.639 0.776 4473
3.666 4.640 0.758 5531
3.667 4.642 0.741 6705
3.668 4.643 0.724 7953
3.669 4.645 0.707 8149
3.670 4.646 0.690 7221
3.671 4.647 0.673 6597
3.672 4.648 0.656 6269
3.673 4.649 0.639 4626
3.674 4.651 0.621 3615
3.670 4.645 0.604 2985
5.207 6.591 0.776 2203
5.213 6.599 0.752 2383
5.215 6.600 0.727 2248
5.627 7.122 0.748 2149
5.623 7.117 0.721 2330
5.413 6.852 0.674 2080
5.772 7.306 0.682 1456
5.905 7.475 0.667 2304
5.906 7.476 0.639 2718
5.902 7.471 0.611 2121
5.893 7.459 0.583 1184
5.879 7.442 0.554 958
5.890 7.455 0.527 746
5.900 7.468 0.500 575
5.896 7.463 0.472 491
5.931 7.507 0.447 395
5.931 7.508 0.419 305
0.883 1.118 0.067 258
0.888 1.124 0.063 279
0.883 1.117 0.059 268
0.872 1.104 0.037 278
1.299 1.636 1.597 1945
1.302 1.640 1.591 3890
1.304 1.643 1.585 3865
1.311 1.651 1.584 3436
1.334 1.680 1.601 3402
1.336 1.683 1.595 5127
1.339 1.687 1.588 6852
1.342 1.690 1.582 6346
1.344 1.693 1.576 5840
1.347 1.697 1.570 5840
1.345 1.695 1.559 5540
1.348 1.698 1.553 5263
1.350 1.701 1.547 5054
1.357 1.710 1.545 5020
1.376 1.734 1.556 5313
1.387 1.747 1.559 6831
1.389 1.750 1.552 7197
1.392 1.754 1.546 7563
1.390 1.752 1.535 6413
1.389 1.750 1.525 5339
1.437 1.810 1.565 4947
1.444 1.819 1.563 5997
1.446 1.822 1.556 7091
1.449 1.825 1.549 7094
1.456 1.834 1.547 7139
1.454 1.832 1.536 5596
1.452 1.830 1.525 4181
1.451 1.828 1.515 4723
1.457 1.836 1.512 4696
1.464 1.844 1.509 4043
1.526 1.922 1.559 3904
1.533 1.931 1.556 4503
1.535 1.934 1.549 5024
1.538 1.937 1.542 4778
1.545 1.946 1.539 4699
1.547 1.949 1.532 4678
1.554 1.958 1.529 3760
1.582 1.993 1.545 3635
1.589 2.002 1.541 3454
1.600 2.016 1.542 3405
1.598 2.014 1.531 3637
1.605 2.022 1.527 3767
1.616 2.036 1.527 4061
1.623 2.045 1.524 3974
1.630 2.054 1.520 4075
1.633 2.057 1.512 3552
0.405 0.510 0.455 3067
0.405 0.511 0.453 3106
1.649 2.077 1.497 3832
1.656 2.086 1.493 5479
1.658 2.089 1.486 5938
1.665 2.097 1.482 4874
1.702 2.145 1.503 4350
1.709 2.153 1.498 3811
1.698 2.140 1.480 3431
1.696 2.137 1.469 3982
1.717 2.162 1.475 4497
1.732 2.182 1.477 5430
1.748 2.202 1.480 7453
1.750 2.205 1.472 8859
1.748 2.203 1.460 10264
1.751 2.206 1.452 10082
1.758 2.214 1.447 8585
1.769 2.228 1.446 5604
1.847 2.327 1.495 4157
1.845 2.324 1.483 4589
1.834 2.311 1.464 4265
1.850 2.330 1.466 3677
1.861 2.345 1.464 5797
1.855 2.337 1.449 8427
1.853 2.334 1.437 9371
1.859 2.342 1.432 9513
1.871 2.357 1.429 9028
1.891 2.382 1.433 10878
1.903 2.397 1.431 10548
1.918 2.417 1.431 5793
1.948 2.454 1.441 4521
1.941 2.446 1.426 3024
1.989 2.506 1.447 2888
1.991 2.509 1.438 3167
1.985 2.500 1.423 5309
1.978 2.492 1.408 8985
1.980 2.495 1.399 9119
1.987 2.503 1.393 5468
2.063 2.598 1.430 3641
2.074 2.613 1.426 4509
2.076 2.616 1.417 4500
2.079 2.619 1.407 3554
2.063 2.598 1.386 4021
2.074 2.613 1.382 6880
2.085 2.627 1.378 9294
2.088 2.630 1.369 7130
2.095 2.639 1.362 6018
2.134 2.688 1.374 8024
2.141 2.697 1.367 5376
2.175 2.740 1.375 5465
2.187 2.755 1.371 9319
2.194 2.763 1.363 13308
2.196 2.766 1.353 12720
2.203 2.775 1.346 8400
2.256 2.842 1.364 4939
2.291 2.886 1.371 6921
2.293 2.889 1.360 7530
2.300 2.898 1.352 6198
2.312 2.912 1.347 6310
2.365 2.980 1.363 6135
2.311 2.912 1.323 5854
2.384 3.003 1.348 5127
2.391 3.012 1.340 6103
2.397 3.020 1.331 5787
2.400 3.023 1.320 3553
2.402 3.026 1.309 3016
2.409 3.034 1.300 3961
2.510 3.162 1.337 6136
2.526 3.182 1.332 6548
2.538 3.197 1.324 5371
2.568 3.235 1.326 3169
2.575 3.244 1.316 3424
2.572 3.241 1.302 6159
2.570 3.237 1.288 4954
2.619 3.300 1.297 4203
2.626 3.308 1.287 4058
2.647 3.335 1.284 4239
2.744 3.457 1.312 4536
2.742 3.454 1.298 7005
2.753 3.468 1.289 9292
2.755 3.471 1.276 14683
2.757 3.474 1.263 20522
2.759 3.476 1.251 16732
2.771 3.491 1.242 9253
2.773 3.493 1.229 7901
2.775 3.496 1.216 5690
2.786 3.510 1.207 4375
2.793 3.519 1.196 4491
2.939 3.702 1.237 5041
2.936 3.699 1.222 3393
2.967 3.737 1.219 2372
2.964 3.734 1.203 5490
2.966 3.736 1.189 6968
3.016 3.799 1.193 4333
3.013 3.795 1.177 6322
3.010 3.792 1.161 4987
3.069 3.867 1.167 4551
3.066 3.863 1.151 4489
3.068 3.865 1.137 3947
3.075 3.874 1.124 3808
3.110 3.919 1.121 2534
3.112 3.921 1.106 3381
3.095 3.899 1.086 5838
3.101 3.907 1.073 7822
3.103 3.909 1.058 7052
3.105 3.911 1.044 5124
3.106 3.913 1.030 3416
3.326 4.190 1.077 3849
3.352 4.223 1.069 3599
3.373 4.249 1.058 2927
3.447 4.343 1.062 4704
3.444 4.339 1.045 5913
3.421 4.310 1.023 3660
3.545 4.465 1.038 4872
3.532 4.449 1.018 3500
3.650 4.598 1.030 4212
3.647 4.594 1.012 3524
3.648 4.596 0.995 3620
3.645 4.592 0.977 3460
3.817 4.809 0.999 2536
3.819 4.811 0.981 3153
3.815 4.806 0.962 2781
3.812 4.802 0.943 2059
3.457 4.355 0.851 1495
3.854 4.855 0.916 1269
3.484 4.389 0.824 1211
3.656 4.606 0.841 1349
3.682 4.638 0.829 1447
3.678 4.634 0.811 2670
3.674 4.629 0.793 3991
3.676 4.631 0.776 5282
3.677 4.632 0.758 6523
3.678 4.633 0.741 7976
3.679 4.635 0.724 9289
3.680 4.636 0.707 9422
3.681 4.637 0.690 8304
3.682 4.639 0.673 7584
3.683 4.640 0.656 7278
3.684 4.641 0.639 5412
3.685 4.642 0.621 4249
3.681 4.637 0.604 3566
3.686 4.644 0.587 2287
5.229 6.587 0.752 2306
5.230 6.588 0.727 2200
5.648 7.116 0.748 2213
5.644 7.111 0.721 2418
5.424 6.833 0.673 2024
5.789 7.293 0.682 1431
5.923 7.461 0.667 2138
5.923 7.462 0.639 2520
5.919 7.457 0.611 1969
5.915 7.452 0.583 1069
5.813 7.323 0.548 912
5.809 7.318 0.521 712
5.918 7.455 0.500 563
5.913 7.449 0.472 494
5.948 7.494 0.447 395
5.949 7.494 0.419 295
0.885 1.116 0.067 296
0.885 1.115 0.063 315
0.885 1.115 0.059 317
0.885 1.115 0.055 282
1.298 1.629 1.593 1797
1.300 1.632 1.587 3595
1.307 1.641 1.585 3523
1.314 1.649 1.584 3809
1.320 1.658 1.583 4158
1.335 1.676 1.590 5324
1.342 1.684 1.588 6845
1.344 1.688 1.582 6354
1.335 1.676 1.563 5890
1.337 1.679 1.557 5890
1.344 1.687 1.555 6152
1.347 1.691 1.549 6418
1.353 1.699 1.547 6001
1.360 1.707 1.545 6149
1.371 1.721 1.548 5996
1.386 1.740 1.554 7369
1.393 1.748 1.552 7662
1.395 1.751 1.546 7982
1.398 1.754 1.540 6544
1.392 1.747 1.525 5141
1.440 1.808 1.565 5154
1.447 1.816 1.563 6334
1.450 1.820 1.556 7611
1.452 1.823 1.549 7491
1.459 1.831 1.547 7512
1.461 1.835 1.540 5858
1.460 1.832 1.529 4295
1.458 1.830 1.519 4766
1.461 1.834 1.512 4817
1.467 1.842 1.509 4157
1.529 1.920 1.559 3357
1.536 1.928 1.556 3804
1.539 1.931 1.549 4279
1.541 1.935 1.542 4100
1.548 1.943 1.539 4195
1.551 1.946 1.532 4345
1.557 1.955 1.529 3411
1.586 1.990 1.545 2848
1.597 2.004 1.545 2918
1.604 2.013 1.542 3264
1.602 2.011 1.531 3566
1.609 2.019 1.527 3711
1.620 2.034 1.527 3886
1.627 2.042 1.524 4076
1.634 2.051 1.520 4365
1.632 2.048 1.509 3807
1.639 2.057 1.505 3144
0.406 0.510 0.453 3124
1.648 2.069 1.494 3984
1.659 2.083 1.493 5330
1.662 2.086 1.486 5675
1.668 2.094 1.482 4767
1.706 2.142 1.503 3914
1.709 2.145 1.495 3486
1.702 2.137 1.480 3566
1.700 2.134 1.469 4168
1.716 2.154 1.471 4512
1.736 2.179 1.477 5539
1.752 2.199 1.480 7613
1.754 2.202 1.472 8722
1.752 2.199 1.460 10079
1.755 2.202 1.452 9762
1.761 2.211 1.447 7998
1.768 2.220 1.443 5118
1.847 2.318 1.491 4031
1.849 2.321 1.483 4738
1.843 2.313 1.468 4347
1.849 2.322 1.463 4224
1.865 2.342 1.464 6499
1.863 2.339 1.452 8623
1.857 2.331 1.437 9823
1.859 2.334 1.428 9841
1.870 2.348 1.426 9050
1.895 2.379 1.433 11434
1.907 2.394 1.431 10508
1.923 2.414 1.431 5567
1.952 2.451 1.441 4352
1.946 2.442 1.426 3469
1.934 2.428 1.408 3132
1.987 2.494 1.432 3277
1.980 2.485 1.417 6398
1.982 2.488 1.408 9510
1.984 2.491 1.399 8337
2.037 2.557 1.422 4983
2.053 2.577 1.421 4506
2.074 2.603 1.423 4435
2.026 2.543 1.382 4550
2.033 2.551 1.376 3526
2.072 2.601 1.389 3863
2.083 2.615 1.385 7333
2.090 2.624 1.378 10016
2.092 2.626 1.369 8206
2.099 2.635 1.362 7973
2.129 2.673 1.368 8273
2.145 2.693 1.367 5638
2.185 2.742 1.378 6733
2.192 2.751 1.371 10642
2.194 2.754 1.361 14114
2.201 2.762 1.353 13007
2.207 2.771 1.346 8650
2.205 2.768 1.333 5685
2.296 2.882 1.371 8415
2.298 2.885 1.360 8294
2.310 2.899 1.355 6033
2.349 2.949 1.364 7317
2.361 2.964 1.358 6440
2.321 2.914 1.325 5792
2.384 2.993 1.346 5311
2.386 2.996 1.335 6367
2.398 3.010 1.329 5407
2.410 3.025 1.322 3599
2.416 3.033 1.313 3751
2.419 3.036 1.302 4783
2.515 3.157 1.337 6707
2.527 3.172 1.329 7436
2.538 3.186 1.322 5829
2.531 3.177 1.306 3149
2.576 3.233 1.314 2800
2.573 3.230 1.300 5751
2.575 3.233 1.288 4601
2.630 3.301 1.300 4543
2.632 3.304 1.287 4037
2.653 3.330 1.284 3828
2.660 3.339 1.273 4371
2.743 3.443 1.296 5191
2.754 3.458 1.287 7472
2.761 3.466 1.276 13225
2.763 3.469 1.263 20009
2.765 3.471 1.251 16724
2.777 3.486 1.242 8763
2.788 3.500 1.233 7076
2.786 3.497 1.218 4474
2.936 3.686 1.263 4681
2.804 3.520 1.198 4681
2.950 3.703 1.239 4386
2.952 3.706 1.225 4007
2.963 3.720 1.215 4583
2.970 3.729 1.203 6953
2.972 3.731 1.189 7058
3.022 3.794 1.193 4390
3.024 3.796 1.179 6280
3.016 3.786 1.161 4879
3.076 3.862 1.167 5099
3.078 3.864 1.153 5379
3.080 3.866 1.138 5438
3.082 3.868 1.124 5238
3.093 3.883 1.113 3283
3.105 3.897 1.102 4475
3.101 3.893 1.086 7767
3.108 3.901 1.073 9707
3.110 3.904 1.058 8590
3.111 3.906 1.044 6290
3.113 3.908 1.030 4363
3.333 4.184 1.077 3576
3.364 4.223 1.070 3255
3.385 4.249 1.060 2935
3.455 4.337 1.062 3967
3.447 4.327 1.044 4948
3.560 4.469 1.057 3159
3.552 4.459 1.038 4299
3.539 4.443 1.018 3035
3.658 4.592 1.030 3564
3.660 4.594 1.013 3091
3.661 4.596 0.996 3262
3.653 4.586 0.977 3057
3.825 4.802 0.999 1811
3.827 4.804 0.981 2371
3.824 4.800 0.962 2110
3.463 4.347 0.867 1713
3.464 4.349 0.851 1559
3.495 4.387 0.841 1203
3.491 4.383 0.824 1195
4.036 5.067 0.913 1407
4.043 5.075 0.895 1629
3.686 4.627 0.811 2835
3.682 4.623 0.793 4420
3.679 4.618 0.775 5835
3.685 4.626 0.758 7156
3.686 4.627 0.741 8843
3.687 4.628 0.724 10189
3.688 4.630 0.707 10265
3.689 4.631 0.690 9014
3.690 4.632 0.673 8221
3.691 4.633 0.656 7938
3.692 4.635 0.639 5935
3.693 4.636 0.621 4675
3.689 4.631 0.604 3951
3.695 4.638 0.587 2571
5.240 6.578 0.752 2094
5.241 6.579 0.727 2016
5.661 7.106 0.748 2167
5.657 7.101 0.721 2388
5.436 6.824 0.673 1929
5.432 6.819 0.647 1387
5.935 7.451 0.667 1923
5.936 7.452 0.639 2240
5.932 7.447 0.611 1763
5.928 7.442 0.583 951
5.826 7.313 0.548 917
5.821 7.308 0.521 682
5.930 7.445 0.500 566
5.931 7.445 0.473 512
5.951 7.471 0.446 404
5.962 7.484 0.419 294
0.450 0.564 0.143 262
0.887 1.114 0.067 269
0.887 1.114 0.063 300
0.887 1.114 0.059 321
0.887 1.113 0.055 308
0.887 1.113 0.052 258
1.301 1.626 1.593 1772
1.304 1.630 1.587 3544
1.311 1.638 1.585 3449
1.317 1.646 1.584 4408
1.320 1.650 1.578 5442
1.327 1.658 1.577 5849
1.342 1.676 1.584 6617
1.336 1.669 1.569 6731
1.335 1.668 1.558 7126
1.337 1.671 1.552 7126
1.340 1.674 1.546 7403
1.346 1.682 1.544 7809
1.357 1.696 1.547 7143
1.364 1.704 1.545 7540
1.375 1.718 1.548 7126
1.390 1.737 1.554 7999
1.396 1.745 1.552 8172
1.399 1.748 1.546 8441
1.406 1.757 1.544 6796
1.412 1.765 1.542 5345
1.444 1.805 1.565 5471
1.447 1.808 1.558 6825
1.454 1.816 1.556 8219
1.456 1.820 1.549 7943
1.463 1.828 1.547 7923
1.466 1.831 1.540 6294
1.477 1.845 1.542 4797
1.466 1.832 1.523 4927
1.469 1.836 1.516 4983
1.471 1.839 1.509 4294
1.470 1.836 1.499 2941
1.540 1.925 1.556 3007
1.543 1.928 1.549 3419
1.545 1.931 1.542 3319
1.552 1.940 1.539 3546
1.555 1.943 1.532 3838
1.562 1.952 1.529 2922
1.590 1.987 1.545 2093
1.606 2.006 1.549 2492
1.608 2.010 1.542 3073
1.611 2.013 1.534 3463
1.613 2.016 1.527 3634
1.629 2.035 1.531 3805
1.631 2.038 1.524 4233
1.638 2.047 1.520 4668
1.641 2.050 1.512 4057
1.643 2.053 1.505 3374
1.646 2.056 1.497 3303
1.653 2.065 1.494 4142
1.664 2.079 1.493 5243
1.666 2.082 1.486 5488
1.673 2.091 1.482 4808
1.693 2.116 1.488 3775
1.704 2.130 1.488 3252
1.703 2.127 1.476 3801
1.705 2.130 1.469 4393
1.716 2.145 1.468 4591
1.741 2.175 1.477 5417
1.757 2.195 1.480 7373
1.759 2.198 1.472 8248
1.757 2.196 1.460 9566
1.759 2.199 1.452 9233
1.762 2.202 1.444 7396
1.769 2.210 1.439 4723
1.807 2.258 1.458 4045
1.850 2.311 1.480 4762
1.848 2.309 1.468 4374
1.855 2.318 1.463 4713
1.875 2.343 1.467 7175
1.868 2.335 1.452 8760
1.862 2.326 1.437 10155
1.864 2.329 1.428 10069
1.876 2.344 1.426 9044
1.901 2.375 1.433 12105
1.907 2.384 1.428 10516
1.923 2.404 1.428 5274
1.958 2.446 1.441 4266
1.937 2.421 1.417 4051
1.940 2.424 1.408 4236
1.978 2.472 1.423 4351
1.985 2.481 1.417 8434
1.988 2.484 1.408 10495
1.990 2.487 1.399 7709
2.038 2.547 1.419 5541
2.041 2.550 1.410 6038
2.034 2.541 1.394 4801
2.031 2.538 1.382 4484
2.043 2.553 1.379 3342
2.082 2.602 1.392 4352
2.089 2.610 1.385 7993
2.096 2.619 1.378 10551
2.098 2.622 1.369 9119
2.110 2.636 1.364 9624
2.116 2.645 1.357 8612
2.188 2.735 1.388 6559
2.191 2.738 1.378 7973
2.198 2.746 1.371 11780
2.200 2.749 1.361 14627
2.207 2.758 1.353 12562
2.214 2.766 1.346 8147
2.291 2.862 1.376 6169
2.302 2.877 1.371 9469
2.305 2.880 1.360 8498
2.349 2.935 1.372 6594
2.356 2.944 1.364 8614
2.363 2.953 1.356 6931
2.332 2.914 1.328 5926
2.386 2.982 1.343 5700
2.388 2.984 1.332 6865
2.390 2.987 1.321 4863
2.421 3.025 1.324 3543
2.428 3.034 1.316 4752
2.425 3.031 1.302 5565
2.522 3.152 1.337 7229
2.529 3.160 1.327 8283
2.541 3.175 1.320 6362
2.543 3.177 1.308 3722
2.569 3.210 1.308 3434
2.580 3.224 1.300 4953
2.630 3.287 1.310 4789
2.637 3.295 1.300 4762
2.644 3.304 1.290 4057
2.698 3.372 1.300 3738
2.705 3.381 1.290 4379
2.683 3.353 1.267 3377
2.757 3.445 1.285 5437
2.764 3.454 1.274 10961
2.771 3.463 1.263 17988
2.773 3.465 1.251 15509
2.794 3.492 1.246 8028
2.796 3.494 1.233 5824
2.894 3.617 1.257 4242
2.944 3.679 1.263 4972
2.812 3.514 1.198 4622
2.958 3.696 1.239 4265
2.965 3.705 1.227 5218
2.967 3.707 1.213 7067
2.979 3.722 1.203 8110
2.985 3.730 1.191 6932
3.002 3.751 1.182 4179
3.037 3.796 1.180 6003
3.030 3.786 1.163 4718
3.085 3.855 1.167 5664
3.087 3.857 1.153 6899
3.088 3.859 1.138 7606
3.090 3.862 1.124 6886
3.102 3.876 1.113 4421
3.108 3.884 1.100 6040
3.110 3.886 1.086 9625
3.117 3.895 1.073 11247
3.118 3.897 1.058 9809
3.120 3.899 1.044 7247
3.122 3.901 1.030 5178
3.123 3.903 1.015 3307
3.383 4.228 1.073 2825
3.395 4.242 1.060 2796
3.469 4.335 1.064 3085
3.456 4.319 1.044 3760
3.570 4.462 1.057 2517
3.562 4.451 1.038 3358
3.544 4.429 1.017 2333
3.668 4.584 1.030 2749
3.670 4.586 1.013 2518
3.671 4.588 0.996 2700
3.668 4.583 0.978 2466
3.665 4.579 0.960 1490
3.838 4.795 0.981 1534
3.967 4.957 0.991 1666
3.948 4.934 0.968 2322
3.950 4.936 0.950 2077
3.951 4.938 0.932 1461
3.948 4.933 0.912 1357
4.048 5.058 0.913 1566
4.049 5.060 0.894 1835
3.696 4.619 0.811 2820
3.693 4.614 0.793 4621
3.689 4.610 0.775 6067
3.695 4.617 0.758 7389
3.696 4.619 0.741 9254
3.697 4.620 0.724 10548
3.698 4.621 0.707 10538
3.699 4.623 0.690 9202
3.700 4.624 0.673 8357
3.701 4.625 0.656 8102
3.702 4.626 0.639 6061
3.698 4.621 0.621 4770
3.699 4.622 0.604 4064
3.700 4.623 0.587 2702
5.255 6.566 0.752 1825
5.256 6.568 0.727 1784
5.676 7.093 0.748 2068
5.677 7.094 0.722 2264
5.451 6.812 0.673 1757
5.447 6.807 0.647 1341
5.947 7.431 0.667 1629
5.948 7.433 0.639 1854
5.949 7.434 0.611 1462
5.841 7.299 0.575 891
5.842 7.300 0.548 902
5.843 7.301 0.521 636
5.952 7.438 0.501 576
5.948 7.432 0.473 535
5.963 7.451 0.446 398
5.978 7.471 0.419 261
0.515 0.643 0.160 259
0.446 0.557 0.143 267
0.441 0.551 0.141 265
0.885 1.106 0.072 273
0.885 1.106 0.068 317
0.895 1.118 0.063 316
0.895 1.118 0.059 308
0.899 1.124 0.055 288
1.284 1.599 1.570 1848
1.287 1.602 1.564 3697
1.314 1.635 1.585 3504
1.316 1.639 1.579 5058
1.323 1.647 1.578 6695
1.326 1.650 1.572 6680
1.332 1.659 1.570 6783
1.335 1.662 1.564 7466
1.334 1.660 1.554 8255
1.336 1.663 1.548 8255
1.343 1.672 1.546 8408
1.350 1.680 1.544 8700
1.360 1.693 1.547 7950
1.371 1.707 1.550 8580
1.378 1.715 1.548 7876
1.393 1.734 1.554 8306
1.400 1.742 1.552 8400
1.406 1.751 1.550 8663
1.413 1.759 1.548 6991
1.420 1.767 1.546 5685
1.448 1.802 1.565 5695
1.450 1.805 1.558 7154
1.453 1.808 1.552 8612
1.460 1.817 1.549 8188
1.466 1.825 1.547 8176
1.473 1.834 1.544 6699
1.480 1.842 1.542 5382
1.474 1.835 1.527 5181
1.472 1.833 1.516 5054
1.475 1.836 1.509 4307
1.473 1.834 1.499 2890
1.540 1.917 1.552 2323
1.547 1.925 1.549 2633
1.545 1.923 1.538 2603
1.552 1.931 1.535 2878
1.563 1.945 1.536 3242
1.565 1.949 1.529 2405
0.402 0.501 0.470 2008
1.609 2.003 1.549 2154
1.612 2.006 1.542 2806
1.615 2.010 1.534 3274
1.617 2.013 1.527 3517
1.633 2.032 1.531 3783
1.635 2.035 1.524 4297
1.638 2.039 1.516 4811
1.645 2.047 1.512 4144
1.647 2.050 1.505 3435
1.645 2.048 1.494 3386
1.652 2.056 1.490 4198
1.668 2.076 1.493 5154
1.675 2.084 1.489 5351
1.677 2.088 1.482 4898
1.688 2.102 1.481 3923
1.700 2.116 1.481 3274
1.707 2.124 1.476 3983
1.709 2.127 1.469 4537
1.720 2.141 1.468 4673
1.745 2.172 1.477 5091
1.761 2.192 1.480 6726
1.763 2.195 1.472 7444
1.761 2.192 1.460 8717
1.764 2.195 1.452 8520
1.766 2.198 1.444 6857
1.795 2.235 1.456 4552
1.811 2.255 1.458 4351
1.850 2.302 1.476 4458
1.852 2.305 1.468 4102
1.859 2.314 1.463 4756
1.879 2.339 1.467 7313
1.868 2.326 1.449 8500
1.866 2.323 1.437 9970
1.869 2.326 1.428 9789
1.880 2.340 1.426 8688
1.905 2.371 1.433 12377
1.912 2.380 1.428 10311
1.928 2.400 1.428 4965
1.962 2.443 1.441 4013
1.942 2.417 1.417 4401
1.944 2.420 1.408 4995
1.983 2.469 1.423 5629
1.990 2.477 1.417 10225
1.992 2.480 1.408 11429
1.999 2.489 1.402 7442
2.043 2.543 1.419 6128
2.041 2.540 1.407 6790
2.038 2.537 1.394 4973
2.041 2.540 1.385 4113
2.094 2.606 1.407 3351
2.092 2.604 1.395 5119
2.094 2.606 1.385 8450
2.101 2.615 1.378 10666
2.103 2.618 1.369 9564
2.110 2.626 1.362 10454
2.121 2.641 1.357 8796
2.194 2.731 1.388 7324
2.201 2.739 1.381 8586
2.203 2.742 1.371 12052
2.205 2.745 1.361 14375
2.207 2.748 1.350 11593
2.219 2.762 1.346 7365
2.301 2.864 1.379 6861
2.308 2.873 1.371 9885
2.315 2.881 1.363 8348
2.359 2.937 1.375 7578
2.362 2.940 1.364 9332
2.364 2.942 1.353 7026
2.352 2.927 1.335 6160
2.387 2.971 1.341 5777
2.389 2.974 1.330 7150
2.391 2.977 1.319 4874
2.431 3.027 1.327 3868
2.434 3.029 1.316 5403
2.436 3.032 1.304 5991
2.528 3.147 1.337 7333
2.530 3.150 1.325 8576
2.547 3.170 1.320 6386
2.554 3.179 1.311 4203
2.570 3.199 1.305 3902
2.591 3.225 1.302 4100
2.636 3.282 1.310 4782
2.643 3.290 1.300 5075
2.655 3.305 1.292 4374
2.710 3.373 1.302 4358
2.712 3.375 1.290 4814
2.690 3.348 1.267 3436
2.754 3.428 1.281 4813
2.771 3.449 1.274 9248
2.778 3.457 1.263 15527
2.780 3.460 1.251 13696
2.801 3.486 1.246 7086
2.808 3.495 1.235 5013
2.906 3.617 1.259 4373
2.951 3.674 1.263 4741
2.958 3.682 1.251 4556
2.970 3.697 1.241 4378
2.972 3.699 1.227 6121
2.974 3.702 1.213 8464
2.986 3.716 1.203 8476
2.992 3.725 1.191 6720
3.004 3.739 1.181 4179
3.054 3.802 1.184 5867
3.071 3.822 1.175 4930
3.087 3.843 1.165 6441
3.089 3.845 1.151 8516
3.096 3.853 1.138 9538
3.098 3.856 1.124 8180
3.104 3.864 1.111 5361
3.116 3.878 1.100 7280
3.117 3.880 1.086 10670
3.124 3.889 1.073 11787
3.126 3.891 1.058 10253
3.127 3.893 1.044 7656
3.129 3.895 1.030 5564
3.131 3.897 1.015 3456
3.396 4.227 1.074 2471
3.407 4.241 1.061 2502
3.478 4.329 1.064 2420
3.460 4.306 1.043 2777
3.437 4.278 1.020 2005
3.576 4.451 1.039 2384
3.548 4.416 1.015 1686
3.677 4.577 1.030 2047
3.683 4.585 1.014 1971
3.680 4.581 0.996 2126
3.677 4.577 0.978 1898
3.678 4.578 0.961 1183
3.955 4.923 1.005 1368
3.976 4.949 0.991 2151
3.958 4.926 0.968 2977
3.959 4.928 0.950 2695
3.956 4.924 0.931 2015
3.952 4.920 0.911 2028
4.057 5.050 0.913 1659
4.059 5.052 0.894 1925
3.705 4.612 0.811 2532
3.702 4.607 0.793 4351
3.698 4.603 0.775 5719
3.704 4.610 0.758 6957
3.705 4.612 0.741 8862
3.706 4.613 0.724 10081
3.707 4.614 0.707 10030
3.708 4.616 0.690 8741
3.709 4.617 0.673 7929
3.710 4.618 0.656 7702
3.711 4.619 0.639 5762
3.707 4.614 0.621 4539
3.708 4.615 0.604 3880
3.709 4.616 0.587 2592
5.099 6.347 0.732 1726
5.268 6.558 0.727 1517
5.690 7.082 0.748 1931
5.691 7.084 0.722 2118
5.697 7.091 0.696 1733
5.465 6.803 0.648 1301
5.733 7.137 0.646 1500
5.962 7.421 0.639 1512
5.963 7.422 0.611 1190
5.855 7.288 0.575 872
5.856 7.289 0.548 838
5.856 7.290 0.521 574
5.966 7.426 0.501 617
5.962 7.421 0.473 567
5.982 7.446 0.446 421
5.993 7.459 0.419 268
0.516 0.643 0.160 259
0.828 1.031 0.169 268
0.887 1.104 0.072 264
0.887 1.104 0.068 334
0.892 1.110 0.063 295
0.897 1.116 0.059 251
1.287 1.596 1.570 2254
1.290 1.599 1.564 4508
1.313 1.628 1.581 4007
1.320 1.636 1.579 6036
1.322 1.639 1.573 8124
1.329 1.648 1.572 7743
1.332 1.651 1.566 7465
1.334 1.654 1.560 8593
1.337 1.657 1.554 9722
1.339 1.661 1.548 9722
1.346 1.669 1.546 9624
1.349 1.672 1.540 9761
1.364 1.691 1.547 8699
1.375 1.704 1.550 9389
1.381 1.712 1.548 8421
1.396 1.731 1.554 8441
1.403 1.740 1.552 8479
1.410 1.748 1.550 8807
1.421 1.761 1.553 7256
1.428 1.770 1.550 6182
1.434 1.778 1.548 6029
1.454 1.802 1.558 7429
1.456 1.806 1.552 8974
1.463 1.814 1.549 8423
1.470 1.822 1.547 8468
1.477 1.831 1.544 7313
1.479 1.834 1.538 6224
1.482 1.837 1.531 5722
1.480 1.835 1.520 5197
1.479 1.833 1.509 4317
1.477 1.831 1.499 2820
1.479 1.834 1.492 2038
1.546 1.917 1.545 1999
1.544 1.915 1.534 2131
1.551 1.923 1.531 2356
1.567 1.942 1.536 2698
1.574 1.951 1.532 1970
0.403 0.500 0.470 2034
0.404 0.501 0.468 2103
1.525 1.890 1.461 2629
1.527 1.893 1.454 3100
1.625 2.015 1.531 3394
1.637 2.029 1.531 3750
1.639 2.032 1.524 4253
1.642 2.035 1.516 4755
1.649 2.044 1.512 4074
1.651 2.047 1.505 3365
1.649 2.045 1.494 3342
1.656 2.053 1.490 4129
1.672 2.073 1.493 5098
1.679 2.081 1.489 5365
1.681 2.084 1.482 5150
1.688 2.093 1.478 4391
1.699 2.107 1.477 3654
1.706 2.115 1.473 4209
1.713 2.124 1.469 4619
1.725 2.138 1.468 4698
1.745 2.163 1.474 4775
1.765 2.188 1.480 5801
1.772 2.197 1.475 6352
1.770 2.194 1.464 7560
1.768 2.192 1.452 7631
1.770 2.195 1.444 6296
1.800 2.231 1.456 4864
1.816 2.251 1.458 4755
1.827 2.265 1.456 4287
1.857 2.302 1.468 3548
1.868 2.316 1.466 4419
1.884 2.336 1.467 6969
1.873 2.322 1.449 7915
1.871 2.319 1.437 9409
1.873 2.322 1.428 9167
1.894 2.348 1.433 8250
1.910 2.368 1.433 12489
1.917 2.376 1.428 10023
1.933 2.396 1.428 4686
1.963 2.433 1.438 3876
1.947 2.413 1.417 4634
1.949 2.416 1.408 5536
1.988 2.465 1.423 6696
1.995 2.473 1.417 11676
2.002 2.482 1.411 12447
2.009 2.490 1.405 7744
2.043 2.533 1.416 6714
2.046 2.536 1.407 7157
2.048 2.539 1.397 5006
2.055 2.548 1.391 3818
2.094 2.597 1.404 3701
2.097 2.599 1.395 5915
2.099 2.602 1.385 8688
2.101 2.605 1.375 10533
2.104 2.608 1.366 9776
2.115 2.622 1.362 10863
2.127 2.637 1.357 8895
2.199 2.726 1.388 7606
2.206 2.735 1.381 8728
2.208 2.738 1.371 11529
2.211 2.740 1.361 13433
2.213 2.743 1.350 10414
2.290 2.839 1.382 7449
2.306 2.859 1.379 7274
2.313 2.868 1.371 9710
2.320 2.877 1.363 7876
2.365 2.932 1.375 8160
2.367 2.935 1.364 9701
2.370 2.938 1.353 7021
2.358 2.923 1.335 6374
2.393 2.967 1.341 5714
2.395 2.969 1.330 7497
2.397 2.972 1.319 5500
2.437 3.022 1.327 4539
2.440 3.024 1.316 5664
2.442 3.027 1.304 6199
2.530 3.136 1.334 7340
2.532 3.139 1.323 8745
2.539 3.147 1.313 6109
2.569 3.185 1.315 4437
2.576 3.194 1.305 3964
2.607 3.232 1.307 3492
2.638 3.270 1.307 4631
2.650 3.285 1.300 5687
2.661 3.299 1.292 4892
2.721 3.373 1.304 4568
2.723 3.376 1.292 4932
2.749 3.408 1.290 4257
2.766 3.429 1.283 5426
2.777 3.443 1.274 8314
2.780 3.446 1.262 13386
2.786 3.454 1.251 11704
2.813 3.487 1.247 6200
2.815 3.489 1.235 5282
2.846 3.528 1.233 4511
2.930 3.632 1.251 4873
2.961 3.670 1.249 3972
2.977 3.691 1.241 4236
2.979 3.693 1.227 6348
2.986 3.702 1.215 8663
2.993 3.710 1.203 8315
2.995 3.713 1.189 6483
3.002 3.721 1.177 4169
3.072 3.808 1.187 5510
3.088 3.828 1.178 5649
3.095 3.837 1.165 7713
3.097 3.839 1.151 10240
3.103 3.847 1.138 11038
3.105 3.850 1.124 9067
3.112 3.858 1.111 6112
3.123 3.872 1.100 8117
3.125 3.874 1.086 10924
3.132 3.882 1.073 11464
3.133 3.885 1.058 10029
3.135 3.887 1.044 7545
3.132 3.883 1.028 5590
3.138 3.891 1.015 3387
3.409 4.227 1.075 2051
3.416 4.235 1.061 2095
3.496 4.334 1.066 1942
3.517 4.360 1.055 2410
3.519 4.362 1.039 1803
3.594 4.456 1.042 1496
3.547 4.397 1.013 1139
3.691 4.576 1.031 1374
3.687 4.571 1.013 1422
3.689 4.573 0.996 1564
3.691 4.575 0.979 1366
3.958 4.907 1.022 1166
3.964 4.915 1.005 1765
3.986 4.941 0.991 2626
3.968 4.919 0.968 3554
3.969 4.921 0.950 3171
3.961 4.910 0.930 2503
3.962 4.912 0.911 2704
3.968 4.920 0.894 2089
4.217 5.227 0.922 1949
4.223 5.235 0.903 2603
3.711 4.600 0.793 3725
3.707 4.595 0.775 4934
3.713 4.603 0.758 6049
3.714 4.604 0.741 7890
3.715 4.606 0.724 9011
3.716 4.607 0.707 8959
3.717 4.608 0.690 7811
3.718 4.610 0.673 7101
3.719 4.611 0.656 6905
3.720 4.612 0.639 5148
3.716 4.607 0.621 4054
3.717 4.608 0.604 3461
3.718 4.609 0.587 2342
5.116 6.343 0.733 1815
5.122 6.350 0.710 1556
5.704 7.071 0.748 1780
5.710 7.079 0.722 1976
5.711 7.080 0.696 1693
5.558 6.890 0.655 1383
5.748 7.125 0.646 1521
5.748 7.126 0.620 1529
5.749 7.128 0.593 1119
5.869 7.276 0.575 865
5.875 7.283 0.549 786
6.005 7.444 0.530 563
5.981 7.414 0.501 659
5.971 7.403 0.472 609
5.997 7.434 0.446 426
0.512 0.635 0.159 257
0.508 0.629 0.157 275
0.831 1.030 0.165 269
0.836 1.036 0.162 263
0.889 1.102 0.068 312
0.894 1.108 0.063 276
1.296 1.598 1.574 2644
1.298 1.601 1.568 5289
1.317 1.624 1.581 4943
1.324 1.633 1.579 7037
1.327 1.636 1.573 9264
1.329 1.639 1.567 8609
1.332 1.642 1.561 7954
1.335 1.646 1.555 9297
1.337 1.649 1.549 10640
1.340 1.652 1.543 10640
1.351 1.665 1.546 10305
1.353 1.669 1.540 10320
1.368 1.687 1.547 9111
1.379 1.700 1.550 9882
1.386 1.709 1.548 8674
1.401 1.727 1.554 8171
1.408 1.736 1.552 8123
1.419 1.749 1.555 8571
1.430 1.763 1.557 7441
1.432 1.766 1.550 6648
1.439 1.774 1.548 6596
1.454 1.793 1.554 7662
1.457 1.797 1.548 9145
1.468 1.810 1.549 8588
1.475 1.819 1.547 8749
1.477 1.822 1.540 7947
1.484 1.830 1.538 7157
1.487 1.833 1.531 6287
1.489 1.836 1.524 5314
1.488 1.834 1.513 4254
1.486 1.832 1.503 2668
1.488 1.835 1.496 2042
1.525 1.881 1.521 1899
1.528 1.884 1.514 2341
1.535 1.892 1.511 2331
1.542 1.901 1.508 2363
1.540 1.899 1.497 1882
0.405 0.499 0.470 1858
1.532 1.889 1.472 2091
1.530 1.886 1.461 3270
1.532 1.889 1.454 3798
1.631 2.011 1.531 3251
1.642 2.025 1.531 3702
1.645 2.028 1.524 4111
1.647 2.031 1.516 4521
1.654 2.040 1.512 3849
1.661 2.048 1.509 3205
1.655 2.040 1.494 3133
1.666 2.054 1.494 3920
1.677 2.068 1.493 4977
1.684 2.077 1.489 5326
1.687 2.080 1.482 5299
1.694 2.088 1.478 4831
1.696 2.091 1.470 4292
1.707 2.105 1.469 4429
1.719 2.119 1.469 4558
1.730 2.133 1.468 4533
1.746 2.153 1.470 4528
1.771 2.184 1.480 4745
1.782 2.198 1.479 5140
1.776 2.190 1.464 6098
1.774 2.187 1.452 6427
1.776 2.190 1.444 5547
1.806 2.226 1.456 5332
1.813 2.235 1.451 5269
1.829 2.255 1.453 4322
1.831 2.258 1.445 3120
1.888 2.328 1.476 3989
1.895 2.336 1.470 6242
1.874 2.311 1.445 7036
1.877 2.314 1.437 8443
1.879 2.317 1.428 8168
1.904 2.348 1.436 7891
1.916 2.363 1.433 12257
1.928 2.377 1.431 9658
1.939 2.391 1.428 4428
1.964 2.422 1.435 3932
1.953 2.408 1.417 4642
1.955 2.411 1.408 5727
1.995 2.459 1.423 7281
2.001 2.468 1.417 12510
2.008 2.477 1.411 13229
2.020 2.491 1.408 8415
2.050 2.528 1.416 6845
2.052 2.531 1.407 6738
2.059 2.539 1.400 4750
2.066 2.548 1.394 4048
2.101 2.591 1.404 3939
2.104 2.594 1.395 6324
2.106 2.597 1.385 8643
2.108 2.600 1.375 10273
2.110 2.602 1.366 9886
2.122 2.617 1.362 10789
2.134 2.631 1.357 8864
2.211 2.726 1.391 7550
2.213 2.729 1.381 8267
2.215 2.732 1.371 10171
2.218 2.735 1.361 11745
2.215 2.732 1.348 8929
2.302 2.839 1.384 7942
2.319 2.859 1.382 7569
2.321 2.862 1.371 9228
2.328 2.871 1.363 7368
2.373 2.926 1.375 8220
2.375 2.929 1.364 9736
2.373 2.926 1.351 7336
2.365 2.917 1.335 6694
2.396 2.954 1.339 5771
2.403 2.963 1.330 7719
2.405 2.966 1.319 6260
2.441 3.009 1.324 5246
2.452 3.024 1.318 5579
2.450 3.021 1.304 6048
2.538 3.129 1.334 6932
2.540 3.132 1.323 8399
2.542 3.135 1.311 5588
2.583 3.184 1.317 4185
2.585 3.187 1.305 3434
2.630 3.243 1.313 3117
2.647 3.263 1.307 4439
2.658 3.278 1.300 6497
2.665 3.286 1.290 5518
2.730 3.366 1.304 4308
2.746 3.387 1.298 4678
2.763 3.407 1.292 4983
2.784 3.433 1.287 5694
2.787 3.436 1.274 7640
2.789 3.439 1.262 11184
2.791 3.441 1.249 9458
2.798 3.450 1.238 5344
2.824 3.482 1.235 5025
2.850 3.514 1.231 4502
2.934 3.618 1.250 6153
2.936 3.621 1.236 4490
2.992 3.689 1.243 3869
2.994 3.692 1.229 5845
2.996 3.694 1.215 7869
3.003 3.702 1.203 7827
3.000 3.699 1.188 6400
3.011 3.713 1.177 4030
3.086 3.806 1.189 5213
3.098 3.820 1.178 6409
3.105 3.828 1.165 8943
3.107 3.831 1.151 11368
3.109 3.833 1.137 11663
3.115 3.841 1.124 9259
3.122 3.850 1.111 6486
3.134 3.864 1.100 8277
3.135 3.866 1.086 10149
3.142 3.874 1.073 10125
3.144 3.876 1.058 8974
3.145 3.878 1.044 6797
3.142 3.874 1.028 5071
3.149 3.882 1.015 2940
3.420 4.218 1.075 1605
3.427 4.226 1.061 1639
3.522 4.343 1.070 1680
3.529 4.351 1.055 2387
3.530 4.353 1.039 1766
3.542 4.367 1.026 922
3.543 4.369 1.009 951
3.703 4.566 1.031 816
3.270 4.033 0.911 988
3.430 4.229 0.933 1105
3.421 4.219 0.915 922
3.976 4.902 1.023 1363
3.977 4.904 1.005 2019
3.999 4.931 0.991 2954
3.980 4.908 0.968 3889
3.977 4.904 0.949 3413
3.964 4.887 0.928 2909
3.975 4.901 0.911 3254
3.981 4.909 0.894 2489
4.230 5.216 0.922 2262
4.237 5.224 0.903 3023
4.228 5.214 0.882 3121
3.719 4.586 0.775 3913
3.725 4.593 0.758 4863
3.726 4.595 0.741 6512
3.727 4.596 0.724 7476
3.728 4.597 0.707 7435
3.729 4.599 0.690 6471
3.730 4.600 0.673 5860
3.731 4.601 0.656 5671
3.732 4.602 0.639 4186
3.728 4.597 0.621 3273
3.729 4.598 0.604 2787
3.730 4.599 0.587 1870
5.133 6.330 0.733 1834
5.139 6.337 0.710 1572
5.777 7.123 0.754 1697
5.783 7.131 0.728 1859
5.779 7.126 0.701 1638
5.780 7.127 0.674 1445
5.766 7.110 0.646 1488
5.767 7.111 0.620 1486
5.768 7.112 0.593 1090
5.893 7.267 0.576 839
5.894 7.268 0.549 738
6.024 7.428 0.530 569
6.000 7.399 0.501 660
5.991 7.387 0.472 610
6.016 7.419 0.446 416
0.838 1.034 0.162 267
1.302 1.601 1.579 3099
1.304 1.604 1.573 6199
1.315 1.618 1.576 5908
1.322 1.626 1.575 7950
1.325 1.629 1.569 10059
1.327 1.632 1.563 9276
1.330 1.636 1.557 8494
1.337 1.644 1.555 9799
1.339 1.647 1.549 11145
1.342 1.650 1.543 11145
1.348 1.659 1.542 10492
1.355 1.667 1.540 10244
1.370 1.685 1.547 8991
1.381 1.699 1.550 9884
1.388 1.707 1.548 8568
1.399 1.721 1.550 7677
1.414 1.739 1.557 7461
1.425 1.753 1.559 8116
1.432 1.761 1.557 7571
1.439 1.770 1.555 7114
1.441 1.773 1.548 7138
1.448 1.781 1.546 7937
1.459 1.795 1.548 9246
1.470 1.808 1.549 8680
1.477 1.817 1.547 8978
1.480 1.820 1.540 8522
1.482 1.823 1.534 8066
1.489 1.832 1.531 6769
1.492 1.835 1.524 5503
1.494 1.838 1.517 4221
1.497 1.841 1.511 2658
1.499 1.844 1.504 2288
1.523 1.874 1.517 2501
1.530 1.882 1.514 3127
1.533 1.885 1.507 2979
1.535 1.888 1.500 2830
1.533 1.886 1.489 2276
0.405 0.498 0.470 1801
1.534 1.887 1.472 2543
1.536 1.890 1.465 3846
1.534 1.887 1.454 4405
1.541 1.896 1.451 3699
1.645 2.023 1.531 3605
1.647 2.026 1.524 3853
1.650 2.029 1.516 4100
1.657 2.037 1.512 3480
1.663 2.046 1.509 2929
1.653 2.033 1.490 2790
1.668 2.052 1.494 3608
1.680 2.066 1.493 4766
1.687 2.075 1.489 5177
1.689 2.078 1.482 5278
1.692 2.081 1.474 5131
1.694 2.084 1.466 4856
1.706 2.098 1.466 4644
1.721 2.117 1.469 4318
1.733 2.131 1.468 4130
1.749 2.151 1.470 4269
1.769 2.176 1.476 3811
1.790 2.201 1.482 4055
1.778 2.187 1.464 4604
1.781 2.190 1.456 5220
1.783 2.193 1.447 4916
1.808 2.224 1.456 5828
1.815 2.233 1.451 5844
1.827 2.247 1.450 4061
1.825 2.244 1.438 2583
1.886 2.320 1.472 3518
1.898 2.334 1.470 5234
1.877 2.309 1.445 5941
1.880 2.312 1.437 7238
1.882 2.315 1.428 6998
1.907 2.346 1.436 7460
1.923 2.366 1.436 11952
1.930 2.374 1.431 9466
1.956 2.406 1.438 4354
1.967 2.420 1.435 4230
1.956 2.406 1.417 4535
1.958 2.409 1.408 5666
1.998 2.457 1.423 7433
2.009 2.471 1.420 12769
2.012 2.474 1.411 13567
2.023 2.488 1.408 9112
2.044 2.514 1.410 6898
2.051 2.523 1.404 6114
2.063 2.537 1.400 4298
2.070 2.545 1.394 4219
2.081 2.560 1.390 4129
2.107 2.591 1.395 6286
2.109 2.594 1.385 8387
2.111 2.597 1.375 9933
2.114 2.600 1.366 9799
2.125 2.614 1.362 10194
2.137 2.628 1.357 8520
2.214 2.723 1.391 7101
2.217 2.726 1.381 7312
2.224 2.735 1.373 8257
2.221 2.732 1.361 9418
2.299 2.827 1.392 8935
2.306 2.836 1.384 8407
2.322 2.856 1.382 7711
2.325 2.859 1.371 8662
2.327 2.862 1.360 6972
2.376 2.923 1.375 7664
2.379 2.926 1.364 9442
2.371 2.917 1.348 8148
2.369 2.914 1.335 7236
2.395 2.946 1.336 6170
2.402 2.954 1.328 7837
2.414 2.969 1.321 6926
2.444 3.006 1.324 5632
2.456 3.021 1.318 5185
2.453 3.018 1.304 5655
2.537 3.120 1.332 6381
2.539 3.123 1.320 7880
2.536 3.120 1.307 5107
2.591 3.187 1.319 3724
2.613 3.213 1.316 2970
2.629 3.234 1.311 3157
2.646 3.254 1.305 4321
2.662 3.275 1.300 7199
2.669 3.283 1.290 5987
2.749 3.381 1.311 3984
2.760 3.395 1.302 4407
2.772 3.410 1.294 4823
2.789 3.430 1.287 5153
2.796 3.439 1.276 6562
2.793 3.435 1.262 9027
2.790 3.432 1.247 7448
2.884 3.547 1.271 5179
2.828 3.478 1.235 4556
2.937 3.612 1.263 4643
2.939 3.615 1.250 7574
2.936 3.611 1.234 5744
2.943 3.620 1.223 3624
3.003 3.694 1.231 4678
3.005 3.696 1.217 6612
3.002 3.693 1.201 7336
3.004 3.695 1.188 6586
3.021 3.716 1.179 4134
3.096 3.808 1.190 4614
3.103 3.816 1.178 6720
3.110 3.825 1.165 9595
3.111 3.827 1.151 11558
3.113 3.829 1.137 11307
3.120 3.837 1.124 8782
3.122 3.840 1.110 6526
3.133 3.854 1.099 7940
3.140 3.862 1.086 8723
3.147 3.870 1.073 8261
3.148 3.872 1.058 7435
3.150 3.874 1.044 5673
3.147 3.870 1.028 4271
3.153 3.878 1.015 2353
3.430 4.219 1.077 1241
3.437 4.228 1.062 1247
3.527 4.339 1.070 1506
3.529 4.341 1.054 2213
3.536 4.349 1.039 1678
3.537 4.351 1.023 911
3.544 4.359 1.008 900
3.170 3.899 0.901 842
3.271 4.023 0.910 1133
3.435 4.225 0.933 956
3.422 4.208 0.914 822
3.982 4.897 1.023 1528
3.983 4.899 1.005 2164
4.005 4.926 0.991 3093
3.987 4.903 0.968 3967
3.983 4.899 0.949 3425
3.970 4.883 0.928 3122
3.981 4.897 0.911 3575
3.987 4.904 0.894 2686
4.242 5.217 0.923 2448
4.243 5.219 0.903 3212
4.240 5.215 0.883 3177
3.725 4.581 0.775 2843
3.731 4.589 0.758 3573
3.732 4.590 0.741 4940
3.733 4.591 0.724 5718
3.734 4.593 0.707 5692
3.735 4.594 0.690 4954
3.736 4.595 0.673 4463
3.737 4.596 0.656 4277
3.738 4.597 0.639 3098
3.734 4.592 0.621 2386
3.735 4.594 0.604 2011
5.488 6.751 0.798 1846
5.141 6.323 0.733 1787
5.147 6.331 0.710 1524
5.786 7.116 0.754 1735
5.792 7.124 0.728 1931
5.574 6.855 0.680 1765
5.884 7.237 0.683 1504
5.780 7.109 0.647 1411
5.776 7.104 0.620 1398
5.777 7.105 0.593 1038
5.902 7.260 0.576 839
5.908 7.267 0.549 725
6.034 7.421 0.530 579
6.004 7.385 0.500 659
5.995 7.374 0.472 624
5.991 7.368 0.444 426
0.855 1.051 0.143 271
0.855 1.051 0.139 281
5.763 7.089 -0.417 261
5.762 7.087 -0.443 324
5.766 7.092 -0.470 292
5.765 7.091 -0.497 265
1.310 1.603 1.583 3649
1.313 1.606 1.578 7299
1.319 1.614 1.576 6979
1.326 1.622 1.575 8808
1.329 1.626 1.569 10819
1.332 1.629 1.563 9919
1.334 1.632 1.557 9019
1.341 1.640 1.555 10100
1.343 1.644 1.549 11332
1.346 1.647 1.543 11332
1.353 1.655 1.542 10450
1.360 1.663 1.540 10013
1.375 1.682 1.547 8726
1.386 1.695 1.550 9701
1.392 1.703 1.548 8324
1.399 1.712 1.546 7192
1.440 1.761 1.578 6916
1.442 1.764 1.572 7863
1.445 1.768 1.565 7794
1.443 1.766 1.555 7727
1.446 1.769 1.548 7779
1.453 1.777 1.546 8458
1.460 1.786 1.543 9444
1.471 1.799 1.545 8777
1.482 1.813 1.547 9182
1.484 1.816 1.540 9008
1.487 1.819 1.534 8833
1.494 1.828 1.531 7237
1.501 1.836 1.528 5817
1.503 1.839 1.521 4325
1.506 1.842 1.515 2942
1.508 1.845 1.508 2878
1.528 1.870 1.517 3259
1.531 1.873 1.510 4021
1.533 1.876 1.503 3845
1.536 1.879 1.496 3668
1.538 1.882 1.489 2950
1.536 1.880 1.479 2304
1.539 1.883 1.472 3042
1.541 1.886 1.465 4429
1.544 1.889 1.458 5078
1.546 1.892 1.451 4243
1.553 1.900 1.448 3504
1.652 2.021 1.524 3452
1.655 2.025 1.516 3523
1.657 2.028 1.509 3051
1.673 2.047 1.512 2636
1.654 2.023 1.486 2385
1.678 2.053 1.497 3237
1.690 2.067 1.497 4570
1.692 2.070 1.489 5063
1.695 2.073 1.482 5202
1.697 2.076 1.474 5331
1.700 2.079 1.466 5303
1.707 2.088 1.462 4958
1.722 2.107 1.465 4152
1.738 2.127 1.468 3596
1.754 2.146 1.470 4045
1.770 2.166 1.473 3398
1.714 2.097 1.420 3283
1.716 2.100 1.412 4037
1.787 2.186 1.456 4337
1.803 2.205 1.458 4900
1.810 2.214 1.453 6295
1.821 2.228 1.451 6310
1.855 2.270 1.466 3988
1.876 2.295 1.471 3162
1.883 2.304 1.466 3349
1.904 2.329 1.470 4033
1.883 2.304 1.445 4782
1.886 2.307 1.437 5944
1.888 2.310 1.428 5735
1.918 2.347 1.439 7007
1.934 2.366 1.440 11563
1.941 2.375 1.434 9478
1.962 2.400 1.438 4683
1.974 2.415 1.435 4609
1.967 2.406 1.420 4487
1.965 2.403 1.408 5413
2.009 2.457 1.426 7192
2.016 2.466 1.420 12551
2.023 2.474 1.414 13664
2.030 2.483 1.408 9812
2.051 2.509 1.410 7107
2.053 2.511 1.401 5661
2.069 2.531 1.400 3857
2.076 2.540 1.394 4332
2.083 2.549 1.387 4474
2.114 2.586 1.395 5868
2.116 2.589 1.385 7989
2.118 2.591 1.375 9625
2.121 2.594 1.366 9818
2.132 2.608 1.362 9481
2.144 2.623 1.357 8012
2.221 2.718 1.391 6263
2.228 2.726 1.383 5931
2.231 2.729 1.373 5869
2.228 2.726 1.361 6772
2.301 2.816 1.390 8981
2.318 2.836 1.387 8696
2.330 2.850 1.382 7577
2.332 2.853 1.371 7928
2.334 2.856 1.360 6725
2.384 2.917 1.375 6639
2.386 2.919 1.364 8839
2.379 2.910 1.348 9054
2.381 2.913 1.337 7927
2.398 2.933 1.334 6851
2.410 2.948 1.328 7736
2.426 2.968 1.324 7317
2.452 3.000 1.324 5577
2.464 3.014 1.318 4615
2.457 3.005 1.302 5343
2.540 3.108 1.330 5687
2.542 3.110 1.318 7220
2.545 3.113 1.307 4788
2.605 3.186 1.322 3146
2.631 3.218 1.321 3444
2.638 3.227 1.311 3683
2.654 3.247 1.305 4607
2.671 3.268 1.300 7765
2.673 3.270 1.287 6233
2.757 3.373 1.311 3663
2.769 3.388 1.302 3967
2.781 3.402 1.294 4609
2.798 3.423 1.287 4273
2.810 3.437 1.278 4960
2.807 3.434 1.263 7582
2.804 3.430 1.249 6178
2.894 3.540 1.271 4590
2.842 3.477 1.236 4001
2.946 3.604 1.263 4691
2.944 3.601 1.248 8497
2.946 3.603 1.234 6692
2.952 3.612 1.223 4049
2.954 3.614 1.209 4341
3.015 3.688 1.217 5749
3.012 3.685 1.201 7377
3.009 3.681 1.186 7014
3.036 3.714 1.181 4550
3.111 3.806 1.192 3745
3.113 3.808 1.178 6507
3.115 3.810 1.164 9408
3.122 3.819 1.151 10654
3.123 3.821 1.137 10052
3.125 3.823 1.123 7976
3.127 3.825 1.108 6342
3.144 3.846 1.099 7082
3.150 3.854 1.086 6878
3.157 3.862 1.073 6138
3.159 3.864 1.058 5608
3.160 3.866 1.044 4303
3.157 3.862 1.028 3273
3.159 3.864 1.014 1858
3.101 3.794 0.983 1098
3.162 3.868 0.985 1113
3.539 4.329 1.070 1304
3.541 4.331 1.054 1954
3.547 4.339 1.039 1554
3.128 3.827 0.917 943
3.184 3.895 0.916 862
3.220 3.939 0.910 1008
3.281 4.014 0.910 1204
3.287 4.022 0.896 880
3.993 4.885 1.041 828
3.995 4.887 1.023 1600
3.996 4.889 1.005 2130
4.018 4.915 0.991 3019
3.999 4.893 0.968 3797
3.996 4.889 0.949 3255
3.983 4.872 0.928 3200
3.994 4.886 0.911 3731
4.000 4.894 0.894 2759
4.260 5.212 0.924 2523
4.262 5.214 0.904 3227
4.368 5.343 0.903 3210
4.364 5.339 0.882 2849
4.241 5.188 0.842 2428
4.531 5.544 0.869 3751
4.533 5.545 0.848 4533
3.746 4.583 0.707 3908
3.747 4.584 0.690 3393
3.743 4.579 0.672 3044
3.749 4.586 0.656 2888
5.023 6.145 0.810 2837
5.029 6.153 0.787 2079
5.110 6.252 0.774 1627
5.506 6.736 0.798 1921
5.163 6.316 0.733 1670
5.159 6.311 0.709 1437
5.590 6.838 0.731 1808
5.586 6.833 0.705 2101
5.592 6.841 0.680 1905
5.913 7.233 0.684 1678
5.799 7.094 0.647 1332
5.795 7.089 0.620 1319
5.796 7.090 0.593 965
5.926 7.250 0.576 810
5.927 7.251 0.549 693
6.053 7.405 0.530 584
6.019 7.363 0.500 674
6.009 7.352 0.472 643
6.005 7.346 0.444 444
0.466 0.571 0.159 279
0.456 0.558 0.157 266
0.857 1.049 0.147 280
0.857 1.049 0.143 318
0.857 1.049 0.139 327
0.852 1.043 0.136 301
0.847 1.037 0.132 281
5.802 7.098 -0.419 314
5.801 7.096 -0.445 390
5.800 7.095 -0.472 366
5.804 7.100 -0.499 350
5.802 7.098 -0.525 280
1.314 1.599 1.583 4146
1.317 1.602 1.578 8293
1.324 1.611 1.576 7986
1.330 1.619 1.575 9511
1.333 1.622 1.569 11307
1.336 1.625 1.563 10410
1.338 1.629 1.557 9513
1.341 1.632 1.551 10198
1.348 1.640 1.549 11016
1.350 1.643 1.543 11016
1.357 1.651 1.542 9928
1.364 1.660 1.540 9362
1.383 1.683 1.552 8225
1.394 1.697 1.554 9276
1.397 1.700 1.548 7834
1.404 1.708 1.546 6529
1.449 1.763 1.583 6664
1.447 1.761 1.572 7702
1.450 1.764 1.565 8015
1.452 1.767 1.559 8320
1.451 1.765 1.548 8331
1.457 1.773 1.546 8856
1.464 1.782 1.543 9492
1.475 1.795 1.545 8760
1.487 1.809 1.547 9215
1.489 1.812 1.540 9343
1.492 1.815 1.534 9471
1.499 1.824 1.531 7705
1.506 1.832 1.528 6220
1.517 1.846 1.530 4633
1.528 1.859 1.531 3351
1.518 1.847 1.512 3482
1.529 1.860 1.513 4031
1.536 1.869 1.510 4967
1.538 1.872 1.503 4772
1.541 1.875 1.496 4576
1.539 1.873 1.486 3712
1.541 1.876 1.479 2899
1.544 1.879 1.472 3586
1.546 1.882 1.465 5018
1.549 1.885 1.458 5764
1.551 1.888 1.451 4804
1.558 1.896 1.448 3932
1.653 2.012 1.520 2997
1.656 2.015 1.512 2901
1.663 2.023 1.509 2672
1.679 2.043 1.512 2439
0.409 0.498 0.449 2111
1.684 2.049 1.497 2963
1.695 2.063 1.497 4361
1.698 2.066 1.489 4908
1.700 2.069 1.482 5029
1.698 2.066 1.470 5361
1.701 2.069 1.463 5600
1.708 2.078 1.459 5289
1.724 2.097 1.461 4125
1.735 2.111 1.461 3338
1.765 2.147 1.474 3964
1.771 2.156 1.469 3551
1.778 2.164 1.465 3274
1.722 2.095 1.412 3754
1.792 2.181 1.456 4065
1.799 2.190 1.451 5282
1.816 2.209 1.453 6696
1.832 2.229 1.455 6691
1.866 2.271 1.470 5938
1.873 2.279 1.464 4772
1.880 2.288 1.459 4128
1.887 2.296 1.454 3190
1.885 2.294 1.442 3966
1.892 2.302 1.437 4876
1.899 2.311 1.432 4748
1.929 2.347 1.442 6503
1.941 2.361 1.440 11186
1.948 2.370 1.434 9739
1.959 2.384 1.431 5182
1.980 2.409 1.435 4837
1.978 2.407 1.423 4445
1.976 2.404 1.411 5008
2.015 2.452 1.426 6736
2.022 2.461 1.420 11896
2.029 2.469 1.414 13483
2.041 2.483 1.411 10313
2.057 2.503 1.410 7361
2.055 2.500 1.398 5561
2.062 2.509 1.392 3575
2.083 2.535 1.394 4134
2.085 2.537 1.384 4559
2.106 2.563 1.386 5503
2.123 2.583 1.385 7559
2.125 2.586 1.375 9251
