7.105 6.190 0.497 744
7.106 6.190 0.469 794
7.100 6.186 0.442 741
7.077 6.166 0.414 488
7.060 6.151 0.386 266
1.497 1.296 1.519 4301
1.500 1.299 1.513 8602
1.552 1.343 1.553 7082
1.560 1.350 1.552 7352
1.563 1.353 1.546 7527
1.566 1.356 1.540 6323
1.554 1.346 1.521 5417
1.557 1.348 1.515 6052
1.560 1.351 1.509 6687
1.598 1.384 1.534 5749
1.601 1.386 1.528 5128
1.634 1.415 1.549 4757
1.597 1.383 1.508 4350
1.715 1.485 1.602 4685
1.718 1.488 1.596 5454
1.722 1.490 1.589 6223
1.730 1.498 1.587 6032
1.753 1.518 1.598 6806
1.741 1.507 1.578 7468
1.749 1.515 1.576 10270
1.758 1.522 1.573 12152
1.756 1.520 1.563 12033
1.744 1.510 1.543 13230
1.767 1.530 1.554 15469
1.775 1.537 1.551 19294
1.773 1.535 1.540 16880
1.776 1.538 1.534 14565
1.774 1.536 1.523 11338
1.777 1.539 1.516 7508
1.796 1.555 1.521 6847
1.819 1.575 1.531 8505
1.823 1.578 1.524 9171
1.841 1.594 1.529 7589
1.849 1.601 1.526 6536
1.863 1.613 1.527 7270
1.871 1.620 1.524 8694
1.874 1.622 1.517 10206
1.882 1.630 1.514 12099
1.891 1.637 1.510 11472
1.899 1.644 1.507 9294
1.902 1.646 1.500 7045
1.926 1.667 1.508 8346
1.939 1.679 1.508 11137
1.948 1.686 1.505 10947
1.961 1.698 1.505 12179
1.969 1.705 1.501 11193
1.988 1.721 1.505 11534
1.997 1.729 1.501 13552
1.994 1.727 1.490 12501
2.013 1.743 1.493 12926
2.022 1.750 1.489 15909
2.024 1.753 1.482 15080
2.033 1.760 1.478 11078
2.036 1.762 1.470 7843
2.049 1.774 1.469 8035
2.058 1.781 1.465 10526
2.066 1.789 1.461 12358
2.069 1.791 1.453 10621
2.163 1.873 1.504 9125
2.166 1.875 1.496 10857
2.164 1.873 1.484 10940
2.178 1.885 1.483 8712
2.202 1.907 1.488 8708
2.200 1.904 1.476 8268
2.176 1.883 1.451 9614
2.227 1.928 1.473 8030
2.230 1.931 1.464 6652
2.233 1.933 1.456 6789
2.225 1.926 1.441 6929
2.239 1.938 1.439 6610
2.258 1.955 1.440 5350
2.321 2.010 1.467 4678
2.330 2.017 1.461 4994
2.338 2.024 1.455 3412
2.336 2.022 1.443 2338
2.338 2.024 1.435 4287
2.347 2.032 1.429 6168
2.372 2.053 1.432 9105
2.386 2.065 1.429 12188
2.405 2.082 1.429 9863
2.419 2.094 1.426 7620
2.405 2.082 1.408 6750
2.413 2.089 1.402 6609
2.444 2.116 1.407 7664
2.464 2.133 1.407 9441
2.483 2.150 1.406 11389
2.491 2.157 1.399 11184
2.494 2.159 1.390 8987
2.503 2.167 1.383 5983
2.528 2.188 1.385 6347
2.547 2.205 1.384 8070
2.544 2.203 1.371 8910
2.541 2.200 1.359 7840
2.578 2.232 1.366 5953
2.581 2.234 1.356 4369
2.634 2.280 1.370 5568
2.648 2.292 1.365 6340
2.656 2.300 1.358 3858
2.687 2.326 1.361 4027
2.690 2.329 1.351 6033
2.687 2.326 1.338 6465
2.746 2.377 1.353 6567
2.755 2.385 1.345 7856
2.757 2.387 1.335 6356
2.817 2.438 1.349 4937
2.831 2.451 1.343 7270
2.833 2.453 1.332 6372
2.853 2.470 1.329 6521
2.856 2.472 1.318 9046
2.853 2.470 1.305 7730
2.889 2.501 1.308 4381
2.961 2.563 1.325 3523
2.975 2.575 1.318 3701
3.000 2.597 1.316 3726
3.020 2.615 1.311 4547
3.023 2.617 1.300 4640
3.031 2.624 1.291 3496
3.045 2.636 1.283 4833
3.053 2.643 1.274 4947
3.096 2.680 1.277 4372
3.098 2.682 1.266 4932
3.153 2.730 1.273 5524
3.161 2.737 1.263 7380
3.158 2.734 1.249 6870
3.183 2.756 1.245 6510
3.221 2.788 1.245 7229
3.240 2.805 1.238 9908
3.260 2.822 1.232 8085
3.251 2.814 1.216 5743
3.248 2.812 1.201 5806
3.320 2.874 1.212 5526
3.328 2.881 1.201 6534
3.330 2.883 1.188 5288
3.391 2.935 1.194 5603
3.393 2.937 1.181 8812
3.413 2.955 1.173 6996
3.432 2.972 1.166 5323
3.505 3.034 1.174 5800
3.565 3.087 1.177 3704
3.603 3.119 1.174 4076
3.599 3.116 1.159 4319
3.596 3.113 1.143 3186
3.721 3.221 1.164 3424
3.717 3.218 1.148 3829
3.696 3.200 1.127 3301
3.727 3.227 1.121 2948
3.806 3.295 1.127 4634
3.867 3.348 1.127 6089
3.875 3.355 1.114 7513
3.877 3.356 1.099 7227
3.885 3.363 1.086 6086
3.905 3.380 1.075 3777
4.113 3.561 1.110 3798
4.109 3.557 1.093 4830
4.123 3.570 1.080 3922
4.196 3.633 1.080 3567
4.210 3.645 1.066 4642
4.218 3.651 1.052 3959
4.385 3.796 1.071 3447
4.304 3.727 1.037 3563
4.312 3.733 1.021 3770
4.326 3.745 1.007 4390
4.328 3.747 0.991 3335
4.567 3.954 1.020 2326
4.474 3.873 0.985 2588
4.488 3.885 0.970 3098
4.519 3.912 0.958 2861
4.889 4.232 1.007 3359
4.896 4.239 0.989 2640
4.845 4.194 0.961 2198
4.882 4.227 0.949 2696
4.884 4.228 0.930 2474
4.939 4.276 0.920 3619
4.947 4.283 0.902 3452
4.948 4.284 0.883 2723
5.337 4.620 0.921 2670
5.267 4.560 0.890 3077
5.358 4.639 0.882 3716
5.443 4.712 0.873 2914
5.439 4.708 0.852 2865
5.440 4.710 0.831 2230
6.043 5.232 0.885 2347
6.045 5.233 0.861 2889
6.041 5.230 0.838 3362
6.042 5.231 0.814 5877
6.044 5.232 0.791 7267
6.039 5.228 0.767 5847
6.041 5.230 0.744 4823
6.143 5.319 0.731 4605
6.133 5.309 0.706 5297
6.134 5.310 0.683 7247
6.147 5.322 0.660 8585
6.148 5.323 0.637 6899
6.161 5.334 0.614 4833
6.168 5.340 0.591 4401
6.163 5.336 0.567 3665
6.146 5.321 0.542 2354
7.008 6.067 0.572 1746
6.985 6.047 0.543 1633
6.992 6.053 0.517 1257
7.124 6.168 0.497 604
7.125 6.168 0.469 643
7.114 6.159 0.442 620
7.090 6.138 0.413 436
7.073 6.123 0.385 253
1.505 1.297 1.523 4934
1.508 1.299 1.518 9869
1.550 1.336 1.549 8155
1.558 1.343 1.548 8645
1.566 1.349 1.546 8797
1.569 1.352 1.540 7373
1.562 1.346 1.525 6014
1.565 1.349 1.520 6241
1.564 1.347 1.509 6561
1.616 1.393 1.548 5870
1.624 1.400 1.546 5499
1.632 1.407 1.544 5265
1.606 1.383 1.512 4445
1.719 1.481 1.602 4338
1.722 1.484 1.596 4900
1.730 1.491 1.593 5519
1.738 1.498 1.591 5639
1.757 1.514 1.598 6804
1.750 1.508 1.582 7310
1.753 1.510 1.576 10121
1.761 1.518 1.573 12214
1.764 1.520 1.567 11778
1.747 1.505 1.543 12306
1.771 1.526 1.554 14608
1.779 1.533 1.551 18112
1.782 1.535 1.544 15834
1.780 1.534 1.534 13579
1.783 1.536 1.527 10951
1.786 1.539 1.520 7616
1.810 1.559 1.530 8044
1.823 1.571 1.531 9669
1.821 1.569 1.520 10049
1.834 1.581 1.521 7973
1.853 1.597 1.526 6847
1.867 1.608 1.527 7268
1.875 1.615 1.524 8521
1.883 1.623 1.521 9689
1.886 1.625 1.514 11164
1.894 1.632 1.510 10832
1.908 1.644 1.511 9157
1.927 1.660 1.515 7392
1.930 1.663 1.508 8951
1.943 1.674 1.508 11923
1.952 1.682 1.505 11460
1.965 1.693 1.505 12272
1.973 1.700 1.501 11058
1.992 1.717 1.505 11555
2.001 1.724 1.501 13747
1.998 1.722 1.490 12826
2.017 1.738 1.493 13347
2.026 1.745 1.489 16516
2.029 1.748 1.482 15553
2.037 1.755 1.478 11447
2.045 1.762 1.473 8165
2.053 1.769 1.469 8261
2.062 1.777 1.465 10753
2.070 1.784 1.461 12470
2.073 1.786 1.453 10611
2.168 1.868 1.504 8209
2.171 1.870 1.496 9365
2.174 1.873 1.488 9385
2.187 1.885 1.486 8260
2.207 1.901 1.488 9031
2.204 1.899 1.476 8876
2.174 1.874 1.448 10336
2.221 1.914 1.466 6540
2.229 1.921 1.461 5596
2.232 1.923 1.453 6144
2.224 1.917 1.438 6942
2.233 1.924 1.433 6554
2.263 1.950 1.440 4986
2.326 2.004 1.467 4658
2.340 2.016 1.464 4701
2.348 2.024 1.459 3156
2.390 2.059 1.472 2492
2.338 2.014 1.431 3639
2.346 2.021 1.426 5494
2.388 2.057 1.438 8293
2.401 2.069 1.435 12013
2.415 2.081 1.432 10468
2.424 2.089 1.426 8015
2.421 2.086 1.414 6193
2.424 2.089 1.405 5597
2.449 2.110 1.407 7775
2.463 2.122 1.404 10266
2.482 2.139 1.403 11775
2.496 2.151 1.399 11210
2.505 2.158 1.393 9132
2.508 2.161 1.383 5702
2.522 2.173 1.379 4882
2.552 2.199 1.384 7027
2.549 2.197 1.371 8234
2.547 2.194 1.359 7844
2.583 2.226 1.366 6799
2.586 2.228 1.356 4008
2.645 2.279 1.373 5673
2.653 2.286 1.365 6444
2.662 2.293 1.358 4896
2.681 2.310 1.356 4771
2.695 2.322 1.351 5429
2.692 2.320 1.338 5889
2.757 2.376 1.356 7228
2.766 2.383 1.348 9091
2.763 2.381 1.335 6251
2.822 2.432 1.349 5449
2.836 2.444 1.343 7336
2.839 2.446 1.332 6594
2.853 2.458 1.326 6414
2.856 2.461 1.316 8315
2.853 2.458 1.302 7170
2.912 2.510 1.315 4426
2.926 2.522 1.309 3097
2.935 2.529 1.300 3392
2.926 2.521 1.284 4041
3.032 2.612 1.314 4034
3.034 2.615 1.302 4197
3.043 2.622 1.293 3807
3.051 2.629 1.283 5871
3.059 2.636 1.274 6187
3.096 2.668 1.275 5116
3.105 2.675 1.266 5347
3.165 2.727 1.275 5169
3.173 2.734 1.265 6906
3.147 2.712 1.242 5961
3.155 2.719 1.233 5416
3.227 2.781 1.245 6541
3.247 2.798 1.238 9485
3.261 2.810 1.230 7762
3.258 2.807 1.216 7100
3.254 2.804 1.201 7538
3.332 2.871 1.214 5172
3.340 2.878 1.203 5847
3.337 2.875 1.188 4820
3.386 2.917 1.190 5520
3.400 2.929 1.181 9376
3.420 2.947 1.173 7580
3.445 2.969 1.167 6573
3.512 3.026 1.174 5601
3.579 3.083 1.179 4222
3.610 3.111 1.174 4019
3.607 3.108 1.159 3536
3.609 3.110 1.145 2073
3.734 3.218 1.165 3383
3.731 3.215 1.149 3617
3.703 3.191 1.127 3163
3.741 3.223 1.123 3347
3.814 3.286 1.127 4198
3.881 3.344 1.129 6283
3.883 3.346 1.114 7909
3.885 3.347 1.099 7636
3.893 3.354 1.086 6179
3.936 3.392 1.081 3778
4.121 3.551 1.110 3479
4.123 3.553 1.094 4382
4.131 3.560 1.080 3674
4.204 3.623 1.080 3129
4.218 3.635 1.066 3925
4.226 3.642 1.052 3622
4.394 3.786 1.071 3242
4.402 3.793 1.055 3216
4.327 3.728 1.023 3161
4.341 3.740 1.009 3929
4.331 3.732 0.990 2964
4.576 3.943 1.020 2315
4.483 3.863 0.985 2657
4.497 3.875 0.970 3470
4.522 3.897 0.957 2899
4.898 4.221 1.007 3211
4.906 4.228 0.989 2489
4.712 4.060 0.937 2301
4.892 4.215 0.949 2428
4.900 4.222 0.931 2349
4.949 4.264 0.920 3488
4.951 4.266 0.901 3377
4.958 4.273 0.883 2719
5.348 4.608 0.921 2287
5.367 4.625 0.903 2866
5.369 4.626 0.882 3740
5.364 4.622 0.861 2899
5.456 4.701 0.852 2658
5.457 4.702 0.832 2052
6.056 5.218 0.885 2734
6.057 5.219 0.861 3404
6.053 5.216 0.838 3816
6.054 5.217 0.814 6458
6.056 5.218 0.791 7960
6.051 5.214 0.767 6691
6.059 5.221 0.745 5896
6.066 5.227 0.722 5341
6.145 5.295 0.706 5872
6.146 5.296 0.683 7725
6.159 5.307 0.660 8849
6.155 5.303 0.636 7209
6.168 5.314 0.614 4874
6.175 5.320 0.590 4301
6.170 5.316 0.566 3648
6.159 5.307 0.542 2476
7.028 6.056 0.572 1801
6.999 6.031 0.543 1541
7.012 6.042 0.517 1184
7.061 6.084 0.493 595
7.139 6.152 0.469 534
7.140 6.152 0.442 518
7.093 6.111 0.413 385
1.513 1.297 1.528 5551
1.516 1.300 1.522 11102
1.553 1.332 1.549 9153
1.561 1.339 1.548 9745
1.569 1.346 1.546 9839
1.572 1.348 1.540 8333
1.576 1.351 1.534 6827
1.574 1.349 1.524 6461
1.567 1.343 1.509 6379
1.615 1.384 1.543 6035
1.623 1.391 1.542 5853
1.631 1.398 1.540 5736
1.629 1.397 1.530 4941
1.617 1.386 1.510 4314
1.635 1.402 1.517 4662
1.638 1.405 1.511 5122
1.742 1.494 1.591 5358
1.760 1.509 1.598 6696
1.759 1.508 1.587 7090
1.762 1.511 1.580 9684
1.770 1.518 1.578 11939
1.768 1.516 1.567 11336
1.751 1.501 1.543 11353
1.774 1.521 1.554 13499
1.783 1.528 1.551 16464
1.786 1.531 1.544 14520
1.789 1.534 1.538 12577
1.792 1.536 1.531 10608
1.810 1.552 1.536 8653
1.819 1.559 1.534 9623
1.827 1.567 1.531 11263
1.825 1.565 1.520 11531
1.833 1.572 1.517 9133
1.852 1.588 1.522 7274
1.870 1.604 1.527 7275
1.879 1.611 1.524 8394
1.887 1.618 1.521 9256
1.890 1.621 1.514 10237
1.904 1.632 1.514 10251
1.917 1.644 1.515 9189
1.925 1.651 1.511 7784
1.934 1.658 1.508 9219
1.947 1.670 1.508 12253
1.956 1.677 1.505 11555
1.969 1.688 1.505 11935
1.978 1.696 1.501 10582
1.996 1.712 1.505 11383
2.005 1.719 1.501 13768
2.003 1.717 1.490 12894
2.021 1.733 1.493 13329
2.030 1.740 1.489 16458
2.033 1.743 1.482 15415
2.041 1.750 1.478 11340
2.049 1.757 1.473 8099
2.058 1.764 1.469 8230
2.066 1.772 1.465 10786
2.074 1.779 1.461 12362
2.072 1.777 1.449 10678
2.172 1.862 1.504 7130
2.175 1.865 1.496 7785
2.178 1.868 1.488 7799
2.197 1.884 1.490 8005
2.211 1.896 1.488 9095
2.203 1.889 1.473 9532
2.179 1.868 1.448 11265
2.193 1.880 1.446 7079
2.234 1.915 1.461 5886
2.231 1.913 1.449 6492
2.229 1.911 1.438 7412
2.237 1.918 1.433 6683
2.257 1.935 1.434 4724
2.331 1.999 1.467 4551
2.345 2.011 1.464 4550
2.359 2.023 1.462 3179
2.389 2.049 1.468 2945
2.392 2.051 1.459 3544
2.345 2.011 1.423 4815
2.404 2.061 1.444 7816
2.412 2.068 1.438 11781
2.420 2.075 1.432 10945
2.429 2.083 1.426 8536
2.432 2.085 1.417 6058
2.446 2.097 1.414 5407
2.449 2.099 1.404 8187
2.463 2.111 1.401 11103
2.488 2.133 1.403 11626
2.502 2.145 1.399 10589
2.510 2.152 1.393 8888
2.507 2.150 1.381 5615
2.516 2.157 1.374 4326
2.563 2.198 1.387 5616
2.555 2.191 1.371 6924
2.558 2.193 1.362 7409
2.594 2.224 1.368 7300
2.614 2.241 1.367 4012
2.650 2.273 1.373 5798
2.659 2.280 1.365 6521
2.667 2.287 1.358 5827
2.681 2.299 1.353 6583
2.695 2.311 1.348 6404
2.704 2.318 1.340 6099
2.763 2.369 1.356 7944
2.772 2.376 1.348 10009
2.780 2.384 1.340 6640
2.823 2.420 1.347 5790
2.837 2.432 1.341 7190
2.845 2.439 1.332 6509
2.859 2.451 1.326 6202
2.856 2.449 1.313 7684
2.853 2.446 1.300 6749
2.924 2.507 1.317 4230
2.938 2.519 1.311 2975
2.924 2.507 1.293 3345
2.926 2.509 1.282 4322
3.038 2.605 1.314 3602
3.047 2.612 1.304 4189
3.061 2.624 1.297 4705
3.063 2.626 1.286 7064
3.066 2.629 1.274 7267
3.097 2.656 1.273 5912
3.111 2.668 1.266 5952
3.177 2.724 1.277 4867
3.180 2.727 1.265 6005
3.148 2.699 1.240 4916
3.144 2.696 1.226 4889
3.234 2.773 1.245 6225
3.248 2.785 1.236 9016
3.268 2.802 1.230 7507
3.264 2.799 1.216 8013
3.261 2.796 1.201 8352
3.345 2.868 1.216 5450
3.353 2.875 1.205 5771
3.350 2.872 1.190 4973
3.393 2.909 1.190 6646
3.401 2.916 1.179 9628
3.433 2.943 1.175 7843
3.452 2.960 1.167 7427
3.455 2.962 1.154 5239
3.586 3.075 1.179 4487
3.618 3.102 1.174 3826
3.614 3.099 1.159 2878
3.552 3.045 1.127 2072
3.742 3.209 1.165 3380
3.744 3.210 1.151 3473
3.746 3.212 1.137 3174
3.749 3.214 1.123 3682
3.757 3.221 1.110 4167
3.889 3.334 1.129 6284
3.891 3.336 1.114 7902
3.893 3.338 1.099 7599
3.901 3.345 1.086 6113
3.944 3.382 1.081 3982
3.952 3.389 1.067 3471
4.132 3.543 1.094 4001
4.146 3.555 1.081 3381
4.201 3.602 1.077 3036
4.227 3.624 1.066 3700
4.229 3.626 1.050 3471
4.397 3.770 1.070 3009
4.411 3.782 1.055 2907
4.378 3.753 1.031 2771
4.350 3.730 1.009 3552
4.340 3.721 0.990 2662
4.580 3.927 1.019 2259
4.492 3.852 0.985 2767
4.506 3.864 0.970 3768
4.526 3.880 0.956 3040
4.903 4.204 1.006 2967
4.916 4.216 0.989 2293
4.722 4.049 0.937 2293
4.902 4.203 0.949 2267
4.928 4.225 0.934 2441
4.954 4.247 0.919 3366
4.961 4.254 0.901 3233
4.963 4.255 0.882 2615
5.180 4.441 0.895 2202
5.378 4.612 0.903 2653
5.380 4.613 0.882 3652
5.376 4.609 0.861 2977
5.473 4.693 0.853 2375
5.474 4.694 0.832 1920
6.068 5.203 0.885 2980
6.070 5.205 0.861 3736
6.072 5.206 0.838 4115
6.067 5.202 0.814 6833
6.069 5.203 0.791 8400
6.064 5.199 0.767 7251
6.071 5.206 0.745 6706
6.079 5.212 0.722 6233
6.158 5.280 0.706 6188
6.159 5.281 0.683 7849
6.166 5.287 0.660 8832
6.167 5.288 0.636 7349
6.174 5.294 0.613 4914
6.182 5.300 0.590 4179
6.176 5.296 0.566 3592
7.048 6.043 0.599 2625
7.049 6.044 0.573 1861
7.080 6.070 0.547 1435
7.075 6.066 0.520 1142
7.081 6.072 0.493 632
7.094 6.083 0.467 469
7.101 6.089 0.440 462
7.102 6.089 0.413 340
1.516 1.293 1.528 6127
1.520 1.296 1.522 12254
1.557 1.327 1.549 10074
1.565 1.334 1.548 10766
1.568 1.337 1.542 10867
1.576 1.344 1.540 9262
1.579 1.346 1.534 7726
1.582 1.349 1.529 6803
1.615 1.377 1.549 6198
1.619 1.380 1.543 6198
1.627 1.387 1.542 6195
1.635 1.394 1.540 6271
1.633 1.392 1.530 5566
1.631 1.390 1.519 4942
1.639 1.397 1.517 4980
1.642 1.400 1.511 5062
1.751 1.493 1.596 5144
1.760 1.500 1.593 6584
1.763 1.503 1.587 6823
1.766 1.506 1.580 9123
1.774 1.513 1.578 11400
1.777 1.515 1.571 10665
1.755 1.496 1.543 10260
1.784 1.521 1.558 12137
1.787 1.523 1.551 14346
1.790 1.526 1.544 12786
1.793 1.529 1.538 11227
1.807 1.540 1.539 10227
1.815 1.547 1.536 9726
1.823 1.554 1.534 11214
1.826 1.557 1.527 13151
1.829 1.560 1.520 13371
1.832 1.562 1.513 10693
1.841 1.569 1.510 8253
1.870 1.594 1.523 7344
1.888 1.610 1.528 8434
1.892 1.613 1.521 8905
1.895 1.615 1.514 9375
1.908 1.627 1.514 9743
1.922 1.638 1.515 9342
1.930 1.645 1.511 8012
1.944 1.657 1.512 9204
1.952 1.664 1.508 12205
1.960 1.671 1.505 11323
1.974 1.683 1.505 11274
1.982 1.690 1.501 9849
2.001 1.706 1.505 11016
2.004 1.709 1.497 13598
2.007 1.711 1.490 12606
2.026 1.728 1.493 12792
2.040 1.739 1.493 15701
2.043 1.742 1.485 14636
2.046 1.744 1.478 10699
2.054 1.751 1.473 7625
2.063 1.759 1.469 7963
2.076 1.770 1.469 10742
2.079 1.773 1.461 11935
2.077 1.771 1.449 10631
2.085 1.778 1.445 6703
2.180 1.859 1.496 6304
2.183 1.861 1.488 6270
2.203 1.878 1.490 7614
2.206 1.880 1.481 8949
2.203 1.878 1.470 10091
2.184 1.862 1.448 12156
2.198 1.874 1.446 7726
2.239 1.909 1.461 6882
2.237 1.907 1.449 7469
2.234 1.905 1.438 8153
2.237 1.907 1.429 6699
2.262 1.928 1.434 4280
2.337 1.992 1.467 4321
2.351 2.004 1.464 4515
2.293 1.955 1.421 3829
2.390 2.037 1.465 3610
2.398 2.044 1.459 4447
2.412 2.056 1.456 5263
2.415 2.059 1.447 7737
2.418 2.061 1.438 11298
2.426 2.069 1.432 11287
2.435 2.076 1.426 9051
2.443 2.083 1.420 6222
2.446 2.085 1.411 5528
2.454 2.093 1.404 8661
2.468 2.104 1.401 11814
2.494 2.126 1.403 11111
2.508 2.138 1.399 9501
2.516 2.145 1.393 8341
2.513 2.143 1.381 6177
2.510 2.140 1.368 5009
2.581 2.200 1.392 4270
2.578 2.198 1.380 5192
2.592 2.210 1.375 7060
2.600 2.217 1.368 7376
2.620 2.234 1.367 4322
2.657 2.265 1.373 5811
2.671 2.277 1.368 6488
2.679 2.284 1.361 6602
2.688 2.291 1.353 8414
2.702 2.303 1.348 8451
2.704 2.306 1.338 7212
2.770 2.361 1.356 8856
2.778 2.369 1.348 10778
2.787 2.376 1.340 7911
2.818 2.402 1.342 6334
2.838 2.419 1.338 6730
2.852 2.431 1.332 6092
2.854 2.434 1.322 5950
2.851 2.431 1.308 7373
2.854 2.433 1.298 6255
2.937 2.504 1.320 3691
2.945 2.511 1.311 2843
2.948 2.513 1.300 3119
2.933 2.501 1.282 4090
2.924 2.493 1.266 3269
3.060 2.609 1.307 4289
3.074 2.621 1.299 5822
3.076 2.623 1.288 8274
3.079 2.625 1.276 8215
3.105 2.647 1.273 6505
3.113 2.654 1.263 6587
3.185 2.715 1.277 4698
3.188 2.718 1.265 5072
3.149 2.685 1.238 3942
3.146 2.682 1.224 4852
3.236 2.759 1.243 6014
3.250 2.771 1.234 8698
3.264 2.783 1.226 7003
3.272 2.790 1.216 8303
3.269 2.787 1.201 8083
3.353 2.859 1.216 6255
3.367 2.871 1.207 6084
3.364 2.868 1.192 5301
3.395 2.895 1.188 7594
3.409 2.907 1.179 9469
3.441 2.934 1.175 7863
3.461 2.951 1.167 8149
3.463 2.952 1.154 6258
3.595 3.065 1.179 4771
3.626 3.092 1.174 3652
3.635 3.099 1.162 2589
3.678 3.136 1.160 2564
3.757 3.203 1.167 3685
3.759 3.205 1.153 3577
3.756 3.202 1.137 3347
3.758 3.204 1.123 3771
3.890 3.316 1.142 4186
3.916 3.338 1.133 6159
3.906 3.330 1.116 7479
3.902 3.327 1.099 6960
3.910 3.334 1.086 5813
3.954 3.371 1.081 4253
3.962 3.378 1.067 3581
4.053 3.455 1.073 3805
4.186 3.568 1.088 3218
4.206 3.585 1.076 3039
4.338 3.699 1.089 3775
4.156 3.543 1.032 3700
4.176 3.560 1.020 2956
4.416 3.765 1.054 2689
4.388 3.741 1.031 2761
4.378 3.733 1.012 3258
4.452 3.795 1.010 2776
4.591 3.914 1.019 2300
4.503 3.839 0.985 2768
4.517 3.851 0.970 3848
4.531 3.863 0.955 3087
4.837 4.124 0.992 2806
4.797 4.090 0.966 2190
4.733 4.035 0.937 2204
4.920 4.195 0.950 2322
4.940 4.211 0.934 2609
4.960 4.228 0.918 3146
4.967 4.235 0.900 2973
4.975 4.241 0.882 2463
5.204 4.437 0.896 2314
5.188 4.423 0.874 2422
5.387 4.593 0.882 3435
5.389 4.594 0.861 2999
5.378 4.585 0.839 2319
5.374 4.581 0.818 1894
6.083 5.186 0.885 3132
6.085 5.187 0.861 3951
6.086 5.189 0.838 4292
6.082 5.185 0.814 6995
6.083 5.186 0.791 8578
6.085 5.187 0.768 7556
6.086 5.189 0.745 7223
6.093 5.195 0.722 6854
6.089 5.191 0.698 6475
6.174 5.264 0.683 7614
6.181 5.270 0.660 8404
6.182 5.271 0.636 7141
6.183 5.272 0.613 4836
6.190 5.278 0.589 3918
6.191 5.278 0.566 3376
7.071 6.028 0.600 2801
7.072 6.029 0.573 1933
7.097 6.050 0.547 1523
7.098 6.051 0.520 1210
7.105 6.057 0.493 695
7.105 6.058 0.466 509
7.112 6.063 0.440 454
7.119 6.069 0.413 301
1.524 1.294 1.533 6488
1.527 1.297 1.527 12977
1.560 1.324 1.549 10785
1.568 1.331 1.548 11619
1.571 1.334 1.542 11731
1.574 1.336 1.536 10113
1.582 1.343 1.534 8624
1.585 1.346 1.529 7183
1.618 1.374 1.549 6304
1.621 1.377 1.543 6304
1.629 1.383 1.542 6320
1.638 1.390 1.540 6415
1.636 1.389 1.530 5771
1.634 1.387 1.519 5258
1.637 1.390 1.513 5125
1.640 1.392 1.507 4992
1.754 1.489 1.596 4789
1.763 1.496 1.593 6321
1.766 1.499 1.587 6364
1.774 1.506 1.584 8402
1.777 1.509 1.578 10573
1.781 1.512 1.571 9870
1.779 1.510 1.560 9242
1.787 1.517 1.558 10529
1.790 1.520 1.551 11891
1.793 1.522 1.544 10733
1.801 1.529 1.542 9618
1.810 1.537 1.539 9695
1.818 1.544 1.536 10346
1.826 1.551 1.534 12439
1.829 1.553 1.527 14857
1.832 1.556 1.520 15106
1.836 1.558 1.513 12323
1.844 1.565 1.510 9720
1.873 1.590 1.523 7566
1.892 1.606 1.528 8674
1.895 1.609 1.521 8702
1.893 1.607 1.510 8739
1.912 1.623 1.514 9340
1.925 1.634 1.515 9388
1.928 1.637 1.508 7986
1.947 1.653 1.512 8906
1.955 1.660 1.508 11775
1.964 1.667 1.505 10816
1.977 1.679 1.505 10466
1.986 1.686 1.501 9111
2.005 1.702 1.505 10488
2.008 1.705 1.497 13204
2.011 1.707 1.490 11946
2.030 1.723 1.493 11733
2.044 1.735 1.493 14307
2.047 1.738 1.485 13207
2.055 1.745 1.481 9463
2.058 1.747 1.473 6709
2.099 1.782 1.491 8593
2.086 1.771 1.472 10685
2.083 1.769 1.461 11272
2.086 1.771 1.453 10314
2.105 1.787 1.455 7673
2.119 1.799 1.454 7488
2.122 1.802 1.446 5668
2.207 1.873 1.490 7134
2.210 1.876 1.481 8883
2.202 1.869 1.466 10524
2.188 1.858 1.448 12858
2.207 1.874 1.450 8389
2.238 1.900 1.458 7877
2.241 1.902 1.449 8483
2.238 1.900 1.438 8782
2.241 1.903 1.429 6543
2.260 1.919 1.431 3575
2.346 1.992 1.470 4092
2.360 2.004 1.467 4608
2.302 1.955 1.424 4163
2.394 2.032 1.465 4396
2.397 2.035 1.456 5767
2.405 2.042 1.450 6424
2.419 2.054 1.447 7364
2.428 2.061 1.441 10528
2.431 2.064 1.432 11270
2.439 2.071 1.426 9334
2.453 2.083 1.423 6515
2.450 2.080 1.411 5916
2.453 2.083 1.401 9036
2.473 2.099 1.401 12264
2.492 2.116 1.400 10794
2.512 2.133 1.399 8309
2.515 2.135 1.390 7761
2.518 2.138 1.381 7188
2.515 2.135 1.368 5898
2.517 2.137 1.359 3818
2.594 2.202 1.385 4147
2.596 2.204 1.375 6543
2.605 2.212 1.368 7046
2.625 2.228 1.367 4567
2.661 2.260 1.373 5932
2.676 2.272 1.368 6300
2.684 2.279 1.361 6659
2.698 2.291 1.356 9341
2.701 2.293 1.346 10295
2.709 2.300 1.338 8677
2.775 2.356 1.356 9924
2.783 2.363 1.348 11355
2.791 2.370 1.340 9176
2.817 2.392 1.339 7070
2.837 2.409 1.336 6258
2.851 2.421 1.330 5477
2.854 2.423 1.319 5911
2.851 2.420 1.306 7192
2.859 2.427 1.298 5604
2.885 2.449 1.296 3237
2.951 2.505 1.311 3117
2.947 2.502 1.298 3322
2.933 2.490 1.280 3786
3.051 2.590 1.314 2960
3.077 2.612 1.311 4472
3.085 2.619 1.302 6859
3.082 2.616 1.288 9329
3.084 2.619 1.276 8842
3.110 2.641 1.273 6813
3.118 2.648 1.263 6895
3.185 2.704 1.275 4764
3.193 2.711 1.265 5004
3.167 2.688 1.242 3811
3.157 2.681 1.226 5141
3.236 2.747 1.241 5759
3.250 2.759 1.232 8611
3.258 2.766 1.222 6799
3.272 2.778 1.214 7839
3.269 2.775 1.199 7095
3.359 2.852 1.216 7062
3.373 2.864 1.207 6354
3.369 2.861 1.192 5090
3.401 2.888 1.188 7582
3.409 2.895 1.177 8937
3.447 2.926 1.175 7716
3.467 2.943 1.167 8630
3.475 2.950 1.156 7069
3.601 3.057 1.179 5009
3.633 3.084 1.174 3564
3.706 3.146 1.180 2578
3.684 3.128 1.160 2960
3.763 3.195 1.167 4365
3.772 3.202 1.154 3995
3.762 3.194 1.137 3620
3.764 3.196 1.123 3853
3.897 3.308 1.142 4192
3.923 3.330 1.133 6257
3.919 3.327 1.117 6949
3.909 3.319 1.099 5826
3.923 3.331 1.087 5266
3.955 3.358 1.080 4520
4.070 3.455 1.091 3737
4.060 3.447 1.073 4206
4.056 3.444 1.056 3642
4.213 3.577 1.076 2960
4.346 3.690 1.089 4764
4.342 3.686 1.071 4532
4.171 3.542 1.018 2838
4.412 3.746 1.052 2713
4.396 3.732 1.031 2598
4.392 3.729 1.013 2927
4.465 3.791 1.011 3108
4.467 3.793 0.994 2438
4.517 3.835 0.986 2651
4.531 3.847 0.971 3663
4.539 3.853 0.955 2986
4.845 4.114 0.992 3134
4.805 4.080 0.966 2544
4.963 4.214 0.974 2155
5.132 4.357 0.983 2677
4.948 4.201 0.934 2810
4.962 4.213 0.917 2880
4.976 4.225 0.900 2636
5.235 4.445 0.920 2611
5.213 4.426 0.896 2505
5.197 4.412 0.874 2736
5.390 4.577 0.881 3274
5.392 4.578 0.860 2993
5.382 4.569 0.838 2358
5.371 4.560 0.816 2008
6.094 5.174 0.885 3140
6.095 5.175 0.861 3965
6.097 5.176 0.838 4289
6.092 5.173 0.814 6907
6.094 5.174 0.791 8438
6.095 5.175 0.768 7531
6.103 5.181 0.745 7362
6.104 5.182 0.722 7094
6.099 5.178 0.698 6517
6.094 5.174 0.675 7192
6.096 5.175 0.652 7686
6.193 5.258 0.636 6593
6.194 5.259 0.613 4534
6.201 5.265 0.589 3543
7.088 6.018 0.627 3258
7.089 6.019 0.600 2962
7.096 6.025 0.574 2036
7.109 6.036 0.547 1555
7.110 6.037 0.520 1262
7.117 6.042 0.493 780
7.118 6.043 0.466 574
7.124 6.049 0.440 449
1.528 1.290 1.533 6691
1.531 1.292 1.527 13383
1.563 1.320 1.549 11294
1.571 1.327 1.548 12220
1.575 1.329 1.542 12345
1.578 1.332 1.536 10803
1.586 1.339 1.534 9387
1.589 1.342 1.529 7489
1.622 1.370 1.549 6176
1.625 1.372 1.543 6176
1.628 1.375 1.537 6123
1.631 1.377 1.531 6070
1.634 1.380 1.525 5937
1.638 1.383 1.519 5803
1.641 1.385 1.513 5933
1.644 1.388 1.507 6064
1.657 1.399 1.509 4451
1.767 1.492 1.593 5780
1.770 1.494 1.587 5672
1.778 1.501 1.584 7451
1.787 1.508 1.582 9413
1.785 1.507 1.571 8810
1.788 1.510 1.564 8222
1.791 1.512 1.558 8773
1.794 1.515 1.551 9324
1.797 1.518 1.544 8628
1.806 1.525 1.542 7965
1.819 1.536 1.543 9020
1.827 1.543 1.540 10603
1.831 1.546 1.534 13247
1.834 1.548 1.527 16275
1.837 1.551 1.520 16660
1.840 1.553 1.513 13903
1.848 1.560 1.510 11248
1.872 1.581 1.519 7938
1.901 1.605 1.532 9026
1.899 1.604 1.521 8713
1.897 1.602 1.510 8630
1.916 1.618 1.514 9166
1.930 1.629 1.515 9372
1.933 1.632 1.508 7843
1.952 1.648 1.512 8553
1.960 1.655 1.508 11273
1.968 1.662 1.505 10323
1.982 1.673 1.505 9823
1.985 1.676 1.497 8619
2.009 1.697 1.505 9984
2.012 1.699 1.497 12749
2.015 1.702 1.490 11184
2.035 1.718 1.493 10423
2.048 1.730 1.493 12423
2.051 1.732 1.485 11338
2.065 1.744 1.485 8007
2.095 1.769 1.495 7087
2.104 1.776 1.491 9613
2.096 1.770 1.476 10956
2.088 1.763 1.461 10596
2.091 1.765 1.453 9901
2.110 1.782 1.455 8687
2.124 1.793 1.454 9033
2.127 1.796 1.446 7565
2.206 1.863 1.486 6645
2.209 1.865 1.478 8676
2.196 1.854 1.459 10909
2.193 1.852 1.448 13322
2.218 1.873 1.453 9228
2.243 1.894 1.458 8693
2.246 1.896 1.449 9389
2.243 1.894 1.438 9432
2.246 1.897 1.429 6396
2.255 1.904 1.424 2972
2.357 1.990 1.473 3830
2.366 1.997 1.467 4730
2.369 2.000 1.459 4579
2.394 2.021 1.462 5169
2.402 2.028 1.456 7024
2.405 2.031 1.447 7539
2.414 2.038 1.441 7002
2.433 2.055 1.441 9260
2.436 2.057 1.432 10811
2.450 2.069 1.429 9384
2.459 2.076 1.423 6775
2.456 2.074 1.411 6368
2.459 2.076 1.401 9424
2.478 2.093 1.401 12592
2.493 2.105 1.397 10538
2.507 2.116 1.394 7247
2.521 2.128 1.390 7488
2.523 2.131 1.381 8353
2.532 2.138 1.374 7032
2.535 2.140 1.364 4234
2.600 2.195 1.385 4978
2.602 2.197 1.375 6316
2.611 2.205 1.368 6803
2.631 2.221 1.367 4787
2.668 2.252 1.373 6111
2.676 2.259 1.365 6268
2.690 2.271 1.361 6234
2.704 2.283 1.356 9408
2.707 2.286 1.346 11432
2.715 2.293 1.338 9956
2.787 2.353 1.358 10802
2.789 2.355 1.348 11475
2.798 2.362 1.340 10012
2.801 2.365 1.329 7978
2.838 2.396 1.333 5763
2.852 2.408 1.328 4880
2.855 2.410 1.317 6099
2.851 2.408 1.304 7095
2.866 2.419 1.298 5125
2.891 2.441 1.296 2972
2.952 2.492 1.309 3695
2.948 2.489 1.295 4178
2.945 2.487 1.282 3513
3.058 2.582 1.314 2587
3.084 2.604 1.311 4377
3.092 2.611 1.302 7447
3.089 2.608 1.288 9945
3.091 2.610 1.276 9030
3.117 2.632 1.273 6616
3.126 2.639 1.263 6456
3.186 2.690 1.273 5122
3.183 2.688 1.259 5596
3.180 2.685 1.245 4731
3.176 2.682 1.231 5843
3.243 2.738 1.241 6015
3.246 2.740 1.228 8912
3.254 2.747 1.218 6462
3.268 2.759 1.210 6717
3.270 2.761 1.197 6329
3.367 2.843 1.216 7284
3.381 2.855 1.207 6183
3.383 2.857 1.194 4609
3.403 2.873 1.187 7220
3.411 2.880 1.176 8327
3.449 2.912 1.173 7371
3.475 2.934 1.167 9092
3.483 2.941 1.156 7859
3.491 2.948 1.145 5152
3.623 3.059 1.169 3324
3.720 3.141 1.182 2593
3.764 3.178 1.179 3129
3.772 3.185 1.167 4761
3.780 3.192 1.154 4136
3.771 3.184 1.137 3506
3.767 3.181 1.121 3615
3.906 3.298 1.142 4047
3.932 3.320 1.133 6292
3.934 3.322 1.119 6648
3.924 3.313 1.101 4861
3.944 3.330 1.090 5031
3.964 3.347 1.080 4628
4.091 3.454 1.094 4178
4.069 3.436 1.073 4521
4.066 3.433 1.056 4298
4.354 3.676 1.105 3083
4.356 3.678 1.089 5409
4.352 3.675 1.071 5382
4.402 3.717 1.065 3022
4.416 3.729 1.050 2809
4.531 3.826 1.057 2642
4.504 3.803 1.034 3183
4.476 3.779 1.011 3309
4.472 3.776 0.993 2564
4.533 3.828 0.987 2514
4.541 3.834 0.971 3319
4.549 3.841 0.955 2757
4.851 4.096 0.991 3409
4.816 4.067 0.966 2813
4.794 4.048 0.944 2371
5.144 4.343 0.983 2911
4.960 4.188 0.934 3022
4.974 4.199 0.917 2716
5.252 4.434 0.940 2570
5.241 4.426 0.919 2924
5.231 4.417 0.897 2729
5.209 4.398 0.874 2996
5.397 4.557 0.880 3219
5.398 4.558 0.859 2976
5.394 4.554 0.838 2428
5.384 4.546 0.816 2169
6.108 5.157 0.885 2917
6.109 5.158 0.861 3676
6.111 5.160 0.838 4007
6.112 5.161 0.815 6491
6.108 5.157 0.791 7923
6.109 5.158 0.768 7181
6.117 5.165 0.745 7203
6.118 5.166 0.722 7021
6.119 5.167 0.699 6271
6.108 5.158 0.675 6720
6.110 5.159 0.652 7217
6.207 5.241 0.636 5802
6.208 5.242 0.613 4059
6.209 5.243 0.589 3081
7.110 6.004 0.628 3350
7.105 6.000 0.600 3053
7.113 6.005 0.574 2105
7.120 6.011 0.547 1524
7.126 6.017 0.520 1273
7.133 6.023 0.493 865
7.134 6.024 0.466 662
7.141 6.029 0.440 471
1.535 1.291 1.537 6742
1.538 1.294 1.532 13485
1.561 1.313 1.544 11645
1.574 1.324 1.548 12544
1.577 1.327 1.542 12682
1.580 1.329 1.536 11287
1.588 1.336 1.534 9974
1.591 1.339 1.529 7743
1.574 1.325 1.505 6076
1.627 1.369 1.543 5792
1.631 1.372 1.537 5954
1.634 1.375 1.531 6115
1.637 1.377 1.525 6531
1.640 1.380 1.519 6947
1.648 1.387 1.517 7302
1.651 1.389 1.511 7717
1.659 1.396 1.509 5947
1.764 1.484 1.589 5136
1.773 1.491 1.587 4909
1.781 1.498 1.584 6436
1.789 1.505 1.582 8199
1.787 1.504 1.571 7732
1.790 1.506 1.564 7311
1.794 1.509 1.558 7069
1.797 1.512 1.551 6828
1.800 1.514 1.544 6613
1.793 1.508 1.529 6481
1.822 1.533 1.543 8218
1.830 1.540 1.540 10597
1.833 1.542 1.534 13699
1.836 1.545 1.527 17358
1.839 1.548 1.520 17915
1.842 1.550 1.513 15331
1.851 1.557 1.510 12751
1.854 1.560 1.503 8850
1.904 1.602 1.532 9381
1.902 1.600 1.521 8865
1.900 1.598 1.510 8884
1.919 1.614 1.514 9199
1.932 1.626 1.515 9300
1.941 1.633 1.511 7537
1.954 1.644 1.512 8207
1.963 1.651 1.508 10769
1.971 1.658 1.505 9890
1.980 1.666 1.501 9365
1.988 1.673 1.497 8277
2.012 1.693 1.505 9474
2.015 1.696 1.497 12195
2.024 1.703 1.494 10445
2.043 1.719 1.497 9152
2.057 1.730 1.497 10483
2.060 1.733 1.489 9372
2.079 1.749 1.492 6733
2.098 1.765 1.495 7393
2.107 1.772 1.491 10525
2.104 1.770 1.479 11430
2.096 1.764 1.464 9985
2.094 1.762 1.453 9256
2.119 1.783 1.459 9060
2.127 1.790 1.454 9887
2.130 1.792 1.446 8963
2.144 1.804 1.445 6389
2.207 1.857 1.474 8321
2.193 1.845 1.456 11154
2.191 1.843 1.445 13452
2.221 1.869 1.453 10030
2.241 1.885 1.455 9344
2.244 1.888 1.446 10161
2.247 1.890 1.438 9968
2.249 1.893 1.429 6150
2.363 1.988 1.485 2852
2.361 1.986 1.473 3641
2.369 1.993 1.467 4819
2.366 1.991 1.455 5193
2.397 2.017 1.462 5707
2.406 2.024 1.456 7876
2.409 2.027 1.447 8325
2.412 2.029 1.438 7231
2.431 2.046 1.438 7772
2.445 2.057 1.435 10094
2.454 2.065 1.429 9299
2.462 2.072 1.423 6964
2.460 2.069 1.411 6642
2.468 2.077 1.404 9564
2.482 2.088 1.401 12654
2.491 2.095 1.394 10359
2.510 2.112 1.394 6343
2.524 2.124 1.390 7160
2.538 2.136 1.386 9628
2.547 2.143 1.379 8370
2.578 2.169 1.384 5788
2.598 2.186 1.382 6350
2.606 2.193 1.375 6322
2.620 2.205 1.371 6955
2.635 2.217 1.367 5030
2.672 2.248 1.373 6301
2.674 2.250 1.363 6413
2.694 2.267 1.361 5300
2.708 2.279 1.356 8477
2.711 2.281 1.346 11551
2.714 2.283 1.335 10760
2.791 2.348 1.358 11016
2.794 2.350 1.348 11046
2.796 2.353 1.337 10492
2.799 2.355 1.327 9330
2.802 2.357 1.316 5986
2.822 2.374 1.313 5156
2.841 2.391 1.310 6496
2.856 2.403 1.304 6732
2.876 2.419 1.300 4780
2.901 2.441 1.299 2929
2.950 2.482 1.306 4497
2.953 2.484 1.295 5341
2.961 2.491 1.286 3762
2.964 2.494 1.275 2290
3.088 2.598 1.311 4041
3.091 2.600 1.299 7404
3.093 2.603 1.288 9771
3.096 2.605 1.276 8559
3.122 2.627 1.273 5977
3.130 2.634 1.263 5462
3.191 2.685 1.273 5422
3.188 2.682 1.259 6185
3.190 2.684 1.247 5437
3.187 2.681 1.233 6468
3.248 2.733 1.241 6571
3.250 2.735 1.228 9334
3.253 2.737 1.216 6943
3.261 2.744 1.206 5880
3.263 2.746 1.194 6315
3.372 2.837 1.216 6707
3.386 2.849 1.207 5718
3.382 2.846 1.192 4155
3.402 2.862 1.185 6317
3.410 2.869 1.174 7588
3.454 2.906 1.173 6847
3.474 2.923 1.166 9135
3.488 2.935 1.156 8309
3.496 2.942 1.145 5390
3.611 3.038 1.164 3580
3.726 3.135 1.182 2568
3.770 3.172 1.179 3399
3.772 3.173 1.165 4930
3.786 3.185 1.154 4031
3.788 3.187 1.140 3378
3.802 3.199 1.129 3430
3.804 3.201 1.114 3801
3.943 3.318 1.135 6088
3.940 3.315 1.119 6185
3.936 3.311 1.102 3992
3.956 3.328 1.092 4797
4.101 3.450 1.111 4784
4.097 3.447 1.094 4518
4.075 3.429 1.073 4744
4.072 3.426 1.056 4897
4.074 3.427 1.041 3538
4.356 3.665 1.087 5675
4.358 3.667 1.071 5789
4.366 3.674 1.056 3446
4.422 3.721 1.050 2879
4.538 3.818 1.057 2726
4.516 3.800 1.035 3482
4.512 3.796 1.017 3532
4.472 3.763 0.992 2611
4.546 3.825 0.988 2430
4.554 3.831 0.972 2878
4.862 4.090 1.010 2536
4.858 4.087 0.991 3613
4.824 4.058 0.966 2939
4.801 4.040 0.944 2468
4.953 4.168 0.951 2928
4.973 4.184 0.935 3288
4.981 4.191 0.917 2640
5.253 4.420 0.940 2758
5.249 4.416 0.919 3196
5.239 4.408 0.897 2991
5.216 4.389 0.874 3241
5.399 4.542 0.879 3227
5.406 4.549 0.859 2937
5.396 4.540 0.837 2438
5.391 4.536 0.816 2257
6.117 5.146 0.885 2515
6.118 5.148 0.861 3149
6.120 5.149 0.838 3502
6.121 5.150 0.815 5797
6.117 5.147 0.791 7045
6.118 5.148 0.768 6501
6.126 5.154 0.745 6717
6.127 5.155 0.722 6627
6.128 5.156 0.699 5766
6.117 5.147 0.675 5911
6.119 5.148 0.652 6369
6.120 5.149 0.628 4988
6.218 5.231 0.613 3407
6.219 5.232 0.589 2576
7.121 5.991 0.628 3322
7.122 5.992 0.601 3066
7.129 5.998 0.574 2145
7.130 5.999 0.547 1533
7.137 6.005 0.520 1326
7.144 6.011 0.493 977
7.145 6.011 0.466 769
7.145 6.012 0.439 515
1.538 1.287 1.537 6679
1.542 1.289 1.532 13359
1.565 1.309 1.544 11929
1.578 1.319 1.548 12796
1.581 1.322 1.542 12944
1.584 1.325 1.536 11655
1.592 1.332 1.534 10413
1.595 1.334 1.529 7949
1.573 1.316 1.500 6347
1.631 1.365 1.543 5394
1.635 1.367 1.537 5999
1.633 1.366 1.527 6655
1.641 1.372 1.525 7389
1.649 1.379 1.523 8315
1.652 1.382 1.517 8887
1.660 1.389 1.516 9568
1.663 1.391 1.509 7412
1.672 1.398 1.507 5290
1.675 1.401 1.501 5278
1.785 1.493 1.584 5409
1.794 1.500 1.582 6949
1.797 1.503 1.575 6765
1.800 1.506 1.569 6580
1.803 1.508 1.562 5799
1.729 1.446 1.493 5485
1.737 1.453 1.491 6165
1.740 1.455 1.484 6238
1.826 1.527 1.543 7555
1.835 1.534 1.540 10437
1.838 1.537 1.534 13866
1.841 1.540 1.527 17998
1.844 1.542 1.520 18700
1.847 1.545 1.513 16483
1.850 1.547 1.506 14265
1.853 1.550 1.499 10161
1.909 1.597 1.532 9705
1.907 1.595 1.521 9133
1.905 1.593 1.510 9338
1.918 1.604 1.510 9436
1.937 1.620 1.515 9168
1.946 1.627 1.511 7232
1.965 1.643 1.516 7954
1.968 1.646 1.508 10287
1.976 1.653 1.505 9525
1.984 1.660 1.501 9054
1.993 1.667 1.497 7960
2.017 1.687 1.505 8835
2.026 1.694 1.501 11366
2.034 1.701 1.497 9638
2.053 1.717 1.501 8016
2.073 1.733 1.504 8879
2.081 1.741 1.500 7764
2.095 1.752 1.499 5916
2.109 1.764 1.498 7719
2.117 1.771 1.494 11381
2.115 1.769 1.483 11877
2.107 1.762 1.468 9390
2.104 1.760 1.456 8298
2.118 1.772 1.455 8669
2.132 1.783 1.454 10005
2.141 1.790 1.450 9723
2.149 1.797 1.445 7566
2.201 1.841 1.468 8224
2.199 1.839 1.456 11021
2.196 1.837 1.445 13317
2.227 1.862 1.453 10597
2.235 1.870 1.448 10188
2.249 1.881 1.446 10643
2.252 1.884 1.438 10110
2.255 1.886 1.429 5839
2.330 1.949 1.463 3278
2.355 1.970 1.467 3618
2.369 1.982 1.464 4907
2.372 1.984 1.455 5722
2.403 2.010 1.462 6009
2.412 2.017 1.456 8318
2.409 2.015 1.444 8637
2.412 2.017 1.435 7558
2.420 2.024 1.429 6807
2.451 2.050 1.435 9179
2.465 2.062 1.432 9184
2.474 2.069 1.426 7379
2.471 2.067 1.414 6829
2.474 2.069 1.404 9416
2.488 2.081 1.401 12529
2.497 2.088 1.394 10323
2.505 2.095 1.388 5848
2.536 2.121 1.393 6913
2.550 2.133 1.389 10610
2.559 2.140 1.382 9341
2.584 2.162 1.384 7404
2.599 2.173 1.380 8041
2.607 2.180 1.373 6767
2.633 2.202 1.374 7454
2.641 2.209 1.367 5326
2.678 2.240 1.373 6575
2.681 2.242 1.363 6939
2.689 2.249 1.355 4494
2.715 2.271 1.356 7033
2.712 2.268 1.343 10983
2.720 2.275 1.335 10880
2.798 2.340 1.358 10897
2.800 2.342 1.348 10415
2.803 2.345 1.337 10546
2.806 2.347 1.327 10081
2.803 2.344 1.314 6870
2.823 2.361 1.311 5667
2.848 2.382 1.310 6685
2.863 2.394 1.304 6192
2.883 2.411 1.300 4525
2.926 2.447 1.306 3266
2.952 2.469 1.304 5625
2.960 2.476 1.295 6612
2.968 2.483 1.286 4300
3.000 2.509 1.287 2874
3.090 2.584 1.309 3669
3.098 2.591 1.299 6945
3.101 2.594 1.288 8942
3.104 2.596 1.276 7334
3.129 2.617 1.273 4984
3.138 2.624 1.263 4142
3.199 2.676 1.273 5338
3.196 2.673 1.259 6017
3.192 2.670 1.245 5612
3.195 2.672 1.233 6893
3.262 2.728 1.243 6755
3.258 2.725 1.228 9529
3.267 2.732 1.218 8469
3.269 2.734 1.206 6698
3.271 2.736 1.194 6786
3.386 2.832 1.217 5275
3.394 2.839 1.207 5300
3.390 2.836 1.192 4097
3.411 2.853 1.185 5642
3.419 2.859 1.174 6930
3.468 2.901 1.175 6628
3.483 2.913 1.166 9014
3.497 2.925 1.156 8113
3.612 3.021 1.176 5555
3.614 3.023 1.162 4124
3.735 3.124 1.182 2400
3.779 3.160 1.179 3494
3.781 3.162 1.165 4970
3.789 3.169 1.153 3754
3.821 3.196 1.146 3477
3.812 3.188 1.129 3662
3.820 3.195 1.116 3759
3.947 3.301 1.133 5678
3.949 3.303 1.119 5572
3.981 3.330 1.111 3699
3.972 3.322 1.093 4167
4.111 3.438 1.111 4890
4.107 3.435 1.094 4641
4.085 3.417 1.073 5004
4.082 3.414 1.056 5459
4.090 3.420 1.042 3882
4.361 3.648 1.086 5757
4.363 3.649 1.070 5858
4.371 3.656 1.054 3736
4.439 3.713 1.052 3074
4.537 3.795 1.054 2740
4.527 3.787 1.035 3713
4.529 3.788 1.018 3668
4.477 3.745 0.990 2496
4.551 3.807 0.987 2351
4.565 3.818 0.972 2455
4.874 4.076 1.010 2739
4.870 4.073 0.991 3848
4.871 4.074 0.972 2880
4.819 4.031 0.945 2301
4.965 4.153 0.951 3021
4.985 4.170 0.935 3559
4.999 4.181 0.918 2682
5.266 4.405 0.940 2903
5.262 4.401 0.919 3375
5.252 4.392 0.897 3131
5.229 4.374 0.874 3301
5.406 4.521 0.878 3131
5.414 4.528 0.859 2803
5.409 4.524 0.837 2386
5.405 4.520 0.816 2281
6.132 5.128 0.885 2050
6.139 5.135 0.862 2531
6.135 5.131 0.838 2902
6.136 5.132 0.815 4948
6.132 5.129 0.791 5957
6.139 5.135 0.769 5574
6.141 5.136 0.745 5918
6.148 5.142 0.723 5905
6.143 5.138 0.699 4998
6.132 5.129 0.675 4831
6.140 5.135 0.652 5191
6.135 5.131 0.628 4083
6.233 5.213 0.613 2653
7.137 5.970 0.655 2224
7.138 5.970 0.628 3156
7.139 5.971 0.601 2928
7.147 5.977 0.574 2145
7.148 5.978 0.547 1581
7.154 5.984 0.520 1407
7.161 5.990 0.493 1095
7.156 5.985 0.466 894
7.157 5.986 0.439 580
1.546 1.288 1.542 6569
1.549 1.290 1.536 13138
1.567 1.305 1.544 12085
1.580 1.316 1.548 12901
1.583 1.319 1.542 13062
1.587 1.322 1.536 11897
1.595 1.328 1.534 10736
1.593 1.327 1.524 8236
1.576 1.313 1.500 6811
1.634 1.361 1.543 5196
1.632 1.360 1.533 6198
1.635 1.362 1.527 7352
1.644 1.369 1.525 8152
1.652 1.376 1.523 9552
1.660 1.383 1.522 10494
1.668 1.389 1.520 11466
1.666 1.388 1.509 8666
1.669 1.390 1.503 5882
1.672 1.393 1.497 5529
1.670 1.391 1.487 5257
1.797 1.496 1.582 5603
1.800 1.499 1.575 5835
1.803 1.502 1.569 6067
1.729 1.440 1.499 5563
1.732 1.442 1.493 6089
1.740 1.449 1.491 6522
1.738 1.447 1.480 6571
1.835 1.528 1.547 7363
1.838 1.531 1.540 10193
1.836 1.529 1.530 13821
1.839 1.532 1.523 18323
1.842 1.534 1.516 18977
1.850 1.541 1.513 17245
1.853 1.544 1.506 15559
1.856 1.546 1.499 11366
1.912 1.593 1.532 9912
1.910 1.591 1.521 9450
1.908 1.589 1.510 9858
1.916 1.596 1.507 9880
1.940 1.616 1.515 9056
1.954 1.628 1.515 7158
1.973 1.644 1.519 7941
1.976 1.646 1.512 9836
1.979 1.649 1.505 9175
1.988 1.656 1.501 8774
1.996 1.663 1.497 7636
2.021 1.683 1.505 8156
2.029 1.690 1.501 10449
2.043 1.702 1.501 9051
2.068 1.722 1.508 7680
2.082 1.734 1.507 8147
2.090 1.741 1.503 6897
2.098 1.748 1.499 5438
2.118 1.764 1.502 8162
2.121 1.767 1.494 12090
2.124 1.769 1.486 12189
2.116 1.762 1.471 8872
2.108 1.756 1.456 7009
2.122 1.767 1.455 7507
2.141 1.784 1.458 9479
2.144 1.786 1.450 10032
2.153 1.793 1.445 8358
2.205 1.837 1.468 8000
2.192 1.825 1.449 10551
2.200 1.832 1.445 12768
2.231 1.858 1.453 10725
2.239 1.865 1.448 10541
2.247 1.872 1.443 10708
2.261 1.884 1.441 9993
2.264 1.886 1.433 5800
2.317 1.930 1.453 3914
2.326 1.937 1.448 4088
2.373 1.977 1.464 4819
2.376 1.979 1.455 6043
2.407 2.005 1.462 5877
2.416 2.012 1.456 8135
2.413 2.010 1.444 8456
2.410 2.008 1.432 7726
2.408 2.005 1.420 6564
2.461 2.050 1.438 8407
2.475 2.062 1.435 9496
2.484 2.069 1.429 8158
2.481 2.067 1.417 6990
2.484 2.069 1.407 8995
2.492 2.076 1.401 12217
2.495 2.078 1.392 10428
2.504 2.085 1.385 6102
2.546 2.121 1.396 7264
2.560 2.133 1.392 11411
2.563 2.135 1.382 9895
2.589 2.156 1.384 8684
2.597 2.163 1.377 9489
2.611 2.175 1.373 7394
2.637 2.196 1.374 8279
2.663 2.218 1.375 5793
2.683 2.234 1.373 6723
2.680 2.232 1.360 7384
2.682 2.234 1.350 4238
2.714 2.260 1.353 5398
2.717 2.263 1.343 10202
2.719 2.265 1.333 10405
2.803 2.334 1.358 10186
2.805 2.337 1.348 9549
2.808 2.339 1.337 10166
2.805 2.336 1.324 10231
2.802 2.334 1.311 7273
2.827 2.355 1.311 5740
2.859 2.381 1.312 6718
2.867 2.388 1.304 5692
2.893 2.410 1.302 4468
2.931 2.441 1.306 3814
2.957 2.463 1.304 6690
2.965 2.470 1.295 7740
2.997 2.496 1.296 4917
3.005 2.503 1.287 3823
3.089 2.573 1.307 3392
3.098 2.580 1.297 6146
3.106 2.587 1.288 7616
3.115 2.594 1.278 5640
3.147 2.621 1.277 3848
3.149 2.623 1.266 2729
3.204 2.669 1.273 4806
3.201 2.666 1.259 5505
3.198 2.663 1.245 5825
3.200 2.665 1.233 6975
3.267 2.721 1.243 6507
3.276 2.728 1.232 9408
3.278 2.730 1.220 10664
3.280 2.732 1.208 8055
3.283 2.734 1.196 6823
3.291 2.741 1.185 4651
3.394 2.827 1.205 5259
3.396 2.829 1.192 4603
3.416 2.846 1.185 5115
3.436 2.862 1.177 6382
3.474 2.894 1.175 6453
3.483 2.901 1.164 8473
3.509 2.922 1.158 7211
3.618 3.013 1.176 5832
3.620 3.015 1.162 4676
3.747 3.121 1.184 2161
3.785 3.153 1.179 3276
3.788 3.155 1.165 4757
3.796 3.162 1.153 3445
3.834 3.193 1.148 3708
3.824 3.185 1.130 3826
3.832 3.192 1.118 3619
3.954 3.293 1.133 5192
3.950 3.290 1.117 5015
4.000 3.332 1.114 3529
4.116 3.428 1.127 3818
4.124 3.435 1.112 4803
4.102 3.417 1.091 4568
4.092 3.409 1.073 5142
4.088 3.405 1.056 5730
4.097 3.412 1.042 4047
4.362 3.634 1.085 5519
4.371 3.640 1.070 5501
4.451 3.707 1.070 3795
4.459 3.714 1.054 3547
4.533 3.776 1.052 2823
4.529 3.772 1.034 3830
4.543 3.784 1.019 3589
4.551 3.791 1.003 2546
4.553 3.792 0.986 2313
4.820 4.014 1.018 2118
4.888 4.071 1.011 2918
4.884 4.068 0.992 3910
4.886 4.069 0.973 2978
5.123 4.267 0.995 2254
4.974 4.143 0.951 3021
4.994 4.160 0.935 3650
5.014 4.176 0.919 2858
5.275 4.394 0.940 2974
5.271 4.390 0.919 3480
5.267 4.387 0.898 3160
5.232 4.358 0.873 3174
5.415 4.510 0.878 2903
5.623 4.683 0.885 2627
5.667 4.720 0.870 2348
5.414 4.509 0.816 2221
5.409 4.506 0.795 1963
5.920 4.931 0.835 2164
6.151 5.124 0.839 2274
6.147 5.120 0.815 3902
6.142 5.116 0.791 4608
6.150 5.122 0.769 4400
6.151 5.124 0.745 4832
6.159 5.130 0.723 4928
6.154 5.126 0.699 4073
6.143 5.117 0.675 3623
6.150 5.123 0.652 3828
6.145 5.119 0.628 3004
6.243 5.200 0.613 1878
7.143 5.950 0.654 2219
7.151 5.956 0.628 2915
7.158 5.962 0.601 2757
7.159 5.963 0.574 2214
7.160 5.963 0.547 1811
7.167 5.969 0.520 1589
7.167 5.970 0.493 1226
7.168 5.971 0.466 1041
7.169 5.971 0.439 689
1.554 1.288 1.547 6516
1.557 1.291 1.541 13032
1.571 1.301 1.544 12006
1.584 1.312 1.548 12661
1.587 1.315 1.542 12832
1.590 1.317 1.536 11806
1.593 1.320 1.530 10780
1.596 1.323 1.524 8566
1.579 1.309 1.500 7272
1.618 1.340 1.526 5510
1.631 1.351 1.528 6533
1.634 1.354 1.522 7837
1.652 1.369 1.530 8295
1.660 1.376 1.528 10109
1.669 1.383 1.526 11070
1.672 1.385 1.520 12210
1.675 1.388 1.514 9138
1.678 1.390 1.507 6066
1.676 1.389 1.497 5077
1.674 1.387 1.487 4260
1.800 1.492 1.582 4360
1.804 1.495 1.575 4996
1.812 1.502 1.573 5659
1.732 1.436 1.499 5840
1.735 1.438 1.493 6463
1.744 1.445 1.491 6588
1.741 1.443 1.480 6584
1.838 1.523 1.547 7497
1.842 1.526 1.540 9815
1.839 1.524 1.530 13499
1.843 1.527 1.523 18038
1.846 1.529 1.516 18696
1.854 1.536 1.513 17410
1.857 1.539 1.506 16337
1.860 1.541 1.499 12132
1.916 1.588 1.532 9870
1.909 1.582 1.517 9675
1.912 1.584 1.510 10236
1.915 1.587 1.503 10277
1.950 1.616 1.519 9070
1.964 1.627 1.519 7338
1.983 1.643 1.523 8145
1.980 1.641 1.512 9414
1.984 1.644 1.505 8756
1.997 1.655 1.505 8426
2.000 1.658 1.497 7218
2.030 1.682 1.509 7478
2.033 1.685 1.501 9469
2.053 1.701 1.505 8747
2.072 1.717 1.508 7921
2.086 1.728 1.507 7799
2.094 1.736 1.503 6628
2.108 1.747 1.503 5565
2.122 1.759 1.502 8448
2.125 1.761 1.494 12362
2.128 1.764 1.486 12239
2.126 1.762 1.475 8466
2.118 1.755 1.460 5586
2.137 1.771 1.462 6288
2.151 1.783 1.461 8999
2.154 1.785 1.453 9918
2.163 1.792 1.449 8582
2.210 1.831 1.468 7240
2.185 1.811 1.443 9878
2.199 1.822 1.441 11773
2.235 1.852 1.453 10427
2.244 1.859 1.448 10337
2.252 1.866 1.443 10317
2.266 1.878 1.441 9603
2.275 1.885 1.436 5894
2.317 1.920 1.450 4110
2.331 1.931 1.448 4208
2.378 1.971 1.464 4450
2.381 1.973 1.455 5966
2.390 1.980 1.450 5382
2.426 2.011 1.459 7442
2.413 1.999 1.441 7914
2.415 2.002 1.432 7637
2.413 1.999 1.420 6408
2.472 2.048 1.441 8053
2.481 2.055 1.435 10174
2.483 2.058 1.426 9128
2.486 2.060 1.417 7232
2.489 2.063 1.407 8647
2.498 2.070 1.401 12044
2.501 2.072 1.392 10909
2.509 2.079 1.385 6878
2.563 2.124 1.401 8206
2.572 2.131 1.395 11730
2.580 2.138 1.388 9787
2.594 2.150 1.384 9057
2.603 2.157 1.377 10128
2.611 2.164 1.370 7699
2.648 2.195 1.377 9030
2.668 2.211 1.375 6300
2.688 2.228 1.373 6546
2.685 2.225 1.360 7229
2.677 2.218 1.345 4295
2.708 2.244 1.348 4701
2.716 2.251 1.340 9102
2.719 2.253 1.330 9149
2.808 2.327 1.358 9332
2.811 2.329 1.348 9007
2.814 2.332 1.337 9550
2.811 2.329 1.324 9866
2.808 2.326 1.311 7614
2.833 2.348 1.311 5786
2.871 2.379 1.314 6633
2.868 2.376 1.301 5250
2.899 2.403 1.302 4400
2.937 2.434 1.306 4385
2.957 2.450 1.302 7363
2.971 2.462 1.295 8288
3.003 2.488 1.296 5314
3.011 2.495 1.287 4623
3.090 2.561 1.304 3184
3.099 2.568 1.295 5332
3.107 2.575 1.286 6313
3.127 2.591 1.281 4167
3.165 2.623 1.282 3625
3.173 2.630 1.272 2776
3.211 2.661 1.273 4256
3.202 2.653 1.257 5862
3.204 2.655 1.245 6629
3.219 2.667 1.237 6739
3.280 2.718 1.245 5833
3.288 2.725 1.234 9327
3.291 2.727 1.222 12588
3.293 2.729 1.210 9847
3.290 2.726 1.196 7044
3.298 2.733 1.185 4705
3.407 2.823 1.207 5340
3.403 2.820 1.192 5284
3.429 2.842 1.187 4844
3.444 2.854 1.177 6092
3.488 2.890 1.177 6093
3.490 2.892 1.164 7766
3.516 2.913 1.158 5972
3.625 3.004 1.176 5725
3.628 3.006 1.162 4912
3.642 3.018 1.152 2512
3.793 3.143 1.179 2800
3.795 3.145 1.165 4317
3.768 3.122 1.143 3375
3.764 3.119 1.127 3901
3.844 3.185 1.133 3774
3.846 3.187 1.119 3308
3.962 3.283 1.133 4649
3.952 3.275 1.116 4636
4.014 3.327 1.116 3614
4.137 3.428 1.129 3921
4.133 3.425 1.112 4573
4.111 3.406 1.091 4423
4.101 3.398 1.073 5083
4.097 3.395 1.056 5581
4.105 3.402 1.042 3814
4.366 3.618 1.083 4941
4.368 3.619 1.067 4827
4.466 3.701 1.071 4221
4.468 3.703 1.054 4095
4.506 3.734 1.045 3322
4.532 3.756 1.033 3718
4.547 3.767 1.018 3237
4.561 3.779 1.003 2495
4.556 3.776 0.985 2445
4.673 3.872 0.989 2579
4.898 4.059 1.011 3065
4.894 4.056 0.992 3933
4.896 4.057 0.973 3037
5.134 4.254 0.995 2476
4.984 4.130 0.951 3029
5.004 4.147 0.935 3590
5.030 4.168 0.920 3066
5.286 4.381 0.940 2929
5.282 4.377 0.919 3467
5.278 4.373 0.898 3127
5.243 4.345 0.873 2882
5.633 4.667 0.907 2871
5.640 4.674 0.886 2696
5.678 4.705 0.870 2436
5.425 4.496 0.816 2135
5.421 4.492 0.795 1926
5.932 4.916 0.835 2290
5.928 4.912 0.812 2319
6.166 5.109 0.816 2841
6.155 5.101 0.791 3192
6.163 5.107 0.769 3179
6.164 5.108 0.745 3699
6.172 5.114 0.723 3866
6.167 5.110 0.699 3181
6.156 5.101 0.675 2575
6.163 5.107 0.652 2614
6.158 5.103 0.628 2058
7.145 5.921 0.680 2120
7.158 5.932 0.654 2338
7.166 5.938 0.628 2691
7.173 5.944 0.601 2605
7.180 5.950 0.574 2361
7.175 5.945 0.547 2134
7.182 5.951 0.520 1801
7.183 5.952 0.493 1365
7.177 5.947 0.466 1212
7.178 5.948 0.439 847
7.172 5.943 0.411 295
1.558 1.283 1.547 6539
1.561 1.286 1.541 13078
1.575 1.296 1.544 12015
1.583 1.303 1.543 12447
1.591 1.310 1.542 12588
1.594 1.313 1.536 11671
1.597 1.315 1.530 10753
1.600 1.318 1.524 9011
1.588 1.308 1.505 7962
1.617 1.331 1.521 6281
1.630 1.342 1.524 7170
1.633 1.345 1.518 8464
1.651 1.360 1.525 8056
1.670 1.375 1.532 9729
1.673 1.377 1.526 10848
1.676 1.380 1.520 11966
1.679 1.383 1.514 9047
1.682 1.385 1.507 6127
1.680 1.383 1.497 5073
1.678 1.382 1.487 4194
1.681 1.384 1.480 4012
1.808 1.489 1.575 4334
1.817 1.496 1.573 5415
1.820 1.499 1.566 6137
1.828 1.505 1.563 6871
1.743 1.435 1.486 6626
1.746 1.438 1.480 6536
1.843 1.518 1.547 7790
1.846 1.520 1.540 9516
1.844 1.519 1.530 13135
1.847 1.521 1.523 17473
1.850 1.524 1.516 18043
1.859 1.531 1.513 17274
