3.874 1.583 1.474 4232
3.863 1.579 1.457 4729
3.895 1.591 1.454 4903
3.905 1.596 1.445 4214
4.007 1.637 1.465 4313
4.010 1.639 1.453 4855
4.056 1.657 1.454 6542
4.066 1.662 1.444 7210
4.077 1.666 1.433 7037
4.088 1.670 1.423 4820
4.112 1.680 1.417 3249
4.242 1.733 1.443 3611
4.267 1.744 1.437 3898
4.277 1.748 1.426 5165
4.281 1.749 1.412 5119
4.270 1.745 1.395 3449
4.443 1.816 1.431 2334
4.595 1.878 1.461 3263
4.634 1.894 1.457 6337
4.652 1.901 1.446 10012
4.670 1.908 1.436 8943
4.709 1.924 1.431 9430
4.719 1.928 1.418 11054
4.716 1.927 1.401 9182
4.733 1.934 1.391 5476
4.744 1.938 1.378 6460
4.747 1.940 1.363 7437
5.014 2.049 1.416 5871
5.025 2.053 1.402 6052
5.035 2.057 1.388 5516
5.046 2.062 1.374 2625
5.285 2.159 1.416 4106
5.360 2.190 1.417 4601
5.363 2.192 1.400 4125
5.374 2.196 1.385 2380
5.535 2.262 1.404 2709
5.538 2.263 1.387 2899
5.685 2.323 1.402 2492
5.667 2.316 1.379 2915
5.958 2.434 1.424 3096
5.997 2.450 1.413 3109
6.015 2.458 1.398 3388
6.004 2.453 1.376 3635
6.007 2.455 1.357 3378
6.140 2.509 1.364 2390
6.461 2.640 1.408 3304
6.457 2.638 1.386 3066
6.438 2.631 1.362 2640
6.449 2.635 1.343 2520
6.611 2.701 1.352 3452
6.600 2.697 1.329 3019
6.986 2.855 1.377 2307
6.990 2.856 1.355 2100
6.783 2.772 1.297 1946
7.018 2.868 1.315 1723
7.021 2.869 1.293 1862
7.778 3.178 1.393 2448
7.767 3.174 1.366 1833
8.046 3.287 1.385 1678
8.056 3.292 1.361 2505
8.067 3.296 1.337 2769
8.034 3.283 1.306 4692
8.037 3.284 1.281 6221
8.040 3.285 1.256 5322
8.043 3.286 1.231 2941
8.126 3.320 1.216 1631
8.136 3.324 1.192 1186
8.059 3.293 1.156 1101
8.069 3.297 1.131 944
8.064 3.295 1.105 477
1.675 0.684 0.268 256
1.676 0.685 0.252 264
1.676 0.685 0.247 291
1.676 0.685 0.242 273
2.249 0.919 -0.153 291
1.858 0.756 1.537 6066
1.861 0.758 1.532 12132
1.859 0.757 1.521 11520
1.863 0.758 1.516 10963
1.867 0.760 1.510 10963
1.876 0.764 1.509 8163
1.989 0.810 1.584 8202
2.005 0.816 1.587 9415
2.027 0.825 1.594 11677
2.031 0.827 1.588 11677
2.041 0.831 1.586 8897
2.051 0.835 1.584 6231
2.048 0.834 1.573 5298
2.089 0.851 1.593 4460
2.087 0.850 1.583 5632
2.084 0.849 1.572 6938
2.101 0.855 1.574 5848
2.141 0.872 1.593 5787
2.127 0.866 1.574 7044
2.137 0.870 1.572 9990
2.147 0.874 1.569 12124
2.163 0.881 1.571 11101
2.173 0.885 1.569 10748
2.202 0.897 1.579 8621
2.219 0.903 1.580 9550
2.235 0.910 1.582 9137
2.251 0.917 1.583 10264
2.268 0.923 1.584 8616
2.284 0.930 1.585 8104
2.294 0.934 1.582 6608
2.317 0.944 1.587 6347
2.321 0.945 1.580 5863
2.319 0.944 1.569 4848
2.348 0.956 1.578 4759
2.352 0.958 1.570 7039
2.356 0.959 1.563 9320
2.366 0.963 1.560 7643
2.421 0.986 1.584 7868
2.425 0.987 1.576 6892
2.435 0.991 1.573 5932
2.445 0.996 1.569 5488
2.456 1.000 1.565 6646
2.459 1.001 1.558 8131
2.457 1.000 1.546 7081
2.454 0.999 1.535 6086
2.458 1.001 1.527 5208
2.468 1.005 1.523 5743
2.478 1.009 1.520 7225
2.508 1.021 1.527 7397
2.531 1.031 1.530 8921
2.548 1.037 1.529 9062
2.545 1.036 1.518 8351
2.549 1.038 1.510 7110
2.625 1.069 1.541 6249
2.648 1.078 1.544 7466
2.665 1.085 1.543 7370
2.669 1.087 1.534 8432
2.673 1.088 1.526 7704
2.690 1.095 1.525 5704
2.693 1.097 1.516 5134
2.730 1.112 1.525 5494
2.734 1.113 1.517 9974
2.744 1.117 1.512 12829
2.735 1.113 1.496 13833
2.738 1.115 1.488 13718
2.755 1.122 1.486 9560
2.859 1.164 1.527 7140
2.896 1.179 1.535 6306
2.906 1.183 1.529 6384
2.924 1.190 1.526 4407
2.947 1.200 1.527 4559
2.951 1.202 1.518 5842
2.948 1.200 1.505 7112
2.952 1.202 1.496 5484
3.056 1.244 1.534 5572
3.060 1.246 1.525 7729
3.064 1.248 1.515 7904
3.074 1.252 1.509 6683
3.159 1.286 1.536 4192
3.170 1.291 1.529 4541
3.174 1.292 1.519 4572
3.177 1.294 1.509 4549
3.188 1.298 1.502 4662
3.185 1.297 1.489 5476
3.154 1.284 1.465 6963
3.172 1.291 1.461 7484
3.305 1.346 1.506 6626
3.309 1.347 1.495 5959
3.401 1.385 1.522 6918
3.412 1.389 1.514 7199
3.299 1.343 1.456 4280
3.357 1.367 1.468 4320
3.395 1.382 1.471 8558
3.406 1.387 1.464 7976
3.416 1.391 1.456 5359
3.427 1.395 1.448 5979
3.437 1.399 1.440 6249
3.461 1.409 1.437 4031
3.631 1.478 1.489 4746
3.642 1.483 1.480 3765
3.770 1.535 1.515 2449
3.767 1.534 1.501 4017
3.771 1.535 1.489 5075
3.795 1.545 1.485 5266
3.806 1.549 1.475 5722
3.823 1.557 1.469 4839
3.876 1.578 1.474 4431
3.865 1.574 1.457 4715
3.897 1.587 1.454 4726
3.907 1.591 1.445 4107
4.009 1.632 1.465 3925
4.047 1.648 1.464 4582
4.058 1.652 1.454 6760
4.069 1.657 1.444 7358
4.079 1.661 1.433 6964
4.090 1.665 1.423 4713
4.241 1.727 1.457 3503
4.244 1.728 1.443 3422
4.269 1.738 1.437 3647
4.280 1.743 1.426 5130
4.276 1.741 1.410 5124
4.272 1.740 1.395 3424
4.502 1.833 1.448 2224
4.598 1.872 1.461 3238
4.644 1.891 1.459 6483
4.654 1.895 1.446 10577
4.679 1.905 1.438 9643
4.711 1.918 1.431 10097
4.722 1.922 1.418 12254
4.711 1.918 1.400 10677
4.707 1.917 1.383 5960
4.732 1.927 1.374 5466
4.742 1.931 1.361 4923
5.017 2.043 1.416 5728
5.034 2.050 1.404 6426
5.038 2.051 1.388 6234
5.048 2.055 1.374 2866
5.316 2.165 1.423 4288
5.363 2.183 1.417 4484
5.366 2.185 1.400 3926
5.377 2.189 1.385 2495
5.538 2.255 1.404 2704
5.548 2.259 1.389 2910
5.681 2.313 1.400 2573
5.670 2.309 1.379 3023
5.961 2.427 1.424 2911
6.007 2.446 1.415 2971
6.011 2.447 1.396 3209
6.007 2.446 1.376 3607
6.010 2.447 1.357 3486
6.143 2.501 1.364 2551
6.464 2.632 1.408 3332
6.460 2.630 1.386 2949
6.442 2.623 1.362 2534
6.452 2.627 1.343 2523
6.607 2.690 1.351 3629
6.603 2.689 1.329 3200
6.990 2.846 1.377 2194
6.993 2.847 1.355 2045
6.786 2.763 1.297 1954
7.014 2.856 1.314 1672
7.025 2.860 1.293 1811
7.782 3.168 1.393 2357
7.771 3.164 1.366 1747
8.050 3.277 1.385 1728
8.060 3.282 1.361 2444
8.063 3.283 1.336 2761
8.038 3.273 1.306 4929
8.041 3.274 1.281 6444
8.044 3.275 1.256 5525
8.047 3.276 1.231 3105
8.130 3.310 1.216 1684
8.140 3.314 1.192 1160
8.063 3.283 1.156 1071
8.073 3.287 1.131 946
8.068 3.285 1.105 478
1.858 0.754 1.537 5489
1.862 0.756 1.532 10978
1.860 0.755 1.521 10407
1.864 0.756 1.516 9855
1.867 0.758 1.510 9855
1.877 0.762 1.509 7178
1.990 0.807 1.584 8198
2.012 0.816 1.591 9576
2.028 0.823 1.594 12075
2.032 0.824 1.588 12075
2.042 0.828 1.586 9322
2.052 0.832 1.584 6661
2.055 0.834 1.578 5428
2.090 0.848 1.593 4770
2.094 0.850 1.587 5867
2.092 0.849 1.576 7117
2.108 0.855 1.578 6117
2.143 0.869 1.593 6191
2.128 0.863 1.574 7193
2.144 0.870 1.576 10116
2.148 0.872 1.569 12250
2.164 0.878 1.571 11291
2.174 0.882 1.569 10969
2.197 0.891 1.574 8652
2.220 0.901 1.580 9564
2.242 0.910 1.586 9246
2.252 0.914 1.583 10606
2.263 0.918 1.580 9023
2.279 0.925 1.581 8330
2.296 0.931 1.582 6598
2.318 0.941 1.587 6104
2.322 0.942 1.580 5798
2.320 0.941 1.569 4883
2.349 0.953 1.578 4486
2.353 0.955 1.570 6656
2.350 0.954 1.559 8839
2.354 0.955 1.552 7242
2.422 0.983 1.584 7807
2.426 0.984 1.576 6908
2.436 0.989 1.573 6028
2.446 0.993 1.569 5637
2.457 0.997 1.565 6929
2.461 0.998 1.558 8498
2.458 0.997 1.546 7514
2.455 0.996 1.535 6649
2.459 0.998 1.527 5388
2.469 1.002 1.523 5375
2.473 1.003 1.516 6684
2.516 1.021 1.530 6977
2.533 1.028 1.530 8500
2.543 1.032 1.526 8688
2.547 1.033 1.518 8249
2.550 1.035 1.510 7196
2.626 1.066 1.541 6425
2.643 1.072 1.540 7115
2.666 1.082 1.543 6752
2.670 1.083 1.534 7835
2.674 1.085 1.526 7224
2.691 1.092 1.525 5411
2.695 1.093 1.516 5150
2.731 1.108 1.525 5390
2.742 1.113 1.520 9648
2.746 1.114 1.512 12691
2.736 1.110 1.496 13523
2.740 1.112 1.488 13338
2.757 1.119 1.486 9323
2.860 1.161 1.527 7257
2.864 1.162 1.518 6371
2.908 1.180 1.529 6466
2.925 1.187 1.526 4658
2.942 1.194 1.524 4861
2.946 1.195 1.515 6163
2.950 1.197 1.505 7358
2.953 1.198 1.496 5576
3.058 1.241 1.534 5414
3.062 1.242 1.525 7571
3.065 1.244 1.515 7899
3.076 1.248 1.509 6952
3.080 1.250 1.499 4344
3.171 1.287 1.529 4546
3.175 1.288 1.519 4653
3.186 1.293 1.512 4558
3.203 1.300 1.508 4577
3.193 1.296 1.492 5431
3.163 1.283 1.468 6532
3.173 1.288 1.461 7046
3.307 1.342 1.506 6861
3.310 1.343 1.495 6314
3.403 1.381 1.522 6647
3.407 1.382 1.511 6890
3.300 1.339 1.456 4261
3.400 1.380 1.485 4361
3.397 1.378 1.471 8442
3.407 1.383 1.464 7607
3.418 1.387 1.456 4967
3.428 1.391 1.448 5903
3.439 1.395 1.440 6295
3.463 1.405 1.437 3816
3.640 1.477 1.491 4628
3.650 1.481 1.483 3517
3.772 1.531 1.515 2274
3.769 1.529 1.501 3695
3.779 1.534 1.492 4933
3.790 1.538 1.482 5112
3.807 1.545 1.475 5376
3.909 1.586 1.498 4902
3.877 1.573 1.474 4615
3.867 1.569 1.457 4734
3.899 1.582 1.454 4590
3.909 1.586 1.445 3956
4.039 1.639 1.475 3572
4.049 1.643 1.464 4300
4.060 1.647 1.454 6636
4.071 1.652 1.444 7259
4.088 1.659 1.436 6816
4.099 1.663 1.425 4662
4.243 1.722 1.457 3835
4.246 1.723 1.443 3200
4.264 1.730 1.435 3316
4.282 1.737 1.426 4877
4.278 1.736 1.410 4921
4.274 1.734 1.395 3227
4.504 1.828 1.448 2404
4.600 1.866 1.461 3087
4.646 1.885 1.459 6583
4.657 1.890 1.446 11157
4.689 1.902 1.440 11310
4.713 1.913 1.431 11928
4.724 1.917 1.418 12313
4.720 1.915 1.401 8448
4.660 1.891 1.370 4158
4.748 1.927 1.378 4558
4.745 1.925 1.361 4819
5.026 2.039 1.418 5375
5.037 2.044 1.404 6507
5.040 2.045 1.388 6648
5.051 2.049 1.374 3059
5.290 2.147 1.416 4299
5.358 2.174 1.415 4240
5.376 2.181 1.402 3664
5.379 2.183 1.385 2609
5.548 2.251 1.406 2552
5.551 2.252 1.389 2770
5.676 2.303 1.399 2685
5.680 2.305 1.381 3134
5.956 2.417 1.423 2692
6.003 2.436 1.413 2757
6.006 2.437 1.395 3038
6.010 2.439 1.376 3535
6.013 2.440 1.357 3552
6.146 2.494 1.364 2701
6.467 2.624 1.408 3375
6.463 2.623 1.386 2901
6.445 2.615 1.362 2474
6.455 2.619 1.343 2532
6.596 2.676 1.348 3727
6.599 2.678 1.328 3299
7.218 2.929 1.417 2113
6.989 2.836 1.354 1946
6.790 2.755 1.297 1864
7.018 2.847 1.314 1582
7.028 2.852 1.293 1721
7.785 3.159 1.393 2219
7.774 3.155 1.366 1604
8.054 3.268 1.385 1743
8.064 3.272 1.361 2332
8.053 3.268 1.334 2753
8.042 3.263 1.306 5058
8.045 3.264 1.281 6537
8.048 3.265 1.256 5636
8.051 3.267 1.231 3254
8.126 3.297 1.215 1759
8.144 3.304 1.192 1162
8.067 3.273 1.156 1014
8.077 3.277 1.131 933
8.072 3.275 1.105 475
1.853 0.749 1.533 4947
1.857 0.751 1.527 9895
1.861 0.753 1.521 9424
1.865 0.754 1.516 8953
1.868 0.756 1.510 8953
1.981 0.801 1.586 7150
1.991 0.805 1.584 8181
2.019 0.816 1.596 9744
2.029 0.820 1.594 12367
2.033 0.822 1.588 12367
2.043 0.826 1.586 9647
2.053 0.830 1.584 7002
2.056 0.832 1.578 5538
2.091 0.846 1.593 4995
2.095 0.847 1.587 6113
2.093 0.846 1.576 7281
2.109 0.853 1.578 6342
2.144 0.867 1.593 6495
2.135 0.863 1.578 7336
2.145 0.867 1.576 10186
2.155 0.872 1.573 12301
2.165 0.876 1.571 11395
2.175 0.880 1.569 11091
2.198 0.889 1.574 8633
2.221 0.898 1.580 9488
2.243 0.907 1.586 9318
2.254 0.911 1.583 10789
2.264 0.915 1.580 9306
2.280 0.922 1.581 8485
2.290 0.926 1.578 6602
2.320 0.938 1.587 5902
2.323 0.940 1.580 5763
2.321 0.939 1.569 4914
2.319 0.938 1.558 4343
2.348 0.949 1.567 6266
2.352 0.951 1.559 8383
2.349 0.950 1.548 6954
2.423 0.980 1.584 7652
2.427 0.981 1.576 6816
2.437 0.986 1.573 6009
2.448 0.990 1.569 5716
2.458 0.994 1.565 7174
2.462 0.995 1.558 8818
2.459 0.994 1.546 7891
2.457 0.993 1.535 7140
2.460 0.995 1.527 5585
2.471 0.999 1.523 5095
2.474 1.001 1.516 6216
2.517 1.018 1.530 6583
2.534 1.025 1.530 8051
2.544 1.029 1.526 8308
2.548 1.030 1.518 8093
2.552 1.032 1.510 7221
2.634 1.065 1.545 6512
2.644 1.069 1.540 6794
2.668 1.079 1.543 6074
2.671 1.080 1.534 7201
2.675 1.082 1.526 6811
2.692 1.089 1.525 5334
2.696 1.090 1.516 5230
2.733 1.105 1.525 5368
2.743 1.109 1.520 9401
2.747 1.111 1.512 12588
2.737 1.107 1.496 13213
2.748 1.111 1.491 12919
2.758 1.115 1.486 9007
2.862 1.157 1.527 7451
2.865 1.159 1.518 6579
2.909 1.176 1.529 6413
2.926 1.183 1.526 4707
2.944 1.190 1.524 5031
2.947 1.192 1.515 6230
2.951 1.193 1.505 7162
2.955 1.195 1.496 5275
3.066 1.240 1.537 5235
3.063 1.239 1.525 7346
3.074 1.243 1.518 7864
3.077 1.244 1.509 7149
3.081 1.246 1.499 4510
3.173 1.283 1.529 4382
3.177 1.285 1.519 4543
3.187 1.289 1.512 4507
3.205 1.296 1.508 4681
3.201 1.295 1.495 5612
3.198 1.293 1.482 6272
3.175 1.284 1.461 6497
3.308 1.338 1.506 6971
3.312 1.339 1.495 6495
3.405 1.377 1.522 6355
3.408 1.378 1.511 6615
3.302 1.335 1.456 4163
3.409 1.378 1.487 4413
3.406 1.377 1.474 8088
3.409 1.379 1.464 7143
3.420 1.383 1.456 4724
3.430 1.387 1.448 5846
3.441 1.391 1.440 6109
3.527 1.426 1.461 3663
3.642 1.473 1.491 4560
3.652 1.477 1.483 3505
3.663 1.481 1.474 2095
3.771 1.525 1.501 3421
3.781 1.529 1.492 4919
3.792 1.533 1.482 4983
3.809 1.540 1.475 4933
3.911 1.581 1.498 5040
3.879 1.569 1.474 4904
3.869 1.564 1.457 4936
3.900 1.577 1.454 4623
3.918 1.584 1.447 3848
4.048 1.637 1.477 3280
4.051 1.638 1.464 4013
4.062 1.643 1.454 6416
4.072 1.647 1.444 7081
4.090 1.654 1.436 6653
4.241 1.715 1.470 4847
4.245 1.717 1.457 4061
4.249 1.718 1.443 2927
4.266 1.725 1.435 2995
4.277 1.729 1.423 4761
4.280 1.731 1.410 4747
4.277 1.729 1.395 3009
4.507 1.822 1.448 2536
4.545 1.838 1.444 3062
4.648 1.880 1.459 6500
4.659 1.884 1.446 11241
4.691 1.897 1.440 11344
4.716 1.907 1.431 11520
4.726 1.911 1.418 12326
4.723 1.910 1.401 8929
4.669 1.888 1.372 5009
4.729 1.912 1.372 4717
4.733 1.914 1.357 3692
5.029 2.033 1.418 4880
5.039 2.038 1.404 6404
5.050 2.042 1.390 6840
5.053 2.043 1.374 3293
5.329 2.155 1.425 4295
5.361 2.168 1.415 4087
5.378 2.175 1.402 3514
5.389 2.179 1.387 2694
5.550 2.244 1.406 2346
5.554 2.246 1.389 2581
5.679 2.296 1.399 2772
5.683 2.298 1.381 3206
5.959 2.410 1.423 2498
6.020 2.434 1.416 2566
6.009 2.430 1.395 2840
6.013 2.431 1.376 3459
6.016 2.433 1.357 3657
6.149 2.487 1.364 2875
6.463 2.613 1.406 3419
6.466 2.615 1.386 2845
6.448 2.607 1.362 2338
6.560 2.653 1.362 2455
6.599 2.669 1.348 3799
6.602 2.670 1.328 3329
7.221 2.920 1.417 2034
6.993 2.828 1.354 1843
6.800 2.750 1.298 1847
7.021 2.839 1.314 1522
7.031 2.843 1.293 1627
7.789 3.150 1.393 2064
7.342 2.969 1.297 1589
8.057 3.258 1.385 1697
8.068 3.262 1.361 2181
8.057 3.258 1.334 2714
8.045 3.253 1.306 5118
8.049 3.255 1.281 6582
8.052 3.256 1.256 5688
8.055 3.257 1.231 3319
8.130 3.288 1.215 1801
8.148 3.295 1.192 1123
8.070 3.263 1.156 964
8.080 3.267 1.131 907
8.076 3.266 1.105 464
1.686 0.682 0.248 263
2.252 0.911 -0.153 266
1.854 0.747 1.533 4319
1.858 0.749 1.527 8638
1.856 0.748 1.517 8314
1.860 0.750 1.511 8024
1.863 0.751 1.505 8024
1.981 0.799 1.586 7218
1.997 0.805 1.588 8283
2.026 0.816 1.600 10152
2.030 0.818 1.594 12942
2.033 0.820 1.588 12942
2.043 0.824 1.586 10224
2.053 0.828 1.584 7555
2.057 0.829 1.578 5795
2.098 0.846 1.598 5359
2.096 0.845 1.587 6497
2.100 0.846 1.580 7655
2.110 0.850 1.578 6719
2.145 0.864 1.593 6951
2.136 0.861 1.578 7641
2.146 0.865 1.576 10431
2.156 0.869 1.573 12584
2.166 0.873 1.571 11728
2.176 0.877 1.569 11443
2.199 0.886 1.574 8764
2.222 0.895 1.580 9527
2.244 0.905 1.586 9459
2.261 0.911 1.587 11079
2.265 0.913 1.580 9702
2.281 0.919 1.581 8726
2.291 0.924 1.578 6701
2.321 0.935 1.587 5739
2.324 0.937 1.580 5773
2.322 0.936 1.569 4967
2.320 0.935 1.558 4315
2.349 0.947 1.567 5883
2.346 0.946 1.555 7894
2.350 0.947 1.548 6672
2.424 0.977 1.584 7494
2.428 0.979 1.576 6728
2.438 0.983 1.573 6003
2.449 0.987 1.569 5841
2.453 0.989 1.561 7543
2.463 0.993 1.558 9307
2.460 0.992 1.546 8466
2.458 0.991 1.535 7853
2.461 0.992 1.527 5971
2.472 0.996 1.523 4876
2.475 0.998 1.516 5731
2.518 1.015 1.530 6210
2.535 1.022 1.530 7629
2.545 1.026 1.526 7957
2.549 1.027 1.518 7955
2.553 1.029 1.510 7257
2.635 1.062 1.545 6769
2.645 1.066 1.540 6593
2.656 1.070 1.536 5578
2.673 1.077 1.534 6555
2.676 1.079 1.526 6409
2.707 1.091 1.532 5459
2.697 1.087 1.516 5584
2.734 1.102 1.525 5445
2.744 1.106 1.520 9122
2.748 1.108 1.512 12429
2.738 1.104 1.496 12856
2.749 1.108 1.491 12550
2.759 1.112 1.486 8740
2.863 1.154 1.527 7715
2.867 1.155 1.518 6839
2.911 1.173 1.529 6339
2.934 1.183 1.530 4946
2.945 1.187 1.524 5425
2.949 1.188 1.515 6556
2.952 1.190 1.505 7242
2.956 1.191 1.496 5167
3.068 1.236 1.537 5079
3.065 1.235 1.525 7125
3.075 1.239 1.518 7850
3.079 1.241 1.509 7367
3.083 1.242 1.499 4735
3.168 1.277 1.526 4238
3.069 1.237 1.471 4670
3.189 1.285 1.512 4391
3.213 1.295 1.511 4801
3.217 1.297 1.501 6124
3.220 1.298 1.491 6822
3.176 1.280 1.461 6003
3.316 1.337 1.509 7065
3.320 1.338 1.498 6697
3.406 1.373 1.522 6070
3.403 1.372 1.509 6548
3.304 1.332 1.456 4498
3.417 1.377 1.490 4616
3.407 1.373 1.474 7587
3.411 1.375 1.464 6431
3.421 1.379 1.456 4207
3.432 1.383 1.448 5569
3.442 1.387 1.440 5803
3.529 1.422 1.461 3816
3.643 1.468 1.491 4259
3.661 1.476 1.485 3356
3.671 1.480 1.477 2174
3.772 1.520 1.501 3205
3.783 1.525 1.492 4867
3.793 1.529 1.482 4791
3.811 1.536 1.475 4397
3.912 1.577 1.498 5195
3.888 1.567 1.476 5254
3.885 1.566 1.462 5169
3.909 1.576 1.457 4905
3.913 1.577 1.445 3848
4.050 1.632 1.477 2905
4.053 1.634 1.464 3629
4.064 1.638 1.454 6020
4.074 1.642 1.444 6794
4.092 1.649 1.436 6454
4.243 1.710 1.470 5282
4.247 1.712 1.457 4316
4.250 1.713 1.443 2673
4.261 1.718 1.432 2691
4.279 1.725 1.423 4593
4.282 1.726 1.410 4512
4.278 1.725 1.395 2748
4.509 1.817 1.448 2736
4.540 1.830 1.442 3219
4.650 1.874 1.459 6488
4.661 1.879 1.446 11531
4.693 1.892 1.440 11943
4.718 1.902 1.431 11573
4.728 1.906 1.418 10525
4.732 1.907 1.403 7050
4.735 1.909 1.389 4433
4.739 1.910 1.374 4722
4.942 1.992 1.411 3775
5.031 2.028 1.418 4328
5.042 2.032 1.404 6168
5.052 2.036 1.390 6904
5.063 2.041 1.376 3370
5.288 2.131 1.414 4228
5.284 2.130 1.396 3994
5.388 2.172 1.403 3468
5.391 2.173 1.387 2836
5.689 2.293 1.438 2180
5.556 2.240 1.389 2346
5.682 2.290 1.399 2811
5.685 2.292 1.381 3255
5.688 2.293 1.363 2548
6.030 2.431 1.418 2349
6.005 2.420 1.393 2646
6.015 2.425 1.376 3400
6.026 2.429 1.358 3833
6.145 2.477 1.363 3009
6.466 2.606 1.406 3362
6.462 2.605 1.385 2803
6.451 2.600 1.362 2332
6.563 2.645 1.362 2605
6.595 2.658 1.347 3944
6.605 2.662 1.328 3394
7.224 2.912 1.417 1965
6.996 2.820 1.354 1721
6.803 2.742 1.298 1808
7.017 2.828 1.312 1446
7.035 2.835 1.293 1534
7.335 2.957 1.319 1871
7.346 2.961 1.297 1849
7.901 3.185 1.360 1659
8.072 3.253 1.361 2007
8.060 3.249 1.334 2688
8.049 3.244 1.306 5177
8.052 3.246 1.281 6547
8.055 3.247 1.256 5637
8.058 3.248 1.231 3351
8.134 3.279 1.215 1880
8.144 3.283 1.191 1093
8.081 3.257 1.157 899
8.084 3.258 1.131 895
8.079 3.257 1.105 466
1.849 0.742 1.528 3784
1.853 0.744 1.522 7568
1.857 0.745 1.517 7292
1.855 0.744 1.507 7047
1.858 0.746 1.501 7047
1.983 0.796 1.586 7169
1.999 0.802 1.588 8257
2.027 0.813 1.600 10448
2.031 0.815 1.594 13327
2.035 0.816 1.588 13327
2.045 0.821 1.586 10654
2.049 0.822 1.580 8000
2.077 0.833 1.591 5967
2.099 0.842 1.598 5669
2.103 0.844 1.591 6801
2.101 0.843 1.580 7967
2.117 0.850 1.583 7106
2.140 0.859 1.589 7349
2.144 0.860 1.582 7864
2.148 0.862 1.576 10462
2.158 0.866 1.573 12640
2.168 0.870 1.571 11890
2.178 0.874 1.569 11660
2.194 0.880 1.570 8870
2.223 0.892 1.580 9556
2.246 0.901 1.586 9521
2.262 0.908 1.587 11328
2.266 0.909 1.580 10018
2.276 0.913 1.577 8985
2.287 0.918 1.574 6785
2.322 0.932 1.587 5624
2.326 0.933 1.580 5805
2.323 0.932 1.569 4950
2.321 0.931 1.558 4148
2.331 0.935 1.555 5502
2.348 0.942 1.555 7197
2.345 0.941 1.544 6201
2.432 0.976 1.588 7230
2.436 0.978 1.580 6564
2.440 0.979 1.573 5898
2.450 0.983 1.569 5912
2.454 0.985 1.561 7898
2.458 0.986 1.554 9790
2.455 0.985 1.542 9059
2.459 0.987 1.535 8540
2.463 0.988 1.527 6375
2.473 0.992 1.523 4621
2.477 0.994 1.516 5116
2.520 1.011 1.530 5714
2.536 1.018 1.530 7027
2.547 1.022 1.526 7429
2.551 1.023 1.518 7620
2.554 1.025 1.510 7097
2.637 1.058 1.545 6993
2.640 1.060 1.537 6346
2.651 1.064 1.532 5155
2.668 1.071 1.531 6029
2.685 1.077 1.530 6353
2.708 1.087 1.532 6060
2.699 1.083 1.516 6246
2.736 1.098 1.525 5611
2.746 1.102 1.520 8857
2.750 1.103 1.512 12164
2.747 1.102 1.500 12356
2.751 1.104 1.491 11874
2.761 1.108 1.486 8159
2.865 1.150 1.527 7885
2.868 1.151 1.518 7000
2.912 1.169 1.529 6223
2.936 1.178 1.530 5193
2.947 1.182 1.524 5747
2.950 1.184 1.515 6672
2.954 1.185 1.505 7081
2.958 1.187 1.496 4937
3.069 1.232 1.537 4908
3.073 1.233 1.528 6848
3.077 1.235 1.518 7728
3.081 1.236 1.509 7446
3.091 1.240 1.502 4876
3.163 1.269 1.523 4219
3.071 1.232 1.471 4731
3.116 1.250 1.479 4446
3.215 1.290 1.511 5005
3.225 1.294 1.504 6591
3.229 1.296 1.494 7376
3.294 1.322 1.510 5881
3.319 1.332 1.509 7182
3.322 1.333 1.498 7030
3.401 1.365 1.519 5736
3.398 1.364 1.506 6594
3.409 1.368 1.498 4480
3.433 1.378 1.496 4969
3.409 1.368 1.474 6853
3.413 1.370 1.464 5622
3.437 1.379 1.461 3857
3.434 1.378 1.448 5484
3.451 1.385 1.442 5670
3.538 1.420 1.463 3741
3.645 1.463 1.491 4074
3.663 1.470 1.485 3462
3.680 1.477 1.479 2315
3.775 1.515 1.501 2800
3.792 1.522 1.494 4486
3.789 1.520 1.480 4378
3.904 1.567 1.508 3798
3.915 1.571 1.498 5355
3.890 1.561 1.476 5519
3.894 1.563 1.464 5499
3.912 1.570 1.457 5289
3.915 1.571 1.445 3853
4.080 1.637 1.486 3009
4.084 1.639 1.474 3253
4.066 1.632 1.454 5363
4.077 1.636 1.444 6395
4.094 1.643 1.436 6215
4.246 1.704 1.470 5511
4.250 1.705 1.457 4425
4.253 1.707 1.443 2420
4.257 1.708 1.430 2493
4.274 1.715 1.421 4480
4.285 1.719 1.410 4186
4.281 1.718 1.395 2449
4.504 1.807 1.446 2975
4.536 1.820 1.440 3446
4.653 1.867 1.459 6392
4.664 1.872 1.446 11444
4.696 1.884 1.440 12317
4.721 1.894 1.431 11820
4.731 1.899 1.418 10797
4.735 1.900 1.403 6315
4.931 1.979 1.440 4353
4.949 1.986 1.428 4620
4.945 1.984 1.411 4276
5.041 2.023 1.420 3759
5.045 2.024 1.404 5689
5.055 2.029 1.390 6560
5.066 2.033 1.376 3413
5.356 2.149 1.430 4072
5.280 2.119 1.394 3842
5.399 2.166 1.405 3488
5.431 2.179 1.395 2994
5.693 2.284 1.438 2248
5.703 2.289 1.421 2305
5.685 2.281 1.399 2745
5.689 2.283 1.381 3113
5.692 2.284 1.363 2425
6.041 2.424 1.420 2105
6.001 2.408 1.392 2408
6.019 2.415 1.376 3270
6.030 2.420 1.358 3924
6.149 2.467 1.363 3131
6.470 2.596 1.406 3386
6.466 2.595 1.385 2870
6.462 2.593 1.363 2318
6.567 2.635 1.362 2635
6.592 2.645 1.346 3914
6.610 2.652 1.328 3297
6.946 2.787 1.366 2106
6.957 2.792 1.346 1692
6.808 2.732 1.298 1699
7.014 2.815 1.311 1389
7.032 2.822 1.292 1448
7.340 2.945 1.319 2059
7.350 2.950 1.297 2052
7.906 3.173 1.360 1655
8.077 3.241 1.361 1825
8.065 3.237 1.334 2628
8.054 3.232 1.306 5114
8.057 3.233 1.281 6393
8.060 3.234 1.256 5499
8.063 3.236 1.231 3328
8.132 3.263 1.214 1898
8.149 3.270 1.191 1070
8.086 3.245 1.157 831
8.089 3.246 1.131 833
8.077 3.241 1.104 442
1.952 0.781 1.607 3381
1.956 0.782 1.601 6762
1.960 0.784 1.595 6762
1.970 0.788 1.593 6505
1.974 0.790 1.587 6337
1.984 0.793 1.586 6983
2.000 0.800 1.588 8102
2.028 0.811 1.600 10530
2.032 0.813 1.594 13422
2.036 0.814 1.588 13422
2.046 0.818 1.586 10803
2.050 0.820 1.580 8198
2.084 0.834 1.595 6014
2.100 0.840 1.598 5775
2.104 0.842 1.591 6935
2.108 0.843 1.585 8095
2.118 0.847 1.583 7283
2.141 0.856 1.589 7545
2.145 0.858 1.582 7931
2.148 0.859 1.576 10354
2.159 0.864 1.573 12525
2.169 0.868 1.571 11868
2.179 0.872 1.569 11680
2.195 0.878 1.570 8891
2.224 0.890 1.580 9483
2.247 0.899 1.586 9448
2.263 0.905 1.587 11356
2.267 0.907 1.580 10099
2.277 0.911 1.577 9044
2.288 0.915 1.574 6826
2.323 0.929 1.587 5578
2.327 0.931 1.580 5840
2.324 0.930 1.569 4940
2.322 0.929 1.558 4032
2.332 0.933 1.555 5267
2.342 0.937 1.551 6743
2.346 0.939 1.544 5880
2.433 0.973 1.588 6980
2.437 0.975 1.580 6351
2.441 0.977 1.573 5721
2.451 0.981 1.569 5898
2.455 0.982 1.561 8117
2.459 0.984 1.554 10102
2.456 0.983 1.542 9448
2.460 0.984 1.535 8980
2.464 0.986 1.527 6665
2.474 0.990 1.523 4493
2.478 0.991 1.516 4730
2.521 1.008 1.530 5336
2.531 1.013 1.526 6555
2.548 1.019 1.526 7025
2.552 1.021 1.518 7329
2.555 1.022 1.510 6932
2.638 1.055 1.545 7052
2.642 1.057 1.537 6157
2.652 1.061 1.532 4911
2.675 1.070 1.534 5740
2.686 1.074 1.530 6427
2.709 1.084 1.532 6533
2.700 1.080 1.516 6681
2.737 1.095 1.525 5695
2.747 1.099 1.520 8601
2.751 1.100 1.512 11854
2.748 1.099 1.500 11872
2.752 1.101 1.491 11219
2.762 1.105 1.486 7596
2.866 1.146 1.527 7986
2.870 1.148 1.518 7110
2.914 1.166 1.529 5959
2.937 1.175 1.530 4935
2.948 1.179 1.524 5472
2.952 1.181 1.515 6338
2.962 1.185 1.509 6631
2.966 1.186 1.499 4412
3.071 1.228 1.537 4770
3.075 1.230 1.528 6598
3.078 1.231 1.518 7533
3.082 1.233 1.509 7355
3.093 1.237 1.502 4921
3.157 1.263 1.520 4348
3.113 1.246 1.489 4854
3.117 1.247 1.479 4605
3.216 1.287 1.511 4993
3.227 1.291 1.504 6704
3.230 1.292 1.494 7519
3.241 1.297 1.487 5896
3.320 1.328 1.509 7104
3.324 1.330 1.498 6988
3.327 1.331 1.488 5767
3.393 1.357 1.503 6816
3.396 1.359 1.492 4851
3.441 1.377 1.498 5449
3.411 1.364 1.474 6173
3.414 1.366 1.464 4808
3.535 1.414 1.499 3478
3.442 1.377 1.450 5157
3.453 1.381 1.442 5255
3.539 1.416 1.463 3768
3.654 1.462 1.494 3823
3.671 1.469 1.488 3396
3.710 1.484 1.489 2547
3.769 1.508 1.498 2704
3.794 1.518 1.494 4358
3.790 1.516 1.480 4156
3.906 1.562 1.508 3816
3.916 1.567 1.498 5355
3.892 1.557 1.476 5708
3.896 1.558 1.464 5826
3.913 1.565 1.457 5474
3.917 1.567 1.445 3732
4.082 1.633 1.486 3089
4.093 1.637 1.476 3256
4.068 1.627 1.454 4853
4.079 1.632 1.444 5986
4.096 1.639 1.436 5947
4.248 1.699 1.470 5511
4.251 1.701 1.457 4364
4.255 1.702 1.443 2274
4.258 1.704 1.430 2406
4.276 1.711 1.421 4244
4.280 1.712 1.408 3858
4.283 1.713 1.395 2169
4.506 1.803 1.446 3152
4.538 1.815 1.440 3590
4.655 1.862 1.459 6033
4.666 1.867 1.446 10668
4.698 1.879 1.440 11535
4.730 1.892 1.433 10558
4.741 1.896 1.420 9672
4.715 1.886 1.398 6867
4.683 1.873 1.373 5291
4.944 1.978 1.426 4436
4.947 1.979 1.411 4349
4.950 1.980 1.396 3594
5.047 2.019 1.404 5281
5.057 2.023 1.390 6167
5.068 2.027 1.376 3337
5.365 2.146 1.432 3871
5.390 2.156 1.420 3770
5.408 2.163 1.407 3647
5.426 2.171 1.393 3182
5.695 2.278 1.438 2289
5.706 2.283 1.421 2328
5.688 2.275 1.399 2659
5.691 2.277 1.381 2968
5.694 2.278 1.363 2338
5.900 2.360 1.389 2197
6.004 2.402 1.392 2241
6.029 2.412 1.377 3165
6.032 2.413 1.358 3956
6.151 2.461 1.363 3174
6.473 2.589 1.406 3281
6.469 2.588 1.385 2883
6.465 2.586 1.363 2376
6.577 2.631 1.364 2624
6.595 2.638 1.346 3858
6.612 2.645 1.328 3175
6.949 2.780 1.366 2177
6.952 2.781 1.345 1686
6.818 2.727 1.299 1664
7.010 2.804 1.310 1390
6.977 2.791 1.282 1459
7.343 2.938 1.319 2160
7.353 2.942 1.297 2149
7.909 3.164 1.360 1606
7.898 3.160 1.333 1722
8.062 3.225 1.332 2533
8.057 3.223 1.306 4931
8.061 3.225 1.281 6090
8.064 3.226 1.256 5230
8.067 3.227 1.231 3204
8.135 3.254 1.214 1922
8.145 3.259 1.190 1056
8.090 3.236 1.157 768
8.093 3.237 1.131 778
8.088 3.236 1.105 415
1.572 0.629 0.226 257
1.565 0.626 0.220 265
1.572 0.629 0.216 254
1.565 0.626 0.211 258
1.953 0.779 1.607 3336
1.957 0.780 1.601 6672
1.961 0.782 1.595 6672
1.971 0.786 1.593 6468
1.974 0.787 1.587 6283
1.984 0.791 1.586 6919
2.007 0.800 1.593 8126
2.029 0.809 1.600 10858
2.033 0.810 1.594 13818
2.037 0.812 1.588 13818
2.047 0.816 1.586 11195
2.050 0.818 1.580 8594
2.085 0.831 1.595 6159
2.101 0.838 1.598 5971
2.105 0.839 1.591 7186
2.109 0.841 1.585 8401
2.119 0.845 1.583 7622
2.142 0.854 1.589 7880
2.146 0.855 1.582 8137
2.149 0.857 1.576 10437
2.160 0.861 1.573 12661
2.170 0.865 1.571 12106
2.180 0.869 1.569 11960
2.196 0.876 1.570 9087
2.225 0.887 1.580 9506
2.254 0.899 1.590 9526
2.264 0.903 1.587 11543
2.268 0.904 1.580 10357
2.278 0.908 1.577 9278
2.289 0.912 1.574 7017
2.324 0.927 1.587 5659
2.328 0.928 1.580 5993
2.326 0.927 1.569 5024
2.323 0.926 1.558 3985
2.327 0.928 1.551 5109
2.337 0.932 1.548 6378
2.347 0.936 1.544 5600
2.434 0.971 1.588 6739
2.438 0.972 1.580 6142
2.442 0.974 1.573 5545
2.452 0.978 1.569 5923
2.456 0.979 1.561 8482
2.460 0.981 1.554 10641
2.458 0.980 1.542 10071
2.461 0.981 1.535 9651
2.465 0.983 1.527 7136
2.469 0.984 1.520 4476
2.479 0.988 1.516 4426
2.522 1.005 1.530 5011
2.532 1.010 1.526 6200
2.549 1.016 1.526 6708
2.553 1.018 1.518 7068
2.635 1.051 1.553 6902
2.639 1.052 1.545 7171
2.643 1.054 1.537 5948
2.653 1.058 1.532 4600
2.683 1.070 1.538 5345
2.700 1.077 1.537 6641
2.697 1.075 1.525 7218
2.701 1.077 1.516 7373
2.738 1.092 1.525 5885
2.748 1.096 1.520 8539
2.759 1.100 1.515 11809
2.749 1.096 1.500 11614
2.753 1.098 1.491 10781
2.763 1.102 1.486 7110
2.867 1.143 1.527 8199
2.871 1.145 1.518 7346
2.908 1.160 1.526 5523
2.939 1.172 1.530 4930
2.943 1.173 1.520 5775
2.953 1.177 1.515 6600
2.964 1.182 1.509 6715
2.967 1.183 1.499 4289
3.079 1.228 1.540 4732
3.076 1.226 1.528 6399
3.080 1.228 1.518 7362
3.083 1.229 1.509 7255
3.094 1.234 1.502 5035
3.145 1.254 1.514 4852
3.115 1.242 1.489 5308
3.119 1.243 1.479 4947
3.218 1.283 1.511 5040
3.228 1.287 1.504 6933
3.232 1.289 1.494 7825
3.242 1.293 1.487 6164
3.321 1.324 1.509 7071
3.325 1.326 1.498 7054
3.329 1.327 1.488 6184
3.387 1.351 1.500 7212
3.398 1.355 1.492 5334
3.443 1.373 1.498 6042
3.419 1.363 1.477 5218
3.409 1.359 1.461 3842
3.447 1.374 1.464 3184
3.444 1.373 1.450 4994
3.454 1.377 1.442 5073
3.541 1.412 1.463 3695
3.656 1.457 1.494 3656
3.673 1.464 1.488 3436
3.746 1.494 1.502 2970
3.771 1.503 1.498 2787
3.796 1.513 1.494 4214
3.785 1.509 1.477 3951
3.908 1.558 1.508 3784
3.925 1.565 1.500 5428
3.894 1.553 1.476 6006
3.898 1.554 1.464 6325
3.915 1.561 1.457 5937
3.919 1.562 1.445 3801
4.084 1.628 1.486 3221
4.094 1.632 1.476 3295
4.070 1.623 1.454 4141
4.080 1.627 1.444 5538
4.098 1.634 1.436 5769
4.250 1.694 1.470 5371
4.260 1.699 1.459 4278
4.271 1.703 1.448 2290
4.260 1.699 1.430 2411
4.271 1.703 1.419 4148
4.282 1.707 1.408 3511
4.483 1.788 1.454 2271
4.508 1.797 1.446 3469
4.540 1.810 1.440 3859
4.657 1.857 1.459 6026
4.668 1.861 1.446 10604
4.700 1.874 1.440 11646
4.725 1.884 1.431 10291
4.743 1.891 1.420 8701
4.739 1.889 1.403 4869
4.685 1.868 1.373 4994
4.724 1.884 1.368 4410
4.942 1.970 1.409 4477
4.953 1.975 1.396 3874
5.049 2.013 1.404 4952
5.060 2.017 1.390 6038
5.077 2.024 1.378 3383
5.375 2.143 1.433 3791
5.393 2.150 1.420 3881
5.411 2.157 1.407 3877
5.428 2.164 1.393 3401
5.705 2.275 1.439 2250
5.730 2.285 1.426 2308
5.690 2.269 1.399 2464
5.694 2.270 1.381 2722
5.704 2.274 1.365 2166
5.902 2.353 1.389 2410
6.000 2.392 1.390 2150
6.032 2.405 1.377 3177
6.035 2.406 1.358 4059
6.154 2.454 1.363 3186
6.468 2.579 1.405 3191
6.465 2.577 1.383 2882
6.468 2.579 1.363 2327
6.580 2.623 1.364 2644
6.598 2.630 1.346 3831
6.608 2.635 1.326 3072
6.945 2.769 1.365 2289
6.948 2.770 1.343 1694
6.821 2.719 1.299 1581
6.962 2.776 1.301 1483
6.972 2.780 1.281 1519
7.346 2.929 1.319 2327
7.357 2.933 1.297 2306
7.920 3.158 1.361 1578
7.902 3.150 1.333 1635
8.065 3.216 1.332 2478
8.069 3.217 1.307 4714
8.064 3.215 1.281 5772
8.067 3.216 1.256 4979
8.070 3.218 1.231 3103
8.139 3.245 1.214 1937
8.149 3.249 1.190 1051
8.094 3.227 1.157 707
8.096 3.228 1.131 706
8.084 3.223 1.104 373
1.573 0.627 0.226 298
1.565 0.624 0.220 320
1.573 0.627 0.216 299
1.566 0.624 0.211 300
1.566 0.624 0.206 288
1.960 0.779 1.611 3298
1.964 0.780 1.605 6596
1.968 0.782 1.599 6596
1.971 0.783 1.593 6368
1.975 0.785 1.587 6139
1.985 0.789 1.586 6750
2.020 0.802 1.602 8113
2.030 0.806 1.600 11028
2.034 0.808 1.594 13999
2.037 0.810 1.588 13999
2.048 0.814 1.586 11394
2.051 0.815 1.580 8823
2.086 0.829 1.595 6200
2.102 0.835 1.598 6061
2.106 0.837 1.591 7292
2.110 0.838 1.585 8522
2.120 0.842 1.583 7800
2.143 0.851 1.589 8035
2.147 0.853 1.582 8185
2.150 0.854 1.576 10364
2.161 0.858 1.573 12617
2.171 0.862 1.571 12164
2.181 0.866 1.569 12040
2.197 0.873 1.570 9119
2.226 0.884 1.580 9349
2.255 0.896 1.590 9423
2.265 0.900 1.587 11466
2.269 0.902 1.580 10375
2.279 0.906 1.577 9313
2.290 0.910 1.574 7102
2.325 0.924 1.587 5726
2.329 0.925 1.580 6107
2.327 0.924 1.569 5069
2.324 0.923 1.558 3902
2.328 0.925 1.551 4957
2.338 0.929 1.548 6056
2.348 0.933 1.544 5302
2.436 0.968 1.588 6432
2.439 0.969 1.580 5870
2.450 0.973 1.576 5312
2.454 0.975 1.569 5873
2.458 0.976 1.561 8753
2.461 0.978 1.554 11072
2.459 0.977 1.542 10584
2.463 0.978 1.535 10205
2.466 0.980 1.527 7524
2.470 0.981 1.520 4481
2.558 1.016 1.560 4358
2.523 1.002 1.530 4743
2.533 1.007 1.526 5912
2.550 1.013 1.526 6449
2.554 1.015 1.518 6800
2.636 1.047 1.553 7111
2.640 1.049 1.545 7172
2.644 1.051 1.537 5684
2.654 1.055 1.532 4278
2.685 1.067 1.538 5029
2.702 1.073 1.537 6847
2.699 1.072 1.525 7807
2.696 1.071 1.513 7970
2.739 1.088 1.525 5973
2.756 1.095 1.524 8399
2.760 1.097 1.515 11697
2.757 1.095 1.503 11297
2.754 1.094 1.491 10217
2.851 1.133 1.529 6553
2.869 1.140 1.527 8209
2.872 1.141 1.518 7422
2.863 1.137 1.503 5367
2.940 1.168 1.530 4866
2.944 1.170 1.520 5760
2.954 1.174 1.515 6421
2.965 1.178 1.509 6406
2.969 1.179 1.499 3944
3.080 1.224 1.540 4696
3.077 1.223 1.528 6152
3.081 1.224 1.518 7113
3.085 1.226 1.509 7054
3.095 1.230 1.502 5126
3.140 1.248 1.511 5445
3.123 1.241 1.492 5697
3.120 1.240 1.479 5252
3.226 1.282 1.514 5164
3.230 1.283 1.504 7226
3.240 1.287 1.497 8113
3.244 1.289 1.487 6392
3.323 1.320 1.509 6998
3.327 1.322 1.498 7029
3.337 1.326 1.491 6422
3.389 1.347 1.500 7614
3.393 1.348 1.490 5772
3.445 1.369 1.498 6366
3.448 1.370 1.488 4622
3.411 1.355 1.461 3022
3.449 1.370 1.464 2865
3.445 1.369 1.450 4518
3.456 1.373 1.442 4471
3.550 1.410 1.466 3699
3.657 1.453 1.494 3474
3.689 1.466 1.493 3443
3.748 1.489 1.502 3618
3.766 1.496 1.496 2854
3.797 1.509 1.494 3959
3.752 1.491 1.465 4183
3.749 1.489 1.451 3747
3.927 1.560 1.500 5393
3.903 1.551 1.479 6155
3.906 1.552 1.466 6637
3.917 1.556 1.457 6221
3.921 1.558 1.445 3806
4.086 1.623 1.486 3364
4.103 1.630 1.478 3426
4.079 1.621 1.456 3605
4.082 1.622 1.444 5196
4.093 1.626 1.433 5676
4.252 1.689 1.470 5155
4.262 1.694 1.459 4089
4.280 1.701 1.450 2389
4.262 1.694 1.430 2410
4.273 1.698 1.419 3899
4.284 1.702 1.408 3078
4.486 1.782 1.454 2508
4.510 1.792 1.446 3738
4.542 1.805 1.440 4067
4.660 1.851 1.459 5829
4.663 1.853 1.444 9841
4.702 1.868 1.440 10467
4.734 1.881 1.433 9292
4.752 1.888 1.422 8146
4.698 1.867 1.392 5732
4.688 1.862 1.373 5060
4.948 1.966 1.426 3977
4.944 1.965 1.409 4565
4.955 1.969 1.396 4175
5.052 2.007 1.404 4658
5.062 2.011 1.390 5825
5.080 2.018 1.378 3377
5.385 2.139 1.435 3634
5.402 2.146 1.422 3990
5.413 2.151 1.407 4051
5.431 2.158 1.393 3479
5.715 2.271 1.441 2216
5.733 2.278 1.426 2267
5.693 2.262 1.399 2303
5.696 2.263 1.381 2534
5.707 2.267 1.365 2078
5.905 2.346 1.389 2375
6.002 2.385 1.390 2081
6.035 2.398 1.377 3175
6.045 2.402 1.360 4142
6.157 2.446 1.363 3111
6.471 2.571 1.405 3039
6.468 2.570 1.383 2949
6.471 2.571 1.363 2534
6.583 2.616 1.364 2607
6.601 2.623 1.346 3687
6.611 2.627 1.326 2918
6.948 2.761 1.365 2405
6.944 2.759 1.342 1788
6.933 2.755 1.318 1527
6.965 2.767 1.301 1548
7.347 2.919 1.342 1560
7.350 2.920 1.319 2395
7.360 2.924 1.297 2372
7.356 2.923 1.273 1606
7.906 3.141 1.333 1545
8.011 3.183 1.324 2491
8.072 3.207 1.307 4523
8.068 3.206 1.281 5492
8.071 3.207 1.256 4733
8.074 3.208 1.231 2966
8.143 3.235 1.214 1905
8.146 3.236 1.189 1026
8.105 3.220 1.158 642
8.100 3.218 1.131 638
8.088 3.214 1.104 345
1.573 0.625 0.226 289
1.566 0.622 0.220 317
1.566 0.622 0.216 304
1.567 0.622 0.211 309
1.567 0.623 0.206 296
1.567 0.623 0.201 261
1.960 0.778 1.611 3296
1.964 0.779 1.605 6592
1.968 0.781 1.599 6592
1.972 0.783 1.593 6304
1.976 0.784 1.587 6016
1.986 0.788 1.586 6583
2.026 0.804 1.606 8261
2.030 0.806 1.600 11254
2.034 0.807 1.594 14247
2.038 0.809 1.588 14247
2.048 0.813 1.586 11639
2.052 0.814 1.580 9080
2.062 0.818 1.578 6266
2.102 0.835 1.598 6143
2.106 0.836 1.591 7410
2.110 0.838 1.585 8677
2.120 0.842 1.583 8041
2.143 0.851 1.589 8245
2.147 0.852 1.582 8271
2.151 0.854 1.576 10326
2.161 0.858 1.573 12639
2.171 0.862 1.571 12327
2.181 0.866 1.569 12248
2.191 0.870 1.566 9325
2.226 0.884 1.580 9281
2.255 0.895 1.590 9407
2.266 0.899 1.587 11488
2.270 0.901 1.580 10478
2.273 0.902 1.573 9467
2.284 0.906 1.570 7306
2.325 0.923 1.587 5865
2.329 0.925 1.580 6283
2.327 0.924 1.569 5178
2.324 0.923 1.558 3873
2.328 0.924 1.551 4803
2.332 0.926 1.544 5734
2.342 0.930 1.540 4966
2.436 0.967 1.588 6088
2.440 0.968 1.580 5565
2.450 0.972 1.576 5086
2.454 0.974 1.569 5847
2.458 0.976 1.561 9112
2.462 0.977 1.554 11616
2.459 0.976 1.542 11174
2.463 0.978 1.535 10808
2.467 0.979 1.527 7958
2.470 0.981 1.520 4520
2.559 1.016 1.560 4474
2.523 1.002 1.530 4549
2.534 1.006 1.526 5695
2.551 1.012 1.526 6235
2.554 1.014 1.518 6478
2.637 1.047 1.553 7206
2.641 1.048 1.545 7095
2.644 1.050 1.537 5367
2.661 1.056 1.536 3924
2.692 1.068 1.541 4765
2.702 1.072 1.537 7079
2.699 1.071 1.525 8385
2.696 1.070 1.513 8517
2.740 1.087 1.525 6066
2.757 1.094 1.524 8398
2.761 1.096 1.515 11632
2.764 1.097 1.507 11067
2.755 1.093 1.491 9647
2.859 1.135 1.533 6508
2.869 1.139 1.527 8202
2.873 1.140 1.518 7491
2.863 1.136 1.503 5644
2.860 1.135 1.491 4598
2.938 1.166 1.517 5054
2.955 1.173 1.515 5572
2.965 1.177 1.509 5669
2.976 1.181 1.503 3711
3.081 1.223 1.540 4669
3.078 1.222 1.528 5880
3.082 1.223 1.518 6795
3.085 1.225 1.509 6749
3.096 1.229 1.502 5183
3.140 1.246 1.511 6033
3.124 1.240 1.492 6179
3.120 1.239 1.479 5641
3.226 1.281 1.514 5170
3.237 1.285 1.507 7276
3.241 1.286 1.497 8204
3.244 1.288 1.487 6458
3.323 1.319 1.509 6905
3.327 1.321 1.498 7073
3.338 1.325 1.491 6678
3.383 1.343 1.497 7941
3.400 1.350 1.492 6160
3.452 1.370 1.501 6888
3.456 1.372 1.491 4776
3.549 1.409 1.515 2486
3.463 1.375 1.469 2633
3.446 1.368 1.450 4227
3.456 1.372 1.442 4171
3.564 1.415 1.471 3536
3.665 1.455 1.497 3391
3.717 1.475 1.503 3839
3.742 1.485 1.500 4404
3.759 1.492 1.493 3057
3.798 1.507 1.494 3611
3.753 1.490 1.465 4020
3.749 1.488 1.451 3477
3.928 1.559 1.500 5226
3.910 1.552 1.481 6244
3.907 1.551 1.466 6979
3.918 1.555 1.457 6580
4.062 1.612 1.492 4010
4.079 1.619 1.484 3500
4.111 1.632 1.481 3649
4.143 1.644 1.477 3496
4.083 1.621 1.444 4769
4.094 1.625 1.433 5373
4.245 1.685 1.468 4853
4.263 1.692 1.459 3897
4.281 1.699 1.450 2623
4.270 1.695 1.432 2548
4.274 1.696 1.419 3586
4.284 1.700 1.408 2652
4.493 1.783 1.456 2822
4.511 1.791 1.446 4054
4.543 1.803 1.440 4278
4.660 1.850 1.459 5749
4.664 1.851 1.444 9601
4.703 1.867 1.440 9998
4.735 1.879 1.433 8432
4.753 1.886 1.422 7576
4.685 1.860 1.388 5497
4.695 1.864 1.375 6122
4.720 1.874 1.366 3785
4.945 1.963 1.409 4446
4.956 1.967 1.396 4301
5.052 2.005 1.404 4326
5.063 2.010 1.390 5430
5.081 2.017 1.378 3285
5.385 2.138 1.435 3514
5.403 2.145 1.422 4150
5.421 2.152 1.408 4309
5.432 2.156 1.393 3580
5.723 2.272 1.442 2244
5.734 2.276 1.426 2223
5.694 2.260 1.399 2044
5.697 2.261 1.381 2212
5.903 2.343 1.407 1920
5.906 2.344 1.389 2407
5.996 2.380 1.389 2028
6.035 2.396 1.377 3164
6.046 2.400 1.360 4179
6.151 2.441 1.361 3031
6.465 2.566 1.404 2945
6.469 2.568 1.383 2968
6.479 2.572 1.365 2574
6.584 2.613 1.364 2563
6.594 2.617 1.344 3559
6.612 2.625 1.326 2757
6.949 2.758 1.365 2545
6.945 2.757 1.342 1896
6.934 2.752 1.318 1594
6.966 2.765 1.301 1611
7.348 2.916 1.342 1617
7.351 2.918 1.319 2448
7.354 2.919 1.296 2439
7.357 2.920 1.273 1696
7.907 3.138 1.333 1423
8.012 3.180 1.324 2439
8.073 3.205 1.307 4123
8.069 3.203 1.281 4971
8.072 3.204 1.256 4353
8.083 3.208 1.232 2822
8.144 3.233 1.214 1871
8.147 3.234 1.189 1022
8.106 3.217 1.158 589
8.101 3.216 1.131 556
8.089 3.211 1.104 304
1.574 0.625 0.226 308
1.566 0.622 0.220 338
1.567 0.622 0.216 318
1.567 0.622 0.211 318
1.567 0.622 0.206 309
1.567 0.622 0.201 270
1.961 0.775 1.611 3280
1.965 0.776 1.605 6560
1.969 0.778 1.599 6560
1.973 0.779 1.593 6238
1.977 0.781 1.587 5916
1.987 0.785 1.586 6428
2.027 0.801 1.606 8468
2.031 0.802 1.600 11445
2.035 0.804 1.594 14422
2.039 0.805 1.588 14422
2.049 0.809 1.586 11800
2.053 0.811 1.580 9243
2.063 0.815 1.578 6342
2.104 0.831 1.598 6183
2.108 0.832 1.591 7450
2.118 0.836 1.589 8775
2.128 0.840 1.587 8194
2.144 0.847 1.589 8314
2.148 0.848 1.582 8248
2.158 0.852 1.580 10257
2.162 0.854 1.573 12603
2.172 0.858 1.571 12446
2.176 0.859 1.564 12463
2.193 0.866 1.566 9502
2.228 0.880 1.580 9154
2.257 0.891 1.590 9366
2.267 0.895 1.587 11487
2.271 0.897 1.580 10575
2.275 0.898 1.573 9662
2.285 0.902 1.570 7514
2.327 0.919 1.587 6042
2.331 0.921 1.580 6490
2.329 0.920 1.569 5309
2.326 0.919 1.558 3862
2.330 0.920 1.551 4622
2.334 0.922 1.544 5381
2.434 0.961 1.595 4731
2.444 0.965 1.592 5786
2.448 0.967 1.584 5320
2.452 0.968 1.576 4854
2.462 0.972 1.573 5829
2.460 0.971 1.561 9402
2.463 0.973 1.554 12059
2.461 0.972 1.542 11643
2.465 0.973 1.535 11274
2.468 0.975 1.527 8300
2.472 0.976 1.520 4585
2.561 1.011 1.560 4606
2.558 1.010 1.549 4584
2.536 1.001 1.526 5532
2.552 1.008 1.526 6036
2.556 1.009 1.518 6113
2.639 1.042 1.553 7236
2.642 1.044 1.545 6962
2.653 1.048 1.540 5063
2.663 1.052 1.536 3661
2.693 1.064 1.541 4709
2.704 1.068 1.537 7451
2.701 1.067 1.525 9064
2.698 1.066 1.513 9159
2.689 1.062 1.498 6462
2.759 1.089 1.524 8342
2.769 1.094 1.518 11620
2.766 1.092 1.507 10849
2.757 1.089 1.491 8876
2.860 1.130 1.533 6390
2.871 1.134 1.527 8035
2.875 1.135 1.518 7429
2.858 1.129 1.500 5979
2.862 1.130 1.491 4968
2.940 1.161 1.517 4975
2.950 1.165 1.511 5269
2.967 1.172 1.509 4971
2.978 1.176 1.503 3424
3.083 1.218 1.540 4655
3.080 1.216 1.528 5636
3.084 1.218 1.518 6459
3.087 1.219 1.509 6376
3.125 1.234 1.514 5239
3.143 1.241 1.511 6550
3.126 1.234 1.492 6489
3.123 1.233 1.479 5937
3.229 1.275 1.514 4960
3.239 1.279 1.507 7058
3.243 1.281 1.497 7868
3.240 1.279 1.484 6139
3.326 1.313 1.509 6829
3.329 1.315 1.498 7055
3.340 1.319 1.491 6934
3.385 1.337 1.497 8456
3.402 1.344 1.492 6638
3.454 1.364 1.501 7220
3.465 1.368 1.493 5030
3.476 1.373 1.485 2463
3.666 1.448 1.547 2518
3.455 1.364 1.453 3935
3.459 1.366 1.442 3843
3.573 1.411 1.474 3588
3.577 1.413 1.463 3488
3.727 1.472 1.506 4107
3.744 1.479 1.500 5016
3.748 1.480 1.488 3384
3.793 1.498 1.492 3169
3.755 1.483 1.465 3856
3.913 1.545 1.508 3533
3.930 1.552 1.500 5066
3.906 1.543 1.479 6180
3.910 1.544 1.466 7179
3.920 1.548 1.457 6875
4.057 1.602 1.490 4354
4.068 1.606 1.479 3738
4.121 1.627 1.483 3891
4.146 1.637 1.477 3906
4.079 1.611 1.441 4561
4.089 1.615 1.431 5364
4.121 1.627 1.427 4639
4.273 1.687 1.461 3764
4.291 1.694 1.452 2887
4.280 1.690 1.435 2774
4.277 1.689 1.419 3322
4.280 1.690 1.406 2281
4.496 1.776 1.456 3105
4.514 1.783 1.446 4348
4.546 1.795 1.440 4492
4.663 1.842 1.459 5573
4.667 1.843 1.444 9088
4.699 1.856 1.438 9006
4.745 1.874 1.435 7348
4.763 1.881 1.424 7019
4.688 1.851 1.388 5620
4.699 1.856 1.375 6212
4.723 1.865 1.366 4140
4.949 1.954 1.409 4271
4.952 1.956 1.394 4337
5.149 2.033 1.427 4117
5.073 2.004 1.392 5200
5.091 2.011 1.379 3205
5.396 2.131 1.437 3347
5.414 2.138 1.424 4206
5.425 2.142 1.408 4460
5.435 2.147 1.393 3644
5.734 2.264 1.444 2266
5.745 2.269 1.428 2124
5.698 2.250 1.399 1666
5.708 2.254 1.383 1849
5.907 2.333 1.407 1896
5.910 2.334 1.389 2354
6.022 2.378 1.393 1999
6.040 2.385 1.377 3108
6.050 2.389 1.360 4129
6.155 2.431 1.361 2950
6.462 2.552 1.402 2868
6.473 2.556 1.383 3016
6.484 2.560 1.365 2694
6.588 2.602 1.364 2477
6.599 2.606 1.344 3373
6.609 2.610 1.325 2572
6.954 2.746 1.365 2725
6.950 2.745 1.342 2037
6.946 2.743 1.319 1653
6.971 2.753 1.301 1592
7.345 2.901 1.341 1640
7.356 2.905 1.319 2468
7.359 2.906 1.296 2473
7.362 2.907 1.273 1742
8.073 3.188 1.358 1351
8.017 3.166 1.324 2327
8.079 3.191 1.307 3763
8.075 3.189 1.281 4488
8.078 3.190 1.256 3960
8.088 3.194 1.232 2610
8.142 3.216 1.213 1848
8.152 3.220 1.189 1023
8.111 3.203 1.158 549
8.107 3.202 1.131 479
8.095 3.197 1.104 274
1.567 0.619 0.225 272
1.575 0.622 0.221 322
1.575 0.622 0.216 341
1.568 0.619 0.211 348
1.568 0.619 0.206 299
1.568 0.619 0.201 257
1.968 0.775 1.616 3228
1.972 0.776 1.610 6456
1.976 0.778 1.604 6456
1.974 0.777 1.593 6085
1.978 0.779 1.587 5749
1.988 0.783 1.586 6225
2.028 0.799 1.606 8572
2.032 0.800 1.600 11498
2.036 0.802 1.594 14425
2.040 0.803 1.588 14425
2.044 0.805 1.582 11830
2.054 0.809 1.580 9269
2.064 0.813 1.578 6331
2.105 0.829 1.598 6108
2.109 0.830 1.591 7349
2.119 0.834 1.589 8697
2.129 0.838 1.587 8166
2.145 0.845 1.589 8218
2.149 0.846 1.582 8098
2.159 0.850 1.580 10090
2.163 0.852 1.573 12432
2.173 0.856 1.571 12420
2.177 0.857 1.564 12533
2.194 0.864 1.566 9541
2.223 0.875 1.576 8893
2.258 0.889 1.590 9119
2.268 0.893 1.587 11244
2.272 0.895 1.580 10442
2.276 0.896 1.573 9641
2.286 0.900 1.570 7573
2.328 0.917 1.587 6144
2.332 0.918 1.580 6598
2.323 0.915 1.565 5422
2.321 0.914 1.554 3939
2.324 0.915 1.547 4545
2.328 0.917 1.540 5151
2.435 0.959 1.595 4537
2.445 0.963 1.592 5494
2.449 0.964 1.584 5039
2.459 0.968 1.580 4603
2.463 0.970 1.573 5737
2.461 0.969 1.561 9543
2.464 0.970 1.554 12297
2.462 0.969 1.542 11906
2.466 0.971 1.535 11542
2.463 0.970 1.524 8508
2.473 0.974 1.520 4624
2.562 1.009 1.560 4693
2.565 1.010 1.552 4745
2.550 1.004 1.533 5523
2.553 1.005 1.526 5918
2.557 1.007 1.518 5861
2.640 1.039 1.553 7118
2.643 1.041 1.545 6728
2.654 1.045 1.540 4729
2.592 1.021 1.497 3519
2.694 1.061 1.541 4636
2.705 1.065 1.537 7725
2.702 1.064 1.525 9570
2.693 1.060 1.510 9633
2.683 1.056 1.494 6894
2.766 1.089 1.527 8310
2.770 1.091 1.518 11530
2.774 1.092 1.510 10633
2.764 1.088 1.495 8208
2.862 1.127 1.533 6208
2.872 1.131 1.527 7770
2.869 1.130 1.515 7295
2.859 1.126 1.500 6214
2.863 1.127 1.491 5230
2.941 1.158 1.517 4904
2.951 1.162 1.511 5011
2.969 1.169 1.509 4495
2.979 1.173 1.503 3461
3.084 1.214 1.540 4611
3.081 1.213 1.528 5438
3.085 1.215 1.518 6161
3.089 1.216 1.509 6008
3.126 1.231 1.514 5266
3.144 1.238 1.511 6880
3.127 1.231 1.492 6707
3.124 1.230 1.479 6157
3.237 1.275 1.517 4810
3.241 1.276 1.507 6890
3.244 1.277 1.497 7665
3.241 1.276 1.484 6018
3.334 1.313 1.511 6600
3.331 1.312 1.498 6852
3.341 1.316 1.491 6866
3.386 1.333 1.497 8509
3.404 1.340 1.492 6729
3.456 1.361 1.501 7373
3.466 1.365 1.493 5308
3.477 1.369 1.485 2813
3.474 1.368 1.472 2691
3.456 1.361 1.453 3821
3.460 1.362 1.442 3586
3.575 1.408 1.474 3739
3.578 1.409 1.463 3543
3.728 1.468 1.506 4438
3.746 1.475 1.500 5292
3.749 1.476 1.488 3482
3.795 1.494 1.492 2815
3.750 1.476 1.462 3601
3.914 1.541 1.508 3362
3.932 1.548 1.500 4797
3.915 1.541 1.481 6037
3.918 1.543 1.469 7210
3.922 1.544 1.457 6967
4.059 1.598 1.490 4561
4.048 1.594 1.472 4116
4.122 1.623 1.483 4032
4.147 1.633 1.477 4087
4.073 1.604 1.439 4420
4.091 1.611 1.431 5202
4.123 1.623 1.427 4579
4.275 1.683 1.461 3670
4.292 1.690 1.452 3124
4.289 1.689 1.437 2913
4.278 1.685 1.419 3012
4.282 1.686 1.406 2014
4.505 1.774 1.458 3215
4.516 1.778 1.446 4458
4.548 1.791 1.440 4574
4.665 1.837 1.459 5373
4.669 1.838 1.444 8645
4.701 1.851 1.438 7908
4.754 1.872 1.437 6328
4.765 1.876 1.424 6554
4.690 1.847 1.388 6782
4.693 1.848 1.373 6067
4.711 1.855 1.363 3175
4.951 1.949 1.409 4034
4.954 1.951 1.394 4242
5.151 2.028 1.427 4171
5.083 2.001 1.393 4892
5.280 2.079 1.425 3236
5.406 2.128 1.439 3186
5.416 2.133 1.424 4192
5.427 2.137 1.408 4487
5.438 2.141 1.393 3600
5.736 2.259 1.444 2294
5.747 2.263 1.428 2055
5.880 2.315 1.439 1640
5.804 2.286 1.403 1742
5.909 2.327 1.407 1943
5.912 2.328 1.389 2400
6.024 2.372 1.393 1996
6.042 2.379 1.377 3004
6.053 2.383 1.360 4008
6.157 2.424 1.361 2832
6.465 2.546 1.402 2742
6.483 2.553 1.385 2939
6.486 2.554 1.365 2675
6.591 2.595 1.364 2373
6.602 2.599 1.344 3135
6.612 2.604 1.325 2399
6.950 2.736 1.364 2770
6.953 2.738 1.342 2124
6.949 2.736 1.319 1742
6.974 2.746 1.301 1642
7.356 2.896 1.342 1657
7.359 2.898 1.319 2449
7.362 2.899 1.296 2437
7.365 2.900 1.273 1730
8.017 3.157 1.349 1382
8.021 3.158 1.324 2168
8.082 3.182 1.307 3484
8.078 3.181 1.281 4106
8.081 3.182 1.256 3671
8.091 3.186 1.232 2504
8.145 3.207 1.213 1819
8.156 3.211 1.189 1006
8.115 3.195 1.158 508
8.110 3.193 1.131 416
1.568 0.617 0.225 316
1.568 0.617 0.220 350
1.568 0.618 0.216 328
1.569 0.618 0.211 308
1.569 0.618 0.206 294
1.569 0.618 0.201 270
1.969 0.772 1.616 3290
1.973 0.774 1.610 6581
1.977 0.775 1.604 6581
1.981 0.777 1.598 6131
1.979 0.776 1.587 5739
2.025 0.794 1.613 6373
2.029 0.796 1.606 8976
2.033 0.797 1.600 11895
2.037 0.799 1.594 14814
2.041 0.800 1.588 14814
2.045 0.802 1.582 12164
2.049 0.803 1.575 9514
2.065 0.810 1.578 6445
2.106 0.826 1.598 6161
2.110 0.827 1.591 7388
2.120 0.831 1.589 8772
2.130 0.835 1.587 8290
2.146 0.842 1.589 8265
2.150 0.843 1.582 8102
2.160 0.847 1.580 10167
2.164 0.849 1.573 12593
2.174 0.853 1.571 12745
2.178 0.854 1.564 12967
2.189 0.858 1.562 9893
2.224 0.872 1.576 8748
2.259 0.886 1.590 8973
2.269 0.890 1.587 11124
2.273 0.891 1.580 10463
2.277 0.893 1.573 9802
2.281 0.895 1.566 7872
2.329 0.913 1.587 6408
2.333 0.915 1.580 6882
2.324 0.912 1.565 5767
2.322 0.911 1.554 4229
2.326 0.912 1.547 4675
2.330 0.914 1.540 5122
