8.636 8.967 1.084 1092
8.855 9.195 1.109 963
8.737 9.072 1.059 1517
8.841 9.180 1.070 920
8.738 9.074 1.022 1161
8.842 9.182 1.033 760
8.811 9.149 0.992 1110
1.562 1.629 1.717 3063
1.565 1.632 1.711 6127
1.649 1.721 1.798 1825
1.568 1.636 1.704 6127
1.653 1.724 1.791 2222
1.593 1.662 1.721 6649
1.679 1.751 1.807 1959
1.597 1.666 1.714 8430
1.682 1.755 1.800 2216
1.631 1.702 1.739 9989
1.717 1.791 1.825 2649
1.546 1.613 1.653 927
1.639 1.710 1.737 13375
1.725 1.799 1.823 3331
1.642 1.713 1.730 13375
1.728 1.803 1.815 3331
1.650 1.721 1.728 11068
1.736 1.811 1.813 3277
1.680 1.753 1.748 10219
1.594 1.663 1.663 2530
1.715 1.790 1.772 8378
1.629 1.699 1.688 5769
1.728 1.802 1.774 7794
1.641 1.712 1.690 5954
1.736 1.811 1.771 8675
1.649 1.720 1.687 4692
1.739 1.814 1.764 9574
1.652 1.724 1.681 2966
1.738 1.813 1.752 9625
1.651 1.722 1.670 2078
1.723 1.797 1.728 10481
1.721 1.796 1.716 11065
1.724 1.799 1.709 14000
1.637 1.708 1.628 784
1.732 1.807 1.706 17548
1.645 1.716 1.625 882
1.820 1.898 1.787 780
1.740 1.815 1.703 17170
1.652 1.723 1.623 887
1.743 1.818 1.696 17122
1.655 1.727 1.616 784
1.746 1.822 1.689 14830
1.754 1.830 1.686 12704
1.757 1.833 1.679 10630
1.846 1.925 1.758 1943
1.765 1.841 1.676 8760
1.854 1.934 1.754 3394
1.773 1.849 1.672 6449
1.866 1.947 1.755 5513
1.869 1.950 1.747 8018
1.780 1.857 1.669 4913
1.873 1.953 1.740 11370
1.784 1.861 1.662 5470
1.871 1.952 1.728 14777
1.782 1.859 1.650 5290
1.879 1.960 1.724 18379
1.790 1.867 1.647 4888
1.882 1.964 1.716 22037
1.793 1.870 1.640 3750
1.703 1.777 1.563 752
1.885 1.967 1.709 20650
1.796 1.873 1.632 2435
1.889 1.970 1.701 19264
1.799 1.876 1.625 1121
1.892 1.973 1.693 16995
1.802 1.880 1.617 1053
1.982 2.067 1.768 917
1.890 1.972 1.681 14223
1.980 2.066 1.756 1330
1.903 1.985 1.681 12125
1.993 2.079 1.756 1460
1.812 1.891 1.607 959
1.901 1.983 1.669 10889
1.992 2.078 1.744 3225
1.899 1.981 1.658 11426
1.990 2.076 1.732 5012
1.902 1.985 1.650 9677
1.993 2.079 1.723 5725
1.910 1.993 1.646 8125
2.001 2.088 1.719 5767
1.990 2.076 1.699 6717
1.899 1.981 1.626 5111
2.081 2.171 1.772 1291
1.993 2.079 1.691 6411
1.902 1.984 1.619 2600
2.084 2.174 1.763 1732
2.006 2.093 1.690 5874
1.915 1.997 1.618 1789
2.097 2.188 1.762 1283
2.038 2.126 1.705 10443
1.946 2.030 1.633 1241
2.129 2.221 1.776 1114
2.046 2.134 1.700 13853
2.138 2.230 1.771 1064
1.954 2.039 1.629 1032
2.049 2.138 1.692 13621
2.141 2.233 1.762 1447
1.957 2.042 1.621 1069
2.052 2.141 1.683 13388
2.144 2.237 1.754 1794
1.926 2.010 1.587 1027
2.055 2.144 1.675 10165
2.147 2.240 1.745 2065
1.934 2.018 1.582 965
2.068 2.157 1.673 5902
2.160 2.254 1.743 3465
2.149 2.242 1.723 5747
2.057 2.145 1.654 3584
2.152 2.245 1.714 8340
2.060 2.149 1.645 3124
2.155 2.248 1.705 11655
2.063 2.152 1.637 2745
2.159 2.252 1.696 12378
2.066 2.155 1.628 2827
2.251 2.349 1.765 1213
2.162 2.255 1.687 11231
2.255 2.352 1.755 2904
2.069 2.158 1.620 2507
2.165 2.258 1.678 7687
2.258 2.355 1.746 4114
2.072 2.161 1.611 1608
2.222 2.318 1.708 6761
2.129 2.221 1.641 3265
2.315 2.415 1.775 828
2.220 2.316 1.696 6812
2.127 2.219 1.629 2426
2.313 2.413 1.762 1631
2.218 2.314 1.683 4887
2.312 2.412 1.749 2351
2.125 2.217 1.617 1288
2.202 2.297 1.660 4951
2.310 2.410 1.736 3823
2.234 2.331 1.671 7058
2.328 2.429 1.737 4276
2.242 2.339 1.665 11441
2.336 2.437 1.731 3816
2.245 2.342 1.656 12478
2.339 2.440 1.721 3704
2.253 2.351 1.650 9178
2.348 2.449 1.714 3061
2.341 2.442 1.698 6337
2.247 2.344 1.634 3602
2.349 2.450 1.692 13164
2.255 2.352 1.628 1960
2.357 2.459 1.685 17039
2.263 2.360 1.622 2012
2.355 2.457 1.672 14813
2.450 2.556 1.735 1394
2.261 2.358 1.609 1225
2.348 2.450 1.656 11612
2.463 2.569 1.731 2070
2.396 2.500 1.675 11783
2.491 2.599 1.737 1578
2.301 2.401 1.613 1026
2.404 2.508 1.669 11503
2.499 2.607 1.730 1563
2.309 2.409 1.607 797
2.412 2.517 1.662 11257
2.508 2.616 1.723 1948
2.317 2.417 1.601 1252
2.416 2.520 1.652 9864
2.511 2.619 1.712 2601
2.300 2.400 1.578 1001
2.434 2.539 1.651 7541
2.529 2.638 1.712 3008
2.442 2.547 1.644 7620
2.537 2.647 1.704 3495
2.445 2.550 1.634 7213
2.540 2.650 1.694 4985
2.533 2.643 1.677 7352
2.438 2.543 1.618 5357
2.542 2.651 1.669 6594
2.446 2.551 1.611 3463
2.565 2.676 1.671 5190
2.469 2.575 1.613 3452
2.583 2.695 1.670 7187
2.472 2.579 1.603 3104
2.679 2.795 1.727 833
2.581 2.693 1.656 6794
2.485 2.592 1.598 1940
2.677 2.793 1.713 1706
2.620 2.733 1.666 6729
2.523 2.632 1.609 1654
2.597 2.710 1.640 6144
2.694 2.810 1.697 2856
2.595 2.707 1.626 4966
2.692 2.808 1.683 4006
2.598 2.711 1.616 4446
2.695 2.811 1.671 4435
2.688 2.804 1.654 4776
2.591 2.703 1.599 3851
2.706 2.823 1.652 5108
2.604 2.717 1.594 2942
2.709 2.826 1.641 6316
2.612 2.725 1.586 1277
2.827 2.949 1.707 890
2.712 2.829 1.629 7036
2.820 2.941 1.689 1298
2.720 2.838 1.621 5852
2.818 2.939 1.675 1878
2.734 2.852 1.615 4909
2.831 2.953 1.668 2523
2.788 2.908 1.632 5777
2.690 2.807 1.579 1389
2.885 3.010 1.685 1182
2.760 2.879 1.603 5077
2.858 2.981 1.656 2242
2.955 3.083 1.708 1111
2.794 2.915 1.608 4718
2.907 3.032 1.669 2771
3.005 3.134 1.721 793
2.802 2.923 1.600 4768
2.915 3.041 1.659 4374
3.013 3.143 1.711 1298
2.820 2.942 1.596 4405
2.929 3.055 1.653 3582
3.037 3.168 1.709 1539
2.828 2.951 1.587 5182
2.957 3.085 1.654 2501
3.055 3.187 1.705 2257
2.826 2.948 1.572 4023
2.955 3.083 1.639 3878
3.053 3.185 1.689 3007
3.151 3.287 1.740 994
2.953 3.081 1.624 5168
3.051 3.183 1.674 3249
2.829 2.951 1.561 1867
3.149 3.285 1.724 1353
2.961 3.089 1.614 5148
3.060 3.192 1.664 3888
3.158 3.294 1.713 1781
2.853 2.976 1.559 1013
2.969 3.098 1.604 5317
3.068 3.200 1.654 4091
3.166 3.303 1.703 2569
3.050 3.182 1.631 5626
2.952 3.079 1.582 3249
3.149 3.285 1.679 3178
3.247 3.387 1.728 1155
3.172 3.309 1.676 5227
3.063 3.196 1.623 4332
2.965 3.093 1.575 1557
3.271 3.412 1.725 1195
3.176 3.313 1.663 7262
3.077 3.210 1.615 2217
3.274 3.416 1.711 1590
3.184 3.321 1.652 5863
3.283 3.424 1.700 1998
3.085 3.218 1.605 1352
3.192 3.330 1.642 4890
3.291 3.433 1.689 3065
3.093 3.227 1.594 1054
3.268 3.409 1.663 5296
3.169 3.306 1.616 2816
3.266 3.407 1.647 5727
3.162 3.298 1.598 2231
3.269 3.410 1.633 6956
3.170 3.307 1.587 1857
3.251 3.391 1.610 9867
3.350 3.495 1.655 773
3.259 3.400 1.599 12410
3.437 3.585 1.679 1238
3.273 3.414 1.590 12510
3.430 3.578 1.660 2455
3.281 3.422 1.578 11765
3.427 3.575 1.643 3398
3.278 3.420 1.562 9527
3.430 3.578 1.629 2891
3.286 3.428 1.551 8058
3.428 3.576 1.613 2305
3.289 3.431 1.537 7181
3.431 3.579 1.598 2539
3.531 3.683 1.641 1041
3.292 3.434 1.524 5578
3.450 3.599 1.591 2678
3.550 3.703 1.633 1461
3.300 3.443 1.512 3466
3.458 3.607 1.578 2153
3.558 3.712 1.621 2124
3.561 3.715 1.606 2517
3.298 3.440 1.496 1174
3.461 3.610 1.564 1119
3.661 3.819 1.647 979
3.522 3.674 1.573 3207
3.643 3.800 1.623 1847
3.369 3.514 1.511 1316
3.743 3.905 1.665 1040
3.519 3.671 1.557 4071
3.646 3.803 1.608 2797
3.372 3.517 1.496 2440
3.751 3.913 1.651 1980
3.517 3.669 1.540 3786
3.374 3.520 1.482 3314
3.649 3.806 1.593 3309
3.754 3.916 1.635 2325
3.757 3.920 1.620 5426
3.652 3.809 1.578 4724
3.377 3.523 1.468 2415
3.514 3.666 1.523 1855
3.766 3.928 1.606 7949
3.660 3.818 1.564 4929
3.559 3.713 1.525 2331
3.898 4.066 1.658 1545
3.769 3.931 1.590 9225
3.668 3.826 1.551 3378
3.568 3.722 1.512 2066
3.911 4.080 1.646 1966
3.771 3.934 1.575 12950
3.925 4.094 1.634 2646
3.666 3.824 1.534 2454
3.565 3.719 1.495 750
3.769 3.932 1.557 9072
3.928 4.098 1.617 6223
3.668 3.827 1.519 2814
4.029 4.203 1.656 926
3.931 4.101 1.601 9936
3.772 3.935 1.541 4174
3.671 3.830 1.503 2137
4.090 4.267 1.661 1275
3.934 4.104 1.584 7854
3.775 3.938 1.525 2503
4.051 4.226 1.628 2113
3.302 3.445 1.350 1854
3.942 4.112 1.570 6464
4.059 4.234 1.613 3263
3.300 3.442 1.334 1746
4.208 4.389 1.667 1311
3.950 4.121 1.555 6562
4.062 4.237 1.596 3717
3.291 3.433 1.317 2421
4.205 4.387 1.648 2216
4.065 4.240 1.579 2881
3.288 3.430 1.301 2869
3.953 4.124 1.539 2715
4.208 4.390 1.630 1910
4.100 4.277 1.573 2413
4.222 4.404 1.616 2031
3.291 3.433 1.287 1832
4.323 4.510 1.652 1368
4.321 4.507 1.632 2742
4.134 4.313 1.567 2659
3.293 3.435 1.274 1369
4.324 4.511 1.614 3432
4.223 4.405 1.579 2577
4.121 4.299 1.544 1520
4.436 4.627 1.653 1390
4.322 4.508 1.594 3114
4.220 4.402 1.560 2229
4.428 4.619 1.630 2104
4.324 4.511 1.576 3787
4.426 4.617 1.610 1902
4.223 4.405 1.542 1650
4.527 4.723 1.644 779
4.397 4.587 1.581 3198
4.498 4.692 1.614 3039
4.295 4.481 1.547 1647
4.496 4.690 1.594 5109
4.394 4.584 1.561 3310
4.255 4.439 1.515 823
4.504 4.699 1.577 7409
4.402 4.593 1.544 2122
4.507 4.702 1.558 6892
4.405 4.596 1.526 1511
4.791 4.997 1.648 1382
4.515 4.710 1.541 4439
4.799 5.006 1.630 1833
4.413 4.604 1.509 1262
4.901 5.112 1.661 763
4.529 4.724 1.525 3853
4.797 5.004 1.608 1956
4.914 5.127 1.644 1575
4.542 4.738 1.509 3188
4.741 4.945 1.570 1884
4.917 5.130 1.624 1734
4.556 4.752 1.494 3127
4.899 5.111 1.597 1852
4.743 4.948 1.550 1712
5.001 5.217 1.627 1180
4.999 5.214 1.605 3552
4.870 5.080 1.567 2680
4.558 4.755 1.475 2625
4.762 4.968 1.535 1375
5.012 5.229 1.587 4544
4.873 5.083 1.546 2044
5.125 5.346 1.620 1756
4.561 4.758 1.456 1594
5.123 5.344 1.597 3070
5.015 5.232 1.566 2751
4.913 5.125 1.537 1295
4.564 4.761 1.436 1231
5.120 5.341 1.574 3934
5.018 5.235 1.545 2330
4.916 5.128 1.516 1397
5.421 5.655 1.659 845
5.112 5.333 1.549 3990
5.214 5.440 1.578 2167
4.935 5.148 1.500 1483
5.424 5.658 1.636 1095
5.201 5.426 1.551 3198
5.099 5.319 1.523 2489
5.422 5.656 1.612 1295
5.303 5.532 1.579 868
5.344 5.575 1.567 2019
5.215 5.440 1.533 1977
5.495 5.732 1.608 1398
5.102 5.322 1.502 1065
5.498 5.735 1.585 2594
5.315 5.544 1.536 2234
5.633 5.876 1.621 1208
5.212 5.437 1.509 1199
5.501 5.738 1.562 2605
5.301 5.530 1.510 2089
5.625 5.868 1.594 1709
5.118 5.339 1.462 838
5.628 5.871 1.571 2840
5.428 5.662 1.519 1981
5.304 5.533 1.488 1350
5.641 5.885 1.550 3321
5.436 5.671 1.498 2432
5.539 5.778 1.524 1345
5.809 6.059 1.592 1202
5.666 5.910 1.531 2861
5.439 5.674 1.475 1753
5.930 6.186 1.597 1522
5.822 6.074 1.570 1496
5.928 6.184 1.571 2788
5.679 5.925 1.510 2615
5.782 6.032 1.535 1158
6.193 6.460 1.635 890
5.931 6.187 1.546 2762
5.693 5.939 1.489 2368
6.196 6.463 1.609 1136
5.796 6.046 1.514 911
5.939 6.195 1.522 2388
5.782 6.032 1.485 1394
6.198 6.466 1.583 1294
5.641 5.885 1.452 1177
5.947 6.204 1.499 2707
6.396 6.672 1.602 1956
6.196 6.464 1.556 1492
5.779 6.029 1.460 1324
5.950 6.207 1.474 2595
6.388 6.664 1.573 2471
6.204 6.472 1.531 1754
6.497 6.777 1.597 1700
6.483 6.763 1.566 4020
6.375 6.650 1.542 2163
6.017 6.277 1.463 1770
6.207 6.475 1.505 1564
6.486 6.766 1.539 5854
6.356 6.630 1.511 2265
6.026 6.286 1.439 1171
6.589 6.873 1.561 1126
6.494 6.775 1.513 5310
6.343 6.616 1.481 2017
6.207 6.475 1.452 942
6.863 7.159 1.591 922
6.502 6.783 1.487 4268
6.855 7.151 1.560 1231
6.399 6.676 1.465 1211
5.971 6.229 1.376 1114
6.505 6.786 1.460 4826
6.852 7.148 1.530 1116
7.178 7.488 1.597 1102
5.968 6.226 1.350 1048
6.513 6.794 1.433 5473
6.850 7.145 1.501 1162
7.615 7.944 1.654 1162
7.170 7.479 1.565 1160
6.516 6.797 1.406 5370
6.858 7.154 1.473 1764
7.656 7.986 1.629 1398
7.140 7.448 1.528 1301
6.518 6.800 1.379 4009
6.866 7.162 1.445 2086
7.664 7.995 1.598 1579
6.670 6.958 1.408 1043
6.521 6.802 1.351 1960
6.869 7.165 1.416 1779
7.673 8.004 1.567 1500
7.933 8.276 1.615 1053
7.675 8.007 1.534 1532
7.931 8.273 1.581 1317
6.876 7.173 1.388 1249
6.529 6.811 1.325 930
7.678 8.010 1.502 1468
7.934 8.276 1.548 1406
8.325 8.685 1.618 1090
6.879 7.176 1.360 945
7.665 7.996 1.467 1944
7.942 8.285 1.515 1388
8.328 8.688 1.583 1101
8.198 8.552 1.560 973
7.662 7.993 1.434 2842
7.945 8.288 1.482 1240
8.228 8.583 1.530 1002
8.337 8.697 1.549 894
7.664 7.995 1.402 2324
7.947 8.291 1.449 1361
8.258 8.614 1.500 1040
8.584 8.955 1.554 909
7.667 7.998 1.370 1974
7.956 8.299 1.416 1283
8.598 8.969 1.520 1261
8.451 8.816 1.496 1042
7.675 8.006 1.338 1897
8.606 8.978 1.485 1410
8.933 9.319 1.536 1316
8.454 8.819 1.461 985
8.609 8.981 1.448 1902
8.930 9.316 1.498 1866
9.197 9.594 1.538 1152
7.677 8.009 1.306 1053
8.606 8.978 1.411 2794
8.922 9.307 1.458 1546
9.222 9.620 1.503 1030
9.091 9.484 1.483 990
8.609 8.980 1.375 3143
9.094 9.486 1.445 1276
8.925 9.310 1.421 1057
9.235 9.634 1.466 970
8.611 8.983 1.339 3222
8.715 9.091 1.354 1791
9.096 9.489 1.407 1230
8.993 9.381 1.393 987
8.613 8.985 1.303 2972
8.717 9.093 1.317 2748
8.995 9.384 1.355 1182
9.099 9.492 1.369 866
8.703 9.079 1.278 3309
8.599 8.971 1.265 2775
8.981 9.369 1.315 766
8.596 8.967 1.228 2634
8.700 9.075 1.241 2569
8.598 8.970 1.192 2369
8.702 9.078 1.204 1493
8.606 8.977 1.156 2386
8.726 9.103 1.170 1096
8.619 8.991 1.121 2628
8.777 9.156 1.139 962
8.632 9.004 1.086 2091
8.774 9.153 1.102 1084
8.650 9.023 1.052 1491
8.776 9.155 1.065 995
8.652 9.025 1.015 1000
8.843 9.225 1.035 780
1.614 1.677 1.768 3215
1.617 1.680 1.761 6430
1.533 1.592 1.674 984
1.621 1.683 1.755 6430
1.536 1.595 1.668 984
1.624 1.687 1.748 6741
1.539 1.598 1.661 867
1.709 1.775 1.835 861
1.605 1.667 1.719 7892
1.690 1.756 1.805 1835
1.635 1.698 1.739 10172
1.721 1.787 1.825 2489
1.643 1.706 1.737 13592
1.729 1.795 1.823 3184
1.646 1.710 1.730 13592
1.732 1.799 1.815 3184
1.654 1.718 1.728 11145
1.740 1.807 1.813 3172
1.698 1.763 1.761 11111
1.612 1.674 1.677 3135
1.719 1.786 1.772 8931
1.633 1.696 1.688 5362
1.736 1.803 1.778 7812
1.650 1.713 1.694 6264
1.740 1.807 1.771 8964
1.653 1.717 1.687 4685
1.743 1.810 1.764 10116
1.656 1.720 1.681 3106
1.742 1.809 1.752 10190
1.654 1.718 1.670 1914
1.727 1.793 1.728 11334
1.725 1.792 1.716 12090
1.728 1.795 1.709 14742
1.641 1.704 1.628 768
1.736 1.803 1.706 17997
1.648 1.712 1.625 1044
1.744 1.811 1.703 17240
1.656 1.720 1.623 1016
1.747 1.815 1.696 16858
1.835 1.906 1.777 988
1.659 1.723 1.616 833
1.750 1.818 1.689 13710
1.839 1.910 1.769 1057
1.758 1.826 1.686 10665
1.847 1.918 1.766 1128
1.761 1.829 1.679 8361
1.850 1.921 1.758 2433
1.769 1.837 1.676 6250
1.858 1.929 1.754 3464
1.852 1.923 1.739 5733
1.763 1.831 1.660 3921
1.874 1.946 1.747 8151
1.785 1.853 1.669 3381
1.877 1.949 1.740 11306
1.788 1.857 1.662 4054
1.875 1.948 1.728 14544
1.786 1.855 1.650 4200
1.879 1.951 1.720 18728
1.789 1.858 1.643 3374
1.887 1.959 1.716 22966
1.797 1.866 1.640 3103
1.707 1.773 1.563 763
1.890 1.963 1.709 21312
1.800 1.869 1.632 2080
1.980 2.056 1.785 926
1.893 1.966 1.701 19658
1.983 2.060 1.777 1182
1.803 1.872 1.625 1057
1.896 1.969 1.693 16082
1.986 2.063 1.768 1210
1.806 1.876 1.617 983
1.894 1.968 1.681 12227
1.985 2.061 1.756 1313
1.907 1.981 1.681 9843
1.998 2.075 1.756 1714
1.817 1.887 1.607 926
1.967 2.043 1.720 8917
1.877 1.949 1.646 4744
1.971 2.047 1.712 10427
1.880 1.952 1.638 5857
1.974 2.050 1.704 8864
1.883 1.956 1.630 4614
2.065 2.145 1.778 958
1.982 2.058 1.700 7551
1.891 1.964 1.627 4231
2.073 2.153 1.773 1252
1.995 2.072 1.699 6804
1.903 1.977 1.626 4614
2.086 2.166 1.772 1269
2.003 2.080 1.695 6356
1.911 1.985 1.622 2834
2.094 2.175 1.767 1405
2.025 2.103 1.702 6476
1.919 1.993 1.618 1815
2.117 2.198 1.774 939
2.043 2.121 1.705 11373
1.951 2.026 1.633 1270
2.134 2.217 1.776 1050
2.051 2.130 1.700 14481
2.142 2.225 1.771 1029
1.959 2.034 1.629 1006
2.054 2.133 1.692 14055
2.146 2.229 1.762 1488
1.962 2.037 1.621 1031
2.057 2.136 1.683 13628
2.149 2.232 1.754 1933
1.931 2.005 1.587 1131
2.060 2.140 1.675 10695
2.152 2.235 1.745 2175
1.939 2.013 1.582 1009
2.073 2.153 1.673 5833
2.165 2.249 1.743 3558
2.159 2.242 1.727 5768
2.066 2.146 1.657 3307
2.157 2.240 1.714 8295
2.064 2.144 1.645 2466
2.160 2.244 1.705 11613
2.067 2.147 1.637 2269
2.253 2.340 1.774 832
2.163 2.247 1.696 12296
2.070 2.150 1.628 2414
2.256 2.344 1.765 1435
2.167 2.250 1.687 11405
2.260 2.347 1.755 3375
2.073 2.153 1.620 2101
2.170 2.253 1.678 7729
2.263 2.350 1.746 4713
2.076 2.157 1.611 1361
2.237 2.323 1.715 6722
2.143 2.226 1.648 3693
2.245 2.331 1.710 7137
2.151 2.234 1.643 3398
2.233 2.319 1.690 4704
2.327 2.417 1.756 2171
2.140 2.222 1.624 1240
2.197 2.282 1.653 4958
2.315 2.405 1.736 4116
2.239 2.326 1.671 7476
2.333 2.423 1.737 4060
2.146 2.228 1.606 754
2.248 2.334 1.665 10954
2.342 2.432 1.731 3382
2.251 2.337 1.656 11210
2.345 2.435 1.721 3169
2.254 2.341 1.647 8122
2.348 2.439 1.711 2946
2.351 2.442 1.701 7054
2.257 2.344 1.638 3944
2.354 2.445 1.692 15006
2.260 2.347 1.628 2319
2.362 2.454 1.685 18700
2.268 2.355 1.622 2366
2.361 2.452 1.672 15611
2.455 2.550 1.735 1592
2.266 2.353 1.609 1519
2.354 2.445 1.656 11360
2.449 2.543 1.718 2172
2.402 2.494 1.675 11918
2.497 2.593 1.737 1469
2.307 2.396 1.613 1102
2.410 2.503 1.669 12213
2.505 2.602 1.730 1367
2.315 2.404 1.607 872
2.418 2.511 1.662 12134
2.528 2.626 1.732 1739
2.323 2.412 1.601 1228
2.421 2.515 1.652 10469
2.527 2.624 1.719 2796
2.306 2.394 1.578 970
2.439 2.533 1.651 8074
2.535 2.633 1.712 3330
2.447 2.542 1.644 7853
2.543 2.641 1.704 3293
2.450 2.545 1.634 6988
2.546 2.644 1.694 4155
2.458 2.553 1.627 7080
2.554 2.653 1.686 5042
2.542 2.640 1.666 6906
2.446 2.541 1.608 4310
2.571 2.670 1.671 5344
2.475 2.570 1.613 3937
2.589 2.689 1.670 6359
2.478 2.573 1.603 2817
2.592 2.692 1.659 5778
2.496 2.592 1.601 1622
2.689 2.792 1.716 975
2.621 2.722 1.663 6127
2.524 2.621 1.606 1730
2.603 2.704 1.640 5386
2.700 2.804 1.697 2546
2.703 2.807 1.686 4632
2.601 2.702 1.626 4488
2.706 2.811 1.674 5104
2.604 2.705 1.616 3944
2.704 2.809 1.660 5307
2.607 2.708 1.605 3608
2.712 2.817 1.652 6030
2.615 2.716 1.597 2369
2.721 2.826 1.643 7177
2.818 2.927 1.698 996
2.623 2.725 1.589 955
2.724 2.829 1.632 7711
2.821 2.930 1.686 1231
2.727 2.832 1.621 5983
2.824 2.933 1.675 1605
2.776 2.883 1.635 4813
2.873 2.984 1.688 1349
2.678 2.782 1.582 944
2.794 2.902 1.632 5201
2.892 3.004 1.685 1327
2.697 2.801 1.579 1260
2.766 2.873 1.603 4898
2.864 2.975 1.656 2706
2.962 3.076 1.708 1160
2.795 2.903 1.606 4547
2.893 3.005 1.658 3094
2.991 3.106 1.710 1153
2.901 3.013 1.648 5112
2.798 2.906 1.594 4066
2.999 3.115 1.700 1182
2.858 2.968 1.612 4485
2.961 3.075 1.666 3521
3.059 3.177 1.717 1368
2.760 2.866 1.561 826
2.835 2.944 1.587 5496
2.969 3.084 1.656 3091
3.068 3.186 1.707 1945
2.967 3.082 1.641 4460
2.838 2.947 1.575 3780
3.065 3.184 1.692 2382
3.164 3.286 1.742 1315
2.965 3.080 1.626 5797
3.063 3.182 1.676 2903
3.162 3.284 1.727 1939
2.846 2.956 1.566 1601
2.963 3.077 1.612 5131
3.061 3.180 1.661 3610
3.160 3.282 1.711 2489
2.859 2.970 1.559 859
2.971 3.086 1.602 4515
3.070 3.188 1.651 3784
3.168 3.291 1.700 3334
3.057 3.175 1.631 5110
3.177 3.299 1.690 3449
2.958 3.073 1.582 2983
3.275 3.402 1.738 784
3.185 3.308 1.679 5577
3.076 3.194 1.625 4443
2.977 3.092 1.577 1894
3.284 3.410 1.727 931
3.183 3.306 1.663 8638
3.079 3.198 1.613 1943
3.282 3.408 1.711 1704
3.186 3.309 1.650 8033
3.285 3.412 1.697 2448
3.040 3.157 1.580 905
3.194 3.317 1.639 6037
3.293 3.420 1.686 3496
3.270 3.396 1.660 5240
3.171 3.293 1.614 2899
3.231 3.356 1.627 5050
3.331 3.459 1.673 1282
3.132 3.253 1.581 1054
3.266 3.392 1.628 6864
3.167 3.289 1.582 1442
3.264 3.390 1.612 13448
3.164 3.286 1.567 872
3.410 3.542 1.679 846
3.267 3.393 1.599 15698
3.434 3.567 1.674 1330
3.280 3.407 1.590 12452
3.437 3.570 1.660 2692
3.288 3.415 1.578 11213
3.435 3.568 1.643 3657
3.286 3.413 1.562 10638
3.438 3.571 1.629 3258
3.289 3.416 1.549 9510
3.436 3.569 1.613 2396
3.297 3.424 1.537 8935
3.434 3.566 1.596 2131
3.534 3.670 1.639 1011
3.305 3.432 1.526 7551
3.437 3.569 1.582 1800
3.537 3.673 1.624 1422
3.313 3.441 1.514 4210
3.550 3.687 1.614 1607
3.450 3.583 1.572 1393
3.516 3.652 1.584 1683
3.326 3.455 1.505 1549
3.643 3.783 1.636 899
3.519 3.655 1.569 2422
3.377 3.507 1.511 2131
3.635 3.776 1.617 1851
3.752 3.896 1.665 772
3.379 3.510 1.496 3528
3.527 3.663 1.557 3399
3.644 3.784 1.604 2510
3.760 3.905 1.651 1365
3.377 3.507 1.480 4057
3.525 3.661 1.540 3494
3.662 3.804 1.595 2519
3.763 3.908 1.635 1832
3.771 3.917 1.622 4690
3.665 3.807 1.580 3698
3.385 3.515 1.468 2594
3.528 3.664 1.525 1718
3.774 3.920 1.606 6902
3.668 3.810 1.564 4468
3.568 3.705 1.525 1709
3.901 4.052 1.656 1275
3.777 3.923 1.590 8500
3.676 3.818 1.551 3067
3.920 4.072 1.646 1411
3.576 3.714 1.512 1371
3.780 3.926 1.575 12077
3.939 4.091 1.636 2277
3.674 3.816 1.534 1943
3.778 3.923 1.557 8452
3.932 4.083 1.615 5095
3.677 3.819 1.519 2033
4.033 4.188 1.654 867
3.935 4.087 1.599 7455
3.781 3.926 1.541 3834
3.680 3.822 1.503 1508
3.308 3.435 1.364 1437
3.943 4.095 1.584 5065
3.310 3.438 1.350 2362
3.783 3.929 1.525 2358
4.124 4.283 1.651 1968
3.956 4.109 1.572 4472
4.127 4.286 1.634 2991
3.307 3.435 1.334 2072
4.228 4.391 1.671 1291
3.959 4.112 1.555 5412
4.135 4.295 1.619 3032
3.299 3.426 1.317 2694
4.236 4.400 1.655 1900
3.296 3.423 1.301 3123
3.973 4.126 1.543 2556
4.127 4.287 1.598 2503
4.319 4.486 1.666 2357
4.114 4.273 1.575 2549
4.237 4.401 1.618 2520
4.338 4.506 1.654 2037
3.298 3.426 1.287 1923
4.336 4.503 1.634 3642
4.235 4.398 1.599 2894
4.117 4.276 1.558 1988
3.301 3.428 1.274 1330
4.339 4.507 1.616 3745
4.238 4.401 1.581 2168
4.441 4.612 1.651 1515
4.136 4.296 1.546 1246
4.331 4.499 1.594 2968
4.433 4.604 1.629 2655
4.230 4.393 1.560 1220
4.334 4.502 1.576 3491
4.436 4.607 1.610 2331
4.233 4.396 1.542 1077
4.343 4.510 1.560 3015
4.503 4.677 1.613 2933
4.241 4.405 1.526 828
4.506 4.680 1.594 5247
4.404 4.574 1.561 2669
4.514 4.689 1.577 7693
4.413 4.583 1.544 1928
4.517 4.692 1.558 7366
4.802 4.987 1.648 1423
4.415 4.586 1.526 1342
4.515 4.689 1.537 4722
4.805 4.990 1.628 1861
4.413 4.583 1.506 854
4.539 4.714 1.525 4408
4.808 4.993 1.608 2009
4.936 5.127 1.648 1392
4.553 4.728 1.509 3938
4.811 4.996 1.588 1734
4.945 5.136 1.629 1456
4.572 4.748 1.495 4166
4.754 4.938 1.550 1526
4.948 5.139 1.608 1414
4.574 4.751 1.476 4296
5.010 5.203 1.605 3168
4.881 5.069 1.567 2048
4.773 4.958 1.535 1153
5.018 5.212 1.585 4242
4.577 4.754 1.457 3226
4.889 5.078 1.548 1860
5.207 5.408 1.640 1474
5.027 5.221 1.566 3040
5.134 5.332 1.597 2347
4.580 4.756 1.438 2077
4.924 5.114 1.537 1137
5.132 5.330 1.574 3356
5.029 5.224 1.545 2859
4.588 4.765 1.420 1421
4.927 5.117 1.516 1190
5.129 5.327 1.551 3340
5.232 5.434 1.579 1994
5.027 5.221 1.522 1828
4.924 5.115 1.494 1067
5.219 5.420 1.553 3317
5.116 5.313 1.525 1956
5.424 5.633 1.609 1425
5.321 5.526 1.581 1103
5.356 5.563 1.567 2440
5.238 5.440 1.535 1910
5.459 5.670 1.595 1312
5.648 5.866 1.646 880
5.505 5.717 1.583 2358
5.343 5.549 1.541 2231
5.656 5.875 1.623 995
5.235 5.437 1.512 867
5.508 5.721 1.560 2258
5.313 5.518 1.510 1891
5.611 5.827 1.587 1434
5.211 5.412 1.483 771
5.635 5.853 1.569 2378
5.446 5.656 1.521 2074
5.311 5.516 1.486 1214
5.738 5.959 1.595 806
5.654 5.872 1.550 2812
5.454 5.665 1.499 2263
5.833 6.058 1.595 1253
5.351 5.558 1.474 866
5.690 5.909 1.534 2821
5.830 6.055 1.569 1794
5.938 6.168 1.596 1612
5.457 5.667 1.477 1556
5.936 6.165 1.569 2926
5.692 5.912 1.510 2799
5.833 6.058 1.544 1459
6.207 6.446 1.635 1205
5.944 6.174 1.546 2799
5.695 5.915 1.486 2196
6.210 6.449 1.609 1481
5.825 6.050 1.517 889
5.958 6.188 1.523 2626
6.213 6.452 1.583 1640
5.795 6.019 1.485 1366
5.665 5.884 1.455 1095
5.961 6.191 1.499 2986
6.216 6.456 1.557 1828
6.411 6.658 1.602 1777
5.787 6.011 1.459 1294
6.029 6.261 1.488 3227
6.397 6.644 1.571 2513
6.218 6.458 1.531 1985
6.517 6.768 1.598 1464
6.503 6.754 1.567 2952
6.037 6.270 1.464 2788
6.389 6.636 1.542 2424
6.221 6.461 1.505 1809
6.506 6.757 1.540 4407
6.376 6.622 1.512 2318
6.039 6.272 1.439 1726
6.224 6.464 1.479 1483
6.515 6.766 1.514 4473
6.362 6.608 1.482 2228
6.227 6.467 1.453 1258
5.988 6.219 1.402 995
6.523 6.775 1.488 4115
6.354 6.600 1.453 1657
5.985 6.216 1.376 1239
6.871 7.136 1.560 1235
6.525 6.777 1.461 4820
6.868 7.133 1.530 1474
6.395 6.642 1.434 1455
5.982 6.213 1.350 1139
6.528 6.780 1.433 5610
6.398 6.645 1.407 1439
6.865 7.130 1.501 1210
7.170 7.447 1.561 971
6.531 6.783 1.406 5666
7.679 7.975 1.630 1399
7.151 7.427 1.527 1279
7.575 7.868 1.610 1133
6.533 6.785 1.379 4549
7.682 7.978 1.598 1728
6.898 7.164 1.448 1151
7.148 7.424 1.496 984
6.536 6.788 1.351 2437
7.690 7.987 1.567 1662
6.895 7.161 1.418 1224
7.952 8.258 1.615 1076
7.698 7.996 1.535 1742
7.949 8.256 1.581 1402
6.892 7.158 1.388 1100
6.538 6.791 1.324 1015
7.701 7.999 1.503 1705
7.952 8.259 1.548 1518
7.516 7.806 1.470 1015
8.344 8.666 1.618 938
7.688 7.984 1.468 1975
7.960 8.267 1.515 1479
8.206 8.522 1.558 996
7.857 8.160 1.497 945
7.685 7.981 1.435 2668
7.963 8.270 1.482 1309
8.252 8.571 1.531 950
7.687 7.984 1.403 2185
7.971 8.279 1.450 1465
8.271 8.590 1.499 1172
9.095 9.446 1.635 856
7.690 7.987 1.371 1803
7.974 8.282 1.416 1289
9.098 9.449 1.597 1253
8.650 8.984 1.525 993
7.698 7.995 1.339 1676
8.664 8.999 1.491 1446
9.101 9.452 1.559 1168
8.959 9.305 1.537 1116
8.618 8.950 1.447 2192
9.218 9.574 1.538 1393
8.945 9.291 1.497 1379
9.109 9.461 1.522 1033
8.620 8.953 1.411 2968
9.112 9.464 1.483 1442
8.948 9.293 1.459 1300
9.232 9.588 1.501 1184
8.623 8.956 1.375 2869
9.115 9.466 1.445 1797
8.973 9.319 1.425 1150
9.257 9.614 1.466 1055
8.625 8.958 1.338 2402
9.112 9.463 1.406 1741
9.248 9.605 1.425 1103
8.981 9.327 1.388 1037
8.628 8.961 1.302 2153
9.114 9.466 1.368 1234
8.737 9.074 1.317 1119
9.240 9.597 1.385 943
8.641 8.974 1.267 2150
8.745 9.082 1.281 1620
8.627 8.960 1.229 1946
8.731 9.068 1.242 1910
8.629 8.962 1.193 2294
8.733 9.070 1.206 1971
8.626 8.959 1.156 2170
8.730 9.067 1.168 1629
8.633 8.966 1.121 1813
8.737 9.074 1.133 1136
8.641 8.974 1.085 1435
8.745 9.082 1.096 873
8.653 8.987 1.050 1337
8.666 9.001 1.015 1067
1.618 1.673 1.768 3549
1.622 1.676 1.761 7098
1.532 1.583 1.669 1179
1.625 1.679 1.755 7098
1.535 1.587 1.663 1179
1.628 1.683 1.748 7095
1.543 1.594 1.661 950
1.714 1.771 1.835 817
1.613 1.667 1.723 7620
1.699 1.756 1.809 1405
1.639 1.694 1.739 9781
1.725 1.783 1.825 2231
1.651 1.707 1.742 13019
1.738 1.796 1.827 2227
1.655 1.710 1.735 13019
1.741 1.799 1.820 2227
1.681 1.737 1.750 10774
1.594 1.648 1.665 1805
1.707 1.764 1.766 11815
1.620 1.675 1.681 3344
1.719 1.777 1.767 9366
1.632 1.687 1.683 4425
1.732 1.790 1.769 7918
1.645 1.700 1.685 5189
1.744 1.803 1.771 9320
1.657 1.713 1.687 4828
1.747 1.806 1.764 10822
1.660 1.716 1.681 3449
1.746 1.805 1.752 10944
1.659 1.714 1.670 2156
1.731 1.789 1.728 11974
1.729 1.788 1.716 12724
1.733 1.791 1.709 15044
1.645 1.700 1.628 790
1.741 1.799 1.706 17944
1.652 1.708 1.625 1086
1.748 1.807 1.703 16963
1.660 1.716 1.623 1056
1.837 1.898 1.784 1025
1.751 1.810 1.696 16385
1.840 1.902 1.777 1521
1.663 1.719 1.616 809
1.755 1.814 1.689 12679
1.843 1.905 1.769 1888
1.762 1.822 1.686 9061
1.851 1.913 1.766 2161
1.766 1.825 1.679 6618
1.854 1.917 1.758 3062
1.834 1.896 1.730 5295
1.745 1.804 1.651 1774
1.847 1.909 1.730 6325
1.758 1.817 1.652 2304
1.874 1.937 1.743 8162
1.784 1.844 1.665 2128
1.877 1.940 1.736 10940
1.787 1.847 1.658 2619
1.880 1.943 1.728 13717
1.790 1.851 1.650 3111
1.883 1.947 1.720 18328
1.794 1.854 1.643 2569
1.973 2.039 1.797 757
1.891 1.955 1.716 22959
1.801 1.862 1.640 2467
1.981 2.048 1.793 928
1.711 1.769 1.563 772
1.895 1.958 1.709 21233
1.804 1.865 1.632 1726
1.985 2.051 1.785 1279
1.898 1.961 1.701 19507
1.988 2.055 1.777 1630
1.807 1.868 1.625 985
1.901 1.965 1.693 14822
1.991 2.058 1.768 1638
1.810 1.871 1.617 890
1.899 1.963 1.681 10046
1.990 2.057 1.756 1793
1.902 1.966 1.673 7314
1.993 2.060 1.748 3110
1.972 2.039 1.720 9144
1.882 1.945 1.646 4132
1.976 2.042 1.712 10751
1.885 1.948 1.638 4907
1.979 2.045 1.704 9173
1.888 1.951 1.630 3905
2.070 2.140 1.778 1162
1.987 2.053 1.700 7817
1.895 1.959 1.627 3522
2.078 2.148 1.773 1410
2.000 2.067 1.699 6698
1.908 1.972 1.626 3784
2.091 2.161 1.772 1278
2.017 2.085 1.702 6271
1.921 1.985 1.626 2724
2.109 2.180 1.775 907
2.035 2.103 1.706 7374
1.943 2.008 1.633 1851
2.048 2.116 1.705 11483
1.956 2.021 1.633 1285
2.140 2.212 1.776 1096
2.056 2.125 1.700 14033
2.148 2.220 1.771 1220
1.964 2.030 1.629 1097
2.059 2.128 1.692 13490
2.151 2.223 1.762 1690
1.967 2.033 1.621 996
2.057 2.126 1.679 12974
2.150 2.222 1.750 2631
1.936 2.001 1.587 1095
2.065 2.135 1.675 10567
2.158 2.230 1.745 2378
1.943 2.009 1.582 1009
2.073 2.143 1.670 5796
2.166 2.239 1.739 4052
1.946 2.012 1.574 788
2.164 2.237 1.727 5863
2.071 2.141 1.657 3037
2.163 2.235 1.714 8199
2.070 2.139 1.645 2087
2.166 2.238 1.705 11418
2.073 2.142 1.637 1804
2.259 2.335 1.774 962
2.169 2.242 1.696 12045
2.076 2.145 1.628 2011
2.262 2.338 1.765 1613
2.172 2.245 1.687 11320
2.265 2.341 1.755 3653
2.079 2.148 1.620 1673
2.175 2.248 1.678 7641
2.269 2.345 1.746 5042
2.082 2.152 1.611 1052
2.252 2.328 1.722 7151
2.159 2.231 1.655 4543
2.255 2.331 1.713 8177
2.162 2.234 1.646 3851
2.254 2.329 1.700 5969
2.160 2.232 1.634 2666
2.348 2.426 1.767 892
2.197 2.271 1.649 5074
2.316 2.394 1.733 4318
2.250 2.326 1.675 7744
2.344 2.423 1.740 3048
2.156 2.228 1.609 1231
2.253 2.329 1.665 10293
2.348 2.426 1.731 2692
2.256 2.332 1.656 9992
2.356 2.435 1.724 2395
2.259 2.335 1.647 7156
2.354 2.433 1.711 2925
2.362 2.441 1.705 8140
2.267 2.343 1.641 4404
2.365 2.445 1.695 16080
2.270 2.347 1.632 3537
2.368 2.448 1.685 19329
2.273 2.350 1.622 2637
2.367 2.446 1.672 15798
2.462 2.544 1.735 1788
2.271 2.348 1.609 1761
2.360 2.439 1.656 11176
2.455 2.537 1.718 2424
2.264 2.340 1.594 899
2.408 2.489 1.675 10933
2.503 2.587 1.737 1353
2.292 2.369 1.600 1328
2.416 2.497 1.669 11748
2.511 2.596 1.730 1283
2.321 2.398 1.607 1016
2.424 2.505 1.662 11994
2.535 2.620 1.732 1747
2.329 2.407 1.601 1229
2.427 2.509 1.652 10309
2.538 2.623 1.722 3012
2.311 2.389 1.578 958
2.445 2.527 1.651 8089
2.541 2.626 1.712 3492
2.454 2.536 1.644 8046
2.549 2.635 1.704 3229
2.462 2.544 1.637 7085
2.558 2.644 1.697 3054
2.465 2.547 1.627 7774
2.561 2.647 1.686 4363
2.549 2.634 1.666 7258
2.452 2.535 1.608 5382
2.577 2.664 1.671 6195
2.481 2.564 1.613 4275
2.596 2.683 1.670 5652
2.484 2.567 1.603 2493
2.692 2.782 1.727 816
2.619 2.707 1.671 5161
2.522 2.607 1.613 2230
2.627 2.715 1.663 5402
2.530 2.615 1.606 1862
2.610 2.697 1.640 4867
2.707 2.798 1.697 2399
2.705 2.796 1.683 4953
2.608 2.695 1.626 4373
2.713 2.804 1.674 5743
2.616 2.704 1.619 3872
2.711 2.802 1.660 6187
2.614 2.702 1.605 3255
2.719 2.811 1.652 6970
2.622 2.710 1.597 2127
2.817 2.911 1.707 1033
2.727 2.819 1.643 7806
2.825 2.920 1.698 1179
2.630 2.718 1.589 848
2.731 2.822 1.632 8406
2.828 2.923 1.686 1155
2.734 2.825 1.621 6388
2.847 2.942 1.683 1431
2.783 2.876 1.635 4612
2.881 2.977 1.688 1284
2.685 2.775 1.582 1012
2.801 2.895 1.632 4666
2.915 3.013 1.693 1291
2.703 2.794 1.579 1130
2.830 2.925 1.634 4731
2.732 2.824 1.581 1934
2.928 3.026 1.686 1517
2.833 2.928 1.622 5669
2.931 3.030 1.674 2812
2.735 2.827 1.570 1230
2.914 3.011 1.651 4839
2.816 2.910 1.600 4290
3.012 3.113 1.703 946
2.850 2.945 1.604 4370
2.969 3.068 1.666 3940
3.067 3.170 1.717 1127
2.842 2.937 1.587 5135
2.977 3.077 1.656 4023
3.075 3.178 1.707 1654
2.975 3.074 1.641 4897
2.845 2.940 1.575 3223
3.073 3.176 1.692 2035
3.172 3.278 1.742 1345
2.983 3.083 1.632 5851
3.082 3.185 1.682 2209
3.180 3.287 1.732 1979
2.858 2.954 1.569 1415
2.965 3.065 1.609 4620
3.064 3.167 1.659 3369
3.168 3.274 1.711 3053
2.861 2.957 1.557 888
3.176 3.283 1.700 4284
3.025 3.127 1.625 4013
2.927 3.025 1.576 1567
3.190 3.297 1.692 4490
3.065 3.168 1.631 4327
2.966 3.065 1.582 2425
3.193 3.300 1.679 6221
3.083 3.187 1.625 4331
2.984 3.085 1.577 1881
3.292 3.402 1.727 915
3.191 3.298 1.663 9072
3.092 3.195 1.615 2335
3.290 3.400 1.711 1566
3.194 3.301 1.650 9286
3.293 3.404 1.697 2171
3.095 3.198 1.602 1234
3.202 3.310 1.639 7022
3.302 3.412 1.686 3352
3.103 3.207 1.592 1277
3.278 3.388 1.660 5551
3.179 3.286 1.614 1708
3.245 3.354 1.630 4957
3.344 3.457 1.676 1287
3.145 3.251 1.583 871
3.269 3.379 1.626 7380
3.169 3.276 1.580 1028
3.277 3.387 1.615 14843
3.424 3.539 1.682 884
3.275 3.385 1.599 16533
3.443 3.558 1.674 1521
3.283 3.393 1.587 11476
3.446 3.562 1.660 2542
3.291 3.402 1.576 9418
3.444 3.559 1.643 3293
3.294 3.405 1.562 9478
3.447 3.563 1.629 2953
3.297 3.408 1.549 9238
3.445 3.560 1.613 2072
3.305 3.416 1.537 10363
3.453 3.569 1.601 1606
3.313 3.424 1.526 10207
3.456 3.572 1.586 1549
3.556 3.675 1.629 1088
3.321 3.433 1.514 6356
3.527 3.646 1.601 1432
3.427 3.542 1.559 979
3.329 3.441 1.503 3529
3.525 3.643 1.584 1584
3.626 3.747 1.625 1004
3.332 3.444 1.489 3554
3.634 3.756 1.612 2193
3.528 3.646 1.569 1936
3.388 3.502 1.496 4066
3.531 3.649 1.554 2529
3.648 3.770 1.602 2402
3.385 3.499 1.480 4185
3.534 3.652 1.540 2705
3.666 3.789 1.593 1943
3.772 3.899 1.635 1195
3.781 3.908 1.622 3419
3.675 3.798 1.580 2836
3.388 3.502 1.466 2439
3.537 3.655 1.525 1354
3.789 3.916 1.608 5192
3.678 3.801 1.564 3754
3.911 4.042 1.656 1250
3.577 3.697 1.525 1118
3.787 3.914 1.590 6455
3.675 3.798 1.547 2808
3.930 4.062 1.646 1524
3.330 3.441 1.413 1068
3.790 3.917 1.575 9096
3.944 4.076 1.634 2616
3.678 3.801 1.532 1629
3.332 3.444 1.400 1319
3.793 3.920 1.559 6445
3.942 4.074 1.615 4476
3.686 3.810 1.519 1510
3.335 3.447 1.386 1010
3.945 4.077 1.599 5279
3.790 3.917 1.541 2794
3.321 3.433 1.366 1516
4.115 4.253 1.663 1361
3.969 4.102 1.590 4196
4.129 4.267 1.649 2760
3.318 3.430 1.350 2440
3.793 3.920 1.525 1737
3.988 4.122 1.580 3719
4.143 4.282 1.636 3619
3.315 3.427 1.334 2081
4.244 4.386 1.673 1049
3.991 4.125 1.563 3775
4.156 4.296 1.623 3105
3.307 3.418 1.317 2500
4.327 4.472 1.684 1788
4.127 4.266 1.594 2952
3.304 3.415 1.301 2840
4.330 4.476 1.666 2629
4.015 4.150 1.554 2539
4.248 4.390 1.618 3102
4.125 4.263 1.575 2990
4.349 4.495 1.654 2576
3.307 3.418 1.287 1765
4.347 4.493 1.634 4273
4.245 4.388 1.599 3387
4.128 4.266 1.558 1785
3.309 3.420 1.274 1154
4.350 4.496 1.616 3771
4.216 4.358 1.570 1872
4.452 4.601 1.651 1531
3.820 3.948 1.434 1040
4.444 4.593 1.629 2906
4.337 4.482 1.592 2564
4.192 4.333 1.543 1091
3.823 3.951 1.418 753
4.345 4.491 1.576 2755
4.447 4.596 1.610 2654
4.549 4.702 1.644 894
4.227 4.369 1.537 840
4.525 4.677 1.616 2885
4.359 4.505 1.561 2470
4.257 4.400 1.528 838
4.518 4.669 1.594 5365
4.415 4.564 1.561 1980
4.526 4.678 1.577 8141
4.424 4.572 1.544 1673
4.529 4.681 1.558 7890
4.808 4.970 1.646 1358
4.427 4.575 1.526 1105
4.521 4.672 1.536 5055
4.817 4.978 1.628 1766
4.957 5.123 1.672 820
4.545 4.698 1.524 4701
4.820 4.981 1.608 1798
4.960 5.126 1.651 1323
4.564 4.717 1.509 4450
4.963 5.129 1.630 1466
4.823 4.984 1.588 1450
4.583 4.737 1.495 4789
4.966 5.132 1.610 1709
4.766 4.926 1.550 1129
4.586 4.740 1.476 5723
5.017 5.186 1.603 2649
4.888 5.052 1.565 1416
5.136 5.308 1.638 911
4.588 4.742 1.457 4505
5.026 5.194 1.584 3899
5.225 5.401 1.642 1594
4.901 5.066 1.548 1580
5.034 5.203 1.564 3239
4.591 4.745 1.438 2739
5.147 5.320 1.597 1848
5.250 5.426 1.626 1090
5.058 5.228 1.549 3506
5.161 5.334 1.578 2588
4.599 4.753 1.420 2089
4.956 5.122 1.521 1203
5.148 5.320 1.552 2739
5.045 5.214 1.524 2194
5.250 5.427 1.581 1757
5.402 5.583 1.623 1402
5.232 5.407 1.553 3223
5.129 5.301 1.525 1779
5.432 5.614 1.607 1678
5.364 5.544 1.566 2524
5.262 5.438 1.538 2323
5.467 5.651 1.593 1727
5.159 5.332 1.511 1093
5.449 5.631 1.565 2458
5.346 5.525 1.538 1887
5.551 5.738 1.592 1074
5.681 5.872 1.626 959
5.495 5.679 1.553 2231
5.321 5.500 1.508 1495
5.619 5.808 1.586 1287
5.722 5.914 1.612 1042
5.465 5.648 1.522 2032
5.633 5.822 1.565 1850
5.736 5.929 1.591 1632
5.362 5.542 1.496 945
5.706 5.898 1.559 2496
5.468 5.651 1.499 2019
5.853 6.049 1.596 1294
5.603 5.791 1.533 1049
5.715 5.906 1.537 2844
5.850 6.047 1.570 1983
5.953 6.153 1.596 1553
5.465 5.649 1.475 1363
5.718 5.909 1.513 2746
5.951 6.151 1.569 2735
5.848 6.044 1.544 2002
6.222 6.431 1.635 1264
5.959 6.159 1.546 2498
5.704 5.895 1.485 1929
6.225 6.434 1.609 1595
5.840 6.036 1.517 1232
5.973 6.173 1.523 2566
6.228 6.437 1.583 1777
5.810 6.005 1.485 1401
6.381 6.595 1.619 1004
6.041 6.244 1.513 3021
6.226 6.435 1.556 1953
6.416 6.631 1.599 1675
5.796 5.991 1.457 1232
6.044 6.247 1.488 4270
6.408 6.623 1.570 2732
6.234 6.443 1.531 2130
5.940 6.140 1.465 1258
6.046 6.249 1.463 3832
6.406 6.621 1.542 2822
6.525 6.744 1.569 2104
6.237 6.446 1.505 1960
6.528 6.747 1.541 3212
6.392 6.607 1.512 2516
6.049 6.252 1.438 2303
6.240 6.449 1.479 1567
6.536 6.756 1.515 3880
6.379 6.593 1.482 2385
6.242 6.452 1.453 1350
6.052 6.255 1.413 1283
6.539 6.759 1.488 3673
6.888 7.119 1.560 1519
6.376 6.590 1.454 1419
6.000 6.201 1.376 1287
6.542 6.761 1.461 4199
6.891 7.122 1.532 1473
6.417 6.632 1.435 1173
5.997 6.198 1.350 1128
6.539 6.759 1.432 5157
6.419 6.635 1.408 1255
6.872 7.102 1.498 1054
6.697 6.922 1.464 1017
6.547 6.767 1.406 5287
7.698 7.957 1.630 1245
6.869 7.100 1.469 1227
7.164 7.404 1.526 1188
6.550 6.769 1.379 4470
7.701 7.960 1.598 1703
6.877 7.108 1.441 1265
7.521 7.773 1.564 929
6.552 6.772 1.351 2632
7.710 7.968 1.567 1708
6.874 7.105 1.411 1014
7.972 8.239 1.615 1000
7.718 7.977 1.535 1831
7.882 8.146 1.565 1388
8.029 8.299 1.592 1213
6.555 6.775 1.324 1100
7.721 7.980 1.503 1752
7.885 8.149 1.532 1545
7.988 8.256 1.551 1297
7.535 7.788 1.470 1108
7.713 7.971 1.469 1744
7.975 8.242 1.515 1459
7.871 8.135 1.497 1241
8.226 8.502 1.558 1009
7.704 7.963 1.435 2169
7.989 8.257 1.483 1134
7.874 8.138 1.464 949
8.278 8.556 1.532 813
7.707 7.965 1.403 1783
7.997 8.265 1.451 1247
8.292 8.570 1.499 1036
9.118 9.424 1.635 1021
7.709 7.968 1.371 1471
9.121 9.427 1.597 1348
7.994 8.262 1.416 1198
8.426 8.709 1.486 1072
8.992 9.294 1.538 1396
7.717 7.976 1.339 1335
8.560 8.847 1.471 1290
9.124 9.430 1.559 1163
8.661 8.952 1.450 1629
8.973 9.274 1.498 1480
9.242 9.552 1.538 1404
8.557 8.844 1.434 1360
8.658 8.949 1.413 1995
9.129 9.436 1.483 1725
8.976 9.277 1.460 1474
8.439 8.723 1.381 1349
9.138 9.444 1.445 2071
8.667 8.957 1.378 1946
8.442 8.725 1.345 1598
8.995 9.297 1.425 1415
9.135 9.441 1.406 1994
8.664 8.954 1.341 1828
8.444 8.728 1.310 1441
9.003 9.305 1.388 1250
8.655 8.945 1.303 2824
9.132 9.438 1.367 1393
8.447 8.730 1.275 1001
9.258 9.568 1.384 945
8.652 8.942 1.266 4026
8.548 8.834 1.252 1023
8.761 9.055 1.280 897
9.140 9.446 1.330 774
8.654 8.944 1.230 3379
8.769 9.063 1.244 1123
8.550 8.837 1.217 835
8.662 8.952 1.194 2576
8.777 9.071 1.208 1350
9.144 9.451 1.253 766
8.664 8.954 1.158 1840
8.774 9.068 1.171 1122
8.704 8.996 1.126 1309
8.712 9.004 1.090 822
8.741 9.034 1.057 764
1.624 1.667 1.768 3777
1.131 1.160 1.260 933
1.628 1.670 1.761 7555
1.542 1.582 1.674 1258
1.133 1.162 1.256 923
1.631 1.673 1.755 7555
1.545 1.585 1.668 1258
1.135 1.165 1.251 799
1.717 1.761 1.842 792
1.630 1.672 1.744 7193
1.544 1.584 1.657 1004
1.716 1.760 1.830 967
1.620 1.662 1.723 7418
1.706 1.750 1.809 1120
1.641 1.683 1.735 9109
1.727 1.772 1.821 2299
1.658 1.701 1.742 11979
1.744 1.789 1.827 1899
1.661 1.704 1.735 11979
1.748 1.793 1.820 1899
1.692 1.736 1.755 10638
1.605 1.647 1.670 2073
1.709 1.753 1.761 11912
1.622 1.664 1.677 2265
1.721 1.766 1.763 9429
1.634 1.676 1.679 3484
1.734 1.779 1.765 8028
1.646 1.689 1.681 4597
1.751 1.796 1.771 9569
1.663 1.706 1.687 5087
1.754 1.800 1.764 11600
1.666 1.710 1.681 3951
1.753 1.798 1.752 11778
1.665 1.708 1.670 2467
1.737 1.783 1.728 12250
1.736 1.781 1.716 12833
1.744 1.789 1.713 14825
1.656 1.699 1.632 1041
1.747 1.792 1.706 17269
1.659 1.702 1.625 1076
1.836 1.883 1.787 807
1.755 1.801 1.703 16263
1.844 1.891 1.784 1375
1.666 1.710 1.623 1026
1.763 1.809 1.700 15771
1.852 1.900 1.781 1667
1.674 1.718 1.620 840
1.766 1.812 1.693 11848
1.855 1.903 1.773 2466
1.769 1.815 1.686 7925
1.858 1.906 1.766 3266
1.777 1.823 1.683 5550
1.866 1.915 1.762 3479
1.846 1.894 1.734 5748
1.757 1.802 1.655 1756
1.849 1.897 1.726 7238
1.760 1.805 1.648 1523
1.939 1.989 1.805 767
1.862 1.910 1.727 9103
1.768 1.813 1.645 1336
1.952 2.002 1.805 771
1.879 1.928 1.731 10424
1.789 1.836 1.654 1652
1.887 1.936 1.728 12407
1.797 1.844 1.650 1995
1.891 1.940 1.720 17189
1.800 1.847 1.643 1718
1.981 2.032 1.797 964
1.894 1.943 1.712 21972
1.984 2.036 1.789 1544
1.803 1.850 1.636 1440
1.902 1.951 1.709 20301
1.992 2.044 1.785 1622
1.811 1.858 1.632 1316
1.905 1.954 1.701 18657
1.996 2.047 1.777 2007
1.814 1.861 1.625 885
1.908 1.958 1.693 13319
1.999 2.051 1.768 2024
1.817 1.864 1.617 772
1.902 1.951 1.677 8008
1.993 2.044 1.752 2451
1.900 1.949 1.666 5648
1.991 2.043 1.740 4627
1.980 2.031 1.720 9380
1.889 1.938 1.646 3927
1.983 2.035 1.712 10990
1.892 1.941 1.638 3667
1.986 2.038 1.704 9330
1.895 1.944 1.630 2961
2.078 2.132 1.778 1455
1.994 2.046 1.700 7899
1.903 1.952 1.627 2584
2.086 2.140 1.773 1662
2.007 2.059 1.699 6349
1.915 1.965 1.626 2817
2.099 2.154 1.772 1298
2.035 2.087 1.710 6591
1.933 1.983 1.630 2632
2.043 2.096 1.706 8087
1.951 2.001 1.633 1939
2.056 2.109 1.705 10771
1.963 2.014 1.633 1369
2.148 2.204 1.776 1277
2.064 2.117 1.700 12488
2.156 2.212 1.771 1607
1.971 2.022 1.629 1279
2.067 2.120 1.692 12006
2.159 2.215 1.762 2034
1.974 2.025 1.621 1005
2.065 2.119 1.679 11770
2.158 2.214 1.750 3012
1.943 1.993 1.587 1079
2.068 2.122 1.671 9921
2.161 2.217 1.741 3006
1.946 1.996 1.579 996
2.081 2.135 1.670 5957
2.174 2.231 1.739 4080
1.954 2.004 1.574 773
2.114 2.168 1.683 6264
2.207 2.264 1.752 2923
2.171 2.227 1.714 8077
2.077 2.131 1.645 2101
2.174 2.230 1.705 11304
2.081 2.135 1.637 1445
2.267 2.326 1.774 1077
2.177 2.234 1.696 11881
2.271 2.330 1.765 1714
2.084 2.138 1.628 1709
2.185 2.242 1.691 11133
2.279 2.338 1.759 3155
2.092 2.146 1.623 1541
2.188 2.245 1.682 7500
2.282 2.342 1.749 4408
2.095 2.149 1.615 890
2.261 2.319 1.722 7358
2.167 2.223 1.655 4064
2.259 2.318 1.710 8945
2.165 2.221 1.643 3219
2.257 2.316 1.697 6984
2.163 2.219 1.631 2379
2.352 2.413 1.763 1208
2.260 2.319 1.688 5772
2.166 2.222 1.622 2328
2.355 2.416 1.753 1589
2.264 2.322 1.678 7839
2.358 2.419 1.744 1895
2.169 2.225 1.613 1687
2.267 2.326 1.669 9315
2.361 2.423 1.734 2088
2.172 2.228 1.604 963
2.270 2.329 1.660 8725
2.365 2.426 1.724 2357
2.175 2.231 1.595 856
2.283 2.342 1.657 6196
2.378 2.440 1.721 3153
2.188 2.245 1.593 921
2.366 2.427 1.701 9245
2.271 2.330 1.638 3539
2.374 2.436 1.695 16373
2.279 2.338 1.632 3693
2.377 2.439 1.685 18970
2.282 2.341 1.622 2577
2.473 2.537 1.748 768
2.376 2.437 1.672 15286
2.471 2.535 1.735 1916
2.280 2.339 1.609 1839
2.369 2.430 1.656 10776
2.464 2.528 1.718 2679
2.273 2.332 1.594 1041
2.417 2.480 1.675 9206
2.301 2.361 1.600 1459
2.513 2.578 1.737 1104
2.425 2.488 1.669 10600
2.521 2.586 1.730 1159
2.329 2.390 1.607 1052
2.428 2.491 1.659 11139
2.544 2.610 1.732 1713
2.332 2.393 1.598 1037
2.436 2.500 1.652 9570
2.543 2.609 1.719 3096
2.330 2.391 1.585 851
2.460 2.524 1.654 7726
2.556 2.622 1.715 3166
2.364 2.425 1.594 797
2.468 2.532 1.647 8336
2.564 2.631 1.707 2770
2.471 2.535 1.637 7533
2.567 2.634 1.697 2660
2.474 2.538 1.627 8148
2.571 2.637 1.686 4017
2.482 2.547 1.620 7301
2.579 2.646 1.679 6344
2.582 2.649 1.668 6850
2.485 2.550 1.610 4236
2.679 2.748 1.726 975
2.605 2.673 1.670 4758
2.498 2.563 1.606 2065
2.702 2.773 1.727 1018
2.639 2.708 1.677 4935
2.542 2.608 1.619 2244
2.663 2.732 1.678 5255
2.550 2.616 1.612 2046
2.635 2.704 1.649 4887
2.732 2.803 1.706 1562
2.538 2.604 1.593 1503
2.638 2.707 1.638 5408
2.736 2.807 1.694 3577
2.541 2.607 1.582 1149
2.718 2.789 1.671 6168
2.621 2.689 1.616 3878
2.721 2.792 1.660 7210
2.619 2.687 1.602 2977
2.819 2.892 1.716 976
2.730 2.800 1.652 7841
2.632 2.700 1.597 1680
2.827 2.901 1.707 1397
2.738 2.809 1.643 8157
2.836 2.909 1.698 1329
2.746 2.817 1.635 8736
2.844 2.918 1.689 925
2.744 2.815 1.621 6368
2.868 2.942 1.689 1138
0.581 0.596 0.436 753
2.799 2.871 1.638 3845
2.700 2.771 1.584 1599
2.897 2.972 1.691 1091
0.577 0.592 0.431 892
2.817 2.890 1.634 4522
2.719 2.789 1.582 1380
2.983 3.060 1.724 1286
0.577 0.592 0.429 875
2.841 2.915 1.634 5572
2.970 3.047 1.703 1832
2.743 2.814 1.581 1496
2.844 2.918 1.622 7191
2.942 3.019 1.674 2968
2.745 2.817 1.570 1098
2.852 2.926 1.613 5209
2.951 3.027 1.665 3500
2.754 2.825 1.561 908
2.980 3.057 1.666 4416
2.855 2.929 1.601 4291
3.094 3.174 1.725 867
2.983 3.060 1.654 5053
2.853 2.927 1.587 4604
3.082 3.162 1.705 1272
3.181 3.263 1.755 753
2.991 3.069 1.644 4964
2.861 2.935 1.578 2758
3.090 3.170 1.695 1564
3.189 3.272 1.745 1078
3.005 3.083 1.637 5492
3.135 3.216 1.703 2200
2.906 2.981 1.587 1733
3.234 3.318 1.753 841
3.039 3.118 1.640 4411
3.180 3.262 1.711 3462
2.940 3.016 1.591 2786
3.194 3.276 1.703 5205
3.042 3.121 1.628 4784
2.943 3.019 1.579 1721
3.202 3.285 1.692 5185
3.029 3.108 1.607 3606
3.205 3.288 1.679 6097
3.090 3.170 1.623 3534
2.991 3.068 1.575 1366
3.305 3.390 1.727 780
3.203 3.286 1.663 8290
3.103 3.184 1.615 2116
3.302 3.388 1.711 1240
3.206 3.289 1.650 8779
3.306 3.391 1.697 1721
3.106 3.187 1.602 1226
3.214 3.298 1.639 6591
3.314 3.400 1.686 3051
3.115 3.195 1.592 829
3.291 3.376 1.660 5683
3.191 3.274 1.614 2481
3.268 3.353 1.634 4924
3.168 3.250 1.588 1602
3.368 3.455 1.681 949
3.281 3.366 1.626 7558
3.181 3.264 1.580 1653
3.381 3.469 1.672 834
3.290 3.375 1.615 13766
3.190 3.272 1.569 1305
3.442 3.532 1.684 896
3.287 3.373 1.599 14815
3.456 3.546 1.674 1314
3.296 3.381 1.587 9572
3.459 3.549 1.660 1909
3.309 3.395 1.578 7202
3.457 3.547 1.643 2379
3.301 3.387 1.560 6443
3.460 3.550 1.629 2160
3.310 3.395 1.549 7807
3.463 3.553 1.615 1557
3.318 3.404 1.537 12316
3.498 3.589 1.614 1216
3.331 3.418 1.528 14630
3.480 3.570 1.591 1570
3.580 3.673 1.633 780
3.334 3.421 1.514 10157
3.477 3.567 1.574 1512
3.578 3.671 1.616 957
3.337 3.423 1.500 6709
3.539 3.630 1.584 1480
3.639 3.734 1.625 1458
3.438 3.527 1.542 893
3.340 3.426 1.487 5623
3.642 3.737 1.610 2533
3.541 3.633 1.569 1594
3.441 3.530 1.528 945
3.337 3.424 1.471 4358
3.656 3.751 1.600 2331
3.544 3.636 1.554 1703
3.438 3.527 1.511 1194
3.404 3.492 1.482 3666
3.547 3.639 1.540 1708
3.664 3.759 1.587 1662
3.302 3.388 1.442 836
3.694 3.790 1.582 2195
3.401 3.489 1.466 2115
3.800 3.899 1.624 1761
3.550 3.642 1.525 913
3.681 3.776 1.560 3009
3.803 3.902 1.608 2912
3.926 4.028 1.656 1495
3.334 3.421 1.425 1342
3.801 3.900 1.590 3674
3.684 3.779 1.545 2664
3.940 4.042 1.644 2143
3.337 3.424 1.411 1394
3.804 3.903 1.575 5076
3.959 4.062 1.634 3213
3.345 3.432 1.400 1864
3.692 3.788 1.532 1504
3.957 4.059 1.615 4458
3.807 3.906 1.559 3725
3.347 3.434 1.386 1439
4.128 4.235 1.680 1271
3.970 4.073 1.603 5559
4.131 4.238 1.663 1890
3.805 3.903 1.541 1655
3.339 3.426 1.368 1383
3.973 4.076 1.586 5831
4.145 4.252 1.649 3280
3.331 3.417 1.350 2077
3.813 3.912 1.527 1020
4.153 4.261 1.634 4414
3.982 4.085 1.572 4118
3.328 3.414 1.334 1782
4.177 4.286 1.625 4134
4.017 4.121 1.567 3636
3.320 3.406 1.317 1893
4.344 4.456 1.684 1527
4.175 4.283 1.605 3624
4.030 4.135 1.554 3017
4.347 4.459 1.666 2403
3.317 3.403 1.301 2097
4.269 4.380 1.620 3733
4.146 4.253 1.577 3403
4.371 4.485 1.656 2367
4.038 4.143 1.539 1756
4.364 4.477 1.634 4449
4.262 4.372 1.599 4004
4.149 4.256 1.560 1775
3.832 3.931 1.450 867
4.367 4.480 1.616 3473
4.227 4.337 1.568 2789
4.469 4.585 1.651 1389
4.461 4.577 1.629 2871
4.348 4.461 1.590 2205
4.235 4.345 1.552 2018
4.459 4.574 1.608 2927
4.356 4.469 1.574 2236
4.243 4.354 1.537 1364
4.561 4.679 1.642 994
4.542 4.660 1.616 2654
4.381 4.495 1.563 2368
4.279 4.390 1.530 882
4.535 4.652 1.594 5208
4.384 4.498 1.545 1863
4.548 4.666 1.579 8349
4.387 4.500 1.527 1615
4.651 4.772 1.611 843
4.546 4.664 1.558 8067
4.832 4.957 1.648 1082
4.648 4.769 1.590 924
4.443 4.559 1.526 877
4.549 4.667 1.539 4776
4.835 4.960 1.628 1440
4.651 4.772 1.571 788
4.562 4.681 1.524 5179
4.838 4.964 1.608 1447
4.979 5.108 1.651 1223
4.581 4.700 1.509 4942
4.987 5.116 1.632 1519
4.841 4.967 1.588 1132
4.601 4.720 1.495 4777
4.990 5.120 1.611 1923
4.801 4.925 1.555 821
4.598 4.717 1.475 6585
4.998 5.128 1.592 2390
5.150 5.284 1.636 1008
5.253 5.389 1.667 806
4.601 4.720 1.456 5139
5.039 5.170 1.582 3462
5.251 5.387 1.643 1725
5.142 5.276 1.612 1559
5.058 5.190 1.566 3410
4.609 4.728 1.438 3040
5.178 5.312 1.600 1674
5.281 5.418 1.629 1343
5.078 5.209 1.549 4262
4.611 4.731 1.419 2509
5.181 5.315 1.578 2471
5.289 5.426 1.609 1157
5.080 5.212 1.528 2753
5.184 5.318 1.557 2239
5.422 5.563 1.623 1781
4.619 4.739 1.401 1630
5.295 5.432 1.565 2798
5.442 5.583 1.604 1721
5.154 5.288 1.526 1720
5.298 5.435 1.543 2928
5.466 5.608 1.588 2410
5.157 5.290 1.505 1273
5.705 5.853 1.651 811
5.469 5.611 1.565 2633
5.301 5.438 1.521 1730
5.573 5.717 1.592 1152
5.714 5.862 1.629 1004
5.510 5.653 1.552 2397
5.614 5.759 1.579 1408
5.320 5.458 1.503 1379
5.739 5.888 1.611 1361
5.486 5.628 1.522 1870
