5.987 2.155 1.680 2214
5.846 2.104 1.625 3156
5.506 1.982 1.537 2997
5.991 2.156 1.662 2739
5.346 1.924 1.497 2283
6.002 2.160 1.645 2461
5.843 2.103 1.605 2000
6.292 2.265 1.719 1711
5.510 1.983 1.520 1650
6.296 2.266 1.699 2797
6.028 2.170 1.632 2650
5.854 2.107 1.589 1564
6.434 2.316 1.734 772
6.344 2.283 1.691 3243
6.047 2.176 1.617 1832
5.902 2.124 1.581 1221
6.192 2.229 1.653 1036
6.356 2.288 1.673 4040
6.218 2.238 1.639 2096
6.058 2.180 1.600 1241
6.545 2.355 1.719 1052
6.360 2.289 1.653 2667
6.222 2.239 1.620 1814
6.556 2.360 1.700 1381
6.648 2.393 1.701 1799
6.437 2.317 1.651 1739
6.299 2.267 1.618 891
6.674 2.402 1.685 3922
6.463 2.326 1.636 1747
6.324 2.276 1.604 1122
6.812 2.452 1.718 781
6.685 2.406 1.666 4863
6.445 2.320 1.611 1788
6.824 2.456 1.698 1000
6.689 2.408 1.646 4214
6.449 2.321 1.591 1499
6.973 2.510 1.710 1299
6.828 2.457 1.677 884
6.686 2.406 1.624 3917
6.970 2.509 1.687 1850
6.548 2.357 1.593 966
7.175 2.582 1.733 780
6.690 2.408 1.603 3315
6.960 2.505 1.663 1375
7.193 2.589 1.714 850
6.694 2.409 1.582 1953
7.015 2.525 1.652 1152
7.322 2.635 1.719 1137
7.183 2.585 1.689 780
7.224 2.600 1.674 1670
7.027 2.529 1.632 1584
7.363 2.650 1.704 1401
6.684 2.406 1.559 1286
7.491 2.696 1.708 1964
7.024 2.528 1.609 1704
7.221 2.599 1.651 1355
6.709 2.415 1.543 855
7.408 2.666 1.666 2059
7.612 2.740 1.709 1677
7.788 2.803 1.745 1487
7.028 2.529 1.587 1435
7.631 2.747 1.688 2802
7.814 2.812 1.726 2496
7.405 2.665 1.642 1271
7.650 2.753 1.668 3100
7.811 2.811 1.700 2766
7.852 2.826 1.683 3807
7.706 2.773 1.654 2252
7.864 2.830 1.661 5009
7.724 2.780 1.633 1771
7.868 2.832 1.636 3520
7.640 2.750 1.593 1105
8.454 3.043 1.749 805
8.601 3.096 1.777 764
7.894 2.841 1.616 2327
8.627 3.105 1.754 1049
8.488 3.055 1.728 908
7.898 2.843 1.592 3438
8.500 3.059 1.703 1240
8.639 3.109 1.729 1109
8.778 3.160 1.755 934
7.887 2.839 1.565 4982
8.636 3.108 1.701 1742
8.805 3.169 1.732 1259
8.497 3.058 1.676 1040
7.891 2.840 1.540 5376
8.640 3.110 1.674 2409
9.081 3.268 1.753 1141
8.780 3.160 1.699 1126
7.902 2.844 1.517 3397
8.652 3.114 1.649 1930
9.085 3.270 1.725 1674
8.880 3.196 1.689 1121
9.097 3.274 1.698 2306
7.899 2.843 1.492 1744
8.678 3.123 1.626 1641
8.538 3.073 1.602 1430
9.101 3.276 1.670 3144
7.880 2.836 1.464 1309
9.447 3.400 1.729 1300
8.675 3.122 1.598 1243
9.105 3.277 1.642 2954
9.444 3.399 1.698 1684
8.811 3.171 1.593 961
9.805 3.529 1.758 861
9.117 3.281 1.615 2055
9.441 3.398 1.668 1214
9.816 3.533 1.729 980
9.640 3.470 1.700 854
9.114 3.280 1.586 1428
9.858 3.548 1.705 1126
9.644 3.471 1.671 999
9.460 3.405 1.641 892
9.899 3.563 1.680 1347
9.641 3.470 1.640 1083
9.118 3.282 1.558 946
10.437 3.756 1.764 880
9.910 3.567 1.651 1739
10.426 3.753 1.730 893
9.637 3.469 1.609 860
9.922 3.571 1.621 1687
10.431 3.754 1.698 972
10.814 3.892 1.755 815
9.941 3.578 1.593 1207
10.826 3.896 1.723 1076
10.442 3.758 1.667 1067
10.612 3.819 1.691 773
10.845 3.903 1.692 1488
10.454 3.763 1.635 1062
10.624 3.824 1.660 967
11.059 3.980 1.722 882
10.864 3.910 1.660 1607
11.396 4.102 1.735 1229
10.598 3.814 1.623 965
11.063 3.982 1.688 953
11.400 4.103 1.700 1196
10.920 3.930 1.634 1139
11.075 3.986 1.655 933
10.772 3.877 1.613 913
10.931 3.934 1.601 1427
11.426 4.113 1.668 1252
11.079 3.988 1.621 1064
11.781 4.240 1.715 1028
11.438 4.117 1.633 1514
10.928 3.933 1.566 1210
11.091 3.992 1.588 1190
11.963 4.306 1.702 1180
11.435 4.116 1.597 1532
11.102 3.996 1.554 1210
11.967 4.307 1.665 1210
11.790 4.243 1.642 1145
11.431 4.114 1.561 1281
11.964 4.306 1.627 1027
11.794 4.245 1.606 968
11.653 4.194 1.588 850
12.937 4.656 1.708 1317
12.634 4.547 1.671 1003
12.138 4.369 1.611 968
11.428 4.113 1.524 825
12.934 4.655 1.667 1470
12.142 4.370 1.573 1089
12.631 4.546 1.631 960
13.090 4.711 1.686 788
12.938 4.657 1.627 1087
13.449 4.841 1.686 835
13.086 4.710 1.645 828
13.298 4.786 1.627 796
13.528 4.869 1.653 777
2.174 0.775 1.754 5592
2.178 0.777 1.748 11184
2.063 0.736 1.660 1056
2.183 0.778 1.741 11184
2.067 0.737 1.654 1056
2.359 0.841 1.874 946
2.187 0.780 1.734 16825
2.352 0.839 1.857 1654
2.192 0.782 1.728 22466
2.356 0.840 1.850 2427
1.965 0.701 1.560 795
2.196 0.783 1.721 21723
2.361 0.842 1.843 3298
2.200 0.785 1.714 20979
2.372 0.846 1.841 4304
2.205 0.786 1.708 20979
2.383 0.850 1.838 4512
2.209 0.788 1.701 15832
2.387 0.851 1.831 4931
2.201 0.785 1.686 11262
2.392 0.853 1.823 5351
2.211 0.789 1.683 8849
2.397 0.855 1.816 5150
2.228 0.795 1.685 6951
2.408 0.859 1.813 5059
2.238 0.798 1.683 4945
2.412 0.860 1.806 4824
2.410 0.860 1.794 4618
2.261 0.806 1.689 3742
2.529 0.902 1.877 880
2.415 0.861 1.787 4618
2.259 0.806 1.678 2728
2.533 0.904 1.870 1044
2.420 0.863 1.780 5353
2.538 0.905 1.862 2412
2.251 0.803 1.663 1923
2.418 0.862 1.768 6063
2.537 0.905 1.850 3871
2.261 0.807 1.660 1865
2.422 0.864 1.761 5654
2.548 0.909 1.846 4580
2.266 0.808 1.653 1573
2.559 0.912 1.843 5706
2.433 0.868 1.757 5377
2.263 0.807 1.642 1321
2.563 0.914 1.835 4907
2.444 0.872 1.754 4012
2.274 0.811 1.640 1176
2.568 0.916 1.827 4107
2.448 0.873 1.747 2663
2.284 0.815 1.637 1039
2.547 0.908 1.803 4950
2.427 0.866 1.723 1255
2.539 0.906 1.787 6474
2.419 0.863 1.707 777
2.544 0.907 1.779 7018
2.689 0.959 1.875 885
2.548 0.909 1.771 7562
2.694 0.961 1.867 1304
2.546 0.908 1.759 6156
2.667 0.951 1.838 2361
2.544 0.907 1.747 4934
2.672 0.953 1.830 3551
2.568 0.916 1.752 3797
2.689 0.959 1.830 3657
2.604 0.929 1.764 4661
2.726 0.972 1.842 2191
2.483 0.885 1.687 842
2.615 0.933 1.761 5006
2.737 0.976 1.838 2475
2.620 0.934 1.753 5491
2.742 0.978 1.829 2991
2.695 0.961 1.789 5692
2.680 0.956 1.769 6894
2.802 0.999 1.845 982
2.691 0.960 1.765 6630
2.813 1.003 1.840 1006
2.695 0.961 1.756 6432
2.818 1.005 1.831 1136
2.700 0.963 1.748 6470
2.823 1.007 1.823 1811
2.730 0.974 1.756 6066
2.853 1.018 1.830 1554
2.741 0.978 1.751 6345
2.864 1.022 1.825 1897
2.739 0.977 1.739 5266
2.863 1.021 1.813 3851
2.841 1.013 1.788 5872
2.717 0.969 1.715 2522
2.846 1.015 1.780 6297
2.722 0.971 1.707 1703
2.857 1.019 1.775 6738
2.733 0.975 1.702 1146
2.855 1.018 1.762 5095
2.730 0.974 1.690 768
2.846 1.015 1.746 4160
2.971 1.059 1.818 1458
2.844 1.014 1.734 5243
2.969 1.059 1.805 1910
2.848 1.016 1.725 5083
2.973 1.060 1.796 3569
2.945 1.050 1.768 6330
2.820 1.006 1.698 2403
3.070 1.095 1.839 1475
2.995 1.068 1.785 6437
2.870 1.024 1.715 3585
3.121 1.113 1.855 871
3.013 1.075 1.783 7257
2.888 1.030 1.714 1904
3.139 1.119 1.853 939
3.031 1.081 1.782 7013
2.905 1.036 1.712 2131
3.157 1.126 1.851 1020
3.035 1.083 1.772 6327
3.161 1.127 1.841 1360
2.909 1.038 1.703 1345
3.033 1.082 1.759 5742
3.159 1.127 1.828 1722
3.038 1.083 1.750 3989
3.164 1.128 1.818 1699
3.095 1.104 1.770 3336
2.969 1.059 1.702 1086
3.222 1.149 1.837 763
3.093 1.103 1.757 4449
3.220 1.148 1.824 1445
2.966 1.058 1.689 758
3.098 1.105 1.747 5572
3.224 1.150 1.814 1767
2.971 1.059 1.680 855
3.176 1.133 1.776 8619
3.048 1.087 1.710 1685
3.180 1.134 1.767 10968
3.053 1.089 1.700 1366
3.184 1.136 1.757 10354
3.057 1.090 1.691 1367
3.189 1.137 1.747 9509
3.316 1.183 1.813 1187
3.061 1.092 1.682 1087
3.187 1.136 1.734 10250
3.314 1.182 1.799 1396
3.184 1.136 1.721 11802
3.312 1.181 1.785 1032
3.229 1.152 1.731 10939
3.357 1.197 1.796 1110
3.101 1.106 1.667 935
3.247 1.158 1.728 13974
3.375 1.204 1.792 1523
3.119 1.112 1.664 1009
3.251 1.160 1.718 12502
3.386 1.208 1.785 1771
3.262 1.163 1.712 9216
3.391 1.209 1.775 2313
3.260 1.163 1.698 5142
3.389 1.209 1.761 3979
3.373 1.203 1.741 5603
3.244 1.157 1.679 3358
3.377 1.204 1.731 7256
3.248 1.158 1.669 3031
3.382 1.206 1.720 8140
3.252 1.160 1.659 2376
3.511 1.252 1.782 751
3.386 1.208 1.710 8313
3.256 1.161 1.649 2077
3.515 1.254 1.771 1001
3.472 1.238 1.738 6925
3.342 1.192 1.677 2708
3.476 1.240 1.727 5947
3.347 1.194 1.667 1848
3.606 1.286 1.788 819
3.501 1.249 1.726 4455
3.371 1.202 1.666 1599
3.631 1.295 1.786 893
3.506 1.250 1.715 4203
3.376 1.204 1.656 1298
3.636 1.297 1.775 815
3.510 1.252 1.705 3436
3.654 1.303 1.770 1618
3.380 1.205 1.646 1021
3.501 1.248 1.688 5713
3.679 1.312 1.768 3424
3.498 1.247 1.674 11078
3.642 1.299 1.738 5283
3.773 1.346 1.797 756
3.502 1.249 1.663 11499
3.647 1.301 1.727 6306
3.777 1.347 1.785 1767
3.513 1.253 1.656 7694
3.734 1.332 1.752 5213
3.531 1.259 1.651 5297
3.745 1.336 1.744 5038
3.729 1.330 1.724 5703
3.535 1.261 1.640 4395
3.860 1.377 1.780 983
3.733 1.331 1.712 7785
3.546 1.265 1.632 3314
3.865 1.378 1.768 1734
3.751 1.338 1.707 7681
3.883 1.385 1.762 2369
3.571 1.274 1.630 1893
3.762 1.342 1.698 5439
3.894 1.389 1.753 3300
3.582 1.278 1.622 907
3.767 1.343 1.687 3830
3.899 1.390 1.742 2707
3.785 1.350 1.681 3916
3.931 1.402 1.741 3389
3.949 1.408 1.735 5721
3.789 1.351 1.669 3419
3.967 1.415 1.728 5945
3.828 1.365 1.672 2872
4.028 1.436 1.739 4315
3.860 1.377 1.671 3073
4.039 1.440 1.729 4907
3.906 1.393 1.676 3866
4.022 1.435 1.708 4119
3.890 1.387 1.656 2451
4.006 1.429 1.688 4117
4.146 1.478 1.743 2011
3.873 1.381 1.636 781
4.010 1.430 1.676 3872
4.157 1.483 1.733 3783
4.154 1.482 1.717 4699
4.021 1.434 1.666 2691
4.222 1.506 1.729 4716
4.060 1.448 1.667 2125
4.219 1.505 1.713 5628
4.086 1.457 1.663 2092
4.216 1.504 1.698 7486
4.350 1.551 1.748 1628
4.083 1.456 1.648 1444
4.214 1.503 1.682 7563
4.347 1.550 1.732 2461
4.080 1.455 1.632 787
4.232 1.509 1.674 5975
4.366 1.557 1.723 2141
4.257 1.518 1.669 5613
4.391 1.566 1.718 2131
4.123 1.471 1.620 761
4.318 1.540 1.676 6401
4.184 1.492 1.628 1486
4.452 1.588 1.725 1021
4.336 1.547 1.668 4594
4.471 1.594 1.716 1168
4.202 1.499 1.620 1165
4.411 1.573 1.680 4776
4.546 1.621 1.727 1779
4.277 1.525 1.632 1280
4.408 1.572 1.664 4414
4.550 1.623 1.713 2246
4.274 1.524 1.617 921
4.405 1.571 1.648 3287
4.597 1.639 1.714 2570
4.601 1.641 1.700 3318
4.395 1.568 1.630 2530
4.627 1.650 1.693 4557
4.407 1.572 1.619 1864
4.638 1.654 1.682 6321
4.453 1.588 1.619 1422
4.649 1.658 1.670 5107
4.514 1.610 1.625 1130
4.632 1.652 1.648 3524
4.768 1.700 1.693 1268
4.644 1.656 1.636 3950
4.779 1.704 1.681 1957
4.676 1.668 1.631 3751
4.812 1.716 1.675 2070
4.823 1.720 1.663 4308
4.687 1.672 1.619 3579
4.827 1.722 1.648 8108
4.691 1.673 1.605 2005
4.824 1.721 1.631 10338
4.660 1.662 1.579 811
4.828 1.722 1.616 10190
5.022 1.791 1.676 910
4.825 1.721 1.599 10763
5.019 1.790 1.658 1679
4.815 1.717 1.580 11871
5.023 1.791 1.643 2276
5.288 1.886 1.723 832
4.812 1.716 1.563 12842
5.027 1.793 1.627 2528
5.292 1.888 1.707 1567
4.816 1.717 1.548 12806
5.297 1.889 1.691 4170
5.031 1.794 1.612 2531
4.827 1.721 1.536 7999
5.301 1.891 1.674 6034
5.035 1.796 1.597 2015
5.320 1.897 1.662 5056
4.838 1.725 1.523 4462
5.039 1.797 1.581 1561
5.176 1.846 1.621 1011
5.331 1.901 1.648 5530
4.841 1.727 1.508 2995
5.144 1.834 1.594 1170
5.328 1.900 1.630 9409
5.465 1.949 1.668 1273
5.148 1.836 1.579 1268
4.845 1.728 1.493 1183
5.332 1.902 1.613 11476
5.469 1.950 1.652 1871
5.152 1.837 1.563 871
5.336 1.903 1.597 12716
5.473 1.952 1.635 2255
5.347 1.907 1.582 13243
5.484 1.956 1.620 2983
5.766 2.056 1.697 1032
5.351 1.908 1.566 12316
5.488 1.957 1.603 4881
5.843 2.084 1.698 1656
5.355 1.910 1.550 10698
5.492 1.959 1.586 6573
5.840 2.083 1.679 2000
5.977 2.132 1.715 823
5.352 1.909 1.531 6917
5.496 1.960 1.569 4369
5.822 2.076 1.655 2369
5.989 2.136 1.699 1130
5.355 1.910 1.515 4302
5.826 2.078 1.637 3743
5.986 2.135 1.678 2300
5.515 1.967 1.556 2185
5.830 2.079 1.619 3604
5.990 2.136 1.660 2584
5.359 1.911 1.498 2555
5.511 1.966 1.537 2066
6.001 2.140 1.643 2587
5.834 2.081 1.601 2046
6.197 2.210 1.693 1876
5.363 1.913 1.482 1082
6.005 2.142 1.625 2672
6.303 2.248 1.699 2544
6.165 2.199 1.665 1603
5.860 2.090 1.589 1428
6.365 2.270 1.694 2649
6.031 2.151 1.612 1353
5.871 2.094 1.572 1352
6.169 2.200 1.646 1150
6.362 2.269 1.673 2418
6.217 2.217 1.637 1772
6.515 2.324 1.710 1128
6.064 2.163 1.600 882
6.439 2.297 1.671 2069
6.221 2.219 1.618 1543
6.650 2.372 1.721 1037
6.669 2.378 1.704 2283
6.436 2.295 1.649 2081
6.298 2.246 1.616 1278
6.681 2.383 1.685 3497
6.477 2.310 1.638 1849
6.338 2.261 1.606 1600
6.819 2.432 1.718 818
6.692 2.387 1.666 3741
6.474 2.309 1.616 1878
6.831 2.436 1.698 1117
6.335 2.259 1.584 751
6.696 2.388 1.646 3270
6.492 2.315 1.600 1663
6.835 2.438 1.677 1056
6.988 2.492 1.712 989
6.700 2.390 1.625 2721
6.970 2.486 1.686 1747
6.562 2.340 1.594 1128
7.335 2.616 1.767 750
6.697 2.388 1.603 2018
6.967 2.485 1.663 1618
7.340 2.618 1.745 881
7.235 2.580 1.698 1577
6.694 2.387 1.581 1290
7.015 2.502 1.651 1193
6.877 2.452 1.621 851
7.231 2.579 1.674 2271
7.027 2.506 1.631 1464
7.392 2.636 1.709 1428
6.683 2.384 1.557 1034
7.506 2.677 1.709 2457
7.236 2.581 1.652 1942
7.031 2.507 1.609 1477
7.511 2.679 1.686 2418
7.803 2.783 1.747 1542
7.042 2.512 1.589 1223
7.650 2.728 1.715 1156
7.822 2.790 1.726 2735
7.647 2.727 1.690 2711
7.412 2.644 1.642 1410
7.658 2.731 1.668 3320
7.812 2.786 1.699 2898
7.860 2.803 1.683 3853
7.640 2.725 1.640 2253
7.872 2.807 1.661 5334
7.732 2.758 1.633 1732
7.593 2.708 1.606 763
7.883 2.811 1.638 4271
7.648 2.728 1.593 1093
8.448 3.013 1.746 886
7.902 2.818 1.616 3268
8.636 3.080 1.754 1037
8.445 3.012 1.718 1010
7.906 2.820 1.592 3828
8.450 3.013 1.692 1219
8.641 3.082 1.728 1194
8.780 3.131 1.754 1005
7.895 2.816 1.565 5423
8.630 3.078 1.698 1751
9.093 3.243 1.783 1438
8.814 3.143 1.732 1371
7.899 2.817 1.540 5907
8.642 3.082 1.673 2229
9.090 3.242 1.753 2005
8.826 3.148 1.706 1159
7.910 2.821 1.517 3808
9.095 3.244 1.725 2694
8.661 3.089 1.649 1764
8.889 3.170 1.689 997
9.099 3.245 1.697 3335
7.907 2.820 1.492 1967
8.687 3.098 1.626 1592
8.547 3.048 1.602 1333
9.111 3.249 1.670 4127
8.676 3.094 1.597 1439
7.896 2.816 1.465 1372
8.536 3.044 1.573 1069
9.115 3.251 1.642 3978
9.447 3.369 1.697 1295
8.688 3.098 1.571 1200
8.916 3.180 1.609 931
9.119 3.252 1.614 2966
9.650 3.441 1.700 1050
9.443 3.368 1.667 1040
9.827 3.505 1.729 848
9.123 3.254 1.586 2268
9.647 3.440 1.670 1151
9.433 3.364 1.635 859
9.824 3.503 1.698 841
9.127 3.255 1.558 1583
9.909 3.534 1.680 1147
9.643 3.439 1.639 1002
10.344 3.689 1.748 806
9.921 3.538 1.651 1800
10.452 3.728 1.732 855
10.223 3.646 1.697 803
9.640 3.438 1.608 802
9.932 3.542 1.621 1860
10.456 3.729 1.700 927
10.242 3.653 1.668 911
9.944 3.546 1.592 1232
10.453 3.728 1.667 982
10.859 3.873 1.726 950
10.239 3.652 1.635 945
10.871 3.877 1.694 1423
10.465 3.732 1.635 1099
11.071 3.948 1.722 920
10.642 3.795 1.661 859
10.875 3.879 1.660 1472
11.408 4.068 1.735 1109
10.476 3.736 1.604 963
11.075 3.950 1.688 931
11.412 4.070 1.700 1091
10.931 3.899 1.634 1068
11.257 4.015 1.678 844
11.087 3.954 1.655 820
10.935 3.900 1.600 1351
11.956 4.264 1.737 1076
11.446 4.082 1.669 1037
11.793 4.206 1.715 949
11.968 4.268 1.701 1357
10.932 3.899 1.565 1272
11.450 4.083 1.633 1198
11.805 4.210 1.680 1109
11.980 4.272 1.665 1293
11.113 3.963 1.554 1200
11.809 4.212 1.643 1190
11.447 4.082 1.597 1156
11.806 4.210 1.606 1083
11.976 4.271 1.627 991
11.443 4.081 1.561 926
12.954 4.620 1.749 904
12.951 4.619 1.708 1519
12.151 4.333 1.611 1067
12.647 4.510 1.671 979
12.948 4.618 1.667 1703
12.155 4.335 1.573 1157
12.644 4.509 1.631 919
12.952 4.619 1.627 1242
12.173 4.342 1.538 754
2.177 0.766 1.754 6002
2.182 0.767 1.748 12005
2.066 0.726 1.660 1019
2.186 0.769 1.741 12005
2.070 0.728 1.654 1019
2.357 0.829 1.869 972
2.191 0.770 1.734 17629
2.356 0.828 1.857 1928
2.195 0.772 1.728 23253
2.360 0.830 1.850 2906
1.975 0.694 1.564 833
2.199 0.773 1.721 22101
2.365 0.831 1.843 3870
2.210 0.777 1.719 21286
2.376 0.835 1.841 4913
2.214 0.778 1.712 21286
2.380 0.837 1.833 5049
2.219 0.780 1.706 15377
2.391 0.841 1.831 5124
2.210 0.777 1.690 9913
2.396 0.842 1.823 5229
2.221 0.781 1.688 7894
2.401 0.844 1.816 4909
2.231 0.785 1.685 6158
2.411 0.848 1.813 4753
2.416 0.849 1.806 4579
2.248 0.790 1.687 4433
2.414 0.849 1.794 4476
2.265 0.796 1.689 3408
2.533 0.890 1.877 836
2.419 0.850 1.787 4476
2.269 0.798 1.683 2403
2.537 0.892 1.870 1066
2.423 0.852 1.780 5162
2.542 0.894 1.862 2453
2.261 0.795 1.667 1487
2.422 0.851 1.768 5848
2.541 0.893 1.850 3847
2.265 0.796 1.660 1484
2.426 0.853 1.761 5282
2.552 0.897 1.846 4973
2.269 0.798 1.653 1327
2.563 0.901 1.843 6330
2.443 0.859 1.762 4844
2.273 0.799 1.646 1173
2.567 0.903 1.835 5562
2.448 0.861 1.754 3573
2.277 0.801 1.640 1062
2.566 0.902 1.823 4825
2.446 0.860 1.743 2003
2.282 0.802 1.633 950
2.558 0.899 1.807 5775
2.437 0.857 1.727 1174
2.550 0.896 1.791 7225
2.554 0.898 1.783 7146
2.675 0.940 1.862 809
2.559 0.900 1.775 7067
2.699 0.949 1.867 1033
2.557 0.899 1.763 5703
2.678 0.941 1.842 2065
2.555 0.898 1.751 4517
2.676 0.941 1.830 3147
2.585 0.909 1.760 4242
2.706 0.951 1.838 2651
2.602 0.915 1.760 5036
2.724 0.958 1.838 1928
2.619 0.921 1.761 5519
2.741 0.964 1.838 2311
2.630 0.925 1.757 6655
2.752 0.968 1.833 2716
2.648 0.931 1.757 6428
2.770 0.974 1.833 2829
2.671 0.939 1.761 7867
2.794 0.982 1.837 1723
2.689 0.945 1.761 7187
2.811 0.988 1.836 1236
2.700 0.949 1.756 6885
2.823 0.992 1.831 1293
2.704 0.951 1.748 6661
2.827 0.994 1.823 2238
2.741 0.964 1.759 5986
2.864 1.007 1.834 1809
2.745 0.965 1.751 6220
2.869 1.009 1.825 2347
2.841 0.999 1.797 5053
2.717 0.955 1.723 3199
2.839 0.998 1.785 6755
2.715 0.955 1.711 1960
2.844 1.000 1.776 6850
2.719 0.956 1.703 1416
2.848 1.001 1.767 6946
2.724 0.958 1.695 872
2.853 1.003 1.759 5630
2.977 1.047 1.831 863
2.857 1.004 1.750 4816
2.982 1.048 1.822 1126
2.848 1.001 1.734 5636
2.973 1.045 1.805 2171
2.932 1.031 1.770 6091
2.807 0.987 1.699 1674
3.057 1.075 1.841 1289
2.943 1.035 1.765 7531
2.817 0.991 1.694 1808
3.068 1.079 1.835 1371
2.961 1.041 1.763 6402
2.835 0.997 1.693 1926
3.086 1.085 1.833 1544
3.018 1.061 1.783 6999
2.892 1.017 1.714 2015
3.144 1.105 1.853 908
3.036 1.067 1.782 6485
2.910 1.023 1.712 2247
3.162 1.112 1.851 1001
3.040 1.069 1.772 6359
2.914 1.025 1.703 1493
3.166 1.113 1.841 1280
3.045 1.070 1.763 6234
3.171 1.115 1.832 1263
3.056 1.074 1.757 4407
3.182 1.119 1.826 1247
3.094 1.088 1.766 3848
3.220 1.132 1.834 1173
2.967 1.043 1.698 1132
3.098 1.089 1.757 4015
3.225 1.134 1.824 1679
2.971 1.045 1.689 865
3.102 1.091 1.747 5159
3.230 1.135 1.814 2011
2.975 1.046 1.680 946
3.187 1.121 1.780 8581
3.060 1.076 1.713 2145
3.192 1.122 1.770 11045
3.064 1.077 1.704 1874
3.190 1.121 1.757 11304
3.062 1.077 1.691 1350
3.317 1.166 1.823 758
3.201 1.125 1.751 9998
3.073 1.080 1.685 1252
3.328 1.170 1.816 1034
3.225 1.134 1.751 9319
3.097 1.089 1.686 1183
3.353 1.179 1.816 802
3.189 1.121 1.721 9591
3.317 1.166 1.785 1523
3.241 1.139 1.735 10926
3.369 1.185 1.799 1180
3.113 1.094 1.671 947
3.252 1.143 1.728 14148
3.381 1.189 1.792 1713
3.256 1.145 1.718 13331
3.385 1.190 1.782 1833
3.268 1.149 1.712 10806
3.396 1.194 1.775 2320
3.272 1.150 1.702 6864
3.401 1.196 1.764 3683
3.378 1.188 1.741 4449
3.249 1.142 1.679 3866
3.376 1.187 1.727 5743
3.246 1.141 1.666 2649
3.387 1.191 1.720 6967
3.257 1.145 1.659 2326
3.516 1.236 1.782 765
3.391 1.192 1.710 7958
3.262 1.147 1.649 2039
3.521 1.238 1.771 1051
3.478 1.223 1.738 6901
3.348 1.177 1.677 2559
3.489 1.227 1.731 6280
3.359 1.181 1.670 2213
3.500 1.231 1.723 5020
3.370 1.185 1.663 1615
3.504 1.232 1.712 4229
3.367 1.184 1.650 1439
3.669 1.290 1.787 802
3.516 1.236 1.705 3151
3.667 1.289 1.773 1841
3.385 1.190 1.646 1301
3.506 1.233 1.688 6102
3.685 1.296 1.768 3226
3.503 1.232 1.674 11949
3.648 1.283 1.738 4789
3.779 1.329 1.797 818
3.508 1.233 1.663 12102
3.653 1.284 1.727 6066
3.784 1.330 1.785 1727
3.519 1.237 1.656 7919
3.754 1.320 1.758 3980
3.537 1.243 1.651 5124
3.758 1.321 1.747 4448
3.728 1.311 1.721 5829
3.548 1.247 1.643 4045
3.859 1.357 1.777 1504
3.753 1.319 1.718 7749
3.552 1.249 1.632 3081
3.885 1.366 1.774 1523
3.764 1.323 1.710 8261
3.896 1.370 1.765 2356
3.570 1.255 1.627 1773
3.775 1.327 1.701 5864
3.907 1.374 1.756 3750
3.588 1.261 1.622 837
3.787 1.331 1.692 4196
3.919 1.378 1.747 4151
3.930 1.382 1.738 4728
3.798 1.335 1.684 4427
3.941 1.386 1.729 6193
3.795 1.334 1.669 3673
3.974 1.397 1.728 5455
3.834 1.348 1.672 2668
4.034 1.418 1.739 4515
3.845 1.352 1.663 2825
4.045 1.422 1.729 5327
3.913 1.376 1.676 3416
4.050 1.424 1.717 4399
3.917 1.377 1.664 3298
4.005 1.408 1.685 3997
4.138 1.455 1.737 2493
4.164 1.464 1.733 4055
4.016 1.412 1.676 3555
4.154 1.460 1.715 5786
4.020 1.414 1.663 2165
4.151 1.459 1.699 6227
4.285 1.506 1.750 1134
4.018 1.413 1.648 1100
4.212 1.481 1.708 4242
4.078 1.434 1.657 2638
4.216 1.482 1.695 6192
4.082 1.435 1.645 1778
4.350 1.529 1.745 1632
4.220 1.484 1.682 6300
4.354 1.531 1.732 2111
4.086 1.437 1.632 902
4.232 1.488 1.672 4568
4.366 1.535 1.721 2302
4.098 1.441 1.623 828
4.328 1.522 1.692 5138
4.193 1.474 1.643 2846
4.332 1.523 1.679 5937
4.198 1.476 1.631 2149
4.516 1.588 1.745 782
4.343 1.527 1.668 4050
4.520 1.589 1.731 1305
4.209 1.480 1.620 842
4.425 1.556 1.682 4746
4.291 1.509 1.635 1912
4.560 1.603 1.730 1755
4.415 1.552 1.664 4333
4.557 1.602 1.713 2774
4.281 1.505 1.617 1038
4.420 1.554 1.650 3370
4.597 1.616 1.712 2806
4.609 1.620 1.700 3385
4.417 1.553 1.634 2760
4.634 1.629 1.693 5064
4.428 1.557 1.623 2208
4.646 1.633 1.682 6929
4.460 1.568 1.619 1541
4.809 1.691 1.737 791
4.657 1.637 1.670 5550
4.521 1.590 1.625 1252
4.814 1.692 1.722 787
4.647 1.634 1.651 4126
4.782 1.681 1.695 1167
4.644 1.633 1.634 4678
4.779 1.680 1.678 1987
4.669 1.642 1.627 3992
4.805 1.689 1.671 2443
4.831 1.698 1.663 4823
4.695 1.651 1.619 3610
4.828 1.697 1.646 8586
4.692 1.650 1.603 2057
4.832 1.699 1.631 10630
5.018 1.764 1.689 991
4.836 1.700 1.616 10841
5.022 1.766 1.674 1683
4.833 1.699 1.599 11428
5.019 1.765 1.656 3008
4.830 1.698 1.582 11686
5.031 1.769 1.643 4069
5.289 1.860 1.721 815
4.826 1.697 1.565 10464
5.035 1.770 1.627 4031
5.294 1.861 1.705 1423
4.823 1.696 1.548 9905
5.298 1.863 1.689 4078
5.039 1.772 1.612 3784
4.834 1.700 1.536 6442
5.309 1.867 1.674 6147
5.043 1.773 1.597 3139
5.321 1.871 1.660 5222
4.845 1.703 1.523 2992
5.047 1.774 1.581 2539
5.184 1.823 1.621 1459
5.332 1.875 1.646 5040
5.051 1.776 1.566 1821
4.849 1.705 1.508 1748
5.188 1.824 1.605 1147
5.336 1.876 1.630 7836
5.156 1.813 1.579 1444
4.889 1.719 1.503 964
5.474 1.924 1.668 867
5.340 1.878 1.613 9515
5.478 1.926 1.652 1210
5.160 1.814 1.563 902
5.337 1.876 1.595 12030
5.496 1.932 1.639 1462
5.356 1.883 1.582 13144
5.775 2.030 1.697 1209
5.493 1.931 1.620 1180
5.631 1.980 1.657 850
5.367 1.887 1.568 12536
5.504 1.935 1.605 2059
5.772 2.029 1.677 1528
5.356 1.883 1.548 10070
5.501 1.934 1.586 3767
5.856 2.059 1.680 1508
5.994 2.107 1.717 844
5.353 1.882 1.529 5513
5.505 1.935 1.569 2810
5.831 2.050 1.655 2556
6.005 2.111 1.701 1113
5.828 2.049 1.635 4003
5.357 1.883 1.513 3282
5.988 2.105 1.676 2075
5.516 1.939 1.554 1697
5.825 2.048 1.615 4033
5.992 2.107 1.658 2206
5.368 1.887 1.498 2051
6.283 2.209 1.732 1583
6.018 2.116 1.645 2370
5.836 2.052 1.599 2260
6.192 2.177 1.689 2154
6.331 2.226 1.724 1237
6.008 2.112 1.623 2580
6.313 2.220 1.699 2173
6.146 2.161 1.657 1954
5.870 2.064 1.589 1434
6.397 2.249 1.699 2590
6.143 2.160 1.637 1504
5.983 2.103 1.597 1454
6.536 2.298 1.733 1005
6.387 2.246 1.676 2524
6.220 2.187 1.636 1355
6.525 2.294 1.710 1303
5.899 2.074 1.558 826
6.369 2.239 1.651 2245
6.216 2.186 1.615 1235
6.508 2.288 1.685 1130
6.668 2.344 1.723 987
6.446 2.266 1.649 2297
6.680 2.348 1.704 2019
6.308 2.218 1.616 1962
6.691 2.353 1.685 2532
6.451 2.268 1.629 1803
6.312 2.219 1.597 1339
6.623 2.328 1.648 2907
6.805 2.392 1.690 2041
6.484 2.280 1.616 1783
6.627 2.330 1.628 2374
6.817 2.397 1.671 1635
6.488 2.281 1.596 1593
6.992 2.458 1.710 1096
6.989 2.457 1.687 1926
6.616 2.326 1.604 1835
6.477 2.277 1.573 1019
6.850 2.408 1.656 959
6.986 2.456 1.664 1907
6.613 2.325 1.582 1306
7.234 2.543 1.719 960
6.847 2.407 1.634 827
7.239 2.545 1.697 1811
7.027 2.470 1.651 1528
6.888 2.421 1.621 1151
7.378 2.594 1.727 913
7.243 2.546 1.674 1979
7.038 2.474 1.631 1572
7.404 2.603 1.709 1304
7.609 2.675 1.753 841
7.518 2.643 1.709 2381
7.042 2.476 1.609 1356
7.247 2.548 1.652 1217
7.523 2.645 1.686 2354
7.823 2.750 1.748 1827
7.383 2.596 1.657 1091
7.662 2.694 1.715 1041
7.835 2.755 1.726 3134
7.659 2.693 1.690 2428
7.512 2.641 1.660 1425
7.255 2.551 1.608 917
7.868 2.766 1.708 3211
7.663 2.694 1.666 3158
7.509 2.640 1.635 1032
7.873 2.768 1.683 3816
7.653 2.690 1.640 2244
7.877 2.769 1.659 5151
7.737 2.720 1.632 1566
7.888 2.773 1.636 4862
7.749 2.724 1.610 1103
8.462 2.975 1.746 906
7.922 2.785 1.618 3751
8.326 2.927 1.694 1166
8.466 2.977 1.720 1071
8.650 3.041 1.754 906
7.911 2.781 1.590 3637
8.647 3.040 1.726 1242
9.096 3.198 1.809 1213
8.463 2.975 1.692 1204
7.908 2.780 1.565 5190
8.644 3.039 1.698 1846
9.100 3.200 1.781 1738
8.828 3.104 1.732 1275
7.912 2.782 1.540 5799
9.105 3.201 1.753 2472
8.648 3.041 1.672 2180
8.840 3.108 1.706 1062
7.923 2.786 1.517 3752
9.109 3.203 1.725 3509
8.667 3.047 1.648 1696
8.910 3.133 1.690 868
9.114 3.204 1.697 4386
7.919 2.784 1.492 1917
8.701 3.059 1.626 1493
9.298 3.269 1.729 1172
9.118 3.206 1.669 5069
8.690 3.055 1.597 1699
7.916 2.783 1.466 1325
9.302 3.270 1.700 997
9.130 3.210 1.642 4771
8.702 3.059 1.571 1552
9.454 3.324 1.696 967
8.938 3.142 1.610 948
9.134 3.211 1.614 3613
9.658 3.395 1.699 1132
9.444 3.320 1.665 894
8.927 3.138 1.581 768
9.138 3.213 1.586 2831
9.655 3.394 1.668 1246
9.448 3.322 1.635 804
9.142 3.214 1.558 2061
9.651 3.393 1.637 980
10.265 3.609 1.733 957
9.932 3.492 1.681 918
9.936 3.493 1.651 1661
10.276 3.613 1.703 1218
9.138 3.213 1.529 1095
9.766 3.434 1.625 980
9.948 3.497 1.621 1732
10.259 3.607 1.668 1286
10.480 3.685 1.701 927
10.255 3.606 1.635 1389
9.959 3.501 1.592 1182
10.973 3.858 1.740 900
10.559 3.712 1.680 875
10.888 3.828 1.694 1327
10.252 3.604 1.602 1126
11.088 3.898 1.722 1016
10.481 3.685 1.635 984
10.900 3.832 1.661 1423
11.426 4.017 1.735 1048
10.485 3.686 1.603 973
11.078 3.895 1.686 968
10.926 3.841 1.631 1194
11.423 4.016 1.699 1055
11.275 3.964 1.678 773
11.104 3.904 1.655 753
10.945 3.848 1.599 1384
11.975 4.210 1.737 1013
11.101 3.903 1.620 832
11.457 4.028 1.668 784
10.942 3.847 1.564 1412
11.987 4.214 1.701 1228
11.120 3.909 1.588 1023
11.831 4.160 1.681 888
11.999 4.218 1.665 1137
11.131 3.913 1.554 1109
11.828 4.158 1.643 1042
10.946 3.848 1.531 996
11.817 4.155 1.605 1038
12.975 4.562 1.749 859
11.995 4.217 1.627 838
11.128 3.912 1.519 785
12.971 4.560 1.708 1496
12.170 4.279 1.611 1005
12.667 4.454 1.671 923
12.976 4.562 1.668 1761
12.174 4.280 1.573 1079
12.619 4.437 1.626 923
12.972 4.561 1.627 1294
12.609 4.433 1.586 752
2.180 0.759 1.754 6171
2.178 0.759 1.743 12342
2.056 0.716 1.651 1080
2.182 0.760 1.736 12342
2.353 0.820 1.865 1130
2.060 0.718 1.645 1080
2.193 0.764 1.734 17661
2.358 0.821 1.857 2269
2.197 0.765 1.728 22979
2.363 0.823 1.850 3408
1.977 0.689 1.564 789
2.208 0.769 1.726 21642
2.367 0.825 1.843 4255
2.212 0.771 1.719 20661
2.378 0.828 1.841 5154
2.216 0.772 1.712 20661
2.383 0.830 1.833 5271
2.221 0.774 1.706 14792
2.388 0.832 1.826 4968
2.225 0.775 1.699 8923
2.398 0.835 1.823 4729
2.229 0.777 1.692 6930
2.403 0.837 1.816 4963
2.414 0.841 1.813 5233
2.246 0.782 1.694 5001
2.412 0.840 1.802 5226
2.263 0.788 1.696 3824
2.417 0.842 1.794 5255
2.273 0.792 1.694 2896
2.535 0.883 1.877 1031
2.421 0.843 1.787 5255
2.271 0.791 1.683 1978
2.540 0.885 1.870 1360
2.426 0.845 1.780 5368
2.545 0.886 1.862 2574
2.269 0.790 1.671 1118
2.424 0.844 1.768 5492
2.550 0.888 1.854 3794
2.267 0.790 1.660 1102
2.554 0.890 1.846 5217
2.429 0.846 1.761 4679
2.271 0.791 1.653 1057
2.565 0.894 1.843 6695
2.446 0.852 1.762 3983
2.269 0.790 1.642 1005
2.564 0.893 1.831 6016
2.444 0.851 1.750 2803
2.280 0.794 1.640 948
2.562 0.892 1.819 5437
2.442 0.851 1.738 1300
2.284 0.796 1.633 899
2.560 0.892 1.807 6428
2.440 0.850 1.727 857
2.559 0.891 1.795 7648
2.563 0.893 1.787 6989
2.684 0.935 1.866 770
2.568 0.894 1.779 6330
2.689 0.936 1.858 944
2.572 0.896 1.772 5273
2.693 0.938 1.850 1732
2.577 0.897 1.764 4216
2.698 0.940 1.842 2521
2.587 0.901 1.760 4689
2.709 0.944 1.838 2269
2.598 0.905 1.756 5451
2.720 0.947 1.834 1907
2.622 0.913 1.761 5991
2.744 0.956 1.838 2317
2.639 0.919 1.761 7698
2.762 0.962 1.837 2476
2.650 0.923 1.757 7604
2.773 0.966 1.833 3265
2.674 0.931 1.761 8754
2.797 0.974 1.837 2019
2.685 0.935 1.757 7815
2.808 0.978 1.832 1793
2.696 0.939 1.752 7403
2.819 0.982 1.827 1703
2.707 0.943 1.748 6717
2.830 0.986 1.823 2633
2.750 0.958 1.763 6082
2.874 1.001 1.838 1836
2.755 0.960 1.755 6352
2.878 1.003 1.829 2364
2.837 0.988 1.793 5401
2.714 0.945 1.720 2501
2.829 0.985 1.777 7519
2.705 0.942 1.704 1076
2.953 1.029 1.850 1007
2.833 0.987 1.768 7341
2.958 1.030 1.841 1014
2.709 0.944 1.695 937
2.844 0.991 1.763 7187
2.720 0.947 1.691 997
2.982 1.039 1.844 947
2.856 0.995 1.759 5948
2.980 1.038 1.831 1177
2.731 0.951 1.687 761
2.899 1.010 1.773 5560
3.024 1.053 1.844 757
2.904 1.011 1.764 6298
3.029 1.055 1.835 1105
2.935 1.022 1.770 7391
2.809 0.979 1.699 1547
3.060 1.066 1.841 990
2.946 1.026 1.765 8403
2.820 0.982 1.694 1640
3.071 1.070 1.835 1044
2.957 1.030 1.759 6762
3.083 1.074 1.830 1776
2.831 0.986 1.689 1389
3.014 1.050 1.780 6723
2.888 1.006 1.710 1984
3.140 1.094 1.850 1043
3.026 1.054 1.774 5884
2.899 1.010 1.705 1888
3.152 1.098 1.844 1295
3.050 1.062 1.776 6198
2.924 1.018 1.707 2141
3.176 1.106 1.845 1075
3.061 1.066 1.770 6732
2.935 1.022 1.702 1120
3.188 1.110 1.839 1016
3.079 1.072 1.768 5695
3.206 1.117 1.836 1096
2.952 1.028 1.700 1042
3.097 1.079 1.766 4541
3.224 1.123 1.834 1353
2.970 1.034 1.698 1223
3.101 1.080 1.757 3986
3.228 1.124 1.824 1827
2.974 1.036 1.689 889
3.106 1.082 1.747 5065
3.233 1.126 1.814 2143
2.978 1.037 1.680 913
3.191 1.111 1.780 8161
3.063 1.067 1.713 2146
3.195 1.113 1.770 10494
3.067 1.068 1.704 1702
3.200 1.114 1.760 11642
3.072 1.070 1.694 1613
3.217 1.121 1.757 11276
3.090 1.076 1.692 1901
3.235 1.127 1.754 10177
3.107 1.082 1.689 1853
3.240 1.128 1.745 8523
3.112 1.084 1.680 1733
3.251 1.132 1.738 11083
3.123 1.088 1.674 1415
3.379 1.177 1.802 1142
3.255 1.134 1.728 14105
3.384 1.179 1.792 1804
3.260 1.135 1.718 13362
3.389 1.180 1.782 1902
3.271 1.139 1.712 11285
3.400 1.184 1.775 2175
3.275 1.141 1.702 7383
3.404 1.186 1.764 3266
3.279 1.142 1.692 4790
3.409 1.187 1.754 3700
3.284 1.144 1.682 4393
3.413 1.189 1.744 3433
3.397 1.183 1.724 5769
3.268 1.138 1.662 2964
3.402 1.185 1.713 7225
3.272 1.140 1.652 2501
3.481 1.213 1.738 6466
3.351 1.167 1.677 2445
3.492 1.216 1.731 6336
3.362 1.171 1.670 2189
3.504 1.220 1.723 5327
3.373 1.175 1.663 1607
3.634 1.266 1.783 802
3.508 1.222 1.712 4185
3.377 1.176 1.653 1518
3.680 1.282 1.791 1092
3.450 1.202 1.674 3328
3.670 1.278 1.773 1981
3.510 1.222 1.688 5679
3.689 1.285 1.768 2919
3.379 1.177 1.629 763
3.507 1.222 1.674 11306
3.652 1.272 1.738 4108
3.783 1.318 1.797 974
3.511 1.223 1.663 11576
3.656 1.274 1.727 5424
3.787 1.319 1.785 1687
3.522 1.227 1.656 7333
3.667 1.277 1.719 3432
3.799 1.323 1.777 2068
3.540 1.233 1.651 4371
3.762 1.310 1.747 3821
3.893 1.356 1.804 842
3.732 1.300 1.721 5463
3.551 1.237 1.643 3320
3.877 1.350 1.783 2067
3.764 1.311 1.721 7590
3.556 1.238 1.632 2512
3.895 1.357 1.777 2411
3.782 1.317 1.715 8627
3.914 1.363 1.771 2889
3.567 1.242 1.624 1489
3.786 1.319 1.704 6100
3.918 1.365 1.759 4586
3.654 1.273 1.649 925
3.916 1.364 1.744 6127
3.784 1.318 1.689 4646
3.927 1.368 1.735 6725
3.795 1.322 1.681 4774
3.925 1.367 1.721 7952
3.792 1.321 1.666 3478
4.057 1.413 1.775 1310
3.922 1.366 1.706 6478
4.055 1.412 1.759 2776
3.789 1.320 1.652 1948
4.038 1.407 1.739 4544
3.905 1.360 1.685 2943
3.772 1.314 1.632 933
4.049 1.410 1.729 5319
3.917 1.364 1.676 3228
4.075 1.419 1.725 5114
3.942 1.373 1.673 4163
4.086 1.423 1.715 5292
3.953 1.377 1.663 2942
4.219 1.470 1.767 839
4.091 1.425 1.703 4198
4.224 1.471 1.755 1464
3.957 1.378 1.651 1139
4.158 1.448 1.715 6336
4.025 1.402 1.663 2046
4.155 1.447 1.699 7208
4.022 1.401 1.648 1084
4.289 1.494 1.750 914
4.117 1.434 1.671 5629
4.251 1.481 1.721 2185
4.213 1.468 1.692 4890
4.079 1.421 1.642 1892
4.347 1.514 1.742 1493
4.218 1.469 1.679 5562
4.352 1.516 1.729 2012
4.083 1.422 1.630 1281
4.229 1.473 1.669 4161
4.363 1.520 1.718 2057
4.095 1.426 1.620 1515
4.332 1.509 1.692 4517
4.198 1.462 1.643 3779
4.343 1.513 1.681 5338
4.209 1.466 1.633 2622
4.527 1.577 1.748 870
4.333 1.509 1.663 4190
4.468 1.556 1.711 1575
4.430 1.543 1.682 4314
4.295 1.496 1.635 2417
4.565 1.590 1.730 2051
4.420 1.540 1.664 3947
4.562 1.589 1.713 3063
4.285 1.493 1.617 1157
4.417 1.539 1.648 3268
4.595 1.600 1.709 2813
4.620 1.609 1.703 3018
4.435 1.545 1.639 3001
4.300 1.498 1.593 891
4.639 1.616 1.693 4716
4.439 1.546 1.626 2342
4.650 1.620 1.682 6191
4.465 1.555 1.619 1537
4.814 1.677 1.737 950
4.330 1.508 1.574 841
4.662 1.624 1.670 4804
4.448 1.549 1.599 1251
4.811 1.676 1.719 866
4.659 1.623 1.653 3603
4.794 1.670 1.698 1006
4.523 1.575 1.608 782
4.649 1.619 1.634 4358
4.784 1.666 1.678 1803
4.667 1.626 1.625 3761
4.817 1.678 1.673 2287
4.836 1.684 1.663 5029
4.700 1.637 1.619 3211
4.833 1.683 1.646 8380
4.697 1.636 1.603 2054
4.998 1.741 1.698 884
4.837 1.685 1.631 9292
5.023 1.750 1.689 1486
4.701 1.637 1.588 930
4.841 1.686 1.616 9298
5.028 1.751 1.674 2494
4.838 1.685 1.599 10065
5.025 1.750 1.656 4278
4.835 1.684 1.582 10321
5.036 1.754 1.643 5644
5.173 1.802 1.684 822
4.831 1.683 1.565 7615
5.040 1.756 1.627 5424
5.285 1.841 1.700 1610
4.828 1.682 1.548 6409
5.044 1.757 1.612 4769
5.296 1.845 1.686 3794
5.308 1.849 1.672 5401
4.839 1.686 1.536 4334
5.048 1.758 1.597 3724
5.312 1.850 1.656 4825
5.052 1.760 1.581 3104
4.857 1.692 1.525 1531
5.338 1.859 1.646 3762
5.056 1.761 1.566 2565
5.193 1.809 1.605 1581
4.883 1.701 1.516 880
5.349 1.863 1.632 5264
5.060 1.762 1.550 1545
5.197 1.810 1.589 1141
5.486 1.911 1.670 955
5.346 1.862 1.613 7291
5.483 1.910 1.652 1362
5.209 1.814 1.575 857
5.642 1.965 1.696 822
5.335 1.858 1.593 11241
5.502 1.916 1.639 1082
5.661 1.972 1.682 811
5.354 1.865 1.580 12797
5.781 2.014 1.697 1508
5.644 1.966 1.659 1481
5.506 1.918 1.622 877
5.365 1.869 1.566 12575
5.785 2.015 1.679 1922
5.648 1.967 1.642 1694
5.510 1.919 1.605 1252
5.362 1.868 1.548 8635
5.869 2.044 1.682 2720
5.514 1.921 1.588 1757
5.659 1.971 1.627 1557
5.358 1.866 1.529 3646
5.866 2.043 1.662 2978
5.518 1.922 1.571 1652
5.663 1.973 1.609 1363
5.827 2.030 1.633 4084
5.348 1.863 1.509 2052
5.987 2.085 1.675 2010
5.522 1.923 1.554 1454
5.831 2.031 1.615 4247
6.035 2.102 1.667 2013
6.289 2.191 1.732 1655
5.373 1.872 1.498 1424
6.032 2.101 1.647 2555
6.192 2.157 1.687 2407
5.835 2.032 1.597 2211
6.330 2.205 1.722 1291
6.014 2.095 1.623 2485
6.152 2.143 1.657 2303
6.290 2.191 1.692 1955
6.429 2.239 1.726 1396
6.404 2.231 1.699 2542
6.142 2.139 1.635 1680
6.003 2.091 1.601 1301
6.542 2.279 1.733 987
6.408 2.232 1.680 2422
6.547 2.280 1.713 1232
6.226 2.169 1.636 915
5.905 2.057 1.558 760
6.420 2.236 1.662 2143
6.558 2.284 1.695 1238
6.281 2.188 1.629 1038
6.329 2.204 1.620 2436
6.468 2.253 1.653 1693
6.687 2.329 1.704 1318
6.190 2.156 1.587 939
6.610 2.303 1.665 2296
6.443 2.244 1.626 1593
6.304 2.196 1.594 1162
6.800 2.369 1.709 889
6.629 2.309 1.648 2853
6.812 2.373 1.690 1661
6.490 2.261 1.616 1508
6.633 2.311 1.628 2244
6.831 2.379 1.672 1580
6.494 2.262 1.596 1380
6.992 2.435 1.709 1191
6.996 2.437 1.687 1947
6.623 2.307 1.604 1725
6.857 2.388 1.656 1026
6.484 2.258 1.573 808
7.008 2.441 1.667 1951
6.868 2.392 1.637 1336
6.620 2.306 1.582 1187
7.234 2.520 1.717 927
7.239 2.521 1.695 1810
7.034 2.450 1.651 1724
6.895 2.401 1.621 1439
7.378 2.570 1.725 868
7.243 2.523 1.673 2084
7.045 2.454 1.631 1838
7.404 2.579 1.707 1177
7.631 2.658 1.756 917
7.526 2.621 1.709 2020
7.049 2.455 1.609 1436
7.247 2.524 1.651 1423
7.387 2.573 1.680 976
7.846 2.733 1.751 2305
7.530 2.623 1.686 1953
7.251 2.526 1.628 1401
7.391 2.574 1.657 1003
7.850 2.734 1.727 3703
7.667 2.670 1.690 2053
7.512 2.617 1.658 1453
7.255 2.527 1.606 1308
7.869 2.741 1.706 3867
7.663 2.669 1.665 2914
7.517 2.618 1.635 1302
7.267 2.531 1.585 769
7.873 2.742 1.682 3740
7.660 2.668 1.640 2188
7.506 2.614 1.609 860
7.885 2.746 1.659 4496
7.745 2.698 1.632 1517
7.897 2.750 1.636 5018
7.757 2.702 1.610 1181
8.331 2.902 1.719 947
8.470 2.950 1.746 801
7.901 2.752 1.612 3843
8.335 2.903 1.694 1575
8.475 2.952 1.720 1059
7.905 2.753 1.588 3091
9.105 3.171 1.809 1261
8.339 2.905 1.668 1232
8.656 3.015 1.726 1157
7.916 2.757 1.565 4434
9.110 3.173 1.781 1843
8.660 3.016 1.700 1777
8.447 2.942 1.661 1257
7.920 2.759 1.540 5168
9.114 3.175 1.753 2745
8.664 3.018 1.673 1867
8.399 2.926 1.626 1133
9.119 3.176 1.725 3912
7.931 2.763 1.517 3289
8.602 2.996 1.635 1533
8.757 3.050 1.662 1123
9.123 3.178 1.697 4747
7.927 2.761 1.492 1646
9.307 3.242 1.729 1364
8.680 3.023 1.621 1322
9.127 3.179 1.669 5191
8.706 3.033 1.598 1834
9.319 3.246 1.701 1333
7.931 2.763 1.467 1175
9.131 3.181 1.641 4777
8.710 3.034 1.571 1794
9.419 3.281 1.689 897
9.752 3.397 1.744 804
9.143 3.185 1.614 3668
9.653 3.362 1.697 1137
9.372 3.264 1.651 986
8.707 3.033 1.543 965
9.147 3.186 1.586 2956
9.657 3.364 1.667 1468
9.361 3.261 1.620 778
9.143 3.185 1.557 2205
10.275 3.579 1.733 1146
9.669 3.368 1.639 1139
9.957 3.468 1.684 791
9.947 3.465 1.651 1427
10.279 3.581 1.702 1408
9.776 3.405 1.625 1258
9.147 3.186 1.529 1182
10.269 3.577 1.668 1599
9.951 3.466 1.620 1490
9.788 3.409 1.596 894
10.498 3.657 1.702 846
10.266 3.576 1.635 1798
10.991 3.828 1.741 1045
9.962 3.470 1.591 1021
10.118 3.524 1.613 959
10.262 3.575 1.602 1340
10.914 3.802 1.696 1287
10.685 3.722 1.663 1091
11.092 3.864 1.721 1056
10.919 3.803 1.662 1385
10.696 3.726 1.631 1058
11.082 3.860 1.685 942
11.437 3.984 1.735 912
10.938 3.810 1.631 1270
11.434 3.983 1.699 971
10.708 3.730 1.599 765
11.286 3.931 1.678 757
10.949 3.814 1.598 1415
11.980 4.173 1.736 824
11.305 3.938 1.646 775
11.090 3.863 1.617 764
10.953 3.815 1.564 1474
11.992 4.177 1.700 922
11.317 3.942 1.612 876
11.599 4.040 1.649 784
10.949 3.814 1.530 1104
11.840 4.124 1.643 904
12.003 4.181 1.664 820
11.142 3.881 1.554 770
11.822 4.118 1.604 1089
12.423 4.327 1.679 771
12.985 4.523 1.708 1270
12.175 4.241 1.610 935
11.811 4.114 1.566 894
12.680 4.417 1.671 770
12.989 4.524 1.668 1582
12.625 4.397 1.625 910
12.187 4.245 1.573 891
13.576 4.729 1.738 788
12.986 4.523 1.627 1165
12.622 4.396 1.586 837
0.793 0.276 0.126 764
0.793 0.276 0.123 807
0.793 0.276 0.121 815
0.793 0.276 0.119 805
0.793 0.276 0.116 760
2.176 0.751 1.750 6148
2.180 0.752 1.743 12297
2.052 0.708 1.647 1201
2.185 0.754 1.736 12297
2.349 0.810 1.860 1476
2.056 0.709 1.640 1201
2.195 0.757 1.734 17112
2.360 0.814 1.857 2755
2.200 0.759 1.728 22029
2.365 0.816 1.850 4056
2.210 0.762 1.726 20438
2.370 0.817 1.843 4780
2.214 0.764 1.719 19260
2.381 0.821 1.841 5536
2.219 0.765 1.712 19260
2.385 0.823 1.833 5632
2.229 0.769 1.710 13831
2.390 0.824 1.826 5201
2.234 0.770 1.703 8416
2.401 0.828 1.823 4847
2.238 0.772 1.697 6215
2.405 0.830 1.816 5701
2.523 0.870 1.900 756
2.410 0.831 1.809 6554
2.261 0.780 1.703 4332
2.528 0.872 1.893 950
2.415 0.833 1.802 6485
2.271 0.784 1.701 3345
2.533 0.874 1.885 942
2.419 0.835 1.794 6415
2.276 0.785 1.694 2401
2.538 0.875 1.877 1337
2.424 0.836 1.787 6415
2.543 0.877 1.870 1740
2.286 0.789 1.691 1655
2.428 0.838 1.780 6122
2.547 0.879 1.862 2647
2.303 0.794 1.693 951
2.433 0.839 1.772 5782
2.558 0.883 1.858 3607
2.301 0.794 1.682 950
2.557 0.882 1.846 5192
2.437 0.841 1.765 5060
2.274 0.784 1.653 910
2.562 0.884 1.839 6770
2.442 0.842 1.757 4385
2.272 0.784 1.642 931
2.566 0.885 1.831 6286
2.446 0.844 1.750 3434
2.282 0.787 1.640 877
2.565 0.885 1.819 5921
2.444 0.843 1.738 2090
2.286 0.789 1.633 841
2.563 0.884 1.807 6809
2.443 0.843 1.727 1205
2.568 0.886 1.799 7703
2.572 0.887 1.791 6638
2.577 0.889 1.784 5572
2.698 0.931 1.862 823
2.581 0.890 1.776 4916
2.702 0.932 1.854 1552
2.586 0.892 1.768 4260
2.707 0.934 1.846 2282
2.590 0.893 1.760 4895
2.712 0.935 1.838 2196
2.601 0.897 1.756 5572
2.723 0.939 1.834 1816
2.631 0.908 1.765 6119
2.753 0.950 1.842 2140
2.642 0.911 1.761 8156
2.764 0.954 1.837 2497
2.659 0.917 1.761 8059
2.782 0.960 1.837 2796
2.670 0.921 1.757 9064
2.793 0.964 1.833 2959
2.759 0.952 1.800 8329
2.636 0.909 1.725 2527
2.757 0.951 1.788 8665
2.634 0.909 1.713 1036
2.755 0.950 1.776 6945
2.879 0.993 1.850 1225
2.753 0.950 1.763 5983
2.877 0.992 1.838 2006
2.764 0.954 1.759 6185
2.888 0.996 1.833 2304
2.821 0.973 1.782 5666
2.945 1.016 1.855 1240
2.697 0.930 1.708 880
2.825 0.975 1.773 8206
2.950 1.017 1.846 1526
2.830 0.976 1.764 7957
2.954 1.019 1.837 1487
2.834 0.978 1.756 7708
2.959 1.021 1.828 1449
2.852 0.984 1.755 6331
2.977 1.027 1.827 1483
2.902 1.001 1.773 6403
3.027 1.044 1.844 1028
2.914 1.005 1.768 7547
3.039 1.048 1.839 1158
2.938 1.013 1.770 8112
2.812 0.970 1.699 1576
3.063 1.057 1.841 898
2.942 1.015 1.761 8604
2.817 0.972 1.690 1334
3.068 1.058 1.831 1139
2.960 1.021 1.759 6601
3.086 1.064 1.830 2008
2.834 0.978 1.689 1339
3.017 1.041 1.780 6266
2.892 0.997 1.710 1930
3.143 1.084 1.850 857
3.022 1.042 1.771 5484
2.896 0.999 1.701 1646
3.148 1.086 1.840 1190
3.060 1.055 1.780 6137
2.933 1.012 1.711 2559
3.186 1.099 1.849 977
3.078 1.062 1.778 7316
2.951 1.018 1.709 1778
3.204 1.105 1.846 1163
3.082 1.063 1.768 6506
3.209 1.107 1.836 1212
2.955 1.019 1.700 904
3.100 1.069 1.766 4854
3.227 1.113 1.834 1361
2.973 1.026 1.698 1238
3.151 1.087 1.781 4089
2.997 1.034 1.700 1191
3.116 1.075 1.751 4950
3.243 1.119 1.818 1564
2.988 1.031 1.684 1125
3.194 1.102 1.780 7224
3.066 1.058 1.713 2010
3.198 1.103 1.770 9170
3.071 1.059 1.704 1405
3.203 1.105 1.760 11078
3.075 1.061 1.694 1298
3.214 1.109 1.754 12342
3.086 1.065 1.689 1333
3.239 1.117 1.754 10735
3.111 1.073 1.689 2228
3.270 1.128 1.758 9008
3.142 1.084 1.694 3739
3.254 1.123 1.738 10787
3.126 1.078 1.674 1777
3.383 1.167 1.802 1040
3.259 1.124 1.728 12852
3.388 1.169 1.792 1636
3.130 1.080 1.664 798
3.263 1.126 1.718 12101
3.392 1.170 1.782 1712
3.274 1.129 1.712 10806
3.403 1.174 1.775 1899
3.279 1.131 1.702 7545
3.408 1.176 1.764 2854
3.283 1.132 1.692 5191
3.426 1.182 1.761 3437
3.294 1.136 1.685 5152
3.444 1.188 1.757 3663
3.408 1.175 1.727 5039
3.278 1.131 1.665 3871
3.412 1.177 1.716 6333
3.282 1.132 1.655 3111
3.485 1.202 1.738 5748
3.314 1.143 1.658 2485
3.496 1.206 1.731 5780
3.366 1.161 1.670 2114
3.626 1.251 1.791 1044
3.507 1.210 1.723 4905
3.377 1.165 1.663 1558
3.638 1.255 1.783 1171
3.463 1.195 1.690 4127
3.608 1.245 1.756 1419
3.454 1.191 1.674 3790
3.674 1.267 1.773 1949
3.506 1.210 1.685 4953
3.686 1.271 1.765 2723
3.511 1.211 1.674 9954
3.669 1.266 1.745 3631
3.801 1.311 1.803 849
3.515 1.212 1.663 10319
3.660 1.263 1.727 4686
3.791 1.308 1.785 1698
3.526 1.216 1.656 6336
3.671 1.266 1.719 3450
3.803 1.312 1.777 1918
3.551 1.225 1.654 3573
3.773 1.301 1.750 3242
3.904 1.347 1.807 1182
3.729 1.286 1.718 4640
3.888 1.341 1.786 3067
3.562 1.229 1.646 2497
3.775 1.302 1.724 7097
3.906 1.348 1.780 3875
3.559 1.228 1.632 1758
3.786 1.306 1.715 8721
3.918 1.351 1.771 4495
3.570 1.232 1.624 1096
3.901 1.346 1.751 6913
3.769 1.300 1.695 5410
3.637 1.255 1.640 901
3.920 1.352 1.744 8300
3.787 1.307 1.689 5193
3.655 1.261 1.635 772
3.924 1.354 1.732 8997
3.792 1.308 1.678 4692
4.057 1.399 1.787 884
3.929 1.355 1.721 10072
3.796 1.309 1.666 2964
4.061 1.401 1.775 1476
3.926 1.354 1.706 8829
4.059 1.400 1.759 2883
3.793 1.308 1.652 1800
3.923 1.353 1.691 5169
4.056 1.399 1.744 3985
3.790 1.308 1.638 1334
4.061 1.401 1.732 4894
3.928 1.355 1.679 4348
4.194 1.447 1.785 792
4.093 1.412 1.731 6070
3.953 1.364 1.675 5010
4.098 1.413 1.718 6885
3.964 1.367 1.666 3268
4.102 1.415 1.706 5521
3.968 1.369 1.654 1165
4.235 1.461 1.757 833
4.169 1.438 1.717 5937
4.036 1.392 1.666 2264
4.132 1.425 1.689 7770
4.265 1.471 1.739 970
4.122 1.422 1.671 7052
4.256 1.468 1.721 1605
4.204 1.450 1.687 4558
4.069 1.404 1.637 1406
4.338 1.496 1.737 1402
4.215 1.454 1.677 5709
4.349 1.500 1.726 1823
4.081 1.408 1.627 1386
4.226 1.458 1.667 4538
4.092 1.411 1.617 1920
4.361 1.504 1.716 1626
4.209 1.452 1.646 4447
4.344 1.498 1.695 3989
4.341 1.497 1.679 4711
4.206 1.451 1.631 2494
4.532 1.563 1.748 829
4.338 1.496 1.663 5113
4.537 1.565 1.734 1600
4.342 1.498 1.650 6130
4.548 1.569 1.722 2400
4.353 1.502 1.639 3911
4.567 1.575 1.713 2782
4.372 1.508 1.631 3092
4.592 1.584 1.707 2576
4.355 1.502 1.610 4303
4.625 1.595 1.703 2657
4.490 1.549 1.656 1850
4.359 1.504 1.597 3903
4.644 1.602 1.693 3793
4.494 1.550 1.643 1478
4.648 1.603 1.679 4496
4.355 1.502 1.581 2516
4.491 1.549 1.627 1234
4.783 1.650 1.725 1092
4.674 1.612 1.672 3447
4.359 1.504 1.568 1647
4.531 1.563 1.625 1185
4.809 1.659 1.717 995
4.721 1.628 1.672 3341
4.585 1.582 1.627 1183
4.653 1.605 1.634 3639
4.789 1.652 1.678 1561
4.665 1.609 1.622 3266
4.822 1.663 1.673 1874
4.834 1.667 1.660 4171
4.697 1.620 1.617 2535
4.838 1.669 1.646 6681
4.701 1.622 1.603 1811
5.010 1.728 1.700 1053
4.842 1.670 1.631 6489
5.021 1.732 1.687 1713
4.705 1.623 1.588 1238
4.853 1.674 1.618 6440
5.033 1.736 1.674 2832
4.843 1.671 1.599 7694
5.030 1.735 1.656 4903
5.166 1.782 1.698 876
4.840 1.669 1.582 8366
5.041 1.739 1.643 6466
5.178 1.786 1.684 1290
5.045 1.740 1.627 6341
4.844 1.671 1.567 5229
5.297 1.827 1.703 1940
5.049 1.742 1.612 5363
5.302 1.829 1.686 3537
4.833 1.667 1.548 3301
5.306 1.830 1.670 4199
5.053 1.743 1.597 3774
4.851 1.674 1.538 2340
5.310 1.832 1.654 4014
5.057 1.745 1.581 3028
4.884 1.685 1.531 994
5.350 1.846 1.648 3119
5.061 1.746 1.566 2784
5.213 1.798 1.609 1964
5.369 1.852 1.636 4132
5.065 1.747 1.550 1846
5.232 1.805 1.597 1687
5.506 1.899 1.674 767
5.337 1.841 1.609 5653
5.648 1.948 1.696 1211
5.489 1.893 1.652 1117
5.199 1.794 1.571 958
5.334 1.840 1.591 10460
5.645 1.947 1.677 1225
5.352 1.846 1.579 11897
5.657 1.951 1.661 2096
5.794 1.999 1.699 1600
5.363 1.850 1.564 11997
5.654 1.950 1.642 2443
5.791 1.998 1.679 2089
5.516 1.903 1.605 852
5.360 1.849 1.546 7184
5.883 2.029 1.684 3571
5.665 1.954 1.627 2364
5.520 1.904 1.588 1068
5.880 2.028 1.664 3799
5.400 1.863 1.539 2561
5.676 1.958 1.611 2126
6.018 2.076 1.701 1417
5.833 2.012 1.633 3639
5.978 2.062 1.671 2227
5.353 1.847 1.509 1512
5.528 1.907 1.554 1186
5.837 2.014 1.615 3805
6.034 2.081 1.665 2088
6.295 2.172 1.732 1363
5.372 1.853 1.497 1025
6.031 2.080 1.645 2768
6.198 2.138 1.687 2293
5.841 2.015 1.597 1889
6.336 2.186 1.722 1076
6.144 2.119 1.654 2529
6.005 2.072 1.619 2140
6.290 2.170 1.690 1770
6.428 2.217 1.725 1287
6.411 2.211 1.699 2265
6.141 2.118 1.633 1934
6.002 2.071 1.599 952
6.422 2.215 1.682 2484
6.561 2.263 1.715 1146
6.283 2.168 1.648 926
6.419 2.214 1.660 2164
6.565 2.265 1.695 1413
6.280 2.166 1.627 1021
6.336 2.185 1.620 2470
6.606 2.279 1.684 1400
6.197 2.138 1.587 1059
6.610 2.280 1.663 2477
6.340 2.187 1.600 1436
6.837 2.358 1.716 784
6.622 2.284 1.645 2711
6.929 2.390 1.715 1225
6.475 2.234 1.611 989
6.790 2.342 1.683 852
6.640 2.291 1.628 1931
6.838 2.359 1.672 1371
6.977 2.407 1.704 1262
6.501 2.243 1.596 1018
7.003 2.416 1.687 1753
6.630 2.287 1.604 1554
6.842 2.360 1.651 1059
7.230 2.494 1.738 760
6.905 2.382 1.643 1757
7.044 2.430 1.674 1416
6.626 2.286 1.582 1035
7.235 2.496 1.716 1005
7.246 2.500 1.695 1867
7.048 2.431 1.652 1715
6.902 2.381 1.621 1519
7.251 2.501 1.673 2172
7.052 2.433 1.631 1958
7.397 2.552 1.704 1113
7.632 2.633 1.754 993
7.057 2.434 1.609 1535
7.255 2.503 1.651 1486
7.534 2.599 1.709 1461
7.394 2.551 1.680 1161
7.861 2.712 1.753 2832
7.545 2.603 1.688 1412
7.266 2.507 1.630 1301
7.722 2.664 1.724 1154
7.866 2.713 1.729 4379
7.660 2.642 1.687 1789
7.520 2.594 1.658 1290
7.263 2.505 1.606 1230
7.877 2.717 1.706 4319
7.664 2.644 1.663 2430
7.524 2.596 1.635 1215
7.274 2.509 1.585 801
7.882 2.719 1.682 3477
7.676 2.648 1.641 1861
7.521 2.594 1.611 770
7.886 2.720 1.658 3679
7.746 2.672 1.631 1275
7.897 2.724 1.635 4722
7.757 2.676 1.608 1147
8.339 2.877 1.719 1128
7.901 2.726 1.611 3911
8.344 2.878 1.694 1865
8.484 2.926 1.720 936
7.905 2.727 1.586 2659
8.348 2.880 1.668 1593
9.115 3.144 1.809 1150
8.672 2.992 1.728 998
7.909 2.728 1.562 3402
8.677 2.993 1.701 1839
9.119 3.146 1.781 1759
8.396 2.896 1.650 1186
7.921 2.732 1.539 4160
9.124 3.147 1.753 2611
8.681 2.995 1.674 1854
8.400 2.898 1.625 1370
9.128 3.149 1.725 3619
7.932 2.736 1.516 2624
8.582 2.960 1.630 1433
8.390 2.894 1.596 1142
9.132 3.150 1.697 4192
9.317 3.214 1.729 1487
7.936 2.737 1.492 1356
8.852 3.053 1.649 1237
