8.164 0.264 0.973 4281
8.431 0.273 1.000 1707
8.418 0.273 0.974 2579
8.182 0.265 0.951 2163
8.216 0.266 0.930 2548
8.405 0.272 0.948 2389
8.066 0.261 0.915 1480
8.210 0.266 0.905 3149
8.407 0.272 0.924 1456
8.060 0.261 0.891 1448
8.212 0.266 0.882 3389
8.464 0.274 0.905 1408
8.063 0.261 0.868 1191
8.207 0.266 0.857 2610
8.443 0.273 0.878 1711
8.057 0.261 0.844 856
8.445 0.274 0.853 1771
8.201 0.266 0.833 1345
8.051 0.261 0.820 779
8.455 0.274 0.829 1798
8.234 0.267 0.811 961
8.676 0.281 0.848 830
8.465 0.274 0.806 2327
8.236 0.267 0.787 1135
8.615 0.279 0.817 1127
8.765 0.284 0.829 900
8.467 0.274 0.781 2534
8.751 0.283 0.803 1525
8.238 0.267 0.764 1060
9.027 0.292 0.824 799
8.563 0.277 0.763 2226
8.753 0.283 0.777 1630
8.232 0.267 0.739 1040
9.045 0.293 0.799 762
8.557 0.277 0.738 2130
8.762 0.284 0.752 1326
9.039 0.293 0.772 1136
8.218 0.266 0.714 835
8.551 0.277 0.713 2775
9.017 0.292 0.744 1750
8.725 0.283 0.724 1130
13.004 0.421 1.013 755
8.553 0.277 0.688 3188
9.011 0.292 0.717 1911
8.726 0.283 0.699 1377
13.006 0.421 0.975 1003
8.562 0.277 0.663 3221
9.012 0.292 0.691 1405
8.736 0.283 0.674 1347
13.008 0.421 0.937 1066
8.572 0.278 0.639 2868
8.745 0.283 0.649 1300
13.011 0.421 0.900 986
12.442 0.403 0.866 901
8.573 0.278 0.614 1704
8.747 0.283 0.624 1323
12.460 0.404 0.831 878
13.013 0.421 0.862 845
8.748 0.283 0.598 1394
8.574 0.278 0.589 953
11.174 0.362 0.727 856
13.015 0.421 0.824 785
8.749 0.283 0.573 1064
11.176 0.362 0.694 803
8.599 0.278 0.566 785
14.556 0.471 0.481 963
14.557 0.471 0.439 1154
14.558 0.471 0.396 1044
2.358 0.069 1.791 7114
2.236 0.066 1.703 1071
2.363 0.069 1.784 14228
2.241 0.066 1.697 2143
2.368 0.069 1.778 14228
2.245 0.066 1.691 2143
2.491 0.073 1.865 900
2.373 0.070 1.771 11930
2.250 0.066 1.684 1748
2.496 0.073 1.857 1342
2.339 0.069 1.737 10628
2.475 0.072 1.832 3160
2.389 0.070 1.762 8428
2.512 0.074 1.848 2564
2.265 0.066 1.676 1326
2.407 0.070 1.764 7899
2.530 0.074 1.850 2226
2.283 0.067 1.678 1538
2.411 0.071 1.757 7899
2.535 0.074 1.842 2270
2.287 0.067 1.672 1529
2.501 0.073 1.808 7142
2.377 0.070 1.723 5294
2.499 0.073 1.797 8656
2.375 0.070 1.712 3554
2.511 0.074 1.794 7600
2.386 0.070 1.710 3561
2.437 0.071 1.734 6630
2.562 0.075 1.818 2882
2.441 0.072 1.727 6066
2.566 0.075 1.810 3059
2.105 0.062 1.503 884
2.446 0.072 1.720 5502
2.571 0.075 1.803 3236
2.109 0.062 1.497 1211
2.444 0.072 1.709 3826
2.570 0.075 1.791 3314
2.107 0.062 1.487 1450
2.548 0.075 1.767 4943
2.422 0.071 1.684 2127
2.097 0.061 1.472 1772
2.539 0.074 1.751 6927
2.088 0.061 1.458 1989
2.413 0.071 1.669 1770
2.551 0.075 1.748 9034
2.085 0.061 1.447 2373
2.424 0.071 1.666 1276
2.555 0.075 1.740 11372
2.096 0.061 1.446 2907
2.560 0.075 1.733 9733
2.106 0.062 1.444 3593
2.558 0.075 1.722 8164
2.110 0.062 1.438 3565
2.589 0.076 1.731 7670
2.114 0.062 1.432 3537
2.717 0.080 1.811 785
2.601 0.076 1.728 7891
2.124 0.062 1.430 2903
2.728 0.080 1.808 1093
2.612 0.077 1.725 8037
2.128 0.062 1.424 2283
2.740 0.080 1.804 1291
2.630 0.077 1.725 8964
2.132 0.062 1.418 1944
2.758 0.081 1.804 1160
2.642 0.077 1.722 6529
2.135 0.063 1.412 1605
2.770 0.081 1.801 904
2.673 0.078 1.731 4955
2.139 0.063 1.406 1283
2.545 0.075 1.653 1015
2.671 0.078 1.719 3961
2.800 0.082 1.797 1166
2.136 0.063 1.396 970
2.542 0.074 1.641 862
2.648 0.078 1.695 3273
2.777 0.081 1.773 2505
2.653 0.078 1.688 4412
2.782 0.081 1.765 2722
2.664 0.078 1.684 5562
2.794 0.082 1.761 2766
2.662 0.078 1.672 5105
2.792 0.082 1.749 3188
2.762 0.081 1.721 5158
2.632 0.077 1.645 2615
2.892 0.085 1.797 795
2.760 0.081 1.709 4840
2.630 0.077 1.633 1594
2.890 0.085 1.784 1432
2.758 0.081 1.697 4930
2.888 0.085 1.772 2040
2.783 0.082 1.701 4625
2.913 0.085 1.776 1973
2.652 0.078 1.626 1131
2.863 0.084 1.736 6943
2.705 0.079 1.646 2181
2.994 0.088 1.810 838
2.861 0.084 1.724 9275
2.730 0.080 1.650 1577
2.992 0.088 1.798 1159
2.879 0.084 1.723 9123
2.748 0.080 1.650 1361
3.010 0.088 1.797 1093
2.898 0.085 1.723 10156
2.766 0.081 1.650 1319
2.902 0.085 1.715 12249
2.708 0.079 1.607 1019
3.034 0.089 1.787 770
2.900 0.085 1.702 14500
3.032 0.089 1.775 1355
2.904 0.085 1.694 12692
3.036 0.089 1.766 2787
2.992 0.088 1.731 14132
2.860 0.084 1.659 2324
2.997 0.088 1.723 16046
2.865 0.084 1.651 1946
2.995 0.088 1.710 16003
2.862 0.084 1.639 1187
2.992 0.088 1.698 16711
2.859 0.084 1.627 983
3.004 0.088 1.693 17645
2.871 0.084 1.623 995
3.008 0.088 1.684 15353
3.142 0.092 1.754 1389
2.875 0.084 1.615 1011
3.020 0.088 1.679 12046
2.886 0.085 1.610 1461
3.153 0.092 1.749 1448
3.031 0.089 1.674 12142
2.898 0.085 1.605 1612
3.165 0.093 1.743 1317
3.036 0.089 1.666 12493
3.170 0.093 1.734 1436
2.902 0.085 1.597 1076
3.040 0.089 1.657 12543
3.174 0.093 1.725 1382
2.906 0.085 1.589 947
3.115 0.091 1.684 10753
2.981 0.087 1.616 2218
3.120 0.091 1.675 15814
2.985 0.087 1.608 1582
3.131 0.092 1.670 18407
2.997 0.088 1.603 1613
3.266 0.096 1.737 926
3.136 0.092 1.661 17380
3.271 0.096 1.727 1396
3.001 0.088 1.594 1368
3.140 0.092 1.652 16332
3.275 0.096 1.718 1614
3.410 0.100 1.784 1187
3.005 0.088 1.585 795
3.138 0.092 1.639 16596
3.273 0.096 1.705 2226
3.408 0.100 1.771 1494
3.149 0.092 1.633 18351
3.363 0.098 1.737 2228
3.153 0.092 1.624 19071
3.346 0.098 1.717 3894
3.158 0.092 1.615 17752
3.343 0.098 1.704 5544
3.479 0.102 1.768 854
3.162 0.093 1.606 16752
3.370 0.099 1.704 6428
3.505 0.103 1.769 1474
3.173 0.093 1.601 12294
3.396 0.099 1.705 6805
3.532 0.103 1.769 1826
3.185 0.093 1.595 6088
3.422 0.100 1.705 5986
3.558 0.104 1.768 1777
3.232 0.095 1.606 6104
3.448 0.101 1.705 5136
3.584 0.105 1.768 1599
3.236 0.095 1.596 4930
3.452 0.101 1.695 4844
3.589 0.105 1.758 2146
3.450 0.101 1.682 4222
3.219 0.094 1.577 3773
3.587 0.105 1.744 2506
3.396 0.099 1.646 3154
3.598 0.105 1.737 2812
3.223 0.094 1.568 2376
3.610 0.106 1.730 3851
3.473 0.102 1.669 2394
3.336 0.098 1.607 898
3.615 0.106 1.720 4615
3.427 0.100 1.636 2075
3.598 0.105 1.700 5529
3.424 0.100 1.623 1372
3.735 0.109 1.760 884
3.610 0.106 1.692 5960
3.747 0.110 1.753 1189
3.421 0.100 1.610 808
3.614 0.106 1.682 4838
3.752 0.110 1.742 1438
3.640 0.107 1.681 4173
3.779 0.111 1.741 1224
3.645 0.107 1.671 4244
3.783 0.111 1.730 1495
3.657 0.107 1.663 4369
3.795 0.111 1.722 2278
3.668 0.107 1.656 3423
3.807 0.112 1.714 3341
3.804 0.111 1.700 5365
3.665 0.107 1.642 2131
3.787 0.111 1.680 8301
3.648 0.107 1.623 1257
3.784 0.111 1.666 9402
3.803 0.111 1.661 7640
3.837 0.112 1.662 6501
3.697 0.108 1.606 888
3.849 0.113 1.654 5330
3.846 0.113 1.640 7126
3.857 0.113 1.632 12765
3.862 0.113 1.621 14816
3.866 0.113 1.609 13058
3.885 0.114 1.604 15097
3.889 0.114 1.593 18384
2.417 0.071 1.034 915
3.894 0.114 1.582 17564
2.412 0.071 1.025 1450
3.905 0.114 1.573 15167
2.415 0.071 1.018 1946
3.902 0.114 1.559 12906
2.425 0.071 1.014 2354
3.899 0.114 1.545 10425
2.420 0.071 1.004 2493
3.910 0.115 1.537 10157
2.422 0.071 0.997 2348
3.914 0.115 1.525 11898
2.432 0.071 0.993 2082
3.918 0.115 1.514 9563
2.435 0.071 0.986 1763
3.937 0.115 1.508 9457
2.445 0.072 0.982 1396
3.941 0.115 1.497 12770
2.447 0.072 0.975 806
3.938 0.115 1.483 12122
3.934 0.115 1.469 10625
3.945 0.116 1.460 7991
3.949 0.116 1.449 5515
3.961 0.116 1.440 6284
3.987 0.117 1.436 5569
4.013 0.118 1.432 4689
3.870 0.113 1.385 1419
4.002 0.117 1.415 3692
3.998 0.117 1.401 4256
3.994 0.117 1.387 6334
3.998 0.117 1.376 5355
4.017 0.118 1.369 3612
4.013 0.118 1.355 4790
4.009 0.117 1.341 6775
4.020 0.118 1.332 7602
4.031 0.118 1.323 7528
4.034 0.118 1.311 7109
4.045 0.118 1.302 6030
4.049 0.119 1.290 8464
4.044 0.118 1.276 8708
4.048 0.119 1.265 8041
4.066 0.119 1.257 10143
4.062 0.119 1.243 9098
4.065 0.119 1.232 8010
5.699 0.167 1.677 796
4.091 0.120 1.226 6920
5.711 0.167 1.662 948
4.109 0.120 1.218 5074
4.128 0.121 1.210 5736
4.123 0.121 1.197 7878
5.732 0.168 1.615 874
4.119 0.121 1.183 7301
5.751 0.168 1.602 2738
5.748 0.168 1.584 8484
4.122 0.121 1.171 6436
5.744 0.168 1.565 15145
4.148 0.121 1.165 4157
5.890 0.173 1.602 1044
5.741 0.168 1.546 14252
4.181 0.122 1.160 3365
5.894 0.173 1.584 836
5.753 0.168 1.532 10683
4.192 0.123 1.150 2272
5.757 0.169 1.515 10331
4.187 0.123 1.136 1052
5.753 0.169 1.497 11038
5.757 0.169 1.480 10222
5.753 0.169 1.461 10103
4.127 0.121 1.084 881
5.757 0.169 1.445 9141
5.745 0.168 1.425 6301
5.757 0.169 1.410 6515
5.760 0.169 1.393 6295
5.772 0.169 1.378 4443
3.838 0.112 0.959 1038
5.760 0.169 1.358 4760
3.841 0.112 0.948 1322
5.763 0.169 1.341 5868
3.851 0.113 0.939 1001
5.775 0.169 1.326 6049
5.922 0.173 1.357 923
5.786 0.169 1.311 4884
5.933 0.174 1.341 1090
5.813 0.170 1.299 4569
6.899 0.202 1.518 868
5.816 0.170 1.282 2899
6.895 0.202 1.497 1649
5.963 0.175 1.312 1310
7.112 0.208 1.540 1002
5.920 0.173 1.285 2335
6.891 0.202 1.475 2198
6.200 0.182 1.340 1122
7.124 0.209 1.521 1054
6.879 0.201 1.452 3243
6.211 0.182 1.323 1978
5.900 0.173 1.264 1916
7.128 0.209 1.500 886
6.883 0.202 1.432 4631
6.222 0.182 1.307 2557
5.896 0.173 1.245 1697
4.131 0.121 0.911 1222
6.879 0.201 1.411 5641
6.233 0.183 1.290 2181
4.141 0.121 0.900 1426
5.907 0.173 1.229 1374
6.875 0.201 1.389 5504
4.143 0.121 0.888 1421
6.268 0.184 1.278 1400
7.023 0.206 1.416 1190
6.886 0.202 1.371 4830
7.034 0.206 1.398 1340
4.145 0.121 0.876 1245
5.999 0.176 1.211 1171
6.921 0.203 1.356 4124
4.139 0.121 0.863 1102
7.147 0.209 1.396 1078
6.243 0.183 1.236 916
6.893 0.202 1.331 4299
6.262 0.183 1.221 1278
4.126 0.121 0.849 1254
6.873 0.201 1.307 6518
4.112 0.120 0.834 1210
6.273 0.184 1.204 1051
6.869 0.201 1.286 7770
5.262 0.154 1.015 771
6.865 0.201 1.264 6586
7.013 0.205 1.289 835
6.868 0.201 1.245 5769
4.142 0.121 0.802 1039
7.016 0.206 1.269 863
6.879 0.201 1.226 7701
4.144 0.121 0.790 1101
8.325 0.244 1.456 964
6.882 0.202 1.206 9164
8.281 0.243 1.425 1715
7.031 0.206 1.229 835
4.161 0.122 0.781 789
6.885 0.202 1.186 9743
8.270 0.242 1.398 2525
7.034 0.206 1.209 970
4.171 0.122 0.770 753
6.888 0.202 1.166 9745
8.258 0.242 1.372 3177
7.037 0.206 1.188 1003
8.406 0.246 1.394 929
6.891 0.202 1.146 8004
8.261 0.242 1.348 3096
8.410 0.246 1.370 932
6.902 0.202 1.127 6035
8.257 0.242 1.323 3427
8.406 0.246 1.344 930
8.252 0.242 1.298 4833
6.905 0.202 1.107 3863
8.401 0.246 1.319 876
8.248 0.242 1.273 5554
6.915 0.203 1.088 1998
8.235 0.241 1.247 4604
6.996 0.205 1.079 1154
8.223 0.241 1.221 3403
8.074 0.236 1.201 827
8.171 0.239 1.190 2794
8.320 0.244 1.209 918
8.213 0.241 1.171 2917
8.064 0.236 1.152 1064
8.130 0.238 1.136 4453
8.279 0.243 1.155 1291
8.141 0.238 1.114 5588
8.290 0.243 1.132 870
8.199 0.240 1.097 3873
8.049 0.236 1.079 1646
8.115 0.238 1.063 3248
8.264 0.242 1.080 1481
8.149 0.239 1.043 6205
8.000 0.234 1.026 1191
8.369 0.245 1.068 852
8.152 0.239 1.019 7636
8.002 0.234 1.003 1219
8.380 0.245 1.044 931
8.154 0.239 0.996 6897
8.005 0.234 0.980 1090
8.382 0.246 1.020 984
8.164 0.239 0.973 4499
8.432 0.247 1.000 1387
8.015 0.235 0.957 873
8.175 0.239 0.950 2159
8.419 0.247 0.974 2055
8.025 0.235 0.935 809
8.216 0.241 0.930 2606
8.067 0.236 0.915 2168
8.405 0.246 0.948 1960
8.211 0.240 0.905 3740
8.061 0.236 0.891 2154
8.408 0.246 0.924 1184
8.213 0.241 0.882 4093
8.063 0.236 0.868 1748
8.465 0.248 0.905 1241
8.207 0.240 0.857 3259
8.452 0.248 0.879 1495
8.058 0.236 0.844 1266
8.201 0.240 0.833 1844
8.446 0.247 0.853 1628
8.052 0.236 0.820 1081
8.456 0.248 0.829 1639
8.203 0.240 0.809 1149
8.054 0.236 0.796 934
8.560 0.251 0.813 2125
8.237 0.241 0.787 1443
8.410 0.246 0.801 1200
8.570 0.251 0.789 2397
8.239 0.241 0.764 1460
8.420 0.247 0.777 1127
8.760 0.257 0.803 996
8.564 0.251 0.763 2190
8.233 0.241 0.739 1377
8.761 0.257 0.778 1118
8.550 0.250 0.737 2429
8.219 0.241 0.714 1054
8.763 0.257 0.752 988
9.040 0.265 0.772 854
8.552 0.250 0.713 3642
9.026 0.264 0.745 1263
8.718 0.255 0.724 1194
8.553 0.251 0.688 4228
8.727 0.256 0.699 1482
9.027 0.264 0.718 1368
8.563 0.251 0.663 4177
8.745 0.256 0.675 1422
9.029 0.264 0.692 1047
8.564 0.251 0.639 3523
8.746 0.256 0.649 1172
8.566 0.251 0.614 1995
8.748 0.256 0.624 999
8.567 0.251 0.589 1115
8.757 0.256 0.599 1073
11.341 0.332 0.735 909
11.343 0.332 0.702 1050
8.821 0.258 0.577 1006
8.561 0.251 0.564 767
8.933 0.262 0.556 936
11.344 0.332 0.669 900
11.178 0.327 0.662 780
8.927 0.261 0.530 951
11.172 0.327 0.629 778
8.936 0.262 0.504 761
9.010 0.264 0.403 804
14.558 0.426 0.439 864
14.559 0.426 0.396 818
2.352 0.060 1.786 7263
2.230 0.056 1.699 900
2.357 0.060 1.780 14527
2.235 0.057 1.692 1801
2.362 0.060 1.773 14527
2.239 0.057 1.686 1801
2.485 0.063 1.860 1065
2.367 0.060 1.766 12187
2.490 0.063 1.853 1504
2.244 0.057 1.680 1393
2.339 0.059 1.737 10998
2.462 0.062 1.823 2639
2.350 0.060 1.735 8663
2.480 0.063 1.825 3873
2.407 0.061 1.764 7998
2.531 0.064 1.850 2064
2.283 0.058 1.678 1452
2.412 0.061 1.757 7998
2.536 0.064 1.842 2111
2.288 0.058 1.672 1446
2.495 0.063 1.804 7120
2.371 0.060 1.719 4934
2.500 0.063 1.797 9013
2.375 0.060 1.712 3176
2.511 0.064 1.794 8041
2.386 0.060 1.710 3174
2.516 0.064 1.787 7158
2.391 0.061 1.703 2759
2.448 0.062 1.731 5393
2.573 0.065 1.815 2354
2.106 0.053 1.503 879
2.453 0.062 1.724 4945
2.578 0.065 1.807 2617
2.109 0.053 1.497 1236
2.464 0.062 1.722 3334
2.590 0.066 1.804 2280
2.107 0.053 1.487 1549
2.541 0.064 1.762 4948
2.097 0.053 1.472 1990
2.416 0.061 1.680 1670
2.540 0.064 1.751 7115
2.088 0.053 1.458 2155
2.413 0.061 1.669 1565
2.551 0.065 1.748 9153
2.085 0.053 1.447 2536
2.425 0.061 1.666 1118
2.562 0.065 1.745 11807
2.096 0.053 1.446 3017
2.567 0.065 1.737 10148
2.106 0.053 1.444 3598
2.558 0.065 1.722 8491
2.110 0.053 1.438 3780
2.590 0.066 1.731 8302
2.114 0.054 1.432 3963
2.594 0.066 1.724 8432
2.118 0.054 1.426 3444
2.722 0.069 1.803 1054
2.612 0.066 1.725 8033
2.128 0.054 1.424 2991
2.740 0.069 1.804 1192
2.630 0.067 1.725 8697
2.132 0.054 1.418 2725
2.758 0.070 1.804 1112
2.655 0.067 1.730 6290
2.136 0.054 1.412 2459
2.673 0.068 1.731 5663
2.139 0.054 1.406 2109
2.545 0.064 1.653 947
2.678 0.068 1.723 4549
2.136 0.054 1.396 1785
2.807 0.071 1.801 1280
2.549 0.065 1.646 980
2.683 0.068 1.716 3436
2.812 0.071 1.793 2097
2.140 0.054 1.390 1355
2.554 0.065 1.638 1014
2.687 0.068 1.708 4280
2.816 0.071 1.785 2526
2.150 0.054 1.388 929
2.692 0.068 1.700 5124
2.828 0.072 1.781 3015
2.751 0.070 1.725 4648
2.621 0.066 1.648 1937
2.881 0.073 1.801 960
2.769 0.070 1.725 5252
2.639 0.067 1.649 2570
2.760 0.070 1.709 5040
2.890 0.073 1.784 1458
2.630 0.067 1.633 1327
2.758 0.070 1.697 5328
2.888 0.073 1.772 2118
2.776 0.070 1.697 4977
2.907 0.074 1.772 2745
2.646 0.067 1.622 955
2.870 0.073 1.740 7720
2.698 0.068 1.642 2492
3.001 0.076 1.814 762
2.868 0.073 1.728 9962
2.737 0.069 1.654 1724
2.999 0.076 1.802 1040
2.879 0.073 1.723 9493
2.748 0.070 1.650 1435
3.011 0.076 1.797 1181
2.898 0.073 1.723 9982
2.767 0.070 1.650 1304
3.029 0.077 1.796 762
2.902 0.074 1.715 11557
2.771 0.070 1.642 928
3.034 0.077 1.787 846
2.900 0.073 1.702 13266
3.032 0.077 1.775 1476
2.905 0.074 1.694 11694
3.037 0.077 1.766 2951
2.993 0.076 1.731 15257
2.861 0.072 1.659 2190
2.997 0.076 1.723 17530
2.865 0.073 1.651 1449
2.995 0.076 1.710 16853
2.862 0.072 1.639 939
2.993 0.076 1.698 16719
2.860 0.072 1.627 906
3.004 0.076 1.693 17779
2.871 0.073 1.623 1152
3.009 0.076 1.684 16189
3.142 0.080 1.754 1356
2.875 0.073 1.615 1122
3.013 0.076 1.676 13397
3.147 0.080 1.745 1794
2.880 0.073 1.606 1025
3.025 0.077 1.671 13053
3.158 0.080 1.740 1789
2.891 0.073 1.602 918
3.036 0.077 1.666 13141
3.170 0.080 1.734 1343
2.902 0.074 1.597 889
3.034 0.077 1.653 13057
3.168 0.080 1.722 1149
2.899 0.073 1.585 794
3.038 0.077 1.645 11234
3.172 0.080 1.712 1556
2.904 0.074 1.577 802
3.120 0.079 1.675 14191
2.986 0.076 1.608 1559
3.132 0.079 1.670 16866
2.997 0.076 1.603 1606
3.266 0.083 1.737 1088
3.143 0.080 1.664 17319
3.008 0.076 1.597 1723
3.278 0.083 1.731 1338
3.148 0.080 1.655 18433
3.361 0.085 1.760 1549
3.013 0.076 1.589 983
3.145 0.080 1.642 19063
3.280 0.083 1.708 1840
3.415 0.086 1.774 1180
3.149 0.080 1.633 20523
3.356 0.085 1.733 2494
3.154 0.080 1.624 20169
3.339 0.085 1.713 4147
2.961 0.075 1.532 787
3.158 0.080 1.615 18356
3.344 0.085 1.704 5789
3.480 0.088 1.768 904
3.162 0.080 1.606 16727
3.363 0.085 1.701 6617
3.499 0.089 1.765 1506
3.167 0.080 1.597 11316
3.403 0.086 1.708 7339
3.539 0.090 1.772 1242
3.422 0.087 1.705 7246
3.171 0.080 1.588 5076
3.558 0.090 1.768 1427
3.419 0.087 1.692 6674
3.247 0.082 1.612 4984
3.556 0.090 1.755 1654
3.431 0.087 1.685 6257
3.251 0.082 1.603 4101
3.568 0.090 1.748 2322
3.436 0.087 1.675 5682
3.601 0.091 1.751 2999
3.255 0.082 1.594 2857
3.433 0.087 1.662 4117
3.606 0.091 1.740 3561
3.245 0.082 1.578 1778
3.618 0.092 1.733 4496
3.481 0.088 1.672 3270
3.343 0.085 1.610 1218
3.206 0.081 1.549 754
3.615 0.092 1.720 5017
3.434 0.087 1.639 2453
3.598 0.091 1.700 5715
3.432 0.087 1.626 1430
3.222 0.082 1.534 764
3.603 0.091 1.689 6594
3.740 0.095 1.750 1028
3.226 0.082 1.524 813
3.614 0.092 1.682 6067
3.752 0.095 1.742 922
3.634 0.092 1.678 5440
3.815 0.097 1.756 919
3.645 0.092 1.671 4999
3.805 0.096 1.739 1235
3.657 0.093 1.663 4588
3.795 0.096 1.722 2002
3.669 0.093 1.656 3592
3.807 0.096 1.714 2609
3.754 0.095 1.679 4818
3.615 0.092 1.621 774
3.773 0.096 1.674 8938
3.634 0.092 1.616 876
3.784 0.096 1.666 10135
3.796 0.096 1.658 7594
3.830 0.097 1.659 5677
3.690 0.093 1.603 1022
3.834 0.097 1.648 5613
3.831 0.097 1.634 7068
3.843 0.097 1.626 11049
3.855 0.098 1.618 13465
3.867 0.098 1.609 12076
3.878 0.098 1.601 13956
3.882 0.098 1.590 16416
3.894 0.099 1.582 14350
2.412 0.061 1.025 1183
3.906 0.099 1.573 12464
2.415 0.061 1.018 1649
3.902 0.099 1.559 11853
2.418 0.061 1.011 1998
3.899 0.099 1.545 12113
2.420 0.061 1.004 2226
3.903 0.099 1.534 13586
2.423 0.061 0.997 2214
3.915 0.099 1.525 13361
2.514 0.064 1.022 2211
3.919 0.099 1.514 10309
2.517 0.064 1.015 1915
3.930 0.100 1.505 10730
2.437 0.062 0.979 1383
3.934 0.100 1.494 13543
2.447 0.062 0.975 1033
4.106 0.104 1.554 813
3.931 0.100 1.480 12984
2.495 0.063 0.983 997
3.927 0.099 1.466 12366
2.490 0.063 0.973 788
3.931 0.100 1.455 8450
3.920 0.099 1.439 4841
3.931 0.100 1.430 6918
3.927 0.099 1.416 7233
3.931 0.100 1.405 5844
3.927 0.099 1.391 6596
3.938 0.100 1.382 5812
3.980 0.101 1.383 4941
3.983 0.101 1.371 4721
3.979 0.101 1.357 3133
3.983 0.101 1.346 3301
3.994 0.101 1.337 5539
4.013 0.102 1.330 6914
4.031 0.102 1.323 7576
4.035 0.102 1.311 8201
4.038 0.102 1.299 6886
4.041 0.102 1.288 9537
4.037 0.102 1.274 10592
4.048 0.103 1.265 8618
4.059 0.103 1.255 11542
4.062 0.103 1.243 13482
4.329 0.110 1.317 811
4.065 0.103 1.232 13057
5.699 0.144 1.677 752
4.084 0.103 1.224 9068
5.704 0.144 1.660 1073
4.095 0.104 1.214 6376
5.716 0.145 1.646 815
4.105 0.104 1.204 5043
4.116 0.104 1.195 6889
4.119 0.104 1.183 6599
5.744 0.145 1.600 1917
3.567 0.090 1.041 756
5.741 0.145 1.582 6659
4.122 0.104 1.171 4715
3.570 0.090 1.031 795
5.737 0.145 1.563 12112
4.125 0.104 1.159 4927
5.891 0.149 1.602 797
5.741 0.145 1.546 12402
4.151 0.105 1.153 3585
5.746 0.146 1.530 9597
4.162 0.105 1.143 2425
5.750 0.146 1.513 8936
4.149 0.105 1.127 1813
5.746 0.146 1.495 8757
4.168 0.106 1.119 876
5.758 0.146 1.480 8059
5.761 0.146 1.463 9023
4.119 0.104 1.082 823
5.758 0.146 1.445 7636
5.738 0.145 1.423 5134
5.750 0.146 1.408 5800
5.761 0.146 1.393 5370
5.772 0.146 1.378 3761
5.745 0.145 1.355 4563
5.764 0.146 1.341 6221
3.859 0.098 0.940 900
5.775 0.146 1.326 6041
5.923 0.150 1.357 851
5.794 0.147 1.313 4600
5.942 0.150 1.343 1013
5.805 0.147 1.298 4442
5.953 0.151 1.327 907
5.658 0.143 1.268 843
6.892 0.175 1.517 785
5.801 0.147 1.279 2833
5.948 0.151 1.309 1862
6.888 0.174 1.495 1504
3.884 0.098 0.899 1225
5.952 0.151 1.291 2172
6.884 0.174 1.474 2072
5.734 0.145 1.249 1512
3.886 0.098 0.888 1471
6.880 0.174 1.452 2981
6.212 0.157 1.323 1644
5.963 0.151 1.276 1625
3.888 0.098 0.876 1295
6.876 0.174 1.431 4089
6.231 0.158 1.308 2416
4.131 0.105 0.911 1785
5.982 0.151 1.261 1725
6.880 0.174 1.411 4783
6.242 0.158 1.292 2549
4.141 0.105 0.900 2116
5.915 0.150 1.231 1828
6.883 0.174 1.391 4740
4.143 0.105 0.888 2441
5.918 0.150 1.214 1926
6.261 0.159 1.277 1868
6.879 0.174 1.369 4681
4.146 0.105 0.876 2489
6.264 0.159 1.258 1324
6.015 0.152 1.214 1138
6.875 0.174 1.348 3897
4.148 0.105 0.865 2120
6.252 0.158 1.238 1818
5.239 0.133 1.058 840
6.879 0.174 1.328 4375
6.263 0.159 1.221 2237
4.134 0.105 0.850 2031
6.874 0.174 1.307 6470
6.281 0.159 1.205 1818
4.136 0.105 0.838 1565
6.870 0.174 1.286 7786
6.292 0.159 1.188 1000
4.138 0.105 0.826 823
5.254 0.133 1.014 788
6.865 0.174 1.264 7018
6.869 0.174 1.245 6924
6.880 0.174 1.226 9512
8.286 0.210 1.450 809
4.113 0.104 0.785 758
6.883 0.174 1.206 11135
8.282 0.210 1.425 1521
7.031 0.178 1.229 1045
6.886 0.174 1.186 11561
8.270 0.209 1.398 2294
7.034 0.178 1.209 1408
4.163 0.105 0.769 1000
6.889 0.174 1.166 11362
8.258 0.209 1.372 3075
7.038 0.178 1.188 1271
4.165 0.105 0.757 990
6.900 0.175 1.147 9113
8.270 0.209 1.349 2616
8.121 0.206 1.327 792
4.167 0.106 0.745 761
6.903 0.175 1.127 6279
8.258 0.209 1.323 2643
8.253 0.209 1.298 4253
6.905 0.175 1.107 3840
8.249 0.209 1.273 5191
6.916 0.175 1.088 1883
8.100 0.205 1.252 833
8.244 0.209 1.248 4592
7.005 0.177 1.080 1294
8.095 0.205 1.228 1008
8.240 0.209 1.223 3567
8.090 0.205 1.203 1738
8.172 0.207 1.190 3109
8.321 0.211 1.209 793
8.120 0.206 1.159 3132
8.269 0.209 1.178 1761
8.131 0.206 1.136 4981
8.280 0.210 1.155 1210
8.134 0.206 1.113 5865
8.283 0.210 1.131 837
8.113 0.205 1.087 3901
8.262 0.209 1.104 1138
0.748 0.019 0.221 873
8.116 0.206 1.063 3742
0.748 0.019 0.218 982
8.142 0.206 1.042 6474
7.993 0.202 1.025 1524
0.749 0.019 0.216 932
8.152 0.206 1.019 7697
8.003 0.203 1.003 1949
0.749 0.019 0.214 854
8.155 0.207 0.996 6515
8.005 0.203 0.980 1676
8.165 0.207 0.973 3886
8.016 0.203 0.957 1387
8.425 0.213 0.999 1006
8.073 0.204 0.940 2258
8.420 0.213 0.974 1431
8.223 0.208 0.955 1375
8.076 0.205 0.916 2918
8.225 0.208 0.931 2362
8.406 0.213 0.948 1448
8.212 0.208 0.905 3851
8.062 0.204 0.891 2682
8.432 0.214 0.926 956
8.206 0.208 0.881 4280
8.056 0.204 0.867 1851
8.466 0.214 0.905 1014
8.208 0.208 0.857 3551
8.058 0.204 0.844 1645
8.453 0.214 0.879 1270
8.194 0.208 0.832 2296
8.045 0.204 0.819 1778
8.455 0.214 0.854 1454
8.062 0.204 0.797 1578
8.457 0.214 0.829 1369
8.212 0.208 0.809 1228
8.553 0.217 0.812 1934
8.246 0.209 0.788 1557
8.064 0.204 0.774 965
8.403 0.213 0.801 901
8.571 0.217 0.789 2154
8.240 0.209 0.764 1676
8.421 0.213 0.777 864
8.058 0.204 0.750 756
8.565 0.217 0.763 2031
8.234 0.209 0.739 1567
8.762 0.222 0.778 777
8.551 0.217 0.737 2695
8.220 0.208 0.714 1177
9.041 0.229 0.772 865
8.553 0.217 0.713 4409
9.034 0.229 0.745 1304
8.703 0.220 0.723 985
8.554 0.217 0.688 5187
9.028 0.229 0.718 1396
8.736 0.221 0.699 1244
8.564 0.217 0.663 4819
8.746 0.221 0.675 1265
9.022 0.228 0.692 986
8.565 0.217 0.639 3849
8.747 0.222 0.649 1112
9.197 0.233 0.676 861
8.567 0.217 0.614 2152
8.741 0.221 0.623 998
9.199 0.233 0.649 909
8.529 0.216 0.587 1230
8.758 0.222 0.599 1068
9.208 0.233 0.623 782
8.830 0.224 0.577 1128
8.522 0.216 0.562 929
8.847 0.224 0.552 1006
12.334 0.312 0.716 765
8.856 0.224 0.527 834
12.327 0.312 0.680 806
8.865 0.225 0.501 947
10.913 0.276 0.586 816
12.329 0.312 0.644 793
8.882 0.225 0.476 878
10.931 0.277 0.554 811
8.915 0.226 0.452 806
2.352 0.051 1.786 7007
2.357 0.051 1.780 14014
2.235 0.048 1.692 1449
2.362 0.051 1.773 14014
2.239 0.048 1.686 1449
2.485 0.054 1.860 802
2.367 0.051 1.766 11879
2.490 0.054 1.853 1161
2.244 0.049 1.680 1045
2.346 0.051 1.741 11044
2.469 0.053 1.828 1896
2.350 0.051 1.735 8683
2.480 0.054 1.825 3225
2.407 0.052 1.764 7513
2.531 0.055 1.850 1840
2.283 0.049 1.678 971
2.412 0.052 1.757 7513
2.536 0.055 1.842 1880
2.288 0.050 1.672 983
2.495 0.054 1.804 6590
2.371 0.051 1.719 4572
2.500 0.054 1.797 8514
2.375 0.051 1.712 2486
2.511 0.054 1.794 8109
2.386 0.052 1.710 2508
2.516 0.054 1.787 7726
2.391 0.052 1.703 2126
2.527 0.055 1.784 5530
2.402 0.052 1.701 2369
2.539 0.055 1.781 3501
2.413 0.052 1.698 2573
2.103 0.046 1.493 1030
2.544 0.055 1.774 3501
2.418 0.052 1.691 1965
2.094 0.045 1.478 1513
2.542 0.055 1.762 5280
2.091 0.045 1.468 2100
2.416 0.052 1.680 1261
2.540 0.055 1.751 7119
2.088 0.045 1.458 2394
2.414 0.052 1.669 1204
2.551 0.055 1.748 9488
2.085 0.045 1.447 2788
2.425 0.052 1.666 859
2.562 0.055 1.745 12449
2.096 0.045 1.446 2965
2.567 0.056 1.737 10595
2.100 0.045 1.440 3189
2.579 0.056 1.734 8772
2.104 0.046 1.434 3251
2.583 0.056 1.727 8536
2.107 0.046 1.428 3313
2.594 0.056 1.724 8462
2.111 0.046 1.422 2961
2.722 0.059 1.803 923
2.613 0.057 1.725 7505
2.122 0.046 1.420 2628
2.740 0.059 1.804 1096
2.637 0.057 1.730 7995
2.125 0.046 1.414 2432
2.765 0.060 1.808 946
2.662 0.058 1.734 6736
2.136 0.046 1.412 2262
2.680 0.058 1.735 6932
2.133 0.046 1.402 2125
2.685 0.058 1.727 5963
2.136 0.046 1.396 2015
2.814 0.061 1.805 1338
2.556 0.055 1.650 754
2.710 0.059 1.732 5501
2.140 0.046 1.390 1616
2.839 0.061 1.809 1497
2.581 0.056 1.655 1196
2.708 0.059 1.720 5570
2.837 0.061 1.797 2418
2.150 0.047 1.388 1224
2.579 0.056 1.643 882
2.706 0.059 1.708 5919
2.835 0.061 1.785 3312
2.154 0.047 1.382 928
2.738 0.059 1.717 4767
2.867 0.062 1.793 1821
2.770 0.060 1.725 5399
2.640 0.057 1.649 1614
2.754 0.060 1.705 5142
2.884 0.062 1.780 1867
2.751 0.060 1.693 5562
2.882 0.062 1.768 2452
2.770 0.060 1.693 5003
2.900 0.063 1.768 3649
2.870 0.062 1.740 8350
2.698 0.058 1.642 2650
2.868 0.062 1.728 10353
2.703 0.059 1.634 1933
2.999 0.065 1.802 1016
2.880 0.062 1.723 9672
2.714 0.059 1.630 1589
3.011 0.065 1.797 1242
2.898 0.063 1.723 9643
2.718 0.059 1.623 1252
3.030 0.066 1.796 820
2.896 0.063 1.711 10421
3.027 0.066 1.784 1314
2.716 0.059 1.611 938
2.900 0.063 1.702 11391
3.032 0.066 1.775 1440
2.905 0.063 1.694 10540
3.037 0.066 1.766 2797
2.986 0.065 1.727 15423
2.854 0.062 1.656 1517
3.118 0.068 1.799 776
2.998 0.065 1.723 17910
2.865 0.062 1.651 1339
3.130 0.068 1.794 767
3.002 0.065 1.714 16635
2.870 0.062 1.643 1269
2.993 0.065 1.698 15592
2.860 0.062 1.627 879
3.004 0.065 1.693 16590
2.871 0.062 1.623 943
3.009 0.065 1.684 15739
3.142 0.068 1.754 1244
2.876 0.062 1.615 775
3.013 0.065 1.676 13876
3.147 0.068 1.745 1681
3.025 0.065 1.671 13003
3.159 0.068 1.740 1628
2.891 0.063 1.602 835
3.036 0.066 1.666 12680
3.170 0.069 1.734 1314
2.903 0.063 1.597 845
3.034 0.066 1.653 12595
3.168 0.069 1.722 1211
3.038 0.066 1.645 11043
3.172 0.069 1.712 1735
3.128 0.068 1.678 12515
2.993 0.065 1.611 2182
3.132 0.068 1.670 14673
2.997 0.065 1.603 1364
3.267 0.071 1.737 1194
3.144 0.068 1.664 15664
3.278 0.071 1.731 1472
3.009 0.065 1.597 1338
3.148 0.068 1.655 17033
3.347 0.072 1.753 1688
3.145 0.068 1.642 17097
3.337 0.072 1.736 1890
3.150 0.068 1.633 17625
3.356 0.073 1.733 2610
3.147 0.068 1.621 16936
3.340 0.072 1.713 4183
3.151 0.068 1.612 16042
3.337 0.072 1.700 5918
3.473 0.075 1.765 893
3.163 0.068 1.606 14734
3.349 0.073 1.694 6734
3.485 0.075 1.758 1505
3.167 0.069 1.597 10966
3.403 0.074 1.708 7829
3.568 0.077 1.785 945
3.415 0.074 1.702 8454
3.171 0.069 1.588 5829
3.559 0.077 1.768 1039
3.420 0.074 1.692 8168
3.254 0.070 1.616 4481
3.563 0.077 1.758 1337
3.118 0.068 1.552 1014
3.431 0.074 1.685 7727
3.259 0.071 1.606 3598
3.583 0.078 1.755 2259
3.122 0.068 1.544 842
3.436 0.074 1.675 6633
3.602 0.078 1.751 3540
3.256 0.070 1.594 2296
3.606 0.078 1.740 4342
3.433 0.074 1.662 4310
3.246 0.070 1.578 1340
3.618 0.078 1.733 5111
3.481 0.075 1.672 3099
3.344 0.072 1.610 1501
3.199 0.069 1.546 862
3.616 0.078 1.720 5336
3.478 0.075 1.659 2442
3.341 0.072 1.598 975
3.203 0.069 1.537 933
3.598 0.078 1.700 5687
3.461 0.075 1.639 1374
3.215 0.070 1.531 970
3.603 0.078 1.689 6894
3.741 0.081 1.750 1021
3.226 0.070 1.524 1002
3.622 0.078 1.685 6904
3.634 0.079 1.678 6346
3.646 0.079 1.671 5691
3.791 0.082 1.733 1378
3.657 0.079 1.663 4908
3.796 0.082 1.722 2113
3.691 0.080 1.665 3886
3.830 0.083 1.723 1707
3.747 0.081 1.676 6443
3.758 0.081 1.668 9765
3.785 0.082 1.666 9937
3.797 0.082 1.658 6798
3.830 0.083 1.659 5022
3.691 0.080 1.603 1369
3.835 0.083 1.648 5622
3.695 0.080 1.592 758
3.832 0.083 1.634 7779
3.843 0.083 1.626 11697
3.855 0.083 1.618 13061
3.859 0.084 1.607 10801
3.879 0.084 1.601 12639
3.883 0.084 1.590 15193
3.887 0.084 1.579 11783
2.420 0.052 1.027 958
3.899 0.084 1.570 10492
2.423 0.052 1.021 1401
3.895 0.084 1.556 12100
2.425 0.053 1.014 1430
3.899 0.084 1.545 11988
2.420 0.052 1.004 1418
3.904 0.085 1.534 11510
2.423 0.052 0.997 1547
3.908 0.085 1.523 10248
2.515 0.054 1.022 2364
3.919 0.085 1.514 8456
2.517 0.054 1.015 2203
3.923 0.085 1.503 11125
2.520 0.055 1.008 1421
3.927 0.085 1.491 14577
2.463 0.053 0.980 1334
4.106 0.089 1.554 853
3.924 0.085 1.478 15100
2.487 0.054 0.981 1531
3.912 0.085 1.461 15486
2.490 0.054 0.973 1092
3.916 0.085 1.450 10685
3.913 0.085 1.436 6497
3.924 0.085 1.427 6721
3.928 0.085 1.416 7994
3.924 0.085 1.402 8216
3.935 0.085 1.393 8385
3.939 0.085 1.382 7383
3.957 0.086 1.375 6824
3.968 0.086 1.366 6759
3.972 0.086 1.355 4288
3.968 0.086 1.341 3804
3.994 0.086 1.337 4335
4.020 0.087 1.332 5808
4.024 0.087 1.320 7496
4.027 0.087 1.309 8541
4.016 0.087 1.293 7780
4.034 0.087 1.286 8804
4.037 0.087 1.274 9627
4.048 0.088 1.265 9233
4.059 0.088 1.255 13401
4.062 0.088 1.243 16675
4.330 0.094 1.317 1077
4.066 0.088 1.232 16149
4.318 0.093 1.300 852
4.076 0.088 1.222 10080
5.704 0.124 1.660 950
4.095 0.089 1.214 6307
5.716 0.124 1.646 826
4.098 0.089 1.202 4965
4.109 0.089 1.193 4969
4.112 0.089 1.181 5471
5.714 0.124 1.592 1818
3.568 0.077 1.041 830
5.726 0.124 1.578 5324
4.107 0.089 1.167 5011
3.570 0.077 1.031 897
5.738 0.124 1.563 9299
4.118 0.089 1.157 4974
3.573 0.077 1.020 808
5.742 0.124 1.546 9217
4.136 0.090 1.149 3554
5.746 0.124 1.530 7412
4.178 0.090 1.146 2625
5.735 0.124 1.510 7720
4.173 0.090 1.133 1961
5.739 0.124 1.493 6537
4.168 0.090 1.119 1235
5.750 0.124 1.478 5821
4.155 0.090 1.103 899
5.754 0.125 1.461 7179
5.758 0.125 1.445 6230
5.731 0.124 1.421 5289
4.936 0.107 1.242 812
5.750 0.124 1.408 5731
4.931 0.107 1.226 763
5.762 0.125 1.393 4611
5.765 0.125 1.376 3716
5.746 0.124 1.355 4664
5.765 0.125 1.341 5478
5.784 0.125 1.328 5062
5.802 0.126 1.314 3843
5.655 0.122 1.284 1050
3.864 0.084 0.918 965
5.814 0.126 1.299 3884
5.666 0.123 1.269 1867
3.874 0.084 0.908 1280
5.724 0.124 1.264 3785
5.871 0.127 1.293 1473
3.876 0.084 0.897 1270
6.881 0.149 1.493 1128
5.727 0.124 1.247 2178
5.898 0.128 1.281 2128
6.877 0.149 1.472 1618
6.046 0.131 1.310 1401
5.894 0.128 1.262 3359
6.881 0.149 1.452 2345
6.049 0.131 1.292 1834
4.129 0.089 0.923 1479
5.905 0.128 1.247 3088
6.877 0.149 1.431 3039
6.231 0.135 1.308 2275
4.131 0.089 0.911 2212
6.880 0.149 1.411 3250
6.242 0.135 1.292 2658
4.141 0.090 0.900 2604
5.908 0.128 1.229 2415
6.868 0.149 1.388 3518
4.144 0.090 0.888 3049
6.261 0.136 1.277 2495
5.919 0.128 1.214 1786
6.864 0.149 1.367 4255
4.146 0.090 0.876 3364
6.257 0.135 1.257 2632
6.023 0.130 1.215 1400
6.868 0.149 1.347 3946
6.252 0.135 1.238 3663
4.148 0.090 0.865 3080
5.231 0.113 1.057 1045
6.871 0.149 1.327 4037
6.255 0.135 1.219 3510
4.142 0.090 0.851 2846
6.068 0.131 1.187 781
6.875 0.149 1.307 5546
6.290 0.136 1.207 2491
4.144 0.090 0.839 2452
6.863 0.149 1.284 6984
4.146 0.090 0.827 1654
6.308 0.137 1.191 1552
6.866 0.149 1.264 6941
4.141 0.090 0.814 962
6.304 0.136 1.172 857
6.869 0.149 1.245 7682
6.307 0.137 1.153 877
6.880 0.149 1.226 10407
6.883 0.149 1.206 11659
8.283 0.179 1.425 1242
7.032 0.152 1.229 944
4.154 0.090 0.780 895
6.886 0.149 1.186 11827
8.263 0.179 1.397 1942
7.035 0.152 1.209 1515
4.156 0.090 0.768 1038
6.889 0.149 1.166 11826
8.259 0.179 1.372 2737
7.038 0.152 1.188 1375
4.166 0.090 0.757 1008
6.900 0.149 1.147 9639
8.278 0.179 1.350 2264
8.130 0.176 1.328 1020
4.160 0.090 0.744 838
6.903 0.149 1.127 6457
8.282 0.179 1.326 2079
8.133 0.176 1.305 1446
7.459 0.162 1.208 819
6.906 0.150 1.107 3956
8.254 0.179 1.298 3396
7.462 0.162 1.186 1185
8.105 0.175 1.277 895
8.242 0.178 1.272 4723
6.909 0.150 1.087 2108
7.473 0.162 1.165 1156
8.093 0.175 1.251 828
8.245 0.179 1.248 4314
7.006 0.152 1.080 1348
8.096 0.175 1.228 1343
8.240 0.178 1.223 3660
8.091 0.175 1.203 2439
7.016 0.152 1.061 837
8.173 0.177 1.190 3190
8.121 0.176 1.159 3593
8.270 0.179 1.178 1786
8.124 0.176 1.136 5239
8.273 0.179 1.154 1321
8.127 0.176 1.112 5931
8.114 0.176 1.087 4374
0.748 0.016 0.221 930
8.054 0.174 1.056 4319
8.203 0.178 1.073 2088
0.748 0.016 0.218 1106
8.143 0.176 1.042 5900
7.993 0.173 1.025 2231
0.749 0.016 0.216 1096
8.145 0.176 1.018 6976
7.996 0.173 1.002 2155
0.749 0.016 0.214 1027
8.156 0.177 0.996 5588
8.006 0.173 0.980 2419
0.749 0.016 0.212 885
8.166 0.177 0.973 3187
8.016 0.174 0.957 1969
8.074 0.175 0.940 2626
8.224 0.178 0.955 1063
8.420 0.182 0.974 874
8.076 0.175 0.916 3585
8.226 0.178 0.931 1993
8.415 0.182 0.949 963
7.927 0.172 0.902 774
8.078 0.175 0.893 3598
8.228 0.178 0.907 2973
7.929 0.172 0.879 880
8.207 0.178 0.881 3911
8.057 0.174 0.867 2530
8.201 0.178 0.856 3356
8.051 0.174 0.843 2105
8.453 0.183 0.879 961
8.195 0.177 0.832 2362
8.045 0.174 0.819 2105
8.455 0.183 0.854 1198
8.063 0.175 0.797 1904
8.513 0.184 0.834 1375
8.292 0.180 0.816 1350
8.538 0.185 0.811 1706
8.254 0.179 0.789 1450
8.073 0.175 0.774 1427
8.556 0.185 0.788 1717
8.240 0.178 0.764 1572
8.051 0.174 0.749 1375
8.558 0.185 0.763 1777
8.226 0.178 0.738 1543
8.045 0.174 0.725 1226
8.552 0.185 0.737 2855
8.220 0.178 0.714 1180
8.039 0.174 0.701 957
8.554 0.185 0.713 4802
8.704 0.188 0.723 825
9.027 0.195 0.745 825
8.555 0.185 0.688 5736
8.753 0.190 0.701 1198
9.021 0.195 0.718 942
8.358 0.181 0.675 822
8.565 0.185 0.663 5179
8.754 0.190 0.675 1222
8.566 0.185 0.639 4050
8.740 0.189 0.649 1191
9.190 0.199 0.675 784
8.552 0.185 0.613 2413
8.741 0.189 0.623 1133
9.192 0.199 0.649 812
8.521 0.184 0.586 1613
8.806 0.191 0.601 1075
8.515 0.184 0.561 1473
8.823 0.191 0.577 1292
8.832 0.191 0.551 1268
8.508 0.184 0.536 1131
8.982 0.194 0.558 751
8.849 0.192 0.526 1051
8.509 0.184 0.511 879
8.850 0.192 0.501 942
8.851 0.192 0.475 768
8.916 0.193 0.452 764
14.561 0.315 0.439 853
14.562 0.315 0.396 917
2.353 0.044 1.786 7137
2.230 0.041 1.699 750
2.357 0.044 1.780 14275
2.235 0.041 1.692 1501
2.362 0.044 1.773 14275
2.239 0.042 1.686 1501
2.367 0.044 1.766 12105
2.244 0.042 1.680 1164
2.490 0.046 1.853 974
2.346 0.044 1.741 11106
2.469 0.046 1.828 1670
2.357 0.044 1.739 8651
2.480 0.046 1.825 3089
2.407 0.045 1.764 6830
2.531 0.047 1.850 1667
2.283 0.042 1.678 1089
2.412 0.045 1.757 6830
2.536 0.047 1.842 1690
2.288 0.042 1.672 1085
2.495 0.046 1.804 7033
2.371 0.044 1.719 3928
2.500 0.046 1.797 9360
2.375 0.044 1.712 1499
2.505 0.046 1.790 8935
2.380 0.044 1.705 1395
2.516 0.047 1.787 8689
2.391 0.044 1.703 1377
2.528 0.047 1.784 6312
2.402 0.045 1.701 1600
2.539 0.047 1.781 4125
2.413 0.045 1.698 1827
2.103 0.039 1.493 821
2.544 0.047 1.774 4125
2.087 0.039 1.474 1517
2.418 0.045 1.691 1323
2.542 0.047 1.762 5452
2.091 0.039 1.468 2310
2.416 0.045 1.680 792
2.540 0.047 1.751 6760
2.088 0.039 1.458 3118
2.414 0.045 1.669 774
2.551 0.047 1.748 9405
2.092 0.039 1.452 3953
2.563 0.048 1.745 12588
2.096 0.039 1.446 4133
2.567 0.048 1.737 10791
2.107 0.039 1.444 4378
2.572 0.048 1.730 8993
2.110 0.039 1.438 3930
2.583 0.048 1.727 8398
2.114 0.039 1.432 3482
2.711 0.050 1.807 801
2.595 0.048 1.724 7875
2.111 0.039 1.422 2588
2.722 0.051 1.803 961
2.613 0.048 1.725 6595
2.115 0.039 1.416 1706
2.741 0.051 1.804 1105
2.651 0.049 1.738 7329
2.125 0.039 1.414 1091
2.669 0.050 1.739 7489
2.681 0.050 1.735 8350
2.133 0.040 1.402 758
2.692 0.050 1.731 7526
2.821 0.052 1.809 1369
2.130 0.040 1.392 1050
2.710 0.050 1.732 7289
2.839 0.053 1.809 1648
2.140 0.040 1.390 1047
2.708 0.050 1.720 6894
2.837 0.053 1.797 2674
2.144 0.040 1.384 1064
2.706 0.050 1.708 6795
2.835 0.053 1.785 3587
2.154 0.040 1.382 852
2.717 0.050 1.705 5200
2.847 0.053 1.781 3252
2.777 0.052 1.729 5367
2.647 0.049 1.653 1285
2.747 0.051 1.701 5325
2.877 0.053 1.776 2151
2.751 0.051 1.693 5934
2.882 0.053 1.768 2336
2.763 0.051 1.689 5146
2.893 0.054 1.764 4245
2.871 0.053 1.740 8777
2.699 0.050 1.642 2433
2.868 0.053 1.728 10518
2.696 0.050 1.630 1831
2.999 0.056 1.802 899
2.887 0.054 1.727 9782
2.707 0.050 1.627 1447
3.018 0.056 1.801 877
2.898 0.054 1.723 9533
2.725 0.051 1.627 1171
3.030 0.056 1.796 814
2.896 0.054 1.711 9420
3.028 0.056 1.784 1221
2.737 0.051 1.623 844
2.901 0.054 1.702 9395
3.032 0.056 1.775 1302
2.912 0.054 1.698 9656
3.044 0.056 1.770 1589
2.986 0.055 1.727 14346
2.854 0.053 1.656 1593
3.118 0.058 1.799 804
2.998 0.056 1.723 16792
2.865 0.053 1.651 1460
3.130 0.058 1.794 779
3.002 0.056 1.714 15236
2.870 0.053 1.643 1303
3.000 0.056 1.702 13714
2.867 0.053 1.631 949
3.005 0.056 1.693 14186
2.872 0.053 1.623 869
3.009 0.056 1.684 13691
3.142 0.058 1.754 1125
3.014 0.056 1.676 12724
3.147 0.058 1.745 1496
3.025 0.056 1.671 11551
3.159 0.059 1.740 1515
3.037 0.056 1.666 10803
3.170 0.059 1.734 1518
3.034 0.056 1.653 10491
3.168 0.059 1.722 1744
3.038 0.056 1.645 9296
3.173 0.059 1.712 2375
3.128 0.058 1.678 10993
2.993 0.056 1.611 1854
3.132 0.058 1.670 12268
3.267 0.061 1.737 1199
2.998 0.056 1.603 1004
3.144 0.058 1.664 12608
3.321 0.062 1.752 1490
3.009 0.056 1.597 1134
3.148 0.058 1.655 12350
3.333 0.062 1.746 1722
3.013 0.056 1.589 819
3.153 0.059 1.646 11293
3.345 0.062 1.739 1918
3.017 0.056 1.580 832
3.150 0.058 1.633 10418
3.364 0.062 1.737 2559
3.147 0.058 1.621 11265
3.333 0.062 1.710 4093
3.151 0.058 1.612 12428
3.337 0.062 1.700 5895
3.163 0.059 1.606 12675
3.349 0.062 1.694 6825
3.485 0.065 1.758 929
3.167 0.059 1.597 11134
3.411 0.063 1.711 7831
3.583 0.066 1.792 801
3.423 0.064 1.705 8717
3.171 0.059 1.588 6788
3.573 0.066 1.775 757
3.420 0.063 1.692 8550
3.176 0.059 1.579 4553
3.578 0.066 1.765 1257
3.424 0.064 1.682 8278
3.187 0.059 1.573 3218
3.583 0.066 1.755 2430
3.436 0.064 1.675 7334
3.595 0.067 1.747 4177
3.270 0.061 1.600 1742
3.607 0.067 1.740 5092
3.441 0.064 1.666 4743
3.303 0.061 1.604 1148
3.611 0.067 1.730 5600
3.474 0.064 1.669 3742
3.337 0.062 1.607 1672
3.199 0.059 1.546 955
3.616 0.067 1.720 5473
3.478 0.065 1.659 3012
3.341 0.062 1.598 1258
3.203 0.059 1.537 1081
3.599 0.067 1.700 5459
3.461 0.064 1.639 1727
3.215 0.060 1.531 1129
3.736 0.069 1.760 800
3.603 0.067 1.689 6890
3.226 0.060 1.524 1106
3.465 0.064 1.629 1087
3.741 0.069 1.750 1035
3.615 0.067 1.682 7347
3.753 0.070 1.742 807
3.223 0.060 1.512 792
3.627 0.067 1.675 6909
3.765 0.070 1.734 806
3.639 0.068 1.667 6261
3.777 0.070 1.727 1746
3.658 0.068 1.663 5361
3.796 0.070 1.722 2492
3.698 0.069 1.668 4913
3.837 0.071 1.726 1286
3.560 0.066 1.610 773
3.747 0.070 1.676 7793
3.608 0.067 1.618 794
3.751 0.070 1.665 10602
3.763 0.070 1.657 9571
3.753 0.070 1.640 6876
3.750 0.070 1.626 6622
3.889 0.072 1.683 1169
3.754 0.070 1.616 7803
3.894 0.072 1.671 978
3.832 0.071 1.634 7265
3.692 0.069 1.579 776
3.844 0.071 1.626 10158
3.704 0.069 1.571 1006
3.855 0.072 1.618 11683
3.715 0.069 1.563 876
3.860 0.072 1.607 9550
3.864 0.072 1.595 11044
3.876 0.072 1.587 14365
3.872 0.072 1.573 10718
2.420 0.045 1.027 1041
3.884 0.072 1.565 8335
2.430 0.045 1.023 1599
3.896 0.072 1.556 9866
2.433 0.045 1.016 1775
3.900 0.072 1.545 10732
2.428 0.045 1.007 1274
3.904 0.072 1.534 11388
2.423 0.045 0.997 1106
3.900 0.072 1.520 9914
2.515 0.047 1.022 1745
3.912 0.073 1.511 6757
2.510 0.047 1.012 1949
3.923 0.073 1.503 8643
2.512 0.047 1.005 1528
3.927 0.073 1.491 12863
2.470 0.046 0.982 1791
4.099 0.076 1.551 753
3.916 0.073 1.475 13772
2.495 0.046 0.983 2501
3.913 0.073 1.461 12862
2.497 0.046 0.976 1427
3.917 0.073 1.450 8107
3.913 0.073 1.436 4335
3.924 0.073 1.427 4287
3.928 0.073 1.416 6622
3.924 0.073 1.402 9713
3.928 0.073 1.391 13095
3.939 0.073 1.382 14991
3.950 0.073 1.373 13384
3.969 0.074 1.366 11257
3.972 0.074 1.355 6832
3.976 0.074 1.344 3717
3.987 0.074 1.334 4555
4.006 0.074 1.327 6760
4.009 0.074 1.316 7943
4.012 0.074 1.304 7989
4.008 0.074 1.291 7267
4.027 0.075 1.283 7635
4.038 0.075 1.274 8834
4.041 0.075 1.262 9948
4.059 0.075 1.255 13388
4.063 0.075 1.243 17242
4.330 0.080 1.317 1020
4.058 0.075 1.229 16671
4.318 0.080 1.300 881
4.069 0.076 1.220 9254
4.088 0.076 1.212 5011
4.098 0.076 1.202 3679
4.132 0.077 1.199 3280
4.104 0.076 1.179 5123
5.707 0.106 1.590 2035
3.568 0.066 1.041 760
4.107 0.076 1.167 6956
5.719 0.106 1.576 5336
3.563 0.066 1.029 849
5.731 0.106 1.561 7795
4.118 0.076 1.157 6023
3.565 0.066 1.019 931
5.727 0.106 1.543 6362
4.113 0.076 1.143 2959
5.716 0.106 1.522 6288
4.078 0.076 1.122 2457
4.224 0.078 1.158 1287
5.720 0.106 1.506 6527
4.096 0.076 1.114 1977
5.731 0.106 1.491 4485
4.153 0.077 1.115 1392
5.743 0.107 1.476 4345
4.156 0.077 1.103 1164
5.096 0.095 1.324 782
5.755 0.107 1.461 4980
4.158 0.077 1.091 912
5.091 0.094 1.308 876
5.720 0.106 1.436 4404
5.103 0.095 1.295 800
5.724 0.106 1.419 5287
5.743 0.107 1.406 4799
5.762 0.107 1.393 3774
5.615 0.104 1.361 1339
5.735 0.106 1.370 4082
5.738 0.106 1.353 4747
5.765 0.107 1.341 4292
5.784 0.107 1.328 3785
5.637 0.105 1.297 772
5.725 0.106 1.299 4264
5.873 0.109 1.329 1187
5.721 0.106 1.280 5474
5.868 0.109 1.310 1772
3.882 0.072 0.910 933
5.724 0.106 1.264 5192
5.887 0.109 1.296 2408
3.884 0.072 0.899 870
5.883 0.109 1.278 3045
5.735 0.106 1.249 2702
6.030 0.112 1.307 1365
4.135 0.077 0.936 1157
5.878 0.109 1.259 2548
6.049 0.112 1.292 2158
4.129 0.077 0.923 1664
6.881 0.128 1.452 1485
6.053 0.112 1.275 2535
4.132 0.077 0.911 2498
6.877 0.128 1.431 1737
5.905 0.110 1.247 1651
4.134 0.077 0.899 2817
6.258 0.116 1.295 2603
6.040 0.112 1.254 2277
6.857 0.127 1.406 1759
6.269 0.116 1.278 3298
4.136 0.077 0.887 2856
6.853 0.127 1.385 2571
6.044 0.112 1.237 2195
6.857 0.127 1.365 3577
6.265 0.116 1.258 3486
4.146 0.077 0.876 3188
6.039 0.112 1.218 2173
6.260 0.116 1.239 4372
6.853 0.127 1.344 3536
4.156 0.077 0.866 2972
6.050 0.112 1.202 1706
6.264 0.116 1.221 4221
6.872 0.128 1.327 3196
4.150 0.077 0.853 2721
6.061 0.112 1.186 1511
6.867 0.127 1.306 4022
6.290 0.117 1.207 3256
4.145 0.077 0.839 2890
6.072 0.113 1.169 1088
6.863 0.127 1.284 5589
4.154 0.077 0.829 2585
6.309 0.117 1.191 2355
6.866 0.127 1.264 6498
4.149 0.077 0.815 1956
6.320 0.117 1.174 1555
6.877 0.128 1.246 8177
6.315 0.117 1.155 1388
4.151 0.077 0.803 1367
6.881 0.128 1.226 10727
6.302 0.117 1.134 818
6.884 0.128 1.206 11468
8.284 0.154 1.425 847
6.887 0.128 1.186 11221
8.264 0.153 1.397 1506
7.035 0.131 1.209 1180
4.156 0.077 0.768 770
6.890 0.128 1.166 11211
8.260 0.153 1.372 2205
7.039 0.131 1.188 1016
4.158 0.077 0.756 817
6.901 0.128 1.147 9433
8.287 0.154 1.351 1927
8.138 0.151 1.330 1091
7.480 0.139 1.233 904
6.904 0.128 1.127 6329
8.173 0.152 1.310 2033
8.322 0.154 1.332 1456
7.460 0.138 1.208 1133
6.906 0.128 1.107 3916
8.231 0.153 1.294 2589
7.471 0.139 1.187 1546
7.322 0.136 1.166 1116
8.242 0.153 1.272 4094
6.909 0.128 1.087 2237
7.474 0.139 1.165 1562
7.325 0.136 1.145 1030
8.238 0.153 1.247 3871
8.089 0.150 1.227 1559
6.904 0.128 1.066 1172
7.461 0.138 1.142 924
8.241 0.153 1.223 3427
8.092 0.150 1.203 2922
7.472 0.139 1.121 902
8.087 0.150 1.179 3726
8.236 0.153 1.198 2929
7.482 0.139 1.100 1048
8.113 0.151 1.158 3620
8.263 0.153 1.177 1775
7.501 0.139 1.081 850
8.124 0.151 1.136 4860
8.274 0.154 1.154 1208
7.527 0.140 1.062 764
8.119 0.151 1.111 5570
8.091 0.150 1.084 4435
0.748 0.014 0.221 821
8.046 0.149 1.055 5207
8.196 0.152 1.072 1763
0.749 0.014 0.218 1036
8.041 0.149 1.031 5794
8.190 0.152 1.047 2803
0.749 0.014 0.216 1074
8.138 0.151 1.018 5818
7.988 0.148 1.001 1754
0.749 0.014 0.214 1034
8.046 0.149 0.984 4622
8.196 0.152 1.000 2425
0.749 0.014 0.212 909
8.056 0.150 0.961 3153
8.206 0.152 0.977 1281
8.059 0.150 0.938 2708
8.208 0.152 0.953 1054
8.077 0.150 0.916 3590
8.226 0.153 0.931 1623
7.927 0.147 0.902 1210
8.079 0.150 0.893 3675
8.229 0.153 0.907 2308
7.929 0.147 0.879 1270
8.207 0.152 0.881 3079
8.057 0.150 0.867 2889
8.202 0.152 0.856 2782
8.052 0.149 0.843 2715
8.046 0.149 0.819 2841
8.196 0.152 0.832 2232
8.511 0.158 0.859 884
8.346 0.155 0.845 785
8.048 0.149 0.796 2403
8.292 0.154 0.816 1555
8.513 0.158 0.834 1533
8.050 0.149 0.772 1938
8.531 0.158 0.811 1599
8.271 0.153 0.790 1374
8.044 0.149 0.748 2120
8.225 0.153 0.762 1512
8.541 0.158 0.786 1399
8.375 0.155 0.774 778
8.045 0.149 0.725 1958
8.543 0.159 0.762 1649
8.219 0.153 0.738 1550
8.552 0.159 0.737 2744
8.039 0.149 0.701 1549
8.213 0.152 0.713 1162
8.554 0.159 0.713 4484
8.357 0.155 0.699 934
8.041 0.149 0.678 922
8.556 0.159 0.688 5353
8.366 0.155 0.676 1229
8.753 0.162 0.701 982
8.565 0.159 0.663 4649
8.755 0.162 0.675 1027
8.336 0.155 0.649 1016
8.551 0.159 0.638 3723
8.756 0.162 0.650 888
8.330 0.155 0.625 754
8.536 0.158 0.612 2795
8.522 0.158 0.586 2035
8.830 0.164 0.603 986
8.515 0.158 0.561 1793
8.832 0.164 0.577 1347
8.841 0.164 0.552 1643
8.517 0.158 0.536 1349
8.842 0.164 0.526 1579
8.533 0.158 0.512 1161
9.253 0.172 0.544 752
8.859 0.164 0.501 1227
8.535 0.158 0.488 1036
8.955 0.166 0.479 914
8.536 0.158 0.463 913
8.765 0.163 0.472 761
8.956 0.166 0.453 1346
8.536 0.158 0.438 916
8.774 0.163 0.447 852
8.964 0.166 0.427 1324
8.537 0.158 0.413 822
8.981 0.167 0.402 967
9.347 0.173 0.331 777
9.379 0.174 0.304 770
2.353 0.031 1.786 6908
2.358 0.031 1.780 13817
2.235 0.029 1.692 1374
2.362 0.031 1.773 13817
2.240 0.030 1.686 1374
2.361 0.031 1.762 11936
2.484 0.033 1.848 1144
2.238 0.030 1.675 924
2.352 0.031 1.746 11049
2.476 0.033 1.832 1558
2.357 0.031 1.739 8392
2.481 0.033 1.825 3227
2.407 0.032 1.764 5928
2.531 0.033 1.850 1621
2.284 0.030 1.678 849
2.412 0.032 1.757 5928
2.536 0.033 1.842 1639
2.288 0.030 1.672 853
2.495 0.033 1.804 7103
2.371 0.031 1.719 3249
2.500 0.033 1.797 9311
2.343 0.031 1.690 860
2.505 0.033 1.790 8983
2.380 0.031 1.705 1018
2.516 0.033 1.787 8798
2.391 0.032 1.703 1410
2.521 0.033 1.780 6630
2.396 0.032 1.696 1403
2.533 0.033 1.777 4603
2.407 0.032 1.694 1555
2.537 0.033 1.770 4603
2.412 0.032 1.687 1033
2.081 0.027 1.470 937
2.542 0.034 1.762 5767
2.085 0.028 1.464 1529
2.547 0.034 1.755 6884
2.082 0.027 1.453 2359
2.558 0.034 1.752 9637
2.086 0.028 1.447 3226
2.570 0.034 1.749 12843
2.096 0.028 1.446 3733
2.574 0.034 1.742 10873
2.107 0.028 1.444 4289
2.572 0.034 1.730 8917
2.111 0.028 1.438 4315
2.699 0.036 1.810 803
2.584 0.034 1.727 7993
2.114 0.028 1.432 4340
2.711 0.036 1.807 985
2.588 0.034 1.719 7084
2.118 0.028 1.426 3881
2.716 0.036 1.799 1212
2.613 0.034 1.725 5720
2.122 0.028 1.420 3423
2.741 0.036 1.804 1153
2.658 0.035 1.742 6981
2.132 0.028 1.418 2692
2.669 0.035 1.739 7675
2.143 0.028 1.416 2016
2.681 0.035 1.735 8842
2.140 0.028 1.406 1576
2.692 0.036 1.731 8193
2.821 0.037 1.809 1415
2.143 0.028 1.400 1149
2.710 0.036 1.732 8082
2.839 0.037 1.809 1689
2.147 0.028 1.394 908
2.708 0.036 1.720 7626
2.838 0.037 1.797 2797
2.706 0.036 1.708 7346
2.836 0.037 1.785 3720
2.718 0.036 1.705 5835
2.847 0.038 1.781 3432
2.777 0.037 1.729 5363
2.647 0.035 1.653 1191
2.740 0.036 1.697 5454
2.870 0.038 1.772 2316
2.745 0.036 1.689 5996
2.875 0.038 1.764 2179
2.866 0.038 1.748 5101
2.736 0.036 1.673 4327
2.871 0.038 1.740 9198
2.740 0.036 1.666 2573
2.875 0.038 1.732 10861
2.696 0.036 1.630 1772
2.887 0.038 1.727 9970
2.701 0.036 1.623 1427
3.018 0.040 1.801 830
2.899 0.038 1.723 9585
2.712 0.036 1.619 1110
3.030 0.040 1.796 814
2.903 0.038 1.715 8640
2.772 0.037 1.642 800
3.035 0.040 1.787 786
2.901 0.038 1.702 7788
3.033 0.040 1.775 1173
2.912 0.038 1.698 8903
3.044 0.040 1.770 1336
2.986 0.039 1.727 12332
2.854 0.038 1.656 1549
3.119 0.041 1.799 842
2.998 0.040 1.723 14584
2.866 0.038 1.651 1539
3.130 0.041 1.794 822
3.003 0.040 1.714 12882
2.870 0.038 1.643 1367
3.014 0.040 1.709 11433
2.881 0.038 1.638 1324
3.005 0.040 1.693 10812
3.009 0.040 1.684 10672
3.143 0.041 1.754 894
3.007 0.040 1.672 10775
3.140 0.041 1.741 1147
3.018 0.040 1.667 9484
3.152 0.042 1.736 1250
3.037 0.040 1.666 7902
3.171 0.042 1.734 1508
3.034 0.040 1.653 7208
3.168 0.042 1.722 2162
3.131 0.041 1.691 7271
2.996 0.040 1.623 3336
3.135 0.041 1.682 10421
3.001 0.040 1.615 2296
3.140 0.041 1.673 11218
3.005 0.040 1.606 1284
3.274 0.043 1.740 1087
3.144 0.041 1.664 10277
3.314 0.044 1.748 1656
3.009 0.040 1.597 940
3.156 0.042 1.658 8316
3.326 0.044 1.742 1791
3.167 0.042 1.653 7593
3.338 0.044 1.736 1904
3.032 0.040 1.587 851
3.171 0.042 1.644 7139
