7.738 2.299 1.633 5015
7.880 2.342 1.660 3084
7.597 2.257 1.605 1616
8.022 2.384 1.688 1379
7.735 2.298 1.608 3515
7.884 2.343 1.636 2812
8.026 2.385 1.663 1204
8.504 2.527 1.755 1191
7.971 2.368 1.628 3908
7.739 2.300 1.584 2287
8.381 2.491 1.705 1526
8.523 2.533 1.732 1379
7.967 2.367 1.602 3892
7.743 2.301 1.561 2237
8.386 2.492 1.680 2154
8.573 2.547 1.714 1727
7.897 2.346 1.565 3125
7.755 2.304 1.539 2243
8.584 2.551 1.690 1687
8.405 2.498 1.657 1615
7.983 2.372 1.555 2302
8.596 2.554 1.665 1794
7.758 2.305 1.515 1526
8.417 2.501 1.633 1132
8.615 2.560 1.642 2505
7.987 2.373 1.531 1323
8.421 2.502 1.607 1093
7.762 2.307 1.492 768
8.635 2.566 1.618 2575
7.916 2.352 1.494 948
8.425 2.503 1.582 934
8.669 2.576 1.597 2409
8.658 2.573 1.568 2142
9.475 2.815 1.704 924
8.654 2.572 1.541 2023
9.479 2.817 1.675 1662
9.104 2.705 1.614 929
9.483 2.818 1.647 2213
8.650 2.570 1.513 1964
9.116 2.709 1.588 1480
9.127 2.712 1.561 3180
9.495 2.821 1.619 2622
8.647 2.569 1.486 1757
9.124 2.711 1.533 5163
9.499 2.823 1.590 2828
8.651 2.571 1.460 1590
10.663 3.168 1.769 976
9.127 2.712 1.505 6704
9.495 2.822 1.560 2587
8.654 2.572 1.434 1363
10.660 3.168 1.736 971
9.131 2.713 1.477 7194
9.499 2.823 1.532 1904
8.665 2.575 1.409 1147
10.679 3.173 1.705 863
9.135 2.714 1.450 5815
9.503 2.824 1.503 1422
11.044 3.282 1.725 1272
10.721 3.186 1.678 958
9.146 2.718 1.423 4740
11.064 3.288 1.694 1619
9.515 2.827 1.475 1314
10.733 3.189 1.647 1118
9.150 2.719 1.395 3712
9.518 2.828 1.446 1369
11.068 3.289 1.660 1020
11.301 3.358 1.692 1000
9.161 2.722 1.369 1987
9.522 2.829 1.417 1182
11.185 3.324 1.642 1092
11.644 3.460 1.704 920
9.164 2.723 1.341 1143
11.189 3.325 1.608 1119
11.656 3.464 1.670 1003
11.332 3.367 1.627 831
11.653 3.463 1.633 938
9.175 2.726 1.314 915
11.193 3.326 1.574 841
11.344 3.371 1.593 777
12.181 3.620 1.626 932
11.495 3.416 1.542 779
12.268 3.645 1.599 1242
12.849 3.818 1.669 908
12.883 3.828 1.633 935
12.264 3.644 1.561 925
13.705 4.072 1.729 754
13.611 4.045 1.676 935
12.895 3.832 1.595 841
13.317 3.957 1.643 758
13.608 4.044 1.634 1236
13.751 4.086 1.650 879
8.899 2.644 1.115 848
13.620 4.047 1.594 950
8.894 2.643 1.087 918
13.763 4.090 1.609 752
8.897 2.644 1.060 1053
13.639 4.053 1.554 825
8.892 2.642 1.032 1119
13.650 4.056 1.513 770
8.894 2.643 1.005 1106
8.889 2.641 0.978 918
8.884 2.640 0.950 785
8.875 2.637 0.868 895
8.877 2.638 0.841 1037
8.879 2.638 0.814 1035
8.881 2.639 0.787 871
8.909 2.647 0.303 813
8.909 2.647 0.276 785
2.266 0.659 1.791 2760
2.270 0.660 1.784 5521
2.153 0.626 1.697 1349
2.388 0.695 1.872 917
2.275 0.662 1.778 5521
2.393 0.696 1.865 1835
2.157 0.628 1.691 1349
2.273 0.661 1.766 5837
2.391 0.696 1.853 2593
2.155 0.627 1.680 788
2.278 0.663 1.760 6217
2.396 0.697 1.846 3267
2.288 0.666 1.757 5410
2.407 0.700 1.843 3441
2.324 0.676 1.773 4969
2.443 0.711 1.859 2775
2.323 0.676 1.762 4969
2.442 0.710 1.847 3328
2.333 0.679 1.759 5412
2.453 0.714 1.844 3806
2.338 0.680 1.752 5854
2.457 0.715 1.837 4369
2.456 0.715 1.825 7473
2.336 0.680 1.741 4663
2.461 0.716 1.818 10576
2.341 0.681 1.734 3638
2.581 0.751 1.901 790
2.459 0.715 1.806 11322
2.339 0.680 1.723 2514
2.579 0.750 1.889 894
2.457 0.715 1.794 12545
2.578 0.750 1.877 1661
2.337 0.680 1.711 1253
2.462 0.716 1.787 12545
2.583 0.751 1.870 2125
2.341 0.681 1.704 1202
2.467 0.718 1.780 10701
2.587 0.753 1.862 2283
2.346 0.682 1.697 1151
2.465 0.717 1.768 8800
2.586 0.752 1.850 2632
2.344 0.682 1.686 1084
2.469 0.718 1.761 7310
2.591 0.754 1.842 2755
2.551 0.742 1.804 5862
2.429 0.707 1.723 1816
2.672 0.777 1.886 1731
2.568 0.747 1.805 4711
2.446 0.712 1.725 2500
2.690 0.783 1.886 1371
2.611 0.760 1.823 5960
2.483 0.722 1.738 2959
2.622 0.763 1.820 6886
2.487 0.724 1.731 2659
2.634 0.766 1.816 8027
2.498 0.727 1.728 2385
2.658 0.773 1.821 7467
2.509 0.730 1.725 2290
2.675 0.778 1.821 7758
2.514 0.731 1.717 2244
2.680 0.780 1.813 6289
2.557 0.744 1.734 1740
2.691 0.783 1.809 4894
2.568 0.747 1.731 1479
2.696 0.784 1.801 6846
2.572 0.748 1.723 1163
2.707 0.788 1.797 8904
2.583 0.752 1.720 866
2.718 0.791 1.793 9215
2.723 0.792 1.785 9882
2.727 0.794 1.777 7601
2.732 0.795 1.769 5320
2.857 0.831 1.845 758
2.730 0.794 1.757 3810
2.855 0.831 1.832 1226
2.807 0.817 1.792 3390
2.682 0.780 1.717 2095
2.845 0.828 1.803 3844
2.719 0.791 1.728 2356
2.856 0.831 1.799 5237
2.730 0.794 1.724 2031
2.861 0.832 1.790 5593
2.735 0.796 1.716 1391
2.865 0.834 1.782 4847
2.991 0.870 1.855 2015
2.739 0.797 1.708 861
2.963 0.862 1.827 4219
2.837 0.825 1.754 3010
2.854 0.830 1.753 4782
2.981 0.867 1.826 4273
2.859 0.832 1.744 5948
2.999 0.872 1.824 4592
2.863 0.833 1.736 7601
3.003 0.874 1.816 3729
2.868 0.834 1.727 9438
3.028 0.881 1.818 3208
2.879 0.838 1.723 9925
3.006 0.875 1.794 3271
2.890 0.841 1.718 8690
3.017 0.878 1.789 4163
3.145 0.915 1.859 853
2.894 0.842 1.709 7631
3.022 0.879 1.780 4928
3.150 0.916 1.850 897
2.899 0.843 1.700 6379
3.027 0.881 1.770 5265
3.154 0.918 1.841 1141
3.011 0.876 1.750 5011
3.139 0.913 1.820 3649
2.883 0.839 1.681 3574
3.144 0.915 1.811 4930
3.016 0.877 1.741 3547
2.887 0.840 1.672 2942
3.155 0.918 1.805 5650
3.027 0.881 1.736 3164
2.898 0.843 1.667 1977
3.167 0.921 1.799 6530
3.038 0.884 1.731 2176
3.171 0.923 1.790 5835
2.981 0.867 1.689 1823
3.183 0.926 1.784 4242
3.054 0.888 1.716 1488
3.153 0.917 1.757 3761
3.165 0.921 1.751 4605
3.176 0.924 1.745 5813
3.180 0.925 1.735 6261
3.185 0.927 1.726 7000
3.315 0.964 1.791 762
3.203 0.932 1.723 6744
3.333 0.970 1.788 852
3.207 0.933 1.713 7401
3.338 0.971 1.778 2327
3.212 0.934 1.704 8689
3.342 0.972 1.768 3444
3.216 0.936 1.694 8704
3.347 0.974 1.758 5030
3.317 0.965 1.732 13537
3.186 0.927 1.668 3964
3.321 0.966 1.722 14463
3.190 0.928 1.658 1966
3.326 0.968 1.712 12508
3.195 0.929 1.649 863
3.344 0.973 1.708 9988
3.213 0.935 1.646 831
3.475 1.011 1.771 761
3.369 0.980 1.708 9021
3.401 0.990 1.711 11256
3.270 0.951 1.649 1062
3.413 0.993 1.704 11860
3.281 0.955 1.643 872
3.403 0.990 1.688 8541
3.435 0.999 1.690 6855
3.439 1.001 1.680 8611
3.676 1.070 1.788 1205
3.437 1.000 1.666 7552
3.681 1.071 1.777 1645
3.441 1.001 1.656 5912
3.685 1.072 1.766 2211
3.466 1.009 1.655 6409
3.683 1.072 1.751 2696
3.478 1.012 1.648 11400
3.667 1.067 1.731 3841
3.800 1.105 1.790 1028
3.482 1.013 1.637 14704
3.713 1.080 1.738 4673
3.846 1.119 1.797 1344
3.479 1.012 1.624 13760
3.725 1.084 1.730 5250
3.858 1.122 1.788 1203
3.490 1.015 1.616 11424
3.799 1.105 1.749 5567
3.666 1.067 1.692 1263
3.494 1.017 1.606 8846
3.797 1.105 1.735 5876
3.663 1.066 1.678 940
3.491 1.016 1.593 7355
3.822 1.112 1.733 4957
3.688 1.073 1.676 973
3.956 1.151 1.789 818
3.495 1.017 1.582 6320
3.848 1.120 1.730 4435
3.714 1.081 1.674 1221
3.982 1.159 1.786 867
3.775 1.098 1.686 4482
3.499 1.018 1.572 4256
3.909 1.137 1.742 3608
4.043 1.176 1.798 1228
3.920 1.141 1.733 3965
3.786 1.102 1.678 3622
4.055 1.180 1.788 2112
3.503 1.019 1.561 1897
3.889 1.132 1.707 3409
4.024 1.171 1.762 3208
3.755 1.093 1.652 1708
3.873 1.127 1.687 4478
4.043 1.176 1.755 2569
3.738 1.088 1.632 1205
3.884 1.130 1.678 4265
4.047 1.178 1.743 3859
3.749 1.091 1.624 893
4.066 1.183 1.737 5218
3.888 1.131 1.666 2761
4.077 1.186 1.727 3945
3.942 1.147 1.674 1893
4.146 1.206 1.740 2798
4.011 1.167 1.687 1891
3.875 1.128 1.634 1037
4.165 1.212 1.733 4109
4.029 1.172 1.681 1109
3.894 1.133 1.628 764
4.162 1.211 1.718 4415
4.245 1.235 1.735 3159
4.109 1.196 1.684 2363
4.256 1.238 1.725 3618
4.121 1.199 1.674 3089
4.175 1.215 1.681 5740
4.311 1.254 1.731 2079
4.194 1.220 1.673 5251
4.330 1.260 1.724 1804
4.198 1.221 1.661 4780
4.334 1.261 1.711 2050
4.195 1.221 1.645 4833
4.331 1.260 1.695 4034
4.336 1.261 1.682 6775
4.199 1.222 1.633 3123
4.494 1.307 1.739 1143
4.340 1.263 1.669 7014
4.477 1.302 1.718 1896
4.203 1.223 1.620 1726
4.344 1.264 1.656 4968
4.481 1.304 1.704 4267
4.464 1.299 1.683 10194
4.327 1.259 1.635 4791
4.468 1.300 1.670 11191
4.331 1.260 1.622 5612
4.605 1.340 1.717 1327
4.472 1.301 1.656 6059
4.335 1.261 1.609 3979
4.631 1.347 1.711 2587
4.549 1.323 1.668 6015
4.347 1.265 1.599 2762
4.686 1.363 1.714 1774
4.553 1.325 1.654 7288
4.365 1.270 1.591 2830
4.691 1.365 1.700 2614
4.557 1.326 1.640 7453
4.695 1.366 1.686 2938
4.369 1.271 1.577 2190
4.832 1.406 1.732 1180
4.547 1.323 1.622 6987
4.822 1.403 1.713 3817
4.685 1.363 1.667 3798
4.344 1.264 1.555 1122
4.653 1.354 1.641 6652
4.812 1.400 1.693 5655
4.515 1.314 1.596 3928
4.950 1.440 1.738 1235
4.664 1.357 1.630 5982
4.802 1.397 1.674 5949
4.940 1.437 1.719 2883
4.526 1.317 1.585 2712
4.668 1.358 1.616 5576
4.843 1.409 1.671 5524
4.981 1.449 1.716 1522
4.530 1.318 1.571 1155
4.912 1.429 1.678 5814
4.680 1.362 1.604 5203
5.051 1.469 1.721 1856
4.909 1.428 1.660 6962
4.691 1.365 1.592 3806
5.048 1.469 1.704 3259
4.906 1.428 1.643 7376
5.045 1.468 1.686 3932
4.695 1.366 1.578 1582
5.042 1.467 1.669 5622
4.903 1.427 1.626 5105
5.180 1.507 1.711 954
4.765 1.386 1.584 797
5.046 1.468 1.654 6611
4.907 1.428 1.612 4568
5.185 1.509 1.696 1439
5.043 1.467 1.636 8170
4.904 1.427 1.595 3486
5.196 1.512 1.682 1140
5.055 1.471 1.623 8158
4.894 1.424 1.576 1948
5.230 1.522 1.675 1240
5.442 1.583 1.738 885
5.059 1.472 1.608 4904
5.242 1.525 1.662 3627
5.432 1.580 1.718 1271
4.898 1.425 1.561 1136
5.239 1.524 1.644 5326
5.055 1.471 1.591 3299
5.429 1.580 1.699 2009
5.441 1.583 1.685 3930
5.243 1.525 1.628 3739
5.067 1.474 1.578 2089
5.452 1.586 1.671 5375
5.240 1.524 1.610 2802
5.078 1.478 1.564 1138
5.643 1.642 1.725 890
5.442 1.583 1.650 5681
5.244 1.526 1.594 2586
5.633 1.639 1.704 1361
5.097 1.483 1.553 1035
5.439 1.582 1.632 8368
5.248 1.527 1.579 2162
5.630 1.638 1.685 1749
5.436 1.581 1.613 9027
5.605 1.631 1.660 3503
5.252 1.528 1.563 1443
5.447 1.585 1.599 8363
5.609 1.632 1.643 5387
5.451 1.586 1.582 7596
5.642 1.642 1.634 7164
5.647 1.643 1.617 8327
5.462 1.589 1.568 6428
6.155 1.791 1.751 1016
5.629 1.638 1.594 8673
5.459 1.588 1.550 5888
6.196 1.803 1.742 2134
5.798 1.687 1.638 892
5.640 1.641 1.579 8782
5.463 1.589 1.533 4033
6.208 1.806 1.725 3120
6.068 1.765 1.689 850
5.651 1.644 1.564 7092
6.220 1.810 1.708 4344
5.474 1.593 1.519 2263
6.080 1.769 1.673 1107
6.224 1.811 1.690 5125
5.692 1.656 1.556 4247
6.365 1.852 1.725 2367
5.478 1.594 1.502 2026
6.354 1.849 1.702 6378
6.214 1.808 1.667 3351
5.696 1.657 1.539 3091
5.489 1.597 1.487 1867
6.359 1.850 1.683 8438
6.211 1.807 1.647 2729
5.685 1.654 1.518 2403
5.500 1.600 1.473 989
6.356 1.849 1.662 7944
6.215 1.808 1.628 2312
6.644 1.933 1.732 1898
5.682 1.653 1.499 1267
6.360 1.850 1.643 6338
6.649 1.935 1.712 2903
6.842 1.991 1.758 1702
6.501 1.891 1.676 1393
6.379 1.856 1.627 5962
6.646 1.934 1.690 3211
6.846 1.992 1.737 2034
6.238 1.815 1.594 842
6.391 1.859 1.610 5155
6.643 1.933 1.668 2931
6.784 1.974 1.701 1757
6.925 2.015 1.733 1585
6.402 1.863 1.592 2724
6.647 1.934 1.648 2123
6.907 2.010 1.707 1608
7.174 2.087 1.769 853
6.882 2.002 1.680 1731
6.399 1.862 1.571 1470
6.629 1.929 1.623 1166
7.194 2.093 1.750 1069
7.206 2.096 1.730 1500
6.403 1.863 1.552 1296
6.886 2.003 1.659 1246
7.035 2.047 1.692 1241
7.031 2.046 1.669 1843
7.537 2.193 1.780 1814
7.202 2.096 1.707 1467
7.344 2.137 1.738 1308
7.036 2.047 1.648 2330
7.542 2.194 1.758 2145
7.341 2.136 1.714 1763
7.177 2.088 1.679 1715
7.546 2.196 1.735 3116
7.405 2.154 1.705 1778
7.181 2.089 1.657 1517
7.040 2.048 1.627 1463
7.551 2.197 1.712 4422
7.409 2.156 1.682 2126
7.849 2.284 1.774 1237
7.201 2.095 1.638 1064
7.577 2.205 1.694 5488
7.421 2.159 1.661 1891
7.861 2.287 1.752 1354
7.719 2.246 1.723 822
7.582 2.206 1.671 4978
7.873 2.291 1.730 1851
7.440 2.165 1.642 1739
7.724 2.247 1.700 1430
7.586 2.207 1.648 2825
7.743 2.253 1.679 2748
7.885 2.294 1.708 2310
7.444 2.166 1.620 1153
7.747 2.254 1.656 3934
7.896 2.297 1.685 2259
7.605 2.213 1.628 2119
8.501 2.474 1.805 1384
7.751 2.255 1.633 3659
7.893 2.297 1.660 2322
7.609 2.214 1.605 1731
8.499 2.473 1.778 1408
7.980 2.322 1.652 2615
7.741 2.252 1.606 2576
8.511 2.476 1.753 1215
7.598 2.211 1.579 1093
7.977 2.321 1.626 3287
7.745 2.253 1.583 1656
8.530 2.482 1.730 1268
8.672 2.523 1.757 858
7.981 2.322 1.602 3878
7.764 2.259 1.562 1830
8.684 2.527 1.732 1393
8.520 2.479 1.702 1165
8.000 2.328 1.581 4389
7.768 2.260 1.539 2065
8.689 2.528 1.706 1686
8.524 2.480 1.676 952
8.011 2.331 1.558 3954
8.588 2.499 1.661 1832
7.771 2.261 1.515 1504
8.730 2.540 1.686 1193
8.015 2.332 1.534 2842
8.592 2.500 1.635 2402
8.735 2.541 1.660 926
7.775 2.262 1.492 813
8.019 2.333 1.510 1930
8.649 2.516 1.618 1865
8.867 2.580 1.656 761
8.698 2.531 1.600 1878
8.023 2.334 1.485 1075
8.702 2.532 1.573 1628
8.019 2.333 1.460 856
8.699 2.531 1.546 1476
8.023 2.334 1.436 850
8.710 2.534 1.521 1144
9.214 2.681 1.601 842
9.135 2.658 1.560 1169
9.511 2.767 1.619 795
9.139 2.659 1.533 1801
10.688 3.110 1.770 1155
9.507 2.766 1.589 921
9.143 2.660 1.505 2361
10.685 3.109 1.737 1286
9.504 2.765 1.559 821
9.147 2.661 1.477 2582
10.697 3.112 1.705 1222
11.043 3.213 1.756 907
9.150 2.662 1.450 1942
11.078 3.223 1.727 1596
10.731 3.122 1.677 1166
11.274 3.280 1.755 869
11.082 3.224 1.694 1972
9.169 2.668 1.424 1495
10.743 3.126 1.646 1093
11.647 3.389 1.773 873
11.185 3.254 1.674 1752
11.644 3.388 1.737 1309
9.165 2.667 1.395 1263
10.853 3.158 1.628 1054
11.196 3.258 1.641 1664
11.664 3.394 1.704 1422
11.807 3.435 1.723 1263
10.872 3.163 1.597 1036
11.200 3.259 1.607 1528
11.676 3.397 1.670 1527
11.819 3.439 1.688 1170
10.876 3.164 1.564 849
11.680 3.398 1.634 1554
11.197 3.258 1.572 1114
11.823 3.440 1.653 839
12.117 3.526 1.690 786
11.676 3.397 1.598 1336
11.986 3.487 1.637 804
11.835 3.443 1.618 798
12.269 3.570 1.635 1172
13.175 3.833 1.746 781
11.998 3.491 1.601 780
12.273 3.571 1.597 1410
13.180 3.835 1.706 951
12.210 3.552 1.552 848
13.199 3.840 1.667 835
13.736 3.996 1.730 827
13.740 3.998 1.688 991
13.906 4.046 1.707 910
13.638 3.968 1.635 1250
13.911 4.047 1.665 798
13.003 3.783 1.565 768
13.650 3.971 1.594 824
8.909 2.592 1.005 808
8.904 2.591 0.978 853
8.899 2.589 0.950 868
8.892 2.587 0.841 930
8.894 2.588 0.814 1022
8.896 2.588 0.787 1043
8.890 2.587 0.760 834
8.924 2.596 0.303 767
8.887 2.586 -0.397 801
8.886 2.585 -0.424 807
8.884 2.585 -0.451 813
8.883 2.584 -0.478 786
8.881 2.584 -0.504 759
2.268 0.649 1.791 2797
2.273 0.650 1.784 5595
2.155 0.617 1.697 1314
2.391 0.684 1.872 1125
2.284 0.653 1.782 5702
2.402 0.687 1.869 2043
2.166 0.620 1.695 1524
2.289 0.655 1.775 6331
2.407 0.689 1.862 2536
2.170 0.621 1.689 1088
2.287 0.654 1.764 7045
2.405 0.688 1.850 3218
2.298 0.657 1.762 6088
2.416 0.691 1.848 3360
2.321 0.664 1.769 5271
2.440 0.698 1.854 2756
2.326 0.665 1.762 5271
2.445 0.699 1.847 2927
2.330 0.667 1.755 5769
2.450 0.701 1.840 3484
2.335 0.668 1.748 6267
2.454 0.702 1.832 4042
2.453 0.702 1.820 6698
2.333 0.667 1.736 4898
2.457 0.703 1.813 9351
2.337 0.669 1.730 3582
2.456 0.703 1.802 10128
2.335 0.668 1.718 2182
2.576 0.737 1.885 971
2.460 0.704 1.794 11043
2.581 0.738 1.877 1730
2.340 0.669 1.711 1003
2.465 0.705 1.787 11043
2.586 0.740 1.870 2254
2.344 0.671 1.704 750
2.470 0.707 1.780 9533
2.591 0.741 1.862 2518
2.474 0.708 1.772 7944
2.596 0.743 1.854 2602
2.549 0.729 1.812 6962
2.428 0.695 1.731 2336
2.671 0.764 1.894 915
2.567 0.734 1.813 6777
2.445 0.699 1.732 3686
2.689 0.769 1.894 998
2.571 0.736 1.805 5839
2.449 0.701 1.725 3019
2.693 0.771 1.886 1192
2.615 0.748 1.823 5475
2.486 0.711 1.738 4512
2.626 0.751 1.820 6895
2.491 0.713 1.731 3587
2.650 0.758 1.824 9340
2.527 0.723 1.745 2922
2.661 0.761 1.821 9553
2.538 0.726 1.741 2618
2.672 0.765 1.817 10291
2.549 0.729 1.738 2216
2.684 0.768 1.813 8049
2.560 0.732 1.734 1922
2.695 0.771 1.809 6071
2.571 0.736 1.731 1440
2.699 0.772 1.801 6741
2.576 0.737 1.723 1322
2.704 0.774 1.793 7411
2.580 0.738 1.716 1205
2.715 0.777 1.789 8598
2.591 0.741 1.712 1117
2.726 0.780 1.785 9940
2.602 0.744 1.708 900
2.851 0.816 1.862 858
2.731 0.781 1.777 8171
2.856 0.817 1.853 1221
2.729 0.781 1.765 6470
2.854 0.816 1.841 1701
2.734 0.782 1.757 4917
2.859 0.818 1.832 2212
2.837 0.812 1.808 3731
2.712 0.776 1.733 2444
2.848 0.815 1.803 5228
2.723 0.779 1.728 2737
2.853 0.816 1.795 6887
2.727 0.780 1.720 2104
2.858 0.818 1.786 6280
2.732 0.781 1.712 1510
2.862 0.819 1.778 3686
2.988 0.855 1.851 2018
2.736 0.783 1.704 884
2.967 0.849 1.827 3796
2.834 0.811 1.750 2074
2.985 0.854 1.826 4013
2.858 0.818 1.753 2172
2.996 0.857 1.821 4444
2.869 0.821 1.748 2905
2.874 0.822 1.740 4356
3.001 0.858 1.812 3413
2.885 0.825 1.735 6848
3.032 0.867 1.818 2523
2.889 0.827 1.726 8047
3.017 0.863 1.798 2417
2.894 0.828 1.718 6954
3.021 0.864 1.789 3561
2.898 0.829 1.709 5861
3.026 0.866 1.780 4755
3.010 0.861 1.759 6406
2.882 0.825 1.689 3236
3.138 0.898 1.830 1007
3.015 0.863 1.750 5840
3.143 0.899 1.820 2894
2.887 0.826 1.681 1615
3.019 0.864 1.741 4447
3.148 0.901 1.811 4351
2.891 0.827 1.672 1291
3.159 0.904 1.805 4718
3.024 0.865 1.732 3726
2.895 0.828 1.663 901
3.171 0.907 1.799 5357
3.042 0.870 1.731 2303
3.175 0.908 1.790 4803
2.985 0.854 1.689 1928
3.187 0.912 1.784 4241
2.990 0.855 1.680 1518
3.184 0.911 1.771 4225
3.001 0.858 1.675 768
3.175 0.908 1.754 5012
3.180 0.910 1.745 5266
3.310 0.947 1.811 926
3.178 0.909 1.732 4875
3.307 0.946 1.798 1606
3.189 0.912 1.726 5535
3.319 0.950 1.791 1179
3.207 0.917 1.723 5840
3.337 0.955 1.788 892
3.218 0.921 1.717 7469
3.349 0.958 1.782 1987
3.223 0.922 1.707 9263
3.353 0.959 1.772 2906
3.220 0.921 1.694 8897
3.351 0.959 1.758 4598
3.314 0.948 1.728 13101
3.183 0.911 1.664 3156
3.319 0.949 1.718 14185
3.188 0.912 1.655 1623
3.330 0.953 1.712 12724
3.461 0.990 1.775 848
3.199 0.915 1.649 818
3.341 0.956 1.705 10308
3.473 0.994 1.768 1176
3.367 0.963 1.705 9205
3.498 1.001 1.767 956
3.399 0.972 1.708 11459
3.410 0.976 1.701 12844
3.407 0.975 1.688 10078
3.440 0.984 1.690 8189
3.444 0.985 1.680 8964
3.695 1.057 1.794 1442
3.427 0.980 1.660 7207
3.560 1.018 1.720 2188
3.693 1.056 1.780 1946
3.425 0.980 1.647 6528
3.557 1.018 1.706 2985
3.697 1.058 1.769 2462
3.429 0.981 1.636 5540
3.569 1.021 1.699 4132
3.702 1.059 1.758 2714
3.482 0.996 1.648 8093
3.699 1.058 1.743 4226
3.833 1.096 1.802 905
3.486 0.997 1.637 12443
3.718 1.064 1.738 6958
3.851 1.102 1.797 1232
3.483 0.997 1.624 11759
3.729 1.067 1.730 8395
3.863 1.105 1.788 1088
3.495 1.000 1.616 9051
3.734 1.068 1.719 6793
3.867 1.106 1.777 1274
3.499 1.001 1.606 6724
3.795 1.086 1.732 5558
3.496 1.000 1.593 5571
3.827 1.095 1.733 5364
3.693 1.057 1.676 1647
3.500 1.001 1.582 4797
3.860 1.104 1.733 4668
3.726 1.066 1.677 2643
3.994 1.143 1.789 1019
3.773 1.079 1.683 4650
3.907 1.118 1.739 4187
3.504 1.002 1.572 3101
4.041 1.156 1.795 1278
3.918 1.121 1.730 4139
3.763 1.076 1.666 3605
4.053 1.159 1.786 1948
3.508 1.004 1.561 1251
3.880 1.110 1.701 3593
3.746 1.072 1.646 2808
4.057 1.161 1.773 2569
3.885 1.111 1.689 4705
3.750 1.073 1.635 2075
4.090 1.170 1.773 2047
3.960 1.133 1.706 4222
4.095 1.172 1.760 2761
3.754 1.074 1.624 1320
4.078 1.167 1.740 4756
3.943 1.128 1.686 3108
3.765 1.077 1.615 839
4.083 1.168 1.727 4464
3.947 1.129 1.674 2195
4.144 1.186 1.737 4363
4.009 1.147 1.685 1675
4.091 1.171 1.703 4402
4.227 1.209 1.755 1741
4.146 1.186 1.710 5237
4.010 1.147 1.658 950
4.282 1.225 1.762 888
4.157 1.189 1.700 5083
4.293 1.228 1.752 1519
4.176 1.195 1.693 5862
4.312 1.234 1.744 1373
4.180 1.196 1.681 8730
4.317 1.235 1.731 1848
4.192 1.199 1.671 7711
4.328 1.238 1.721 2311
4.464 1.277 1.772 881
4.196 1.200 1.658 5612
4.347 1.244 1.713 2970
4.483 1.283 1.763 985
4.193 1.200 1.643 5069
4.337 1.241 1.695 3552
4.473 1.280 1.745 1429
4.334 1.240 1.679 5146
4.197 1.201 1.630 3746
4.471 1.279 1.729 1438
4.331 1.239 1.664 5768
4.468 1.278 1.713 2717
4.194 1.200 1.615 2274
4.465 1.277 1.697 6708
4.328 1.238 1.648 4067
4.191 1.199 1.600 954
4.470 1.279 1.683 13284
4.325 1.237 1.633 3171
4.607 1.318 1.731 1051
4.474 1.280 1.670 14664
4.337 1.241 1.622 3165
4.611 1.319 1.717 1864
4.478 1.281 1.656 8335
4.341 1.242 1.609 3287
4.637 1.327 1.711 2822
4.642 1.328 1.697 4559
4.482 1.282 1.643 3521
4.338 1.241 1.594 2791
4.646 1.329 1.683 6661
4.472 1.279 1.625 2937
4.335 1.240 1.578 1740
4.784 1.368 1.729 873
4.657 1.332 1.672 5601
4.491 1.285 1.616 5306
4.795 1.372 1.717 1284
4.353 1.245 1.570 951
4.495 1.286 1.603 5687
4.633 1.325 1.648 4138
4.821 1.379 1.710 3379
4.959 1.419 1.756 928
4.811 1.376 1.691 5075
4.666 1.335 1.644 4285
4.484 1.283 1.584 3323
4.949 1.416 1.736 1889
4.808 1.376 1.674 5745
4.670 1.336 1.630 4315
4.946 1.415 1.719 3479
4.532 1.297 1.585 1912
4.842 1.385 1.669 5811
4.682 1.339 1.618 4517
4.980 1.425 1.713 1586
4.543 1.300 1.574 864
4.919 1.407 1.678 5253
4.693 1.343 1.606 4558
5.057 1.447 1.721 1466
4.923 1.408 1.663 7473
4.704 1.346 1.594 3404
5.062 1.448 1.706 2199
4.920 1.408 1.646 7912
5.059 1.447 1.689 2563
4.781 1.368 1.603 1663
4.917 1.407 1.629 5828
5.056 1.446 1.671 3521
5.194 1.486 1.714 912
4.928 1.410 1.616 6389
5.067 1.450 1.658 3360
5.206 1.489 1.700 1203
4.940 1.413 1.603 4959
5.079 1.453 1.645 3595
5.218 1.493 1.687 1327
5.068 1.450 1.626 4483
4.929 1.410 1.584 1766
5.229 1.496 1.673 1612
5.449 1.559 1.738 847
5.234 1.497 1.658 3535
5.073 1.451 1.610 2873
5.432 1.554 1.716 1158
4.933 1.411 1.569 979
5.245 1.501 1.644 4536
5.429 1.553 1.697 1906
5.084 1.454 1.597 1733
5.448 1.558 1.685 3779
5.242 1.500 1.626 2750
5.022 1.437 1.563 1209
5.452 1.560 1.669 4959
5.305 1.518 1.627 2970
5.129 1.467 1.577 897
5.456 1.561 1.652 4881
5.309 1.519 1.611 2630
5.647 1.616 1.706 1126
5.453 1.560 1.634 7951
5.622 1.608 1.681 1695
5.306 1.518 1.593 1485
5.457 1.561 1.617 10192
5.612 1.605 1.660 3474
5.303 1.517 1.575 1122
5.469 1.565 1.603 9703
5.609 1.605 1.641 4494
5.465 1.564 1.584 8365
5.650 1.616 1.634 4515
5.470 1.565 1.568 8148
5.654 1.618 1.617 6011
6.170 1.765 1.753 1205
5.474 1.566 1.552 8216
5.629 1.610 1.592 6426
6.197 1.773 1.740 2422
5.769 1.650 1.628 825
5.640 1.614 1.577 6357
5.470 1.565 1.533 4824
6.216 1.778 1.725 3428
6.046 1.730 1.681 798
5.659 1.619 1.564 6180
6.228 1.782 1.708 5054
5.474 1.566 1.517 2437
6.376 1.824 1.746 831
6.240 1.785 1.691 6446
5.692 1.629 1.554 4164
5.485 1.569 1.502 2415
6.380 1.825 1.727 1838
6.363 1.820 1.702 5069
6.222 1.780 1.667 3878
5.704 1.632 1.539 2982
5.496 1.572 1.487 1894
6.367 1.822 1.683 6696
6.226 1.781 1.648 2846
5.678 1.624 1.514 2185
5.856 1.675 1.558 1130
6.364 1.821 1.662 7226
6.223 1.780 1.628 2448
6.653 1.903 1.732 2098
5.667 1.621 1.494 1269
6.368 1.822 1.643 6871
6.658 1.905 1.712 3210
6.509 1.862 1.676 1624
6.850 1.960 1.758 1401
6.387 1.827 1.627 6331
6.655 1.904 1.690 3936
6.855 1.961 1.737 1722
6.399 1.831 1.610 5242
6.651 1.903 1.668 4045
6.845 1.958 1.713 1511
7.030 2.011 1.756 1289
6.663 1.906 1.650 2619
6.410 1.834 1.592 2431
6.908 1.976 1.706 1611
7.050 2.017 1.738 1080
6.890 1.971 1.680 1662
6.638 1.899 1.623 1304
6.407 1.833 1.571 1252
7.032 2.012 1.712 1061
6.649 1.902 1.605 1358
7.051 2.017 1.694 1264
7.200 2.060 1.727 1262
6.411 1.834 1.552 1142
7.182 2.055 1.700 1932
7.547 2.159 1.780 1685
7.041 2.014 1.669 1595
7.353 2.104 1.738 1556
7.186 2.056 1.679 2400
7.350 2.103 1.714 2161
7.552 2.160 1.758 2150
7.045 2.015 1.648 1978
7.564 2.164 1.736 2909
7.198 2.059 1.659 2070
7.422 2.123 1.706 1883
7.049 2.017 1.627 1330
7.561 2.163 1.712 3898
7.419 2.122 1.682 1689
7.217 2.065 1.640 1650
7.852 2.246 1.773 1427
7.587 2.171 1.694 4982
7.423 2.124 1.660 1767
7.864 2.250 1.751 1506
7.214 2.064 1.617 895
7.592 2.172 1.671 4697
7.890 2.257 1.732 2604
7.442 2.129 1.640 2076
7.749 2.217 1.703 865
7.902 2.261 1.709 3914
7.588 2.171 1.646 2887
7.760 2.220 1.681 1859
7.446 2.130 1.618 1484
7.922 2.266 1.688 3276
7.765 2.221 1.657 2347
7.608 2.176 1.627 2215
8.512 2.435 1.805 1003
7.926 2.268 1.664 2102
7.754 2.218 1.631 1998
7.612 2.178 1.604 1654
8.510 2.434 1.778 1179
7.983 2.284 1.651 2672
7.751 2.217 1.606 1421
8.522 2.438 1.753 1081
7.593 2.172 1.576 923
7.987 2.285 1.626 2907
8.519 2.437 1.726 1208
8.669 2.480 1.754 1094
7.747 2.216 1.582 999
7.999 2.288 1.604 3422
8.688 2.486 1.731 1577
8.523 2.438 1.700 1243
7.766 2.222 1.561 1182
8.018 2.294 1.582 4374
8.707 2.491 1.707 1781
7.778 2.225 1.539 1341
8.565 2.450 1.681 1124
8.022 2.295 1.558 4550
8.592 2.458 1.660 2035
8.734 2.499 1.685 1587
7.789 2.228 1.517 1009
8.026 2.296 1.534 3522
8.596 2.459 1.634 2222
8.881 2.541 1.684 1443
8.739 2.500 1.659 1113
8.029 2.297 1.510 2219
8.878 2.540 1.656 1498
8.615 2.465 1.610 1344
8.724 2.496 1.602 1284
8.033 2.298 1.485 1180
8.890 2.543 1.630 1113
8.721 2.495 1.574 1232
8.037 2.299 1.461 945
8.717 2.494 1.547 1257
8.041 2.300 1.437 946
8.729 2.497 1.522 1088
10.702 3.062 1.770 900
10.699 3.061 1.737 1264
10.511 3.007 1.708 937
10.696 3.060 1.703 1446
11.050 3.161 1.755 1006
10.500 3.004 1.674 822
11.085 3.171 1.726 1546
10.700 3.061 1.671 1157
11.288 3.229 1.755 830
10.941 3.130 1.706 761
11.097 3.175 1.694 1859
11.662 3.336 1.773 1123
10.659 3.049 1.632 1026
11.504 3.291 1.751 908
11.199 3.204 1.674 2167
11.659 3.336 1.737 1645
11.486 3.286 1.713 1047
10.656 3.048 1.599 995
11.203 3.205 1.640 2005
11.679 3.341 1.704 1680
11.822 3.382 1.723 1584
11.483 3.285 1.677 1025
11.691 3.345 1.670 1823
11.215 3.208 1.607 1800
11.834 3.386 1.688 1512
11.517 3.295 1.647 1119
11.695 3.346 1.634 1959
11.204 3.205 1.571 1333
11.536 3.300 1.614 1254
11.846 3.389 1.654 1115
11.692 3.345 1.598 1721
11.548 3.304 1.580 1041
11.850 3.390 1.618 1021
12.153 3.477 1.656 789
12.285 3.515 1.635 1310
11.567 3.309 1.547 1020
11.711 3.350 1.564 985
13.192 3.774 1.746 824
12.282 3.514 1.597 1467
13.197 3.775 1.706 937
11.563 3.308 1.511 905
12.218 3.495 1.551 918
13.753 3.935 1.730 878
13.209 3.779 1.667 803
13.924 3.984 1.707 1202
13.758 3.936 1.688 1025
13.929 3.985 1.665 1177
13.656 3.907 1.635 965
13.933 3.986 1.623 782
8.905 2.548 0.814 771
8.907 2.548 0.787 875
8.901 2.547 0.760 754
8.904 2.547 -0.289 761
8.903 2.547 -0.316 860
8.894 2.544 -0.343 962
8.900 2.546 -0.370 1013
8.899 2.546 -0.397 1068
8.897 2.545 -0.424 1065
8.896 2.545 -0.451 1061
8.894 2.544 -0.478 1002
8.892 2.544 -0.504 944
8.898 2.546 -0.532 870
8.904 2.547 -0.559 856
8.902 2.547 -0.586 856
8.900 2.546 -0.613 815
8.897 2.545 -0.640 774
8.895 2.545 -0.667 824
8.901 2.546 -0.694 879
8.898 2.546 -0.721 896
8.896 2.545 -0.748 913
8.893 2.544 -0.775 913
8.891 2.543 -0.802 853
8.888 2.543 -0.829 793
2.271 0.639 1.791 2916
2.276 0.640 1.784 5833
2.394 0.673 1.872 1276
2.158 0.607 1.697 1106
2.287 0.643 1.782 6089
2.405 0.676 1.869 2217
2.169 0.610 1.695 1284
2.291 0.644 1.775 7625
2.410 0.678 1.862 2426
2.173 0.611 1.689 1031
2.296 0.646 1.769 9162
2.415 0.679 1.855 2635
2.177 0.612 1.682 778
2.301 0.647 1.762 7680
2.419 0.680 1.848 3014
2.311 0.650 1.760 6201
2.431 0.684 1.845 3028
2.316 0.651 1.753 6201
2.435 0.685 1.838 2943
2.320 0.653 1.746 5935
2.440 0.686 1.831 3900
2.331 0.656 1.743 5703
2.451 0.689 1.828 4937
2.456 0.691 1.820 7345
2.329 0.655 1.732 4360
2.461 0.692 1.813 9753
2.334 0.656 1.725 3051
2.459 0.692 1.802 10086
2.338 0.658 1.718 1958
2.464 0.693 1.794 10518
2.584 0.727 1.877 1303
2.343 0.659 1.711 866
2.468 0.694 1.787 10518
2.589 0.728 1.870 1742
2.347 0.660 1.704 809
2.473 0.695 1.780 8658
2.594 0.730 1.862 2227
2.352 0.661 1.697 752
2.477 0.697 1.772 6840
2.599 0.731 1.854 2525
2.356 0.663 1.690 826
2.476 0.696 1.761 6412
2.597 0.730 1.842 4129
2.583 0.726 1.822 6252
2.461 0.692 1.740 5591
2.485 0.699 1.746 5945
2.607 0.733 1.827 5095
2.496 0.702 1.743 5894
2.618 0.736 1.823 4779
2.642 0.743 1.828 6948
2.494 0.701 1.731 4495
2.653 0.746 1.824 10057
2.498 0.703 1.724 3125
2.665 0.749 1.821 10783
2.503 0.704 1.716 2332
2.676 0.753 1.817 12095
2.552 0.718 1.738 1857
2.687 0.756 1.813 9670
2.563 0.721 1.734 1801
2.698 0.759 1.809 7823
2.574 0.724 1.731 1724
2.703 0.760 1.801 7007
2.579 0.725 1.723 1778
2.708 0.761 1.793 6191
2.583 0.727 1.716 1832
2.719 0.765 1.789 8294
2.594 0.730 1.712 1595
2.843 0.800 1.866 854
2.723 0.766 1.781 10468
2.599 0.731 1.704 1345
2.848 0.801 1.858 1318
2.728 0.767 1.773 9587
2.853 0.802 1.849 1759
2.603 0.732 1.697 1028
2.733 0.768 1.765 8705
2.858 0.804 1.841 2201
2.744 0.772 1.761 6854
2.869 0.807 1.836 2729
2.761 0.777 1.760 5634
2.887 0.812 1.835 2413
2.852 0.802 1.803 6398
2.726 0.767 1.728 3358
2.857 0.803 1.795 8230
2.731 0.768 1.720 2595
2.861 0.805 1.786 7473
2.735 0.769 1.712 1857
2.859 0.804 1.774 5076
2.985 0.840 1.847 1594
2.733 0.769 1.700 984
2.850 0.802 1.758 3462
2.977 0.837 1.831 3050
2.868 0.807 1.757 4266
2.995 0.842 1.830 3337
2.873 0.808 1.748 5173
3.000 0.844 1.821 3957
2.884 0.811 1.743 5687
3.011 0.847 1.816 3167
2.889 0.812 1.735 6024
3.016 0.848 1.807 2551
2.900 0.816 1.730 5866
3.027 0.851 1.801 2023
2.904 0.817 1.721 5016
3.032 0.853 1.792 2460
3.003 0.845 1.765 5225
2.875 0.809 1.694 1778
3.131 0.880 1.835 1055
3.014 0.848 1.759 6360
2.886 0.812 1.689 2330
3.142 0.884 1.830 1211
3.019 0.849 1.750 6587
3.147 0.885 1.820 2539
2.890 0.813 1.681 2066
3.017 0.848 1.738 5622
3.145 0.884 1.807 3776
2.888 0.812 1.668 1554
3.028 0.852 1.732 4141
3.156 0.888 1.801 3847
2.899 0.815 1.663 1492
3.175 0.893 1.799 4323
3.039 0.855 1.727 2245
2.910 0.818 1.658 1025
3.179 0.894 1.790 3931
2.996 0.843 1.693 1819
3.191 0.897 1.784 4441
2.993 0.842 1.680 1674
3.195 0.899 1.774 5323
2.991 0.841 1.668 1722
3.186 0.896 1.758 5638
2.995 0.842 1.659 1862
3.184 0.895 1.745 5803
3.000 0.844 1.650 1914
3.314 0.932 1.811 1181
3.182 0.895 1.732 5200
3.312 0.931 1.798 2093
3.011 0.847 1.645 1807
3.200 0.900 1.729 5406
3.015 0.848 1.636 1640
3.330 0.937 1.795 1231
3.211 0.903 1.723 5194
3.026 0.851 1.630 1134
3.342 0.940 1.788 928
3.229 0.908 1.720 5915
3.360 0.945 1.785 1522
3.227 0.908 1.707 7480
3.358 0.944 1.772 2531
3.314 0.932 1.738 7857
3.183 0.895 1.674 2948
3.318 0.933 1.728 12149
3.187 0.896 1.664 2799
3.015 0.848 1.580 1073
3.323 0.935 1.718 12832
3.019 0.849 1.571 1640
3.192 0.898 1.655 1584
3.454 0.971 1.782 801
3.334 0.938 1.712 11692
3.016 0.848 1.559 1837
3.466 0.975 1.775 1043
3.359 0.945 1.712 10656
3.020 0.849 1.550 1660
3.491 0.982 1.774 1289
3.228 0.908 1.649 930
3.371 0.948 1.705 10515
3.503 0.985 1.767 1215
3.017 0.848 1.538 1178
3.396 0.955 1.705 11877
3.528 0.992 1.766 750
3.407 0.958 1.698 13853
3.540 0.995 1.759 822
3.412 0.959 1.688 11467
3.544 0.997 1.749 852
3.444 0.969 1.690 9179
3.311 0.931 1.629 950
3.462 0.974 1.686 9094
3.330 0.936 1.626 1730
3.700 1.040 1.794 1637
3.467 0.975 1.676 8159
3.697 1.040 1.780 2187
3.334 0.938 1.616 1409
3.478 0.978 1.669 8079
3.702 1.041 1.769 2484
3.345 0.941 1.609 1224
3.475 0.977 1.655 7646
3.608 1.015 1.714 2622
3.742 1.052 1.773 1623
3.342 0.940 1.596 774
3.486 0.981 1.648 6967
3.711 1.044 1.746 4054
3.498 0.984 1.640 8493
3.730 1.049 1.742 7845
3.863 1.086 1.800 810
3.727 1.048 1.727 9625
3.495 0.983 1.627 8475
3.861 1.086 1.785 1283
3.732 1.049 1.716 7769
3.499 0.984 1.616 5980
3.865 1.087 1.774 1675
3.736 1.051 1.705 5894
3.503 0.985 1.606 3959
3.870 1.088 1.762 2445
3.839 1.080 1.736 5847
3.500 0.984 1.593 3043
3.705 1.042 1.679 2952
3.858 1.085 1.730 5661
3.504 0.986 1.582 2482
3.723 1.047 1.674 2169
3.992 1.123 1.786 876
3.905 1.098 1.736 3363
3.770 1.060 1.680 2950
3.501 0.985 1.569 1425
4.039 1.136 1.792 1142
3.923 1.103 1.730 3243
3.775 1.062 1.669 2532
4.058 1.141 1.786 1820
3.576 1.006 1.587 781
3.885 1.093 1.701 4980
4.063 1.143 1.773 2765
3.750 1.055 1.646 1725
3.897 1.096 1.692 5891
4.039 1.136 1.750 2886
3.762 1.058 1.638 1391
3.915 1.101 1.686 4496
4.050 1.139 1.740 3715
3.766 1.059 1.627 800
4.069 1.144 1.734 4633
3.934 1.106 1.680 3256
4.074 1.146 1.722 5468
3.938 1.108 1.668 2226
4.209 1.184 1.775 924
4.149 1.167 1.737 7063
4.014 1.129 1.685 2434
4.161 1.170 1.728 7695
4.025 1.132 1.675 2779
4.158 1.169 1.713 10799
4.022 1.131 1.661 1607
4.294 1.208 1.765 1008
4.170 1.173 1.703 12878
4.306 1.211 1.755 1059
4.034 1.134 1.651 832
4.181 1.176 1.693 12246
4.318 1.214 1.744 955
4.186 1.177 1.681 13095
4.322 1.215 1.731 1822
4.190 1.178 1.668 11249
4.326 1.217 1.718 3013
4.463 1.255 1.769 1464
4.194 1.180 1.655 8035
4.352 1.224 1.713 3826
4.489 1.262 1.763 1563
4.199 1.181 1.643 7087
4.364 1.227 1.703 4013
4.501 1.266 1.753 1677
4.196 1.180 1.628 6288
4.469 1.257 1.726 4019
4.332 1.218 1.677 2934
4.466 1.256 1.710 6294
4.207 1.183 1.618 4220
4.471 1.257 1.697 10211
4.327 1.217 1.646 3017
4.189 1.178 1.597 1773
4.475 1.259 1.683 15798
4.324 1.216 1.630 2085
4.612 1.297 1.731 1437
4.186 1.177 1.582 1197
4.480 1.260 1.670 16806
4.320 1.215 1.615 2434
4.617 1.298 1.717 2295
4.183 1.176 1.567 925
4.491 1.263 1.659 11335
4.636 1.304 1.709 2870
4.325 1.216 1.602 2355
4.495 1.264 1.645 7930
4.640 1.305 1.695 3822
4.321 1.215 1.586 1631
4.778 1.344 1.741 833
4.492 1.263 1.630 7439
4.652 1.308 1.683 5540
4.355 1.225 1.583 1441
4.790 1.347 1.729 879
4.489 1.263 1.614 8080
4.671 1.314 1.674 5115
4.351 1.224 1.568 1303
4.809 1.352 1.720 1069
4.493 1.264 1.600 6642
4.631 1.303 1.646 3177
4.820 1.356 1.708 2233
4.326 1.217 1.545 973
4.490 1.263 1.584 4055
4.817 1.355 1.691 3850
4.679 1.316 1.646 2984
4.956 1.394 1.736 1614
4.749 1.336 1.653 5035
4.924 1.385 1.709 3372
4.494 1.264 1.571 1537
4.848 1.363 1.669 4959
4.709 1.324 1.625 3535
4.986 1.402 1.713 880
4.845 1.363 1.652 3721
4.706 1.324 1.608 3051
5.034 1.416 1.712 1084
4.929 1.386 1.663 5284
4.718 1.327 1.597 2134
5.068 1.425 1.706 1202
4.948 1.392 1.652 6808
4.809 1.353 1.610 1924
5.087 1.431 1.695 949
4.974 1.399 1.644 6045
4.836 1.360 1.602 1980
5.113 1.438 1.687 832
4.957 1.394 1.623 5417
5.140 1.445 1.678 1528
4.818 1.355 1.581 867
4.954 1.393 1.606 4621
5.151 1.449 1.665 1979
4.994 1.405 1.602 3281
5.170 1.454 1.654 2392
5.309 1.493 1.695 872
5.449 1.532 1.736 799
4.998 1.406 1.587 2662
5.182 1.457 1.640 2372
5.321 1.496 1.681 1213
5.460 1.536 1.722 930
5.223 1.469 1.635 3392
5.406 1.520 1.689 2134
5.002 1.407 1.572 1957
5.546 1.560 1.729 798
5.440 1.530 1.681 3192
5.242 1.474 1.624 2702
5.014 1.410 1.559 1597
5.579 1.569 1.721 750
5.452 1.533 1.666 4533
5.268 1.481 1.614 2734
5.025 1.413 1.546 1301
5.613 1.579 1.712 880
5.485 1.543 1.658 6372
5.301 1.491 1.607 2194
5.662 1.592 1.708 1165
5.497 1.546 1.644 9520
5.637 1.585 1.683 1302
5.350 1.504 1.603 1257
5.486 1.543 1.623 11794
5.634 1.584 1.664 2654
5.332 1.499 1.581 1058
5.498 1.546 1.609 13210
5.638 1.586 1.647 3775
5.509 1.549 1.594 12587
5.664 1.593 1.636 3670
5.506 1.548 1.576 11922
5.676 1.596 1.621 3914
6.186 1.740 1.755 1031
5.853 1.646 1.667 797
5.495 1.545 1.555 10916
5.680 1.597 1.603 5719
6.205 1.745 1.740 2091
5.632 1.584 1.573 6911
5.492 1.544 1.537 5889
6.217 1.748 1.723 2789
5.773 1.624 1.609 1306
5.644 1.587 1.558 5264
6.243 1.756 1.710 4542
5.496 1.546 1.520 2268
5.784 1.627 1.594 894
6.255 1.759 1.693 6557
5.663 1.593 1.545 3628
5.500 1.547 1.504 2033
6.396 1.799 1.729 1368
6.260 1.760 1.675 5475
5.711 1.606 1.539 3094
6.400 1.800 1.709 1903
5.503 1.548 1.487 1391
6.271 1.764 1.657 4929
5.685 1.599 1.514 3127
6.412 1.803 1.692 1885
6.627 1.864 1.744 1037
6.276 1.765 1.639 4680
6.417 1.805 1.673 2786
5.682 1.598 1.495 1922
6.662 1.873 1.732 1772
6.376 1.793 1.643 5197
6.666 1.875 1.712 2448
6.517 1.833 1.676 1767
6.235 1.754 1.609 1498
6.395 1.799 1.627 4552
6.663 1.874 1.690 3479
6.254 1.759 1.594 1115
7.035 1.978 1.777 982
6.667 1.875 1.670 4040
6.407 1.802 1.610 3566
7.039 1.980 1.756 2112
6.898 1.940 1.723 974
6.679 1.878 1.651 2725
7.044 1.981 1.735 1949
6.411 1.803 1.590 1571
6.902 1.941 1.702 1034
6.713 1.888 1.638 1557
7.056 1.984 1.715 1395
6.914 1.945 1.683 963
6.415 1.804 1.571 863
7.068 1.988 1.696 1673
6.643 1.868 1.601 1478
7.209 2.027 1.727 1111
7.351 2.067 1.758 956
7.184 2.020 1.699 2401
7.340 2.064 1.733 1604
7.042 1.980 1.668 1344
7.557 2.125 1.780 976
7.196 2.024 1.679 2842
7.345 2.066 1.711 2064
7.054 1.984 1.648 1498
7.576 2.131 1.761 1241
7.215 2.029 1.660 2276
7.573 2.130 1.736 1810
7.364 2.071 1.692 1758
7.065 1.987 1.628 1328
7.563 2.127 1.710 2309
7.227 2.032 1.640 1853
7.421 2.087 1.681 1498
7.854 2.209 1.771 1110
7.612 2.141 1.697 3156
7.380 2.076 1.649 1834
7.814 2.198 1.738 1266
7.238 2.036 1.620 1214
7.609 2.140 1.672 3281
7.908 2.224 1.733 3070
7.437 2.091 1.637 1775
7.766 2.184 1.704 930
7.912 2.225 1.709 5924
7.606 2.139 1.648 2293
7.770 2.185 1.681 1174
7.448 2.095 1.617 1171
7.917 2.226 1.685 4733
7.632 2.146 1.629 2062
7.775 2.186 1.657 1280
8.441 2.374 1.789 1084
7.921 2.228 1.662 2698
7.629 2.146 1.605 1464
8.453 2.377 1.765 1194
7.779 2.188 1.634 1004
7.993 2.248 1.651 2263
8.458 2.379 1.739 1379
7.850 2.208 1.623 822
7.922 2.228 1.612 2999
8.455 2.378 1.712 1533
8.687 2.443 1.756 1160
8.065 2.268 1.639 1078
7.941 2.233 1.591 3487
8.624 2.425 1.717 1968
8.084 2.273 1.618 1307
8.451 2.377 1.685 1194
8.028 2.258 1.582 3473
8.591 2.416 1.684 2168
8.734 2.456 1.710 1485
8.891 2.501 1.739 1144
8.039 2.261 1.559 3625
8.595 2.417 1.658 2696
8.896 2.502 1.712 1515
8.738 2.457 1.684 1500
8.036 2.260 1.534 3023
8.893 2.501 1.684 2230
8.599 2.418 1.632 2131
8.750 2.461 1.659 977
8.889 2.500 1.656 2107
8.040 2.261 1.510 1873
8.626 2.426 1.610 1058
9.032 2.540 1.680 850
8.901 2.503 1.630 1436
8.043 2.262 1.485 889
8.653 2.433 1.588 804
8.913 2.507 1.604 1136
9.169 2.579 1.647 954
9.768 2.747 1.716 1043
8.917 2.508 1.577 924
8.729 2.455 1.547 853
9.772 2.748 1.686 975
10.149 2.854 1.746 862
8.740 2.458 1.522 832
10.161 2.858 1.717 861
10.512 2.956 1.739 892
10.516 2.958 1.707 1296
10.660 2.998 1.729 1048
10.506 2.955 1.673 1267
10.709 3.012 1.703 1168
11.064 3.112 1.755 1048
11.099 3.121 1.726 1176
10.502 2.954 1.641 1048
10.646 2.994 1.661 937
11.265 3.168 1.750 854
11.111 3.125 1.694 1429
11.677 3.284 1.773 1312
11.519 3.239 1.751 976
10.658 2.997 1.630 958
11.213 3.154 1.674 1970
11.682 3.285 1.738 1885
11.508 3.236 1.714 1096
10.654 2.996 1.597 1026
11.218 3.155 1.640 1907
11.694 3.289 1.704 1724
11.837 3.329 1.723 1684
11.497 3.233 1.677 1070
11.842 3.330 1.687 1820
11.222 3.156 1.606 1784
11.698 3.290 1.669 1769
11.501 3.235 1.643 1092
11.710 3.293 1.634 2034
11.854 3.334 1.653 1467
11.218 3.155 1.571 1438
12.171 3.423 1.693 1033
11.706 3.292 1.598 1798
11.865 3.337 1.618 1267
12.176 3.424 1.657 1017
11.215 3.154 1.536 807
12.293 3.457 1.634 1476
11.718 3.296 1.563 1151
11.885 3.342 1.584 1013
12.543 3.528 1.664 871
12.267 3.450 1.593 1429
11.616 3.267 1.515 836
13.214 3.716 1.706 820
12.226 3.438 1.551 1081
13.942 3.921 1.707 1236
13.775 3.874 1.688 795
13.946 3.922 1.665 1442
13.385 3.764 1.603 865
13.951 3.923 1.623 1006
8.917 2.508 -0.263 856
8.916 2.507 -0.289 978
8.914 2.507 -0.316 1076
8.905 2.505 -0.343 1176
8.912 2.506 -0.370 1183
8.910 2.506 -0.397 1192
8.909 2.505 -0.424 1129
8.907 2.505 -0.451 1066
8.905 2.505 -0.478 954
8.904 2.504 -0.504 843
8.914 2.507 -0.667 773
8.912 2.506 -0.694 868
8.909 2.506 -0.721 884
8.907 2.505 -0.748 900
8.904 2.504 -0.775 900
8.909 2.506 -0.803 801
2.274 0.629 1.791 3578
2.285 0.632 1.789 7192
2.403 0.664 1.876 1101
2.167 0.599 1.702 1051
2.290 0.633 1.782 7519
2.408 0.666 1.869 2202
2.171 0.600 1.695 1051
2.300 0.636 1.780 9847
2.419 0.669 1.867 1681
2.182 0.603 1.693 1023
2.305 0.637 1.773 12198
2.424 0.670 1.859 1558
2.186 0.605 1.687 895
2.310 0.639 1.766 10536
2.429 0.672 1.852 2349
2.314 0.640 1.760 8874
2.434 0.673 1.845 3179
2.319 0.641 1.753 8874
2.438 0.674 1.838 3216
2.330 0.644 1.750 6741
2.449 0.677 1.835 4567
2.454 0.679 1.828 6095
2.334 0.645 1.743 4670
2.459 0.680 1.820 7769
2.339 0.647 1.736 3343
2.464 0.681 1.813 9443
2.343 0.648 1.730 2016
2.462 0.681 1.802 9332
2.341 0.647 1.718 1834
2.467 0.682 1.794 9271
2.346 0.649 1.711 1690
2.588 0.715 1.877 1090
2.471 0.683 1.787 9271
2.592 0.717 1.870 1479
2.350 0.650 1.704 1308
2.482 0.686 1.784 7650
2.604 0.720 1.866 1582
2.361 0.653 1.702 1158
2.487 0.688 1.777 6298
2.609 0.721 1.858 1680
2.365 0.654 1.695 1280
2.485 0.687 1.765 6145
2.607 0.721 1.846 3198
2.477 0.685 1.749 6408
2.605 0.720 1.834 4839
2.494 0.690 1.750 6591
2.617 0.723 1.831 5038
2.505 0.693 1.747 7240
2.628 0.727 1.827 5094
2.639 0.730 1.824 7207
2.503 0.692 1.735 5218
2.650 0.733 1.820 10075
2.508 0.693 1.728 3237
2.668 0.738 1.821 10730
2.545 0.704 1.741 2748
2.679 0.741 1.817 12133
2.556 0.707 1.738 2385
2.690 0.744 1.813 9877
2.567 0.710 1.734 2692
2.708 0.749 1.813 8446
2.584 0.714 1.735 2932
2.706 0.748 1.801 7001
2.582 0.714 1.723 2201
2.711 0.750 1.793 5661
2.587 0.715 1.716 1629
2.715 0.751 1.785 7984
2.591 0.716 1.708 1384
2.840 0.785 1.862 1167
2.727 0.754 1.781 10368
2.851 0.788 1.858 1453
2.602 0.719 1.704 1349
2.731 0.755 1.773 9890
2.856 0.790 1.849 1986
2.606 0.721 1.697 1165
2.736 0.756 1.765 9411
2.861 0.791 1.841 2520
2.611 0.722 1.689 982
2.747 0.760 1.761 7755
2.872 0.794 1.836 3236
2.622 0.725 1.685 795
2.765 0.764 1.760 7246
2.890 0.799 1.835 2702
2.855 0.790 1.803 7701
2.730 0.755 1.728 3384
2.860 0.791 1.795 9468
2.734 0.756 1.720 2425
2.858 0.790 1.782 9099
2.732 0.755 1.708 1397
2.863 0.792 1.774 7837
2.989 0.826 1.847 1188
2.736 0.757 1.700 873
2.874 0.795 1.769 6716
3.001 0.830 1.842 1798
2.872 0.794 1.757 6543
2.999 0.829 1.830 2598
2.876 0.795 1.748 6372
3.003 0.830 1.821 3258
2.888 0.798 1.743 5800
3.015 0.834 1.816 2819
2.892 0.800 1.735 4610
3.020 0.835 1.807 2585
2.903 0.803 1.730 3920
3.031 0.838 1.801 2080
2.908 0.804 1.721 3677
3.036 0.839 1.792 2108
3.000 0.829 1.761 4391
3.128 0.865 1.831 1902
2.872 0.794 1.690 1335
3.011 0.833 1.756 5550
3.139 0.868 1.826 2160
2.883 0.797 1.686 2119
3.022 0.836 1.750 6475
2.894 0.800 1.681 2983
3.151 0.871 1.820 2578
3.020 0.835 1.738 6106
3.149 0.871 1.807 2940
2.892 0.800 1.668 2416
3.031 0.838 1.732 4304
3.160 0.874 1.801 2971
2.903 0.803 1.663 2134
3.179 0.879 1.799 3333
3.050 0.843 1.731 1900
2.920 0.808 1.662 1494
3.183 0.880 1.790 3123
2.979 0.824 1.682 2219
3.195 0.883 1.784 4329
2.990 0.827 1.677 2411
3.199 0.885 1.774 5730
2.995 0.828 1.668 2796
3.197 0.884 1.761 5882
2.999 0.829 1.659 2968
3.181 0.880 1.741 7445
3.003 0.830 1.650 2836
3.311 0.915 1.808 1417
3.192 0.883 1.735 7877
3.014 0.833 1.645 2269
3.323 0.919 1.801 1653
3.204 0.886 1.729 7965
3.019 0.835 1.636 1752
3.334 0.922 1.795 1118
3.208 0.887 1.720 6357
3.036 0.840 1.633 1468
3.339 0.923 1.785 1060
3.288 0.909 1.748 5557
3.158 0.873 1.683 1729
3.027 0.837 1.618 950
3.293 0.910 1.738 7478
3.162 0.874 1.673 1193
3.424 0.947 1.802 805
3.031 0.838 1.609 785
3.318 0.917 1.738 8461
3.187 0.881 1.674 2239
3.042 0.841 1.603 988
3.323 0.919 1.728 11580
3.191 0.882 1.664 2377
3.032 0.838 1.587 1574
3.327 0.920 1.718 11588
3.029 0.838 1.575 2253
3.196 0.884 1.655 1577
3.458 0.956 1.782 859
3.331 0.921 1.708 10221
3.034 0.839 1.566 2436
3.463 0.958 1.771 1275
3.193 0.883 1.642 838
3.371 0.932 1.715 11023
3.031 0.838 1.553 2254
3.502 0.968 1.778 1235
3.239 0.895 1.652 862
3.382 0.935 1.708 12251
3.028 0.837 1.541 1649
3.514 0.972 1.770 1087
3.393 0.938 1.701 12809
3.025 0.836 1.529 836
3.532 0.977 1.766 804
3.405 0.941 1.694 14355
3.537 0.978 1.756 1034
3.272 0.905 1.633 994
3.409 0.943 1.684 11801
3.541 0.979 1.745 1200
3.276 0.906 1.623 961
3.441 0.951 1.687 9078
3.309 0.915 1.626 1120
3.609 0.998 1.763 823
3.474 0.960 1.689 8867
3.341 0.924 1.629 2822
3.697 1.022 1.791 1500
3.485 0.964 1.682 10115
3.352 0.927 1.622 2304
3.702 1.024 1.780 2046
3.489 0.965 1.672 11328
3.707 1.025 1.769 2104
3.356 0.928 1.612 1687
3.486 0.964 1.658 10211
3.620 1.001 1.717 2038
3.353 0.927 1.599 1172
3.753 1.038 1.776 1117
3.491 0.965 1.648 7094
3.723 1.029 1.750 3284
3.357 0.928 1.589 879
3.544 0.980 1.659 7263
3.734 1.032 1.742 6922
3.411 0.943 1.601 2899
3.732 1.032 1.727 9400
3.499 0.968 1.627 6654
3.865 1.069 1.785 1238
3.736 1.033 1.716 8240
3.503 0.969 1.616 4240
3.870 1.070 1.774 1761
3.741 1.034 1.705 6527
3.875 1.071 1.762 2729
3.606 0.997 1.648 2199
3.472 0.960 1.591 1585
3.851 1.065 1.739 6005
3.717 1.028 1.682 3610
3.582 0.990 1.625 1660
3.855 1.066 1.727 6335
3.721 1.029 1.671 1854
3.586 0.992 1.615 1236
4.004 1.107 1.789 881
3.860 1.067 1.715 3498
3.995 1.104 1.771 1818
3.725 1.030 1.660 1537
3.591 0.993 1.604 769
3.893 1.076 1.716 3701
4.028 1.114 1.771 2489
3.737 1.033 1.651 1788
3.897 1.078 1.704 6470
4.039 1.117 1.762 3472
3.755 1.038 1.646 1501
3.902 1.079 1.692 6947
4.044 1.118 1.750 3976
3.766 1.041 1.638 1006
4.041 1.117 1.735 4563
3.906 1.080 1.681 4221
4.176 1.155 1.789 845
4.046 1.119 1.723 4418
3.910 1.081 1.669 2254
4.181 1.156 1.776 2046
4.150 1.147 1.750 6561
4.014 1.110 1.697 2702
3.879 1.072 1.643 794
4.162 1.151 1.740 9120
4.026 1.113 1.687 3477
4.166 1.152 1.728 10471
4.030 1.114 1.675 3267
4.171 1.153 1.715 14467
4.035 1.116 1.663 2272
4.307 1.191 1.767 861
4.175 1.154 1.703 17459
4.039 1.117 1.651 1108
4.311 1.192 1.755 1061
4.187 1.158 1.693 16222
4.323 1.195 1.744 955
4.191 1.159 1.681 14916
4.327 1.196 1.731 1781
4.195 1.160 1.668 12661
4.332 1.198 1.718 3171
4.468 1.235 1.769 1438
4.199 1.161 1.655 11084
4.351 1.203 1.711 3965
4.487 1.241 1.761 2101
4.197 1.160 1.640 10401
4.463 1.234 1.737 4266
4.201 1.161 1.628 7122
4.475 1.237 1.726 4783
4.338 1.199 1.677 3268
4.465 1.234 1.708 7622
4.320 1.195 1.656 4957
4.183 1.157 1.607 3762
4.469 1.236 1.694 12079
4.296 1.188 1.633 5088
4.158 1.150 1.585 2146
4.474 1.237 1.681 15623
4.285 1.185 1.615 4607
4.611 1.275 1.729 1502
4.148 1.147 1.567 1077
4.485 1.240 1.670 15396
4.290 1.186 1.602 4452
4.623 1.278 1.717 2183
4.152 1.148 1.555 978
4.489 1.241 1.656 12172
4.301 1.189 1.592 3948
4.642 1.283 1.709 2520
4.163 1.151 1.545 997
4.494 1.242 1.643 10975
4.305 1.190 1.579 2798
4.668 1.291 1.702 2766
4.498 1.244 1.630 9872
4.672 1.292 1.688 4058
4.302 1.189 1.564 1530
4.495 1.243 1.614 8176
4.640 1.283 1.662 4939
4.778 1.321 1.708 1172
4.313 1.193 1.553 985
4.499 1.244 1.600 5823
4.637 1.282 1.646 5445
4.775 1.320 1.691 1453
4.913 1.359 1.737 1075
4.721 1.305 1.658 4181
4.503 1.245 1.587 3398
4.860 1.344 1.703 1862
4.747 1.313 1.651 5650
4.886 1.351 1.695 2556
4.580 1.266 1.597 1485
4.759 1.316 1.639 4642
4.905 1.356 1.685 3490
4.620 1.278 1.595 789
4.924 1.361 1.675 3609
4.749 1.313 1.620 2659
4.935 1.365 1.663 3728
4.789 1.324 1.617 1547
4.976 1.376 1.659 6889
4.837 1.338 1.616 1273
4.988 1.379 1.647 9100
5.149 1.424 1.696 1494
4.827 1.335 1.597 821
4.999 1.382 1.634 6364
5.153 1.425 1.680 1458
4.860 1.344 1.592 928
4.996 1.381 1.617 3318
5.194 1.436 1.676 2377
5.184 1.433 1.656 3806
4.993 1.381 1.599 2697
5.195 1.437 1.642 4257
4.997 1.382 1.585 1966
5.364 1.483 1.692 1067
5.504 1.522 1.733 811
5.207 1.440 1.629 5818
5.405 1.495 1.686 2345
5.009 1.385 1.572 1880
5.545 1.533 1.727 994
5.211 1.441 1.613 4421
5.432 1.502 1.677 2949
5.005 1.384 1.555 1709
5.458 1.509 1.666 5089
5.223 1.444 1.600 3236
5.017 1.387 1.542 1137
5.598 1.548 1.706 891
5.485 1.516 1.656 8714
5.234 1.447 1.586 3057
5.669 1.567 1.708 1277
5.511 1.524 1.646 11138
5.246 1.450 1.573 1974
5.658 1.565 1.687 1114
5.508 1.523 1.627 11633
5.648 1.562 1.666 1665
5.257 1.454 1.559 1400
5.505 1.522 1.609 13038
5.652 1.563 1.649 3173
5.335 1.475 1.563 839
5.516 1.525 1.594 13997
5.664 1.566 1.634 4510
5.804 1.605 1.671 758
5.520 1.526 1.578 12633
5.668 1.567 1.617 5570
5.853 1.618 1.665 1125
5.591 1.546 1.578 13255
5.731 1.585 1.615 4539
5.450 1.507 1.542 2163
6.227 1.722 1.744 1565
5.624 1.555 1.569 11211
5.484 1.516 1.533 4382
6.232 1.723 1.725 2729
5.765 1.594 1.605 2241
5.636 1.558 1.554 5799
6.259 1.730 1.712 3900
5.495 1.519 1.519 2166
5.777 1.597 1.590 1197
6.270 1.734 1.695 5356
5.640 1.559 1.537 4142
5.499 1.520 1.502 1406
5.781 1.598 1.573 1351
6.275 1.735 1.676 5723
5.673 1.569 1.528 3449
5.896 1.630 1.583 1081
6.586 1.821 1.753 1039
6.279 1.736 1.657 7077
5.722 1.582 1.522 3253
6.576 1.818 1.730 1128
5.893 1.629 1.563 1039
6.283 1.737 1.639 5853
5.696 1.575 1.497 1973
6.424 1.776 1.673 1860
6.662 1.842 1.730 1372
6.295 1.741 1.622 3146
6.436 1.780 1.655 1742
6.682 1.847 1.713 1588
1.036 0.287 0.372 1056
6.671 1.845 1.690 2302
6.299 1.742 1.603 2211
7.043 1.947 1.777 1385
6.440 1.781 1.636 1310
6.676 1.846 1.670 2692
7.048 1.949 1.756 2533
6.325 1.749 1.589 1734
5.893 1.630 1.489 1105
7.060 1.952 1.736 2564
6.687 1.849 1.651 2172
6.330 1.750 1.570 952
6.829 1.888 1.684 848
7.072 1.955 1.717 2120
6.706 1.854 1.635 1555
7.076 1.957 1.696 2117
6.651 1.839 1.601 1249
7.337 2.029 1.753 986
6.934 1.917 1.664 791
7.193 1.989 1.699 2206
7.349 2.032 1.733 1475
7.051 1.949 1.668 1347
6.655 1.840 1.581 882
7.204 1.992 1.679 2550
