2.334 1.707 1.654 764
2.507 1.833 1.757 7290
2.399 1.755 1.687 3484
2.505 1.832 1.745 6782
2.397 1.753 1.675 2598
2.492 1.822 1.725 8409
2.384 1.743 1.655 1030
2.599 1.901 1.794 962
2.490 1.821 1.712 10408
2.597 1.899 1.782 1255
2.505 1.832 1.711 8502
2.613 1.911 1.780 1028
2.520 1.843 1.709 5605
2.628 1.922 1.778 921
2.523 1.845 1.700 3993
2.632 1.925 1.768 1221
2.596 1.898 1.734 4398
2.487 1.819 1.666 2080
2.554 1.867 1.696 6107
2.662 1.947 1.764 1386
2.597 1.899 1.712 9089
2.489 1.820 1.645 1556
2.706 1.979 1.779 1443
2.624 1.919 1.717 13033
2.515 1.839 1.650 2931
2.733 1.998 1.783 1787
2.633 1.926 1.711 13523
2.524 1.846 1.645 2155
2.742 2.006 1.777 1887
2.637 1.928 1.701 12233
2.746 2.008 1.767 1618
2.528 1.849 1.636 1383
2.618 1.914 1.678 12361
2.727 1.994 1.744 4000
2.621 1.917 1.669 11194
2.731 1.997 1.734 4747
2.512 1.837 1.604 772
2.631 1.924 1.663 9238
2.740 2.004 1.728 3460
2.521 1.844 1.598 873
2.721 1.990 1.704 7891
2.611 1.910 1.640 4804
2.831 2.070 1.769 1682
2.725 1.993 1.695 8948
2.835 2.073 1.758 2920
2.615 1.912 1.631 2135
2.786 2.038 1.718 9831
2.676 1.957 1.655 4796
2.796 2.045 1.712 8960
2.686 1.964 1.649 4043
2.906 2.125 1.775 1218
2.805 2.051 1.705 10068
2.695 1.971 1.642 3224
2.916 2.132 1.768 1496
2.809 2.054 1.695 9455
2.698 1.973 1.633 1788
2.954 2.161 1.777 1720
2.871 2.099 1.718 6336
2.760 2.019 1.656 2461
2.982 2.180 1.779 1685
2.880 2.106 1.711 5809
2.770 2.025 1.649 1961
2.991 2.187 1.772 1739
2.907 2.126 1.713 6506
2.797 2.045 1.652 3248
3.018 2.207 1.774 824
2.876 2.103 1.684 6905
2.987 2.185 1.744 3644
2.765 2.022 1.623 1045
2.973 2.174 1.724 4827
2.862 2.093 1.664 4692
2.989 2.186 1.720 4264
2.877 2.104 1.660 2568
3.004 2.197 1.715 5101
2.893 2.115 1.656 2470
3.008 2.200 1.705 4878
2.896 2.118 1.646 2528
3.006 2.198 1.691 6058
2.894 2.116 1.632 1811
3.118 2.280 1.750 797
3.009 2.201 1.680 9652
3.121 2.283 1.738 2070
2.898 2.119 1.622 859
3.007 2.199 1.666 8352
3.119 2.281 1.724 4274
3.011 2.202 1.656 5182
3.123 2.284 1.713 4047
3.020 2.209 1.648 3732
3.139 2.295 1.708 3613
3.113 2.276 1.682 4336
3.000 2.194 1.625 1439
3.225 2.358 1.739 1183
3.104 2.270 1.665 4904
3.217 2.353 1.721 2637
2.992 2.188 1.609 835
3.203 2.342 1.701 5102
3.090 2.260 1.645 3010
3.207 2.345 1.689 8141
3.094 2.262 1.634 2568
3.210 2.348 1.678 8070
3.097 2.265 1.623 3047
3.323 2.430 1.733 790
3.214 2.350 1.666 6393
3.101 2.267 1.612 2101
3.327 2.433 1.721 1046
3.223 2.357 1.658 6563
3.110 2.274 1.604 1136
3.337 2.440 1.712 1065
3.215 2.351 1.641 5774
3.358 2.456 1.709 2151
3.290 2.406 1.663 4405
3.404 2.489 1.716 2073
3.177 2.323 1.610 1959
3.360 2.457 1.682 6354
3.216 2.352 1.615 2496
3.473 2.540 1.735 784
3.369 2.464 1.673 6234
3.243 2.372 1.615 2300
3.483 2.547 1.725 888
3.391 2.480 1.669 7664
3.277 2.396 1.617 1866
3.523 2.576 1.729 942
3.394 2.482 1.657 11185
3.280 2.399 1.605 1464
3.508 2.566 1.708 1271
3.398 2.485 1.644 9281
3.512 2.568 1.696 1477
3.402 2.487 1.632 5453
3.516 2.571 1.683 2741
3.501 2.560 1.663 5264
3.387 2.477 1.612 2745
3.616 2.644 1.713 1765
3.583 2.620 1.684 6230
3.433 2.510 1.619 4354
3.698 2.704 1.734 756
3.575 2.614 1.666 9808
3.454 2.526 1.614 3655
3.689 2.698 1.716 1863
3.578 2.617 1.654 8122
3.458 2.529 1.602 3256
3.693 2.701 1.703 2822
3.582 2.619 1.641 4641
3.697 2.703 1.690 3122
3.467 2.535 1.592 2404
3.658 2.675 1.659 4852
3.543 2.591 1.610 2262
3.773 2.759 1.707 809
3.674 2.687 1.651 4035
3.801 2.780 1.703 2134
3.559 2.602 1.603 1130
3.744 2.738 1.665 4245
3.629 2.654 1.617 2046
3.859 2.822 1.712 990
3.748 2.741 1.652 4577
3.632 2.656 1.604 2208
3.863 2.825 1.699 1125
3.763 2.752 1.643 3346
3.648 2.668 1.596 2231
3.879 2.836 1.690 1100
3.822 2.795 1.651 4039
3.706 2.710 1.605 2738
3.837 2.806 1.643 4952
3.722 2.722 1.597 2124
3.953 2.891 1.688 931
3.865 2.827 1.638 6011
3.749 2.742 1.593 1216
4.005 2.929 1.693 1053
3.869 2.829 1.625 5910
4.009 2.932 1.679 1941
3.753 2.744 1.580 826
3.848 2.814 1.601 5289
3.964 2.899 1.646 2777
3.839 2.807 1.583 4540
3.967 2.901 1.632 2847
3.995 2.922 1.627 3359
3.842 2.810 1.569 2934
3.993 2.920 1.610 3616
3.852 2.817 1.558 1609
4.008 2.931 1.601 5929
4.012 2.934 1.586 9096
4.015 2.936 1.572 8434
4.031 2.948 1.562 9576
4.059 2.968 1.556 10500
4.031 2.948 1.531 9265
4.148 3.033 1.572 909
4.047 2.959 1.521 14209
4.164 3.045 1.561 1492
4.465 3.265 1.665 1016
4.318 3.157 1.614 851
4.062 2.971 1.510 13517
4.179 3.056 1.550 1996
4.450 3.255 1.643 1625
4.315 3.155 1.597 946
4.090 2.991 1.504 10467
4.516 3.302 1.648 2543
4.207 3.077 1.544 802
4.100 2.998 1.492 7485
4.513 3.300 1.629 2909
4.396 3.215 1.590 1064
4.729 3.458 1.702 768
4.103 3.000 1.477 5144
4.510 3.298 1.611 3522
4.393 3.213 1.573 1097
4.733 3.461 1.685 863
4.520 3.305 1.597 9981
4.100 2.998 1.460 3394
4.403 3.220 1.559 846
4.530 3.312 1.583 15347
4.103 3.000 1.446 2184
4.659 3.407 1.625 996
4.839 3.539 1.682 814
4.539 3.319 1.569 10867
4.923 3.600 1.691 1581
4.106 3.003 1.431 914
4.657 3.405 1.606 877
4.549 3.326 1.554 9453
4.939 3.612 1.677 2666
4.753 3.476 1.619 2122
4.540 3.320 1.534 14226
4.750 3.474 1.600 3661
4.961 3.628 1.665 3104
4.112 3.007 1.401 890
4.549 3.327 1.520 10648
4.940 3.612 1.640 3620
4.754 3.476 1.583 3302
4.115 3.009 1.387 1032
4.950 3.620 1.624 4074
4.552 3.329 1.504 3046
4.757 3.479 1.566 2608
4.124 3.016 1.374 804
4.966 3.631 1.610 3944
4.773 3.490 1.552 2260
4.593 3.359 1.498 1172
4.475 3.272 1.463 949
4.963 3.629 1.590 3653
5.193 3.797 1.658 2717
4.789 3.502 1.539 1483
4.577 3.347 1.476 997
5.196 3.800 1.639 5249
4.966 3.632 1.572 3373
4.804 3.513 1.525 807
5.200 3.803 1.621 7422
4.976 3.639 1.556 3107
5.210 3.810 1.604 9133
4.973 3.637 1.537 2706
5.390 3.942 1.655 1380
5.091 3.723 1.570 1120
5.213 3.812 1.585 9964
5.400 3.949 1.637 2150
4.976 3.639 1.519 1762
5.095 3.726 1.552 937
5.216 3.815 1.566 8885
5.410 3.956 1.620 2010
4.986 3.646 1.503 1088
5.213 3.813 1.546 6270
5.407 3.954 1.599 2505
5.644 4.127 1.663 1064
5.217 3.815 1.527 4609
5.417 3.961 1.581 3285
5.648 4.130 1.643 1470
5.804 4.244 1.685 755
5.420 3.964 1.562 3331
5.226 3.822 1.510 3165
5.782 4.229 1.657 1520
5.657 4.137 1.624 1270
5.423 3.966 1.542 3087
5.786 4.231 1.637 2280
5.229 3.824 1.492 1813
5.905 4.318 1.668 1053
5.808 4.248 1.621 2787
5.420 3.964 1.521 2268
5.689 4.161 1.590 973
5.026 3.676 1.420 904
5.824 4.259 1.603 2986
5.968 4.365 1.640 2038
5.373 3.930 1.489 1455
5.680 4.154 1.567 1104
5.959 4.358 1.615 2575
5.834 4.266 1.584 2277
5.370 3.927 1.468 1407
6.078 4.445 1.645 1388
5.988 4.379 1.600 2901
5.837 4.269 1.563 2158
6.195 4.530 1.651 1597
5.373 3.930 1.449 1386
5.985 4.377 1.577 3250
6.198 4.533 1.628 2271
5.847 4.276 1.543 1887
5.377 3.932 1.429 786
6.202 4.535 1.606 3985
5.995 4.384 1.557 3069
6.559 4.797 1.691 1521
5.875 4.297 1.528 1117
6.211 4.542 1.585 5586
6.092 4.455 1.557 2605
6.575 4.809 1.671 1596
5.973 4.368 1.529 1237
6.221 4.549 1.564 4938
6.102 4.462 1.537 2036
6.585 4.816 1.649 1622
5.982 4.375 1.509 931
6.224 4.552 1.542 2822
6.639 4.855 1.636 1860
6.011 4.396 1.494 1359
6.520 4.768 1.609 1173
6.611 4.835 1.605 2297
6.240 4.563 1.523 2034
6.014 4.398 1.472 1190
6.615 4.837 1.582 4318
6.243 4.566 1.500 1709
7.049 5.155 1.677 768
6.624 4.844 1.559 5196
6.750 4.936 1.586 1116
6.253 4.573 1.479 950
6.914 5.056 1.622 918
6.628 4.847 1.535 3901
6.747 4.934 1.561 1702
6.905 5.049 1.594 1002
7.176 5.247 1.652 811
6.637 4.854 1.513 2789
6.820 4.987 1.551 1404
7.173 5.245 1.625 1156
7.003 5.121 1.589 1030
6.653 4.865 1.492 1909
7.157 5.234 1.595 1685
7.006 5.123 1.564 1423
7.334 5.363 1.631 1331
7.155 5.232 1.568 1813
7.356 5.380 1.608 1224
6.625 4.845 1.461 1217
7.009 5.126 1.539 1071
7.701 5.631 1.649 1519
7.511 5.493 1.612 1200
7.379 5.396 1.586 1150
7.158 5.234 1.542 1146
7.729 5.652 1.626 1766
7.508 5.491 1.584 1537
7.369 5.389 1.557 1129
7.199 5.265 1.524 1026
7.739 5.660 1.600 1715
7.859 5.747 1.623 1362
7.569 5.535 1.567 1249
7.354 5.378 1.527 1185
7.730 5.653 1.570 1609
7.850 5.741 1.592 1278
8.059 5.893 1.631 1197
8.198 5.995 1.657 1135
8.075 5.905 1.604 1341
7.708 5.637 1.537 1193
8.214 6.007 1.629 1166
7.942 5.808 1.580 975
8.217 6.009 1.600 1775
8.065 5.898 1.573 1407
8.496 6.213 1.650 1048
7.945 5.810 1.551 991
8.221 6.012 1.570 2387
8.512 6.225 1.621 1854
8.062 5.896 1.543 1642
8.986 6.572 1.704 1041
8.218 6.009 1.540 2243
8.528 6.236 1.593 1906
9.060 6.625 1.684 1388
8.059 5.894 1.512 1210
8.221 6.012 1.510 2379
9.069 6.632 1.652 2060
8.531 6.239 1.562 1323
8.949 6.544 1.632 1158
8.230 6.019 1.481 2577
9.067 6.630 1.619 1881
8.946 6.542 1.599 1316
9.776 7.149 1.735 1190
8.227 6.016 1.451 1993
9.070 6.633 1.586 1940
9.767 7.143 1.698 1601
8.931 6.531 1.564 1459
9.073 6.635 1.553 2239
8.934 6.533 1.531 1502
9.765 7.141 1.662 1449
8.230 6.019 1.421 1050
9.089 6.647 1.523 1926
8.937 6.536 1.499 1265
9.876 7.222 1.643 1201
9.755 7.134 1.624 1032
9.105 6.659 1.492 2030
9.879 7.225 1.607 1309
9.759 7.137 1.589 848
9.102 6.656 1.458 1850
9.889 7.232 1.573 1137
9.962 7.285 1.547 1300
9.099 6.654 1.424 939
9.972 7.292 1.512 1637
10.099 7.385 1.530 864
10.102 7.388 1.493 1298
9.975 7.295 1.476 1289
10.099 7.385 1.456 1270
9.978 7.297 1.440 843
10.166 7.434 1.428 942
10.194 7.455 1.394 836
10.152 7.424 1.352 828
8.465 6.191 -0.347 779
8.412 6.151 -0.404 878
8.417 6.155 -0.435 1512
8.422 6.159 -0.466 2168
8.420 6.158 -0.496 2312
8.419 6.157 -0.526 2455
8.411 6.151 -0.556 1939
8.409 6.150 -0.586 1435
8.401 6.144 -0.616 1312
8.393 6.138 -0.646 1204
8.391 6.136 -0.676 1204
8.383 6.130 -0.705 1542
8.374 6.124 -0.735 1939
8.372 6.122 -0.765 2081
8.364 6.116 -0.794 2285
8.361 6.115 -0.824 1746
8.359 6.113 -0.854 1206
8.357 6.111 -0.885 1206
8.348 6.105 -0.914 1005
8.339 6.098 -0.943 838
8.336 6.096 -0.973 845
8.327 6.090 -1.002 866
1.872 1.360 1.759 3538
1.773 1.289 1.671 1604
1.876 1.363 1.752 7077
1.777 1.291 1.665 3209
1.975 1.435 1.840 830
1.880 1.366 1.746 7077
1.781 1.294 1.659 3209
1.979 1.438 1.833 1661
1.884 1.369 1.739 8293
1.983 1.441 1.826 2487
1.784 1.296 1.652 2420
1.888 1.372 1.732 9509
1.987 1.444 1.819 3313
1.788 1.299 1.646 1630
1.960 1.424 1.784 7918
1.860 1.351 1.699 3804
1.974 1.434 1.787 9701
1.874 1.362 1.701 2588
1.978 1.437 1.780 9701
1.878 1.364 1.694 2588
1.987 1.444 1.777 8400
1.887 1.371 1.692 2241
1.996 1.451 1.774 7594
1.896 1.377 1.690 1805
2.005 1.457 1.772 6683
1.905 1.384 1.688 1966
2.015 1.464 1.769 5971
1.913 1.390 1.685 1872
2.024 1.471 1.766 7305
1.922 1.397 1.683 1762
2.033 1.477 1.764 8800
1.915 1.392 1.668 1709
2.134 1.551 1.847 822
2.037 1.480 1.756 8800
1.935 1.406 1.674 1635
2.138 1.554 1.839 822
2.041 1.483 1.749 7981
1.939 1.409 1.667 1682
2.142 1.557 1.832 1060
2.039 1.482 1.738 7120
1.937 1.407 1.656 1654
2.141 1.556 1.820 1391
2.048 1.488 1.735 6175
1.941 1.410 1.649 1829
2.150 1.563 1.816 1514
2.068 1.503 1.740 5804
1.944 1.413 1.642 1933
2.171 1.577 1.822 1160
2.088 1.517 1.746 6041
1.948 1.415 1.635 2128
2.191 1.592 1.827 856
2.103 1.528 1.747 7189
1.957 1.422 1.633 2355
2.206 1.603 1.827 908
2.117 1.538 1.748 6191
1.960 1.424 1.626 2054
2.137 1.553 1.753 6239
2.034 1.478 1.673 2752
2.147 1.560 1.750 7914
2.043 1.485 1.670 2287
2.150 1.563 1.742 9600
2.047 1.487 1.663 1576
2.160 1.569 1.739 10485
2.056 1.494 1.660 1528
2.169 1.576 1.735 11915
2.010 1.461 1.616 1406
2.184 1.587 1.736 9488
2.080 1.511 1.658 1519
2.193 1.593 1.732 7832
2.089 1.518 1.655 1251
2.202 1.600 1.728 5209
2.098 1.524 1.651 1061
2.307 1.676 1.805 787
2.250 1.635 1.753 4272
2.134 1.551 1.668 1784
2.259 1.642 1.749 4954
2.149 1.561 1.668 1290
2.269 1.648 1.745 5896
2.158 1.568 1.665 901
2.272 1.651 1.737 5125
2.378 1.728 1.812 1003
2.276 1.654 1.729 4355
2.382 1.731 1.804 1343
2.247 1.632 1.697 4638
2.369 1.721 1.784 1516
2.306 1.676 1.728 4680
2.412 1.752 1.803 897
2.315 1.682 1.724 5978
2.421 1.759 1.798 1041
2.209 1.605 1.650 972
2.325 1.689 1.720 7527
2.431 1.766 1.793 1251
2.218 1.612 1.646 1112
2.334 1.696 1.715 9244
2.440 1.773 1.788 1079
2.228 1.619 1.642 1057
2.332 1.694 1.703 7669
2.439 1.772 1.776 1683
2.330 1.693 1.691 6339
2.437 1.771 1.763 2255
2.412 1.753 1.736 4732
2.306 1.675 1.664 2766
2.444 1.776 1.746 7197
2.337 1.698 1.675 1950
2.454 1.783 1.741 9278
2.347 1.705 1.670 857
2.446 1.778 1.725 7434
2.554 1.855 1.796 1578
2.512 1.825 1.757 7421
2.405 1.747 1.687 2923
2.516 1.828 1.748 6760
2.408 1.750 1.678 2500
2.491 1.810 1.721 7790
2.599 1.889 1.791 1254
2.490 1.809 1.709 9775
2.598 1.887 1.778 1519
2.493 1.812 1.700 8012
2.601 1.890 1.769 1647
2.525 1.835 1.709 4687
2.634 1.914 1.778 904
2.603 1.892 1.747 2918
2.495 1.813 1.678 2551
2.607 1.894 1.737 4491
2.498 1.815 1.670 2365
2.559 1.860 1.696 5737
2.668 1.939 1.764 1434
2.603 1.891 1.712 9253
2.712 1.971 1.779 1634
2.494 1.812 1.645 1155
2.624 1.907 1.713 12274
2.733 1.986 1.780 2331
2.515 1.827 1.646 1864
2.639 1.918 1.711 12302
2.749 1.997 1.777 2004
2.530 1.838 1.645 1970
2.620 1.904 1.688 12119
2.729 1.983 1.753 3385
2.624 1.906 1.678 12884
2.733 1.986 1.744 4155
2.627 1.909 1.669 11444
2.737 1.989 1.734 5186
2.517 1.829 1.604 782
2.637 1.916 1.663 9436
2.746 1.996 1.728 4248
2.527 1.836 1.598 872
2.721 1.977 1.701 8059
2.611 1.897 1.637 3872
2.831 2.057 1.765 2619
2.725 1.980 1.691 9255
2.835 2.060 1.755 4021
2.609 1.896 1.624 1486
2.792 2.029 1.718 10493
2.682 1.949 1.655 4634
2.903 2.109 1.782 795
2.779 2.019 1.698 10218
2.889 2.099 1.762 1941
2.668 1.939 1.635 1821
2.806 2.039 1.702 10710
2.695 1.958 1.639 2599
2.916 2.119 1.764 2031
2.809 2.041 1.692 10222
2.920 2.122 1.754 1881
2.699 1.961 1.630 1316
2.877 2.091 1.718 7175
2.766 2.010 1.656 2283
2.988 2.171 1.779 1652
2.875 2.089 1.704 7137
2.986 2.170 1.766 2232
2.764 2.008 1.643 1569
2.873 2.088 1.691 6525
2.984 2.168 1.752 3286
2.762 2.007 1.630 1232
2.871 2.086 1.677 6541
2.982 2.167 1.738 4422
2.869 2.084 1.664 4714
2.986 2.170 1.727 4399
3.007 2.185 1.726 4588
2.896 2.104 1.666 2156
3.017 2.192 1.719 6099
2.905 2.111 1.659 1786
3.021 2.195 1.708 6193
2.909 2.113 1.649 1928
3.018 2.193 1.694 6932
2.906 2.112 1.635 1579
3.130 2.275 1.753 905
3.016 2.192 1.680 10477
3.128 2.273 1.738 2645
3.014 2.190 1.666 9139
3.126 2.272 1.724 5000
3.112 2.261 1.704 4996
3.000 2.180 1.647 3786
3.146 2.286 1.708 3623
3.027 2.199 1.648 2888
3.114 2.262 1.679 5198
3.226 2.344 1.736 1538
3.001 2.180 1.622 1172
3.117 2.265 1.668 7027
3.230 2.347 1.724 2243
3.004 2.183 1.612 1046
3.139 2.281 1.666 5662
3.252 2.363 1.721 2104
3.214 2.335 1.689 7143
3.101 2.253 1.634 3054
3.217 2.338 1.678 7489
3.104 2.255 1.623 3459
3.221 2.340 1.666 6550
3.108 2.258 1.612 2314
3.346 2.431 1.727 988
3.219 2.339 1.652 6792
3.368 2.447 1.723 1080
3.105 2.256 1.598 955
3.276 2.380 1.666 6122
3.390 2.463 1.720 1963
3.162 2.298 1.612 1525
3.298 2.396 1.663 5171
3.411 2.479 1.716 2106
3.184 2.313 1.610 1842
3.367 2.447 1.682 5639
3.235 2.351 1.621 2431
3.481 2.529 1.735 948
3.371 2.449 1.670 5636
3.257 2.366 1.617 2679
3.485 2.532 1.722 1296
3.392 2.465 1.666 7657
3.278 2.382 1.614 1751
3.507 2.548 1.718 1002
3.402 2.472 1.657 11118
3.516 2.555 1.708 1748
3.288 2.389 1.605 892
3.412 2.479 1.647 9158
3.526 2.562 1.698 1618
3.421 2.486 1.638 5685
3.536 2.569 1.689 2142
3.431 2.493 1.628 5396
3.545 2.576 1.679 3569
3.591 2.609 1.684 7486
3.440 2.500 1.619 5352
3.706 2.693 1.734 866
3.589 2.608 1.669 10418
3.462 2.515 1.614 4444
3.704 2.691 1.719 1921
3.586 2.606 1.654 8384
3.471 2.522 1.604 3718
3.701 2.689 1.703 3078
3.590 2.609 1.641 4753
3.705 2.692 1.690 4174
3.475 2.525 1.592 2702
3.678 2.673 1.664 5743
3.563 2.589 1.615 1983
3.794 2.756 1.712 1057
3.676 2.671 1.648 4912
3.791 2.755 1.696 2208
3.752 2.727 1.665 4924
3.637 2.643 1.617 2398
3.868 2.810 1.712 934
3.756 2.729 1.652 4996
3.640 2.645 1.604 2176
3.872 2.813 1.699 961
3.747 2.723 1.633 3874
3.863 2.807 1.680 2050
3.632 2.639 1.586 1569
3.745 2.721 1.617 4461
3.861 2.805 1.664 2439
3.629 2.637 1.571 771
3.846 2.794 1.643 4413
3.730 2.710 1.597 2878
3.962 2.879 1.688 1046
3.874 2.815 1.638 5523
3.746 2.722 1.588 1536
3.990 2.899 1.684 1039
3.871 2.813 1.622 5649
3.987 2.897 1.667 2206
3.755 2.728 1.577 918
3.856 2.802 1.601 4938
3.973 2.887 1.646 3687
3.848 2.796 1.583 4408
3.964 2.880 1.627 3800
4.080 2.965 1.671 832
3.998 2.905 1.625 4940
3.851 2.798 1.569 2980
3.971 2.885 1.599 5586
3.854 2.801 1.556 1529
4.087 2.970 1.642 814
4.017 2.919 1.601 7974
3.894 2.830 1.555 845
4.021 2.921 1.586 11980
4.137 3.006 1.629 779
4.030 2.928 1.574 9758
4.147 3.013 1.616 928
4.046 2.940 1.564 9656
4.163 3.025 1.606 772
4.068 2.956 1.556 11060
4.065 2.954 1.539 8136
4.062 2.951 1.523 11858
4.327 3.144 1.614 1031
4.482 3.256 1.667 965
4.084 2.967 1.515 13590
4.460 3.241 1.643 1611
4.325 3.142 1.597 1183
4.201 3.053 1.555 1108
4.099 2.979 1.504 12635
4.538 3.297 1.652 2547
4.322 3.140 1.579 1090
4.109 2.985 1.492 10214
4.523 3.287 1.629 3231
4.406 3.201 1.590 916
4.112 2.988 1.477 8498
4.520 3.285 1.611 4133
4.403 3.199 1.573 894
4.530 3.292 1.597 7557
4.109 2.986 1.460 6051
4.772 3.467 1.676 912
4.648 3.377 1.635 765
4.546 3.303 1.585 11342
4.112 2.988 1.446 3817
4.676 3.398 1.627 1199
4.794 3.483 1.665 1039
4.555 3.310 1.571 10040
4.946 3.594 1.695 1485
4.810 3.495 1.651 1354
4.115 2.990 1.431 1341
4.559 3.313 1.554 8952
4.956 3.601 1.679 2744
4.813 3.497 1.634 1169
4.677 3.398 1.591 1026
4.550 3.306 1.534 11541
4.966 3.608 1.663 3323
4.773 3.468 1.603 1329
4.121 2.994 1.401 1138
4.559 3.313 1.520 8645
4.951 3.597 1.640 4765
4.833 3.512 1.604 1797
4.124 2.997 1.387 1394
4.961 3.604 1.624 5146
4.500 3.270 1.485 4583
4.842 3.519 1.588 2356
4.618 3.356 1.520 1415
4.970 3.612 1.608 4689
4.503 3.272 1.469 3930
4.852 3.526 1.573 1645
5.089 3.697 1.643 1071
4.974 3.614 1.590 4654
4.507 3.275 1.453 3250
5.148 3.741 1.641 2487
4.855 3.528 1.555 998
4.971 3.612 1.571 4746
5.195 3.775 1.636 4119
4.510 3.277 1.436 2238
4.853 3.526 1.536 775
5.205 3.782 1.619 5759
4.974 3.614 1.553 4132
4.513 3.279 1.420 1199
5.221 3.794 1.604 7013
4.984 3.621 1.537 2894
5.103 3.708 1.570 1566
5.402 3.925 1.655 1459
5.225 3.796 1.585 8149
5.412 3.932 1.637 2413
4.987 3.624 1.519 2010
5.106 3.710 1.552 1432
5.228 3.799 1.566 7704
5.422 3.940 1.620 2661
5.097 3.703 1.530 1293
4.978 3.617 1.498 1011
5.225 3.797 1.546 4995
5.419 3.938 1.599 3732
5.422 3.940 1.579 4569
5.228 3.799 1.527 3260
5.660 4.113 1.643 969
5.810 4.222 1.683 934
5.432 3.947 1.562 3975
5.238 3.806 1.510 2158
5.795 4.211 1.657 1056
5.670 4.120 1.624 937
5.435 3.949 1.542 3389
5.887 4.277 1.660 1665
5.247 3.813 1.493 1245
5.015 3.644 1.433 1152
5.827 4.234 1.622 2589
5.432 3.947 1.521 2503
5.025 3.651 1.416 1181
5.708 4.148 1.592 896
5.837 4.241 1.603 3103
5.988 4.351 1.641 1761
5.429 3.945 1.500 1413
5.699 4.141 1.568 872
5.841 4.244 1.582 2541
6.004 4.363 1.623 2285
5.389 3.915 1.470 1284
0.617 0.448 0.281 964
6.014 4.370 1.603 2646
5.850 4.251 1.563 2401
5.385 3.913 1.449 1372
6.208 4.511 1.651 1277
6.011 4.368 1.580 2762
5.854 4.253 1.542 2036
6.212 4.514 1.628 1775
6.020 4.375 1.560 2915
6.215 4.516 1.606 2899
6.574 4.777 1.691 1489
5.863 4.260 1.522 1187
6.225 4.523 1.585 3944
6.024 4.377 1.538 2527
6.596 4.793 1.672 1546
6.345 4.610 1.613 867
6.235 4.530 1.564 3622
6.115 4.443 1.537 1936
6.625 4.814 1.654 1801
5.996 4.356 1.509 870
6.648 4.830 1.635 2393
6.245 4.537 1.543 2357
6.030 4.382 1.495 1339
6.626 4.815 1.605 2443
6.254 4.544 1.523 2051
6.033 4.384 1.473 1141
6.629 4.817 1.582 4014
6.257 4.547 1.500 1580
7.058 5.129 1.676 794
6.639 4.824 1.559 4917
6.759 4.911 1.585 1210
7.043 5.117 1.646 992
6.267 4.554 1.479 899
6.642 4.826 1.535 3939
6.762 4.914 1.561 1888
7.192 5.226 1.652 1004
7.046 5.120 1.621 924
6.646 4.829 1.512 3061
6.766 4.916 1.537 1502
7.201 5.233 1.627 1416
7.050 5.123 1.596 1101
6.662 4.840 1.490 2096
7.186 5.221 1.597 1734
7.022 5.102 1.564 1559
6.832 4.964 1.525 1102
7.177 5.215 1.569 1834
7.392 5.371 1.612 1378
6.639 4.824 1.461 1335
7.019 5.100 1.537 1298
7.730 5.617 1.652 1966
7.395 5.373 1.586 1541
7.250 5.268 1.557 1425
6.769 4.918 1.462 1102
7.747 5.629 1.626 2417
7.519 5.463 1.582 1328
7.399 5.376 1.559 1271
7.234 5.256 1.527 949
7.756 5.636 1.600 2370
8.054 5.852 1.656 1167
7.364 5.351 1.525 1120
7.585 5.512 1.567 1067
7.747 5.629 1.570 2213
8.070 5.864 1.630 1156
7.867 5.717 1.592 1045
7.373 5.358 1.500 977
7.795 5.664 1.550 1496
8.099 5.885 1.605 1180
7.966 5.788 1.581 793
7.792 5.662 1.521 1283
8.071 5.864 1.570 1188
8.242 5.989 1.601 1143
8.527 6.196 1.652 1009
8.531 6.198 1.621 1909
8.239 5.987 1.570 1625
8.074 5.867 1.541 1352
9.013 6.549 1.705 1213
8.547 6.210 1.593 2029
8.236 5.984 1.540 1529
9.004 6.542 1.671 1439
7.773 5.648 1.460 984
9.090 6.605 1.652 1626
8.239 5.987 1.510 1502
8.550 6.213 1.562 1434
7.782 5.655 1.434 1068
9.804 7.124 1.736 1589
8.249 5.994 1.481 1565
9.081 6.598 1.618 1539
8.947 6.501 1.596 1305
9.802 7.122 1.700 2036
8.944 6.499 1.563 1660
9.084 6.601 1.585 1616
8.246 5.991 1.451 1226
9.087 6.603 1.552 1794
8.954 6.506 1.531 1692
9.793 7.115 1.663 1648
8.566 6.224 1.471 907
9.103 6.615 1.522 1485
8.951 6.504 1.498 1393
9.885 7.183 1.641 1353
9.764 7.095 1.623 854
9.132 6.635 1.493 1649
9.895 7.190 1.606 1329
8.948 6.501 1.465 863
9.116 6.624 1.457 1500
9.898 7.192 1.571 1077
9.978 7.250 1.546 1075
9.113 6.621 1.423 782
10.124 7.357 1.567 750
9.988 7.257 1.511 1268
10.121 7.354 1.530 916
10.125 7.357 1.493 1180
10.004 7.269 1.477 1029
10.185 7.401 1.464 1165
10.020 7.280 1.443 920
10.201 7.412 1.429 1051
10.023 7.283 1.407 827
10.217 7.424 1.394 1004
10.089 7.331 1.378 918
10.213 7.421 1.357 825
10.092 7.333 1.342 799
8.431 6.126 -0.404 1013
8.429 6.125 -0.434 1489
8.434 6.128 -0.465 2012
8.433 6.127 -0.495 1890
8.431 6.126 -0.526 1769
8.430 6.125 -0.556 1334
8.422 6.119 -0.586 921
8.407 6.109 -0.615 1018
8.399 6.103 -0.644 1195
8.397 6.101 -0.674 1195
8.395 6.100 -0.705 1630
8.387 6.094 -0.734 2068
8.384 6.092 -0.764 2264
8.376 6.086 -0.794 2480
8.374 6.084 -0.824 1860
8.371 6.083 -0.854 1240
8.369 6.081 -0.884 1240
8.360 6.075 -0.913 1187
8.351 6.068 -0.942 1241
8.349 6.066 -0.972 1220
8.346 6.064 -1.002 1199
1.905 1.371 1.782 3756
1.779 1.280 1.671 1312
1.909 1.373 1.775 7513
1.783 1.283 1.665 2624
1.912 1.376 1.768 7513
1.787 1.286 1.659 2624
1.890 1.360 1.739 7980
1.990 1.432 1.826 1968
1.790 1.288 1.652 1962
1.894 1.363 1.732 8856
1.994 1.435 1.819 2621
1.794 1.291 1.646 1301
1.908 1.373 1.735 7118
2.008 1.445 1.821 3287
1.808 1.301 1.649 864
1.981 1.425 1.787 8877
1.880 1.353 1.701 2355
1.985 1.428 1.780 8877
1.884 1.356 1.694 2355
1.994 1.435 1.777 8587
1.893 1.362 1.692 2022
1.998 1.438 1.770 8336
1.897 1.365 1.686 1254
2.007 1.444 1.767 7698
1.906 1.371 1.683 1424
2.016 1.451 1.765 7222
1.915 1.378 1.681 1370
2.030 1.461 1.766 8140
1.929 1.388 1.683 1959
2.040 1.468 1.764 9427
1.938 1.395 1.681 2348
2.142 1.541 1.847 875
2.044 1.471 1.756 9427
1.942 1.397 1.674 2450
2.146 1.544 1.839 875
2.047 1.473 1.749 8199
1.945 1.400 1.667 2553
2.150 1.547 1.832 1165
2.051 1.476 1.742 6955
1.949 1.402 1.660 2667
2.154 1.550 1.824 1339
2.060 1.483 1.739 6193
1.958 1.409 1.658 2689
2.163 1.557 1.821 1439
2.080 1.497 1.745 6330
1.956 1.408 1.646 2384
2.183 1.571 1.826 846
2.095 1.508 1.746 6688
1.959 1.410 1.640 2126
2.198 1.582 1.827 841
2.110 1.518 1.747 7708
1.958 1.409 1.628 1912
2.213 1.592 1.827 922
2.130 1.533 1.752 6809
2.026 1.458 1.672 2391
2.145 1.543 1.753 6854
2.041 1.469 1.673 2938
2.154 1.550 1.750 7551
2.050 1.475 1.670 2544
2.158 1.553 1.742 8365
2.054 1.478 1.663 1755
1.632 1.175 1.343 789
2.167 1.559 1.739 9436
2.063 1.484 1.660 1670
1.641 1.181 1.342 942
2.182 1.570 1.739 11142
2.077 1.495 1.661 1745
2.191 1.577 1.736 9275
2.086 1.501 1.658 1669
2.206 1.587 1.736 8063
2.101 1.512 1.659 1623
2.210 1.590 1.728 5579
2.105 1.515 1.651 1204
2.314 1.666 1.805 1028
2.252 1.621 1.749 4992
2.141 1.541 1.668 1846
2.261 1.627 1.745 5386
2.151 1.548 1.664 1315
2.276 1.638 1.745 6265
2.160 1.554 1.661 829
2.280 1.641 1.737 5413
2.386 1.717 1.812 994
2.312 1.664 1.748 4757
2.206 1.587 1.673 1712
2.293 1.650 1.725 4931
2.399 1.726 1.799 1417
2.314 1.665 1.728 4921
2.420 1.741 1.803 1127
2.329 1.676 1.728 5317
2.222 1.599 1.654 1202
2.435 1.752 1.802 1023
2.332 1.678 1.720 7051
2.439 1.755 1.793 1326
2.226 1.602 1.646 1105
2.342 1.685 1.715 8857
2.448 1.762 1.788 1156
2.235 1.608 1.642 1129
2.340 1.684 1.703 7552
2.447 1.761 1.776 1668
2.338 1.682 1.691 6528
2.445 1.759 1.763 2334
2.420 1.742 1.736 5248
2.313 1.665 1.664 2899
2.452 1.765 1.746 7497
2.345 1.688 1.675 1971
2.462 1.772 1.741 9624
2.354 1.694 1.670 754
2.471 1.779 1.736 7495
2.579 1.856 1.807 908
2.521 1.814 1.757 7359
2.413 1.736 1.687 2372
2.524 1.817 1.748 6703
2.416 1.739 1.678 2108
2.500 1.799 1.721 7134
2.608 1.877 1.791 1268
2.498 1.798 1.709 8953
2.606 1.875 1.778 1478
2.496 1.796 1.696 7497
2.604 1.874 1.765 1866
2.499 1.799 1.687 4282
2.608 1.877 1.756 1885
2.589 1.863 1.732 2668
2.480 1.785 1.664 2367
2.621 1.887 1.741 4558
2.507 1.804 1.670 2424
2.625 1.889 1.732 5660
2.516 1.811 1.664 2241
2.734 1.968 1.799 754
2.612 1.880 1.712 9107
2.721 1.958 1.779 1671
2.502 1.801 1.645 1091
2.627 1.891 1.710 11430
2.736 1.969 1.776 2820
2.518 1.812 1.643 1244
2.625 1.889 1.697 11812
2.735 1.968 1.763 4079
2.629 1.892 1.688 12735
2.738 1.971 1.753 3599
2.632 1.894 1.678 13091
2.742 1.973 1.744 4002
2.636 1.897 1.669 11221
2.746 1.976 1.734 5372
2.645 1.904 1.663 9111
2.756 1.983 1.728 5063
2.730 1.965 1.701 7694
2.620 1.885 1.637 3598
2.841 2.044 1.765 2902
2.734 1.967 1.691 9412
2.845 2.047 1.755 4143
2.623 1.888 1.627 1299
2.808 2.020 1.722 9624
2.697 1.941 1.658 4820
2.782 2.002 1.695 11151
2.893 2.082 1.758 2108
2.671 1.922 1.632 1514
2.809 2.022 1.698 11056
2.920 2.101 1.761 2517
2.698 1.942 1.636 2073
2.819 2.028 1.692 10568
2.930 2.108 1.754 2148
2.708 1.948 1.630 1075
2.881 2.073 1.714 8334
2.770 1.993 1.653 1803
2.998 2.158 1.779 1534
2.879 2.072 1.701 8967
2.990 2.152 1.762 2250
2.767 1.992 1.639 1094
2.883 2.074 1.691 7440
2.994 2.155 1.752 3208
2.771 1.994 1.630 938
2.880 2.073 1.677 6802
2.992 2.153 1.738 4126
2.896 2.084 1.673 5324
3.008 2.164 1.734 4072
3.017 2.171 1.726 5054
2.905 2.091 1.666 2409
3.027 2.178 1.719 6824
2.909 2.093 1.656 1427
3.037 2.185 1.711 7210
2.912 2.096 1.646 1558
3.034 2.184 1.697 7343
2.922 2.103 1.639 1347
3.147 2.265 1.756 953
3.026 2.178 1.680 10413
3.139 2.259 1.738 2849
3.030 2.180 1.670 9146
3.143 2.261 1.727 4370
3.117 2.243 1.701 5006
3.004 2.162 1.644 2711
3.120 2.245 1.690 3543
3.007 2.164 1.633 1122
3.124 2.248 1.679 6073
3.237 2.330 1.736 1473
3.011 2.167 1.622 1077
3.134 2.255 1.671 8764
3.247 2.337 1.727 1739
3.020 2.174 1.615 1073
3.149 2.266 1.666 7142
3.262 2.348 1.721 1736
3.147 2.264 1.651 5433
3.260 2.346 1.707 3187
3.234 2.327 1.681 6388
3.120 2.246 1.626 4189
3.238 2.330 1.669 7010
3.124 2.248 1.615 2756
3.363 2.420 1.730 1376
3.229 2.324 1.652 6844
3.385 2.436 1.726 1766
3.115 2.242 1.598 876
3.293 2.370 1.669 7068
3.407 2.452 1.723 2152
3.179 2.288 1.615 1563
3.303 2.377 1.660 5591
3.417 2.459 1.713 2402
3.188 2.294 1.607 1117
3.294 2.371 1.643 4240
3.408 2.453 1.696 3075
3.448 2.481 1.700 4624
3.298 2.373 1.631 3918
3.404 2.449 1.666 6704
3.289 2.367 1.614 1825
3.518 2.532 1.718 1339
3.413 2.456 1.657 10162
3.534 2.543 1.711 2135
3.299 2.374 1.605 843
3.423 2.463 1.647 8439
3.556 2.559 1.707 2275
3.439 2.475 1.640 5511
3.559 2.562 1.694 2481
3.442 2.477 1.628 5060
3.593 2.586 1.695 3859
3.609 2.597 1.687 8084
3.446 2.480 1.616 4587
3.724 2.680 1.737 754
3.601 2.591 1.669 10486
3.479 2.504 1.617 4047
3.716 2.674 1.719 1863
3.598 2.589 1.654 8390
3.483 2.506 1.604 3615
3.714 2.672 1.703 3171
3.699 2.662 1.682 5367
3.584 2.579 1.633 4010
3.468 2.496 1.584 2052
3.691 2.656 1.664 5971
3.575 2.573 1.615 1851
3.806 2.739 1.712 1110
3.688 2.654 1.648 6024
3.804 2.737 1.696 2204
3.572 2.571 1.600 750
3.692 2.657 1.635 5493
3.807 2.740 1.682 2988
3.768 2.712 1.652 5789
3.652 2.628 1.604 2269
3.884 2.795 1.699 1187
3.760 2.706 1.633 4650
3.644 2.622 1.586 1763
3.876 2.789 1.680 1689
3.757 2.704 1.617 4930
3.873 2.787 1.664 1511
3.641 2.620 1.571 821
3.834 2.759 1.633 3813
3.950 2.843 1.679 2392
3.718 2.675 1.587 1876
3.887 2.797 1.638 4488
4.003 2.881 1.684 1439
3.752 2.700 1.586 1413
3.884 2.795 1.622 4561
4.001 2.879 1.667 2609
3.768 2.711 1.577 924
3.967 2.855 1.639 4418
3.851 2.771 1.594 3662
3.965 2.853 1.623 4330
3.848 2.769 1.578 3487
4.011 2.887 1.625 5998
3.864 2.780 1.569 2647
3.984 2.867 1.599 7738
3.867 2.783 1.556 1332
4.101 2.951 1.642 1019
4.031 2.901 1.601 9132
3.914 2.816 1.558 919
4.040 2.907 1.588 12969
4.157 2.992 1.631 780
4.037 2.905 1.572 9763
4.155 2.990 1.614 1031
4.059 2.921 1.564 8576
4.177 3.006 1.606 1043
4.081 2.937 1.556 10414
4.199 3.021 1.597 871
4.085 2.939 1.542 7748
4.344 3.126 1.632 757
4.082 2.937 1.525 10142
4.422 3.182 1.642 1076
4.104 2.953 1.517 12411
4.463 3.212 1.639 1418
4.339 3.122 1.597 1173
4.221 3.038 1.557 849
4.113 2.960 1.504 12375
4.553 3.277 1.652 2446
4.435 3.192 1.612 1138
4.318 3.107 1.573 963
4.122 2.967 1.492 10774
4.501 3.239 1.617 2864
4.619 3.324 1.656 1170
4.126 2.969 1.477 10058
4.517 3.250 1.605 3748
4.635 3.335 1.644 1164
4.123 2.967 1.460 7472
4.558 3.280 1.601 5105
4.694 3.378 1.645 1441
4.812 3.463 1.684 1018
4.567 3.287 1.587 8518
4.126 2.969 1.446 4538
4.791 3.448 1.659 1800
4.449 3.202 1.549 898
4.577 3.294 1.573 8726
4.820 3.468 1.649 2169
4.129 2.971 1.431 1479
4.963 3.571 1.695 1436
4.574 3.292 1.554 8023
4.973 3.578 1.679 2657
4.823 3.471 1.632 2015
4.692 3.377 1.591 1209
4.571 3.290 1.536 8362
4.970 3.577 1.659 3475
4.696 3.379 1.575 1365
4.135 2.976 1.401 1173
4.574 3.292 1.520 5985
4.967 3.575 1.640 5187
4.849 3.489 1.604 1797
4.138 2.978 1.387 1570
4.977 3.582 1.624 5565
4.515 3.249 1.485 4267
4.859 3.496 1.588 2621
4.634 3.335 1.520 1284
4.981 3.584 1.606 5044
4.518 3.252 1.469 3658
5.099 3.670 1.641 1551
4.862 3.499 1.571 1550
4.990 3.591 1.590 4941
5.109 3.677 1.625 2866
4.521 3.254 1.453 2702
5.228 3.762 1.660 1237
4.987 3.589 1.571 5143
5.106 3.675 1.605 3993
5.225 3.760 1.639 2364
4.525 3.256 1.436 1689
4.991 3.592 1.553 4291
5.210 3.749 1.615 4180
4.528 3.258 1.420 769
5.226 3.761 1.600 4716
5.082 3.657 1.560 3011
5.426 3.905 1.657 1372
4.963 3.571 1.526 1054
5.236 3.768 1.583 5636
5.430 3.908 1.637 2443
5.098 3.669 1.545 2078
4.979 3.583 1.512 1126
5.239 3.770 1.565 5630
5.440 3.915 1.620 2972
5.114 3.680 1.530 1580
4.994 3.594 1.498 909
5.437 3.913 1.599 4384
5.255 3.782 1.549 3738
5.023 3.615 1.487 898
5.440 3.915 1.579 5256
5.246 3.775 1.527 2064
5.830 4.195 1.683 996
5.450 3.922 1.562 4135
5.331 3.836 1.530 1413
5.846 4.207 1.666 1377
5.453 3.924 1.542 3272
5.837 4.201 1.642 1890
5.334 3.839 1.511 1071
5.853 4.212 1.624 2928
5.450 3.922 1.521 2403
5.029 3.619 1.413 1112
0.612 0.441 0.284 825
5.863 4.219 1.605 3236
6.014 4.328 1.643 1424
5.447 3.920 1.500 1307
0.619 0.445 0.283 1190
5.860 4.217 1.582 2629
6.043 4.349 1.628 2452
0.619 0.446 0.281 1371
5.041 3.628 1.379 1032
6.046 4.351 1.606 2928
5.863 4.220 1.561 2558
5.403 3.888 1.449 1116
0.613 0.441 0.278 1098
6.050 4.354 1.584 2814
5.873 4.226 1.542 2173
6.233 4.485 1.628 1337
0.613 0.441 0.276 786
6.040 4.347 1.560 2875
6.236 4.488 1.606 1945
5.876 4.229 1.521 1597
6.596 4.747 1.691 1262
6.246 4.495 1.585 2413
6.044 4.349 1.538 2363
6.637 4.776 1.677 1448
6.366 4.581 1.613 1194
6.256 4.502 1.564 2315
6.647 4.784 1.654 2005
6.136 4.415 1.537 1565
6.376 4.588 1.592 1094
6.670 4.800 1.635 2704
6.272 4.513 1.545 1971
6.050 4.354 1.495 1085
6.392 4.600 1.572 779
6.654 4.789 1.607 2262
6.275 4.516 1.523 1957
6.054 4.356 1.473 888
6.651 4.787 1.582 3078
6.278 4.518 1.500 1279
7.082 5.096 1.676 871
6.822 4.910 1.619 753
6.661 4.794 1.559 3921
6.781 4.880 1.585 1399
7.066 5.085 1.646 1146
6.357 4.575 1.494 906
6.664 4.796 1.535 3374
6.785 4.883 1.561 2126
6.367 4.582 1.473 1202
7.215 5.193 1.652 1158
6.668 4.798 1.512 2816
7.225 5.200 1.627 1615
6.788 4.885 1.537 1500
7.073 5.090 1.596 1244
6.671 4.801 1.488 1965
7.223 5.198 1.600 1661
7.051 5.074 1.565 1517
6.791 4.887 1.512 1042
7.270 5.232 1.583 1655
7.042 5.068 1.537 1418
7.423 5.342 1.613 1397
6.788 4.885 1.487 1337
7.762 5.586 1.653 2330
7.274 5.234 1.557 1759
7.426 5.344 1.587 1675
6.785 4.883 1.461 1272
7.772 5.593 1.626 2844
7.436 5.351 1.562 1296
7.264 5.228 1.529 1104
7.556 5.438 1.585 1041
7.782 5.600 1.600 2785
7.661 5.513 1.577 1017
7.382 5.312 1.524 1003
8.081 5.815 1.656 957
7.779 5.598 1.571 2589
7.608 5.475 1.539 991
8.097 5.827 1.630 961
7.398 5.324 1.500 866
7.814 5.624 1.549 1941
8.139 5.857 1.608 994
7.611 5.477 1.512 958
7.818 5.626 1.521 1775
8.562 6.161 1.653 986
8.097 5.827 1.570 965
7.608 5.475 1.483 919
8.565 6.164 1.622 1789
9.043 6.507 1.705 1199
7.808 5.619 1.491 1179
8.101 5.830 1.541 1044
8.575 6.171 1.593 2022
8.874 6.386 1.644 1493
9.040 6.505 1.672 1404
9.167 6.597 1.694 1195
8.878 6.389 1.612 1651
8.579 6.173 1.562 1499
9.833 7.076 1.771 1279
9.126 6.568 1.653 1143
9.837 7.079 1.736 1881
8.977 6.460 1.596 1416
9.117 6.561 1.619 1115
8.582 6.176 1.531 1092
9.834 7.077 1.700 2390
8.974 6.458 1.563 1699
9.108 6.554 1.584 1155
8.592 6.183 1.502 1054
9.838 7.080 1.665 2024
8.977 6.460 1.530 1639
9.111 6.557 1.551 1229
8.595 6.185 1.471 920
9.912 7.133 1.640 1480
8.980 6.463 1.498 1410
9.172 6.600 1.527 1063
9.790 7.046 1.622 932
9.921 7.140 1.605 1305
9.175 6.603 1.495 1303
8.977 6.460 1.465 980
8.856 6.373 1.447 797
9.153 6.587 1.458 1078
9.912 7.133 1.568 1039
10.005 7.200 1.545 892
10.021 7.211 1.511 958
10.155 7.308 1.530 860
9.861 7.097 1.489 849
10.158 7.310 1.493 1007
10.037 7.223 1.477 831
10.219 7.354 1.464 998
10.072 7.248 1.445 952
10.126 7.287 1.416 976
10.248 7.375 1.431 846
10.123 7.285 1.378 1027
10.244 7.372 1.393 794
10.132 7.291 1.343 822
8.452 6.082 -0.404 929
8.457 6.086 -0.434 1259
8.462 6.090 -0.465 1637
8.461 6.089 -0.495 1474
8.459 6.088 -0.526 1312
8.464 6.091 -0.556 900
8.428 6.065 -0.614 956
8.420 6.060 -0.644 1310
8.418 6.058 -0.674 1310
8.423 6.061 -0.705 1598
8.421 6.060 -0.735 1895
8.412 6.054 -0.764 2009
8.404 6.048 -0.794 2177
8.401 6.046 -0.824 1658
8.399 6.044 -0.854 1139
8.397 6.043 -0.884 1139
8.381 6.032 -0.912 1373
8.366 6.021 -0.941 1814
8.364 6.019 -0.970 1699
8.367 6.021 -1.001 1594
8.365 6.019 -1.031 797
1.909 1.365 1.782 4201
1.788 1.279 1.676 952
1.913 1.368 1.775 8403
1.792 1.282 1.669 1905
1.916 1.371 1.768 8403
1.796 1.284 1.663 1905
1.899 1.358 1.744 7664
1.799 1.287 1.657 1442
1.999 1.430 1.830 1397
1.898 1.357 1.732 8088
1.998 1.429 1.819 2159
1.798 1.286 1.646 924
1.912 1.368 1.735 6719
2.013 1.439 1.821 2998
1.990 1.423 1.791 8736
1.889 1.351 1.705 2522
1.994 1.426 1.784 8736
1.893 1.354 1.699 2522
1.993 1.425 1.773 9173
1.892 1.353 1.688 1478
1.996 1.428 1.766 9631
1.895 1.355 1.681 863
2.000 1.431 1.759 8828
1.899 1.358 1.674 900
2.015 1.441 1.760 8210
1.913 1.368 1.677 1186
2.035 1.455 1.766 8500
1.933 1.382 1.683 2113
2.044 1.462 1.764 9607
1.942 1.389 1.681 2464
2.146 1.535 1.847 818
2.048 1.465 1.756 9607
1.946 1.391 1.674 2215
2.150 1.538 1.839 818
2.052 1.467 1.749 8245
1.949 1.394 1.667 1966
2.154 1.541 1.832 1207
2.056 1.470 1.742 6875
1.953 1.397 1.660 2050
2.158 1.543 1.824 1475
2.065 1.477 1.739 6304
1.962 1.403 1.658 1941
2.168 1.550 1.821 1523
2.085 1.491 1.745 6710
1.982 1.417 1.664 1860
2.188 1.565 1.826 811
2.099 1.501 1.746 7009
1.996 1.428 1.665 1930
2.203 1.575 1.827 761
2.114 1.512 1.747 7871
2.011 1.438 1.667 2113
2.218 1.586 1.827 860
2.134 1.526 1.752 7285
2.031 1.452 1.672 2044
2.144 1.533 1.749 7294
2.040 1.459 1.669 2045
1.619 1.158 1.346 750
2.153 1.540 1.745 7189
2.049 1.465 1.666 1805
1.622 1.160 1.341 878
2.162 1.546 1.742 7265
2.058 1.472 1.663 1534
1.630 1.166 1.339 948
2.177 1.557 1.743 8487
2.073 1.482 1.664 2013
1.644 1.176 1.342 1136
2.186 1.564 1.739 10444
2.082 1.489 1.661 1743
1.642 1.174 1.332 935
2.201 1.574 1.740 9144
2.096 1.499 1.662 1998
1.639 1.172 1.322 760
2.210 1.581 1.736 8441
2.106 1.506 1.659 1822
2.315 1.656 1.813 914
2.220 1.587 1.732 6107
2.115 1.512 1.655 1426
2.325 1.663 1.809 1341
2.251 1.610 1.745 5468
2.146 1.535 1.668 1826
2.356 1.685 1.821 898
2.266 1.621 1.745 5524
2.155 1.541 1.664 1345
2.281 1.631 1.745 6213
2.175 1.556 1.669 1057
2.387 1.707 1.821 974
2.290 1.638 1.741 5549
2.396 1.714 1.816 1183
2.185 1.562 1.665 950
2.317 1.657 1.748 6073
2.211 1.581 1.673 2052
2.423 1.732 1.824 789
2.315 1.655 1.736 5853
2.421 1.731 1.811 1205
2.209 1.579 1.662 938
2.319 1.658 1.728 5229
2.425 1.734 1.803 1429
2.334 1.669 1.728 4976
2.440 1.745 1.802 1229
2.227 1.593 1.654 1009
2.337 1.672 1.720 6859
2.444 1.748 1.793 1374
2.231 1.595 1.646 971
2.341 1.674 1.711 8742
2.448 1.751 1.785 1332
2.234 1.598 1.638 933
2.339 1.673 1.699 7692
2.446 1.749 1.772 2021
2.343 1.675 1.691 6836
2.450 1.752 1.763 2421
2.431 1.739 1.740 5841
2.324 1.662 1.668 3757
2.458 1.758 1.746 8062
2.350 1.681 1.675 1977
2.473 1.768 1.745 10369
2.477 1.771 1.736 8240
2.585 1.848 1.807 985
2.526 1.806 1.757 7071
2.418 1.729 1.687 2037
2.535 1.813 1.752 6581
2.427 1.736 1.682 2206
2.528 1.808 1.736 6329
2.419 1.730 1.666 1851
2.503 1.790 1.709 7446
2.612 1.868 1.778 1418
2.507 1.793 1.700 6338
2.616 1.871 1.769 1472
2.556 1.828 1.720 3892
2.665 1.906 1.788 1251
2.447 1.750 1.651 956
2.589 1.851 1.729 2760
2.480 1.773 1.661 2251
2.698 1.929 1.797 770
2.627 1.879 1.741 4055
2.506 1.792 1.666 2311
2.573 1.840 1.696 6052
2.683 1.919 1.764 1586
2.583 1.847 1.691 8875
2.692 1.925 1.758 2299
2.598 1.858 1.689 10189
2.708 1.936 1.755 5203
2.625 1.877 1.693 11225
2.735 1.956 1.760 4866
2.628 1.880 1.684 12702
2.738 1.958 1.750 4541
2.632 1.882 1.675 12606
2.742 1.961 1.740 4933
2.215 1.584 1.427 753
2.642 1.889 1.669 10373
2.752 1.968 1.734 5725
2.645 1.892 1.660 8363
2.756 1.971 1.724 6504
2.866 2.050 1.789 835
2.186 1.563 1.391 813
2.748 1.965 1.708 6973
2.637 1.886 1.643 4821
2.858 2.044 1.772 1888
2.746 1.964 1.695 9010
2.856 2.043 1.758 3267
2.635 1.884 1.631 1539
2.755 1.970 1.688 8958
2.866 2.050 1.752 2754
2.644 1.891 1.625 790
2.788 1.994 1.695 10599
2.899 2.073 1.758 2237
2.677 1.914 1.632 1476
2.809 2.009 1.695 10689
2.921 2.089 1.758 3000
2.698 1.930 1.633 1655
2.825 2.020 1.692 10195
2.936 2.100 1.754 2343
2.713 1.940 1.630 813
2.881 2.061 1.711 9978
2.770 1.981 1.649 1567
3.004 2.149 1.779 1389
2.885 2.063 1.701 11185
2.997 2.143 1.762 1982
2.773 1.983 1.639 1160
2.889 2.066 1.691 8988
3.000 2.146 1.752 2980
2.777 1.986 1.630 939
2.898 2.073 1.684 7346
3.010 2.153 1.744 2733
2.920 2.088 1.683 6420
3.032 2.168 1.743 3325
2.807 2.008 1.623 915
3.024 2.162 1.726 5133
2.911 2.082 1.666 2464
3.033 2.169 1.719 6924
2.921 2.089 1.659 1066
3.043 2.176 1.711 7620
2.930 2.096 1.652 1405
3.041 2.175 1.697 7441
2.928 2.094 1.639 1213
3.153 2.255 1.756 1023
3.039 2.173 1.683 9836
3.151 2.254 1.742 2393
3.036 2.171 1.670 8677
3.149 2.252 1.727 4293
3.123 2.234 1.701 5251
3.010 2.153 1.644 2156
3.127 2.236 1.690 4449
3.014 2.155 1.633 838
3.125 2.235 1.676 6990
3.238 2.316 1.733 1706
3.011 2.154 1.619 793
3.140 2.246 1.671 9575
3.254 2.327 1.727 1588
3.027 2.165 1.615 896
3.156 2.257 1.666 7819
3.269 2.338 1.721 1260
3.153 2.255 1.651 5512
3.285 2.349 1.716 2519
3.277 2.343 1.698 5583
3.151 2.253 1.637 4852
3.263 2.333 1.678 8040
3.149 2.252 1.623 3490
3.377 2.415 1.732 1799
3.230 2.310 1.649 7311
3.386 2.422 1.723 2679
3.306 2.364 1.672 6680
3.192 2.283 1.618 2380
3.420 2.446 1.726 2111
3.310 2.367 1.660 4893
3.424 2.449 1.713 2396
3.195 2.285 1.607 926
3.301 2.361 1.643 3938
3.452 2.469 1.712 3115
3.455 2.471 1.700 4609
3.311 2.368 1.634 3842
3.423 2.448 1.671 5575
3.308 2.366 1.619 2164
3.538 2.530 1.724 1334
3.421 2.446 1.657 8748
3.541 2.533 1.711 2330
3.306 2.364 1.605 896
3.436 2.457 1.650 7370
3.563 2.548 1.707 2480
3.321 2.375 1.599 839
3.452 2.469 1.643 5403
3.567 2.551 1.694 2506
3.449 2.467 1.628 4314
3.613 2.584 1.700 4054
3.617 2.587 1.687 8044
3.501 2.504 1.637 3575
3.608 2.581 1.669 9917
3.493 2.498 1.619 3408
3.724 2.663 1.719 1631
3.606 2.579 1.654 7990
3.490 2.496 1.604 3261
3.722 2.661 1.703 3117
3.707 2.651 1.682 5725
3.591 2.568 1.633 3699
3.475 2.486 1.584 1830
3.705 2.649 1.666 5837
3.589 2.566 1.618 1989
3.820 2.732 1.715 832
3.696 2.643 1.648 6786
3.812 2.726 1.696 2134
3.699 2.646 1.635 6944
3.816 2.729 1.682 2937
3.776 2.701 1.652 6273
3.660 2.618 1.604 2377
3.893 2.784 1.699 1358
3.774 2.699 1.636 4905
3.658 2.616 1.589 1848
3.890 2.782 1.682 1746
3.765 2.693 1.617 4444
3.882 2.776 1.664 2329
3.649 2.609 1.571 779
3.953 2.827 1.676 3309
3.836 2.743 1.631 3175
3.720 2.660 1.585 1534
3.969 2.838 1.667 4855
3.852 2.755 1.622 2268
3.735 2.671 1.576 1026
3.972 2.841 1.653 4477
3.855 2.757 1.608 1995
3.970 2.839 1.637 4696
3.853 2.755 1.592 2135
3.967 2.837 1.620 4922
3.850 2.753 1.576 2157
3.977 2.844 1.608 6505
3.860 2.760 1.565 1796
4.106 2.936 1.657 767
3.992 2.855 1.599 9087
4.110 2.939 1.642 1075
3.875 2.771 1.556 987
4.033 2.884 1.598 8893
3.916 2.800 1.555 888
4.150 2.968 1.641 753
4.049 2.895 1.588 11937
4.166 2.979 1.631 770
4.040 2.889 1.570 9121
4.157 2.973 1.612 964
4.099 2.931 1.575 7820
3.981 2.847 1.533 2371
4.216 3.015 1.617 837
4.096 2.929 1.558 8949
3.978 2.845 1.517 1173
4.214 3.013 1.599 1075
4.093 2.927 1.542 6657
4.422 3.162 1.655 1228
4.211 3.012 1.582 867
4.090 2.925 1.525 7962
4.419 3.160 1.638 1934
4.208 3.010 1.565 828
4.112 2.941 1.517 9530
4.416 3.158 1.620 1790
4.534 3.243 1.660 1417
4.230 3.025 1.557 852
4.122 2.948 1.504 10079
4.550 3.254 1.648 2279
4.432 3.170 1.608 1529
4.240 3.032 1.544 977
4.125 2.950 1.490 9425
4.510 3.226 1.617 3048
4.629 3.310 1.656 1241
4.361 3.119 1.568 776
4.134 2.957 1.477 9460
4.520 3.233 1.603 3387
4.657 3.331 1.648 1854
4.358 3.117 1.550 786
4.131 2.955 1.460 7252
4.573 3.271 1.603 3367
4.710 3.369 1.647 2213
4.829 3.453 1.686 1248
4.583 3.278 1.589 6212
4.134 2.957 1.446 4112
4.795 3.429 1.657 2650
4.465 3.193 1.551 991
4.587 3.280 1.573 6663
4.824 3.450 1.647 3243
4.705 3.365 1.610 1448
4.979 3.561 1.697 1266
4.590 3.283 1.556 6040
4.827 3.452 1.630 2980
4.977 3.559 1.677 2166
4.709 3.367 1.593 1655
4.593 3.285 1.540 5392
4.968 3.553 1.655 3256
4.718 3.374 1.578 2188
4.837 3.459 1.615 1334
4.978 3.560 1.640 4417
4.515 3.229 1.499 4336
4.634 3.314 1.535 2306
4.859 3.475 1.604 1944
4.994 3.571 1.626 5001
4.525 3.236 1.485 4470
4.875 3.486 1.590 2796
4.644 3.321 1.520 1288
4.997 3.574 1.608 4955
4.528 3.238 1.469 3538
5.116 3.659 1.643 1745
4.879 3.489 1.573 1632
4.995 3.572 1.588 4717
5.114 3.657 1.623 3553
4.525 3.236 1.451 2378
5.233 3.742 1.658 999
5.111 3.655 1.603 4956
4.992 3.570 1.569 4418
5.230 3.740 1.638 1501
4.528 3.238 1.435 1278
5.096 3.644 1.580 5167
5.215 3.729 1.614 3031
4.976 3.559 1.546 2477
5.086 3.638 1.558 4587
5.224 3.736 1.597 3077
5.438 3.889 1.657 1190
4.967 3.552 1.524 772
5.234 3.743 1.580 3461
5.096 3.644 1.542 3076
5.354 3.829 1.613 2252
5.473 3.914 1.646 1551
5.282 3.777 1.573 3846
5.451 3.899 1.620 2873
5.112 3.656 1.527 1906
5.449 3.897 1.599 4282
5.285 3.780 1.555 3180
5.121 3.663 1.510 1058
5.452 3.899 1.579 5013
5.295 3.786 1.537 1895
5.836 4.174 1.682 1037
5.462 3.906 1.562 3752
5.336 3.816 1.528 1894
5.852 4.185 1.664 1781
5.046 3.609 1.452 766
5.465 3.908 1.542 2801
5.856 4.188 1.643 2708
5.345 3.823 1.511 1466
5.037 3.602 1.431 1077
5.859 4.190 1.622 3560
5.462 3.906 1.521 1996
5.033 3.600 1.412 999
0.620 0.443 0.286 915
5.875 4.202 1.605 3125
0.620 0.443 0.283 1375
5.459 3.904 1.500 1056
5.995 4.288 1.635 1056
6.062 4.335 1.629 2353
5.879 4.204 1.584 2129
0.620 0.444 0.281 1550
5.052 3.613 1.379 1269
6.065 4.338 1.607 2990
5.870 4.198 1.560 2296
0.614 0.439 0.278 1241
5.055 3.615 1.361 1084
6.069 4.340 1.586 2925
5.886 4.209 1.542 2031
6.252 4.471 1.630 977
0.615 0.440 0.276 944
6.066 4.338 1.563 2643
6.338 4.533 1.627 2079
5.895 4.216 1.522 1946
6.603 4.722 1.690 960
6.341 4.535 1.604 2764
6.057 4.331 1.538 1949
5.898 4.218 1.501 1758
6.651 4.757 1.677 1345
6.668 4.768 1.656 2133
6.357 4.547 1.585 1729
6.155 4.402 1.538 1319
5.883 4.207 1.476 1053
6.684 4.780 1.635 2867
6.285 4.495 1.545 1670
6.405 4.581 1.572 1180
6.165 4.409 1.518 949
6.668 4.769 1.607 1949
6.288 4.497 1.523 1707
6.409 4.583 1.549 881
6.659 4.762 1.580 1953
6.361 4.549 1.515 1469
7.103 5.080 1.677 930
6.830 4.885 1.618 806
6.682 4.778 1.561 2556
6.802 4.865 1.586 1457
7.081 5.064 1.646 1189
6.371 4.556 1.494 961
6.767 4.840 1.554 3236
6.647 4.754 1.529 1938
6.387 4.567 1.474 1314
7.085 5.067 1.621 1181
6.764 4.838 1.529 2734
7.234 5.174 1.626 1630
6.644 4.751 1.504 1397
7.082 5.065 1.594 1350
6.749 4.826 1.501 1962
7.073 5.058 1.566 1574
7.238 5.176 1.600 1571
7.556 5.403 1.665 811
6.765 4.838 1.479 1661
7.286 5.210 1.583 1632
7.063 5.051 1.539 1495
7.438 5.320 1.613 1360
7.779 5.563 1.653 2583
7.289 5.213 1.557 1860
7.442 5.322 1.587 1727
6.780 4.849 1.457 1453
7.770 5.557 1.623 3025
7.452 5.329 1.562 1352
7.286 5.211 1.530 1128
7.572 5.416 1.585 808
7.799 5.577 1.600 2871
7.678 5.491 1.577 1249
7.468 5.341 1.537 910
7.258 5.190 1.498 769
7.802 5.580 1.572 2632
7.643 5.466 1.543 1261
7.825 5.596 1.548 2179
7.633 5.459 1.513 1166
8.169 5.842 1.610 890
8.449 6.042 1.661 813
7.828 5.598 1.520 2049
7.630 5.457 1.485 920
8.459 6.049 1.632 918
8.586 6.141 1.654 889
8.584 6.139 1.622 1538
9.183 6.567 1.726 1444
8.877 6.348 1.673 1415
7.825 5.596 1.491 1343
8.887 6.355 1.643 2400
8.593 6.146 1.593 1849
9.193 6.574 1.695 1612
9.059 6.479 1.672 1234
8.897 6.363 1.612 2377
8.597 6.148 1.562 1550
9.854 7.047 1.771 1351
9.216 6.591 1.665 1348
9.858 7.050 1.736 1881
8.900 6.365 1.580 1699
8.600 6.150 1.531 1130
9.187 6.570 1.627 1102
9.861 7.053 1.701 2355
8.993 6.431 1.563 1612
9.185 6.568 1.593 1233
8.872 6.345 1.543 1157
9.865 7.055 1.666 2179
8.996 6.434 1.530 1588
9.188 6.571 1.560 1169
9.744 6.968 1.647 1109
9.869 7.058 1.630 1659
9.000 6.436 1.498 1394
9.204 6.582 1.529 1276
9.747 6.971 1.612 1132
9.943 7.110 1.605 1298
9.207 6.585 1.497 1218
9.789 7.001 1.583 1091
8.996 6.434 1.465 978
9.933 7.104 1.568 1074
9.217 6.592 1.465 792
9.930 7.102 1.532 996
9.889 7.072 1.490 1081
10.170 7.273 1.529 807
10.103 7.225 1.483 1002
10.225 7.312 1.499 756
10.100 7.223 1.446 1027
10.241 7.324 1.464 790
10.148 7.257 1.416 1015
10.151 7.259 1.379 1051
10.154 7.261 1.343 795
8.469 6.056 -0.434 854
8.474 6.060 -0.465 984
8.472 6.059 -0.495 826
8.434 6.031 -0.613 860
8.438 6.035 -0.644 1174
8.436 6.033 -0.674 1174
8.434 6.032 -0.704 1420
8.432 6.030 -0.734 1666
8.424 6.024 -0.764 1881
8.422 6.023 -0.794 2116
8.413 6.017 -0.823 1655
8.411 6.015 -0.853 1218
8.408 6.013 -0.883 1218
8.374 5.988 -0.909 1588
8.378 5.991 -0.940 2069
8.375 5.989 -0.970 1836
8.366 5.983 -0.999 1614
8.363 5.981 -1.028 807
1.913 1.359 1.782 4658
1.917 1.362 1.775 9316
1.791 1.272 1.665 1147
1.921 1.365 1.768 9316
1.794 1.275 1.659 1147
1.919 1.364 1.757 7889
1.798 1.278 1.652 929
1.907 1.355 1.737 7486
2.008 1.427 1.823 1461
1.922 1.365 1.739 6496
2.022 1.437 1.825 2029
1.989 1.413 1.787 8836
1.888 1.342 1.701 1885
1.993 1.416 1.780 8836
1.892 1.344 1.694 1885
1.992 1.415 1.768 9938
1.890 1.343 1.683 1141
1.979 1.407 1.748 12170
1.989 1.413 1.745 10715
1.998 1.420 1.743 9506
1.896 1.347 1.659 782
2.028 1.441 1.758 8573
1.926 1.369 1.674 1560
2.048 1.456 1.764 9455
1.946 1.383 1.681 2508
2.052 1.458 1.756 9455
1.950 1.385 1.674 1981
2.056 1.461 1.749 8009
1.954 1.388 1.667 1455
2.159 1.534 1.832 1093
2.060 1.464 1.742 6610
1.957 1.391 1.660 1555
2.163 1.537 1.824 1402
2.075 1.474 1.743 6246
1.972 1.401 1.662 2003
2.178 1.547 1.825 1135
2.089 1.485 1.745 6719
1.986 1.411 1.664 2171
2.104 1.495 1.746 6859
2.001 1.422 1.665 2247
1.609 1.143 1.359 790
2.130 1.513 1.755 7393
2.026 1.440 1.675 2225
1.617 1.149 1.358 794
2.139 1.520 1.752 7265
2.035 1.446 1.672 1693
1.625 1.155 1.356 833
2.148 1.526 1.749 7266
2.044 1.453 1.669 1655
1.628 1.157 1.351 794
2.158 1.533 1.745 6956
2.053 1.459 1.666 1680
1.626 1.155 1.341 777
2.161 1.536 1.738 6821
2.057 1.462 1.659 1222
1.639 1.165 1.343 919
2.176 1.546 1.739 7903
2.072 1.472 1.660 1684
1.648 1.171 1.342 1112
2.191 1.557 1.739 9945
2.086 1.482 1.661 1690
1.645 1.169 1.332 1072
2.296 1.631 1.817 914
2.206 1.567 1.740 8958
2.101 1.493 1.662 1843
2.311 1.642 1.817 1192
1.642 1.167 1.322 1040
2.215 1.574 1.736 8565
2.110 1.499 1.659 1739
2.320 1.649 1.813 1381
1.651 1.173 1.320 767
2.225 1.581 1.732 6398
2.330 1.656 1.809 1794
2.119 1.506 1.655 1475
2.251 1.599 1.741 5351
