0.826 0.382 0.573 781
3.046 1.410 1.805 4204
2.905 1.345 1.727 3829
2.783 1.289 1.659 994
0.827 0.383 0.571 768
3.051 1.412 1.796 5837
2.903 1.344 1.714 4507
3.055 1.414 1.786 6458
2.907 1.346 1.705 4859
3.085 1.428 1.790 6793
2.898 1.342 1.689 4026
3.109 1.439 1.791 8365
2.986 1.382 1.725 3476
2.864 1.326 1.658 1076
3.107 1.438 1.778 10279
2.984 1.381 1.712 4480
3.111 1.440 1.768 19996
2.988 1.383 1.702 4192
3.116 1.442 1.758 35647
2.992 1.385 1.693 2785
3.265 1.511 1.837 1036
3.120 1.444 1.748 43509
2.997 1.387 1.683 1802
3.263 1.510 1.823 1481
3.131 1.449 1.742 40791
3.007 1.392 1.677 2265
3.273 1.515 1.816 1911
3.135 1.451 1.732 39246
3.011 1.394 1.668 2697
3.278 1.517 1.806 2060
3.132 1.450 1.718 40122
3.009 1.393 1.655 3566
3.256 1.507 1.782 2447
3.137 1.452 1.708 42106
3.013 1.395 1.645 4254
3.261 1.509 1.771 2243
3.141 1.454 1.698 41355
3.017 1.396 1.636 4107
3.265 1.511 1.761 2023
3.145 1.456 1.689 37218
3.021 1.398 1.626 3385
3.315 1.535 1.774 2772
3.149 1.458 1.679 29115
3.319 1.537 1.763 3919
3.025 1.400 1.617 1949
3.153 1.460 1.669 22356
3.324 1.539 1.753 4205
3.028 1.402 1.607 1088
3.157 1.461 1.659 19701
3.328 1.541 1.742 4117
3.032 1.404 1.598 1036
3.161 1.463 1.649 13221
3.286 1.521 1.709 3644
3.411 1.579 1.770 2587
3.036 1.406 1.588 852
3.165 1.465 1.639 7775
3.290 1.523 1.699 3854
3.415 1.581 1.759 2058
3.255 1.507 1.669 8429
3.380 1.565 1.729 2175
3.130 1.449 1.610 1807
3.505 1.623 1.789 1364
3.259 1.509 1.659 8364
3.384 1.567 1.719 4202
3.536 1.637 1.791 1629
3.133 1.451 1.600 1008
3.263 1.510 1.649 7650
3.388 1.569 1.708 7143
3.547 1.642 1.782 2558
3.137 1.452 1.590 916
3.386 1.567 1.694 7288
3.260 1.509 1.635 5449
3.551 1.644 1.771 2685
3.383 1.566 1.680 6036
3.509 1.625 1.738 4011
3.258 1.508 1.622 2586
3.635 1.683 1.797 855
3.586 1.660 1.761 5125
3.381 1.565 1.666 4272
3.255 1.507 1.609 1198
3.597 1.665 1.752 6467
3.391 1.570 1.659 2774
3.192 1.478 1.568 884
3.602 1.667 1.741 6074
3.415 1.581 1.657 2185
3.593 1.663 1.724 5106
3.466 1.605 1.667 1601
3.719 1.722 1.780 995
3.590 1.662 1.709 5486
3.717 1.721 1.765 2085
3.463 1.603 1.653 864
3.681 1.704 1.736 7419
3.554 1.645 1.680 3003
3.678 1.703 1.721 9083
3.552 1.644 1.666 1965
3.805 1.762 1.777 872
3.689 1.708 1.713 6920
3.562 1.649 1.658 1360
3.816 1.767 1.768 1068
3.720 1.722 1.712 5592
3.593 1.663 1.658 1829
3.718 1.721 1.698 5003
3.590 1.662 1.644 1055
3.899 1.805 1.775 890
3.722 1.723 1.686 4676
3.910 1.810 1.765 1658
3.780 1.750 1.697 4711
3.914 1.812 1.753 1891
3.784 1.752 1.685 4821
3.912 1.811 1.737 2041
3.922 1.816 1.728 3672
3.774 1.747 1.667 3658
3.913 1.812 1.710 6243
3.785 1.752 1.658 2712
4.048 1.874 1.765 877
3.917 1.813 1.697 6985
3.789 1.754 1.646 3177
4.046 1.873 1.749 1953
3.935 1.822 1.690 5773
3.807 1.762 1.639 2915
4.063 1.881 1.742 2516
4.007 1.855 1.705 7781
3.797 1.758 1.622 2012
3.991 1.847 1.684 10405
4.221 1.954 1.774 1592
3.862 1.788 1.633 1433
3.733 1.728 1.583 824
3.995 1.849 1.671 9536
4.218 1.953 1.758 2938
3.866 1.790 1.621 1044
3.737 1.730 1.571 763
4.005 1.854 1.661 5302
4.222 1.955 1.745 4337
3.768 1.744 1.570 1073
4.233 1.960 1.734 4413
4.037 1.869 1.659 3917
3.779 1.749 1.560 854
4.258 1.971 1.728 4059
4.129 1.911 1.679 2996
4.000 1.852 1.631 1218
4.269 1.976 1.717 4385
4.140 1.916 1.669 3592
4.260 1.972 1.698 4264
4.130 1.912 1.651 2626
4.332 2.005 1.710 4565
4.175 1.933 1.652 2886
4.046 1.873 1.605 889
4.336 2.007 1.696 5945
4.193 1.941 1.644 2143
4.333 2.006 1.680 9321
4.197 1.943 1.631 1858
4.463 2.066 1.727 913
4.337 2.008 1.666 12556
4.207 1.948 1.620 1832
4.467 2.068 1.712 1296
4.348 2.013 1.655 15206
4.478 2.073 1.701 2134
4.218 1.953 1.609 1059
4.352 2.015 1.641 15862
4.482 2.075 1.686 3402
4.349 2.013 1.625 10945
4.480 2.074 1.670 4842
4.658 2.156 1.731 1147
4.470 2.069 1.651 6959
4.340 2.009 1.606 5968
4.662 2.158 1.716 1844
4.488 2.077 1.641 7970
4.357 2.017 1.597 4310
4.687 2.170 1.709 2942
4.498 2.082 1.629 8728
4.705 2.178 1.698 3789
4.368 2.022 1.585 2436
4.496 2.081 1.613 7421
4.716 2.183 1.686 3501
4.365 2.021 1.569 1301
4.499 2.083 1.598 5906
4.672 2.163 1.655 3150
4.802 2.223 1.698 982
4.503 2.085 1.584 4813
4.758 2.203 1.667 3092
4.804 2.224 1.665 3327
4.507 2.086 1.570 2561
4.673 2.163 1.623 1722
4.983 2.307 1.722 949
4.863 2.251 1.667 3501
4.994 2.312 1.709 1873
4.704 2.178 1.617 1642
4.504 2.085 1.553 1139
4.888 2.263 1.658 3951
5.019 2.323 1.699 1815
4.749 2.199 1.615 1557
4.899 2.268 1.645 3694
5.030 2.328 1.685 2077
4.753 2.200 1.600 1447
4.896 2.266 1.627 4356
5.027 2.327 1.667 1877
4.764 2.205 1.587 974
5.193 2.404 1.718 969
4.906 2.271 1.613 4387
5.204 2.409 1.704 1955
5.038 2.332 1.653 1612
4.775 2.210 1.573 751
5.000 2.315 1.625 4526
5.215 2.414 1.689 3186
4.869 2.254 1.585 1511
5.011 2.320 1.611 4512
5.219 2.416 1.673 4181
4.880 2.259 1.572 1144
5.351 2.477 1.712 814
5.223 2.418 1.656 4505
5.022 2.325 1.597 3430
5.355 2.479 1.695 877
5.116 2.368 1.607 4335
5.248 2.430 1.645 4183
5.380 2.491 1.684 1596
4.984 2.307 1.569 1117
5.259 2.435 1.631 4302
5.113 2.367 1.589 3621
5.391 2.496 1.669 3492
4.981 2.306 1.551 1024
5.368 2.485 1.643 6525
5.235 2.424 1.606 2814
5.103 2.362 1.569 1490
4.971 2.301 1.531 805
5.378 2.490 1.628 6450
5.246 2.429 1.591 1738
5.009 2.319 1.525 1236
5.424 2.511 1.623 9398
5.285 2.446 1.584 1964
5.013 2.321 1.509 1228
5.557 2.572 1.659 795
5.428 2.513 1.605 10960
5.289 2.448 1.567 1256
5.561 2.574 1.642 862
5.017 2.322 1.493 821
5.432 2.515 1.588 5743
5.816 2.692 1.691 1827
5.948 2.754 1.727 1105
5.264 2.437 1.543 1005
5.820 2.694 1.673 3633
5.408 2.503 1.563 2542
5.953 2.756 1.708 1795
5.261 2.436 1.524 932
5.810 2.690 1.651 2782
5.447 2.521 1.555 2563
5.943 2.751 1.686 2017
5.258 2.434 1.506 907
5.919 2.740 1.659 3159
5.464 2.530 1.542 2187
5.786 2.678 1.625 1274
6.164 2.853 1.723 1010
5.867 2.716 1.626 2993
6.000 2.777 1.660 1789
5.461 2.528 1.522 1674
6.154 2.849 1.699 1244
5.864 2.714 1.606 3305
6.039 2.796 1.650 2465
6.333 2.932 1.724 2392
5.465 2.530 1.505 1740
6.337 2.934 1.704 3567
5.875 2.720 1.589 2146
6.043 2.797 1.631 1827
6.183 2.862 1.665 1749
6.320 2.926 1.678 2339
6.187 2.864 1.646 2048
5.998 2.776 1.599 2033
5.864 2.715 1.566 1080
6.409 2.967 1.679 3557
6.205 2.872 1.629 2309
6.009 2.781 1.582 1541
6.391 2.959 1.653 5203
6.209 2.874 1.609 2204
6.686 3.095 1.723 1267
6.525 3.021 1.685 1147
6.395 2.961 1.633 3922
6.262 2.899 1.601 1739
6.529 3.022 1.664 1149
6.691 3.097 1.702 1095
6.385 2.956 1.609 1819
6.723 3.112 1.687 1146
6.252 2.894 1.578 1138
6.519 3.018 1.640 1121
6.417 2.971 1.595 2841
6.551 3.033 1.626 1772
6.720 3.111 1.664 1750
7.043 3.261 1.738 1550
6.421 2.973 1.575 4055
7.041 3.259 1.714 2277
6.555 3.034 1.605 2240
6.724 3.113 1.643 2112
7.045 3.261 1.692 2942
6.425 2.974 1.554 2772
6.890 3.189 1.657 2410
6.721 3.111 1.620 2387
7.056 3.266 1.671 2296
6.725 3.113 1.598 2251
6.908 3.198 1.638 2243
6.577 3.044 1.566 1412
7.596 3.516 1.763 2313
6.926 3.206 1.619 2119
6.736 3.118 1.578 1744
7.384 3.418 1.718 1394
7.593 3.515 1.738 4363
7.078 3.277 1.629 2328
7.381 3.417 1.693 2015
6.937 3.211 1.599 1595
7.604 3.520 1.715 4928
7.082 3.278 1.606 3977
7.378 3.416 1.668 2044
6.948 3.216 1.578 1339
7.623 3.529 1.693 6501
7.086 3.280 1.583 3615
7.368 3.411 1.641 2049
6.952 3.218 1.556 1211
7.620 3.527 1.668 8397
7.090 3.282 1.561 2934
7.372 3.413 1.618 2334
7.980 3.694 1.740 1474
7.616 3.526 1.642 11613
7.369 3.411 1.593 2084
8.055 3.729 1.729 1857
7.100 3.287 1.539 1730
7.620 3.528 1.618 12104
8.087 3.744 1.709 2598
7.953 3.682 1.682 1832
7.818 3.619 1.656 1726
7.631 3.533 1.595 9096
8.106 3.752 1.686 3407
7.971 3.690 1.660 1400
7.830 3.624 1.633 1200
7.642 3.538 1.571 7956
8.088 3.744 1.656 3723
7.904 3.659 1.621 1003
8.874 4.108 1.804 970
7.632 3.533 1.544 6582
8.085 3.743 1.628 3495
8.220 3.805 1.653 1372
8.886 4.113 1.777 1338
7.643 3.538 1.521 4338
8.167 3.781 1.617 3340
8.033 3.718 1.592 2283
8.904 4.122 1.751 1694
8.129 3.763 1.583 3802
7.646 3.540 1.497 2518
8.916 4.127 1.724 2320
9.050 4.190 1.748 1532
8.125 3.761 1.556 3252
8.913 4.126 1.694 2568
9.487 4.392 1.795 1398
7.650 3.541 1.472 1343
8.172 3.783 1.537 2729
8.917 4.128 1.665 1805
9.598 4.443 1.783 1213
8.037 3.720 1.514 871
8.175 3.784 1.511 3243
9.624 4.455 1.756 1462
8.963 4.149 1.644 1394
9.120 4.222 1.671 1294
8.179 3.786 1.485 3673
9.657 4.470 1.730 1824
9.905 4.585 1.771 1369
9.131 4.227 1.642 1222
8.182 3.788 1.459 2049
9.668 4.475 1.700 1712
9.917 4.591 1.740 1211
9.163 4.242 1.618 1095
10.127 4.688 1.741 1675
9.665 4.474 1.668 1245
9.935 4.599 1.711 881
10.138 4.693 1.710 2226
9.676 4.479 1.638 911
9.882 4.575 1.670 839
10.150 4.698 1.678 1976
10.285 4.761 1.699 829
11.132 5.153 1.828 803
9.893 4.580 1.639 786
10.146 4.697 1.645 1672
10.837 5.017 1.748 1248
11.136 5.155 1.793 834
10.303 4.770 1.668 758
10.841 5.019 1.713 1769
11.098 5.137 1.751 1353
10.136 4.692 1.610 1280
11.311 5.236 1.782 972
10.860 5.027 1.680 1677
11.095 5.136 1.714 1648
10.126 4.687 1.576 1229
11.330 5.245 1.748 1205
11.099 5.138 1.678 1393
10.130 4.689 1.543 1388
10.878 5.036 1.648 1293
11.341 5.250 1.712 1150
11.103 5.140 1.643 1256
10.140 4.694 1.512 1171
11.324 5.242 1.673 1135
10.903 5.047 1.616 1040
11.100 5.138 1.606 1439
11.321 5.241 1.636 923
10.914 5.052 1.582 880
11.492 5.320 1.658 786
11.089 5.133 1.569 1196
11.496 5.322 1.622 1146
11.225 5.196 1.587 1125
12.088 5.596 1.698 953
11.478 5.314 1.582 1229
11.971 5.542 1.644 1211
12.107 5.604 1.661 809
11.207 5.188 1.548 806
12.082 5.593 1.619 977
11.468 5.309 1.544 937
12.332 5.709 1.650 929
11.946 5.530 1.602 885
12.322 5.704 1.609 1063
12.086 5.595 1.580 848
11.900 5.509 1.558 819
12.325 5.706 1.569 868
12.351 5.717 1.532 805
2.094 0.954 1.750 5266
2.099 0.956 1.743 10533
2.103 0.958 1.736 10533
2.215 1.009 1.823 958
2.113 0.963 1.734 10572
2.225 1.014 1.821 1515
2.117 0.965 1.728 10904
2.230 1.016 1.814 2086
2.116 0.964 1.717 9073
2.234 1.018 1.807 5457
2.232 1.017 1.796 8884
2.114 0.963 1.705 7923
2.237 1.019 1.789 8884
2.118 0.965 1.699 7923
2.241 1.021 1.781 12527
2.122 0.967 1.692 6829
2.246 1.023 1.774 16170
2.132 0.971 1.690 5958
2.256 1.028 1.772 15412
2.142 0.976 1.688 5447
2.369 1.079 1.856 862
2.266 1.032 1.769 14869
2.152 0.981 1.685 5521
2.380 1.084 1.853 1013
2.271 1.034 1.762 12223
2.157 0.982 1.679 5044
2.384 1.086 1.845 1351
2.281 1.039 1.759 9671
2.167 0.987 1.676 5210
2.395 1.091 1.842 1635
2.285 1.041 1.752 9626
2.171 0.989 1.670 3781
2.400 1.093 1.835 1635
2.289 1.043 1.745 8453
2.410 1.098 1.832 2587
2.175 0.991 1.663 2352
2.288 1.042 1.733 7359
2.415 1.100 1.824 3572
2.173 0.990 1.652 2207
2.292 1.044 1.726 6819
2.407 1.096 1.808 5288
2.177 0.992 1.645 1884
2.393 1.090 1.787 8149
2.278 1.038 1.706 4295
2.163 0.985 1.625 1473
2.397 1.092 1.780 8059
2.282 1.040 1.699 3024
2.167 0.987 1.618 1125
2.513 1.145 1.861 903
2.408 1.097 1.777 8076
2.292 1.044 1.696 1828
2.524 1.150 1.857 1106
2.177 0.992 1.616 805
2.443 1.113 1.790 6219
2.327 1.060 1.710 3647
2.459 1.120 1.791 6311
2.343 1.067 1.711 4363
2.476 1.128 1.791 7750
2.347 1.069 1.704 3775
2.487 1.133 1.788 9376
2.352 1.071 1.696 3187
2.491 1.135 1.780 12733
2.356 1.073 1.689 2270
2.608 1.188 1.858 840
2.501 1.140 1.776 16321
2.384 1.086 1.698 1550
2.618 1.193 1.854 1157
2.506 1.142 1.768 13478
2.623 1.195 1.846 1437
2.389 1.088 1.691 1290
2.516 1.146 1.764 10680
2.634 1.200 1.842 1335
2.399 1.093 1.687 1305
2.533 1.154 1.765 8950
2.415 1.100 1.688 1385
2.650 1.207 1.842 909
2.556 1.164 1.769 8830
2.438 1.111 1.692 1297
2.314 1.054 1.611 881
2.560 1.166 1.761 7942
2.442 1.113 1.685 958
2.678 1.220 1.837 830
2.324 1.059 1.608 780
2.564 1.168 1.753 7054
2.683 1.222 1.829 1009
2.556 1.165 1.737 5258
2.675 1.218 1.812 1931
2.548 1.161 1.721 4354
2.667 1.215 1.796 2733
2.552 1.163 1.713 3373
2.671 1.217 1.787 2867
2.790 1.271 1.862 785
2.650 1.207 1.763 3698
2.769 1.262 1.838 1991
2.531 1.153 1.689 1734
2.623 1.195 1.736 4867
2.742 1.249 1.810 2404
2.659 1.211 1.747 5323
2.778 1.266 1.820 2163
2.540 1.157 1.673 911
2.663 1.213 1.738 6907
2.820 1.285 1.835 2742
2.667 1.215 1.730 5748
2.787 1.270 1.803 2776
2.665 1.214 1.718 4750
2.785 1.269 1.790 3587
2.752 1.254 1.759 4556
2.872 1.308 1.831 2167
2.632 1.199 1.687 1781
2.769 1.261 1.757 7114
2.889 1.316 1.829 1616
2.648 1.206 1.686 1161
2.779 1.266 1.753 9211
2.900 1.321 1.824 1787
2.790 1.271 1.747 7879
2.917 1.329 1.822 2015
2.669 1.216 1.677 869
2.801 1.276 1.742 6893
2.928 1.334 1.817 2131
2.680 1.221 1.672 1233
2.869 1.307 1.770 7304
2.747 1.252 1.700 1699
2.990 1.362 1.841 863
2.873 1.309 1.761 9423
2.994 1.364 1.831 1326
2.700 1.230 1.662 1077
2.871 1.308 1.749 9231
2.992 1.363 1.818 2367
2.685 1.223 1.643 905
2.875 1.310 1.740 6836
2.997 1.365 1.809 2251
2.943 1.341 1.767 5342
2.822 1.285 1.698 1974
3.084 1.405 1.846 1436
2.909 1.325 1.736 5107
3.031 1.381 1.804 2130
2.787 1.270 1.668 932
0.828 0.377 0.573 799
2.913 1.327 1.727 5082
3.048 1.389 1.802 4236
0.830 0.378 0.571 799
2.791 1.272 1.659 762
3.059 1.394 1.796 5644
2.924 1.332 1.721 5582
3.064 1.396 1.786 5959
2.915 1.328 1.705 5232
3.094 1.409 1.790 5831
2.913 1.327 1.692 3906
3.111 1.417 1.787 7567
2.988 1.361 1.721 3212
2.865 1.305 1.655 1080
3.116 1.419 1.778 9381
2.992 1.363 1.712 2442
2.869 1.307 1.646 931
3.120 1.421 1.768 17230
2.977 1.356 1.692 1864
3.124 1.423 1.758 30160
3.001 1.367 1.693 1325
3.274 1.491 1.837 896
3.122 1.422 1.745 37086
3.278 1.493 1.826 1184
2.998 1.366 1.680 1147
3.133 1.427 1.738 33209
3.283 1.495 1.816 1464
3.009 1.371 1.674 1352
3.137 1.429 1.728 30737
3.013 1.373 1.664 1709
3.287 1.497 1.806 1650
3.135 1.428 1.715 32477
3.011 1.371 1.652 2512
3.285 1.496 1.792 1879
3.145 1.433 1.708 35599
3.021 1.376 1.645 3443
3.296 1.501 1.785 1692
3.150 1.435 1.698 35627
3.025 1.378 1.636 3310
3.274 1.492 1.761 1608
3.154 1.437 1.689 31747
3.331 1.517 1.777 2419
3.029 1.380 1.626 2298
3.164 1.442 1.682 24463
3.335 1.519 1.766 3438
3.040 1.385 1.620 1197
3.168 1.443 1.672 17809
3.333 1.518 1.753 3422
3.173 1.445 1.662 15047
3.396 1.547 1.771 3115
3.047 1.388 1.601 793
3.170 1.444 1.649 9405
3.295 1.501 1.709 4233
3.420 1.558 1.770 2509
3.273 1.491 1.686 5790
3.148 1.434 1.626 4047
3.398 1.548 1.746 2390
3.264 1.487 1.669 6111
3.389 1.544 1.729 2549
3.138 1.430 1.610 1397
3.548 1.616 1.805 992
3.268 1.489 1.659 6577
3.394 1.546 1.719 4329
3.552 1.618 1.794 1639
3.391 1.545 1.705 8348
3.265 1.488 1.646 6548
3.557 1.620 1.782 2820
3.395 1.547 1.694 10461
3.269 1.489 1.635 5350
3.555 1.619 1.768 3560
3.399 1.549 1.683 8411
3.566 1.624 1.760 4005
3.273 1.491 1.625 2818
3.590 1.635 1.758 5245
3.404 1.551 1.673 5237
3.271 1.490 1.612 1395
3.601 1.640 1.749 6415
3.414 1.555 1.665 3795
3.274 1.492 1.601 759
3.612 1.645 1.741 5794
3.438 1.566 1.663 3301
3.609 1.644 1.727 5082
3.482 1.586 1.670 2469
3.736 1.702 1.783 834
3.607 1.643 1.712 4970
3.734 1.701 1.768 2370
3.480 1.585 1.656 1213
3.698 1.685 1.739 6456
3.571 1.627 1.683 1871
3.689 1.680 1.721 7465
3.561 1.622 1.666 1491
3.720 1.695 1.721 6675
3.592 1.637 1.666 1596
3.744 1.706 1.718 7907
3.617 1.648 1.664 2260
3.878 1.767 1.776 835
3.735 1.701 1.701 7461
3.607 1.643 1.646 1004
3.896 1.775 1.769 998
3.739 1.703 1.689 6765
3.921 1.786 1.765 1636
3.757 1.711 1.683 5043
3.925 1.788 1.753 2202
3.808 1.735 1.690 4097
3.936 1.793 1.743 2491
3.680 1.676 1.637 1109
3.933 1.792 1.728 3945
3.805 1.733 1.675 3540
3.931 1.791 1.713 5838
3.802 1.732 1.661 3074
4.059 1.849 1.765 1473
3.935 1.793 1.700 6312
3.807 1.734 1.648 3457
4.070 1.854 1.755 2833
3.946 1.798 1.690 5590
3.804 1.733 1.634 3472
4.075 1.856 1.742 3177
4.004 1.824 1.699 7154
3.794 1.728 1.616 2976
4.133 1.883 1.750 1044
4.002 1.823 1.684 11478
4.226 1.925 1.772 1891
3.784 1.724 1.599 1773
4.006 1.825 1.671 11450
4.230 1.927 1.758 3425
3.788 1.726 1.587 1159
4.010 1.827 1.659 6542
4.234 1.929 1.745 4707
3.779 1.721 1.570 1077
4.130 1.881 1.690 5086
4.259 1.940 1.739 4100
4.000 1.822 1.641 2278
3.782 1.723 1.558 864
4.147 1.889 1.682 5509
4.277 1.948 1.731 3592
4.018 1.830 1.633 1559
4.165 1.897 1.674 5954
4.295 1.956 1.722 3778
4.035 1.838 1.625 763
4.176 1.902 1.663 5712
4.306 1.961 1.711 3895
4.262 1.942 1.680 6532
4.132 1.882 1.632 2252
4.392 2.001 1.727 1466
4.341 1.978 1.694 5306
4.184 1.906 1.637 3910
4.345 1.980 1.680 8090
4.188 1.908 1.623 4716
4.476 2.039 1.727 1106
4.350 1.981 1.666 9498
4.199 1.913 1.613 3727
4.480 2.041 1.712 1120
4.360 1.986 1.655 10078
4.491 2.046 1.701 1952
4.230 1.927 1.609 1946
4.371 1.991 1.643 10034
4.502 2.051 1.689 2737
4.241 1.932 1.598 951
4.375 1.993 1.629 6472
4.506 2.053 1.674 2644
4.678 2.131 1.734 1253
4.469 2.036 1.646 2986
4.661 2.124 1.712 2270
4.338 1.976 1.601 2052
4.500 2.050 1.641 4124
4.700 2.141 1.709 2369
4.369 1.990 1.597 1645
4.511 2.055 1.629 6178
4.718 2.149 1.698 3564
4.380 1.995 1.585 1322
4.508 2.054 1.613 6004
4.729 2.154 1.686 4052
4.512 2.055 1.598 5306
4.747 2.162 1.675 3312
4.516 2.057 1.584 4618
4.785 2.180 1.671 2294
4.654 2.120 1.629 1785
4.958 2.259 1.727 759
4.513 2.056 1.567 2563
4.838 2.204 1.671 2558
4.693 2.138 1.625 1347
4.969 2.264 1.714 979
4.883 2.225 1.669 2715
4.752 2.165 1.628 1805
5.015 2.285 1.711 1407
4.517 2.058 1.553 1149
4.901 2.233 1.658 3678
4.770 2.173 1.617 2292
5.033 2.293 1.699 1689
4.995 2.276 1.670 3995
4.808 2.190 1.612 1886
5.127 2.336 1.711 865
4.965 2.262 1.644 3480
4.812 2.192 1.597 1908
5.097 2.322 1.684 1107
4.927 2.245 1.616 3338
5.101 2.324 1.668 2081
5.233 2.384 1.708 1004
4.795 2.184 1.576 995
5.008 2.281 1.623 3949
5.140 2.341 1.662 2468
5.272 2.402 1.702 1352
4.875 2.221 1.583 801
5.130 2.337 1.642 3824
4.998 2.277 1.603 3019
5.262 2.397 1.681 2134
5.141 2.342 1.628 4785
5.008 2.282 1.589 2037
5.273 2.402 1.666 2031
5.440 2.478 1.715 757
5.138 2.340 1.609 5580
5.270 2.401 1.647 3891
5.402 2.461 1.686 1251
5.005 2.280 1.571 1171
5.267 2.399 1.629 4590
5.135 2.339 1.591 4223
5.399 2.460 1.667 3265
5.002 2.279 1.553 1125
5.376 2.449 1.642 6455
5.243 2.389 1.604 2121
5.110 2.328 1.567 1486
5.380 2.451 1.624 6592
5.016 2.285 1.523 1171
5.247 2.390 1.587 943
5.439 2.478 1.623 7107
5.307 2.417 1.586 2264
5.027 2.290 1.509 1106
5.803 2.644 1.723 921
5.443 2.480 1.605 10812
5.310 2.419 1.569 1692
5.814 2.649 1.706 1089
5.590 2.547 1.645 875
5.447 2.482 1.588 6819
5.832 2.657 1.691 2422
5.965 2.717 1.727 939
5.829 2.656 1.671 4788
5.500 2.506 1.584 2143
5.969 2.719 1.708 1430
5.367 2.445 1.549 1204
5.826 2.654 1.651 4335
5.497 2.504 1.564 1992
5.973 2.721 1.689 1853
5.364 2.443 1.530 1043
5.823 2.653 1.630 2841
5.956 2.714 1.665 1929
5.494 2.503 1.545 1483
6.188 2.819 1.725 1094
5.855 2.667 1.619 3654
6.045 2.754 1.667 1691
6.185 2.818 1.703 1203
5.490 2.501 1.526 1059
5.873 2.676 1.604 4055
6.351 2.893 1.724 2406
6.049 2.756 1.648 2324
6.182 2.816 1.682 1565
6.348 2.892 1.702 3823
5.870 2.674 1.583 2719
6.193 2.821 1.664 1896
6.060 2.761 1.631 1663
6.338 2.887 1.678 3130
6.204 2.826 1.646 2060
6.014 2.740 1.599 1832
5.874 2.676 1.565 1417
6.426 2.928 1.679 3854
6.229 2.838 1.631 2497
6.025 2.745 1.582 1546
6.416 2.923 1.655 6096
6.226 2.836 1.609 1927
6.550 2.984 1.687 1137
6.413 2.922 1.633 5766
6.237 2.841 1.591 1215
6.547 2.983 1.664 1091
6.878 3.134 1.742 781
6.410 2.920 1.611 3780
7.059 3.216 1.761 1144
6.883 3.135 1.720 944
6.276 2.859 1.580 825
6.435 2.932 1.595 4073
7.063 3.218 1.738 1725
6.569 2.993 1.626 1425
6.739 3.070 1.664 1246
6.446 2.937 1.576 5186
7.060 3.216 1.714 2558
6.905 3.146 1.679 2148
6.580 2.998 1.606 2002
6.450 2.938 1.556 3763
7.064 3.218 1.692 3280
6.909 3.147 1.657 2947
6.591 3.003 1.587 1775
7.069 3.220 1.669 2899
6.927 3.156 1.638 2293
6.454 2.940 1.535 1932
6.595 3.004 1.566 1334
6.952 3.167 1.621 2320
7.087 3.228 1.650 2139
7.539 3.435 1.747 2115
6.464 2.945 1.516 1455
7.621 3.472 1.739 3338
7.098 3.233 1.629 3170
7.430 3.385 1.699 2035
6.963 3.172 1.600 1929
7.102 3.235 1.606 4303
7.633 3.477 1.716 4213
7.441 3.390 1.677 1955
6.967 3.174 1.578 1399
7.637 3.479 1.692 5954
7.106 3.237 1.583 3535
7.502 3.418 1.664 1514
6.971 3.176 1.556 1168
7.641 3.481 1.668 8015
7.109 3.239 1.561 2811
7.506 3.420 1.641 1727
8.109 3.694 1.762 1180
7.638 3.479 1.642 10405
8.127 3.702 1.739 2450
7.113 3.240 1.538 1913
7.985 3.638 1.711 1771
7.649 3.485 1.619 10490
8.124 3.701 1.711 4018
7.968 3.630 1.681 2042
7.514 3.423 1.593 1278
7.653 3.486 1.595 8381
8.135 3.706 1.687 5311
8.001 3.645 1.661 1370
7.518 3.425 1.569 1073
7.664 3.491 1.571 7240
8.125 3.702 1.658 5553
7.990 3.640 1.633 1108
7.529 3.430 1.546 1045
7.660 3.490 1.546 5720
8.122 3.700 1.631 4890
7.987 3.639 1.606 1319
8.257 3.762 1.656 1019
8.147 3.712 1.609 4338
7.664 3.491 1.521 3757
8.936 4.071 1.752 1082
8.012 3.650 1.585 1059
8.158 3.717 1.584 4970
7.668 3.493 1.497 2230
8.941 4.073 1.724 1475
9.076 4.135 1.748 1261
8.198 3.735 1.565 3843
8.938 4.072 1.694 1742
9.265 4.221 1.751 1202
7.671 3.495 1.472 1159
8.209 3.740 1.540 3420
9.625 4.385 1.783 1573
8.942 4.074 1.665 1298
9.276 4.226 1.723 1137
8.198 3.735 1.511 3455
9.637 4.390 1.753 1706
9.174 4.179 1.675 1001
9.907 4.513 1.799 998
8.202 3.736 1.485 3502
9.691 4.415 1.731 1665
9.933 4.525 1.771 1485
9.292 4.233 1.665 992
8.205 3.738 1.459 2176
9.695 4.417 1.700 1571
9.930 4.524 1.738 1375
10.065 4.585 1.760 1023
10.162 4.630 1.742 1572
9.913 4.516 1.703 1323
9.685 4.412 1.667 1142
8.209 3.740 1.433 844
10.174 4.635 1.711 2128
9.910 4.515 1.670 1313
9.682 4.411 1.635 772
10.185 4.640 1.680 2121
9.914 4.516 1.638 1183
10.196 4.645 1.648 1906
9.918 4.518 1.607 1208
10.867 4.951 1.748 984
11.167 5.087 1.793 813
10.172 4.634 1.611 1424
11.129 5.070 1.751 1397
10.872 4.953 1.713 1364
9.922 4.520 1.575 1237
11.126 5.068 1.714 1827
10.154 4.626 1.576 1470
9.925 4.522 1.543 1288
10.890 4.961 1.680 1281
11.130 5.070 1.678 1595
10.158 4.628 1.543 1567
9.929 4.523 1.512 1218
11.366 5.178 1.711 1183
11.134 5.072 1.643 1381
11.363 5.176 1.674 1221
10.169 4.632 1.512 1185
11.899 5.421 1.747 922
11.131 5.071 1.606 1541
11.367 5.178 1.638 1024
11.624 5.296 1.672 1024
11.127 5.069 1.570 1262
11.628 5.297 1.635 1164
12.122 5.522 1.698 928
11.986 5.460 1.681 806
12.119 5.521 1.659 1154
11.983 5.459 1.642 1023
11.518 5.247 1.583 978
11.217 5.110 1.545 774
12.116 5.519 1.619 1229
11.980 5.457 1.602 843
12.366 5.634 1.650 816
11.500 5.239 1.544 753
12.134 5.528 1.582 1045
12.356 5.629 1.609 985
12.360 5.631 1.569 842
2.099 0.944 1.750 7674
2.103 0.946 1.743 15348
2.107 0.948 1.736 15348
2.219 0.999 1.823 1194
2.112 0.950 1.730 15000
2.230 1.003 1.821 2071
2.122 0.955 1.728 14857
2.234 1.005 1.814 2978
2.009 0.904 1.642 807
2.126 0.957 1.721 11922
2.239 1.007 1.807 6005
2.124 0.956 1.710 9045
2.243 1.009 1.800 9032
2.128 0.958 1.703 9045
2.247 1.011 1.793 9032
2.252 1.013 1.786 12802
2.139 0.962 1.701 7847
2.256 1.015 1.779 16572
2.143 0.964 1.694 6706
2.370 1.066 1.863 775
2.261 1.017 1.772 15686
2.147 0.966 1.688 5463
2.374 1.068 1.856 887
2.271 1.022 1.769 15002
2.157 0.971 1.685 4887
2.385 1.073 1.853 783
2.275 1.024 1.762 12487
2.161 0.972 1.679 4125
2.389 1.075 1.845 1110
2.286 1.028 1.759 10156
2.171 0.977 1.676 3896
2.400 1.080 1.842 1382
2.290 1.030 1.752 10121
2.175 0.979 1.670 3135
2.405 1.082 1.835 1382
2.294 1.032 1.745 9106
2.415 1.087 1.832 2726
2.179 0.981 1.663 2373
2.292 1.032 1.733 8140
2.414 1.086 1.820 4077
2.177 0.980 1.652 2280
2.303 1.036 1.731 7756
2.418 1.088 1.812 5654
2.181 0.982 1.645 1827
2.066 0.930 1.563 800
2.404 1.082 1.792 8599
2.289 1.030 1.711 5121
2.173 0.978 1.629 1446
2.409 1.084 1.784 8505
2.293 1.032 1.703 3356
2.177 0.980 1.623 1204
2.413 1.086 1.777 8410
2.297 1.034 1.696 1591
2.529 1.138 1.857 1026
2.181 0.981 1.616 962
2.430 1.093 1.777 6328
2.313 1.041 1.697 2709
2.185 0.983 1.609 756
2.465 1.109 1.791 6217
2.348 1.057 1.711 4445
2.475 1.114 1.787 7470
2.358 1.061 1.708 3439
2.486 1.118 1.784 9115
2.357 1.060 1.696 2352
2.496 1.123 1.780 12915
2.379 1.071 1.701 1725
2.507 1.128 1.776 17080
2.389 1.075 1.698 1386
2.624 1.181 1.854 890
2.511 1.130 1.768 14759
2.628 1.183 1.846 1335
2.394 1.077 1.691 1050
2.515 1.132 1.760 12438
2.633 1.185 1.838 1779
2.526 1.137 1.757 9502
2.644 1.190 1.834 1586
2.567 1.155 1.773 8262
2.449 1.102 1.696 1122
2.572 1.157 1.765 7144
2.454 1.104 1.689 870
2.576 1.159 1.757 6025
2.701 1.215 1.837 799
2.574 1.158 1.745 4025
2.705 1.217 1.828 1608
2.541 1.143 1.713 3301
2.710 1.219 1.820 2416
2.545 1.145 1.705 2742
2.720 1.224 1.815 2694
2.643 1.189 1.756 3856
2.763 1.243 1.830 2430
2.524 1.136 1.681 1240
2.641 1.189 1.743 5125
2.761 1.242 1.817 2532
2.652 1.193 1.739 5229
2.772 1.247 1.813 2852
2.669 1.201 1.738 5876
2.789 1.255 1.812 3201
2.717 1.223 1.757 4962
2.837 1.277 1.830 3096
2.591 1.166 1.680 1008
2.791 1.256 1.790 5089
2.665 1.199 1.714 2936
2.795 1.258 1.781 4766
2.675 1.204 1.709 2066
2.916 1.312 1.853 753
2.774 1.248 1.757 4450
2.895 1.303 1.829 1726
2.772 1.248 1.745 4865
2.893 1.302 1.816 1862
2.783 1.252 1.740 3584
2.904 1.307 1.811 2304
2.662 1.198 1.669 811
2.851 1.283 1.768 3951
2.730 1.228 1.698 1819
2.972 1.337 1.839 1069
2.881 1.296 1.774 6759
2.708 1.219 1.675 1596
2.879 1.295 1.761 10099
3.000 1.350 1.831 1290
2.706 1.218 1.662 1200
2.883 1.297 1.752 10290
3.005 1.352 1.822 1679
2.697 1.214 1.647 953
2.887 1.299 1.743 7764
3.009 1.354 1.812 1793
2.956 1.330 1.770 5685
2.834 1.275 1.702 1674
3.097 1.394 1.850 1369
2.909 1.309 1.732 5975
3.031 1.364 1.800 2577
0.830 0.374 0.573 754
2.990 1.346 1.766 6032
2.868 1.291 1.698 2094
3.113 1.401 1.834 1066
0.831 0.374 0.571 753
2.937 1.321 1.725 6115
3.066 1.380 1.796 4397
3.005 1.352 1.751 6285
2.883 1.297 1.684 2073
3.128 1.408 1.818 910
3.010 1.354 1.741 6513
3.133 1.410 1.808 2736
2.887 1.299 1.675 2028
3.118 1.403 1.787 6229
2.995 1.347 1.721 3895
2.871 1.292 1.655 1038
3.122 1.405 1.778 8046
2.999 1.349 1.712 2148
2.875 1.294 1.646 823
3.126 1.407 1.768 12682
3.003 1.351 1.702 2136
3.124 1.406 1.754 20620
3.001 1.350 1.689 1871
3.129 1.408 1.745 25983
3.005 1.352 1.680 1441
3.133 1.410 1.735 22096
3.009 1.354 1.671 1228
3.283 1.477 1.813 933
3.137 1.412 1.725 19642
3.281 1.476 1.799 1153
2.980 1.341 1.644 1028
3.141 1.413 1.715 21207
3.285 1.478 1.788 1352
3.017 1.358 1.652 1196
3.152 1.418 1.708 24319
3.027 1.362 1.645 1622
3.290 1.480 1.778 1302
3.156 1.420 1.698 24684
3.031 1.364 1.636 1590
3.281 1.476 1.761 1514
3.167 1.425 1.692 21554
3.344 1.505 1.780 2111
3.042 1.369 1.630 1260
3.184 1.433 1.688 17024
3.355 1.510 1.773 2805
3.059 1.377 1.626 1010
3.195 1.438 1.682 12961
3.360 1.512 1.762 2490
3.070 1.381 1.620 974
3.212 1.445 1.678 10156
3.404 1.532 1.771 2574
3.080 1.386 1.614 900
3.249 1.462 1.684 7311
3.408 1.533 1.760 2615
3.124 1.406 1.623 1266
3.273 1.473 1.683 5880
3.399 1.529 1.743 2567
3.148 1.416 1.623 1960
3.271 1.472 1.669 4424
3.397 1.528 1.729 2621
3.562 1.603 1.808 978
3.145 1.415 1.610 864
3.268 1.471 1.656 5148
3.401 1.530 1.719 3608
3.567 1.605 1.797 1443
3.392 1.526 1.702 7960
3.266 1.469 1.643 5605
3.558 1.601 1.779 2744
3.396 1.528 1.691 12288
3.270 1.471 1.632 5052
3.562 1.603 1.768 4273
3.407 1.533 1.683 9983
3.573 1.608 1.760 4605
3.273 1.473 1.622 2869
3.424 1.541 1.679 5947
3.597 1.619 1.758 5263
3.277 1.475 1.612 1423
3.602 1.621 1.746 6289
3.435 1.546 1.671 4204
3.281 1.477 1.601 820
3.532 1.589 1.702 5719
3.659 1.647 1.759 3197
3.405 1.532 1.645 2436
3.530 1.588 1.688 5063
3.657 1.646 1.744 3921
3.403 1.531 1.631 1258
3.621 1.629 1.715 4180
3.748 1.687 1.771 2919
3.494 1.572 1.659 1604
3.712 1.670 1.742 5431
3.585 1.613 1.686 1575
3.717 1.672 1.730 5448
3.589 1.615 1.675 1566
3.734 1.680 1.724 6244
3.607 1.623 1.669 2110
3.752 1.688 1.718 9147
3.624 1.631 1.664 2110
3.880 1.746 1.773 930
3.743 1.684 1.701 10798
3.898 1.754 1.766 942
3.747 1.686 1.689 11013
3.936 1.771 1.768 1312
3.758 1.691 1.680 7968
3.940 1.773 1.755 1932
3.755 1.690 1.665 4608
3.944 1.775 1.743 2079
3.813 1.716 1.675 3527
3.948 1.777 1.731 3019
3.939 1.773 1.713 4429
3.797 1.709 1.655 3776
4.068 1.830 1.765 2018
3.943 1.774 1.700 5195
4.072 1.832 1.752 4228
3.808 1.713 1.646 3491
3.961 1.782 1.693 4830
3.798 1.709 1.628 4592
4.090 1.840 1.744 3779
3.999 1.800 1.694 6066
3.795 1.708 1.614 4945
4.128 1.858 1.745 1364
4.010 1.804 1.684 9782
3.806 1.713 1.604 2996
4.235 1.905 1.772 1609
4.014 1.806 1.671 10830
4.232 1.904 1.755 3288
3.824 1.720 1.598 2161
4.025 1.811 1.661 7116
4.236 1.906 1.742 4797
3.896 1.753 1.612 1620
4.145 1.865 1.692 7503
4.275 1.924 1.742 3142
4.015 1.807 1.643 2804
3.797 1.709 1.560 888
4.156 1.870 1.682 8000
4.286 1.928 1.731 2670
4.026 1.812 1.633 1522
4.174 1.878 1.674 8632
4.304 1.937 1.722 2646
4.037 1.817 1.623 795
4.178 1.880 1.661 8150
4.308 1.938 1.709 3930
4.278 1.925 1.682 6981
4.148 1.866 1.635 4392
4.408 1.983 1.730 1222
4.186 1.884 1.634 6333
4.316 1.942 1.681 5700
4.446 2.001 1.728 1391
4.197 1.888 1.623 7706
4.355 1.959 1.680 7111
4.485 2.018 1.727 1071
4.352 1.958 1.664 6932
4.208 1.893 1.613 5535
4.482 2.017 1.710 1305
4.363 1.963 1.652 5722
4.232 1.904 1.606 2446
4.493 2.022 1.698 1955
4.374 1.968 1.641 4979
4.504 2.027 1.686 2464
4.243 1.909 1.595 1315
4.642 2.089 1.734 888
4.384 1.973 1.629 3966
4.515 2.032 1.674 2183
4.646 2.091 1.719 1961
4.240 1.908 1.580 987
4.657 2.096 1.707 2989
4.395 1.978 1.618 2414
4.526 2.037 1.662 1695
4.788 2.155 1.752 818
4.661 2.098 1.692 2490
4.434 1.995 1.616 2316
4.793 2.157 1.736 1111
4.514 2.031 1.627 2985
4.742 2.134 1.703 2423
4.753 2.139 1.690 3621
4.518 2.033 1.613 3405
4.791 2.156 1.686 3507
4.515 2.031 1.596 3316
4.660 2.097 1.643 2366
4.809 2.164 1.676 4692
4.678 2.105 1.633 3250
4.518 2.033 1.582 3039
4.948 2.226 1.720 972
4.813 2.166 1.660 4453
4.522 2.035 1.567 1808
4.682 2.107 1.618 1739
4.945 2.225 1.702 1727
4.797 2.158 1.639 4633
4.949 2.227 1.687 3137
4.807 2.163 1.626 4805
4.974 2.238 1.678 4099
5.106 2.298 1.719 1087
4.811 2.165 1.610 4275
4.999 2.249 1.668 3974
5.131 2.309 1.709 1337
4.822 2.170 1.597 4471
4.975 2.239 1.644 2801
5.114 2.301 1.686 1791
4.979 2.241 1.628 3086
4.826 2.172 1.582 2925
5.111 2.300 1.668 2848
5.123 2.305 1.654 4558
4.990 2.245 1.614 2781
5.255 2.365 1.693 1695
4.837 2.176 1.569 855
5.140 2.313 1.642 4585
5.273 2.373 1.681 2299
5.008 2.253 1.603 1866
5.144 2.315 1.626 4907
5.277 2.375 1.664 2488
5.012 2.255 1.587 1006
5.410 2.434 1.703 792
5.148 2.317 1.609 5572
5.281 2.376 1.647 4223
5.414 2.436 1.686 1017
5.016 2.257 1.571 752
5.271 2.372 1.627 4802
5.138 2.312 1.589 3837
5.404 2.432 1.665 2146
5.387 2.424 1.642 6437
5.254 2.364 1.604 2173
5.121 2.304 1.567 1615
5.384 2.423 1.622 8131
5.251 2.363 1.585 1090
5.041 2.268 1.527 984
5.517 2.482 1.659 791
5.367 2.415 1.600 7074
5.500 2.475 1.636 1551
5.815 2.617 1.723 1455
5.455 2.455 1.605 8094
5.322 2.395 1.569 2410
5.819 2.618 1.704 1706
5.452 2.453 1.586 6217
5.837 2.627 1.690 2424
5.318 2.393 1.551 847
5.841 2.629 1.671 4404
5.491 2.471 1.578 2479
6.003 2.701 1.714 923
5.357 2.411 1.543 907
5.838 2.627 1.651 4394
5.494 2.472 1.561 2065
5.993 2.697 1.691 1823
5.361 2.412 1.526 1002
5.828 2.623 1.629 3057
5.990 2.695 1.670 2141
5.407 2.433 1.520 1646
6.124 2.755 1.705 1291
5.860 2.637 1.617 3267
6.029 2.713 1.660 2360
6.198 2.789 1.703 1315
5.431 2.444 1.508 1090
5.878 2.645 1.602 3981
6.047 2.721 1.644 2931
6.188 2.785 1.680 2025
6.364 2.864 1.724 1770
6.361 2.862 1.702 3049
5.875 2.644 1.582 3023
6.199 2.790 1.662 2398
6.044 2.720 1.624 1854
6.358 2.861 1.680 2840
6.224 2.801 1.647 2577
6.041 2.718 1.603 1529
5.879 2.645 1.563 1426
6.433 2.895 1.677 3059
6.257 2.815 1.634 2602
6.038 2.717 1.582 1360
6.430 2.893 1.655 5739
6.239 2.808 1.609 1500
6.564 2.954 1.687 807
6.427 2.892 1.633 6608
6.568 2.955 1.666 1068
6.893 3.102 1.742 972
6.243 2.809 1.590 966
6.431 2.894 1.612 5491
6.897 3.104 1.720 1103
6.600 2.970 1.651 1068
7.074 3.183 1.761 899
6.442 2.899 1.593 4559
7.078 3.185 1.738 1489
6.901 3.105 1.698 1332
6.760 3.042 1.666 1086
6.460 2.907 1.576 4743
6.919 3.114 1.679 2589
7.075 3.184 1.714 2327
6.764 3.044 1.644 1369
6.464 2.908 1.556 3523
6.924 3.115 1.657 3156
7.079 3.186 1.692 3130
6.768 3.045 1.623 1437
7.083 3.187 1.669 3086
6.942 3.124 1.638 2137
6.467 2.910 1.535 2096
6.772 3.047 1.601 1310
7.102 3.196 1.650 2800
7.541 3.393 1.744 2376
6.967 3.135 1.621 2110
6.478 2.915 1.516 1396
7.106 3.197 1.627 3192
7.559 3.402 1.723 2736
7.425 3.341 1.694 1837
6.971 3.137 1.599 1609
7.117 3.202 1.606 3845
7.649 3.442 1.716 2641
7.457 3.356 1.677 1876
6.982 3.142 1.578 1154
7.653 3.444 1.692 3839
7.120 3.204 1.583 3266
7.518 3.383 1.664 1738
8.135 3.661 1.791 1171
7.657 3.445 1.668 5445
7.124 3.206 1.561 2605
7.522 3.385 1.641 2076
8.133 3.660 1.763 1989
7.654 3.444 1.642 6922
8.137 3.661 1.737 3746
7.974 3.588 1.705 1999
7.128 3.207 1.538 1924
7.665 3.449 1.619 6821
8.148 3.667 1.713 5866
7.978 3.590 1.680 1950
7.530 3.388 1.593 1299
8.152 3.668 1.687 7364
7.676 3.454 1.596 5667
7.541 3.393 1.570 1533
7.975 3.588 1.653 1207
8.149 3.667 1.660 7746
7.673 3.453 1.570 4838
8.014 3.606 1.634 1342
8.285 3.728 1.685 799
8.153 3.669 1.634 7133
7.676 3.454 1.546 3688
8.018 3.608 1.609 1534
8.289 3.730 1.659 1036
8.164 3.674 1.609 5791
7.680 3.456 1.521 2347
8.015 3.607 1.582 1013
9.162 4.123 1.790 922
8.183 3.682 1.586 5374
9.166 4.125 1.761 1427
7.684 3.458 1.497 1361
9.024 4.060 1.735 1172
8.215 3.697 1.565 4722
9.292 4.181 1.753 1315
9.156 4.120 1.729 1192
9.648 4.341 1.815 1113
8.226 3.701 1.540 4158
9.652 4.343 1.784 1492
9.303 4.186 1.724 1304
9.082 4.087 1.686 1179
8.215 3.697 1.511 3885
9.650 4.342 1.752 1534
9.314 4.191 1.696 1171
9.978 4.490 1.807 1128
8.219 3.698 1.485 3558
9.947 4.476 1.770 1713
9.711 4.370 1.731 1247
9.318 4.193 1.666 1109
8.222 3.700 1.459 2297
9.822 4.420 1.717 1361
10.037 4.516 1.752 1293
9.515 4.282 1.667 778
10.191 4.586 1.743 1243
10.005 4.502 1.714 1119
9.827 4.422 1.686 1108
8.219 3.698 1.431 1019
10.202 4.591 1.712 1935
9.988 4.494 1.679 1157
9.852 4.433 1.658 912
10.206 4.593 1.680 2100
9.942 4.474 1.639 1162
11.079 4.985 1.812 773
10.218 4.598 1.648 1794
9.946 4.475 1.608 1057
11.090 4.990 1.778 824
10.082 4.537 1.628 752
10.172 4.577 1.608 1427
11.145 5.015 1.750 1230
11.560 5.202 1.810 996
10.894 4.902 1.713 788
11.156 5.020 1.715 1722
10.168 4.575 1.575 1449
11.564 5.204 1.773 961
11.844 5.329 1.813 815
11.160 5.022 1.679 1634
10.179 4.580 1.543 1374
11.862 5.338 1.777 984
11.647 5.241 1.747 941
11.164 5.024 1.644 1399
11.645 5.240 1.709 1181
11.917 5.362 1.746 1157
11.394 5.127 1.675 917
11.154 5.019 1.606 1508
11.649 5.242 1.672 1356
11.914 5.361 1.707 933
11.391 5.126 1.638 771
11.653 5.243 1.635 1456
11.158 5.021 1.571 1234
12.033 5.414 1.684 978
12.169 5.476 1.701 802
12.137 5.461 1.658 1123
11.642 5.239 1.596 1014
11.836 5.326 1.620 904
12.001 5.400 1.641 895
12.141 5.463 1.619 1448
12.399 5.579 1.651 820
12.005 5.402 1.602 806
12.159 5.471 1.582 1301
12.382 5.572 1.609 967
13.207 5.943 1.707 870
12.023 5.410 1.566 761
12.178 5.480 1.545 916
12.386 5.573 1.569 850
12.738 5.732 1.610 806
2.103 0.935 1.750 8706
2.108 0.937 1.743 17413
1.996 0.887 1.656 756
2.112 0.939 1.736 17413
2.230 0.991 1.828 1487
2.000 0.889 1.649 756
2.116 0.940 1.730 17141
2.234 0.993 1.821 2370
2.120 0.942 1.723 16869
2.239 0.995 1.814 3254
2.130 0.947 1.721 13428
2.243 0.997 1.807 5610
2.141 0.951 1.719 10090
2.254 1.002 1.805 8011
2.145 0.953 1.712 10090
2.258 1.004 1.797 8011
2.257 1.003 1.786 11537
2.143 0.952 1.701 8913
2.370 1.053 1.871 892
2.261 1.005 1.779 15108
2.147 0.954 1.694 7770
2.375 1.055 1.863 971
2.271 1.009 1.776 14548
2.157 0.959 1.692 6137
2.276 1.011 1.769 14267
2.161 0.961 1.685 4541
2.390 1.062 1.853 819
2.280 1.013 1.762 12245
2.166 0.962 1.679 3705
2.394 1.064 1.845 1063
2.290 1.018 1.759 10535
2.176 0.967 1.676 3262
2.405 1.069 1.842 1244
2.295 1.020 1.752 10472
2.180 0.969 1.670 2943
2.410 1.071 1.835 1244
2.299 1.022 1.745 9167
2.414 1.073 1.827 2760
2.184 0.971 1.663 2623
2.297 1.021 1.733 7921
2.419 1.075 1.820 4267
2.182 0.970 1.652 2563
2.314 1.028 1.735 8241
2.429 1.080 1.816 5320
2.180 0.969 1.640 1895
2.330 1.035 1.736 9250
2.446 1.087 1.817 4770
2.166 0.962 1.621 1558
2.414 1.073 1.784 8646
2.298 1.021 1.703 3337
2.169 0.964 1.614 1287
2.418 1.075 1.777 8569
2.302 1.023 1.696 1804
2.180 0.969 1.612 1054
2.534 1.126 1.857 824
2.428 1.079 1.773 6137
2.312 1.028 1.693 2096
2.190 0.973 1.609 927
2.545 1.131 1.853 750
2.378 1.057 1.728 5906
2.494 1.108 1.808 3520
2.193 0.975 1.602 809
2.480 1.102 1.787 6615
2.363 1.050 1.708 3810
2.491 1.107 1.784 8128
2.368 1.052 1.701 2175
2.501 1.112 1.780 12160
2.384 1.060 1.701 1720
2.506 1.114 1.772 16480
2.388 1.061 1.694 1154
2.623 1.166 1.850 804
2.510 1.115 1.764 14823
2.628 1.168 1.842 1423
2.392 1.063 1.686 760
2.514 1.117 1.756 13166
2.632 1.170 1.834 2043
2.519 1.119 1.748 10011
2.637 1.172 1.825 2233
2.573 1.143 1.773 8065
2.349 1.044 1.628 916
2.583 1.148 1.769 6977
2.359 1.048 1.624 894
2.588 1.150 1.761 5890
2.706 1.203 1.837 999
2.369 1.053 1.621 907
2.592 1.152 1.753 4067
2.711 1.205 1.828 1858
2.385 1.060 1.621 775
2.722 1.210 1.824 2732
2.596 1.154 1.744 2243
2.726 1.212 1.815 3240
2.588 1.150 1.728 2222
2.661 1.183 1.763 4179
2.781 1.236 1.838 2111
2.542 1.130 1.689 1347
2.653 1.179 1.747 5408
2.773 1.232 1.821 2526
2.739 1.217 1.789 5698
2.620 1.164 1.716 2697
2.859 1.271 1.863 1234
2.744 1.219 1.781 6501
2.624 1.166 1.707 1829
2.864 1.273 1.854 1814
2.792 1.241 1.799 5442
2.672 1.188 1.726 3643
2.797 1.243 1.790 6701
2.676 1.189 1.718 1884
2.808 1.248 1.785 6380
2.687 1.194 1.713 1706
2.812 1.250 1.776 4628
2.691 1.196 1.705 1241
2.933 1.303 1.848 883
2.791 1.240 1.753 3496
2.912 1.294 1.824 2112
2.670 1.187 1.681 796
2.821 1.254 1.759 3255
2.942 1.307 1.830 2278
2.699 1.200 1.688 1514
2.908 1.292 1.798 3769
2.716 1.207 1.687 1845
2.900 1.289 1.782 6759
2.714 1.206 1.675 1711
2.885 1.282 1.761 10104
3.007 1.336 1.831 1290
2.712 1.205 1.662 1248
2.889 1.284 1.752 10104
3.011 1.338 1.822 1470
2.703 1.201 1.647 925
2.887 1.283 1.740 7733
3.009 1.337 1.809 2435
2.969 1.319 1.774 5908
2.846 1.265 1.705 2657
3.104 1.379 1.850 1227
2.979 1.324 1.768 6580
2.857 1.270 1.700 2690
3.102 1.379 1.836 1464
2.990 1.329 1.762 6614
2.867 1.274 1.695 2148
3.113 1.383 1.830 1410
2.480 1.102 1.481 768
2.949 1.311 1.728 6607
3.072 1.365 1.796 3104
3.005 1.336 1.747 6907
2.882 1.281 1.680 1273
3.128 1.390 1.814 1177
3.010 1.337 1.738 7274
3.133 1.392 1.804 2617
2.886 1.283 1.671 1072
3.027 1.345 1.735 5759
3.150 1.400 1.801 2581
2.903 1.290 1.669 856
3.122 1.388 1.774 6436
2.998 1.333 1.708 2554
3.126 1.389 1.764 7984
3.003 1.334 1.699 2927
3.124 1.388 1.751 11643
3.000 1.333 1.686 2386
3.129 1.390 1.741 15053
3.004 1.335 1.677 1708
3.133 1.392 1.731 13101
3.008 1.337 1.667 1174
3.257 1.447 1.796 819
3.130 1.391 1.718 11054
3.255 1.447 1.782 1539
2.980 1.324 1.641 780
3.141 1.396 1.712 11067
3.266 1.451 1.775 1361
2.984 1.326 1.632 898
3.159 1.404 1.708 13630
3.283 1.459 1.771 1320
2.994 1.331 1.625 814
3.163 1.406 1.698 13732
3.288 1.461 1.761 1936
3.180 1.413 1.695 11958
3.351 1.489 1.780 2027
3.015 1.340 1.613 793
3.204 1.424 1.695 12083
3.362 1.494 1.773 2370
3.059 1.359 1.623 991
3.215 1.429 1.688 11163
3.373 1.499 1.766 1849
3.069 1.364 1.617 957
3.225 1.433 1.681 8730
3.411 1.516 1.771 1788
3.080 1.369 1.610 776
3.256 1.447 1.684 7242
3.415 1.518 1.760 1987
3.273 1.455 1.680 6238
3.413 1.517 1.746 2186
3.539 1.573 1.807 862
3.277 1.457 1.669 4034
3.410 1.516 1.732 2392
3.556 1.580 1.802 1014
3.275 1.455 1.656 3891
3.401 1.512 1.715 2697
3.567 1.585 1.794 1152
3.379 1.502 1.692 7553
3.252 1.445 1.633 3726
3.505 1.558 1.751 2622
3.403 1.512 1.691 11897
3.569 1.586 1.768 4504
3.276 1.456 1.632 4392
3.420 1.520 1.686 9934
3.580 1.591 1.760 4582
3.287 1.461 1.625 2652
3.445 1.531 1.685 6123
3.605 1.602 1.758 4698
3.284 1.460 1.612 1151
3.529 1.568 1.710 6747
3.656 1.625 1.768 2366
3.402 1.512 1.653 2000
3.540 1.573 1.702 6947
3.667 1.630 1.759 2458
3.413 1.517 1.645 1930
3.537 1.572 1.688 5734
3.665 1.629 1.744 3012
3.410 1.515 1.631 1074
3.629 1.613 1.715 3466
3.756 1.669 1.771 2972
3.501 1.556 1.659 1568
3.734 1.659 1.748 4167
3.606 1.603 1.692 2162
3.731 1.658 1.733 3450
3.603 1.601 1.678 2043
3.742 1.663 1.724 4079
3.614 1.606 1.669 2340
3.753 1.668 1.715 7927
3.625 1.611 1.661 2006
3.881 1.725 1.770 831
3.750 1.667 1.701 13084
3.622 1.610 1.646 862
3.899 1.733 1.763 799
3.755 1.669 1.689 15591
3.951 1.756 1.771 870
3.765 1.673 1.680 11362
3.955 1.758 1.758 1176
3.770 1.675 1.668 5319
3.973 1.766 1.751 1227
3.794 1.686 1.664 3325
3.963 1.761 1.733 1568
3.812 1.694 1.658 3980
4.042 1.796 1.751 3079
4.060 1.804 1.744 5878
3.768 1.675 1.627 4743
3.931 1.747 1.692 3055
3.786 1.682 1.620 8350
4.064 1.806 1.731 5130
3.935 1.749 1.680 3026
3.790 1.684 1.608 8826
4.014 1.784 1.697 4863
4.144 1.841 1.747 879
4.018 1.786 1.684 6616
3.807 1.692 1.602 5094
4.236 1.883 1.769 967
4.022 1.788 1.671 8143
3.893 1.730 1.621 4386
4.234 1.882 1.753 2309
3.924 1.744 1.619 6541
4.156 1.847 1.708 5674
3.794 1.686 1.570 1921
4.286 1.905 1.758 1713
4.161 1.849 1.695 8290
3.935 1.749 1.610 4357
4.290 1.907 1.744 2473
3.805 1.691 1.560 1196
4.165 1.851 1.682 9344
4.295 1.909 1.731 2723
3.939 1.750 1.597 2096
4.182 1.859 1.674 10021
4.313 1.917 1.722 2069
4.052 1.801 1.625 906
4.187 1.861 1.661 8481
4.317 1.918 1.709 3479
4.307 1.914 1.690 6772
4.177 1.856 1.642 6101
4.438 1.972 1.737 864
4.195 1.864 1.634 7145
4.325 1.922 1.681 6664
4.456 1.980 1.728 1281
4.205 1.869 1.623 8623
4.357 1.936 1.677 7248
4.487 1.994 1.724 1231
4.354 1.935 1.661 6294
4.209 1.871 1.610 6243
4.485 1.993 1.707 1736
4.365 1.940 1.650 4754
4.234 1.882 1.604 2420
4.496 1.998 1.696 1687
4.369 1.942 1.636 3489
4.500 2.000 1.682 1796
4.238 1.883 1.591 1288
4.645 2.064 1.732 997
4.373 1.943 1.622 2939
4.642 2.063 1.715 2057
4.511 2.005 1.670 1795
4.242 1.885 1.577 1135
4.404 1.957 1.618 2865
4.653 2.068 1.702 2818
4.784 2.126 1.747 1291
4.450 1.978 1.618 3117
4.657 2.070 1.688 2248
4.789 2.128 1.732 1576
4.758 2.115 1.705 2413
4.447 1.976 1.602 2180
4.627 2.056 1.661 1523
4.769 2.120 1.692 4193
4.506 2.003 1.606 1611
4.638 2.061 1.649 1510
4.901 2.178 1.736 784
4.801 2.134 1.686 5381
4.670 2.075 1.643 3083
4.503 2.001 1.589 1632
4.819 2.142 1.676 6848
4.687 2.083 1.633 4011
4.507 2.003 1.575 1319
4.951 2.200 1.718 1021
4.816 2.140 1.658 6885
4.684 2.082 1.616 1738
4.969 2.208 1.707 1707
4.525 2.011 1.565 822
4.813 2.139 1.641 6360
4.973 2.210 1.691 3961
4.984 2.215 1.678 6158
4.817 2.141 1.626 6156
5.117 2.274 1.719 868
4.814 2.140 1.608 7077
5.002 2.223 1.666 4774
5.135 2.282 1.707 1297
4.825 2.144 1.595 7592
5.034 2.237 1.659 3553
5.167 2.296 1.699 1202
4.829 2.146 1.580 4638
4.997 2.221 1.630 3856
5.129 2.279 1.670 2475
5.262 2.338 1.710 834
5.133 2.281 1.654 4349
5.001 2.222 1.614 3779
5.266 2.340 1.693 1767
4.798 2.132 1.554 1499
5.158 2.292 1.644 4462
5.025 2.233 1.605 2717
5.291 2.351 1.683 1291
4.858 2.159 1.555 939
5.155 2.291 1.626 3769
5.288 2.350 1.664 1928
5.022 2.232 1.587 1654
5.421 2.409 1.703 881
5.159 2.293 1.609 4570
5.292 2.352 1.647 3952
5.425 2.411 1.686 1172
5.026 2.234 1.571 1111
5.324 2.366 1.639 4827
5.170 2.298 1.595 3562
5.037 2.238 1.557 956
5.370 2.387 1.634 7255
5.174 2.299 1.579 1700
5.503 2.446 1.671 938
5.381 2.391 1.619 10154
5.514 2.451 1.656 1358
5.150 2.289 1.554 794
5.385 2.393 1.602 10509
5.518 2.452 1.638 1267
5.827 2.590 1.723 1235
5.252 2.334 1.565 772
5.389 2.395 1.584 9010
5.824 2.588 1.702 1766
5.522 2.454 1.621 1361
5.407 2.403 1.571 5783
5.835 2.593 1.686 2297
5.540 2.462 1.607 1144
5.217 2.319 1.520 979
5.410 2.405 1.554 4156
5.847 2.598 1.669 3684
5.544 2.464 1.589 1353
5.221 2.320 1.504 1018
5.851 2.600 1.651 3687
5.407 2.403 1.535 2711
6.005 2.669 1.691 1738
5.541 2.462 1.570 1132
5.848 2.599 1.630 2672
6.010 2.671 1.672 2329
5.495 2.442 1.540 1481
6.179 2.746 1.715 1478
6.035 2.682 1.658 2592
5.866 2.607 1.615 2524
6.183 2.748 1.696 1669
5.471 2.431 1.515 1196
5.884 2.615 1.600 3313
6.053 2.690 1.643 2900
6.201 2.756 1.680 2557
5.439 2.417 1.489 1340
6.212 2.761 1.662 2796
5.880 2.613 1.580 2756
6.050 2.689 1.622 2134
6.381 2.836 1.704 1987
6.251 2.778 1.651 2659
6.386 2.838 1.684 1904
6.047 2.687 1.601 1714
5.877 2.612 1.560 1155
6.263 2.783 1.633 2538
6.446 2.865 1.677 1924
6.043 2.686 1.580 1126
6.443 2.863 1.655 4225
6.252 2.779 1.609 1531
6.691 2.973 1.713 798
6.440 2.862 1.633 5744
6.744 2.997 1.704 1000
6.596 2.931 1.669 980
6.256 2.780 1.590 892
6.444 2.864 1.612 5341
6.756 3.002 1.684 1489
6.600 2.933 1.648 1098
6.911 3.072 1.720 984
6.448 2.866 1.592 3882
6.774 3.010 1.666 2078
6.916 3.073 1.698 1303
6.583 2.925 1.622 970
6.473 2.877 1.576 2978
6.778 3.012 1.644 2576
6.934 3.082 1.679 2408
7.090 3.151 1.714 1638
6.938 3.083 1.657 2628
6.789 3.017 1.624 2528
7.087 3.150 1.690 2493
6.477 2.878 1.556 2199
7.169 3.186 1.685 2653
7.027 3.123 1.654 2651
6.800 3.022 1.604 2273
6.474 2.877 1.534 1642
7.123 3.166 1.651 2296
7.557 3.358 1.744 2035
6.989 3.106 1.622 1695
6.804 3.024 1.583 1655
7.113 3.161 1.626 2365
7.568 3.363 1.721 2208
7.433 3.303 1.693 1474
6.815 3.029 1.563 1171
7.131 3.169 1.606 2620
7.586 3.371 1.700 2553
7.451 3.311 1.672 1506
7.878 3.501 1.761 962
7.576 3.367 1.673 3630
7.135 3.171 1.583 2272
7.811 3.471 1.721 1356
8.152 3.623 1.791 1316
7.580 3.369 1.649 4271
8.150 3.622 1.763 2633
7.815 3.473 1.696 1966
7.132 3.170 1.559 1709
8.154 3.624 1.737 4453
7.591 3.374 1.626 3615
7.990 3.551 1.705 2077
7.798 3.465 1.667 1806
8.158 3.626 1.711 6371
7.681 3.413 1.619 3133
7.959 3.537 1.673 2183
7.545 3.353 1.593 1005
8.169 3.631 1.687 7723
7.692 3.418 1.596 2903
7.963 3.539 1.648 2202
7.556 3.358 1.570 1279
8.173 3.632 1.661 7925
7.689 3.417 1.570 2443
7.967 3.541 1.622 1729
8.170 3.631 1.634 7045
7.685 3.415 1.544 1672
7.956 3.536 1.594 1564
8.948 3.977 1.777 1018
8.189 3.639 1.610 5165
9.181 4.080 1.790 1462
9.045 4.020 1.765 1187
8.017 3.563 1.579 1106
8.214 3.650 1.588 4392
9.178 4.079 1.759 2251
9.042 4.019 1.735 1588
9.478 4.212 1.813 1015
8.232 3.658 1.565 4372
9.182 4.081 1.730 1741
9.046 4.020 1.706 1180
9.318 4.141 1.754 1113
8.236 3.660 1.538 3839
9.551 4.245 1.763 1354
9.322 4.143 1.724 1167
9.101 4.044 1.686 1150
8.232 3.659 1.511 3748
9.355 4.158 1.699 1175
9.570 4.253 1.735 1117
10.020 4.453 1.811 1109
8.236 3.660 1.485 3433
9.989 4.439 1.773 1490
9.831 4.369 1.747 1194
9.345 4.153 1.667 1050
8.240 3.662 1.459 2137
10.050 4.467 1.751 1895
9.843 4.374 1.717 1390
10.055 4.468 1.719 1336
9.847 4.376 1.686 1000
8.236 3.660 1.431 974
10.226 4.545 1.746 932
10.231 4.547 1.713 1875
10.016 4.451 1.680 1226
9.880 4.391 1.659 956
10.235 4.549 1.681 2318
10.091 4.485 1.659 1340
10.246 4.554 1.649 1907
10.103 4.490 1.628 1155
11.106 4.936 1.777 873
9.966 4.429 1.608 842
10.307 4.581 1.625 1644
10.164 4.517 1.604 1337
11.118 4.941 1.742 1093
9.999 4.444 1.580 962
11.179 4.968 1.715 1464
10.318 4.586 1.593 1342
10.168 4.519 1.572 1033
11.868 5.274 1.813 957
11.205 4.980 1.682 1557
10.322 4.587 1.560 1238
11.873 5.276 1.775 1128
11.069 4.919 1.664 1027
11.216 4.985 1.648 1421
11.669 5.186 1.709 1290
11.942 5.307 1.746 1174
10.333 4.592 1.528 1037
11.673 5.188 1.672 1461
11.177 4.967 1.606 1275
11.939 5.306 1.707 989
11.677 5.189 1.635 1536
12.072 5.365 1.685 1057
11.174 4.966 1.570 1031
11.871 5.276 1.660 955
11.666 5.185 1.596 1020
12.069 5.364 1.646 980
11.868 5.274 1.621 944
12.166 5.407 1.619 1368
12.185 5.415 1.582 1371
13.228 5.879 1.706 904
12.048 5.354 1.566 794
12.408 5.514 1.609 771
12.196 5.420 1.544 974
12.757 5.669 1.609 880
12.419 5.519 1.570 759
12.753 5.668 1.568 865
2.108 0.925 1.750 9298
2.112 0.927 1.743 18597
2.230 0.979 1.835 883
1.988 0.872 1.647 797
2.116 0.929 1.736 18597
2.234 0.981 1.828 1766
1.992 0.874 1.640 797
2.120 0.931 1.730 18157
2.239 0.983 1.821 2506
2.125 0.932 1.723 17718
2.243 0.985 1.814 3247
2.135 0.937 1.721 14040
2.260 0.992 1.816 4808
2.145 0.941 1.719 10968
2.264 0.994 1.809 6426
2.149 0.943 1.712 10968
2.269 0.996 1.802 6426
2.153 0.945 1.706 9528
2.267 0.995 1.790 9402
2.381 1.045 1.875 777
2.266 0.994 1.779 12495
2.152 0.944 1.694 7882
2.380 1.044 1.863 1160
2.276 0.999 1.776 12481
2.162 0.949 1.692 6031
2.390 1.049 1.860 1018
2.280 1.001 1.769 12527
2.166 0.951 1.685 3973
2.395 1.051 1.853 1270
2.291 1.005 1.766 11348
2.176 0.955 1.683 3485
2.405 1.056 1.850 1075
2.301 1.010 1.764 10565
2.186 0.959 1.681 2873
2.416 1.060 1.847 1174
2.305 1.012 1.756 10565
2.190 0.961 1.674 2839
