4.423 5.159 1.599 881
4.240 4.945 1.519 5862
4.587 5.350 1.633 1378
4.366 5.092 1.560 1267
4.461 5.203 1.591 1050
4.242 4.948 1.500 4820
4.585 5.348 1.611 1901
4.449 5.189 1.567 1706
4.353 5.077 1.536 1046
4.265 4.974 1.487 2816
4.658 5.433 1.613 2055
4.563 5.321 1.582 1869
4.447 5.186 1.545 1712
4.278 4.989 1.471 2275
4.606 5.372 1.575 2113
4.722 5.507 1.611 1713
4.444 5.183 1.524 1192
4.725 5.510 1.590 2462
4.629 5.398 1.560 2100
4.275 4.986 1.451 1795
4.533 5.286 1.531 1211
4.737 5.525 1.572 2282
4.641 5.413 1.543 1981
4.545 5.301 1.513 1220
4.904 5.720 1.623 947
4.801 5.599 1.569 2410
4.902 5.717 1.600 1864
4.669 5.446 1.530 1763
4.563 5.322 1.498 893
4.799 5.596 1.546 2480
4.905 5.720 1.578 1669
5.001 5.833 1.606 1470
4.702 5.484 1.518 1359
5.004 5.836 1.584 2163
4.816 5.617 1.529 1792
4.720 5.505 1.501 1062
5.130 5.983 1.621 962
4.956 5.780 1.547 2024
4.794 5.591 1.501 1563
5.133 5.987 1.598 1305
5.229 6.099 1.625 1197
4.948 5.771 1.522 2279
5.136 5.990 1.575 1876
4.796 5.594 1.479 1326
5.232 6.102 1.602 1217
5.133 5.987 1.551 2813
4.997 5.827 1.513 1805
5.367 6.259 1.615 1378
4.799 5.597 1.458 1154
5.136 5.990 1.528 2458
5.253 6.126 1.560 1476
5.364 6.257 1.590 1473
5.004 5.836 1.492 1467
5.337 6.224 1.558 1953
5.240 6.112 1.532 1794
5.144 5.999 1.506 1691
5.047 5.887 1.480 1273
5.334 6.221 1.533 2403
5.141 5.996 1.482 1949
5.238 6.109 1.507 1655
5.527 6.446 1.583 1080
5.383 6.278 1.521 2965
5.286 6.165 1.496 2359
5.149 6.005 1.460 1776
5.505 6.420 1.552 1648
5.385 6.281 1.497 3564
5.502 6.417 1.526 2012
5.263 6.139 1.466 1621
5.838 6.809 1.612 1570
5.388 6.284 1.473 2448
5.841 6.812 1.586 2286
5.484 6.397 1.497 1887
5.581 6.509 1.521 1255
5.838 6.809 1.558 2301
5.477 6.388 1.470 1768
5.716 6.667 1.528 1606
5.594 6.524 1.499 1420
5.719 6.670 1.503 2052
5.846 6.818 1.533 2026
6.238 7.275 1.628 1565
5.602 6.533 1.475 1327
5.849 6.821 1.507 2093
6.246 7.285 1.601 2089
5.716 6.667 1.476 2013
6.134 7.154 1.575 1640
6.131 7.151 1.546 2230
6.254 7.294 1.574 1839
5.846 6.818 1.480 1822
5.724 6.676 1.452 1755
6.109 7.124 1.513 1941
6.251 7.291 1.545 1534
5.849 6.821 1.454 1411
5.721 6.673 1.425 1083
6.106 7.121 1.485 1753
6.223 7.258 1.511 1213
5.856 6.830 1.429 1136
6.336 7.389 1.535 856
6.154 7.178 1.467 1840
6.251 7.291 1.488 1107
6.348 7.404 1.509 889
6.644 7.749 1.574 814
6.259 7.300 1.462 1623
6.157 7.181 1.440 1339
7.117 8.300 1.644 1229
6.637 7.741 1.542 1102
6.272 7.315 1.436 2075
7.119 8.303 1.612 1629
6.757 7.881 1.537 1480
6.369 7.428 1.456 1126
7.122 8.307 1.580 2215
6.264 7.306 1.406 2033
6.765 7.890 1.507 1301
6.366 7.425 1.426 961
7.130 8.316 1.549 2235
6.266 7.308 1.378 1602
6.706 7.821 1.465 1091
6.803 7.934 1.484 1046
7.133 8.319 1.518 1756
7.746 9.034 1.637 1364
6.785 7.913 1.450 1152
6.284 7.329 1.353 1125
7.140 8.328 1.487 2122
7.749 9.038 1.602 1422
6.793 7.922 1.421 1225
6.936 8.089 1.448 1071
7.143 8.331 1.455 2695
7.747 9.035 1.567 1098
6.856 7.997 1.402 1048
7.145 8.334 1.423 2217
7.811 9.110 1.543 1124
7.148 8.336 1.391 1371
8.013 9.346 1.543 1063
7.793 9.089 1.505 1028
7.150 8.339 1.359 1039
8.026 9.361 1.509 970
7.795 9.092 1.470 949
7.698 8.978 1.453 861
7.941 9.262 1.459 1200
8.039 9.376 1.475 1007
7.701 8.981 1.419 971
8.413 9.812 1.538 951
8.989 10.484 1.593 1442
7.944 9.265 1.423 1159
8.041 9.378 1.439 1043
8.420 9.821 1.501 973
8.987 10.481 1.552 1455
8.197 9.561 1.428 1097
8.474 9.884 1.471 1067
8.674 10.117 1.503 1026
8.974 10.466 1.510 1384
8.477 9.886 1.433 1241
8.677 10.120 1.464 1015
8.200 9.563 1.391 978
8.972 10.464 1.469 1236
8.484 9.895 1.396 1110
8.151 9.506 1.347 900
8.679 10.123 1.425 810
8.959 10.448 1.427 1520
8.230 9.599 1.321 1264
8.133 9.485 1.307 912
8.738 10.191 1.395 877
8.243 9.613 1.286 2810
8.966 10.457 1.387 1391
8.145 9.500 1.272 1139
8.740 10.194 1.356 819
8.245 9.616 1.249 3043
8.147 9.502 1.236 1176
8.383 9.777 1.268 907
8.974 10.466 1.348 857
8.252 9.624 1.213 2465
8.154 9.510 1.200 1240
8.709 10.157 1.273 965
8.385 9.780 1.231 893
8.254 9.627 1.176 1665
8.742 10.196 1.238 1342
8.398 9.794 1.194 1109
8.156 9.513 1.164 911
8.744 10.198 1.199 2289
8.369 9.761 1.153 1604
8.205 9.569 1.133 1071
8.746 10.200 1.160 2663
8.371 9.763 1.116 2434
8.196 9.559 1.095 1296
8.362 9.753 1.077 2976
8.748 10.203 1.121 2603
8.193 9.555 1.058 1389
8.359 9.749 1.039 2567
8.750 10.205 1.082 2020
8.189 9.551 1.021 1021
8.381 9.775 1.004 1704
8.751 10.207 1.042 993
8.301 9.681 0.958 1158
8.141 9.495 0.943 1048
8.398 9.795 0.968 887
8.297 9.677 0.921 1317
8.148 9.503 0.907 1153
7.911 9.227 0.884 775
8.298 9.678 0.884 1242
8.149 9.504 0.870 981
7.913 9.228 0.849 763
8.300 9.680 0.847 954
8.296 9.675 0.809 750
7.348 8.570 0.305 779
7.348 8.570 0.273 1102
7.349 8.571 0.240 1011
7.194 8.390 0.238 757
7.287 8.499 0.206 942
7.179 8.373 0.205 807
7.122 8.307 0.173 1007
7.143 8.331 0.141 957
6.952 8.108 0.141 950
6.947 8.102 0.110 1176
7.143 8.331 0.109 1031
6.937 8.090 0.079 1035
7.143 8.331 0.078 793
6.911 8.060 0.049 1100
6.936 8.090 0.017 1224
6.946 8.101 -0.014 1645
6.946 8.101 -0.045 1750
6.951 8.107 -0.076 1533
6.853 7.992 -0.073 961
6.955 8.112 -0.107 1336
6.858 7.998 -0.104 1250
6.862 8.003 -0.134 1066
6.960 8.118 -0.138 942
6.846 7.985 -0.164 887
6.573 7.666 -0.152 835
6.944 8.099 -0.169 776
6.573 7.666 -0.182 1066
6.840 7.978 -0.195 893
6.577 7.671 -0.211 1308
6.840 7.977 -0.225 904
6.742 7.863 -0.220 895
6.576 7.670 -0.240 1513
6.576 7.669 -0.270 1719
6.565 7.656 -0.298 1863
6.559 7.649 -0.327 2201
6.558 7.648 -0.357 1683
6.521 7.605 -0.383 1327
6.515 7.598 -0.412 1150
6.508 7.591 -0.440 1017
6.492 7.571 -0.468 805
6.465 7.540 -0.494 795
1.474 1.709 1.717 4485
1.553 1.801 1.805 1409
1.477 1.712 1.711 8970
1.557 1.805 1.798 2978
1.480 1.716 1.704 8970
1.560 1.809 1.791 3137
1.483 1.719 1.698 7246
1.563 1.812 1.785 4524
1.553 1.801 1.764 6984
1.473 1.708 1.678 4417
1.561 1.810 1.762 7447
1.480 1.716 1.676 3602
1.568 1.818 1.760 7996
1.487 1.725 1.674 2384
1.571 1.822 1.753 7996
1.490 1.728 1.667 2320
1.570 1.821 1.741 10372
1.489 1.726 1.657 2296
1.651 1.915 1.826 759
1.573 1.824 1.734 12822
1.492 1.730 1.650 2520
1.654 1.918 1.819 877
1.576 1.828 1.728 14077
1.495 1.733 1.644 2037
1.658 1.922 1.812 1045
1.583 1.836 1.725 15395
1.502 1.741 1.641 1813
1.665 1.931 1.809 1084
1.582 1.835 1.714 11301
1.664 1.929 1.797 1458
1.500 1.740 1.630 1061
1.585 1.838 1.707 7270
1.667 1.933 1.790 1702
1.610 1.867 1.722 7030
1.692 1.962 1.804 771
1.617 1.875 1.719 7618
1.616 1.874 1.708 7313
1.623 1.882 1.705 10008
1.630 1.891 1.702 13428
1.638 1.899 1.699 14647
1.721 1.995 1.780 1295
1.645 1.908 1.696 16576
1.728 2.004 1.777 1770
1.648 1.911 1.689 16548
1.731 2.007 1.769 2246
1.651 1.914 1.682 16520
1.734 2.011 1.761 2723
1.658 1.923 1.679 14385
1.742 2.020 1.758 2268
1.661 1.926 1.671 12403
1.767 2.049 1.771 2337
1.669 1.935 1.668 8852
1.752 2.032 1.747 2283
1.685 1.954 1.673 5988
1.773 2.056 1.756 2157
1.692 1.962 1.670 5864
1.776 2.060 1.748 3757
1.761 2.043 1.724 5891
1.677 1.945 1.646 3924
1.769 2.051 1.720 7916
1.684 1.953 1.643 3539
1.772 2.055 1.712 9981
1.687 1.957 1.636 2542
1.856 2.153 1.789 805
1.775 2.058 1.705 8837
1.690 1.960 1.628 1694
1.860 2.156 1.781 1361
1.778 2.062 1.697 7692
1.863 2.160 1.773 1917
1.693 1.963 1.621 846
1.799 2.086 1.705 9121
1.714 1.987 1.629 1704
1.884 2.184 1.780 1174
1.806 2.094 1.701 10802
1.891 2.193 1.776 1152
1.721 1.996 1.626 798
1.809 2.098 1.693 9067
1.894 2.197 1.768 1909
1.803 2.091 1.677 7148
1.888 2.190 1.752 4129
1.793 2.079 1.658 8365
1.878 2.178 1.732 6449
1.800 2.087 1.654 7358
1.886 2.187 1.727 6465
1.875 2.174 1.707 7284
1.789 2.075 1.634 5512
1.961 2.274 1.781 979
1.883 2.183 1.703 7169
1.797 2.083 1.630 3651
1.969 2.283 1.776 879
1.890 2.192 1.699 7074
1.804 2.092 1.626 1116
1.976 2.292 1.771 810
1.898 2.200 1.694 6148
1.811 2.100 1.622 1085
1.984 2.300 1.766 896
1.937 2.246 1.716 6469
1.846 2.141 1.641 1921
1.944 2.255 1.711 8103
1.844 2.139 1.629 1429
1.943 2.253 1.699 7111
1.852 2.147 1.624 1167
2.030 2.353 1.770 1089
1.941 2.251 1.687 6329
2.028 2.352 1.757 1618
1.944 2.255 1.678 5782
2.031 2.355 1.748 2317
1.947 2.258 1.670 5066
2.034 2.359 1.739 3850
2.010 2.330 1.709 6200
1.923 2.229 1.639 2496
2.013 2.334 1.700 9924
1.925 2.233 1.631 2100
2.100 2.435 1.769 890
2.020 2.343 1.695 12407
1.933 2.241 1.626 1677
2.112 2.449 1.767 1171
2.028 2.351 1.689 11647
2.115 2.453 1.757 1734
1.940 2.250 1.621 1656
2.049 2.376 1.695 8555
1.962 2.275 1.627 3005
2.137 2.478 1.762 1482
2.085 2.417 1.710 8634
1.997 2.315 1.643 3284
2.092 2.426 1.705 7730
2.004 2.324 1.638 3815
2.091 2.424 1.692 7405
2.002 2.322 1.625 3558
2.179 2.526 1.759 1088
2.098 2.433 1.686 7686
2.010 2.331 1.620 2777
2.186 2.535 1.753 1003
2.101 2.436 1.677 7953
2.189 2.539 1.743 1990
2.013 2.334 1.611 1833
2.141 2.483 1.695 10085
2.053 2.380 1.630 1879
2.230 2.586 1.761 933
2.140 2.481 1.683 15051
2.228 2.584 1.748 1861
2.051 2.378 1.618 807
2.138 2.479 1.670 15479
2.226 2.582 1.734 2232
2.141 2.482 1.660 10404
2.230 2.585 1.725 3235
2.214 2.567 1.701 5444
2.125 2.464 1.638 4235
2.212 2.565 1.688 5638
2.123 2.462 1.625 2190
2.196 2.547 1.665 7131
2.285 2.650 1.728 1212
2.204 2.556 1.659 8916
2.293 2.659 1.722 1907
2.211 2.564 1.653 9113
2.301 2.668 1.715 1940
2.257 2.617 1.672 4952
2.167 2.513 1.610 1072
2.346 2.721 1.734 995
2.264 2.626 1.665 4667
2.354 2.730 1.727 1558
2.175 2.522 1.604 1177
2.263 2.624 1.652 7308
2.352 2.728 1.713 2792
2.173 2.520 1.591 950
2.270 2.632 1.645 10717
2.360 2.737 1.706 2665
2.166 2.512 1.575 872
2.292 2.658 1.648 10583
2.382 2.762 1.708 2656
2.300 2.667 1.641 8664
2.390 2.771 1.701 3036
2.302 2.670 1.631 7507
2.393 2.775 1.690 4163
2.305 2.673 1.621 6212
2.396 2.778 1.680 4529
2.360 2.737 1.645 5410
2.451 2.842 1.703 2611
2.270 2.632 1.586 1192
2.335 2.707 1.616 6219
2.440 2.829 1.683 4145
2.333 2.705 1.603 4310
2.443 2.832 1.673 3285
2.407 2.791 1.638 4123
2.498 2.897 1.695 2657
2.316 2.686 1.580 1266
2.429 2.817 1.639 7645
2.520 2.922 1.696 2702
2.338 2.711 1.582 812
2.442 2.831 1.634 10688
2.533 2.937 1.691 2454
2.351 2.726 1.578 884
2.449 2.840 1.626 10327
2.540 2.946 1.683 2807
2.358 2.735 1.570 777
2.495 2.894 1.642 9006
2.587 2.999 1.698 2868
2.404 2.788 1.586 988
2.460 2.852 1.608 8258
2.575 2.986 1.678 4908
2.472 2.867 1.603 7154
2.583 2.995 1.669 4158
2.528 2.931 1.623 4539
2.619 3.038 1.678 3080
2.436 2.825 1.569 1457
2.603 3.019 1.655 6155
2.511 2.912 1.601 2158
2.611 3.027 1.646 6311
2.519 2.921 1.593 1988
2.703 3.134 1.700 1609
2.633 3.053 1.646 4595
2.541 2.947 1.593 2332
2.725 3.160 1.699 1818
2.646 3.068 1.640 4724
2.738 3.174 1.693 1646
2.554 2.961 1.587 1527
2.644 3.065 1.626 6372
2.745 3.183 1.684 2966
2.552 2.959 1.573 1037
2.646 3.069 1.614 8053
2.753 3.192 1.674 4802
2.649 3.072 1.602 6678
2.756 3.196 1.662 4780
2.764 3.205 1.653 3968
2.652 3.075 1.591 3646
2.733 3.169 1.622 4423
2.640 3.061 1.571 1893
2.825 3.276 1.672 1707
2.917 3.383 1.723 1445
2.760 3.200 1.623 4292
2.916 3.381 1.708 2356
2.662 3.087 1.570 2002
2.767 3.209 1.613 5601
2.914 3.379 1.692 2734
2.665 3.090 1.558 1273
2.785 3.229 1.609 6195
2.917 3.382 1.679 3481
2.668 3.094 1.546 796
2.807 3.255 1.607 5125
2.959 3.431 1.687 3331
2.714 3.148 1.558 853
2.971 3.446 1.679 4194
2.834 3.287 1.607 3742
2.742 3.179 1.559 836
3.064 3.553 1.728 785
2.984 3.460 1.671 3912
2.876 3.335 1.615 2508
2.783 3.228 1.567 1105
2.943 3.413 1.635 2896
3.065 3.555 1.698 2299
2.850 3.305 1.587 1405
3.073 3.564 1.687 3519
2.951 3.422 1.625 2934
2.857 3.314 1.577 1017
2.993 3.470 1.632 4292
3.086 3.579 1.679 3626
2.899 3.362 1.585 787
3.079 3.571 1.660 5281
2.986 3.462 1.614 4474
3.087 3.580 1.649 6988
2.989 3.466 1.600 2923
3.185 3.694 1.698 1039
3.085 3.577 1.633 7496
3.178 3.686 1.679 1722
2.991 3.469 1.587 1690
3.093 3.586 1.622 6199
3.226 3.741 1.686 1723
2.999 3.478 1.576 1127
3.095 3.590 1.608 5271
3.209 3.721 1.663 2267
3.103 3.598 1.597 4115
3.202 3.713 1.644 3446
3.116 3.613 1.588 3204
3.210 3.722 1.632 2682
3.304 3.831 1.676 815
3.109 3.605 1.569 2206
3.232 3.748 1.627 2003
3.326 3.857 1.671 946
3.240 3.757 1.615 3959
3.334 3.866 1.658 1487
3.111 3.608 1.556 1485
3.253 3.772 1.605 3894
3.347 3.881 1.648 1348
3.119 3.617 1.544 970
3.271 3.792 1.597 2793
3.365 3.902 1.640 1155
3.318 3.848 1.603 3384
3.224 3.738 1.561 759
3.326 3.856 1.590 3989
3.420 3.966 1.632 945
3.348 3.883 1.584 5489
3.443 3.992 1.626 1040
3.194 3.704 1.517 815
3.386 3.926 1.585 6338
3.192 3.701 1.501 832
3.480 4.036 1.625 806
3.394 3.935 1.572 6081
3.189 3.698 1.485 1046
3.488 4.045 1.612 910
3.583 4.155 1.652 793
3.386 3.927 1.552 7871
3.481 4.037 1.592 1757
3.192 3.701 1.470 1368
3.581 4.152 1.634 1162
3.389 3.930 1.537 8506
3.484 4.040 1.577 2189
3.579 4.150 1.617 1814
3.200 3.710 1.458 1472
3.402 3.945 1.527 6263
3.581 4.153 1.601 2548
3.696 4.286 1.648 1907
3.197 3.707 1.442 1137
3.409 3.953 1.514 4593
3.704 4.295 1.634 2619
3.594 4.168 1.589 2392
3.477 4.032 1.525 3065
3.627 4.206 1.585 2563
3.722 4.316 1.623 2054
3.817 4.426 1.662 1431
3.710 4.302 1.601 2816
3.490 4.047 1.513 2491
3.810 4.418 1.641 2127
3.615 4.192 1.563 2011
3.713 4.305 1.584 4355
3.808 4.415 1.622 3753
3.492 4.050 1.498 1509
3.607 4.183 1.543 1066
3.805 4.413 1.603 5506
3.710 4.302 1.566 4339
3.901 4.523 1.640 1811
3.525 4.087 1.494 1244
3.813 4.422 1.588 5889
3.718 4.311 1.552 3146
3.909 4.532 1.625 2445
3.522 4.085 1.476 1391
3.816 4.425 1.571 6561
3.911 4.536 1.607 2537
3.721 4.314 1.535 1702
3.505 4.064 1.453 1300
3.819 4.428 1.554 6611
3.919 4.545 1.592 2291
4.015 4.655 1.628 1425
3.723 4.318 1.519 1384
3.826 4.437 1.539 5205
3.992 4.629 1.600 2519
4.108 4.764 1.643 1631
3.731 4.326 1.504 1237
3.945 4.574 1.564 3317
4.111 4.767 1.625 2810
3.824 4.434 1.520 2257
3.953 4.583 1.549 3838
4.109 4.764 1.605 3236
4.209 4.881 1.641 1200
3.847 4.461 1.511 1053
4.222 4.896 1.626 3537
4.111 4.767 1.587 3146
3.965 4.598 1.535 2396
4.235 4.911 1.611 5533
4.119 4.776 1.570 3740
4.023 4.665 1.537 2365
4.127 4.785 1.554 3752
4.238 4.914 1.592 3680
4.026 4.669 1.519 2175
4.135 4.794 1.537 3042
4.230 4.906 1.570 3003
4.024 4.666 1.499 1385
4.362 5.058 1.615 751
4.253 4.932 1.558 5202
4.127 4.786 1.515 1324
4.359 5.055 1.594 761
4.256 4.935 1.539 6432
4.595 5.328 1.651 923
4.254 4.933 1.519 5571
4.603 5.337 1.633 1396
4.471 5.185 1.590 904
4.375 5.073 1.558 782
4.261 4.941 1.501 5070
4.605 5.340 1.612 2092
4.469 5.182 1.568 1404
4.373 5.070 1.537 866
4.289 4.974 1.490 4260
4.588 5.320 1.585 2171
4.684 5.432 1.616 1802
4.461 5.173 1.545 1251
4.297 4.983 1.473 3919
4.616 5.353 1.573 2201
4.738 5.494 1.611 2189
4.459 5.171 1.524 760
4.294 4.980 1.452 3005
4.740 5.497 1.590 2814
4.639 5.379 1.559 1724
4.543 5.268 1.529 820
4.753 5.512 1.572 2176
4.657 5.400 1.543 1628
4.297 4.983 1.433 1365
4.915 5.700 1.621 1195
4.807 5.574 1.566 2454
4.918 5.703 1.600 1985
4.690 5.438 1.531 1521
4.578 5.309 1.498 809
4.804 5.571 1.543 2264
4.921 5.706 1.578 1482
5.018 5.818 1.606 1329
4.708 5.459 1.515 1253
5.015 5.816 1.582 1897
4.842 5.615 1.532 1789
4.746 5.503 1.504 1076
5.137 5.957 1.618 869
4.972 5.766 1.547 1890
5.155 5.978 1.599 1369
4.840 5.613 1.509 1347
5.252 6.090 1.627 1188
4.970 5.763 1.524 1945
5.158 5.981 1.576 1721
5.255 6.093 1.603 1233
4.812 5.580 1.479 1044
5.145 5.967 1.549 1990
5.018 5.819 1.514 1855
5.385 6.244 1.615 1392
4.815 5.583 1.458 1017
5.082 5.893 1.508 2023
5.270 6.111 1.560 1494
5.382 6.241 1.590 1404
4.985 5.781 1.482 874
5.263 6.103 1.533 2209
5.084 5.896 1.486 1808
5.360 6.215 1.559 1578
5.548 6.433 1.609 917
5.342 6.194 1.530 2209
5.245 6.082 1.505 1625
5.148 5.970 1.479 1467
5.546 6.431 1.583 1340
5.401 6.262 1.521 3350
5.304 6.150 1.496 2766
5.523 6.404 1.552 1887
5.166 5.990 1.460 1529
5.403 6.265 1.497 3735
5.520 6.402 1.526 2152
5.291 6.135 1.468 1790
5.857 6.792 1.612 1610
5.406 6.268 1.473 2299
5.860 6.795 1.586 2197
5.523 6.405 1.502 1785
5.620 6.517 1.526 1060
5.858 6.792 1.558 2094
5.526 6.408 1.477 1625
5.740 6.656 1.530 1477
6.159 7.142 1.632 1427
5.865 6.801 1.533 1819
5.738 6.653 1.503 1806
6.162 7.145 1.604 1624
6.259 7.258 1.628 1445
6.159 7.142 1.576 2091
6.267 7.267 1.601 2082
5.868 6.804 1.507 1897
5.740 6.656 1.477 1594
6.157 7.139 1.547 2591
6.269 7.270 1.573 1679
5.871 6.807 1.481 1652
5.743 6.659 1.452 1409
6.154 7.137 1.519 2032
6.267 7.267 1.544 1226
5.868 6.804 1.454 1196
5.551 6.437 1.383 1027
6.177 7.163 1.496 1989
5.876 6.813 1.429 894
6.275 7.276 1.517 855
6.029 6.991 1.463 766
6.180 7.166 1.468 2333
6.277 7.279 1.489 1002
6.666 7.730 1.574 848
6.472 7.505 1.532 807
6.183 7.169 1.441 1747
6.280 7.282 1.462 1252
7.140 8.280 1.644 1142
6.659 7.722 1.542 1030
7.143 8.283 1.612 1449
6.293 7.297 1.436 1411
6.779 7.861 1.537 1394
6.180 7.166 1.412 1176
7.151 8.292 1.581 2005
6.295 7.300 1.408 1326
6.787 7.870 1.507 1251
7.048 8.173 1.560 948
7.154 8.295 1.549 2088
7.056 8.182 1.530 1174
6.826 7.915 1.484 972
6.303 7.308 1.381 957
7.161 8.304 1.519 1728
7.772 9.012 1.637 1310
6.802 7.888 1.449 1092
7.059 8.185 1.499 996
7.164 8.307 1.487 2126
7.775 9.016 1.602 1375
6.815 7.903 1.421 1185
6.959 8.069 1.448 1137
7.167 8.310 1.455 2566
7.767 9.007 1.566 1073
6.879 7.977 1.402 1036
7.164 8.307 1.422 2012
7.842 9.093 1.544 860
7.161 8.304 1.389 1480
8.040 9.323 1.543 1093
7.803 9.049 1.502 995
7.901 9.162 1.519 794
7.164 8.307 1.357 1380
8.047 9.332 1.508 1038
7.939 9.207 1.490 929
7.811 9.058 1.468 872
7.963 9.233 1.458 1193
8.060 9.347 1.474 1046
8.441 9.788 1.538 964
7.726 8.959 1.419 872
9.019 10.458 1.593 1155
8.058 9.344 1.438 1150
8.500 9.856 1.509 1053
7.960 9.230 1.422 1033
9.017 10.456 1.552 1251
8.502 9.859 1.471 1246
8.163 9.466 1.418 1201
8.708 10.098 1.504 1071
8.505 9.862 1.433 1413
8.181 9.486 1.384 1384
9.009 10.447 1.511 1205
8.711 10.101 1.465 1054
8.163 9.465 1.344 1471
8.518 9.877 1.397 1335
9.001 10.438 1.469 1067
8.713 10.104 1.426 777
8.180 9.486 1.310 1745
8.988 10.423 1.427 1381
8.278 9.599 1.324 1225
8.757 10.154 1.393 1051
8.255 9.572 1.284 2742
8.157 9.458 1.270 1453
8.991 10.426 1.387 1240
8.764 10.163 1.355 891
8.262 9.580 1.248 2299
8.164 9.467 1.235 1301
8.782 10.184 1.318 791
8.269 9.589 1.212 1625
8.171 9.475 1.199 1050
8.784 10.186 1.279 970
8.367 9.702 1.225 846
8.271 9.591 1.175 1595
8.776 10.177 1.238 1311
8.369 9.705 1.187 1275
8.173 9.478 1.163 1052
8.773 10.173 1.199 2104
8.288 9.611 1.140 1770
8.386 9.725 1.152 1604
8.191 9.498 1.128 1262
8.388 9.727 1.115 2331
8.775 10.175 1.160 2286
8.290 9.613 1.103 1724
8.192 9.500 1.092 1317
8.385 9.723 1.077 2837
8.777 10.178 1.121 2151
8.210 9.520 1.057 1428
8.387 9.725 1.039 2592
8.779 10.180 1.082 1625
8.211 9.522 1.020 1151
8.404 9.745 1.004 1730
8.306 9.631 0.993 1307
8.323 9.651 0.958 1356
8.421 9.765 0.968 934
7.946 9.214 0.921 832
8.324 9.653 0.921 1185
7.943 9.210 0.885 937
8.326 9.655 0.884 976
7.368 8.543 0.272 864
7.368 8.544 0.240 829
7.141 8.280 0.173 958
7.146 8.286 0.141 886
7.166 8.310 0.109 968
7.161 8.304 0.078 815
6.964 8.076 0.017 820
6.969 8.082 -0.014 1060
6.964 8.075 -0.045 1098
6.969 8.081 -0.076 842
6.596 7.648 -0.123 854
6.600 7.654 -0.152 1077
6.594 7.647 -0.182 1223
6.863 7.959 -0.195 751
6.594 7.646 -0.211 1376
6.863 7.958 -0.225 773
6.593 7.645 -0.240 1467
6.598 7.650 -0.270 1581
6.597 7.650 -0.299 1489
6.591 7.643 -0.328 1417
6.590 7.642 -0.357 1235
6.578 7.628 -0.386 1116
0.450 0.522 0.106 754
0.450 0.522 0.104 788
6.583 7.633 -0.416 786
0.450 0.522 0.102 825
0.450 0.522 0.100 801
1.480 1.704 1.717 4524
1.560 1.796 1.805 1514
1.483 1.707 1.711 9049
1.563 1.800 1.798 3223
1.486 1.711 1.704 9049
1.566 1.803 1.791 3418
1.489 1.714 1.698 7575
1.569 1.807 1.785 5298
1.564 1.801 1.769 8039
1.483 1.708 1.682 5403
1.567 1.804 1.762 9511
1.486 1.711 1.676 3819
1.570 1.808 1.755 10983
1.489 1.714 1.669 2235
1.651 1.901 1.841 823
1.573 1.811 1.748 10983
1.492 1.718 1.663 2145
1.655 1.905 1.833 827
1.576 1.815 1.741 12051
1.495 1.721 1.657 2332
1.658 1.909 1.826 992
1.575 1.814 1.730 13164
1.494 1.720 1.646 2174
1.657 1.908 1.814 1655
1.583 1.822 1.728 14063
1.501 1.728 1.644 2160
1.664 1.916 1.812 1171
1.586 1.825 1.721 15009
1.504 1.731 1.637 1711
1.667 1.920 1.804 1184
1.589 1.829 1.714 11036
1.671 1.924 1.797 1481
1.506 1.734 1.630 1138
1.592 1.832 1.707 7064
1.674 1.927 1.790 1778
1.612 1.856 1.717 7228
1.694 1.951 1.800 923
1.619 1.864 1.715 8183
1.622 1.868 1.708 8021
1.630 1.876 1.705 10868
1.637 1.885 1.702 14530
1.644 1.893 1.699 15478
1.728 1.989 1.780 1403
1.652 1.902 1.696 17186
1.735 1.998 1.777 2019
1.655 1.905 1.689 16926
1.738 2.001 1.769 2599
1.658 1.909 1.682 16666
1.741 2.005 1.761 3180
1.665 1.917 1.679 14547
1.749 2.014 1.758 2773
1.672 1.925 1.676 12531
1.770 2.037 1.767 2886
1.675 1.929 1.668 9068
1.759 2.026 1.747 3165
1.705 1.963 1.686 6997
1.789 2.060 1.764 2606
1.708 1.966 1.678 6894
1.792 2.063 1.756 4412
1.778 2.047 1.732 7872
1.693 1.949 1.655 5650
1.781 2.050 1.724 10014
1.696 1.952 1.647 4545
1.784 2.054 1.716 12157
1.699 1.956 1.640 3441
1.782 2.052 1.705 11165
1.697 1.954 1.628 1885
1.867 2.150 1.781 1547
1.785 2.055 1.697 10357
1.870 2.153 1.773 2171
1.700 1.957 1.621 938
1.802 2.074 1.701 11529
1.716 1.976 1.625 1679
1.887 2.172 1.776 1458
1.805 2.078 1.693 13255
1.890 2.176 1.768 1850
1.719 1.979 1.618 980
1.812 2.086 1.689 11096
1.898 2.185 1.764 1989
1.797 2.069 1.666 8778
1.883 2.168 1.740 4592
1.795 2.067 1.654 9948
1.886 2.171 1.732 5314
1.803 2.076 1.650 8813
1.889 2.175 1.723 5565
1.810 2.084 1.646 7871
1.896 2.183 1.719 5572
1.895 2.182 1.707 6353
1.809 2.082 1.634 5213
1.902 2.190 1.702 6896
1.816 2.091 1.630 2270
1.910 2.199 1.698 6721
1.823 2.099 1.626 1883
1.936 2.229 1.708 7024
1.844 2.124 1.633 1761
2.022 2.328 1.780 858
1.948 2.243 1.707 7691
1.852 2.132 1.629 1422
2.035 2.343 1.779 822
1.946 2.241 1.695 6713
2.033 2.341 1.766 1379
1.855 2.135 1.621 1186
1.945 2.239 1.683 5961
2.032 2.339 1.754 2028
1.948 2.242 1.675 5880
2.035 2.343 1.745 2630
1.955 2.251 1.670 5723
2.043 2.352 1.739 4305
2.023 2.329 1.712 6739
1.935 2.228 1.643 3402
2.021 2.327 1.700 10398
1.933 2.226 1.631 2252
2.029 2.336 1.695 12558
1.941 2.234 1.626 1671
2.126 2.447 1.770 907
2.036 2.344 1.689 11279
1.948 2.243 1.621 1617
2.124 2.446 1.757 1416
2.058 2.369 1.695 8485
1.970 2.268 1.627 3454
2.146 2.470 1.762 1342
2.093 2.410 1.710 8564
2.005 2.308 1.643 3641
2.096 2.413 1.701 8612
2.008 2.312 1.634 3429
2.099 2.417 1.692 8803
2.011 2.315 1.625 3308
2.188 2.519 1.759 979
2.102 2.420 1.683 8422
2.013 2.318 1.617 2453
2.191 2.522 1.749 1205
2.110 2.429 1.677 8238
2.198 2.531 1.743 1916
2.021 2.327 1.611 1841
2.131 2.454 1.682 10712
2.220 2.556 1.747 2042
2.033 2.341 1.609 1428
2.139 2.463 1.676 15476
2.228 2.565 1.741 2171
2.142 2.466 1.666 16590
2.236 2.574 1.734 1967
2.145 2.469 1.657 11363
2.234 2.572 1.721 3387
2.218 2.554 1.698 5803
2.129 2.451 1.634 4686
2.216 2.552 1.685 6443
2.127 2.449 1.622 2288
2.224 2.561 1.679 6994
2.130 2.452 1.612 1146
2.218 2.553 1.662 9503
2.307 2.656 1.725 1531
2.128 2.450 1.600 790
2.221 2.557 1.653 10446
2.310 2.660 1.715 1802
2.233 2.571 1.649 6003
2.328 2.680 1.714 2293
2.269 2.612 1.662 4384
2.359 2.716 1.724 2132
2.179 2.509 1.601 968
2.272 2.616 1.652 7180
2.362 2.719 1.713 3021
2.182 2.512 1.591 976
2.275 2.619 1.642 10271
2.365 2.723 1.703 2901
2.175 2.504 1.575 927
2.297 2.644 1.645 9121
2.387 2.748 1.705 2718
2.309 2.658 1.641 8421
2.400 2.763 1.701 3140
2.307 2.656 1.628 8088
2.398 2.761 1.687 4965
2.310 2.660 1.618 6555
2.401 2.764 1.677 5573
2.332 2.685 1.620 5210
2.437 2.806 1.688 3426
2.340 2.694 1.613 6345
2.450 2.820 1.683 4666
2.443 2.813 1.666 5341
2.342 2.697 1.603 4393
2.534 2.918 1.724 1286
2.446 2.816 1.656 5243
2.537 2.921 1.713 2026
2.355 2.711 1.598 1752
2.454 2.825 1.648 7361
2.545 2.930 1.705 2182
2.362 2.720 1.591 911
2.456 2.828 1.637 10068
2.548 2.933 1.694 2288
2.365 2.723 1.581 857
2.464 2.837 1.629 9484
2.556 2.942 1.686 1903
2.373 2.732 1.573 759
2.510 2.890 1.645 8018
2.602 2.996 1.701 2548
2.419 2.785 1.589 949
2.470 2.844 1.608 7404
2.576 2.966 1.672 6061
2.487 2.863 1.606 6758
2.593 2.986 1.669 5099
2.611 3.006 1.666 4561
2.519 2.900 1.612 3963
2.614 3.009 1.655 7098
2.522 2.903 1.601 2139
2.597 2.990 1.632 7883
2.694 3.102 1.689 2138
2.639 3.038 1.643 5227
2.731 3.144 1.697 2260
2.547 2.932 1.590 1868
2.652 3.053 1.637 5612
2.744 3.159 1.690 1939
2.559 2.946 1.584 1447
2.654 3.056 1.626 6631
2.752 3.168 1.681 2791
2.562 2.950 1.573 986
2.657 3.059 1.614 7232
2.764 3.183 1.674 3723
2.660 3.063 1.602 5820
2.772 3.192 1.665 3470
2.865 3.298 1.716 883
2.663 3.066 1.591 3709
2.795 3.218 1.663 2807
2.887 3.324 1.715 921
2.798 3.221 1.651 3774
2.666 3.069 1.579 3361
2.890 3.328 1.702 1533
2.796 3.219 1.636 3964
2.673 3.078 1.570 2719
2.898 3.337 1.692 2171
2.779 3.199 1.613 5933
2.901 3.340 1.679 1928
2.676 3.081 1.558 1723
2.796 3.219 1.609 6366
2.963 3.411 1.698 2218
2.684 3.090 1.549 1021
2.814 3.240 1.604 4854
2.976 3.426 1.690 3450
2.721 3.132 1.555 815
2.984 3.435 1.679 4271
2.851 3.282 1.610 3119
2.758 3.175 1.561 956
3.077 3.543 1.728 801
2.996 3.450 1.671 4278
2.888 3.325 1.615 3118
2.795 3.218 1.567 1007
3.090 3.557 1.720 935
2.999 3.453 1.658 2799
3.093 3.561 1.706 2404
2.896 3.334 1.605 2367
3.091 3.559 1.690 3651
2.958 3.405 1.622 2662
3.074 3.539 1.666 5218
2.980 3.431 1.619 2920
3.092 3.560 1.660 6754
2.998 3.452 1.614 4021
3.100 3.569 1.649 7311
3.001 3.455 1.600 3046
3.102 3.572 1.635 8132
3.009 3.464 1.590 1963
3.196 3.680 1.681 1012
3.100 3.570 1.619 7917
3.234 3.723 1.684 1331
3.006 3.461 1.574 1045
3.108 3.579 1.608 6556
3.227 3.715 1.665 1877
3.116 3.587 1.597 4757
3.220 3.707 1.646 2842
3.119 3.591 1.583 3408
3.228 3.716 1.634 2173
3.116 3.588 1.567 2909
3.246 3.737 1.627 1514
3.253 3.746 1.615 2771
3.119 3.591 1.553 2465
3.348 3.855 1.658 1249
3.266 3.760 1.605 3700
3.122 3.594 1.540 1603
3.361 3.869 1.648 1132
3.279 3.775 1.595 3507
3.374 3.884 1.638 1207
3.327 3.830 1.601 3330
3.197 3.681 1.543 750
3.339 3.845 1.590 4046
3.434 3.954 1.632 908
3.200 3.684 1.529 833
3.357 3.865 1.582 5028
3.452 3.974 1.623 1182
3.207 3.693 1.517 755
3.395 3.909 1.582 6338
3.490 4.018 1.623 1044
3.398 3.912 1.567 7233
3.493 4.021 1.608 1602
3.203 3.687 1.485 795
3.400 3.915 1.552 8765
3.495 4.024 1.592 1946
3.210 3.696 1.473 1133
3.403 3.918 1.537 8798
3.498 4.028 1.577 2699
3.593 4.137 1.617 1490
3.213 3.699 1.458 1300
3.416 3.933 1.527 5846
3.581 4.123 1.594 2703
3.711 4.273 1.648 2194
3.210 3.696 1.442 960
3.423 3.941 1.514 4449
3.574 4.115 1.575 3585
3.719 4.282 1.634 2786
3.815 4.392 1.672 758
3.491 4.020 1.525 3755
3.722 4.285 1.617 2532
3.587 4.129 1.563 2353
3.823 4.401 1.658 1669
3.499 4.028 1.511 3287
3.735 4.300 1.605 2412
3.830 4.410 1.643 2325
3.640 4.190 1.567 1806
3.828 4.408 1.624 3671
3.733 4.298 1.586 3184
3.501 4.031 1.496 1984
3.597 4.141 1.533 1300
3.826 4.405 1.605 5208
3.731 4.295 1.568 2986
3.922 4.515 1.642 1337
3.544 4.081 1.496 1025
3.834 4.414 1.590 6437
3.738 4.304 1.553 2326
3.930 4.524 1.627 1802
3.547 4.084 1.480 1312
3.832 4.412 1.571 6046
3.927 4.522 1.607 2481
3.736 4.301 1.535 1398
3.514 4.046 1.451 1241
3.844 4.426 1.558 4302
4.001 4.606 1.616 2530
3.517 4.049 1.436 1317
3.749 4.316 1.522 1267
4.009 4.615 1.600 3574
3.847 4.429 1.541 2867
4.125 4.749 1.643 1632
3.751 4.319 1.506 1127
4.011 4.619 1.583 3276
4.128 4.752 1.625 2618
3.850 4.432 1.524 1423
4.224 4.863 1.660 856
3.969 4.569 1.549 3545
4.125 4.750 1.605 3073
4.226 4.866 1.641 1248
3.847 4.430 1.505 1175
4.239 4.881 1.626 3159
4.128 4.753 1.587 3027
4.017 4.625 1.547 2704
3.921 4.514 1.513 963
4.252 4.896 1.611 5339
4.141 4.768 1.572 3149
4.035 4.645 1.535 3020
4.149 4.777 1.556 3730
4.250 4.893 1.590 3429
4.037 4.648 1.517 2285
4.152 4.780 1.537 3561
4.248 4.891 1.570 2616
4.035 4.646 1.498 1163
4.276 4.923 1.560 4836
4.144 4.771 1.515 1491
4.273 4.920 1.539 6037
4.624 5.323 1.655 885
4.271 4.917 1.519 4950
4.626 5.327 1.634 1510
4.284 4.932 1.503 4818
4.629 5.330 1.614 2451
4.492 5.172 1.570 1121
4.761 5.482 1.656 780
4.312 4.964 1.492 5844
4.627 5.327 1.592 2501
4.754 5.474 1.632 1025
4.485 5.163 1.547 906
4.314 4.967 1.473 5683
4.757 5.477 1.611 2762
4.625 5.325 1.570 2150
4.317 4.970 1.454 4206
4.760 5.480 1.590 3375
4.627 5.328 1.549 1372
4.773 5.495 1.572 2061
4.319 4.973 1.435 2001
4.936 5.683 1.621 1191
4.676 5.384 1.543 870
4.811 5.539 1.562 2603
4.938 5.686 1.600 1644
4.709 5.422 1.531 1097
4.332 4.988 1.419 1036
4.819 5.548 1.542 2141
4.936 5.683 1.576 1272
5.033 5.795 1.605 1111
4.722 5.437 1.513 1045
4.873 5.610 1.535 2302
5.026 5.786 1.579 1451
4.740 5.457 1.497 988
5.122 5.898 1.607 908
5.008 5.766 1.551 1502
4.875 5.613 1.514 1500
5.192 5.977 1.604 1405
5.189 5.975 1.579 1740
5.016 5.775 1.531 1561
4.919 5.663 1.504 1100
5.342 6.151 1.622 1048
5.039 5.801 1.514 1700
5.156 5.937 1.546 1269
5.407 6.225 1.615 1174
5.310 6.113 1.589 1025
5.098 5.869 1.507 1787
5.292 6.093 1.560 1509
5.404 6.222 1.590 1258
5.195 5.981 1.533 931
5.279 6.078 1.532 2358
5.105 5.878 1.486 1683
5.376 6.190 1.558 1571
5.571 6.414 1.609 1027
5.353 6.164 1.527 2340
5.256 6.052 1.502 1487
5.568 6.411 1.583 1470
5.451 6.276 1.553 1433
5.423 6.243 1.521 3321
5.325 6.131 1.496 2732
5.540 6.379 1.551 2200
5.208 5.996 1.466 1212
5.425 6.246 1.497 3492
5.543 6.382 1.526 2528
5.313 6.117 1.468 1872
5.640 6.494 1.551 1221
5.423 6.243 1.472 2091
5.551 6.391 1.503 1995
5.889 6.780 1.587 1586
5.648 6.503 1.527 1149
5.553 6.394 1.479 1752
5.892 6.783 1.561 1649
5.764 6.636 1.530 1329
6.184 7.120 1.632 1328
5.638 6.491 1.474 1711
5.889 6.781 1.533 1672
6.187 7.123 1.604 1663
5.761 6.633 1.503 1396
6.185 7.120 1.576 2110
5.892 6.784 1.507 1921
6.292 7.244 1.601 1797
5.579 6.423 1.434 1518
6.187 7.124 1.548 2507
5.895 6.787 1.481 1636
6.300 7.254 1.574 1323
5.581 6.426 1.410 1287
6.139 7.068 1.509 2402
5.892 6.784 1.454 1046
6.308 7.263 1.548 1006
5.579 6.423 1.384 902
6.198 7.136 1.495 2261
6.311 7.266 1.520 986
6.069 6.988 1.466 943
6.205 7.144 1.468 2598
6.498 7.482 1.532 927
6.786 7.813 1.594 847
6.313 7.269 1.492 843
6.213 7.153 1.442 2074
6.789 7.816 1.563 999
7.164 8.249 1.643 994
6.686 7.698 1.542 848
6.215 7.156 1.414 1451
6.807 7.837 1.537 1330
7.234 8.329 1.625 1156
6.118 7.044 1.394 815
7.232 8.326 1.592 1911
6.815 7.846 1.507 1197
7.083 8.154 1.561 1078
6.218 7.159 1.387 1029
7.235 8.329 1.560 2134
7.090 8.163 1.531 1348
6.318 7.274 1.379 1041
6.823 7.855 1.478 861
7.253 8.350 1.530 1828
7.093 8.166 1.500 1146
7.804 8.985 1.637 1026
6.995 8.054 1.481 918
7.193 8.282 1.487 2031
7.801 8.982 1.601 1132
6.982 8.039 1.447 1129
6.859 7.896 1.424 984
7.253 8.350 1.465 2281
7.794 8.973 1.565 1080
6.861 7.899 1.393 929
7.892 9.086 1.583 858
7.250 8.347 1.432 2252
7.879 9.071 1.545 793
7.253 8.350 1.400 1763
8.067 9.288 1.542 1005
7.830 9.015 1.501 902
7.928 9.128 1.518 844
7.193 8.282 1.357 1600
7.962 9.167 1.488 1026
8.080 9.303 1.508 1022
7.838 9.024 1.467 813
8.109 9.336 1.477 987
7.990 9.199 1.457 986
7.206 8.296 1.327 918
8.532 9.823 1.547 885
8.153 9.386 1.448 1644
8.540 9.832 1.510 1229
8.251 9.499 1.463 943
8.003 9.214 1.423 854
8.145 9.377 1.410 2467
8.243 9.490 1.425 1481
8.542 9.835 1.472 1304
8.142 9.374 1.373 2681
8.240 9.487 1.388 1816
8.540 9.832 1.433 1338
8.222 9.466 1.348 2137
8.124 9.353 1.334 1664
8.547 9.841 1.396 1279
8.214 9.457 1.310 2626
8.550 9.844 1.358 1013
8.312 9.570 1.324 816
9.025 10.391 1.427 797
8.206 9.447 1.272 2351
8.304 9.560 1.286 1147
9.033 10.400 1.387 881
8.218 9.462 1.237 2096
8.316 9.575 1.251 1376
8.225 9.470 1.202 2377
8.324 9.583 1.214 1618
8.127 9.357 1.189 860
8.422 9.696 1.227 801
8.310 9.568 1.176 2258
8.212 9.455 1.163 1960
8.408 9.681 1.188 1169
8.807 10.140 1.238 823
8.312 9.570 1.139 2453
8.214 9.457 1.127 1593
8.410 9.683 1.151 1446
8.809 10.142 1.199 1382
8.417 9.691 1.114 1945
8.319 9.578 1.103 1521
8.816 10.150 1.160 1475
8.221 9.465 1.091 1088
8.414 9.687 1.076 2467
8.823 10.158 1.122 1368
8.197 9.437 1.052 1022
8.300 9.556 1.063 796
8.416 9.689 1.039 2205
8.825 10.160 1.083 1128
8.317 9.576 1.028 1066
8.350 9.614 0.994 1692
8.449 9.727 1.005 1403
8.357 9.622 0.958 1020
8.455 9.735 0.968 816
8.359 9.623 0.921 845
8.360 9.625 0.884 750
6.621 7.623 -0.211 891
6.620 7.622 -0.240 888
6.619 7.621 -0.270 886
0.452 0.520 0.108 789
0.452 0.520 0.106 875
0.452 0.520 0.104 910
0.452 0.520 0.102 945
0.452 0.520 0.100 911
0.452 0.520 0.099 790
1.481 1.694 1.713 4632
1.562 1.786 1.800 1845
1.484 1.697 1.706 9264
1.565 1.789 1.794 3813
1.487 1.701 1.700 9264
1.568 1.793 1.787 3937
1.494 1.709 1.698 7934
1.575 1.802 1.785 5785
1.570 1.795 1.769 8865
1.489 1.703 1.682 5655
1.573 1.799 1.762 11085
1.492 1.706 1.676 3835
1.576 1.803 1.755 13306
1.495 1.709 1.669 2015
1.658 1.896 1.841 973
1.579 1.806 1.748 13306
1.498 1.713 1.663 1900
1.661 1.899 1.833 977
1.578 1.805 1.737 13150
1.496 1.711 1.652 1819
1.660 1.898 1.822 1659
1.581 1.808 1.730 13058
1.663 1.902 1.814 1913
1.499 1.715 1.646 1900
1.584 1.812 1.723 13601
1.666 1.906 1.807 1723
1.502 1.718 1.639 1554
1.587 1.815 1.716 14144
1.670 1.909 1.800 1533
1.505 1.721 1.633 1209
1.595 1.824 1.714 10436
1.677 1.918 1.797 1453
1.512 1.729 1.630 986
1.598 1.827 1.707 6795
1.680 1.922 1.790 1763
1.618 1.850 1.717 7642
1.701 1.945 1.800 827
1.626 1.859 1.715 9050
1.629 1.862 1.708 8984
1.636 1.871 1.705 11770
1.643 1.879 1.702 15451
1.651 1.888 1.699 15981
1.734 1.983 1.780 1477
1.658 1.896 1.696 17295
1.742 1.992 1.777 2045
1.661 1.900 1.689 16692
1.745 1.995 1.769 2712
1.669 1.908 1.686 16110
1.753 2.004 1.766 3002
1.671 1.911 1.679 13924
1.756 2.008 1.758 3116
1.679 1.920 1.676 11872
1.772 2.026 1.763 3334
1.686 1.928 1.672 8657
1.771 2.025 1.751 3949
1.711 1.957 1.686 7463
1.796 2.054 1.764 3344
1.714 1.961 1.678 7456
1.799 2.057 1.756 5471
1.784 2.041 1.732 9846
1.700 1.943 1.655 5812
1.787 2.044 1.724 11922
1.702 1.947 1.647 4705
1.873 2.141 1.801 753
1.791 2.048 1.716 13998
1.705 1.950 1.640 3598
1.876 2.145 1.793 788
1.794 2.051 1.709 13238
1.708 1.953 1.632 2458
1.879 2.149 1.785 1282
1.792 2.049 1.697 12599
1.878 2.147 1.773 2316
1.707 1.952 1.621 1001
1.804 2.063 1.697 13850
1.890 2.161 1.772 1899
1.718 1.965 1.621 1464
1.812 2.072 1.693 15688
1.897 2.170 1.768 1737
1.726 1.973 1.618 1117
1.815 2.075 1.685 13107
1.900 2.173 1.760 2442
1.729 1.977 1.610 802
1.804 2.063 1.666 10299
1.890 2.161 1.740 4401
1.802 2.061 1.654 11169
1.898 2.170 1.736 4333
1.810 2.070 1.650 10012
1.901 2.173 1.727 4391
1.817 2.078 1.646 9127
1.904 2.177 1.719 4449
1.820 2.081 1.638 6603
1.907 2.180 1.711 5644
1.914 2.189 1.706 6908
1.818 2.079 1.626 3319
1.922 2.198 1.702 7419
1.835 2.098 1.630 2577
1.939 2.217 1.705 7761
1.842 2.107 1.625 1708
2.026 2.316 1.776 1002
1.951 2.231 1.704 7419
1.864 2.131 1.632 1471
2.038 2.331 1.775 1027
1.949 2.229 1.692 6537
2.037 2.329 1.762 1603
1.862 2.129 1.621 1138
1.948 2.227 1.679 5964
2.035 2.327 1.750 2297
1.951 2.230 1.671 6203
2.038 2.331 1.741 2760
1.958 2.239 1.666 6310
2.046 2.339 1.736 4824
2.030 2.322 1.712 7276
1.943 2.221 1.643 3815
2.033 2.325 1.703 10888
1.945 2.225 1.634 2981
2.036 2.329 1.695 12638
1.948 2.228 1.626 1743
2.134 2.440 1.770 872
2.049 2.343 1.693 11004
1.960 2.242 1.625 1971
2.137 2.444 1.761 1264
2.056 2.351 1.687 8659
1.968 2.250 1.620 2491
2.145 2.453 1.755 1783
2.097 2.397 1.707 8288
2.008 2.296 1.639 3791
2.104 2.406 1.701 9227
2.016 2.305 1.634 2986
2.107 2.410 1.692 9674
2.018 2.308 1.625 2802
2.196 2.511 1.759 952
2.110 2.413 1.683 8353
2.021 2.311 1.617 2067
2.199 2.515 1.749 1023
2.118 2.422 1.677 7445
2.207 2.524 1.743 2004
2.029 2.320 1.611 1596
2.135 2.441 1.678 10431
2.224 2.543 1.744 2731
2.041 2.334 1.609 1274
2.143 2.450 1.672 15509
2.232 2.552 1.737 2465
2.145 2.453 1.663 16829
2.235 2.556 1.728 2045
2.148 2.457 1.654 11798
2.238 2.559 1.718 3596
2.213 2.530 1.688 6290
2.123 2.428 1.624 4075
2.225 2.544 1.685 7380
2.135 2.442 1.622 2548
2.233 2.553 1.679 8928
2.143 2.450 1.616 1585
2.231 2.551 1.666 10273
2.321 2.654 1.728 1318
2.141 2.448 1.603 1004
2.234 2.554 1.656 11069
2.324 2.658 1.718 1716
2.242 2.563 1.649 7205
2.346 2.683 1.721 2458
2.278 2.605 1.662 4650
2.368 2.708 1.724 2247
2.187 2.501 1.601 916
2.281 2.608 1.652 7321
2.371 2.711 1.713 2858
2.190 2.504 1.591 987
2.284 2.611 1.642 9994
2.374 2.715 1.703 2614
2.183 2.497 1.575 992
2.301 2.631 1.642 8157
2.396 2.740 1.705 2073
2.318 2.651 1.641 7967
2.409 2.755 1.701 2724
2.316 2.648 1.628 7977
2.407 2.752 1.687 4461
2.319 2.652 1.618 6191
2.410 2.756 1.677 5545
2.341 2.677 1.620 4806
2.432 2.781 1.679 3856
2.349 2.686 1.613 5834
2.454 2.807 1.680 5036
2.452 2.804 1.666 6819
2.351 2.689 1.603 4028
2.544 2.909 1.724 1541
2.460 2.813 1.659 6268
2.552 2.918 1.716 2046
2.369 2.709 1.601 1752
2.468 2.822 1.651 7018
2.560 2.927 1.708 1973
2.376 2.717 1.594 803
2.471 2.825 1.640 8921
2.563 2.930 1.697 1922
2.479 2.834 1.632 8020
2.570 2.939 1.689 1547
2.472 2.826 1.616 6278
2.573 2.943 1.677 3928
2.586 2.957 1.672 6868
2.479 2.835 1.608 6390
2.497 2.855 1.606 6097
2.599 2.972 1.666 5903
2.602 2.975 1.655 4787
2.495 2.853 1.592 3442
2.600 2.973 1.641 7698
2.488 2.845 1.575 1556
2.702 3.089 1.701 997
2.602 2.976 1.629 8512
2.710 3.098 1.692 2267
2.649 3.029 1.643 5500
2.742 3.135 1.697 2157
2.557 2.924 1.590 1777
2.657 3.038 1.634 6262
2.750 3.144 1.687 2001
2.564 2.932 1.582 1324
2.665 3.047 1.626 6349
2.762 3.159 1.681 2476
2.572 2.941 1.573 944
2.663 3.045 1.611 5689
2.780 3.179 1.677 3059
2.873 3.285 1.729 866
2.670 3.054 1.602 4541
2.788 3.188 1.667 2751
2.881 3.294 1.719 1357
2.678 3.062 1.593 3487
2.810 3.214 1.666 2337
2.903 3.320 1.717 1288
2.686 3.071 1.584 3791
2.808 3.211 1.651 3177
2.902 3.318 1.702 2112
2.797 3.198 1.631 3979
2.684 3.069 1.570 3324
2.900 3.316 1.687 2627
2.790 3.190 1.613 5543
2.691 3.078 1.561 2158
2.883 3.297 1.663 2141
2.976 3.403 1.713 1239
2.807 3.210 1.609 6102
2.979 3.407 1.700 2493
2.704 3.092 1.554 1357
2.825 3.230 1.604 4999
2.987 3.416 1.690 3705
2.731 3.123 1.555 774
2.995 3.425 1.679 4299
2.862 3.273 1.610 2918
2.768 3.166 1.561 984
3.008 3.440 1.671 4559
2.899 3.316 1.615 3541
3.102 3.547 1.720 988
2.806 3.208 1.567 768
3.011 3.443 1.658 3328
2.907 3.324 1.605 2816
3.105 3.550 1.706 2439
3.098 3.542 1.687 3556
2.984 3.412 1.630 2814
2.890 3.305 1.582 975
3.081 3.523 1.664 5895
2.987 3.416 1.617 2652
3.099 3.544 1.658 6588
3.005 3.436 1.611 3611
3.112 3.558 1.649 6414
3.017 3.450 1.603 3159
3.114 3.562 1.635 8511
3.020 3.454 1.590 1648
3.244 3.709 1.698 768
3.112 3.559 1.619 9656
3.251 3.718 1.686 1163
3.115 3.562 1.606 7671
3.245 3.710 1.667 1636
3.128 3.577 1.597 5911
3.237 3.702 1.648 2361
3.131 3.580 1.583 4159
3.250 3.717 1.639 1831
3.119 3.566 1.562 3418
3.313 3.789 1.652 1459
3.126 3.575 1.551 2950
3.316 3.792 1.638 1728
3.284 3.755 1.607 3127
3.134 3.584 1.540 2077
3.379 3.864 1.650 797
3.287 3.758 1.593 3640
3.127 3.575 1.521 1375
3.382 3.867 1.635 1065
3.339 3.819 1.601 3195
3.134 3.584 1.510 773
3.357 3.839 1.593 3998
3.212 3.673 1.529 759
3.365 3.848 1.580 4218
3.460 3.957 1.621 1202
3.408 3.897 1.582 5287
3.503 4.006 1.623 1272
3.411 3.900 1.567 7278
3.506 4.009 1.608 1834
3.408 3.898 1.550 7882
3.504 4.007 1.590 2596
3.223 3.685 1.473 803
3.416 3.906 1.537 7228
3.512 4.016 1.577 3141
3.723 4.257 1.664 1133
3.225 3.688 1.458 1013
3.494 3.996 1.553 4742
3.590 4.105 1.592 3726
3.399 3.887 1.514 2682
3.726 4.261 1.648 2182
3.588 4.103 1.575 6392
3.492 3.993 1.536 3844
3.734 4.270 1.634 2319
3.396 3.884 1.497 1395
3.585 4.100 1.557 4405
3.490 3.990 1.519 3383
3.726 4.261 1.613 1966
3.842 4.394 1.660 1404
3.512 4.017 1.511 3401
3.714 4.247 1.591 2474
3.845 4.397 1.643 1944
3.608 4.126 1.549 1516
3.843 4.395 1.624 3692
3.747 4.285 1.586 2369
3.515 4.020 1.496 2199
3.611 4.129 1.533 1470
3.846 4.398 1.607 5088
3.750 4.288 1.570 2165
3.614 4.132 1.517 1146
3.947 4.514 1.646 854
3.849 4.401 1.590 6141
3.616 4.135 1.501 1669
3.717 4.251 1.540 1512
3.950 4.517 1.628 1070
3.857 4.410 1.575 5175
3.953 4.520 1.611 1698
3.619 4.138 1.486 1631
3.760 4.300 1.539 957
4.016 4.593 1.616 3319
3.895 4.454 1.571 3171
3.799 4.344 1.535 1340
4.143 4.737 1.663 1142
4.024 4.602 1.600 4512
3.872 4.428 1.545 2488
4.146 4.741 1.645 1653
3.761 4.301 1.504 999
4.022 4.599 1.581 4009
4.139 4.733 1.623 2310
3.865 4.419 1.524 2013
4.240 4.848 1.660 927
4.025 4.602 1.563 3397
4.126 4.718 1.600 3018
3.857 4.411 1.503 1534
4.243 4.852 1.641 1095
4.032 4.611 1.547 2956
4.149 4.745 1.589 2503
4.261 4.872 1.628 2456
3.626 4.147 1.404 1173
4.264 4.876 1.609 4603
4.045 4.626 1.533 3299
4.167 4.765 1.576 2640
3.629 4.150 1.388 1033
4.170 4.768 1.557 3535
4.267 4.879 1.590 3383
4.048 4.629 1.515 2073
3.631 4.152 1.372 819
4.173 4.772 1.539 3482
4.310 4.929 1.585 3116
4.035 4.615 1.492 883
4.298 4.914 1.561 4701
4.180 4.780 1.522 1348
4.295 4.912 1.541 5718
4.657 5.325 1.660 1001
4.288 4.903 1.519 4495
4.655 5.323 1.638 1673
4.326 4.947 1.511 4332
4.652 5.320 1.616 2660
4.510 5.157 1.570 1031
4.780 5.466 1.656 778
4.329 4.950 1.492 6587
4.645 5.312 1.592 2685
4.767 5.452 1.630 1067
4.512 5.160 1.550 852
4.331 4.953 1.473 6405
4.770 5.455 1.609 3217
4.627 5.291 1.565 2243
4.334 4.956 1.454 4749
4.773 5.458 1.588 4024
4.630 5.295 1.545 1492
4.870 5.569 1.618 800
4.341 4.964 1.436 2448
4.791 5.479 1.572 1938
4.950 5.660 1.620 1150
4.840 5.535 1.565 2654
4.942 5.652 1.595 1379
4.349 4.973 1.419 1355
4.853 5.549 1.546 2426
4.950 5.661 1.575 1386
4.756 5.438 1.518 1149
5.052 5.778 1.605 751
4.891 5.593 1.535 2443
5.153 5.892 1.610 1005
4.763 5.447 1.498 901
5.040 5.763 1.578 885
4.899 5.602 1.515 1635
5.217 5.966 1.605 1420
5.038 5.761 1.554 1087
5.220 5.969 1.582 1740
5.050 5.775 1.535 1531
4.927 5.635 1.501 1385
5.363 6.133 1.622 1127
5.058 5.784 1.514 1501
5.228 5.978 1.560 1495
5.361 6.130 1.597 1367
4.935 5.644 1.480 1124
5.364 6.133 1.573 2028
5.117 5.852 1.507 1394
5.266 6.022 1.547 1382
5.372 6.142 1.551 2598
5.274 6.031 1.525 2114
5.110 5.843 1.482 1283
5.597 6.401 1.611 1064
5.369 6.140 1.526 2463
5.246 5.999 1.494 1684
5.590 6.392 1.583 1490
5.467 6.251 1.551 1479
5.444 6.225 1.521 2798
5.346 6.113 1.496 2575
5.562 6.360 1.551 2192
5.243 5.996 1.470 1413
5.441 6.222 1.495 2972
5.570 6.369 1.528 2352
5.343 6.110 1.471 1869
5.667 6.481 1.552 1295
5.649 6.460 1.522 2089
5.444 6.225 1.472 1885
5.552 6.349 1.498 1227
5.804 6.637 1.560 1116
5.652 6.463 1.497 2321
5.791 6.622 1.531 1257
5.909 6.758 1.560 1167
5.446 6.228 1.448 1160
5.660 6.472 1.474 2321
6.211 7.102 1.604 1515
5.964 6.820 1.546 1498
6.113 6.990 1.581 1407
5.668 6.481 1.450 1857
6.208 7.100 1.576 1853
5.941 6.793 1.513 1749
6.069 6.941 1.543 1470
6.211 7.103 1.548 2306
5.948 6.802 1.488 1567
6.072 6.944 1.517 1410
5.670 6.484 1.425 1137
6.162 7.047 1.509 2730
5.966 6.823 1.466 1098
6.064 6.935 1.488 990
6.332 7.241 1.548 921
6.170 7.056 1.483 2404
6.330 7.239 1.518 1194
6.789 7.763 1.619 873
6.229 7.124 1.468 2348
6.338 7.247 1.492 973
6.116 6.994 1.444 968
6.524 7.460 1.532 913
6.237 7.132 1.442 2058
7.259 8.301 1.657 1109
6.815 7.793 1.563 1016
6.521 7.457 1.502 832
7.267 8.310 1.626 1801
6.245 7.141 1.416 1543
6.833 7.814 1.537 1154
7.056 8.068 1.582 969
7.270 8.314 1.594 2710
6.247 7.144 1.388 1122
7.115 8.136 1.563 1105
6.846 7.829 1.509 1043
7.273 8.317 1.562 2896
7.118 8.139 1.531 1427
6.337 7.247 1.378 1020
7.020 8.027 1.512 859
7.281 8.326 1.530 2609
7.126 8.148 1.501 1275
7.022 8.030 1.481 993
7.751 8.864 1.621 956
7.278 8.323 1.497 2543
7.009 8.015 1.447 1114
7.133 8.157 1.470 956
7.759 8.873 1.588 940
7.281 8.326 1.465 2908
6.991 7.994 1.412 984
7.917 9.054 1.582 975
7.819 8.941 1.564 854
7.278 8.323 1.432 3003
7.847 8.974 1.534 915
7.180 8.210 1.415 792
7.946 9.086 1.551 769
7.281 8.326 1.400 2541
7.850 8.977 1.499 841
7.948 9.089 1.516 832
7.182 8.213 1.383 781
7.288 8.334 1.369 1911
7.987 9.134 1.487 977
7.190 8.222 1.352 836
7.780 8.897 1.452 763
7.290 8.337 1.337 1132
8.218 9.397 1.490 1094
7.954 9.095 1.446 859
8.555 9.782 1.545 799
8.179 9.353 1.447 1066
8.573 9.803 1.510 974
8.298 9.489 1.466 851
8.474 9.691 1.494 765
8.181 9.356 1.411 1248
8.565 9.794 1.471 1134
8.290 9.480 1.428 779
8.184 9.359 1.375 1535
8.568 9.797 1.433 1356
8.282 9.471 1.389 814
8.186 9.361 1.338 1720
8.575 9.806 1.396 1274
8.285 9.474 1.353 943
8.188 9.364 1.302 3051
8.287 9.477 1.316 1208
8.572 9.803 1.357 1015
8.191 9.366 1.266 3955
8.294 9.485 1.280 1402
8.575 9.805 1.319 788
8.188 9.363 1.229 3330
8.317 9.511 1.247 1839
8.252 9.436 1.201 3663
8.351 9.549 1.214 1410
8.153 9.324 1.188 992
8.259 9.445 1.165 3016
8.160 9.332 1.153 1649
8.358 9.557 1.178 1251
8.297 9.488 1.133 2600
8.194 9.370 1.121 2306
8.438 9.649 1.150 862
8.310 9.502 1.098 2504
8.211 9.390 1.086 1420
8.440 9.651 1.113 1302
8.312 9.505 1.061 1985
8.441 9.653 1.075 1677
8.213 9.392 1.050 1352
8.318 9.512 1.025 1877
8.443 9.655 1.038 1448
8.220 9.400 1.014 1078
8.320 9.514 0.988 1327
8.445 9.657 1.001 944
8.379 9.582 0.957 895
8.386 9.589 0.920 927
0.454 0.519 0.108 779
0.454 0.519 0.106 877
0.453 0.519 0.104 915
0.453 0.518 0.102 949
0.453 0.518 0.100 919
0.453 0.518 0.099 809
1.486 1.690 1.713 4554
1.566 1.782 1.800 1709
1.489 1.693 1.706 9108
1.570 1.785 1.794 3573
1.492 1.697 1.700 9108
1.573 1.789 1.787 3728
1.499 1.705 1.698 7852
1.580 1.797 1.785 6042
1.575 1.791 1.769 9545
1.493 1.699 1.682 5396
1.578 1.795 1.762 12284
1.496 1.702 1.676 3614
1.577 1.793 1.751 15086
1.495 1.701 1.665 1626
1.659 1.886 1.836 1513
1.580 1.797 1.744 15086
1.494 1.699 1.654 1532
1.662 1.890 1.829 1513
1.583 1.800 1.737 13709
1.665 1.894 1.822 1745
1.501 1.707 1.652 1645
1.586 1.804 1.730 12332
1.668 1.897 1.814 1976
1.504 1.710 1.646 1854
1.589 1.807 1.723 12626
1.672 1.901 1.807 1747
1.507 1.714 1.639 1451
1.588 1.806 1.712 12958
1.670 1.900 1.796 2206
1.505 1.712 1.628 820
1.595 1.814 1.709 9793
1.678 1.908 1.793 1886
1.603 1.823 1.707 6946
1.685 1.917 1.790 1745
1.623 1.846 1.717 8199
1.631 1.855 1.715 9872
1.634 1.858 1.708 9904
1.717 1.953 1.789 796
1.641 1.866 1.705 12601
1.724 1.961 1.786 798
1.648 1.875 1.702 16244
1.732 1.970 1.783 876
1.656 1.883 1.699 16195
1.740 1.979 1.780 1513
1.663 1.892 1.696 16947
1.747 1.987 1.777 1960
1.666 1.895 1.689 15826
1.750 1.991 1.769 2676
1.674 1.904 1.686 14794
1.758 1.999 1.766 3076
1.677 1.907 1.679 12482
1.761 2.003 1.758 3331
1.684 1.915 1.676 10332
1.777 2.022 1.763 3787
1.691 1.924 1.672 7634
1.781 2.025 1.755 4491
1.717 1.953 1.686 7083
1.802 2.049 1.764 3864
1.787 2.032 1.740 8096
1.702 1.936 1.662 5775
1.790 2.036 1.732 10997
1.705 1.939 1.655 5508
1.875 2.133 1.809 758
1.793 2.039 1.724 12994
1.708 1.942 1.647 4495
1.878 2.136 1.801 795
1.796 2.043 1.716 14992
1.711 1.946 1.640 3481
1.881 2.140 1.793 833
1.799 2.046 1.709 14526
1.713 1.949 1.632 2399
1.885 2.144 1.785 1304
1.802 2.050 1.701 14061
1.888 2.147 1.777 1775
1.716 1.952 1.625 1318
1.810 2.058 1.697 15586
1.895 2.156 1.772 1825
1.724 1.960 1.621 1416
1.813 2.062 1.689 17526
1.899 2.159 1.764 2271
1.727 1.964 1.614 941
1.816 2.065 1.681 14548
1.902 2.163 1.756 3087
1.809 2.058 1.666 11257
1.896 2.156 1.740 4203
1.808 2.056 1.654 11798
1.912 2.175 1.743 3967
1.815 2.065 1.650 10738
1.916 2.179 1.735 4034
1.823 2.073 1.646 10013
1.919 2.182 1.727 4102
1.826 2.076 1.638 7537
1.922 2.186 1.718 5597
1.925 2.189 1.710 7092
1.824 2.075 1.626 4180
1.932 2.198 1.706 8072
1.831 2.083 1.622 3067
1.945 2.212 1.705 8203
1.839 2.091 1.618 1932
2.032 2.311 1.776 1003
1.957 2.226 1.704 7113
1.869 2.126 1.632 1511
2.044 2.325 1.775 977
1.946 2.213 1.684 6635
2.034 2.313 1.755 2154
1.858 2.114 1.613 866
1.949 2.217 1.676 6455
2.037 2.316 1.746 2652
1.952 2.220 1.667 6788
2.040 2.320 1.737 2985
1.964 2.234 1.666 6890
2.052 2.334 1.736 4874
2.037 2.316 1.712 7697
1.948 2.216 1.643 4263
2.040 2.320 1.703 11179
1.951 2.219 1.634 3336
2.047 2.329 1.698 12592
1.959 2.228 1.630 2198
2.136 2.429 1.767 997
2.055 2.337 1.693 10610
1.966 2.237 1.625 2025
2.143 2.438 1.761 1366
2.058 2.341 1.684 8625
2.147 2.441 1.752 2357
1.969 2.240 1.616 2098
2.098 2.387 1.703 7832
2.009 2.286 1.636 3649
2.187 2.488 1.771 880
2.111 2.401 1.701 9278
2.022 2.299 1.634 2306
2.200 2.502 1.768 858
2.114 2.404 1.692 9659
2.025 2.303 1.625 2051
2.203 2.505 1.759 1106
2.117 2.407 1.683 7342
2.027 2.306 1.617 1459
2.206 2.509 1.749 1129
2.124 2.416 1.677 5783
2.214 2.518 1.743 2347
2.035 2.315 1.611 1142
2.137 2.430 1.675 9247
2.226 2.532 1.740 3556
2.047 2.328 1.609 933
