4.012 0.231 1.471 13609
4.016 0.232 1.460 11009
4.020 0.232 1.448 10346
4.031 0.232 1.439 13973
4.042 0.233 1.430 10788
4.053 0.234 1.421 4313
4.020 0.232 1.397 2538
3.993 0.230 1.376 1758
4.057 0.234 1.383 2531
4.053 0.234 1.369 6234
4.064 0.234 1.360 7988
4.068 0.235 1.348 5787
4.071 0.235 1.336 3596
4.090 0.236 1.329 4635
4.093 0.236 1.317 5908
4.097 0.236 1.305 5977
4.092 0.236 1.291 7083
4.088 0.236 1.277 10005
4.084 0.236 1.263 9282
4.087 0.236 1.252 6329
4.098 0.236 1.242 4678
4.116 0.237 1.234 3412
5.986 0.345 1.739 804
4.135 0.238 1.226 3771
5.983 0.345 1.719 1412
5.838 0.337 1.681 900
5.281 0.305 1.532 757
4.130 0.238 1.213 3468
5.995 0.346 1.704 2155
5.850 0.337 1.666 1823
4.134 0.238 1.201 5381
6.008 0.347 1.688 3379
5.855 0.338 1.649 1882
4.121 0.238 1.185 6408
6.035 0.348 1.677 3475
5.844 0.337 1.628 1505
5.300 0.306 1.488 830
4.117 0.237 1.171 6022
6.040 0.348 1.659 5179
5.748 0.332 1.585 2206
5.894 0.340 1.622 893
6.029 0.348 1.638 6125
4.127 0.238 1.161 4468
5.745 0.331 1.567 2679
6.174 0.356 1.675 1387
6.010 0.347 1.615 4862
5.757 0.332 1.552 2938
4.130 0.238 1.149 2042
6.156 0.355 1.651 1807
5.769 0.333 1.537 4021
6.007 0.346 1.596 3158
6.152 0.355 1.631 1918
4.133 0.238 1.137 1284
5.773 0.333 1.521 5334
5.995 0.346 1.574 2731
6.141 0.354 1.610 2239
4.144 0.239 1.127 897
5.838 0.337 1.519 6371
6.023 0.347 1.563 2169
6.169 0.356 1.597 1684
5.842 0.337 1.502 8835
6.134 0.354 1.571 1807
5.696 0.329 1.467 992
5.988 0.345 1.536 868
5.846 0.337 1.485 7915
6.139 0.354 1.553 1832
5.992 0.346 1.519 999
5.700 0.329 1.451 937
5.842 0.337 1.466 6170
5.989 0.345 1.500 1737
6.143 0.354 1.535 1468
6.644 0.383 1.650 910
5.838 0.337 1.447 6844
5.985 0.345 1.481 3605
6.139 0.354 1.515 1076
7.003 0.404 1.711 1075
5.842 0.337 1.430 8099
5.989 0.345 1.463 3690
7.007 0.404 1.690 1233
6.197 0.357 1.510 926
5.846 0.337 1.414 8004
5.993 0.346 1.446 3073
7.012 0.404 1.670 1387
7.382 0.426 1.752 1117
5.850 0.337 1.397 5466
5.996 0.346 1.428 2374
7.394 0.426 1.732 1761
7.016 0.405 1.650 1350
5.861 0.338 1.381 3436
7.399 0.427 1.710 1880
6.008 0.347 1.413 1619
7.245 0.418 1.677 1316
5.857 0.338 1.363 2335
7.411 0.427 1.691 1721
6.004 0.346 1.394 1692
7.620 0.440 1.735 1349
7.416 0.428 1.669 2380
7.633 0.440 1.714 1708
5.953 0.343 1.365 1680
7.780 0.449 1.745 1542
7.761 0.448 1.717 3702
7.428 0.428 1.649 2858
5.957 0.344 1.348 1579
7.614 0.439 1.687 1574
7.766 0.448 1.695 6072
7.440 0.429 1.629 2956
7.618 0.439 1.665 1608
3.985 0.230 0.932 1137
7.770 0.448 1.672 7582
7.444 0.429 1.607 2708
7.623 0.440 1.643 1387
3.987 0.230 0.920 937
7.775 0.448 1.650 6680
7.456 0.430 1.587 2530
7.961 0.459 1.686 1734
7.627 0.440 1.621 1116
7.779 0.449 1.627 5951
8.198 0.473 1.708 2308
7.973 0.460 1.664 2189
7.445 0.429 1.563 1688
7.799 0.450 1.607 5458
8.203 0.473 1.684 3504
7.379 0.426 1.528 2324
7.985 0.461 1.643 2060
8.207 0.473 1.660 4831
7.834 0.452 1.591 3243
7.376 0.425 1.505 2834
7.989 0.461 1.620 2070
8.204 0.473 1.635 6136
7.838 0.452 1.568 4105
7.380 0.426 1.484 3393
7.986 0.461 1.595 2231
8.216 0.474 1.612 6566
7.827 0.451 1.542 4806
7.383 0.426 1.462 3121
7.990 0.461 1.572 2183
8.228 0.475 1.590 7798
7.831 0.452 1.519 2804
7.380 0.426 1.439 2558
7.994 0.461 1.548 1590
8.232 0.475 1.566 9117
7.383 0.426 1.418 2188
8.598 0.496 1.630 1809
7.850 0.453 1.499 1322
8.236 0.475 1.542 7076
8.618 0.497 1.608 2636
7.387 0.426 1.396 1527
8.766 0.506 1.633 1281
8.225 0.474 1.516 3626
8.583 0.495 1.576 2695
8.731 0.504 1.601 1326
7.858 0.453 1.454 1159
8.572 0.494 1.548 2793
8.268 0.477 1.498 2098
8.720 0.503 1.573 1886
9.040 0.521 1.626 1095
8.521 0.491 1.515 2234
8.716 0.503 1.546 1940
8.264 0.477 1.473 1452
7.156 0.413 1.293 900
8.619 0.497 1.505 2993
8.470 0.489 1.481 1481
8.767 0.506 1.528 1261
7.042 0.406 1.253 958
8.607 0.496 1.477 3632
8.755 0.505 1.500 1421
8.412 0.485 1.447 1219
8.263 0.477 1.424 763
8.564 0.494 1.445 3430
8.314 0.480 1.407 1499
8.712 0.503 1.468 1353
8.560 0.494 1.419 3456
8.318 0.480 1.383 1811
8.709 0.502 1.441 1352
4.207 0.243 0.764 879
8.665 0.500 1.409 2142
8.368 0.483 1.365 1877
8.517 0.491 1.387 1316
4.201 0.242 0.750 763
8.364 0.482 1.340 2956
8.599 0.496 1.374 1486
4.210 0.243 0.739 765
8.344 0.481 1.312 3621
8.602 0.496 1.349 1680
4.212 0.243 0.727 1065
8.332 0.481 1.286 3999
8.590 0.495 1.322 1637
4.214 0.243 0.715 1173
8.358 0.482 1.265 4260
8.507 0.491 1.285 1395
4.215 0.243 0.703 931
8.385 0.484 1.244 5163
8.236 0.475 1.224 926
8.534 0.492 1.263 905
8.396 0.484 1.220 3802
8.247 0.476 1.201 1409
8.415 0.485 1.198 3474
8.266 0.477 1.179 2323
8.426 0.486 1.174 3945
8.277 0.477 1.156 2313
8.421 0.486 1.149 3887
8.272 0.477 1.131 1315
8.400 0.485 1.122 4773
8.251 0.476 1.104 872
8.395 0.484 1.096 4977
8.246 0.476 1.079 1054
8.390 0.484 1.071 3717
8.241 0.475 1.054 1109
8.650 0.499 1.100 1021
8.424 0.486 1.050 2985
8.652 0.499 1.075 1706
8.267 0.477 1.033 1403
8.403 0.485 1.023 2928
8.655 0.499 1.050 1987
8.254 0.476 1.007 1115
8.414 0.485 0.999 2948
8.658 0.499 1.025 1636
8.264 0.477 0.984 996
8.988 0.518 1.059 782
8.416 0.485 0.975 2950
8.983 0.518 1.032 1185
8.676 0.500 1.001 990
8.419 0.486 0.951 2416
8.977 0.518 1.005 1022
8.678 0.501 0.976 837
8.429 0.486 0.927 1268
8.673 0.500 0.950 866
9.011 0.520 0.982 847
9.014 0.520 0.955 1073
8.463 0.488 0.905 960
8.754 0.505 0.932 755
9.016 0.520 0.929 1218
8.764 0.505 0.907 916
9.026 0.521 0.904 1177
9.099 0.525 0.883 1669
12.975 0.748 1.202 897
9.249 0.533 0.896 890
8.839 0.510 0.862 790
9.101 0.525 0.857 1295
12.970 0.748 1.164 1084
9.251 0.534 0.869 891
12.973 0.748 1.126 904
12.114 0.699 1.060 860
9.111 0.526 0.831 817
12.968 0.748 1.088 756
12.116 0.699 1.025 751
12.978 0.749 1.050 772
9.123 0.526 0.779 766
12.111 0.699 0.989 765
12.200 0.704 0.960 1050
12.989 0.749 1.013 979
12.991 0.749 0.975 1591
12.250 0.707 0.927 1080
12.986 0.749 0.937 2044
12.268 0.708 0.893 1126
12.996 0.750 0.900 2090
9.161 0.528 0.674 1027
12.278 0.708 0.857 1016
13.006 0.750 0.862 1822
9.163 0.528 0.648 1310
12.280 0.708 0.822 750
13.008 0.750 0.824 1429
9.164 0.529 0.621 1339
13.010 0.750 0.786 1136
9.166 0.529 0.594 1100
9.159 0.528 0.567 866
12.980 0.749 0.747 864
9.160 0.528 0.541 847
13.039 0.752 0.674 813
14.535 0.838 0.650 965
14.536 0.838 0.608 1140
14.537 0.838 0.566 894
2.350 0.127 1.786 3946
2.228 0.121 1.699 904
2.354 0.128 1.780 7892
2.232 0.121 1.692 1808
2.090 0.113 1.591 810
2.359 0.128 1.773 7892
2.237 0.121 1.686 1808
2.095 0.114 1.585 821
2.357 0.128 1.762 7590
2.500 0.136 1.862 894
2.099 0.114 1.579 889
2.235 0.121 1.675 874
2.356 0.128 1.750 7701
2.505 0.136 1.855 1395
2.103 0.114 1.573 945
2.354 0.128 1.739 6957
2.497 0.135 1.839 3019
2.107 0.114 1.567 859
2.359 0.128 1.733 6237
2.489 0.135 1.823 4919
2.105 0.114 1.557 778
2.363 0.128 1.726 6237
2.494 0.135 1.815 4919
2.109 0.114 1.551 780
2.485 0.135 1.799 5644
2.361 0.128 1.715 5158
2.107 0.114 1.540 800
2.490 0.135 1.792 6452
2.366 0.128 1.708 4107
2.111 0.114 1.534 800
2.488 0.135 1.781 8428
2.364 0.128 1.697 2650
2.115 0.115 1.528 840
2.487 0.135 1.769 10504
2.362 0.128 1.685 1452
2.119 0.115 1.522 880
2.498 0.135 1.766 10126
2.373 0.129 1.683 1208
2.123 0.115 1.516 812
2.509 0.136 1.764 10110
2.081 0.113 1.480 1057
2.384 0.129 1.681 825
2.514 0.136 1.756 10110
2.085 0.113 1.474 1331
2.519 0.137 1.749 9254
2.088 0.113 1.468 1605
2.523 0.137 1.742 8402
2.086 0.113 1.458 1664
2.515 0.136 1.726 10425
2.090 0.113 1.452 1756
2.641 0.143 1.808 1181
2.519 0.137 1.719 12739
2.093 0.113 1.446 1644
2.646 0.143 1.800 1643
2.524 0.137 1.712 13663
2.651 0.144 1.793 2108
2.097 0.114 1.440 1533
2.529 0.137 1.705 14588
2.656 0.144 1.785 2574
2.101 0.114 1.434 1301
2.533 0.137 1.697 11714
2.660 0.144 1.777 3282
2.098 0.114 1.424 1110
2.544 0.138 1.694 9120
2.672 0.145 1.774 3246
2.102 0.114 1.418 956
2.542 0.138 1.683 8739
2.670 0.145 1.762 4313
2.112 0.115 1.416 825
2.533 0.137 1.667 9130
2.661 0.144 1.746 5845
2.538 0.138 1.660 7769
2.666 0.145 1.739 6643
2.657 0.144 1.723 8241
2.529 0.137 1.645 5969
2.785 0.151 1.801 1452
2.668 0.145 1.719 7030
2.533 0.137 1.637 4028
2.797 0.152 1.797 1526
2.707 0.147 1.732 7372
2.510 0.136 1.614 2845
2.836 0.154 1.809 1470
2.711 0.147 1.724 6510
2.514 0.136 1.607 2558
2.840 0.154 1.801 2023
2.682 0.145 1.696 5988
2.825 0.153 1.781 2931
2.526 0.137 1.603 2321
2.687 0.146 1.689 5724
2.830 0.153 1.773 2388
2.530 0.137 1.596 1766
2.691 0.146 1.681 5459
2.821 0.153 1.757 2055
2.527 0.137 1.585 1091
2.702 0.146 1.677 5035
2.853 0.155 1.765 2112
2.531 0.137 1.578 939
2.741 0.149 1.689 5490
2.871 0.156 1.764 1963
2.759 0.150 1.689 5264
2.890 0.157 1.764 1802
2.812 0.152 1.709 5124
2.681 0.145 1.634 963
2.942 0.160 1.783 951
2.823 0.153 1.704 5043
2.954 0.160 1.778 1051
2.686 0.146 1.627 835
2.835 0.154 1.700 4208
2.966 0.161 1.774 1714
2.704 0.147 1.627 1018
2.867 0.155 1.707 4290
2.736 0.148 1.634 1712
2.998 0.163 1.781 1498
2.885 0.156 1.707 4564
3.017 0.164 1.780 1621
2.754 0.149 1.634 1391
2.897 0.157 1.702 5283
3.028 0.164 1.775 1617
2.765 0.150 1.630 857
2.992 0.162 1.743 6370
2.860 0.155 1.671 2172
3.003 0.163 1.739 9300
2.871 0.156 1.667 1979
3.008 0.163 1.730 10506
2.876 0.156 1.659 1937
3.012 0.163 1.721 8535
2.880 0.156 1.650 1717
3.017 0.164 1.713 6564
2.884 0.156 1.642 1497
3.029 0.164 1.708 5160
2.896 0.157 1.638 1710
3.040 0.165 1.703 5944
2.907 0.158 1.633 1536
3.045 0.165 1.694 8044
2.911 0.158 1.625 1238
3.042 0.165 1.682 8526
2.909 0.158 1.613 852
3.176 0.172 1.751 825
3.040 0.165 1.669 9075
3.173 0.172 1.738 1089
3.044 0.165 1.661 8999
3.178 0.172 1.729 908
3.077 0.167 1.666 9069
3.211 0.174 1.734 903
3.110 0.169 1.671 13671
3.244 0.176 1.739 995
3.121 0.169 1.666 15157
3.270 0.177 1.740 895
3.125 0.169 1.657 13115
3.303 0.179 1.745 1830
3.123 0.169 1.645 12181
3.307 0.179 1.735 2317
3.127 0.170 1.636 13661
3.333 0.181 1.736 2931
2.992 0.162 1.570 771
3.132 0.170 1.627 13433
3.345 0.181 1.730 4801
3.150 0.171 1.624 9216
3.350 0.182 1.720 5675
3.492 0.189 1.789 1305
3.015 0.163 1.559 881
3.183 0.173 1.629 7506
3.354 0.182 1.711 5654
3.497 0.190 1.779 1898
3.047 0.165 1.564 1379
3.187 0.173 1.620 5254
3.359 0.182 1.701 5226
3.502 0.190 1.769 2714
3.037 0.165 1.549 1464
3.363 0.182 1.691 5177
3.499 0.190 1.755 4025
3.213 0.174 1.621 2770
3.034 0.164 1.537 1580
3.411 0.185 1.702 6479
3.210 0.174 1.608 2246
3.547 0.192 1.765 1898
3.010 0.163 1.515 1837
3.415 0.185 1.692 7635
3.552 0.193 1.755 2976
2.999 0.163 1.499 2536
3.214 0.174 1.599 2124
3.442 0.187 1.692 5724
3.578 0.194 1.755 3594
3.003 0.163 1.491 2841
3.212 0.174 1.586 2730
3.576 0.194 1.741 3386
3.194 0.173 1.567 3253
3.007 0.163 1.482 2752
3.439 0.186 1.679 2541
3.523 0.191 1.705 2723
3.198 0.173 1.558 2705
3.011 0.163 1.474 2212
3.386 0.184 1.643 1567
3.448 0.187 1.659 3038
3.621 0.196 1.736 2553
3.202 0.174 1.549 1516
3.022 0.164 1.468 1493
3.654 0.198 1.739 3877
3.452 0.187 1.649 3197
3.019 0.164 1.456 1376
3.199 0.173 1.537 801
3.674 0.199 1.735 4177
3.457 0.187 1.639 2545
3.023 0.164 1.448 1628
3.584 0.194 1.683 3873
3.722 0.202 1.743 2253
3.019 0.164 1.436 1778
3.446 0.187 1.623 1119
3.625 0.197 1.688 6269
3.030 0.164 1.430 1623
3.763 0.204 1.748 1404
3.487 0.189 1.629 787
3.622 0.196 1.675 7191
3.760 0.204 1.734 1825
3.034 0.164 1.421 1014
3.656 0.198 1.677 6020
3.794 0.206 1.736 1310
3.517 0.191 1.618 1039
3.667 0.199 1.669 4960
3.806 0.206 1.728 1754
3.701 0.201 1.671 3378
3.839 0.208 1.729 2077
3.757 0.204 1.682 3955
3.768 0.204 1.674 4510
3.907 0.212 1.731 817
3.839 0.208 1.690 5151
3.850 0.209 1.682 4840
3.711 0.201 1.625 783
3.877 0.210 1.680 6923
3.738 0.203 1.624 1171
3.881 0.210 1.669 11065
3.742 0.203 1.613 797
3.878 0.210 1.654 10743
3.883 0.210 1.643 7766
3.858 0.209 1.621 8092
3.892 0.211 1.621 9563
3.896 0.211 1.610 12550
3.908 0.212 1.601 12321
3.912 0.212 1.590 6742
0.996 0.054 0.493 841
3.938 0.213 1.587 4463
0.990 0.054 0.487 884
3.942 0.214 1.576 6003
0.991 0.054 0.485 799
3.947 0.214 1.564 5888
3.936 0.213 1.547 5271
3.933 0.213 1.533 6625
3.944 0.214 1.525 6465
3.963 0.215 1.519 7071
3.982 0.216 1.512 9074
3.986 0.216 1.501 9407
3.990 0.216 1.489 9389
4.009 0.217 1.483 11094
4.013 0.218 1.471 11576
4.009 0.217 1.457 8563
4.020 0.218 1.448 8143
4.032 0.219 1.439 11996
4.035 0.219 1.427 9712
4.024 0.218 1.411 5212
4.013 0.218 1.395 4121
4.009 0.217 1.381 3902
4.012 0.218 1.369 4024
4.046 0.219 1.367 5010
4.065 0.220 1.360 6499
4.068 0.221 1.348 5976
4.072 0.221 1.336 4899
4.083 0.221 1.327 3900
4.094 0.222 1.317 3466
4.090 0.222 1.303 4082
4.086 0.221 1.289 5967
4.081 0.221 1.275 8477
4.085 0.221 1.263 8591
4.103 0.222 1.256 6796
4.114 0.223 1.246 6127
4.125 0.224 1.236 5714
4.136 0.224 1.226 4753
5.992 0.325 1.721 1055
5.839 0.317 1.681 814
3.991 0.216 1.188 797
4.147 0.225 1.217 3824
5.997 0.325 1.704 1760
5.851 0.317 1.666 1619
4.127 0.224 1.199 4756
6.001 0.325 1.686 2677
5.856 0.317 1.649 1836
3.981 0.216 1.161 768
4.122 0.223 1.185 5685
6.021 0.326 1.673 2781
5.837 0.316 1.626 1603
3.977 0.216 1.147 1211
4.117 0.223 1.171 6196
6.033 0.327 1.658 3993
5.750 0.312 1.585 3117
3.972 0.215 1.134 1187
4.120 0.223 1.159 5597
6.030 0.327 1.638 4681
5.746 0.312 1.567 3909
6.176 0.335 1.675 1114
5.750 0.312 1.550 4290
6.011 0.326 1.615 3902
4.131 0.224 1.149 3130
6.157 0.334 1.651 1212
5.762 0.312 1.535 5731
6.008 0.326 1.596 2747
4.126 0.224 1.135 1667
6.154 0.334 1.631 974
5.766 0.313 1.519 6871
6.004 0.325 1.576 2357
4.137 0.224 1.125 1135
6.150 0.333 1.612 935
5.816 0.315 1.513 5910
6.016 0.326 1.561 1713
5.843 0.317 1.502 7847
6.036 0.327 1.547 966
5.697 0.309 1.467 881
5.847 0.317 1.485 6794
5.701 0.309 1.451 988
6.124 0.332 1.549 782
5.843 0.317 1.466 5105
5.990 0.325 1.500 1218
5.840 0.317 1.447 5637
5.986 0.325 1.481 2662
5.843 0.317 1.430 6866
5.990 0.325 1.463 2777
7.008 0.380 1.690 817
5.839 0.317 1.412 7362
5.986 0.325 1.444 2689
7.013 0.380 1.670 954
5.843 0.317 1.395 5363
5.990 0.325 1.427 2301
7.388 0.401 1.730 1183
7.017 0.380 1.650 970
5.847 0.317 1.378 3559
5.994 0.325 1.409 2322
7.401 0.401 1.710 1192
7.238 0.392 1.676 1015
5.858 0.318 1.363 2422
6.005 0.326 1.394 1683
7.622 0.413 1.735 1521
7.413 0.402 1.691 982
7.626 0.413 1.712 1836
5.954 0.323 1.365 1744
7.773 0.421 1.743 1474
7.417 0.402 1.669 1352
7.763 0.421 1.717 3747
5.958 0.323 1.348 1934
7.437 0.403 1.651 1889
7.615 0.413 1.687 1614
7.767 0.421 1.695 6376
7.442 0.403 1.629 2190
7.620 0.413 1.665 1640
5.961 0.323 1.330 1223
7.772 0.421 1.672 8205
7.438 0.403 1.606 1970
7.624 0.413 1.643 1484
6.104 0.331 1.341 811
7.776 0.422 1.650 7522
7.435 0.403 1.583 1855
7.629 0.414 1.621 1255
7.233 0.392 1.543 978
7.780 0.422 1.627 6737
7.400 0.401 1.554 2325
8.200 0.445 1.708 1851
7.245 0.393 1.524 1108
7.800 0.423 1.607 5819
7.381 0.400 1.528 3081
8.212 0.445 1.685 2867
7.132 0.387 1.481 1262
8.209 0.445 1.660 4164
7.377 0.400 1.505 3506
7.797 0.423 1.583 3286
7.136 0.387 1.460 1354
8.205 0.445 1.635 5465
7.389 0.401 1.485 4199
7.832 0.425 1.566 3995
7.995 0.433 1.596 1300
8.217 0.445 1.612 5867
7.828 0.424 1.542 4613
7.385 0.400 1.462 3860
7.237 0.392 1.435 1499
8.222 0.446 1.589 7103
7.381 0.400 1.439 3117
7.832 0.425 1.519 2637
7.233 0.392 1.413 1537
8.234 0.446 1.566 8445
7.385 0.400 1.418 2669
8.607 0.467 1.631 1534
7.852 0.426 1.499 1296
8.238 0.447 1.542 6669
8.612 0.467 1.606 2294
7.388 0.401 1.396 1888
7.014 0.380 1.332 1303
8.234 0.446 1.517 3360
8.577 0.465 1.575 2704
7.033 0.381 1.315 1571
7.392 0.401 1.375 1142
8.581 0.465 1.550 3175
8.269 0.448 1.498 2207
7.052 0.382 1.297 1776
8.729 0.473 1.574 1480
8.601 0.466 1.527 2701
8.265 0.448 1.473 1687
7.048 0.382 1.275 1508
8.453 0.458 1.503 1139
8.620 0.467 1.505 3030
8.472 0.459 1.481 1825
7.036 0.381 1.252 1546
8.261 0.448 1.448 993
8.609 0.467 1.477 3579
8.421 0.457 1.448 2064
7.039 0.382 1.232 1044
8.757 0.475 1.500 905
8.566 0.464 1.445 3685
8.409 0.456 1.421 2021
8.714 0.472 1.468 1110
4.206 0.228 0.776 801
8.562 0.464 1.419 3405
8.398 0.455 1.394 1681
8.710 0.472 1.441 1066
4.207 0.228 0.764 959
8.378 0.454 1.366 1962
8.581 0.465 1.396 1961
4.209 0.228 0.752 930
8.373 0.454 1.341 3190
8.600 0.466 1.374 1443
8.330 0.452 1.310 3827
8.604 0.466 1.349 1426
8.325 0.451 1.285 4210
8.506 0.461 1.310 1318
8.384 0.454 1.268 3750
8.227 0.446 1.247 1093
8.532 0.463 1.288 939
8.387 0.455 1.244 4482
8.238 0.447 1.224 1410
8.296 0.450 1.207 3602
8.445 0.458 1.226 1915
8.291 0.449 1.182 4113
8.440 0.458 1.201 2108
8.286 0.449 1.157 3350
8.435 0.457 1.175 2543
8.415 0.456 1.148 3000
8.266 0.448 1.130 1979
8.402 0.455 1.122 4283
8.253 0.447 1.104 1279
8.397 0.455 1.096 4434
8.248 0.447 1.079 1572
8.392 0.455 1.071 3231
8.243 0.447 1.054 1890
8.651 0.469 1.100 891
8.434 0.457 1.051 2606
8.261 0.448 1.032 2201
8.654 0.469 1.075 1484
8.405 0.456 1.023 2781
8.256 0.448 1.007 1849
8.657 0.469 1.050 1695
8.408 0.456 0.999 2994
8.258 0.448 0.983 1561
8.659 0.469 1.025 1340
8.997 0.488 1.059 768
8.418 0.456 0.975 3140
8.961 0.486 1.029 1144
8.269 0.448 0.960 1136
8.567 0.464 0.990 857
8.420 0.456 0.951 2795
8.940 0.485 1.001 1351
8.423 0.457 0.926 1473
8.934 0.484 0.974 937
8.675 0.470 0.950 791
9.023 0.489 0.956 1185
8.464 0.459 0.905 972
8.763 0.475 0.932 918
9.018 0.489 0.929 1474
8.766 0.475 0.907 903
9.028 0.489 0.904 1393
8.673 0.470 0.873 762
8.516 0.462 0.860 756
9.038 0.490 0.878 1528
8.510 0.461 0.835 861
12.977 0.704 1.202 809
9.040 0.490 0.852 2114
12.972 0.703 1.164 943
9.245 0.501 0.868 848
8.717 0.473 0.826 771
9.034 0.490 0.825 2505
12.975 0.703 1.126 925
12.116 0.657 1.060 877
9.239 0.501 0.841 830
9.044 0.490 0.799 2231
12.962 0.703 1.087 965
12.119 0.657 1.025 813
9.265 0.502 0.815 760
9.038 0.490 0.772 1518
12.981 0.704 1.050 1129
9.283 0.503 0.790 805
12.121 0.657 0.990 791
12.983 0.704 1.013 1192
12.210 0.662 0.960 886
9.032 0.490 0.746 877
12.986 0.704 0.975 1540
12.213 0.662 0.925 999
12.988 0.704 0.937 2001
12.223 0.663 0.890 1048
9.154 0.496 0.700 764
12.998 0.705 0.900 2152
9.155 0.496 0.674 1298
12.241 0.664 0.855 1010
13.001 0.705 0.862 1924
9.157 0.496 0.647 1641
9.158 0.496 0.621 1654
12.995 0.704 0.823 1503
9.160 0.497 0.594 1470
13.005 0.705 0.786 1465
13.006 0.705 0.748 1373
9.161 0.497 0.567 1134
13.008 0.705 0.710 1070
9.154 0.496 0.540 986
10.923 0.592 0.618 910
14.288 0.775 0.767 855
14.281 0.774 0.725 1204
13.026 0.706 0.673 898
10.933 0.593 0.587 789
14.283 0.774 0.683 1171
13.019 0.706 0.635 820
14.277 0.774 0.641 1032
14.537 0.788 0.650 1010
14.539 0.788 0.608 1158
14.373 0.779 0.603 1026
14.540 0.788 0.566 941
14.382 0.780 0.561 807
2.356 0.120 1.791 4317
2.234 0.114 1.703 920
2.361 0.121 1.784 8634
2.239 0.114 1.697 1841
2.366 0.121 1.778 8634
2.243 0.114 1.691 1841
2.351 0.120 1.757 8207
2.474 0.126 1.844 1309
2.350 0.120 1.746 8467
2.486 0.127 1.841 1637
2.354 0.120 1.739 7409
2.497 0.127 1.839 3169
2.352 0.120 1.728 6353
2.502 0.128 1.832 4734
2.357 0.120 1.721 6353
2.507 0.128 1.824 4734
2.368 0.121 1.719 5221
2.499 0.128 1.808 5076
2.497 0.127 1.797 5687
2.373 0.121 1.712 4091
2.482 0.127 1.776 7941
2.358 0.120 1.692 2160
2.487 0.127 1.769 10470
2.362 0.121 1.685 1242
2.498 0.128 1.766 10393
2.373 0.121 1.683 1100
2.090 0.107 1.494 797
2.510 0.128 1.764 10762
2.088 0.107 1.484 1104
2.384 0.122 1.681 875
2.514 0.128 1.756 10762
2.092 0.107 1.478 1210
2.519 0.129 1.749 9481
2.082 0.106 1.464 1370
2.517 0.128 1.738 8183
2.093 0.107 1.462 1639
2.515 0.128 1.726 10630
2.097 0.107 1.456 1926
2.641 0.135 1.808 1099
2.520 0.129 1.719 13094
2.100 0.107 1.450 1750
2.646 0.135 1.800 1468
2.524 0.129 1.712 14433
2.651 0.135 1.793 1812
2.111 0.108 1.448 1585
2.529 0.129 1.705 15772
2.656 0.136 1.785 2157
2.108 0.108 1.438 1226
2.534 0.129 1.697 12806
2.661 0.136 1.777 2583
2.098 0.107 1.424 943
2.545 0.130 1.694 10018
2.672 0.136 1.774 2413
2.109 0.108 1.422 847
2.543 0.130 1.683 9492
2.670 0.136 1.762 3535
2.113 0.108 1.416 769
2.534 0.129 1.667 9526
2.662 0.136 1.746 5489
2.545 0.130 1.664 8022
2.673 0.136 1.743 5664
2.657 0.136 1.723 8259
2.529 0.129 1.645 5721
2.786 0.142 1.801 1504
2.662 0.136 1.715 7045
2.533 0.129 1.637 3842
2.791 0.142 1.793 1791
2.714 0.139 1.736 8108
2.511 0.128 1.614 2615
2.843 0.145 1.813 1434
2.732 0.139 1.736 7262
2.522 0.129 1.611 2355
2.861 0.146 1.813 1401
2.744 0.140 1.733 6806
2.526 0.129 1.603 2143
2.873 0.147 1.809 1416
2.755 0.141 1.729 6326
2.626 0.134 1.652 1782
2.885 0.147 1.805 1518
2.496 0.127 1.576 908
2.767 0.141 1.725 5912
2.896 0.148 1.801 1714
2.637 0.135 1.649 1446
2.757 0.141 1.709 5521
2.887 0.147 1.784 1643
2.628 0.134 1.633 869
2.748 0.140 1.693 5628
2.879 0.147 1.768 1725
2.767 0.141 1.693 5529
2.897 0.148 1.768 1493
2.812 0.144 1.709 5564
2.943 0.150 1.783 858
2.682 0.137 1.634 840
2.824 0.144 1.704 5637
2.955 0.151 1.778 1060
2.679 0.137 1.623 759
2.849 0.145 1.708 4994
2.980 0.152 1.782 1537
2.718 0.139 1.634 1063
2.881 0.147 1.715 6897
2.750 0.140 1.642 1658
3.012 0.154 1.788 1045
2.893 0.148 1.711 7907
2.761 0.141 1.638 1331
3.024 0.154 1.784 1212
2.897 0.148 1.702 8970
3.029 0.155 1.775 1515
2.766 0.141 1.630 775
2.909 0.148 1.698 7716
3.041 0.155 1.770 1973
2.997 0.153 1.735 10179
2.865 0.146 1.663 2201
3.008 0.154 1.730 11516
2.876 0.147 1.659 2523
3.013 0.154 1.721 9404
2.880 0.147 1.650 2490
3.018 0.154 1.713 7293
2.885 0.147 1.642 2456
3.029 0.155 1.708 5531
2.896 0.148 1.638 2784
3.034 0.155 1.699 5644
2.901 0.148 1.629 2217
3.038 0.155 1.690 7366
2.905 0.148 1.621 2100
3.036 0.155 1.678 8598
2.902 0.148 1.609 1182
3.169 0.162 1.747 1069
3.040 0.155 1.669 9791
3.174 0.162 1.738 1466
3.045 0.155 1.661 9641
3.179 0.162 1.729 1565
3.070 0.157 1.662 8315
3.204 0.164 1.730 1348
3.110 0.159 1.671 12914
3.244 0.166 1.739 878
3.114 0.159 1.662 14496
3.299 0.168 1.754 875
3.126 0.160 1.657 12460
3.303 0.169 1.745 1647
3.130 0.160 1.648 12412
3.308 0.169 1.735 1948
3.135 0.160 1.639 14362
3.334 0.170 1.736 2587
3.132 0.160 1.627 13384
3.346 0.171 1.730 4259
3.151 0.161 1.624 8090
3.343 0.171 1.717 4571
3.493 0.178 1.789 1282
3.191 0.163 1.632 7083
3.341 0.170 1.704 4258
3.498 0.179 1.779 1975
3.055 0.156 1.568 1171
3.202 0.163 1.627 5566
3.352 0.171 1.698 4084
3.495 0.178 1.765 3052
3.066 0.156 1.562 1038
3.493 0.178 1.752 4805
3.199 0.163 1.614 4443
3.357 0.171 1.688 4411
2.999 0.153 1.520 1305
3.483 0.178 1.735 5856
3.196 0.163 1.601 4481
3.347 0.171 1.672 3220
3.010 0.154 1.515 2175
3.430 0.175 1.698 6724
3.201 0.163 1.592 3882
3.567 0.182 1.762 2409
3.007 0.153 1.503 2356
3.449 0.176 1.695 5737
3.198 0.163 1.580 4643
3.586 0.183 1.758 3190
3.011 0.154 1.494 2081
3.195 0.163 1.567 4777
3.475 0.177 1.695 3864
3.612 0.184 1.757 2681
3.008 0.153 1.482 1571
3.199 0.163 1.558 3545
3.530 0.180 1.708 3500
3.393 0.173 1.646 2062
3.004 0.153 1.470 1430
3.448 0.176 1.659 3432
3.622 0.185 1.736 2903
3.008 0.154 1.462 1908
3.210 0.164 1.552 1908
3.648 0.186 1.736 4197
3.453 0.176 1.649 3264
3.012 0.154 1.453 1952
3.207 0.164 1.540 977
3.667 0.187 1.732 4571
3.464 0.177 1.642 2241
3.016 0.154 1.444 1938
3.204 0.164 1.527 781
3.672 0.187 1.721 4094
3.534 0.180 1.661 2377
3.020 0.154 1.436 1701
3.633 0.185 1.692 5397
3.771 0.192 1.751 1771
3.023 0.154 1.427 968
3.495 0.178 1.632 882
3.644 0.186 1.684 5949
3.782 0.193 1.744 1641
3.506 0.179 1.625 1262
3.671 0.187 1.683 5927
3.533 0.180 1.624 1549
3.809 0.194 1.742 1300
3.675 0.188 1.672 5376
3.821 0.195 1.734 1782
3.694 0.189 1.668 3610
3.833 0.196 1.726 2617
3.837 0.196 1.715 4545
3.699 0.189 1.657 2737
3.842 0.196 1.704 5919
3.703 0.189 1.647 2162
3.847 0.196 1.693 6034
3.708 0.189 1.636 845
3.858 0.197 1.685 5601
3.870 0.198 1.677 7810
3.875 0.198 1.666 12098
3.735 0.191 1.610 761
3.879 0.198 1.654 11689
3.739 0.191 1.599 775
3.861 0.197 1.635 8668
3.866 0.197 1.623 9339
3.877 0.198 1.615 9880
3.889 0.198 1.607 11952
3.901 0.199 1.598 11714
0.988 0.050 0.493 804
3.912 0.200 1.590 6293
0.989 0.050 0.490 948
3.931 0.201 1.584 4302
0.990 0.051 0.487 980
3.936 0.201 1.573 6269
0.991 0.051 0.485 892
3.925 0.200 1.556 7261
3.922 0.200 1.542 7026
3.933 0.201 1.533 8080
3.937 0.201 1.522 7860
3.956 0.202 1.516 7739
3.975 0.203 1.510 9381
3.987 0.203 1.501 10114
3.983 0.203 1.487 9450
3.994 0.204 1.478 9868
4.006 0.204 1.469 10328
4.010 0.205 1.457 7149
4.014 0.205 1.446 6473
4.025 0.205 1.437 9459
4.021 0.205 1.423 8274
4.017 0.205 1.409 6653
3.998 0.204 1.390 6983
4.002 0.204 1.378 6570
4.021 0.205 1.371 6319
4.032 0.206 1.362 5210
4.058 0.207 1.357 4957
4.062 0.207 1.346 5844
4.058 0.207 1.332 5991
4.069 0.208 1.322 3586
4.095 0.209 1.317 1830
4.091 0.209 1.303 3247
4.086 0.209 1.289 5071
4.082 0.208 1.275 6219
4.093 0.209 1.266 7602
4.112 0.210 1.258 8813
4.115 0.210 1.246 8397
3.970 0.203 1.207 750
4.118 0.210 1.234 5682
3.973 0.203 1.195 838
5.714 0.292 1.664 754
4.136 0.211 1.226 2893
3.991 0.204 1.188 1192
5.726 0.292 1.650 769
4.132 0.211 1.213 3184
5.852 0.299 1.666 1189
5.998 0.306 1.704 1143
3.987 0.203 1.174 789
4.112 0.210 1.195 4608
6.002 0.306 1.686 1778
5.834 0.298 1.643 1515
4.107 0.210 1.181 6563
5.746 0.293 1.602 2182
5.984 0.305 1.663 2093
4.111 0.210 1.169 7704
5.751 0.293 1.585 3934
6.034 0.308 1.658 2755
3.965 0.202 1.132 965
4.106 0.210 1.155 5335
5.739 0.293 1.565 4565
6.031 0.308 1.638 2910
5.885 0.300 1.602 1309
5.751 0.294 1.550 4829
4.124 0.210 1.147 2682
6.012 0.307 1.615 2548
6.158 0.314 1.651 784
5.763 0.294 1.535 6559
6.016 0.307 1.598 1962
4.135 0.211 1.137 1713
5.759 0.294 1.517 7454
6.013 0.307 1.578 1650
5.763 0.294 1.500 5825
5.909 0.302 1.535 1639
6.056 0.309 1.570 836
5.844 0.298 1.502 5638
5.698 0.291 1.467 765
5.763 0.294 1.465 5166
5.910 0.302 1.499 1286
5.767 0.294 1.448 5423
5.921 0.302 1.484 1525
5.771 0.295 1.432 4695
5.956 0.304 1.474 2363
5.837 0.298 1.429 5035
5.983 0.305 1.461 1967
5.840 0.298 1.412 5968
5.987 0.306 1.444 1700
5.844 0.298 1.395 4773
5.991 0.306 1.427 1610
5.817 0.297 1.371 4475
5.964 0.304 1.403 2236
7.618 0.389 1.757 869
5.836 0.298 1.358 2981
5.983 0.305 1.389 1629
7.623 0.389 1.735 1376
5.948 0.304 1.363 1851
7.635 0.390 1.714 1623
5.801 0.296 1.333 1279
7.782 0.397 1.745 1003
7.764 0.396 1.717 3204
5.951 0.304 1.346 2443
7.617 0.389 1.687 1401
5.804 0.296 1.316 1306
7.768 0.396 1.695 5806
5.955 0.304 1.329 1820
7.621 0.389 1.665 1425
7.435 0.379 1.628 1382
7.773 0.397 1.672 7856
7.416 0.378 1.601 1462
5.857 0.299 1.292 1304
7.626 0.389 1.643 1299
7.777 0.397 1.650 7411
7.413 0.378 1.578 1831
7.234 0.369 1.543 1470
7.630 0.389 1.621 1141
7.782 0.397 1.627 6525
7.409 0.378 1.555 2827
7.246 0.370 1.524 1591
8.201 0.419 1.708 1169
7.794 0.398 1.606 5343
7.382 0.377 1.528 3353
7.133 0.364 1.481 2269
8.213 0.419 1.685 1886
7.378 0.377 1.505 3696
7.798 0.398 1.583 3016
8.210 0.419 1.660 2963
7.130 0.364 1.459 2391
7.390 0.377 1.485 4501
8.207 0.419 1.635 4081
7.833 0.400 1.566 3502
7.126 0.364 1.436 1636
8.219 0.419 1.612 4449
7.386 0.377 1.462 4106
7.822 0.399 1.541 3819
7.238 0.369 1.435 1748
8.223 0.420 1.589 5493
7.374 0.376 1.438 3244
7.834 0.400 1.519 2086
7.226 0.369 1.412 1432
8.227 0.420 1.565 6614
7.378 0.377 1.417 2659
6.950 0.355 1.342 1618
8.601 0.439 1.630 1567
8.239 0.420 1.542 5320
6.969 0.356 1.324 2204
8.613 0.440 1.606 1948
7.390 0.377 1.396 1825
8.235 0.420 1.517 2657
8.578 0.438 1.575 2154
7.042 0.359 1.316 1779
7.191 0.367 1.341 1256
8.583 0.438 1.550 2827
7.163 0.366 1.315 2056
8.270 0.422 1.498 2004
7.015 0.358 1.290 1417
8.602 0.439 1.527 2576
7.158 0.365 1.293 1917
8.274 0.422 1.474 1678
8.423 0.430 1.498 1328
8.513 0.434 1.487 2553
8.364 0.427 1.464 1565
7.013 0.358 1.248 1500
8.661 0.442 1.511 1308
8.610 0.439 1.477 3022
8.423 0.430 1.448 2776
6.993 0.357 1.224 1401
8.274 0.422 1.425 789
8.567 0.437 1.445 3452
8.411 0.429 1.421 2528
6.996 0.357 1.204 1127
8.716 0.445 1.468 780
8.563 0.437 1.419 2975
8.399 0.429 1.394 1933
8.395 0.428 1.369 1988
8.582 0.438 1.396 1673
8.383 0.428 1.342 3143
8.594 0.439 1.373 1198
8.316 0.424 1.308 4048
8.504 0.434 1.334 1131
8.319 0.425 1.284 4405
8.468 0.432 1.304 1321
8.170 0.417 1.263 792
8.393 0.428 1.269 3202
8.220 0.420 1.246 1748
8.388 0.428 1.244 3493
8.224 0.420 1.222 1843
8.297 0.423 1.207 4270
8.446 0.431 1.226 1290
8.293 0.423 1.182 4897
8.442 0.431 1.201 1286
8.288 0.423 1.157 4116
8.437 0.431 1.175 1485
8.275 0.422 1.131 2760
8.424 0.430 1.149 2024
8.396 0.428 1.121 3547
8.239 0.420 1.102 1756
8.398 0.429 1.096 3508
8.249 0.421 1.079 2167
8.252 0.421 1.055 2856
8.401 0.429 1.072 2535
8.255 0.421 1.031 3049
8.427 0.430 1.050 2233
8.655 0.442 1.075 1153
8.406 0.429 1.023 2699
8.257 0.421 1.007 2563
8.658 0.442 1.050 1303
8.409 0.429 0.999 2984
8.260 0.422 0.983 2076
8.661 0.442 1.025 992
8.419 0.430 0.975 3174
8.270 0.422 0.960 1495
8.569 0.437 0.990 921
8.962 0.457 1.029 844
8.422 0.430 0.951 2972
8.941 0.456 1.001 1043
8.424 0.430 0.926 1603
8.763 0.447 0.958 906
8.936 0.456 0.974 765
8.757 0.447 0.932 1005
8.458 0.432 0.905 880
8.930 0.456 0.948 862
8.925 0.455 0.921 1161
8.767 0.447 0.907 942
9.106 0.465 0.937 763
8.943 0.456 0.896 1182
9.108 0.465 0.910 954
8.517 0.435 0.860 901
8.769 0.448 0.882 773
9.016 0.460 0.876 2222
8.504 0.434 0.834 1190
8.716 0.445 0.852 827
9.034 0.461 0.851 3009
8.718 0.445 0.826 1113
8.506 0.434 0.809 1007
9.036 0.461 0.825 3181
8.713 0.445 0.800 1174
12.110 0.618 1.060 823
12.985 0.663 1.127 773
9.038 0.461 0.799 2800
8.714 0.445 0.775 972
12.988 0.663 1.089 856
12.113 0.618 1.025 803
9.032 0.461 0.772 2154
12.991 0.663 1.051 1066
9.284 0.474 0.790 835
12.115 0.618 0.989 801
9.026 0.461 0.745 1516
12.993 0.663 1.013 1161
12.086 0.617 0.952 783
12.988 0.663 0.975 1555
8.988 0.459 0.716 1197
9.138 0.466 0.726 922
12.990 0.663 0.937 2084
9.147 0.467 0.700 1039
8.990 0.459 0.690 1000
13.001 0.663 0.900 2306
9.165 0.468 0.674 1201
9.315 0.475 0.683 983
12.995 0.663 0.861 2220
9.166 0.468 0.648 1131
13.879 0.708 0.911 850
9.316 0.475 0.656 827
12.997 0.663 0.823 1941
9.160 0.467 0.621 1027
13.881 0.708 0.870 771
12.999 0.663 0.786 1831
9.161 0.468 0.594 869
13.009 0.664 0.748 1645
10.884 0.555 0.648 993
10.886 0.556 0.617 1258
13.010 0.664 0.710 1236
14.298 0.730 0.767 928
10.887 0.556 0.585 1152
14.300 0.730 0.725 1043
13.012 0.664 0.672 917
14.372 0.733 0.686 895
10.880 0.555 0.553 847
14.540 0.742 0.650 853
14.366 0.733 0.644 750
14.541 0.742 0.608 948
14.265 0.728 0.599 840
14.258 0.728 0.557 881
14.543 0.742 0.566 854
14.259 0.728 0.516 928
14.544 0.742 0.523 760
14.268 0.728 0.474 881
2.357 0.113 1.791 4705
2.235 0.107 1.703 883
2.362 0.113 1.784 9411
2.239 0.107 1.697 1767
2.366 0.113 1.778 9411
2.244 0.107 1.691 1767
2.352 0.113 1.757 8963
2.475 0.118 1.844 1697
2.229 0.107 1.671 769
2.343 0.112 1.741 9487
2.467 0.118 1.828 2198
2.348 0.112 1.735 8058
2.484 0.119 1.830 3408
2.353 0.113 1.728 6629
2.496 0.119 1.827 4832
2.357 0.113 1.721 6629
2.501 0.120 1.820 4832
2.116 0.101 1.555 783
2.369 0.113 1.719 5289
2.499 0.120 1.808 5118
2.114 0.101 1.545 850
2.498 0.120 1.797 5568
2.373 0.114 1.712 3962
2.118 0.101 1.539 850
2.483 0.119 1.776 7505
2.358 0.113 1.692 2125
2.481 0.119 1.765 9994
2.356 0.113 1.681 1084
2.499 0.120 1.766 9886
2.374 0.114 1.683 1100
2.124 0.102 1.516 810
2.510 0.120 1.764 10561
2.121 0.102 1.506 1026
2.385 0.114 1.681 971
2.515 0.120 1.756 10561
2.105 0.101 1.487 995
2.389 0.114 1.674 754
2.520 0.121 1.749 9245
2.083 0.100 1.464 1164
2.511 0.120 1.733 7963
2.093 0.100 1.462 1486
2.637 0.126 1.815 829
2.516 0.120 1.726 10705
2.104 0.101 1.460 1872
2.642 0.126 1.808 1014
2.520 0.121 1.719 13436
2.107 0.101 1.454 1641
2.647 0.127 1.800 1309
2.525 0.121 1.712 14690
2.652 0.127 1.793 1547
2.111 0.101 1.448 1409
2.529 0.121 1.705 15944
2.656 0.127 1.785 1786
2.108 0.101 1.438 1026
2.534 0.121 1.697 12986
2.661 0.127 1.777 1982
2.545 0.122 1.694 10060
2.673 0.128 1.774 1766
2.543 0.122 1.683 9619
2.671 0.128 1.762 2804
2.534 0.121 1.667 9513
2.662 0.127 1.746 4901
2.545 0.122 1.664 7958
2.673 0.128 1.743 5269
2.658 0.127 1.723 7817
2.529 0.121 1.645 5287
2.786 0.133 1.801 1385
2.669 0.128 1.719 6843
2.541 0.122 1.641 3635
2.798 0.134 1.797 1451
2.721 0.130 1.740 8966
2.592 0.124 1.663 2511
2.850 0.136 1.817 1280
2.739 0.131 1.740 8473
2.610 0.125 1.663 2386
2.868 0.137 1.817 1103
2.481 0.119 1.586 983
2.744 0.131 1.733 8317
2.615 0.125 1.656 1940
2.873 0.138 1.809 1237
2.486 0.119 1.579 761
2.756 0.132 1.729 7556
2.626 0.126 1.652 1787
2.885 0.138 1.805 1385
2.497 0.119 1.576 752
2.760 0.132 1.721 6880
2.890 0.138 1.797 1730
2.630 0.126 1.645 1604
2.765 0.132 1.713 6010
2.895 0.139 1.788 1426
2.635 0.126 1.637 1122
2.756 0.132 1.697 5359
2.886 0.138 1.772 1518
2.767 0.132 1.693 5120
2.897 0.139 1.768 1457
2.820 0.135 1.713 5600
2.817 0.135 1.701 5822
2.948 0.141 1.775 1358
2.673 0.128 1.619 766
2.891 0.138 1.731 6549
2.760 0.132 1.658 2255
2.889 0.138 1.719 9528
2.757 0.132 1.646 1736
3.020 0.145 1.792 817
2.893 0.138 1.711 10841
2.762 0.132 1.638 1255
3.025 0.145 1.784 1082
2.898 0.139 1.702 12153
3.029 0.145 1.775 1347
2.909 0.139 1.698 10497
3.041 0.146 1.770 1801
2.997 0.143 1.735 10279
2.865 0.137 1.663 3048
3.002 0.144 1.726 11737
2.870 0.137 1.655 2827
3.013 0.144 1.721 9517
2.881 0.138 1.650 3715
2.927 0.140 1.664 8604
3.060 0.146 1.735 2944
2.932 0.140 1.656 7312
3.065 0.147 1.726 3553
2.929 0.140 1.644 5708
3.062 0.147 1.714 4678
3.032 0.145 1.687 5981
2.898 0.139 1.617 2448
3.165 0.151 1.756 868
3.036 0.145 1.678 8017
2.903 0.139 1.609 1812
3.170 0.152 1.747 1149
3.041 0.146 1.669 9996
3.174 0.152 1.738 1774
2.907 0.139 1.601 1054
3.045 0.146 1.661 9940
3.179 0.152 1.729 2113
2.911 0.139 1.592 932
3.057 0.146 1.655 7995
3.191 0.153 1.723 2279
3.111 0.149 1.671 11572
3.245 0.155 1.739 758
3.115 0.149 1.662 13170
3.299 0.158 1.754 788
3.134 0.150 1.661 11266
3.311 0.158 1.748 1226
3.138 0.150 1.652 12177
3.316 0.159 1.739 1348
3.142 0.150 1.642 14506
3.342 0.160 1.739 2061
3.140 0.150 1.630 12894
3.346 0.160 1.730 3456
3.180 0.152 1.638 8416
3.344 0.160 1.717 3480
3.493 0.167 1.789 1131
3.044 0.146 1.573 1032
3.198 0.153 1.636 8714
3.334 0.160 1.700 3263
3.498 0.167 1.779 1824
3.063 0.147 1.571 1428
3.203 0.153 1.627 7209
3.367 0.161 1.704 3440
3.503 0.168 1.769 3071
3.002 0.144 1.532 1225
3.178 0.152 1.604 6718
3.493 0.167 1.752 5285
3.357 0.161 1.688 3936
3.006 0.144 1.523 1237
3.190 0.153 1.598 6862
3.484 0.167 1.735 6441
3.347 0.160 1.672 2815
3.003 0.144 1.511 1039
3.452 0.165 1.708 6226
3.180 0.152 1.582 6089
3.589 0.172 1.771 1360
2.993 0.143 1.496 893
3.198 0.153 1.580 6642
3.457 0.165 1.698 5889
3.594 0.172 1.761 2290
2.990 0.143 1.484 912
3.195 0.153 1.567 6182
3.476 0.166 1.695 5132
3.613 0.173 1.757 2227
3.339 0.160 1.633 1600
3.199 0.153 1.558 4200
3.444 0.165 1.669 3989
3.581 0.171 1.731 2651
3.005 0.144 1.470 1453
3.442 0.165 1.656 4044
3.579 0.171 1.717 3001
3.211 0.154 1.552 2228
3.016 0.144 1.465 1533
3.656 0.175 1.739 4490
3.453 0.165 1.649 3491
3.020 0.145 1.456 1216
3.208 0.154 1.540 1118
3.668 0.176 1.732 4853
3.472 0.166 1.645 2062
3.023 0.145 1.448 899
3.212 0.154 1.531 806
3.672 0.176 1.721 4376
3.535 0.169 1.661 1890
3.020 0.145 1.436 835
3.397 0.163 1.601 794
3.648 0.175 1.698 4497
3.786 0.181 1.758 1447
3.510 0.168 1.638 1306
3.024 0.145 1.427 916
3.681 0.176 1.700 5300
3.543 0.170 1.640 2536
3.693 0.177 1.692 6337
3.555 0.170 1.633 2048
3.831 0.183 1.751 1059
3.676 0.176 1.672 5585
3.814 0.183 1.731 1775
3.537 0.169 1.614 769
3.680 0.176 1.662 4061
3.826 0.183 1.723 2864
3.831 0.183 1.712 5378
3.692 0.177 1.654 3257
3.843 0.184 1.704 6507
3.704 0.177 1.647 2765
3.854 0.184 1.696 6297
3.715 0.178 1.639 1163
3.859 0.185 1.685 5961
3.871 0.185 1.677 8426
3.875 0.185 1.666 12923
3.736 0.179 1.610 833
3.872 0.185 1.651 12716
3.869 0.185 1.637 10381
3.866 0.185 1.623 10078
3.871 0.185 1.612 9530
3.882 0.186 1.604 10731
3.894 0.186 1.596 10354
0.988 0.047 0.493 767
3.898 0.187 1.584 6298
0.989 0.047 0.490 896
3.925 0.188 1.581 4907
0.990 0.047 0.487 907
3.921 0.188 1.567 6983
0.991 0.047 0.485 822
3.918 0.188 1.553 8548
3.922 0.188 1.542 8449
3.934 0.188 1.533 9155
3.938 0.188 1.522 8960
3.957 0.189 1.516 7887
3.976 0.190 1.510 9009
3.980 0.190 1.498 10127
3.976 0.190 1.484 8836
3.988 0.191 1.475 7988
3.999 0.191 1.466 8518
4.003 0.192 1.455 6658
4.007 0.192 1.443 6349
4.018 0.192 1.434 7669
4.014 0.192 1.420 7081
4.010 0.192 1.406 8070
3.999 0.191 1.390 9538
4.010 0.192 1.381 8124
4.021 0.192 1.371 6915
4.025 0.193 1.360 4987
4.051 0.194 1.355 3561
4.055 0.194 1.343 5044
4.051 0.194 1.329 6305
4.054 0.194 1.318 4101
4.057 0.194 1.306 2367
4.084 0.195 1.301 3723
4.095 0.196 1.291 4307
4.083 0.195 1.275 4336
4.094 0.196 1.266 6645
4.105 0.196 1.256 10303
4.348 0.208 1.323 767
4.108 0.197 1.244 10286
4.111 0.197 1.232 5327
5.714 0.273 1.664 783
4.122 0.197 1.222 2497
5.727 0.274 1.650 983
3.977 0.190 1.184 797
4.117 0.197 1.208 4250
5.754 0.275 1.639 990
4.113 0.197 1.195 5885
5.827 0.279 1.641 1092
5.972 0.286 1.679 939
3.967 0.190 1.157 764
4.108 0.197 1.181 5637
5.755 0.275 1.604 2858
5.969 0.286 1.659 1431
4.027 0.193 1.148 6143
5.751 0.275 1.585 4717
6.027 0.288 1.656 1592
4.172 0.200 1.184 1385
4.030 0.193 1.136 5169
5.740 0.275 1.565 4218
4.176 0.200 1.172 2262
6.032 0.289 1.638 1528
5.752 0.275 1.550 3882
4.155 0.199 1.155 2614
4.010 0.192 1.119 1573
6.013 0.288 1.615 1316
5.764 0.276 1.535 5541
4.151 0.199 1.141 1993
6.017 0.288 1.598 1133
4.005 0.192 1.105 866
5.760 0.276 1.517 6292
4.146 0.198 1.127 1049
6.014 0.288 1.578 1043
5.757 0.276 1.498 5296
5.903 0.283 1.533 972
5.768 0.276 1.484 4435
5.764 0.276 1.465 5397
5.760 0.276 1.447 6704
5.907 0.283 1.480 796
5.764 0.276 1.430 5854
5.949 0.285 1.472 1111
5.830 0.279 1.427 3504
5.976 0.286 1.460 1122
5.834 0.279 1.410 4471
5.980 0.286 1.442 965
5.799 0.278 1.385 4021
5.969 0.286 1.422 1052
5.802 0.278 1.368 4132
5.965 0.285 1.403 1374
5.837 0.279 1.358 2494
5.984 0.286 1.389 1232
7.632 0.365 1.736 1124
5.949 0.285 1.363 1571
7.636 0.365 1.714 1256
5.801 0.278 1.333 1047
7.765 0.372 1.717 2340
5.952 0.285 1.346 1930
7.618 0.365 1.687 1042
5.805 0.278 1.316 917
7.770 0.372 1.695 4482
5.855 0.280 1.309 1581
6.103 0.292 1.359 1294
7.622 0.365 1.665 1074
7.774 0.372 1.672 6296
5.866 0.281 1.293 2008
7.410 0.355 1.600 1495
6.099 0.292 1.339 1374
7.786 0.373 1.651 6276
7.414 0.355 1.578 2143
7.243 0.347 1.545 1639
5.877 0.281 1.278 1277
7.791 0.373 1.629 5405
7.410 0.355 1.555 3059
7.131 0.341 1.501 2101
7.795 0.373 1.606 4189
7.135 0.341 1.481 3224
7.391 0.354 1.529 3170
8.215 0.393 1.685 943
7.131 0.341 1.459 3394
7.379 0.353 1.505 3320
7.799 0.373 1.583 2418
8.211 0.393 1.660 1690
7.391 0.354 1.485 4075
7.835 0.375 1.566 2764
8.208 0.393 1.635 2520
7.127 0.341 1.436 2358
7.395 0.354 1.464 3667
8.220 0.393 1.612 2844
7.823 0.374 1.541 2734
7.247 0.347 1.437 2109
8.224 0.394 1.589 3643
7.376 0.353 1.438 2809
7.049 0.337 1.380 1659
7.827 0.375 1.518 1458
8.228 0.394 1.565 4465
7.379 0.353 1.417 2295
7.037 0.337 1.357 2140
6.889 0.330 1.331 2074
8.240 0.394 1.542 3665
7.056 0.338 1.339 2433
6.908 0.331 1.314 2158
7.282 0.349 1.378 1807
7.059 0.338 1.319 2683
8.580 0.411 1.575 1916
8.252 0.395 1.519 1851
6.911 0.331 1.294 1428
8.584 0.411 1.550 2504
7.063 0.338 1.298 2369
6.914 0.331 1.274 1856
8.272 0.396 1.498 1639
6.910 0.331 1.252 2608
8.611 0.412 1.529 2449
7.160 0.343 1.293 2118
8.393 0.402 1.493 1907
6.905 0.330 1.231 2470
8.405 0.402 1.470 2457
8.615 0.412 1.504 2181
7.155 0.342 1.271 1499
8.424 0.403 1.448 2997
8.604 0.412 1.476 2421
7.041 0.337 1.232 1530
6.893 0.330 1.208 1371
8.568 0.410 1.445 2907
8.420 0.403 1.422 2647
7.029 0.336 1.209 1045
8.271 0.396 1.399 972
8.564 0.410 1.419 2329
8.400 0.402 1.394 1960
7.000 0.335 1.184 993
8.252 0.395 1.372 812
8.396 0.402 1.369 1869
8.576 0.410 1.395 1227
7.011 0.336 1.165 916
8.392 0.402 1.343 2761
7.022 0.336 1.145 918
8.243 0.395 1.322 900
8.595 0.411 1.373 838
8.309 0.398 1.307 4212
8.458 0.405 1.328 1217
7.025 0.336 1.125 763
8.312 0.398 1.283 4635
8.461 0.405 1.303 1586
8.164 0.391 1.262 830
8.331 0.399 1.261 2917
8.183 0.392 1.240 1917
8.480 0.406 1.281 1319
8.390 0.402 1.244 2635
8.201 0.393 1.219 2105
8.299 0.397 1.207 4354
8.150 0.390 1.188 832
8.448 0.404 1.226 830
8.294 0.397 1.182 5138
8.289 0.397 1.157 4365
8.276 0.396 1.131 3184
8.425 0.403 1.149 1209
8.389 0.402 1.120 2679
8.208 0.393 1.099 2595
8.227 0.394 1.077 2947
8.400 0.402 1.096 2542
8.245 0.395 1.054 3673
8.395 0.402 1.071 2102
8.248 0.395 1.030 3901
8.397 0.402 1.047 2183
8.657 0.414 1.075 821
8.251 0.395 1.006 3286
8.408 0.402 1.023 2593
8.659 0.414 1.050 922
8.410 0.403 0.999 2843
8.261 0.395 0.983 2579
8.560 0.410 1.014 846
8.413 0.403 0.974 3095
8.263 0.395 0.959 1729
8.562 0.410 0.989 1026
8.415 0.403 0.950 2939
8.187 0.392 0.928 961
8.565 0.410 0.964 791
8.943 0.428 1.001 756
8.418 0.403 0.925 1621
8.764 0.419 0.958 821
8.428 0.403 0.902 913
8.758 0.419 0.932 827
9.018 0.432 0.955 805
9.013 0.431 0.929 1045
8.430 0.403 0.877 813
9.015 0.431 0.902 1181
8.503 0.407 0.859 1007
9.025 0.432 0.877 1918
8.505 0.407 0.834 1462
8.718 0.417 0.852 962
9.262 0.443 0.896 874
9.027 0.432 0.851 3152
8.720 0.417 0.826 1437
8.499 0.407 0.809 1406
9.256 0.443 0.869 1010
9.029 0.432 0.824 3773
8.714 0.417 0.800 1572
8.477 0.406 0.782 1251
9.250 0.443 0.841 925
9.031 0.432 0.798 3190
8.716 0.417 0.775 1375
8.479 0.406 0.758 1036
9.260 0.443 0.815 762
9.033 0.432 0.772 2512
8.741 0.418 0.751 1076
13.001 0.622 1.052 905
9.027 0.432 0.745 2002
13.003 0.622 1.014 1121
8.735 0.418 0.725 853
8.989 0.430 0.716 1814
12.998 0.622 0.975 1545
9.139 0.437 0.726 978
13.000 0.622 0.937 1995
8.983 0.430 0.690 1680
9.141 0.437 0.699 907
13.003 0.622 0.900 2399
8.969 0.429 0.663 1488
9.166 0.439 0.674 1060
12.997 0.622 0.861 2615
9.160 0.438 0.647 1174
8.955 0.429 0.636 936
13.897 0.665 0.912 788
12.999 0.622 0.823 2521
9.161 0.438 0.621 1154
13.001 0.622 0.786 2227
9.155 0.438 0.594 844
13.003 0.622 0.748 1754
10.886 0.521 0.648 843
13.004 0.622 0.710 1163
10.887 0.521 0.617 1030
10.889 0.521 0.585 968
13.014 0.623 0.672 760
10.890 0.521 0.553 829
14.542 0.696 0.650 765
10.883 0.521 0.521 757
14.544 0.696 0.608 875
10.900 0.522 0.490 795
2.357 0.106 1.791 5074
2.235 0.101 1.703 872
2.362 0.106 1.784 10149
2.240 0.101 1.697 1745
2.098 0.095 1.596 956
2.367 0.107 1.778 10149
2.244 0.101 1.691 1745
2.102 0.095 1.590 956
2.346 0.106 1.753 9759
2.468 0.111 1.839 2146
2.106 0.095 1.584 988
2.344 0.106 1.741 10581
2.467 0.111 1.828 2479
2.104 0.095 1.573 1022
2.348 0.106 1.735 8806
2.478 0.112 1.825 3728
2.115 0.095 1.572 962
2.360 0.106 1.733 7047
2.490 0.112 1.823 5132
2.119 0.096 1.566 904
2.364 0.107 1.726 7047
2.495 0.112 1.815 5132
2.117 0.095 1.555 953
2.493 0.112 1.804 5553
2.369 0.107 1.719 5427
2.108 0.095 1.540 1067
2.498 0.113 1.797 5991
2.373 0.107 1.712 3807
2.112 0.095 1.534 1067
2.476 0.112 1.772 7422
2.352 0.106 1.688 1893
2.109 0.095 1.524 1121
2.475 0.112 1.760 9870
2.113 0.095 1.518 1181
2.350 0.106 1.677 1080
2.492 0.112 1.762 9327
2.117 0.095 1.512 1161
2.367 0.107 1.679 1077
2.510 0.113 1.764 10202
2.385 0.107 1.681 1160
2.121 0.096 1.506 1140
2.515 0.113 1.756 10202
2.125 0.096 1.500 936
2.390 0.108 1.674 868
2.520 0.114 1.749 8847
2.109 0.095 1.481 785
2.525 0.114 1.742 7456
2.107 0.095 1.471 1051
2.523 0.114 1.731 10464
2.104 0.095 1.460 1352
2.649 0.119 1.812 755
2.527 0.114 1.723 13436
2.114 0.095 1.459 1217
2.654 0.120 1.804 919
2.532 0.114 1.716 14343
2.118 0.095 1.453 1098
2.659 0.120 1.797 1083
2.530 0.114 1.705 15334
2.657 0.120 1.785 1455
2.122 0.096 1.447 761
2.534 0.114 1.697 12364
2.661 0.120 1.777 1536
2.539 0.114 1.690 9393
2.666 0.120 1.770 1617
2.543 0.115 1.683 9000
2.671 0.120 1.762 2224
2.541 0.115 1.671 8829
2.669 0.120 1.750 3523
2.552 0.115 1.668 7304
2.680 0.121 1.747 4241
2.658 0.120 1.723 7036
2.530 0.114 1.645 4502
2.786 0.126 1.801 1190
2.724 0.123 1.752 6981
2.575 0.116 1.662 4235
2.852 0.129 1.830 916
2.728 0.123 1.744 9701
2.599 0.117 1.667 2515
2.857 0.129 1.822 1092
2.740 0.123 1.740 9610
2.611 0.118 1.663 2269
2.869 0.129 1.817 1030
2.482 0.112 1.586 803
2.744 0.124 1.733 9734
2.615 0.118 1.656 2012
2.874 0.130 1.809 1119
2.749 0.124 1.725 8667
2.620 0.118 1.648 1878
2.879 0.130 1.801 1399
2.761 0.124 1.721 7697
2.631 0.119 1.645 1940
2.890 0.130 1.797 1622
2.765 0.125 1.713 6263
2.895 0.130 1.788 1354
2.635 0.119 1.637 1307
2.763 0.125 1.701 4884
2.893 0.130 1.776 1289
2.774 0.125 1.697 4638
2.905 0.131 1.772 1205
2.841 0.128 1.724 5647
2.710 0.122 1.650 1091
2.818 0.127 1.701 5993
2.949 0.133 1.775 1443
2.891 0.130 1.731 8737
2.760 0.124 1.658 2402
2.896 0.131 1.723 11865
2.765 0.125 1.650 1964
2.894 0.130 1.711 13231
2.762 0.124 1.638 1297
3.025 0.136 1.784 923
2.898 0.131 1.702 14601
3.030 0.137 1.775 1137
2.910 0.131 1.698 12887
3.042 0.137 1.770 1614
2.921 0.132 1.693 10546
3.053 0.138 1.765 2126
2.995 0.135 1.723 11503
2.863 0.129 1.651 2298
2.923 0.132 1.673 10534
3.056 0.138 1.744 3047
2.928 0.132 1.664 11327
3.060 0.138 1.735 2499
2.925 0.132 1.652 9790
3.058 0.138 1.723 3531
2.929 0.132 1.644 7910
3.077 0.139 1.721 4247
2.941 0.133 1.639 7510
3.102 0.140 1.723 5323
3.037 0.137 1.678 7112
2.903 0.131 1.609 2520
3.170 0.143 1.747 1235
3.041 0.137 1.669 9595
3.175 0.143 1.738 2043
2.907 0.131 1.601 1289
3.046 0.137 1.661 9545
3.179 0.143 1.729 2576
2.912 0.131 1.592 929
3.050 0.137 1.652 7677
3.184 0.144 1.720 3041
3.118 0.141 1.675 10110
3.122 0.141 1.666 11700
3.134 0.141 1.661 10453
3.304 0.149 1.745 878
3.146 0.142 1.655 12110
3.302 0.149 1.732 938
3.150 0.142 1.646 14375
3.342 0.151 1.739 1621
3.154 0.142 1.637 12332
3.347 0.151 1.730 2775
3.187 0.144 1.642 9837
3.351 0.151 1.720 2904
3.052 0.138 1.577 1341
3.494 0.157 1.789 978
3.199 0.144 1.636 10602
3.334 0.150 1.700 2665
3.499 0.158 1.779 1580
3.063 0.138 1.571 1460
3.203 0.144 1.627 8657
3.375 0.152 1.708 3578
3.511 0.158 1.772 2665
3.010 0.136 1.535 1589
3.179 0.143 1.604 7844
3.487 0.157 1.748 5534
3.351 0.151 1.685 3032
3.014 0.136 1.527 1424
3.183 0.143 1.595 8275
3.484 0.157 1.735 6615
3.348 0.151 1.672 2376
3.047 0.137 1.531 1184
3.187 0.144 1.586 7438
3.467 0.156 1.715 5954
3.008 0.136 1.503 1062
3.331 0.150 1.652 911
3.199 0.144 1.580 7889
3.457 0.156 1.698 5987
3.594 0.162 1.761 1480
3.004 0.135 1.491 1249
3.196 0.144 1.567 6906
3.469 0.156 1.692 5975
3.613 0.163 1.757 1705
3.332 0.150 1.630 1118
3.467 0.156 1.679 4739
3.200 0.144 1.558 4477
3.603 0.162 1.740 1755
2.998 0.135 1.467 917
3.442 0.155 1.656 4366
3.579 0.161 1.717 3347
3.211 0.145 1.552 2344
3.002 0.135 1.458 1006
3.656 0.165 1.739 4605
3.447 0.155 1.646 3462
3.251 0.147 1.559 1222
3.006 0.135 1.450 1180
3.661 0.165 1.728 4891
3.523 0.159 1.668 2185
3.017 0.136 1.444 1320
3.386 0.153 1.607 886
3.673 0.166 1.721 4213
3.535 0.159 1.661 1621
3.020 0.136 1.436 1320
3.397 0.153 1.601 750
3.685 0.166 1.714 3882
3.539 0.160 1.651 1997
3.024 0.136 1.427 1004
3.689 0.166 1.703 4728
3.544 0.160 1.640 2197
3.827 0.172 1.762 825
3.701 0.167 1.695 6346
3.548 0.160 1.630 1624
3.839 0.173 1.754 1052
3.676 0.166 1.672 5562
3.815 0.172 1.731 1723
3.673 0.166 1.659 4515
3.819 0.172 1.720 3240
3.831 0.173 1.712 6054
3.693 0.166 1.654 3707
3.843 0.173 1.704 6402
3.704 0.167 1.647 3049
3.855 0.174 1.696 5794
3.716 0.167 1.639 1311
3.860 0.174 1.685 5836
3.864 0.174 1.674 8824
3.868 0.174 1.663 13464
3.729 0.168 1.607 753
3.866 0.174 1.649 14116
3.870 0.174 1.637 13068
3.874 0.175 1.626 11257
3.871 0.174 1.612 9208
3.883 0.175 1.604 10008
3.887 0.175 1.593 9771
3.891 0.175 1.582 8036
3.903 0.176 1.573 6635
3.915 0.176 1.565 7397
3.919 0.177 1.553 9441
3.923 0.177 1.542 9859
3.934 0.177 1.533 10168
3.938 0.178 1.522 9480
3.950 0.178 1.513 7632
3.976 0.179 1.510 8144
3.973 0.179 1.496 9353
3.969 0.179 1.482 8247
3.973 0.179 1.470 6605
3.992 0.180 1.464 6249
3.996 0.180 1.452 6063
4.000 0.180 1.441 6720
4.011 0.181 1.432 7254
4.007 0.181 1.418 6927
4.003 0.180 1.404 8686
4.007 0.181 1.392 10389
4.011 0.181 1.381 8073
4.029 0.182 1.374 5715
4.010 0.181 1.355 3871
4.014 0.181 1.344 2840
4.032 0.182 1.337 4121
4.044 0.182 1.327 5453
4.055 0.183 1.318 3865
4.073 0.184 1.311 2450
4.092 0.184 1.303 3417
4.095 0.185 1.291 3683
4.091 0.184 1.277 3074
4.109 0.185 1.270 4160
4.105 0.185 1.256 8645
4.101 0.185 1.242 10225
4.112 0.185 1.232 6892
3.966 0.179 1.193 755
4.122 0.186 1.222 4591
5.727 0.258 1.650 1037
3.977 0.179 1.184 1009
4.118 0.186 1.208 4709
5.739 0.259 1.635 918
4.113 0.185 1.195 4778
3.968 0.179 1.157 794
4.024 0.181 1.159 4986
5.756 0.259 1.604 3594
