2.482 0.124 1.776 9759
2.358 0.118 1.692 1560
2.096 0.105 1.515 1435
2.487 0.124 1.769 11039
2.100 0.105 1.509 1731
2.362 0.118 1.685 1442
2.612 0.130 1.853 769
2.505 0.125 1.771 11454
2.097 0.105 1.499 1983
2.380 0.119 1.687 1842
2.510 0.125 1.764 12462
2.094 0.105 1.489 2309
2.385 0.119 1.681 1070
2.515 0.125 1.756 12462
2.092 0.104 1.478 2092
2.389 0.119 1.674 862
2.513 0.125 1.745 11114
2.082 0.104 1.464 2020
2.504 0.125 1.729 10120
2.086 0.104 1.458 2427
2.630 0.131 1.811 1075
2.509 0.125 1.722 11487
2.090 0.104 1.452 2833
2.635 0.131 1.803 1553
2.520 0.126 1.719 13096
2.094 0.104 1.446 3119
2.646 0.132 1.800 1754
2.525 0.126 1.712 13499
2.098 0.105 1.440 3405
2.651 0.132 1.793 1989
2.536 0.127 1.709 13930
2.101 0.105 1.434 3164
2.663 0.133 1.789 1541
2.540 0.127 1.702 10786
2.098 0.105 1.424 2993
2.668 0.133 1.782 2423
2.545 0.127 1.694 7643
2.672 0.133 1.774 3306
2.102 0.105 1.418 2758
2.644 0.132 1.745 7647
2.516 0.126 1.666 5589
2.113 0.105 1.416 2524
2.771 0.138 1.825 1304
2.648 0.132 1.738 8725
2.520 0.126 1.659 5775
2.116 0.106 1.410 2239
2.776 0.139 1.817 1941
2.646 0.132 1.726 9303
2.518 0.126 1.648 3833
2.774 0.138 1.805 2055
2.120 0.106 1.404 1954
2.651 0.132 1.719 9892
2.522 0.126 1.640 2243
2.779 0.139 1.797 1902
2.124 0.106 1.398 1560
2.655 0.133 1.711 7837
2.784 0.139 1.789 1848
2.513 0.125 1.625 1789
2.127 0.106 1.392 1167
2.721 0.136 1.740 5920
2.579 0.129 1.655 2108
2.131 0.106 1.386 833
2.850 0.142 1.817 768
2.739 0.137 1.740 6794
2.515 0.125 1.607 1963
2.868 0.143 1.817 1096
2.751 0.137 1.737 8311
2.526 0.126 1.603 2488
2.880 0.144 1.813 1434
2.755 0.137 1.729 9181
2.530 0.126 1.596 2499
2.885 0.144 1.805 1816
2.760 0.138 1.721 10051
2.890 0.144 1.797 2198
2.541 0.127 1.593 2035
2.758 0.138 1.709 9346
2.888 0.144 1.784 2274
2.539 0.127 1.582 1441
2.755 0.137 1.697 8856
2.886 0.144 1.772 2353
2.536 0.127 1.570 1004
2.774 0.138 1.697 8677
2.904 0.145 1.772 2680
2.806 0.140 1.705 7590
2.936 0.147 1.779 1851
2.675 0.133 1.630 1071
2.824 0.141 1.704 6816
2.693 0.134 1.630 1089
2.955 0.147 1.778 1083
2.835 0.141 1.700 5448
2.973 0.148 1.778 1232
2.704 0.135 1.627 1039
2.785 0.139 1.661 4302
2.916 0.146 1.734 2487
2.893 0.144 1.711 4623
2.761 0.138 1.638 2446
3.024 0.151 1.784 996
2.904 0.145 1.706 5733
2.773 0.138 1.634 1550
3.036 0.151 1.779 899
2.923 0.146 1.706 5684
2.791 0.139 1.633 1257
3.055 0.152 1.778 900
2.990 0.149 1.731 8525
2.858 0.143 1.659 1774
3.002 0.150 1.726 11190
2.869 0.143 1.655 1803
2.999 0.150 1.714 10980
2.867 0.143 1.643 1282
2.997 0.150 1.702 10994
3.001 0.150 1.693 9168
3.134 0.156 1.763 962
3.006 0.150 1.684 5809
3.139 0.157 1.754 1210
3.066 0.153 1.705 6048
2.926 0.146 1.632 3053
3.064 0.153 1.692 6092
2.931 0.146 1.624 2344
3.076 0.153 1.687 8840
2.942 0.147 1.619 1299
3.087 0.154 1.682 11940
2.946 0.147 1.610 870
3.106 0.155 1.680 11759
3.240 0.162 1.748 1154
3.103 0.155 1.668 10562
3.237 0.162 1.735 1743
3.093 0.154 1.652 10291
3.228 0.161 1.719 1505
3.091 0.154 1.639 11820
3.303 0.165 1.745 1715
3.088 0.154 1.627 11954
3.315 0.165 1.739 2144
3.092 0.154 1.618 10478
3.334 0.166 1.736 2985
3.175 0.158 1.647 9266
3.346 0.167 1.730 4897
3.040 0.152 1.582 1676
3.165 0.158 1.631 19040
3.350 0.167 1.720 5294
3.493 0.174 1.789 1538
3.030 0.151 1.566 893
3.169 0.158 1.622 25218
3.334 0.166 1.700 5117
3.498 0.175 1.779 2267
3.012 0.150 1.547 1060
3.174 0.158 1.613 25159
3.352 0.167 1.698 5285
3.503 0.175 1.769 3292
3.002 0.150 1.532 1415
3.178 0.159 1.604 22195
3.486 0.174 1.748 5289
3.350 0.167 1.685 4692
2.999 0.150 1.520 1518
3.189 0.159 1.598 18588
3.455 0.172 1.722 7426
3.010 0.150 1.515 1699
3.201 0.160 1.592 18794
3.445 0.172 1.705 9143
3.014 0.150 1.506 1921
3.624 0.181 1.788 1027
3.198 0.160 1.580 16150
3.442 0.172 1.692 8083
3.600 0.180 1.764 2211
3.011 0.150 1.494 2074
3.202 0.160 1.571 10627
3.432 0.171 1.675 4800
3.598 0.180 1.751 3927
3.015 0.150 1.485 1885
3.206 0.160 1.561 5717
3.603 0.180 1.740 4632
3.408 0.170 1.653 3638
3.012 0.150 1.474 1770
3.607 0.180 1.730 5551
3.449 0.172 1.659 3703
3.210 0.160 1.552 2846
3.001 0.150 1.458 1296
3.626 0.181 1.726 5988
3.453 0.172 1.649 3735
3.222 0.161 1.546 1946
2.990 0.149 1.443 950
3.674 0.183 1.735 5299
3.486 0.174 1.652 3609
3.226 0.161 1.537 1166
3.001 0.150 1.438 1028
3.643 0.182 1.708 4615
3.505 0.175 1.648 3098
3.005 0.150 1.429 1276
3.633 0.181 1.692 7739
3.495 0.174 1.632 1731
3.771 0.188 1.751 1421
3.016 0.151 1.424 1296
3.623 0.181 1.675 8671
3.761 0.188 1.734 2884
3.485 0.174 1.615 1090
3.656 0.182 1.677 7635
3.518 0.176 1.618 2061
3.795 0.189 1.736 1303
3.668 0.183 1.669 6779
3.807 0.190 1.728 1360
3.530 0.176 1.611 1029
3.665 0.183 1.656 4967
3.804 0.190 1.714 2048
3.721 0.186 1.666 4834
3.860 0.193 1.724 2602
3.582 0.179 1.609 886
3.733 0.186 1.659 4062
3.871 0.193 1.716 3407
3.594 0.179 1.601 815
3.861 0.193 1.699 4016
3.722 0.186 1.642 1518
3.866 0.193 1.688 5444
3.870 0.193 1.677 10546
3.875 0.193 1.666 15850
3.735 0.186 1.610 879
3.879 0.194 1.654 16185
3.740 0.187 1.599 973
3.884 0.194 1.643 12011
3.881 0.194 1.629 10163
3.878 0.193 1.615 15097
3.889 0.194 1.607 19125
3.894 0.194 1.596 15855
3.898 0.195 1.584 6506
3.947 0.197 1.590 2875
3.936 0.196 1.573 4402
3.933 0.196 1.559 5432
3.944 0.197 1.550 8012
3.948 0.197 1.539 12523
3.952 0.197 1.527 11787
3.964 0.198 1.519 10679
3.975 0.198 1.510 11174
3.987 0.199 1.501 12383
3.998 0.200 1.492 14308
4.010 0.200 1.483 14909
4.014 0.200 1.471 12276
4.017 0.200 1.460 7024
4.029 0.201 1.451 5199
4.025 0.201 1.437 8405
4.021 0.201 1.423 9107
4.017 0.200 1.409 8224
4.021 0.201 1.397 7218
4.025 0.201 1.385 5549
4.044 0.202 1.378 5857
4.055 0.202 1.369 6801
4.066 0.203 1.360 8108
4.062 0.203 1.346 8076
4.065 0.203 1.334 6533
4.076 0.203 1.324 3885
4.103 0.205 1.319 3124
4.091 0.204 1.303 4638
4.094 0.204 1.291 7053
4.090 0.204 1.277 8740
4.093 0.204 1.266 11489
4.096 0.204 1.254 11326
4.371 0.218 1.329 866
4.107 0.205 1.244 8053
4.111 0.205 1.232 5415
4.114 0.205 1.220 6528
3.969 0.198 1.182 1597
6.001 0.299 1.723 909
4.102 0.205 1.204 6233
5.998 0.299 1.704 1467
3.956 0.197 1.166 1196
5.761 0.287 1.641 1086
4.020 0.201 1.171 5248
4.166 0.208 1.209 2528
6.003 0.300 1.686 2491
5.750 0.287 1.621 1713
4.023 0.201 1.159 4512
6.015 0.300 1.671 3205
5.747 0.287 1.602 2545
4.169 0.208 1.197 1434
6.019 0.300 1.654 2997
5.743 0.287 1.584 2970
4.034 0.201 1.149 2688
4.180 0.209 1.186 923
5.755 0.287 1.569 5029
6.023 0.301 1.636 2593
4.114 0.205 1.157 2453
5.759 0.287 1.552 6951
4.117 0.205 1.145 2044
6.012 0.300 1.615 2001
5.763 0.288 1.535 5289
6.001 0.299 1.594 1474
4.127 0.206 1.135 1256
5.760 0.287 1.517 6870
5.906 0.295 1.552 1159
4.023 0.201 1.097 995
6.136 0.306 1.608 839
5.756 0.287 1.498 8548
5.902 0.295 1.533 2185
4.118 0.205 1.108 789
5.752 0.287 1.480 9347
5.898 0.294 1.514 2307
5.756 0.287 1.463 9311
5.902 0.295 1.497 2448
5.845 0.292 1.466 7336
5.991 0.299 1.500 1501
5.698 0.284 1.432 1011
5.841 0.291 1.447 6239
5.987 0.299 1.481 2091
5.829 0.291 1.427 5009
5.976 0.298 1.460 2526
5.833 0.291 1.410 5120
5.980 0.298 1.442 1516
5.821 0.290 1.390 4211
5.968 0.298 1.422 1808
5.809 0.290 1.370 3161
5.956 0.297 1.401 2984
7.410 0.370 1.712 1320
7.611 0.380 1.755 1051
5.859 0.292 1.363 2650
7.414 0.370 1.691 1786
7.623 0.380 1.735 1623
6.006 0.300 1.394 1329
7.628 0.381 1.712 2092
7.427 0.371 1.671 1724
5.863 0.293 1.346 1720
7.775 0.388 1.743 1220
7.633 0.381 1.690 2462
7.431 0.371 1.649 2442
7.780 0.388 1.720 1712
5.859 0.292 1.327 1702
7.637 0.381 1.668 2710
7.428 0.371 1.626 2483
5.870 0.293 1.312 1811
7.784 0.388 1.698 1700
7.766 0.388 1.671 3301
7.432 0.371 1.604 2329
7.618 0.380 1.641 1738
7.207 0.360 1.560 1694
7.786 0.388 1.651 5708
7.429 0.371 1.581 2392
7.219 0.360 1.540 2134
7.638 0.381 1.622 1994
7.798 0.389 1.630 5414
7.425 0.371 1.558 2632
7.223 0.360 1.519 1911
7.650 0.382 1.602 1649
7.833 0.391 1.613 5651
7.421 0.370 1.535 2853
7.126 0.356 1.479 1930
8.206 0.409 1.684 1623
7.830 0.391 1.589 7535
8.210 0.410 1.660 2427
7.138 0.356 1.460 2229
7.425 0.371 1.514 1614
7.826 0.391 1.565 7866
8.215 0.410 1.636 3516
7.142 0.356 1.439 1868
7.344 0.366 1.476 1547
7.830 0.391 1.542 4259
8.219 0.410 1.612 4024
7.379 0.368 1.461 2146
7.145 0.357 1.419 1945
8.231 0.411 1.590 4368
7.375 0.368 1.438 2886
7.149 0.357 1.398 2363
7.001 0.349 1.372 1348
8.228 0.411 1.565 3738
7.379 0.368 1.417 2540
8.617 0.430 1.633 1984
7.044 0.351 1.358 1899
8.247 0.412 1.543 2898
8.621 0.430 1.608 2794
6.969 0.348 1.324 2434
8.473 0.423 1.582 1513
8.618 0.430 1.581 2999
8.267 0.413 1.522 2467
8.470 0.423 1.556 1771
6.973 0.348 1.304 1719
8.591 0.429 1.551 2641
8.279 0.413 1.499 1880
6.976 0.348 1.284 1513
8.435 0.421 1.525 1244
8.587 0.428 1.525 2539
6.971 0.348 1.262 1634
8.298 0.414 1.478 1401
7.159 0.357 1.293 974
8.521 0.425 1.489 3012
8.372 0.418 1.465 1670
8.669 0.433 1.512 1555
6.998 0.349 1.246 1460
8.517 0.425 1.463 2692
8.368 0.418 1.439 2194
8.665 0.432 1.486 1692
6.970 0.348 1.221 1638
8.411 0.420 1.421 3980
8.560 0.427 1.444 1841
7.005 0.350 1.205 1640
8.263 0.412 1.398 1353
8.415 0.420 1.397 3975
7.023 0.350 1.187 1921
8.564 0.427 1.419 1907
8.266 0.412 1.374 1687
8.301 0.414 1.355 3357
8.450 0.422 1.377 2283
7.026 0.351 1.167 1524
8.622 0.430 1.402 1327
8.297 0.414 1.330 3209
8.446 0.421 1.351 1939
8.626 0.430 1.377 1525
8.293 0.414 1.304 3256
8.441 0.421 1.325 2130
8.606 0.429 1.349 1122
8.327 0.416 1.285 3498
8.476 0.423 1.305 1382
8.178 0.408 1.264 1041
8.346 0.416 1.263 5055
8.197 0.409 1.242 1323
8.495 0.424 1.283 771
8.350 0.417 1.238 4821
8.201 0.409 1.219 1942
8.321 0.415 1.210 3704
8.172 0.408 1.191 1035
8.301 0.414 1.183 4176
8.450 0.422 1.202 1084
8.296 0.414 1.158 4764
8.445 0.421 1.176 1621
8.268 0.413 1.130 4110
8.417 0.420 1.148 2622
8.380 0.418 1.119 4472
8.231 0.411 1.101 2458
8.399 0.419 1.096 3917
8.250 0.412 1.079 2990
8.252 0.412 1.055 3153
8.410 0.420 1.073 3042
8.653 0.432 1.100 754
8.255 0.412 1.031 2800
8.412 0.420 1.048 2764
8.656 0.432 1.075 865
8.407 0.420 1.023 2904
8.258 0.412 1.007 2011
8.666 0.432 1.051 1054
8.989 0.449 1.085 838
8.410 0.420 0.999 3079
8.677 0.433 1.026 1220
8.221 0.410 0.979 1155
8.412 0.420 0.974 2937
8.687 0.433 1.002 1316
8.923 0.445 1.025 846
8.414 0.420 0.950 2352
8.926 0.445 0.999 1241
8.658 0.432 0.973 1212
8.425 0.420 0.926 1481
8.968 0.447 0.977 1417
8.614 0.430 0.944 1002
8.986 0.448 0.953 1771
8.443 0.421 0.903 1121
8.608 0.430 0.918 1104
8.758 0.437 0.932 890
8.996 0.449 0.927 1815
8.650 0.432 0.897 1131
8.437 0.421 0.878 971
8.799 0.439 0.910 756
8.998 0.449 0.901 1414
8.667 0.433 0.873 1280
9.148 0.456 0.914 998
8.431 0.421 0.853 776
9.127 0.455 0.885 1631
8.677 0.433 0.848 1298
9.276 0.463 0.898 1262
8.977 0.448 0.873 947
9.271 0.463 0.870 1471
9.026 0.450 0.851 1415
8.680 0.433 0.823 1054
11.627 0.580 1.057 1036
12.986 0.648 1.127 1775
9.020 0.450 0.824 1640
9.273 0.463 0.843 1415
11.630 0.580 1.023 1114
12.989 0.648 1.089 2297
9.015 0.450 0.797 1864
9.275 0.463 0.816 1075
11.633 0.580 0.989 1017
12.984 0.648 1.050 2504
9.009 0.450 0.770 1770
11.635 0.581 0.955 795
12.978 0.648 1.012 2621
9.002 0.449 0.743 1701
8.734 0.436 0.725 843
9.152 0.457 0.754 774
12.989 0.648 0.975 2568
9.004 0.449 0.717 1971
9.154 0.457 0.727 1105
8.728 0.436 0.699 800
12.999 0.649 0.937 2723
8.998 0.449 0.691 1701
9.156 0.457 0.700 1321
12.297 0.614 0.894 788
12.993 0.648 0.899 2640
8.992 0.449 0.664 1199
9.173 0.458 0.675 1186
12.996 0.648 0.861 2383
10.880 0.543 0.743 852
9.112 0.455 0.645 834
14.219 0.710 0.930 774
12.998 0.649 0.823 2178
10.874 0.543 0.711 1012
9.105 0.454 0.618 914
14.222 0.710 0.888 781
13.008 0.649 0.786 1814
10.883 0.543 0.680 882
9.114 0.455 0.592 795
13.009 0.649 0.748 1113
9.139 0.456 0.566 800
10.901 0.544 0.649 781
13.011 0.649 0.710 818
10.902 0.544 0.617 792
9.133 0.456 0.539 789
14.308 0.714 0.726 981
13.013 0.649 0.672 897
14.537 0.725 0.735 806
14.310 0.714 0.684 911
13.014 0.649 0.635 855
14.175 0.707 0.431 768
14.168 0.707 0.390 902
14.176 0.707 0.348 911
14.177 0.707 0.307 788
13.837 0.690 -1.192 782
13.841 0.691 -1.233 764
13.683 0.683 -1.378 785
2.357 0.107 1.791 5832
2.362 0.107 1.784 11665
2.240 0.101 1.697 822
2.373 0.107 1.782 11700
2.251 0.102 1.695 950
2.496 0.113 1.869 788
2.371 0.107 1.771 10622
2.494 0.113 1.857 1474
2.249 0.102 1.684 848
2.344 0.106 1.741 11478
2.467 0.111 1.828 3624
2.342 0.106 1.730 8667
2.485 0.112 1.830 4304
2.347 0.106 1.724 5944
2.503 0.113 1.832 5719
2.351 0.106 1.717 5944
2.508 0.113 1.824 5719
2.500 0.113 1.808 6662
2.362 0.107 1.715 4325
2.485 0.112 1.788 8544
2.360 0.107 1.703 2502
2.059 0.093 1.499 750
2.483 0.112 1.776 10476
2.358 0.107 1.692 1622
2.063 0.093 1.493 1016
2.481 0.112 1.765 12629
2.074 0.094 1.492 1042
2.356 0.106 1.681 846
2.499 0.113 1.766 12983
2.078 0.094 1.486 1452
2.374 0.107 1.683 1129
2.510 0.113 1.764 14312
2.088 0.094 1.484 1869
2.385 0.108 1.681 969
2.515 0.114 1.756 14312
2.079 0.094 1.470 1931
2.390 0.108 1.674 891
2.513 0.114 1.745 12208
2.076 0.094 1.459 2087
2.505 0.113 1.729 10330
2.087 0.094 1.458 2556
2.631 0.119 1.811 950
2.516 0.114 1.726 11853
2.090 0.094 1.452 3029
2.642 0.119 1.808 1080
2.521 0.114 1.719 13576
2.094 0.095 1.446 3378
2.647 0.120 1.800 1473
2.525 0.114 1.712 13760
2.098 0.095 1.440 3728
2.652 0.120 1.793 1649
2.530 0.114 1.705 13945
2.102 0.095 1.434 3537
2.657 0.120 1.785 1824
2.541 0.115 1.702 10410
2.099 0.095 1.424 3389
2.668 0.121 1.782 2040
2.545 0.115 1.694 6940
2.103 0.095 1.418 3155
2.673 0.121 1.774 2699
2.637 0.119 1.741 7016
2.510 0.113 1.662 4731
2.113 0.095 1.416 2935
2.765 0.125 1.821 1244
2.642 0.119 1.734 9113
2.514 0.114 1.655 4584
2.117 0.096 1.410 2580
2.770 0.125 1.813 1824
2.647 0.120 1.726 9446
2.519 0.114 1.648 3203
2.121 0.096 1.404 2224
2.775 0.125 1.805 1861
2.651 0.120 1.719 9778
2.780 0.126 1.797 1897
2.523 0.114 1.640 1821
2.124 0.096 1.398 1737
2.656 0.120 1.711 7816
2.785 0.126 1.789 1818
2.527 0.114 1.633 1729
2.121 0.096 1.388 1254
2.667 0.121 1.707 5947
2.538 0.115 1.630 1867
2.796 0.126 1.785 1492
2.132 0.096 1.386 896
2.740 0.124 1.740 7579
2.611 0.118 1.663 2422
2.482 0.112 1.586 778
2.869 0.130 1.817 773
2.751 0.124 1.737 9432
2.622 0.118 1.660 2111
2.493 0.113 1.583 1128
2.881 0.130 1.813 1027
2.756 0.125 1.729 10514
2.626 0.119 1.652 2216
2.885 0.130 1.805 1507
2.497 0.113 1.576 1075
2.761 0.125 1.721 11597
2.631 0.119 1.645 2321
2.890 0.131 1.797 1987
2.501 0.113 1.569 832
2.758 0.125 1.709 10740
2.888 0.131 1.784 2174
2.628 0.119 1.633 1337
2.756 0.125 1.697 10056
2.886 0.130 1.772 2373
2.544 0.115 1.574 770
2.774 0.125 1.697 9592
2.905 0.131 1.772 3030
2.806 0.127 1.705 8068
2.937 0.133 1.779 2373
2.676 0.121 1.630 1153
2.825 0.128 1.704 7369
2.955 0.134 1.778 1565
2.694 0.122 1.630 1110
2.836 0.128 1.700 5936
2.967 0.134 1.774 1766
2.705 0.122 1.627 961
2.848 0.129 1.696 4681
2.979 0.135 1.769 1935
2.716 0.123 1.623 816
2.894 0.131 1.711 4997
2.762 0.125 1.638 2259
3.025 0.137 1.784 949
2.905 0.131 1.706 6034
2.773 0.125 1.634 1602
3.037 0.137 1.779 793
2.923 0.132 1.706 5807
2.792 0.126 1.633 1455
2.991 0.135 1.731 10857
2.859 0.129 1.659 2308
2.995 0.135 1.723 14366
2.863 0.129 1.651 2090
3.000 0.136 1.714 14630
2.867 0.130 1.643 1929
2.997 0.135 1.702 14913
2.865 0.129 1.631 1219
3.130 0.141 1.772 814
3.002 0.136 1.693 12798
2.869 0.130 1.623 1147
3.135 0.142 1.763 1084
3.014 0.136 1.688 8308
2.880 0.130 1.618 1738
3.147 0.142 1.758 1240
3.032 0.137 1.687 6175
2.899 0.131 1.617 3176
3.165 0.143 1.756 894
3.030 0.137 1.674 7041
2.896 0.131 1.605 1774
3.163 0.143 1.743 1598
3.069 0.139 1.684 7473
2.935 0.133 1.615 2051
3.088 0.140 1.682 10102
2.933 0.133 1.603 1408
3.106 0.140 1.680 10273
2.944 0.133 1.598 1048
3.104 0.140 1.668 9338
3.238 0.146 1.735 1052
3.101 0.140 1.655 8624
3.236 0.146 1.722 975
3.099 0.140 1.643 8804
3.304 0.149 1.745 1415
3.089 0.140 1.627 7563
3.224 0.146 1.693 2167
3.359 0.152 1.760 816
2.954 0.133 1.561 763
3.178 0.144 1.660 6673
3.335 0.151 1.736 2412
3.043 0.138 1.594 2127
3.169 0.143 1.644 11688
3.354 0.152 1.733 3932
3.033 0.137 1.578 1084
3.166 0.143 1.631 23624
3.358 0.152 1.724 4178
3.501 0.158 1.792 1364
3.030 0.137 1.566 864
3.170 0.143 1.622 29817
3.356 0.152 1.711 3720
3.506 0.158 1.782 2091
3.034 0.137 1.558 855
3.174 0.143 1.613 29629
3.368 0.152 1.704 5143
3.503 0.158 1.769 3597
2.981 0.135 1.522 846
3.179 0.144 1.604 25997
3.487 0.158 1.748 6310
3.351 0.151 1.685 4654
3.043 0.137 1.540 1219
3.183 0.144 1.595 19708
3.470 0.157 1.728 8188
3.047 0.138 1.531 1734
3.334 0.151 1.665 1613
3.202 0.145 1.592 18189
3.453 0.156 1.708 9196
3.036 0.137 1.516 1491
3.625 0.164 1.788 1031
3.199 0.145 1.580 16042
3.450 0.156 1.695 8674
3.630 0.164 1.778 2013
3.019 0.136 1.497 1304
3.203 0.145 1.571 11444
3.440 0.155 1.679 6067
3.577 0.162 1.741 2966
3.023 0.137 1.489 1243
3.207 0.145 1.561 7015
3.430 0.155 1.662 4930
3.589 0.162 1.734 3912
2.998 0.135 1.467 1173
3.608 0.163 1.730 5010
3.442 0.156 1.656 5001
3.211 0.145 1.552 3863
2.995 0.135 1.455 1251
3.627 0.164 1.726 5870
3.447 0.156 1.646 4332
3.222 0.146 1.546 2585
2.998 0.135 1.447 1015
3.668 0.166 1.732 5081
3.480 0.157 1.649 2756
3.219 0.145 1.534 1664
3.009 0.136 1.441 783
3.680 0.166 1.724 4319
3.542 0.160 1.664 3024
3.405 0.154 1.604 1210
3.641 0.165 1.695 5576
3.503 0.158 1.635 2062
3.779 0.171 1.755 1828
3.653 0.165 1.687 6206
3.515 0.159 1.628 2540
3.791 0.171 1.747 1776
3.701 0.167 1.695 7155
3.563 0.161 1.636 3879
3.839 0.173 1.754 762
3.662 0.165 1.666 6902
3.800 0.172 1.725 1875
3.659 0.165 1.653 5838
3.797 0.172 1.711 2877
3.751 0.170 1.679 6186
3.890 0.176 1.736 1471
3.612 0.163 1.621 1352
3.858 0.174 1.710 4829
3.719 0.168 1.653 4153
3.870 0.175 1.702 5027
3.723 0.168 1.642 1939
3.874 0.175 1.691 5414
3.735 0.169 1.634 1532
3.871 0.175 1.677 8860
3.732 0.169 1.621 1451
3.876 0.175 1.666 13723
3.736 0.169 1.610 1495
3.873 0.175 1.651 16031
3.733 0.169 1.596 1191
3.877 0.175 1.640 13344
3.737 0.169 1.585 1050
3.882 0.175 1.629 10103
3.879 0.175 1.615 13167
3.883 0.175 1.604 15236
3.895 0.176 1.596 11847
3.884 0.176 1.579 7116
3.896 0.176 1.570 5395
3.915 0.177 1.565 8022
3.919 0.177 1.553 11123
3.923 0.177 1.542 10929
3.942 0.178 1.536 10661
3.953 0.179 1.527 9170
3.950 0.178 1.513 9012
3.961 0.179 1.505 9605
3.995 0.181 1.503 8952
3.984 0.180 1.487 9520
3.996 0.181 1.478 10000
3.999 0.181 1.466 9363
3.988 0.180 1.450 8505
4.000 0.181 1.441 7345
4.011 0.181 1.432 5931
4.007 0.181 1.418 6946
4.011 0.181 1.406 11475
4.007 0.181 1.392 12114
4.011 0.181 1.381 7389
4.044 0.183 1.378 5481
4.048 0.183 1.367 5740
4.059 0.183 1.357 6493
4.063 0.184 1.346 6766
4.066 0.184 1.334 5855
4.062 0.184 1.320 3877
4.058 0.183 1.306 2593
4.061 0.184 1.294 2573
4.072 0.184 1.285 3142
4.091 0.185 1.277 6297
4.102 0.185 1.268 10409
4.105 0.186 1.256 10804
4.372 0.198 1.329 964
4.101 0.185 1.242 7600
4.089 0.185 1.226 5211
4.076 0.184 1.210 6301
4.222 0.191 1.249 778
4.034 0.182 1.186 5912
4.179 0.189 1.225 2747
5.755 0.260 1.639 1060
4.021 0.182 1.171 6812
4.167 0.188 1.209 3205
5.759 0.260 1.623 1294
6.012 0.272 1.688 902
4.032 0.182 1.161 6843
4.178 0.189 1.198 2331
5.748 0.260 1.602 2173
6.016 0.272 1.671 1511
4.035 0.182 1.149 6300
5.752 0.260 1.585 4389
4.181 0.189 1.186 2413
6.028 0.272 1.656 1668
5.756 0.260 1.569 7374
4.038 0.182 1.138 4099
4.184 0.189 1.174 1863
6.033 0.273 1.638 1376
5.753 0.260 1.550 7219
4.171 0.189 1.159 1559
4.025 0.182 1.122 1435
6.022 0.272 1.617 1130
5.757 0.260 1.534 4663
4.021 0.182 1.109 1642
4.167 0.188 1.145 1081
6.010 0.272 1.596 833
5.753 0.260 1.515 8131
4.031 0.182 1.099 1299
6.007 0.271 1.576 878
5.757 0.260 1.498 11716
5.903 0.267 1.533 930
4.134 0.187 1.111 927
5.753 0.260 1.480 13286
5.900 0.267 1.514 919
4.160 0.188 1.105 769
5.757 0.260 1.463 13169
5.904 0.267 1.497 778
5.761 0.260 1.447 7611
5.954 0.269 1.491 871
5.765 0.261 1.430 4389
5.958 0.269 1.474 1202
5.761 0.260 1.412 4095
5.962 0.269 1.456 1156
5.772 0.261 1.397 5161
5.784 0.261 1.381 6567
5.962 0.269 1.420 912
5.795 0.262 1.366 5608
5.965 0.270 1.403 1884
5.799 0.262 1.350 2695
5.961 0.269 1.384 1830
7.625 0.345 1.735 769
5.841 0.264 1.341 1734
7.707 0.348 1.729 1382
6.081 0.275 1.391 1192
5.852 0.264 1.326 2310
7.719 0.349 1.708 1669
6.085 0.275 1.373 1656
7.402 0.334 1.643 1117
5.856 0.265 1.309 3157
7.406 0.335 1.621 2078
7.732 0.349 1.687 1901
6.088 0.275 1.355 1511
5.867 0.265 1.293 2780
7.418 0.335 1.601 2673
7.752 0.350 1.668 2446
7.209 0.326 1.560 2060
7.787 0.352 1.651 3226
7.422 0.335 1.580 2602
7.221 0.326 1.540 2538
5.870 0.265 1.276 1300
7.427 0.336 1.558 3305
7.792 0.352 1.629 3028
7.116 0.322 1.498 2793
7.264 0.328 1.527 1311
7.431 0.336 1.537 3807
7.128 0.322 1.479 2939
7.827 0.354 1.612 2695
7.275 0.329 1.507 984
7.824 0.354 1.588 4015
7.132 0.322 1.459 2919
7.435 0.336 1.515 2160
7.279 0.329 1.486 1462
7.828 0.354 1.565 4410
7.143 0.323 1.439 2422
8.217 0.371 1.636 1975
7.345 0.332 1.476 1671
7.832 0.354 1.542 2714
7.147 0.323 1.419 2686
8.229 0.372 1.614 2389
7.373 0.333 1.459 1921
7.143 0.323 1.396 3259
8.233 0.372 1.590 2754
7.376 0.333 1.438 2484
6.995 0.316 1.370 1838
7.053 0.319 1.359 2357
8.237 0.372 1.566 2231
7.380 0.334 1.417 2222
6.905 0.312 1.334 1604
6.947 0.314 1.320 3383
8.631 0.390 1.609 1815
7.095 0.321 1.346 1806
8.265 0.373 1.546 1612
6.912 0.312 1.294 2509
7.060 0.319 1.319 2379
8.628 0.390 1.582 2134
8.269 0.374 1.522 1707
6.970 0.315 1.283 2232
8.577 0.388 1.548 2014
8.281 0.374 1.499 1534
7.149 0.323 1.312 1121
6.965 0.315 1.261 2779
8.534 0.386 1.516 2118
8.386 0.379 1.492 1749
8.683 0.392 1.540 1331
8.523 0.385 1.489 2611
8.374 0.378 1.465 1941
6.976 0.315 1.242 1917
8.671 0.392 1.512 1440
8.402 0.380 1.444 2643
8.550 0.386 1.468 1946
6.878 0.311 1.206 1444
7.026 0.318 1.229 1434
8.413 0.380 1.421 3599
8.265 0.373 1.398 1633
6.904 0.312 1.190 1581
8.562 0.387 1.444 1463
8.417 0.380 1.397 3565
8.268 0.374 1.374 2727
6.939 0.314 1.174 1772
8.565 0.387 1.419 1455
8.295 0.375 1.354 3782
6.957 0.314 1.157 2052
8.444 0.382 1.376 1916
8.600 0.389 1.399 1003
8.283 0.374 1.327 3621
8.432 0.381 1.349 1611
6.960 0.315 1.136 1474
8.628 0.390 1.377 964
8.271 0.374 1.301 4447
8.420 0.380 1.322 2598
8.259 0.373 1.275 3283
8.423 0.381 1.298 2867
8.348 0.377 1.263 3252
8.199 0.371 1.242 2428
8.226 0.372 1.222 3971
8.375 0.378 1.242 3034
8.221 0.372 1.197 4506
8.370 0.378 1.216 1894
8.295 0.375 1.182 4391
8.146 0.368 1.163 1291
8.282 0.374 1.156 5420
8.133 0.368 1.137 1186
8.431 0.381 1.174 1020
8.262 0.373 1.129 5426
8.411 0.380 1.147 1482
8.112 0.367 1.111 750
8.257 0.373 1.104 3780
8.406 0.380 1.122 2514
8.107 0.366 1.087 790
8.244 0.373 1.078 3766
8.393 0.379 1.095 3071
8.246 0.373 1.054 4024
8.411 0.380 1.073 2852
8.249 0.373 1.030 3663
8.406 0.380 1.048 2908
8.100 0.366 1.014 771
8.674 0.392 1.077 759
8.236 0.372 1.005 2884
8.409 0.380 1.023 2556
8.676 0.392 1.051 1004
8.411 0.380 0.999 2719
8.223 0.372 0.979 1998
8.687 0.393 1.027 1112
8.414 0.380 0.974 3361
8.209 0.371 0.954 1233
8.689 0.393 1.002 1098
8.408 0.380 0.949 2891
8.928 0.403 0.999 1083
8.660 0.391 0.973 1056
8.259 0.373 0.935 885
8.434 0.381 0.927 1896
8.970 0.405 0.977 1245
8.615 0.389 0.944 1053
8.261 0.373 0.911 886
8.452 0.382 0.904 1813
8.980 0.406 0.952 1268
8.610 0.389 0.918 1131
8.439 0.381 0.878 1632
8.659 0.391 0.897 1242
8.982 0.406 0.926 1112
8.433 0.381 0.853 1482
8.669 0.392 0.873 1450
8.969 0.405 0.898 1374
9.260 0.418 0.923 760
8.955 0.405 0.871 1832
8.672 0.392 0.848 1411
9.113 0.412 0.884 1315
8.443 0.382 0.829 1263
8.965 0.405 0.846 1823
9.273 0.419 0.870 1317
8.461 0.382 0.806 1209
8.658 0.391 0.821 1183
8.999 0.407 0.822 2192
12.989 0.587 1.127 1275
8.470 0.383 0.782 1256
8.660 0.391 0.796 1226
9.024 0.408 0.798 2591
12.992 0.587 1.089 1637
8.480 0.383 0.758 1050
8.670 0.392 0.771 978
9.026 0.408 0.771 2622
12.995 0.587 1.051 1798
8.734 0.395 0.751 1184
9.020 0.408 0.745 2597
12.989 0.587 1.013 1724
8.728 0.394 0.725 1348
9.022 0.408 0.718 3070
13.000 0.587 0.975 1640
8.730 0.395 0.699 1322
9.024 0.408 0.692 2715
13.002 0.588 0.937 1829
8.732 0.395 0.674 932
12.457 0.563 0.904 772
9.009 0.407 0.665 1754
13.004 0.588 0.900 1588
10.888 0.492 0.775 827
12.460 0.563 0.868 763
13.006 0.588 0.862 1298
10.890 0.492 0.744 1201
8.995 0.406 0.638 941
12.993 0.587 0.823 1311
10.892 0.492 0.712 1310
13.003 0.588 0.786 1240
10.894 0.492 0.680 972
12.996 0.587 0.747 944
10.897 0.492 0.617 804
11.331 0.512 0.636 766
13.188 0.596 0.718 757
8.613 0.389 0.516 752
14.541 0.657 0.735 871
10.906 0.493 0.586 825
13.189 0.596 0.680 760
14.542 0.657 0.693 879
14.544 0.657 0.650 764
14.547 0.657 0.566 756
14.540 0.657 0.523 890
14.541 0.657 0.481 999
14.542 0.657 0.438 909
14.171 0.640 0.390 783
13.738 0.621 -1.101 763
13.136 0.594 -1.317 757
2.358 0.092 1.791 6612
2.362 0.092 1.784 13225
2.227 0.087 1.688 884
2.367 0.092 1.778 13225
2.490 0.097 1.865 1165
2.232 0.087 1.682 884
2.372 0.092 1.771 11593
2.495 0.097 1.857 1671
2.249 0.087 1.684 910
2.338 0.091 1.737 12615
2.461 0.096 1.823 4061
2.343 0.091 1.730 9932
2.479 0.096 1.825 4917
2.347 0.091 1.724 7250
2.490 0.097 1.823 6050
2.352 0.091 1.717 7250
2.495 0.097 1.815 6050
2.494 0.097 1.804 7040
2.363 0.092 1.715 5022
2.498 0.097 1.797 8174
2.374 0.092 1.712 3041
2.484 0.096 1.776 9199
2.359 0.092 1.692 1645
2.064 0.080 1.493 881
2.482 0.096 1.765 11233
2.068 0.080 1.487 877
2.357 0.092 1.681 780
2.493 0.097 1.762 10674
2.078 0.081 1.486 1266
2.368 0.092 1.679 832
2.511 0.098 1.764 11748
2.082 0.081 1.480 1675
2.386 0.093 1.681 1274
2.516 0.098 1.756 11748
2.079 0.081 1.470 1769
2.390 0.093 1.674 1147
2.521 0.098 1.749 10246
2.077 0.081 1.459 1955
2.395 0.093 1.667 1021
2.519 0.098 1.738 8673
2.087 0.081 1.458 2553
2.392 0.093 1.656 879
2.523 0.098 1.731 11563
2.091 0.081 1.452 3185
2.397 0.093 1.649 769
2.528 0.098 1.723 14382
2.102 0.082 1.450 3475
2.654 0.103 1.804 858
2.532 0.098 1.716 13754
2.105 0.082 1.444 3811
2.659 0.103 1.797 1018
2.537 0.099 1.709 13125
2.102 0.082 1.434 3437
2.664 0.104 1.789 1179
2.542 0.099 1.702 9330
2.100 0.082 1.424 3153
2.669 0.104 1.782 1755
2.546 0.099 1.694 5534
2.103 0.082 1.418 2932
2.674 0.104 1.774 2330
2.625 0.102 1.733 6916
2.114 0.082 1.416 2725
2.497 0.097 1.654 2384
2.752 0.107 1.812 1147
2.636 0.102 1.730 9021
2.508 0.097 1.651 2756
2.117 0.082 1.410 2368
2.764 0.107 1.808 1467
2.647 0.103 1.726 8281
2.519 0.098 1.648 2481
2.121 0.082 1.404 2011
2.776 0.108 1.805 1545
2.652 0.103 1.719 7830
2.780 0.108 1.797 1776
2.524 0.098 1.640 1663
2.125 0.083 1.398 1562
2.663 0.103 1.715 6482
2.535 0.098 1.637 2181
2.792 0.108 1.793 1453
2.128 0.083 1.392 1114
2.736 0.106 1.748 6101
2.580 0.100 1.655 4205
2.132 0.083 1.386 797
2.740 0.106 1.740 8069
2.598 0.101 1.655 3017
2.745 0.107 1.733 10037
2.616 0.102 1.656 2667
2.874 0.112 1.809 766
2.750 0.107 1.725 10976
2.620 0.102 1.648 2411
2.879 0.112 1.801 1119
2.754 0.107 1.717 11915
2.625 0.102 1.641 2154
2.884 0.112 1.793 1471
2.759 0.107 1.709 11033
2.889 0.112 1.784 1548
2.629 0.102 1.633 1481
2.757 0.107 1.697 10387
2.887 0.112 1.772 1681
2.768 0.108 1.693 9396
2.899 0.113 1.768 2494
2.814 0.109 1.709 7820
2.945 0.114 1.783 2157
2.683 0.104 1.634 1563
2.825 0.110 1.704 7449
2.956 0.115 1.778 2000
2.694 0.105 1.630 1381
2.830 0.110 1.696 6033
2.961 0.115 1.770 2604
2.699 0.105 1.623 1021
2.841 0.110 1.692 4653
2.973 0.115 1.765 2883
2.901 0.113 1.715 4294
2.770 0.108 1.642 2621
3.033 0.118 1.787 895
2.913 0.113 1.710 5026
2.781 0.108 1.638 1802
2.994 0.116 1.743 6332
2.862 0.111 1.671 2481
2.991 0.116 1.731 13582
2.859 0.111 1.659 2549
2.996 0.116 1.723 17641
2.864 0.111 1.651 2330
3.001 0.117 1.714 17874
2.868 0.111 1.643 2566
3.133 0.122 1.785 772
3.005 0.117 1.705 18106
2.872 0.112 1.635 2729
3.138 0.122 1.776 1028
3.010 0.117 1.697 16641
2.877 0.112 1.627 2228
3.143 0.122 1.767 1288
3.014 0.117 1.688 12049
2.881 0.112 1.618 1958
3.148 0.122 1.758 1478
3.019 0.117 1.679 8921
2.885 0.112 1.610 2116
3.152 0.122 1.749 1408
3.023 0.117 1.671 9644
3.157 0.123 1.740 1900
2.890 0.112 1.602 1593
3.035 0.118 1.666 9588
3.169 0.123 1.734 2483
2.901 0.113 1.597 1439
3.046 0.118 1.661 8716
3.180 0.124 1.729 2257
2.912 0.113 1.592 1636
3.114 0.121 1.684 7824
2.945 0.114 1.598 1634
3.119 0.121 1.675 6459
2.984 0.116 1.608 937
3.095 0.120 1.652 5128
3.230 0.125 1.719 1028
3.128 0.122 1.657 5984
3.262 0.127 1.724 901
3.146 0.122 1.655 7397
3.310 0.129 1.735 1071
3.186 0.124 1.663 7637
3.329 0.129 1.733 1690
3.051 0.119 1.597 1383
3.155 0.123 1.637 11935
3.355 0.130 1.733 2782
3.167 0.123 1.631 21343
3.366 0.131 1.727 3795
3.502 0.136 1.792 1002
3.171 0.123 1.622 26606
3.371 0.131 1.717 4283
3.507 0.136 1.782 1613
3.035 0.118 1.558 1086
3.182 0.124 1.616 26296
3.376 0.131 1.708 6270
3.511 0.136 1.772 3141
3.047 0.118 1.552 1498
3.180 0.124 1.604 22277
3.387 0.132 1.701 7235
3.523 0.137 1.765 4202
3.043 0.118 1.540 1404
3.184 0.124 1.595 15606
3.485 0.135 1.735 8414
3.349 0.130 1.672 2499
3.026 0.118 1.521 1305
3.195 0.124 1.589 12793
3.475 0.135 1.718 7563
3.339 0.130 1.655 1578
3.016 0.117 1.506 1192
3.199 0.124 1.580 12119
3.451 0.134 1.695 6740
3.631 0.141 1.778 1758
3.027 0.118 1.501 1147
3.204 0.124 1.571 9600
3.434 0.133 1.675 4621
3.571 0.139 1.738 2993
3.016 0.117 1.485 920
3.208 0.125 1.561 6222
3.431 0.133 1.662 4261
3.568 0.139 1.724 3975
3.443 0.134 1.656 4944
3.602 0.140 1.727 4515
3.212 0.125 1.552 3493
3.621 0.141 1.723 5431
3.447 0.134 1.646 4217
3.216 0.125 1.543 2297
3.662 0.142 1.728 4612
3.445 0.134 1.633 2265
3.220 0.125 1.534 1596
3.594 0.140 1.686 3729
3.732 0.145 1.746 3328
3.420 0.133 1.610 1285
3.736 0.145 1.736 4309
3.598 0.140 1.676 2872
3.741 0.145 1.725 4831
3.552 0.138 1.644 2950
3.724 0.145 1.705 6547
3.585 0.139 1.646 2762
3.236 0.126 1.497 816
3.736 0.145 1.697 6547
3.597 0.140 1.639 2562
3.240 0.126 1.487 757
3.762 0.146 1.696 6288
3.623 0.141 1.637 3061
3.781 0.147 1.691 7022
3.642 0.142 1.633 2199
3.808 0.148 1.689 6057
3.669 0.143 1.632 1427
3.871 0.150 1.702 4556
3.732 0.145 1.645 2256
3.817 0.148 1.667 4540
3.865 0.150 1.674 5530
3.726 0.145 1.618 1105
3.869 0.150 1.663 9938
3.730 0.145 1.607 976
3.867 0.150 1.649 14260
3.727 0.145 1.593 780
3.871 0.150 1.637 15204
3.731 0.145 1.582 941
3.868 0.150 1.623 13800
3.728 0.145 1.569 848
3.872 0.150 1.612 12776
3.884 0.151 1.604 11289
3.888 0.151 1.593 8014
3.892 0.151 1.582 7160
3.904 0.152 1.573 7389
3.908 0.152 1.562 10109
3.912 0.152 1.551 15422
3.916 0.152 1.539 16076
3.928 0.153 1.531 11990
3.939 0.153 1.522 8171
3.951 0.153 1.513 6921
3.962 0.154 1.505 6457
3.981 0.155 1.498 5195
3.978 0.155 1.484 5909
3.989 0.155 1.475 7229
3.993 0.155 1.464 7526
3.989 0.155 1.450 9247
4.001 0.155 1.441 8866
4.004 0.156 1.429 5826
4.001 0.155 1.415 6989
4.004 0.156 1.404 11771
4.001 0.155 1.390 14742
4.204 0.163 1.454 808
4.004 0.156 1.378 10029
4.023 0.156 1.371 4454
4.034 0.157 1.362 5103
4.038 0.157 1.351 5975
4.034 0.157 1.337 5490
4.029 0.157 1.323 5316
4.033 0.157 1.311 4600
4.067 0.158 1.308 4143
4.062 0.158 1.294 4124
4.066 0.158 1.283 3808
4.084 0.159 1.275 6983
4.103 0.159 1.268 11724
4.106 0.160 1.256 10992
4.373 0.170 1.329 914
4.117 0.160 1.246 8276
4.097 0.159 1.228 6016
4.070 0.158 1.208 8332
4.215 0.164 1.247 840
4.058 0.158 1.192 6816
5.741 0.223 1.635 1362
4.203 0.163 1.231 1218
4.022 0.156 1.171 6211
4.168 0.162 1.209 3578
5.737 0.223 1.617 1921
4.148 0.161 1.191 6546
4.002 0.155 1.153 4436
5.742 0.223 1.600 2437
4.151 0.161 1.179 7668
5.754 0.224 1.585 4823
4.005 0.156 1.142 4619
5.758 0.224 1.569 7821
4.154 0.161 1.167 6000
4.008 0.156 1.130 3716
5.754 0.224 1.550 6667
4.149 0.161 1.153 3545
4.004 0.156 1.117 1582
5.751 0.223 1.532 4025
4.129 0.160 1.135 2420
3.983 0.155 1.099 795
5.739 0.223 1.511 5723
4.132 0.161 1.123 1250
5.751 0.223 1.497 10338
5.755 0.224 1.480 13872
5.759 0.224 1.463 12822
5.755 0.224 1.445 8072
5.759 0.224 1.428 4903
5.755 0.224 1.410 5200
5.766 0.224 1.395 6204
5.778 0.224 1.380 7793
5.781 0.225 1.363 6289
5.793 0.225 1.348 3460
6.063 0.236 1.405 752
5.788 0.225 1.330 2908
5.935 0.231 1.360 1129
6.083 0.236 1.391 988
7.701 0.299 1.727 895
5.854 0.227 1.326 3169
6.187 0.240 1.394 1405
7.698 0.299 1.703 1084
7.404 0.288 1.643 1006
5.849 0.227 1.307 4754
7.408 0.288 1.621 1947
6.183 0.240 1.374 1787
7.749 0.301 1.690 1322
5.861 0.228 1.292 4148
7.420 0.288 1.601 2469
7.203 0.280 1.558 1858
6.194 0.241 1.358 1787
7.114 0.276 1.519 2592
7.424 0.288 1.580 2375
6.205 0.241 1.341 2271
5.887 0.229 1.279 1993
7.118 0.277 1.498 3652
7.429 0.289 1.558 3108
6.201 0.241 1.322 2174
7.794 0.303 1.629 1661
7.433 0.289 1.537 3551
7.122 0.277 1.478 3273
6.920 0.269 1.439 2167
6.205 0.241 1.304 1483
7.133 0.277 1.459 2754
6.923 0.269 1.419 2199
7.437 0.289 1.515 2087
7.281 0.283 1.486 1249
6.943 0.270 1.402 2693
7.137 0.277 1.438 2260
7.830 0.304 1.565 1356
7.340 0.285 1.475 1253
7.141 0.277 1.417 2525
6.954 0.270 1.383 2308
7.367 0.286 1.458 1184
7.834 0.304 1.542 1067
7.145 0.278 1.396 2972
6.872 0.267 1.348 2137
7.371 0.286 1.437 1448
8.243 0.320 1.591 1043
6.899 0.268 1.332 3530
7.055 0.274 1.359 2021
7.382 0.287 1.417 1331
8.255 0.321 1.569 895
6.918 0.269 1.315 4416
7.066 0.275 1.340 2200
8.493 0.330 1.585 1062
8.641 0.336 1.610 945
6.898 0.268 1.291 4069
7.046 0.274 1.316 1963
8.630 0.335 1.582 1172
8.482 0.330 1.558 974
6.894 0.268 1.270 3447
7.042 0.274 1.294 1762
8.572 0.333 1.547 1200
8.298 0.322 1.502 1047
6.873 0.267 1.246 3138
8.388 0.326 1.492 1829
7.022 0.273 1.270 1807
8.544 0.332 1.517 1231
6.877 0.267 1.226 3696
8.408 0.327 1.470 2472
7.025 0.273 1.250 1583
8.634 0.335 1.506 1529
6.872 0.267 1.205 2866
8.412 0.327 1.446 2495
7.020 0.273 1.228 1305
8.630 0.335 1.480 1175
8.415 0.327 1.421 2739
6.906 0.268 1.190 2167
8.243 0.320 1.395 2167
7.055 0.274 1.212 1089
8.271 0.321 1.374 4190
8.419 0.327 1.397 2725
6.948 0.270 1.175 2492
8.568 0.333 1.419 776
8.274 0.321 1.350 4476
6.967 0.271 1.158 3048
8.423 0.327 1.372 1772
8.270 0.321 1.325 4149
6.970 0.271 1.137 1803
8.419 0.327 1.347 1344
8.265 0.321 1.300 4993
8.414 0.327 1.321 2143
6.910 0.268 1.108 933
8.230 0.320 1.271 4573
8.425 0.327 1.298 2216
8.233 0.320 1.247 3571
8.382 0.326 1.267 1834
8.228 0.320 1.222 5198
8.377 0.325 1.242 1954
8.216 0.319 1.196 6137
8.365 0.325 1.215 1522
8.195 0.318 1.169 4203
8.344 0.324 1.188 2248
8.190 0.318 1.144 5425
8.339 0.324 1.163 2865
8.185 0.318 1.120 6504
8.334 0.324 1.138 2518
8.180 0.318 1.095 5742
8.369 0.325 1.117 2170
8.199 0.319 1.073 5236
8.372 0.325 1.093 2394
8.233 0.320 1.053 4587
8.390 0.326 1.070 2512
8.083 0.314 1.036 935
8.235 0.320 1.029 4135
8.401 0.326 1.047 2534
8.086 0.314 1.012 955
8.238 0.320 1.005 3537
8.419 0.327 1.024 2056
8.089 0.314 0.989 1021
8.225 0.320 0.979 2505
8.421 0.327 0.999 2356
8.416 0.327 0.974 3441
8.141 0.316 0.947 1712
8.411 0.327 0.949 3179
8.151 0.317 0.924 1179
8.655 0.336 0.973 828
8.437 0.328 0.927 2199
8.248 0.320 0.909 1210
8.633 0.335 0.945 976
8.972 0.349 0.977 872
8.455 0.328 0.904 2420
8.218 0.319 0.882 1489
8.652 0.336 0.922 1016
8.967 0.348 0.950 872
8.449 0.328 0.879 2159
8.662 0.337 0.897 1231
8.213 0.319 0.858 1211
8.435 0.328 0.853 1979
8.664 0.337 0.872 1438
8.955 0.348 0.897 994
8.445 0.328 0.829 1711
8.650 0.336 0.846 1459
8.950 0.348 0.870 1179
9.123 0.354 0.885 1034
8.463 0.329 0.806 1544
8.644 0.336 0.820 1438
9.141 0.355 0.859 971
9.291 0.361 0.871 793
8.473 0.329 0.782 1588
8.646 0.336 0.795 1419
9.041 0.351 0.825 891
9.277 0.360 0.843 804
8.482 0.330 0.758 1326
8.743 0.340 0.777 1181
9.051 0.352 0.799 1053
12.995 0.505 1.089 964
8.737 0.339 0.751 1953
9.037 0.351 0.772 1492
12.990 0.505 1.050 1029
8.500 0.330 0.734 1007
9.023 0.351 0.745 2672
8.731 0.339 0.725 2270
12.985 0.504 1.012 884
9.024 0.351 0.718 3433
8.732 0.339 0.699 2382
8.582 0.333 0.690 887
9.010 0.350 0.691 2953
8.734 0.339 0.674 1799
8.576 0.333 0.664 950
13.013 0.506 0.938 881
9.004 0.350 0.665 2200
8.728 0.339 0.648 931
13.008 0.505 0.900 904
12.439 0.483 0.866 809
8.998 0.350 0.638 1283
10.901 0.424 0.744 1155
13.002 0.505 0.861 979
10.903 0.424 0.712 1351
12.996 0.505 0.823 999
9.023 0.351 0.613 816
10.904 0.424 0.681 1380
13.014 0.506 0.786 863
10.898 0.423 0.649 1177
10.884 0.423 0.616 1061
14.545 0.565 0.735 888
14.070 0.547 0.716 858
10.893 0.423 0.585 797
14.331 0.557 0.726 782
14.546 0.565 0.693 906
14.064 0.546 0.674 878
10.934 0.425 0.555 772
11.370 0.442 0.538 755
14.553 0.565 0.481 773
14.554 0.565 0.439 850
14.555 0.565 0.396 768
13.844 0.538 -1.192 823
13.249 0.515 -1.329 776
2.358 0.082 1.791 7337
2.363 0.082 1.784 14674
2.240 0.078 1.697 1036
2.368 0.082 1.778 14674
2.490 0.086 1.865 1162
2.245 0.078 1.691 1036
2.366 0.082 1.766 12717
2.489 0.086 1.853 2099
2.243 0.078 1.680 891
2.338 0.081 1.737 13647
2.461 0.085 1.823 3795
2.343 0.081 1.730 10831
2.479 0.086 1.825 4707
2.354 0.082 1.728 8119
2.484 0.086 1.818 5734
2.359 0.082 1.721 8119
2.489 0.086 1.811 5734
2.501 0.087 1.808 6698
2.376 0.082 1.723 5663
2.102 0.073 1.536 759
2.505 0.087 1.801 7750
2.381 0.082 1.717 3459
2.099 0.073 1.526 771
2.484 0.086 1.776 7404
2.359 0.082 1.692 1833
2.090 0.072 1.511 919
2.469 0.085 1.756 9161
2.094 0.073 1.505 988
2.344 0.081 1.672 777
2.474 0.086 1.749 7423
2.092 0.072 1.494 1306
2.518 0.087 1.768 7227
2.393 0.083 1.685 2045
2.089 0.072 1.484 1663
2.523 0.087 1.761 7227
2.397 0.083 1.678 1777
2.086 0.072 1.474 1725
2.528 0.088 1.754 7128
2.077 0.072 1.459 1892
2.402 0.083 1.671 1509
2.532 0.088 1.746 7051
2.088 0.072 1.458 2439
2.406 0.083 1.665 1718
2.537 0.088 1.739 10650
2.091 0.072 1.452 3010
2.411 0.083 1.658 1249
2.542 0.088 1.732 14228
2.095 0.073 1.446 3065
2.540 0.088 1.720 12790
2.106 0.073 1.444 3132
2.666 0.092 1.801 759
2.544 0.088 1.713 11533
2.103 0.073 1.434 2862
2.691 0.093 1.806 947
2.549 0.088 1.706 8077
2.100 0.073 1.424 2612
2.676 0.093 1.786 1427
2.600 0.090 1.728 6976
2.110 0.073 1.422 2488
2.728 0.094 1.808 867
2.473 0.086 1.648 754
2.618 0.091 1.729 7540
2.114 0.073 1.416 2372
2.491 0.086 1.650 1102
2.746 0.095 1.808 817
2.630 0.091 1.725 8867
2.118 0.073 1.410 2066
2.502 0.087 1.647 1384
2.758 0.095 1.804 906
2.641 0.091 1.722 7257
2.121 0.073 1.404 1760
2.513 0.087 1.644 1511
2.769 0.096 1.801 1266
2.659 0.092 1.723 6008
2.531 0.088 1.645 2120
2.788 0.097 1.801 1323
2.125 0.074 1.398 1304
2.657 0.092 1.711 5953
2.528 0.088 1.633 1715
2.786 0.096 1.789 1534
2.129 0.074 1.392 848
2.743 0.095 1.752 5962
2.580 0.089 1.655 4198
2.741 0.095 1.740 7767
2.612 0.090 1.663 3174
2.746 0.095 1.733 9646
2.616 0.091 1.656 2763
2.750 0.095 1.725 10454
2.621 0.091 1.648 2393
2.880 0.100 1.801 773
2.755 0.095 1.717 11261
2.625 0.091 1.641 2024
2.885 0.100 1.793 939
2.759 0.096 1.709 10200
2.629 0.091 1.633 1393
2.896 0.100 1.788 991
2.757 0.095 1.697 9300
2.908 0.101 1.784 1089
2.769 0.096 1.693 8269
2.913 0.101 1.776 1699
2.814 0.097 1.709 7011
2.945 0.102 1.783 1994
2.684 0.093 1.634 1902
2.826 0.098 1.704 6863
2.957 0.102 1.778 2167
2.695 0.093 1.630 1597
2.830 0.098 1.696 5455
2.961 0.103 1.770 3208
2.699 0.093 1.623 1163
2.939 0.102 1.746 4551
2.800 0.097 1.669 4371
2.929 0.101 1.730 3858
2.798 0.097 1.657 3058
2.927 0.101 1.718 3624
2.795 0.097 1.645 1735
2.987 0.103 1.740 7537
2.855 0.099 1.668 2395
2.992 0.104 1.731 15896
2.860 0.099 1.659 3034
2.997 0.104 1.723 20288
2.864 0.099 1.651 2641
3.001 0.104 1.714 20227
2.869 0.099 1.643 3059
3.134 0.109 1.785 950
3.006 0.104 1.705 20166
2.873 0.099 1.635 3389
3.139 0.109 1.776 1224
3.010 0.104 1.697 19147
2.877 0.100 1.627 2985
3.143 0.109 1.767 1419
3.015 0.104 1.688 14758
2.882 0.100 1.618 2490
3.148 0.109 1.758 1451
3.019 0.105 1.679 11388
2.886 0.100 1.610 2312
3.153 0.109 1.749 1289
3.024 0.105 1.671 12154
3.157 0.109 1.740 1957
2.890 0.100 1.602 1771
3.035 0.105 1.666 12018
3.169 0.110 1.734 2537
2.901 0.100 1.597 1671
3.040 0.105 1.657 11032
3.174 0.110 1.725 2906
2.906 0.101 1.589 1490
3.037 0.105 1.645 9605
3.171 0.110 1.712 3909
2.903 0.101 1.577 760
3.041 0.105 1.636 7770
3.176 0.110 1.703 3071
3.046 0.105 1.627 7260
3.180 0.110 1.694 2104
3.135 0.109 1.661 6074
3.001 0.104 1.594 1333
3.270 0.113 1.727 838
3.133 0.108 1.648 8809
3.317 0.115 1.739 1056
3.123 0.108 1.632 10101
3.329 0.115 1.733 1693
3.134 0.109 1.627 10943
3.362 0.116 1.737 2494
3.160 0.109 1.628 14468
3.367 0.117 1.727 4058
3.010 0.104 1.556 901
3.502 0.121 1.792 796
3.179 0.110 1.626 18653
3.371 0.117 1.717 5189
3.043 0.105 1.561 1665
3.507 0.121 1.782 1208
3.183 0.110 1.616 19105
3.383 0.117 1.711 7321
3.519 0.122 1.775 2330
3.047 0.106 1.552 2045
3.187 0.110 1.607 16612
3.388 0.117 1.701 8055
3.524 0.122 1.765 3984
3.051 0.106 1.543 1408
3.184 0.110 1.595 11009
3.486 0.121 1.735 9067
3.349 0.116 1.672 2137
3.034 0.105 1.525 774
3.483 0.121 1.722 8235
3.196 0.111 1.589 7895
3.347 0.116 1.659 1404
3.620 0.125 1.785 890
3.200 0.111 1.580 8323
3.466 0.120 1.702 6549
3.603 0.125 1.764 1653
3.020 0.105 1.497 841
3.204 0.111 1.571 7411
3.456 0.120 1.685 4961
3.593 0.124 1.747 2234
3.208 0.111 1.561 4588
3.569 0.124 1.724 3643
3.432 0.119 1.662 3063
3.516 0.122 1.688 3793
3.653 0.126 1.749 2451
3.212 0.111 1.552 2309
3.614 0.125 1.720 4727
3.477 0.120 1.659 3602
3.217 0.111 1.543 1514
3.590 0.124 1.696 5282
3.452 0.120 1.636 2180
3.727 0.129 1.757 1558
3.221 0.112 1.534 1082
3.594 0.124 1.686 4357
3.732 0.129 1.746 2707
3.457 0.120 1.626 1382
3.744 0.130 1.739 3546
3.606 0.125 1.679 2479
3.468 0.120 1.619 779
3.742 0.130 1.725 4394
3.603 0.125 1.665 1833
3.732 0.129 1.708 6070
3.593 0.124 1.649 1963
3.237 0.112 1.497 819
3.743 0.130 1.700 6147
3.605 0.125 1.642 2641
3.241 0.112 1.487 786
3.770 0.131 1.699 5118
3.631 0.126 1.640 2962
3.804 0.132 1.700 7145
3.665 0.127 1.642 2472
3.801 0.132 1.686 8880
3.662 0.127 1.629 1371
3.798 0.132 1.672 9295
3.810 0.132 1.664 8937
3.836 0.133 1.662 8082
3.863 0.134 1.660 10820
3.867 0.134 1.649 16658
3.864 0.134 1.635 21464
3.724 0.129 1.580 931
3.869 0.134 1.623 20094
3.728 0.129 1.569 1053
3.873 0.134 1.612 15016
3.877 0.134 1.601 10416
3.889 0.135 1.593 8143
3.893 0.135 1.582 8759
3.905 0.135 1.573 8417
3.901 0.135 1.559 10459
3.905 0.135 1.548 17763
2.419 0.084 1.004 926
3.917 0.136 1.539 20813
2.429 0.084 1.000 1071
3.921 0.136 1.528 17141
2.439 0.084 0.995 935
3.933 0.136 1.519 10681
2.501 0.087 1.010 837
3.951 0.137 1.513 6070
2.511 0.087 1.005 760
3.955 0.137 1.502 3596
3.952 0.137 1.488 4249
3.956 0.137 1.477 5651
3.967 0.137 1.468 6791
3.964 0.137 1.454 7191
3.967 0.137 1.442 7680
3.986 0.138 1.436 6552
3.990 0.138 1.424 4344
3.994 0.138 1.413 5132
4.005 0.139 1.404 7753
3.994 0.138 1.387 11806
3.997 0.138 1.376 11610
3.993 0.138 1.362 7600
4.004 0.139 1.353 7153
4.023 0.139 1.346 7807
4.019 0.139 1.332 7920
4.015 0.139 1.318 7532
4.033 0.140 1.311 6372
4.052 0.140 1.304 5419
4.063 0.141 1.294 4725
4.074 0.141 1.285 4242
4.085 0.141 1.275 7269
4.103 0.142 1.268 11964
4.107 0.142 1.256 10193
4.374 0.151 1.329 755
4.110 0.142 1.244 7969
4.113 0.142 1.232 8076
4.086 0.141 1.212 7685
4.231 0.147 1.251 780
4.074 0.141 1.196 6898
5.734 0.199 1.633 1395
4.219 0.146 1.235 1001
4.138 0.143 1.201 5552
5.738 0.199 1.617 2849
3.992 0.138 1.163 2206
4.149 0.144 1.191 9735
5.743 0.199 1.600 3905
4.003 0.139 1.153 2869
4.159 0.144 1.181 10473
5.755 0.199 1.585 4786
4.014 0.139 1.144 4101
4.155 0.144 1.167 8442
5.759 0.199 1.569 5219
4.009 0.139 1.130 2722
4.142 0.143 1.151 5252
5.755 0.199 1.550 4724
3.996 0.138 1.115 925
5.744 0.199 1.530 4636
4.138 0.143 1.137 2681
5.740 0.199 1.511 4575
4.102 0.142 1.116 1183
5.752 0.199 1.497 7979
5.764 0.200 1.482 10751
5.760 0.199 1.463 8895
5.764 0.200 1.447 7273
5.760 0.199 1.428 5180
5.756 0.199 1.410 5534
5.759 0.199 1.393 5961
5.763 0.200 1.376 7657
5.759 0.199 1.358 7517
5.755 0.199 1.340 4576
5.902 0.204 1.371 772
5.774 0.200 1.326 4219
5.921 0.205 1.357 963
5.816 0.201 1.318 4055
6.188 0.214 1.394 1486
5.843 0.202 1.305 5498
6.192 0.214 1.376 1859
7.409 0.257 1.621 1312
7.200 0.249 1.579 835
5.854 0.203 1.290 4388
6.203 0.215 1.359 2256
7.414 0.257 1.600 1596
6.901 0.239 1.498 1249
6.206 0.215 1.341 2859
7.115 0.246 1.519 2641
5.911 0.205 1.284 2361
6.890 0.239 1.475 1741
7.119 0.247 1.498 3500
6.925 0.240 1.461 3043
6.210 0.215 1.323 2341
7.430 0.257 1.558 2136
6.913 0.239 1.438 4254
7.123 0.247 1.478 2755
7.434 0.257 1.537 2409
6.206 0.215 1.304 1314
6.909 0.239 1.417 3920
7.127 0.247 1.457 1941
7.438 0.258 1.515 1481
5.983 0.207 1.244 1003
6.913 0.239 1.396 3625
7.061 0.244 1.424 1632
4.095 0.142 0.880 1059
6.243 0.216 1.274 959
6.909 0.239 1.375 3235
7.056 0.244 1.402 1897
4.105 0.142 0.869 1274
7.259 0.251 1.438 931
6.881 0.238 1.349 3891
7.146 0.247 1.396 2001
4.108 0.142 0.858 1303
6.892 0.239 1.331 5881
7.056 0.244 1.359 1543
4.102 0.142 0.844 1430
6.896 0.239 1.311 6096
7.059 0.244 1.339 1967
4.096 0.142 0.831 1629
6.891 0.239 1.290 5812
7.040 0.244 1.315 1633
4.114 0.142 0.822 1498
6.887 0.238 1.268 5438
7.035 0.244 1.293 1490
4.139 0.143 0.814 1370
8.331 0.288 1.507 849
6.874 0.238 1.246 5801
7.031 0.243 1.271 1673
8.397 0.291 1.493 1389
4.141 0.143 0.802 1063
6.878 0.238 1.226 6491
8.409 0.291 1.470 1940
7.026 0.243 1.250 1539
4.159 0.144 0.793 1103
6.873 0.238 1.205 4544
8.405 0.291 1.444 1872
8.233 0.285 1.417 1674
7.022 0.243 1.228 1398
8.245 0.285 1.395 2967
6.900 0.239 1.188 2935
8.417 0.291 1.421 1888
7.048 0.244 1.211 1501
8.264 0.286 1.373 5309
6.910 0.239 1.170 2936
8.420 0.292 1.397 2019
7.059 0.244 1.192 1310
8.260 0.286 1.348 5463
6.968 0.241 1.158 2658
8.408 0.291 1.370 1537
8.232 0.285 1.319 5156
6.908 0.239 1.128 2229
8.381 0.290 1.341 1561
7.057 0.244 1.150 882
8.243 0.285 1.297 5128
6.903 0.239 1.107 2086
8.392 0.291 1.318 1523
8.239 0.285 1.272 4952
8.395 0.291 1.293 1565
6.906 0.239 1.087 1344
8.265 0.286 1.251 4645
8.116 0.281 1.231 2435
8.414 0.291 1.271 1059
8.245 0.285 1.224 5499
8.096 0.280 1.204 1139
8.394 0.291 1.244 1086
8.209 0.284 1.195 6306
8.358 0.289 1.214 1515
8.188 0.284 1.168 5089
8.338 0.289 1.187 1775
8.184 0.283 1.143 6660
8.333 0.289 1.162 1902
8.179 0.283 1.119 7856
8.328 0.288 1.137 1580
8.181 0.283 1.095 6764
8.354 0.289 1.115 1287
8.200 0.284 1.073 5948
8.349 0.289 1.090 1802
8.051 0.279 1.056 783
8.210 0.284 1.050 4731
8.376 0.290 1.068 2004
8.061 0.279 1.033 1153
8.237 0.285 1.029 4128
8.386 0.290 1.045 1946
8.087 0.280 1.012 1676
8.153 0.282 0.996 3855
8.420 0.292 1.024 1510
8.139 0.282 0.970 3721
8.423 0.292 0.999 2037
8.417 0.291 0.974 3200
8.142 0.282 0.947 2637
8.412 0.291 0.949 3156
8.144 0.282 0.923 1937
8.438 0.292 0.927 2380
8.186 0.283 0.903 2003
8.456 0.293 0.904 2666
8.204 0.284 0.881 2443
8.661 0.300 0.922 804
8.450 0.293 0.879 2267
8.206 0.284 0.857 2046
8.671 0.300 0.898 1006
8.437 0.292 0.853 1928
8.208 0.284 0.833 1403
8.673 0.300 0.873 1188
8.447 0.292 0.829 1753
8.652 0.300 0.846 1274
8.218 0.285 0.810 928
9.022 0.312 0.876 869
8.456 0.293 0.805 1590
8.638 0.299 0.819 1446
9.008 0.312 0.849 1016
8.474 0.293 0.782 1611
8.640 0.299 0.794 1583
9.011 0.312 0.823 1046
8.736 0.303 0.776 1546
8.484 0.294 0.758 1448
9.020 0.312 0.797 936
8.738 0.303 0.751 2200
9.030 0.313 0.771 1189
8.501 0.294 0.734 1184
8.740 0.303 0.725 2237
8.992 0.311 0.742 2153
8.535 0.296 0.712 1260
8.994 0.311 0.716 2833
8.742 0.303 0.700 2269
8.560 0.296 0.688 1676
8.996 0.311 0.690 2363
8.569 0.297 0.664 1780
8.743 0.303 0.675 1674
12.455 0.431 0.903 961
8.571 0.297 0.639 1520
9.005 0.312 0.665 1356
12.449 0.431 0.867 1050
8.776 0.304 0.651 972
9.038 0.313 0.640 1096
8.596 0.298 0.615 1073
12.435 0.431 0.830 868
8.754 0.303 0.624 814
8.605 0.298 0.591 1192
9.032 0.313 0.613 1108
8.755 0.303 0.599 970
10.897 0.377 0.712 773
8.614 0.298 0.566 1055
9.049 0.313 0.588 956
10.908 0.378 0.649 779
10.917 0.378 0.618 913
10.934 0.379 0.587 925
14.547 0.504 0.735 783
10.943 0.379 0.555 989
14.548 0.504 0.693 790
14.074 0.487 0.675 768
14.099 0.488 0.635 982
10.944 0.379 0.523 968
14.117 0.489 0.594 1120
10.946 0.379 0.491 766
14.110 0.489 0.553 836
13.240 0.458 -1.133 774
2.358 0.071 1.791 7874
2.363 0.071 1.784 15749
2.241 0.067 1.697 1064
2.368 0.071 1.778 15749
2.245 0.067 1.691 1064
2.491 0.075 1.865 1053
2.366 0.071 1.766 13613
2.489 0.075 1.853 1940
2.243 0.067 1.680 816
2.339 0.070 1.737 14419
2.462 0.074 1.823 3606
2.343 0.070 1.730 11492
2.467 0.074 1.816 4662
2.361 0.071 1.733 8977
2.485 0.075 1.818 5723
2.366 0.071 1.726 8977
2.490 0.075 1.811 5723
2.494 0.075 1.804 6920
