4.159 1.131 1.737 9947
4.024 1.094 1.685 2202
4.178 1.136 1.731 11071
4.042 1.099 1.678 4040
4.176 1.135 1.715 11598
4.039 1.098 1.663 2737
4.312 1.172 1.767 1027
4.187 1.138 1.706 14058
4.323 1.175 1.757 1667
4.051 1.101 1.654 1615
4.192 1.139 1.693 15212
4.328 1.176 1.744 2157
4.055 1.102 1.642 898
4.196 1.140 1.681 12532
4.332 1.178 1.731 1659
4.200 1.142 1.668 9730
4.337 1.179 1.718 1577
4.205 1.143 1.655 9661
4.341 1.180 1.705 2905
4.478 1.217 1.755 1368
4.209 1.144 1.643 9190
4.346 1.181 1.692 4119
4.483 1.218 1.742 2531
4.292 1.167 1.659 10001
4.430 1.204 1.708 3619
4.155 1.129 1.610 2161
4.567 1.241 1.757 830
4.304 1.170 1.649 7870
4.441 1.207 1.697 4434
4.167 1.132 1.600 2879
4.579 1.244 1.746 868
4.380 1.191 1.661 6044
4.192 1.139 1.595 3339
4.518 1.228 1.709 3072
4.486 1.219 1.683 7194
4.349 1.182 1.635 3897
4.182 1.137 1.577 2086
4.624 1.257 1.731 1053
4.483 1.219 1.667 7565
4.331 1.177 1.615 2358
4.635 1.260 1.720 1915
4.186 1.138 1.565 1793
4.487 1.220 1.654 7817
4.662 1.267 1.713 2587
4.328 1.176 1.599 1496
4.190 1.139 1.552 1434
4.564 1.241 1.665 8218
4.426 1.203 1.618 2713
4.702 1.278 1.712 2482
4.194 1.140 1.540 1160
4.474 1.216 1.620 6587
4.612 1.254 1.666 6055
4.750 1.291 1.712 2177
4.336 1.179 1.574 932
4.646 1.263 1.662 7377
4.486 1.219 1.609 5110
4.784 1.300 1.708 1982
4.643 1.262 1.646 6929
4.788 1.301 1.693 2086
4.497 1.222 1.598 2047
4.927 1.339 1.739 852
4.632 1.259 1.627 4778
4.771 1.297 1.672 3057
4.909 1.334 1.717 2560
4.486 1.219 1.580 1328
4.768 1.296 1.655 4075
4.921 1.338 1.705 3678
4.622 1.256 1.608 2514
4.940 1.343 1.695 4015
4.765 1.295 1.639 3222
4.626 1.257 1.595 1199
4.908 1.334 1.668 4308
4.754 1.292 1.620 2544
5.047 1.372 1.712 951
4.919 1.337 1.656 4689
4.780 1.299 1.613 1910
5.058 1.375 1.699 787
4.960 1.348 1.652 6684
4.821 1.310 1.610 1595
5.187 1.410 1.722 969
4.972 1.351 1.640 8383
5.199 1.413 1.709 1315
4.833 1.313 1.597 1105
1.022 0.278 0.434 874
4.969 1.350 1.623 9903
5.181 1.408 1.687 1716
1.023 0.278 0.431 985
4.966 1.350 1.606 9940
5.193 1.411 1.674 3043
1.024 0.278 0.429 960
4.962 1.349 1.589 5645
5.197 1.413 1.658 4160
1.024 0.278 0.426 769
4.974 1.352 1.576 3493
5.202 1.414 1.642 3467
5.341 1.452 1.683 1015
5.272 1.433 1.646 2953
4.985 1.355 1.563 2554
5.441 1.479 1.695 1768
5.240 1.424 1.620 3990
5.402 1.468 1.666 2073
4.989 1.356 1.548 1885
5.549 1.508 1.708 1126
5.236 1.423 1.602 3240
5.413 1.471 1.652 2662
5.553 1.509 1.691 1564
4.993 1.357 1.533 1415
5.535 1.505 1.669 4946
5.233 1.422 1.584 2489
5.395 1.466 1.629 1757
4.997 1.358 1.518 770
5.503 1.496 1.642 8344
5.230 1.421 1.566 2733
5.643 1.534 1.681 787
5.507 1.497 1.625 8020
5.234 1.423 1.551 1907
5.647 1.535 1.664 954
5.563 1.512 1.623 8989
5.422 1.474 1.585 2780
5.703 1.550 1.661 1373
5.252 1.428 1.539 758
5.575 1.515 1.608 9395
5.434 1.477 1.571 1997
5.715 1.553 1.645 1792
5.856 1.592 1.683 828
5.601 1.522 1.597 9707
5.460 1.484 1.560 2298
5.742 1.561 1.634 1910
6.208 1.687 1.757 1383
5.635 1.531 1.588 9624
5.494 1.493 1.552 3824
6.227 1.693 1.742 2414
6.087 1.654 1.705 1014
5.631 1.531 1.569 9071
6.224 1.692 1.721 3361
5.490 1.492 1.533 2440
5.772 1.569 1.605 1114
5.665 1.540 1.560 7492
6.222 1.691 1.701 5207
5.524 1.501 1.524 2331
6.363 1.729 1.737 923
5.654 1.537 1.539 6145
6.226 1.692 1.682 5906
6.367 1.731 1.717 1294
5.513 1.498 1.504 1089
6.252 1.699 1.669 4587
5.651 1.536 1.520 4386
5.792 1.574 1.555 1015
6.602 1.794 1.755 916
6.264 1.703 1.652 5884
5.662 1.539 1.505 1662
6.569 1.785 1.726 1235
6.428 1.747 1.692 774
6.283 1.708 1.637 5568
6.551 1.781 1.701 1468
5.755 1.564 1.510 1199
6.767 1.839 1.753 1122
6.302 1.713 1.622 4806
6.764 1.838 1.731 1629
6.556 1.782 1.682 1573
6.965 1.893 1.779 832
6.314 1.716 1.604 2452
6.575 1.787 1.665 1580
6.761 1.838 1.709 1479
6.962 1.892 1.756 1219
6.840 1.859 1.706 1583
6.661 1.810 1.665 1462
7.056 1.918 1.756 1244
6.318 1.717 1.585 988
7.053 1.917 1.733 1548
6.837 1.858 1.684 1419
6.322 1.718 1.566 1157
6.665 1.812 1.645 972
7.058 1.918 1.712 1940
6.326 1.719 1.547 1308
6.782 1.843 1.650 1234
7.312 1.987 1.769 943
7.077 1.924 1.694 1919
6.778 1.842 1.628 1040
7.309 1.987 1.745 1025
6.330 1.721 1.528 886
7.179 1.951 1.694 2311
7.037 1.913 1.663 969
7.396 2.010 1.741 938
7.183 1.952 1.672 1947
7.378 2.005 1.714 1219
7.565 2.056 1.754 1162
7.041 1.914 1.642 1066
7.210 1.960 1.655 1739
7.367 2.002 1.689 1713
7.569 2.057 1.732 1169
7.786 2.116 1.778 816
7.364 2.001 1.665 2631
7.214 1.961 1.634 2012
7.641 2.077 1.723 1623
7.896 2.146 1.776 1460
7.653 2.080 1.701 2215
7.383 2.007 1.646 2203
7.915 2.151 1.755 2093
7.226 1.964 1.614 1823
7.920 2.153 1.732 2883
7.680 2.087 1.683 2649
7.425 2.018 1.631 1816
8.062 2.191 1.760 936
7.932 2.156 1.709 3827
7.684 2.089 1.660 1768
8.074 2.195 1.738 1281
8.457 2.299 1.814 1143
7.944 2.159 1.687 4084
8.469 2.302 1.790 1753
8.086 2.198 1.715 1404
7.621 2.071 1.624 1274
7.963 2.164 1.666 3294
8.466 2.301 1.763 1739
7.625 2.072 1.601 955
8.106 2.203 1.693 861
7.982 2.170 1.645 2459
8.448 2.296 1.733 1871
8.711 2.368 1.783 1346
8.125 2.208 1.672 786
8.468 2.301 1.711 2279
7.926 2.154 1.610 2003
8.708 2.367 1.756 1643
8.874 2.412 1.787 1231
8.479 2.305 1.687 2660
7.945 2.160 1.589 2078
8.825 2.399 1.750 1683
8.622 2.344 1.713 1394
8.830 2.400 1.724 2197
8.476 2.304 1.660 1660
8.070 2.193 1.586 1442
8.619 2.343 1.686 1326
8.834 2.401 1.697 2725
8.993 2.444 1.725 2317
8.691 2.362 1.672 1285
7.999 2.174 1.549 1183
8.831 2.400 1.669 3170
8.982 2.441 1.695 2738
8.688 2.361 1.644 1085
8.010 2.177 1.526 1032
8.994 2.445 1.670 3038
8.843 2.404 1.644 2552
9.341 2.539 1.729 1156
9.612 2.612 1.776 984
9.006 2.448 1.644 3604
8.862 2.409 1.620 1877
9.375 2.548 1.706 1343
9.820 2.669 1.781 1222
9.010 2.449 1.617 2444
9.395 2.553 1.680 1548
9.779 2.658 1.744 1545
8.851 2.406 1.591 1438
9.776 2.657 1.713 1688
9.210 2.503 1.621 1398
9.406 2.557 1.653 1132
8.855 2.407 1.564 1072
10.166 2.763 1.745 1451
9.796 2.662 1.686 1181
9.214 2.504 1.594 879
8.852 2.406 1.536 848
10.178 2.766 1.715 2099
9.861 2.680 1.666 1290
10.510 2.857 1.767 834
10.175 2.765 1.684 2381
10.522 2.860 1.737 1149
9.857 2.679 1.635 919
10.333 2.809 1.708 877
10.179 2.767 1.653 2046
10.527 2.861 1.705 1531
10.943 2.974 1.767 1165
9.816 2.668 1.599 780
10.183 2.768 1.622 1478
10.524 2.860 1.672 1330
10.947 2.975 1.734 1285
10.803 2.936 1.713 905
10.808 2.938 1.681 1240
10.959 2.979 1.702 1152
11.254 3.059 1.745 1018
10.528 2.861 1.641 919
10.986 2.986 1.673 1109
10.789 2.933 1.645 928
11.259 3.060 1.711 828
10.630 2.889 1.623 761
10.983 2.985 1.638 1086
11.498 3.125 1.709 1078
11.187 3.041 1.666 926
11.260 3.060 1.642 1136
10.987 2.986 1.605 1049
11.502 3.126 1.674 1021
11.264 3.062 1.608 1183
11.507 3.127 1.640 931
11.097 3.016 1.586 920
11.742 3.191 1.671 768
11.518 3.131 1.606 1059
11.761 3.197 1.637 983
11.268 3.063 1.574 964
12.049 3.275 1.674 880
11.803 3.208 1.606 1090
11.636 3.163 1.586 1003
13.100 3.561 1.768 801
12.053 3.276 1.638 795
11.807 3.209 1.571 999
12.293 3.341 1.630 977
13.097 3.560 1.728 956
11.640 3.164 1.550 914
13.086 3.557 1.687 986
12.282 3.338 1.591 985
13.527 3.676 1.739 871
12.768 3.470 1.649 813
13.968 3.797 1.706 1083
13.965 3.796 1.663 1260
13.954 3.793 1.619 853
2.280 0.608 1.791 5077
2.284 0.609 1.784 10155
2.403 0.641 1.872 1604
2.166 0.578 1.697 978
2.295 0.612 1.782 10260
2.414 0.644 1.869 2728
2.177 0.581 1.695 1048
2.306 0.615 1.780 9627
2.425 0.647 1.867 2327
2.187 0.583 1.693 1025
2.323 0.620 1.782 10339
2.442 0.651 1.868 1905
2.204 0.588 1.696 1380
2.322 0.619 1.771 9941
2.441 0.651 1.857 1932
2.320 0.619 1.760 10226
2.440 0.651 1.845 1811
2.325 0.620 1.753 10226
2.470 0.659 1.856 2058
2.329 0.621 1.746 9695
2.449 0.653 1.831 3813
2.340 0.624 1.743 9392
2.460 0.656 1.828 5397
2.452 0.654 1.812 8467
2.332 0.622 1.728 6185
2.573 0.686 1.896 894
2.463 0.657 1.809 10741
2.343 0.625 1.725 4046
2.584 0.689 1.893 1090
2.468 0.658 1.802 9473
2.347 0.626 1.718 3882
2.589 0.690 1.885 1353
2.473 0.659 1.794 8205
2.352 0.627 1.711 3718
2.594 0.692 1.877 1976
2.477 0.661 1.787 8205
2.356 0.628 1.704 2811
2.599 0.693 1.870 2335
2.553 0.681 1.827 7439
2.412 0.643 1.732 3571
2.557 0.682 1.820 8329
2.416 0.644 1.725 3259
2.556 0.682 1.808 7665
2.414 0.644 1.713 2143
2.547 0.679 1.792 7259
2.670 0.712 1.873 1357
2.425 0.647 1.711 1026
2.578 0.688 1.801 7358
2.455 0.655 1.720 1826
2.700 0.720 1.882 1020
2.589 0.690 1.798 8689
2.466 0.658 1.717 1896
2.712 0.723 1.878 1057
2.594 0.692 1.790 8336
2.471 0.659 1.710 1500
2.717 0.725 1.870 1108
2.598 0.693 1.782 7982
2.722 0.726 1.862 1159
2.475 0.660 1.703 1103
2.674 0.713 1.821 5818
2.551 0.680 1.741 2507
2.692 0.718 1.821 6834
2.568 0.685 1.742 2210
2.697 0.719 1.813 7048
2.573 0.686 1.734 2117
2.702 0.721 1.805 7262
2.577 0.687 1.727 2025
2.706 0.722 1.797 6580
2.582 0.689 1.719 1613
2.691 0.718 1.777 6058
2.816 0.751 1.854 905
2.709 0.723 1.777 8653
2.834 0.756 1.854 1262
2.714 0.724 1.769 11524
2.839 0.757 1.845 1774
2.718 0.725 1.761 10212
2.844 0.758 1.837 3315
2.723 0.726 1.753 8900
2.848 0.760 1.829 4855
2.820 0.752 1.800 7025
2.694 0.719 1.725 3891
2.792 0.744 1.772 6995
2.666 0.711 1.697 1038
2.917 0.778 1.847 973
2.796 0.746 1.764 6011
2.922 0.779 1.839 1538
2.867 0.765 1.795 5452
2.741 0.731 1.720 1642
2.865 0.764 1.782 5199
2.739 0.730 1.708 1171
2.856 0.762 1.766 5791
2.868 0.765 1.761 6325
3.008 0.802 1.842 813
2.872 0.766 1.753 6449
3.006 0.802 1.830 1481
2.877 0.767 1.744 6574
3.004 0.801 1.817 2241
2.888 0.770 1.740 7993
3.016 0.804 1.812 2204
2.906 0.775 1.739 8512
3.047 0.813 1.818 2220
2.911 0.776 1.730 7565
3.052 0.814 1.809 2648
2.922 0.779 1.725 6901
3.077 0.821 1.811 4100
2.974 0.793 1.742 9288
3.102 0.827 1.813 5156
2.978 0.794 1.734 8566
3.107 0.829 1.804 5411
2.989 0.797 1.728 7684
3.118 0.832 1.798 4082
2.994 0.798 1.720 7447
3.123 0.833 1.789 2649
2.865 0.764 1.650 783
3.005 0.801 1.714 7014
3.134 0.836 1.783 2192
3.009 0.803 1.705 4747
3.139 0.837 1.774 1769
2.993 0.798 1.686 2887
3.150 0.840 1.768 2025
3.162 0.843 1.762 2464
2.998 0.799 1.677 2007
3.214 0.857 1.778 2724
3.002 0.801 1.668 1178
3.164 0.844 1.740 4389
3.027 0.807 1.670 1241
3.175 0.847 1.734 8307
3.024 0.807 1.657 1436
3.214 0.857 1.742 9750
3.077 0.821 1.672 1838
3.232 0.862 1.739 10002
3.088 0.824 1.667 2254
3.244 0.865 1.733 9266
3.072 0.819 1.647 2242
3.262 0.870 1.731 7645
3.055 0.815 1.628 2294
3.393 0.905 1.796 866
3.273 0.873 1.724 7111
3.032 0.809 1.605 2469
3.405 0.908 1.789 967
3.278 0.874 1.714 6162
3.022 0.806 1.589 3026
3.409 0.909 1.779 1351
3.296 0.879 1.711 7811
3.026 0.807 1.580 4002
3.428 0.914 1.775 898
3.308 0.882 1.705 10330
3.030 0.808 1.571 3472
3.326 0.887 1.702 11217
3.041 0.811 1.566 2557
3.337 0.890 1.695 10501
3.038 0.810 1.553 2119
3.469 0.925 1.758 878
3.397 0.906 1.711 16532
3.265 0.871 1.649 1872
3.035 0.809 1.541 1503
3.402 0.907 1.701 23866
3.269 0.872 1.640 2060
3.025 0.807 1.526 1175
3.569 0.952 1.779 813
3.406 0.908 1.691 28046
3.273 0.873 1.630 1668
3.015 0.804 1.510 971
3.588 0.957 1.775 889
3.410 0.910 1.681 27615
3.278 0.874 1.620 1581
3.592 0.958 1.765 1290
3.012 0.803 1.498 914
3.415 0.911 1.671 23050
3.548 0.946 1.732 2004
3.261 0.870 1.601 1359
3.681 0.982 1.792 841
3.419 0.912 1.661 15024
3.552 0.947 1.721 3589
3.685 0.983 1.781 1194
3.265 0.871 1.591 979
3.423 0.913 1.651 13499
3.557 0.949 1.710 4694
3.690 0.984 1.770 1189
3.428 0.914 1.640 15867
3.561 0.950 1.700 5425
3.695 0.985 1.759 1647
3.432 0.915 1.630 12628
3.565 0.951 1.689 5789
3.699 0.987 1.748 2752
3.549 0.946 1.669 7001
3.415 0.911 1.611 5578
3.697 0.986 1.734 4042
3.574 0.953 1.668 7253
3.708 0.989 1.726 4727
3.440 0.917 1.610 3935
3.842 1.025 1.784 1439
3.699 0.986 1.709 6460
3.564 0.951 1.651 5526
3.833 1.022 1.767 4003
3.430 0.915 1.593 2455
3.703 0.988 1.698 9234
3.837 1.023 1.755 5280
3.512 0.937 1.616 3749
3.707 0.989 1.687 11138
3.842 1.025 1.744 5215
3.559 0.949 1.624 1978
3.712 0.990 1.676 10317
3.846 1.026 1.733 5956
3.577 0.954 1.619 1861
3.981 1.062 1.789 1097
3.723 0.993 1.668 7545
3.858 1.029 1.724 7207
3.588 0.957 1.612 1838
3.993 1.065 1.780 1487
3.869 1.032 1.715 6570
3.735 0.996 1.660 4061
4.004 1.068 1.771 1267
3.600 0.960 1.604 1059
3.888 1.037 1.710 4072
3.732 0.995 1.646 1531
4.023 1.073 1.765 1411
4.158 1.109 1.820 832
3.942 1.051 1.718 2893
4.078 1.088 1.773 1267
3.800 1.013 1.661 1133
3.961 1.056 1.712 3354
4.097 1.093 1.767 1713
3.826 1.020 1.658 901
4.051 1.080 1.735 4440
3.916 1.044 1.681 3022
4.187 1.117 1.789 1381
4.077 1.087 1.731 4427
3.941 1.051 1.677 3263
4.213 1.124 1.785 1013
4.124 1.100 1.736 5447
3.938 1.050 1.663 2556
4.158 1.109 1.735 7335
4.022 1.073 1.682 3283
4.176 1.114 1.728 8021
4.040 1.078 1.675 3944
4.174 1.113 1.713 8036
4.037 1.077 1.661 2805
4.310 1.149 1.765 823
4.200 1.120 1.708 8922
4.063 1.084 1.657 2191
4.336 1.156 1.760 1034
4.204 1.121 1.696 9867
4.067 1.085 1.644 1530
4.341 1.158 1.747 1272
4.216 1.124 1.686 8901
4.079 1.088 1.635 1320
4.352 1.161 1.737 1125
4.263 1.137 1.689 7720
4.098 1.093 1.628 1147
4.407 1.175 1.742 1047
4.282 1.142 1.682 7507
4.426 1.180 1.734 1202
4.145 1.105 1.632 1056
4.301 1.147 1.674 10062
4.164 1.110 1.625 2012
4.474 1.193 1.737 1770
4.298 1.146 1.659 10489
4.435 1.183 1.708 2257
4.161 1.110 1.610 1166
4.309 1.149 1.649 7309
4.447 1.186 1.697 2848
4.172 1.113 1.600 1822
4.393 1.172 1.664 6480
4.531 1.208 1.712 2096
4.256 1.135 1.615 1957
4.427 1.181 1.661 7671
4.289 1.144 1.613 3823
4.564 1.217 1.709 1969
4.438 1.184 1.650 6862
4.300 1.147 1.602 3825
4.576 1.220 1.697 3278
4.566 1.218 1.679 6244
4.428 1.181 1.632 3720
4.290 1.144 1.585 2883
4.704 1.255 1.726 1688
4.577 1.221 1.668 7096
4.439 1.184 1.621 3906
4.301 1.147 1.574 2928
4.716 1.258 1.714 1990
4.473 1.193 1.617 6915
4.611 1.230 1.664 6040
4.756 1.269 1.712 2244
4.320 1.152 1.566 2161
4.652 1.241 1.662 7317
4.477 1.194 1.604 5784
4.790 1.277 1.708 2764
4.324 1.153 1.553 999
4.656 1.242 1.648 6780
4.794 1.279 1.693 3610
4.474 1.193 1.588 2717
4.933 1.316 1.739 938
4.784 1.276 1.674 4445
4.646 1.239 1.629 4014
4.923 1.313 1.719 2089
4.463 1.190 1.570 1702
4.788 1.277 1.660 5206
4.964 1.324 1.716 3592
4.642 1.238 1.613 1975
4.496 1.199 1.566 895
4.968 1.325 1.702 4532
4.785 1.276 1.643 3421
4.647 1.239 1.599 1397
4.921 1.313 1.671 4277
4.768 1.272 1.622 1739
5.060 1.350 1.714 1013
4.955 1.321 1.665 3981
4.816 1.284 1.622 1673
4.996 1.332 1.661 5038
4.857 1.295 1.619 1781
5.135 1.370 1.704 1261
5.008 1.336 1.649 6050
5.147 1.373 1.691 1523
4.868 1.298 1.606 1102
1.016 0.271 0.432 785
4.975 1.327 1.623 7215
5.188 1.384 1.687 1957
1.017 0.271 0.429 854
4.987 1.330 1.610 6938
5.200 1.387 1.674 3161
1.017 0.271 0.426 805
5.204 1.388 1.658 4446
5.020 1.339 1.604 4284
5.403 1.441 1.717 771
5.216 1.391 1.645 4017
5.017 1.338 1.587 3009
5.400 1.440 1.698 1094
5.242 1.398 1.635 3550
4.991 1.331 1.563 1625
5.389 1.437 1.678 1572
5.529 1.475 1.718 1082
5.254 1.401 1.622 4358
5.394 1.438 1.662 2543
5.534 1.476 1.702 1171
4.995 1.332 1.548 1145
5.250 1.400 1.604 3759
5.413 1.444 1.650 3519
5.568 1.485 1.693 1294
4.999 1.333 1.533 779
5.476 1.460 1.650 4945
5.240 1.397 1.584 3042
5.616 1.498 1.689 1228
5.502 1.467 1.640 8566
5.236 1.397 1.566 2911
5.643 1.505 1.678 1092
5.566 1.484 1.639 8668
5.425 1.447 1.601 4994
5.240 1.398 1.551 1965
5.706 1.522 1.678 868
5.578 1.488 1.625 11698
5.437 1.450 1.587 7433
5.718 1.525 1.663 1149
5.582 1.489 1.608 10366
5.441 1.451 1.571 4204
5.722 1.526 1.645 1396
6.204 1.655 1.773 1201
5.578 1.488 1.589 8921
5.719 1.525 1.626 2338
6.216 1.658 1.757 1727
5.438 1.450 1.552 978
5.575 1.487 1.571 7986
5.716 1.524 1.607 3512
6.221 1.659 1.738 2264
6.080 1.621 1.702 1372
5.631 1.502 1.567 7027
6.232 1.662 1.721 2680
6.091 1.625 1.685 1672
5.772 1.539 1.604 980
6.229 1.661 1.701 5083
5.598 1.493 1.541 4883
5.739 1.531 1.577 1944
6.088 1.624 1.665 1267
6.219 1.659 1.678 6458
5.609 1.496 1.526 4008
5.751 1.534 1.562 1597
6.360 1.696 1.714 1438
6.253 1.668 1.667 5249
5.628 1.501 1.513 3323
5.769 1.539 1.548 938
6.112 1.630 1.632 757
6.272 1.673 1.652 7671
5.617 1.498 1.493 1440
6.451 1.720 1.696 883
5.863 1.564 1.552 792
6.284 1.676 1.635 7820
6.448 1.720 1.674 1125
5.613 1.497 1.474 875
5.874 1.567 1.537 845
6.296 1.679 1.618 6714
6.773 1.806 1.731 1273
6.959 1.856 1.775 1100
6.445 1.719 1.653 948
6.277 1.674 1.594 5072
6.964 1.857 1.754 1984
6.673 1.780 1.686 1874
6.822 1.819 1.721 1234
6.274 1.673 1.573 3464
6.677 1.781 1.666 2349
6.968 1.858 1.733 1852
6.826 1.821 1.701 1189
6.285 1.676 1.556 2142
6.674 1.780 1.645 1710
7.175 1.913 1.758 1421
6.973 1.860 1.713 1135
6.334 1.689 1.547 1748
7.074 1.887 1.713 1455
6.678 1.781 1.625 1246
7.216 1.925 1.745 1006
7.086 1.890 1.694 1880
6.338 1.690 1.528 1306
7.408 1.976 1.765 1133
7.228 1.928 1.725 1124
7.188 1.917 1.694 2078
7.046 1.879 1.663 1398
7.420 1.979 1.744 1270
6.694 1.785 1.586 818
7.170 1.912 1.667 1946
7.454 1.988 1.729 1800
7.028 1.874 1.637 1077
7.597 2.026 1.759 999
7.459 1.989 1.706 2148
7.182 1.915 1.647 1496
7.789 2.077 1.776 1100
7.601 2.027 1.736 884
7.366 1.964 1.663 2916
7.786 2.076 1.751 1767
7.223 1.926 1.634 1530
7.508 2.002 1.693 1465
7.438 1.984 1.655 2394
7.903 2.108 1.751 1918
7.693 2.052 1.708 1756
7.213 1.924 1.609 1486
7.697 2.053 1.685 2654
7.922 2.113 1.730 2593
7.487 1.997 1.642 1974
8.065 2.151 1.759 956
7.934 2.116 1.708 3218
8.077 2.154 1.736 1977
7.701 2.054 1.661 1912
8.468 2.258 1.814 1175
7.961 2.123 1.688 3307
8.104 2.161 1.716 2057
8.480 2.262 1.790 1742
7.818 2.085 1.660 1232
7.973 2.126 1.666 2231
8.484 2.263 1.765 1640
8.116 2.165 1.693 1319
8.342 2.225 1.737 898
8.007 2.136 1.648 1647
8.730 2.328 1.785 1390
8.489 2.264 1.739 1361
8.742 2.331 1.760 2143
8.064 2.151 1.633 2054
8.516 2.271 1.718 1771
8.900 2.374 1.789 1166
8.084 2.156 1.612 2369
8.754 2.335 1.735 2169
8.490 2.264 1.687 2028
8.897 2.373 1.761 1285
8.103 2.161 1.590 2499
8.992 2.398 1.751 1844
8.804 2.348 1.717 1789
8.495 2.266 1.661 1558
8.997 2.399 1.724 3287
8.107 2.162 1.566 1723
8.853 2.361 1.698 1718
8.710 2.323 1.673 1175
9.001 2.401 1.697 3957
8.858 2.362 1.672 1595
8.714 2.324 1.647 1113
8.020 2.139 1.526 1081
9.013 2.404 1.671 4298
8.869 2.365 1.646 1825
9.571 2.553 1.766 1253
9.209 2.456 1.705 933
9.025 2.407 1.645 5064
8.881 2.369 1.621 1771
9.576 2.554 1.738 1251
9.833 2.622 1.781 1183
9.029 2.408 1.618 3444
9.822 2.620 1.749 1461
9.407 2.509 1.680 1373
9.588 2.557 1.710 1207
9.804 2.615 1.716 1610
9.033 2.409 1.591 1285
9.615 2.564 1.685 1207
9.230 2.461 1.623 960
9.808 2.616 1.686 1409
9.642 2.571 1.660 1185
10.058 2.682 1.726 925
10.519 2.805 1.799 875
9.888 2.637 1.668 1303
10.183 2.716 1.714 1299
9.639 2.571 1.630 888
10.531 2.809 1.768 853
10.188 2.717 1.684 1504
10.339 2.757 1.707 1078
10.695 2.852 1.761 976
10.521 2.806 1.734 836
10.200 2.720 1.654 1450
10.949 2.920 1.766 1292
10.525 2.807 1.703 1046
10.343 2.759 1.676 940
10.954 2.921 1.733 1351
10.545 2.812 1.673 1193
10.211 2.723 1.625 1015
11.234 2.996 1.774 962
10.943 2.918 1.698 1370
10.799 2.880 1.677 1082
11.216 2.991 1.737 1026
10.557 2.815 1.643 911
11.000 2.934 1.673 1156
10.811 2.883 1.646 964
11.796 3.146 1.784 874
11.190 2.984 1.699 840
10.997 2.933 1.638 1093
11.520 3.072 1.710 1092
11.187 2.983 1.664 967
11.369 3.032 1.689 773
11.274 3.007 1.642 1172
10.994 2.932 1.604 1082
11.525 3.074 1.675 900
11.699 3.120 1.699 764
11.279 3.008 1.608 1159
11.840 3.158 1.681 968
11.096 2.959 1.584 951
11.829 3.155 1.644 1071
12.057 3.216 1.673 886
12.687 3.384 1.754 845
11.283 3.009 1.574 838
11.826 3.154 1.607 1185
12.069 3.219 1.638 870
13.117 3.498 1.768 831
11.651 3.107 1.586 771
12.301 3.281 1.629 1145
11.815 3.151 1.570 1073
12.772 3.406 1.686 950
13.114 3.497 1.728 920
12.298 3.280 1.591 1091
13.095 3.493 1.686 860
12.776 3.407 1.648 838
13.985 3.730 1.791 836
13.989 3.731 1.749 923
13.994 3.732 1.707 1224
13.983 3.729 1.663 1232
13.979 3.728 1.620 908
2.282 0.598 1.791 4588
2.287 0.599 1.784 9177
2.406 0.630 1.872 1446
2.169 0.568 1.697 1213
2.298 0.602 1.782 9408
2.417 0.633 1.869 2491
2.179 0.571 1.695 1296
2.309 0.605 1.780 8753
2.428 0.636 1.867 2165
2.190 0.574 1.693 1237
2.326 0.610 1.782 9180
2.445 0.641 1.868 1711
2.207 0.578 1.696 1627
2.324 0.609 1.771 9729
2.444 0.640 1.857 2092
2.205 0.578 1.685 852
2.323 0.609 1.760 10674
2.442 0.640 1.845 2548
2.327 0.610 1.753 10674
2.447 0.641 1.838 2658
2.338 0.613 1.750 10687
2.458 0.644 1.835 3309
2.349 0.616 1.748 11300
2.469 0.647 1.832 3949
2.366 0.620 1.750 8727
2.487 0.652 1.834 5094
2.466 0.646 1.809 8048
2.345 0.615 1.725 4445
2.587 0.678 1.893 1237
2.477 0.649 1.806 6656
2.356 0.618 1.723 4324
2.598 0.681 1.889 1070
2.539 0.666 1.838 6006
2.399 0.629 1.742 4838
2.544 0.667 1.830 6006
2.410 0.632 1.739 4557
2.555 0.670 1.827 6504
2.421 0.634 1.736 3765
2.560 0.671 1.820 7079
2.419 0.634 1.725 3125
2.558 0.671 1.808 6735
2.423 0.635 1.718 2090
2.557 0.670 1.796 6588
2.421 0.635 1.706 1064
2.679 0.702 1.877 1020
2.594 0.680 1.810 6676
2.471 0.648 1.729 1896
2.605 0.683 1.806 8944
2.482 0.650 1.726 2523
2.616 0.686 1.803 9379
2.493 0.653 1.723 2224
2.739 0.718 1.883 827
2.627 0.689 1.799 9970
2.504 0.656 1.719 1525
2.751 0.721 1.879 916
2.645 0.693 1.800 7265
2.521 0.661 1.720 1217
2.669 0.700 1.804 6237
2.545 0.667 1.725 982
2.693 0.706 1.809 6551
2.569 0.673 1.730 1895
2.698 0.707 1.801 6981
2.574 0.675 1.723 2095
2.683 0.703 1.781 5929
2.808 0.736 1.858 876
2.559 0.671 1.703 862
2.681 0.703 1.769 5466
2.806 0.735 1.846 1317
2.692 0.706 1.765 7659
2.817 0.738 1.842 1702
2.704 0.709 1.761 10147
2.829 0.741 1.837 2236
2.715 0.712 1.757 9222
2.840 0.744 1.833 3740
2.719 0.713 1.749 8369
2.845 0.746 1.825 5448
2.823 0.740 1.800 6936
2.697 0.707 1.725 4144
2.828 0.741 1.792 6918
2.702 0.708 1.717 2082
2.846 0.746 1.791 6232
2.720 0.713 1.717 1578
2.857 0.749 1.787 5864
2.731 0.716 1.713 923
2.862 0.750 1.778 6257
2.873 0.753 1.774 6531
2.746 0.720 1.700 841
2.878 0.754 1.765 6590
2.882 0.755 1.757 7131
3.010 0.789 1.830 1320
2.887 0.757 1.748 7672
3.014 0.790 1.821 2012
2.898 0.760 1.743 10042
3.026 0.793 1.816 1943
2.909 0.763 1.739 11407
3.044 0.798 1.814 1946
2.914 0.764 1.730 10208
3.042 0.797 1.801 2200
2.952 0.774 1.740 9457
3.080 0.807 1.811 3366
2.824 0.740 1.669 782
2.970 0.778 1.739 12227
3.099 0.812 1.809 4620
2.981 0.781 1.734 10936
3.110 0.815 1.804 4490
2.986 0.783 1.725 9082
3.122 0.818 1.798 3343
2.990 0.784 1.716 8483
3.133 0.821 1.793 2225
3.002 0.787 1.711 8113
3.145 0.824 1.787 2815
3.006 0.788 1.702 5878
3.156 0.827 1.781 3617
3.292 0.863 1.853 786
3.010 0.789 1.693 3938
3.161 0.828 1.772 3622
3.290 0.862 1.840 764
3.158 0.828 1.759 3631
3.015 0.790 1.684 2489
3.142 0.824 1.739 3836
3.273 0.858 1.806 990
2.999 0.786 1.664 936
3.167 0.830 1.740 5363
3.037 0.796 1.673 1105
3.186 0.835 1.738 8900
3.055 0.801 1.671 2036
3.204 0.840 1.735 10085
3.073 0.805 1.669 2973
3.335 0.874 1.801 800
3.222 0.845 1.733 9055
3.085 0.808 1.663 3292
3.353 0.879 1.798 834
3.247 0.851 1.733 7659
3.082 0.808 1.651 3112
3.378 0.885 1.799 764
3.280 0.860 1.737 8363
3.065 0.803 1.631 2588
3.284 0.861 1.728 9482
3.042 0.797 1.609 2719
3.415 0.895 1.792 879
3.295 0.864 1.721 9555
3.025 0.793 1.589 3405
3.427 0.898 1.785 1327
3.164 0.829 1.657 1158
3.307 0.867 1.715 12639
3.029 0.794 1.580 4348
3.439 0.901 1.779 1237
3.175 0.832 1.651 930
3.311 0.868 1.705 14296
3.034 0.795 1.571 3430
3.450 0.904 1.772 1059
3.323 0.871 1.698 13847
3.045 0.798 1.566 2330
3.455 0.905 1.762 1179
3.327 0.872 1.689 12296
3.042 0.797 1.553 1946
3.459 0.907 1.751 1451
3.401 0.891 1.711 14781
3.269 0.857 1.649 2194
3.032 0.795 1.538 1404
3.406 0.893 1.701 23675
3.273 0.858 1.640 2604
3.029 0.794 1.526 1010
3.573 0.936 1.779 769
3.410 0.894 1.691 27889
3.277 0.859 1.630 2195
3.585 0.940 1.772 925
3.407 0.893 1.678 27511
3.274 0.858 1.617 1564
3.589 0.941 1.761 1356
3.419 0.896 1.671 23492
3.552 0.931 1.732 1837
3.264 0.856 1.601 1599
3.685 0.966 1.792 799
3.416 0.895 1.658 16796
3.549 0.930 1.718 3338
3.683 0.965 1.778 1369
3.269 0.857 1.591 1207
3.413 0.895 1.644 16586
3.547 0.930 1.704 4601
3.687 0.966 1.767 1498
3.424 0.898 1.637 18618
3.558 0.933 1.697 5093
3.692 0.968 1.756 2277
3.429 0.899 1.627 15248
3.563 0.934 1.686 5521
3.696 0.969 1.745 3758
3.440 0.902 1.620 8058
3.574 0.937 1.679 5378
3.708 0.972 1.737 4775
3.698 0.969 1.720 6636
3.564 0.934 1.662 5982
3.430 0.899 1.604 3237
3.832 1.004 1.778 1881
3.703 0.970 1.709 8410
3.568 0.935 1.651 4967
3.837 1.006 1.767 4259
3.434 0.900 1.593 2123
3.707 0.972 1.698 10966
3.842 1.007 1.755 5576
3.573 0.936 1.641 3133
3.438 0.901 1.583 1107
3.712 0.973 1.687 12760
3.846 1.008 1.744 5841
3.563 0.934 1.624 1884
3.716 0.974 1.676 11927
3.851 1.009 1.733 6256
3.581 0.939 1.619 1422
3.986 1.045 1.789 927
3.727 0.977 1.668 9106
3.862 1.012 1.724 6093
3.997 1.048 1.780 1131
3.592 0.942 1.612 1098
3.817 1.000 1.692 5146
3.952 1.036 1.748 3571
3.682 0.965 1.636 1658
3.928 1.030 1.724 3595
3.793 0.994 1.669 3024
3.961 1.038 1.724 4510
3.826 1.003 1.669 3080
4.097 1.074 1.779 888
3.966 1.039 1.712 5844
3.830 1.004 1.658 2444
4.101 1.075 1.767 1785
3.970 1.040 1.701 6203
4.106 1.076 1.755 3117
3.834 1.005 1.646 1091
3.996 1.047 1.697 5764
4.132 1.083 1.751 3825
4.122 1.080 1.733 5212
3.986 1.045 1.680 3731
4.119 1.080 1.718 5032
3.983 1.044 1.665 3759
4.152 1.088 1.717 5662
3.987 1.045 1.653 3288
4.164 1.091 1.707 6262
4.028 1.056 1.655 1638
4.212 1.104 1.711 5497
4.053 1.062 1.651 1817
4.230 1.109 1.704 6064
4.065 1.065 1.642 2263
4.235 1.110 1.691 7364
4.069 1.066 1.630 2354
4.401 1.153 1.753 773
4.254 1.115 1.684 8806
4.088 1.071 1.623 1695
4.412 1.156 1.742 1290
4.287 1.124 1.682 8278
4.150 1.088 1.632 1563
4.424 1.160 1.732 1202
4.298 1.127 1.672 9184
4.161 1.091 1.622 2580
4.465 1.170 1.732 1353
4.296 1.126 1.656 8318
4.158 1.090 1.607 2164
4.433 1.162 1.705 2069
4.293 1.125 1.641 5887
4.430 1.161 1.690 4001
4.155 1.089 1.592 1142
4.413 1.157 1.669 6863
4.275 1.120 1.620 3571
4.551 1.193 1.717 936
4.432 1.161 1.661 8177
4.294 1.125 1.613 4761
4.570 1.198 1.709 1470
4.443 1.165 1.650 7451
4.305 1.128 1.602 4766
4.581 1.201 1.697 2565
4.167 1.092 1.555 1068
4.469 1.171 1.644 6701
4.317 1.131 1.592 3432
4.607 1.208 1.691 2873
4.178 1.095 1.545 1254
4.481 1.174 1.633 7059
4.619 1.211 1.680 3407
4.321 1.132 1.579 2552
4.757 1.247 1.727 1440
4.485 1.175 1.620 8175
4.623 1.212 1.666 4465
4.762 1.248 1.712 2068
4.317 1.132 1.564 1592
4.482 1.175 1.604 6636
4.657 1.221 1.662 5371
4.795 1.257 1.708 3296
4.941 1.295 1.756 969
4.785 1.254 1.689 5286
4.647 1.218 1.643 4412
4.471 1.172 1.586 3720
4.924 1.291 1.734 1508
4.797 1.257 1.677 5911
4.658 1.221 1.632 2985
4.461 1.169 1.568 2327
4.936 1.294 1.722 2098
4.801 1.258 1.662 6553
4.977 1.304 1.719 3307
4.662 1.222 1.618 1645
4.472 1.172 1.557 900
4.901 1.284 1.678 5183
4.762 1.248 1.634 2178
5.040 1.321 1.723 1618
4.912 1.287 1.666 6145
5.052 1.324 1.710 1383
4.773 1.251 1.622 1082
4.924 1.291 1.654 5106
5.063 1.327 1.697 1724
5.009 1.313 1.664 4865
4.870 1.276 1.621 2226
5.148 1.349 1.707 1852
5.021 1.316 1.651 5852
5.160 1.352 1.694 2081
4.881 1.279 1.609 1696
5.025 1.317 1.636 5917
5.165 1.354 1.678 2023
4.885 1.280 1.594 846
5.014 1.314 1.617 5764
5.184 1.359 1.667 2300
5.397 1.414 1.731 758
5.026 1.317 1.604 5115
5.225 1.369 1.662 3619
5.401 1.416 1.714 1344
5.229 1.370 1.647 3770
5.023 1.316 1.587 3357
5.406 1.417 1.698 1461
5.248 1.375 1.635 3722
5.396 1.414 1.678 1526
5.012 1.314 1.567 1161
5.536 1.451 1.718 993
5.260 1.378 1.622 5281
5.407 1.417 1.664 2973
5.548 1.454 1.704 904
5.419 1.420 1.650 5425
5.271 1.382 1.608 4972
5.559 1.457 1.689 1232
5.438 1.425 1.638 6011
5.260 1.379 1.588 3072
5.578 1.462 1.677 3048
5.494 1.440 1.636 6554
5.346 1.401 1.595 2413
5.635 1.477 1.674 1255
5.205 1.364 1.556 977
5.461 1.431 1.609 8898
5.602 1.468 1.647 6893
5.320 1.394 1.571 2286
5.802 1.521 1.702 779
5.465 1.432 1.593 13526
5.606 1.469 1.631 10399
5.324 1.395 1.555 2781
5.814 1.524 1.686 1223
5.588 1.465 1.608 9589
5.447 1.428 1.571 6964
6.211 1.628 1.773 1036
5.306 1.391 1.533 968
5.585 1.464 1.589 7177
5.444 1.427 1.552 1772
6.193 1.623 1.749 1506
5.726 1.501 1.626 1368
5.589 1.465 1.573 7983
6.235 1.634 1.740 2666
6.094 1.597 1.704 2056
5.730 1.502 1.609 1930
5.608 1.470 1.560 5509
6.247 1.637 1.723 2996
6.106 1.600 1.687 2237
5.466 1.433 1.524 1827
6.229 1.633 1.699 3896
5.604 1.469 1.541 3102
5.746 1.506 1.577 1346
6.088 1.596 1.663 1228
6.226 1.632 1.678 6235
5.601 1.468 1.523 3338
5.742 1.505 1.558 1368
6.368 1.669 1.714 1044
6.260 1.641 1.667 5583
5.612 1.471 1.508 2247
6.119 1.604 1.632 1190
5.754 1.508 1.542 821
6.287 1.648 1.654 8376
5.668 1.486 1.503 1053
6.145 1.611 1.619 1051
6.451 1.691 1.694 832
6.291 1.649 1.635 8342
6.149 1.612 1.601 922
5.635 1.477 1.478 898
6.280 1.646 1.613 8569
6.960 1.824 1.773 1211
6.788 1.779 1.733 899
6.277 1.645 1.592 9057
6.964 1.825 1.753 2387
6.688 1.753 1.688 1525
6.419 1.682 1.625 1015
6.281 1.646 1.573 7090
6.984 1.830 1.735 2581
6.685 1.752 1.666 2076
6.423 1.683 1.606 1228
6.285 1.647 1.555 4509
6.988 1.832 1.714 1846
6.682 1.751 1.645 1812
7.130 1.869 1.747 1266
6.312 1.654 1.541 2242
6.686 1.752 1.625 1551
6.955 1.823 1.685 1320
7.097 1.860 1.717 1215
6.338 1.661 1.527 1600
7.199 1.887 1.717 1429
7.416 1.944 1.765 1427
6.690 1.753 1.605 1203
7.166 1.878 1.687 1894
7.458 1.955 1.751 1806
6.979 1.829 1.647 967
7.316 1.917 1.720 889
7.463 1.956 1.729 2447
7.163 1.877 1.664 1772
7.320 1.919 1.698 1038
7.605 1.993 1.759 756
7.475 1.959 1.708 2927
7.332 1.922 1.678 1420
7.175 1.880 1.644 1261
7.783 2.040 1.773 1260
7.479 1.960 1.685 3081
7.787 2.041 1.749 1927
7.337 1.923 1.656 1807
7.930 2.078 1.779 1445
7.491 1.963 1.664 3056
7.912 2.074 1.751 2336
7.724 2.024 1.712 2284
7.348 1.926 1.635 1812
7.931 2.079 1.730 2738
7.706 2.020 1.685 2669
7.503 1.966 1.644 2592
7.360 1.929 1.615 1036
7.943 2.082 1.708 2817
7.710 2.021 1.661 1789
8.319 2.180 1.783 1633
7.507 1.968 1.621 1303
7.970 2.089 1.688 2655
8.324 2.182 1.758 2220
8.474 2.221 1.787 1466
7.827 2.051 1.660 1325
8.328 2.183 1.733 1808
8.080 2.118 1.685 1558
8.502 2.228 1.766 1416
7.937 2.080 1.657 1264
8.069 2.115 1.658 1962
8.521 2.233 1.743 1463
8.747 2.293 1.786 1224
8.333 2.184 1.708 1218
8.089 2.120 1.636 2807
8.744 2.292 1.758 2229
8.541 2.238 1.721 1898
8.398 2.201 1.694 1201
8.100 2.123 1.613 3191
8.749 2.293 1.732 2622
8.606 2.255 1.706 1729
8.342 2.186 1.658 1405
8.829 2.314 1.720 2196
9.002 2.359 1.751 1962
8.105 2.124 1.589 1914
8.497 2.227 1.660 1444
9.007 2.361 1.724 3628
8.848 2.319 1.696 2173
8.577 2.248 1.648 1482
8.093 2.121 1.562 893
9.011 2.362 1.697 4309
8.853 2.320 1.669 2223
8.581 2.249 1.622 1177
9.155 2.399 1.722 964
9.023 2.365 1.671 4543
8.864 2.323 1.644 2367
9.582 2.511 1.766 1341
9.220 2.416 1.705 1213
9.035 2.368 1.645 5422
8.891 2.330 1.621 1760
9.587 2.513 1.738 1564
9.232 2.419 1.678 1104
9.039 2.369 1.618 3809
9.614 2.520 1.713 1517
9.826 2.575 1.748 1216
8.880 2.327 1.592 1018
9.081 2.380 1.597 1505
9.634 2.525 1.686 1430
9.823 2.574 1.717 1410
10.004 2.622 1.746 1141
9.653 2.530 1.660 1347
9.820 2.574 1.686 1333
10.024 2.627 1.718 926
9.892 2.593 1.667 1259
9.650 2.529 1.630 1072
10.702 2.805 1.793 975
10.096 2.646 1.699 827
10.699 2.804 1.760 1307
10.934 2.866 1.796 1057
10.358 2.715 1.708 998
9.889 2.592 1.636 852
10.954 2.871 1.765 1480
10.704 2.805 1.728 1160
10.355 2.714 1.676 1074
10.211 2.676 1.654 917
10.959 2.872 1.732 1530
11.254 2.950 1.775 1071
10.746 2.816 1.701 1069
10.557 2.767 1.673 831
10.955 2.871 1.698 1457
11.266 2.953 1.742 1053
10.705 2.806 1.662 1019
11.805 3.094 1.819 895
11.810 3.095 1.784 1140
11.005 2.884 1.671 967
10.709 2.807 1.630 933
11.195 2.934 1.698 897
11.199 2.935 1.664 1006
11.814 3.096 1.749 1004
11.374 2.981 1.688 866
11.017 2.887 1.639 847
11.272 2.954 1.640 1199
11.842 3.104 1.716 975
11.006 2.885 1.604 886
11.284 2.957 1.607 1123
11.861 3.109 1.682 1014
10.995 2.882 1.569 920
11.139 2.920 1.588 806
12.702 3.329 1.754 890
12.086 3.168 1.675 865
11.850 3.106 1.645 834
11.288 2.958 1.573 817
11.847 3.105 1.608 869
12.083 3.167 1.638 851
13.132 3.442 1.768 837
12.280 3.219 1.662 794
12.307 3.226 1.628 1176
13.129 3.441 1.728 940
12.787 3.351 1.686 862
12.079 3.166 1.600 782
12.319 3.229 1.592 1037
14.001 3.669 1.791 885
13.118 3.438 1.687 817
12.783 3.350 1.647 811
14.005 3.671 1.749 1060
13.716 3.595 1.716 773
14.010 3.672 1.707 1136
13.999 3.669 1.663 991
13.801 3.617 1.642 825
2.285 0.588 1.791 3917
2.167 0.558 1.703 758
2.290 0.590 1.784 7835
2.171 0.559 1.697 1516
2.408 0.620 1.872 1190
2.300 0.592 1.782 8014
2.419 0.623 1.869 2059
2.182 0.562 1.695 1592
2.311 0.595 1.780 7791
2.431 0.626 1.867 1865
2.192 0.564 1.693 1417
2.329 0.600 1.782 8044
2.209 0.569 1.696 1809
2.448 0.630 1.868 1542
2.333 0.601 1.775 9110
2.453 0.632 1.861 1959
2.214 0.570 1.690 1216
2.338 0.602 1.769 10177
2.458 0.633 1.854 2713
2.342 0.603 1.762 10177
2.463 0.634 1.847 3050
2.353 0.606 1.759 10794
2.474 0.637 1.844 3074
2.358 0.607 1.752 11608
2.478 0.638 1.837 3341
2.369 0.610 1.750 9128
2.490 0.641 1.834 4454
2.418 0.623 1.774 7912
2.539 0.654 1.857 2862
2.403 0.619 1.753 6235
2.525 0.650 1.837 4955
2.529 0.651 1.829 5949
2.408 0.620 1.746 4719
2.534 0.653 1.822 5949
2.413 0.621 1.739 4505
2.558 0.659 1.827 5909
2.423 0.624 1.736 3971
2.563 0.660 1.820 6133
2.434 0.627 1.733 3741
2.568 0.661 1.812 5531
2.445 0.630 1.731 2504
2.579 0.664 1.809 4952
2.456 0.632 1.728 1476
2.597 0.669 1.810 6329
2.474 0.637 1.729 1575
2.608 0.671 1.806 8206
2.485 0.640 1.726 2021
2.731 0.703 1.887 917
2.612 0.673 1.798 9527
2.489 0.641 1.718 1520
2.736 0.704 1.878 1197
2.624 0.676 1.795 10914
2.747 0.707 1.875 1293
2.500 0.644 1.715 1176
2.622 0.675 1.783 7837
2.746 0.707 1.862 1632
2.698 0.695 1.821 6260
2.574 0.663 1.742 2310
2.703 0.696 1.813 6118
2.579 0.664 1.734 2171
2.708 0.697 1.805 5976
2.583 0.665 1.727 2032
2.719 0.700 1.801 5154
2.594 0.668 1.723 1916
2.684 0.691 1.769 4741
2.809 0.723 1.846 1268
2.695 0.694 1.765 6562
2.821 0.726 1.842 1675
2.707 0.697 1.761 8624
2.832 0.729 1.837 2194
2.711 0.698 1.753 8211
2.837 0.730 1.829 3912
2.716 0.699 1.745 7798
2.842 0.732 1.821 5629
2.820 0.726 1.796 6676
2.694 0.694 1.721 4262
2.831 0.729 1.792 6715
2.705 0.696 1.717 2707
2.842 0.732 1.787 6777
2.716 0.699 1.713 1867
2.854 0.735 1.783 7046
2.727 0.702 1.709 808
2.865 0.738 1.778 7885
2.738 0.705 1.704 777
2.876 0.741 1.774 7296
2.749 0.708 1.700 759
2.888 0.744 1.769 6370
2.892 0.745 1.761 7268
3.020 0.778 1.833 1052
2.897 0.746 1.752 8166
3.024 0.779 1.824 1472
2.908 0.749 1.747 11011
3.036 0.782 1.819 1529
2.913 0.750 1.739 12860
3.041 0.783 1.810 1653
2.917 0.751 1.730 11810
3.045 0.784 1.801 2000
2.955 0.761 1.740 11449
3.084 0.794 1.811 2540
2.827 0.728 1.669 948
2.973 0.766 1.739 14427
3.102 0.799 1.809 3576
2.845 0.733 1.668 860
2.985 0.769 1.734 12343
3.114 0.802 1.804 3385
2.856 0.735 1.663 837
2.989 0.770 1.725 9308
3.125 0.805 1.798 2708
2.994 0.771 1.716 8216
3.130 0.806 1.789 2138
3.005 0.774 1.711 7941
3.148 0.811 1.787 2978
3.009 0.775 1.702 6250
3.160 0.814 1.781 4053
3.289 0.847 1.850 873
3.021 0.778 1.696 4693
3.164 0.815 1.772 3779
3.301 0.850 1.844 843
3.032 0.781 1.691 3417
3.169 0.816 1.762 3341
3.132 0.807 1.732 4438
3.002 0.773 1.664 1007
3.262 0.840 1.799 785
3.171 0.817 1.740 5044
3.041 0.783 1.673 2091
3.189 0.821 1.738 8986
3.059 0.788 1.671 2606
3.201 0.824 1.732 10216
3.070 0.790 1.665 2405
3.331 0.858 1.798 886
3.212 0.827 1.726 8778
3.081 0.793 1.660 2474
3.343 0.861 1.791 1117
3.244 0.835 1.730 6036
3.092 0.796 1.654 2228
3.375 0.869 1.795 799
3.290 0.847 1.741 9271
3.159 0.813 1.676 2249
3.027 0.780 1.611 2032
3.295 0.848 1.731 11290
3.032 0.781 1.602 2684
3.163 0.814 1.666 2582
3.440 0.886 1.802 1044
3.306 0.851 1.725 12147
3.036 0.782 1.593 3284
3.174 0.817 1.660 2490
3.438 0.885 1.789 1441
3.311 0.852 1.715 16112
3.033 0.781 1.580 3770
3.179 0.818 1.651 1601
3.442 0.886 1.779 1591
3.315 0.854 1.705 17053
3.037 0.782 1.571 2734
3.447 0.888 1.768 1515
3.183 0.820 1.642 778
3.326 0.856 1.698 15356
3.048 0.785 1.566 1822
3.459 0.891 1.762 1504
3.331 0.858 1.689 13582
3.463 0.892 1.751 1762
3.045 0.784 1.553 1490
3.405 0.877 1.711 12700
3.272 0.843 1.649 2257
3.035 0.781 1.538 1071
3.409 0.878 1.701 21004
3.277 0.844 1.640 2640
3.025 0.779 1.522 766
3.407 0.877 1.688 24103
3.274 0.843 1.627 1548
3.540 0.911 1.749 824
3.411 0.878 1.678 23594
3.278 0.844 1.617 1594
3.544 0.913 1.739 1394
3.415 0.879 1.668 20482
3.549 0.914 1.728 2037
3.268 0.842 1.601 1543
3.420 0.881 1.658 16121
3.553 0.915 1.718 2727
3.687 0.949 1.778 1251
3.265 0.841 1.588 1139
3.417 0.880 1.644 16452
3.551 0.914 1.704 3423
3.691 0.950 1.767 1458
3.428 0.883 1.637 17907
3.562 0.917 1.697 3597
3.696 0.952 1.756 2294
3.433 0.884 1.627 15125
3.693 0.951 1.742 4266
3.444 0.887 1.620 8613
3.705 0.954 1.734 6000
3.702 0.953 1.720 7925
3.561 0.917 1.659 4011
3.427 0.882 1.601 3020
3.837 0.988 1.778 1545
3.707 0.954 1.709 9194
3.572 0.920 1.651 3879
3.841 0.989 1.767 3724
3.438 0.885 1.593 2039
3.711 0.956 1.698 10814
3.846 0.990 1.755 4958
3.577 0.921 1.641 3334
3.442 0.886 1.583 1058
3.716 0.957 1.687 12362
3.851 0.991 1.744 5529
3.567 0.918 1.624 2304
3.720 0.958 1.676 11964
3.855 0.993 1.733 5797
3.571 0.919 1.613 1450
3.732 0.961 1.668 9548
3.867 0.996 1.724 4761
3.596 0.926 1.612 1117
4.002 1.030 1.780 792
3.821 0.984 1.692 8509
3.957 1.019 1.748 3402
3.686 0.949 1.636 2193
3.819 0.983 1.678 6360
3.954 1.018 1.733 3441
3.683 0.948 1.622 1369
3.830 0.986 1.669 5498
3.973 1.023 1.727 5429
3.694 0.951 1.614 987
3.977 1.024 1.715 7227
3.834 0.987 1.658 4503
4.113 1.059 1.770 1093
3.996 1.029 1.709 7784
3.831 0.987 1.644 2022
4.132 1.064 1.763 1833
4.015 1.034 1.703 8840
4.151 1.069 1.757 3294
4.026 1.037 1.694 6705
4.162 1.072 1.747 3424
3.995 1.029 1.668 4309
4.131 1.064 1.721 3265
4.136 1.065 1.708 4682
3.999 1.030 1.656 3779
4.154 1.070 1.702 5546
4.018 1.035 1.650 1783
4.173 1.075 1.695 4075
4.036 1.039 1.643 1547
4.084 1.052 1.647 4575
4.221 1.087 1.698 3574
4.218 1.086 1.683 6349
4.081 1.051 1.632 3579
4.370 1.125 1.739 954
4.222 1.087 1.671 8791
4.085 1.052 1.620 1929
4.410 1.136 1.740 1163
4.205 1.083 1.650 8300
4.342 1.118 1.700 2204
4.068 1.047 1.600 937
4.195 1.080 1.632 9740
4.332 1.116 1.682 3007
4.470 1.151 1.732 1005
4.057 1.045 1.583 761
4.199 1.081 1.620 8885
4.337 1.117 1.669 2726
4.474 1.152 1.718 1259
4.203 1.082 1.607 5660
4.413 1.136 1.682 3726
4.418 1.138 1.669 5925
4.193 1.080 1.590 3398
4.437 1.142 1.661 6961
4.299 1.107 1.613 3299
4.160 1.071 1.565 1145
4.575 1.178 1.709 827
4.441 1.143 1.647 6544
4.303 1.108 1.600 2337
4.579 1.179 1.695 1661
4.164 1.072 1.552 1117
4.474 1.152 1.644 6344
4.613 1.188 1.691 1716
4.205 1.083 1.552 1706
4.751 1.223 1.738 815
4.486 1.155 1.633 7843
4.624 1.191 1.680 1918
4.216 1.086 1.542 1467
4.763 1.226 1.727 1319
4.490 1.156 1.620 9438
4.629 1.192 1.666 2415
4.767 1.227 1.712 1806
4.906 1.263 1.759 844
4.487 1.155 1.604 6929
4.779 1.231 1.701 3791
4.640 1.195 1.655 2428
4.918 1.266 1.746 1201
4.798 1.235 1.691 5494
4.469 1.151 1.583 4010
4.659 1.200 1.646 2233
4.937 1.271 1.737 1283
4.817 1.240 1.682 6323
4.466 1.150 1.568 2794
4.678 1.205 1.636 1634
4.956 1.276 1.727 1441
4.814 1.240 1.665 6607
4.953 1.275 1.709 2613
4.477 1.153 1.557 1337
4.675 1.204 1.620 1014
4.899 1.261 1.676 7859
5.038 1.297 1.720 1388
4.760 1.226 1.632 1254
4.525 1.165 1.557 1092
4.903 1.263 1.661 9025
5.043 1.298 1.705 1754
4.764 1.227 1.618 914
4.522 1.164 1.542 882
4.907 1.264 1.647 7991
5.047 1.300 1.690 2205
5.186 1.335 1.733 914
4.919 1.267 1.634 6212
5.147 1.325 1.704 2759
5.026 1.294 1.651 5573
5.166 1.330 1.694 2955
4.887 1.258 1.609 2564
5.031 1.295 1.636 4544
5.170 1.331 1.678 2201
4.891 1.259 1.594 1735
5.020 1.293 1.617 4080
5.160 1.329 1.658 2328
5.359 1.380 1.717 1084
4.880 1.257 1.575 793
5.024 1.294 1.602 4360
5.245 1.351 1.667 3490
5.385 1.387 1.708 1820
5.242 1.350 1.649 4315
5.028 1.295 1.587 2949
5.397 1.390 1.694 1954
5.246 1.351 1.633 4923
5.416 1.395 1.682 1812
5.025 1.294 1.570 1280
5.265 1.356 1.622 5943
5.421 1.396 1.666 3593
5.425 1.397 1.650 6786
5.277 1.359 1.608 5589
5.573 1.435 1.691 1217
5.437 1.400 1.636 6645
5.296 1.364 1.597 3451
5.577 1.436 1.675 2597
5.478 1.410 1.630 5534
5.337 1.374 1.591 4772
5.619 1.447 1.668 1522
5.467 1.408 1.609 10844
5.326 1.371 1.571 5911
5.608 1.444 1.647 5002
5.471 1.409 1.593 16804
5.612 1.445 1.631 8998
5.330 1.373 1.555 7467
5.828 1.501 1.688 1268
5.490 1.414 1.580 11179
5.349 1.377 1.543 8215
5.631 1.450 1.618 5695
5.832 1.502 1.671 1008
5.598 1.442 1.591 7335
5.353 1.378 1.527 5118
6.178 1.591 1.743 1626
6.037 1.554 1.706 912
5.603 1.443 1.575 8909
5.357 1.379 1.511 3510
6.242 1.607 1.740 2558
6.101 1.571 1.704 2449
5.607 1.444 1.558 5095
6.254 1.610 1.723 3421
6.113 1.574 1.687 2861
5.465 1.407 1.522 2298
6.162 1.587 1.680 3747
5.491 1.414 1.511 2004
6.020 1.550 1.644 1207
6.303 1.623 1.716 1183
6.233 1.605 1.678 4413
5.592 1.440 1.519 1607
6.032 1.553 1.628 1218
5.451 1.403 1.484 973
6.267 1.614 1.667 5794
6.126 1.577 1.632 2076
5.596 1.441 1.502 817
6.286 1.619 1.652 7314
6.145 1.582 1.618 1372
6.283 1.618 1.631 7936
6.806 1.752 1.757 851
6.141 1.581 1.597 842
6.280 1.617 1.611 10951
6.967 1.794 1.773 1170
6.422 1.654 1.644 1058
6.811 1.754 1.736 1056
6.284 1.618 1.592 11306
6.980 1.797 1.754 2089
6.426 1.655 1.625 1522
6.822 1.757 1.718 1072
6.281 1.617 1.572 8752
6.992 1.800 1.735 2672
6.423 1.654 1.604 1934
6.685 1.721 1.665 1414
6.285 1.618 1.553 6390
6.996 1.801 1.714 2344
7.138 1.838 1.747 1366
6.427 1.655 1.585 1363
6.296 1.621 1.536 3388
6.978 1.797 1.688 1803
7.120 1.833 1.720 1461
6.686 1.722 1.623 1086
6.353 1.636 1.528 1536
7.432 1.914 1.767 1526
6.982 1.798 1.667 1269
6.832 1.759 1.634 1177
7.437 1.915 1.744 1798
7.189 1.851 1.691 1620
6.837 1.760 1.614 1151
6.987 1.799 1.647 1036
7.471 1.924 1.729 2093
7.194 1.852 1.669 1347
7.051 1.816 1.638 882
6.856 1.765 1.597 828
7.483 1.927 1.708 3124
7.273 1.873 1.663 1441
7.926 2.041 1.801 1151
7.784 2.004 1.771 1147
7.503 1.932 1.688 3889
7.924 2.040 1.776 1937
7.781 2.003 1.746 1863
7.360 1.895 1.659 1646
7.515 1.935 1.668 3675
7.936 2.043 1.754 2668
7.755 1.997 1.717 2403
7.372 1.898 1.638 1489
7.948 2.046 1.732 3118
7.511 1.934 1.644 2618
7.722 1.988 1.686 2367
7.368 1.897 1.615 907
7.982 2.055 1.714 2824
8.329 2.145 1.783 2102
7.817 2.013 1.681 1569
7.516 1.935 1.621 1185
8.333 2.146 1.758 3075
7.987 2.056 1.690 2187
7.836 2.018 1.660 1043
8.476 2.183 1.786 979
8.345 2.149 1.734 2774
8.082 2.081 1.683 2383
8.496 2.188 1.763 941
7.938 2.044 1.656 823
8.093 2.084 1.661 2777
8.418 2.167 1.722 2409
8.237 2.121 1.688 1123
8.742 2.251 1.783 1079
8.098 2.085 1.636 2882
8.739 2.250 1.756 2328
8.384 2.159 1.690 1732
8.543 2.200 1.719 1507
8.736 2.249 1.728 3067
8.102 2.086 1.612 2067
8.879 2.286 1.754 1943
8.366 2.154 1.660 1828
8.854 2.280 1.722 2995
9.005 2.319 1.749 1926
8.710 2.243 1.696 1870
8.114 2.089 1.589 1639
9.009 2.320 1.722 3317
8.858 2.281 1.696 3243
8.601 2.215 1.650 1374
8.110 2.088 1.563 1284
9.021 2.323 1.697 3751
8.863 2.282 1.669 3458
9.165 2.360 1.722 1200
8.454 2.177 1.598 1119
9.041 2.328 1.672 3729
8.867 2.283 1.643 3299
9.230 2.377 1.705 1701
9.593 2.470 1.766 1011
9.045 2.329 1.645 4345
8.879 2.286 1.617 2482
9.234 2.378 1.677 1539
9.620 2.477 1.742 1535
9.057 2.332 1.619 3141
9.632 2.480 1.714 1828
8.883 2.287 1.591 1802
10.124 2.607 1.795 1086
9.644 2.483 1.686 1564
8.887 2.288 1.564 1419
10.008 2.577 1.745 1400
9.849 2.536 1.719 1231
9.664 2.488 1.660 1268
9.846 2.535 1.688 1076
10.028 2.582 1.717 1063
10.391 2.676 1.775 917
9.896 2.548 1.666 1071
9.660 2.487 1.630 931
10.714 2.759 1.793 906
10.153 2.614 1.706 783
10.711 2.758 1.760 1287
10.946 2.819 1.796 1266
10.150 2.614 1.674 1066
9.900 2.549 1.636 855
10.959 2.822 1.764 1912
10.716 2.759 1.728 1163
10.147 2.613 1.643 1103
10.481 2.699 1.693 1031
10.971 2.825 1.732 1892
10.477 2.698 1.660 1121
10.720 2.760 1.695 1022
11.274 2.903 1.776 1005
10.975 2.826 1.699 1438
10.710 2.758 1.661 1209
10.474 2.697 1.627 980
11.287 2.906 1.744 921
10.714 2.759 1.629 1145
11.815 3.042 1.783 1104
11.208 2.886 1.698 903
10.471 2.696 1.595 822
11.820 3.044 1.747 1073
11.220 2.889 1.665 962
11.372 2.928 1.686 789
11.262 2.900 1.637 1076
11.862 3.054 1.717 999
11.581 2.982 1.679 868
10.965 2.823 1.597 797
10.985 2.828 1.566 1016
11.882 3.060 1.683 984
11.274 2.903 1.604 957
11.517 2.965 1.636 913
12.198 3.141 1.688 948
11.521 2.967 1.601 853
10.989 2.829 1.533 834
11.301 2.910 1.573 795
12.195 3.140 1.650 886
12.329 3.175 1.629 979
13.143 3.384 1.728 845
12.341 3.178 1.593 862
14.021 3.610 1.749 926
12.215 3.145 1.541 797
13.820 3.558 1.684 892
14.025 3.611 1.707 824
13.816 3.558 1.642 1166
13.813 3.557 1.599 873
2.287 0.579 1.791 2877
2.169 0.549 1.703 805
2.292 0.580 1.784 5754
2.173 0.550 1.697 1610
2.411 0.610 1.872 1363
2.366 0.598 1.828 6594
2.247 0.568 1.741 5022
2.370 0.600 1.821 6582
2.251 0.570 1.734 4705
2.369 0.599 1.809 6663
2.249 0.569 1.723 4200
2.348 0.594 1.784 7837
2.468 0.624 1.870 1738
2.229 0.564 1.699 1719
2.347 0.594 1.773 9420
2.467 0.624 1.859 3361
2.227 0.563 1.687 757
2.351 0.595 1.766 9420
2.472 0.625 1.851 3781
2.231 0.564 1.681 757
2.356 0.596 1.759 9628
2.476 0.627 1.844 3613
2.360 0.597 1.752 9837
2.481 0.628 1.837 3445
2.371 0.600 1.750 7647
2.492 0.631 1.834 3412
2.414 0.611 1.769 6752
2.535 0.641 1.853 2864
2.406 0.609 1.753 6053
2.527 0.639 1.837 4280
2.411 0.610 1.746 5485
2.532 0.641 1.829 5104
2.415 0.611 1.739 5362
2.537 0.642 1.822 5104
2.426 0.614 1.736 4912
2.561 0.648 1.827 4685
2.482 0.628 1.764 5763
2.604 0.659 1.845 2954
2.360 0.597 1.682 848
2.493 0.631 1.761 5106
2.616 0.662 1.842 3056
2.504 0.634 1.757 4579
2.627 0.665 1.839 3494
2.612 0.661 1.818 5875
2.489 0.630 1.737 3819
2.617 0.662 1.810 8011
2.494 0.631 1.730 3542
2.740 0.693 1.891 925
2.622 0.663 1.803 9836
2.498 0.632 1.723 2910
2.745 0.695 1.883 1215
2.633 0.666 1.799 11797
2.509 0.635 1.719 2296
2.757 0.697 1.879 1188
2.657 0.672 1.804 8415
2.514 0.636 1.712 1543
2.701 0.683 1.821 7264
2.577 0.652 1.742 2046
2.712 0.686 1.817 6597
2.588 0.655 1.739 1954
2.717 0.687 1.809 6122
2.593 0.656 1.731 1459
2.729 0.690 1.805 5305
2.604 0.659 1.727 1289
2.760 0.698 1.813 4972
2.635 0.667 1.736 2325
2.692 0.681 1.761 6059
2.817 0.713 1.838 1943
2.703 0.684 1.757 7547
2.828 0.716 1.833 2613
2.708 0.685 1.749 6791
2.833 0.717 1.825 4287
2.811 0.711 1.801 7029
2.686 0.679 1.725 3683
2.823 0.714 1.796 6983
2.697 0.682 1.721 3064
2.827 0.715 1.788 6983
2.701 0.683 1.713 1698
2.845 0.720 1.787 7763
2.719 0.688 1.713 1571
2.850 0.721 1.779 9004
2.670 0.675 1.673 955
2.855 0.722 1.771 10595
2.674 0.677 1.665 1047
2.859 0.723 1.762 9089
2.685 0.679 1.661 831
2.987 0.756 1.836 777
2.884 0.730 1.765 6565
3.032 0.767 1.850 845
2.716 0.687 1.669 827
2.895 0.733 1.761 6969
3.023 0.765 1.833 1003
2.768 0.700 1.688 833
2.907 0.735 1.756 7707
3.034 0.768 1.828 1164
2.779 0.703 1.683 1071
2.918 0.738 1.751 10397
3.046 0.771 1.823 1117
2.790 0.706 1.679 1013
2.922 0.739 1.742 12090
3.051 0.772 1.814 1103
2.920 0.739 1.730 11253
3.049 0.771 1.801 1608
2.965 0.750 1.744 11842
3.094 0.783 1.815 2003
2.837 0.718 1.673 1174
2.977 0.753 1.739 14775
3.105 0.786 1.809 2761
2.841 0.719 1.664 917
2.988 0.756 1.734 12131
3.117 0.789 1.804 2404
2.859 0.723 1.663 856
2.999 0.759 1.728 8116
3.128 0.791 1.798 2090
2.870 0.726 1.659 846
2.997 0.758 1.716 6517
3.126 0.791 1.785 1981
3.008 0.761 1.711 6539
3.145 0.796 1.783 2626
3.013 0.762 1.702 5513
3.149 0.797 1.774 3361
3.293 0.833 1.850 810
3.031 0.767 1.700 4592
3.174 0.803 1.775 2788
3.304 0.836 1.844 774
3.090 0.782 1.720 4222
3.220 0.815 1.787 1205
3.129 0.792 1.728 5014
2.998 0.759 1.661 878
3.099 0.784 1.701 5091
3.229 0.817 1.768 1468
3.193 0.808 1.738 8864
3.062 0.775 1.671 2681
3.323 0.841 1.804 817
3.204 0.811 1.732 9896
3.073 0.778 1.665 1802
3.335 0.844 1.798 1091
3.216 0.814 1.726 8672
3.084 0.780 1.660 1705
3.347 0.847 1.791 1238
3.234 0.818 1.723 6919
3.103 0.785 1.658 1561
3.365 0.851 1.788 929
3.301 0.835 1.744 9392
3.169 0.802 1.679 4002
3.031 0.767 1.611 1574
3.446 0.872 1.816 792
3.305 0.836 1.734 11500
3.173 0.803 1.670 4304
3.035 0.768 1.602 2189
3.444 0.871 1.802 1110
3.317 0.839 1.728 12658
3.185 0.806 1.664 4078
3.039 0.769 1.593 2543
3.448 0.872 1.792 1445
