2.419 1.909 1.802 1877
2.324 1.835 1.724 12969
2.221 1.753 1.652 1784
2.428 1.916 1.797 1439
2.334 1.842 1.720 6873
2.437 1.924 1.791 1505
2.230 1.760 1.648 842
2.365 1.866 1.730 4085
2.469 1.948 1.801 807
2.335 1.843 1.699 4662
2.439 1.925 1.770 3264
2.333 1.842 1.687 5864
2.438 1.924 1.757 4758
2.342 1.849 1.682 6533
2.447 1.931 1.752 3721
2.351 1.856 1.677 5965
2.456 1.938 1.747 3174
2.355 1.859 1.668 4498
2.460 1.941 1.738 3558
2.458 1.940 1.725 6892
2.353 1.857 1.656 3364
2.461 1.943 1.716 10622
2.356 1.860 1.648 2273
2.465 1.946 1.707 11145
2.360 1.862 1.639 2152
2.469 1.948 1.698 7795
2.363 1.865 1.630 2264
2.580 2.036 1.770 1338
2.511 1.982 1.714 5263
2.394 1.890 1.639 3705
2.617 2.065 1.781 1684
2.537 2.002 1.719 5319
2.387 1.884 1.624 3354
2.643 2.086 1.786 818
2.568 2.027 1.727 5945
2.463 1.944 1.661 2979
2.357 1.860 1.594 1648
2.572 2.030 1.718 5284
2.466 1.946 1.652 3653
2.360 1.863 1.585 1177
2.486 1.962 1.653 5202
2.598 2.050 1.722 5058
2.380 1.878 1.587 1132
2.602 2.053 1.713 7027
2.484 1.961 1.640 4485
2.708 2.137 1.778 1095
2.378 1.877 1.575 821
2.616 2.065 1.710 10118
2.471 1.950 1.621 4361
2.723 2.149 1.775 2497
2.626 2.072 1.704 11894
2.480 1.957 1.615 4267
2.732 2.156 1.768 2948
2.629 2.075 1.694 9307
2.736 2.159 1.758 3943
2.483 1.960 1.606 3678
2.622 2.069 1.678 5847
2.728 2.153 1.742 4519
2.487 1.962 1.597 2590
2.625 2.072 1.668 6352
2.732 2.156 1.732 3411
2.490 1.965 1.588 1446
2.839 2.241 1.795 791
2.708 2.137 1.705 7996
2.600 2.052 1.642 4924
2.815 2.222 1.768 2646
2.493 1.968 1.579 803
2.779 2.193 1.735 9356
2.672 2.109 1.672 6559
2.502 1.975 1.573 772
2.788 2.201 1.728 12508
2.681 2.116 1.666 7785
2.896 2.285 1.790 972
2.792 2.203 1.718 9963
2.684 2.118 1.656 5509
2.900 2.288 1.779 1353
2.812 2.220 1.717 8311
2.705 2.135 1.656 5361
2.920 2.305 1.779 966
2.822 2.227 1.710 6475
2.714 2.142 1.649 4571
2.930 2.312 1.771 922
2.882 2.275 1.732 3426
2.723 2.149 1.642 2538
2.886 2.278 1.721 7477
2.778 2.192 1.661 1478
2.889 2.280 1.710 11238
2.781 2.195 1.651 1464
2.893 2.283 1.700 12009
2.785 2.198 1.640 1625
2.902 2.291 1.692 9867
2.794 2.205 1.633 1296
3.011 2.376 1.751 864
2.906 2.293 1.682 7608
3.015 2.379 1.740 1152
2.915 2.301 1.674 9735
3.041 2.400 1.742 1232
2.919 2.304 1.663 10346
3.028 2.390 1.721 1717
2.980 2.352 1.683 11705
2.870 2.265 1.626 1919
3.089 2.438 1.740 757
2.983 2.354 1.672 14378
2.874 2.268 1.615 1184
3.092 2.441 1.729 928
2.992 2.362 1.664 13003
3.102 2.448 1.721 930
2.883 2.275 1.607 760
3.002 2.369 1.656 10061
3.111 2.455 1.712 1038
3.005 2.372 1.645 7271
3.115 2.458 1.701 1755
3.003 2.370 1.631 6176
3.113 2.457 1.686 3932
3.222 2.543 1.742 1089
0.489 0.386 0.364 766
3.105 2.450 1.669 5986
2.995 2.363 1.614 3393
3.214 2.537 1.724 1344
0.490 0.387 0.362 770
3.114 2.458 1.661 4877
3.224 2.544 1.715 1608
3.004 2.371 1.606 1445
3.193 2.520 1.686 4739
3.082 2.433 1.632 2846
3.303 2.607 1.740 940
3.127 2.468 1.641 4998
3.277 2.587 1.714 3096
3.136 2.475 1.632 3641
3.281 2.590 1.702 3308
3.302 2.606 1.698 4033
3.192 2.519 1.646 3076
3.081 2.432 1.593 918
3.218 2.540 1.645 4878
3.329 2.627 1.697 3825
3.108 2.453 1.592 942
3.315 2.616 1.677 5012
3.204 2.529 1.625 2970
3.426 2.704 1.729 951
3.318 2.619 1.665 6846
3.208 2.532 1.613 1416
3.429 2.707 1.716 944
3.334 2.631 1.658 7189
3.445 2.719 1.709 1686
3.223 2.543 1.607 1487
3.337 2.634 1.646 5146
3.448 2.721 1.697 2720
3.220 2.541 1.592 1267
3.352 2.646 1.639 4798
3.464 2.734 1.689 2740
3.373 2.662 1.634 6161
3.485 2.750 1.684 3006
3.359 2.651 1.614 4745
3.494 2.758 1.674 4145
3.521 2.779 1.672 4464
3.409 2.691 1.623 3166
3.298 2.603 1.573 775
3.542 2.796 1.666 4434
3.430 2.707 1.618 3963
3.587 2.831 1.671 5538
3.434 2.710 1.605 2862
3.567 2.815 1.648 5110
3.679 2.903 1.696 1611
3.455 2.727 1.600 1359
3.570 2.818 1.635 6864
3.682 2.906 1.682 2879
3.458 2.729 1.587 1081
3.794 2.995 1.730 815
3.615 2.853 1.639 7323
3.798 2.997 1.716 1285
3.503 2.765 1.592 1154
3.642 2.874 1.636 8214
3.807 3.005 1.704 1559
3.530 2.786 1.589 1219
3.657 2.886 1.627 5760
3.776 2.980 1.676 2024
3.545 2.798 1.581 1399
3.917 3.092 1.734 996
3.661 2.889 1.614 5230
3.779 2.983 1.662 2356
3.915 3.090 1.717 1006
3.548 2.800 1.568 814
3.652 2.882 1.595 4602
3.800 2.999 1.655 2455
3.919 3.093 1.703 1389
3.768 2.974 1.627 2806
3.655 2.885 1.582 1878
3.922 3.096 1.689 1789
3.843 3.033 1.641 2702
3.956 3.122 1.686 1801
3.730 2.944 1.597 1145
3.941 3.111 1.664 3503
3.828 3.021 1.620 1882
3.939 3.109 1.648 5903
3.826 3.019 1.604 1790
3.942 3.111 1.633 7885
3.782 2.985 1.572 2059
3.940 3.109 1.616 9490
3.791 2.992 1.560 2499
3.943 3.112 1.602 9685
3.806 3.004 1.550 1948
3.946 3.115 1.587 10130
3.833 3.025 1.545 1179
3.950 3.117 1.573 14129
4.129 3.259 1.639 1449
3.836 3.028 1.531 1200
3.959 3.125 1.560 15004
4.132 3.261 1.623 2525
4.246 3.351 1.665 1022
3.845 3.035 1.519 876
3.968 3.132 1.548 12909
4.142 3.269 1.610 2375
4.255 3.358 1.651 1459
4.369 3.448 1.692 851
3.977 3.139 1.536 11697
4.259 3.361 1.635 2896
4.145 3.271 1.595 2302
4.372 3.451 1.676 2134
3.987 3.146 1.523 7289
4.280 3.378 1.626 3049
4.394 3.468 1.666 1642
4.142 3.269 1.578 1538
4.002 3.158 1.512 5006
4.283 3.381 1.610 3623
4.397 3.471 1.650 1863
4.152 3.277 1.564 807
4.371 3.450 1.623 6009
4.005 3.161 1.498 3796
4.257 3.360 1.584 2980
4.143 3.270 1.545 864
4.374 3.452 1.607 10712
4.014 3.168 1.485 1990
4.254 3.357 1.566 1560
4.584 3.618 1.678 1244
4.372 3.450 1.589 15257
4.576 3.611 1.658 2546
4.251 3.355 1.549 955
4.023 3.175 1.472 883
4.381 3.458 1.575 19222
4.573 3.609 1.639 3276
4.384 3.460 1.559 22279
4.559 3.598 1.616 5374
4.673 3.688 1.653 923
4.387 3.463 1.543 22257
4.586 3.620 1.607 6736
4.857 3.833 1.695 1203
4.391 3.465 1.527 19486
4.596 3.627 1.592 7983
4.867 3.841 1.679 1860
4.388 3.463 1.508 13430
4.605 3.634 1.577 10913
4.870 3.844 1.661 2389
4.608 3.637 1.560 10315
4.397 3.470 1.494 6580
4.874 3.847 1.643 3655
4.611 3.639 1.543 6286
4.883 3.854 1.626 4103
4.400 3.473 1.478 3080
5.004 3.949 1.664 848
4.621 3.647 1.528 4243
4.893 3.861 1.610 3413
5.008 3.952 1.645 2661
4.409 3.480 1.464 1073
5.005 3.950 1.625 5039
4.884 3.855 1.589 2952
4.630 3.654 1.513 1901
5.120 4.041 1.659 997
5.014 3.957 1.608 4407
4.893 3.862 1.572 3033
5.172 4.082 1.655 1270
4.639 3.661 1.497 1094
5.030 3.970 1.593 4196
4.903 3.869 1.556 2705
5.169 4.080 1.634 1865
5.027 3.968 1.573 3817
5.173 4.082 1.615 2926
4.906 3.872 1.538 1168
5.176 4.085 1.596 3466
5.036 3.975 1.556 2380
5.419 4.276 1.665 774
5.203 4.107 1.583 4580
5.422 4.279 1.645 1456
5.034 3.973 1.536 1279
5.213 4.114 1.566 5620
5.480 4.325 1.640 1867
5.508 4.347 1.626 4419
5.222 4.122 1.548 4114
5.629 4.443 1.659 850
5.022 3.963 1.494 836
5.517 4.354 1.607 6071
5.213 4.114 1.526 2435
5.639 4.450 1.640 1486
5.025 3.966 1.475 865
5.515 4.352 1.585 4538
5.648 4.458 1.621 3017
5.198 4.103 1.502 2105
5.646 4.456 1.598 4314
5.530 4.364 1.568 3940
5.213 4.115 1.486 1506
5.043 3.980 1.441 833
5.643 4.454 1.576 3776
5.527 4.362 1.546 2947
5.984 4.723 1.663 1044
5.671 4.475 1.561 2117
5.536 4.370 1.527 1872
5.988 4.726 1.641 1558
6.213 4.904 1.698 1149
5.680 4.483 1.542 2295
5.527 4.362 1.504 1862
6.211 4.902 1.674 1423
5.991 4.728 1.619 1363
5.677 4.480 1.519 2802
5.531 4.365 1.483 1568
6.208 4.899 1.649 1066
6.000 4.736 1.599 1064
5.674 4.478 1.497 3036
6.285 4.960 1.644 1304
6.065 4.787 1.591 1253
5.540 4.372 1.465 947
5.677 4.481 1.476 2313
6.282 4.958 1.620 1548
6.068 4.789 1.569 1244
6.575 5.189 1.689 1056
6.267 4.946 1.592 1968
5.674 4.478 1.454 1695
6.077 4.797 1.548 1213
6.573 5.187 1.663 1212
6.282 4.958 1.572 2036
6.448 5.089 1.610 1765
6.576 5.190 1.639 1601
5.689 4.490 1.435 1406
6.445 5.086 1.584 2259
6.579 5.193 1.615 1959
6.310 4.980 1.554 1683
6.873 5.425 1.681 1597
6.877 5.427 1.656 2129
6.313 4.983 1.531 1594
6.656 5.253 1.607 1565
6.454 5.094 1.562 1544
6.886 5.435 1.632 2819
6.653 5.251 1.581 2012
6.525 5.150 1.553 1494
6.323 4.990 1.509 1399
6.890 5.438 1.606 3551
6.687 5.278 1.563 2251
6.522 5.147 1.527 1489
6.387 5.041 1.498 1058
6.887 5.435 1.579 3550
6.697 5.285 1.539 2513
7.169 5.658 1.639 1548
6.525 5.150 1.503 1005
6.890 5.438 1.554 4191
7.191 5.675 1.616 1854
6.706 5.293 1.516 1829
7.399 5.840 1.659 950
6.899 5.445 1.530 4613
7.188 5.673 1.588 1588
6.709 5.295 1.491 1001
7.016 5.537 1.553 863
6.903 5.448 1.504 3991
7.154 5.646 1.554 1796
7.695 6.073 1.662 988
7.332 5.787 1.590 930
6.906 5.450 1.479 3357
7.219 5.697 1.540 2491
7.704 6.080 1.635 1396
7.846 6.192 1.662 1176
6.909 5.453 1.453 2487
7.216 5.695 1.512 2002
7.407 5.845 1.548 1694
8.187 6.461 1.698 1239
7.397 5.838 1.519 1500
6.912 5.455 1.428 1291
8.178 6.455 1.665 1163
7.225 5.702 1.486 878
8.182 6.457 1.635 1789
7.419 5.855 1.495 1088
7.794 6.151 1.564 955
8.354 6.593 1.667 942
8.191 6.465 1.606 2022
8.733 6.892 1.703 1705
7.416 5.853 1.466 1168
8.339 6.581 1.632 1141
8.195 6.467 1.575 1745
8.730 6.890 1.670 1736
8.853 6.987 1.691 1306
8.336 6.579 1.600 1037
8.857 6.990 1.659 2040
8.660 6.835 1.625 1847
8.198 6.470 1.545 1392
9.085 7.170 1.698 897
8.669 6.842 1.594 2190
8.860 6.993 1.626 2067
9.076 7.163 1.662 1120
8.207 6.477 1.516 1118
8.679 6.850 1.563 1766
9.073 7.161 1.628 1529
8.857 6.991 1.592 1459
8.210 6.480 1.485 1175
9.077 7.163 1.594 1721
8.682 6.852 1.530 1382
8.959 7.071 1.575 1181
9.625 7.597 1.682 1034
9.086 7.171 1.561 2006
8.926 7.044 1.536 1353
8.685 6.855 1.498 1298
9.610 7.585 1.644 845
9.089 7.174 1.528 2278
8.923 7.042 1.502 1619
8.688 6.857 1.466 996
9.817 7.748 1.640 892
9.092 7.176 1.494 2367
8.920 7.040 1.468 1319
9.814 7.746 1.602 1206
8.771 6.923 1.446 835
9.102 7.183 1.461 2074
9.775 7.714 1.560 1003
8.923 7.042 1.435 931
9.633 7.602 1.539 857
9.098 7.181 1.427 1132
9.623 7.595 1.501 957
9.815 7.746 1.529 823
9.688 7.646 1.474 910
9.824 7.754 1.493 888
9.679 7.639 1.437 928
9.846 7.771 1.459 795
9.855 7.778 1.424 828
9.839 7.765 1.385 943
9.879 7.797 1.353 862
8.349 6.589 0.481 1109
8.356 6.595 0.451 1578
8.350 6.590 0.419 1612
8.351 6.591 0.389 1259
8.345 6.586 0.357 1086
8.345 6.587 0.327 1267
8.321 6.567 0.295 1410
8.315 6.563 0.264 1813
8.303 6.553 0.233 1719
8.297 6.548 0.203 1335
8.347 6.588 0.172 995
8.347 6.588 0.141 1361
8.347 6.588 0.110 1727
8.340 6.583 0.080 1543
8.334 6.578 0.049 1367
8.253 6.514 0.019 1154
8.253 6.513 -0.011 2176
8.252 6.513 -0.042 2597
8.246 6.508 -0.072 2179
8.239 6.502 -0.103 1812
8.238 6.502 -0.133 1483
8.269 6.526 -0.165 1440
8.249 6.511 -0.195 1541
8.242 6.505 -0.225 1876
8.235 6.500 -0.255 1755
8.234 6.499 -0.286 1674
8.177 6.454 -0.313 2174
8.176 6.453 -0.343 3056
8.169 6.447 -0.373 3145
8.168 6.446 -0.403 3259
8.167 6.445 -0.434 2451
8.159 6.439 -0.463 1658
8.151 6.433 -0.493 1083
8.113 6.403 -0.520 825
8.105 6.397 -0.550 801
8.103 6.395 -0.580 778
1.737 1.358 1.680 4549
1.859 1.454 1.791 2594
1.740 1.361 1.674 9098
1.867 1.461 1.789 5246
1.744 1.364 1.668 9098
1.876 1.467 1.787 5643
1.875 1.466 1.775 7572
1.753 1.371 1.666 7115
1.879 1.469 1.769 9586
1.782 1.393 1.682 6774
1.888 1.476 1.766 12063
1.790 1.400 1.680 6332
1.985 1.552 1.852 1442
1.896 1.483 1.764 15754
1.799 1.407 1.678 5864
1.994 1.559 1.850 1988
1.900 1.486 1.757 15754
1.803 1.410 1.672 5761
1.998 1.563 1.842 2067
1.899 1.485 1.746 22723
1.801 1.408 1.661 3776
1.997 1.562 1.831 3187
1.897 1.484 1.734 30668
1.995 1.561 1.819 4689
1.799 1.407 1.650 2296
1.906 1.491 1.732 31279
2.004 1.568 1.816 3798
1.808 1.414 1.648 1655
1.915 1.498 1.730 32427
2.013 1.575 1.813 3083
1.817 1.421 1.646 1025
1.919 1.501 1.723 29337
2.017 1.578 1.806 3728
1.820 1.423 1.639 975
1.922 1.503 1.716 26247
2.021 1.581 1.799 4374
1.823 1.426 1.633 924
1.926 1.506 1.709 22346
2.025 1.584 1.791 4374
1.924 1.505 1.697 18837
2.023 1.583 1.780 4960
1.928 1.508 1.690 18641
2.048 1.602 1.789 5066
1.926 1.506 1.679 17653
2.052 1.605 1.782 6887
1.935 1.513 1.676 16601
2.056 1.608 1.775 8692
1.938 1.516 1.669 13363
2.059 1.611 1.767 11858
2.063 1.614 1.760 15023
1.942 1.519 1.662 10124
2.077 1.625 1.761 13772
1.945 1.522 1.655 7739
2.081 1.628 1.753 13311
1.944 1.520 1.644 5367
2.069 1.618 1.733 12157
1.952 1.527 1.641 3751
2.170 1.697 1.812 1663
2.067 1.617 1.721 12858
2.168 1.696 1.800 3235
1.956 1.530 1.634 2148
2.082 1.628 1.722 11728
2.183 1.707 1.801 4016
1.954 1.528 1.623 1371
2.096 1.639 1.723 12053
2.197 1.718 1.801 3819
2.105 1.646 1.719 10165
2.206 1.726 1.797 3126
2.125 1.662 1.724 9419
2.226 1.741 1.801 1965
2.166 1.694 1.744 9463
2.064 1.614 1.667 1647
2.267 1.773 1.821 1349
2.175 1.701 1.741 9979
2.277 1.781 1.817 1822
2.073 1.621 1.664 1467
2.162 1.691 1.721 9485
2.264 1.771 1.797 2594
2.161 1.690 1.709 9974
2.263 1.770 1.785 2985
2.159 1.688 1.697 7509
2.261 1.768 1.772 3870
2.233 1.746 1.741 6538
2.130 1.666 1.665 2000
2.231 1.745 1.728 6179
2.128 1.664 1.654 1100
2.334 1.825 1.803 781
2.207 1.726 1.701 6271
2.310 1.807 1.775 3414
2.281 1.784 1.743 7823
2.178 1.704 1.669 3649
2.307 1.804 1.751 9068
2.204 1.723 1.677 3562
2.316 1.811 1.746 11250
2.213 1.730 1.673 2065
2.420 1.892 1.819 835
2.320 1.814 1.738 12130
2.216 1.733 1.665 2054
2.423 1.895 1.810 1177
2.323 1.817 1.729 13010
2.220 1.736 1.657 2044
2.427 1.898 1.802 1519
2.327 1.820 1.721 10125
2.431 1.901 1.793 1517
2.223 1.739 1.649 1384
2.336 1.827 1.716 5284
2.440 1.909 1.788 1970
2.216 1.733 1.633 773
2.312 1.809 1.689 3313
2.417 1.890 1.760 3005
2.208 1.727 1.617 811
2.426 1.897 1.755 4745
2.321 1.816 1.684 3726
2.430 1.900 1.746 6496
2.325 1.818 1.676 4294
2.356 1.843 1.686 6716
2.461 1.925 1.756 4299
2.360 1.845 1.677 5369
2.465 1.928 1.747 4113
2.457 1.922 1.730 4928
2.352 1.840 1.661 3351
2.466 1.929 1.725 8204
2.361 1.847 1.656 2605
2.470 1.932 1.716 12544
2.365 1.849 1.648 1593
2.474 1.935 1.707 13506
2.368 1.852 1.639 1547
2.477 1.937 1.698 9484
2.583 2.020 1.766 1658
2.371 1.855 1.630 1636
2.514 1.966 1.710 6007
2.408 1.884 1.643 2693
2.620 2.049 1.778 1167
2.546 1.991 1.719 5955
2.389 1.869 1.620 2262
2.572 2.011 1.724 7648
2.466 1.928 1.657 2350
2.359 1.845 1.590 886
2.587 2.023 1.721 8186
2.480 1.940 1.655 3739
2.374 1.857 1.589 899
2.601 2.035 1.719 8592
2.495 1.951 1.653 4814
2.605 2.037 1.709 9894
2.498 1.954 1.644 3726
2.712 2.121 1.775 1466
2.620 2.049 1.707 10204
2.727 2.133 1.772 3197
2.479 1.939 1.621 3139
2.635 2.061 1.704 9874
2.742 2.144 1.768 3654
2.488 1.946 1.615 3092
2.638 2.063 1.694 7501
2.746 2.147 1.758 4842
2.492 1.949 1.606 2633
2.665 2.084 1.698 6705
2.772 2.168 1.762 2945
2.557 2.000 1.634 2221
2.668 2.087 1.688 7160
2.776 2.171 1.752 2264
2.561 2.003 1.625 1317
2.638 2.063 1.659 8538
2.745 2.147 1.722 4692
2.519 1.970 1.589 775
2.783 2.177 1.731 8846
2.647 2.070 1.652 6614
2.792 2.184 1.725 12415
2.684 2.099 1.662 6284
2.900 2.268 1.787 998
2.802 2.191 1.718 10480
2.694 2.107 1.656 5065
2.910 2.276 1.779 1321
2.817 2.203 1.714 8668
2.708 2.118 1.652 4545
2.925 2.287 1.775 1185
2.837 2.219 1.713 6118
2.729 2.134 1.652 4616
2.835 2.217 1.700 3520
2.727 2.133 1.639 2296
2.944 2.302 1.760 1445
2.896 2.265 1.721 6708
2.787 2.180 1.661 2832
2.900 2.268 1.710 10353
2.791 2.183 1.651 2341
2.903 2.271 1.700 11118
2.783 2.176 1.634 1888
3.012 2.356 1.759 754
2.907 2.273 1.689 10054
2.792 2.184 1.627 1394
3.016 2.359 1.748 1325
2.910 2.276 1.679 7583
3.019 2.361 1.737 1691
2.801 2.191 1.620 789
2.920 2.283 1.671 7755
3.029 2.369 1.729 1674
2.929 2.291 1.663 8569
3.038 2.376 1.721 2066
2.973 2.325 1.674 9214
3.082 2.411 1.731 1763
2.863 2.239 1.616 1177
2.988 2.337 1.669 11068
3.097 2.422 1.726 1589
2.878 2.251 1.612 1074
3.003 2.348 1.664 10715
3.113 2.434 1.721 1340
2.893 2.263 1.607 786
3.018 2.360 1.659 9327
3.128 2.446 1.715 1181
2.908 2.274 1.603 934
3.021 2.363 1.648 6385
3.178 2.485 1.727 2266
3.158 2.470 1.704 5053
3.019 2.361 1.634 5018
3.156 2.468 1.689 6006
3.046 2.382 1.635 3254
3.142 2.457 1.669 4712
3.032 2.371 1.615 1392
3.252 2.544 1.724 820
3.140 2.456 1.655 5481
3.250 2.542 1.709 1614
3.143 2.458 1.644 7121
3.289 2.572 1.714 2366
3.158 2.470 1.638 5543
3.304 2.584 1.708 3439
3.314 2.592 1.698 4655
3.203 2.505 1.646 4163
3.092 2.418 1.593 773
3.311 2.590 1.684 5897
3.200 2.503 1.631 2302
3.315 2.593 1.671 6753
3.204 2.506 1.619 1860
3.324 2.600 1.662 7374
3.213 2.513 1.610 1208
3.447 2.696 1.719 842
3.328 2.603 1.650 6190
3.474 2.717 1.717 1893
3.216 2.515 1.599 933
3.331 2.605 1.638 4104
3.443 2.692 1.689 2237
3.554 2.780 1.739 1024
3.364 2.631 1.639 5361
3.523 2.755 1.710 1984
3.373 2.638 1.629 9061
3.503 2.739 1.687 2133
3.371 2.636 1.614 7286
3.500 2.738 1.672 3638
3.451 2.699 1.635 4454
3.563 2.786 1.685 2363
3.339 2.611 1.586 1926
3.454 2.702 1.623 5153
3.572 2.794 1.674 4127
3.593 2.810 1.669 4278
3.463 2.709 1.613 3423
3.706 2.898 1.717 1083
3.526 2.758 1.625 5588
3.686 2.882 1.693 3528
3.695 2.890 1.682 5385
3.547 2.774 1.620 4787
3.807 2.978 1.730 1238
3.693 2.888 1.666 6192
3.580 2.800 1.619 4158
3.805 2.976 1.713 2060
3.468 2.712 1.572 838
3.655 2.858 1.636 6297
3.773 2.951 1.685 2455
3.542 2.770 1.589 1933
3.933 3.076 1.751 778
3.670 2.870 1.627 4463
3.783 2.958 1.673 3238
3.557 2.782 1.581 1967
3.931 3.074 1.734 966
3.697 2.892 1.623 4585
3.810 2.980 1.669 2949
3.584 2.803 1.577 1651
3.923 3.068 1.715 944
3.784 2.959 1.643 3829
3.671 2.871 1.598 3344
3.926 3.071 1.701 1503
3.781 2.957 1.627 5169
3.936 3.078 1.689 2004
3.668 2.869 1.582 1562
3.785 2.960 1.613 4550
3.928 3.072 1.669 1540
3.794 2.967 1.602 2775
3.949 3.088 1.662 2583
3.946 3.087 1.645 5254
3.833 2.998 1.602 2045
3.956 3.094 1.633 9137
3.789 2.963 1.569 2060
3.953 3.092 1.616 14081
3.798 2.970 1.558 1829
3.957 3.095 1.602 15603
3.819 2.987 1.550 1539
4.130 3.230 1.667 954
3.960 3.097 1.587 15523
3.822 2.989 1.536 916
4.116 3.219 1.645 815
3.963 3.100 1.573 20380
4.143 3.240 1.639 1453
3.973 3.107 1.560 23465
4.153 3.248 1.626 2111
3.976 3.110 1.546 18632
4.162 3.255 1.612 1972
4.282 3.349 1.655 1292
4.396 3.438 1.696 897
3.973 3.107 1.529 13059
4.285 3.352 1.640 2324
4.165 3.258 1.597 1893
4.400 3.441 1.680 1724
3.976 3.110 1.515 9980
4.295 3.359 1.626 2524
4.409 3.448 1.666 1569
4.169 3.260 1.582 1567
3.979 3.112 1.500 6685
4.304 3.366 1.612 3490
4.419 3.456 1.652 2260
4.178 3.268 1.569 1132
4.398 3.440 1.627 5915
3.989 3.119 1.487 3892
4.284 3.350 1.588 2956
4.591 3.590 1.693 1162
4.395 3.438 1.609 10567
4.010 3.136 1.479 1746
4.281 3.348 1.571 1353
4.600 3.598 1.678 1163
4.393 3.436 1.591 13832
4.586 3.587 1.656 1510
4.396 3.438 1.575 13799
4.511 3.528 1.613 2078
4.625 3.618 1.651 966
4.399 3.441 1.559 16029
4.605 3.601 1.626 3766
4.403 3.443 1.543 17044
4.620 3.613 1.613 7931
4.880 3.817 1.696 1376
4.406 3.446 1.527 15349
4.618 3.611 1.594 9648
4.878 3.815 1.677 2362
4.738 3.706 1.632 822
4.621 3.614 1.577 12992
4.409 3.448 1.510 12576
4.887 3.822 1.661 2798
4.624 3.617 1.560 13215
4.418 3.455 1.496 6882
4.897 3.830 1.644 4135
4.627 3.619 1.543 9525
4.900 3.832 1.626 4524
4.427 3.463 1.482 2381
4.743 3.709 1.578 765
4.643 3.631 1.530 8793
4.897 3.830 1.607 4259
5.019 3.925 1.643 2074
4.646 3.634 1.513 6031
4.901 3.833 1.589 4669
5.022 3.928 1.625 3681
4.904 3.836 1.571 4058
5.026 3.931 1.606 2974
4.643 3.631 1.494 2420
5.184 4.054 1.653 1106
4.914 3.843 1.554 3153
5.041 3.943 1.591 2797
5.181 4.052 1.632 1975
4.640 3.629 1.475 1062
5.044 3.945 1.573 3091
5.190 4.060 1.615 2650
4.923 3.850 1.538 1603
5.200 4.067 1.597 2787
5.054 3.953 1.556 1997
5.431 4.248 1.663 801
5.215 4.079 1.582 3271
5.051 3.950 1.536 1195
5.435 4.251 1.643 1045
5.231 4.091 1.566 3214
5.505 4.306 1.641 1633
5.651 4.420 1.682 1217
5.036 3.939 1.512 1163
5.527 4.323 1.626 3423
5.234 4.094 1.547 2106
5.661 4.428 1.662 1858
5.045 3.946 1.495 1803
5.536 4.330 1.607 4519
5.671 4.435 1.643 2714
5.213 4.077 1.521 1657
5.048 3.948 1.477 1625
5.674 4.438 1.622 4516
5.534 4.328 1.585 3517
5.210 4.075 1.500 1629
5.051 3.951 1.458 962
5.665 4.431 1.598 6310
5.549 4.340 1.568 3146
5.054 3.953 1.440 997
5.219 4.082 1.483 895
5.669 4.433 1.577 5540
5.552 4.343 1.548 2579
5.057 3.955 1.421 779
5.684 4.446 1.560 3342
5.568 4.355 1.530 1560
6.235 4.876 1.698 1258
6.008 4.699 1.641 870
5.700 4.458 1.542 3344
6.232 4.874 1.674 1851
5.553 4.343 1.505 1112
5.697 4.455 1.519 3623
6.223 4.867 1.648 1589
5.556 4.345 1.485 966
6.358 4.973 1.681 935
5.694 4.453 1.497 3741
6.227 4.870 1.625 1263
6.080 4.755 1.590 1238
6.349 4.966 1.654 1204
5.691 4.451 1.475 3096
6.242 4.882 1.605 2045
6.377 4.988 1.637 1217
6.083 4.758 1.567 1207
5.688 4.448 1.452 2092
6.276 4.909 1.589 2051
6.393 5.000 1.616 1263
6.509 5.091 1.643 1157
6.280 4.911 1.566 2177
6.458 5.051 1.607 1742
5.721 4.475 1.438 1479
6.580 5.147 1.635 1158
6.265 4.900 1.539 1804
6.449 5.044 1.580 1713
6.608 5.169 1.616 1451
5.730 4.482 1.419 1365
6.575 5.142 1.584 1588
6.913 5.407 1.658 1517
6.722 5.258 1.616 1317
6.305 4.931 1.524 1211
6.547 5.121 1.553 2200
6.683 5.227 1.582 1612
6.916 5.409 1.633 1474
6.351 4.967 1.510 944
6.545 5.119 1.527 2131
6.914 5.407 1.606 2069
6.711 5.248 1.563 1797
7.135 5.580 1.653 987
6.911 5.405 1.579 2256
6.714 5.251 1.538 1871
6.554 5.126 1.505 1228
7.225 5.650 1.645 1192
6.908 5.403 1.553 2400
7.222 5.648 1.617 1665
7.049 5.513 1.582 1225
6.723 5.258 1.515 1208
6.923 5.415 1.530 2549
7.213 5.641 1.588 1384
7.065 5.526 1.558 1068
6.933 5.422 1.505 2441
7.173 5.610 1.553 1533
7.795 6.097 1.676 1113
7.678 6.005 1.653 995
7.238 5.661 1.539 2041
6.924 5.415 1.477 2010
7.706 6.027 1.630 1501
7.879 6.162 1.663 1266
7.241 5.663 1.512 1775
7.438 5.818 1.550 1742
6.939 5.427 1.454 1334
7.889 6.170 1.635 1319
7.435 5.815 1.521 1338
8.163 6.385 1.657 1196
7.257 5.675 1.488 1020
7.904 6.182 1.609 1018
8.185 6.402 1.630 1706
7.457 5.832 1.497 1034
7.827 6.122 1.565 946
8.389 6.561 1.668 859
8.207 6.419 1.604 1757
8.769 6.858 1.704 1317
7.831 6.124 1.536 1164
8.368 6.545 1.632 1009
8.686 6.794 1.657 1478
7.871 6.156 1.514 1259
8.223 6.431 1.575 1224
8.365 6.542 1.600 1136
8.955 7.004 1.670 1906
8.690 6.796 1.625 1782
7.880 6.163 1.486 968
8.356 6.535 1.567 953
8.953 7.002 1.636 2079
8.699 6.804 1.594 1984
9.645 7.544 1.753 907
8.192 6.407 1.509 783
8.721 6.821 1.565 1784
8.956 7.005 1.603 1583
9.105 7.121 1.628 1314
9.661 7.556 1.719 1270
9.108 7.123 1.594 1758
8.731 6.828 1.533 1553
8.990 7.032 1.575 1507
9.665 7.559 1.683 1349
9.111 7.126 1.560 2071
8.994 7.034 1.542 1482
8.734 6.831 1.501 1385
9.650 7.547 1.645 1172
9.115 7.129 1.527 2212
8.923 6.978 1.497 1748
8.724 6.824 1.467 1043
9.653 7.550 1.609 1000
9.124 7.136 1.494 2086
8.913 6.971 1.463 1547
9.780 7.649 1.592 1370
9.127 7.138 1.460 1843
9.753 7.628 1.551 1332
8.910 6.969 1.429 1035
9.124 7.136 1.426 1024
9.737 7.616 1.513 1000
9.864 7.715 1.420 1068
9.873 7.722 1.385 1244
9.870 7.719 1.348 1008
8.357 6.536 0.542 935
8.358 6.537 0.511 1022
8.353 6.533 0.480 916
8.363 6.541 0.141 870
8.357 6.536 0.110 1063
8.351 6.531 0.080 949
8.344 6.526 0.049 908
8.294 6.487 0.019 781
8.288 6.482 -0.012 1556
8.281 6.477 -0.042 1922
8.280 6.476 -0.073 1712
8.267 6.466 -0.103 1558
8.267 6.466 -0.133 1230
8.291 6.485 -0.165 926
8.284 6.479 -0.195 1036
8.277 6.474 -0.225 1173
8.264 6.463 -0.255 1165
8.194 6.409 -0.282 1541
8.200 6.413 -0.313 2409
8.199 6.412 -0.343 3312
8.197 6.411 -0.373 3430
8.190 6.405 -0.403 3569
8.189 6.404 -0.433 2691
8.187 6.403 -0.463 1814
8.149 6.373 -0.491 1481
8.135 6.362 -0.520 1763
8.127 6.356 -0.549 1649
8.125 6.355 -0.579 1589
8.124 6.353 -0.609 1324
8.122 6.352 -0.639 1059
8.120 6.351 -0.669 1059
1.750 1.352 1.685 3934
1.867 1.442 1.791 1860
1.754 1.354 1.679 7869
1.876 1.449 1.789 3793
1.757 1.357 1.672 7869
1.885 1.456 1.787 4142
1.797 1.388 1.698 7063
1.894 1.463 1.785 5738
1.699 1.312 1.611 945
1.883 1.454 1.764 9127
1.785 1.379 1.678 6743
1.902 1.469 1.771 11252
1.804 1.393 1.685 7157
1.999 1.544 1.857 1191
1.706 1.318 1.599 810
1.911 1.476 1.769 15407
1.813 1.400 1.683 6721
2.009 1.551 1.854 1691
1.715 1.324 1.597 958
1.914 1.478 1.762 15407
1.816 1.403 1.676 6721
2.013 1.554 1.847 1803
1.718 1.327 1.591 794
1.908 1.473 1.746 21100
1.809 1.397 1.661 3891
2.006 1.549 1.831 3259
1.906 1.472 1.734 28459
2.005 1.548 1.819 4577
1.808 1.396 1.650 2323
1.915 1.479 1.732 28204
2.014 1.555 1.816 3678
1.816 1.403 1.648 1779
1.924 1.486 1.730 28553
2.023 1.562 1.813 2900
1.825 1.410 1.646 1180
1.928 1.489 1.723 24861
2.027 1.565 1.806 3436
1.829 1.412 1.639 1048
1.931 1.492 1.716 21169
2.031 1.568 1.799 3971
1.832 1.415 1.633 915
1.935 1.494 1.709 17855
2.035 1.571 1.791 3971
1.933 1.493 1.697 14899
2.033 1.570 1.780 4382
1.937 1.496 1.690 14720
2.037 1.573 1.772 4228
1.935 1.495 1.679 14386
2.035 1.572 1.761 6241
1.944 1.501 1.676 13944
2.044 1.579 1.757 7743
1.948 1.504 1.669 11096
2.053 1.586 1.754 10742
2.068 1.597 1.755 14200
1.951 1.507 1.662 8248
2.071 1.600 1.748 12365
1.955 1.510 1.655 6296
2.091 1.615 1.753 11147
1.953 1.508 1.644 4358
2.074 1.601 1.729 12080
1.962 1.515 1.641 3005
2.175 1.679 1.808 1739
2.077 1.604 1.721 13664
2.179 1.682 1.800 2792
1.976 1.526 1.642 1719
2.092 1.615 1.722 12323
2.193 1.694 1.801 3395
1.974 1.524 1.631 1085
2.106 1.626 1.723 13059
2.208 1.705 1.801 3283
1.940 1.498 1.595 803
2.115 1.633 1.719 10755
2.217 1.712 1.797 2852
2.124 1.640 1.716 8879
2.226 1.719 1.793 2786
2.138 1.651 1.716 7077
2.241 1.730 1.793 2233
2.180 1.683 1.737 7633
2.282 1.762 1.813 1849
2.167 1.674 1.717 8197
2.270 1.753 1.793 2218
2.171 1.676 1.709 9391
2.274 1.756 1.785 2422
2.169 1.675 1.697 7369
2.272 1.755 1.772 3719
2.232 1.724 1.733 6510
2.129 1.644 1.657 1106
2.231 1.723 1.721 6294
2.334 1.802 1.795 930
2.223 1.717 1.705 6991
2.327 1.797 1.779 2600
2.120 1.637 1.630 783
2.292 1.770 1.743 7744
2.189 1.690 1.669 2300
2.307 1.782 1.743 7732
2.203 1.701 1.669 2237
2.411 1.862 1.816 758
2.322 1.793 1.742 8597
2.218 1.713 1.669 1719
2.325 1.796 1.734 9172
2.221 1.715 1.661 1666
2.430 1.876 1.807 793
2.329 1.799 1.725 9747
2.225 1.718 1.653 1614
2.450 1.892 1.809 1083
2.333 1.801 1.717 7855
2.437 1.882 1.789 1278
2.228 1.721 1.645 1155
2.347 1.813 1.716 4559
2.452 1.894 1.788 1925
2.362 1.824 1.715 3361
2.467 1.905 1.786 2526
2.257 1.743 1.644 900
2.443 1.887 1.759 5032
2.338 1.806 1.688 3730
2.441 1.885 1.746 6987
2.336 1.804 1.676 3936
2.450 1.892 1.741 6165
2.345 1.811 1.671 4311
2.465 1.904 1.739 5638
2.360 1.822 1.670 4014
2.469 1.907 1.730 6088
2.363 1.825 1.661 2780
2.478 1.914 1.725 9099
2.372 1.832 1.656 2174
2.482 1.917 1.716 13303
2.376 1.835 1.648 1145
2.485 1.919 1.707 14330
2.379 1.838 1.639 884
2.592 2.001 1.775 766
2.495 1.927 1.702 10321
2.601 2.009 1.770 1678
2.388 1.845 1.634 1071
2.521 1.947 1.707 6535
2.414 1.864 1.639 1619
2.564 1.980 1.722 7189
2.457 1.897 1.655 3041
2.584 1.996 1.724 10242
2.477 1.913 1.657 5156
2.599 2.007 1.721 11578
2.492 1.925 1.655 6181
2.614 2.019 1.719 11940
2.507 1.936 1.653 6035
2.721 2.101 1.785 768
2.618 2.021 1.709 11946
2.510 1.939 1.644 4124
2.725 2.104 1.775 1493
2.632 2.033 1.707 9264
2.740 2.116 1.772 3110
2.491 1.924 1.621 2186
2.647 2.045 1.704 7315
2.755 2.128 1.768 3516
2.512 1.940 1.622 2032
2.662 2.056 1.701 5855
2.770 2.139 1.765 3622
2.555 1.973 1.637 2254
2.689 2.076 1.705 7663
2.581 1.993 1.641 3794
2.796 2.160 1.769 1868
2.692 2.079 1.695 7922
2.584 1.996 1.632 2587
2.800 2.162 1.758 1620
2.645 2.042 1.655 7383
2.753 2.126 1.718 5399
2.768 2.137 1.715 8198
2.642 2.041 1.642 5721
2.876 2.221 1.778 781
2.806 2.167 1.725 10974
2.697 2.083 1.662 4834
2.914 2.250 1.787 1123
2.815 2.174 1.718 10026
2.706 2.090 1.656 4476
2.923 2.258 1.779 1358
2.824 2.181 1.711 8552
2.716 2.097 1.649 3713
2.933 2.265 1.772 1656
2.851 2.202 1.713 6297
2.742 2.118 1.652 4462
2.960 2.286 1.774 837
2.849 2.200 1.700 4733
2.740 2.116 1.639 2341
2.958 2.284 1.760 1680
2.829 2.185 1.677 5791
2.938 2.269 1.737 4307
2.908 2.245 1.707 8853
2.798 2.161 1.647 3495
2.911 2.248 1.697 9646
2.790 2.155 1.631 2371
3.021 2.333 1.756 1057
2.921 2.255 1.689 9930
2.811 2.171 1.630 2081
3.030 2.340 1.748 1475
2.936 2.267 1.685 7907
2.826 2.182 1.626 1401
3.045 2.352 1.743 1299
2.939 2.270 1.674 6528
3.049 2.355 1.732 1744
2.829 2.185 1.616 756
2.943 2.273 1.663 7072
3.053 2.358 1.721 2121
2.981 2.302 1.671 6085
3.091 2.387 1.728 1920
2.871 2.217 1.613 912
3.008 2.323 1.672 6469
3.118 2.408 1.729 1404
2.898 2.238 1.615 1160
3.023 2.335 1.667 7765
3.133 2.420 1.724 1285
2.913 2.249 1.610 970
3.038 2.346 1.662 8048
3.148 2.432 1.718 1449
2.928 2.261 1.606 1024
3.053 2.358 1.657 6234
3.164 2.443 1.713 2666
3.167 2.446 1.701 5944
3.039 2.347 1.637 4693
3.171 2.449 1.689 6828
3.048 2.354 1.629 3047
3.169 2.447 1.675 5771
3.058 2.361 1.621 2241
3.280 2.533 1.730 855
3.161 2.441 1.658 6661
3.272 2.527 1.712 1610
3.049 2.355 1.604 1181
3.164 2.444 1.646 8405
3.310 2.557 1.717 2127
3.053 2.358 1.593 793
3.197 2.469 1.649 7632
3.320 2.564 1.708 3567
3.085 2.383 1.596 1029
3.218 2.485 1.646 5436
3.329 2.571 1.698 5310
3.333 2.574 1.686 7657
3.221 2.488 1.634 2578
3.331 2.572 1.671 8955
3.201 2.472 1.611 1678
3.466 2.677 1.735 804
3.334 2.575 1.659 8499
3.222 2.489 1.608 1443
3.475 2.684 1.725 1060
3.338 2.578 1.647 6377
3.450 2.664 1.698 1767
3.226 2.491 1.596 760
3.406 2.630 1.664 4412
3.524 2.721 1.718 2392
3.294 2.544 1.614 1223
3.380 2.610 1.639 6612
3.539 2.733 1.710 2653
3.389 2.618 1.629 10479
3.543 2.736 1.698 2036
3.387 2.616 1.614 8520
3.511 2.712 1.669 2942
3.461 2.673 1.633 5199
3.586 2.769 1.687 2322
3.349 2.586 1.584 1514
3.471 2.680 1.623 5502
3.583 2.767 1.672 3140
3.696 2.854 1.720 1290
3.545 2.738 1.641 5597
3.688 2.848 1.702 2659
3.433 2.651 1.592 1343
3.537 2.731 1.623 6790
3.703 2.860 1.693 4623
3.713 2.867 1.682 6328
3.534 2.729 1.607 5266
3.826 2.954 1.730 1477
3.716 2.870 1.669 6717
3.579 2.764 1.612 2987
3.829 2.957 1.716 2257
3.726 2.877 1.658 5427
3.589 2.771 1.601 3803
3.839 2.965 1.704 1375
3.735 2.885 1.647 4426
3.616 2.792 1.598 3053
3.848 2.972 1.693 926
3.727 2.878 1.628 4276
3.613 2.790 1.582 1860
3.840 2.966 1.674 1821
3.730 2.881 1.615 4243
3.844 2.968 1.660 2182
3.957 3.056 1.705 1213
3.617 2.793 1.569 761
3.733 2.883 1.601 4363
3.847 2.971 1.646 2592
3.961 3.059 1.691 1851
3.868 2.988 1.639 3747
3.737 2.886 1.587 2913
3.982 3.075 1.684 984
3.878 2.995 1.627 4457
3.764 2.907 1.583 1858
3.992 3.083 1.671 806
3.881 2.997 1.613 3507
3.995 3.085 1.657 1966
3.767 2.910 1.569 1600
3.975 3.070 1.633 7250
3.807 2.940 1.569 3059
3.972 3.068 1.616 13896
3.852 2.975 1.571 1800
3.976 3.070 1.602 16752
3.861 2.982 1.559 1723
4.150 3.205 1.667 977
3.979 3.073 1.587 16604
3.859 2.980 1.543 1347
4.141 3.198 1.647 850
3.982 3.075 1.573 21560
3.844 2.968 1.522 1358
4.163 3.215 1.639 1268
3.992 3.083 1.560 25654
4.172 3.222 1.626 1443
3.835 2.962 1.504 1105
3.995 3.085 1.546 18832
4.188 3.234 1.615 1350
4.302 3.323 1.655 1055
4.417 3.411 1.696 832
3.986 3.078 1.527 11334
4.306 3.325 1.640 1912
4.185 3.232 1.597 1371
4.421 3.414 1.680 1256
3.989 3.081 1.512 9709
4.321 3.337 1.628 2713
4.195 3.239 1.584 1326
4.436 3.426 1.668 1118
3.998 3.088 1.500 7921
4.325 3.340 1.612 3900
4.440 3.429 1.652 1737
4.198 3.242 1.569 1094
4.002 3.090 1.485 5391
4.425 3.417 1.629 5060
4.310 3.329 1.590 3165
4.607 3.558 1.691 1170
4.422 3.415 1.611 9452
4.017 3.102 1.475 2463
4.307 3.327 1.573 1889
4.622 3.570 1.678 1093
4.420 3.413 1.593 9505
4.020 3.104 1.460 972
4.305 3.324 1.555 881
4.423 3.416 1.577 6804
4.538 3.505 1.615 966
4.432 3.423 1.563 9824
4.639 3.582 1.630 4892
4.442 3.430 1.549 11453
4.642 3.585 1.613 10289
4.903 3.787 1.696 1112
4.758 3.674 1.650 786
4.640 3.583 1.594 10346
4.439 3.428 1.530 9237
4.901 3.785 1.677 1967
4.755 3.672 1.630 1033
4.643 3.586 1.577 11913
4.442 3.431 1.514 9514
4.911 3.792 1.661 2104
4.758 3.675 1.613 894
4.646 3.588 1.560 12266
4.451 3.438 1.500 7629
4.926 3.804 1.646 3113
4.762 3.677 1.596 769
4.656 3.595 1.545 11055
4.461 3.445 1.485 3744
4.936 3.812 1.630 3654
4.771 3.685 1.580 874
4.665 3.603 1.530 13662
4.933 3.810 1.610 3610
4.458 3.443 1.467 1510
5.049 3.899 1.645 1503
4.668 3.605 1.513 11295
4.924 3.803 1.589 4509
5.040 3.892 1.623 2429
4.455 3.440 1.449 933
4.671 3.607 1.495 4992
4.928 3.805 1.571 3778
5.098 3.937 1.621 2159
4.458 3.443 1.433 946
5.096 3.935 1.600 2851
4.943 3.817 1.556 2833
4.674 3.610 1.478 2166
5.212 4.025 1.634 1682
5.075 3.919 1.575 2870
5.215 4.028 1.615 1686
4.952 3.825 1.540 1568
4.684 3.617 1.463 1016
5.115 3.950 1.566 1771
5.237 4.044 1.601 1462
4.998 3.860 1.534 1330
5.457 4.214 1.663 825
5.240 4.047 1.582 1904
5.093 3.934 1.541 1236
5.448 4.208 1.639 1056
5.685 4.390 1.683 1630
5.250 4.054 1.564 1568
5.084 3.927 1.519 1524
5.525 4.267 1.640 1425
5.694 4.398 1.664 2838
5.553 4.289 1.626 2133
5.075 3.920 1.497 2092
5.210 4.024 1.533 1469
5.704 4.405 1.645 4085
5.557 4.291 1.606 2615
5.078 3.922 1.478 1884
5.219 4.031 1.516 1551
5.701 4.403 1.622 5550
5.554 4.289 1.584 2045
5.235 4.043 1.500 1096
5.100 3.939 1.465 1017
5.698 4.401 1.600 7187
5.570 4.301 1.567 1689
5.085 3.927 1.441 937
5.815 4.491 1.630 817
5.696 4.399 1.577 6516
5.579 4.309 1.548 1596
5.812 4.489 1.607 1255
5.990 4.626 1.653 897
5.717 4.415 1.561 4508
5.834 4.506 1.591 1105
5.594 4.320 1.530 1092
6.258 4.833 1.697 1037
5.733 4.427 1.543 4886
6.256 4.831 1.672 1836
5.948 4.594 1.596 1104
5.730 4.425 1.521 3918
6.253 4.829 1.648 1773
6.044 4.668 1.597 1128
6.382 4.929 1.679 1086
5.721 4.418 1.497 3257
6.072 4.689 1.581 1701
6.244 4.822 1.622 1321
6.392 4.936 1.657 1265
5.718 4.416 1.475 3129
6.278 4.849 1.606 1926
6.081 4.696 1.560 1541
6.402 4.944 1.635 1540
5.715 4.413 1.452 2176
6.251 4.827 1.576 2075
6.411 4.951 1.613 1662
6.553 5.061 1.646 1472
6.304 4.868 1.565 2186
6.421 4.959 1.591 1828
6.550 5.059 1.621 1585
5.742 4.435 1.437 1262
6.307 4.871 1.542 2013
6.424 4.961 1.568 1581
6.665 5.147 1.622 1389
5.758 4.447 1.419 1188
6.545 5.054 1.570 1689
6.668 5.150 1.597 1586
6.279 4.849 1.512 1347
6.785 5.240 1.623 1162
6.566 5.071 1.550 2683
6.770 5.228 1.594 1766
6.888 5.319 1.620 1156
6.319 4.880 1.497 928
6.576 5.078 1.527 2368
6.916 5.341 1.600 1351
6.780 5.236 1.571 1343
7.163 5.532 1.652 1338
7.166 5.534 1.626 1429
6.604 5.100 1.508 1329
6.925 5.348 1.575 1255
6.740 5.205 1.537 1001
7.256 5.604 1.617 1360
7.089 5.475 1.583 1353
6.619 5.112 1.487 1302
6.891 5.322 1.542 1205
7.328 5.659 1.604 1270
7.210 5.568 1.581 1218
6.969 5.382 1.532 1025
7.093 5.477 1.557 999
7.207 5.566 1.553 1414
6.984 5.394 1.509 1166
7.833 6.049 1.676 1129
7.343 5.671 1.580 1103
7.731 5.970 1.627 1576
7.266 5.612 1.537 1489
7.464 5.765 1.576 1347
7.910 6.109 1.662 1186
7.468 5.767 1.548 1433
7.722 5.963 1.597 1405
7.932 6.126 1.637 1267
7.269 5.614 1.511 1217
8.041 6.210 1.627 1539
8.202 6.335 1.657 1206
7.923 6.119 1.605 1125
7.514 5.803 1.529 1013
8.045 6.213 1.598 1755
8.218 6.347 1.629 1468
7.518 5.806 1.501 1124
7.877 6.083 1.567 1020
8.048 6.215 1.568 2007
7.887 6.091 1.539 1492
8.240 6.364 1.602 1291
8.879 6.857 1.716 1040
8.051 6.218 1.539 1969
7.915 6.112 1.515 1872
8.889 6.865 1.685 1570
8.728 6.740 1.657 1171
8.899 6.872 1.653 1915
8.054 6.220 1.509 1638
8.725 6.738 1.624 1553
7.918 6.115 1.486 1544
8.996 6.947 1.636 1993
8.058 6.223 1.479 1688
8.728 6.741 1.592 1523
8.877 6.856 1.617 1012
8.775 6.777 1.567 1687
8.999 6.950 1.603 1638
8.061 6.225 1.450 1509
9.732 7.516 1.723 1391
8.778 6.779 1.534 1577
9.742 7.524 1.688 1575
9.033 6.976 1.575 1433
9.151 7.067 1.594 1257
9.161 7.075 1.561 1567
9.764 7.541 1.656 1460
8.788 6.787 1.503 1386
9.043 6.984 1.543 1347
8.953 6.914 1.496 1683
9.158 7.073 1.527 1679
9.743 7.524 1.616 1478
8.772 6.775 1.468 915
9.802 7.570 1.588 1698
8.950 6.912 1.462 1641
9.161 7.075 1.493 1494
9.805 7.573 1.552 1681
9.171 7.082 1.460 1308
8.946 6.909 1.428 1171
9.687 7.481 1.535 775
9.827 7.589 1.519 1189
9.709 7.498 1.502 971
9.068 7.003 1.412 781
9.837 7.597 1.484 1271
9.815 7.580 1.444 946
9.911 7.654 1.420 940
0.525 0.405 0.201 752
9.921 7.661 1.385 928
10.123 7.818 1.373 853
10.132 7.825 1.336 836
8.400 6.487 0.450 757
8.400 6.487 0.419 970
8.401 6.488 0.388 894
8.327 6.431 -0.042 822
8.326 6.430 -0.073 845
8.326 6.430 -0.103 869
8.298 6.408 -0.224 919
8.297 6.408 -0.255 1000
8.233 6.359 -0.282 1165
8.239 6.363 -0.313 1848
8.238 6.362 -0.343 2566
8.236 6.361 -0.373 2736
8.229 6.355 -0.403 3006
8.221 6.349 -0.433 2309
8.220 6.348 -0.463 1626
8.187 6.323 -0.491 1694
8.180 6.317 -0.520 1965
8.166 6.306 -0.549 1737
8.158 6.300 -0.578 1682
8.156 6.299 -0.608 1500
8.154 6.297 -0.638 1318
8.152 6.296 -0.668 1318
8.151 6.295 -0.698 880
8.140 6.286 -0.848 788
8.138 6.285 -0.877 788
1.777 1.359 1.703 3471
1.874 1.434 1.791 1730
1.780 1.362 1.697 6943
1.878 1.437 1.784 3461
1.673 1.280 1.601 856
1.784 1.365 1.691 6943
1.892 1.447 1.787 3584
1.676 1.283 1.595 856
1.803 1.380 1.698 7236
1.901 1.454 1.785 5305
1.705 1.305 1.611 1026
1.879 1.437 1.755 9135
1.781 1.363 1.669 5264
1.977 1.512 1.841 858
1.913 1.464 1.775 10586
1.815 1.389 1.690 7173
1.717 1.314 1.604 1109
2.012 1.539 1.861 915
1.917 1.467 1.769 14557
1.819 1.392 1.683 6215
2.016 1.542 1.854 1591
1.721 1.317 1.597 962
1.921 1.470 1.762 14557
1.823 1.394 1.676 6215
2.020 1.545 1.847 1708
1.724 1.319 1.591 808
1.909 1.461 1.741 18435
2.008 1.536 1.826 3272
1.811 1.385 1.657 2916
1.913 1.464 1.734 24385
2.012 1.539 1.819 3954
1.814 1.388 1.650 2110
1.917 1.466 1.728 23270
2.016 1.542 1.812 3544
1.818 1.391 1.644 1453
1.926 1.473 1.725 22793
2.025 1.549 1.809 3003
1.826 1.397 1.641 1031
1.934 1.480 1.723 18685
2.034 1.556 1.806 2933
1.835 1.404 1.639 1061
1.943 1.487 1.720 14929
2.043 1.563 1.803 2936
1.844 1.411 1.637 1153
1.942 1.486 1.709 12434
2.042 1.562 1.791 3123
1.940 1.484 1.697 10392
2.040 1.561 1.780 3793
2.002 1.532 1.738 10488
1.902 1.455 1.656 5742
2.011 1.538 1.735 10385
1.910 1.462 1.653 6366
2.111 1.615 1.816 1092
2.025 1.549 1.736 11178
1.924 1.472 1.655 6958
2.126 1.626 1.817 1048
2.039 1.560 1.737 11261
1.939 1.483 1.657 6272
2.140 1.637 1.818 1046
2.059 1.575 1.743 13882
1.958 1.498 1.662 5745
2.160 1.653 1.823 1044
2.063 1.578 1.735 12024
1.962 1.501 1.655 4193
2.164 1.656 1.815 968
2.072 1.585 1.732 10322
1.960 1.499 1.644 2654
2.173 1.663 1.812 813
2.081 1.592 1.729 12315
1.942 1.486 1.620 1770
2.182 1.670 1.808 1438
2.090 1.599 1.725 14593
2.191 1.677 1.804 1784
1.940 1.484 1.609 1251
2.104 1.610 1.726 13025
2.206 1.688 1.805 2363
1.949 1.491 1.606 1086
2.119 1.621 1.727 14279
2.221 1.699 1.805 2428
1.963 1.502 1.608 979
2.128 1.628 1.723 11365
2.230 1.706 1.801 2266
1.972 1.508 1.605 759
2.131 1.631 1.716 8575
2.234 1.709 1.793 2542
2.140 1.638 1.712 6103
2.243 1.716 1.789 1850
2.166 1.657 1.720 4824
2.268 1.736 1.797 1125
2.175 1.664 1.717 6499
2.278 1.743 1.793 1408
2.178 1.667 1.709 8207
2.281 1.746 1.785 1767
2.182 1.669 1.701 6664
2.285 1.749 1.776 2958
2.235 1.710 1.729 5888
2.338 1.789 1.804 937
2.131 1.631 1.654 841
2.233 1.708 1.717 5458
2.336 1.788 1.791 1530
2.247 1.720 1.716 6349
2.351 1.799 1.791 859
2.144 1.640 1.642 835
2.262 1.731 1.716 8257
2.147 1.643 1.634 1073
2.366 1.810 1.790 855
2.266 1.733 1.708 8427
2.381 1.822 1.789 1813
2.151 1.645 1.627 908
2.275 1.740 1.704 8632
2.390 1.829 1.785 2416
2.143 1.640 1.611 778
2.322 1.777 1.726 6688
2.218 1.697 1.653 1261
2.427 1.857 1.799 1069
2.332 1.784 1.722 7169
2.227 1.704 1.649 1636
2.436 1.864 1.794 846
2.346 1.795 1.721 6578
2.241 1.715 1.649 1692
2.451 1.875 1.793 848
2.367 1.811 1.724 5412
2.472 1.891 1.795 1432
2.261 1.730 1.652 1037
2.376 1.818 1.719 4918
2.481 1.898 1.790 2028
2.390 1.829 1.718 5613
2.496 1.910 1.789 1775
2.274 1.740 1.639 840
2.455 1.879 1.750 7194
2.350 1.798 1.679 3849
2.459 1.881 1.741 6598
2.353 1.801 1.671 3293
2.474 1.893 1.739 6368
2.368 1.812 1.670 2859
2.477 1.896 1.730 6995
2.371 1.814 1.661 2263
2.487 1.903 1.725 9501
2.381 1.821 1.656 2132
2.490 1.905 1.716 12798
2.384 1.824 1.648 1174
2.494 1.908 1.707 13431
2.601 1.990 1.775 839
2.498 1.911 1.698 10094
2.604 1.993 1.766 2206
2.501 1.914 1.689 7724
2.608 1.996 1.757 3201
2.578 1.973 1.726 8776
2.471 1.891 1.659 4627
2.593 1.984 1.724 13248
2.486 1.902 1.657 6930
2.602 1.991 1.718 14615
2.495 1.909 1.652 7590
2.617 2.003 1.715 14161
2.510 1.920 1.649 7801
2.725 2.085 1.781 921
2.627 2.010 1.709 12707
2.519 1.927 1.644 5735
2.734 2.092 1.775 1348
2.642 2.021 1.707 7226
2.534 1.939 1.642 2889
2.749 2.104 1.772 2475
2.662 2.037 1.707 4586
2.554 1.954 1.643 3250
2.770 2.119 1.772 2189
2.689 2.057 1.711 5976
2.581 1.974 1.647 4403
2.797 2.140 1.775 1611
2.698 2.064 1.705 9099
2.590 1.981 1.641 4570
2.806 2.147 1.769 1682
2.713 2.076 1.702 8398
2.605 1.993 1.638 4153
2.821 2.159 1.765 1013
2.728 2.087 1.698 7360
2.619 2.004 1.635 4366
2.836 2.170 1.762 1404
2.772 2.121 1.712 10195
2.640 2.020 1.636 4643
2.880 2.204 1.774 845
2.792 2.137 1.711 9690
2.901 2.220 1.774 2623
2.655 2.031 1.633 2458
2.825 2.161 1.718 8581
2.716 2.078 1.656 3937
2.934 2.245 1.779 1380
2.834 2.168 1.711 7501
2.725 2.085 1.649 3710
2.943 2.252 1.772 1861
2.861 2.189 1.713 5834
2.752 2.105 1.652 4057
2.970 2.272 1.774 975
2.859 2.187 1.700 5297
2.749 2.104 1.639 2482
2.968 2.271 1.760 1760
2.839 2.172 1.677 7289
2.949 2.256 1.737 3890
2.918 2.232 1.707 7336
2.808 2.149 1.647 4352
2.921 2.235 1.697 8144
2.812 2.151 1.637 2623
3.031 2.319 1.756 1210
2.931 2.242 1.689 9291
2.821 2.158 1.630 2540
3.041 2.326 1.748 1354
2.946 2.254 1.685 7691
2.836 2.170 1.626 1592
3.056 2.338 1.743 1032
3.013 2.305 1.708 5051
2.903 2.221 1.650 2445
2.953 2.259 1.663 4580
3.063 2.344 1.721 1760
2.951 2.258 1.650 3122
3.061 2.342 1.707 2591
3.036 2.323 1.681 3324
2.925 2.238 1.624 1332
3.045 2.330 1.673 4734
3.156 2.414 1.730 1006
2.934 2.245 1.616 1002
3.066 2.346 1.671 5951
3.212 2.457 1.745 1391
2.955 2.261 1.615 973
3.075 2.353 1.663 6384
3.186 2.438 1.718 2420
3.167 2.423 1.695 6312
3.050 2.333 1.637 4707
3.278 2.508 1.751 873
3.176 2.430 1.687 6534
3.059 2.341 1.629 3080
3.287 2.515 1.742 1012
3.180 2.433 1.675 5920
3.068 2.348 1.621 2467
3.303 2.527 1.735 1190
3.183 2.436 1.664 6813
3.072 2.350 1.609 1885
3.312 2.534 1.726 1501
3.175 2.429 1.646 8254
3.322 2.542 1.717 1947
3.063 2.344 1.593 797
3.208 2.454 1.649 8036
3.331 2.549 1.708 3056
3.096 2.369 1.596 867
3.223 2.466 1.643 5761
3.335 2.552 1.696 5488
3.344 2.559 1.686 8512
3.233 2.473 1.634 2489
3.348 2.562 1.674 10083
3.201 2.449 1.606 1704
3.352 2.564 1.662 9301
3.239 2.479 1.610 1209
3.481 2.664 1.722 955
3.343 2.558 1.644 6827
3.456 2.644 1.696 2111
3.418 2.615 1.664 4627
3.530 2.701 1.715 2026
3.305 2.529 1.614 1502
3.392 2.595 1.639 5876
3.552 2.717 1.710 2553
3.401 2.602 1.629 9228
3.555 2.720 1.698 2319
0.697 0.533 0.429 905
3.399 2.600 1.614 7302
3.511 2.687 1.664 3564
3.624 2.773 1.713 1228
0.698 0.534 0.426 1144
3.473 2.657 1.633 6573
3.598 2.753 1.687 3394
0.698 0.534 0.424 1262
3.360 2.571 1.584 1192
3.483 2.665 1.623 5204
3.596 2.751 1.672 4755
3.709 2.838 1.720 1428
0.699 0.535 0.422 1262
3.558 2.722 1.641 6234
3.694 2.827 1.699 2803
3.444 2.635 1.592 1238
0.700 0.535 0.419 1056
3.543 2.711 1.620 6470
3.710 2.839 1.691 4361
0.700 0.536 0.417 836
3.720 2.846 1.680 5107
3.547 2.714 1.607 4562
3.833 2.933 1.727 1464
3.729 2.853 1.669 5259
3.616 2.766 1.622 2983
3.843 2.940 1.716 1941
3.502 2.680 1.575 761
3.739 2.860 1.658 5102
3.613 2.764 1.606 2629
3.852 2.947 1.704 1244
3.748 2.868 1.647 3660
3.628 2.776 1.598 1932
3.862 2.955 1.693 829
3.758 2.875 1.635 3367
3.644 2.788 1.590 1683
3.883 2.971 1.686 1126
3.791 2.901 1.634 4712
3.677 2.813 1.588 1691
3.905 2.988 1.679 1062
3.782 2.894 1.615 4610
3.896 2.981 1.660 2440
3.888 2.975 1.641 4806
3.774 2.887 1.597 3205
3.897 2.982 1.630 5486
3.783 2.895 1.585 2015
4.012 3.069 1.674 1083
3.889 2.975 1.611 4311
4.003 3.063 1.654 2622
3.976 3.042 1.629 5110
3.862 2.955 1.585 2140
3.980 3.045 1.614 10274
3.865 2.958 1.571 1374
3.989 3.052 1.602 13889
3.875 2.965 1.559 1719
4.164 3.186 1.667 753
3.993 3.055 1.587 13602
3.878 2.967 1.545 1506
3.996 3.057 1.573 16524
3.881 2.970 1.531 1071
4.171 3.192 1.636 822
4.005 3.065 1.560 19664
3.866 2.958 1.511 1075
4.247 3.250 1.647 858
4.009 3.067 1.546 12595
4.305 3.294 1.651 1089
3.982 3.046 1.521 7349
4.327 3.311 1.642 2006
4.097 3.135 1.561 1470
3.991 3.054 1.508 6152
4.336 3.318 1.628 2998
4.106 3.142 1.548 1661
4.452 3.406 1.668 879
4.006 3.065 1.498 5909
4.340 3.321 1.612 3739
4.455 3.409 1.652 1439
4.121 3.153 1.537 1229
4.003 3.063 1.481 5418
4.446 3.402 1.632 4319
4.331 3.314 1.592 2865
4.119 3.151 1.520 1012
4.450 3.405 1.615 8601
4.025 3.079 1.473 2534
4.334 3.316 1.577 2264
4.644 3.553 1.681 922
4.453 3.407 1.599 8504
4.338 3.319 1.561 1598
4.034 3.086 1.460 1127
4.648 3.556 1.664 829
4.451 3.405 1.581 9958
4.584 3.508 1.625 965
4.043 3.093 1.448 936
4.454 3.408 1.565 12895
4.655 3.562 1.630 4793
4.463 3.415 1.550 14017
4.658 3.564 1.613 9768
4.902 3.751 1.691 815
4.460 3.413 1.532 11060
4.656 3.562 1.594 9009
4.772 3.651 1.630 1321
4.912 3.758 1.675 1045
4.659 3.565 1.577 8374
4.458 3.411 1.514 7800
4.775 3.653 1.613 1308
4.915 3.761 1.657 1058
4.668 3.572 1.562 8885
4.473 3.422 1.502 6000
4.955 3.792 1.650 1708
4.784 3.661 1.598 824
4.672 3.574 1.545 10106
4.476 3.425 1.485 3087
4.959 3.794 1.632 2587
4.048 3.097 1.355 800
4.681 3.582 1.530 14452
5.005 3.830 1.627 2538
4.473 3.422 1.467 1622
4.889 3.741 1.592 1402
4.690 3.589 1.514 13405
5.015 3.837 1.610 3818
4.898 3.748 1.576 1398
4.476 3.425 1.451 1148
4.687 3.586 1.495 6549
5.006 3.830 1.589 2815
5.122 3.919 1.623 1430
4.473 3.422 1.433 1050
4.697 3.594 1.480 3241
4.966 3.800 1.558 2206
5.107 3.908 1.599 1916
5.224 3.997 1.632 1089
4.706 3.601 1.465 1639
5.105 3.906 1.578 1612
4.976 3.807 1.542 1515
5.221 3.995 1.611 1315
5.059 3.871 1.546 1370
5.237 4.007 1.596 941
4.709 3.603 1.448 757
5.093 3.897 1.536 1583
5.467 4.183 1.639 1375
5.645 4.319 1.689 1121
5.252 4.019 1.580 1045
5.698 4.360 1.682 1740
5.465 4.181 1.618 1728
5.108 3.908 1.521 1511
5.256 4.021 1.561 1215
5.714 4.372 1.664 3211
5.234 4.005 1.535 1504
5.548 4.245 1.619 1355
5.105 3.906 1.500 1223
5.724 4.379 1.645 4426
5.244 4.012 1.518 1336
5.564 4.257 1.602 1320
5.102 3.904 1.480 1107
5.721 4.377 1.622 5166
5.838 4.467 1.653 1098
5.481 4.194 1.560 1071
5.118 3.916 1.465 821
5.718 4.375 1.600 6193
5.835 4.465 1.630 1214
6.026 4.611 1.679 1117
5.484 4.196 1.540 802
5.722 4.378 1.579 6063
6.030 4.613 1.657 1647
5.839 4.467 1.609 1613
5.737 4.390 1.561 4542
6.076 4.649 1.646 1632
5.854 4.479 1.591 1407
5.747 4.397 1.542 4641
6.049 4.628 1.616 1827
6.277 4.803 1.672 1381
5.864 4.487 1.571 885
5.750 4.399 1.521 3294
6.059 4.636 1.596 2182
6.269 4.796 1.646 1328
6.392 4.891 1.676 1140
6.074 4.648 1.576 2853
5.741 4.392 1.497 2042
6.414 4.908 1.657 1423
6.253 4.785 1.619 1064
6.084 4.655 1.556 2329
5.744 4.395 1.476 2260
6.418 4.910 1.634 2114
6.263 4.792 1.598 1488
6.427 4.918 1.612 2155
6.279 4.804 1.578 1764
5.741 4.392 1.454 1744
6.093 4.662 1.535 1676
6.431 4.920 1.589 1861
6.573 5.029 1.621 1847
6.103 4.669 1.514 1710
6.313 4.830 1.562 1662
6.329 4.842 1.542 1705
6.694 5.122 1.623 1463
6.564 5.022 1.594 1407
6.446 4.932 1.568 1406
6.573 5.029 1.571 2088
6.697 5.124 1.599 1569
6.301 4.821 1.512 1291
6.964 5.328 1.657 1187
6.583 5.037 1.549 2887
6.787 5.193 1.593 1821
6.905 5.283 1.618 1067
7.184 5.497 1.678 1001
6.592 5.044 1.526 2115
7.175 5.490 1.649 1740
6.828 5.224 1.576 1596
6.946 5.314 1.601 1122
7.204 5.512 1.628 1971
6.633 5.075 1.510 1429
6.844 5.236 1.554 1390
7.042 5.388 1.595 1159
6.648 5.087 1.488 1606
7.195 5.505 1.600 1603
7.008 5.362 1.562 1364
7.468 5.714 1.655 979
7.229 5.531 1.579 1396
7.005 5.360 1.535 1388
7.366 5.636 1.607 1187
7.719 5.906 1.678 1159
7.238 5.538 1.554 1581
7.468 5.714 1.599 1247
7.704 5.895 1.646 1063
7.940 6.075 1.692 1033
7.254 5.550 1.530 1449
7.745 5.926 1.625 1340
7.478 5.721 1.573 1282
8.062 6.168 1.686 1130
7.742 5.924 1.595 1539
8.066 6.171 1.657 1526
7.935 6.071 1.632 1207
7.257 5.553 1.504 958
8.069 6.174 1.627 2432
7.938 6.074 1.603 1305
7.540 5.769 1.529 1111
7.739 5.922 1.566 1104
8.066 6.172 1.596 2966
7.544 5.772 1.501 1318
7.929 6.067 1.572 1241
8.913 6.819 1.750 961
8.070 6.174 1.567 3461
7.920 6.060 1.540 1831
8.916 6.822 1.718 1430
7.777 5.950 1.515 958
8.079 6.182 1.539 3266
7.942 6.077 1.515 2310
8.926 6.830 1.686 1991
8.808 6.739 1.665 1157
8.082 6.184 1.509 2684
8.936 6.837 1.654 2664
7.945 6.079 1.486 1908
8.805 6.737 1.632 1516
8.085 6.186 1.479 2783
8.933 6.835 1.621 2728
8.809 6.740 1.600 1455
7.936 6.072 1.454 1236
8.089 6.189 1.450 2520
8.937 6.838 1.588 1602
8.812 6.742 1.568 1441
9.778 7.482 1.725 1368
