7.748 5.909 1.624 2183
7.275 5.548 1.533 1451
7.910 6.032 1.655 1076
7.518 5.733 1.579 1036
7.745 5.907 1.594 2197
7.932 6.049 1.630 1310
8.082 6.163 1.658 1112
7.528 5.741 1.553 978
8.091 6.171 1.629 2332
7.749 5.909 1.566 1787
7.936 6.052 1.601 1018
7.456 5.686 1.512 823
8.101 6.178 1.601 3283
7.746 5.907 1.537 1001
7.864 5.997 1.558 881
8.948 6.824 1.755 844
8.098 6.176 1.570 2602
8.946 6.822 1.721 1556
8.802 6.713 1.695 1151
7.955 6.066 1.545 1033
8.095 6.173 1.540 2195
8.937 6.815 1.686 2058
8.812 6.720 1.664 1545
7.964 6.074 1.517 1218
8.934 6.813 1.652 2347
8.098 6.176 1.510 2120
8.816 6.723 1.632 1678
8.429 6.428 1.566 1391
8.932 6.811 1.619 2407
8.102 6.178 1.480 1844
8.813 6.721 1.599 1561
8.439 6.435 1.537 1185
8.105 6.181 1.451 2135
8.935 6.814 1.586 1997
9.790 7.466 1.725 1503
8.816 6.723 1.567 1469
9.781 7.459 1.687 2390
8.951 6.826 1.555 2031
8.108 6.183 1.421 1901
8.801 6.712 1.531 1627
9.779 7.457 1.651 2824
8.960 6.833 1.524 2324
8.810 6.719 1.500 1375
8.104 6.180 1.391 1047
9.807 7.479 1.619 2530
8.970 6.840 1.492 2156
8.801 6.712 1.466 932
9.220 7.031 1.530 929
9.823 7.491 1.585 2777
8.992 6.857 1.462 1515
9.198 7.014 1.492 823
9.839 7.503 1.551 2798
9.720 7.413 1.533 854
9.082 6.926 1.442 800
9.836 7.501 1.514 2271
9.955 7.592 1.530 827
9.833 7.499 1.477 1700
9.958 7.594 1.494 872
9.823 7.491 1.439 1434
9.948 7.587 1.456 937
9.826 7.494 1.403 858
10.107 7.708 1.290 765
8.496 6.479 0.452 1149
8.490 6.474 0.420 1613
8.497 6.480 0.390 1615
8.497 6.480 0.359 1373
8.504 6.485 0.328 1119
8.498 6.481 0.296 1158
8.499 6.481 0.265 1202
8.461 6.452 0.234 1204
8.455 6.448 0.203 1070
8.417 6.419 0.172 1029
8.411 6.414 0.141 1142
8.405 6.410 0.111 1308
8.405 6.409 0.080 1488
8.404 6.409 0.049 1668
8.410 6.414 0.018 1827
8.404 6.409 -0.012 2080
8.391 6.399 -0.043 2430
8.384 6.394 -0.073 2310
8.384 6.393 -0.104 2215
8.377 6.388 -0.134 2184
8.370 6.383 -0.165 2170
8.375 6.387 -0.195 2110
8.374 6.386 -0.226 2055
8.342 6.362 -0.255 1709
8.335 6.356 -0.285 1534
8.321 6.346 -0.315 1370
8.320 6.345 -0.345 1265
8.313 6.339 -0.375 1124
8.299 6.329 -0.405 1040
8.304 6.333 -0.436 1100
8.303 6.332 -0.466 1169
8.295 6.326 -0.496 831
1.748 1.323 1.671 4324
1.861 1.409 1.773 1892
1.751 1.326 1.665 8648
1.864 1.412 1.766 3784
1.755 1.329 1.659 8648
1.868 1.414 1.759 3784
1.966 1.488 1.846 821
1.758 1.331 1.652 7187
1.918 1.452 1.794 3454
1.757 1.330 1.642 5763
1.922 1.455 1.787 4137
1.905 1.443 1.762 6326
1.765 1.337 1.640 4649
1.904 1.441 1.751 9733
1.774 1.343 1.638 3614
1.908 1.444 1.744 9733
1.809 1.369 1.659 2692
2.017 1.527 1.838 782
1.906 1.443 1.732 11598
1.807 1.368 1.648 1856
2.005 1.518 1.817 1192
1.910 1.446 1.726 13529
1.811 1.371 1.641 1709
2.009 1.521 1.810 1611
1.914 1.449 1.719 10662
2.013 1.524 1.803 3254
1.814 1.373 1.635 1108
1.917 1.452 1.712 7795
2.017 1.527 1.796 4897
1.926 1.458 1.709 7243
2.026 1.534 1.793 6001
2.030 1.537 1.785 7451
1.930 1.461 1.703 6710
2.034 1.540 1.778 7451
1.933 1.464 1.696 5684
1.964 1.487 1.710 6651
2.064 1.563 1.793 3456
1.863 1.410 1.628 751
1.967 1.489 1.703 6627
2.068 1.565 1.785 2457
2.024 1.532 1.739 5768
1.923 1.456 1.658 2725
2.125 1.609 1.821 837
2.044 1.547 1.745 5675
1.943 1.471 1.664 3291
2.053 1.554 1.742 7431
1.951 1.477 1.661 2536
2.154 1.631 1.822 755
2.062 1.561 1.738 9601
1.955 1.480 1.654 1651
2.163 1.638 1.819 1003
2.060 1.560 1.727 10795
1.958 1.483 1.647 1070
2.162 1.636 1.807 1023
2.058 1.558 1.715 12173
2.160 1.635 1.795 1105
2.078 1.573 1.720 11918
2.180 1.650 1.800 1641
2.098 1.588 1.725 13976
2.200 1.666 1.804 1527
1.937 1.466 1.601 849
2.123 1.607 1.734 13040
2.225 1.685 1.813 1208
2.021 1.530 1.656 769
2.138 1.618 1.735 15310
2.240 1.696 1.813 1191
2.035 1.541 1.657 773
2.141 1.621 1.727 12405
2.244 1.699 1.805 1083
2.145 1.624 1.720 9500
2.248 1.702 1.797 975
2.154 1.631 1.716 6514
2.257 1.709 1.793 1533
2.196 1.662 1.737 4202
2.093 1.584 1.660 935
2.238 1.694 1.757 5626
2.134 1.616 1.680 2352
2.247 1.701 1.753 7294
2.143 1.623 1.677 2983
2.251 1.704 1.745 6727
2.147 1.625 1.669 2501
2.354 1.782 1.820 751
2.254 1.707 1.737 6160
2.150 1.628 1.661 1585
2.358 1.785 1.812 762
2.258 1.709 1.728 4617
2.154 1.631 1.654 825
2.289 1.733 1.740 5372
2.185 1.654 1.666 1393
2.287 1.732 1.728 6404
2.183 1.653 1.654 761
2.285 1.730 1.716 6860
2.390 1.809 1.789 1313
2.284 1.729 1.704 7428
2.388 1.808 1.777 2354
2.287 1.732 1.695 5347
2.392 1.811 1.768 2507
2.357 1.785 1.733 5003
2.252 1.705 1.661 2070
2.372 1.796 1.732 5017
2.267 1.716 1.660 1510
2.387 1.807 1.731 5038
2.413 1.827 1.738 4987
2.394 1.813 1.714 5474
2.500 1.893 1.785 1124
2.398 1.815 1.705 6299
2.504 1.896 1.776 1318
2.401 1.818 1.697 4770
2.508 1.898 1.767 2084
2.483 1.880 1.739 6705
2.377 1.800 1.670 1752
2.487 1.883 1.730 9660
2.381 1.802 1.661 1736
2.496 1.890 1.725 10213
2.390 1.809 1.656 1657
2.506 1.897 1.720 10128
2.399 1.816 1.651 1259
2.509 1.900 1.711 9070
2.616 1.981 1.779 894
2.402 1.819 1.643 883
2.513 1.903 1.702 7028
2.620 1.984 1.770 2134
2.556 1.935 1.718 7246
2.449 1.854 1.650 848
2.582 1.955 1.722 9527
2.475 1.874 1.655 2504
2.603 1.971 1.724 10753
2.496 1.889 1.657 4243
2.711 2.052 1.790 985
2.544 1.926 1.676 9309
2.652 2.008 1.742 3261
2.588 1.959 1.691 7497
2.713 2.054 1.767 2417
2.480 1.877 1.625 1289
2.580 1.953 1.675 8590
2.722 2.061 1.761 3111
2.589 1.960 1.669 9251
2.697 2.042 1.734 3927
2.598 1.967 1.663 8901
2.707 2.049 1.728 4430
2.815 2.131 1.792 753
2.676 2.026 1.698 7656
2.568 1.944 1.633 4766
2.785 2.108 1.762 2284
2.691 2.037 1.695 10036
2.583 1.955 1.631 3344
2.800 2.120 1.758 2631
2.729 2.066 1.705 8348
2.620 1.984 1.642 2267
2.838 2.149 1.768 1548
2.767 2.095 1.715 8837
2.647 2.004 1.645 2541
2.876 2.177 1.778 981
2.771 2.098 1.705 13162
2.662 2.015 1.642 2677
2.880 2.180 1.768 1363
2.769 2.096 1.692 12688
2.878 2.179 1.754 2481
2.660 2.013 1.630 2153
2.830 2.142 1.714 7632
2.721 2.060 1.653 2723
2.939 2.225 1.776 1987
2.834 2.145 1.704 7611
2.943 2.228 1.766 2916
2.724 2.062 1.643 2021
2.837 2.148 1.694 5889
2.947 2.231 1.755 3267
2.728 2.065 1.633 1621
2.852 2.159 1.690 4791
2.962 2.243 1.751 1928
2.743 2.076 1.629 1656
2.856 2.162 1.680 5760
2.966 2.245 1.740 2055
2.746 2.079 1.620 1067
2.854 2.160 1.666 5050
2.964 2.244 1.726 2427
2.944 2.229 1.703 4188
2.834 2.146 1.644 2870
2.960 2.241 1.699 5894
2.849 2.157 1.640 2810
3.015 2.283 1.716 8030
2.905 2.199 1.657 2855
3.025 2.290 1.708 9185
2.914 2.206 1.650 2839
3.029 2.293 1.697 6719
2.918 2.209 1.639 1790
3.032 2.296 1.686 3286
3.024 2.289 1.669 2567
3.135 2.373 1.726 1225
3.039 2.301 1.664 2971
3.150 2.385 1.721 1730
3.096 2.344 1.680 4536
3.207 2.428 1.736 1195
2.984 2.259 1.624 976
3.164 2.395 1.701 6913
3.052 2.311 1.645 3440
3.173 2.402 1.692 7816
3.062 2.318 1.637 3463
3.177 2.405 1.681 6045
3.065 2.320 1.626 3251
3.288 2.489 1.736 1315
3.216 2.434 1.687 4691
3.080 2.332 1.621 2593
3.327 2.519 1.741 1325
3.231 2.446 1.681 5148
3.119 2.361 1.627 3629
3.343 2.531 1.735 1724
3.176 2.404 1.641 6388
3.329 2.520 1.714 3140
3.226 2.442 1.652 7007
3.338 2.527 1.705 4158
3.247 2.459 1.648 6226
3.360 2.544 1.701 4049
3.357 2.542 1.686 6622
3.239 2.452 1.631 3178
3.470 2.627 1.739 765
3.367 2.549 1.677 9306
3.225 2.441 1.611 2181
3.479 2.634 1.729 922
3.371 2.552 1.665 7845
3.240 2.453 1.605 1233
3.483 2.637 1.716 829
3.392 2.568 1.661 4408
3.279 2.483 1.609 1317
3.395 2.571 1.648 3350
3.508 2.656 1.699 1363
3.283 2.485 1.598 888
3.405 2.578 1.639 4457
3.518 2.663 1.689 2308
3.420 2.589 1.632 5275
3.533 2.675 1.682 2619
3.483 2.637 1.645 5772
3.597 2.723 1.695 2756
3.370 2.551 1.596 1575
3.493 2.644 1.635 5356
3.606 2.730 1.685 3663
3.379 2.558 1.586 1695
3.616 2.737 1.674 4356
3.502 2.651 1.625 3412
3.389 2.566 1.577 882
3.619 2.740 1.661 3360
3.506 2.654 1.613 2051
3.733 2.826 1.709 846
3.647 2.761 1.658 3121
3.527 2.670 1.608 1633
3.760 2.847 1.706 1248
3.644 2.759 1.642 5123
3.758 2.845 1.690 3112
3.530 2.673 1.595 1689
3.642 2.757 1.627 6369
3.756 2.843 1.674 4031
3.528 2.671 1.580 1290
3.869 2.929 1.721 783
3.741 2.832 1.653 5773
3.627 2.746 1.606 3786
3.855 2.919 1.700 1322
3.745 2.835 1.639 5115
3.631 2.749 1.593 1583
3.859 2.921 1.686 1567
3.790 2.869 1.643 5387
3.676 2.783 1.597 1195
3.904 2.956 1.688 1097
3.800 2.877 1.631 4542
3.685 2.790 1.586 1195
3.926 2.972 1.682 906
3.749 2.838 1.596 4120
3.954 2.993 1.677 2048
3.764 2.850 1.587 3629
3.963 3.000 1.665 3162
3.961 2.999 1.648 5037
3.786 2.866 1.581 2723
3.964 3.001 1.634 6074
3.813 2.887 1.576 2337
3.968 3.004 1.619 7008
3.817 2.889 1.562 2001
4.083 3.091 1.663 835
3.971 3.006 1.605 7238
3.826 2.897 1.551 1348
3.969 3.004 1.588 7408
3.853 2.917 1.546 1054
3.972 3.007 1.574 8256
3.857 2.920 1.532 1110
4.087 3.094 1.616 784
3.981 3.014 1.562 11229
3.866 2.927 1.520 1112
0.730 0.553 0.387 797
3.985 3.017 1.547 14303
4.100 3.104 1.589 1004
0.731 0.553 0.384 922
3.994 3.024 1.535 13164
4.109 3.111 1.576 1924
0.732 0.554 0.382 881
4.352 3.295 1.662 774
3.997 3.026 1.521 11153
4.113 3.114 1.561 2219
4.435 3.358 1.674 1744
4.319 3.270 1.633 887
4.006 3.033 1.508 7152
4.445 3.365 1.660 2701
4.122 3.121 1.548 1176
4.329 3.277 1.620 943
3.991 3.022 1.488 5396
4.454 3.372 1.646 2743
4.338 3.285 1.606 949
4.470 3.384 1.634 4707
4.001 3.029 1.475 4316
4.354 3.296 1.594 1080
4.116 3.116 1.514 763
4.473 3.387 1.617 6612
4.016 3.040 1.465 3016
4.357 3.299 1.579 1269
4.132 3.128 1.503 883
4.471 3.385 1.599 6448
4.013 3.038 1.448 2230
4.666 3.532 1.664 1234
4.355 3.297 1.561 913
4.468 3.383 1.581 5103
4.676 3.540 1.649 1966
4.016 3.040 1.434 1026
4.496 3.404 1.573 6023
4.691 3.552 1.636 1725
4.807 3.640 1.673 1005
4.493 3.401 1.554 7130
4.689 3.550 1.617 5948
4.805 3.638 1.654 2334
4.921 3.726 1.691 1355
4.692 3.552 1.600 11148
4.466 3.381 1.528 5882
4.808 3.640 1.636 2739
4.925 3.728 1.673 1648
4.689 3.550 1.581 9496
4.469 3.383 1.512 3937
4.806 3.638 1.617 2692
4.922 3.726 1.653 1454
4.699 3.557 1.566 5650
4.484 3.395 1.500 1963
4.815 3.646 1.601 1960
4.932 3.734 1.637 1788
4.702 3.560 1.549 3612
4.972 3.764 1.630 1953
4.481 3.393 1.482 1898
4.819 3.648 1.584 1593
4.705 3.562 1.531 5561
5.012 3.795 1.623 3143
5.129 3.883 1.658 1848
4.490 3.400 1.467 1802
4.702 3.560 1.513 6892
5.010 3.793 1.603 3599
5.133 3.886 1.639 3509
4.494 3.402 1.451 1343
5.142 3.893 1.623 4898
4.706 3.562 1.495 4608
5.025 3.805 1.589 2057
4.909 3.716 1.555 1481
5.139 3.891 1.602 6442
4.715 3.570 1.480 2864
5.023 3.802 1.569 1072
5.256 3.979 1.636 872
5.143 3.893 1.583 7125
4.724 3.577 1.465 1767
5.260 3.982 1.617 1414
5.026 3.805 1.550 1059
5.152 3.901 1.566 6280
5.565 4.213 1.682 1300
5.269 3.989 1.599 1251
4.727 3.579 1.448 925
5.149 3.899 1.546 5086
5.563 4.211 1.660 1480
5.267 3.987 1.578 1433
5.680 4.300 1.692 904
5.153 3.901 1.527 3341
5.566 4.214 1.640 1563
5.683 4.303 1.672 1422
5.270 3.990 1.559 1358
5.570 4.216 1.619 2032
5.711 4.324 1.657 1884
5.168 3.913 1.512 1795
5.829 4.413 1.689 1426
5.734 4.341 1.642 3153
5.573 4.219 1.599 1875
5.851 4.430 1.673 1411
5.153 3.901 1.488 1149
5.743 4.348 1.622 4118
5.861 4.437 1.653 1565
5.589 4.231 1.582 1305
5.360 4.058 1.523 829
5.740 4.346 1.600 4066
5.858 4.435 1.630 2121
5.592 4.234 1.562 1267
5.744 4.348 1.579 3381
5.861 4.437 1.609 2012
5.595 4.236 1.542 848
5.753 4.356 1.560 3619
5.914 4.478 1.600 1426
6.075 4.599 1.640 1234
5.757 4.358 1.539 3393
6.079 4.602 1.618 2214
5.911 4.475 1.577 2010
6.296 4.766 1.671 862
6.088 4.609 1.597 3284
5.760 4.361 1.518 2468
5.909 4.473 1.554 2293
6.404 4.849 1.673 887
6.104 4.621 1.578 3399
5.924 4.485 1.535 2463
5.763 4.363 1.497 1891
6.365 4.818 1.640 1062
6.132 4.643 1.562 2427
5.934 4.492 1.515 2394
6.349 4.807 1.612 1680
5.766 4.365 1.476 1521
6.142 4.650 1.541 2444
6.353 4.810 1.589 1976
6.471 4.899 1.616 1877
5.943 4.499 1.495 1718
6.480 4.906 1.594 2129
6.145 4.652 1.518 1626
6.362 4.817 1.567 1517
5.946 4.502 1.473 1357
6.478 4.904 1.569 1906
6.714 5.083 1.622 1523
6.167 4.669 1.500 1057
6.359 4.815 1.543 874
6.810 5.156 1.618 1588
6.475 4.902 1.544 1463
6.593 4.991 1.570 1395
7.028 5.321 1.665 1284
6.615 5.008 1.550 1850
6.814 5.159 1.593 1679
7.019 5.314 1.637 1535
5.899 4.466 1.396 824
6.823 5.166 1.569 1390
7.016 5.312 1.610 1387
6.618 5.010 1.526 1312
7.197 5.449 1.648 970
6.546 4.956 1.486 1365
7.032 5.324 1.587 1363
6.821 5.164 1.543 1182
7.200 5.451 1.622 972
7.247 5.487 1.605 1234
6.562 4.968 1.465 1106
7.042 5.331 1.563 1094
6.874 5.204 1.529 1051
7.251 5.489 1.578 1386
7.388 5.593 1.606 899
7.743 5.862 1.677 804
6.877 5.206 1.504 800
7.759 5.874 1.651 1393
7.292 5.520 1.559 1354
7.479 5.662 1.596 1050
7.079 5.360 1.518 843
7.769 5.882 1.624 1733
7.301 5.527 1.534 1654
7.950 6.019 1.659 1281
8.087 6.123 1.685 989
7.766 5.880 1.594 1771
7.953 6.021 1.630 1635
8.097 6.130 1.657 1287
7.298 5.525 1.506 1044
8.113 6.142 1.629 2560
7.776 5.887 1.567 1624
7.963 6.029 1.602 1199
7.482 5.665 1.513 871
8.116 6.145 1.600 3533
7.773 5.885 1.538 1082
7.973 6.036 1.574 1039
8.941 6.769 1.749 907
8.120 6.147 1.570 2772
8.945 6.772 1.716 1736
8.826 6.682 1.695 1222
7.976 6.038 1.545 1075
8.948 6.775 1.684 2418
8.117 6.145 1.540 2365
8.830 6.685 1.663 1568
7.986 6.046 1.517 1106
8.958 6.782 1.652 2878
8.114 6.143 1.509 2269
8.839 6.692 1.632 1903
8.452 6.398 1.566 1400
8.955 6.780 1.619 2987
8.104 6.136 1.477 1931
8.837 6.690 1.599 1618
8.461 6.406 1.537 1324
8.959 6.782 1.586 2573
8.126 6.152 1.451 2164
9.804 7.422 1.723 1522
8.840 6.692 1.567 1162
8.968 6.790 1.554 2611
9.808 7.425 1.687 2433
8.123 6.150 1.420 1965
9.638 7.297 1.661 1168
9.805 7.423 1.651 2921
8.972 6.792 1.522 2859
9.648 7.304 1.626 1206
8.126 6.152 1.391 1119
9.808 7.426 1.615 2625
8.981 6.799 1.490 2329
9.652 7.307 1.591 988
9.251 7.003 1.531 851
9.849 7.457 1.585 2880
9.009 6.821 1.461 1376
9.865 7.469 1.551 3004
9.746 7.378 1.533 885
9.868 7.471 1.515 2589
9.859 7.464 1.477 2026
9.862 7.466 1.441 1644
10.314 7.808 1.501 950
9.865 7.469 1.405 860
10.311 7.806 1.462 832
8.519 6.449 0.421 876
8.526 6.455 0.390 969
8.526 6.455 0.359 1022
8.514 6.446 0.327 1015
8.521 6.451 0.296 988
8.528 6.456 0.266 979
8.490 6.427 0.234 933
8.478 6.418 0.203 856
8.452 6.399 0.172 775
8.427 6.380 0.141 984
8.421 6.375 0.111 1276
8.421 6.375 0.080 1563
8.421 6.375 0.049 1850
8.420 6.375 0.019 1890
8.426 6.379 -0.012 2038
8.426 6.379 -0.043 2100
8.413 6.369 -0.073 1966
8.406 6.364 -0.104 1920
8.399 6.359 -0.134 1827
8.380 6.344 -0.164 1861
8.372 6.339 -0.194 1860
8.353 6.324 -0.224 1923
8.352 6.323 -0.255 1803
8.345 6.317 -0.285 1685
8.344 6.317 -0.315 1582
8.336 6.311 -0.345 1521
8.329 6.305 -0.375 1369
8.309 6.290 -0.404 1373
8.314 6.294 -0.435 1362
8.318 6.298 -0.466 1394
8.311 6.292 -0.495 1003
1.757 1.322 1.676 3977
1.865 1.403 1.773 2289
1.760 1.325 1.669 7955
1.869 1.406 1.766 4578
1.764 1.327 1.663 7955
1.872 1.409 1.759 4578
1.970 1.483 1.846 756
1.762 1.326 1.652 5987
1.928 1.451 1.798 3318
1.761 1.325 1.642 4284
1.932 1.454 1.791 3892
1.899 1.429 1.753 5088
1.769 1.331 1.640 3409
1.898 1.428 1.742 7920
1.778 1.338 1.638 2679
1.997 1.502 1.827 938
1.902 1.431 1.735 7920
1.802 1.356 1.650 1856
2.001 1.505 1.820 938
1.905 1.434 1.728 9380
1.806 1.359 1.643 1266
2.005 1.508 1.813 1160
1.909 1.436 1.721 10840
2.008 1.511 1.806 1383
1.809 1.362 1.637 1187
1.918 1.443 1.719 8896
2.018 1.518 1.803 2636
1.818 1.368 1.635 929
1.922 1.446 1.712 6972
2.021 1.521 1.796 4117
1.930 1.453 1.709 5860
2.031 1.528 1.793 5274
2.034 1.531 1.785 6668
1.934 1.455 1.703 4819
2.038 1.534 1.778 6668
1.938 1.458 1.696 4023
2.037 1.533 1.767 6102
1.936 1.457 1.684 2880
2.009 1.511 1.733 6779
1.908 1.436 1.652 1762
2.110 1.587 1.815 1272
2.018 1.518 1.731 5626
1.917 1.442 1.649 2018
2.119 1.594 1.812 1272
2.043 1.537 1.740 4727
1.936 1.457 1.655 2402
2.057 1.548 1.742 6119
1.934 1.456 1.644 1868
2.159 1.624 1.822 756
2.066 1.555 1.738 8074
1.938 1.458 1.637 1341
2.168 1.631 1.819 987
2.065 1.553 1.727 9419
1.941 1.461 1.630 1020
2.166 1.630 1.807 1012
2.068 1.556 1.719 10975
2.170 1.633 1.799 956
1.966 1.480 1.640 767
2.083 1.567 1.720 10902
2.185 1.644 1.800 1429
1.948 1.466 1.616 922
2.108 1.586 1.730 13099
1.952 1.469 1.609 1145
2.210 1.663 1.808 941
2.133 1.605 1.739 12959
2.031 1.528 1.660 1205
2.236 1.682 1.817 943
2.142 1.612 1.735 15669
2.245 1.689 1.813 1123
2.040 1.535 1.657 1024
2.146 1.615 1.727 12874
2.249 1.692 1.805 1068
2.155 1.622 1.724 10215
2.258 1.699 1.801 848
2.159 1.624 1.716 6958
2.262 1.702 1.793 1533
2.239 1.685 1.765 4230
2.135 1.607 1.688 2379
2.243 1.687 1.757 5987
2.139 1.609 1.680 2396
2.252 1.694 1.753 7838
2.148 1.616 1.677 2732
2.256 1.697 1.745 7480
2.152 1.619 1.669 2352
2.259 1.700 1.737 7123
2.155 1.622 1.661 1571
2.363 1.778 1.812 755
2.268 1.707 1.732 5678
2.164 1.628 1.658 1327
2.283 1.718 1.732 6069
2.179 1.639 1.658 1313
2.287 1.721 1.724 7185
2.182 1.642 1.650 951
2.291 1.724 1.716 7861
2.395 1.802 1.789 1091
2.294 1.726 1.707 8536
2.399 1.805 1.781 1711
2.298 1.729 1.699 6010
2.403 1.808 1.772 1660
2.368 1.782 1.737 4936
2.263 1.703 1.664 2121
2.377 1.789 1.732 5420
2.272 1.709 1.660 1669
2.398 1.804 1.735 6091
2.292 1.725 1.663 950
2.418 1.820 1.738 7047
2.411 1.814 1.721 6906
2.517 1.894 1.792 952
2.409 1.812 1.709 7615
2.515 1.892 1.780 1433
2.303 1.733 1.638 791
2.412 1.815 1.700 5786
2.519 1.895 1.770 2227
2.489 1.873 1.739 6628
2.382 1.793 1.670 1773
2.493 1.876 1.730 9444
2.386 1.795 1.661 1862
2.502 1.883 1.725 9630
2.395 1.802 1.656 1682
2.511 1.890 1.720 8644
2.404 1.809 1.651 1208
2.509 1.888 1.707 7016
2.616 1.969 1.775 937
2.513 1.891 1.698 5722
2.620 1.972 1.766 2502
2.562 1.928 1.718 6653
2.669 2.009 1.785 1029
2.454 1.847 1.650 932
2.594 1.952 1.726 9631
2.486 1.871 1.659 2818
2.603 1.959 1.720 11459
2.495 1.878 1.654 3009
2.711 2.040 1.787 1208
2.613 1.966 1.714 9643
2.505 1.885 1.648 3362
2.720 2.047 1.780 1509
2.593 1.951 1.691 8607
2.702 2.033 1.757 2032
2.485 1.870 1.625 1019
2.591 1.950 1.678 9941
2.728 2.053 1.761 2256
2.601 1.957 1.672 10471
2.709 2.038 1.737 2999
2.610 1.964 1.666 9923
2.718 2.046 1.731 3050
2.688 2.022 1.701 7924
2.579 1.941 1.637 5100
2.797 2.104 1.765 1346
2.692 2.025 1.691 10391
2.583 1.943 1.627 2864
2.800 2.107 1.755 2047
2.730 2.054 1.702 7727
2.621 1.972 1.638 2354
2.839 2.136 1.765 1382
2.762 2.078 1.708 8869
2.653 1.996 1.645 2427
2.871 2.160 1.771 1439
2.771 2.085 1.702 13906
2.662 2.003 1.639 2534
2.881 2.167 1.764 1538
2.775 2.088 1.692 13177
2.666 2.006 1.630 2101
2.919 2.196 1.774 1671
2.836 2.134 1.714 7090
2.727 2.052 1.653 2796
2.946 2.217 1.776 1930
2.840 2.137 1.704 7647
2.950 2.219 1.766 2785
2.730 2.054 1.643 2077
2.849 2.144 1.697 6212
2.959 2.227 1.758 2575
2.739 2.061 1.636 2240
2.864 2.155 1.693 5087
2.754 2.073 1.633 2405
2.974 2.238 1.754 1376
2.862 2.154 1.680 5494
2.972 2.237 1.740 2011
2.752 2.071 1.620 1036
2.860 2.152 1.666 5118
3.005 2.261 1.745 2447
2.869 2.159 1.659 4317
3.009 2.264 1.734 2807
2.954 2.223 1.692 4584
2.844 2.140 1.633 2268
3.016 2.270 1.713 7059
2.906 2.186 1.654 3211
3.026 2.277 1.705 9565
2.915 2.193 1.647 2788
3.035 2.284 1.697 7566
2.924 2.200 1.639 1822
2.992 2.251 1.662 4062
3.103 2.335 1.719 1433
3.002 2.258 1.654 3073
3.113 2.342 1.711 1762
3.111 2.341 1.697 2308
2.999 2.257 1.640 1951
3.132 2.357 1.694 4606
3.020 2.273 1.638 1571
3.171 2.386 1.701 7701
3.053 2.297 1.642 2685
3.174 2.388 1.689 7857
3.063 2.304 1.634 2771
3.286 2.473 1.745 866
3.190 2.400 1.684 5620
3.078 2.316 1.629 3459
3.302 2.484 1.739 1154
3.205 2.412 1.678 4634
3.087 2.323 1.621 2456
3.317 2.496 1.732 1101
3.173 2.388 1.649 5221
3.285 2.472 1.703 2695
3.061 2.303 1.595 1008
3.183 2.395 1.641 6446
3.336 2.510 1.714 2699
3.245 2.442 1.657 6150
3.358 2.526 1.711 3305
3.133 2.357 1.604 813
3.261 2.453 1.651 6166
3.373 2.538 1.704 3330
3.365 2.532 1.686 6030
3.246 2.443 1.631 3272
3.374 2.539 1.677 8549
3.238 2.436 1.614 2423
3.487 2.624 1.729 813
3.378 2.542 1.665 7006
3.259 2.452 1.610 1531
3.491 2.627 1.716 1353
3.376 2.540 1.650 4215
3.489 2.625 1.701 1526
3.263 2.455 1.599 1106
3.379 2.543 1.638 4550
3.510 2.641 1.697 1992
3.401 2.559 1.633 5153
3.514 2.644 1.684 2845
3.511 2.642 1.669 4011
3.398 2.557 1.619 3417
3.625 2.727 1.719 1117
3.503 2.636 1.651 5160
3.616 2.721 1.700 2327
3.390 2.550 1.601 1969
3.506 2.638 1.638 4753
3.620 2.724 1.687 3620
3.393 2.553 1.589 1997
3.624 2.727 1.674 4488
3.510 2.641 1.625 2772
3.396 2.556 1.577 1134
3.633 2.734 1.664 3212
3.519 2.648 1.615 1653
3.747 2.819 1.712 789
3.661 2.755 1.661 3031
3.547 2.669 1.613 1836
3.775 2.840 1.709 1519
3.652 2.748 1.642 5767
3.778 2.843 1.695 3251
3.538 2.662 1.595 1620
3.650 2.746 1.627 7130
3.764 2.832 1.674 3339
3.536 2.660 1.580 1268
3.743 2.817 1.650 4429
3.629 2.731 1.604 3540
3.858 2.903 1.697 1102
3.735 2.810 1.632 4596
3.849 2.896 1.678 1648
3.621 2.724 1.586 1313
3.811 2.867 1.647 6391
3.696 2.781 1.602 2357
3.925 2.953 1.693 1270
3.820 2.875 1.636 5600
3.706 2.788 1.591 2123
3.935 2.961 1.682 1271
3.763 2.832 1.599 4341
3.963 2.982 1.677 1824
3.779 2.843 1.590 4970
3.978 2.993 1.667 2922
3.970 2.987 1.648 5178
3.794 2.855 1.581 3228
3.967 2.985 1.631 6516
3.810 2.867 1.572 2126
3.977 2.992 1.619 7407
3.819 2.874 1.560 2323
3.974 2.990 1.603 8397
3.835 2.885 1.551 1752
3.977 2.993 1.588 8894
3.850 2.897 1.541 890
3.975 2.991 1.572 8902
4.090 3.078 1.614 812
3.984 2.998 1.560 12057
4.100 3.085 1.601 824
3.993 3.005 1.547 16181
4.109 3.092 1.589 1096
3.997 3.007 1.533 14111
4.112 3.094 1.574 2407
4.012 3.019 1.523 11394
4.128 3.106 1.563 2253
4.451 3.349 1.676 1585
4.335 3.262 1.635 795
4.009 3.017 1.506 8117
4.461 3.356 1.662 2441
4.125 3.104 1.546 1410
4.345 3.269 1.622 906
4.000 3.010 1.488 6496
4.470 3.364 1.648 2896
4.354 3.276 1.608 932
4.486 3.375 1.636 5298
4.016 3.022 1.477 4763
4.370 3.288 1.597 1415
4.132 3.109 1.516 892
4.483 3.373 1.617 6924
4.031 3.033 1.467 3569
4.367 3.286 1.579 1094
4.147 3.120 1.505 857
4.481 3.371 1.599 7400
4.016 3.022 1.446 2495
4.132 3.109 1.484 1236
4.676 3.519 1.664 988
4.478 3.369 1.581 6287
4.686 3.526 1.649 1590
4.019 3.024 1.432 1126
4.802 3.614 1.686 850
4.493 3.381 1.569 7390
4.794 3.607 1.665 2082
4.677 3.519 1.628 1125
4.910 3.695 1.703 753
4.503 3.388 1.554 9357
4.699 3.536 1.617 3929
4.816 3.624 1.654 2962
4.932 3.711 1.691 1738
4.703 3.538 1.600 7752
4.512 3.395 1.540 5016
4.819 3.626 1.636 3372
4.936 3.714 1.673 2001
4.700 3.536 1.581 7031
4.816 3.624 1.617 3657
4.522 3.402 1.526 2015
4.933 3.712 1.653 1670
4.709 3.543 1.566 4020
4.826 3.631 1.601 2817
4.943 3.719 1.637 1985
4.543 3.419 1.515 1733
4.885 3.676 1.600 2654
4.719 3.551 1.550 2564
5.002 3.763 1.636 1833
4.491 3.379 1.482 1781
4.722 3.553 1.533 4019
5.024 3.780 1.623 2894
5.140 3.868 1.658 2848
4.907 3.692 1.588 2081
5.144 3.871 1.639 4837
4.719 3.551 1.514 4785
5.027 3.783 1.605 3213
4.910 3.695 1.571 1605
5.154 3.878 1.623 6873
4.716 3.549 1.495 3069
4.938 3.716 1.560 2234
5.151 3.876 1.602 8976
4.725 3.556 1.480 1805
4.935 3.713 1.540 1306
5.268 3.964 1.636 867
5.154 3.878 1.583 9517
4.735 3.563 1.465 1274
5.272 3.967 1.617 1270
5.037 3.790 1.550 831
5.164 3.886 1.566 8285
5.577 4.197 1.682 1346
5.343 4.020 1.616 1043
5.161 3.883 1.546 6262
5.575 4.195 1.660 1449
5.278 3.972 1.578 1291
5.692 4.283 1.692 794
5.164 3.886 1.527 4386
5.282 3.974 1.559 1469
5.578 4.197 1.640 1420
5.696 4.286 1.672 1246
5.174 3.893 1.510 2977
5.737 4.316 1.661 1842
5.582 4.200 1.619 1826
5.359 4.033 1.560 1325
5.740 4.319 1.640 2994
5.177 3.895 1.492 1818
5.592 4.207 1.601 1675
5.858 4.408 1.671 1455
5.750 4.326 1.621 3628
5.867 4.415 1.651 1581
5.366 4.037 1.521 976
5.595 4.210 1.581 940
5.753 4.329 1.600 3142
5.871 4.418 1.630 2084
5.843 4.397 1.601 2826
5.726 4.308 1.571 1282
5.961 4.486 1.631 1025
5.304 3.991 1.465 779
5.772 4.343 1.561 1992
5.927 4.460 1.600 1826
6.089 4.581 1.640 1221
5.307 3.993 1.446 1037
5.925 4.458 1.577 2447
6.092 4.584 1.618 2045
5.769 4.341 1.539 1784
5.310 3.995 1.426 790
6.102 4.591 1.597 3209
5.922 4.456 1.554 2815
5.773 4.344 1.518 1225
6.419 4.830 1.673 878
6.118 4.603 1.578 3388
5.931 4.463 1.534 2649
6.503 4.893 1.669 1241
5.776 4.346 1.497 904
6.133 4.615 1.559 2444
5.941 4.470 1.514 2018
6.507 4.896 1.646 1537
6.364 4.788 1.612 1216
6.155 4.632 1.541 2429
6.510 4.899 1.622 2209
6.386 4.805 1.593 1424
5.950 4.477 1.494 1338
6.501 4.892 1.596 2204
6.152 4.629 1.517 1697
6.383 4.803 1.569 1286
5.953 4.479 1.472 1136
6.492 4.885 1.569 1874
6.174 4.646 1.499 1361
6.722 5.058 1.620 1307
6.916 5.204 1.663 921
6.595 4.962 1.567 2098
6.826 5.136 1.618 1452
6.477 4.873 1.542 1435
6.171 4.644 1.475 1318
6.611 4.974 1.546 2013
6.823 5.134 1.592 1408
7.041 5.298 1.638 1370
6.492 4.885 1.521 1071
6.539 4.920 1.506 2234
7.038 5.296 1.611 1297
6.832 5.141 1.568 1211
6.701 5.042 1.540 1018
6.561 4.937 1.486 1795
7.042 5.298 1.586 1276
6.848 5.153 1.546 1172
7.273 5.472 1.634 1118
7.264 5.465 1.605 1519
6.577 4.949 1.465 1278
6.889 5.184 1.529 1043
7.032 5.292 1.558 904
7.254 5.459 1.576 1898
7.417 5.581 1.608 1220
7.617 5.731 1.648 793
7.195 5.414 1.537 1467
7.351 5.532 1.568 1428
7.776 5.851 1.651 1036
7.951 5.983 1.685 966
7.192 5.412 1.510 1647
7.968 5.995 1.659 1633
7.317 5.506 1.534 1480
7.786 5.859 1.624 1262
7.971 5.998 1.630 1775
7.195 5.414 1.484 1296
7.790 5.861 1.595 1284
8.109 6.101 1.655 1229
8.125 6.113 1.628 2363
7.793 5.864 1.567 1365
7.981 6.005 1.602 1211
7.374 5.548 1.490 1017
8.134 6.121 1.600 3266
7.790 5.862 1.538 1116
7.997 6.017 1.575 1090
8.961 6.743 1.749 1051
8.138 6.123 1.570 2602
8.958 6.741 1.715 1932
8.839 6.651 1.694 1284
8.407 6.326 1.618 1148
8.949 6.734 1.681 2622
8.135 6.121 1.540 2255
8.436 6.347 1.592 1119
8.830 6.644 1.660 1039
8.972 6.751 1.651 3067
8.132 6.119 1.509 2147
8.853 6.661 1.631 1905
8.470 6.373 1.566 1363
8.969 6.749 1.618 3197
8.850 6.659 1.598 1887
8.122 6.112 1.477 1818
8.480 6.381 1.537 1383
8.972 6.751 1.585 2890
8.138 6.123 1.450 1951
9.826 7.393 1.723 1414
8.853 6.662 1.566 1410
8.976 6.754 1.552 2981
9.823 7.391 1.686 2208
8.141 6.126 1.420 1792
9.654 7.264 1.660 1367
8.985 6.761 1.521 3111
9.827 7.394 1.651 2616
9.663 7.271 1.625 1497
8.138 6.123 1.390 1061
9.836 7.401 1.616 2491
8.995 6.768 1.489 2429
9.673 7.279 1.591 1234
9.277 6.981 1.532 907
9.865 7.423 1.584 2805
8.985 6.761 1.454 1386
9.893 7.444 1.551 3031
9.774 7.354 1.534 1119
8.988 6.763 1.422 888
9.897 7.447 1.515 2637
9.777 7.357 1.499 815
9.887 7.440 1.478 2077
9.890 7.442 1.442 1774
10.337 7.778 1.501 941
9.900 7.449 1.407 957
10.334 7.776 1.462 796
8.439 6.350 0.080 965
8.433 6.345 0.049 1310
8.439 6.350 0.019 1527
8.445 6.354 -0.012 1625
8.451 6.359 -0.043 1517
8.444 6.354 -0.074 1286
8.425 6.339 -0.104 1229
8.405 6.324 -0.134 1273
8.392 6.314 -0.164 1535
8.378 6.304 -0.194 1641
8.365 6.294 -0.224 1922
8.370 6.298 -0.255 1962
8.369 6.298 -0.285 2011
8.362 6.292 -0.315 1756
8.355 6.286 -0.345 1572
8.341 6.276 -0.375 1435
8.327 6.266 -0.404 1510
8.332 6.269 -0.435 1530
8.337 6.273 -0.466 1603
8.329 6.267 -0.495 1231
8.315 6.257 -0.525 952
8.307 6.251 -0.554 768
8.315 6.256 -0.646 881
8.313 6.255 -0.676 881
8.311 6.253 -0.707 777
1.765 1.321 1.680 3673
1.863 1.395 1.768 2608
1.769 1.324 1.674 7346
1.867 1.397 1.761 5216
1.773 1.327 1.668 7346
1.871 1.400 1.755 5216
1.969 1.474 1.842 973
1.776 1.329 1.661 5033
1.875 1.403 1.748 3940
1.973 1.477 1.835 1400
1.941 1.453 1.796 3907
1.816 1.359 1.687 3619
1.898 1.420 1.748 4798
1.799 1.346 1.662 2287
1.997 1.494 1.834 833
1.896 1.419 1.737 7191
1.781 1.333 1.638 1724
1.995 1.493 1.823 1313
1.900 1.422 1.730 7191
1.999 1.496 1.815 1313
1.801 1.348 1.645 1207
1.909 1.429 1.728 8281
2.008 1.503 1.813 1085
1.809 1.354 1.643 922
1.913 1.432 1.721 9375
2.012 1.506 1.806 1119
1.813 1.357 1.637 860
1.916 1.434 1.714 7976
2.016 1.509 1.798 2180
1.925 1.441 1.712 6673
2.025 1.516 1.796 3197
1.934 1.448 1.709 5225
2.034 1.523 1.793 4495
2.038 1.526 1.785 5890
1.938 1.450 1.703 3815
2.042 1.528 1.778 5890
1.941 1.453 1.696 3113
2.025 1.515 1.754 6051
1.908 1.428 1.658 1555
2.126 1.591 1.836 840
2.013 1.506 1.733 7194
1.911 1.431 1.652 1509
2.114 1.582 1.815 1312
2.016 1.509 1.726 5782
1.915 1.433 1.645 1689
2.117 1.585 1.808 1416
2.020 1.512 1.719 4394
1.919 1.436 1.638 1915
2.121 1.588 1.800 1570
2.061 1.543 1.742 4425
1.933 1.447 1.640 1542
2.163 1.619 1.822 808
2.070 1.549 1.738 6044
1.936 1.449 1.633 1194
2.172 1.626 1.819 1003
2.069 1.548 1.727 7520
1.945 1.456 1.630 1000
2.170 1.625 1.807 993
2.067 1.547 1.715 9338
2.169 1.623 1.795 940
1.965 1.471 1.636 914
2.081 1.558 1.716 9461
2.184 1.634 1.796 1558
1.963 1.469 1.624 1081
2.117 1.585 1.734 11828
1.961 1.468 1.613 1296
2.137 1.600 1.739 12654
2.035 1.523 1.660 1417
2.240 1.677 1.817 806
2.146 1.607 1.735 15624
2.044 1.530 1.657 1366
2.249 1.684 1.813 940
2.156 1.613 1.731 13053
2.052 1.536 1.654 1214
2.259 1.691 1.809 797
2.159 1.616 1.724 10563
2.263 1.693 1.801 815
2.168 1.623 1.720 7128
2.272 1.700 1.797 1207
2.238 1.675 1.761 4195
2.134 1.597 1.684 2381
2.247 1.682 1.757 6059
2.143 1.604 1.680 2301
2.256 1.689 1.753 8062
2.152 1.611 1.677 2233
2.260 1.691 1.745 7910
2.156 1.613 1.669 1971
2.269 1.698 1.741 7760
2.165 1.620 1.665 1897
2.273 1.701 1.732 6316
2.168 1.623 1.658 1285
2.288 1.712 1.732 6223
2.183 1.634 1.658 1442
2.286 1.711 1.720 7021
2.181 1.632 1.646 832
2.295 1.718 1.716 7867
2.400 1.796 1.789 840
2.299 1.720 1.707 8742
2.404 1.799 1.781 1177
2.308 1.727 1.703 6402
2.413 1.806 1.776 903
2.378 1.780 1.741 5053
2.273 1.701 1.668 2252
2.382 1.783 1.732 5996
2.276 1.704 1.660 1819
2.413 1.806 1.742 7349
2.308 1.727 1.671 1352
2.423 1.813 1.738 8957
2.306 1.726 1.659 765
2.421 1.812 1.725 8308
2.527 1.891 1.796 874
2.419 1.811 1.713 8346
2.525 1.890 1.783 1281
2.428 1.818 1.708 6284
2.535 1.897 1.778 1574
2.488 1.862 1.736 6024
2.381 1.782 1.666 1613
2.497 1.869 1.730 8254
2.391 1.789 1.661 1958
2.507 1.876 1.725 8102
2.400 1.796 1.656 1656
2.516 1.883 1.720 6376
2.409 1.803 1.651 1106
2.514 1.882 1.707 4364
2.621 1.962 1.775 838
2.580 1.931 1.737 4819
2.473 1.851 1.670 2677
2.595 1.942 1.735 6434
2.487 1.862 1.668 3176
2.599 1.945 1.726 9358
2.491 1.864 1.659 2876
2.707 2.026 1.793 877
2.608 1.952 1.720 11346
2.500 1.871 1.654 3134
2.716 2.033 1.787 1309
2.618 1.959 1.714 9853
2.509 1.878 1.648 2984
2.726 2.040 1.780 1373
2.593 1.941 1.688 9661
2.701 2.022 1.753 2216
2.596 1.943 1.678 10986
2.705 2.024 1.744 2440
2.606 1.950 1.672 11279
2.714 2.032 1.737 2911
2.615 1.957 1.666 10593
2.724 2.039 1.731 2525
2.693 2.016 1.701 9035
2.584 1.934 1.637 4683
2.802 2.097 1.765 1068
2.697 2.018 1.691 10866
2.588 1.937 1.627 2247
2.806 2.100 1.755 1426
2.735 2.047 1.702 7676
2.626 1.965 1.638 2269
2.844 2.129 1.765 1057
2.750 2.058 1.698 9407
2.641 1.976 1.635 1964
2.859 2.140 1.762 1778
2.777 2.078 1.702 14020
2.667 1.996 1.639 2440
2.886 2.160 1.764 1559
2.780 2.081 1.692 13283
2.671 1.999 1.630 1929
2.890 2.163 1.754 1529
2.842 2.127 1.714 7028
2.732 2.045 1.653 3074
2.951 2.209 1.776 1939
2.845 2.130 1.704 8337
2.955 2.212 1.766 2755
2.735 2.047 1.643 2374
2.855 2.137 1.697 7143
2.745 2.054 1.636 2602
2.965 2.219 1.758 2412
2.870 2.148 1.693 5407
2.760 2.066 1.633 2635
2.980 2.231 1.754 1333
2.874 2.151 1.683 5125
3.001 2.246 1.753 2429
2.763 2.068 1.623 1286
2.866 2.145 1.666 4933
3.005 2.249 1.742 3301
2.875 2.152 1.659 4372
2.997 2.243 1.725 3707
2.948 2.207 1.686 4642
2.838 2.124 1.627 1622
3.059 2.290 1.745 1146
2.958 2.214 1.679 5738
3.069 2.297 1.737 1686
2.847 2.131 1.620 1109
3.026 2.265 1.702 9443
2.915 2.182 1.643 2463
2.983 2.232 1.666 9183
3.094 2.316 1.724 2376
2.992 2.239 1.659 5470
3.103 2.323 1.716 1729
3.013 2.255 1.657 3856
3.125 2.339 1.714 1339
3.064 2.293 1.670 3511
3.175 2.377 1.727 1706
3.144 2.353 1.697 4823
3.032 2.269 1.641 1927
3.171 2.373 1.698 8114
3.059 2.290 1.642 2853
3.180 2.380 1.689 7465
3.068 2.297 1.634 2640
3.292 2.464 1.745 934
3.196 2.392 1.684 5164
3.084 2.308 1.629 3662
3.308 2.476 1.739 1243
3.205 2.399 1.675 4728
3.093 2.315 1.621 2517
3.317 2.483 1.730 1236
3.179 2.380 1.649 6119
3.292 2.464 1.703 2595
3.067 2.296 1.595 874
3.189 2.387 1.641 6907
3.301 2.471 1.694 2112
3.263 2.443 1.663 6078
3.376 2.527 1.716 2327
3.151 2.358 1.610 1391
3.267 2.445 1.651 5888
3.380 2.530 1.704 2694
3.371 2.523 1.686 5030
3.247 2.430 1.628 3383
3.381 2.531 1.677 7399
3.244 2.428 1.614 2540
3.494 2.615 1.729 874
3.384 2.533 1.665 6103
3.498 2.618 1.716 1995
3.271 2.449 1.613 1736
3.382 2.531 1.650 4684
3.507 2.625 1.707 2429
3.269 2.447 1.599 1275
3.392 2.539 1.640 5856
3.523 2.637 1.699 2684
3.278 2.454 1.590 948
3.401 2.546 1.631 6470
3.526 2.639 1.687 3165
3.554 2.660 1.684 4969
3.410 2.553 1.621 4674
3.563 2.667 1.674 5597
3.408 2.551 1.606 2411
3.677 2.752 1.724 1519
3.549 2.656 1.654 4346
3.663 2.742 1.703 2779
3.417 2.558 1.597 2126
3.637 2.722 1.677 4461
3.523 2.637 1.628 2361
3.409 2.551 1.579 1355
3.574 2.675 1.636 3494
3.718 2.783 1.697 1874
3.584 2.682 1.625 3374
3.710 2.777 1.678 2831
3.653 2.734 1.640 6209
3.786 2.833 1.695 3101
3.539 2.649 1.592 1205
3.657 2.737 1.627 7356
3.783 2.832 1.679 2874
3.542 2.651 1.580 1080
3.654 2.735 1.611 4113
3.769 2.821 1.658 2698
3.736 2.796 1.630 4743
3.851 2.882 1.676 1975
3.621 2.711 1.583 1320
3.818 2.858 1.647 7231
3.703 2.772 1.602 2789
3.933 2.944 1.693 1392
3.821 2.860 1.634 6234
3.707 2.774 1.588 1930
3.936 2.946 1.679 1425
3.770 2.822 1.599 4651
3.982 2.981 1.682 1254
3.786 2.834 1.590 5363
3.986 2.983 1.667 2148
3.977 2.977 1.648 4333
3.801 2.845 1.581 3202
3.969 2.970 1.629 5638
3.811 2.852 1.569 1999
3.978 2.978 1.617 6631
3.826 2.864 1.560 2363
3.982 2.980 1.603 8508
3.848 2.880 1.553 1966
3.979 2.978 1.586 9600
3.857 2.887 1.541 965
3.982 2.981 1.572 8809
3.992 2.988 1.560 10872
4.001 2.995 1.547 15298
4.117 3.081 1.589 886
4.004 2.997 1.533 13007
4.120 3.084 1.574 2325
4.020 3.009 1.523 9249
4.136 3.096 1.563 2349
4.465 3.342 1.678 1529
4.349 3.256 1.638 767
4.029 3.016 1.510 7322
4.469 3.345 1.662 2364
4.145 3.103 1.550 1291
4.353 3.258 1.622 777
4.008 3.000 1.488 6456
4.405 3.297 1.623 3088
4.521 3.384 1.662 1119
4.124 3.087 1.527 1071
4.066 3.043 1.492 6083
4.494 3.364 1.636 4591
4.378 3.277 1.597 1856
4.492 3.362 1.617 6151
4.069 3.046 1.477 4357
4.375 3.275 1.579 1120
4.483 3.355 1.597 6770
4.042 3.025 1.452 2699
4.474 3.349 1.577 5954
4.075 3.050 1.448 1648
4.701 3.519 1.651 994
4.490 3.361 1.565 8612
4.797 3.590 1.663 2242
4.913 3.678 1.701 917
4.680 3.503 1.626 813
4.505 3.372 1.552 12082
4.806 3.597 1.648 3924
4.923 3.685 1.685 2190
4.690 3.510 1.611 1788
4.509 3.375 1.536 8073
4.810 3.600 1.630 4568
4.693 3.513 1.594 3338
4.933 3.692 1.669 2205
4.807 3.598 1.611 5201
4.690 3.511 1.575 2951
4.506 3.372 1.518 2767
4.924 3.686 1.647 1929
4.817 3.605 1.596 4144
4.934 3.693 1.631 2514
4.700 3.518 1.560 2103
4.552 3.407 1.515 1403
4.900 3.668 1.602 3980
4.746 3.552 1.556 1687
5.017 3.755 1.638 1495
5.153 3.857 1.678 1240
4.922 3.684 1.590 3322
5.150 3.855 1.658 3256
4.731 3.541 1.533 2370
4.509 3.375 1.467 1184
5.154 3.858 1.639 5258
4.950 3.705 1.580 2935
4.728 3.539 1.514 2690
4.524 3.387 1.455 821
5.157 3.860 1.621 7633
4.947 3.703 1.560 2386
4.725 3.537 1.495 1595
5.161 3.863 1.602 10288
4.938 3.696 1.538 1881
5.340 3.997 1.653 983
4.734 3.544 1.480 810
5.164 3.865 1.583 10639
5.350 4.004 1.636 1181
4.942 3.699 1.521 1119
5.174 3.872 1.566 9126
5.588 4.183 1.682 1193
5.359 4.011 1.618 1019
5.171 3.870 1.546 6690
5.592 4.185 1.662 1355
5.288 3.958 1.578 1261
5.174 3.873 1.527 4682
5.292 3.961 1.559 1543
5.589 4.183 1.640 1251
5.707 4.271 1.672 912
5.183 3.880 1.510 3464
5.747 4.302 1.661 1692
5.376 4.024 1.562 1575
5.593 4.186 1.619 1467
5.751 4.305 1.640 2721
5.187 3.882 1.492 2097
5.366 4.017 1.539 1509
5.602 4.193 1.601 1449
5.761 4.312 1.621 3008
5.916 4.428 1.661 1492
5.376 4.024 1.521 1215
5.606 4.196 1.581 1132
5.845 4.375 1.621 2735
5.727 4.287 1.590 1579
5.609 4.198 1.560 937
5.379 4.026 1.502 897
5.855 4.382 1.601 2947
5.736 4.294 1.571 1363
5.973 4.470 1.631 1259
5.320 3.982 1.466 1079
5.945 4.450 1.601 2019
5.317 3.980 1.446 1394
6.113 4.575 1.643 1147
5.758 4.310 1.555 1049
5.923 4.434 1.574 2436
6.110 4.573 1.619 1614
5.314 3.977 1.425 992
5.768 4.317 1.536 853
5.939 4.445 1.555 3019
6.113 4.576 1.597 2555
6.518 4.879 1.694 1005
5.311 3.975 1.404 924
5.943 4.448 1.534 2979
6.129 4.588 1.578 2770
6.522 4.881 1.671 1375
6.145 4.600 1.559 2194
5.952 4.455 1.514 1777
6.525 4.884 1.647 1769
6.264 4.688 1.586 892
6.529 4.887 1.623 2524
6.161 4.611 1.539 2185
5.955 4.457 1.492 1140
6.410 4.798 1.596 1037
6.513 4.875 1.596 2129
6.164 4.614 1.517 1655
6.632 4.964 1.622 1325
5.965 4.464 1.472 1165
6.610 4.948 1.593 1857
6.492 4.859 1.566 1592
6.186 4.630 1.499 1546
6.929 5.186 1.663 1059
6.608 4.946 1.567 2743
6.189 4.633 1.476 1562
6.489 4.857 1.542 1495
6.839 5.119 1.618 1260
6.573 4.920 1.535 2640
7.054 5.280 1.638 1241
6.829 5.112 1.590 1236
6.705 5.018 1.563 1171
6.552 4.904 1.506 2999
7.052 5.278 1.611 1312
6.670 4.993 1.531 1254
6.920 5.180 1.584 1157
6.574 4.920 1.486 2106
7.049 5.276 1.585 1437
7.293 5.458 1.635 1271
6.861 5.136 1.546 1154
7.277 5.447 1.605 1638
6.589 4.932 1.465 1431
7.033 5.264 1.555 1158
7.628 5.709 1.676 1056
7.274 5.445 1.577 1943
7.638 5.717 1.649 1151
7.431 5.562 1.608 1110
7.156 5.356 1.553 976
7.203 5.391 1.536 1455
7.359 5.508 1.566 1175
7.967 5.963 1.685 1161
7.647 5.724 1.623 1126
7.983 5.975 1.659 1802
7.344 5.497 1.536 1556
7.206 5.394 1.510 1074
7.601 5.689 1.585 965
7.986 5.978 1.630 1712
7.359 5.509 1.512 1240
8.124 6.081 1.655 970
7.811 5.846 1.597 939
8.140 6.093 1.628 1825
7.808 5.844 1.567 1170
7.996 5.985 1.602 1110
7.613 5.699 1.531 808
8.156 6.105 1.601 2564
7.799 5.837 1.537 1166
8.852 6.626 1.726 1119
8.972 6.715 1.748 1088
8.160 6.107 1.571 2160
8.969 6.713 1.714 1966
8.850 6.624 1.693 1437
8.429 6.309 1.619 1342
8.966 6.711 1.681 2717
8.150 6.100 1.540 1958
8.847 6.622 1.660 1249
8.445 6.321 1.591 1230
8.983 6.723 1.650 3096
8.863 6.634 1.630 1880
8.147 6.098 1.509 1861
8.486 6.352 1.566 1285
8.986 6.726 1.618 3235
8.867 6.637 1.598 1954
8.138 6.091 1.477 1525
8.490 6.354 1.536 1293
8.983 6.724 1.584 2978
8.154 6.103 1.450 1573
8.864 6.634 1.565 1491
9.844 7.368 1.723 1133
8.987 6.726 1.551 3069
9.848 7.371 1.687 1616
8.157 6.105 1.420 1426
8.867 6.637 1.532 1401
9.002 6.738 1.521 3012
9.845 7.369 1.651 1853
9.694 7.256 1.627 1588
8.883 6.649 1.502 1399
9.006 6.741 1.488 2368
9.855 7.376 1.616 2023
9.698 7.259 1.592 1387
8.880 6.646 1.469 935
9.890 7.403 1.585 2531
8.996 6.734 1.453 1533
9.707 7.266 1.558 832
9.918 7.424 1.552 2927
9.799 7.334 1.535 1171
9.005 6.741 1.422 1002
9.922 7.426 1.516 2529
9.802 7.337 1.500 898
9.919 7.424 1.479 2126
9.915 7.422 1.443 1929
10.357 7.752 1.501 929
9.925 7.429 1.407 1102
10.360 7.754 1.463 782
9.965 7.459 1.376 892
9.981 7.471 1.341 825
8.455 6.329 0.019 902
8.461 6.333 -0.012 900
8.473 6.342 -0.043 778
8.408 6.294 -0.133 795
8.401 6.288 -0.164 1187
8.388 6.278 -0.194 1442
8.381 6.273 -0.224 1830
8.386 6.277 -0.255 1910
8.385 6.276 -0.285 2002
8.378 6.271 -0.315 1762
8.371 6.265 -0.345 1599
8.357 6.255 -0.375 1409
8.330 6.235 -0.403 1640
8.342 6.244 -0.434 1617
8.347 6.247 -0.465 1713
8.339 6.241 -0.495 1356
8.306 6.217 -0.523 1275
8.304 6.215 -0.553 1162
8.302 6.214 -0.583 1049
8.326 6.232 -0.615 932
8.337 6.240 -0.647 1090
8.335 6.239 -0.677 1090
8.327 6.232 -0.707 891
1.774 1.320 1.685 3236
1.872 1.393 1.773 3045
1.778 1.323 1.679 6472
1.876 1.396 1.766 6091
1.781 1.326 1.672 6472
1.880 1.399 1.759 6091
1.873 1.394 1.744 5308
1.774 1.321 1.657 4094
1.972 1.468 1.830 1814
1.877 1.397 1.737 4423
1.976 1.471 1.823 2458
1.778 1.323 1.651 2014
1.886 1.404 1.735 5704
1.985 1.477 1.821 2057
1.787 1.330 1.649 1545
1.895 1.410 1.733 7285
1.994 1.484 1.818 1813
1.785 1.329 1.638 981
1.899 1.413 1.726 7285
1.998 1.487 1.811 1813
1.907 1.420 1.723 7592
2.007 1.494 1.808 1354
1.916 1.426 1.721 8292
2.016 1.501 1.806 1030
1.925 1.433 1.719 7431
2.025 1.508 1.803 1522
1.934 1.440 1.716 6730
2.035 1.514 1.800 2222
1.949 1.450 1.718 5198
2.049 1.525 1.802 3410
2.026 1.508 1.772 5487
1.926 1.433 1.689 2697
2.030 1.511 1.765 5487
1.929 1.436 1.683 2132
2.002 1.490 1.732 6836
2.103 1.565 1.814 1461
1.901 1.415 1.650 1079
2.011 1.497 1.729 7737
2.112 1.572 1.811 1616
1.899 1.414 1.639 989
2.015 1.500 1.722 6122
2.116 1.575 1.803 1605
1.914 1.424 1.640 1279
2.019 1.502 1.715 4510
1.917 1.427 1.634 1654
2.120 1.578 1.796 1651
2.081 1.549 1.754 3069
1.937 1.441 1.640 1596
2.085 1.552 1.747 4271
1.940 1.444 1.633 1343
2.073 1.543 1.727 5425
1.944 1.447 1.626 1093
2.175 1.619 1.807 971
2.071 1.541 1.715 7441
1.952 1.453 1.623 844
2.179 1.622 1.799 827
2.080 1.548 1.712 7747
2.183 1.625 1.791 1719
1.956 1.456 1.616 756
2.127 1.583 1.738 10204
2.024 1.507 1.659 754
2.142 1.594 1.739 11805
2.039 1.517 1.660 1521
2.156 1.605 1.739 15004
2.053 1.528 1.661 2102
2.160 1.608 1.731 12721
2.057 1.531 1.654 1525
2.169 1.614 1.728 10481
2.066 1.537 1.650 1039
2.173 1.617 1.720 6980
2.276 1.694 1.797 1119
2.237 1.665 1.757 4292
2.133 1.587 1.680 2187
2.251 1.676 1.757 5963
2.147 1.598 1.680 2010
2.261 1.683 1.753 7949
2.156 1.605 1.677 1470
2.264 1.685 1.745 7935
2.160 1.608 1.669 1366
2.274 1.692 1.741 8150
2.169 1.614 1.665 1462
2.283 1.699 1.736 7052
2.178 1.621 1.662 1495
2.292 1.706 1.732 6436
2.187 1.628 1.658 1363
2.290 1.705 1.720 6709
2.300 1.712 1.716 7707
2.405 1.790 1.789 858
2.303 1.714 1.707 8756
2.409 1.793 1.781 1115
2.312 1.721 1.703 6727
2.418 1.800 1.776 1567
2.383 1.774 1.741 5598
2.277 1.695 1.668 2269
2.392 1.780 1.736 6736
2.286 1.702 1.664 2391
2.498 1.859 1.808 773
2.418 1.800 1.742 7926
2.307 1.717 1.667 1609
2.428 1.807 1.738 9793
2.299 1.711 1.651 883
2.426 1.805 1.725 8999
2.532 1.885 1.796 939
2.424 1.804 1.713 8730
2.530 1.883 1.783 1491
2.433 1.811 1.708 6618
2.540 1.890 1.778 1787
2.465 1.835 1.717 5867
2.572 1.914 1.787 1080
2.491 1.854 1.723 7167
2.384 1.774 1.654 1384
2.506 1.865 1.722 6431
2.399 1.785 1.653 1315
2.532 1.885 1.727 4517
2.425 1.805 1.658 1781
2.570 1.913 1.739 3457
2.457 1.829 1.668 3091
2.580 1.920 1.734 4736
2.472 1.840 1.666 2987
2.600 1.935 1.735 6035
2.492 1.855 1.668 3625
2.708 2.016 1.803 833
2.604 1.938 1.726 8720
2.496 1.858 1.659 3251
2.712 2.019 1.793 1066
2.608 1.941 1.717 10662
2.500 1.860 1.650 2192
2.716 2.021 1.783 1523
2.589 1.927 1.693 9926
2.697 2.007 1.760 2632
2.592 1.929 1.684 10737
2.701 2.010 1.750 2734
2.484 1.849 1.618 783
2.602 1.936 1.678 11399
2.710 2.017 1.744 3037
2.493 1.855 1.613 867
2.617 1.948 1.676 11436
2.725 2.028 1.741 2707
2.508 1.867 1.611 797
2.626 1.954 1.670 10849
2.735 2.036 1.734 2271
2.698 2.008 1.701 10034
2.589 1.927 1.637 4028
2.808 2.090 1.765 1369
2.696 2.007 1.688 11071
2.806 2.088 1.752 2089
2.587 1.926 1.624 1437
2.706 2.014 1.682 7659
2.815 2.095 1.745 2194
2.596 1.932 1.618 931
2.755 2.051 1.698 9974
2.646 1.969 1.635 1864
2.865 2.132 1.762 1733
2.776 2.066 1.698 13530
2.886 2.148 1.761 2205
2.667 1.985 1.636 1946
2.780 2.069 1.689 13014
2.890 2.151 1.751 2319
2.670 1.987 1.626 1404
2.847 2.119 1.714 7424
2.737 2.037 1.653 3162
2.957 2.201 1.776 2055
2.851 2.122 1.704 9596
2.961 2.204 1.766 2883
2.741 2.040 1.643 2487
2.866 2.133 1.700 8624
2.756 2.051 1.639 3494
2.977 2.215 1.761 1989
2.876 2.140 1.693 6087
2.765 2.058 1.633 2772
2.986 2.223 1.754 1547
2.815 2.095 1.648 5068
2.926 2.178 1.708 3890
3.036 2.260 1.769 1587
2.877 2.141 1.669 4445
3.005 2.237 1.739 4202
3.003 2.235 1.725 4831
2.881 2.144 1.659 3934
2.949 2.195 1.683 5080
3.059 2.277 1.742 1648
2.838 2.112 1.624 1422
2.987 2.223 1.691 6167
2.876 2.141 1.632 2119
3.098 2.306 1.750 857
2.991 2.226 1.680 10568
3.102 2.309 1.738 1986
2.880 2.143 1.622 968
2.989 2.224 1.666 10934
3.100 2.307 1.724 3258
2.992 2.227 1.656 6249
3.104 2.310 1.713 2594
3.060 2.278 1.678 5080
3.172 2.361 1.735 1313
3.070 2.285 1.670 5820
3.182 2.368 1.727 1763
3.079 2.292 1.662 6392
3.191 2.375 1.718 3727
3.171 2.360 1.695 8169
3.059 2.277 1.639 3169
3.181 2.367 1.686 7003
3.069 2.284 1.631 2447
3.293 2.451 1.742 1057
3.190 2.375 1.678 5231
3.078 2.291 1.623 3020
3.303 2.458 1.733 1678
3.200 2.382 1.669 5534
3.087 2.298 1.615 2430
3.312 2.465 1.724 1945
3.186 2.371 1.649 7166
3.298 2.455 1.703 2622
3.195 2.378 1.641 7492
3.308 2.462 1.694 2134
3.270 2.434 1.663 5785
3.383 2.518 1.716 1849
3.157 2.350 1.610 1382
3.273 2.436 1.651 5077
3.386 2.520 1.704 2160
3.384 2.519 1.689 4060
3.247 2.417 1.626 3357
3.388 2.521 1.677 6153
3.251 2.419 1.614 2348
3.501 2.606 1.729 988
3.385 2.520 1.662 5340
3.499 2.604 1.714 2548
3.272 2.435 1.610 1606
3.389 2.522 1.650 4721
3.520 2.620 1.709 3252
3.275 2.438 1.599 1238
3.398 2.529 1.640 6477
3.536 2.632 1.702 3386
3.285 2.445 1.590 997
3.402 2.532 1.628 7418
3.551 2.643 1.695 3850
3.561 2.650 1.684 6489
3.411 2.539 1.619 5768
3.675 2.735 1.734 844
3.565 2.653 1.672 7183
3.415 2.542 1.606 2744
3.679 2.738 1.721 1925
3.568 2.656 1.659 5168
3.682 2.741 1.708 2770
3.430 2.553 1.599 2016
3.644 2.712 1.677 4796
3.530 2.627 1.628 1966
3.416 2.542 1.579 1242
3.758 2.797 1.726 814
3.587 2.670 1.638 4337
3.726 2.773 1.697 2436
3.639 2.708 1.645 4307
3.753 2.794 1.693 2053
3.655 2.720 1.637 7096
3.787 2.819 1.692 2591
3.664 2.727 1.627 7243
3.779 2.812 1.674 2413
3.549 2.642 1.580 761
3.662 2.725 1.611 3846
3.776 2.811 1.658 2157
3.744 2.786 1.630 4252
3.858 2.872 1.676 1906
3.629 2.701 1.583 1379
3.826 2.847 1.647 7271
3.711 2.762 1.602 2867
3.941 2.933 1.693 1120
3.829 2.850 1.634 6606
3.714 2.764 1.588 1804
3.944 2.936 1.679 1060
3.778 2.812 1.599 4264
3.893 2.898 1.644 1334
4.008 2.983 1.689 960
3.794 2.824 1.590 4727
4.000 2.977 1.669 1400
3.991 2.971 1.650 2922
3.815 2.840 1.583 2864
3.964 2.951 1.625 4487
3.812 2.838 1.567 1969
3.974 2.958 1.613 6031
3.822 2.845 1.556 2127
3.977 2.960 1.598 8638
3.856 2.870 1.553 1687
3.981 2.963 1.584 10379
3.865 2.877 1.541 853
3.984 2.965 1.570 8791
4.100 3.052 1.612 812
3.994 2.972 1.557 8782
4.009 2.984 1.547 12464
4.012 2.986 1.533 10696
4.129 3.073 1.574 2165
4.397 3.273 1.668 823
4.034 3.002 1.525 6453
4.150 3.089 1.565 1907
4.468 3.326 1.676 1436
4.068 3.028 1.521 8298
4.466 3.324 1.658 2517
4.282 3.187 1.594 899
4.071 3.030 1.506 10308
4.414 3.285 1.623 3412
4.279 3.185 1.577 1177
4.531 3.372 1.662 947
4.074 3.032 1.492 9405
4.510 3.356 1.638 3257
4.393 3.270 1.599 2333
4.277 3.183 1.559 789
4.077 3.035 1.477 6189
4.495 3.345 1.615 4402
4.378 3.259 1.577 1009
4.480 3.334 1.593 4927
4.068 3.028 1.458 3751
4.477 3.332 1.575 4997
4.077 3.035 1.446 2803
4.594 3.419 1.613 782
4.493 3.344 1.563 8736
4.806 3.577 1.663 2157
4.087 3.042 1.433 1106
4.923 3.664 1.701 972
4.508 3.355 1.550 11993
4.816 3.585 1.648 3376
4.933 3.672 1.685 2430
4.625 3.442 1.587 887
4.518 3.362 1.536 8968
4.820 3.587 1.630 3846
4.937 3.674 1.667 2538
4.086 3.042 1.401 1188
4.817 3.585 1.611 5142
4.521 3.365 1.520 3896
4.934 3.672 1.647 2686
4.089 3.044 1.387 1400
4.826 3.592 1.596 4393
4.944 3.680 1.631 3005
4.549 3.386 1.511 1423
4.709 3.505 1.560 1132
4.916 3.659 1.604 5270
4.799 3.572 1.569 1435
5.089 3.788 1.656 1110
4.558 3.393 1.497 920
4.932 3.671 1.590 4720
5.161 3.841 1.658 2949
4.815 3.584 1.555 1791
5.164 3.844 1.639 4493
4.948 3.683 1.576 3402
4.830 3.595 1.542 1570
5.168 3.846 1.621 6971
4.945 3.680 1.556 2702
4.827 3.593 1.522 750
5.177 3.853 1.604 9905
4.942 3.678 1.537 2167
5.060 3.766 1.570 1207
5.351 3.982 1.653 1093
5.181 3.856 1.585 10004
5.367 3.994 1.637 1346
4.945 3.681 1.519 1258
5.063 3.768 1.552 904
5.184 3.858 1.566 8213
5.382 4.006 1.622 1491
5.606 4.172 1.684 932
4.955 3.688 1.503 829
5.181 3.856 1.546 5914
5.380 4.004 1.600 1763
5.603 4.170 1.662 1055
5.184 3.859 1.527 4200
5.389 4.011 1.583 1919
5.600 4.168 1.640 830
5.194 3.866 1.510 3119
5.386 4.009 1.562 1779
5.765 4.291 1.662 1722
0.648 0.482 0.300 1044
5.769 4.294 1.642 2832
5.384 4.007 1.540 1831
5.197 3.868 1.492 1759
0.648 0.482 0.297 1316
5.772 4.296 1.621 2476
5.387 4.009 1.521 1652
5.928 4.412 1.661 1544
0.649 0.483 0.295 1438
5.863 4.364 1.622 2061
5.745 4.276 1.592 1537
0.649 0.483 0.293 1361
5.390 4.012 1.502 1322
5.873 4.371 1.602 2608
5.754 4.283 1.573 1402
5.991 4.459 1.632 1330
5.337 3.972 1.468 1152
5.895 4.387 1.586 2122
5.334 3.970 1.447 1436
6.013 4.475 1.615 1384
6.131 4.563 1.644 1100
5.917 4.404 1.569 2409
6.129 4.561 1.621 1445
5.331 3.968 1.426 973
5.951 4.429 1.555 2910
6.132 4.564 1.599 2037
6.531 4.861 1.694 1005
