2.283 3.599 1.567 7201
2.359 3.719 1.615 2808
2.207 3.479 1.519 1100
2.285 3.602 1.555 5857
2.378 3.748 1.613 4096
2.288 3.606 1.542 4948
2.376 3.745 1.597 4505
2.378 3.749 1.585 4589
2.290 3.609 1.530 2868
2.487 3.920 1.652 760
2.373 3.740 1.567 4943
2.494 3.930 1.641 1201
2.296 3.619 1.520 1138
2.419 3.813 1.581 4277
2.343 3.692 1.535 2667
2.496 3.934 1.627 1346
2.425 3.823 1.570 3903
2.531 3.989 1.633 2082
2.341 3.689 1.520 2028
2.529 3.986 1.617 4479
2.452 3.865 1.572 3200
2.375 3.744 1.526 2157
2.531 3.990 1.603 5892
2.438 3.843 1.549 3377
2.361 3.722 1.504 1621
2.537 4.000 1.592 4016
2.440 3.846 1.536 3149
2.363 3.725 1.491 826
2.487 3.920 1.548 3303
2.564 4.042 1.592 2364
2.410 3.799 1.504 1028
2.538 4.000 1.562 3120
2.619 4.128 1.608 2092
2.461 3.879 1.519 1173
2.556 4.029 1.558 3715
2.633 4.151 1.601 2629
2.479 3.908 1.514 1265
2.620 4.129 1.578 3639
2.542 4.007 1.535 2458
2.614 4.120 1.559 3685
2.536 3.998 1.517 2224
2.691 4.242 1.602 900
2.644 4.168 1.561 4002
2.567 4.046 1.519 3419
2.722 4.290 1.603 1248
2.655 4.184 1.551 4037
2.573 4.056 1.507 2076
2.732 4.307 1.593 1814
2.657 4.188 1.537 4729
2.734 4.310 1.578 2677
2.563 4.040 1.487 855
2.655 4.185 1.520 5557
2.733 4.307 1.561 4566
2.810 4.429 1.602 859
2.657 4.188 1.506 4888
2.735 4.311 1.546 4681
2.812 4.433 1.587 1251
2.749 4.333 1.538 4023
2.663 4.198 1.494 2759
2.835 4.469 1.582 1775
2.929 4.617 1.630 769
2.751 4.337 1.523 4493
2.829 4.459 1.562 2181
2.674 4.214 1.483 2039
2.936 4.627 1.617 1032
2.754 4.340 1.508 3739
2.831 4.463 1.547 2374
2.938 4.631 1.601 1369
2.676 4.218 1.469 1269
2.817 4.441 1.524 3265
2.940 4.634 1.585 2347
2.739 4.318 1.485 1545
3.018 4.757 1.623 956
2.881 4.541 1.539 4210
2.803 4.418 1.500 2368
2.959 4.664 1.577 2082
3.037 4.787 1.615 1320
2.887 4.551 1.525 4695
2.809 4.428 1.487 3792
3.002 4.732 1.581 1696
2.947 4.645 1.537 6035
2.824 4.451 1.478 2974
3.095 4.878 1.608 2183
2.945 4.642 1.519 5537
3.097 4.882 1.591 3413
2.830 4.460 1.465 1133
3.025 4.768 1.540 5895
2.935 4.626 1.498 3136
3.103 4.892 1.577 2857
3.181 5.015 1.613 816
3.023 4.765 1.522 5041
3.101 4.889 1.558 2674
2.945 4.642 1.486 1896
3.188 5.025 1.598 872
3.137 4.944 1.556 3702
3.009 4.743 1.498 2798
3.256 5.132 1.611 1346
3.135 4.941 1.537 3822
3.295 5.194 1.610 2160
3.213 5.064 1.573 1281
3.027 4.772 1.489 1143
3.199 5.042 1.548 2448
3.298 5.198 1.592 2247
3.120 4.918 1.513 2131
3.042 4.795 1.478 766
3.217 5.071 1.538 2817
3.296 5.195 1.572 2510
3.118 4.915 1.494 1698
3.294 5.192 1.553 3163
3.215 5.068 1.519 2248
3.372 5.316 1.587 1843
3.137 4.945 1.485 1502
3.354 5.287 1.560 4632
3.271 5.156 1.524 2480
3.151 4.968 1.473 1458
3.356 5.290 1.542 3823
3.278 5.166 1.508 1617
3.464 5.460 1.587 1129
3.363 5.300 1.525 2908
3.470 5.470 1.570 1405
3.284 5.176 1.492 1145
3.365 5.304 1.507 3544
3.464 5.460 1.548 1593
3.576 5.637 1.594 873
3.379 5.327 1.494 3369
3.462 5.457 1.527 1867
3.578 5.640 1.574 1282
3.394 5.350 1.481 2427
3.502 5.519 1.524 1875
3.614 5.696 1.568 1181
3.496 5.510 1.501 2938
3.392 5.346 1.461 2039
3.608 5.686 1.545 1589
3.686 5.811 1.576 896
3.498 5.513 1.482 2912
3.606 5.683 1.524 2498
3.394 5.349 1.442 1417
3.684 5.808 1.555 1280
3.604 5.680 1.503 2613
3.508 5.530 1.467 2106
3.749 5.909 1.559 1524
3.626 5.716 1.491 2279
3.705 5.841 1.521 1872
3.523 5.552 1.452 1476
3.868 6.096 1.582 1300
3.679 5.798 1.490 3032
3.824 6.028 1.544 2104
3.599 5.674 1.461 1502
3.520 5.549 1.432 982
3.651 5.756 1.460 2745
3.826 6.031 1.524 2246
3.747 5.907 1.495 1808
3.905 6.156 1.552 877
3.866 6.094 1.516 2372
3.633 5.726 1.433 2125
3.762 5.930 1.479 1929
3.945 6.218 1.545 1035
3.926 6.189 1.516 2781
3.739 5.893 1.450 1883
3.847 6.064 1.488 1870
3.635 5.729 1.413 1196
3.879 6.113 1.477 2107
3.753 5.916 1.434 1315
4.037 6.363 1.533 965
3.889 6.130 1.459 2231
4.035 6.360 1.509 1462
3.780 5.959 1.422 818
3.903 6.153 1.442 2235
4.033 6.357 1.486 1680
4.158 6.554 1.528 1256
4.237 6.679 1.555 854
3.906 6.156 1.421 2235
4.169 6.571 1.508 1948
4.031 6.354 1.463 1084
4.248 6.696 1.535 810
4.179 6.587 1.489 2488
3.903 6.153 1.399 1562
4.096 6.456 1.461 1017
4.258 6.712 1.514 913
4.181 6.591 1.466 2381
4.035 6.360 1.419 1330
4.261 6.716 1.491 1247
4.403 6.940 1.537 1222
4.233 6.673 1.459 2237
4.037 6.363 1.397 1933
4.476 7.055 1.535 1599
4.397 6.930 1.510 1535
4.244 6.689 1.439 2355
4.474 7.052 1.510 2268
4.394 6.927 1.485 1756
4.043 6.373 1.377 1748
4.409 6.950 1.465 2089
4.489 7.075 1.489 1647
4.246 6.693 1.416 1562
4.057 6.396 1.359 1239
4.214 6.643 1.383 1674
4.508 7.105 1.470 1653
4.407 6.947 1.440 1478
4.587 7.230 1.494 1265
4.577 7.214 1.465 1672
4.497 7.088 1.442 1517
4.744 7.478 1.514 1359
4.220 6.652 1.361 1237
4.642 7.316 1.458 1507
4.507 7.105 1.420 1477
5.019 7.911 1.566 1169
5.187 8.175 1.614 1065
4.530 7.141 1.401 1606
5.025 7.921 1.540 1586
4.652 7.333 1.435 1446
5.164 8.139 1.579 1262
4.532 7.144 1.377 1530
5.027 7.924 1.513 1476
4.750 7.488 1.437 1381
4.658 7.342 1.411 1295
5.030 7.928 1.486 1819
5.126 8.080 1.512 1611
5.252 8.278 1.546 1393
4.950 7.802 1.464 1146
5.027 7.924 1.457 2118
5.317 8.381 1.534 1736
5.145 8.110 1.488 1291
5.237 8.255 1.513 1121
5.025 7.921 1.429 2006
5.319 8.385 1.505 1961
5.240 8.259 1.484 1462
5.160 8.133 1.464 1238
5.246 8.269 1.457 2058
5.363 8.454 1.487 1631
5.607 8.838 1.548 1625
5.031 7.931 1.403 1561
5.399 8.510 1.466 1987
5.248 8.272 1.429 1982
5.609 8.842 1.518 1737
5.530 8.716 1.498 1127
5.405 8.520 1.438 1930
5.540 8.732 1.470 1554
5.620 8.858 1.489 1435
5.250 8.275 1.400 1311
5.407 8.524 1.408 1968
5.546 8.742 1.441 1758
5.626 8.868 1.460 1451
5.328 8.397 1.389 1408
5.418 8.540 1.381 2192
5.633 8.878 1.430 1757
5.851 9.223 1.481 1617
5.548 8.746 1.411 1542
5.424 8.550 1.353 2513
5.862 9.240 1.451 1808
5.630 8.875 1.399 1643
5.757 9.074 1.427 1038
5.868 9.250 1.420 2516
5.615 8.851 1.365 1742
5.430 8.559 1.324 1709
6.407 10.099 1.538 1298
5.866 9.246 1.387 2629
6.506 10.256 1.524 1492
6.418 10.116 1.506 1491
5.630 8.874 1.337 1378
5.868 9.249 1.356 1898
6.222 9.807 1.429 1457
6.673 10.518 1.523 1375
6.513 10.266 1.490 1167
6.683 10.535 1.489 1906
6.595 10.395 1.471 1673
5.865 9.245 1.323 1161
6.236 9.830 1.398 1069
6.681 10.531 1.452 2875
6.597 10.398 1.435 1885
6.466 10.192 1.409 1259
5.867 9.248 1.291 771
6.683 10.535 1.416 3472
6.603 10.408 1.400 1664
6.460 10.182 1.373 1225
6.685 10.538 1.379 3506
6.605 10.411 1.364 1317
6.525 10.285 1.349 1244
7.614 12.001 1.552 1076
6.687 10.541 1.343 2676
7.616 12.004 1.511 1182
6.527 10.288 1.314 1156
6.607 10.414 1.328 1069
6.668 10.510 1.303 1457
7.618 12.008 1.470 1070
6.892 10.863 1.342 925
7.039 11.096 1.368 902
6.665 10.506 1.266 1369
7.607 11.991 1.426 1222
7.605 11.988 1.384 1619
6.671 10.516 1.231 1148
7.603 11.984 1.342 1612
6.682 10.532 1.196 1023
7.609 11.993 1.301 1230
6.679 10.528 1.159 799
7.619 12.010 1.261 1353
7.530 11.870 1.248 770
7.625 12.019 1.221 1896
7.622 12.015 1.179 1374
7.624 12.017 1.137 819
1.185 1.829 1.662 5231
1.251 1.932 1.750 1834
1.118 1.726 1.574 784
1.187 1.833 1.656 10463
1.254 1.936 1.743 3668
1.121 1.730 1.568 1569
1.190 1.837 1.649 10463
1.256 1.940 1.736 3668
1.123 1.734 1.563 1458
1.189 1.835 1.639 8897
1.259 1.943 1.730 4296
1.122 1.732 1.552 799
1.184 1.828 1.623 7529
1.265 1.953 1.728 5016
1.193 1.842 1.626 8234
1.264 1.951 1.717 4709
1.196 1.846 1.620 9064
1.263 1.950 1.705 4545
1.330 2.053 1.791 793
1.198 1.849 1.614 9881
1.265 1.953 1.699 4545
1.131 1.745 1.529 823
1.333 2.057 1.784 793
1.200 1.853 1.607 10699
1.268 1.957 1.692 6985
1.335 2.061 1.777 1004
1.133 1.749 1.523 905
1.203 1.857 1.601 10699
1.270 1.961 1.686 9426
1.338 2.066 1.770 1215
1.135 1.752 1.517 895
1.291 1.992 1.701 10366
1.209 1.866 1.599 9813
1.141 1.761 1.515 1060
1.297 2.002 1.699 14508
1.211 1.869 1.593 9026
1.143 1.764 1.509 1062
1.303 2.011 1.696 13869
1.213 1.873 1.587 6635
1.371 2.116 1.780 877
1.145 1.768 1.503 790
1.309 2.020 1.694 13492
1.223 1.887 1.589 4517
1.377 2.126 1.777 1117
1.315 2.030 1.691 10819
1.225 1.891 1.583 2934
1.383 2.135 1.774 975
1.328 2.050 1.697 10447
1.227 1.894 1.576 1352
1.331 2.054 1.690 10356
1.262 1.948 1.608 852
1.330 2.052 1.679 8904
1.336 2.062 1.676 7485
1.338 2.065 1.669 7206
1.330 2.052 1.650 6955
1.336 2.062 1.647 11749
1.338 2.065 1.640 16613
1.340 2.069 1.633 16741
1.343 2.073 1.626 16870
1.341 2.071 1.615 13679
1.411 2.178 1.693 834
1.344 2.074 1.608 10757
1.414 2.182 1.686 1099
1.346 2.078 1.600 11694
1.416 2.186 1.678 2004
1.352 2.087 1.597 12905
1.422 2.195 1.675 2531
1.492 2.304 1.752 893
1.362 2.102 1.598 15770
1.432 2.210 1.676 2183
1.368 2.111 1.595 20045
1.464 2.260 1.700 2455
1.374 2.121 1.592 17745
1.467 2.264 1.693 2772
1.372 2.118 1.581 11533
1.443 2.227 1.657 3680
1.514 2.336 1.733 1271
1.367 2.110 1.566 8329
1.479 2.283 1.685 4515
1.373 2.120 1.563 7303
1.485 2.292 1.681 5546
1.383 2.135 1.563 6754
1.495 2.308 1.681 5551
1.505 2.323 1.681 6381
1.396 2.155 1.568 5250
1.576 2.433 1.756 781
1.504 2.321 1.669 6317
1.406 2.171 1.568 5120
1.575 2.431 1.743 903
1.510 2.331 1.665 7427
1.408 2.174 1.561 4865
1.512 2.334 1.657 8677
1.414 2.183 1.557 4618
1.515 2.338 1.649 8382
1.413 2.181 1.546 4076
1.594 2.460 1.730 1504
1.521 2.347 1.645 7860
1.419 2.190 1.542 3018
1.596 2.464 1.722 2365
1.523 2.351 1.637 6248
1.602 2.474 1.717 2880
1.421 2.194 1.535 2562
1.541 2.378 1.644 5386
1.613 2.489 1.716 2796
1.423 2.197 1.527 2069
1.547 2.388 1.640 7324
1.619 2.499 1.711 2081
1.426 2.200 1.520 1577
1.553 2.397 1.636 8461
1.644 2.538 1.725 2318
1.428 2.204 1.512 1165
1.559 2.407 1.631 8877
1.650 2.548 1.720 3299
1.487 2.295 1.561 776
1.565 2.416 1.627 7703
1.653 2.551 1.711 4214
1.493 2.305 1.556 1025
1.568 2.420 1.618 5649
1.652 2.549 1.699 5462
1.495 2.308 1.549 870
1.654 2.553 1.690 5871
1.570 2.424 1.610 4089
1.494 2.306 1.537 791
1.641 2.533 1.667 6822
1.569 2.421 1.598 3065
1.714 2.646 1.736 2099
1.492 2.303 1.526 818
1.640 2.531 1.655 7200
1.713 2.644 1.723 2933
1.567 2.419 1.586 1402
1.635 2.523 1.639 7259
1.707 2.636 1.707 3481
1.562 2.411 1.571 893
1.637 2.527 1.630 7762
1.710 2.639 1.698 3847
1.564 2.414 1.563 921
1.639 2.530 1.622 6897
1.712 2.643 1.689 5844
1.566 2.418 1.554 779
1.719 2.653 1.684 7539
1.642 2.534 1.613 5529
1.792 2.766 1.751 1027
1.721 2.657 1.675 9410
1.644 2.538 1.604 3688
1.794 2.770 1.741 1473
1.716 2.649 1.658 11101
1.809 2.792 1.742 1679
1.639 2.529 1.589 1380
1.714 2.646 1.646 11100
1.815 2.802 1.736 2541
1.717 2.650 1.637 8043
1.821 2.812 1.730 3741
1.719 2.654 1.628 5306
1.824 2.815 1.720 4329
1.729 2.669 1.626 5982
1.823 2.813 1.707 4597
1.736 2.679 1.620 5792
1.837 2.835 1.708 4711
1.796 2.773 1.661 6009
1.870 2.887 1.725 2969
1.722 2.659 1.597 2593
1.779 2.746 1.635 6002
1.853 2.861 1.698 4833
1.705 2.632 1.571 915
1.848 2.853 1.682 6483
1.774 2.738 1.619 5988
1.922 2.967 1.745 1139
1.700 2.623 1.556 863
1.850 2.856 1.672 6615
1.776 2.742 1.609 4650
1.925 2.971 1.735 1190
1.876 2.896 1.682 7766
1.790 2.763 1.610 2728
1.951 3.011 1.744 758
1.887 2.912 1.679 8299
1.812 2.797 1.617 2185
1.961 3.027 1.740 845
1.893 2.922 1.672 6458
1.818 2.807 1.610 2124
1.968 3.037 1.733 911
1.895 2.926 1.662 6049
1.970 3.041 1.723 1680
1.821 2.811 1.601 1442
1.922 2.966 1.671 6098
1.847 2.851 1.610 2255
1.916 2.958 1.654 7717
1.991 3.073 1.715 1284
1.841 2.842 1.594 964
1.918 2.961 1.644 8531
1.993 3.077 1.704 1323
1.925 2.971 1.637 8797
2.000 3.087 1.697 1617
1.927 2.975 1.627 6631
2.002 3.091 1.686 2436
1.981 3.058 1.657 5471
1.906 2.942 1.598 1996
1.960 3.025 1.628 5280
2.035 3.141 1.686 1753
1.970 3.041 1.624 7049
2.045 3.157 1.682 1736
1.980 3.057 1.619 8540
2.056 3.173 1.677 1863
1.995 3.079 1.618 8063
2.078 3.208 1.681 1553
2.005 3.095 1.613 8324
2.081 3.212 1.670 1526
1.929 2.978 1.557 793
2.031 3.135 1.621 7686
2.107 3.252 1.677 803
1.939 2.994 1.553 764
2.041 3.151 1.616 9900
2.117 3.269 1.671 1876
1.966 3.034 1.560 797
2.056 3.173 1.614 11017
2.132 3.291 1.669 2930
1.980 3.056 1.558 795
2.074 3.202 1.614 8372
2.150 3.319 1.669 3501
1.998 3.084 1.559 1070
2.105 3.249 1.623 9512
2.028 3.131 1.569 2884
2.181 3.366 1.678 803
2.111 3.259 1.615 9318
2.035 3.141 1.561 1579
2.187 3.376 1.669 1258
2.121 3.275 1.610 7147
2.198 3.392 1.663 2014
2.045 3.157 1.556 1319
2.152 3.322 1.618 4743
2.075 3.204 1.565 1787
2.228 3.440 1.671 1238
2.162 3.338 1.612 5211
2.239 3.456 1.665 2594
2.086 3.219 1.559 1559
2.173 3.354 1.606 6513
2.249 3.472 1.659 2851
2.092 3.229 1.551 980
2.199 3.395 1.611 5818
2.122 3.276 1.559 1417
2.276 3.513 1.663 1246
2.206 3.405 1.602 6855
2.282 3.523 1.654 1913
2.129 3.286 1.551 1124
2.200 3.396 1.585 5995
2.277 3.514 1.636 2700
2.202 3.399 1.573 4518
2.279 3.518 1.624 2881
2.241 3.459 1.586 5425
2.318 3.578 1.636 2460
2.164 3.340 1.535 1308
2.243 3.463 1.574 7105
2.320 3.582 1.624 4424
2.166 3.343 1.524 1219
2.258 3.485 1.570 5393
2.335 3.604 1.619 2918
2.180 3.366 1.520 1585
2.272 3.507 1.566 6298
2.349 3.626 1.615 2402
2.195 3.388 1.516 1337
2.315 3.573 1.579 6425
2.392 3.693 1.628 2120
2.238 3.454 1.530 2015
2.317 3.577 1.567 7180
2.411 3.722 1.625 2878
2.240 3.457 1.519 1148
2.320 3.580 1.555 5885
2.413 3.725 1.613 4391
2.322 3.584 1.542 5051
2.412 3.723 1.597 4873
2.418 3.733 1.587 4900
2.324 3.587 1.530 2947
2.528 3.903 1.654 775
2.408 3.717 1.567 4869
2.531 3.907 1.641 1268
2.330 3.597 1.520 1256
2.451 3.784 1.578 4316
2.373 3.664 1.532 2411
2.529 3.904 1.625 1537
2.462 3.800 1.570 3861
2.568 3.964 1.633 2203
2.376 3.667 1.520 2092
2.567 3.962 1.617 4539
2.489 3.841 1.572 3896
2.411 3.721 1.526 2139
2.569 3.965 1.603 5916
2.479 3.826 1.551 4056
2.401 3.705 1.506 1774
2.575 3.975 1.592 4079
2.481 3.829 1.538 3661
2.403 3.709 1.493 975
2.524 3.896 1.548 3119
2.602 4.017 1.592 2433
2.446 3.776 1.504 1065
2.580 3.982 1.565 3231
2.658 4.103 1.608 2041
2.502 3.862 1.521 1471
2.595 4.005 1.558 3669
2.673 4.126 1.601 2487
2.516 3.884 1.514 1090
2.659 4.104 1.578 3396
2.580 3.983 1.535 2245
2.632 4.063 1.548 3656
2.710 4.184 1.591 1382
2.554 3.942 1.506 809
2.684 4.143 1.561 3837
2.605 4.022 1.519 3543
2.762 4.264 1.603 1252
2.694 4.159 1.551 4149
2.612 4.031 1.507 2253
2.773 4.280 1.593 1951
2.697 4.162 1.537 4823
2.775 4.284 1.578 2956
2.601 4.016 1.487 885
2.699 4.166 1.522 5288
2.777 4.287 1.563 4579
2.771 4.278 1.544 4721
2.693 4.156 1.504 4344
2.850 4.400 1.584 1410
2.770 4.275 1.527 4270
2.691 4.153 1.487 2539
2.877 4.442 1.582 1858
2.973 4.589 1.630 800
2.792 4.311 1.523 4485
2.871 4.432 1.562 2264
2.714 4.189 1.483 1959
2.979 4.599 1.617 1063
2.791 4.307 1.506 3679
2.869 4.429 1.545 2741
2.986 4.609 1.603 1321
2.712 4.186 1.467 1186
2.863 4.420 1.526 3366
3.013 4.651 1.599 2248
2.784 4.298 1.487 1656
2.920 4.507 1.537 4215
2.841 4.385 1.498 2336
2.999 4.629 1.575 2095
3.078 4.751 1.613 1217
2.868 4.427 1.495 4775
2.947 4.549 1.533 4112
3.047 4.703 1.581 1735
2.987 4.610 1.535 5722
2.866 4.424 1.478 2992
3.112 4.803 1.594 2450
2.989 4.614 1.519 5428
3.114 4.807 1.578 3710
2.872 4.433 1.465 1137
3.066 4.733 1.538 5407
3.145 4.855 1.575 3613
2.983 4.604 1.500 3397
2.878 4.443 1.451 767
3.073 4.743 1.524 5434
3.152 4.865 1.560 2693
2.993 4.620 1.488 2018
3.244 5.007 1.602 843
3.183 4.914 1.556 3726
3.083 4.759 1.511 3384
3.004 4.636 1.475 1709
3.305 5.101 1.611 1459
3.181 4.911 1.537 4192
3.307 5.105 1.593 2275
3.102 4.788 1.502 1579
3.022 4.666 1.467 882
3.188 4.921 1.522 2487
3.339 5.154 1.588 2133
3.108 4.798 1.487 878
3.265 5.041 1.538 2800
3.345 5.164 1.572 2502
3.165 4.885 1.494 1611
3.343 5.161 1.553 3361
3.263 5.038 1.519 2505
3.423 5.284 1.587 1697
3.180 4.908 1.483 1175
3.400 5.248 1.558 4781
3.320 5.125 1.524 2439
3.240 5.002 1.491 1119
3.406 5.258 1.542 4088
3.327 5.135 1.508 1462
3.520 5.433 1.589 1067
3.413 5.268 1.525 3596
3.526 5.443 1.572 1374
3.333 5.145 1.492 978
3.415 5.271 1.507 3802
3.516 5.427 1.548 1539
3.625 5.596 1.592 822
3.434 5.301 1.495 3194
3.514 5.424 1.527 1838
3.632 5.606 1.574 1150
3.445 5.317 1.481 2509
3.558 5.492 1.525 1826
3.672 5.668 1.570 1250
3.548 5.476 1.501 2864
3.442 5.314 1.461 2130
3.661 5.652 1.545 1605
3.741 5.775 1.576 885
3.550 5.480 1.482 2799
3.655 5.642 1.523 2525
3.444 5.317 1.442 1409
3.735 5.766 1.553 1319
3.653 5.639 1.502 2627
3.565 5.502 1.468 2137
3.805 5.873 1.559 1505
3.744 5.779 1.515 2168
3.664 5.655 1.485 2077
3.575 5.519 1.452 1569
3.824 5.903 1.545 1426
3.733 5.763 1.490 3062
3.928 6.063 1.561 2149
3.822 5.900 1.523 1856
3.653 5.639 1.461 1386
3.706 5.721 1.460 2603
3.930 6.066 1.540 2315
3.824 5.903 1.502 2178
3.924 6.057 1.516 2597
3.687 5.691 1.433 2057
3.818 5.894 1.479 1960
4.004 6.181 1.545 982
3.985 6.151 1.516 2812
3.905 6.027 1.488 2253
3.795 5.858 1.450 1913
3.685 5.688 1.412 1173
3.928 6.063 1.475 2082
3.809 5.880 1.434 1341
4.097 6.325 1.533 1083
4.008 6.187 1.502 1050
3.947 6.093 1.459 2142
4.099 6.328 1.511 1522
3.837 5.923 1.422 859
3.966 6.122 1.444 2327
4.093 6.318 1.486 1651
3.886 5.998 1.417 949
4.284 6.612 1.549 916
3.968 6.125 1.423 2329
4.231 6.531 1.508 1418
4.150 6.407 1.482 1155
4.070 6.282 1.456 913
4.263 6.580 1.495 1767
3.962 6.115 1.399 1563
4.157 6.416 1.461 1211
4.496 6.940 1.570 766
4.278 6.603 1.477 2258
4.095 6.321 1.419 1280
4.477 6.911 1.539 1165
4.193 6.472 1.450 1099
4.284 6.613 1.455 2473
4.097 6.324 1.397 1978
4.543 7.012 1.535 1615
4.462 6.888 1.510 1477
4.541 7.009 1.510 2221
4.303 6.642 1.437 2198
4.103 6.334 1.377 1779
4.460 6.885 1.485 1757
4.475 6.908 1.465 2291
4.556 7.032 1.489 1542
4.309 6.652 1.416 1504
4.118 6.357 1.359 1258
4.583 7.075 1.472 1646
4.473 6.904 1.440 1585
4.277 6.602 1.383 1582
4.664 7.200 1.496 1120
4.573 7.058 1.444 1656
4.653 7.183 1.468 1461
4.815 7.433 1.514 1331
4.283 6.612 1.361 1246
4.528 6.989 1.407 1561
4.715 7.278 1.459 1429
5.094 7.863 1.566 1163
4.885 7.541 1.507 1147
4.598 7.098 1.401 1568
5.100 7.873 1.540 1556
4.721 7.288 1.435 1434
5.241 8.090 1.579 1229
4.600 7.101 1.377 1493
5.102 7.876 1.513 1484
4.826 7.449 1.438 1324
5.294 8.172 1.565 1252
5.105 7.880 1.486 1756
5.203 8.031 1.512 1540
5.326 8.222 1.544 1365
5.019 7.748 1.463 1197
5.103 7.876 1.457 2048
5.392 8.324 1.533 1763
5.243 8.093 1.494 1359
4.953 7.646 1.419 902
5.100 7.873 1.429 1992
5.403 8.340 1.506 1967
5.250 8.103 1.467 1594
5.484 8.465 1.527 928
5.324 8.218 1.457 2032
5.444 8.403 1.487 1609
5.102 7.876 1.402 1559
5.691 8.785 1.548 1538
5.326 8.222 1.429 2004
5.480 8.459 1.466 1879
5.697 8.795 1.519 1747
5.616 8.670 1.499 1291
5.486 8.469 1.438 1841
5.627 8.686 1.471 1677
5.708 8.811 1.490 1449
5.328 8.225 1.400 1363
5.488 8.472 1.408 1902
5.629 8.689 1.441 1890
5.710 8.815 1.460 1556
5.407 8.346 1.389 1369
5.499 8.488 1.381 2157
5.717 8.824 1.430 1841
5.939 9.167 1.481 1700
5.631 8.692 1.411 1639
5.505 8.498 1.353 2541
5.949 9.184 1.451 1866
5.714 8.821 1.399 1667
5.843 9.019 1.427 1119
5.956 9.193 1.420 2546
5.511 8.507 1.324 1745
5.699 8.797 1.365 1725
6.503 10.038 1.538 1271
5.958 9.197 1.388 2695
6.603 10.193 1.524 1597
6.518 10.061 1.506 1498
5.714 8.820 1.337 1316
5.955 9.193 1.356 1904
6.781 10.467 1.525 1481
6.315 9.748 1.429 1388
6.610 10.203 1.490 1223
6.783 10.471 1.489 2110
6.689 10.325 1.470 1714
5.953 9.189 1.323 1142
6.330 9.771 1.398 1086
6.781 10.467 1.452 3014
6.695 10.335 1.435 1824
6.563 10.130 1.409 1312
5.955 9.192 1.291 791
6.783 10.471 1.416 3573
6.702 10.345 1.400 1533
6.556 10.120 1.373 1246
6.989 10.788 1.454 766
6.785 10.474 1.379 3637
6.627 10.229 1.350 1301
7.727 11.928 1.552 1073
7.128 11.003 1.442 956
6.787 10.477 1.343 2887
6.624 10.225 1.314 1195
7.730 11.932 1.511 1173
6.993 10.794 1.380 1046
6.772 10.453 1.304 1525
7.732 11.935 1.470 1071
6.622 10.222 1.278 950
6.995 10.797 1.342 942
6.769 10.449 1.267 1365
7.725 11.925 1.427 1216
6.619 10.218 1.242 769
7.719 11.915 1.384 1616
6.775 10.459 1.231 1251
7.716 11.911 1.342 1615
6.777 10.461 1.195 1166
7.718 11.914 1.301 1220
6.779 10.464 1.159 861
7.733 11.937 1.261 1344
7.643 11.798 1.248 767
7.739 11.946 1.221 1879
7.736 11.942 1.179 1362
7.738 11.944 1.137 816
1.190 1.826 1.662 5092
1.257 1.928 1.750 1795
1.124 1.723 1.574 786
1.193 1.829 1.656 10184
1.260 1.932 1.743 3591
1.126 1.727 1.568 1573
1.195 1.833 1.649 10184
1.262 1.936 1.736 3591
1.128 1.730 1.563 1446
1.194 1.831 1.639 8630
1.265 1.940 1.730 4222
1.127 1.728 1.552 795
1.189 1.824 1.623 7216
1.271 1.949 1.728 4947
1.199 1.839 1.626 7683
1.270 1.947 1.717 4614
1.201 1.842 1.620 8238
1.269 1.946 1.705 4420
1.336 2.049 1.791 756
1.204 1.846 1.614 9114
1.271 1.950 1.699 4420
1.136 1.742 1.529 816
1.339 2.053 1.784 756
1.206 1.849 1.607 9991
1.274 1.953 1.692 6771
1.342 2.058 1.777 952
1.138 1.745 1.523 902
1.208 1.853 1.601 9991
1.276 1.957 1.686 9122
1.344 2.062 1.770 1149
1.140 1.749 1.517 882
1.300 1.994 1.705 10074
1.214 1.862 1.599 9336
1.146 1.758 1.515 1028
1.306 2.003 1.703 14117
1.216 1.866 1.593 8806
1.148 1.761 1.509 1014
1.309 2.007 1.696 13484
1.219 1.869 1.587 6585
1.377 2.112 1.780 840
1.150 1.764 1.503 757
1.315 2.016 1.694 13093
1.228 1.884 1.589 4562
1.383 2.122 1.777 1073
1.321 2.026 1.691 10556
1.227 1.882 1.578 2944
1.390 2.131 1.774 934
1.334 2.046 1.697 10262
1.229 1.885 1.572 1327
1.337 2.050 1.690 10168
1.232 1.889 1.565 811
1.336 2.048 1.679 8773
1.342 2.058 1.676 7390
1.344 2.061 1.669 7025
1.347 2.065 1.662 6661
1.342 2.058 1.647 11219
1.344 2.061 1.640 15901
1.346 2.065 1.633 16097
1.349 2.069 1.626 16293
1.348 2.067 1.615 13441
1.418 2.174 1.693 938
1.350 2.070 1.608 10775
1.420 2.178 1.686 1340
1.352 2.074 1.600 11397
1.423 2.182 1.678 2406
1.358 2.083 1.597 12251
1.429 2.191 1.675 3019
1.499 2.299 1.752 856
1.368 2.098 1.598 15104
1.439 2.206 1.676 2482
1.378 2.113 1.599 19394
1.471 2.256 1.700 2362
1.380 2.116 1.592 17158
1.473 2.259 1.693 2677
1.379 2.114 1.581 11138
1.450 2.223 1.657 3375
1.521 2.332 1.733 1180
1.373 2.106 1.566 8015
1.486 2.278 1.685 4386
1.380 2.116 1.563 6948
1.492 2.288 1.681 5392
1.389 2.131 1.563 6313
1.502 2.303 1.681 5454
1.512 2.318 1.681 6298
1.407 2.157 1.572 5025
1.583 2.428 1.756 763
1.511 2.316 1.669 6181
1.416 2.172 1.572 4395
1.582 2.426 1.743 913
1.517 2.326 1.665 7194
1.419 2.176 1.565 3629
1.523 2.336 1.661 8405
1.421 2.179 1.557 2864
1.522 2.333 1.649 8268
1.423 2.183 1.550 2252
1.601 2.455 1.730 1539
1.528 2.343 1.645 7897
1.604 2.459 1.722 2408
1.429 2.192 1.546 1363
1.530 2.347 1.637 6249
1.610 2.469 1.717 2908
1.424 2.184 1.531 1049
1.552 2.379 1.648 5403
1.624 2.490 1.720 2498
1.437 2.204 1.535 1344
1.554 2.383 1.640 7467
1.626 2.494 1.711 2013
1.440 2.208 1.527 1644
1.560 2.393 1.636 8634
1.652 2.533 1.725 2275
1.442 2.211 1.520 1478
1.566 2.402 1.631 9070
1.658 2.543 1.720 3219
1.494 2.291 1.561 881
1.573 2.412 1.627 7857
1.661 2.547 1.711 4151
1.500 2.300 1.556 942
1.575 2.415 1.618 5701
1.659 2.544 1.699 5417
1.650 2.531 1.679 5855
1.577 2.419 1.610 4088
1.723 2.642 1.749 1049
1.649 2.529 1.667 6824
1.576 2.417 1.598 3042
1.722 2.640 1.736 2045
1.647 2.526 1.655 7118
1.720 2.638 1.723 2903
1.574 2.414 1.586 1386
1.642 2.518 1.639 7067
1.715 2.631 1.707 3465
1.569 2.406 1.571 886
1.644 2.522 1.630 7567
1.718 2.634 1.698 3845
1.571 2.409 1.563 921
1.693 2.597 1.664 6777
1.620 2.484 1.597 2094
1.771 2.715 1.735 995
1.727 2.648 1.684 7376
1.649 2.529 1.613 5421
1.800 2.761 1.751 997
1.729 2.652 1.675 9165
1.652 2.533 1.604 3630
1.803 2.765 1.741 1421
1.724 2.643 1.658 10820
1.809 2.774 1.735 1595
1.646 2.524 1.589 1358
1.726 2.647 1.649 10863
1.823 2.796 1.736 2437
1.725 2.645 1.637 7857
1.830 2.806 1.730 3616
1.727 2.649 1.628 5146
1.832 2.810 1.720 4128
1.737 2.664 1.626 5716
1.827 2.802 1.704 4357
1.743 2.674 1.620 5574
1.845 2.830 1.708 4509
1.805 2.767 1.661 5866
1.879 2.882 1.725 2938
1.730 2.653 1.597 2543
1.787 2.741 1.635 5968
1.862 2.855 1.698 4581
1.713 2.627 1.571 901
1.786 2.739 1.622 6100
1.860 2.853 1.685 5852
1.935 2.968 1.748 937
1.711 2.624 1.559 934
1.859 2.851 1.672 6281
1.784 2.736 1.609 4569
1.934 2.965 1.735 1175
1.893 2.903 1.689 7777
1.798 2.758 1.610 2593
1.895 2.907 1.679 8329
1.820 2.792 1.617 2091
1.970 3.022 1.740 829
1.902 2.916 1.672 6484
1.827 2.801 1.610 2044
1.977 3.031 1.733 906
1.904 2.920 1.662 5922
1.979 3.035 1.723 1683
1.829 2.805 1.601 1414
1.930 2.960 1.671 5973
1.855 2.845 1.610 2215
1.925 2.952 1.654 7612
2.000 3.067 1.715 1328
1.850 2.836 1.594 969
1.927 2.956 1.644 8518
2.003 3.071 1.704 1393
1.934 2.965 1.637 8814
2.009 3.081 1.697 1649
1.936 2.969 1.627 6613
2.012 3.085 1.686 2439
1.990 3.052 1.657 5536
1.914 2.936 1.598 1960
1.969 3.019 1.628 5527
2.044 3.135 1.686 1861
1.979 3.035 1.624 6981
2.055 3.151 1.682 1803
1.989 3.051 1.619 7993
2.065 3.167 1.677 1914
2.004 3.073 1.618 7714
2.088 3.202 1.681 1622
2.014 3.089 1.613 8067
2.090 3.205 1.670 1537
1.938 2.972 1.557 764
2.040 3.129 1.621 7388
2.117 3.246 1.677 794
2.051 3.145 1.616 9676
2.127 3.262 1.671 1858
1.975 3.028 1.560 806
2.061 3.161 1.611 10733
2.138 3.278 1.666 3253
2.084 3.196 1.614 8129
2.160 3.313 1.669 3530
2.007 3.078 1.559 1016
2.114 3.242 1.623 9418
2.038 3.125 1.569 2823
2.191 3.360 1.678 822
2.121 3.252 1.615 9186
2.044 3.135 1.561 1427
2.197 3.370 1.669 1255
2.131 3.268 1.610 6992
2.208 3.386 1.663 1974
2.054 3.151 1.556 1196
2.162 3.315 1.618 4511
2.085 3.197 1.565 1613
2.239 3.433 1.671 1234
2.172 3.331 1.612 5048
2.249 3.449 1.665 2591
2.095 3.213 1.559 1445
2.183 3.347 1.606 6305
2.260 3.465 1.659 2838
2.102 3.223 1.551 957
2.209 3.388 1.611 5751
2.286 3.506 1.663 1248
2.132 3.270 1.559 1229
2.212 3.392 1.600 6698
2.289 3.510 1.651 2126
2.134 3.273 1.548 867
2.210 3.389 1.585 5795
2.287 3.507 1.636 2763
2.212 3.393 1.573 4411
2.290 3.511 1.624 2953
2.251 3.452 1.586 5271
2.329 3.571 1.636 2461
2.174 3.334 1.535 1327
2.253 3.456 1.574 6947
2.331 3.575 1.624 4316
2.176 3.337 1.524 1187
2.272 3.484 1.572 5283
2.350 3.603 1.622 2824
2.194 3.365 1.523 1911
2.282 3.500 1.566 6224
2.360 3.619 1.615 2475
2.205 3.381 1.516 1320
2.326 3.567 1.579 6436
2.403 3.686 1.628 2143
2.248 3.447 1.530 1922
2.328 3.570 1.567 7149
2.406 3.689 1.615 2852
2.250 3.451 1.519 1123
2.330 3.574 1.555 5787
2.424 3.718 1.613 4254
2.332 3.577 1.542 4886
2.423 3.715 1.597 4684
2.429 3.725 1.587 4705
2.335 3.580 1.530 2761
2.536 3.889 1.652 791
2.419 3.710 1.567 4829
2.542 3.899 1.641 1281
2.341 3.590 1.520 1148
2.467 3.783 1.581 4236
2.388 3.663 1.535 2634
2.545 3.903 1.627 1487
2.473 3.793 1.570 3787
2.580 3.957 1.633 2122
2.387 3.660 1.520 2021
2.578 3.954 1.617 4459
2.500 3.834 1.572 3644
2.422 3.714 1.526 2156
2.581 3.958 1.603 5946
2.490 3.819 1.551 3624
2.412 3.698 1.506 1757
2.587 3.968 1.592 4198
2.488 3.816 1.536 3336
2.410 3.695 1.491 838
2.536 3.889 1.548 2952
2.614 4.009 1.592 2395
2.457 3.768 1.504 1001
2.592 3.975 1.565 3222
2.670 4.095 1.608 2119
2.513 3.854 1.521 1402
2.606 3.997 1.558 3815
2.685 4.118 1.601 2539
2.528 3.877 1.514 1164
2.671 4.096 1.578 3471
2.592 3.975 1.535 2313
2.669 4.093 1.562 3748
2.590 3.972 1.519 2508
2.748 4.214 1.604 839
2.696 4.135 1.561 4237
2.617 4.014 1.519 3487
2.775 4.256 1.603 1294
2.703 4.145 1.549 4488
2.624 4.024 1.507 2354
2.782 4.266 1.590 2070
2.709 4.154 1.537 4913
2.788 4.276 1.578 3022
2.630 4.033 1.495 881
2.711 4.158 1.522 4818
2.790 4.279 1.563 4477
2.784 4.270 1.544 4423
2.705 4.148 1.504 3256
2.863 4.391 1.584 1303
2.782 4.267 1.527 4119
2.703 4.145 1.487 2267
2.891 4.433 1.582 1740
2.987 4.580 1.630 780
2.805 4.302 1.523 4666
2.718 4.168 1.479 2339
2.885 4.424 1.562 2183
2.993 4.590 1.617 1032
2.808 4.306 1.508 3797
2.887 4.427 1.547 2320
2.716 4.165 1.463 1326
3.000 4.600 1.603 1269
2.872 4.405 1.524 3202
3.027 4.642 1.599 2168
2.793 4.283 1.485 1400
2.937 4.505 1.539 4141
2.858 4.383 1.500 2445
3.046 4.671 1.591 1965
2.745 4.210 1.446 784
2.881 4.418 1.495 4701
2.990 4.585 1.547 3893
3.069 4.707 1.585 1677
3.005 4.608 1.537 5913
2.879 4.415 1.478 3037
3.130 4.800 1.596 2481
3.003 4.605 1.519 5573
3.128 4.797 1.578 3690
2.885 4.425 1.465 1160
3.080 4.724 1.538 5914
3.160 4.846 1.575 3181
2.996 4.595 1.500 3176
2.892 4.434 1.451 792
3.091 4.740 1.526 5692
3.171 4.862 1.562 2599
3.011 4.618 1.489 1947
3.255 4.991 1.600 860
3.194 4.898 1.554 3474
3.064 4.698 1.496 2824
3.320 5.091 1.611 1420
3.196 4.901 1.537 3744
3.322 5.095 1.593 2245
3.116 4.779 1.502 1375
3.036 4.657 1.467 887
3.257 4.995 1.546 2363
3.354 5.144 1.588 2076
3.123 4.789 1.487 1491
3.281 5.031 1.538 2648
3.360 5.154 1.572 2537
3.188 4.889 1.498 1416
3.108 4.766 1.464 905
3.363 5.157 1.555 3528
3.283 5.034 1.521 2510
3.443 5.280 1.589 1341
3.198 4.905 1.485 1277
3.416 5.238 1.558 4979
3.335 5.115 1.524 2286
3.255 4.992 1.491 1035
3.422 5.248 1.542 4090
3.342 5.125 1.508 1376
3.536 5.423 1.589 1077
3.428 5.258 1.525 3522
3.542 5.433 1.572 1363
3.348 5.135 1.492 894
3.431 5.261 1.507 3769
3.532 5.417 1.548 1551
3.646 5.592 1.594 802
3.454 5.297 1.497 3241
3.534 5.420 1.529 1895
3.648 5.595 1.574 1100
3.460 5.307 1.481 2506
3.570 5.475 1.524 1764
3.689 5.657 1.570 1223
3.564 5.466 1.501 2799
3.458 5.303 1.461 2068
3.683 5.647 1.547 1586
3.763 5.771 1.578 883
3.566 5.469 1.482 2708
3.676 5.638 1.524 2438
3.460 5.307 1.442 1367
3.757 5.761 1.555 1256
3.670 5.628 1.502 2508
3.577 5.485 1.467 2007
3.823 5.862 1.559 1535
3.761 5.768 1.515 2183
3.681 5.645 1.485 2021
3.592 5.508 1.452 1469
3.842 5.892 1.545 1431
3.751 5.752 1.490 2993
3.946 6.051 1.561 2103
3.840 5.888 1.523 1847
3.670 5.628 1.461 1303
3.723 5.710 1.460 2557
3.948 6.055 1.540 2312
3.842 5.892 1.502 2186
3.942 6.045 1.516 2571
3.704 5.680 1.433 2047
3.840 5.889 1.480 1917
4.022 6.169 1.545 1083
4.003 6.139 1.516 2935
3.923 6.016 1.488 2296
3.812 5.846 1.450 1874
3.706 5.683 1.413 1174
3.950 6.058 1.476 2031
3.827 5.869 1.434 1337
4.099 6.286 1.527 1072
3.965 6.081 1.459 2165
4.114 6.309 1.509 1439
3.855 5.911 1.422 843
3.984 6.110 1.444 2271
4.112 6.306 1.486 1606
3.903 5.986 1.417 920
4.240 6.502 1.528 843
3.982 6.107 1.421 2299
4.250 6.518 1.508 1463
4.169 6.394 1.482 1184
4.089 6.270 1.456 995
4.278 6.561 1.494 1932
3.980 6.103 1.399 1548
4.176 6.404 1.461 1168
4.095 6.280 1.436 913
4.297 6.590 1.477 2300
4.110 6.303 1.418 1298
4.493 6.891 1.538 1197
4.212 6.459 1.450 1040
4.304 6.600 1.455 2340
4.116 6.312 1.397 1830
4.564 6.999 1.535 1605
4.483 6.875 1.510 1487
4.562 6.996 1.510 2200
4.323 6.629 1.437 2057
4.481 6.871 1.485 1681
4.122 6.322 1.377 1619
4.496 6.894 1.465 2163
4.577 7.019 1.489 1500
4.333 6.646 1.417 1362
4.414 6.770 1.441 1182
4.604 7.061 1.472 1712
4.297 6.590 1.383 1529
4.493 6.891 1.440 1505
4.686 7.186 1.496 1165
4.594 7.045 1.444 1747
4.675 7.169 1.468 1522
4.837 7.418 1.514 1263
4.303 6.599 1.361 1226
4.596 7.048 1.420 1512
4.737 7.264 1.459 1339
5.122 7.854 1.567 1144
4.908 7.526 1.507 1080
4.619 7.084 1.401 1578
5.124 7.858 1.540 1511
4.743 7.274 1.435 1337
5.265 8.074 1.579 1128
4.621 7.087 1.377 1504
5.126 7.861 1.513 1390
4.844 7.428 1.437 1330
5.318 8.156 1.565 1219
5.128 7.864 1.486 1656
5.227 8.015 1.512 1466
5.316 8.153 1.535 1334
5.415 8.304 1.561 1208
5.126 7.861 1.457 2006
5.417 8.308 1.533 1742
5.267 8.078 1.494 1399
4.976 7.631 1.419 887
5.124 7.858 1.429 1973
5.428 8.324 1.506 1921
5.274 8.088 1.467 1637
5.509 8.449 1.527 917
5.353 8.209 1.458 2043
5.469 8.387 1.487 1631
5.717 8.768 1.548 1563
5.130 7.867 1.403 1532
5.351 8.206 1.429 2011
5.505 8.442 1.466 1898
5.724 8.778 1.519 1699
5.642 8.653 1.499 1286
5.511 8.452 1.438 1853
5.653 8.669 1.471 1654
5.353 8.209 1.400 1374
5.734 8.794 1.490 1373
5.513 8.455 1.408 1914
5.655 8.672 1.441 1860
5.737 8.797 1.460 1519
5.432 8.330 1.389 1396
5.524 8.472 1.381 2143
5.743 8.807 1.430 1837
5.966 9.149 1.481 1666
5.657 8.676 1.411 1639
5.530 8.481 1.353 2507
5.977 9.166 1.451 1812
5.741 8.804 1.399 1670
5.869 9.001 1.427 1044
5.983 9.176 1.420 2471
5.537 8.491 1.324 1738
5.725 8.780 1.365 1715
6.533 10.019 1.538 1262
5.985 9.179 1.388 2603
6.634 10.174 1.524 1570
6.548 10.042 1.506 1484
5.740 8.803 1.337 1381
5.983 9.175 1.356 1848
6.812 10.447 1.525 1504
6.344 9.729 1.429 1423
6.640 10.183 1.490 1186
6.814 10.450 1.489 2089
6.724 10.312 1.471 1758
5.980 9.171 1.323 1144
6.359 9.752 1.398 1088
6.812 10.447 1.452 3003
6.726 10.315 1.435 1906
6.593 10.111 1.409 1267
5.982 9.174 1.291 802
6.814 10.450 1.416 3556
6.733 10.325 1.400 1623
6.586 10.101 1.373 1195
6.816 10.453 1.379 3585
6.657 10.209 1.350 1282
7.763 11.905 1.552 1051
7.161 10.981 1.442 941
6.818 10.456 1.343 2895
7.765 11.908 1.511 1160
6.655 10.206 1.314 1157
6.737 10.331 1.328 1035
6.820 10.459 1.307 1599
7.767 11.912 1.470 1062
6.738 10.334 1.293 993
7.177 11.007 1.368 895
6.800 10.429 1.267 1406
7.756 11.895 1.426 1225
7.754 11.892 1.384 1631
6.807 10.438 1.231 1233
7.752 11.888 1.342 1633
6.813 10.448 1.196 1104
7.754 11.891 1.301 1244
6.810 10.443 1.159 845
7.768 11.914 1.261 1354
7.678 11.775 1.248 763
7.775 11.923 1.221 1876
7.772 11.919 1.179 1358
7.774 11.921 1.137 815
1.194 1.816 1.657 4915
1.261 1.918 1.745 1910
1.196 1.819 1.651 9830
1.263 1.922 1.738 3821
1.129 1.717 1.564 1421
1.198 1.823 1.645 9830
1.266 1.926 1.732 3821
1.131 1.721 1.558 1235
1.201 1.827 1.639 8401
1.272 1.935 1.730 4224
1.133 1.724 1.552 837
1.200 1.825 1.628 7009
1.278 1.944 1.728 4941
1.206 1.834 1.626 7366
1.277 1.943 1.717 4556
1.208 1.838 1.620 7759
1.276 1.941 1.705 4308
1.210 1.841 1.614 8711
1.278 1.945 1.699 4308
1.213 1.845 1.607 9662
1.281 1.949 1.692 6622
1.349 2.053 1.777 897
1.144 1.741 1.523 851
1.215 1.848 1.601 9662
1.283 1.953 1.686 8936
1.352 2.057 1.770 1103
1.147 1.744 1.517 852
1.304 1.984 1.701 9834
1.217 1.852 1.595 9119
1.149 1.748 1.511 827
1.310 1.993 1.699 13774
1.223 1.861 1.593 8713
1.155 1.757 1.509 970
1.316 2.002 1.696 13219
1.226 1.865 1.587 6540
1.385 2.107 1.780 808
1.322 2.012 1.694 12933
1.235 1.879 1.589 4601
1.391 2.116 1.777 1035
1.328 2.021 1.691 10536
1.238 1.883 1.583 3006
1.397 2.126 1.774 898
1.342 2.041 1.697 10453
1.236 1.881 1.572 1431
1.344 2.045 1.690 10364
1.239 1.884 1.565 919
1.343 2.043 1.679 9028
1.349 2.053 1.676 7683
1.352 2.056 1.669 6946
1.358 2.066 1.667 6270
1.349 2.053 1.647 10501
1.352 2.056 1.640 15101
1.354 2.060 1.633 15435
1.356 2.064 1.626 15769
1.355 2.062 1.615 13215
1.426 2.169 1.693 917
1.358 2.065 1.608 10736
1.428 2.173 1.686 1479
1.360 2.069 1.600 11270
1.431 2.176 1.678 2555
1.366 2.078 1.597 12013
1.437 2.186 1.675 3068
1.508 2.294 1.752 858
1.379 2.099 1.603 14859
1.450 2.207 1.680 2063
1.386 2.108 1.599 19059
1.475 2.244 1.696 2423
1.388 2.111 1.592 16738
1.482 2.254 1.693 2758
1.386 2.109 1.581 10786
1.458 2.218 1.657 3666
1.529 2.326 1.733 1052
1.381 2.101 1.566 7592
1.494 2.273 1.685 4433
1.387 2.110 1.563 6641
1.500 2.282 1.681 5360
1.397 2.125 1.563 6018
1.510 2.298 1.681 5392
1.520 2.313 1.681 6093
1.403 2.135 1.560 4482
1.592 2.422 1.756 754
1.519 2.311 1.669 5812
1.417 2.155 1.564 3357
1.591 2.420 1.743 908
1.525 2.320 1.665 7052
1.419 2.159 1.557 2968
1.532 2.330 1.661 8406
1.425 2.168 1.553 2610
1.530 2.328 1.649 8327
1.427 2.172 1.546 2484
1.610 2.449 1.730 1553
1.533 2.331 1.641 7890
1.613 2.453 1.722 2412
1.430 2.175 1.539 2207
1.539 2.341 1.637 6226
1.619 2.463 1.717 2892
1.432 2.178 1.531 2056
1.564 2.379 1.652 5694
1.491 2.269 1.580 2187
1.637 2.490 1.724 2128
1.419 2.158 1.509 1074
1.567 2.383 1.644 7797
1.494 2.272 1.572 2464
1.639 2.494 1.715 1634
1.421 2.162 1.501 875
1.569 2.387 1.636 9001
1.661 2.527 1.725 2150
1.496 2.276 1.565 2079
1.423 2.165 1.494 860
1.575 2.396 1.631 9457
1.667 2.537 1.720 3005
1.502 2.285 1.561 1872
1.581 2.406 1.627 8139
1.670 2.540 1.711 3901
1.508 2.295 1.556 2044
1.584 2.409 1.618 5836
1.669 2.538 1.699 5148
1.507 2.292 1.545 1559
1.656 2.519 1.676 5769
1.582 2.407 1.606 4120
1.729 2.630 1.745 1188
1.509 2.296 1.537 1019
1.658 2.522 1.667 6813
1.585 2.411 1.598 3092
1.732 2.634 1.736 1942
1.511 2.299 1.529 792
1.657 2.520 1.655 7236
1.730 2.632 1.723 2843
1.583 2.408 1.586 1405
1.651 2.512 1.639 7196
1.725 2.624 1.707 3497
1.578 2.400 1.571 929
1.654 2.516 1.630 7766
1.727 2.628 1.698 3903
1.580 2.404 1.563 967
1.703 2.590 1.664 7006
1.629 2.478 1.597 2206
1.781 2.709 1.735 956
1.736 2.641 1.684 7321
1.658 2.523 1.613 5670
1.810 2.754 1.751 936
1.739 2.645 1.675 9076
1.661 2.527 1.604 3822
1.813 2.758 1.741 1338
1.733 2.637 1.658 10777
1.827 2.780 1.742 1479
1.655 2.518 1.589 1457
1.736 2.641 1.649 10884
1.834 2.789 1.736 2279
1.662 2.528 1.584 778
1.734 2.639 1.637 7888
1.840 2.799 1.730 3428
1.737 2.642 1.628 5230
1.843 2.803 1.720 3923
1.747 2.658 1.626 5858
1.837 2.795 1.704 4169
1.753 2.667 1.620 5715
1.856 2.823 1.708 4333
1.815 2.761 1.661 5905
1.890 2.875 1.725 2881
1.740 2.647 1.597 2603
1.797 2.734 1.635 6058
1.872 2.848 1.698 4843
1.723 2.621 1.571 910
1.867 2.840 1.682 6345
1.792 2.726 1.619 6042
1.942 2.954 1.745 1061
1.717 2.612 1.556 865
1.869 2.844 1.672 6253
1.794 2.730 1.609 4707
1.945 2.958 1.735 1114
1.904 2.896 1.689 7600
1.828 2.781 1.626 2633
1.906 2.900 1.679 8247
1.831 2.785 1.617 2109
1.981 3.014 1.740 815
1.913 2.909 1.672 6472
1.837 2.795 1.610 2089
1.988 3.024 1.733 876
1.915 2.913 1.662 5920
1.990 3.028 1.723 1624
1.839 2.798 1.601 1458
1.941 2.953 1.671 6095
1.866 2.838 1.610 2354
1.936 2.945 1.654 7500
2.011 3.060 1.715 1304
1.860 2.830 1.594 1020
1.938 2.948 1.644 8159
2.014 3.064 1.704 1392
1.945 2.958 1.637 8412
2.020 3.074 1.697 1561
1.947 2.962 1.627 6244
2.023 3.077 1.686 2275
2.001 3.045 1.657 5564
1.925 2.929 1.598 1932
1.996 3.036 1.640 5736
1.920 2.920 1.582 1023
1.990 3.028 1.624 6664
2.066 3.144 1.682 1807
2.001 3.043 1.619 7308
2.077 3.160 1.677 1961
2.019 3.072 1.621 7249
2.100 3.194 1.681 1574
1.943 2.955 1.564 758
2.025 3.081 1.613 7770
2.102 3.198 1.670 1497
1.949 2.965 1.557 772
2.052 3.122 1.621 7324
2.129 3.238 1.677 802
2.062 3.138 1.616 9608
2.139 3.254 1.671 1778
1.986 3.021 1.560 828
2.073 3.153 1.611 10597
2.150 3.270 1.666 3083
2.096 3.188 1.614 7931
2.172 3.305 1.669 3429
2.019 3.071 1.559 1080
2.126 3.235 1.623 9274
2.049 3.117 1.569 2980
2.203 3.352 1.678 775
2.133 3.244 1.615 9109
2.056 3.127 1.561 1458
2.210 3.362 1.669 1220
2.143 3.260 1.610 6991
2.220 3.378 1.663 1915
2.066 3.143 1.556 1178
2.174 3.307 1.618 4519
2.097 3.190 1.565 1631
2.251 3.425 1.671 1198
2.184 3.323 1.612 5032
2.262 3.441 1.665 2460
2.107 3.205 1.559 1498
2.195 3.339 1.606 6124
2.272 3.457 1.659 2680
2.118 3.221 1.554 1047
2.222 3.380 1.611 5438
2.144 3.262 1.559 1223
2.299 3.498 1.663 1188
2.224 3.384 1.600 6388
2.302 3.502 1.651 2068
2.147 3.265 1.548 908
2.222 3.381 1.585 5677
2.300 3.499 1.636 2748
2.225 3.384 1.573 4427
2.302 3.503 1.624 2930
2.260 3.438 1.583 5121
2.338 3.556 1.633 2666
2.182 3.319 1.533 1194
2.262 3.441 1.571 6807
2.340 3.560 1.621 4575
2.184 3.323 1.521 1055
2.281 3.470 1.570 5129
2.359 3.588 1.619 2953
2.203 3.351 1.520 1602
2.295 3.492 1.566 6253
2.373 3.611 1.615 2476
2.217 3.373 1.516 1343
2.335 3.552 1.577 6161
2.413 3.671 1.625 2332
2.257 3.433 1.528 1671
2.337 3.555 1.564 6993
2.415 3.674 1.613 2790
2.259 3.436 1.516 1011
2.343 3.565 1.555 5921
2.438 3.709 1.613 4060
2.346 3.568 1.542 5073
2.436 3.706 1.597 4567
2.439 3.710 1.585 4606
2.348 3.572 1.530 2838
2.429 3.695 1.564 5066
2.557 3.890 1.641 1227
2.350 3.575 1.518 1191
2.481 3.774 1.581 4297
2.402 3.654 1.535 2756
2.559 3.893 1.627 1434
2.487 3.783 1.570 3871
2.400 3.651 1.520 2067
2.595 3.947 1.633 1970
2.593 3.945 1.617 4292
2.514 3.825 1.572 3434
2.435 3.705 1.526 2193
2.595 3.948 1.603 5806
2.504 3.809 1.551 3401
2.425 3.689 1.506 1919
2.602 3.958 1.592 4121
2.502 3.806 1.536 3216
2.423 3.686 1.491 906
2.550 3.879 1.548 3129
2.629 4.000 1.592 2365
2.471 3.759 1.504 1064
2.606 3.965 1.565 3337
2.685 4.085 1.608 2125
2.527 3.845 1.521 1453
2.621 3.988 1.558 4078
2.700 4.108 1.601 2631
2.542 3.867 1.514 1313
2.632 4.004 1.549 3553
2.711 4.124 1.591 1972
2.701 4.109 1.571 3659
2.622 3.988 1.528 3325
2.711 4.125 1.561 4034
2.632 4.004 1.519 3724
2.791 4.245 1.603 1219
2.718 4.135 1.549 3457
2.638 4.014 1.507 2531
2.797 4.255 1.590 2019
2.724 4.144 1.537 3962
2.804 4.265 1.578 2999
2.636 4.011 1.491 1041
2.722 4.141 1.520 5216
2.802 4.262 1.561 4478
2.881 4.383 1.602 860
2.720 4.138 1.504 5056
2.800 4.259 1.544 4266
2.880 4.381 1.584 1369
2.798 4.257 1.527 4199
2.718 4.135 1.487 3183
2.907 4.422 1.582 1755
3.003 4.569 1.630 754
2.821 4.292 1.523 4762
2.741 4.171 1.483 2744
2.901 4.413 1.562 2195
3.010 4.579 1.617 976
2.823 4.295 1.508 3675
2.903 4.417 1.547 2227
2.744 4.174 1.469 1551
3.017 4.589 1.603 1212
2.889 4.394 1.524 3130
3.044 4.631 1.599 2067
2.809 4.273 1.485 1332
2.950 4.487 1.537 4234
2.870 4.366 1.498 2346
3.030 4.609 1.575 2038
3.110 4.730 1.613 1196
2.960 4.503 1.525 4681
2.880 4.382 1.487 3957
3.078 4.683 1.581 1753
3.017 4.590 1.535 6355
2.895 4.404 1.478 3065
3.144 4.782 1.594 2123
3.020 4.594 1.519 5928
3.142 4.779 1.576 3827
2.902 4.414 1.465 1201
3.098 4.712 1.538 5437
3.013 4.584 1.500 3372
3.178 4.834 1.575 2822
2.908 4.424 1.451 838
3.104 4.722 1.524 5733
3.184 4.844 1.560 2614
3.024 4.600 1.488 1932
3.269 4.973 1.598 837
3.208 4.880 1.552 4082
3.111 4.732 1.509 3278
3.030 4.610 1.473 1455
3.339 5.079 1.611 1343
3.214 4.890 1.537 3953
3.341 5.083 1.593 2212
3.134 4.767 1.502 1420
3.054 4.645 1.467 907
3.216 4.893 1.520 2395
3.356 5.105 1.581 1923
3.136 4.771 1.486 1438
3.299 5.019 1.538 2703
3.379 5.141 1.572 2468
3.197 4.864 1.494 2027
3.117 4.742 1.460 1135
3.382 5.145 1.555 3715
3.301 5.022 1.521 2619
3.462 5.267 1.589 1406
3.212 4.887 1.483 1404
3.435 5.225 1.558 5312
3.354 5.103 1.524 2371
3.274 4.980 1.491 1108
3.151 4.793 1.440 963
3.437 5.229 1.540 4187
3.357 5.106 1.507 1422
3.556 5.410 1.589 1041
3.161 4.809 1.426 836
3.448 5.245 1.525 3444
3.558 5.413 1.570 1305
3.367 5.122 1.492 917
3.450 5.249 1.507 3797
3.552 5.404 1.548 1598
3.667 5.578 1.594 806
3.474 5.284 1.497 3279
3.554 5.407 1.529 1951
3.669 5.582 1.574 1121
3.480 5.294 1.481 2481
3.591 5.462 1.524 1743
3.705 5.637 1.568 1222
3.584 5.453 1.501 2825
3.478 5.291 1.461 2132
3.699 5.627 1.545 1631
3.780 5.750 1.576 871
3.586 5.456 1.482 2844
3.697 5.624 1.524 2412
3.480 5.294 1.442 1467
3.778 5.747 1.555 1222
3.691 5.615 1.502 2445
3.597 5.472 1.467 2059
3.848 5.854 1.560 1469
3.782 5.754 1.515 2111
3.701 5.631 1.485 1944
3.612 5.495 1.452 1455
3.863 5.877 1.545 1356
3.772 5.738 1.490 2976
3.968 6.036 1.561 2059
3.861 5.874 1.523 1799
3.691 5.615 1.461 1263
3.740 5.689 1.458 2621
3.970 6.040 1.540 2277
3.864 5.878 1.502 2227
3.964 6.030 1.516 2584
3.725 5.667 1.433 2057
3.862 5.874 1.480 1983
4.045 6.154 1.545 1083
4.026 6.125 1.516 2860
3.945 6.001 1.488 2366
3.834 5.832 1.450 1881
3.727 5.670 1.413 1190
3.968 6.037 1.475 2068
3.849 5.855 1.434 1361
4.118 6.265 1.525 1044
3.988 6.066 1.459 2132
4.137 6.294 1.509 1334
3.876 5.897 1.422 832
4.007 6.095 1.444 2308
4.135 6.291 1.486 1476
4.264 6.486 1.528 1008
3.874 5.894 1.400 832
4.009 6.099 1.423 2379
4.274 6.502 1.508 1719
4.124 6.274 1.460 1238
4.356 6.626 1.535 831
4.289 6.525 1.490 2156
4.002 6.089 1.399 1603
4.122 6.271 1.437 1151
4.204 6.395 1.463 989
4.313 6.561 1.474 2387
4.129 6.281 1.416 1424
4.519 6.874 1.538 1166
4.232 6.437 1.449 1069
4.328 6.584 1.455 2399
4.139 6.297 1.397 1888
4.590 6.982 1.535 1609
4.508 6.858 1.510 1455
4.587 6.979 1.510 2178
4.347 6.613 1.437 2103
4.146 6.307 1.377 1700
4.506 6.855 1.485 1688
4.521 6.878 1.465 2156
4.603 7.002 1.489 1473
4.341 6.603 1.412 1422
4.439 6.754 1.441 1268
4.630 7.044 1.472 1732
4.321 6.574 1.383 1672
4.519 6.874 1.440 1510
4.712 7.168 1.496 1171
4.620 7.028 1.444 1804
4.701 7.152 1.468 1539
4.328 6.583 1.361 1342
4.865 7.400 1.514 1267
4.622 7.031 1.420 1503
4.759 7.240 1.458 1410
5.146 7.829 1.566 1108
4.446 6.763 1.371 1061
4.645 7.067 1.401 1578
5.153 7.839 1.540 1473
4.766 7.250 1.434 1383
5.295 8.055 1.579 1095
4.647 7.070 1.377 1518
4.871 7.410 1.437 1356
5.155 7.842 1.513 1342
5.349 8.137 1.565 1189
5.157 7.845 1.486 1599
5.256 7.996 1.512 1498
5.342 8.127 1.534 1299
5.071 7.714 1.463 1158
5.155 7.842 1.457 1996
5.452 8.294 1.534 1644
5.288 8.045 1.492 1398
5.370 8.170 1.513 1087
5.153 7.839 1.429 2034
5.459 8.304 1.506 1916
5.304 8.068 1.467 1574
5.540 8.428 1.527 896
5.383 8.189 1.458 2030
5.500 8.366 1.487 1655
5.155 7.842 1.402 1598
5.749 8.747 1.548 1510
5.536 8.422 1.466 1959
5.381 8.186 1.429 1942
5.752 8.750 1.518 1666
5.670 8.625 1.498 1124
5.543 8.432 1.438 1881
5.685 8.648 1.471 1623
5.767 8.773 1.490 1335
5.383 8.189 1.400 1319
5.545 8.435 1.408 1917
5.687 8.651 1.441 1837
5.769 8.776 1.460 1465
5.463 8.310 1.389 1385
5.555 8.451 1.381 2200
5.775 8.786 1.430 1822
5.693 8.661 1.412 1641
6.000 9.127 1.481 1583
5.562 8.461 1.353 2570
6.011 9.144 1.451 1762
5.773 8.782 1.399 1691
5.903 8.980 1.427 1033
6.017 9.153 1.420 2445
5.568 8.470 1.324 1764
5.758 8.759 1.365 1707
6.570 9.994 1.538 1266
6.019 9.157 1.388 2581
6.581 10.011 1.506 1479
6.671 10.149 1.524 1468
6.373 9.695 1.462 1407
6.017 9.153 1.356 1834
6.380 9.705 1.429 1459
6.851 10.422 1.525 1449
6.760 10.284 1.507 1232
6.853 10.425 1.489 1946
6.762 10.287 1.471 1825
6.014 9.149 1.323 1150
6.395 9.728 1.398 1099
6.851 10.422 1.452 2833
6.764 10.290 1.435 1982
6.630 10.086 1.409 1304
6.016 9.152 1.291 817
6.853 10.425 1.416 3473
6.771 10.300 1.400 1675
6.624 10.076 1.373 1225
6.855 10.428 1.379 3549
6.773 10.303 1.364 1292
6.690 10.178 1.349 1233
7.807 11.876 1.552 1055
6.857 10.431 1.343 2884
7.809 11.880 1.511 1166
6.692 10.181 1.314 1153
6.775 10.306 1.328 1054
6.859 10.434 1.307 1609
7.811 11.883 1.470 1066
6.776 10.309 1.293 1023
7.067 10.750 1.342 893
6.839 10.404 1.267 1357
7.800 11.866 1.426 1236
7.798 11.863 1.384 1655
6.845 10.413 1.231 1265
7.796 11.859 1.342 1666
6.851 10.422 1.196 1147
7.798 11.862 1.301 1272
6.848 10.418 1.159 848
7.812 11.885 1.261 1383
7.721 11.746 1.248 753
7.819 11.894 1.221 1909
7.816 11.890 1.179 1379
7.818 11.893 1.137 824
1.200 1.812 1.657 5040
1.267 1.914 1.745 1891
1.202 1.815 1.651 10081
1.270 1.918 1.738 3783
1.135 1.713 1.564 1283
1.205 1.819 1.645 10081
1.272 1.921 1.732 3783
1.137 1.717 1.558 1127
1.207 1.823 1.639 8492
1.278 1.931 1.730 4144
1.139 1.720 1.552 811
1.209 1.826 1.632 6903
1.285 1.940 1.728 4849
1.212 1.830 1.626 7185
1.284 1.938 1.717 4484
1.214 1.834 1.620 7466
1.283 1.937 1.705 4270
1.217 1.837 1.614 8513
1.285 1.941 1.699 4270
1.148 1.734 1.529 759
1.219 1.841 1.607 9559
1.288 1.944 1.692 6600
1.356 2.048 1.777 905
1.150 1.737 1.523 839
1.221 1.844 1.601 9559
1.290 1.948 1.686 8931
1.359 2.052 1.770 1118
1.153 1.741 1.517 845
1.311 1.979 1.701 9809
1.224 1.848 1.595 9157
1.155 1.744 1.511 790
1.317 1.989 1.699 13733
1.230 1.857 1.593 8869
1.161 1.753 1.509 886
1.323 1.998 1.696 13184
1.232 1.860 1.587 6722
1.392 2.102 1.780 792
1.329 2.007 1.694 12894
1.238 1.869 1.585 4740
1.398 2.112 1.777 1013
1.335 2.016 1.691 10501
1.240 1.873 1.578 3070
1.405 2.121 1.774 884
1.349 2.037 1.697 10387
1.243 1.876 1.572 1399
1.351 2.041 1.690 10291
1.245 1.880 1.565 892
1.350 2.039 1.679 8991
1.356 2.048 1.676 7681
1.359 2.052 1.669 7064
1.361 2.056 1.662 6447
1.356 2.048 1.647 10855
1.359 2.052 1.640 15439
1.361 2.055 1.633 15589
1.363 2.059 1.626 15738
1.362 2.057 1.615 13070
1.433 2.164 1.693 832
1.364 2.061 1.608 10528
1.435 2.168 1.686 1262
1.367 2.064 1.600 11049
1.438 2.171 1.678 2341
1.373 2.073 1.597 11747
1.444 2.181 1.675 2951
1.515 2.288 1.752 837
1.383 2.088 1.598 14482
1.454 2.196 1.676 2455
1.389 2.097 1.595 18405
1.483 2.239 1.696 2395
1.395 2.107 1.592 16382
1.489 2.249 1.693 2778
1.394 2.104 1.581 10484
1.465 2.213 1.657 3850
1.537 2.321 1.733 1065
1.388 2.097 1.566 7037
1.498 2.262 1.681 4554
1.570 2.371 1.757 813
1.398 2.111 1.567 6381
1.504 2.272 1.677 5531
1.404 2.121 1.563 6088
1.518 2.293 1.681 5484
1.528 2.308 1.681 6098
1.418 2.141 1.568 4965
1.600 2.417 1.756 766
1.527 2.306 1.669 5762
1.424 2.151 1.564 4417
1.599 2.415 1.743 913
1.533 2.315 1.665 7137
1.430 2.160 1.561 4244
1.536 2.319 1.657 8569
1.436 2.169 1.557 4274
1.538 2.323 1.649 8455
1.439 2.172 1.550 3986
1.618 2.444 1.730 1583
1.544 2.332 1.645 7877
1.445 2.182 1.546 2951
1.621 2.448 1.722 2481
1.547 2.336 1.637 6083
1.627 2.457 1.717 3008
1.447 2.185 1.539 2189
1.572 2.374 1.652 5532
1.499 2.264 1.580 2287
1.645 2.484 1.724 2198
1.426 2.154 1.509 792
1.575 2.378 1.644 7631
1.501 2.267 1.572 2575
1.648 2.488 1.715 1692
1.577 2.381 1.636 8728
1.504 2.271 1.565 2352
1.670 2.521 1.725 2211
1.583 2.391 1.631 9075
1.676 2.531 1.720 3093
1.510 2.280 1.561 1986
1.590 2.400 1.627 7739
1.678 2.535 1.711 4011
