9.210 -1.035 0.383 1834
10.044 -1.128 0.405 1405
11.538 -1.296 0.445 969
7.040 -0.791 0.325 792
9.219 -1.036 0.356 1943
10.053 -1.129 0.376 1411
11.547 -1.297 0.412 1006
9.219 -1.036 0.330 1678
10.053 -1.129 0.347 1361
11.265 -1.265 0.372 924
12.193 -1.370 0.391 887
10.054 -1.129 0.317 1299
9.220 -1.036 0.303 1233
12.185 -1.369 0.355 1177
11.265 -1.265 0.339 971
10.046 -1.128 0.288 1165
12.194 -1.370 0.320 1149
11.242 -1.263 0.306 1059
9.228 -1.037 0.276 994
11.235 -1.262 0.273 1234
12.194 -1.370 0.284 1126
10.047 -1.129 0.259 1071
9.244 -1.038 0.249 905
12.203 -1.371 0.249 1113
11.235 -1.262 0.240 1062
9.260 -1.040 0.222 909
10.039 -1.128 0.229 822
12.211 -1.372 0.213 1082
10.464 -1.175 0.202 771
12.219 -1.372 0.177 1012
12.195 -1.370 0.142 820
12.360 -1.388 0.105 756
12.218 -1.372 0.034 889
12.399 -1.393 0.033 869
12.234 -1.374 -0.002 1090
12.391 -1.392 -0.003 976
12.225 -1.373 -0.037 938
12.375 -1.390 -0.039 851
12.327 -1.385 -0.075 962
12.516 -1.406 -0.078 751
12.334 -1.385 -0.111 1362
12.341 -1.386 -0.147 1792
12.333 -1.385 -0.183 1675
12.332 -1.385 -0.219 1569
12.323 -1.384 -0.255 1201
12.322 -1.384 -0.291 844
11.880 -1.334 -0.310 782
11.879 -1.334 -0.345 850
14.202 -1.595 -1.276 836
14.198 -1.595 -1.318 1184
14.194 -1.594 -1.359 1184
14.190 -1.594 -1.401 1261
14.177 -1.592 -1.441 1342
13.583 -1.526 -1.375 892
13.919 -1.563 -1.413 771
2.254 -0.267 1.727 7952
2.375 -0.281 1.814 2232
2.258 -0.267 1.720 15905
2.380 -0.282 1.807 5569
1.817 -0.215 1.403 841
2.137 -0.253 1.633 806
2.263 -0.268 1.714 15905
2.385 -0.282 1.801 6674
2.141 -0.253 1.627 806
1.820 -0.216 1.398 750
2.267 -0.268 1.707 13070
2.390 -0.283 1.794 6871
2.145 -0.254 1.620 826
2.272 -0.269 1.701 10234
2.394 -0.283 1.787 7068
2.111 -0.250 1.587 948
2.373 -0.281 1.762 11204
2.251 -0.266 1.676 4802
2.128 -0.252 1.590 1791
2.496 -0.295 1.848 1115
2.384 -0.282 1.760 14035
2.262 -0.268 1.674 3156
2.139 -0.253 1.588 2850
2.507 -0.297 1.845 1065
2.389 -0.283 1.753 14035
2.266 -0.268 1.667 3156
2.143 -0.254 1.582 2839
2.512 -0.297 1.838 1086
2.394 -0.283 1.746 14095
2.160 -0.256 1.585 3054
2.517 -0.298 1.831 1159
2.037 -0.241 1.500 828
2.398 -0.284 1.739 14154
2.164 -0.256 1.579 3054
2.522 -0.299 1.823 1232
2.041 -0.242 1.494 1001
2.403 -0.285 1.732 11760
2.175 -0.257 1.577 2572
2.527 -0.299 1.816 1955
2.051 -0.243 1.493 1292
2.401 -0.284 1.721 9519
2.525 -0.299 1.804 3209
2.186 -0.259 1.575 2154
2.061 -0.244 1.492 1486
2.419 -0.286 1.723 9788
2.543 -0.301 1.806 2725
2.196 -0.260 1.573 2339
2.072 -0.245 1.490 1660
2.430 -0.288 1.720 10604
2.555 -0.302 1.803 2971
2.200 -0.261 1.567 2583
2.076 -0.246 1.484 1744
2.448 -0.290 1.722 7731
2.106 -0.249 1.496 3076
2.573 -0.305 1.804 2366
2.231 -0.264 1.578 1719
2.459 -0.291 1.719 5306
2.110 -0.250 1.490 4273
2.248 -0.266 1.580 1682
2.584 -0.306 1.801 1619
2.120 -0.251 1.488 5129
2.457 -0.291 1.708 5020
2.252 -0.267 1.574 1848
2.582 -0.306 1.789 1221
2.124 -0.252 1.482 5993
2.448 -0.290 1.692 3284
2.257 -0.267 1.568 2013
2.607 -0.309 1.795 1754
2.128 -0.252 1.476 4798
2.618 -0.310 1.792 2427
2.420 -0.286 1.664 2405
2.261 -0.268 1.561 1940
2.132 -0.252 1.470 3603
2.424 -0.287 1.657 3023
2.623 -0.311 1.784 2657
2.265 -0.268 1.555 1893
2.136 -0.253 1.463 3898
2.435 -0.288 1.654 3669
2.628 -0.311 1.777 2887
2.269 -0.269 1.548 1953
2.180 -0.258 1.483 4242
2.606 -0.309 1.752 3482
2.426 -0.287 1.638 3266
2.053 -0.243 1.403 861
2.150 -0.255 1.455 5144
2.604 -0.308 1.740 4461
2.417 -0.286 1.623 3216
2.277 -0.270 1.535 1156
2.147 -0.254 1.445 6073
2.622 -0.310 1.741 5161
2.428 -0.287 1.620 2591
2.274 -0.269 1.524 1561
2.158 -0.255 1.443 6632
2.626 -0.311 1.734 5979
2.432 -0.288 1.613 1968
2.285 -0.271 1.522 1647
2.162 -0.256 1.437 7214
2.631 -0.311 1.726 4709
2.363 -0.280 1.561 2385
2.490 -0.295 1.639 878
2.159 -0.256 1.427 5778
2.636 -0.312 1.719 3438
2.367 -0.280 1.554 3028
2.149 -0.254 1.412 4453
2.371 -0.281 1.547 4226
2.667 -0.316 1.727 3447
2.539 -0.301 1.650 865
2.166 -0.256 1.414 6820
2.382 -0.282 1.545 5471
2.685 -0.318 1.728 3851
2.557 -0.303 1.650 1229
2.170 -0.257 1.408 9256
2.386 -0.282 1.538 6590
2.697 -0.319 1.724 2959
2.568 -0.304 1.647 1381
2.187 -0.259 1.410 10655
2.390 -0.283 1.531 7593
2.715 -0.321 1.724 2241
2.566 -0.304 1.636 1488
2.197 -0.260 1.408 12946
2.394 -0.283 1.524 7477
2.726 -0.323 1.721 1494
2.563 -0.303 1.624 1180
2.194 -0.260 1.397 13487
2.398 -0.284 1.517 6898
2.568 -0.304 1.617 883
2.737 -0.324 1.717 771
2.191 -0.259 1.387 14473
2.395 -0.284 1.506 6404
2.565 -0.304 1.606 954
2.722 -0.322 1.697 851
2.202 -0.261 1.385 15440
2.399 -0.284 1.499 5831
2.726 -0.323 1.689 980
2.563 -0.303 1.594 866
2.205 -0.261 1.378 16574
2.403 -0.285 1.492 5259
2.731 -0.323 1.681 856
2.560 -0.303 1.583 751
2.216 -0.262 1.376 14031
2.407 -0.285 1.486 4651
2.226 -0.264 1.373 9847
2.404 -0.285 1.475 4062
2.250 -0.266 1.379 8743
2.415 -0.286 1.472 3574
2.254 -0.267 1.372 12346
2.425 -0.287 1.469 2601
2.257 -0.267 1.366 15949
2.429 -0.288 1.462 2097
2.261 -0.268 1.359 15314
2.433 -0.288 1.455 1514
2.271 -0.269 1.357 13583
2.437 -0.289 1.448 931
2.275 -0.269 1.350 10782
2.271 -0.269 1.340 11976
2.275 -0.269 1.333 14778
2.129 -0.252 1.255 754
2.292 -0.271 1.334 15783
2.303 -0.273 1.331 17863
2.306 -0.273 1.325 17436
2.310 -0.273 1.318 14103
2.299 -0.272 1.304 7982
2.295 -0.272 1.294 5695
2.306 -0.273 1.291 7420
2.323 -0.275 1.291 9413
2.333 -0.276 1.288 10204
2.344 -0.277 1.285 8901
2.319 -0.275 1.264 8379
2.453 -0.290 1.331 1644
2.322 -0.275 1.258 9710
2.456 -0.291 1.324 2100
2.332 -0.276 1.255 10455
2.467 -0.292 1.320 2778
2.385 -0.282 1.272 10835
2.520 -0.298 1.337 1073
2.388 -0.283 1.265 13153
2.523 -0.299 1.330 1304
2.399 -0.284 1.262 15903
2.534 -0.300 1.326 1486
2.264 -0.268 1.197 775
2.416 -0.286 1.261 16848
2.551 -0.302 1.326 2063
2.281 -0.270 1.197 1141
2.434 -0.288 1.261 15676
2.569 -0.304 1.325 1652
2.299 -0.272 1.197 1560
2.437 -0.289 1.254 16479
2.572 -0.305 1.318 2698
2.302 -0.272 1.191 875
2.447 -0.290 1.251 12454
2.583 -0.306 1.314 3022
2.479 -0.294 1.257 9204
2.615 -0.310 1.319 1923
2.343 -0.277 1.194 1061
2.490 -0.295 1.253 9263
2.626 -0.311 1.315 1948
2.354 -0.279 1.191 1165
2.500 -0.296 1.249 7929
2.636 -0.312 1.311 2163
2.364 -0.280 1.187 1386
2.496 -0.296 1.239 9533
2.632 -0.312 1.300 4096
2.360 -0.279 1.177 1343
2.499 -0.296 1.231 14651
2.636 -0.312 1.292 3739
2.363 -0.280 1.170 1279
2.502 -0.296 1.224 16064
2.639 -0.312 1.285 2990
2.366 -0.280 1.164 1374
2.505 -0.297 1.217 9980
2.642 -0.313 1.277 3389
2.369 -0.280 1.157 1192
2.602 -0.308 1.251 7076
2.465 -0.292 1.191 2141
3.504 -0.415 1.644 978
3.692 -0.437 1.726 794
2.598 -0.308 1.240 8129
2.461 -0.291 1.181 1811
3.508 -0.415 1.634 1373
2.736 -0.324 1.300 947
2.602 -0.308 1.233 10073
2.464 -0.292 1.174 1578
3.513 -0.416 1.624 1492
3.766 -0.446 1.733 1168
2.605 -0.308 1.225 8719
2.438 -0.289 1.154 1789
3.517 -0.416 1.614 1696
3.770 -0.446 1.722 1329
2.615 -0.310 1.221 6972
2.434 -0.288 1.144 2468
3.521 -0.417 1.604 1796
3.724 -0.441 1.689 1652
2.618 -0.310 1.213 6244
3.736 -0.442 1.682 3540
3.518 -0.417 1.590 2503
2.437 -0.288 1.137 2210
3.726 -0.441 1.665 5713
2.607 -0.309 1.200 4445
3.530 -0.418 1.583 3005
2.745 -0.325 1.257 1998
3.723 -0.441 1.651 6269
2.595 -0.307 1.186 4451
3.534 -0.418 1.573 2840
2.734 -0.324 1.243 2195
3.764 -0.446 1.655 6776
2.620 -0.310 1.188 4634
3.625 -0.429 1.599 3363
2.759 -0.327 1.244 1389
3.768 -0.446 1.644 8193
2.645 -0.313 1.189 4635
3.630 -0.430 1.588 3290
2.784 -0.330 1.245 926
3.707 -0.439 1.607 11242
2.699 -0.320 1.202 5490
3.561 -0.422 1.548 3414
2.560 -0.303 1.146 1638
3.718 -0.440 1.599 12409
2.710 -0.321 1.197 4679
3.572 -0.423 1.541 2869
2.571 -0.304 1.142 2364
3.730 -0.442 1.591 11466
2.625 -0.311 1.154 4017
3.591 -0.425 1.536 2243
2.764 -0.327 1.209 1883
3.719 -0.440 1.575 11815
2.628 -0.311 1.147 4126
2.767 -0.328 1.201 1195
3.580 -0.424 1.520 1087
3.716 -0.440 1.561 11972
2.631 -0.311 1.139 2957
3.856 -0.456 1.615 1252
3.577 -0.423 1.507 823
3.698 -0.438 1.542 8729
2.634 -0.312 1.132 1693
3.838 -0.454 1.595 1001
3.658 -0.433 1.514 10626
2.636 -0.312 1.124 1594
3.798 -0.450 1.567 1045
3.662 -0.434 1.504 18255
2.639 -0.312 1.117 1752
3.802 -0.450 1.556 1425
3.674 -0.435 1.496 27132
3.814 -0.451 1.548 1561
2.635 -0.312 1.106 1333
3.534 -0.418 1.443 1134
3.677 -0.435 1.485 29956
3.832 -0.454 1.543 1182
3.537 -0.419 1.433 1029
2.711 -0.321 1.126 927
3.681 -0.436 1.474 24220
3.859 -0.457 1.540 1041
2.722 -0.322 1.121 904
3.693 -0.437 1.466 16178
3.689 -0.437 1.453 12507
3.693 -0.437 1.442 11018
3.704 -0.439 1.434 9556
3.708 -0.439 1.424 15964
3.711 -0.439 1.413 25082
3.715 -0.440 1.402 24031
3.726 -0.441 1.394 14971
3.745 -0.443 1.388 10126
3.748 -0.444 1.377 10303
3.744 -0.443 1.364 17838
3.748 -0.444 1.353 25583
3.890 -0.461 1.400 780
3.759 -0.445 1.345 23350
3.770 -0.446 1.336 16929
3.766 -0.446 1.323 10288
3.762 -0.445 1.310 11044
3.765 -0.446 1.299 13173
3.769 -0.446 1.288 11132
3.779 -0.447 1.279 10194
3.790 -0.449 1.270 8796
3.793 -0.449 1.259 7052
3.804 -0.450 1.251 6406
3.800 -0.450 1.237 6699
3.803 -0.450 1.226 10159
3.814 -0.452 1.218 18228
4.071 -0.482 1.291 771
3.817 -0.452 1.207 19913
4.074 -0.482 1.280 1089
3.820 -0.452 1.195 15709
4.093 -0.485 1.272 876
3.838 -0.454 1.189 13976
3.841 -0.455 1.177 12437
3.852 -0.456 1.168 14534
3.855 -0.456 1.157 13138
3.858 -0.457 1.146 8295
3.899 -0.462 1.145 9427
3.902 -0.462 1.134 13073
3.897 -0.461 1.120 10807
3.884 -0.460 1.105 6824
3.872 -0.458 1.090 4283
3.920 -0.464 1.090 4643
3.938 -0.466 1.082 9327
3.949 -0.468 1.073 11888
4.102 -0.486 1.110 1001
3.967 -0.470 1.065 8556
3.821 -0.452 1.031 1233
4.112 -0.487 1.099 801
3.962 -0.469 1.052 6075
3.816 -0.452 1.018 825
3.972 -0.470 1.042 7709
3.990 -0.472 1.034 12160
3.985 -0.472 1.021 12804
3.988 -0.472 1.009 10558
3.990 -0.472 0.998 9131
4.000 -0.474 0.988 7870
4.010 -0.475 0.978 5671
4.020 -0.476 0.968 5375
4.031 -0.477 0.958 9411
4.033 -0.477 0.946 12955
4.028 -0.477 0.933 9878
4.030 -0.477 0.921 9745
4.176 -0.494 0.950 868
4.047 -0.479 0.912 10998
4.194 -0.497 0.941 771
4.065 -0.481 0.903 9048
3.918 -0.464 0.875 1120
4.075 -0.482 0.893 7357
3.928 -0.465 0.866 985
4.108 -0.486 0.887 6886
3.961 -0.469 0.860 1783
4.110 -0.487 0.875 7583
3.963 -0.469 0.848 1394
4.257 -0.504 0.902 1146
4.590 -0.543 0.962 794
4.112 -0.487 0.863 10060
4.260 -0.504 0.889 2077
4.600 -0.545 0.950 1812
3.965 -0.469 0.837 764
4.115 -0.487 0.851 11277
4.595 -0.544 0.935 3599
4.262 -0.505 0.877 2843
4.117 -0.487 0.839 8472
4.597 -0.544 0.922 4662
4.264 -0.505 0.865 3243
4.204 -0.498 0.842 6934
4.607 -0.545 0.910 3668
4.057 -0.480 0.817 2634
4.214 -0.499 0.831 7293
4.609 -0.546 0.897 2860
4.066 -0.481 0.806 1069
4.223 -0.500 0.820 8473
4.611 -0.546 0.883 3977
4.076 -0.483 0.796 1446
4.225 -0.500 0.808 7089
4.614 -0.546 0.870 5920
4.078 -0.483 0.784 1296
4.616 -0.546 0.856 7316
4.227 -0.500 0.795 4716
4.080 -0.483 0.772 903
4.625 -0.548 0.844 6526
4.268 -0.505 0.789 2830
4.120 -0.488 0.766 1418
4.628 -0.548 0.831 3682
4.223 -0.500 0.770 2120
4.775 -0.565 0.853 1083
4.661 -0.552 0.822 3083
4.233 -0.501 0.759 1240
4.808 -0.569 0.844 799
4.631 -0.548 0.804 4534
4.779 -0.566 0.825 1578
4.626 -0.548 0.789 5239
4.773 -0.565 0.810 2454
4.221 -0.500 0.732 757
4.627 -0.548 0.776 4803
4.775 -0.565 0.797 3698
4.978 -0.589 0.825 964
4.207 -0.498 0.717 923
4.715 -0.558 0.774 4545
4.972 -0.589 0.809 1490
4.764 -0.564 0.767 4399
4.615 -0.546 0.747 3374
4.982 -0.590 0.796 2125
4.773 -0.565 0.754 4404
4.625 -0.548 0.735 3059
4.991 -0.591 0.782 2096
4.783 -0.566 0.741 5390
4.978 -0.589 0.766 2006
4.635 -0.549 0.722 1948
6.031 -0.714 0.900 779
4.800 -0.568 0.729 5276
4.980 -0.590 0.751 3361
4.652 -0.551 0.711 1428
6.041 -0.715 0.883 823
4.825 -0.571 0.718 4664
4.989 -0.591 0.738 4451
6.043 -0.715 0.866 896
4.661 -0.552 0.698 782
4.819 -0.571 0.703 3738
4.999 -0.592 0.724 3320
6.037 -0.715 0.847 987
4.828 -0.572 0.690 2300
5.000 -0.592 0.710 1647
6.039 -0.715 0.830 1225
4.830 -0.572 0.676 1850
5.057 -0.599 0.701 1725
6.041 -0.715 0.812 1572
6.197 -0.734 0.830 949
4.832 -0.572 0.662 2390
6.168 -0.730 0.808 2167
4.980 -0.590 0.678 2070
6.020 -0.713 0.792 1242
6.170 -0.730 0.790 2557
4.841 -0.573 0.649 2462
4.997 -0.592 0.665 2227
6.631 -0.785 0.839 1542
6.610 -0.783 0.817 2824
6.070 -0.719 0.762 2407
5.022 -0.595 0.653 2382
4.842 -0.573 0.634 2259
6.080 -0.720 0.745 3096
6.596 -0.781 0.797 2671
4.836 -0.573 0.620 1947
5.024 -0.595 0.638 1803
6.066 -0.718 0.725 3253
6.637 -0.786 0.781 1981
4.829 -0.572 0.605 1302
5.025 -0.595 0.624 1190
6.060 -0.717 0.707 2536
6.647 -0.787 0.763 2367
6.208 -0.735 0.721 1322
5.026 -0.595 0.609 1239
6.656 -0.788 0.744 2539
6.202 -0.734 0.702 1955
6.046 -0.716 0.688 1862
5.028 -0.595 0.595 956
6.635 -0.785 0.722 3114
6.039 -0.715 0.670 1796
6.188 -0.733 0.683 1635
4.849 -0.574 0.564 834
6.621 -0.784 0.702 3332
6.041 -0.715 0.652 1849
6.190 -0.733 0.665 1200
4.850 -0.574 0.550 904
6.583 -0.779 0.679 3456
6.050 -0.716 0.635 1880
6.732 -0.797 0.691 960
6.246 -0.739 0.651 860
6.545 -0.775 0.657 3611
6.702 -0.793 0.669 1853
6.044 -0.716 0.617 1487
6.248 -0.740 0.633 1007
6.539 -0.774 0.637 4068
6.696 -0.793 0.649 2869
6.037 -0.715 0.599 831
6.257 -0.741 0.615 814
6.611 -0.783 0.623 4720
6.760 -0.800 0.634 1720
6.652 -0.787 0.607 4989
6.503 -0.770 0.596 1708
6.801 -0.805 0.617 1357
6.653 -0.788 0.587 5191
6.802 -0.805 0.597 1864
6.504 -0.770 0.577 1466
6.654 -0.788 0.568 4827
6.803 -0.805 0.578 2604
6.505 -0.770 0.558 1124
6.781 -0.803 0.556 4190
6.632 -0.785 0.547 3172
6.930 -0.820 0.566 958
6.483 -0.768 0.538 782
6.774 -0.802 0.536 4531
6.578 -0.779 0.524 2572
6.923 -0.820 0.545 985
6.783 -0.803 0.517 3906
6.579 -0.779 0.505 2391
7.027 -0.832 0.530 961
6.667 -0.789 0.491 2937
6.816 -0.807 0.499 2532
7.020 -0.831 0.510 1026
6.660 -0.788 0.471 3325
6.809 -0.806 0.478 2504
7.021 -0.831 0.489 1145
6.810 -0.806 0.459 3159
6.661 -0.789 0.451 2909
6.959 -0.824 0.466 1418
9.229 -1.093 0.573 843
6.803 -0.805 0.438 2941
6.654 -0.788 0.432 2025
6.952 -0.823 0.445 1906
9.214 -1.091 0.545 1143
6.922 -0.819 0.423 3402
6.772 -0.802 0.417 2054
9.223 -1.092 0.519 1522
6.623 -0.784 0.411 755
6.922 -0.820 0.403 3622
9.232 -1.093 0.492 2210
6.773 -0.802 0.397 1295
6.923 -0.820 0.383 2758
9.233 -1.093 0.465 2531
6.742 -0.798 0.377 993
9.234 -1.093 0.438 2218
6.916 -0.819 0.363 1392
6.751 -0.799 0.357 995
10.043 -1.189 0.464 750
9.219 -1.091 0.411 1959
10.044 -1.189 0.435 1103
6.767 -0.801 0.338 1100
7.026 -0.832 0.346 1062
9.212 -1.091 0.383 2009
10.037 -1.188 0.405 1285
7.027 -0.832 0.325 876
6.776 -0.802 0.318 853
9.213 -1.091 0.356 2027
10.038 -1.188 0.376 1272
11.531 -1.365 0.411 906
9.221 -1.092 0.330 1698
10.046 -1.189 0.347 1177
11.225 -1.329 0.371 1043
11.540 -1.366 0.378 836
9.261 -1.096 0.303 1285
10.055 -1.190 0.318 1097
11.218 -1.328 0.338 1078
12.185 -1.443 0.356 888
11.226 -1.329 0.306 1266
9.246 -1.095 0.276 1013
10.047 -1.190 0.288 1010
11.046 -1.308 0.303 998
11.227 -1.329 0.273 1466
11.054 -1.309 0.271 1153
10.040 -1.189 0.259 944
12.194 -1.444 0.284 906
11.227 -1.329 0.240 1292
11.054 -1.309 0.238 1101
12.194 -1.444 0.249 909
10.048 -1.190 0.229 754
11.133 -1.318 0.207 1018
12.202 -1.445 0.213 816
11.110 -1.315 0.174 812
12.391 -1.467 0.033 841
12.202 -1.445 0.034 822
12.383 -1.466 -0.003 987
12.202 -1.445 -0.001 891
12.366 -1.464 -0.039 840
12.209 -1.445 -0.037 785
11.227 -1.329 -0.023 752
12.319 -1.458 -0.075 954
11.226 -1.329 -0.056 775
12.326 -1.459 -0.111 1374
12.333 -1.460 -0.147 1811
12.324 -1.459 -0.183 1811
12.323 -1.459 -0.219 1821
12.314 -1.458 -0.255 1461
12.313 -1.458 -0.291 1105
12.312 -1.458 -0.327 876
13.917 -1.648 -1.413 826
14.144 -1.675 -1.439 786
2.252 -0.279 1.727 7630
2.373 -0.294 1.814 2058
2.257 -0.280 1.720 15261
2.378 -0.295 1.807 5276
2.135 -0.265 1.633 1066
1.822 -0.226 1.408 1038
2.261 -0.280 1.714 15261
2.383 -0.295 1.801 6435
2.140 -0.265 1.627 1066
1.825 -0.226 1.402 918
2.266 -0.281 1.707 12506
2.388 -0.296 1.794 5822
2.092 -0.259 1.584 1026
1.829 -0.227 1.397 799
2.270 -0.281 1.701 9751
2.393 -0.296 1.787 5209
2.103 -0.261 1.583 1391
2.372 -0.294 1.762 8361
2.249 -0.279 1.676 4583
2.114 -0.262 1.581 1284
2.494 -0.309 1.848 1100
2.383 -0.295 1.760 10664
2.260 -0.280 1.674 2866
2.118 -0.262 1.575 1187
2.506 -0.310 1.845 1128
2.388 -0.296 1.753 10664
2.265 -0.281 1.667 2951
2.511 -0.311 1.838 1146
2.057 -0.255 1.524 1141
2.392 -0.296 1.746 11524
2.269 -0.281 1.661 2425
2.055 -0.255 1.514 1626
2.516 -0.312 1.831 1255
2.403 -0.298 1.743 12455
2.059 -0.255 1.508 1940
2.280 -0.282 1.659 1865
2.527 -0.313 1.828 1414
2.408 -0.298 1.736 10229
2.063 -0.256 1.502 2278
2.532 -0.314 1.820 1947
2.186 -0.271 1.586 1884
2.400 -0.297 1.721 8246
2.524 -0.313 1.804 3363
2.191 -0.271 1.580 2506
2.067 -0.256 1.496 2303
2.424 -0.300 1.727 8749
2.097 -0.260 1.508 3067
2.548 -0.316 1.810 2783
2.221 -0.275 1.591 2091
2.435 -0.302 1.724 9648
2.101 -0.260 1.502 4237
2.559 -0.317 1.807 3056
2.225 -0.276 1.585 2468
2.453 -0.304 1.726 7470
2.105 -0.261 1.496 4909
2.577 -0.319 1.809 2187
2.229 -0.276 1.578 1999
2.109 -0.261 1.490 5582
2.457 -0.304 1.719 5371
2.582 -0.320 1.801 1813
2.234 -0.277 1.572 1530
2.112 -0.262 1.484 5606
2.455 -0.304 1.708 5022
2.244 -0.278 1.570 1694
2.580 -0.320 1.789 1554
2.123 -0.263 1.482 5690
2.447 -0.303 1.692 3155
2.572 -0.319 1.773 1928
2.248 -0.279 1.563 1869
2.114 -0.262 1.467 5666
2.411 -0.299 1.659 3198
2.537 -0.314 1.740 2768
2.253 -0.279 1.557 2289
2.104 -0.261 1.453 6453
2.422 -0.300 1.657 3952
2.548 -0.316 1.737 3092
2.230 -0.276 1.533 3084
2.108 -0.261 1.447 6363
2.427 -0.301 1.650 4715
2.553 -0.316 1.730 3445
2.234 -0.277 1.527 2871
2.118 -0.262 1.445 6281
2.424 -0.300 1.638 4247
2.604 -0.323 1.752 3173
2.258 -0.280 1.533 2503
2.196 -0.272 1.485 4526
2.422 -0.300 1.627 3963
2.615 -0.324 1.749 3830
2.069 -0.256 1.405 1713
2.219 -0.275 1.491 5825
2.620 -0.325 1.741 4258
2.433 -0.301 1.624 2871
2.093 -0.259 1.412 1455
2.223 -0.275 1.485 5909
2.625 -0.325 1.734 4687
2.451 -0.304 1.626 1897
2.096 -0.260 1.406 1827
2.227 -0.276 1.478 5397
2.629 -0.326 1.726 3757
2.100 -0.260 1.400 2200
2.361 -0.293 1.561 1963
2.238 -0.277 1.476 4082
2.110 -0.261 1.398 2994
2.634 -0.326 1.719 2827
2.365 -0.293 1.554 2518
2.134 -0.264 1.404 4678
2.369 -0.294 1.547 3513
2.652 -0.329 1.719 2624
2.171 -0.269 1.418 5566
2.380 -0.295 1.545 4562
2.670 -0.331 1.720 2583
2.542 -0.315 1.642 777
2.182 -0.270 1.416 7924
2.384 -0.295 1.538 5563
2.681 -0.332 1.716 1912
2.553 -0.316 1.639 1053
2.192 -0.272 1.414 9938
2.388 -0.296 1.531 6490
2.706 -0.335 1.720 1353
2.571 -0.318 1.640 1232
2.203 -0.273 1.412 12329
2.399 -0.297 1.528 6426
2.568 -0.318 1.628 990
2.074 -0.257 1.335 866
2.193 -0.272 1.397 14750
2.396 -0.297 1.517 5971
2.573 -0.319 1.621 753
2.190 -0.271 1.387 18640
2.394 -0.297 1.506 5561
2.020 -0.250 1.288 863
2.577 -0.319 1.614 775
2.200 -0.273 1.385 20283
2.398 -0.297 1.499 4976
2.016 -0.250 1.278 935
2.204 -0.273 1.378 22247
2.401 -0.297 1.492 4392
2.020 -0.250 1.272 863
2.207 -0.273 1.372 19074
2.405 -0.298 1.486 3742
2.037 -0.252 1.274 856
2.218 -0.275 1.370 12804
2.402 -0.298 1.475 3118
2.228 -0.276 1.367 9715
2.413 -0.299 1.472 2707
2.245 -0.278 1.368 13576
2.424 -0.300 1.469 1912
2.249 -0.279 1.362 17649
2.428 -0.301 1.462 1523
2.118 -0.262 1.289 840
2.259 -0.280 1.359 18243
2.432 -0.301 1.455 1086
2.129 -0.264 1.287 815
2.263 -0.280 1.353 17529
2.394 -0.297 1.425 781
2.266 -0.281 1.346 14999
2.270 -0.281 1.340 13552
2.266 -0.281 1.330 13374
2.284 -0.283 1.330 12364
2.301 -0.285 1.331 12950
2.169 -0.269 1.261 828
2.305 -0.285 1.325 12699
2.172 -0.269 1.255 966
2.301 -0.285 1.314 10355
2.290 -0.284 1.301 6812
2.280 -0.282 1.287 5851
2.297 -0.285 1.287 7697
2.322 -0.288 1.291 10642
2.325 -0.288 1.285 12278
2.328 -0.288 1.278 11125
2.317 -0.287 1.264 10161
2.451 -0.304 1.331 1092
2.321 -0.287 1.258 10091
2.455 -0.304 1.324 1354
2.338 -0.290 1.258 9493
2.472 -0.306 1.324 1588
2.384 -0.295 1.272 10827
2.387 -0.296 1.265 13398
2.522 -0.312 1.330 767
2.397 -0.297 1.262 16198
2.401 -0.297 1.255 15292
2.535 -0.314 1.319 1426
2.266 -0.281 1.191 900
2.439 -0.302 1.265 13985
2.304 -0.285 1.201 1371
2.624 -0.325 1.352 968
2.450 -0.303 1.261 16321
2.585 -0.320 1.324 1331
2.314 -0.287 1.198 1154
2.453 -0.304 1.254 14223
2.588 -0.321 1.317 1785
2.317 -0.287 1.191 1355
2.478 -0.307 1.257 13351
2.342 -0.290 1.194 2170
2.613 -0.324 1.319 1268
2.488 -0.308 1.253 11247
2.352 -0.291 1.191 2413
2.624 -0.325 1.315 1282
2.498 -0.309 1.249 9159
2.362 -0.293 1.187 1924
2.634 -0.326 1.311 1572
2.494 -0.309 1.239 11725
2.631 -0.326 1.300 3201
2.315 -0.287 1.158 1722
2.498 -0.309 1.231 18888
2.634 -0.326 1.292 2952
2.318 -0.287 1.151 1757
2.508 -0.311 1.227 21268
2.371 -0.294 1.167 1927
2.644 -0.328 1.288 1629
2.511 -0.311 1.220 14224
2.648 -0.328 1.280 1680
2.374 -0.294 1.160 1673
2.521 -0.312 1.216 8108
2.658 -0.329 1.276 1508
2.384 -0.295 1.156 1379
3.494 -0.433 1.641 975
2.589 -0.321 1.237 8297
3.499 -0.433 1.631 1383
2.402 -0.298 1.156 1244
2.727 -0.338 1.296 954
2.593 -0.321 1.229 9540
3.510 -0.435 1.624 1507
2.426 -0.301 1.158 1212
2.730 -0.338 1.289 1146
2.596 -0.322 1.222 10731
3.515 -0.435 1.614 2054
2.458 -0.305 1.163 1453
2.733 -0.339 1.281 1364
2.606 -0.323 1.218 11244
3.504 -0.434 1.598 2365
2.468 -0.306 1.159 1823
2.744 -0.340 1.276 1377
2.609 -0.323 1.210 10325
3.509 -0.435 1.587 3160
3.697 -0.458 1.666 2350
2.471 -0.306 1.152 2152
2.663 -0.330 1.224 8095
3.702 -0.459 1.656 4873
2.525 -0.313 1.166 3653
3.520 -0.436 1.580 3513
2.681 -0.332 1.222 8602
3.713 -0.460 1.648 5127
3.539 -0.438 1.576 3090
2.543 -0.315 1.165 2622
2.691 -0.333 1.217 8106
3.725 -0.461 1.640 4113
3.557 -0.441 1.572 2997
2.553 -0.316 1.161 1592
2.672 -0.331 1.201 7382
3.722 -0.461 1.626 5510
3.569 -0.442 1.564 3316
3.704 -0.459 1.607 8452
2.661 -0.330 1.187 7321
3.558 -0.441 1.548 3233
3.843 -0.476 1.663 954
3.716 -0.460 1.599 9044
2.657 -0.329 1.177 7870
3.563 -0.441 1.538 2633
2.795 -0.346 1.232 934
3.720 -0.461 1.588 11061
2.652 -0.329 1.166 6503
3.581 -0.444 1.533 1990
2.791 -0.346 1.221 1039
3.717 -0.460 1.575 14505
2.641 -0.327 1.153 4598
3.578 -0.443 1.520 1278
2.780 -0.344 1.207 758
3.714 -0.460 1.561 14879
2.644 -0.327 1.145 3512
3.575 -0.443 1.507 994
3.711 -0.460 1.547 10289
2.661 -0.330 1.143 2696
3.571 -0.442 1.494 832
3.649 -0.452 1.511 7679
2.671 -0.331 1.138 2186
3.788 -0.469 1.565 1344
3.652 -0.452 1.501 13135
3.792 -0.470 1.554 1375
2.696 -0.334 1.139 1225
3.664 -0.454 1.493 20692
3.804 -0.471 1.545 1254
3.524 -0.437 1.440 894
3.668 -0.454 1.482 22768
3.808 -0.472 1.534 884
3.528 -0.437 1.430 849
3.672 -0.455 1.472 16563
2.705 -0.335 1.115 973
3.675 -0.455 1.461 8919
2.715 -0.336 1.110 816
3.679 -0.456 1.450 6068
3.683 -0.456 1.440 5179
3.687 -0.457 1.429 7024
3.698 -0.458 1.421 14411
3.876 -0.480 1.484 762
3.709 -0.459 1.413 22539
3.705 -0.459 1.400 22911
3.716 -0.460 1.391 14180
3.727 -0.462 1.383 9201
3.738 -0.463 1.375 9834
3.742 -0.464 1.364 18109
3.746 -0.464 1.353 25950
3.749 -0.464 1.342 19529
3.753 -0.465 1.331 10922
3.748 -0.464 1.318 7184
3.752 -0.465 1.307 8481
3.763 -0.466 1.299 10894
3.759 -0.466 1.285 11785
3.769 -0.467 1.277 12694
3.773 -0.467 1.266 12049
3.916 -0.485 1.309 772
3.783 -0.469 1.257 8194
3.787 -0.469 1.246 6595
3.797 -0.470 1.237 12249
3.801 -0.471 1.226 18095
3.944 -0.489 1.268 941
3.804 -0.471 1.215 22774
4.068 -0.504 1.291 997
3.807 -0.472 1.204 22384
4.064 -0.503 1.277 1173
3.810 -0.472 1.193 17020
4.082 -0.506 1.270 885
3.813 -0.472 1.182 11228
3.831 -0.475 1.175 7610
3.842 -0.476 1.166 12688
3.845 -0.476 1.155 17665
4.004 -0.496 1.198 1031
4.148 -0.514 1.237 875
3.863 -0.479 1.148 16111
4.015 -0.497 1.188 1257
3.888 -0.482 1.143 16012
4.033 -0.500 1.181 839
3.891 -0.482 1.132 17181
4.150 -0.514 1.198 843
3.894 -0.482 1.120 14693
4.153 -0.514 1.186 872
3.882 -0.481 1.105 9806
3.892 -0.482 1.096 9077
3.887 -0.482 1.083 8408
3.928 -0.487 1.081 7749
3.939 -0.488 1.071 11621
4.091 -0.507 1.108 766
3.949 -0.489 1.061 11650
3.952 -0.490 1.050 10745
3.939 -0.488 1.035 6895
3.972 -0.492 1.030 7070
3.982 -0.493 1.021 8918
3.837 -0.475 0.988 1224
3.985 -0.494 1.009 9773
3.839 -0.476 0.977 789
3.995 -0.495 0.999 11662
3.998 -0.495 0.988 10489
4.008 -0.496 0.978 9154
4.010 -0.497 0.966 7040
4.020 -0.498 0.956 6330
4.023 -0.498 0.944 9157
4.017 -0.498 0.931 10899
4.027 -0.499 0.921 12042
4.037 -0.500 0.911 10343
4.063 -0.503 0.903 8687
4.065 -0.504 0.892 7885
4.113 -0.510 0.888 7163
3.966 -0.491 0.861 1006
4.115 -0.510 0.876 7883
4.102 -0.508 0.862 9286
4.249 -0.526 0.888 1996
4.589 -0.569 0.949 1139
4.104 -0.508 0.850 9239
4.251 -0.527 0.876 2602
4.592 -0.569 0.935 2238
4.106 -0.509 0.838 7845
4.253 -0.527 0.863 3430
4.586 -0.568 0.921 2868
4.193 -0.519 0.840 6574
4.046 -0.501 0.816 2760
4.589 -0.568 0.907 2607
4.203 -0.521 0.830 8187
4.583 -0.568 0.893 2696
4.056 -0.502 0.805 1663
4.213 -0.522 0.819 6806
4.593 -0.569 0.881 2907
4.066 -0.504 0.795 1912
4.223 -0.523 0.808 4321
4.611 -0.571 0.870 3565
4.075 -0.505 0.784 1979
4.613 -0.571 0.856 4642
4.256 -0.527 0.800 3850
4.108 -0.509 0.777 1760
4.622 -0.573 0.844 4978
4.250 -0.526 0.787 3149
4.102 -0.508 0.764 1269
4.632 -0.574 0.832 4400
4.220 -0.523 0.770 3013
4.780 -0.592 0.854 874
4.626 -0.573 0.817 3029
4.222 -0.523 0.757 2539
4.774 -0.591 0.839 1177
4.628 -0.573 0.804 3361
4.232 -0.524 0.746 1713
4.776 -0.592 0.825 866
4.623 -0.573 0.789 5155
4.770 -0.591 0.810 1711
4.241 -0.525 0.735 1649
4.624 -0.573 0.776 5292
4.772 -0.591 0.797 2882
4.243 -0.526 0.723 1559
4.720 -0.585 0.775 4621
4.237 -0.525 0.709 1077
4.969 -0.616 0.809 996
4.572 -0.566 0.755 980
4.636 -0.574 0.750 4856
4.784 -0.593 0.770 4026
4.971 -0.616 0.795 1379
4.762 -0.590 0.753 5237
4.614 -0.572 0.734 3601
4.980 -0.617 0.781 1306
4.772 -0.591 0.740 5627
4.624 -0.573 0.721 2809
4.967 -0.615 0.765 1705
4.789 -0.593 0.728 4579
4.976 -0.616 0.751 3351
4.641 -0.575 0.710 2374
4.978 -0.617 0.737 4289
4.822 -0.597 0.718 3719
4.643 -0.575 0.696 1699
4.995 -0.619 0.724 3111
4.824 -0.598 0.704 2836
4.652 -0.576 0.684 983
5.020 -0.622 0.712 1850
4.810 -0.596 0.688 1559
6.027 -0.747 0.829 963
4.661 -0.577 0.671 875
5.053 -0.626 0.701 1974
4.803 -0.595 0.673 1868
6.021 -0.746 0.810 1448
6.170 -0.764 0.827 1018
4.977 -0.617 0.678 2643
6.156 -0.763 0.807 2298
4.813 -0.596 0.660 2027
6.008 -0.744 0.791 1468
4.869 -0.603 0.652 2664
6.158 -0.763 0.789 2646
5.017 -0.622 0.668 2161
6.010 -0.744 0.773 1557
5.003 -0.620 0.651 2367
6.598 -0.817 0.817 2217
6.129 -0.759 0.768 2200
4.855 -0.601 0.636 2172
6.084 -0.754 0.745 2516
6.592 -0.817 0.797 2122
4.997 -0.619 0.636 1682
4.841 -0.600 0.620 1512
6.062 -0.751 0.725 2647
6.586 -0.816 0.777 1332
4.811 -0.596 0.603 1174
5.022 -0.622 0.624 1044
6.048 -0.749 0.706 2087
6.642 -0.823 0.763 1356
5.023 -0.622 0.609 1285
6.197 -0.768 0.720 1172
6.034 -0.747 0.687 1824
6.206 -0.769 0.703 1633
6.636 -0.822 0.742 1533
5.025 -0.622 0.595 1092
6.622 -0.820 0.722 2273
6.035 -0.748 0.670 2250
6.184 -0.766 0.683 1441
6.585 -0.816 0.699 2983
6.037 -0.748 0.652 2553
6.186 -0.766 0.665 1326
6.571 -0.814 0.678 3689
6.038 -0.748 0.634 2597
6.250 -0.774 0.652 1134
6.533 -0.809 0.656 4687
6.040 -0.748 0.617 2105
6.690 -0.829 0.669 1464
6.251 -0.774 0.634 1391
6.535 -0.810 0.637 5385
6.684 -0.828 0.649 2215
6.033 -0.747 0.599 1256
6.261 -0.776 0.616 1197
6.528 -0.809 0.617 5108
6.677 -0.827 0.628 3396
6.561 -0.813 0.601 4836
6.710 -0.831 0.611 2413
6.562 -0.813 0.581 5310
6.711 -0.831 0.592 1598
6.650 -0.824 0.568 4733
6.501 -0.805 0.558 1973
6.799 -0.842 0.578 1670
6.580 -0.815 0.544 3451
6.769 -0.838 0.556 3054
6.918 -0.857 0.565 853
6.574 -0.814 0.524 3411
6.770 -0.839 0.536 3338
6.919 -0.857 0.545 872
6.575 -0.814 0.505 3304
6.787 -0.841 0.517 2922
6.662 -0.825 0.491 3602
6.811 -0.844 0.499 1894
6.513 -0.807 0.483 1092
7.015 -0.869 0.510 756
6.655 -0.824 0.471 4106
6.804 -0.843 0.478 1383
7.016 -0.869 0.489 930
6.672 -0.827 0.452 3579
6.923 -0.858 0.464 1415
9.223 -1.142 0.573 794
6.688 -0.829 0.433 2915
6.916 -0.857 0.444 2183
9.208 -1.141 0.545 1102
6.909 -0.856 0.423 3144
6.697 -0.830 0.414 1918
9.217 -1.142 0.519 1475
6.910 -0.856 0.403 3321
9.226 -1.143 0.492 2085
6.698 -0.830 0.395 1437
6.911 -0.856 0.383 2511
9.227 -1.143 0.465 2340
6.707 -0.831 0.375 1159
9.220 -1.142 0.438 2059
6.746 -0.836 0.357 1332
6.903 -0.855 0.362 1282
9.213 -1.141 0.411 1891
6.763 -0.838 0.338 1589
7.030 -0.871 0.346 956
10.038 -1.243 0.435 807
9.214 -1.141 0.384 1954
6.763 -0.838 0.318 1244
10.030 -1.243 0.405 983
7.022 -0.870 0.325 803
9.214 -1.141 0.357 1867
10.031 -1.243 0.376 990
9.215 -1.142 0.330 1480
11.202 -1.388 0.371 1059
10.040 -1.244 0.347 919
11.037 -1.367 0.368 913
9.247 -1.146 0.303 1217
11.179 -1.385 0.338 1169
11.030 -1.366 0.335 1123
9.820 -1.217 0.314 931
11.180 -1.385 0.305 1312
11.031 -1.366 0.303 1239
9.247 -1.146 0.276 925
9.829 -1.218 0.285 849
11.047 -1.368 0.271 1498
11.220 -1.390 0.273 1440
9.837 -1.219 0.256 795
10.324 -1.279 0.262 762
11.047 -1.369 0.238 1401
11.212 -1.389 0.240 1335
11.055 -1.370 0.206 1136
11.212 -1.389 0.207 1105
11.063 -1.371 0.174 989
11.212 -1.389 0.174 976
11.071 -1.371 0.141 786
11.157 -1.382 0.043 789
12.383 -1.534 0.033 750
12.374 -1.533 -0.003 903
11.219 -1.390 -0.023 962
11.219 -1.390 -0.056 1015
12.311 -1.525 -0.075 905
14.353 -1.778 -0.110 757
12.318 -1.526 -0.111 1220
11.218 -1.390 -0.089 875
12.317 -1.526 -0.147 1564
11.359 -1.407 -0.125 849
12.316 -1.526 -0.183 1593
11.366 -1.408 -0.158 795
12.315 -1.526 -0.219 1622
11.373 -1.409 -0.192 762
12.306 -1.524 -0.255 1345
12.297 -1.523 -0.291 1110
12.296 -1.523 -0.327 862
14.268 -1.768 -1.032 813
14.265 -1.767 -1.074 813
14.261 -1.767 -1.115 904
14.410 -1.785 -1.128 774
13.976 -1.731 -1.131 1031
14.258 -1.766 -1.157 994
14.406 -1.785 -1.171 865
13.980 -1.732 -1.173 919
14.246 -1.765 -1.198 764
14.328 -1.775 -1.248 808
13.976 -1.731 -1.214 807
14.332 -1.775 -1.291 907
13.972 -1.731 -1.255 762
14.328 -1.775 -1.333 1016
14.323 -1.774 -1.375 1016
14.327 -1.775 -1.418 996
14.346 -1.777 -1.462 1024
13.643 -1.690 -1.384 783
14.174 -1.756 -1.443 766
2.251 -0.291 1.727 6602
2.372 -0.307 1.814 1634
2.085 -0.270 1.607 1042
2.255 -0.292 1.720 13204
2.377 -0.307 1.807 4349
2.089 -0.270 1.601 2084
1.821 -0.235 1.408 934
2.260 -0.292 1.714 13204
2.382 -0.308 1.801 5430
2.093 -0.271 1.595 2084
1.824 -0.236 1.402 811
2.264 -0.293 1.707 10747
2.386 -0.308 1.794 4348
2.097 -0.271 1.589 2590
2.275 -0.294 1.705 8341
2.398 -0.310 1.791 3102
2.102 -0.272 1.583 3097
2.280 -0.295 1.699 5725
2.402 -0.311 1.784 4626
2.106 -0.272 1.577 2709
2.375 -0.307 1.755 7707
2.246 -0.290 1.665 3341
2.097 -0.271 1.561 2341
2.498 -0.323 1.841 1455
2.379 -0.308 1.748 7707
2.257 -0.292 1.663 3327
2.075 -0.268 1.538 2722
2.502 -0.324 1.833 1459
2.391 -0.309 1.746 9157
2.066 -0.267 1.523 3392
2.261 -0.292 1.657 2853
2.514 -0.325 1.831 1428
2.402 -0.310 1.743 10777
2.064 -0.267 1.512 3597
2.278 -0.295 1.659 2396
2.525 -0.326 1.828 1615
2.406 -0.311 1.736 8838
2.068 -0.267 1.506 3817
2.530 -0.327 1.820 2001
2.211 -0.286 1.604 1646
2.398 -0.310 1.721 6960
2.078 -0.269 1.505 3828
2.522 -0.326 1.804 2992
2.202 -0.285 1.589 2019
2.429 -0.314 1.731 7410
2.095 -0.271 1.508 4178
2.553 -0.330 1.815 2317
2.220 -0.287 1.591 1806
2.440 -0.315 1.729 8196
2.099 -0.271 1.502 4673
2.564 -0.331 1.812 2419
2.224 -0.287 1.585 1863
2.451 -0.317 1.726 6792
2.103 -0.272 1.496 5138
2.228 -0.288 1.578 2187
2.576 -0.333 1.809 1951
2.107 -0.272 1.490 5604
2.456 -0.317 1.719 5231
2.232 -0.289 1.572 2510
2.580 -0.334 1.801 1643
2.118 -0.274 1.488 5707
2.460 -0.318 1.712 4944
2.243 -0.290 1.570 2513
2.585 -0.334 1.794 1250
2.122 -0.274 1.482 5912
2.517 -0.325 1.739 3694
2.247 -0.290 1.563 2787
2.392 -0.309 1.658 1827
2.099 -0.271 1.459 8064
2.529 -0.327 1.736 3667
2.403 -0.311 1.655 2861
2.225 -0.288 1.540 2615
2.096 -0.271 1.448 10874
2.533 -0.327 1.729 4261
2.407 -0.311 1.648 3214
2.222 -0.287 1.529 1813
2.100 -0.271 1.442 10447
2.545 -0.329 1.726 4855
2.418 -0.313 1.645 3869
2.226 -0.288 1.523 1945
2.110 -0.273 1.440 10048
2.542 -0.329 1.714 3742
2.416 -0.312 1.634 3352
2.237 -0.289 1.521 1771
2.121 -0.274 1.439 6919
2.420 -0.313 1.627 3137
2.614 -0.338 1.749 2844
2.247 -0.291 1.518 1731
2.145 -0.277 1.445 5194
2.612 -0.338 1.737 2936
2.431 -0.314 1.624 2218
2.271 -0.294 1.524 1778
2.222 -0.287 1.485 5857
2.095 -0.271 1.406 3687
2.616 -0.338 1.730 3032
2.462 -0.318 1.634 1435
2.219 -0.287 1.474 6101
2.092 -0.270 1.396 4422
2.628 -0.340 1.726 2462
2.467 -0.319 1.627 1276
2.116 -0.273 1.402 6473
2.243 -0.290 1.480 4390
2.639 -0.341 1.723 1972
2.370 -0.306 1.558 1575
2.119 -0.274 1.396 8160
2.247 -0.290 1.474 3419
2.375 -0.307 1.551 2274
2.643 -0.342 1.715 1737
2.130 -0.275 1.394 6715
2.379 -0.308 1.545 2974
2.655 -0.343 1.712 1511
2.187 -0.283 1.420 6738
2.383 -0.308 1.538 3698
2.659 -0.344 1.704 1068
2.191 -0.283 1.414 9117
2.387 -0.309 1.531 4439
2.569 -0.332 1.640 801
2.062 -0.267 1.337 765
2.195 -0.284 1.408 11496
2.398 -0.310 1.528 4459
2.066 -0.267 1.331 882
2.191 -0.283 1.397 15879
2.395 -0.310 1.517 4191
2.063 -0.267 1.321 833
2.188 -0.283 1.387 21065
2.399 -0.310 1.510 3926
2.005 -0.259 1.280 995
2.199 -0.284 1.385 23810
2.403 -0.311 1.503 3427
2.008 -0.260 1.274 1221
2.202 -0.285 1.378 26956
2.407 -0.311 1.496 2928
2.018 -0.261 1.272 1096
2.206 -0.285 1.372 23888
2.404 -0.311 1.486 2355
2.022 -0.261 1.266 972
2.216 -0.287 1.370 16366
2.401 -0.310 1.475 1823
2.032 -0.263 1.264 765
2.220 -0.287 1.363 11964
2.412 -0.312 1.472 1559
2.230 -0.288 1.361 15280
2.422 -0.313 1.469 1061
2.072 -0.268 1.272 750
2.241 -0.290 1.358 19010
2.083 -0.269 1.270 957
2.371 -0.307 1.431 856
2.251 -0.291 1.355 20496
2.093 -0.271 1.268 1010
2.382 -0.308 1.428 831
2.261 -0.292 1.353 20930
2.130 -0.275 1.281 942
2.392 -0.309 1.425 777
2.265 -0.293 1.346 19076
2.085 -0.270 1.248 802
2.268 -0.293 1.340 16171
2.137 -0.276 1.269 838
2.265 -0.293 1.330 13405
2.133 -0.276 1.259 881
2.275 -0.294 1.327 10969
2.144 -0.277 1.256 810
2.286 -0.295 1.324 8309
2.296 -0.297 1.321 7915
2.286 -0.295 1.307 7227
2.282 -0.295 1.297 7220
2.285 -0.295 1.290 7482
2.296 -0.297 1.287 8742
2.313 -0.299 1.288 10623
2.323 -0.300 1.285 11992
2.327 -0.301 1.278 10617
2.330 -0.301 1.271 9177
2.333 -0.302 1.265 9113
2.351 -0.304 1.265 9236
2.485 -0.321 1.331 1442
2.368 -0.306 1.265 11421
2.502 -0.323 1.330 1800
2.378 -0.307 1.262 12116
2.513 -0.325 1.327 1629
2.396 -0.310 1.262 14543
2.261 -0.292 1.197 1086
2.530 -0.327 1.326 956
2.427 -0.314 1.268 13491
2.292 -0.296 1.204 2762
2.452 -0.317 1.271 15290
2.317 -0.300 1.208 2519
2.587 -0.334 1.335 853
2.455 -0.317 1.264 19584
2.306 -0.298 1.194 1763
2.590 -0.335 1.328 1256
2.466 -0.319 1.261 19369
2.330 -0.301 1.198 2437
2.601 -0.336 1.324 1460
2.476 -0.320 1.257 18727
2.340 -0.303 1.194 2421
2.612 -0.338 1.319 996
2.479 -0.320 1.250 14679
2.343 -0.303 1.187 1966
2.615 -0.338 1.312 1067
2.489 -0.322 1.246 11758
2.354 -0.304 1.184 1459
2.625 -0.339 1.308 1458
2.493 -0.322 1.239 12960
2.629 -0.340 1.300 2235
2.357 -0.305 1.177 958
2.503 -0.324 1.235 17735
2.639 -0.341 1.296 1975
2.367 -0.306 1.174 1199
2.506 -0.324 1.227 19531
2.643 -0.342 1.288 2078
2.327 -0.301 1.148 1220
2.509 -0.324 1.220 13587
2.646 -0.342 1.280 3211
2.373 -0.307 1.160 881
2.592 -0.335 1.248 13240
2.455 -0.317 1.188 1910
3.485 -0.451 1.638 1106
2.729 -0.353 1.307 883
2.595 -0.335 1.240 12203
2.458 -0.318 1.181 1803
3.489 -0.451 1.628 1575
2.746 -0.355 1.306 928
2.591 -0.335 1.229 11877
2.454 -0.317 1.170 1970
3.486 -0.451 1.615 1663
2.728 -0.353 1.289 911
2.594 -0.335 1.222 14184
3.491 -0.451 1.605 2474
2.457 -0.318 1.163 2426
2.731 -0.353 1.281 1099
2.604 -0.337 1.218 14481
2.467 -0.319 1.159 3166
3.488 -0.451 1.591 3050
2.742 -0.354 1.276 1084
2.629 -0.340 1.219 11919
3.492 -0.451 1.581 3907
2.492 -0.322 1.161 3190
3.695 -0.478 1.666 1505
2.640 -0.341 1.215 10097
3.510 -0.454 1.577 4327
3.692 -0.477 1.653 2945
2.502 -0.323 1.157 2039
2.643 -0.342 1.207 7080
3.515 -0.454 1.567 3412
3.689 -0.477 1.639 3342
2.781 -0.359 1.264 1889
2.653 -0.343 1.202 7238
3.722 -0.481 1.640 3482
3.519 -0.455 1.557 2594
2.791 -0.361 1.259 1834
2.656 -0.343 1.195 7232
3.727 -0.482 1.629 5424
3.581 -0.463 1.570 2317
2.795 -0.361 1.251 1720
3.731 -0.482 1.619 6581
2.652 -0.343 1.184 5969
3.534 -0.457 1.539 2149
2.790 -0.361 1.240 1631
2.743 -0.355 1.211 7666
3.735 -0.483 1.608 6032
2.604 -0.337 1.156 3123
3.516 -0.455 1.520 1800
3.718 -0.481 1.588 9722
2.746 -0.355 1.204 8506
2.607 -0.337 1.149 2630
3.520 -0.455 1.510 1720
3.715 -0.480 1.575 15029
2.741 -0.354 1.193 6827
2.602 -0.336 1.138 2025
3.539 -0.457 1.506 1561
3.711 -0.480 1.561 15002
2.744 -0.355 1.185 4676
2.605 -0.337 1.131 1666
3.572 -0.462 1.507 1176
3.693 -0.477 1.542 11686
2.747 -0.355 1.177 3051
2.608 -0.337 1.123 1510
3.833 -0.495 1.595 1035
3.668 -0.474 1.520 9138
2.655 -0.343 1.133 2709
3.808 -0.492 1.573 932
2.794 -0.361 1.186 898
3.657 -0.473 1.504 10601
2.658 -0.344 1.125 2495
3.856 -0.498 1.579 864
3.661 -0.473 1.493 15477
2.646 -0.342 1.112 2047
3.860 -0.499 1.568 1054
3.665 -0.474 1.482 17409
2.575 -0.333 1.077 1507
2.722 -0.352 1.131 1225
3.842 -0.497 1.548 1160
3.662 -0.473 1.469 16002
3.839 -0.496 1.534 973
2.725 -0.352 1.124 953
2.585 -0.334 1.072 825
3.666 -0.474 1.458 17934
3.677 -0.475 1.450 21696
3.839 -0.496 1.509 757
3.681 -0.476 1.440 19175
3.858 -0.499 1.503 1035
3.692 -0.477 1.432 12832
3.869 -0.500 1.495 919
3.695 -0.478 1.421 10407
3.699 -0.478 1.410 14863
3.695 -0.478 1.397 17313
3.699 -0.478 1.386 12135
2.740 -0.354 1.058 764
3.710 -0.480 1.378 9369
3.721 -0.481 1.370 8936
3.732 -0.482 1.361 13068
3.736 -0.483 1.351 19387
3.732 -0.482 1.337 16747
3.735 -0.483 1.326 14608
3.877 -0.501 1.372 754
3.738 -0.483 1.316 11075
3.742 -0.484 1.305 8742
3.760 -0.486 1.299 11564
3.756 -0.486 1.285 14886
3.767 -0.487 1.277 17455
3.910 -0.505 1.321 904
3.770 -0.487 1.266 16564
3.913 -0.506 1.309 1188
3.773 -0.488 1.255 11213
3.784 -0.489 1.246 8870
3.795 -0.491 1.237 14387
3.798 -0.491 1.226 18694
3.941 -0.510 1.268 931
3.809 -0.492 1.218 19990
3.952 -0.511 1.259 836
3.804 -0.492 1.204 17073
4.061 -0.525 1.277 870
3.807 -0.492 1.193 12638
3.818 -0.494 1.184 9253
3.821 -0.494 1.173 8323
3.824 -0.494 1.162 10765
3.842 -0.497 1.155 15169
4.001 -0.517 1.198 988
3.860 -0.499 1.148 15019
4.004 -0.518 1.186 1107
3.878 -0.501 1.141 16712
4.121 -0.533 1.205 928
3.881 -0.502 1.130 22537
4.132 -0.534 1.195 936
3.884 -0.502 1.118 18434
4.036 -0.522 1.157 771
3.887 -0.502 1.107 11217
4.032 -0.521 1.144 782
3.890 -0.503 1.096 11970
4.034 -0.522 1.132 1057
3.900 -0.504 1.086 11793
4.045 -0.523 1.122 789
3.910 -0.506 1.077 10283
3.921 -0.507 1.067 10588
3.931 -0.508 1.058 13801
4.199 -0.543 1.121 879
3.934 -0.509 1.046 14213
4.209 -0.544 1.111 783
3.936 -0.509 1.035 11316
3.947 -0.510 1.025 10422
3.957 -0.512 1.016 8413
3.967 -0.513 1.006 11548
3.977 -0.514 0.996 16530
3.995 -0.516 0.988 14471
4.005 -0.518 0.978 12425
4.000 -0.517 0.964 10407
4.010 -0.518 0.954 10213
4.020 -0.520 0.944 14513
4.014 -0.519 0.931 15872
4.017 -0.519 0.919 12532
4.058 -0.525 0.915 8399
4.060 -0.525 0.903 7516
4.062 -0.525 0.892 7527
4.087 -0.528 0.884 7464
4.120 -0.533 0.878 7355
4.099 -0.530 0.862 6778
4.246 -0.549 0.888 796
4.078 -0.527 0.846 6044
4.589 -0.593 0.935 1534
4.225 -0.546 0.872 1474
4.088 -0.528 0.835 6158
4.591 -0.593 0.922 2827
4.235 -0.547 0.861 1770
4.121 -0.533 0.829 5861
4.593 -0.594 0.909 3775
4.268 -0.552 0.854 1584
4.185 -0.541 0.827 8237
4.595 -0.594 0.895 4485
4.038 -0.522 0.802 2134
4.179 -0.540 0.814 5788
4.598 -0.594 0.882 4125
4.032 -0.521 0.789 1097
4.607 -0.596 0.870 4247
4.103 -0.530 0.789 3001
4.251 -0.550 0.813 2666
4.602 -0.595 0.855 5372
4.237 -0.548 0.798 3455
4.090 -0.529 0.775 1843
4.612 -0.596 0.843 6379
4.231 -0.547 0.784 3082
4.084 -0.528 0.762 1257
4.614 -0.596 0.830 7064
4.233 -0.547 0.772 1391
4.086 -0.528 0.750 1069
4.608 -0.596 0.815 6111
4.103 -0.530 0.740 1061
4.755 -0.615 0.837 915
4.251 -0.549 0.762 835
4.610 -0.596 0.802 4027
4.757 -0.615 0.823 1020
4.237 -0.548 0.747 1018
4.089 -0.529 0.726 765
4.612 -0.596 0.788 3867
4.759 -0.615 0.809 1773
4.239 -0.548 0.735 1591
4.637 -0.599 0.778 4862
4.240 -0.548 0.723 2130
4.785 -0.619 0.799 1428
4.646 -0.601 0.766 4221
4.242 -0.548 0.710 1999
4.794 -0.620 0.786 1485
4.086 -0.528 0.689 770
4.648 -0.601 0.752 4202
4.796 -0.620 0.772 2384
4.244 -0.549 0.698 1410
4.666 -0.603 0.741 4773
4.814 -0.622 0.760 2250
4.245 -0.549 0.686 985
4.667 -0.603 0.727 3768
4.815 -0.623 0.746 2592
4.971 -0.643 0.766 1090
4.739 -0.613 0.722 4098
4.973 -0.643 0.751 2316
4.591 -0.594 0.704 1111
4.741 -0.613 0.708 4264
4.982 -0.644 0.738 2821
4.593 -0.594 0.690 850
4.820 -0.623 0.704 3272
4.664 -0.603 0.685 2861
4.992 -0.645 0.724 2559
4.830 -0.624 0.691 2949
4.674 -0.604 0.673 2848
4.986 -0.645 0.709 2220
6.015 -0.778 0.828 967
4.683 -0.605 0.660 2438
5.003 -0.647 0.696 2160
4.831 -0.625 0.677 2064
6.010 -0.777 0.809 1596
5.059 -0.654 0.687 2863
4.770 -0.617 0.656 1944
6.144 -0.794 0.806 1736
5.996 -0.775 0.790 1575
4.795 -0.620 0.644 2252
6.146 -0.795 0.788 2052
5.061 -0.654 0.673 1911
5.998 -0.775 0.773 1443
4.820 -0.623 0.633 2384
6.125 -0.792 0.768 2369
4.969 -0.642 0.648 1138
6.593 -0.852 0.817 1108
4.806 -0.621 0.617 2493
6.103 -0.789 0.748 2114
6.470 -0.836 0.785 1421
6.251 -0.808 0.763 1029
4.807 -0.621 0.603 2032
6.464 -0.836 0.765 1992
6.089 -0.787 0.728 1660
5.011 -0.648 0.623 1183
6.458 -0.835 0.745 1989
5.004 -0.647 0.608 1405
5.246 -0.678 0.631 1359
6.044 -0.781 0.706 1294
4.849 -0.627 0.579 1454
6.468 -0.836 0.727 1439
6.233 -0.806 0.706 1357
6.030 -0.780 0.687 1353
6.031 -0.780 0.670 2207
6.524 -0.843 0.713 1703
6.211 -0.803 0.686 1308
4.843 -0.626 0.564 1112
6.033 -0.780 0.652 2947
6.573 -0.850 0.698 2413
6.182 -0.799 0.665 1421
4.836 -0.625 0.549 760
6.527 -0.844 0.675 3795
6.034 -0.780 0.634 3054
6.183 -0.799 0.647 1230
6.521 -0.843 0.656 5330
6.028 -0.779 0.616 2526
6.255 -0.809 0.634 1450
6.522 -0.843 0.636 6299
6.029 -0.779 0.599 1585
6.264 -0.810 0.617 1306
6.679 -0.863 0.649 1178
6.524 -0.843 0.617 6269
6.673 -0.863 0.628 2060
6.273 -0.811 0.599 859
6.031 -0.780 0.581 815
6.549 -0.847 0.600 5500
6.698 -0.866 0.611 1844
6.400 -0.827 0.590 905
6.550 -0.847 0.581 5915
6.699 -0.866 0.591 1561
6.401 -0.828 0.571 842
6.567 -0.849 0.563 4574
6.716 -0.868 0.573 1209
6.418 -0.830 0.553 1040
6.576 -0.850 0.544 3630
6.748 -0.872 0.555 1833
6.569 -0.849 0.524 3680
6.757 -0.874 0.536 1965
6.570 -0.849 0.505 3796
6.798 -0.879 0.518 2004
6.658 -0.861 0.491 3779
6.509 -0.841 0.483 2070
6.807 -0.880 0.499 1446
6.651 -0.860 0.471 4386
6.502 -0.841 0.463 1346
6.886 -0.890 0.483 979
6.660 -0.861 0.452 3792
6.887 -0.890 0.463 1375
6.503 -0.841 0.444 878
6.676 -0.863 0.433 2952
6.904 -0.892 0.443 1795
9.210 -1.191 0.546 915
6.504 -0.841 0.425 771
6.904 -0.893 0.423 2417
6.693 -0.865 0.414 1899
9.211 -1.191 0.519 1213
6.528 -0.844 0.407 860
6.897 -0.892 0.403 2583
6.701 -0.866 0.395 1731
9.212 -1.191 0.492 1646
6.521 -0.843 0.388 1038
6.898 -0.892 0.382 1993
9.213 -1.191 0.465 1781
6.710 -0.867 0.376 1485
6.561 -0.848 0.370 853
6.750 -0.873 0.357 1716
9.214 -1.191 0.438 1643
6.899 -0.892 0.362 1104
6.593 -0.852 0.352 931
6.758 -0.874 0.338 2113
9.207 -1.190 0.411 1604
6.923 -0.895 0.343 968
6.751 -0.873 0.318 1690
9.207 -1.190 0.384 1688
6.916 -0.894 0.322 832
10.181 -1.316 0.410 769
9.208 -1.190 0.357 1531
7.246 -0.937 0.310 878
6.885 -0.890 0.301 817
10.189 -1.317 0.380 816
7.254 -0.938 0.289 1188
9.209 -1.190 0.330 1141
11.022 -1.425 0.367 1028
6.885 -0.890 0.281 979
11.023 -1.425 0.335 1149
7.247 -0.937 0.268 1149
11.172 -1.444 0.338 1083
9.241 -1.195 0.303 957
11.039 -1.427 0.303 1274
11.188 -1.446 0.305 1082
9.822 -1.270 0.285 935
7.247 -0.937 0.246 765
11.039 -1.427 0.271 1451
11.188 -1.446 0.272 1169
9.830 -1.271 0.256 1136
10.191 -1.317 0.261 865
11.047 -1.428 0.238 1419
11.204 -1.448 0.240 1205
9.831 -1.271 0.227 1097
10.192 -1.318 0.231 882
11.048 -1.428 0.206 1332
11.205 -1.448 0.207 1320
9.831 -1.271 0.199 827
11.205 -1.449 0.174 1381
11.048 -1.428 0.174 1260
10.333 -1.336 0.171 757
11.205 -1.449 0.141 1128
11.056 -1.429 0.141 1124
11.134 -1.439 0.109 1188
11.134 -1.439 0.076 1102
11.118 -1.437 0.044 1038
11.102 -1.435 0.011 1095
11.219 -1.450 -0.023 1141
11.070 -1.431 -0.021 966
11.211 -1.449 -0.056 1261
11.054 -1.429 -0.053 818
12.294 -1.589 -0.075 778
11.211 -1.449 -0.089 1098
12.302 -1.590 -0.111 1004
12.309 -1.591 -0.147 1298
11.218 -1.450 -0.122 970
12.308 -1.591 -0.183 1308
11.209 -1.449 -0.154 889
12.307 -1.591 -0.219 1318
11.130 -1.439 -0.185 909
12.306 -1.591 -0.255 992
12.223 -1.580 -0.360 765
14.337 -1.853 -1.038 915
14.334 -1.853 -1.080 915
14.330 -1.853 -1.122 1029
14.326 -1.852 -1.164 1143
14.338 -1.854 -1.208 964
14.342 -1.854 -1.251 859
14.084 -1.821 -1.225 761
14.213 -1.837 -1.280 887
14.217 -1.838 -1.323 1265
14.212 -1.837 -1.364 1265
14.200 -1.836 -1.405 1185
13.427 -1.736 -1.321 868
13.415 -1.734 -1.359 1156
14.219 -1.838 -1.449 1108
2.256 -0.303 1.731 5434
2.090 -0.280 1.611 1619
2.377 -0.319 1.819 933
2.260 -0.303 1.725 10869
2.094 -0.281 1.605 3239
2.382 -0.320 1.812 2970
2.265 -0.304 1.718 10869
2.386 -0.320 1.805 4074
2.098 -0.282 1.599 3239
2.269 -0.305 1.712 8809
2.096 -0.281 1.589 4083
2.391 -0.321 1.798 3183
2.274 -0.305 1.705 6748
2.100 -0.282 1.583 4987
2.396 -0.322 1.791 2292
2.278 -0.306 1.699 4827
2.104 -0.282 1.577 4260
2.401 -0.322 1.784 3359
2.367 -0.318 1.751 6431
2.083 -0.279 1.552 3841
2.205 -0.296 1.638 2723
2.489 -0.334 1.836 1743
2.371 -0.318 1.744 6431
2.068 -0.277 1.533 4700
2.190 -0.294 1.618 2835
2.494 -0.335 1.829 1743
2.383 -0.320 1.741 7820
2.065 -0.277 1.523 5838
2.188 -0.294 1.607 2558
2.506 -0.336 1.826 1642
2.394 -0.321 1.739 9452
2.069 -0.278 1.517 5872
2.192 -0.294 1.601 2558
2.517 -0.338 1.823 1696
2.398 -0.322 1.732 7644
2.080 -0.279 1.515 5926
2.203 -0.296 1.599 2074
2.522 -0.338 1.816 2013
2.084 -0.280 1.509 5981
2.416 -0.324 1.734 5933
2.540 -0.341 1.818 1860
2.207 -0.296 1.593 1686
2.427 -0.326 1.731 6136
2.094 -0.281 1.508 5775
2.551 -0.342 1.815 1997
2.218 -0.298 1.591 1235
2.438 -0.327 1.729 6667
2.104 -0.282 1.506 5625
2.563 -0.344 1.812 1969
2.314 -0.310 1.646 1078
2.449 -0.329 1.726 5765
2.102 -0.282 1.496 5704
2.574 -0.345 1.809 1524
2.285 -0.307 1.617 1459
2.106 -0.283 1.490 5808
2.454 -0.329 1.719 4725
2.290 -0.307 1.611 1905
2.579 -0.346 1.801 1309
2.103 -0.282 1.479 6139
2.452 -0.329 1.708 4538
2.235 -0.300 1.565 2002
2.577 -0.346 1.789 1244
2.087 -0.280 1.460 7316
2.516 -0.338 1.739 3652
2.232 -0.300 1.555 2343
2.391 -0.321 1.658 1766
2.091 -0.281 1.454 11058
2.520 -0.338 1.732 3668
2.395 -0.321 1.651 2447
2.243 -0.301 1.553 1755
2.095 -0.281 1.448 14800
2.532 -0.340 1.729 4373
2.406 -0.323 1.648 2952
2.280 -0.306 1.567 1345
2.099 -0.282 1.442 13423
2.536 -0.340 1.722 5081
2.410 -0.323 1.641 3150
2.225 -0.299 1.523 1679
2.096 -0.281 1.432 12145
2.541 -0.341 1.714 4112
2.415 -0.324 1.634 2927
2.222 -0.298 1.512 2558
2.093 -0.281 1.422 8560
2.219 -0.298 1.502 3716
2.545 -0.342 1.707 3143
2.419 -0.325 1.627 2704
2.090 -0.280 1.412 5536
2.217 -0.297 1.491 5166
2.563 -0.344 1.708 2284
2.430 -0.326 1.624 1860
2.094 -0.281 1.406 6330
2.220 -0.298 1.485 5521
2.615 -0.351 1.730 1814
2.441 -0.328 1.622 1028
2.104 -0.282 1.404 7208
2.231 -0.299 1.482 5311
2.626 -0.352 1.726 1471
2.452 -0.329 1.619 918
2.108 -0.283 1.398 8824
2.235 -0.300 1.476 4239
2.637 -0.354 1.723 1184
2.362 -0.317 1.554 875
2.111 -0.283 1.392 10440
2.239 -0.300 1.469 3198
2.373 -0.318 1.551 1255
2.642 -0.354 1.715 1026
2.115 -0.284 1.386 9917
2.243 -0.301 1.463 2192
2.377 -0.319 1.545 1659
2.646 -0.355 1.707 867
2.125 -0.285 1.384 9518
2.381 -0.320 1.538 2137
2.253 -0.302 1.461 1073
2.135 -0.287 1.382 7952
2.385 -0.320 1.531 2676
2.186 -0.293 1.404 10141
2.396 -0.322 1.528 2745
2.183 -0.293 1.393 14958
2.393 -0.321 1.517 2637
2.187 -0.293 1.387 19857
2.397 -0.322 1.510 2537
2.004 -0.269 1.280 1005
2.197 -0.295 1.385 23313
2.401 -0.322 1.503 2204
2.007 -0.269 1.274 1260
2.201 -0.295 1.378 27181
2.405 -0.323 1.496 1872
2.017 -0.271 1.272 1208
2.204 -0.296 1.372 25030
2.402 -0.322 1.486 1435
2.075 -0.278 1.298 1357
2.215 -0.297 1.370 18223
2.085 -0.280 1.296 1188
2.406 -0.323 1.479 1027
2.218 -0.298 1.363 13793
2.088 -0.280 1.290 933
2.410 -0.323 1.472 842
2.229 -0.299 1.361 16022
2.099 -0.282 1.287 1061
