3.780 1.339 1.785 1150
3.523 1.248 1.659 7194
3.654 1.294 1.716 4346
3.785 1.341 1.774 1713
3.541 1.254 1.654 5212
3.727 1.320 1.735 3657
3.725 1.319 1.721 5572
3.552 1.258 1.646 3684
3.856 1.366 1.777 1272
3.757 1.331 1.721 7427
3.577 1.267 1.644 2698
3.888 1.377 1.777 1024
3.768 1.335 1.713 8347
3.581 1.268 1.633 2506
3.900 1.381 1.768 1826
3.779 1.339 1.704 4803
3.911 1.385 1.759 2632
3.578 1.267 1.619 1747
3.749 1.328 1.678 3598
3.909 1.385 1.744 2857
3.582 1.269 1.609 869
3.774 1.337 1.675 5362
3.927 1.391 1.738 3453
3.945 1.398 1.732 4886
3.785 1.341 1.666 4044
3.970 1.406 1.728 4343
3.838 1.360 1.675 2816
4.038 1.430 1.741 4843
3.863 1.368 1.671 3021
4.042 1.432 1.729 6079
3.909 1.385 1.676 4356
4.175 1.479 1.782 907
4.018 1.423 1.706 5839
4.151 1.471 1.758 2331
3.886 1.376 1.653 2291
4.016 1.422 1.691 5742
4.156 1.472 1.745 3447
3.883 1.375 1.639 887
4.153 1.471 1.730 4590
4.013 1.422 1.676 4506
4.171 1.478 1.723 5543
4.038 1.430 1.671 2615
4.197 1.487 1.718 5269
4.056 1.437 1.664 2254
4.208 1.491 1.708 5671
4.075 1.443 1.657 2430
4.342 1.538 1.758 775
4.220 1.495 1.698 8273
4.086 1.447 1.648 1962
4.353 1.542 1.748 1662
4.217 1.494 1.682 7896
4.351 1.541 1.732 2404
4.083 1.446 1.632 1093
4.235 1.500 1.674 5919
4.369 1.548 1.723 1944
4.101 1.453 1.625 916
4.246 1.504 1.664 5481
4.381 1.552 1.713 2335
4.328 1.533 1.679 6035
4.194 1.486 1.631 2035
4.463 1.581 1.727 1227
4.347 1.540 1.671 4496
4.212 1.492 1.623 1413
4.516 1.600 1.731 1083
4.408 1.561 1.677 4149
4.542 1.609 1.725 2091
4.273 1.514 1.630 1734
4.412 1.563 1.664 4949
4.546 1.610 1.711 3002
4.277 1.515 1.617 1190
4.794 1.698 1.798 966
4.416 1.564 1.650 4414
4.551 1.612 1.697 2398
4.806 1.702 1.786 938
4.406 1.561 1.632 3616
4.619 1.636 1.705 2331
4.623 1.638 1.691 4399
4.403 1.560 1.616 2435
4.635 1.642 1.679 5931
4.393 1.556 1.598 1055
4.777 1.692 1.727 822
4.660 1.651 1.672 4173
4.432 1.570 1.596 936
4.795 1.699 1.717 803
4.629 1.640 1.646 3349
4.764 1.688 1.691 1328
4.451 1.577 1.587 774
4.647 1.646 1.636 4552
4.804 1.702 1.688 3922
4.808 1.703 1.673 7684
4.658 1.650 1.625 4168
4.820 1.707 1.660 9217
4.684 1.659 1.617 3698
4.817 1.706 1.643 8635
4.681 1.658 1.601 1893
4.814 1.705 1.626 6040
4.832 1.712 1.616 4492
4.836 1.713 1.601 5636
5.022 1.779 1.658 1295
4.840 1.715 1.586 8096
5.027 1.781 1.643 1992
4.844 1.716 1.572 6845
5.031 1.782 1.627 1971
5.304 1.879 1.709 1092
5.167 1.830 1.668 772
4.826 1.710 1.550 5977
5.135 1.819 1.642 2400
5.308 1.880 1.693 1480
4.999 1.771 1.601 924
4.837 1.714 1.538 9297
5.327 1.887 1.681 2494
5.132 1.818 1.624 2375
4.996 1.770 1.584 890
4.848 1.717 1.525 9004
5.331 1.888 1.664 3290
5.144 1.822 1.610 1674
5.007 1.774 1.571 1143
5.328 1.887 1.646 5253
4.852 1.719 1.510 4739
5.155 1.826 1.597 1111
5.018 1.778 1.557 1024
5.339 1.891 1.632 9991
4.849 1.718 1.493 2317
5.476 1.940 1.670 1097
5.152 1.825 1.579 851
5.343 1.893 1.615 12736
5.480 1.941 1.654 1808
4.852 1.719 1.478 1605
5.340 1.892 1.597 13281
5.477 1.940 1.635 2220
5.344 1.893 1.580 18477
5.481 1.942 1.618 3091
5.770 2.044 1.697 1231
5.355 1.897 1.566 20826
5.493 1.946 1.603 3566
5.775 2.046 1.679 1817
5.630 1.994 1.640 807
5.359 1.898 1.550 17510
5.511 1.952 1.590 2812
5.786 2.050 1.663 1607
6.003 2.127 1.721 861
5.363 1.900 1.533 16749
5.812 2.059 1.651 2141
5.508 1.951 1.571 1868
5.979 2.118 1.695 1482
5.367 1.901 1.517 15050
5.823 2.063 1.635 3247
5.976 2.117 1.675 2535
5.512 1.952 1.554 1917
5.371 1.902 1.500 9046
5.835 2.067 1.619 3615
5.994 2.123 1.660 2299
5.508 1.951 1.536 1691
5.374 1.904 1.484 3301
6.013 2.130 1.645 3079
5.846 2.071 1.603 2241
6.195 2.194 1.691 2222
6.010 2.129 1.625 3401
6.148 2.178 1.659 2186
6.286 2.227 1.694 1663
5.872 2.080 1.590 1455
6.145 2.177 1.639 2240
6.385 2.262 1.698 2144
5.985 2.120 1.599 1965
6.523 2.311 1.732 1082
6.193 2.194 1.630 1967
6.367 2.255 1.673 1864
6.505 2.304 1.706 1582
5.392 1.910 1.436 1057
6.371 2.257 1.653 1789
6.582 2.332 1.704 1679
6.204 2.198 1.613 1178
5.389 1.909 1.418 879
6.376 2.258 1.634 2137
6.630 2.349 1.694 2076
6.678 2.366 1.684 2329
6.533 2.314 1.650 2188
6.372 2.257 1.612 2094
6.234 2.208 1.580 971
6.697 2.372 1.666 2664
6.537 2.316 1.630 1962
6.398 2.266 1.598 1625
6.252 2.215 1.564 1295
6.694 2.371 1.644 3210
6.548 2.320 1.611 1590
6.256 2.216 1.545 1233
6.833 2.420 1.676 1186
6.691 2.370 1.622 3736
6.983 2.474 1.687 1739
7.209 2.554 1.738 1392
6.552 2.321 1.591 1178
6.695 2.372 1.601 2765
7.002 2.480 1.669 1711
7.228 2.561 1.719 1418
6.863 2.431 1.638 1111
7.021 2.487 1.651 1599
7.269 2.575 1.705 1332
6.706 2.376 1.582 1306
6.882 2.438 1.621 966
7.361 2.608 1.701 1757
7.025 2.488 1.629 1642
7.222 2.558 1.671 962
7.500 2.657 1.731 818
7.417 2.627 1.689 2031
7.036 2.492 1.609 1544
7.256 2.570 1.655 1037
6.721 2.381 1.543 810
7.414 2.626 1.665 2226
7.641 2.707 1.712 1479
7.048 2.496 1.589 1130
7.795 2.761 1.744 980
7.652 2.711 1.690 2932
7.806 2.765 1.721 2219
7.411 2.625 1.640 1704
7.825 2.772 1.700 4284
7.664 2.715 1.668 3606
7.407 2.624 1.616 925
7.830 2.773 1.676 3865
7.646 2.709 1.640 2403
7.885 2.793 1.662 3633
7.738 2.741 1.633 1790
7.889 2.795 1.638 5512
8.491 3.008 1.753 1171
7.735 2.740 1.608 1160
7.893 2.796 1.613 5176
8.555 3.030 1.738 1779
8.371 2.965 1.703 751
7.897 2.798 1.589 5022
8.610 3.050 1.721 2013
8.471 3.001 1.695 1576
7.901 2.799 1.565 5083
8.593 3.044 1.690 1583
8.791 3.114 1.726 1101
8.453 2.994 1.665 851
7.905 2.800 1.540 4097
8.582 3.040 1.661 1544
8.796 3.116 1.699 1263
9.222 3.267 1.776 758
7.909 2.802 1.516 3584
8.829 3.128 1.677 1497
8.601 3.047 1.637 1488
9.094 3.222 1.724 1347
7.913 2.803 1.492 2338
8.686 3.077 1.625 1881
9.091 3.220 1.695 1484
8.826 3.127 1.649 1453
8.690 3.078 1.598 1952
8.550 3.029 1.574 1076
9.892 3.504 1.801 1072
7.916 2.804 1.467 1054
8.694 3.080 1.571 1446
9.454 3.349 1.697 1090
8.554 3.030 1.548 1012
9.815 3.477 1.757 957
9.805 3.473 1.724 1091
9.451 3.348 1.667 1085
9.126 3.233 1.614 956
9.650 3.418 1.699 767
9.425 3.339 1.633 1085
9.809 3.475 1.694 1010
9.654 3.420 1.670 1003
10.200 3.613 1.757 963
10.212 3.617 1.726 1424
9.909 3.510 1.679 1249
9.651 3.419 1.639 1212
9.422 3.338 1.603 775
9.913 3.512 1.648 1695
10.201 3.614 1.693 1440
9.655 3.420 1.609 1110
10.061 3.564 1.671 958
9.917 3.513 1.618 1336
10.206 3.615 1.661 1159
10.516 3.725 1.708 1123
10.065 3.565 1.640 773
10.528 3.729 1.676 1205
10.794 3.824 1.715 1086
10.217 3.619 1.631 1058
10.010 3.546 1.600 792
10.229 3.623 1.600 1112
10.879 3.854 1.694 1013
11.086 3.927 1.723 829
10.495 3.718 1.639 794
11.091 3.929 1.689 1133
10.884 3.855 1.660 1100
11.409 4.041 1.734 1003
11.794 4.178 1.788 958
10.940 3.875 1.634 1202
11.413 4.043 1.699 1057
11.258 3.988 1.677 1047
11.088 3.928 1.654 1027
10.944 3.877 1.600 1606
11.269 3.992 1.644 1026
11.084 3.926 1.619 976
11.965 4.239 1.737 892
10.940 3.875 1.565 1472
11.977 4.243 1.701 1075
11.103 3.933 1.587 988
11.273 3.993 1.609 858
11.114 3.937 1.553 1109
11.826 4.189 1.644 979
11.455 4.058 1.597 965
11.989 4.247 1.665 943
11.822 4.188 1.607 1151
11.118 3.938 1.519 878
11.459 4.059 1.562 838
11.978 4.243 1.626 773
12.953 4.589 1.707 965
12.160 4.307 1.611 859
12.657 4.483 1.671 812
12.958 4.590 1.667 1404
12.171 4.312 1.574 847
12.594 4.461 1.624 773
12.962 4.591 1.627 1209
2.191 0.766 1.763 5351
2.195 0.767 1.757 10703
2.049 0.716 1.647 929
2.200 0.769 1.750 10703
2.054 0.718 1.640 929
2.204 0.770 1.744 12141
2.203 0.770 1.732 13678
2.319 0.810 1.819 773
2.207 0.771 1.726 11036
2.330 0.814 1.816 1102
2.205 0.770 1.714 8463
2.402 0.839 1.859 1783
2.210 0.772 1.708 8463
2.407 0.841 1.851 2347
2.220 0.776 1.706 7210
2.393 0.836 1.831 4519
2.391 0.836 1.819 7238
2.224 0.777 1.699 6025
2.402 0.839 1.816 9002
2.241 0.783 1.701 6015
2.413 0.843 1.813 10863
2.258 0.789 1.703 6583
2.418 0.845 1.806 8914
2.262 0.790 1.696 4851
2.536 0.886 1.889 804
2.428 0.848 1.803 7046
2.266 0.792 1.689 3119
2.547 0.890 1.886 933
2.433 0.850 1.796 7046
2.271 0.793 1.683 3052
2.552 0.892 1.878 1339
2.500 0.874 1.832 5933
2.269 0.793 1.671 2991
2.505 0.875 1.824 6186
2.273 0.794 1.665 2988
2.516 0.879 1.821 5463
2.277 0.796 1.658 2391
2.396 0.837 1.739 2270
2.552 0.892 1.834 5413
2.426 0.848 1.749 1874
2.287 0.799 1.655 1855
2.563 0.895 1.831 4147
2.317 0.810 1.665 1790
2.437 0.851 1.746 1381
2.586 0.904 1.836 3002
2.321 0.811 1.658 1803
2.466 0.862 1.755 1286
2.521 0.881 1.782 4741
2.325 0.812 1.651 1572
2.526 0.883 1.774 6709
2.329 0.814 1.644 1341
2.209 0.772 1.564 780
2.537 0.886 1.770 6406
2.219 0.775 1.562 1092
2.340 0.818 1.641 984
2.689 0.940 1.871 811
2.541 0.888 1.763 6174
2.223 0.777 1.555 1380
2.694 0.941 1.862 1232
2.552 0.892 1.759 4637
2.699 0.943 1.854 1783
2.233 0.780 1.553 1464
2.563 0.895 1.756 3260
2.697 0.942 1.842 2339
2.237 0.782 1.546 1562
2.593 0.906 1.764 3484
2.715 0.948 1.842 2241
2.241 0.783 1.539 1319
2.604 0.910 1.760 4386
2.726 0.952 1.838 2072
2.251 0.787 1.536 1073
2.628 0.918 1.765 5436
2.750 0.961 1.842 2339
2.255 0.788 1.530 857
2.638 0.922 1.761 7545
2.761 0.965 1.837 2813
2.649 0.926 1.757 7594
2.772 0.968 1.833 3006
2.667 0.932 1.757 8112
2.789 0.975 1.833 2178
2.671 0.933 1.749 5986
2.794 0.976 1.824 2002
2.760 0.964 1.792 4694
2.637 0.921 1.717 1892
2.764 0.966 1.784 4718
2.641 0.923 1.709 1361
2.762 0.965 1.771 4767
2.886 1.008 1.846 855
2.767 0.967 1.763 4678
2.890 1.010 1.837 1395
2.778 0.971 1.758 5210
2.902 1.014 1.832 2252
2.795 0.977 1.758 6094
2.919 1.020 1.831 2301
2.793 0.976 1.745 5996
2.917 1.019 1.818 3117
2.798 0.977 1.737 5927
2.922 1.021 1.809 3733
2.809 0.981 1.732 4338
2.933 1.025 1.804 3041
2.859 0.999 1.750 3478
2.984 1.043 1.822 956
2.929 1.023 1.779 3947
2.804 0.980 1.707 1657
2.947 1.030 1.777 6069
2.822 0.986 1.706 1907
3.072 1.073 1.848 891
2.958 1.034 1.772 8228
2.833 0.990 1.702 2145
3.083 1.077 1.843 921
2.989 1.044 1.778 8602
2.863 1.000 1.708 2519
3.115 1.088 1.848 932
3.007 1.051 1.776 8783
2.881 1.007 1.706 1681
3.133 1.094 1.846 1175
3.011 1.052 1.767 7266
2.885 1.008 1.698 1603
3.137 1.096 1.836 1587
3.016 1.054 1.758 7657
3.142 1.098 1.827 1630
2.889 1.010 1.689 1100
3.047 1.065 1.763 8083
3.173 1.109 1.832 1179
2.920 1.020 1.695 769
3.078 1.075 1.768 6303
2.951 1.031 1.700 1792
3.204 1.120 1.836 1009
3.096 1.082 1.766 4807
2.969 1.037 1.698 1665
3.222 1.126 1.834 1373
3.100 1.083 1.757 4054
3.227 1.128 1.824 1960
2.973 1.039 1.689 959
3.105 1.085 1.747 5118
3.232 1.129 1.814 2129
2.977 1.040 1.680 822
3.183 1.112 1.776 10197
3.055 1.068 1.710 1957
3.187 1.114 1.767 13134
3.060 1.069 1.700 1551
3.192 1.115 1.757 13499
3.064 1.071 1.691 1321
3.203 1.119 1.751 11917
3.075 1.074 1.685 1138
3.228 1.128 1.751 11071
3.099 1.083 1.686 1284
3.198 1.117 1.724 11138
3.326 1.162 1.789 1069
3.236 1.131 1.731 10601
3.365 1.176 1.796 1156
3.108 1.086 1.667 985
3.254 1.137 1.728 10981
3.383 1.182 1.792 1907
3.259 1.139 1.718 9611
3.394 1.186 1.785 2406
3.270 1.142 1.712 7542
3.399 1.187 1.775 3273
3.281 1.146 1.705 5105
3.410 1.191 1.768 4257
3.285 1.148 1.695 4683
3.414 1.193 1.757 3838
3.378 1.180 1.727 4852
3.249 1.135 1.666 2824
3.507 1.225 1.789 903
3.396 1.187 1.724 6702
3.266 1.141 1.662 3290
3.407 1.190 1.716 9203
3.277 1.145 1.655 2932
3.537 1.236 1.777 1121
3.425 1.197 1.712 6934
3.295 1.151 1.652 2012
3.555 1.242 1.773 1462
3.443 1.203 1.708 3891
3.313 1.158 1.648 1318
3.573 1.249 1.769 1211
3.448 1.205 1.698 3257
3.578 1.250 1.758 1301
3.500 1.223 1.709 3522
3.369 1.177 1.650 1784
3.658 1.278 1.781 1139
3.518 1.229 1.705 5573
3.676 1.284 1.776 1983
3.387 1.184 1.646 1691
3.529 1.233 1.697 6291
3.687 1.288 1.768 3717
3.398 1.187 1.639 1195
3.513 1.227 1.677 7290
3.657 1.278 1.742 4708
3.788 1.324 1.800 762
3.517 1.229 1.666 8385
3.655 1.277 1.727 6177
3.786 1.323 1.785 1435
3.528 1.233 1.659 6284
3.659 1.279 1.716 3838
3.791 1.324 1.774 1855
3.553 1.241 1.657 4748
3.726 1.302 1.732 3624
3.857 1.348 1.789 764
3.744 1.308 1.727 5840
3.550 1.240 1.643 3482
3.876 1.354 1.783 1323
3.783 1.322 1.730 7779
3.561 1.244 1.635 2431
3.915 1.368 1.786 1333
3.781 1.321 1.715 8589
3.579 1.251 1.630 2312
3.912 1.367 1.771 2087
3.785 1.322 1.704 5325
3.917 1.369 1.759 3243
3.583 1.252 1.619 1626
3.914 1.368 1.744 4591
3.782 1.322 1.689 4027
3.594 1.256 1.611 823
3.787 1.323 1.678 5891
3.919 1.369 1.732 5456
3.923 1.371 1.721 6337
3.791 1.324 1.666 4339
4.056 1.417 1.775 1188
3.921 1.370 1.706 5196
4.053 1.416 1.759 3182
3.788 1.324 1.652 1961
4.044 1.413 1.741 5207
3.911 1.366 1.688 3047
3.778 1.320 1.635 944
4.048 1.414 1.729 6364
3.915 1.368 1.676 3884
4.181 1.461 1.782 972
4.052 1.416 1.717 5308
3.919 1.369 1.664 3206
4.186 1.462 1.769 1328
4.015 1.403 1.688 4820
4.155 1.452 1.743 2970
4.159 1.453 1.730 4640
4.012 1.402 1.673 3904
4.171 1.457 1.720 6317
4.037 1.411 1.669 2491
4.168 1.456 1.705 5867
4.034 1.410 1.654 1849
4.208 1.470 1.705 4652
4.074 1.423 1.655 2861
4.226 1.477 1.698 6105
4.092 1.430 1.648 2504
4.360 1.523 1.748 1135
4.230 1.478 1.685 5531
4.096 1.431 1.635 1439
4.364 1.525 1.734 1391
4.242 1.482 1.674 4765
4.376 1.529 1.723 1731
4.107 1.435 1.625 1403
4.253 1.486 1.664 5508
4.387 1.533 1.713 2463
4.119 1.439 1.615 1110
4.342 1.517 1.681 5147
4.207 1.470 1.633 2603
4.476 1.564 1.730 839
4.353 1.521 1.671 4197
4.530 1.583 1.734 1171
4.219 1.474 1.623 892
4.414 1.542 1.677 3441
4.549 1.589 1.725 2297
4.279 1.495 1.630 1993
4.411 1.541 1.661 4183
4.560 1.593 1.713 3479
4.276 1.494 1.614 1396
4.802 1.678 1.798 945
4.416 1.543 1.648 4286
4.579 1.600 1.704 2797
4.813 1.682 1.786 876
4.413 1.542 1.632 4035
4.612 1.611 1.700 2279
4.630 1.618 1.691 4222
4.410 1.541 1.616 2788
4.642 1.622 1.679 5508
4.399 1.537 1.598 1170
4.777 1.669 1.725 927
4.667 1.631 1.672 4220
4.532 1.583 1.627 1067
4.803 1.678 1.717 1059
4.636 1.620 1.646 3590
4.771 1.667 1.691 1641
4.464 1.560 1.590 787
4.818 1.684 1.690 6132
4.647 1.624 1.634 4753
4.823 1.685 1.675 11546
4.687 1.638 1.631 4054
4.827 1.686 1.660 12884
4.691 1.639 1.617 3784
4.831 1.688 1.646 10711
4.695 1.640 1.603 2240
4.835 1.689 1.631 6291
5.022 1.755 1.689 974
4.699 1.642 1.588 843
4.839 1.691 1.616 4591
5.026 1.756 1.674 1365
4.843 1.692 1.601 6980
5.030 1.757 1.658 2475
4.855 1.696 1.589 10154
5.034 1.759 1.643 3501
4.859 1.698 1.574 7475
5.038 1.760 1.627 3086
5.297 1.851 1.705 1368
4.841 1.691 1.553 5178
5.143 1.797 1.642 2802
5.294 1.850 1.686 1989
5.006 1.749 1.601 1048
4.845 1.693 1.538 7518
5.147 1.798 1.626 2821
5.299 1.851 1.670 2207
5.010 1.751 1.586 1095
4.856 1.697 1.525 7263
5.339 1.865 1.664 2863
5.050 1.765 1.581 2424
5.187 1.812 1.621 1207
5.343 1.867 1.648 4596
4.867 1.700 1.512 4020
5.054 1.766 1.566 2084
5.192 1.814 1.605 1048
5.354 1.871 1.634 6752
4.856 1.697 1.493 1752
5.058 1.767 1.550 1268
5.196 1.815 1.589 839
5.337 1.865 1.611 7869
4.867 1.701 1.480 1075
5.163 1.804 1.563 1015
5.474 1.913 1.649 811
5.334 1.864 1.593 9362
5.471 1.912 1.631 1209
5.175 1.808 1.549 753
5.352 1.870 1.580 14798
5.490 1.918 1.618 1857
5.779 2.019 1.697 1505
5.642 1.971 1.659 798
5.356 1.871 1.564 16228
5.501 1.922 1.603 2954
5.791 2.023 1.681 2559
5.653 1.975 1.644 908
5.360 1.873 1.548 10804
5.512 1.926 1.588 2603
5.795 2.025 1.663 2553
6.005 2.098 1.719 1084
5.371 1.877 1.533 10735
5.814 2.031 1.649 2644
5.981 2.090 1.693 1577
5.516 1.927 1.571 1209
5.375 1.878 1.517 10458
5.832 2.038 1.635 4010
5.985 2.091 1.675 2260
5.513 1.926 1.552 903
5.379 1.879 1.500 6377
5.836 2.039 1.617 4518
5.996 2.095 1.658 2117
6.287 2.197 1.732 1724
6.022 2.104 1.645 3230
5.382 1.881 1.484 2570
5.848 2.043 1.601 2459
6.284 2.196 1.711 2274
6.012 2.100 1.623 3467
6.150 2.149 1.657 2489
6.288 2.197 1.692 1894
5.372 1.877 1.464 1279
6.402 2.237 1.699 2485
6.154 2.150 1.639 2173
5.994 2.094 1.599 2025
5.390 1.883 1.451 1105
6.413 2.241 1.682 2020
6.202 2.167 1.630 1868
6.552 2.289 1.715 1171
5.401 1.887 1.436 1037
6.417 2.242 1.662 1584
6.213 2.171 1.613 1457
6.592 2.303 1.704 1263
5.397 1.886 1.418 890
6.414 2.241 1.640 1772
6.648 2.323 1.696 1497
6.239 2.180 1.599 1065
6.543 2.286 1.650 2099
6.689 2.337 1.684 1971
6.375 2.227 1.611 1736
6.554 2.290 1.631 2195
6.700 2.341 1.665 1977
6.415 2.241 1.599 1439
6.839 2.389 1.697 1113
6.704 2.342 1.644 2003
6.558 2.291 1.611 1616
6.975 2.437 1.705 1272
6.419 2.243 1.580 981
6.701 2.341 1.622 2087
6.994 2.444 1.687 1974
7.220 2.523 1.738 1714
6.555 2.290 1.589 1185
7.020 2.453 1.671 2254
7.225 2.524 1.716 1730
6.881 2.404 1.640 1505
6.705 2.343 1.601 1406
7.031 2.457 1.651 1900
7.244 2.531 1.697 1337
6.892 2.408 1.621 1231
7.383 2.580 1.727 1071
7.043 2.461 1.631 1768
7.248 2.532 1.674 1529
7.387 2.581 1.704 1433
7.526 2.630 1.734 900
7.435 2.598 1.691 1940
7.047 2.462 1.609 1661
7.245 2.531 1.651 1329
7.575 2.647 1.720 816
7.425 2.594 1.665 2125
7.660 2.676 1.713 1443
7.806 2.728 1.744 1144
7.058 2.466 1.589 1138
7.818 2.732 1.721 2628
7.664 2.678 1.690 2625
7.422 2.593 1.640 1544
7.837 2.738 1.700 4495
7.661 2.677 1.665 3332
7.419 2.592 1.616 839
7.841 2.740 1.676 4419
7.658 2.676 1.640 2517
7.890 2.757 1.661 3925
7.750 2.708 1.633 1610
7.610 2.659 1.606 755
7.901 2.761 1.638 5328
8.563 2.992 1.764 1146
7.761 2.712 1.611 1142
7.905 2.762 1.613 5100
8.568 2.993 1.738 1993
8.376 2.927 1.702 1096
7.909 2.763 1.589 5965
8.631 3.016 1.722 2032
8.491 2.967 1.696 1294
8.351 2.918 1.671 977
7.913 2.765 1.565 5823
8.650 3.022 1.698 1501
8.819 3.081 1.729 1053
8.510 2.973 1.673 1047
7.917 2.766 1.540 4168
8.595 3.003 1.661 1581
8.809 3.078 1.699 1158
8.374 2.926 1.622 977
7.928 2.770 1.517 3385
8.607 3.007 1.636 1798
9.108 3.182 1.724 1432
8.828 3.084 1.675 1275
7.925 2.769 1.492 2201
8.699 3.040 1.625 2063
9.105 3.181 1.695 1485
8.840 3.089 1.649 1367
8.703 3.041 1.598 1980
9.036 3.157 1.654 1347
8.563 2.992 1.574 1207
9.316 3.255 1.701 1170
8.707 3.042 1.571 1445
9.047 3.161 1.628 1035
9.394 3.282 1.685 983
8.567 2.993 1.548 982
9.376 3.276 1.653 1149
9.664 3.377 1.699 892
9.812 3.428 1.723 873
9.147 3.196 1.615 772
9.669 3.378 1.670 1179
9.439 3.298 1.633 1092
10.216 3.569 1.757 935
9.809 3.427 1.692 797
10.227 3.573 1.726 1409
9.673 3.380 1.640 1228
9.924 3.467 1.679 1025
10.065 3.517 1.701 847
9.928 3.469 1.648 1618
10.224 3.572 1.694 1507
10.076 3.521 1.671 1141
9.669 3.378 1.609 1078
9.932 3.470 1.618 1384
10.265 3.587 1.668 1338
10.524 3.677 1.707 967
10.103 3.530 1.643 941
10.240 3.578 1.632 1338
10.544 3.684 1.676 1038
10.810 3.777 1.715 861
10.244 3.579 1.600 1361
10.911 3.812 1.696 1264
11.096 3.877 1.722 862
10.915 3.814 1.662 1350
11.108 3.881 1.689 1125
11.426 3.992 1.734 926
11.811 4.127 1.788 887
10.941 3.823 1.632 1277
11.282 3.942 1.678 1065
11.430 3.994 1.699 983
11.104 3.880 1.654 978
10.953 3.827 1.599 1577
11.294 3.946 1.645 1109
11.094 3.876 1.618 949
10.523 3.677 1.541 830
10.949 3.826 1.564 1514
11.298 3.947 1.610 1052
11.595 4.051 1.649 936
11.105 3.880 1.585 877
10.946 3.824 1.530 989
11.317 3.954 1.577 891
11.844 4.138 1.644 877
11.131 3.889 1.553 873
11.833 4.134 1.606 1008
11.989 4.189 1.625 786
11.128 3.888 1.518 765
12.973 4.533 1.707 1048
12.178 4.255 1.611 797
12.977 4.534 1.667 1531
12.190 4.259 1.574 782
12.606 4.404 1.624 780
12.981 4.536 1.627 1270
2.187 0.759 1.759 5035
2.191 0.760 1.752 10071
2.045 0.710 1.642 1033
2.195 0.762 1.746 10071
2.342 0.813 1.855 1257
2.049 0.711 1.636 1033
2.200 0.763 1.739 11521
2.353 0.816 1.853 1419
2.204 0.765 1.732 12971
2.364 0.820 1.850 1624
2.209 0.766 1.726 10391
2.368 0.822 1.843 1986
2.207 0.766 1.714 7858
2.391 0.830 1.850 2777
2.211 0.767 1.708 7858
2.402 0.834 1.847 3310
2.222 0.771 1.706 6085
2.401 0.833 1.835 5678
2.406 0.835 1.828 8155
2.226 0.772 1.699 4359
2.410 0.836 1.820 10026
2.236 0.776 1.697 4890
2.415 0.838 1.813 11898
2.253 0.782 1.699 5785
2.533 0.879 1.897 843
2.419 0.840 1.806 9518
2.258 0.783 1.692 4763
2.538 0.881 1.889 938
2.430 0.843 1.803 7197
2.268 0.787 1.689 3830
2.549 0.884 1.886 1112
2.435 0.845 1.796 7197
2.279 0.791 1.687 3257
2.554 0.886 1.878 1608
2.496 0.866 1.827 6480
2.283 0.792 1.680 2724
2.507 0.870 1.824 6155
2.287 0.794 1.673 2700
2.505 0.869 1.812 4689
2.291 0.795 1.666 2503
2.624 0.911 1.894 869
2.566 0.891 1.843 5323
2.308 0.801 1.668 2440
2.447 0.849 1.762 2361
2.571 0.892 1.835 4623
2.451 0.851 1.754 2320
2.319 0.805 1.665 1751
2.569 0.892 1.823 3942
2.449 0.850 1.743 1881
2.329 0.808 1.662 1138
2.568 0.891 1.811 4951
2.447 0.849 1.731 1440
2.553 0.886 1.791 6332
2.539 0.881 1.770 5488
2.227 0.773 1.566 799
2.543 0.883 1.763 4740
2.231 0.774 1.559 1045
2.702 0.938 1.867 944
2.560 0.889 1.763 3526
2.694 0.935 1.850 1538
2.235 0.776 1.553 1165
2.578 0.895 1.764 2758
2.699 0.937 1.842 2167
2.239 0.777 1.546 1285
2.589 0.898 1.760 3456
2.710 0.940 1.838 2054
2.243 0.778 1.539 1102
2.599 0.902 1.756 4393
2.721 0.944 1.834 1900
2.247 0.780 1.532 889
2.636 0.915 1.769 5778
2.758 0.957 1.846 2014
2.647 0.919 1.765 8405
2.769 0.961 1.841 2446
2.658 0.922 1.761 8522
2.780 0.965 1.837 2771
2.669 0.926 1.757 9095
2.791 0.969 1.833 2666
2.751 0.955 1.796 7585
2.628 0.912 1.721 2363
2.762 0.958 1.792 6834
2.639 0.916 1.717 1927
2.766 0.960 1.784 6446
2.643 0.917 1.709 1331
2.764 0.959 1.771 5903
2.888 1.002 1.846 924
2.769 0.961 1.763 5542
2.893 1.004 1.837 1652
2.786 0.967 1.762 6253
2.910 1.010 1.836 2290
2.797 0.971 1.758 7497
2.922 1.014 1.831 2463
2.795 0.970 1.745 7116
2.920 1.013 1.818 2854
2.800 0.972 1.737 6803
2.924 1.015 1.809 3163
2.811 0.975 1.732 4781
2.935 1.019 1.804 2895
2.901 1.007 1.773 4539
2.776 0.963 1.701 1376
2.918 1.013 1.771 5402
2.793 0.969 1.700 1205
3.043 1.056 1.843 811
2.949 1.023 1.777 7048
2.824 0.980 1.706 1908
3.074 1.067 1.848 758
2.960 1.027 1.772 8722
2.835 0.984 1.702 2180
3.086 1.071 1.843 863
2.978 1.033 1.770 8534
2.852 0.990 1.700 2174
3.104 1.077 1.841 1195
3.002 1.042 1.772 8529
2.876 0.998 1.703 1728
3.128 1.086 1.842 1266
3.013 1.046 1.767 7105
2.887 1.002 1.698 1760
3.140 1.090 1.836 1369
3.018 1.047 1.758 7422
3.144 1.091 1.827 1291
2.892 1.003 1.689 1267
3.069 1.065 1.774 8650
2.942 1.021 1.705 1422
3.202 1.111 1.846 1155
3.087 1.071 1.772 7649
2.960 1.027 1.704 1915
3.213 1.115 1.840 1086
3.098 1.075 1.766 5591
2.971 1.031 1.698 1522
3.225 1.119 1.834 1470
3.102 1.077 1.757 4271
3.229 1.121 1.824 2028
2.975 1.033 1.689 884
3.114 1.080 1.751 5178
3.241 1.125 1.818 1662
2.986 1.036 1.684 1036
3.185 1.105 1.776 9671
3.058 1.061 1.710 1836
3.190 1.107 1.767 12655
3.062 1.063 1.700 1224
3.201 1.111 1.760 13561
3.073 1.066 1.694 1359
3.212 1.115 1.754 12761
3.084 1.070 1.689 1512
3.237 1.123 1.754 12095
3.109 1.079 1.689 2226
3.234 1.122 1.741 10496
3.106 1.078 1.677 1848
3.246 1.126 1.735 10671
3.117 1.082 1.671 1449
3.374 1.171 1.799 1013
3.257 1.130 1.728 10701
3.392 1.177 1.795 1717
3.268 1.134 1.722 9613
3.397 1.179 1.785 2130
3.272 1.136 1.712 8079
3.401 1.180 1.775 2881
3.277 1.137 1.702 5671
3.406 1.182 1.764 3898
3.281 1.139 1.692 4917
3.410 1.183 1.754 3528
3.285 1.140 1.682 4805
3.415 1.185 1.744 2892
3.405 1.182 1.727 6082
3.276 1.137 1.665 3705
3.417 1.186 1.720 9063
3.287 1.141 1.659 3352
3.546 1.231 1.781 915
3.428 1.190 1.712 6795
3.298 1.144 1.652 2479
3.558 1.235 1.773 1462
3.446 1.196 1.708 3932
3.316 1.151 1.648 1525
3.576 1.241 1.769 1172
3.450 1.197 1.698 3687
3.587 1.245 1.761 1309
3.509 1.218 1.712 3612
3.379 1.173 1.653 2147
3.674 1.275 1.787 1334
3.521 1.222 1.705 5296
3.686 1.279 1.779 2078
3.390 1.176 1.646 1919
3.532 1.226 1.697 6493
3.690 1.281 1.768 3082
3.401 1.180 1.639 1372
3.522 1.222 1.680 8192
3.660 1.270 1.742 4269
3.791 1.316 1.800 943
3.520 1.221 1.666 8449
3.658 1.269 1.727 5796
3.789 1.315 1.785 1595
3.524 1.223 1.656 5333
3.669 1.273 1.719 3711
3.800 1.319 1.777 1817
3.556 1.234 1.657 4366
3.729 1.294 1.732 3956
3.874 1.344 1.795 1062
3.754 1.303 1.730 5920
3.553 1.233 1.643 3372
3.886 1.348 1.786 2265
3.793 1.316 1.733 8028
3.564 1.237 1.635 2210
3.925 1.362 1.789 2074
3.790 1.315 1.718 9004
3.922 1.361 1.774 2740
3.582 1.243 1.630 1759
3.788 1.314 1.704 6020
3.920 1.360 1.759 4300
3.586 1.244 1.619 1201
3.917 1.359 1.744 6784
3.785 1.314 1.689 5134
3.915 1.359 1.730 8045
3.782 1.313 1.675 6377
4.047 1.404 1.784 928
3.926 1.362 1.721 8585
3.794 1.316 1.666 4467
4.059 1.408 1.775 1312
3.930 1.364 1.709 7350
4.063 1.410 1.762 2910
3.798 1.318 1.655 2295
4.047 1.404 1.741 5055
3.914 1.358 1.688 4003
3.781 1.312 1.635 1164
4.051 1.406 1.729 6136
3.918 1.360 1.676 3662
4.184 1.452 1.782 992
4.069 1.412 1.722 5591
3.936 1.366 1.670 3837
4.203 1.458 1.775 768
4.088 1.419 1.715 5281
3.955 1.372 1.663 2575
4.092 1.420 1.703 4664
3.959 1.374 1.651 1062
4.226 1.466 1.755 765
4.174 1.448 1.720 6842
4.040 1.402 1.669 2281
4.164 1.445 1.702 6415
4.030 1.399 1.651 1555
4.119 1.429 1.671 5809
4.253 1.476 1.721 2049
4.229 1.468 1.698 4217
4.095 1.421 1.648 3216
4.233 1.469 1.685 4359
4.099 1.423 1.635 2165
4.368 1.516 1.734 763
4.245 1.473 1.674 4914
4.110 1.426 1.625 2361
4.379 1.520 1.723 1337
4.249 1.474 1.661 6513
4.383 1.521 1.710 2482
4.114 1.428 1.613 1449
4.359 1.513 1.687 4047
4.225 1.466 1.638 3605
4.364 1.514 1.673 4114
4.534 1.573 1.734 1271
4.229 1.468 1.625 1166
4.339 1.506 1.650 3539
4.552 1.580 1.725 2423
4.571 1.586 1.716 3628
4.322 1.500 1.629 3578
4.805 1.668 1.798 916
4.419 1.533 1.648 3689
4.589 1.593 1.707 3067
4.284 1.487 1.601 1030
4.817 1.672 1.786 835
4.416 1.532 1.632 3903
4.608 1.599 1.698 2449
4.634 1.608 1.691 3806
4.391 1.524 1.609 2999
4.645 1.612 1.679 4415
4.374 1.518 1.588 1751
4.780 1.659 1.725 971
4.510 1.565 1.634 965
4.685 1.626 1.677 3766
4.820 1.673 1.722 1401
4.364 1.514 1.570 1191
4.528 1.571 1.625 1155
4.718 1.637 1.672 3776
4.853 1.684 1.716 1943
4.582 1.590 1.627 1178
4.829 1.676 1.692 8400
4.650 1.614 1.634 4295
4.826 1.675 1.675 15023
4.690 1.628 1.631 3725
4.830 1.676 1.660 16128
4.694 1.629 1.617 3511
4.835 1.678 1.646 14024
4.698 1.630 1.603 2285
5.014 1.740 1.702 884
4.846 1.682 1.633 10121
5.032 1.746 1.691 1632
4.710 1.634 1.591 1342
4.857 1.686 1.621 9151
5.030 1.745 1.674 2306
4.721 1.638 1.578 755
4.854 1.684 1.603 11908
5.034 1.747 1.658 3832
4.858 1.686 1.589 13638
5.038 1.748 1.643 5015
5.175 1.796 1.684 975
4.869 1.690 1.576 8158
5.042 1.750 1.627 4185
5.301 1.840 1.705 1767
4.844 1.681 1.553 3652
5.046 1.751 1.612 2856
5.298 1.839 1.686 2727
4.848 1.682 1.538 5206
5.057 1.755 1.599 3054
5.310 1.843 1.672 2976
4.859 1.686 1.525 5233
5.328 1.849 1.660 3966
5.054 1.754 1.581 3705
5.191 1.802 1.621 1592
5.340 1.853 1.646 5860
4.870 1.690 1.512 3067
5.058 1.755 1.566 3027
5.195 1.803 1.605 1308
5.337 1.852 1.628 7082
5.069 1.759 1.552 1791
4.867 1.689 1.495 1136
5.326 1.848 1.607 9846
5.189 1.801 1.569 990
5.616 1.949 1.688 980
4.871 1.690 1.480 858
5.330 1.850 1.591 12125
5.468 1.898 1.629 1270
5.605 1.945 1.667 1077
5.193 1.802 1.553 762
5.349 1.856 1.579 13483
5.646 1.959 1.659 1832
5.791 2.010 1.699 1402
5.494 1.906 1.618 1357
5.360 1.860 1.564 10873
5.795 2.011 1.681 2433
5.505 1.910 1.603 2288
5.650 1.961 1.642 2021
5.349 1.856 1.544 5467
5.886 2.043 1.686 2736
5.516 1.914 1.588 2447
5.654 1.962 1.625 1098
5.368 1.863 1.531 4547
5.891 2.044 1.668 3052
5.753 1.996 1.632 1623
6.028 2.092 1.704 1367
5.379 1.867 1.517 4979
5.829 2.023 1.633 3810
5.982 2.076 1.673 1846
6.200 2.152 1.729 844
5.841 2.027 1.617 4347
5.383 1.868 1.500 3348
6.037 2.095 1.667 2104
6.291 2.183 1.732 1681
6.027 2.091 1.645 3470
6.289 2.182 1.711 2177
5.852 2.031 1.601 2176
5.386 1.869 1.484 1770
6.009 2.085 1.621 3389
6.147 2.133 1.656 2628
6.286 2.181 1.690 1916
6.424 2.229 1.725 1483
6.406 2.223 1.699 2909
6.144 2.132 1.635 2183
6.006 2.084 1.601 1693
5.394 1.872 1.451 1046
6.425 2.230 1.683 2755
6.192 2.149 1.627 1613
6.564 2.278 1.717 1599
5.405 1.876 1.436 925
6.539 2.269 1.690 2171
6.400 2.221 1.657 1542
6.196 2.150 1.608 1325
5.401 1.874 1.418 843
6.536 2.268 1.668 1947
6.339 2.200 1.622 1575
6.748 2.342 1.718 929
6.200 2.152 1.589 869
6.438 2.234 1.624 1492
6.693 2.323 1.684 1283
6.299 2.186 1.592 1032
6.566 2.279 1.633 1500
6.705 2.327 1.665 1308
6.427 2.230 1.601 1182
6.910 2.398 1.712 919
6.658 2.311 1.633 1420
6.973 2.420 1.704 1411
6.512 2.260 1.600 1211
6.834 2.371 1.672 1163
7.226 2.507 1.738 1913
6.999 2.429 1.687 1890
6.611 2.294 1.601 1299
6.816 2.365 1.647 1128
7.025 2.438 1.671 2349
7.230 2.509 1.716 2159
6.886 2.390 1.640 1664
6.608 2.293 1.579 1017
7.036 2.442 1.651 1938
7.234 2.511 1.693 1853
6.897 2.394 1.621 1449
7.374 2.559 1.724 1124
7.239 2.512 1.671 1932
7.048 2.446 1.631 1754
7.378 2.560 1.701 1327
7.517 2.609 1.731 1097
7.243 2.513 1.649 1828
7.529 2.613 1.709 1753
7.052 2.447 1.609 1616
7.390 2.564 1.680 821
7.533 2.614 1.686 1728
7.673 2.663 1.715 1378
7.812 2.711 1.744 1155
7.063 2.451 1.589 1110
7.817 2.713 1.720 2721
7.670 2.662 1.690 2334
7.523 2.611 1.660 1519
7.383 2.562 1.632 770
7.836 2.719 1.699 4287
7.659 2.658 1.663 3119
7.520 2.609 1.635 1097
7.855 2.726 1.678 4790
7.663 2.659 1.640 2483
7.524 2.611 1.612 815
7.994 2.774 1.705 753
7.888 2.737 1.659 4560
7.748 2.689 1.632 1451
7.609 2.640 1.605 752
7.907 2.744 1.638 4699
7.767 2.695 1.611 1277
8.569 2.974 1.764 1092
7.904 2.743 1.612 4832
8.574 2.975 1.738 2010
8.375 2.906 1.700 1456
8.044 2.791 1.638 760
7.908 2.744 1.588 6512
8.556 2.969 1.707 2130
8.372 2.905 1.673 1625
8.696 3.018 1.733 1459
7.912 2.746 1.563 5735
8.671 3.009 1.701 2046
8.376 2.907 1.648 1593
8.531 2.960 1.676 1255
7.923 2.750 1.540 3510
8.675 3.011 1.674 1830
8.373 2.906 1.621 1535
8.520 2.957 1.647 1027
7.927 2.751 1.516 2699
8.680 3.012 1.648 2001
8.377 2.907 1.595 1561
8.517 2.956 1.619 1302
8.706 3.021 1.625 2185
7.931 2.752 1.492 1856
9.119 3.165 1.696 1318
8.381 2.908 1.569 1201
8.710 3.023 1.598 1863
9.050 3.140 1.655 1572
9.323 3.235 1.701 1412
8.570 2.974 1.574 1193
9.061 3.144 1.629 1419
9.386 3.257 1.683 1320
8.721 3.027 1.573 1220
9.630 3.342 1.723 1062
9.383 3.256 1.653 1441
9.642 3.346 1.694 1124
10.278 3.567 1.798 795
9.668 3.355 1.668 1276
9.432 3.273 1.631 918
10.275 3.566 1.765 828
9.143 3.173 1.585 760
10.279 3.567 1.733 1269
9.680 3.359 1.640 1233
9.931 3.446 1.679 924
10.079 3.498 1.702 810
10.284 3.569 1.702 1586
9.936 3.448 1.648 1564
9.684 3.361 1.610 1080
10.084 3.499 1.671 1056
10.273 3.565 1.668 1667
9.947 3.452 1.619 1382
10.125 3.514 1.646 972
10.510 3.647 1.703 806
10.270 3.564 1.635 1702
10.129 3.515 1.614 911
10.566 3.667 1.678 881
9.951 3.453 1.588 815
10.259 3.560 1.601 1560
10.919 3.789 1.696 1409
11.089 3.848 1.720 858
10.118 3.511 1.581 800
10.923 3.791 1.662 1405
11.108 3.855 1.688 980
10.270 3.564 1.571 862
11.435 3.968 1.734 839
10.942 3.797 1.631 1292
11.291 3.918 1.678 990
11.431 3.967 1.698 927
11.098 3.851 1.652 856
10.953 3.801 1.598 1586
11.302 3.922 1.645 1093
11.102 3.853 1.618 891
10.790 3.744 1.576 884
10.957 3.803 1.564 1549
11.321 3.929 1.612 1135
11.596 4.024 1.648 1071
10.787 3.743 1.542 813
10.954 3.801 1.530 1075
11.325 3.930 1.577 965
11.600 4.025 1.612 912
11.834 4.107 1.605 855
11.998 4.163 1.625 761
12.975 4.503 1.706 965
11.615 4.031 1.542 760
11.823 4.103 1.567 759
12.987 4.507 1.667 1389
12.615 4.378 1.624 824
13.589 4.716 1.739 761
12.991 4.508 1.627 1173
2.188 0.753 1.759 4757
2.193 0.755 1.752 9514
2.047 0.704 1.642 1134
2.339 0.805 1.863 831
2.197 0.756 1.746 9514
2.344 0.807 1.855 1662
2.051 0.706 1.636 1134
2.202 0.758 1.739 10619
2.349 0.808 1.848 1874
2.061 0.709 1.634 857
2.200 0.757 1.728 11737
2.360 0.812 1.846 2104
2.204 0.759 1.721 9367
2.370 0.816 1.843 2373
2.209 0.760 1.714 6998
2.394 0.824 1.850 3067
2.213 0.762 1.708 6998
2.404 0.827 1.847 3658
2.403 0.827 1.835 5672
2.224 0.765 1.706 5078
2.401 0.826 1.823 7807
2.228 0.767 1.699 3243
2.406 0.828 1.816 9365
2.239 0.770 1.697 4187
2.524 0.869 1.900 924
2.411 0.830 1.809 10923
2.249 0.774 1.694 5215
2.529 0.870 1.893 1402
2.415 0.831 1.802 8181
2.260 0.778 1.692 4716
2.534 0.872 1.885 1681
2.489 0.856 1.842 7559
2.270 0.781 1.689 4421
2.493 0.858 1.835 7559
2.281 0.785 1.687 3151
2.498 0.860 1.827 6961
2.379 0.819 1.745 2083
2.260 0.778 1.663 1427
2.503 0.861 1.820 6414
2.289 0.788 1.673 1912
2.507 0.863 1.812 4869
2.293 0.789 1.666 2044
2.627 0.904 1.894 854
2.569 0.884 1.843 5741
2.310 0.795 1.668 2298
2.436 0.838 1.753 2057
2.567 0.883 1.831 5310
2.447 0.842 1.750 2711
2.314 0.796 1.661 1819
2.565 0.883 1.819 4887
2.445 0.841 1.738 2862
2.325 0.800 1.658 1402
2.570 0.884 1.811 6127
2.449 0.843 1.731 2615
2.329 0.801 1.651 896
2.575 0.886 1.803 7367
2.454 0.844 1.724 2368
2.598 0.894 1.808 5697
2.477 0.852 1.729 2361
2.609 0.898 1.804 4905
2.488 0.856 1.725 1424
2.620 0.902 1.801 3659
2.499 0.860 1.722 1198
2.650 0.912 1.809 3001
2.235 0.769 1.542 789
2.490 0.857 1.706 775
2.591 0.892 1.760 3649
2.713 0.933 1.838 1980
2.595 0.893 1.752 4497
2.717 0.935 1.830 1897
2.645 0.910 1.773 6134
2.767 0.952 1.850 1711
2.649 0.912 1.765 9015
2.772 0.954 1.841 2610
2.667 0.918 1.765 9197
2.789 0.960 1.841 2293
2.742 0.944 1.801 10240
2.619 0.901 1.725 1935
2.753 0.947 1.796 9087
2.630 0.905 1.721 2127
2.764 0.951 1.792 8244
2.641 0.909 1.717 1911
2.769 0.953 1.784 7525
2.645 0.910 1.709 1237
2.767 0.952 1.771 6546
2.891 0.995 1.846 1027
2.771 0.954 1.763 6062
2.895 0.996 1.837 1957
2.789 0.960 1.762 7320
2.913 1.002 1.836 2613
2.800 0.963 1.758 9020
2.924 1.006 1.831 2737
2.798 0.963 1.745 8492
2.922 1.006 1.818 2871
2.802 0.964 1.737 8002
2.927 1.007 1.809 2928
2.813 0.968 1.732 5416
2.938 1.011 1.804 2921
2.903 0.999 1.773 5397
2.778 0.956 1.701 1324
3.028 1.042 1.844 764
2.914 1.003 1.768 6543
2.789 0.960 1.696 1033
3.039 1.046 1.839 953
2.945 1.013 1.774 7684
2.820 0.970 1.703 1477
3.071 1.057 1.845 850
2.956 1.017 1.768 8937
2.831 0.974 1.698 1574
3.089 1.063 1.843 1022
2.974 1.023 1.767 8359
2.848 0.980 1.697 1771
3.100 1.067 1.837 1515
3.005 1.034 1.772 8132
2.879 0.991 1.703 1728
3.131 1.077 1.842 1136
3.016 1.038 1.767 6798
2.890 0.994 1.698 1818
3.142 1.081 1.836 1071
3.067 1.055 1.783 7303
2.941 1.012 1.714 2248
3.194 1.099 1.852 899
3.078 1.059 1.778 9056
2.952 1.016 1.709 1828
3.205 1.103 1.846 1185
3.090 1.063 1.772 8239
2.963 1.020 1.704 1897
3.216 1.107 1.840 1101
3.094 1.065 1.762 5952
3.221 1.108 1.830 1633
2.967 1.021 1.695 1382
3.105 1.069 1.757 4448
3.232 1.112 1.824 1854
2.978 1.025 1.689 924
3.116 1.072 1.751 5158
3.244 1.116 1.818 1524
2.989 1.029 1.684 1055
3.188 1.097 1.776 8770
3.060 1.053 1.710 1912
3.192 1.099 1.767 11691
3.065 1.055 1.700 1266
3.204 1.102 1.760 13016
3.076 1.058 1.694 1439
3.222 1.109 1.757 13184
3.094 1.065 1.692 2037
3.240 1.115 1.754 12177
3.111 1.071 1.689 2531
3.244 1.116 1.745 10015
3.116 1.072 1.680 2490
3.248 1.118 1.735 9961
3.120 1.074 1.671 1699
3.377 1.162 1.799 933
3.260 1.122 1.728 9399
3.388 1.166 1.792 1504
3.131 1.077 1.664 814
3.264 1.123 1.718 8683
3.407 1.172 1.788 1777
3.268 1.125 1.708 7891
3.397 1.169 1.771 2492
3.279 1.129 1.702 5919
3.409 1.173 1.764 3133
3.284 1.130 1.692 5186
3.413 1.175 1.754 2926
3.295 1.134 1.685 4845
3.425 1.178 1.747 2361
3.408 1.173 1.727 5448
3.279 1.128 1.665 3557
3.420 1.177 1.720 8230
3.290 1.132 1.659 3376
3.550 1.221 1.781 905
3.431 1.181 1.712 6298
3.301 1.136 1.652 2759
3.561 1.225 1.773 1530
3.442 1.184 1.705 4130
3.312 1.140 1.645 1611
3.572 1.229 1.765 1406
3.453 1.188 1.698 4028
3.597 1.238 1.764 1425
3.464 1.192 1.690 3530
3.678 1.266 1.787 1467
3.531 1.215 1.708 4734
3.400 1.170 1.649 2050
3.689 1.269 1.779 1996
3.535 1.216 1.697 6175
3.687 1.269 1.765 2407
3.404 1.171 1.639 1459
3.525 1.213 1.680 8262
3.670 1.263 1.745 3890
3.802 1.308 1.803 821
3.523 1.212 1.666 8236
3.661 1.260 1.727 5457
3.792 1.305 1.785 1541
3.527 1.214 1.656 4843
3.672 1.264 1.719 4075
3.804 1.309 1.777 1658
3.732 1.284 1.732 4441
3.566 1.227 1.660 4085
3.884 1.337 1.798 1704
3.764 1.295 1.733 5751
3.896 1.341 1.789 3481
3.556 1.224 1.643 3343
3.796 1.306 1.733 7731
3.928 1.352 1.789 3227
3.664 1.261 1.677 2243
3.532 1.216 1.621 1803
3.801 1.308 1.721 9149
3.933 1.353 1.777 3469
3.669 1.262 1.666 1446
3.537 1.217 1.610 841
3.791 1.305 1.704 6651
3.923 1.350 1.759 5993
3.659 1.259 1.649 1133
3.914 1.347 1.742 9359
3.781 1.301 1.687 5690
4.046 1.392 1.797 1058
3.918 1.348 1.730 10641
3.786 1.303 1.675 6379
4.051 1.394 1.784 1174
3.923 1.350 1.718 11174
3.790 1.304 1.664 3991
4.055 1.396 1.772 1576
3.927 1.351 1.706 10154
4.060 1.397 1.759 3160
3.794 1.306 1.652 2040
3.931 1.353 1.694 6588
4.064 1.399 1.747 4408
3.798 1.307 1.640 1591
3.943 1.357 1.685 5529
4.076 1.403 1.737 5210
3.809 1.311 1.632 884
4.209 1.448 1.790 790
4.087 1.406 1.728 6341
3.954 1.361 1.675 4993
4.092 1.408 1.715 7036
3.958 1.362 1.663 2640
4.096 1.409 1.703 6158
4.229 1.455 1.755 895
3.962 1.363 1.651 871
4.178 1.438 1.720 6228
4.044 1.392 1.669 2331
4.126 1.420 1.686 7046
4.259 1.466 1.737 922
4.123 1.419 1.671 6888
4.257 1.465 1.721 1285
4.120 1.418 1.655 4315
4.254 1.464 1.705 2801
4.237 1.458 1.685 4834
4.103 1.412 1.635 2790
4.241 1.460 1.672 6172
4.107 1.413 1.623 2808
4.376 1.506 1.721 1176
4.246 1.461 1.659 8296
4.380 1.507 1.708 2001
4.111 1.415 1.610 1697
4.250 1.462 1.646 5631
4.385 1.509 1.694 2684
4.360 1.500 1.671 3985
4.226 1.454 1.623 1850
4.538 1.562 1.734 1278
4.336 1.492 1.647 4197
4.556 1.568 1.725 2354
4.201 1.446 1.600 784
4.326 1.489 1.629 4976
4.575 1.574 1.716 3393
4.344 1.495 1.621 4293
4.601 1.583 1.709 3080
4.377 1.506 1.617 4932
4.633 1.594 1.705 2685
4.374 1.505 1.602 5051
4.631 1.593 1.688 3240
4.371 1.504 1.586 3862
4.642 1.597 1.677 3082
4.778 1.644 1.722 1029
4.506 1.551 1.631 1009
4.718 1.623 1.686 3435
4.368 1.503 1.570 3021
4.532 1.560 1.625 1172
4.853 1.670 1.731 1128
4.729 1.627 1.674 3686
4.865 1.674 1.719 1905
4.372 1.504 1.557 1558
4.593 1.581 1.630 1388
4.833 1.663 1.692 9752
4.655 1.602 1.634 3499
4.831 1.662 1.675 16731
4.694 1.615 1.631 3358
4.842 1.666 1.663 17802
4.706 1.619 1.619 3440
4.978 1.713 1.706 774
4.846 1.668 1.648 17129
4.710 1.621 1.605 2622
5.018 1.727 1.702 1109
4.850 1.669 1.633 14922
5.037 1.733 1.691 2092
4.714 1.622 1.591 1829
4.862 1.673 1.621 13675
5.034 1.732 1.674 2983
4.725 1.626 1.578 997
4.858 1.672 1.603 15615
5.038 1.734 1.658 4733
5.175 1.781 1.700 864
4.862 1.673 1.589 15770
5.042 1.735 1.643 5953
5.179 1.782 1.684 1341
5.316 1.829 1.725 804
4.866 1.675 1.574 8759
5.047 1.737 1.627 4917
5.183 1.784 1.668 1963
5.320 1.831 1.709 1738
5.051 1.738 1.612 3180
4.856 1.671 1.555 3110
5.310 1.827 1.689 2933
4.860 1.672 1.540 3640
5.062 1.742 1.599 3427
5.329 1.834 1.677 3424
5.333 1.835 1.660 5077
5.059 1.741 1.581 4346
4.871 1.676 1.527 3650
5.196 1.788 1.621 1866
5.337 1.837 1.644 7554
5.063 1.742 1.566 3622
4.875 1.677 1.512 2131
5.200 1.789 1.605 1514
5.342 1.838 1.628 9834
5.067 1.744 1.550 2232
5.204 1.791 1.589 1297
5.624 1.935 1.707 843
5.331 1.835 1.607 12115
5.628 1.937 1.690 1216
5.194 1.787 1.569 1057
5.056 1.740 1.531 878
5.342 1.838 1.593 13021
5.683 1.956 1.686 1163
5.480 1.886 1.631 1029
5.205 1.791 1.555 874
5.354 1.842 1.579 12171
5.651 1.945 1.659 2560
5.796 1.994 1.699 1177
5.491 1.890 1.616 1078
5.365 1.846 1.564 8121
5.648 1.944 1.640 2878
5.800 1.996 1.681 2286
5.510 1.896 1.603 1842
5.347 1.840 1.542 4397
5.892 2.027 1.686 3549
5.521 1.900 1.588 2102
5.754 1.980 1.650 1550
5.896 2.029 1.668 4103
5.351 1.841 1.526 2816
5.758 1.981 1.632 1998
5.525 1.901 1.571 1297
5.835 2.008 1.633 3411
5.980 2.058 1.671 1960
5.369 1.848 1.513 1918
6.118 2.105 1.707 879
5.846 2.012 1.617 4011
6.035 2.077 1.665 2544
5.373 1.849 1.497 1675
6.297 2.167 1.732 1507
6.032 2.076 1.645 3686
6.294 2.166 1.711 2017
5.857 2.016 1.601 1936
5.384 1.853 1.482 1238
6.014 2.070 1.621 3000
6.153 2.117 1.656 2505
6.291 2.165 1.690 1900
6.430 2.213 1.725 1385
6.412 2.207 1.699 2980
6.142 2.114 1.633 2397
6.004 2.066 1.599 1090
5.399 1.858 1.451 795
6.431 2.213 1.683 3108
6.570 2.261 1.717 1625
6.183 2.128 1.623 1606
6.545 2.252 1.690 2391
6.406 2.204 1.657 1704
6.194 2.132 1.606 1404
6.542 2.251 1.668 2391
6.323 2.176 1.616 1876
6.754 2.324 1.718 951
6.184 2.128 1.584 882
6.553 2.255 1.650 1646
6.334 2.180 1.599 1573
6.743 2.320 1.694 770
6.601 2.272 1.640 1714
6.923 2.382 1.713 1250
6.331 2.178 1.578 889
6.964 2.396 1.700 1300
6.569 2.260 1.611 1268
7.228 2.487 1.760 988
6.708 2.308 1.643 966
7.232 2.489 1.738 1798
7.012 2.413 1.689 1529
6.609 2.274 1.599 1089
6.829 2.350 1.648 1064
7.237 2.490 1.716 2342
7.031 2.420 1.671 2069
6.892 2.372 1.640 1707
6.606 2.273 1.577 797
7.241 2.492 1.693 2126
7.043 2.424 1.651 1794
6.896 2.373 1.619 1547
7.380 2.540 1.724 855
7.245 2.493 1.671 2042
7.054 2.427 1.631 1729
7.495 2.579 1.724 1320
7.634 2.627 1.754 954
7.257 2.497 1.651 2052
7.066 2.431 1.611 1533
7.624 2.623 1.728 1473
7.462 2.568 1.694 1412
7.261 2.499 1.628 1573
7.658 2.635 1.710 1573
7.459 2.567 1.669 1398
7.819 2.691 1.744 1130
7.824 2.692 1.720 2551
7.669 2.639 1.688 2105
7.530 2.591 1.660 1401
7.843 2.699 1.699 3926
7.666 2.638 1.663 2864
7.526 2.590 1.635 1173
7.869 2.708 1.679 5135
7.670 2.639 1.640 2278
7.530 2.591 1.612 852
7.881 2.712 1.656 5444
7.682 2.643 1.618 1147
7.899 2.718 1.635 4157
7.759 2.670 1.608 1110
8.585 2.954 1.765 956
8.378 2.883 1.726 830
7.904 2.720 1.611 4549
8.582 2.953 1.738 1800
8.383 2.885 1.700 1704
8.044 2.768 1.637 812
7.908 2.721 1.586 6460
8.557 2.944 1.706 2250
8.372 2.881 1.672 2159
8.697 2.993 1.732 1780
7.919 2.725 1.563 5027
8.686 2.989 1.702 2333
8.376 2.882 1.646 2141
8.546 2.941 1.677 1584
7.923 2.726 1.539 2626
8.683 2.988 1.674 2055
8.380 2.884 1.621 2046
8.535 2.937 1.648 1060
8.377 2.883 1.594 2092
8.695 2.992 1.649 2060
7.927 2.728 1.515 1915
8.517 2.931 1.618 1217
8.714 2.998 1.625 2237
8.381 2.884 1.568 1546
7.930 2.729 1.491 1442
9.039 3.110 1.681 1326
9.050 3.114 1.654 1804
8.718 3.000 1.598 1726
9.331 3.211 1.701 1437
8.910 3.066 1.631 1104
9.387 3.230 1.681 1495
9.062 3.118 1.628 1337
9.639 3.317 1.723 1049
8.729 3.004 1.573 992
9.384 3.229 1.651 1569
9.651 3.321 1.694 1173
10.287 3.540 1.798 816
9.677 3.330 1.668 1154
9.366 3.223 1.619 985
10.291 3.541 1.766 837
10.288 3.540 1.733 1233
9.689 3.334 1.640 1122
9.940 3.421 1.679 878
10.300 3.544 1.703 1585
9.945 3.422 1.648 1506
9.700 3.338 1.611 1003
10.085 3.471 1.670 861
10.282 3.538 1.668 1827
9.956 3.426 1.619 1277
10.141 3.490 1.647 1089
10.720 3.689 1.733 795
10.279 3.537 1.635 2001
10.138 3.489 1.614 980
10.932 3.762 1.731 878
10.268 3.533 1.601 1675
10.936 3.763 1.697 1466
10.127 3.485 1.581 807
11.092 3.817 1.719 804
10.933 3.762 1.662 1320
10.280 3.537 1.571 869
10.710 3.686 1.631 811
11.103 3.821 1.686 810
10.952 3.769 1.631 1272
11.301 3.889 1.678 849
10.811 3.720 1.611 830
11.561 3.978 1.714 805
10.956 3.770 1.597 1585
10.815 3.722 1.578 1091
11.327 3.898 1.647 1075
11.572 3.982 1.679 936
10.960 3.771 1.563 1547
11.331 3.899 1.612 1245
11.599 3.991 1.647 1130
10.811 3.720 1.544 915
10.956 3.770 1.529 1086
11.335 3.901 1.577 1075
11.603 3.993 1.611 929
11.347 3.905 1.543 786
12.987 4.469 1.706 901
12.630 4.346 1.663 827
11.626 4.001 1.542 808
12.012 4.134 1.588 769
12.998 4.473 1.667 1192
12.626 4.345 1.624 847
13.601 4.680 1.739 759
13.003 4.474 1.627 1002
13.081 4.501 1.596 783
12.679 4.363 1.551 767
2.185 0.743 1.754 4500
2.190 0.744 1.748 9001
2.049 0.696 1.642 1128
2.342 0.796 1.863 851
2.194 0.746 1.741 9001
2.347 0.798 1.855 1702
2.053 0.698 1.636 1128
2.199 0.747 1.734 9706
2.352 0.799 1.848 1683
2.064 0.701 1.634 883
2.203 0.749 1.728 10411
2.369 0.805 1.850 1690
2.207 0.750 1.721 8302
2.380 0.809 1.848 1539
2.212 0.752 1.714 6193
2.403 0.817 1.854 1774
2.216 0.753 1.708 6193
2.414 0.820 1.851 2167
2.227 0.757 1.706 4430
2.406 0.818 1.835 3982
2.398 0.815 1.819 6370
2.237 0.760 1.703 2821
2.409 0.819 1.816 7620
2.241 0.762 1.697 3726
2.527 0.859 1.900 1016
2.420 0.822 1.813 9016
2.246 0.763 1.690 4632
2.538 0.863 1.897 1360
2.450 0.833 1.823 6845
2.256 0.767 1.687 4380
2.486 0.845 1.838 7705
2.273 0.772 1.689 4541
2.490 0.846 1.830 7705
2.284 0.776 1.687 3259
2.501 0.850 1.827 6746
2.382 0.810 1.745 2619
2.263 0.769 1.663 1498
2.506 0.852 1.820 5924
2.386 0.811 1.738 2272
2.267 0.770 1.656 1552
2.511 0.853 1.812 4966
2.391 0.813 1.731 2155
2.271 0.772 1.649 1193
2.630 0.894 1.894 767
2.566 0.872 1.839 5919
2.427 0.825 1.745 3026
2.307 0.784 1.664 1138
2.570 0.874 1.831 5636
2.450 0.833 1.750 2532
2.324 0.790 1.665 934
2.569 0.873 1.819 5455
2.448 0.832 1.738 2201
2.328 0.791 1.658 764
2.580 0.877 1.815 6990
2.459 0.836 1.735 1983
2.584 0.878 1.808 8627
2.463 0.837 1.728 1466
2.602 0.884 1.808 7290
2.481 0.843 1.729 1465
2.613 0.888 1.804 6616
2.491 0.847 1.725 1128
2.624 0.892 1.801 4785
2.502 0.850 1.722 812
2.654 0.902 1.809 3500
2.588 0.879 1.756 3729
2.710 0.921 1.834 2236
2.599 0.883 1.752 4571
2.721 0.925 1.830 1960
2.648 0.900 1.773 6455
2.771 0.942 1.850 1782
2.659 0.904 1.769 9281
2.782 0.945 1.845 2070
2.670 0.907 1.765 9456
2.793 0.949 1.841 2426
2.746 0.933 1.801 10956
2.623 0.891 1.725 1688
2.757 0.937 1.796 9644
2.634 0.895 1.721 1920
2.768 0.941 1.792 8726
2.645 0.899 1.717 1844
2.772 0.942 1.784 7781
2.649 0.900 1.709 1188
2.770 0.942 1.771 6549
2.894 0.984 1.846 1139
2.775 0.943 1.763 6110
2.899 0.985 1.837 2265
2.793 0.949 1.762 8070
2.917 0.991 1.836 3025
2.797 0.951 1.754 10157
2.921 0.993 1.827 3288
2.801 0.952 1.745 9524
2.926 0.994 1.818 3193
2.806 0.954 1.737 8891
2.931 0.996 1.809 3097
2.817 0.957 1.732 5838
2.942 1.000 1.804 3126
2.907 0.988 1.773 5815
2.782 0.945 1.701 1227
3.032 1.030 1.844 814
2.918 0.992 1.768 7110
2.793 0.949 1.696 970
3.043 1.034 1.839 946
2.949 1.002 1.774 7921
2.823 0.960 1.703 1303
3.075 1.045 1.845 928
2.960 1.006 1.768 8785
2.834 0.963 1.698 1270
3.093 1.051 1.843 1262
2.978 1.012 1.767 8019
3.104 1.055 1.837 1719
2.852 0.969 1.697 1475
3.009 1.023 1.772 7601
2.883 0.980 1.703 1733
3.135 1.065 1.842 1011
3.020 1.026 1.767 6381
2.894 0.983 1.698 1953
3.146 1.069 1.836 815
3.071 1.044 1.783 7101
2.945 1.001 1.714 2447
3.198 1.087 1.852 846
3.082 1.048 1.778 8914
2.956 1.004 1.709 1825
3.209 1.091 1.846 1123
3.094 1.051 1.772 8079
2.967 1.008 1.704 1654
3.221 1.095 1.840 1027
3.098 1.053 1.762 5769
3.225 1.096 1.830 1411
2.971 1.010 1.695 1204
3.149 1.070 1.778 4416
3.015 1.025 1.707 1128
3.120 1.060 1.751 4858
3.248 1.104 1.818 1332
2.993 1.017 1.684 920
3.192 1.085 1.776 7666
3.064 1.041 1.710 1892
3.197 1.086 1.767 10464
3.069 1.043 1.700 1171
3.208 1.090 1.760 12029
3.080 1.047 1.694 1295
3.226 1.096 1.757 12878
3.098 1.053 1.692 1959
3.244 1.102 1.754 11359
3.115 1.059 1.689 2747
3.248 1.104 1.745 8858
3.120 1.060 1.680 2722
3.253 1.105 1.735 8565
3.124 1.062 1.671 1911
3.381 1.149 1.799 808
3.264 1.109 1.728 7482
3.393 1.153 1.792 1198
3.135 1.065 1.664 974
3.268 1.111 1.718 6991
3.397 1.155 1.782 1355
3.266 1.110 1.705 6983
3.395 1.154 1.768 2231
3.277 1.114 1.698 5727
3.406 1.158 1.761 2538
3.288 1.117 1.692 5545
3.418 1.162 1.754 2457
3.299 1.121 1.685 5260
3.429 1.165 1.747 2298
3.413 1.160 1.727 4828
3.283 1.116 1.665 3794
3.424 1.164 1.720 7093
3.294 1.119 1.659 3575
3.554 1.208 1.781 990
3.435 1.167 1.712 5745
3.305 1.123 1.652 2916
3.566 1.212 1.773 1529
3.447 1.171 1.705 4302
3.316 1.127 1.645 1845
3.577 1.216 1.765 1415
3.458 1.175 1.698 3947
3.616 1.229 1.770 1510
3.327 1.131 1.638 751
3.469 1.179 1.690 3147
3.607 1.226 1.753 1720
3.535 1.201 1.708 4297
3.687 1.253 1.776 1841
3.404 1.157 1.649 1772
3.546 1.205 1.700 5638
3.685 1.252 1.762 2048
3.415 1.161 1.642 1794
3.537 1.202 1.683 7573
3.682 1.251 1.748 3790
3.406 1.157 1.625 757
3.520 1.196 1.663 7924
3.673 1.248 1.730 5382
3.804 1.293 1.788 1298
3.677 1.250 1.719 4632
3.532 1.200 1.656 4580
3.809 1.294 1.777 1442
3.730 1.268 1.729 4491
3.570 1.213 1.660 3689
3.890 1.322 1.798 2315
3.776 1.283 1.736 4991
3.908 1.328 1.792 4436
3.561 1.210 1.643 3086
3.801 1.292 1.733 6758
3.933 1.337 1.789 4320
3.669 1.247 1.677 2433
3.537 1.202 1.621 1557
3.806 1.293 1.721 8433
3.938 1.338 1.777 4868
3.673 1.248 1.666 1607
3.915 1.330 1.753 8624
3.782 1.285 1.698 6516
3.650 1.240 1.643 1080
3.926 1.334 1.744 10754
3.793 1.289 1.689 6071
4.059 1.379 1.799 966
3.661 1.244 1.635 887
3.923 1.333 1.730 12218
3.791 1.288 1.675 5751
4.056 1.378 1.784 1216
3.928 1.335 1.718 12936
3.795 1.290 1.664 3186
4.061 1.380 1.772 1538
3.932 1.336 1.706 11687
4.065 1.382 1.759 3194
3.799 1.291 1.652 1736
3.936 1.338 1.694 8697
4.070 1.383 1.747 4403
3.803 1.293 1.640 1449
3.941 1.339 1.682 7043
4.074 1.385 1.735 5255
4.207 1.430 1.788 779
4.100 1.393 1.731 7134
3.959 1.345 1.675 5621
4.097 1.392 1.715 8470
3.963 1.347 1.663 3038
4.108 1.396 1.706 7373
