12.105 5.364 1.494 1069
12.108 5.365 1.456 1029
12.119 5.370 1.418 795
2.101 0.924 1.745 9654
2.105 0.926 1.738 19308
2.110 0.928 1.732 19308
2.114 0.929 1.725 18170
2.262 0.995 1.839 911
2.118 0.931 1.719 17031
2.278 1.002 1.841 1277
2.122 0.933 1.712 13627
2.295 1.009 1.843 1713
2.121 0.932 1.701 10636
2.299 1.011 1.836 2226
2.125 0.934 1.694 10636
2.304 1.013 1.829 2226
2.129 0.936 1.688 7949
2.272 0.999 1.795 2964
2.133 0.938 1.681 5262
2.277 1.001 1.788 4247
2.281 1.003 1.781 5455
2.149 0.945 1.683 3819
2.292 1.008 1.778 6687
2.165 0.952 1.685 2643
2.406 1.058 1.862 858
2.296 1.009 1.771 5993
2.169 0.954 1.679 2537
2.411 1.060 1.854 1060
2.306 1.014 1.768 5299
2.173 0.956 1.672 2431
2.421 1.065 1.851 1040
2.311 1.016 1.761 5299
2.184 0.960 1.670 2296
2.069 0.909 1.587 1093
2.426 1.067 1.843 1066
2.315 1.018 1.754 4377
2.430 1.069 1.836 2381
2.194 0.965 1.667 2230
2.078 0.914 1.585 1534
2.423 1.065 1.820 3994
2.307 1.014 1.738 3258
2.192 0.964 1.656 2251
2.076 0.913 1.574 1514
2.421 1.065 1.808 5338
2.305 1.014 1.726 3334
2.111 0.928 1.589 2331
2.420 1.064 1.796 6654
2.304 1.013 1.715 3141
2.114 0.930 1.582 2408
2.351 1.033 1.737 6165
2.118 0.931 1.576 3131
2.467 1.085 1.818 2924
2.234 0.982 1.657 1691
2.355 1.035 1.730 6990
2.128 0.936 1.573 3805
2.471 1.087 1.810 1940
2.365 1.040 1.727 6139
2.126 0.935 1.563 3154
2.482 1.091 1.807 1668
2.249 0.989 1.647 1296
2.382 1.047 1.728 5898
2.124 0.934 1.552 2530
2.499 1.099 1.808 1464
2.265 0.996 1.648 896
2.392 1.052 1.725 3974
2.509 1.103 1.804 2345
2.133 0.938 1.549 1938
2.269 0.998 1.641 814
2.470 1.086 1.767 4597
2.143 0.942 1.547 1354
2.353 1.035 1.688 970
2.588 1.138 1.846 893
2.487 1.093 1.767 8054
2.147 0.944 1.540 1870
2.605 1.145 1.846 1533
2.370 1.042 1.689 1090
2.491 1.095 1.760 11651
2.151 0.946 1.534 2386
2.609 1.147 1.838 2293
2.374 1.044 1.682 759
2.502 1.100 1.756 11399
2.148 0.945 1.523 2489
2.620 1.152 1.834 1918
2.513 1.105 1.752 11263
2.152 0.946 1.516 2535
2.631 1.157 1.830 1564
2.523 1.109 1.748 8410
2.156 0.948 1.509 2292
2.641 1.161 1.825 1673
2.559 1.125 1.761 6776
2.153 0.947 1.499 1703
2.683 1.180 1.841 1391
2.582 1.135 1.765 5000
2.700 1.187 1.841 1365
2.163 0.951 1.496 1267
2.586 1.137 1.757 3387
2.705 1.189 1.833 1485
2.167 0.953 1.489 873
2.628 1.155 1.772 3467
2.747 1.208 1.848 1332
2.509 1.103 1.697 821
2.620 1.152 1.756 3671
2.739 1.204 1.831 2563
2.712 1.192 1.803 4063
2.593 1.140 1.728 2555
2.666 1.172 1.763 5490
2.786 1.225 1.838 1263
2.670 1.174 1.755 6816
2.790 1.227 1.829 873
2.153 0.947 1.436 831
2.738 1.204 1.785 6633
2.618 1.151 1.712 1664
2.858 1.257 1.859 809
2.163 0.951 1.433 770
2.755 1.211 1.785 7636
2.635 1.158 1.711 1962
2.772 1.219 1.784 6549
2.652 1.166 1.711 2182
2.802 1.232 1.790 7147
2.681 1.179 1.718 2115
2.819 1.239 1.789 5807
2.698 1.186 1.717 1801
2.836 1.247 1.788 3941
2.677 1.177 1.693 819
2.866 1.260 1.794 2920
2.909 1.279 1.807 3628
2.787 1.225 1.736 1128
2.920 1.284 1.802 4986
2.798 1.230 1.731 1373
2.930 1.288 1.796 7008
2.809 1.235 1.726 2031
2.935 1.290 1.787 7696
2.813 1.237 1.717 2506
3.057 1.344 1.857 855
2.946 1.295 1.782 6459
2.824 1.241 1.712 2859
2.982 1.311 1.790 7254
2.853 1.255 1.718 2748
2.987 1.313 1.781 8611
2.864 1.259 1.713 2049
2.978 1.309 1.765 7800
2.855 1.255 1.696 1358
2.976 1.308 1.752 5460
3.099 1.362 1.819 976
2.993 1.316 1.749 3843
3.116 1.370 1.817 812
3.004 1.321 1.744 5153
3.127 1.375 1.811 967
3.015 1.325 1.738 6352
3.138 1.380 1.804 1492
3.026 1.330 1.732 5478
3.149 1.385 1.798 1792
3.030 1.332 1.722 4192
3.154 1.387 1.788 2217
3.138 1.380 1.768 4962
3.014 1.325 1.702 3175
3.143 1.382 1.758 6660
3.019 1.327 1.693 2668
3.147 1.384 1.748 6604
3.023 1.329 1.683 2099
3.158 1.388 1.742 6030
3.033 1.334 1.677 1814
3.169 1.393 1.735 5587
3.044 1.338 1.671 1201
3.180 1.398 1.728 5373
3.055 1.343 1.665 1090
3.177 1.397 1.715 4735
3.329 1.463 1.791 898
3.039 1.336 1.645 836
3.234 1.422 1.731 6466
3.109 1.367 1.669 1655
3.359 1.477 1.794 828
3.238 1.424 1.721 7168
3.364 1.479 1.784 1346
3.113 1.369 1.659 1118
3.249 1.429 1.714 5223
3.375 1.484 1.776 1360
3.260 1.433 1.707 4654
3.386 1.489 1.769 1537
3.258 1.432 1.694 5254
3.383 1.488 1.755 1898
3.248 1.428 1.677 5172
3.375 1.484 1.738 2296
3.239 1.424 1.661 2695
3.379 1.486 1.727 2592
3.396 1.493 1.723 2561
3.223 1.417 1.641 929
3.563 1.566 1.802 889
3.394 1.492 1.709 2980
3.520 1.548 1.769 1528
3.478 1.529 1.736 3813
3.351 1.473 1.677 2768
3.605 1.585 1.795 2356
3.482 1.531 1.725 6731
3.609 1.587 1.784 3432
3.355 1.475 1.666 3046
3.493 1.536 1.717 7273
3.620 1.592 1.775 3525
3.366 1.480 1.659 2796
3.504 1.541 1.709 4755
3.631 1.596 1.767 2786
3.377 1.485 1.651 2090
3.515 1.545 1.701 3849
3.642 1.601 1.758 2045
3.388 1.489 1.644 1380
3.526 1.550 1.693 4065
3.653 1.606 1.750 2123
3.611 1.587 1.718 3821
3.483 1.531 1.661 1696
3.601 1.583 1.700 2543
3.729 1.640 1.757 1735
3.740 1.644 1.748 4025
3.612 1.588 1.692 1864
3.744 1.646 1.736 5458
3.616 1.590 1.681 3091
3.749 1.648 1.724 8727
3.620 1.592 1.669 3160
3.753 1.650 1.712 12437
3.625 1.594 1.658 2333
3.764 1.655 1.703 11282
3.635 1.598 1.649 1985
3.768 1.657 1.692 12921
3.897 1.713 1.745 1624
3.639 1.600 1.638 928
3.765 1.655 1.677 21291
3.894 1.712 1.730 2235
3.769 1.657 1.665 25484
3.898 1.714 1.718 2870
3.773 1.659 1.653 18689
3.903 1.716 1.706 4596
3.778 1.661 1.641 14065
3.907 1.718 1.693 7416
4.083 1.795 1.765 761
3.788 1.666 1.632 16774
3.918 1.722 1.684 10896
4.047 1.779 1.735 1052
3.799 1.670 1.623 17761
3.929 1.727 1.674 13633
4.058 1.784 1.725 2951
3.926 1.726 1.659 18606
3.796 1.669 1.608 13119
4.076 1.792 1.718 7083
3.930 1.728 1.647 19511
4.094 1.800 1.710 9874
3.800 1.671 1.596 6603
4.251 1.869 1.772 762
3.934 1.730 1.634 16952
4.098 1.802 1.698 8196
3.804 1.672 1.584 4166
4.228 1.859 1.748 868
3.938 1.731 1.622 14353
4.116 1.810 1.690 5390
3.808 1.674 1.572 3251
4.246 1.867 1.739 1214
3.942 1.733 1.610 12220
4.134 1.817 1.682 4262
4.264 1.875 1.731 1701
3.805 1.673 1.558 1367
3.946 1.735 1.597 10054
4.145 1.822 1.672 4779
4.275 1.879 1.720 2676
3.950 1.736 1.585 6191
4.169 1.833 1.666 4385
4.300 1.890 1.715 2457
4.194 1.844 1.661 3728
3.953 1.738 1.572 2994
4.324 1.901 1.709 2781
4.349 1.912 1.702 4283
4.219 1.855 1.655 2626
3.957 1.740 1.560 1455
4.353 1.914 1.689 4817
4.223 1.857 1.642 2264
4.484 1.971 1.736 771
4.364 1.919 1.677 6634
4.213 1.852 1.623 2920
4.495 1.976 1.724 896
4.375 1.924 1.666 6834
4.217 1.854 1.610 2555
4.562 2.006 1.732 1007
4.393 1.932 1.657 5207
4.524 1.989 1.703 1978
4.241 1.865 1.604 1525
4.487 1.973 1.674 5374
4.356 1.915 1.629 1855
4.498 1.978 1.663 3608
4.367 1.920 1.618 1252
4.551 2.001 1.665 2179
4.412 1.940 1.618 1884
4.682 2.059 1.709 1008
4.478 1.969 1.625 2759
4.610 2.027 1.669 2715
4.742 2.085 1.713 1473
4.607 2.026 1.652 4581
4.475 1.968 1.608 2422
4.739 2.084 1.696 2142
4.611 2.027 1.638 4257
4.750 2.088 1.683 2845
4.479 1.969 1.594 969
4.761 2.093 1.671 5615
4.622 2.032 1.625 2774
4.772 2.098 1.658 8535
4.640 2.040 1.615 1928
4.776 2.100 1.643 8646
4.985 2.192 1.709 1545
4.644 2.042 1.601 1118
4.773 2.099 1.625 7632
4.989 2.193 1.693 2193
4.791 2.106 1.615 9995
4.993 2.195 1.678 2867
4.795 2.108 1.600 9504
5.011 2.203 1.666 3801
4.792 2.107 1.582 6134
5.022 2.208 1.652 4391
5.155 2.266 1.693 1146
5.012 2.204 1.632 4210
4.796 2.108 1.567 3888
5.145 2.262 1.672 1476
5.023 2.209 1.619 3930
4.800 2.110 1.552 2203
5.156 2.267 1.658 1525
5.020 2.207 1.601 3966
5.223 2.296 1.660 2867
4.810 2.115 1.539 1716
5.363 2.358 1.702 980
5.157 2.267 1.623 4203
5.010 2.203 1.581 3335
5.290 2.326 1.662 2697
4.835 2.126 1.530 803
5.168 2.272 1.609 4756
5.350 2.352 1.662 2820
5.000 2.198 1.561 1664
5.221 2.296 1.607 6345
5.361 2.357 1.647 2616
4.997 2.197 1.543 1126
5.379 2.365 1.634 4557
5.232 2.300 1.592 4411
4.993 2.195 1.525 802
5.376 2.364 1.615 5954
5.243 2.305 1.578 1858
5.826 2.561 1.739 1396
5.373 2.362 1.596 6493
5.830 2.563 1.721 3751
5.240 2.304 1.559 1638
5.507 2.421 1.632 1103
5.391 2.370 1.583 6987
5.834 2.565 1.702 5283
5.258 2.312 1.546 1609
5.701 2.506 1.666 1287
5.402 2.375 1.567 6074
5.839 2.567 1.684 5370
5.268 2.316 1.532 1113
5.705 2.508 1.648 1078
5.850 2.572 1.667 6426
5.413 2.380 1.552 5046
5.244 2.306 1.508 1338
5.984 2.631 1.703 1009
5.854 2.574 1.649 8702
5.417 2.382 1.535 3915
5.269 2.316 1.497 1269
5.988 2.633 1.684 1198
5.851 2.572 1.629 8512
5.420 2.383 1.518 2771
5.985 2.631 1.663 1879
6.204 2.727 1.719 1226
5.855 2.574 1.610 5097
5.989 2.633 1.644 2170
6.201 2.726 1.698 1904
5.417 2.382 1.499 1664
6.205 2.728 1.678 2479
5.873 2.582 1.595 2142
6.007 2.641 1.629 1010
6.367 2.799 1.719 990
6.386 2.807 1.702 1806
6.209 2.730 1.658 1761
5.983 2.630 1.603 1112
5.848 2.571 1.569 891
6.404 2.816 1.685 1911
5.987 2.632 1.584 1694
6.185 2.719 1.632 1462
6.380 2.805 1.658 1921
6.189 2.721 1.612 1580
5.997 2.637 1.566 1460
6.514 2.864 1.690 1437
6.391 2.810 1.640 2339
6.681 2.937 1.708 1880
6.532 2.872 1.673 1585
6.200 2.726 1.594 1138
6.685 2.939 1.687 2943
6.544 2.877 1.654 2211
6.395 2.812 1.619 1589
6.689 2.941 1.666 3805
6.533 2.873 1.630 2415
6.356 2.795 1.589 1105
7.023 3.088 1.743 949
6.694 2.943 1.645 4044
6.537 2.874 1.610 2890
7.034 3.093 1.722 1316
6.828 3.002 1.675 1130
6.705 2.948 1.625 5253
7.038 3.094 1.700 2140
6.548 2.879 1.590 1988
6.840 3.007 1.655 1052
6.709 2.949 1.604 5609
7.042 3.096 1.678 2901
7.277 3.199 1.729 1415
6.567 2.887 1.573 1208
6.712 2.951 1.583 3991
7.054 3.101 1.657 3195
7.288 3.204 1.708 1328
6.577 2.892 1.554 1276
7.058 3.103 1.634 3855
6.731 2.959 1.565 2760
7.285 3.203 1.683 1089
7.719 3.394 1.776 1026
7.062 3.105 1.612 3685
6.720 2.955 1.540 1643
7.738 3.402 1.754 1627
7.289 3.205 1.660 1606
7.073 3.110 1.591 2973
7.293 3.207 1.637 2410
7.778 3.420 1.737 1830
7.486 3.291 1.677 1316
7.077 3.111 1.569 2361
7.297 3.208 1.614 2170
7.582 3.334 1.672 1811
7.782 3.421 1.712 1720
7.594 3.339 1.649 2008
7.886 3.467 1.708 1812
7.080 3.113 1.546 1758
7.750 3.408 1.681 1592
7.890 3.469 1.683 2297
8.040 3.535 1.712 1911
7.755 3.409 1.656 1881
7.605 3.343 1.626 1463
8.015 3.524 1.681 3217
7.880 3.464 1.655 2943
8.151 3.584 1.707 1530
7.744 3.405 1.629 1441
8.020 3.526 1.656 4132
7.884 3.466 1.630 3109
8.155 3.586 1.681 1678
7.748 3.407 1.604 1276
8.045 3.537 1.634 4293
8.181 3.597 1.660 2911
7.838 3.446 1.596 2158
7.702 3.386 1.570 939
8.163 3.589 1.630 5883
8.027 3.529 1.605 3438
7.892 3.470 1.580 1419
7.756 3.410 1.555 933
8.167 3.591 1.604 7030
8.031 3.531 1.579 3322
7.896 3.471 1.555 1399
8.064 3.545 1.559 4877
8.200 3.605 1.583 3389
7.921 3.482 1.534 1210
8.068 3.547 1.533 4337
8.204 3.607 1.557 2210
8.064 3.545 1.507 3136
8.200 3.605 1.530 1973
8.061 3.544 1.480 2523
8.197 3.604 1.503 1632
8.064 3.545 1.454 1804
8.200 3.605 1.477 1204
8.068 3.547 1.429 1143
10.269 4.515 1.783 869
10.266 4.514 1.749 1022
8.078 3.552 1.404 875
10.335 4.544 1.726 920
10.148 4.462 1.698 838
10.332 4.542 1.693 1493
10.138 4.457 1.663 1364
10.336 4.544 1.660 1879
10.120 4.450 1.628 1273
10.333 4.543 1.626 1770
10.167 4.470 1.602 1005
10.491 4.612 1.649 1004
11.267 4.954 1.761 970
10.322 4.538 1.591 1369
11.257 4.949 1.723 1195
10.171 4.472 1.570 975
11.091 4.876 1.700 900
10.312 4.534 1.556 1127
11.261 4.951 1.687 1077
11.103 4.881 1.666 1021
10.168 4.470 1.536 814
10.308 4.532 1.523 1029
11.114 4.886 1.631 948
11.272 4.956 1.653 844
8.384 3.686 1.236 992
10.312 4.534 1.490 780
11.470 5.043 1.642 761
8.387 3.687 1.209 1107
11.496 5.054 1.609 973
10.359 4.554 1.463 843
11.500 5.056 1.572 1032
12.040 5.293 1.640 903
8.389 3.688 1.183 817
11.482 5.048 1.533 773
12.116 5.327 1.533 823
12.120 5.329 1.494 1036
12.123 5.330 1.456 1015
12.127 5.332 1.417 750
8.383 3.686 0.593 763
8.384 3.686 0.567 794
8.378 3.683 0.540 769
2.098 0.915 1.740 10294
2.102 0.917 1.734 20588
1.990 0.868 1.647 808
2.106 0.919 1.727 20588
1.994 0.870 1.640 808
2.117 0.923 1.725 19046
2.265 0.988 1.839 1038
2.121 0.925 1.719 17578
2.275 0.993 1.837 1360
2.119 0.924 1.708 14483
2.292 1.000 1.839 1799
2.123 0.926 1.701 11871
2.296 1.002 1.832 2326
2.127 0.928 1.694 11871
2.301 1.004 1.824 2326
2.132 0.930 1.688 9120
2.281 0.995 1.799 2798
2.136 0.932 1.681 6369
2.280 0.995 1.788 3795
2.290 0.999 1.785 5140
2.146 0.936 1.679 4463
2.295 1.001 1.778 6529
2.162 0.943 1.681 2762
2.409 1.051 1.862 917
2.299 1.003 1.771 6138
2.166 0.945 1.674 2319
2.414 1.053 1.854 1082
2.309 1.007 1.768 5865
2.170 0.947 1.668 1877
2.424 1.058 1.851 1034
2.314 1.009 1.761 5865
2.180 0.951 1.665 1762
2.429 1.060 1.843 1065
2.065 0.901 1.583 831
2.318 1.011 1.754 4906
2.434 1.062 1.836 2311
2.184 0.953 1.658 1673
2.069 0.903 1.576 1076
2.322 1.013 1.746 3933
2.438 1.064 1.828 3375
2.115 0.923 1.600 2607
2.424 1.058 1.808 4998
2.119 0.925 1.593 3698
2.308 1.007 1.726 3239
2.429 1.059 1.800 6121
2.129 0.929 1.591 3614
2.313 1.009 1.719 2937
2.360 1.029 1.742 5852
2.133 0.931 1.584 3555
2.476 1.080 1.822 2436
2.364 1.031 1.734 6853
2.137 0.932 1.578 3540
2.480 1.082 1.815 1638
2.374 1.036 1.731 6395
2.141 0.934 1.571 2484
2.522 1.100 1.832 1659
2.258 0.985 1.651 1281
2.385 1.040 1.728 6395
2.533 1.105 1.828 1812
2.139 0.933 1.560 1456
2.268 0.989 1.648 966
2.395 1.045 1.725 4430
2.525 1.101 1.812 1895
2.130 0.929 1.545 1411
2.278 0.994 1.645 848
2.449 1.068 1.750 4865
2.566 1.119 1.829 1585
2.128 0.928 1.534 1571
2.478 1.081 1.759 6404
2.138 0.932 1.532 2200
2.595 1.132 1.838 1942
2.360 1.030 1.681 804
2.495 1.088 1.760 9315
2.147 0.937 1.529 2996
2.612 1.140 1.838 2255
2.505 1.093 1.756 8843
2.151 0.938 1.523 3168
2.623 1.144 1.834 1991
2.516 1.097 1.752 8661
2.155 0.940 1.516 3159
2.634 1.149 1.830 1717
2.532 1.105 1.753 6813
2.159 0.942 1.509 2728
2.651 1.156 1.830 1682
2.556 1.115 1.757 6666
2.687 1.172 1.841 1957
2.156 0.940 1.499 1944
2.554 1.114 1.745 5372
2.672 1.166 1.821 2275
2.166 0.945 1.496 1362
2.558 1.116 1.737 4180
2.677 1.168 1.813 2774
2.163 0.944 1.485 980
2.594 1.131 1.749 3497
2.719 1.186 1.828 2228
2.610 1.139 1.748 3684
2.730 1.191 1.824 2898
2.627 1.146 1.748 4055
2.747 1.198 1.823 3379
2.161 0.943 1.457 866
2.720 1.186 1.795 5565
2.600 1.134 1.720 1828
2.159 0.942 1.446 951
2.674 1.166 1.755 6118
2.162 0.943 1.440 1048
2.794 1.219 1.829 1037
2.741 1.196 1.785 6662
2.621 1.143 1.712 1277
2.165 0.945 1.433 968
2.758 1.203 1.785 7724
2.638 1.151 1.711 1252
2.776 1.211 1.784 6842
2.655 1.158 1.711 1319
2.793 1.218 1.783 6644
2.672 1.166 1.710 1145
2.810 1.226 1.781 4589
2.689 1.173 1.709 1286
2.931 1.278 1.853 914
2.846 1.242 1.791 2878
2.725 1.189 1.720 1077
2.857 1.246 1.786 2943
2.735 1.193 1.715 940
2.874 1.254 1.785 3947
2.752 1.201 1.714 957
2.996 1.307 1.856 866
2.910 1.270 1.794 5150
2.789 1.217 1.724 1421
2.934 1.280 1.796 6906
2.812 1.227 1.726 2161
2.945 1.285 1.791 7488
2.823 1.231 1.721 3214
3.067 1.338 1.861 770
2.982 1.301 1.800 6414
2.840 1.239 1.720 3442
2.986 1.303 1.790 8190
2.851 1.244 1.714 2950
2.990 1.305 1.781 9966
2.868 1.251 1.713 2290
2.982 1.301 1.765 8551
2.859 1.247 1.696 1368
2.986 1.303 1.755 5314
2.863 1.249 1.687 935
2.997 1.307 1.749 3420
3.120 1.361 1.817 758
3.008 1.312 1.744 4732
3.131 1.366 1.811 949
3.012 1.314 1.734 6259
3.136 1.368 1.801 1150
3.023 1.319 1.728 5961
3.160 1.378 1.801 1217
3.027 1.321 1.719 4892
3.151 1.375 1.785 2006
3.051 1.331 1.720 5078
3.175 1.385 1.785 3858
3.147 1.373 1.758 6358
3.022 1.318 1.693 2890
3.151 1.375 1.748 6518
3.027 1.320 1.683 2378
2.863 1.249 1.598 776
3.162 1.379 1.742 6036
3.037 1.325 1.677 2020
2.867 1.251 1.589 954
3.173 1.384 1.735 5825
3.048 1.330 1.671 1140
2.877 1.255 1.584 1061
3.190 1.392 1.732 5443
3.065 1.337 1.668 1013
2.881 1.257 1.575 869
3.194 1.394 1.722 4857
3.030 1.322 1.639 960
2.891 1.261 1.569 763
3.232 1.410 1.728 6129
3.106 1.355 1.666 885
2.895 1.263 1.560 790
3.236 1.412 1.718 6433
3.361 1.466 1.780 1232
2.892 1.262 1.548 809
3.253 1.419 1.714 4724
3.379 1.474 1.776 944
3.271 1.427 1.711 4703
3.450 1.505 1.798 1180
3.268 1.426 1.697 4856
3.447 1.504 1.784 1670
3.253 1.419 1.677 4550
3.425 1.494 1.760 1630
3.243 1.415 1.661 3196
3.376 1.473 1.724 1979
3.503 1.528 1.784 825
3.407 1.486 1.726 1942
3.254 1.420 1.654 1527
3.478 1.517 1.747 2113
3.351 1.462 1.687 1786
3.605 1.573 1.806 908
3.476 1.516 1.733 4626
3.603 1.572 1.792 2120
3.349 1.461 1.674 1898
3.480 1.518 1.722 7706
3.614 1.576 1.784 3072
3.353 1.463 1.663 2027
3.498 1.526 1.717 7076
3.625 1.581 1.775 3719
3.370 1.470 1.659 2450
3.509 1.531 1.709 4521
3.636 1.586 1.767 2762
3.381 1.475 1.651 1930
3.513 1.532 1.698 3964
3.640 1.588 1.755 1868
3.385 1.477 1.641 1114
3.524 1.537 1.690 4098
3.651 1.593 1.747 1765
3.534 1.542 1.682 2945
3.662 1.598 1.739 1736
3.646 1.591 1.718 2513
3.774 1.646 1.774 1433
3.518 1.535 1.662 1378
3.758 1.639 1.754 4067
3.630 1.584 1.698 2659
3.502 1.528 1.642 816
3.756 1.638 1.739 5134
3.628 1.582 1.684 3129
3.753 1.637 1.724 7833
3.625 1.581 1.669 2935
3.758 1.639 1.712 11622
3.629 1.583 1.658 2146
3.769 1.644 1.703 10635
3.640 1.588 1.649 1823
3.773 1.646 1.692 11931
3.901 1.702 1.745 1280
3.644 1.590 1.638 825
3.770 1.645 1.677 19594
3.899 1.701 1.730 1834
3.774 1.646 1.665 23138
3.903 1.703 1.718 2423
3.778 1.648 1.653 16824
3.907 1.705 1.706 3980
4.037 1.761 1.758 804
3.789 1.653 1.644 12754
3.918 1.709 1.696 6362
3.793 1.655 1.632 14960
3.923 1.711 1.684 9603
4.052 1.768 1.735 917
3.804 1.659 1.623 15976
3.934 1.716 1.674 11883
4.063 1.772 1.725 2878
3.931 1.715 1.659 15829
3.801 1.658 1.608 11900
4.081 1.780 1.718 6983
3.935 1.716 1.647 16593
4.092 1.785 1.708 9990
3.805 1.660 1.596 5615
3.939 1.718 1.634 14962
4.103 1.790 1.698 8635
3.809 1.662 1.584 3024
4.233 1.847 1.748 771
3.936 1.717 1.619 13167
4.114 1.795 1.687 5134
3.806 1.660 1.570 2077
4.244 1.851 1.737 1165
3.947 1.722 1.610 11213
4.132 1.802 1.679 3874
4.262 1.859 1.729 1545
3.803 1.659 1.555 1010
3.951 1.723 1.597 9055
4.150 1.810 1.672 4576
4.280 1.867 1.720 2255
3.955 1.725 1.585 5501
4.174 1.821 1.666 4250
4.305 1.878 1.715 1989
4.199 1.832 1.661 3706
3.958 1.727 1.572 2633
4.350 1.898 1.716 2447
4.362 1.903 1.705 3711
4.231 1.846 1.657 2886
3.955 1.725 1.557 1273
4.366 1.904 1.691 3600
4.235 1.847 1.644 2183
4.377 1.909 1.680 5389
4.246 1.852 1.633 2136
4.395 1.917 1.671 6791
4.236 1.848 1.615 1839
4.547 1.983 1.725 895
4.406 1.922 1.660 5646
4.537 1.979 1.705 1531
4.240 1.850 1.602 1235
4.493 1.960 1.674 4672
4.361 1.903 1.629 1128
4.504 1.965 1.663 2869
4.372 1.907 1.618 1150
4.556 1.988 1.665 2419
4.404 1.921 1.613 1992
4.688 2.045 1.709 1138
4.595 2.005 1.662 2681
4.463 1.947 1.618 1832
4.727 2.062 1.706 1648
4.613 2.012 1.652 4042
4.745 2.070 1.696 2343
4.481 1.955 1.608 1957
4.617 2.014 1.638 3754
4.749 2.072 1.681 2974
4.774 2.083 1.673 6333
4.635 2.022 1.628 2610
4.785 2.087 1.660 10309
4.653 2.030 1.617 2164
4.789 2.089 1.645 9416
4.657 2.031 1.603 1402
4.991 2.177 1.709 985
4.786 2.088 1.628 7944
5.002 2.182 1.696 1304
4.804 2.096 1.617 11404
5.006 2.184 1.680 1394
4.801 2.094 1.600 10626
5.025 2.192 1.668 2617
4.798 2.093 1.582 7188
5.036 2.197 1.655 3563
5.168 2.255 1.695 915
4.809 2.098 1.569 4589
5.040 2.198 1.639 2908
5.173 2.256 1.679 1110
5.044 2.200 1.623 2760
5.219 2.277 1.675 2421
4.841 2.112 1.562 2082
5.223 2.278 1.658 4891
5.034 2.196 1.603 3056
4.851 2.116 1.549 1797
5.370 2.343 1.702 775
5.185 2.262 1.630 5053
5.016 2.188 1.581 2857
5.353 2.335 1.678 1889
4.862 2.121 1.536 1353
5.203 2.270 1.617 5977
5.336 2.328 1.656 2133
5.069 2.211 1.579 1917
4.901 2.138 1.531 810
5.228 2.280 1.607 9733
5.361 2.339 1.645 1999
5.003 2.182 1.543 1372
5.232 2.282 1.590 9142
5.365 2.340 1.628 3079
4.993 2.178 1.523 1125
5.334 2.327 1.601 6243
5.200 2.269 1.564 3133
5.833 2.545 1.739 1371
5.468 2.385 1.638 1206
5.345 2.332 1.586 6813
5.838 2.547 1.721 4022
5.211 2.273 1.550 2151
5.479 2.390 1.623 1327
5.349 2.333 1.569 6856
5.842 2.548 1.702 5963
5.708 2.490 1.666 1765
5.483 2.392 1.605 1560
5.346 2.332 1.551 6761
5.846 2.550 1.684 6561
5.479 2.390 1.586 1350
5.712 2.492 1.648 1227
5.857 2.555 1.667 7865
5.335 2.327 1.530 4145
5.469 2.386 1.565 1053
5.991 2.614 1.703 933
5.861 2.557 1.649 9290
5.424 2.366 1.535 2780
5.289 2.307 1.500 1613
5.995 2.615 1.684 1556
5.858 2.555 1.629 7770
5.992 2.614 1.663 3151
5.427 2.368 1.518 2105
6.148 2.682 1.703 1154
5.869 2.560 1.612 4873
6.003 2.619 1.646 2556
6.208 2.708 1.698 1562
5.431 2.369 1.501 1192
5.887 2.568 1.597 2683
6.213 2.710 1.678 1948
6.354 2.772 1.713 1004
6.022 2.627 1.630 933
6.387 2.786 1.700 1674
5.990 2.613 1.603 1538
6.210 2.709 1.657 1346
5.856 2.554 1.569 781
6.001 2.618 1.585 2128
6.334 2.763 1.666 1696
6.483 2.828 1.702 1677
6.178 2.695 1.628 1465
6.345 2.768 1.648 2176
6.019 2.626 1.570 1691
6.487 2.830 1.682 1655
6.182 2.697 1.609 1417
6.385 2.785 1.636 2254
6.690 2.918 1.708 1828
6.555 2.859 1.677 1374
6.037 2.634 1.554 963
6.694 2.920 1.687 2852
6.552 2.858 1.654 2040
6.374 2.781 1.613 1486
6.698 2.922 1.666 3566
6.542 2.854 1.630 2685
6.364 2.776 1.589 1101
7.032 3.067 1.743 1044
6.702 2.924 1.645 3862
6.546 2.855 1.610 3117
7.043 3.072 1.722 1428
6.837 2.982 1.675 874
6.706 2.925 1.624 4801
7.047 3.074 1.700 2195
6.564 2.863 1.592 2051
7.282 3.177 1.752 1120
6.717 2.930 1.604 4940
7.051 3.076 1.678 2874
7.286 3.178 1.729 1501
6.582 2.871 1.574 1374
6.714 2.929 1.581 3670
7.070 3.084 1.658 3281
6.579 2.870 1.552 1483
6.849 2.988 1.611 1361
7.067 3.083 1.634 4154
6.725 2.934 1.562 2570
7.729 3.372 1.776 1323
7.530 3.285 1.733 1246
7.071 3.084 1.612 3922
7.748 3.380 1.754 2093
6.721 2.932 1.539 1644
7.299 3.184 1.660 1206
7.082 3.089 1.591 3041
7.773 3.391 1.734 2268
7.303 3.186 1.637 1911
7.638 3.332 1.706 1389
7.085 3.091 1.569 2365
7.785 3.396 1.711 2195
7.592 3.312 1.672 1941
7.307 3.187 1.614 1732
7.774 3.391 1.683 2387
7.596 3.314 1.648 2189
7.910 3.451 1.710 1917
7.089 3.093 1.546 1717
7.900 3.446 1.683 2737
7.764 3.387 1.656 2633
8.043 3.509 1.711 2593
7.607 3.318 1.625 1582
8.040 3.507 1.684 4096
7.904 3.448 1.658 3422
7.761 3.386 1.630 2014
8.176 3.566 1.710 1430
8.044 3.509 1.658 4713
7.901 3.447 1.631 3466
7.765 3.387 1.605 1819
8.180 3.568 1.684 1362
8.055 3.514 1.634 5531
7.805 3.405 1.588 2571
8.191 3.573 1.660 1885
8.066 3.519 1.610 6359
8.202 3.578 1.635 3135
7.794 3.400 1.560 1821
7.930 3.459 1.585 1599
8.070 3.520 1.585 6519
8.206 3.580 1.609 4003
7.920 3.455 1.557 1814
7.784 3.396 1.533 858
8.074 3.522 1.559 6224
8.210 3.581 1.583 3130
7.924 3.456 1.532 1391
8.078 3.524 1.533 5366
8.214 3.583 1.557 1742
8.074 3.522 1.507 4091
8.210 3.582 1.530 1445
8.071 3.521 1.480 3251
8.207 3.580 1.503 1564
8.067 3.519 1.453 2210
8.203 3.579 1.475 1207
8.071 3.521 1.428 1481
8.081 3.525 1.403 1213
10.279 4.484 1.749 789
10.161 4.433 1.698 887
8.077 3.524 1.376 772
10.345 4.513 1.693 1324
10.158 4.431 1.664 1190
10.349 4.514 1.660 1932
10.140 4.424 1.629 1162
10.500 4.580 1.682 914
10.353 4.516 1.627 2094
10.511 4.585 1.650 1145
10.173 4.438 1.601 1098
11.288 4.924 1.762 865
10.350 4.515 1.593 1759
10.177 4.439 1.569 996
11.271 4.917 1.723 945
10.486 4.574 1.612 847
10.397 4.535 1.566 1333
11.282 4.922 1.688 878
11.124 4.853 1.667 856
10.458 4.562 1.541 1225
10.321 4.502 1.523 873
11.128 4.854 1.631 835
11.301 4.930 1.655 795
8.394 3.662 1.236 1115
10.483 4.573 1.511 849
11.499 5.016 1.644 834
8.397 3.663 1.209 1134
11.510 5.021 1.609 1125
10.386 4.531 1.465 763
11.507 5.020 1.571 1182
12.048 5.256 1.639 968
8.393 3.661 1.182 819
10.390 4.532 1.432 766
11.504 5.018 1.534 781
12.135 5.294 1.494 835
12.139 5.295 1.456 785
8.393 3.661 0.593 820
8.395 3.662 0.567 877
8.388 3.659 0.540 854
8.397 3.663 0.513 775
2.104 0.901 1.740 11085
2.108 0.903 1.734 22171
1.996 0.855 1.647 826
2.112 0.905 1.727 22171
2.000 0.856 1.640 826
2.261 0.968 1.842 772
2.123 0.909 1.725 20096
2.271 0.973 1.839 1155
2.127 0.911 1.719 18306
2.276 0.975 1.832 1550
2.125 0.910 1.708 15440
2.292 0.982 1.834 2067
2.123 0.910 1.696 13194
2.303 0.986 1.832 2652
2.127 0.911 1.690 13194
2.307 0.988 1.824 2652
2.132 0.913 1.683 10298
2.294 0.983 1.804 2924
2.136 0.915 1.677 7403
2.286 0.979 1.788 3750
2.146 0.919 1.674 5298
2.297 0.984 1.785 5076
2.301 0.986 1.778 6443
2.162 0.926 1.677 3580
2.416 1.035 1.862 936
2.312 0.990 1.775 6374
2.166 0.928 1.670 2952
2.427 1.039 1.859 846
2.316 0.992 1.768 6377
2.176 0.932 1.668 2333
2.431 1.041 1.851 963
2.320 0.994 1.761 6377
2.144 0.918 1.635 1965
2.436 1.043 1.843 1000
2.325 0.996 1.754 5356
2.124 0.910 1.611 2227
2.441 1.045 1.836 2142
2.329 0.998 1.746 4353
2.445 1.047 1.828 3125
2.134 0.914 1.608 2884
2.352 1.007 1.752 4650
2.144 0.918 1.606 3616
2.468 1.057 1.833 2630
2.368 1.014 1.753 5578
2.148 0.920 1.600 3616
2.485 1.064 1.834 2695
2.366 1.014 1.742 6277
2.152 0.922 1.593 2941
2.483 1.064 1.822 2252
2.371 1.015 1.734 7046
2.155 0.923 1.586 2266
2.525 1.081 1.840 1695
2.381 1.020 1.731 6566
2.523 1.081 1.828 1957
2.141 0.917 1.567 1812
2.264 0.970 1.651 1159
2.392 1.024 1.728 6489
2.515 1.077 1.812 2309
2.132 0.913 1.552 1864
2.274 0.974 1.648 1281
2.402 1.029 1.725 4633
2.532 1.085 1.812 2209
2.130 0.912 1.541 1892
2.285 0.979 1.645 1090
2.456 1.052 1.750 5341
2.128 0.911 1.530 1981
2.580 1.105 1.833 1266
2.307 0.988 1.651 915
2.473 1.059 1.751 5935
2.150 0.921 1.536 2655
2.591 1.110 1.829 2141
2.293 0.982 1.631 770
2.496 1.069 1.756 7688
2.154 0.922 1.529 3470
2.614 1.120 1.834 2387
2.519 1.079 1.760 7231
2.157 0.924 1.523 3618
2.637 1.130 1.838 1774
2.529 1.083 1.756 7346
2.161 0.926 1.516 3462
2.654 1.137 1.838 1906
2.540 1.088 1.753 7156
2.158 0.925 1.505 2860
2.665 1.141 1.834 1996
2.550 1.092 1.749 7332
2.694 1.154 1.841 2510
2.162 0.926 1.499 1898
2.555 1.094 1.741 6175
2.674 1.145 1.817 2579
2.166 0.928 1.492 1186
2.565 1.099 1.737 5056
2.685 1.150 1.813 2819
2.163 0.927 1.481 856
2.595 1.111 1.745 4029
2.733 1.171 1.832 2286
2.605 1.116 1.741 3995
2.744 1.175 1.827 2638
2.158 0.924 1.460 802
2.730 1.169 1.807 3838
2.610 1.118 1.732 3370
2.161 0.926 1.453 1008
2.728 1.168 1.795 5567
2.608 1.117 1.720 1830
2.165 0.927 1.446 1153
2.732 1.170 1.786 5629
2.612 1.119 1.712 1387
2.168 0.929 1.440 1297
2.749 1.178 1.785 6304
2.172 0.930 1.433 1140
2.629 1.126 1.712 1025
2.766 1.185 1.785 7501
2.646 1.133 1.711 927
2.784 1.192 1.784 7188
2.663 1.140 1.711 1416
2.788 1.194 1.775 7061
2.667 1.142 1.702 1014
2.792 1.196 1.766 5087
2.914 1.248 1.838 915
2.822 1.209 1.773 2788
2.944 1.261 1.844 1035
2.859 1.224 1.783 3093
2.737 1.172 1.711 998
2.882 1.235 1.785 4196
2.760 1.182 1.714 1226
3.004 1.287 1.856 873
2.912 1.248 1.791 5151
2.790 1.195 1.720 1845
2.943 1.260 1.796 6498
2.820 1.208 1.726 2380
2.953 1.265 1.791 7007
2.831 1.213 1.721 3189
2.990 1.281 1.800 6754
2.842 1.217 1.716 3259
2.995 1.283 1.790 8883
2.859 1.225 1.714 2885
2.993 1.282 1.778 11071
2.870 1.229 1.709 2366
2.997 1.284 1.768 9185
2.874 1.231 1.700 1878
3.001 1.286 1.759 5163
2.878 1.233 1.691 1289
3.051 1.307 1.774 3220
2.928 1.254 1.707 1135
3.010 1.289 1.740 4474
3.134 1.342 1.807 1115
3.021 1.294 1.734 6439
3.145 1.347 1.801 1239
3.032 1.299 1.728 6657
3.156 1.352 1.794 1127
3.036 1.300 1.719 5937
3.160 1.354 1.785 2140
3.053 1.308 1.716 5843
3.178 1.361 1.782 4225
2.870 1.229 1.620 802
3.077 1.318 1.717 6241
3.202 1.371 1.782 3377
2.867 1.228 1.607 1262
3.154 1.351 1.745 6778
3.029 1.297 1.680 2465
2.871 1.230 1.598 1448
3.164 1.355 1.738 6403
3.039 1.302 1.674 2176
2.882 1.234 1.593 1545
3.182 1.363 1.735 5809
2.885 1.236 1.584 1660
3.057 1.309 1.671 1231
3.199 1.370 1.732 4922
2.889 1.238 1.575 1503
3.034 1.300 1.648 899
3.217 1.378 1.728 4400
2.900 1.242 1.569 1391
3.038 1.301 1.639 965
3.234 1.385 1.725 5588
2.904 1.244 1.560 1303
3.036 1.300 1.626 822
3.219 1.379 1.705 5746
3.345 1.433 1.767 1638
2.901 1.242 1.548 1186
3.269 1.400 1.718 4644
3.143 1.346 1.656 1052
2.898 1.241 1.535 961
3.280 1.405 1.711 5169
3.460 1.482 1.798 1069
3.284 1.407 1.700 4711
3.451 1.478 1.781 1589
3.262 1.397 1.677 3992
3.442 1.474 1.763 1948
3.253 1.393 1.661 3365
3.453 1.479 1.756 2026
3.357 1.438 1.698 2044
3.484 1.492 1.758 1385
3.230 1.384 1.638 1147
3.481 1.491 1.744 2262
3.354 1.437 1.684 1881
3.486 1.493 1.733 5192
3.613 1.548 1.792 1741
3.359 1.439 1.674 1658
3.490 1.495 1.722 8287
3.631 1.555 1.787 2737
3.363 1.440 1.663 1630
3.501 1.500 1.714 6615
3.628 1.554 1.772 3647
3.373 1.445 1.656 1909
3.519 1.507 1.709 4353
3.646 1.562 1.767 2725
3.391 1.452 1.651 1914
3.530 1.512 1.701 4353
3.657 1.567 1.758 1610
3.402 1.457 1.644 1076
3.547 1.519 1.696 4697
3.675 1.574 1.753 1242
3.565 1.527 1.691 3648
3.693 1.582 1.747 1616
3.657 1.566 1.718 2808
3.785 1.621 1.774 1696
3.528 1.511 1.662 1509
3.668 1.571 1.710 4523
3.796 1.626 1.765 3527
3.526 1.510 1.648 924
3.787 1.622 1.748 5265
3.658 1.567 1.692 4531
3.771 1.615 1.727 6902
3.642 1.560 1.672 3295
3.775 1.617 1.715 10148
3.646 1.562 1.661 2549
3.779 1.619 1.703 9375
3.650 1.564 1.649 1681
3.777 1.618 1.689 10279
3.906 1.673 1.742 1030
3.781 1.620 1.677 16462
3.910 1.675 1.730 1332
3.785 1.621 1.665 18929
3.914 1.677 1.718 1815
3.789 1.623 1.653 13565
3.919 1.679 1.706 2979
4.076 1.746 1.769 893
3.800 1.628 1.644 10787
3.930 1.683 1.696 4814
4.059 1.739 1.748 973
3.804 1.629 1.632 12375
3.934 1.685 1.684 7561
4.071 1.744 1.738 1066
3.815 1.634 1.623 13235
3.945 1.690 1.674 9296
4.075 1.745 1.725 2690
3.942 1.689 1.659 11932
3.812 1.633 1.608 9921
4.093 1.753 1.718 6214
3.946 1.690 1.647 12468
4.104 1.758 1.708 9259
3.816 1.634 1.596 4572
3.950 1.692 1.634 11729
4.115 1.763 1.698 8487
3.820 1.636 1.584 2203
3.947 1.691 1.619 10676
4.126 1.767 1.687 4937
3.817 1.635 1.570 1300
4.256 1.823 1.737 1161
3.958 1.695 1.610 8956
4.178 1.790 1.692 4797
4.309 1.846 1.742 1237
3.821 1.637 1.558 804
3.962 1.697 1.597 7051
4.141 1.774 1.664 4755
4.272 1.830 1.713 2292
3.966 1.699 1.585 4216
4.186 1.793 1.666 4039
4.317 1.849 1.715 1519
4.211 1.804 1.661 3789
4.370 1.872 1.719 2215
3.970 1.700 1.572 1957
4.243 1.817 1.657 3559
4.388 1.880 1.710 3514
3.967 1.699 1.557 891
4.406 1.887 1.701 2876
4.261 1.825 1.649 2871
4.410 1.889 1.687 4336
4.279 1.833 1.641 2476
4.542 1.945 1.734 893
4.414 1.891 1.673 6792
4.283 1.834 1.627 1598
4.546 1.947 1.720 938
4.425 1.896 1.662 5857
4.557 1.952 1.708 1489
4.259 1.824 1.604 1009
4.506 1.930 1.674 3948
4.374 1.874 1.629 1004
4.454 1.908 1.641 2703
4.586 1.964 1.686 1594
4.569 1.957 1.665 2301
4.410 1.889 1.611 1943
4.701 2.014 1.709 1309
4.608 1.974 1.662 2424
4.740 2.031 1.706 1495
4.476 1.917 1.618 1218
4.647 1.991 1.659 3263
4.779 2.047 1.703 1845
4.515 1.934 1.615 1741
4.637 1.986 1.640 2928
4.770 2.043 1.683 2568
4.788 2.051 1.673 6436
4.655 1.994 1.630 2272
4.799 2.056 1.660 11200
4.666 1.999 1.617 2037
4.931 2.112 1.702 863
4.803 2.057 1.645 9764
4.670 2.000 1.603 1365
4.936 2.114 1.687 926
4.807 2.059 1.630 8639
5.010 2.146 1.693 1012
4.818 2.064 1.617 12634
4.965 2.127 1.662 1448
4.822 2.065 1.602 11204
5.046 2.161 1.670 2062
4.812 2.061 1.582 7833
5.050 2.163 1.655 3096
5.183 2.220 1.695 755
4.823 2.066 1.569 5873
5.082 2.177 1.647 2519
5.216 2.234 1.687 951
5.234 2.242 1.675 3516
4.840 2.073 1.558 2912
5.100 2.185 1.635 2693
5.238 2.244 1.658 6644
5.097 2.183 1.617 2864
4.872 2.087 1.551 2213
5.214 2.233 1.634 6075
5.080 2.176 1.595 2839
4.883 2.092 1.538 1736
5.368 2.300 1.678 1531
5.225 2.238 1.619 7139
5.091 2.181 1.581 2052
5.358 2.295 1.658 1949
4.922 2.108 1.533 1221
5.243 2.246 1.607 11857
5.377 2.303 1.645 2078
5.109 2.188 1.569 1258
4.975 2.131 1.531 928
5.247 2.247 1.590 12533
5.381 2.305 1.628 3189
5.000 2.142 1.521 1295
5.342 2.288 1.599 7377
5.208 2.231 1.562 3384
4.997 2.140 1.504 1228
5.476 2.346 1.636 1057
5.339 2.287 1.580 6391
5.854 2.508 1.721 3448
5.205 2.230 1.544 2183
5.720 2.450 1.684 1435
5.343 2.289 1.564 6989
5.859 2.509 1.702 5521
5.724 2.452 1.666 1929
5.477 2.346 1.600 1810
5.354 2.293 1.549 8317
5.856 2.508 1.682 6490
5.488 2.351 1.584 1342
5.721 2.451 1.646 1195
5.867 2.513 1.665 7866
5.358 2.295 1.532 4761
5.223 2.237 1.497 1155
6.001 2.571 1.701 971
5.878 2.518 1.649 8622
5.361 2.296 1.515 2923
6.013 2.575 1.684 1905
5.496 2.354 1.550 1025
5.875 2.517 1.629 6491
6.010 2.574 1.663 4140
5.372 2.301 1.500 1739
6.165 2.641 1.703 1023
5.985 2.564 1.637 5068
5.851 2.506 1.603 2498
6.226 2.667 1.698 1195
5.454 2.336 1.503 1167
5.911 2.532 1.599 3705
6.238 2.672 1.680 1480
6.372 2.730 1.713 1025
6.046 2.590 1.632 942
5.922 2.537 1.582 1945
6.341 2.716 1.685 1624
6.057 2.595 1.615 1327
6.206 2.658 1.651 960
6.026 2.581 1.587 2472
6.338 2.715 1.663 2026
6.501 2.785 1.702 1347
6.196 2.654 1.628 1328
6.356 2.723 1.646 2431
6.037 2.586 1.570 1996
6.506 2.787 1.682 1466
6.193 2.653 1.607 1158
6.375 2.731 1.630 2197
6.702 2.871 1.707 1490
6.055 2.593 1.554 1376
6.510 2.788 1.661 1320
6.706 2.872 1.686 2293
6.549 2.805 1.649 1984
6.379 2.732 1.610 1522
6.051 2.592 1.533 1178
6.717 2.877 1.666 2814
6.561 2.810 1.630 2607
6.383 2.734 1.589 991
7.052 3.021 1.743 976
6.714 2.876 1.643 3137
6.572 2.815 1.611 2959
6.907 2.958 1.687 1426
7.070 3.029 1.724 1342
6.725 2.881 1.624 3747
6.590 2.823 1.594 1994
7.068 3.027 1.700 1956
6.925 2.966 1.668 1702
6.729 2.882 1.602 3749
7.065 3.026 1.676 2415
7.307 3.130 1.729 1569
6.929 2.968 1.646 1561
6.733 2.884 1.581 2879
7.090 3.037 1.658 2859
6.598 2.826 1.552 1591
6.919 2.964 1.621 1407
7.087 3.036 1.634 3824
6.737 2.886 1.560 2201
7.758 3.323 1.777 1447
7.551 3.234 1.733 1306
7.091 3.037 1.612 3585
7.777 3.331 1.756 2303
6.741 2.887 1.539 1483
7.548 3.233 1.708 1082
7.102 3.042 1.591 2798
7.796 3.339 1.734 2444
7.660 3.281 1.706 1539
7.324 3.137 1.637 1243
7.800 3.341 1.709 2481
7.099 3.041 1.567 2206
7.628 3.267 1.675 1967
7.936 3.399 1.737 1224
7.790 3.337 1.682 2962
7.618 3.263 1.648 2161
7.926 3.395 1.709 2039
7.103 3.042 1.545 1491
7.794 3.338 1.657 3284
8.059 3.452 1.709 2985
7.622 3.265 1.624 1592
7.113 3.047 1.524 1035
8.070 3.457 1.685 4833
7.927 3.395 1.658 3582
7.791 3.337 1.631 2474
8.206 3.515 1.711 1092
8.074 3.459 1.660 5626
7.931 3.397 1.633 3629
7.795 3.339 1.607 2246
8.210 3.517 1.686 1073
8.085 3.463 1.636 6465
7.827 3.353 1.588 2906
8.222 3.522 1.661 1518
6.967 2.984 1.427 835
8.089 3.465 1.610 7219
8.226 3.523 1.635 2547
7.817 3.348 1.560 2055
7.953 3.407 1.585 1496
8.086 3.464 1.583 7278
8.223 3.522 1.608 3600
7.943 3.402 1.557 1773
7.806 3.344 1.533 1074
8.090 3.465 1.558 6978
8.227 3.524 1.582 2942
7.946 3.404 1.532 1359
8.101 3.470 1.533 6006
8.238 3.528 1.557 1466
8.098 3.468 1.507 4589
8.234 3.527 1.530 1178
8.094 3.467 1.480 3535
8.231 3.526 1.503 1473
8.090 3.465 1.453 2254
8.227 3.524 1.475 1136
8.094 3.467 1.428 1503
8.097 3.468 1.402 1256
8.101 3.470 1.376 859
10.375 4.444 1.693 1348
10.115 4.333 1.654 815
10.379 4.446 1.660 1843
10.105 4.328 1.619 1087
10.376 4.444 1.626 1574
10.174 4.358 1.597 1047
10.592 4.537 1.657 832
10.582 4.532 1.622 1200
10.372 4.443 1.592 1157
10.177 4.359 1.565 986
11.325 4.851 1.726 803
10.585 4.534 1.588 1246
10.347 4.432 1.555 1018
11.344 4.859 1.692 852
10.181 4.361 1.532 845
10.380 4.446 1.526 1104
10.582 4.533 1.554 958
11.420 4.892 1.666 850
12.128 5.195 1.761 822
8.418 3.606 1.236 1106
10.398 4.454 1.496 1059
11.381 4.875 1.624 817
11.532 4.940 1.644 802
11.536 4.941 1.608 1065
8.421 3.607 1.209 1037
11.533 4.940 1.570 1139
12.082 5.175 1.639 1034
8.417 3.605 1.182 759
12.101 5.183 1.602 793
12.853 5.505 1.694 773
8.410 3.602 0.593 789
8.419 3.606 0.567 882
8.413 3.603 0.540 882
8.421 3.607 0.513 821
2.106 0.895 1.740 11665
2.111 0.897 1.734 23330
1.998 0.849 1.647 777
2.115 0.899 1.727 23330
2.002 0.851 1.640 777
2.125 0.903 1.725 20797
2.274 0.966 1.839 1173
2.130 0.905 1.719 18718
2.279 0.968 1.832 1707
2.128 0.904 1.708 16014
2.295 0.975 1.834 2283
2.126 0.903 1.696 13982
2.300 0.977 1.827 2935
2.130 0.905 1.690 13982
2.304 0.979 1.820 2935
2.134 0.907 1.683 10882
2.297 0.976 1.804 3056
2.138 0.909 1.677 7782
2.289 0.973 1.788 3661
2.149 0.913 1.674 5988
2.300 0.977 1.785 5011
2.310 0.981 1.782 6443
2.165 0.920 1.677 4784
2.315 0.983 1.775 6596
2.175 0.924 1.674 3980
2.430 1.032 1.859 798
2.325 0.988 1.772 6755
2.185 0.928 1.672 3255
2.441 1.037 1.855 788
2.329 0.990 1.765 6755
2.189 0.930 1.665 2558
2.457 1.044 1.856 849
2.334 0.991 1.758 5905
2.151 0.914 1.628 2454
2.450 1.041 1.840 1704
2.338 0.993 1.751 5019
2.155 0.915 1.621 2999
2.454 1.043 1.833 2409
2.367 1.006 1.761 5693
2.153 0.915 1.610 3580
2.483 1.055 1.842 1782
2.377 1.010 1.757 6962
2.157 0.916 1.604 3580
2.494 1.060 1.839 2214
2.376 1.009 1.746 6798
2.154 0.915 1.593 2999
2.511 1.067 1.839 1794
2.374 1.008 1.734 6803
2.146 0.912 1.578 2672
2.546 1.082 1.853 1815
2.384 1.013 1.731 6151
2.144 0.911 1.567 2637
2.526 1.073 1.828 2222
2.267 0.963 1.651 1065
2.395 1.017 1.728 5794
2.512 1.067 1.808 2920
2.147 0.912 1.560 2606
2.277 0.967 1.648 1177
2.405 1.022 1.725 4252
2.523 1.072 1.804 3014
2.145 0.911 1.549 2269
2.287 0.972 1.645 993
2.459 1.045 1.750 5201
2.130 0.905 1.530 1979
2.589 1.100 1.838 1169
2.310 0.981 1.651 1008
2.476 1.052 1.751 5502
2.153 0.914 1.536 2818
2.594 1.102 1.829 2211
2.314 0.983 1.644 805
2.499 1.062 1.756 6694
2.156 0.916 1.529 3659
2.617 1.112 1.834 2791
2.528 1.074 1.764 6834
2.160 0.918 1.523 3722
2.647 1.124 1.842 2092
2.539 1.079 1.760 7125
2.164 0.919 1.516 3353
2.657 1.129 1.838 2468
2.543 1.080 1.753 7179
2.161 0.918 1.505 2599
2.668 1.134 1.834 2469
2.554 1.085 1.749 7359
2.698 1.146 1.841 2987
2.165 0.920 1.499 1547
2.558 1.087 1.741 6400
2.702 1.148 1.833 2729
2.162 0.919 1.488 775
2.568 1.091 1.737 5529
2.688 1.142 1.813 2676
2.592 1.101 1.741 4699
2.737 1.163 1.832 2302
2.602 1.106 1.737 4595
2.747 1.167 1.827 2346
2.714 1.153 1.795 3801
2.594 1.102 1.721 2665
2.170 0.922 1.457 1042
2.725 1.158 1.791 5618
2.604 1.106 1.716 1378
2.174 0.924 1.450 1177
2.691 1.143 1.759 5809
2.171 0.922 1.440 1325
2.812 1.195 1.833 1235
2.759 1.172 1.789 5958
2.638 1.121 1.716 1276
2.174 0.924 1.433 1203
2.776 1.179 1.788 7673
2.655 1.128 1.715 1400
2.184 0.928 1.430 813
2.787 1.184 1.784 7886
2.666 1.133 1.711 1445
2.791 1.186 1.775 8147
2.670 1.134 1.702 1017
2.938 1.248 1.863 902
2.796 1.188 1.766 6541
2.943 1.250 1.853 969
2.674 1.136 1.694 817
2.813 1.195 1.765 3769
2.948 1.252 1.844 1035
2.856 1.213 1.779 3689
2.734 1.161 1.707 994
2.978 1.265 1.850 879
2.880 1.223 1.781 4564
2.757 1.171 1.710 1218
3.002 1.275 1.852 1102
2.897 1.231 1.780 5329
2.775 1.179 1.709 1643
3.019 1.283 1.850 910
2.946 1.252 1.796 5921
2.824 1.200 1.726 2478
2.964 1.259 1.794 6900
2.841 1.207 1.725 3084
2.994 1.272 1.800 7159
2.845 1.209 1.716 3007
2.992 1.271 1.787 9701
2.869 1.219 1.718 2724
2.996 1.273 1.778 12249
2.873 1.221 1.709 2453
3.001 1.275 1.768 10026
2.877 1.222 1.700 2003
3.005 1.277 1.759 5550
2.882 1.224 1.691 1342
2.983 1.267 1.735 3323
3.107 1.320 1.803 1600
3.014 1.280 1.740 4314
3.138 1.333 1.807 1278
3.025 1.285 1.734 6213
3.149 1.338 1.801 1642
3.035 1.290 1.728 7219
3.160 1.342 1.794 1581
3.040 1.291 1.719 6963
3.164 1.344 1.785 2490
3.057 1.299 1.716 6727
3.182 1.352 1.782 4030
2.873 1.221 1.620 920
3.068 1.303 1.710 6279
3.193 1.356 1.775 4464
2.871 1.220 1.607 1596
3.151 1.339 1.741 7236
3.026 1.286 1.677 2484
2.875 1.221 1.598 2035
3.168 1.346 1.738 7040
3.043 1.293 1.674 2894
2.885 1.226 1.593 2291
3.179 1.351 1.732 6106
2.889 1.227 1.584 2558
3.054 1.297 1.668 1579
3.177 1.350 1.718 4798
2.893 1.229 1.575 2483
3.051 1.296 1.655 843
3.188 1.354 1.712 4185
2.897 1.231 1.566 2417
3.205 1.362 1.708 4890
2.901 1.232 1.557 2365
3.331 1.415 1.771 869
3.210 1.364 1.698 6092
2.904 1.234 1.548 2098
3.336 1.417 1.761 1551
3.273 1.391 1.718 4727
2.902 1.233 1.535 1508
3.147 1.337 1.656 1289
3.284 1.395 1.711 5428
3.464 1.472 1.798 948
3.158 1.342 1.649 815
2.905 1.234 1.526 764
3.289 1.397 1.700 4454
3.415 1.451 1.761 1701
3.266 1.388 1.677 3513
3.393 1.441 1.738 3067
3.519 1.495 1.799 879
3.264 1.386 1.664 3091
3.457 1.469 1.756 2708
3.455 1.468 1.742 2714
3.268 1.388 1.654 1906
3.452 1.467 1.728 3002
3.325 1.413 1.669 1535
3.483 1.480 1.730 5717
3.356 1.426 1.671 1720
3.617 1.537 1.792 1416
3.488 1.482 1.719 8547
3.635 1.544 1.787 2400
3.360 1.428 1.660 1297
3.505 1.489 1.714 6240
3.633 1.543 1.772 3554
3.378 1.435 1.656 1839
3.523 1.497 1.709 4421
3.651 1.551 1.767 2802
3.395 1.442 1.651 1830
3.541 1.504 1.704 4929
3.669 1.559 1.761 1717
3.413 1.450 1.647 901
3.558 1.512 1.699 5802
3.687 1.566 1.756 1352
3.569 1.516 1.691 4723
3.704 1.574 1.750 1986
3.661 1.555 1.718 3338
3.790 1.610 1.774 1858
3.533 1.501 1.662 1769
3.666 1.557 1.707 5246
3.794 1.612 1.762 3811
3.537 1.503 1.651 1083
3.677 1.562 1.698 5425
3.805 1.617 1.753 4751
3.782 1.607 1.730 6316
3.654 1.552 1.675 3687
3.780 1.606 1.715 8494
3.651 1.551 1.661 2479
3.784 1.608 1.703 7703
3.655 1.553 1.649 1629
3.788 1.609 1.692 8045
3.659 1.555 1.638 890
3.918 1.664 1.745 810
3.786 1.608 1.677 12463
3.942 1.675 1.741 988
3.790 1.610 1.665 13649
3.919 1.665 1.718 1270
3.801 1.615 1.656 9674
3.930 1.670 1.708 1681
4.060 1.725 1.761 906
3.818 1.622 1.650 8776
3.948 1.677 1.702 2694
4.078 1.733 1.754 950
3.816 1.621 1.635 9472
3.946 1.676 1.687 4813
4.076 1.732 1.738 987
3.827 1.626 1.626 10049
3.957 1.681 1.677 5902
4.087 1.736 1.728 2134
3.837 1.630 1.616 8268
3.968 1.686 1.667 5978
4.098 1.741 1.718 4979
4.109 1.746 1.708 7899
3.951 1.679 1.647 7889
3.821 1.623 1.596 3637
3.955 1.680 1.634 7852
4.113 1.747 1.695 7847
3.825 1.625 1.584 1954
3.952 1.679 1.619 7426
4.117 1.749 1.682 4672
4.248 1.805 1.732 1385
3.822 1.624 1.570 1172
3.963 1.684 1.610 6075
4.190 1.780 1.695 5776
4.321 1.836 1.744 1305
3.832 1.628 1.560 863
4.195 1.782 1.682 5042
3.967 1.685 1.597 4585
4.326 1.838 1.731 1276
4.192 1.781 1.666 3963
3.971 1.687 1.585 2625
4.323 1.837 1.715 1118
4.223 1.794 1.663 4029
4.382 1.862 1.721 2029
3.975 1.689 1.572 1137
4.248 1.805 1.657 4084
4.393 1.867 1.710 3357
4.273 1.815 1.652 3513
4.412 1.874 1.701 2871
4.423 1.879 1.690 4046
4.284 1.820 1.641 3070
4.554 1.935 1.736 936
4.427 1.881 1.676 6650
4.288 1.822 1.627 1753
4.559 1.937 1.722 1158
4.431 1.882 1.662 5706
4.563 1.938 1.708 1902
4.271 1.815 1.606 1002
4.504 1.914 1.672 3429
4.372 1.858 1.627 1430
4.467 1.898 1.644 2417
4.599 1.954 1.689 1917
4.731 2.010 1.734 930
4.582 1.947 1.667 2396
4.415 1.876 1.611 1751
4.714 2.003 1.712 1270
4.698 1.996 1.690 2717
4.565 1.940 1.646 1818
4.419 1.877 1.597 892
4.667 1.983 1.664 2812
4.535 1.926 1.620 1520
4.799 2.039 1.707 1488
4.657 1.979 1.644 2342
4.839 2.056 1.704 2272
4.525 1.922 1.601 947
4.801 2.040 1.675 5967
4.668 1.983 1.632 1959
4.934 2.096 1.718 783
4.535 1.927 1.589 763
4.805 2.041 1.660 11031
4.672 1.985 1.617 1746
4.938 2.098 1.702 1289
4.809 2.043 1.645 9623
4.942 2.100 1.687 1447
4.676 1.987 1.603 1135
4.813 2.045 1.630 8915
4.946 2.101 1.671 1578
4.824 2.049 1.617 12783
4.971 2.112 1.662 2201
4.828 2.051 1.602 11044
5.010 2.129 1.658 2397
5.144 2.185 1.698 812
4.825 2.050 1.584 7861
5.042 2.142 1.650 2818
5.176 2.199 1.691 814
4.829 2.051 1.569 6524
5.096 2.165 1.649 2346
5.250 2.230 1.695 1186
4.962 2.108 1.609 814
5.240 2.226 1.675 4291
4.840 2.056 1.556 3656
5.107 2.170 1.635 3019
5.244 2.228 1.658 7723
5.111 2.171 1.619 3061
4.886 2.076 1.553 2155
5.234 2.224 1.638 6746
5.101 2.167 1.599 2490
4.896 2.080 1.540 1667
5.375 2.284 1.678 1035
5.238 2.225 1.621 7093
5.372 2.282 1.660 1674
5.105 2.169 1.583 1527
4.935 2.097 1.535 1314
5.249 2.230 1.607 11907
5.383 2.287 1.645 2219
5.017 2.131 1.541 1066
5.253 2.232 1.590 15420
5.387 2.289 1.628 3404
5.006 2.127 1.521 1366
5.264 2.236 1.576 10214
5.398 2.293 1.613 3709
4.996 2.122 1.502 1340
5.533 2.350 1.650 906
5.311 2.256 1.571 8531
5.862 2.490 1.721 2377
5.445 2.313 1.607 1676
5.728 2.433 1.684 1342
5.336 2.267 1.560 8428
5.866 2.492 1.702 4395
5.470 2.324 1.596 2294
5.732 2.435 1.666 1748
5.354 2.274 1.547 9451
5.863 2.491 1.682 5437
5.488 2.332 1.582 1503
5.729 2.434 1.646 984
5.874 2.496 1.665 6489
5.357 2.276 1.530 5713
6.009 2.553 1.701 948
5.223 2.219 1.495 945
5.886 2.500 1.649 6907
5.361 2.278 1.513 3422
6.020 2.558 1.684 2103
5.496 2.335 1.548 948
5.996 2.547 1.657 5734
5.861 2.490 1.623 4345
5.372 2.282 1.498 1787
5.507 2.339 1.532 779
5.993 2.546 1.637 5566
5.858 2.489 1.603 2207
5.461 2.320 1.503 1168
6.234 2.649 1.698 851
5.926 2.518 1.600 4775
6.359 2.702 1.708 1162
5.471 2.324 1.487 1089
6.224 2.644 1.675 973
5.937 2.522 1.583 3038
6.342 2.694 1.683 1932
6.072 2.580 1.617 1286
6.339 2.693 1.661 2511
6.033 2.563 1.587 2449
5.898 2.506 1.554 1159
6.204 2.636 1.628 1053
6.350 2.698 1.643 2455
6.044 2.568 1.570 2133
6.507 2.764 1.680 1173
6.201 2.634 1.607 801
6.361 2.703 1.625 2041
6.048 2.569 1.551 1617
6.525 2.772 1.663 1362
6.696 2.845 1.703 1018
6.551 2.783 1.648 1998
6.714 2.853 1.686 1548
6.052 2.571 1.532 1529
6.387 2.713 1.610 1383
6.569 2.791 1.630 2338
6.719 2.854 1.664 1902
6.904 2.933 1.707 1109
6.391 2.715 1.589 939
6.587 2.798 1.613 2585
6.915 2.938 1.687 2128
6.723 2.856 1.643 2110
7.086 3.011 1.725 1197
6.734 2.861 1.624 2413
6.927 2.943 1.667 2331
6.598 2.803 1.594 1797
7.069 3.003 1.698 1557
6.738 2.862 1.602 2408
6.945 2.950 1.648 1947
7.081 3.008 1.678 1624
7.316 3.108 1.729 1569
7.099 3.016 1.658 1966
6.735 2.861 1.580 1939
6.927 2.943 1.621 1618
6.599 2.803 1.550 1311
7.096 3.015 1.634 2888
6.774 2.878 1.566 1766
7.561 3.212 1.733 1378
7.775 3.303 1.779 1327
7.100 3.016 1.612 2798
7.787 3.308 1.756 2099
6.756 2.870 1.540 1134
7.558 3.211 1.708 1058
7.798 3.313 1.733 2300
7.111 3.021 1.591 2217
7.662 3.255 1.705 1545
7.340 3.118 1.638 845
7.810 3.318 1.709 2506
7.645 3.248 1.676 2058
7.108 3.020 1.567 1677
7.946 3.376 1.737 1178
7.800 3.314 1.682 3229
7.635 3.244 1.649 2088
7.936 3.371 1.709 1879
8.079 3.432 1.738 1174
7.804 3.315 1.657 3583
8.069 3.428 1.709 2950
7.624 3.239 1.622 1522
7.122 3.026 1.524 809
8.080 3.433 1.685 5203
7.937 3.372 1.658 3348
7.736 3.287 1.619 3103
8.217 3.491 1.711 760
8.084 3.435 1.660 6341
7.941 3.374 1.633 3332
7.805 3.316 1.607 2383
6.914 2.938 1.438 997
8.096 3.439 1.636 7058
7.830 3.326 1.586 2846
8.232 3.497 1.661 1429
6.918 2.939 1.416 1372
8.092 3.438 1.609 7328
8.229 3.496 1.634 2076
7.827 3.325 1.560 1892
6.921 2.940 1.395 1414
8.096 3.440 1.583 7330
8.233 3.498 1.608 2478
7.953 3.379 1.557 1543
7.816 3.321 1.533 1044
8.100 3.441 1.558 7391
8.237 3.499 1.582 2217
7.956 3.380 1.532 1182
8.111 3.446 1.533 6302
8.248 3.504 1.557 1298
8.115 3.448 1.508 4563
8.252 3.506 1.531 941
8.104 3.443 1.480 3331
8.241 3.501 1.503 1182
8.093 3.438 1.452 2212
8.230 3.497 1.474 892
8.104 3.443 1.428 1557
8.107 3.444 1.402 1198
8.111 3.446 1.376 863
10.388 4.413 1.693 1347
10.121 4.300 1.652 795
10.399 4.418 1.661 1870
10.125 4.301 1.620 866
10.543 4.479 1.682 861
10.396 4.417 1.627 1473
10.400 4.418 1.594 967
11.368 4.830 1.730 886
10.190 4.329 1.565 867
10.609 4.507 1.624 861
11.380 4.834 1.695 998
10.194 4.331 1.532 924
10.404 4.420 1.561 890
10.606 4.506 1.589 826
11.427 4.855 1.665 1006
10.400 4.418 1.527 964
10.603 4.504 1.555 852
12.143 5.159 1.761 806
11.417 4.850 1.627 986
8.429 3.581 1.236 937
10.592 4.500 1.519 900
10.397 4.417 1.494 775
11.551 4.907 1.608 957
8.425 3.579 1.209 848
10.581 4.495 1.484 806
11.413 4.849 1.590 788
12.098 5.140 1.639 1150
11.548 4.906 1.570 1101
10.556 4.485 1.447 751
12.109 5.144 1.602 962
12.869 5.467 1.694 773
8.422 3.578 0.566 817
8.423 3.579 0.540 826
8.432 3.582 0.513 758
8.407 3.572 -0.737 850
8.405 3.571 -0.763 850
8.402 3.570 -0.790 760
2.109 0.889 1.740 12293
2.113 0.891 1.734 24587
2.118 0.892 1.727 24587
2.122 0.894 1.721 21235
2.283 0.962 1.844 1213
2.132 0.899 1.719 18408
2.288 0.964 1.837 1890
2.130 0.898 1.708 16028
2.298 0.969 1.834 2578
2.129 0.897 1.696 14323
2.303 0.970 1.827 3303
2.133 0.899 1.690 14323
2.307 0.972 1.820 3303
2.137 0.901 1.683 11148
2.306 0.972 1.808 3200
2.141 0.902 1.677 7974
2.292 0.966 1.788 3509
2.157 0.909 1.679 6824
2.302 0.970 1.785 4930
2.313 0.975 1.782 6511
2.168 0.914 1.677 6285
2.317 0.977 1.775 6740
2.178 0.918 1.674 5394
2.328 0.981 1.772 7115
2.188 0.922 1.672 4655
2.332 0.983 1.765 7115
2.186 0.921 1.661 3585
2.337 0.985 1.758 6321
2.153 0.908 1.628 3610
2.453 1.034 1.840 1252
2.341 0.987 1.751 5529
2.151 0.907 1.617 3957
2.457 1.036 1.833 1809
2.370 0.999 1.761 5912
2.149 0.906 1.606 4519
2.486 1.048 1.842 1448
2.380 1.003 1.757 6986
2.153 0.907 1.600 4519
2.497 1.052 1.839 1912
2.379 1.002 1.746 6022
2.151 0.906 1.589 3969
2.520 1.062 1.844 1907
2.377 1.002 1.734 5273
2.149 0.905 1.578 3572
2.549 1.074 1.853 2398
