7.027 4.764 1.685 1910
5.976 4.052 1.452 1258
6.657 4.513 1.579 4811
7.024 4.763 1.659 2718
6.502 4.408 1.545 1946
6.837 4.636 1.618 1096
6.660 4.516 1.555 4086
7.034 4.769 1.635 2790
6.537 4.433 1.529 2157
6.841 4.638 1.594 1266
6.663 4.518 1.532 3885
7.038 4.772 1.611 3375
6.541 4.435 1.506 2225
7.283 4.938 1.662 1690
7.028 4.766 1.583 3949
6.673 4.525 1.510 3247
7.287 4.941 1.637 2263
6.550 4.441 1.485 1818
7.045 4.777 1.561 2846
7.297 4.948 1.613 1980
6.676 4.527 1.487 1890
7.497 5.083 1.653 1349
7.055 4.783 1.538 3612
7.300 4.950 1.587 2183
7.488 5.077 1.625 1407
7.740 5.248 1.675 1295
7.052 4.781 1.512 4595
7.297 4.948 1.560 2438
7.485 5.075 1.597 1576
7.769 5.268 1.653 1541
7.055 4.783 1.487 3283
7.780 5.275 1.627 2370
7.294 4.946 1.533 1579
7.482 5.073 1.570 1144
7.777 5.273 1.598 2321
7.065 4.790 1.464 1347
7.311 4.957 1.510 1034
8.301 5.628 1.697 878
7.774 5.271 1.570 1958
7.566 5.130 1.531 1021
7.314 4.959 1.485 943
8.007 5.429 1.613 782
7.784 5.278 1.544 1535
8.328 5.647 1.642 983
8.331 5.649 1.613 1531
8.844 5.996 1.704 1142
8.714 5.908 1.681 827
8.455 5.733 1.635 767
8.335 5.651 1.584 1904
8.834 5.990 1.671 1490
9.178 6.223 1.731 1086
8.458 5.735 1.606 1002
9.370 6.353 1.731 1736
8.410 5.702 1.567 1716
9.188 6.230 1.700 1355
8.851 6.001 1.642 1319
9.387 6.365 1.700 2439
9.205 6.241 1.670 1399
9.069 6.149 1.647 1033
8.874 6.017 1.614 1006
9.397 6.372 1.668 2880
9.215 6.248 1.639 1277
8.793 5.962 1.570 1000
9.079 6.156 1.616 960
9.381 6.361 1.632 2614
9.258 6.277 1.612 1250
8.803 5.969 1.540 1047
9.063 6.145 1.581 784
9.378 6.359 1.598 2135
9.222 6.253 1.574 1098
8.806 5.971 1.509 867
9.395 6.370 1.567 1959
9.219 6.251 1.540 1307
10.441 7.080 1.727 849
9.570 6.489 1.594 803
9.405 6.377 1.535 1693
10.452 7.087 1.691 1180
9.223 6.253 1.508 1127
9.580 6.496 1.561 987
10.455 7.089 1.655 1443
9.590 6.503 1.529 1133
9.415 6.383 1.503 1084
10.117 6.860 1.605 870
10.466 7.096 1.619 1755
10.114 6.858 1.569 989
9.587 6.500 1.494 975
9.275 6.289 1.450 813
10.476 7.103 1.583 1961
10.619 7.200 1.603 832
10.486 7.110 1.547 1744
10.616 7.198 1.565 1079
10.482 7.107 1.509 1555
10.613 7.196 1.527 1141
10.479 7.105 1.472 1391
10.609 7.194 1.488 849
10.521 7.134 1.440 1300
10.525 7.136 1.403 1453
10.521 7.134 1.365 1184
10.504 7.122 1.326 923
8.804 5.970 -0.354 902
8.756 5.937 -0.412 751
8.739 5.925 -0.504 1041
8.737 5.924 -0.534 1360
8.742 5.927 -0.565 1496
8.753 5.935 -0.597 1785
8.758 5.938 -0.629 1899
8.763 5.941 -0.660 2039
8.761 5.940 -0.691 2039
8.746 5.930 -0.720 1597
8.730 5.920 -0.749 1330
8.722 5.914 -0.779 1631
8.719 5.912 -0.810 1965
8.717 5.911 -0.841 1819
8.721 5.913 -0.872 1686
8.719 5.912 -0.903 1686
8.697 5.897 -0.931 1490
8.688 5.891 -0.960 1539
8.685 5.889 -0.991 1358
8.682 5.887 -1.021 1177
1.937 1.301 1.773 4497
1.941 1.304 1.766 8994
1.733 1.164 1.587 1205
1.945 1.306 1.759 8994
1.741 1.170 1.585 1180
1.949 1.309 1.753 9987
2.051 1.378 1.839 966
1.740 1.168 1.575 851
1.953 1.312 1.746 10980
2.055 1.380 1.832 1260
1.957 1.314 1.739 10691
2.059 1.383 1.825 2204
1.961 1.317 1.733 10402
2.064 1.386 1.818 3148
1.965 1.319 1.726 10402
2.068 1.389 1.811 3148
1.974 1.326 1.723 11104
2.077 1.395 1.808 2726
2.027 1.361 1.757 12002
1.923 1.292 1.672 1695
2.036 1.367 1.754 11099
1.933 1.298 1.670 2234
2.040 1.370 1.747 10378
1.936 1.300 1.663 1738
2.144 1.440 1.831 783
2.044 1.373 1.740 6518
2.148 1.442 1.823 1196
1.940 1.303 1.657 1169
2.009 1.350 1.703 4627
2.114 1.419 1.785 2683
2.096 1.407 1.761 3626
1.991 1.337 1.678 2341
2.105 1.414 1.758 3009
2.000 1.343 1.676 895
2.210 1.484 1.840 790
2.136 1.435 1.772 3508
2.032 1.364 1.690 1629
2.140 1.437 1.765 4365
2.035 1.367 1.683 1385
2.144 1.440 1.757 5198
2.039 1.370 1.676 1102
2.154 1.446 1.754 4722
2.048 1.376 1.674 981
2.163 1.453 1.751 4566
2.150 1.444 1.731 4497
2.256 1.515 1.811 1748
2.149 1.443 1.719 5082
2.255 1.514 1.799 3092
2.242 1.506 1.779 5550
2.136 1.434 1.700 3442
2.240 1.505 1.767 7118
2.134 1.433 1.688 2213
2.244 1.507 1.759 6663
2.138 1.436 1.681 1560
2.248 1.510 1.751 6207
2.141 1.438 1.673 907
2.258 1.516 1.748 7266
2.151 1.444 1.670 801
2.267 1.523 1.744 8467
2.282 1.533 1.744 7249
2.175 1.461 1.667 853
2.292 1.539 1.741 6643
2.184 1.467 1.664 1064
2.290 1.538 1.729 4841
2.409 1.618 1.813 1303
2.283 1.533 1.713 3658
2.419 1.624 1.809 2257
2.269 1.524 1.693 3818
2.377 1.597 1.768 3189
2.485 1.669 1.844 792
2.381 1.599 1.760 4232
2.273 1.527 1.685 4135
2.490 1.672 1.835 856
2.385 1.602 1.752 4805
2.277 1.529 1.677 3746
2.494 1.675 1.827 880
2.389 1.605 1.744 5525
2.281 1.532 1.669 2605
2.498 1.677 1.818 904
2.387 1.603 1.732 5681
2.279 1.530 1.658 1514
2.496 1.676 1.806 1444
2.460 1.652 1.770 6023
2.351 1.579 1.696 1931
2.464 1.655 1.761 7378
2.355 1.581 1.688 1479
2.468 1.657 1.753 7276
2.359 1.584 1.680 1438
2.466 1.656 1.741 7212
2.357 1.583 1.668 1105
2.481 1.666 1.740 8493
2.372 1.593 1.668 1588
2.503 1.681 1.742 11380
2.393 1.607 1.671 1637
2.506 1.683 1.734 12515
2.396 1.609 1.662 1102
2.516 1.690 1.729 10188
2.406 1.616 1.658 965
2.626 1.764 1.800 893
2.526 1.696 1.724 7872
2.636 1.770 1.794 1103
2.415 1.622 1.653 771
2.530 1.699 1.715 9141
2.640 1.773 1.785 1459
2.539 1.705 1.710 9500
2.650 1.780 1.780 1609
2.555 1.716 1.709 8862
2.665 1.790 1.778 1410
2.570 1.726 1.707 10048
2.681 1.801 1.776 2162
2.580 1.733 1.702 9055
2.691 1.807 1.770 3183
2.607 1.751 1.707 6883
2.718 1.826 1.775 2546
2.496 1.676 1.639 856
2.617 1.757 1.702 7762
2.734 1.836 1.773 2806
2.505 1.682 1.634 780
2.632 1.768 1.700 8682
2.750 1.847 1.771 2997
2.636 1.770 1.691 8198
2.760 1.853 1.765 4554
2.640 1.773 1.682 6439
2.775 1.864 1.762 6347
2.779 1.866 1.753 6777
2.649 1.779 1.676 3380
2.783 1.869 1.743 6738
2.671 1.794 1.677 2290
2.769 1.860 1.723 6485
2.657 1.784 1.658 1512
2.905 1.951 1.802 1277
2.773 1.862 1.713 9776
2.886 1.938 1.778 2092
2.660 1.787 1.648 1448
2.783 1.869 1.707 13205
2.896 1.945 1.772 2649
2.670 1.793 1.643 1975
2.798 1.879 1.704 12434
2.911 1.955 1.769 3469
2.674 1.796 1.633 1780
2.808 1.886 1.698 10608
2.921 1.962 1.762 6157
2.695 1.810 1.634 1309
2.919 1.961 1.748 7701
2.806 1.884 1.685 6484
2.929 1.967 1.742 6560
2.816 1.891 1.679 4682
2.849 1.914 1.685 6722
2.963 1.990 1.748 2627
2.841 1.908 1.669 7747
2.955 1.984 1.731 2917
2.845 1.911 1.659 6225
2.959 1.987 1.721 2753
2.854 1.917 1.652 5450
2.992 2.010 1.727 3223
3.020 2.028 1.729 5949
2.858 1.919 1.643 4119
3.024 2.031 1.719 8120
2.910 1.954 1.658 2317
3.138 2.108 1.779 1403
3.034 2.038 1.712 9980
3.148 2.114 1.772 2047
2.920 1.961 1.651 1488
0.547 0.367 0.402 836
3.044 2.044 1.704 9135
3.164 2.125 1.767 2147
2.929 1.967 1.644 1093
0.547 0.368 0.401 867
3.066 2.059 1.703 7620
2.951 1.982 1.644 2388
3.180 2.136 1.762 1708
0.548 0.368 0.399 801
3.088 2.074 1.702 5245
2.973 1.996 1.643 3494
3.202 2.151 1.761 1453
3.128 2.101 1.709 5525
3.007 2.019 1.648 5525
3.243 2.178 1.768 2002
3.150 2.115 1.708 8281
3.010 2.022 1.637 4053
3.265 2.193 1.766 1734
3.172 2.130 1.706 10022
3.002 2.016 1.621 2073
3.287 2.207 1.764 796
3.181 2.137 1.698 8979
3.066 2.059 1.641 1480
3.179 2.135 1.684 6448
3.295 2.213 1.741 1061
3.064 2.057 1.627 1040
3.189 2.142 1.676 4984
3.305 2.219 1.733 892
3.241 2.177 1.689 5349
3.126 2.099 1.632 1229
3.357 2.255 1.745 979
3.270 2.196 1.689 8339
3.154 2.118 1.633 1692
3.386 2.274 1.745 757
3.286 2.207 1.684 11885
3.169 2.129 1.628 1253
3.320 2.230 1.687 10451
3.204 2.152 1.632 2191
3.342 2.244 1.684 6757
3.226 2.166 1.629 1427
3.383 2.272 1.689 3918
3.266 2.193 1.635 1923
3.399 2.282 1.683 5287
3.282 2.204 1.629 2076
3.515 2.361 1.737 1000
3.378 2.268 1.660 5726
3.507 2.355 1.719 2978
3.511 2.358 1.707 5399
3.375 2.267 1.646 5346
3.514 2.360 1.695 6255
3.385 2.273 1.637 3853
3.631 2.439 1.747 1072
3.506 2.354 1.677 8213
3.382 2.272 1.622 3126
3.623 2.433 1.729 1792
3.516 2.361 1.667 8074
3.633 2.440 1.719 2117
3.392 2.278 1.613 1975
3.526 2.368 1.658 6863
3.686 2.476 1.728 2620
3.408 2.289 1.607 1404
3.535 2.374 1.648 9254
3.653 2.453 1.699 2759
3.418 2.295 1.598 1114
3.770 2.532 1.750 813
3.545 2.381 1.639 9149
3.663 2.460 1.689 3748
3.781 2.539 1.740 1054
3.549 2.383 1.626 5868
3.667 2.462 1.676 4847
3.784 2.542 1.727 1259
3.546 2.382 1.612 4999
3.714 2.494 1.682 4770
3.724 2.501 1.672 4807
3.556 2.388 1.602 4579
3.842 2.580 1.721 815
3.740 2.512 1.664 5686
3.560 2.391 1.589 2479
3.858 2.591 1.713 839
3.744 2.514 1.651 4422
3.862 2.594 1.699 1611
3.563 2.393 1.577 921
3.791 2.546 1.656 4246
3.909 2.625 1.703 1946
3.672 2.466 1.608 1678
3.888 2.611 1.680 4062
3.769 2.532 1.632 2891
3.892 2.614 1.666 5085
3.736 2.509 1.604 2439
4.054 2.723 1.731 903
3.895 2.616 1.653 5945
3.739 2.511 1.591 1344
4.064 2.729 1.719 946
3.905 2.623 1.642 7088
3.786 2.543 1.595 1350
4.093 2.749 1.715 1249
3.909 2.625 1.628 6988
4.090 2.747 1.698 3221
3.790 2.545 1.582 1098
3.919 2.632 1.617 4197
4.094 2.750 1.684 4042
3.800 2.552 1.572 912
3.972 2.668 1.622 4016
4.092 2.748 1.667 3121
4.211 2.828 1.712 820
3.847 2.584 1.575 814
3.976 2.670 1.608 4525
4.095 2.750 1.653 2591
4.240 2.847 1.707 1208
4.086 2.744 1.634 4959
3.967 2.664 1.590 2543
4.206 2.825 1.678 1294
4.090 2.747 1.620 5423
4.209 2.827 1.664 2142
4.112 2.762 1.613 2691
4.232 2.842 1.656 2630
0.569 0.382 0.328 823
4.242 2.849 1.643 4109
4.122 2.769 1.601 1326
4.362 2.929 1.686 817
0.570 0.383 0.327 755
4.258 2.860 1.633 5001
4.378 2.940 1.676 1005
4.101 2.754 1.577 856
4.274 2.871 1.623 4451
4.148 2.786 1.578 946
4.394 2.951 1.665 835
4.284 2.877 1.610 2108
4.411 2.962 1.654 1569
4.164 2.797 1.568 816
4.408 2.960 1.636 2330
4.275 2.871 1.591 1325
4.528 3.041 1.678 904
4.291 2.882 1.580 2850
4.488 3.014 1.647 2724
4.620 3.103 1.692 1216
4.295 2.884 1.565 3463
4.497 3.020 1.633 3146
4.624 3.106 1.676 1878
4.514 3.031 1.622 2785
4.634 3.112 1.662 1961
4.292 2.882 1.548 1789
4.631 3.110 1.644 3214
4.511 3.030 1.604 2312
4.391 2.949 1.564 979
4.629 3.109 1.625 4500
4.508 3.028 1.586 2381
4.632 3.111 1.609 5645
4.512 3.030 1.571 2341
4.630 3.109 1.591 6545
4.509 3.028 1.553 1260
4.633 3.112 1.575 4962
4.643 3.118 1.561 7042
5.006 3.362 1.673 1900
4.764 3.199 1.598 1253
4.646 3.120 1.545 10668
5.016 3.369 1.658 2702
4.767 3.202 1.582 1333
5.137 3.450 1.695 1019
4.656 3.127 1.530 10788
5.026 3.375 1.642 3333
5.147 3.457 1.679 1266
4.873 3.273 1.596 1068
4.653 3.125 1.512 9207
5.029 3.378 1.624 3783
5.151 3.459 1.661 1255
4.774 3.206 1.548 804
4.650 3.123 1.494 6915
5.046 3.389 1.611 4347
5.167 3.470 1.646 1979
5.120 3.438 1.613 5530
4.647 3.121 1.476 3884
4.998 3.357 1.578 1780
5.241 3.520 1.649 1452
5.136 3.449 1.599 4405
4.656 3.127 1.462 1701
5.014 3.368 1.564 1398
5.257 3.531 1.634 1319
5.197 3.490 1.598 6438
5.357 3.598 1.643 1908
4.685 3.147 1.453 1171
5.063 3.400 1.560 1159
5.194 3.488 1.578 5425
5.361 3.600 1.624 2119
4.701 3.157 1.440 902
5.223 3.508 1.567 2899
5.358 3.598 1.604 2223
5.233 3.514 1.550 3498
5.361 3.601 1.585 1939
5.502 3.695 1.624 1469
5.643 3.790 1.662 787
5.236 3.517 1.532 3425
5.493 3.689 1.601 2739
5.371 3.607 1.568 1761
5.653 3.797 1.644 1058
5.375 3.610 1.549 2839
5.227 3.510 1.510 2155
5.497 3.691 1.582 2015
5.676 3.812 1.629 1658
5.378 3.612 1.531 3029
5.680 3.815 1.609 1967
5.539 3.720 1.573 1040
5.224 3.508 1.490 988
5.381 3.614 1.512 2128
5.683 3.817 1.590 1421
5.928 3.981 1.653 1080
5.503 3.696 1.543 1079
5.931 3.983 1.632 2203
5.681 3.815 1.568 1814
5.391 3.621 1.495 1148
5.684 3.817 1.548 4312
5.935 3.986 1.611 2016
5.687 3.820 1.529 7093
5.938 3.988 1.590 1470
6.067 4.075 1.622 1000
5.691 3.822 1.509 5151
5.942 3.991 1.570 1887
6.084 4.086 1.604 1479
6.335 4.255 1.665 908
5.952 3.997 1.550 2833
5.688 3.820 1.487 1639
6.094 4.092 1.584 1595
6.332 4.253 1.641 885
5.955 3.999 1.530 3002
6.497 4.363 1.657 1705
6.078 4.082 1.559 1472
5.704 3.831 1.470 811
6.514 4.374 1.637 2433
5.991 4.023 1.516 2269
6.391 4.292 1.609 1516
6.669 4.479 1.673 1224
6.530 4.386 1.618 2978
5.994 4.026 1.495 2386
6.407 4.303 1.590 1999
6.672 4.481 1.650 1408
6.534 4.388 1.595 3253
6.669 4.479 1.625 2522
7.025 4.718 1.705 1737
5.991 4.023 1.473 1722
6.673 4.481 1.602 4170
6.518 4.377 1.568 3051
7.041 4.729 1.683 2191
5.994 4.026 1.452 1017
6.676 4.484 1.579 4289
7.045 4.731 1.659 2647
6.515 4.375 1.544 2421
6.680 4.486 1.555 3386
7.055 4.738 1.635 2714
6.557 4.404 1.529 2555
7.321 4.916 1.692 1009
7.059 4.741 1.611 3502
6.683 4.488 1.532 2852
6.560 4.406 1.506 2676
7.305 4.906 1.662 1363
7.056 4.739 1.585 4084
6.596 4.430 1.490 2600
6.719 4.512 1.515 1863
7.309 4.908 1.637 1847
7.059 4.741 1.560 3418
6.586 4.423 1.464 1846
7.332 4.924 1.615 1816
7.520 5.050 1.653 1424
7.069 4.748 1.537 4368
7.329 4.922 1.588 2174
7.757 5.209 1.674 1314
7.595 5.100 1.641 1181
7.073 4.750 1.512 5257
7.319 4.915 1.560 2467
7.793 5.234 1.653 1333
7.611 5.112 1.617 1232
7.069 4.748 1.486 3532
7.803 5.240 1.627 1832
7.316 4.913 1.533 1645
7.621 5.118 1.592 1067
7.079 4.754 1.463 1587
7.813 5.247 1.601 1498
7.326 4.920 1.509 1130
8.404 5.644 1.712 951
7.875 5.289 1.584 1123
7.336 4.927 1.485 1078
7.609 5.110 1.535 1048
7.082 4.756 1.438 1007
8.424 5.658 1.655 1097
7.807 5.243 1.544 975
8.873 5.959 1.737 804
7.339 4.929 1.459 802
8.415 5.651 1.624 1513
8.870 5.957 1.704 1199
9.195 6.175 1.762 750
8.412 5.649 1.593 2081
8.867 5.955 1.672 1471
9.206 6.182 1.731 1088
9.082 6.099 1.710 844
8.429 5.661 1.566 1818
9.398 6.312 1.731 1491
9.222 6.194 1.701 1348
9.099 6.111 1.680 1242
9.421 6.327 1.701 2263
9.233 6.201 1.670 1582
9.096 6.109 1.647 1364
8.796 5.908 1.597 1029
9.425 6.330 1.668 2731
9.243 6.207 1.639 1476
9.100 6.111 1.615 1443
8.793 5.906 1.565 887
9.416 6.324 1.633 2377
9.097 6.109 1.582 1041
9.246 6.210 1.606 997
8.816 5.921 1.538 779
9.419 6.326 1.600 2119
9.250 6.212 1.574 857
9.423 6.328 1.567 2304
9.247 6.210 1.540 1029
10.473 7.033 1.727 985
9.592 6.442 1.593 820
9.433 6.335 1.535 2042
10.483 7.040 1.691 1317
9.602 6.449 1.560 983
10.053 6.751 1.627 967
10.487 7.043 1.655 1597
9.443 6.342 1.503 1228
9.619 6.460 1.529 1136
10.050 6.749 1.591 810
10.490 7.045 1.618 1958
9.622 6.462 1.495 1026
10.500 7.052 1.582 2117
10.651 7.153 1.603 776
10.491 7.046 1.544 1577
10.648 7.151 1.565 1032
10.066 6.760 1.486 889
10.644 7.149 1.527 1094
10.520 7.065 1.510 1065
10.511 7.059 1.472 1118
10.654 7.155 1.490 807
10.546 7.083 1.439 1145
10.549 7.085 1.402 1248
10.553 7.087 1.365 982
8.773 5.892 -0.473 956
8.771 5.891 -0.504 1230
8.770 5.890 -0.535 1504
8.768 5.889 -0.565 1804
8.773 5.892 -0.597 2139
8.771 5.891 -0.627 1910
8.769 5.889 -0.658 1682
8.767 5.888 -0.689 1682
8.765 5.887 -0.719 1561
8.744 5.872 -0.748 1539
8.754 5.879 -0.780 1521
8.752 5.878 -0.811 1534
8.730 5.863 -0.839 1465
8.721 5.857 -0.869 1559
8.719 5.855 -0.899 1559
8.716 5.854 -0.930 1628
8.714 5.852 -0.960 1697
8.717 5.855 -0.992 1440
8.715 5.853 -1.022 1239
1.941 1.296 1.773 3979
1.945 1.299 1.766 7958
1.736 1.159 1.587 931
1.949 1.301 1.759 7958
1.739 1.161 1.581 906
1.953 1.304 1.753 8899
2.055 1.372 1.839 933
1.957 1.306 1.746 9841
2.059 1.375 1.832 1205
1.960 1.309 1.739 9883
2.063 1.378 1.825 1988
1.959 1.308 1.728 9969
2.062 1.377 1.814 3274
1.963 1.311 1.721 9969
2.066 1.379 1.806 3274
1.972 1.317 1.719 10895
2.075 1.386 1.804 3153
1.976 1.319 1.712 11865
2.079 1.388 1.797 3534
1.974 1.318 1.701 9496
2.078 1.388 1.785 4888
2.055 1.372 1.756 8712
1.951 1.303 1.672 3333
2.059 1.375 1.749 5621
1.954 1.305 1.666 2276
2.007 1.340 1.698 4234
2.112 1.410 1.781 2242
2.088 1.394 1.752 3304
1.984 1.325 1.670 1819
2.136 1.427 1.780 3010
2.032 1.357 1.697 1740
2.146 1.433 1.777 4646
2.041 1.363 1.695 1759
2.144 1.432 1.765 5854
2.039 1.362 1.683 1539
2.143 1.431 1.753 7083
2.037 1.360 1.672 1052
2.248 1.501 1.834 980
2.147 1.433 1.746 6135
2.252 1.504 1.827 947
2.041 1.363 1.665 791
2.162 1.443 1.747 5236
2.056 1.373 1.667 762
2.149 1.435 1.727 4613
2.255 1.506 1.807 2167
2.147 1.434 1.715 4188
2.253 1.505 1.795 3601
2.240 1.496 1.775 5776
2.134 1.425 1.695 3055
2.244 1.499 1.767 7492
2.138 1.428 1.688 2183
2.254 1.505 1.763 6589
2.147 1.434 1.685 1574
2.263 1.511 1.760 5810
2.157 1.440 1.682 1162
2.267 1.514 1.752 7003
2.160 1.443 1.674 904
2.277 1.520 1.748 8275
2.292 1.531 1.748 6861
2.185 1.459 1.671 910
2.302 1.537 1.745 6022
2.194 1.465 1.668 876
2.300 1.536 1.733 4108
2.408 1.608 1.809 1507
2.275 1.519 1.705 3445
2.412 1.610 1.801 2417
2.268 1.514 1.689 3755
2.416 1.613 1.792 2729
2.272 1.517 1.681 3893
2.426 1.620 1.788 3072
2.287 1.527 1.681 3563
2.395 1.599 1.756 3546
2.504 1.672 1.831 797
2.388 1.594 1.740 4317
2.279 1.522 1.666 2244
2.496 1.667 1.814 1218
2.392 1.597 1.732 4471
2.500 1.670 1.806 1581
2.283 1.524 1.658 1484
2.464 1.646 1.770 6735
2.355 1.573 1.696 2348
2.468 1.648 1.761 7717
2.359 1.575 1.688 1873
2.472 1.651 1.753 7303
2.363 1.578 1.680 1656
2.476 1.653 1.744 6889
2.366 1.580 1.672 1439
2.492 1.664 1.743 8572
2.382 1.590 1.671 1878
2.507 1.674 1.742 11903
2.397 1.601 1.671 1685
2.511 1.677 1.734 12833
2.401 1.603 1.662 1262
2.521 1.683 1.729 10519
2.631 1.757 1.800 1223
2.410 1.609 1.658 1045
2.524 1.686 1.720 8233
2.635 1.759 1.791 1836
2.534 1.692 1.715 9508
2.645 1.766 1.785 1946
2.544 1.699 1.710 9561
2.655 1.773 1.780 2037
2.553 1.705 1.705 8537
2.664 1.779 1.774 1980
2.575 1.719 1.707 8998
2.686 1.793 1.776 2360
2.608 1.741 1.716 7903
2.719 1.816 1.785 2188
2.496 1.667 1.648 1141
2.618 1.748 1.711 5971
2.729 1.822 1.779 2318
2.506 1.673 1.643 1231
2.627 1.754 1.705 6565
2.745 1.833 1.777 2986
2.516 1.680 1.638 1114
2.637 1.761 1.700 7792
2.760 1.843 1.774 3503
2.641 1.763 1.691 7879
2.764 1.846 1.765 5770
2.780 1.856 1.762 8134
2.644 1.766 1.682 6097
2.784 1.859 1.753 8416
2.654 1.772 1.676 2914
2.788 1.862 1.743 7420
2.676 1.787 1.677 2003
2.762 1.844 1.716 5885
2.650 1.769 1.651 1086
2.916 1.947 1.806 1028
2.778 1.855 1.713 9380
2.891 1.930 1.778 1817
2.665 1.780 1.648 1193
2.788 1.861 1.707 13703
2.901 1.937 1.772 2161
2.675 1.786 1.643 1684
2.803 1.872 1.704 14557
2.917 1.947 1.769 2980
2.678 1.788 1.633 1529
2.813 1.878 1.698 14736
2.926 1.954 1.762 5190
2.670 1.783 1.617 1027
2.823 1.885 1.692 8623
2.936 1.961 1.755 5849
2.709 1.809 1.628 758
2.910 1.943 1.728 5233
2.797 1.868 1.665 3806
2.866 1.914 1.692 5691
2.980 1.990 1.755 1533
2.858 1.908 1.675 5468
2.972 1.985 1.738 1709
2.850 1.903 1.659 4596
2.964 1.979 1.721 2689
2.932 1.958 1.691 4354
3.046 2.034 1.753 2953
2.817 1.881 1.630 1878
3.026 2.020 1.729 6385
2.911 1.944 1.668 3497
3.029 2.023 1.719 7738
2.915 1.946 1.658 2450
3.144 2.099 1.779 941
3.039 2.029 1.712 9151
3.154 2.106 1.772 1799
2.925 1.953 1.651 1403
3.049 2.036 1.704 8654
3.164 2.113 1.764 2205
2.934 1.959 1.644 876
3.071 2.051 1.703 7258
2.956 1.974 1.644 1943
3.186 2.127 1.762 1828
3.087 2.061 1.699 4511
2.972 1.984 1.640 2790
3.202 2.138 1.758 1695
3.012 2.011 1.648 5416
3.157 2.108 1.722 5273
3.273 2.185 1.780 859
3.155 2.107 1.708 8340
3.016 2.014 1.637 3886
3.271 2.184 1.766 1970
3.171 2.118 1.703 10060
3.013 2.012 1.624 1931
3.287 2.195 1.761 1184
3.187 2.128 1.698 8821
3.072 2.051 1.641 1576
3.185 2.127 1.684 6299
3.069 2.049 1.627 1165
3.301 2.204 1.741 875
3.201 2.137 1.679 4788
3.335 2.227 1.744 1112
3.266 2.181 1.697 4810
3.150 2.103 1.641 1745
3.382 2.258 1.754 982
3.282 2.191 1.692 9631
3.165 2.114 1.636 1779
3.398 2.269 1.748 1154
3.291 2.198 1.684 13188
3.408 2.275 1.739 1097
3.175 2.120 1.628 994
3.326 2.221 1.687 10274
3.209 2.143 1.632 1674
3.348 2.236 1.684 7417
3.231 2.158 1.629 1238
3.364 2.246 1.678 4014
3.247 2.168 1.624 1187
3.481 2.324 1.732 796
3.398 2.269 1.680 4367
3.282 2.191 1.627 1848
3.515 2.347 1.734 1099
3.378 2.255 1.657 5546
3.501 2.338 1.713 3612
3.517 2.348 1.707 6093
3.381 2.258 1.646 4916
3.521 2.351 1.695 7125
3.385 2.260 1.634 3501
3.638 2.429 1.747 793
3.512 2.345 1.677 8907
3.395 2.267 1.625 3253
3.629 2.423 1.729 1238
3.516 2.348 1.665 8787
3.398 2.269 1.613 2539
3.633 2.426 1.716 1944
3.532 2.358 1.658 7218
3.699 2.470 1.731 2374
3.414 2.280 1.607 1694
3.542 2.365 1.648 10324
3.659 2.444 1.699 2062
3.424 2.286 1.598 1206
3.545 2.367 1.636 11260
3.663 2.446 1.687 2775
3.781 2.525 1.737 1064
3.427 2.289 1.586 801
3.549 2.370 1.624 6817
3.729 2.490 1.700 4583
3.720 2.484 1.682 5782
3.559 2.376 1.614 5032
3.730 2.491 1.672 5396
3.569 2.383 1.604 5148
3.740 2.498 1.661 6794
3.572 2.385 1.592 2766
3.859 2.577 1.710 1105
3.750 2.504 1.651 5333
3.869 2.583 1.699 2162
3.563 2.379 1.575 905
3.798 2.536 1.656 4540
3.916 2.615 1.703 2139
3.679 2.457 1.608 1431
3.907 2.609 1.685 4692
3.789 2.530 1.637 3660
3.905 2.607 1.669 6004
3.742 2.499 1.604 2355
4.067 2.716 1.733 929
3.909 2.610 1.655 7076
3.790 2.531 1.609 1763
4.071 2.719 1.719 1002
3.912 2.612 1.642 7554
3.793 2.533 1.595 1603
4.100 2.738 1.715 1328
3.916 2.615 1.628 6762
4.098 2.736 1.698 3244
3.797 2.535 1.582 974
3.926 2.621 1.617 4210
4.101 2.739 1.684 3983
3.806 2.542 1.572 767
4.074 2.720 1.658 3681
3.954 2.641 1.613 3013
4.193 2.800 1.703 1130
3.983 2.660 1.608 3831
4.103 2.739 1.653 2635
4.247 2.836 1.707 1458
4.094 2.734 1.634 4046
3.974 2.654 1.590 2166
4.245 2.834 1.690 1460
4.091 2.732 1.618 4433
4.211 2.812 1.661 2136
0.564 0.376 0.328 804
3.971 2.652 1.574 768
4.158 2.776 1.626 2403
0.564 0.377 0.326 952
4.277 2.856 1.670 830
4.256 2.842 1.646 3145
4.136 2.762 1.603 1626
0.571 0.381 0.327 885
4.272 2.853 1.635 4846
4.152 2.773 1.593 1381
4.392 2.933 1.678 776
4.282 2.859 1.623 4368
4.162 2.779 1.581 1204
4.415 2.948 1.669 913
4.292 2.866 1.610 2816
4.425 2.955 1.656 1794
4.172 2.786 1.568 930
4.403 2.940 1.632 2607
4.283 2.860 1.591 2161
4.523 3.021 1.673 1384
4.305 2.875 1.582 3623
4.502 3.006 1.649 2856
4.629 3.091 1.692 1033
4.303 2.873 1.565 3865
4.512 3.013 1.635 2918
4.632 3.093 1.676 1680
4.534 3.028 1.626 2833
4.306 2.875 1.550 1845
4.655 3.108 1.666 1687
4.633 3.094 1.641 4111
4.513 3.013 1.602 2329
4.392 2.933 1.562 1066
4.637 3.096 1.625 6555
4.516 3.016 1.586 2604
4.641 3.099 1.609 7604
4.520 3.018 1.571 2707
4.631 3.093 1.589 7097
4.510 3.012 1.551 1291
4.635 3.095 1.573 6072
4.651 3.106 1.561 8692
5.066 3.383 1.689 1601
4.661 3.112 1.547 13217
5.031 3.359 1.659 2379
4.782 3.193 1.584 803
4.910 3.278 1.622 750
4.664 3.115 1.530 13548
5.035 3.362 1.642 2613
4.786 3.196 1.567 1017
5.156 3.443 1.679 900
4.661 3.113 1.512 11037
5.038 3.364 1.624 2814
5.160 3.445 1.661 1470
4.652 3.106 1.492 7441
5.068 3.384 1.614 4235
5.189 3.465 1.650 1583
5.129 3.425 1.613 6464
4.655 3.108 1.476 3885
5.250 3.506 1.649 1350
5.007 3.343 1.578 1191
5.139 3.431 1.597 4591
5.260 3.513 1.632 1721
4.671 3.119 1.464 1497
5.017 3.350 1.563 917
5.213 3.481 1.600 6996
5.367 3.583 1.643 1725
4.694 3.134 1.453 1018
5.091 3.399 1.565 756
5.203 3.475 1.578 5282
5.370 3.586 1.624 1780
4.703 3.140 1.438 869
5.226 3.490 1.565 2496
5.367 3.584 1.604 1457
5.242 3.501 1.550 3593
5.364 3.582 1.583 1648
5.512 3.681 1.624 1564
5.660 3.779 1.664 757
5.239 3.499 1.530 4179
5.503 3.674 1.601 3169
5.368 3.584 1.565 1684
5.651 3.773 1.640 858
5.236 3.496 1.510 2755
5.500 3.673 1.580 2438
5.680 3.793 1.628 2214
5.378 3.591 1.548 1845
5.690 3.799 1.609 3291
5.388 3.598 1.531 1776
5.233 3.494 1.490 1282
5.510 3.679 1.563 1063
5.694 3.802 1.590 2326
5.397 3.604 1.514 1274
5.951 3.974 1.656 1157
5.243 3.501 1.474 962
5.684 3.796 1.567 2356
5.948 3.972 1.633 2326
5.807 3.877 1.598 1128
5.688 3.798 1.547 4601
5.945 3.970 1.611 2042
6.068 4.052 1.642 1065
5.810 3.880 1.577 854
5.697 3.804 1.529 6977
6.065 4.050 1.619 1685
5.943 3.968 1.589 1304
5.820 3.886 1.559 937
5.701 3.807 1.509 4798
6.095 4.070 1.604 2194
5.946 3.970 1.568 1204
5.823 3.889 1.538 932
6.105 4.076 1.584 2362
5.956 3.977 1.549 1508
5.698 3.805 1.487 1405
6.505 4.344 1.680 1034
6.056 4.044 1.551 2302
6.515 4.350 1.659 2250
5.934 3.962 1.522 965
5.714 3.815 1.470 820
6.525 4.357 1.637 2895
6.021 4.020 1.521 2054
6.402 4.275 1.609 1331
6.680 4.461 1.673 906
6.542 4.368 1.618 3464
6.005 4.010 1.495 1967
6.419 4.286 1.590 1671
7.027 4.692 1.728 1014
6.526 4.358 1.591 3674
7.037 4.699 1.705 2027
6.681 4.461 1.625 1773
6.002 4.008 1.473 1270
6.523 4.356 1.566 3530
6.685 4.464 1.602 3135
7.047 4.706 1.682 2397
0.779 0.520 0.300 790
6.688 4.466 1.579 3253
6.526 4.358 1.544 2708
7.058 4.713 1.659 2264
6.575 4.390 1.530 2712
6.698 4.473 1.557 2285
7.068 4.719 1.635 2155
7.334 4.897 1.692 1172
7.071 4.722 1.611 2906
6.585 4.397 1.509 2808
6.708 4.479 1.535 1592
7.344 4.904 1.668 1275
7.068 4.720 1.585 3553
6.614 4.417 1.491 2719
7.529 5.028 1.680 1541
7.322 4.889 1.637 1503
7.072 4.722 1.560 3404
6.598 4.406 1.464 1865
7.351 4.909 1.617 1729
7.539 5.034 1.655 1365
7.082 4.729 1.537 4404
7.348 4.907 1.590 2132
7.602 5.076 1.640 1354
7.770 5.189 1.674 1030
7.085 4.731 1.512 5019
7.339 4.900 1.562 2246
7.612 5.083 1.615 1258
7.904 5.278 1.672 1141
7.082 4.729 1.486 3316
7.336 4.898 1.535 1525
7.823 5.224 1.628 1249
8.298 5.541 1.719 1192
7.085 4.731 1.461 1621
8.412 5.617 1.711 1258
7.918 5.287 1.618 1188
7.345 4.905 1.510 1124
8.351 5.576 1.669 1323
7.908 5.281 1.588 1291
8.156 5.446 1.633 1183
7.095 4.738 1.438 1103
8.361 5.583 1.641 1359
7.892 5.270 1.557 997
8.172 5.457 1.607 947
8.889 5.935 1.737 809
8.430 5.629 1.624 1846
8.886 5.933 1.704 1105
9.010 6.016 1.726 808
9.212 6.151 1.762 799
8.427 5.627 1.593 2235
8.877 5.927 1.671 1313
9.215 6.154 1.730 1103
9.007 6.014 1.694 910
8.437 5.634 1.565 1690
9.239 6.169 1.701 1349
9.421 6.291 1.732 1208
9.115 6.086 1.680 1176
9.438 6.302 1.701 1949
9.249 6.176 1.670 1832
9.086 6.067 1.643 1480
8.799 5.876 1.595 1155
9.442 6.305 1.668 2333
9.253 6.178 1.637 1790
9.109 6.083 1.614 1533
8.803 5.878 1.564 1003
9.433 6.299 1.633 2068
9.119 6.089 1.583 1148
9.269 6.190 1.607 1143
8.826 5.893 1.537 783
9.423 6.292 1.598 2101
9.299 6.209 1.579 908
9.626 6.427 1.630 839
9.440 6.303 1.567 2238
9.263 6.186 1.540 997
10.491 7.005 1.727 958
10.086 6.735 1.666 944
9.450 6.310 1.535 1921
10.502 7.012 1.691 1241
10.090 6.738 1.630 1159
9.626 6.428 1.561 1039
10.505 7.015 1.655 1580
9.466 6.321 1.504 1301
9.630 6.430 1.528 1090
10.087 6.736 1.594 878
10.509 7.017 1.618 2089
9.646 6.441 1.496 976
10.519 7.024 1.582 2358
9.649 6.443 1.462 758
10.536 7.035 1.547 1823
10.667 7.122 1.565 810
10.084 6.734 1.486 790
10.578 7.064 1.515 1083
10.703 7.147 1.532 819
10.719 7.158 1.496 963
10.503 7.013 1.468 897
10.559 7.050 1.438 838
10.568 7.057 1.402 823
8.794 5.872 -0.505 936
8.792 5.871 -0.535 1193
8.790 5.870 -0.566 1286
8.789 5.869 -0.597 1380
8.787 5.867 -0.627 1258
8.785 5.866 -0.658 1137
8.783 5.865 -0.689 1137
8.781 5.863 -0.719 1335
8.766 5.853 -0.749 1583
8.750 5.843 -0.778 1404
8.742 5.837 -0.808 1317
8.733 5.831 -0.838 1670
8.730 5.830 -0.868 2054
8.728 5.828 -0.899 2054
8.725 5.826 -0.929 1846
8.729 5.829 -0.960 1653
8.726 5.827 -0.991 1543
8.724 5.825 -1.021 1433
1.951 1.292 1.777 3411
1.955 1.294 1.771 6822
1.959 1.297 1.764 6822
1.958 1.296 1.753 7712
2.060 1.364 1.839 927
1.951 1.292 1.737 8858
2.054 1.360 1.823 1525
1.955 1.294 1.730 9269
2.058 1.362 1.816 2282
1.959 1.297 1.724 9681
2.062 1.365 1.809 3038
1.963 1.299 1.717 9681
2.066 1.368 1.802 3038
1.972 1.305 1.715 10742
2.075 1.374 1.799 3131
1.976 1.308 1.708 11815
2.079 1.377 1.792 3700
1.979 1.310 1.701 9825
2.083 1.379 1.785 3959
1.983 1.313 1.694 7834
2.087 1.382 1.778 4219
1.993 1.319 1.692 5688
2.097 1.388 1.775 3038
2.007 1.329 1.694 4024
2.112 1.398 1.777 2032
2.094 1.386 1.752 3143
1.989 1.317 1.670 1747
2.148 1.422 1.784 2896
2.037 1.348 1.697 1796
2.146 1.421 1.772 4473
2.041 1.351 1.690 1774
2.144 1.420 1.761 6255
2.039 1.350 1.679 1539
2.148 1.422 1.753 8068
2.043 1.352 1.672 1281
2.254 1.492 1.834 945
2.152 1.425 1.746 7362
2.046 1.355 1.665 1029
2.258 1.495 1.827 946
2.151 1.424 1.734 6708
2.257 1.494 1.815 1240
2.154 1.426 1.727 5225
2.261 1.497 1.807 2024
2.237 1.481 1.778 3950
2.125 1.407 1.694 3654
2.241 1.483 1.770 5686
2.134 1.413 1.691 2877
2.250 1.490 1.767 7432
2.138 1.415 1.684 2102
2.260 1.496 1.763 6227
2.153 1.425 1.685 1617
2.275 1.506 1.764 5426
2.168 1.435 1.686 2118
2.279 1.509 1.756 6640
2.172 1.438 1.678 1657
2.289 1.515 1.752 7975
2.181 1.444 1.675 1453
2.304 1.525 1.753 6510
2.196 1.454 1.676 1451
2.313 1.532 1.749 5540
2.206 1.460 1.672 1033
2.317 1.534 1.741 3823
2.425 1.606 1.817 1326
2.209 1.463 1.664 1023
2.270 1.503 1.697 3819
2.378 1.574 1.773 3454
2.487 1.646 1.849 916
2.268 1.501 1.685 4005
2.394 1.585 1.772 2710
2.502 1.656 1.848 832
2.272 1.504 1.677 3757
2.426 1.606 1.784 2755
2.293 1.518 1.681 3434
2.447 1.620 1.787 2924
2.457 1.627 1.783 3511
2.337 1.547 1.701 3288
2.467 1.633 1.778 5080
2.358 1.561 1.704 3264
2.471 1.636 1.770 7352
2.361 1.563 1.696 2842
2.475 1.638 1.761 7970
2.365 1.566 1.688 2420
2.479 1.641 1.753 7079
2.369 1.568 1.680 1950
2.488 1.647 1.748 6271
2.379 1.575 1.676 1730
2.504 1.658 1.747 8068
2.394 1.585 1.675 1950
2.514 1.664 1.742 11232
2.403 1.591 1.671 1535
2.523 1.670 1.738 11987
2.413 1.597 1.666 1378
2.527 1.673 1.729 10109
2.638 1.746 1.800 1542
2.417 1.600 1.658 1049
2.531 1.676 1.720 8231
2.642 1.749 1.791 2323
2.535 1.678 1.711 9201
2.646 1.752 1.782 3007
2.550 1.688 1.710 8761
2.662 1.762 1.780 2284
2.560 1.695 1.705 7442
2.671 1.768 1.774 2101
2.582 1.709 1.707 7546
2.693 1.783 1.776 2456
2.615 1.731 1.716 6775
2.726 1.805 1.785 2151
2.503 1.657 1.648 1217
2.624 1.737 1.711 5150
2.736 1.811 1.779 2155
2.513 1.663 1.643 1386
2.652 1.755 1.716 5362
2.764 1.830 1.784 3010
2.540 1.681 1.648 1887
2.650 1.754 1.703 6656
2.786 1.844 1.785 3756
2.654 1.757 1.694 6992
2.778 1.839 1.768 6551
2.788 1.845 1.762 9339
2.651 1.755 1.682 5241
2.792 1.848 1.753 9579
2.679 1.773 1.686 2693
2.795 1.851 1.743 7585
2.683 1.776 1.677 2042
2.752 1.822 1.706 5655
2.865 1.896 1.771 1748
2.639 1.747 1.640 814
2.779 1.840 1.710 8699
2.892 1.915 1.775 1613
2.666 1.765 1.645 794
2.795 1.850 1.707 13466
2.908 1.925 1.772 1690
2.682 1.775 1.643 1288
2.811 1.861 1.704 15823
2.924 1.936 1.769 2375
2.680 1.774 1.630 1238
2.827 1.871 1.701 17553
2.940 1.946 1.765 3200
2.671 1.768 1.614 937
2.830 1.874 1.692 10133
2.944 1.949 1.755 3438
2.882 1.908 1.708 5867
2.768 1.833 1.645 1092
2.886 1.910 1.698 6092
2.772 1.835 1.636 842
2.896 1.917 1.692 4931
3.028 2.004 1.764 1069
2.918 1.931 1.692 4036
3.032 2.007 1.753 1611
2.803 1.856 1.630 768
2.963 1.962 1.704 5618
2.849 1.886 1.643 2962
3.078 2.038 1.766 1516
3.028 2.004 1.726 6229
2.913 1.928 1.665 3527
3.038 2.011 1.719 6605
2.923 1.935 1.658 2805
3.047 2.017 1.712 7455
3.162 2.093 1.772 1505
2.932 1.941 1.651 1346
3.057 2.024 1.704 7222
3.172 2.100 1.764 2105
3.079 2.038 1.703 5988
3.194 2.115 1.762 1642
2.964 1.962 1.644 1503
3.010 1.993 1.655 4698
3.150 2.085 1.727 4356
3.160 2.092 1.719 5439
3.020 1.999 1.648 5319
3.275 2.168 1.777 1158
3.170 2.098 1.711 8087
3.024 2.002 1.637 3708
3.285 2.175 1.769 1802
3.180 2.105 1.703 9733
3.027 2.004 1.627 1762
3.295 2.182 1.761 1719
3.190 2.111 1.695 8407
3.074 2.035 1.638 1688
3.305 2.188 1.752 1294
3.193 2.114 1.684 5915
3.077 2.037 1.627 1275
3.309 2.191 1.741 1023
3.215 2.129 1.682 4410
3.338 2.210 1.741 1285
3.099 2.052 1.625 838
3.293 2.180 1.706 5350
3.176 2.103 1.650 2242
3.409 2.257 1.762 835
3.296 2.182 1.695 11428
3.180 2.105 1.639 1726
3.413 2.259 1.751 1334
3.300 2.185 1.684 13719
3.417 2.262 1.739 1410
3.341 2.212 1.689 9008
3.224 2.134 1.635 1567
3.363 2.226 1.687 7402
3.246 2.149 1.632 1550
3.480 2.304 1.741 756
3.373 2.233 1.678 5116
3.256 2.155 1.624 1406
3.490 2.310 1.732 876
3.383 2.239 1.669 4214
3.500 2.317 1.723 1604
3.266 2.162 1.615 881
3.380 2.238 1.654 4822
3.504 2.319 1.711 3855
3.520 2.330 1.704 5684
3.384 2.240 1.643 3909
3.524 2.333 1.692 6802
3.406 2.255 1.639 3062
3.521 2.331 1.677 8825
3.404 2.253 1.625 3439
3.525 2.334 1.665 9102
3.407 2.256 1.613 2925
3.643 2.412 1.716 1536
3.535 2.340 1.655 7506
3.721 2.463 1.736 2050
3.417 2.262 1.604 1713
3.551 2.351 1.648 11532
3.725 2.466 1.723 2168
3.433 2.273 1.598 1210
3.555 2.353 1.636 13663
3.741 2.477 1.716 3380
3.437 2.275 1.586 879
3.558 2.356 1.624 8218
3.739 2.475 1.700 5652
3.736 2.474 1.685 6109
3.568 2.362 1.614 5220
3.578 2.369 1.604 5413
3.740 2.476 1.672 5412
3.750 2.483 1.661 7455
3.588 2.375 1.595 2918
3.869 2.561 1.710 1366
3.754 2.485 1.648 6195
3.873 2.564 1.697 2879
3.635 2.406 1.600 992
3.808 2.521 1.656 4714
3.926 2.599 1.703 2305
3.689 2.442 1.608 1253
3.918 2.594 1.685 4680
3.799 2.515 1.637 3657
3.915 2.592 1.669 6123
3.796 2.513 1.622 2417
3.919 2.594 1.655 7424
3.800 2.515 1.609 2390
4.082 2.702 1.719 878
3.923 2.597 1.642 7434
3.803 2.518 1.595 1958
4.105 2.717 1.712 1289
3.933 2.603 1.631 6169
4.109 2.720 1.698 3034
3.813 2.524 1.585 1090
3.936 2.606 1.617 3978
4.112 2.722 1.684 3671
3.990 2.641 1.622 3238
4.122 2.729 1.672 3111
4.242 2.808 1.717 846
3.994 2.644 1.608 3041
4.126 2.731 1.658 2684
4.259 2.819 1.707 1313
4.105 2.717 1.634 3114
3.985 2.638 1.590 1731
4.256 2.817 1.690 1443
4.108 2.720 1.620 2883
4.228 2.799 1.664 1546
3.988 2.640 1.576 879
4.162 2.755 1.624 2307
4.282 2.835 1.667 929
4.274 2.829 1.648 2421
4.153 2.749 1.605 1939
4.283 2.836 1.635 4495
4.163 2.756 1.593 1938
4.300 2.846 1.625 4379
4.179 2.767 1.583 1382
4.433 2.935 1.671 1023
4.303 2.849 1.610 3638
4.443 2.941 1.658 1907
4.183 2.769 1.568 876
4.307 2.851 1.595 3558
4.428 2.931 1.636 2212
4.548 3.011 1.678 936
4.317 2.858 1.582 4051
4.507 2.984 1.647 2768
4.628 3.064 1.688 813
4.314 2.856 1.565 3730
4.517 2.991 1.633 2491
4.645 3.075 1.676 1285
4.559 3.018 1.630 2828
4.419 2.926 1.584 1959
4.680 3.098 1.670 1373
4.298 2.845 1.544 1230
4.652 3.080 1.644 4644
4.531 3.000 1.604 2327
4.410 2.919 1.564 1603
4.649 3.078 1.625 7371
4.528 2.998 1.586 2493
4.659 3.084 1.611 8536
4.538 3.004 1.573 2961
4.656 3.083 1.593 7692
4.535 3.002 1.555 1833
4.654 3.081 1.575 7446
4.775 3.161 1.613 874
4.663 3.087 1.561 9530
5.098 3.375 1.695 1288
4.673 3.094 1.547 12746
5.089 3.369 1.673 1775
4.795 3.174 1.584 834
4.683 3.100 1.532 13771
5.099 3.376 1.657 2116
4.805 3.181 1.569 1167
4.674 3.094 1.512 11396
5.122 3.391 1.645 2189
4.677 3.096 1.496 7415
5.139 3.402 1.631 4752
5.142 3.404 1.613 7597
4.687 3.103 1.482 3888
5.264 3.485 1.649 1138
5.146 3.407 1.596 4589
5.268 3.487 1.630 1941
4.703 3.113 1.469 1754
5.227 3.460 1.600 6962
5.432 3.596 1.657 1232
4.706 3.115 1.453 891
5.224 3.458 1.580 4834
5.384 3.564 1.624 1175
4.716 3.122 1.438 763
5.234 3.465 1.563 2065
5.439 3.601 1.620 1206
5.256 3.480 1.550 3302
5.456 3.612 1.604 1671
5.578 3.693 1.637 838
5.253 3.478 1.530 4355
5.517 3.653 1.601 2974
5.389 3.567 1.566 1840
5.653 3.742 1.637 848
5.250 3.476 1.510 2863
5.695 3.770 1.628 2576
5.515 3.651 1.580 2556
5.392 3.569 1.548 1385
5.705 3.777 1.609 3781
5.479 3.627 1.551 1609
5.247 3.474 1.490 1320
5.918 3.918 1.665 815
5.793 3.835 1.611 2676
5.670 3.753 1.580 1526
5.476 3.625 1.530 1238
5.967 3.950 1.656 1232
5.796 3.837 1.591 2471
5.964 3.948 1.633 2372
5.673 3.756 1.560 1654
6.087 4.029 1.664 932
5.709 3.779 1.548 4105
5.955 3.942 1.610 2241
6.078 4.023 1.640 1513
5.713 3.782 1.529 6060
6.081 4.026 1.619 2302
5.939 3.932 1.584 1482
5.716 3.784 1.509 3971
6.111 4.045 1.604 2657
5.839 3.865 1.538 1234
5.962 3.947 1.568 870
6.114 4.048 1.583 2766
5.816 3.850 1.512 1478
6.522 4.318 1.680 1272
5.693 3.769 1.483 982
6.072 4.020 1.551 2656
6.532 4.324 1.659 2472
0.779 0.516 0.311 901
6.396 4.234 1.627 872
6.543 4.331 1.637 2942
6.056 4.009 1.525 2332
0.780 0.516 0.308 1232
6.419 4.250 1.609 1116
6.559 4.342 1.618 3487
6.021 3.986 1.495 1500
0.780 0.516 0.306 1460
6.436 4.261 1.590 1212
6.537 4.327 1.589 3762
7.056 4.671 1.705 2121
0.780 0.517 0.303 1447
6.712 4.443 1.628 1246
6.540 4.330 1.566 3573
7.066 4.678 1.682 2321
6.703 4.437 1.602 2107
6.891 4.562 1.643 1255
6.635 4.392 1.563 2842
6.511 4.310 1.537 2225
7.076 4.685 1.659 1750
6.895 4.564 1.619 1488
6.593 4.364 1.530 2553
7.002 4.635 1.618 1857
6.879 4.554 1.591 1344
6.716 4.446 1.557 1304
6.635 4.392 1.516 2591
7.077 4.685 1.608 2043
6.902 4.569 1.571 1659
7.363 4.874 1.668 1308
7.081 4.687 1.583 2900
6.638 4.394 1.493 2534
7.335 4.855 1.636 1563
6.905 4.571 1.547 1533
7.084 4.690 1.559 3034
7.377 4.884 1.618 1715
6.616 4.379 1.464 1579
6.908 4.573 1.523 1156
7.101 4.701 1.537 3920
7.374 4.882 1.591 1978
7.622 5.046 1.640 1318
7.758 5.136 1.667 999
7.104 4.703 1.512 4319
7.371 4.880 1.564 1987
7.925 5.246 1.672 1495
7.625 5.048 1.613 1186
7.094 4.696 1.485 2925
7.935 5.253 1.645 1507
7.375 4.882 1.538 1403
8.431 5.581 1.740 1244
8.435 5.584 1.711 1586
7.945 5.260 1.619 1557
7.104 4.703 1.461 1547
8.167 5.407 1.661 1182
8.373 5.543 1.669 1606
7.936 5.254 1.589 1591
8.177 5.413 1.633 1565
7.114 4.709 1.438 1049
8.383 5.550 1.641 1513
8.194 5.424 1.607 1362
7.920 5.243 1.558 1046
8.906 5.895 1.735 822
8.459 5.600 1.625 2051
8.204 5.431 1.580 1132
8.909 5.898 1.704 985
7.969 5.275 1.538 891
8.456 5.598 1.594 2258
9.240 6.117 1.730 1181
8.900 5.892 1.671 1001
9.024 5.974 1.693 962
9.257 6.128 1.700 1524
8.459 5.600 1.565 1481
8.852 5.860 1.631 1025
9.106 6.028 1.674 1019
9.267 6.135 1.669 2115
9.470 6.269 1.702 1471
9.110 6.031 1.643 1397
8.822 5.840 1.595 1185
9.277 6.142 1.637 1994
9.474 6.271 1.669 1780
9.133 6.046 1.614 1464
8.826 5.843 1.564 1048
9.458 6.261 1.633 1538
9.144 6.053 1.583 1216
9.288 6.148 1.606 1101
9.448 6.255 1.598 1681
9.167 6.068 1.554 975
9.298 6.155 1.575 862
9.651 6.389 1.630 783
9.452 6.257 1.565 1764
9.294 6.153 1.541 1004
9.655 6.391 1.596 964
10.578 7.003 1.736 927
9.462 6.264 1.533 1340
10.582 7.005 1.699 1272
10.117 6.697 1.630 1157
9.658 6.394 1.562 1017
10.540 6.977 1.656 1453
9.498 6.287 1.505 988
9.662 6.396 1.529 985
10.120 6.700 1.595 962
10.537 6.975 1.618 2146
10.547 6.982 1.582 2677
10.564 6.993 1.547 2244
10.567 6.995 1.510 1369
10.751 7.117 1.534 861
10.531 6.971 1.468 1164
10.754 7.119 1.497 1148
10.580 7.004 1.437 1066
10.744 7.113 1.458 830
10.583 7.006 1.400 915
8.822 5.840 -0.536 861
8.820 5.839 -0.567 908
8.825 5.842 -0.598 976
8.817 5.837 -0.628 1147
8.815 5.835 -0.659 1339
8.813 5.834 -0.689 1339
8.798 5.824 -0.719 1164
8.782 5.814 -0.748 1120
8.760 5.799 -0.777 1541
8.758 5.798 -0.807 2004
8.749 5.792 -0.837 2147
8.747 5.790 -0.867 2308
8.744 5.789 -0.898 2308
8.748 5.791 -0.929 1876
8.765 5.803 -0.962 1569
8.743 5.788 -0.990 1672
8.734 5.782 -1.020 1897
8.731 5.780 -1.050 948
1.955 1.286 1.777 2995
1.959 1.289 1.771 5991
1.963 1.291 1.764 5991
1.951 1.283 1.744 6854
2.054 1.351 1.830 1353
1.955 1.286 1.737 8088
2.058 1.353 1.823 1588
1.959 1.288 1.730 8587
2.062 1.356 1.816 1933
1.963 1.291 1.724 9086
2.066 1.359 1.809 2278
1.966 1.293 1.717 9086
2.070 1.361 1.802 2278
1.976 1.299 1.715 10110
2.080 1.368 1.799 2310
1.980 1.302 1.708 11203
2.084 1.370 1.792 2774
1.983 1.304 1.701 9459
2.088 1.373 1.785 3116
1.993 1.311 1.699 7740
2.097 1.379 1.782 2735
1.996 1.313 1.692 5637
2.101 1.382 1.775 2626
2.011 1.323 1.694 3760
2.116 1.392 1.777 1868
2.081 1.369 1.739 3164
1.976 1.300 1.656 983
2.186 1.438 1.822 820
2.141 1.408 1.775 2995
2.035 1.339 1.693 1675
2.150 1.414 1.772 4723
2.045 1.345 1.690 1712
2.143 1.409 1.756 6793
2.037 1.340 1.675 1458
2.249 1.479 1.838 835
2.147 1.412 1.749 8907
2.041 1.342 1.668 1241
2.253 1.482 1.830 1113
2.151 1.415 1.742 8311
2.257 1.484 1.822 1161
2.045 1.345 1.661 1005
2.155 1.417 1.734 7715
2.261 1.487 1.815 1210
2.049 1.347 1.654 769
2.159 1.420 1.727 6010
2.265 1.490 1.807 1831
2.168 1.426 1.724 4400
2.275 1.496 1.803 1969
2.240 1.473 1.766 5572
2.133 1.403 1.687 2712
2.227 1.464 1.746 7469
2.120 1.394 1.667 1198
2.231 1.467 1.739 6246
2.338 1.537 1.817 1207
2.123 1.396 1.660 767
2.212 1.455 1.714 5234
2.319 1.525 1.793 4583
2.295 1.509 1.764 6329
2.187 1.439 1.686 2371
2.305 1.516 1.760 7747
2.197 1.445 1.683 2015
2.314 1.522 1.757 6377
2.206 1.451 1.680 1599
2.335 1.536 1.761 5680
2.227 1.465 1.684 1245
2.351 1.546 1.761 4717
2.242 1.475 1.685 2631
2.377 1.563 1.769 4577
2.269 1.492 1.693 4520
2.486 1.635 1.845 968
2.267 1.491 1.681 4248
2.393 1.574 1.768 3312
2.501 1.645 1.844 929
2.294 1.508 1.689 3556
2.414 1.588 1.772 2783
2.523 1.659 1.847 769
2.337 1.537 1.709 3416
2.452 1.613 1.787 2976
2.347 1.544 1.705 3965
2.462 1.619 1.783 3955
2.466 1.622 1.775 5738
2.357 1.550 1.701 3611
2.476 1.628 1.770 7929
2.366 1.556 1.696 3192
2.480 1.631 1.761 8340
2.370 1.559 1.688 2799
2.484 1.633 1.753 7053
2.374 1.561 1.680 2170
2.499 1.644 1.752 5961
2.389 1.571 1.680 1914
2.521 1.658 1.755 7912
2.410 1.585 1.683 1865
2.524 1.660 1.746 10750
2.414 1.588 1.675 1239
2.528 1.663 1.738 11110
2.418 1.590 1.666 1186
2.532 1.665 1.729 9336
2.643 1.738 1.800 1935
2.421 1.593 1.658 898
2.536 1.668 1.720 7562
2.647 1.741 1.791 2942
2.540 1.670 1.711 8292
2.651 1.744 1.782 3633
2.550 1.677 1.706 7587
2.661 1.750 1.776 3060
2.565 1.687 1.705 6173
2.677 1.760 1.774 2209
2.587 1.701 1.707 5987
2.698 1.775 1.776 2552
2.620 1.723 1.716 5396
2.732 1.797 1.785 2131
2.508 1.649 1.648 1075
2.689 1.768 1.747 4844
2.553 1.679 1.664 2494
2.801 1.842 1.815 886
2.693 1.771 1.737 5284
2.805 1.845 1.805 2052
2.557 1.681 1.655 1707
2.661 1.750 1.707 5581
2.791 1.836 1.785 3750
2.777 1.827 1.765 6821
2.659 1.749 1.694 5885
2.787 1.833 1.759 10152
2.657 1.747 1.682 4271
2.797 1.840 1.753 10452
2.684 1.765 1.686 2953
2.795 1.838 1.739 7975
2.682 1.764 1.674 2205
2.751 1.809 1.702 5972
2.864 1.884 1.768 2407
2.791 1.835 1.713 8074
2.904 1.910 1.778 1472
2.801 1.842 1.707 12304
2.914 1.917 1.772 1628
2.651 1.744 1.622 910
2.816 1.852 1.704 15496
2.930 1.927 1.769 2054
2.667 1.754 1.620 968
2.832 1.863 1.701 17929
2.946 1.938 1.765 2162
2.671 1.756 1.611 821
2.842 1.869 1.695 10457
2.956 1.944 1.758 1535
2.728 1.794 1.632 773
2.888 1.899 1.708 7033
2.774 1.824 1.645 874
2.898 1.906 1.702 6574
2.783 1.831 1.639 1004
2.908 1.912 1.695 4804
3.028 1.991 1.761 1255
2.793 1.837 1.633 866
2.966 1.950 1.714 4898
2.851 1.875 1.653 2393
2.969 1.953 1.704 6542
2.855 1.877 1.643 2080
3.084 2.028 1.766 1338
2.979 1.959 1.697 6730
3.094 2.035 1.758 1841
2.858 1.880 1.633 1601
3.038 1.998 1.716 5201
2.923 1.922 1.655 2792
3.053 2.008 1.712 5399
3.169 2.084 1.772 1439
2.938 1.932 1.651 1379
3.057 2.011 1.701 5354
3.173 2.087 1.761 2324
2.924 1.923 1.632 798
3.085 2.029 1.703 4150
3.201 2.105 1.762 1517
2.970 1.953 1.644 909
3.156 2.076 1.727 4658
3.022 1.988 1.658 4297
3.166 2.082 1.719 5738
3.026 1.990 1.648 4596
3.282 2.158 1.777 1205
3.176 2.089 1.711 7759
3.030 1.992 1.637 3247
3.292 2.165 1.769 1996
3.186 2.095 1.703 9328
3.302 2.172 1.761 2169
3.070 2.019 1.645 1912
3.196 2.102 1.695 8109
3.080 2.025 1.638 1812
3.312 2.178 1.752 1742
3.200 2.104 1.684 5751
3.316 2.181 1.741 1576
3.083 2.028 1.627 1239
3.222 2.119 1.682 4046
3.338 2.195 1.739 1590
3.105 2.042 1.625 789
3.299 2.170 1.706 6573
3.183 2.093 1.650 1320
3.416 2.246 1.762 1053
3.303 2.172 1.695 12872
3.420 2.249 1.751 1657
3.186 2.095 1.639 1251
3.307 2.175 1.684 13553
3.424 2.252 1.739 1640
3.190 2.098 1.628 840
3.323 2.185 1.678 7724
3.440 2.262 1.733 1136
3.376 2.220 1.689 7367
3.259 2.143 1.635 1902
3.386 2.227 1.681 6298
3.269 2.150 1.627 1863
3.390 2.229 1.669 4196
3.507 2.306 1.723 1763
3.272 2.152 1.615 977
3.443 2.264 1.680 3964
3.325 2.187 1.626 1582
3.560 2.341 1.733 1053
3.521 2.316 1.701 4867
3.397 2.234 1.646 2586
3.531 2.322 1.692 5806
3.413 2.245 1.639 2555
3.528 2.320 1.677 7738
3.410 2.243 1.625 3135
3.526 2.319 1.662 8438
3.408 2.241 1.610 2348
3.650 2.401 1.716 1511
3.548 2.334 1.658 7201
3.729 2.452 1.736 1904
3.430 2.256 1.607 1851
3.558 2.340 1.648 11992
3.732 2.455 1.723 2580
3.440 2.262 1.598 1053
3.562 2.342 1.636 14723
3.743 2.461 1.713 4030
3.565 2.345 1.624 8867
3.753 2.468 1.703 5991
3.744 2.462 1.685 5950
3.582 2.355 1.617 5064
3.863 2.540 1.734 914
3.748 2.465 1.672 5093
3.591 2.362 1.607 5036
3.866 2.543 1.721 1023
3.751 2.467 1.659 7368
3.601 2.368 1.597 2895
3.870 2.545 1.708 1603
3.755 2.470 1.646 6523
3.874 2.548 1.694 3510
3.624 2.383 1.592 1254
3.815 2.509 1.656 4633
3.934 2.587 1.703 2384
3.696 2.431 1.608 1033
3.913 2.573 1.680 4251
3.750 2.466 1.615 3062
4.032 2.652 1.727 778
3.923 2.580 1.669 5490
3.804 2.502 1.622 2503
3.927 2.582 1.655 6870
3.807 2.504 1.609 2707
4.090 2.690 1.719 842
3.930 2.585 1.642 6549
3.811 2.506 1.595 2043
4.113 2.705 1.712 1252
3.940 2.591 1.631 4986
4.117 2.707 1.698 2868
3.821 2.513 1.585 1009
4.121 2.710 1.684 3484
3.944 2.594 1.617 3394
4.137 2.721 1.674 3032
3.998 2.629 1.622 2988
4.257 2.800 1.719 764
4.096 2.694 1.644 2774
3.976 2.615 1.599 1803
4.261 2.802 1.705 1031
4.106 2.701 1.632 2663
4.264 2.805 1.690 1322
3.986 2.622 1.588 1209
4.161 2.736 1.636 2014
4.281 2.815 1.680 1421
3.996 2.628 1.576 802
4.164 2.739 1.622 2026
4.285 2.818 1.665 1275
4.181 2.749 1.612 2375
4.301 2.829 1.655 2011
4.298 2.827 1.638 3940
4.178 2.748 1.595 2530
4.315 2.838 1.627 4345
4.181 2.750 1.581 1484
4.442 2.921 1.671 1208
4.312 2.836 1.610 4068
4.452 2.928 1.658 1869
4.191 2.756 1.568 776
4.322 2.842 1.597 4074
4.443 2.922 1.639 1490
4.564 3.001 1.680 860
4.325 2.845 1.582 3742
4.497 2.958 1.640 2675
4.631 3.046 1.685 751
4.475 2.943 1.616 3350
4.329 2.847 1.567 2981
4.654 3.061 1.676 1170
4.575 3.009 1.632 3071
4.422 2.908 1.582 2344
4.696 3.088 1.672 1153
4.661 3.066 1.644 4154
4.540 2.986 1.604 2056
4.419 2.906 1.564 1689
4.665 3.068 1.627 6802
4.544 2.988 1.588 2161
4.422 2.908 1.549 936
4.669 3.070 1.611 8641
4.547 2.990 1.573 2488
4.672 3.073 1.595 9185
4.551 2.993 1.557 1813
4.676 3.075 1.579 9462
4.797 3.155 1.617 1162
4.686 3.082 1.565 10172
5.115 3.364 1.697 1068
4.807 3.162 1.602 757
4.695 3.088 1.550 12436
5.119 3.366 1.679 1746
4.817 3.168 1.587 828
4.692 3.086 1.532 12743
5.103 3.356 1.655 2890
4.814 3.166 1.569 1291
4.689 3.084 1.514 10473
5.107 3.359 1.638 3254
4.811 3.164 1.550 860
4.706 3.095 1.502 7332
5.143 3.382 1.629 5686
5.153 3.389 1.613 8908
4.715 3.101 1.487 4662
5.275 3.469 1.649 956
5.156 3.391 1.596 5426
4.719 3.103 1.471 2234
5.278 3.471 1.630 1543
5.230 3.440 1.598 6308
5.449 3.584 1.659 1287
5.108 3.359 1.563 1014
4.709 3.097 1.451 916
5.228 3.438 1.578 4525
5.460 3.591 1.642 1251
5.238 3.445 1.561 2124
5.450 3.584 1.620 1716
5.267 3.464 1.550 2810
5.460 3.591 1.603 2167
5.583 3.672 1.636 918
5.270 3.466 1.532 3626
5.522 3.632 1.599 2309
5.393 3.547 1.565 1273
5.690 3.742 1.644 1028
5.706 3.753 1.628 2889
5.487 3.608 1.570 2368
5.261 3.460 1.510 2284
5.710 3.755 1.608 3616
5.484 3.606 1.549 1772
5.833 3.836 1.640 1125
5.258 3.458 1.490 971
5.811 3.821 1.613 2910
5.474 3.600 1.527 1403
5.972 3.928 1.654 1343
5.688 3.741 1.581 1224
5.808 3.820 1.591 2927
5.970 3.926 1.632 2639
5.685 3.739 1.560 1334
6.092 4.007 1.663 1059
5.714 3.758 1.547 3206
5.954 3.916 1.606 2796
6.077 3.996 1.637 1895
5.724 3.764 1.529 4682
6.087 4.003 1.617 2658
5.957 3.918 1.586 1991
5.727 3.767 1.509 3168
6.116 4.023 1.602 2730
5.974 3.929 1.568 1441
5.851 3.848 1.538 1426
6.126 4.029 1.583 2733
5.828 3.833 1.512 1785
6.535 4.298 1.680 1307
6.003 3.948 1.554 1128
6.084 4.002 1.551 2676
6.539 4.300 1.657 2325
0.781 0.513 0.311 1097
5.838 3.839 1.493 958
6.549 4.307 1.636 2586
6.075 3.995 1.527 2439
0.781 0.514 0.308 1494
6.426 4.226 1.608 914
6.566 4.318 1.616 3050
0.782 0.514 0.306 1717
6.111 4.019 1.513 1365
6.988 4.596 1.712 1218
6.550 4.308 1.589 3299
7.070 4.650 1.705 2041
6.901 4.538 1.667 1983
0.782 0.514 0.303 1653
6.547 4.306 1.565 3211
6.905 4.541 1.643 2933
6.670 4.387 1.592 2200
7.080 4.656 1.682 2059
6.908 4.543 1.619 3528
6.648 4.372 1.563 2994
6.524 4.291 1.537 2393
7.097 4.667 1.660 1565
6.912 4.546 1.595 3712
6.658 4.379 1.542 2242
7.036 4.627 1.622 1833
6.534 4.297 1.515 1335
6.915 4.548 1.571 3589
6.655 4.377 1.517 2236
7.078 4.655 1.605 1982
7.378 4.852 1.668 1264
6.919 4.550 1.547 3123
7.082 4.657 1.581 2381
6.658 4.379 1.494 2114
7.343 4.829 1.634 1661
6.922 4.553 1.523 2422
7.085 4.660 1.556 2358
7.392 4.861 1.618 1662
6.661 4.381 1.471 1303
7.115 4.679 1.537 2917
7.389 4.859 1.591 1917
6.926 4.555 1.499 1750
7.748 5.095 1.662 1196
7.118 4.681 1.512 3218
7.392 4.862 1.565 1886
7.934 5.218 1.671 1725
7.634 5.021 1.612 1186
7.108 4.675 1.485 2351
7.951 5.229 1.645 1743
7.396 4.864 1.540 1371
8.448 5.556 1.740 1310
8.451 5.558 1.711 1697
7.961 5.236 1.619 1679
8.183 5.382 1.661 1307
7.118 4.681 1.461 1290
8.194 5.389 1.633 1815
7.958 5.234 1.590 1624
8.390 5.518 1.669 1512
7.540 4.959 1.513 891
8.210 5.400 1.607 1710
8.472 5.572 1.654 1512
8.001 5.262 1.570 1091
9.041 5.946 1.757 856
8.476 5.574 1.625 2109
8.227 5.411 1.581 1543
