3.385 2.505 1.686 8580
3.272 2.421 1.634 1788
3.389 2.508 1.674 10556
3.251 2.406 1.611 1940
3.392 2.511 1.662 9896
3.267 2.418 1.605 1472
3.542 2.621 1.730 1099
3.408 2.522 1.655 6027
3.521 2.606 1.707 1541
3.294 2.438 1.604 972
3.453 2.556 1.662 4313
3.567 2.640 1.713 1687
3.339 2.471 1.611 1289
3.433 2.541 1.639 5940
3.547 2.625 1.689 2401
3.436 2.543 1.626 9406
3.550 2.628 1.676 3519
3.440 2.546 1.614 7895
3.554 2.630 1.664 4000
3.668 2.715 1.713 1587
3.563 2.637 1.654 4173
3.437 2.544 1.599 3088
3.678 2.722 1.703 1878
3.585 2.653 1.649 5124
3.729 2.760 1.710 1996
3.471 2.569 1.600 858
3.595 2.660 1.638 5592
3.751 2.776 1.704 2591
3.586 2.654 1.620 5859
3.761 2.783 1.693 4125
3.771 2.791 1.682 5754
3.595 2.661 1.610 4614
3.885 2.876 1.730 904
3.774 2.793 1.669 7078
3.617 2.677 1.604 2089
3.889 2.878 1.716 1613
3.778 2.796 1.655 7429
3.651 2.702 1.604 2524
3.893 2.881 1.702 1619
3.787 2.803 1.644 6886
3.666 2.713 1.595 2176
3.902 2.888 1.690 1375
3.797 2.810 1.633 6526
3.912 2.895 1.679 1526
3.682 2.725 1.587 1326
3.794 2.808 1.617 6265
3.910 2.894 1.662 1938
4.025 2.979 1.708 932
3.798 2.811 1.603 5192
3.913 2.896 1.648 3014
4.029 2.982 1.693 1387
3.868 2.863 1.616 3896
4.008 2.966 1.669 2253
4.018 2.973 1.657 4573
3.896 2.883 1.611 4012
4.021 2.976 1.643 7731
3.905 2.890 1.599 3734
4.025 2.979 1.629 8055
3.909 2.893 1.585 1927
4.034 2.986 1.616 11505
3.882 2.873 1.560 1105
4.038 2.988 1.602 15720
3.885 2.875 1.546 1849
4.209 3.115 1.664 881
4.047 2.995 1.590 18183
3.894 2.882 1.534 1372
4.212 3.117 1.649 902
4.044 2.993 1.573 21708
4.216 3.120 1.634 973
4.048 2.996 1.558 22112
4.164 3.082 1.599 1201
4.299 3.181 1.647 897
4.051 2.998 1.544 15434
4.167 3.084 1.585 886
3.910 2.894 1.494 848
4.042 2.992 1.525 11244
4.391 3.250 1.646 1270
4.508 3.336 1.686 963
4.159 3.078 1.565 799
4.051 2.998 1.512 11158
4.401 3.257 1.632 2821
4.518 3.344 1.672 1655
4.168 3.085 1.552 899
4.061 3.005 1.500 8692
4.405 3.260 1.617 3534
4.521 3.346 1.656 2486
4.693 3.473 1.714 1050
4.070 3.012 1.487 4830
4.506 3.335 1.634 3396
4.390 3.249 1.594 2661
4.697 3.476 1.697 1597
4.510 3.338 1.617 4038
4.073 3.015 1.473 1978
4.393 3.251 1.579 1618
4.694 3.474 1.678 946
4.501 3.331 1.597 5912
4.070 3.012 1.456 1099
4.384 3.245 1.559 906
4.741 3.509 1.676 831
4.498 3.329 1.579 6167
4.738 3.507 1.657 1333
4.073 3.015 1.442 832
4.615 3.416 1.617 780
4.508 3.336 1.565 8758
4.711 3.487 1.630 5150
4.517 3.343 1.550 10021
4.715 3.489 1.613 7187
4.527 3.350 1.536 8777
4.730 3.501 1.600 4090
4.977 3.684 1.677 858
4.524 3.348 1.518 7156
4.728 3.499 1.581 4772
4.993 3.696 1.662 1360
4.731 3.501 1.564 5994
4.533 3.355 1.504 4984
4.997 3.698 1.644 2704
4.728 3.499 1.545 4202
4.536 3.357 1.487 3501
5.013 3.710 1.630 3112
4.756 3.520 1.535 3511
5.010 3.708 1.610 3187
5.128 3.795 1.645 1645
4.533 3.355 1.469 1380
5.007 3.706 1.590 3761
4.753 3.518 1.516 3729
5.125 3.793 1.625 2021
4.555 3.371 1.458 769
4.750 3.516 1.497 3290
5.011 3.708 1.572 3235
5.128 3.796 1.606 1929
5.265 3.896 1.646 764
5.020 3.715 1.556 2494
5.138 3.803 1.590 2164
4.760 3.523 1.482 1686
5.256 3.890 1.623 1157
5.123 3.791 1.566 2014
5.259 3.892 1.604 1437
5.005 3.704 1.533 1049
4.763 3.525 1.465 961
5.120 3.789 1.546 1650
5.269 3.900 1.587 1099
5.524 4.088 1.658 842
5.167 3.824 1.539 2189
5.527 4.091 1.638 1816
5.316 3.934 1.580 909
5.732 4.242 1.694 789
5.531 4.093 1.618 2187
5.170 3.826 1.521 1661
5.767 4.268 1.682 1320
5.777 4.275 1.662 3369
5.534 4.096 1.598 1389
5.198 3.847 1.509 913
5.652 4.183 1.629 775
5.780 4.278 1.642 5705
5.899 4.366 1.673 1260
5.195 3.845 1.488 971
5.643 4.177 1.606 921
5.784 4.281 1.621 5035
5.902 4.368 1.651 1655
5.665 4.193 1.590 1059
5.198 3.847 1.470 839
5.794 4.288 1.601 5321
5.912 4.376 1.632 1492
5.675 4.200 1.571 1216
6.030 4.463 1.662 954
5.797 4.290 1.581 7703
5.915 4.378 1.610 1876
6.034 4.466 1.640 1820
5.678 4.203 1.551 1027
5.800 4.293 1.560 9484
6.119 4.528 1.638 1740
5.919 4.381 1.589 1673
5.682 4.205 1.530 1086
5.804 4.295 1.539 9649
6.128 4.536 1.618 2188
5.954 4.406 1.575 1782
6.384 4.725 1.680 1112
5.813 4.302 1.519 5899
6.151 4.552 1.600 2236
5.951 4.404 1.552 1352
6.376 4.719 1.654 1342
5.829 4.314 1.501 3206
6.173 4.568 1.582 2415
6.054 4.481 1.554 1722
6.354 4.703 1.625 1686
5.820 4.307 1.477 3278
6.170 4.566 1.559 2002
6.345 4.696 1.599 1925
6.495 4.807 1.634 1897
5.816 4.305 1.455 3205
6.492 4.805 1.609 2060
6.342 4.694 1.575 1940
6.611 4.893 1.636 1353
5.826 4.312 1.435 2336
6.377 4.720 1.559 2265
6.527 4.831 1.593 1826
6.665 4.933 1.624 1691
6.380 4.722 1.536 1789
6.606 4.889 1.586 1632
5.835 4.319 1.416 1328
6.769 5.009 1.622 1283
6.640 4.915 1.569 2455
6.872 5.086 1.619 1746
5.844 4.325 1.396 961
6.421 4.752 1.521 927
6.656 4.926 1.547 3026
6.876 5.089 1.594 2852
5.853 4.332 1.376 1572
6.537 4.838 1.522 1001
6.672 4.938 1.526 2293
6.904 5.110 1.575 2212
5.856 4.334 1.355 2156
6.553 4.850 1.501 966
5.859 4.336 1.334 1651
6.914 5.117 1.551 1531
6.700 4.959 1.507 1279
7.083 5.242 1.586 1038
7.005 5.185 1.544 1363
5.862 4.338 1.313 1267
7.552 5.589 1.654 1229
6.722 4.975 1.487 1051
5.871 4.345 1.293 1868
7.090 5.247 1.535 1296
7.561 5.596 1.628 1294
6.971 5.159 1.511 978
5.880 4.352 1.273 2310
7.791 5.766 1.645 1357
7.496 5.548 1.587 1226
8.036 5.948 1.692 796
5.883 4.354 1.252 1909
7.839 5.801 1.625 1866
7.581 5.611 1.576 1367
8.160 6.039 1.686 908
7.830 5.795 1.594 2319
7.622 5.641 1.555 1441
8.163 6.042 1.657 1289
5.891 4.360 1.232 1222
8.167 6.044 1.627 2042
7.827 5.793 1.565 1566
7.638 5.653 1.530 1248
8.034 5.946 1.603 1063
8.170 6.047 1.598 2825
8.032 5.944 1.573 1462
7.799 5.772 1.531 1126
9.027 6.681 1.751 1098
8.167 6.045 1.567 2908
8.016 5.933 1.540 2005
9.024 6.679 1.718 1319
7.833 5.797 1.508 935
8.177 6.052 1.539 3122
8.026 5.940 1.512 1985
8.902 6.588 1.663 1807
9.040 6.691 1.687 1512
8.180 6.054 1.509 2947
9.057 6.703 1.657 2249
8.912 6.595 1.632 2032
8.054 5.961 1.488 1508
8.177 6.052 1.478 2560
9.186 6.799 1.645 2370
9.060 6.705 1.624 2143
8.858 6.556 1.591 1653
8.180 6.054 1.449 2637
9.057 6.703 1.590 2135
9.190 6.801 1.611 2055
8.868 6.563 1.560 1431
9.067 6.710 1.558 2452
8.189 6.061 1.420 2288
9.900 7.327 1.689 1884
8.890 6.580 1.530 1474
9.891 7.321 1.652 2008
9.070 6.713 1.526 1911
8.900 6.587 1.499 1523
8.192 6.063 1.391 1410
9.920 7.342 1.620 2121
9.187 6.799 1.510 1371
9.067 6.711 1.492 1152
8.903 6.589 1.467 1095
9.936 7.354 1.586 2346
9.197 6.806 1.477 1649
10.056 7.443 1.603 882
9.077 6.718 1.460 824
9.939 7.356 1.550 2334
9.200 6.809 1.444 1555
10.060 7.445 1.567 1139
9.936 7.354 1.513 2207
10.057 7.443 1.530 1140
9.203 6.811 1.411 988
9.933 7.352 1.476 1638
10.060 7.445 1.493 873
9.936 7.354 1.440 1038
10.057 7.443 1.456 932
10.066 7.450 1.420 1004
10.069 7.452 1.384 1014
10.065 7.449 1.347 775
8.275 6.124 -0.398 819
8.273 6.123 -0.427 763
8.271 6.121 -0.487 1249
8.269 6.120 -0.517 1789
8.261 6.114 -0.546 2131
8.253 6.108 -0.576 2553
8.252 6.107 -0.606 2202
8.256 6.110 -0.636 1865
8.254 6.109 -0.666 1865
8.259 6.112 -0.696 2045
8.263 6.115 -0.727 2296
8.255 6.109 -0.756 2667
8.246 6.103 -0.785 3067
8.244 6.101 -0.815 2493
8.229 6.090 -0.843 1992
8.227 6.089 -0.873 1992
8.224 6.087 -0.903 1447
8.222 6.085 -0.932 903
1.761 1.295 1.667 2530
1.901 1.398 1.791 1389
1.765 1.297 1.660 5060
1.905 1.401 1.784 2778
1.768 1.300 1.654 5060
1.940 1.426 1.805 3094
1.918 1.410 1.775 5661
1.772 1.303 1.648 3507
1.916 1.409 1.764 8445
1.817 1.336 1.678 2049
2.016 1.482 1.850 768
1.931 1.420 1.766 11293
1.831 1.346 1.680 2423
2.030 1.493 1.852 1210
1.934 1.422 1.760 14271
1.835 1.349 1.674 2803
2.034 1.496 1.845 1869
1.938 1.425 1.753 14271
1.838 1.352 1.667 2761
2.038 1.499 1.838 1907
1.942 1.428 1.746 14527
2.042 1.501 1.831 2226
1.842 1.354 1.661 2213
1.946 1.431 1.739 14783
2.046 1.504 1.823 2545
1.846 1.357 1.654 1706
1.950 1.433 1.732 16182
2.050 1.507 1.816 2297
1.849 1.360 1.648 1182
1.959 1.440 1.730 17583
2.059 1.514 1.813 1806
1.858 1.366 1.646 870
1.962 1.443 1.723 16236
2.063 1.517 1.806 2461
1.861 1.369 1.639 831
1.966 1.446 1.716 14889
2.067 1.520 1.799 3115
1.865 1.371 1.633 791
1.970 1.448 1.709 13521
2.071 1.523 1.791 3115
1.973 1.451 1.702 12154
2.075 1.526 1.784 2732
1.972 1.450 1.690 12087
2.073 1.524 1.772 2627
1.975 1.452 1.683 10418
2.077 1.527 1.765 3905
1.979 1.455 1.676 8682
2.081 1.530 1.757 5460
2.080 1.529 1.746 7993
1.977 1.454 1.665 5435
2.182 1.604 1.827 822
2.094 1.540 1.747 10449
1.965 1.445 1.645 2704
2.197 1.615 1.827 1011
2.092 1.538 1.735 9028
1.968 1.447 1.638 2305
2.195 1.614 1.815 1199
2.096 1.541 1.728 7621
1.993 1.466 1.648 1982
2.199 1.617 1.808 1270
2.111 1.552 1.729 9082
2.002 1.472 1.645 1542
2.214 1.628 1.808 1486
2.125 1.563 1.730 11932
2.229 1.639 1.808 1482
2.022 1.487 1.651 1193
2.140 1.573 1.730 11757
2.243 1.649 1.809 1655
2.015 1.481 1.635 966
2.155 1.584 1.731 12814
2.258 1.660 1.809 1643
2.007 1.476 1.620 807
2.158 1.587 1.723 10098
2.262 1.663 1.801 1903
2.016 1.483 1.617 825
2.168 1.594 1.720 7475
2.271 1.670 1.797 1864
2.020 1.485 1.610 846
2.177 1.600 1.716 5099
2.281 1.677 1.793 1480
2.191 1.611 1.716 3448
2.296 1.688 1.793 1472
2.201 1.618 1.713 4096
2.305 1.695 1.789 2116
2.210 1.625 1.709 4864
2.314 1.702 1.785 2723
2.208 1.623 1.697 4579
2.318 1.705 1.776 3232
2.212 1.626 1.689 4311
2.328 1.711 1.772 3833
2.332 1.714 1.764 3973
2.215 1.629 1.681 3089
2.324 1.709 1.748 5867
2.219 1.631 1.673 1400
2.317 1.703 1.732 8324
2.184 1.605 1.638 880
2.310 1.698 1.716 8338
2.415 1.776 1.789 2106
2.182 1.604 1.627 791
2.313 1.701 1.707 8599
2.419 1.779 1.781 3144
2.339 1.720 1.715 6074
2.445 1.798 1.787 1649
2.233 1.642 1.642 771
2.376 1.747 1.729 6538
2.270 1.669 1.657 2863
2.386 1.754 1.724 6816
2.279 1.676 1.652 2104
2.406 1.769 1.727 5947
2.300 1.691 1.656 1078
2.513 1.848 1.799 988
2.416 1.776 1.723 5148
2.522 1.855 1.794 1266
2.419 1.779 1.714 6067
2.526 1.857 1.785 2144
2.429 1.786 1.709 7035
2.536 1.864 1.780 1998
2.322 1.707 1.638 985
2.432 1.788 1.700 6424
2.540 1.867 1.770 2248
2.325 1.710 1.630 880
2.498 1.837 1.732 6043
2.391 1.758 1.662 1115
2.496 1.835 1.720 6981
2.511 1.846 1.718 7622
2.619 1.926 1.787 810
2.526 1.858 1.716 7329
2.634 1.937 1.785 824
2.553 1.877 1.722 6368
2.445 1.798 1.653 1224
2.545 1.871 1.705 7382
2.653 1.951 1.773 1373
2.549 1.874 1.696 9998
2.657 1.954 1.764 1922
2.547 1.873 1.684 11551
2.655 1.952 1.751 3185
2.630 1.934 1.724 12774
2.522 1.854 1.657 4468
2.739 2.014 1.790 1079
2.640 1.941 1.718 15172
2.531 1.861 1.652 3298
2.749 2.021 1.784 1368
2.655 1.952 1.715 14132
2.546 1.872 1.649 3033
2.764 2.032 1.781 1211
2.636 1.938 1.692 12251
2.745 2.018 1.757 2057
2.527 1.858 1.627 1649
2.628 1.932 1.676 9734
2.766 2.034 1.758 3592
2.519 1.852 1.611 921
2.626 1.931 1.663 7753
2.770 2.036 1.748 5023
2.733 2.010 1.714 6107
2.624 1.929 1.650 6102
2.843 2.090 1.779 952
2.743 2.017 1.708 8382
2.633 1.936 1.644 4033
2.852 2.097 1.772 1023
2.752 2.023 1.702 7597
2.642 1.943 1.638 2716
2.862 2.104 1.765 847
2.767 2.035 1.698 7022
2.657 1.954 1.635 2050
2.877 2.116 1.762 1061
2.817 2.071 1.715 9511
2.707 1.990 1.652 2626
2.928 2.152 1.778 907
2.585 1.901 1.583 802
2.833 2.083 1.711 8831
2.943 2.164 1.774 2691
2.722 2.002 1.649 2193
2.865 2.107 1.718 6959
2.755 2.026 1.656 2930
2.976 2.188 1.779 1706
2.892 2.127 1.720 6364
2.782 2.045 1.659 3094
3.003 2.208 1.782 1119
2.873 2.112 1.697 5397
2.984 2.194 1.758 2938
2.762 2.031 1.636 1534
2.882 2.119 1.690 5935
2.993 2.201 1.751 2783
2.771 2.038 1.629 1172
2.886 2.122 1.680 6805
2.997 2.204 1.740 3976
2.775 2.040 1.620 880
2.972 2.185 1.714 6763
2.860 2.103 1.654 4354
2.975 2.188 1.703 6659
2.864 2.106 1.644 2705
2.985 2.195 1.695 7151
2.873 2.113 1.636 2602
3.041 2.236 1.713 7199
2.930 2.154 1.654 2181
3.057 2.247 1.708 6056
2.945 2.165 1.650 1812
3.060 2.250 1.697 4255
2.949 2.168 1.639 1128
3.052 2.244 1.680 4056
3.164 2.327 1.737 917
2.940 2.162 1.623 868
3.050 2.242 1.666 5098
3.162 2.325 1.723 1337
3.059 2.249 1.658 5508
3.172 2.332 1.715 1609
3.093 2.274 1.662 5671
3.205 2.356 1.718 2209
3.120 2.294 1.663 6454
3.232 2.377 1.718 3144
3.212 2.362 1.695 6738
3.100 2.279 1.640 4656
3.222 2.369 1.687 6045
3.109 2.286 1.632 4637
3.335 2.452 1.742 1073
3.226 2.372 1.675 5361
3.113 2.289 1.621 3520
3.350 2.463 1.735 1720
3.229 2.374 1.664 6531
3.354 2.466 1.723 2512
3.116 2.291 1.609 1784
3.227 2.373 1.649 7358
3.358 2.469 1.711 2856
3.248 2.388 1.646 6459
3.374 2.480 1.705 4440
3.383 2.487 1.696 7260
3.258 2.395 1.637 3861
3.393 2.495 1.686 8999
3.237 2.380 1.615 1930
3.396 2.497 1.674 10580
3.265 2.400 1.614 1970
3.406 2.504 1.665 10072
3.280 2.412 1.608 1485
3.550 2.610 1.730 1101
3.416 2.511 1.655 5805
3.547 2.608 1.715 1375
3.302 2.427 1.604 1038
3.461 2.545 1.662 3795
3.347 2.461 1.611 1561
3.575 2.629 1.713 1382
3.447 2.534 1.641 4762
3.561 2.618 1.692 2289
3.450 2.537 1.629 7620
3.564 2.621 1.679 3372
3.679 2.705 1.729 753
3.448 2.535 1.614 6561
3.562 2.619 1.664 4312
3.676 2.703 1.713 1463
3.572 2.626 1.654 4304
3.445 2.533 1.599 2699
3.686 2.710 1.703 1634
3.599 2.646 1.651 4942
3.738 2.748 1.710 1951
3.485 2.562 1.602 935
3.609 2.653 1.641 5169
3.760 2.764 1.704 2326
3.594 2.643 1.620 4966
3.709 2.727 1.668 3554
3.824 2.812 1.716 964
3.695 2.716 1.647 4859
3.580 2.632 1.600 2962
3.810 2.801 1.695 2681
3.783 2.781 1.669 5577
3.668 2.697 1.622 2717
3.898 2.866 1.716 1522
3.553 2.612 1.575 963
3.787 2.784 1.655 7074
3.671 2.699 1.609 1704
3.902 2.869 1.702 1585
3.790 2.787 1.642 6742
3.905 2.871 1.688 1254
3.669 2.697 1.593 1243
3.800 2.794 1.631 6103
3.915 2.879 1.676 1215
3.684 2.709 1.585 838
3.809 2.801 1.619 6230
3.925 2.886 1.665 1478
3.825 2.812 1.610 5006
3.941 2.897 1.655 2062
3.877 2.851 1.616 4153
4.011 2.949 1.667 2878
4.021 2.956 1.655 5325
3.899 2.867 1.609 3900
4.030 2.963 1.643 7982
3.914 2.878 1.599 3335
4.034 2.966 1.629 7179
3.918 2.881 1.585 1572
4.044 2.973 1.616 9953
3.885 2.856 1.558 908
4.047 2.976 1.602 13701
3.894 2.863 1.546 1412
4.057 2.983 1.590 14430
3.903 2.870 1.534 1107
4.054 2.981 1.573 17985
4.225 3.107 1.634 770
4.057 2.983 1.558 18951
4.174 3.069 1.599 1011
3.916 2.879 1.508 841
4.054 2.981 1.542 13285
4.171 3.067 1.582 1040
4.502 3.310 1.698 906
4.386 3.225 1.658 781
4.045 2.974 1.523 10191
4.414 3.245 1.650 1553
4.162 3.060 1.563 1366
4.531 3.331 1.691 1020
4.055 2.981 1.510 9224
4.418 3.248 1.634 2837
4.534 3.334 1.674 1977
4.172 3.067 1.550 1088
4.064 2.988 1.498 7129
4.519 3.323 1.652 3844
4.403 3.237 1.612 3072
4.710 3.463 1.716 984
4.517 3.321 1.634 4396
4.067 2.990 1.483 3438
4.400 3.235 1.594 2580
4.708 3.461 1.697 1356
4.520 3.324 1.617 5094
4.403 3.237 1.579 1823
4.070 2.993 1.469 1284
4.705 3.460 1.678 768
4.530 3.331 1.603 6437
4.413 3.244 1.565 1238
4.067 2.990 1.452 900
4.746 3.489 1.674 896
4.533 3.333 1.587 5963
4.743 3.487 1.655 1707
4.083 3.002 1.442 838
4.518 3.322 1.565 9210
4.722 3.472 1.630 4866
4.098 3.013 1.431 827
4.528 3.329 1.550 11375
4.732 3.479 1.615 7082
4.849 3.565 1.652 814
4.101 3.015 1.416 768
4.537 3.336 1.536 7871
4.748 3.491 1.602 5698
4.964 3.650 1.669 829
4.745 3.489 1.583 6057
4.541 3.338 1.520 5475
5.030 3.698 1.670 822
4.748 3.491 1.566 5851
4.550 3.345 1.505 4563
5.027 3.696 1.650 1990
4.739 3.484 1.545 3365
4.559 3.352 1.491 3113
5.043 3.708 1.636 2880
4.925 3.621 1.600 798
4.767 3.505 1.535 2628
5.040 3.706 1.616 2492
5.158 3.793 1.651 1420
4.538 3.336 1.467 1099
5.093 3.745 1.612 2903
4.764 3.503 1.516 2617
5.211 3.832 1.647 1487
4.975 3.658 1.578 975
5.097 3.747 1.594 2466
4.768 3.505 1.499 2340
5.215 3.834 1.628 1776
4.979 3.661 1.560 899
5.206 3.828 1.606 2856
5.032 3.700 1.556 1610
4.777 3.512 1.484 1505
5.203 3.826 1.585 3350
5.054 3.716 1.543 1128
4.780 3.515 1.467 1008
5.200 3.823 1.565 2975
5.530 4.066 1.656 921
5.319 3.910 1.597 845
4.771 3.508 1.446 798
5.204 3.826 1.546 3129
5.540 4.073 1.638 1651
5.733 4.215 1.690 960
5.397 3.968 1.599 776
5.544 4.076 1.618 2023
5.207 3.828 1.527 1984
5.743 4.223 1.672 1363
5.400 3.970 1.579 1089
5.790 4.257 1.662 3263
5.547 4.078 1.598 1523
5.404 3.973 1.560 864
5.909 4.344 1.694 852
5.794 4.260 1.642 5206
5.912 4.347 1.673 1716
5.550 4.081 1.578 993
5.201 3.824 1.487 857
5.797 4.262 1.621 4385
5.916 4.350 1.651 2180
5.204 3.826 1.468 783
5.660 4.161 1.585 773
5.801 4.265 1.600 4509
5.920 4.352 1.630 2167
6.051 4.449 1.663 1163
5.682 4.178 1.570 785
5.804 4.267 1.579 6485
5.923 4.355 1.609 2419
6.054 4.451 1.642 2236
5.814 4.275 1.560 7603
6.058 4.454 1.620 2228
5.933 4.362 1.589 1981
6.177 4.541 1.649 1214
5.817 4.277 1.539 7861
6.149 4.521 1.619 2627
5.967 4.387 1.575 2210
6.406 4.710 1.681 962
5.827 4.284 1.519 5272
6.171 4.537 1.602 2853
6.052 4.450 1.573 1756
6.484 4.768 1.676 1345
6.193 4.554 1.584 3088
5.842 4.296 1.501 2923
6.074 4.466 1.556 2424
6.482 4.766 1.652 1438
5.833 4.289 1.477 2655
6.184 4.547 1.559 2282
6.504 4.782 1.633 2111
6.360 4.676 1.599 1412
6.507 4.785 1.609 2473
5.830 4.286 1.455 2396
6.357 4.674 1.575 1517
6.683 4.914 1.649 1292
6.385 4.695 1.558 1806
6.549 4.815 1.594 1688
5.839 4.293 1.435 1640
6.687 4.916 1.625 1576
6.621 4.868 1.586 1477
6.395 4.702 1.536 1366
6.784 4.988 1.622 1117
6.232 4.582 1.500 1018
6.662 4.898 1.570 2232
6.882 5.060 1.618 1711
6.543 4.810 1.544 1115
5.864 4.312 1.397 894
6.678 4.910 1.549 3001
6.885 5.063 1.593 2527
5.861 4.309 1.375 1676
6.559 4.822 1.523 1270
5.864 4.311 1.354 2411
6.688 4.917 1.526 2345
6.927 5.093 1.576 2094
6.568 4.829 1.501 975
5.866 4.313 1.333 2135
6.936 5.100 1.552 1684
6.722 4.943 1.508 1305
7.333 5.391 1.634 1166
7.336 5.394 1.607 1546
5.869 4.315 1.312 1337
7.569 5.565 1.654 1238
7.015 5.158 1.542 1236
7.503 5.517 1.613 1571
7.321 5.383 1.577 1261
7.119 5.234 1.537 1230
5.878 4.322 1.292 1218
7.513 5.524 1.587 1655
5.894 4.333 1.273 1623
7.816 5.746 1.646 1312
7.311 5.376 1.548 948
7.825 5.754 1.619 1855
7.598 5.587 1.576 1510
5.896 4.335 1.252 1364
8.172 6.009 1.685 1122
7.842 5.765 1.593 2186
8.176 6.011 1.655 1603
7.614 5.598 1.551 1378
5.899 4.337 1.231 929
8.186 6.018 1.627 2471
7.933 5.833 1.581 1517
7.813 5.745 1.559 1283
8.053 5.921 1.603 1110
8.189 6.021 1.598 3308
8.050 5.919 1.573 1644
7.930 5.831 1.551 1140
9.041 6.648 1.750 1128
8.186 6.019 1.567 3528
8.041 5.912 1.541 2206
9.039 6.646 1.716 1645
7.889 5.801 1.515 1024
8.196 6.026 1.539 3866
8.044 5.914 1.512 2118
9.036 6.644 1.683 1824
8.916 6.555 1.662 1695
8.199 6.028 1.509 3674
8.939 6.572 1.633 2258
9.071 6.670 1.656 2043
8.073 5.935 1.488 1522
8.196 6.026 1.478 3257
9.208 6.770 1.645 2168
9.069 6.668 1.622 2054
8.948 6.579 1.602 1864
8.199 6.028 1.449 3273
9.066 6.665 1.588 2274
9.211 6.772 1.611 1882
8.908 6.549 1.563 1512
8.208 6.035 1.420 2780
9.069 6.668 1.555 2574
9.917 7.291 1.688 1809
8.917 6.556 1.531 1576
9.914 7.289 1.652 1977
9.072 6.670 1.523 1888
8.211 6.037 1.391 1722
8.920 6.559 1.499 1527
9.943 7.311 1.620 2257
9.209 6.771 1.510 1129
9.088 6.682 1.492 1036
8.917 6.556 1.466 994
9.953 7.318 1.585 2556
9.218 6.778 1.477 1395
9.091 6.684 1.459 754
9.956 7.320 1.549 2458
9.221 6.780 1.444 1301
10.077 7.409 1.566 908
9.959 7.323 1.513 2448
9.224 6.782 1.411 807
10.080 7.411 1.530 771
9.956 7.320 1.476 1876
9.959 7.323 1.440 1153
10.083 7.413 1.420 880
10.086 7.416 1.383 1004
10.089 7.418 1.347 773
8.294 6.098 -0.398 940
8.293 6.097 -0.427 909
8.291 6.096 -0.457 877
8.290 6.095 -0.487 1260
8.288 6.094 -0.517 1642
8.280 6.088 -0.546 1926
8.272 6.082 -0.576 2305
8.271 6.081 -0.606 1991
8.269 6.080 -0.635 1677
8.267 6.078 -0.665 1677
8.272 6.082 -0.696 1953
8.276 6.085 -0.726 2251
8.267 6.079 -0.755 2520
8.265 6.077 -0.785 2810
8.263 6.075 -0.815 2231
8.254 6.069 -0.844 1694
8.252 6.067 -0.874 1694
8.243 6.061 -0.903 1311
8.177 6.012 -0.924 1229
8.175 6.011 -0.953 1219
8.166 6.004 -0.982 1235
1.770 1.294 1.671 2528
1.905 1.393 1.791 1434
1.773 1.297 1.665 5057
1.908 1.396 1.784 2868
1.777 1.299 1.659 5057
1.949 1.425 1.810 3216
1.932 1.413 1.785 5074
1.780 1.302 1.652 3416
1.930 1.412 1.773 7117
1.831 1.339 1.687 2582
1.934 1.415 1.766 9322
1.835 1.342 1.680 2596
2.034 1.487 1.852 1080
1.938 1.417 1.760 11527
1.838 1.344 1.674 2609
2.038 1.490 1.845 1570
1.942 1.420 1.753 11527
1.842 1.347 1.667 2546
2.042 1.493 1.838 1588
1.946 1.423 1.746 10486
1.845 1.350 1.661 2025
2.046 1.496 1.831 1697
1.944 1.422 1.734 9476
2.045 1.495 1.819 2043
1.844 1.348 1.650 1121
1.953 1.428 1.732 11137
2.054 1.502 1.816 1626
1.853 1.355 1.648 1009
1.957 1.431 1.725 12828
2.058 1.505 1.809 1447
1.961 1.434 1.718 12094
2.062 1.508 1.802 2290
1.964 1.437 1.711 11360
2.066 1.511 1.794 3132
1.974 1.443 1.709 9990
2.075 1.517 1.791 2613
1.977 1.446 1.702 8693
2.079 1.520 1.784 2391
1.981 1.449 1.695 8661
2.083 1.523 1.777 1962
1.979 1.447 1.683 7118
2.081 1.522 1.765 3338
1.988 1.454 1.681 5596
2.101 1.537 1.770 4456
2.083 1.524 1.746 6624
1.965 1.437 1.652 3630
2.093 1.530 1.743 8667
1.952 1.428 1.633 2672
2.195 1.605 1.823 997
2.096 1.533 1.735 7603
1.956 1.430 1.626 2276
2.199 1.608 1.815 1035
2.100 1.536 1.728 6540
1.959 1.433 1.619 1881
2.203 1.611 1.808 1073
2.115 1.546 1.729 8179
1.963 1.435 1.612 1257
2.218 1.622 1.808 985
2.135 1.561 1.734 11404
2.031 1.486 1.655 825
2.149 1.572 1.734 11624
2.253 1.648 1.813 1003
2.046 1.496 1.656 848
2.159 1.579 1.731 12925
2.262 1.654 1.809 1333
2.011 1.471 1.620 751
2.168 1.585 1.727 10291
2.272 1.661 1.805 1317
2.172 1.588 1.720 7761
2.276 1.664 1.797 1492
2.181 1.595 1.716 5356
2.285 1.671 1.793 1428
2.190 1.602 1.712 3250
2.295 1.678 1.789 1590
2.238 1.636 1.737 4149
2.133 1.560 1.660 850
2.342 1.713 1.813 814
2.253 1.647 1.737 5356
2.148 1.571 1.661 1204
2.357 1.724 1.813 869
2.262 1.654 1.733 4319
2.157 1.577 1.657 1154
2.367 1.731 1.808 1119
2.216 1.620 1.689 4043
2.332 1.705 1.772 3497
2.341 1.712 1.768 3576
2.236 1.635 1.693 3244
2.323 1.699 1.744 5092
2.218 1.622 1.669 1444
2.310 1.689 1.724 7891
2.193 1.604 1.642 956
2.314 1.692 1.716 8333
2.420 1.770 1.789 1909
2.186 1.598 1.627 762
2.318 1.695 1.707 8775
2.424 1.772 1.781 2908
2.327 1.702 1.703 6259
2.433 1.779 1.776 2208
2.387 1.745 1.733 6059
2.280 1.667 1.661 2426
2.396 1.752 1.728 6427
2.289 1.674 1.656 1819
2.411 1.763 1.727 6049
2.304 1.685 1.656 1010
2.518 1.841 1.799 970
2.443 1.786 1.738 5727
2.430 1.777 1.718 6728
2.537 1.855 1.789 1705
2.433 1.779 1.709 7854
2.541 1.858 1.780 2106
2.326 1.701 1.638 877
2.437 1.782 1.700 7086
2.544 1.861 1.770 2475
2.330 1.704 1.630 755
2.469 1.805 1.710 6181
2.507 1.833 1.723 6852
2.522 1.844 1.722 6750
2.414 1.765 1.653 881
2.531 1.851 1.716 5599
2.423 1.772 1.648 765
2.558 1.870 1.722 4557
2.449 1.791 1.653 1301
2.550 1.865 1.705 5549
2.658 1.944 1.773 1103
2.554 1.867 1.696 8580
2.662 1.947 1.764 1647
2.557 1.870 1.687 10441
2.666 1.950 1.754 2551
2.635 1.927 1.724 13683
2.527 1.848 1.657 4386
2.744 2.007 1.790 1040
2.645 1.934 1.718 15831
2.536 1.854 1.652 3534
2.754 2.014 1.784 1279
2.643 1.933 1.705 14165
2.534 1.853 1.639 2314
2.752 2.012 1.771 1216
2.635 1.927 1.689 13670
2.744 2.007 1.754 1988
2.526 1.847 1.623 1406
2.627 1.921 1.672 11575
2.737 2.001 1.737 3630
2.518 1.841 1.607 910
2.631 1.924 1.663 9397
2.769 2.025 1.745 4135
2.521 1.844 1.598 1019
2.634 1.926 1.654 7193
2.744 2.007 1.718 6095
2.525 1.846 1.589 959
2.854 2.087 1.782 805
2.742 2.005 1.705 8226
2.632 1.925 1.641 4301
2.852 2.086 1.769 1463
2.757 2.016 1.702 7279
2.647 1.936 1.638 2619
2.867 2.097 1.765 1117
2.773 2.028 1.698 6543
2.662 1.947 1.635 1620
2.883 2.108 1.762 1221
2.823 2.064 1.715 10495
2.712 1.983 1.652 3373
2.933 2.145 1.778 1021
2.826 2.067 1.705 8914
2.937 2.148 1.767 2740
2.716 1.986 1.643 1948
2.871 2.099 1.718 6289
2.760 2.018 1.656 2913
2.982 2.180 1.779 1702
2.898 2.119 1.720 6176
2.787 2.038 1.659 2834
3.009 2.200 1.782 1059
2.878 2.105 1.697 5979
2.989 2.186 1.758 2920
2.767 2.024 1.636 1725
2.888 2.112 1.690 6803
2.999 2.193 1.751 2661
2.777 2.031 1.629 1505
2.891 2.114 1.680 6996
3.003 2.196 1.740 3613
2.780 2.033 1.620 984
2.977 2.177 1.714 5377
2.866 2.096 1.654 4316
2.981 2.180 1.703 5204
2.869 2.098 1.644 2697
2.996 2.191 1.699 5727
2.885 2.109 1.640 2819
3.047 2.228 1.713 6940
2.935 2.146 1.654 2500
3.063 2.240 1.708 7203
2.951 2.158 1.650 2004
3.060 2.238 1.694 5209
2.942 2.152 1.633 996
3.040 2.223 1.671 4330
3.153 2.305 1.728 1035
3.056 2.235 1.666 5240
3.174 2.321 1.726 1068
3.065 2.242 1.658 4801
3.178 2.324 1.715 1425
3.093 2.261 1.659 4206
3.205 2.344 1.715 2741
3.209 2.347 1.704 5655
3.096 2.264 1.648 3847
3.218 2.354 1.695 7582
3.106 2.271 1.640 4162
3.222 2.356 1.684 6409
3.109 2.274 1.629 4316
3.335 2.439 1.739 913
3.232 2.363 1.675 5415
3.119 2.281 1.621 3530
3.357 2.455 1.735 1491
3.235 2.366 1.664 6847
3.361 2.457 1.723 2273
3.122 2.283 1.609 1614
3.227 2.360 1.646 6799
3.358 2.456 1.709 2339
3.254 2.380 1.646 4672
3.380 2.472 1.705 3865
3.141 2.297 1.593 932
3.390 2.479 1.696 7382
3.264 2.387 1.637 3050
3.399 2.486 1.686 8548
3.244 2.372 1.615 1848
3.409 2.493 1.677 9818
3.277 2.396 1.617 1927
3.412 2.495 1.665 10020
3.298 2.412 1.613 1704
3.562 2.605 1.733 907
3.404 2.489 1.647 6174
3.518 2.573 1.698 1419
3.396 2.483 1.630 3507
3.510 2.567 1.681 2757
3.471 2.538 1.649 3773
3.586 2.622 1.700 1733
3.357 2.455 1.599 965
3.463 2.532 1.632 5210
3.577 2.616 1.682 3529
3.563 2.605 1.661 5592
3.448 2.522 1.612 4154
3.677 2.689 1.711 1374
3.578 2.617 1.654 4976
3.446 2.520 1.597 2356
3.693 2.701 1.703 1511
3.655 2.672 1.672 5751
3.540 2.588 1.623 2839
3.769 2.756 1.720 1145
3.646 2.666 1.653 4625
3.531 2.582 1.605 2208
3.761 2.750 1.702 1862
3.698 2.704 1.661 3662
3.583 2.620 1.613 3174
3.813 2.788 1.709 1532
3.696 2.702 1.645 5248
3.811 2.787 1.692 2466
3.580 2.618 1.597 1700
3.705 2.709 1.634 4894
3.820 2.794 1.681 3089
3.590 2.625 1.587 887
3.794 2.774 1.655 6302
3.678 2.690 1.609 1874
3.909 2.859 1.702 1373
3.797 2.777 1.642 5845
3.682 2.692 1.595 1082
3.913 2.861 1.688 1043
3.807 2.784 1.631 5265
3.691 2.699 1.585 905
3.923 2.868 1.676 880
3.829 2.800 1.624 6356
4.011 2.933 1.696 1115
3.713 2.715 1.579 760
3.844 2.811 1.615 5222
4.009 2.932 1.679 2161
3.854 2.818 1.604 4405
4.019 2.939 1.667 3465
4.022 2.941 1.653 5627
3.900 2.852 1.606 3360
4.032 2.948 1.641 7453
3.916 2.863 1.597 2337
3.800 2.779 1.553 948
4.035 2.951 1.626 5720
3.919 2.866 1.583 1229
4.051 2.963 1.616 7610
3.867 2.828 1.549 981
4.055 2.965 1.602 10633
3.901 2.853 1.546 906
4.058 2.968 1.587 9967
4.055 2.966 1.571 13075
4.065 2.972 1.558 13672
4.182 3.058 1.599 861
3.930 2.874 1.511 751
4.056 2.966 1.539 11128
4.505 3.294 1.696 1179
4.173 3.051 1.580 1156
4.388 3.209 1.655 768
4.053 2.964 1.523 9820
4.509 3.297 1.680 1712
4.170 3.049 1.563 1558
4.392 3.211 1.640 1180
4.056 2.966 1.508 7694
4.518 3.304 1.666 3274
4.401 3.218 1.626 1817
4.173 3.052 1.548 1339
4.066 2.973 1.496 6000
4.522 3.307 1.650 4741
4.405 3.221 1.610 2309
4.183 3.059 1.535 904
4.525 3.309 1.634 4942
4.063 2.971 1.479 3292
4.408 3.224 1.594 2134
4.180 3.057 1.518 1088
4.529 3.312 1.617 5297
4.060 2.969 1.463 1668
4.412 3.226 1.579 1565
4.177 3.054 1.501 962
4.539 3.319 1.603 7311
4.421 3.233 1.565 1282
4.057 2.966 1.446 947
4.749 3.473 1.672 927
4.548 3.326 1.589 6829
4.746 3.471 1.653 1727
4.431 3.240 1.551 985
4.539 3.319 1.569 8590
4.737 3.464 1.632 4008
4.100 2.998 1.429 912
4.855 3.550 1.669 768
4.536 3.317 1.550 11398
4.747 3.471 1.617 6199
4.964 3.630 1.685 1399
4.552 3.329 1.538 6916
4.757 3.478 1.602 6742
4.974 3.637 1.669 1944
4.754 3.476 1.583 7361
4.568 3.340 1.526 4194
4.952 3.622 1.643 1480
4.757 3.479 1.566 6235
4.571 3.343 1.509 4339
5.049 3.692 1.654 1667
4.931 3.606 1.618 1312
4.761 3.481 1.549 3779
4.574 3.345 1.493 2919
5.053 3.695 1.636 2671
4.935 3.608 1.600 1308
4.764 3.484 1.531 2333
5.062 3.702 1.619 2271
5.193 3.797 1.658 2183
4.944 3.616 1.585 961
5.196 3.800 1.639 3701
5.078 3.714 1.605 1993
4.761 3.482 1.513 1564
4.562 3.336 1.455 875
5.206 3.807 1.623 4253
5.088 3.721 1.589 2047
4.777 3.493 1.499 1385
4.970 3.634 1.555 819
5.216 3.814 1.606 5862
4.786 3.500 1.484 1396
5.097 3.728 1.572 1385
5.213 3.812 1.585 6438
5.070 3.707 1.545 1069
4.789 3.502 1.467 1056
5.216 3.815 1.566 5453
5.541 4.052 1.656 970
4.786 3.500 1.448 779
5.404 3.951 1.618 761
5.220 3.817 1.548 4876
5.544 4.054 1.636 1601
5.407 3.954 1.599 1413
5.744 4.200 1.690 1031
5.217 3.815 1.527 3286
5.554 4.062 1.618 1923
5.410 3.956 1.579 1861
5.748 4.203 1.670 1478
5.801 4.242 1.662 2911
5.558 4.064 1.598 1698
5.226 3.822 1.510 1637
5.414 3.959 1.560 1484
5.805 4.245 1.642 4231
5.924 4.332 1.673 2024
5.561 4.067 1.578 1186
5.236 3.829 1.493 1146
5.896 4.312 1.643 3903
5.777 4.225 1.613 1900
5.652 4.133 1.581 789
5.226 3.822 1.471 765
5.893 4.309 1.621 3297
6.062 4.433 1.663 1376
5.774 4.223 1.590 1234
5.815 4.252 1.579 4383
5.934 4.340 1.609 2566
6.066 4.436 1.642 2528
6.185 4.523 1.671 995
5.825 4.260 1.560 5019
6.076 4.443 1.621 2752
5.944 4.347 1.589 2123
6.195 4.530 1.651 1762
5.834 4.267 1.540 5163
6.092 4.455 1.603 3015
5.972 4.367 1.574 2548
6.211 4.542 1.631 2451
5.844 4.274 1.521 3795
6.208 4.540 1.608 3577
6.089 4.452 1.579 3400
5.969 4.365 1.551 2003
6.211 4.542 1.585 3788
6.092 4.455 1.557 3177
5.854 4.280 1.501 2235
6.494 4.749 1.652 1354
6.196 4.531 1.559 2426
6.516 4.765 1.633 2211
5.850 4.278 1.479 1557
6.077 4.444 1.531 1521
6.514 4.763 1.608 2677
6.224 4.552 1.542 1472
5.847 4.276 1.456 1252
6.708 4.906 1.652 1086
6.240 4.563 1.523 1979
6.523 4.770 1.586 1443
6.699 4.899 1.625 1302
6.397 4.678 1.558 1256
6.243 4.566 1.500 1549
6.596 4.823 1.577 1282
6.715 4.911 1.604 967
6.860 5.017 1.635 951
6.687 4.890 1.573 1796
6.895 5.042 1.618 1680
6.561 4.798 1.546 1259
6.247 4.568 1.478 763
6.691 4.893 1.549 2603
6.892 5.040 1.592 2082
6.571 4.805 1.523 1484
5.872 4.294 1.375 1054
6.694 4.895 1.525 2375
6.946 5.079 1.577 1749
5.881 4.301 1.355 1370
7.305 5.342 1.652 934
6.956 5.087 1.554 1619
7.353 5.377 1.635 1611
5.878 4.298 1.333 1285
6.704 4.902 1.502 1283
7.356 5.380 1.608 2189
7.571 5.536 1.652 1274
5.874 4.296 1.311 1194
7.129 5.213 1.563 1024
7.518 5.497 1.613 1813
7.335 5.364 1.577 1667
5.889 4.307 1.292 1205
7.133 5.216 1.537 1170
7.527 5.505 1.587 1958
7.325 5.357 1.548 1228
7.837 5.731 1.647 1204
5.898 4.313 1.272 1190
7.847 5.738 1.620 1826
7.613 5.567 1.576 1523
8.188 5.987 1.685 1186
8.049 5.886 1.659 881
7.850 5.741 1.592 2046
8.191 5.990 1.655 1690
7.635 5.583 1.552 1428
8.059 5.893 1.631 947
8.201 5.997 1.627 2570
7.942 5.808 1.580 1729
8.081 5.909 1.605 1103
7.822 5.720 1.558 1099
8.205 6.000 1.598 3474
8.065 5.898 1.573 1649
7.939 5.806 1.550 1296
9.046 6.615 1.748 1240
8.202 5.998 1.567 3862
8.056 5.891 1.541 2264
9.056 6.622 1.716 1982
8.518 6.229 1.622 1155
8.205 6.000 1.537 4243
9.053 6.620 1.683 2166
8.059 5.894 1.512 2082
8.933 6.532 1.662 1753
8.208 6.002 1.508 4044
8.956 6.549 1.633 2564
9.076 6.637 1.653 1954
8.088 5.915 1.488 1458
8.212 6.005 1.478 3642
9.060 6.626 1.618 2347
8.940 6.538 1.598 1901
9.225 6.746 1.645 1802
8.215 6.007 1.449 3605
9.064 6.628 1.585 2792
9.235 6.753 1.612 1604
8.937 6.535 1.565 1571
8.224 6.014 1.420 2984
9.074 6.635 1.553 2945
9.929 7.261 1.687 1625
8.934 6.533 1.531 1451
9.071 6.633 1.520 2271
8.227 6.016 1.391 1825
9.927 7.259 1.651 1791
8.937 6.536 1.499 1409
9.956 7.280 1.619 2274
9.067 6.631 1.486 1240
8.230 6.018 1.361 1034
8.940 6.538 1.467 916
9.965 7.287 1.584 2701
9.229 6.749 1.477 1059
9.096 6.652 1.457 892
9.775 7.148 1.556 771
9.969 7.290 1.548 2604
9.239 6.756 1.444 1004
9.093 6.649 1.423 927
10.089 7.378 1.565 754
9.972 7.292 1.512 2645
10.156 7.427 1.537 840
9.975 7.295 1.476 1993
9.978 7.297 1.440 1165
10.077 7.369 1.416 831
10.099 7.385 1.382 945
10.121 7.401 1.348 785
8.299 6.069 -0.487 987
8.298 6.068 -0.517 1230
8.290 6.062 -0.546 1512
8.288 6.061 -0.576 1828
8.286 6.060 -0.606 1668
8.285 6.058 -0.635 1508
8.283 6.057 -0.665 1508
8.281 6.056 -0.695 1768
8.279 6.054 -0.725 2027
8.277 6.053 -0.755 2040
8.275 6.051 -0.784 2053
8.272 6.049 -0.814 1507
8.276 6.052 -0.845 967
8.274 6.051 -0.874 967
8.202 5.998 -0.895 1142
8.199 5.996 -0.925 1461
8.190 5.989 -0.953 1500
8.181 5.983 -0.982 1586
8.179 5.981 -1.011 793
1.773 1.290 1.671 2483
1.908 1.388 1.791 1680
1.776 1.292 1.665 4966
1.912 1.391 1.784 3360
1.780 1.295 1.659 4966
1.921 1.397 1.782 3377
1.941 1.412 1.789 4947
1.841 1.339 1.703 3770
1.742 1.267 1.616 1054
1.944 1.414 1.782 6562
1.845 1.342 1.696 3746
1.948 1.417 1.775 7993
1.849 1.345 1.690 3360
1.952 1.420 1.769 9424
1.852 1.347 1.683 2973
1.956 1.423 1.762 9424
1.856 1.350 1.676 2973
1.955 1.422 1.750 7375
1.854 1.349 1.665 2296
2.055 1.495 1.835 1037
1.943 1.413 1.730 5587
2.043 1.486 1.814 1906
1.842 1.340 1.646 822
1.962 1.427 1.736 7275
1.861 1.354 1.652 1301
2.063 1.501 1.820 1128
1.966 1.430 1.730 9170
2.083 1.515 1.826 1235
1.964 1.429 1.718 8987
2.066 1.503 1.802 1880
1.968 1.432 1.711 8822
2.070 1.505 1.794 2568
2.031 1.477 1.752 8407
1.929 1.403 1.670 3490
2.132 1.551 1.835 814
2.034 1.480 1.745 7739
1.927 1.402 1.658 3970
2.136 1.554 1.827 925
2.033 1.479 1.733 7043
1.931 1.405 1.652 3666
2.135 1.553 1.815 1069
1.994 1.450 1.692 5247
2.096 1.525 1.773 2400
2.073 1.508 1.745 3962
1.954 1.421 1.651 3328
2.093 1.522 1.750 5036
1.952 1.420 1.640 2835
2.096 1.525 1.743 6640
1.956 1.423 1.633 2373
2.199 1.600 1.823 946
2.100 1.528 1.735 5940
1.959 1.425 1.626 2028
2.203 1.603 1.815 981
2.104 1.531 1.728 5240
1.957 1.424 1.615 1688
2.207 1.606 1.808 1016
2.119 1.541 1.729 6883
1.961 1.426 1.608 1179
2.139 1.556 1.734 10066
2.159 1.570 1.739 10710
2.055 1.495 1.660 915
2.168 1.577 1.735 12371
2.272 1.653 1.813 804
2.172 1.580 1.727 10104
2.276 1.656 1.805 1063
2.181 1.587 1.724 7972
2.285 1.662 1.801 1079
2.185 1.589 1.716 5584
2.289 1.665 1.793 1459
2.249 1.636 1.753 4750
2.144 1.560 1.676 1331
2.253 1.639 1.745 5888
2.148 1.563 1.668 1188
2.262 1.646 1.741 7089
2.157 1.569 1.665 1333
2.367 1.722 1.817 814
2.272 1.652 1.737 5723
2.166 1.576 1.661 1254
2.377 1.729 1.812 995
2.275 1.655 1.729 4449
2.381 1.732 1.804 1198
2.274 1.654 1.717 3983
2.379 1.731 1.791 1454
2.294 1.669 1.720 4939
2.309 1.680 1.720 7459
2.203 1.602 1.646 932
2.318 1.686 1.716 8091
2.424 1.763 1.789 1564
2.327 1.693 1.711 8822
2.434 1.770 1.785 1865
2.331 1.696 1.703 6571
2.438 1.773 1.776 1637
2.397 1.743 1.737 5692
2.290 1.666 1.664 1654
2.406 1.750 1.732 6100
2.299 1.672 1.660 1525
2.427 1.765 1.735 6422
2.320 1.687 1.663 1047
2.447 1.780 1.738 7105
2.440 1.775 1.721 7393
2.547 1.853 1.792 1393
2.438 1.773 1.709 8227
2.545 1.851 1.780 2347
2.441 1.776 1.700 7192
2.549 1.854 1.770 2904
2.468 1.795 1.706 6356
2.576 1.874 1.776 976
2.477 1.802 1.701 6687
2.591 1.885 1.774 752
2.526 1.838 1.722 6025
2.418 1.759 1.653 1087
2.542 1.849 1.720 4198
2.433 1.770 1.651 1116
2.568 1.868 1.725 3254
2.460 1.789 1.657 1544
2.589 1.883 1.727 4163
2.480 1.804 1.659 1710
2.558 1.861 1.696 6988
2.667 1.940 1.764 1447
2.562 1.864 1.687 9149
2.671 1.943 1.754 2468
2.640 1.921 1.724 13639
2.531 1.841 1.657 4562
2.749 2.000 1.790 942
2.644 1.923 1.714 15700
2.535 1.844 1.648 3670
2.759 2.007 1.784 1063
2.636 1.918 1.698 14596
2.527 1.838 1.632 2575
2.769 2.014 1.778 860
2.634 1.916 1.685 14795
2.744 1.996 1.751 1824
2.525 1.836 1.620 1594
2.632 1.915 1.672 13087
2.742 1.994 1.737 3553
2.522 1.835 1.607 1014
2.636 1.917 1.663 10757
2.745 1.997 1.728 3936
2.526 1.837 1.598 1237
2.639 1.920 1.654 7912
2.749 2.000 1.718 5908
2.529 1.840 1.589 1262
2.859 2.080 1.782 763
2.741 1.994 1.701 7996
2.631 1.914 1.638 4023
2.851 2.074 1.765 1835
2.521 1.834 1.574 835
2.739 1.993 1.688 7363
2.849 2.073 1.752 2641
2.629 1.912 1.625 1868
2.807 2.042 1.715 7829
2.696 1.961 1.652 3726
2.917 2.122 1.778 1042
2.822 2.053 1.712 11107
2.712 1.972 1.649 3687
2.933 2.133 1.774 1294
2.826 2.056 1.702 9443
2.942 2.140 1.767 2309
2.715 1.975 1.639 2012
2.876 2.092 1.718 5858
2.765 2.012 1.656 2904
2.987 2.173 1.779 1698
2.903 2.112 1.720 6019
2.792 2.031 1.659 2582
3.014 2.193 1.782 911
2.901 2.110 1.707 6355
2.790 2.030 1.646 2906
3.012 2.191 1.768 1606
2.887 2.100 1.687 7232
2.999 2.181 1.748 3041
2.776 2.019 1.626 1577
2.897 2.107 1.680 6515
3.008 2.188 1.740 3305
2.785 2.026 1.620 1103
2.900 2.110 1.669 4703
3.012 2.191 1.729 3327
2.910 2.117 1.662 4029
3.022 2.198 1.722 2674
3.002 2.184 1.699 4228
2.890 2.102 1.640 2799
3.059 2.225 1.716 6106
2.946 2.143 1.657 2916
3.068 2.232 1.708 7818
2.956 2.150 1.650 2308
3.066 2.230 1.694 6341
2.954 2.149 1.636 967
3.178 2.312 1.752 760
3.040 2.211 1.668 5106
3.152 2.293 1.725 1764
3.061 2.227 1.666 5145
3.174 2.309 1.723 1689
3.071 2.234 1.658 4298
3.184 2.316 1.715 1838
3.104 2.258 1.662 3583
3.217 2.340 1.718 3047
3.215 2.339 1.704 6622
3.102 2.256 1.648 2877
3.218 2.341 1.692 8561
3.105 2.259 1.637 3059
3.222 2.344 1.681 6917
3.109 2.261 1.626 3702
3.232 2.351 1.672 5908
3.118 2.268 1.618 3181
3.345 2.433 1.727 1225
3.235 2.353 1.661 7709
3.367 2.449 1.723 1784
3.122 2.271 1.607 1344
3.227 2.347 1.644 6650
3.364 2.447 1.709 1661
3.302 2.402 1.666 3571
3.189 2.319 1.612 2540
3.416 2.485 1.719 2355
3.384 2.461 1.690 7106
3.270 2.379 1.637 2183
3.393 2.468 1.681 7885
3.237 2.355 1.609 1749
3.415 2.484 1.677 8602
3.295 2.397 1.622 1768
3.413 2.482 1.662 9812
3.298 2.399 1.610 1775
3.527 2.566 1.714 873
3.410 2.481 1.647 6901
3.525 2.564 1.698 1282
3.408 2.479 1.632 4499
3.522 2.562 1.683 2224
3.484 2.534 1.652 3673
3.369 2.451 1.602 1603
3.598 2.617 1.702 1335
3.572 2.598 1.676 5073
3.457 2.515 1.626 3021
3.575 2.601 1.664 7516
3.430 2.495 1.601 2127
3.690 2.684 1.713 1277
3.585 2.608 1.654 6277
3.452 2.511 1.597 2194
3.700 2.691 1.703 1939
3.655 2.659 1.669 5677
3.540 2.575 1.620 2815
3.770 2.743 1.718 832
3.653 2.657 1.653 4165
3.538 2.573 1.605 2136
3.768 2.741 1.702 1336
3.717 2.704 1.666 2941
3.590 2.611 1.613 2025
3.832 2.788 1.714 1191
3.702 2.693 1.645 4849
3.824 2.782 1.695 2530
3.700 2.691 1.629 4581
3.815 2.775 1.676 3805
3.807 2.769 1.658 5398
3.691 2.685 1.611 2493
3.922 2.853 1.704 955
3.810 2.772 1.644 4531
3.695 2.688 1.598 1468
3.926 2.856 1.690 901
3.832 2.788 1.638 5166
3.716 2.703 1.592 1319
3.954 2.876 1.686 980
3.842 2.795 1.627 6807
4.025 2.928 1.698 1345
3.726 2.710 1.581 806
3.857 2.806 1.618 5952
4.016 2.922 1.679 2371
3.861 2.809 1.604 4897
4.020 2.924 1.665 3579
4.023 2.927 1.650 5177
3.840 2.793 1.581 3662
4.027 2.929 1.636 6380
3.837 2.791 1.565 2168
4.037 2.936 1.624 4873
3.859 2.807 1.558 1779
4.046 2.943 1.612 5890
3.868 2.814 1.546 1257
4.056 2.950 1.600 7428
4.047 2.944 1.581 7375
4.044 2.942 1.564 10186
4.161 3.027 1.606 849
4.054 2.949 1.552 9310
4.171 3.034 1.593 937
4.057 2.951 1.537 9579
4.501 3.274 1.692 1413
4.174 3.036 1.578 1122
4.067 2.958 1.525 9365
4.511 3.281 1.678 2033
4.184 3.043 1.565 1268
4.393 3.196 1.638 961
4.064 2.956 1.508 7055
4.520 3.288 1.664 3599
4.181 3.041 1.548 1532
4.403 3.203 1.624 1443
4.067 2.958 1.494 6043
4.530 3.295 1.650 5133
4.413 3.210 1.610 1802
4.184 3.044 1.533 1405
4.534 3.298 1.634 4837
4.070 2.961 1.479 4146
4.416 3.213 1.594 1607
4.188 3.046 1.518 1415
4.531 3.296 1.615 4358
4.073 2.963 1.465 2533
4.413 3.211 1.577 1364
4.191 3.048 1.503 1053
4.547 3.308 1.603 6940
4.429 3.222 1.565 1429
4.076 2.965 1.450 1208
4.751 3.456 1.670 844
4.556 3.315 1.589 8197
4.755 3.459 1.653 1458
4.439 3.229 1.551 1167
4.554 3.313 1.571 8805
4.746 3.452 1.632 3046
4.951 3.601 1.697 971
4.551 3.310 1.552 10037
4.762 3.464 1.619 4851
4.967 3.613 1.683 2404
4.560 3.317 1.538 6624
4.765 3.466 1.602 5969
4.976 3.620 1.667 2874
4.763 3.464 1.583 6764
4.570 3.324 1.524 4765
4.949 3.600 1.640 2192
4.766 3.467 1.566 5669
4.573 3.327 1.507 4717
4.946 3.598 1.620 2593
5.064 3.684 1.656 1281
4.769 3.469 1.549 3680
4.583 3.334 1.493 3000
4.975 3.619 1.610 2861
5.093 3.705 1.645 1786
5.202 3.784 1.658 2977
4.773 3.472 1.531 2528
4.978 3.621 1.592 2388
4.573 3.327 1.473 1127
5.206 3.787 1.639 5001
5.087 3.701 1.605 1815
4.776 3.474 1.514 1561
4.969 3.615 1.571 1131
5.216 3.794 1.623 6111
5.097 3.708 1.589 2059
4.979 3.622 1.555 1295
4.779 3.476 1.497 892
5.225 3.801 1.606 8485
5.107 3.715 1.572 1783
4.988 3.629 1.538 1265
4.795 3.488 1.484 1047
5.223 3.799 1.585 9160
5.091 3.704 1.549 1071
4.798 3.490 1.467 819
5.226 3.802 1.566 7605
5.413 3.938 1.618 1037
5.545 4.033 1.654 875
5.229 3.804 1.548 6304
5.417 3.940 1.599 1940
5.554 4.040 1.636 1499
5.748 4.181 1.689 900
5.226 3.802 1.527 4449
5.420 3.943 1.579 2423
5.564 4.048 1.618 1768
5.752 4.184 1.668 1388
5.236 3.809 1.510 2601
5.806 4.223 1.661 2515
5.424 3.945 1.560 1901
5.568 4.050 1.598 1619
5.809 4.226 1.640 3320
5.928 4.312 1.671 2342
5.245 3.816 1.493 1625
5.421 3.943 1.539 1230
5.907 4.297 1.643 3647
5.788 4.210 1.613 1947
5.380 3.914 1.508 944
5.242 3.813 1.473 910
5.904 4.295 1.621 2961
6.080 4.422 1.665 1394
5.785 4.208 1.590 1222
5.383 3.916 1.489 753
5.926 4.311 1.604 2730
6.083 4.425 1.643 2437
5.807 4.224 1.574 2056
6.202 4.512 1.673 1280
6.087 4.428 1.621 2893
5.835 4.245 1.560 2599
6.206 4.514 1.651 2489
5.955 4.332 1.589 2153
6.203 4.512 1.627 3508
6.084 4.426 1.598 2960
5.845 4.252 1.540 2781
5.964 4.339 1.569 2092
6.219 4.524 1.608 4364
6.100 4.437 1.579 3859
5.980 4.350 1.551 2185
5.855 4.259 1.521 2117
6.223 4.527 1.585 4216
6.103 4.440 1.557 3766
6.531 4.751 1.657 1387
5.959 4.334 1.523 1337
6.113 4.447 1.537 2602
6.232 4.534 1.564 2310
6.528 4.749 1.633 2265
5.962 4.337 1.502 1076
6.525 4.747 1.608 2665
6.236 4.536 1.542 2130
6.041 4.394 1.498 1441
6.733 4.898 1.655 947
6.252 4.548 1.523 2691
6.523 4.745 1.583 1423
6.037 4.392 1.475 1220
6.642 4.832 1.610 1190
6.255 4.550 1.500 1893
6.633 4.825 1.583 1418
6.866 4.995 1.634 1067
6.041 4.394 1.453 797
6.914 5.029 1.619 1524
6.718 4.887 1.577 1449
6.599 4.800 1.551 1201
6.252 4.548 1.476 851
6.634 4.825 1.534 2104
6.905 5.023 1.592 1598
6.753 4.913 1.559 1394
5.876 4.275 1.374 1057
6.694 4.869 1.522 2400
6.883 5.007 1.561 1524
5.879 4.277 1.353 1344
7.325 5.328 1.653 1024
7.366 5.359 1.635 1961
6.684 4.862 1.495 1567
5.895 4.288 1.334 1495
6.975 5.074 1.555 1420
7.376 5.366 1.610 2638
6.668 4.851 1.468 1311
5.904 4.295 1.314 1301
7.578 5.513 1.650 1107
7.531 5.479 1.613 1819
7.367 5.359 1.581 1723
7.247 5.272 1.557 961
5.907 4.297 1.293 857
7.535 5.481 1.586 2070
7.345 5.343 1.549 1163
7.864 5.720 1.650 1072
8.079 5.877 1.691 961
7.861 5.718 1.620 1738
7.557 5.497 1.563 1275
7.677 5.585 1.585 1214
8.070 5.870 1.660 1136
7.858 5.716 1.591 1861
8.206 5.970 1.655 1494
7.674 5.583 1.557 1349
7.978 5.804 1.613 1083
8.216 5.977 1.627 2334
7.956 5.788 1.580 1750
8.096 5.889 1.605 1137
7.684 5.590 1.530 905
8.220 5.979 1.598 3166
8.087 5.882 1.574 1483
7.954 5.786 1.550 1375
9.062 6.592 1.748 1282
8.217 5.977 1.567 3618
8.071 5.871 1.541 2161
9.072 6.600 1.716 2122
8.534 6.208 1.622 1461
8.220 5.980 1.537 4061
9.070 6.598 1.683 2305
8.074 5.873 1.512 1931
8.543 6.215 1.593 1789
8.223 5.982 1.508 3917
8.972 6.526 1.633 2324
9.092 6.614 1.653 1819
8.103 5.894 1.488 1270
8.227 5.984 1.478 3574
9.077 6.603 1.618 2641
8.956 6.515 1.598 1912
9.248 6.728 1.646 1414
8.230 5.987 1.449 3478
9.080 6.605 1.585 3075
8.953 6.513 1.565 1532
9.252 6.730 1.612 1279
9.084 6.608 1.552 3156
8.239 5.993 1.420 2798
8.950 6.511 1.531 1366
9.979 7.259 1.692 1333
9.081 6.606 1.519 2563
8.242 5.996 1.391 1701
9.945 7.234 1.651 1442
8.954 6.513 1.499 1266
9.980 7.260 1.620 2121
9.084 6.608 1.486 1521
9.802 7.130 1.593 998
8.245 5.998 1.361 947
9.977 7.258 1.583 2631
9.100 6.620 1.455 1037
9.793 7.124 1.556 903
9.987 7.265 1.548 2498
9.109 6.626 1.423 1109
9.990 7.267 1.512 2529
10.175 7.401 1.537 931
9.112 6.629 1.391 877
9.993 7.270 1.476 1922
10.172 7.399 1.500 908
9.997 7.272 1.440 1097
10.194 7.415 1.466 809
10.095 7.344 1.416 795
10.216 7.432 1.432 753
10.130 7.369 1.384 964
10.139 7.376 1.348 909
8.314 6.048 -0.487 761
8.313 6.047 -0.517 1027
8.305 6.041 -0.546 1237
8.297 6.035 -0.575 1482
8.295 6.034 -0.605 1420
8.287 6.028 -0.634 1380
8.285 6.027 -0.664 1380
8.283 6.025 -0.694 1579
8.281 6.024 -0.723 1778
8.279 6.023 -0.753 1624
8.283 6.026 -0.784 1488
8.281 6.024 -0.813 1014
8.228 5.985 -0.837 774
8.226 5.984 -0.867 774
8.210 5.973 -0.894 1229
8.208 5.971 -0.924 1724
8.199 5.964 -0.953 1788
8.196 5.962 -0.982 1870
8.194 5.960 -1.011 935
1.843 1.325 1.727 2714
1.942 1.396 1.814 895
1.743 1.253 1.639 784
1.846 1.327 1.720 5428
1.946 1.399 1.807 2707
1.747 1.256 1.633 1568
1.850 1.330 1.714 5428
1.950 1.402 1.801 3623
1.751 1.258 1.627 1568
1.859 1.336 1.712 5537
1.959 1.408 1.798 5243
1.759 1.265 1.625 1269
1.958 1.407 1.787 7169
1.858 1.335 1.701 5453
1.967 1.414 1.784 8960
1.867 1.342 1.699 4338
1.976 1.420 1.782 11149
1.876 1.348 1.696 3267
1.980 1.423 1.775 11149
1.879 1.351 1.690 3267
1.994 1.434 1.777 9291
1.894 1.361 1.692 3592
2.004 1.440 1.774 8238
1.897 1.364 1.686 3373
2.013 1.447 1.772 8624
1.906 1.370 1.683 2894
2.017 1.450 1.765 9094
1.915 1.377 1.681 2552
2.118 1.523 1.848 756
2.031 1.460 1.766 9979
1.930 1.387 1.683 2504
2.133 1.533 1.850 768
2.035 1.463 1.759 11199
1.933 1.390 1.676 2352
2.137 1.536 1.842 986
2.039 1.466 1.752 11237
1.932 1.388 1.665 2637
2.141 1.539 1.835 986
2.043 1.468 1.745 9491
1.935 1.391 1.658 2980
2.145 1.542 1.827 1224
2.047 1.471 1.738 7681
1.944 1.397 1.656 2703
2.149 1.545 1.820 1390
2.034 1.462 1.718 4890
2.137 1.536 1.799 2175
1.931 1.388 1.636 2055
2.108 1.515 1.766 4351
2.005 1.442 1.685 2597
2.107 1.514 1.754 4883
1.966 1.413 1.644 2531
2.110 1.517 1.747 5434
1.975 1.419 1.641 2780
2.214 1.591 1.827 886
2.114 1.520 1.740 4953
1.978 1.422 1.634 2298
2.218 1.594 1.820 970
2.118 1.523 1.732 4472
1.976 1.421 1.623 1819
2.222 1.597 1.812 1054
2.133 1.533 1.733 5821
1.985 1.427 1.620 1413
2.153 1.548 1.738 7974
2.049 1.473 1.659 1093
2.168 1.558 1.739 8998
2.064 1.483 1.660 1274
2.177 1.565 1.735 11040
2.018 1.450 1.616 1043
2.186 1.572 1.731 9504
2.027 1.457 1.613 885
2.196 1.578 1.728 8345
2.091 1.503 1.650 936
2.306 1.657 1.809 800
2.205 1.585 1.724 5990
2.310 1.660 1.801 1062
2.100 1.509 1.647 833
2.258 1.623 1.753 6938
2.153 1.548 1.676 2104
2.262 1.626 1.745 7779
2.157 1.550 1.668 1462
2.272 1.633 1.741 8851
2.166 1.557 1.665 1056
2.394 1.721 1.829 815
2.281 1.640 1.737 7112
2.387 1.715 1.812 1167
2.175 1.564 1.661 914
2.285 1.642 1.729 5417
2.390 1.718 1.804 1533
2.288 1.645 1.721 4449
2.394 1.721 1.795 1437
2.303 1.656 1.720 4841
2.409 1.732 1.795 1168
2.318 1.666 1.720 6734
2.425 1.743 1.794 1074
2.212 1.590 1.646 790
2.333 1.677 1.720 7724
2.227 1.601 1.646 937
2.440 1.754 1.793 897
2.343 1.684 1.715 9123
2.236 1.607 1.642 867
2.341 1.683 1.703 7131
2.448 1.759 1.776 1062
2.406 1.730 1.737 5930
2.299 1.653 1.664 1640
2.416 1.737 1.732 6158
2.309 1.659 1.660 1812
2.523 1.814 1.804 852
2.448 1.760 1.742 7875
2.340 1.682 1.671 1588
2.463 1.770 1.741 9427
2.455 1.765 1.725 7793
2.563 1.842 1.796 1514
2.522 1.813 1.757 7566
2.414 1.735 1.687 3732
2.525 1.815 1.748 6686
2.417 1.738 1.678 2855
2.529 1.818 1.739 6503
2.421 1.740 1.670 1795
2.482 1.784 1.698 7716
2.590 1.862 1.767 1599
2.485 1.787 1.689 6888
2.594 1.865 1.758 2723
2.569 1.847 1.731 4784
2.460 1.769 1.662 2600
2.678 1.925 1.799 752
2.607 1.874 1.743 3895
2.481 1.784 1.664 2122
2.617 1.881 1.737 5011
2.508 1.803 1.670 2316
2.726 1.959 1.805 911
2.569 1.847 1.696 5481
2.690 1.933 1.771 1848
2.572 1.849 1.687 7978
2.682 1.928 1.754 2437
2.463 1.771 1.620 764
2.645 1.902 1.720 12250
2.536 1.823 1.654 4532
2.755 1.980 1.787 1354
2.643 1.900 1.707 14130
2.534 1.821 1.641 4139
2.753 1.979 1.773 1666
2.630 1.890 1.688 15356
2.520 1.811 1.622 3008
2.739 1.969 1.753 2175
2.633 1.893 1.678 15969
2.743 1.972 1.744 2529
2.523 1.814 1.613 2016
2.637 1.896 1.669 13885
2.747 1.975 1.734 4039
2.527 1.816 1.604 1197
2.641 1.898 1.660 11187
2.751 1.977 1.724 4693
2.530 1.819 1.595 1349
2.650 1.905 1.654 7433
2.760 1.984 1.718 5156
2.540 1.825 1.589 1477
2.805 2.016 1.732 9159
2.694 1.937 1.668 4402
2.549 1.832 1.584 1234
2.809 2.019 1.722 10806
2.698 1.939 1.658 4125
2.919 2.099 1.785 849
2.812 2.022 1.712 10573
2.702 1.942 1.649 3057
2.923 2.101 1.775 1732
2.828 2.033 1.708 12260
2.717 1.953 1.646 2948
2.939 2.113 1.771 1941
2.826 2.031 1.695 10972
2.960 2.128 1.770 2314
2.714 1.951 1.633 1464
2.888 2.076 1.718 6697
2.777 1.996 1.656 2345
2.999 2.156 1.779 1924
2.886 2.074 1.704 6265
2.997 2.155 1.766 3130
2.774 1.994 1.643 1587
2.966 2.132 1.736 6917
2.854 2.052 1.675 5403
2.881 2.071 1.677 6820
2.993 2.152 1.738 4947
2.770 1.991 1.617 769
2.891 2.078 1.670 5323
