3.999 0.248 1.506 8901
4.003 0.249 1.494 11048
4.014 0.249 1.485 13766
4.018 0.250 1.474 14344
4.022 0.250 1.462 13017
4.019 0.250 1.448 11120
4.037 0.251 1.442 9229
4.049 0.252 1.432 7090
4.045 0.251 1.418 6249
4.033 0.251 1.402 7831
4.045 0.251 1.392 6923
4.048 0.252 1.381 8265
4.052 0.252 1.369 11422
4.063 0.252 1.360 9218
4.074 0.253 1.350 4502
4.070 0.253 1.336 2950
4.074 0.253 1.324 2674
4.069 0.253 1.311 2711
4.103 0.255 1.308 4842
4.107 0.255 1.296 6248
4.087 0.254 1.277 5430
4.121 0.256 1.274 5456
4.117 0.256 1.260 7578
4.105 0.255 1.244 7533
4.085 0.254 1.226 4885
4.080 0.254 1.212 4451
6.012 0.374 1.727 1228
4.091 0.254 1.202 5351
6.009 0.373 1.708 3847
6.021 0.374 1.692 5816
4.117 0.256 1.197 3441
5.830 0.362 1.643 1015
6.018 0.374 1.673 4686
4.120 0.256 1.185 3049
5.827 0.362 1.624 1176
6.164 0.383 1.710 1150
4.131 0.257 1.175 3925
6.015 0.374 1.654 3824
6.161 0.383 1.691 2194
5.816 0.361 1.603 1511
6.073 0.377 1.650 4738
4.157 0.258 1.169 2780
5.820 0.362 1.586 2256
6.219 0.386 1.686 1019
6.100 0.379 1.638 5867
5.840 0.363 1.573 2764
4.183 0.260 1.162 1197
6.246 0.388 1.674 796
6.105 0.379 1.620 4565
5.767 0.358 1.537 2601
5.913 0.367 1.573 1504
4.140 0.257 1.139 1222
6.101 0.379 1.600 3158
5.886 0.366 1.549 3015
5.740 0.357 1.513 1777
4.150 0.258 1.129 999
5.860 0.364 1.524 4736
6.113 0.380 1.585 2905
5.714 0.355 1.489 1072
3.969 0.247 1.073 765
5.848 0.363 1.503 6977
6.117 0.380 1.567 2690
3.979 0.247 1.063 1142
5.837 0.363 1.483 9174
5.983 0.372 1.517 2917
6.129 0.381 1.551 2345
3.982 0.247 1.052 1271
5.841 0.363 1.466 9577
5.987 0.372 1.500 2565
6.195 0.385 1.547 2479
6.634 0.412 1.648 1739
5.845 0.363 1.449 6529
5.991 0.372 1.482 2413
6.662 0.414 1.634 2073
6.207 0.386 1.531 1827
5.833 0.362 1.429 3919
5.979 0.372 1.461 2994
6.674 0.415 1.616 2029
6.997 0.435 1.689 1478
5.976 0.371 1.442 3566
5.829 0.362 1.410 3331
7.388 0.459 1.753 2123
6.655 0.414 1.592 1784
5.972 0.371 1.423 3047
6.651 0.413 1.571 2095
7.393 0.459 1.732 2043
5.825 0.362 1.392 2011
7.405 0.460 1.712 2586
5.952 0.370 1.401 1707
6.679 0.415 1.557 1690
7.011 0.436 1.628 1413
7.409 0.460 1.691 3165
7.765 0.482 1.766 1941
5.886 0.366 1.369 1517
7.618 0.473 1.735 1180
7.762 0.482 1.741 2554
7.422 0.461 1.671 2223
7.615 0.473 1.711 1685
7.275 0.452 1.640 1659
7.774 0.483 1.720 4232
7.426 0.461 1.649 2266
7.627 0.474 1.690 1991
5.940 0.369 1.345 1438
7.779 0.483 1.698 4201
7.430 0.462 1.628 2221
7.632 0.474 1.668 2146
5.943 0.369 1.327 1314
7.799 0.485 1.678 3910
7.652 0.475 1.649 2231
7.458 0.463 1.611 1666
5.954 0.370 1.312 989
7.796 0.484 1.654 4383
7.951 0.494 1.685 2926
7.648 0.475 1.625 1600
7.454 0.463 1.587 1486
7.792 0.484 1.630 5279
7.963 0.495 1.663 4651
8.196 0.509 1.708 1877
7.466 0.464 1.567 1515
7.812 0.485 1.610 5058
7.975 0.496 1.641 4843
8.200 0.510 1.684 2789
7.471 0.464 1.546 1366
7.824 0.486 1.589 3972
7.980 0.496 1.618 3603
8.205 0.510 1.660 3465
7.813 0.485 1.563 4868
8.209 0.510 1.636 4017
7.976 0.496 1.593 2281
8.206 0.510 1.611 5229
7.817 0.486 1.541 4516
7.980 0.496 1.570 2497
7.140 0.444 1.419 837
8.218 0.511 1.589 6637
7.837 0.487 1.521 2938
8.000 0.497 1.550 2838
8.583 0.533 1.653 1588
8.230 0.511 1.566 7085
8.004 0.497 1.527 2584
7.841 0.487 1.498 2508
8.681 0.539 1.645 2222
8.226 0.511 1.541 5588
8.678 0.539 1.618 3526
7.844 0.487 1.475 1884
8.444 0.525 1.578 1787
8.651 0.538 1.588 3692
8.222 0.511 1.516 3441
8.448 0.525 1.554 2227
7.848 0.488 1.452 1252
8.702 0.541 1.570 4576
8.468 0.526 1.532 2092
8.250 0.513 1.495 1797
8.928 0.555 1.608 1197
8.698 0.540 1.544 6134
8.488 0.527 1.510 1929
8.254 0.513 1.472 1362
8.924 0.555 1.581 1104
8.694 0.540 1.517 4240
8.546 0.531 1.494 1463
8.242 0.512 1.445 1349
8.936 0.555 1.556 1159
8.589 0.534 1.475 2817
8.737 0.543 1.498 1971
8.441 0.524 1.452 1402
8.886 0.552 1.521 942
8.585 0.533 1.449 2403
8.734 0.543 1.471 2044
8.421 0.523 1.423 1705
8.882 0.552 1.494 1020
8.323 0.517 1.384 1789
8.503 0.528 1.411 1750
8.737 0.543 1.446 1609
4.166 0.259 0.758 877
8.507 0.529 1.386 1967
8.327 0.517 1.360 1839
4.168 0.259 0.746 825
8.346 0.519 1.338 2521
8.502 0.528 1.360 1669
8.365 0.520 1.316 3752
8.576 0.533 1.345 1545
8.384 0.521 1.293 3523
8.596 0.534 1.323 1558
8.388 0.521 1.269 4357
8.607 0.535 1.299 986
8.391 0.521 1.245 5094
8.378 0.521 1.218 3002
8.342 0.518 1.189 2361
8.491 0.528 1.208 1448
8.400 0.522 1.171 2729
8.333 0.518 1.138 2842
8.482 0.527 1.156 1652
8.398 0.522 1.122 3035
8.587 0.534 1.144 828
8.249 0.513 1.104 813
8.401 0.522 1.097 3671
8.252 0.513 1.080 1047
8.582 0.533 1.118 863
8.419 0.523 1.075 2663
8.255 0.513 1.056 926
8.616 0.535 1.097 851
8.422 0.523 1.050 1576
8.626 0.536 1.072 1278
8.980 0.558 1.111 847
8.265 0.514 1.033 781
8.417 0.523 1.025 1835
8.637 0.537 1.048 1578
8.991 0.559 1.086 926
8.268 0.514 1.009 800
8.412 0.523 0.999 2302
8.640 0.537 1.023 1296
8.414 0.523 0.975 2038
8.650 0.537 0.999 830
8.862 0.551 1.020 759
8.416 0.523 0.951 1274
8.943 0.556 1.002 982
8.938 0.555 0.975 1353
9.087 0.565 0.989 910
8.678 0.539 0.951 768
8.933 0.555 0.948 1141
9.082 0.564 0.962 980
8.681 0.539 0.925 792
9.069 0.563 0.934 1114
8.919 0.554 0.921 933
8.722 0.542 0.904 814
9.079 0.564 0.908 1067
9.089 0.565 0.883 1062
9.091 0.565 0.856 1008
12.071 0.750 1.057 1183
12.977 0.806 1.127 981
9.093 0.565 0.830 956
8.936 0.555 0.818 770
12.082 0.751 1.023 1624
12.980 0.807 1.089 1331
8.937 0.555 0.792 847
12.084 0.751 0.988 1691
12.975 0.806 1.050 1439
8.947 0.556 0.766 1097
12.557 0.780 1.021 840
12.977 0.806 1.013 1732
12.095 0.752 0.953 1515
8.965 0.557 0.741 1317
12.552 0.780 0.984 1052
12.988 0.807 0.975 2490
8.974 0.558 0.716 1414
12.247 0.761 0.927 1044
12.554 0.780 0.947 977
12.982 0.807 0.937 3082
8.976 0.558 0.690 1090
12.257 0.762 0.892 947
12.556 0.780 0.911 872
12.985 0.807 0.899 3161
12.267 0.762 0.857 887
12.062 0.749 0.845 820
9.120 0.567 0.672 813
12.987 0.807 0.861 2839
12.064 0.750 0.810 863
12.989 0.807 0.823 2438
12.058 0.749 0.774 891
9.123 0.567 0.619 770
12.991 0.807 0.786 2243
9.132 0.567 0.593 783
12.985 0.807 0.747 1601
12.986 0.807 0.710 876
14.265 0.886 0.766 854
14.261 0.886 0.683 805
14.262 0.886 0.641 761
2.304 0.135 1.754 3651
2.309 0.135 1.748 7303
2.431 0.142 1.835 896
2.313 0.135 1.741 7303
2.436 0.143 1.828 1792
2.337 0.137 1.748 4743
2.460 0.144 1.835 2641
2.452 0.144 1.819 4105
2.329 0.136 1.732 2038
2.366 0.138 1.748 4686
2.490 0.146 1.834 3508
2.074 0.121 1.545 1015
2.371 0.139 1.742 5553
2.514 0.147 1.841 4381
2.078 0.122 1.539 1398
2.376 0.139 1.735 5553
2.525 0.148 1.838 4583
2.082 0.122 1.533 1748
2.530 0.148 1.831 5605
2.380 0.139 1.728 5450
2.087 0.122 1.527 2098
2.535 0.148 1.823 6627
2.385 0.140 1.721 5347
2.091 0.122 1.521 2138
2.514 0.147 1.798 8205
2.390 0.140 1.714 4251
2.095 0.123 1.515 2206
2.512 0.147 1.787 11560
2.388 0.140 1.703 3058
2.099 0.123 1.509 2234
2.517 0.147 1.780 11037
2.392 0.140 1.696 2052
2.103 0.123 1.503 1840
2.522 0.148 1.772 10514
2.107 0.123 1.497 1446
2.397 0.140 1.689 1046
2.527 0.148 1.765 10514
2.110 0.124 1.491 973
2.401 0.141 1.683 799
2.525 0.148 1.754 9493
2.523 0.148 1.742 8673
2.521 0.148 1.731 9837
2.647 0.155 1.812 1032
2.525 0.148 1.723 11057
2.652 0.155 1.804 1699
2.523 0.148 1.712 9648
2.650 0.155 1.793 2613
2.528 0.148 1.705 8337
2.655 0.155 1.785 3136
2.619 0.153 1.752 7164
2.492 0.146 1.672 2821
2.617 0.153 1.740 7496
2.490 0.146 1.661 1972
2.622 0.153 1.733 6905
2.495 0.146 1.654 2154
2.566 0.150 1.688 8382
2.694 0.158 1.767 1391
2.564 0.150 1.677 7518
2.692 0.158 1.755 2004
2.562 0.150 1.665 6736
2.690 0.157 1.743 2868
2.647 0.155 1.707 4822
2.519 0.147 1.629 3218
2.776 0.162 1.785 1368
2.645 0.155 1.695 4376
2.510 0.147 1.614 2964
2.781 0.163 1.777 2010
2.650 0.155 1.688 3652
2.785 0.163 1.769 3409
2.521 0.148 1.611 2773
2.783 0.163 1.757 4810
2.647 0.155 1.676 2945
2.518 0.147 1.599 2472
2.795 0.164 1.753 4800
2.536 0.148 1.600 2341
2.665 0.156 1.676 2298
2.800 0.164 1.745 4794
2.670 0.156 1.669 1836
2.540 0.149 1.593 1664
2.804 0.164 1.737 4142
2.674 0.157 1.661 2128
2.538 0.149 1.582 1240
2.934 0.172 1.812 810
2.720 0.159 1.677 3686
2.850 0.167 1.752 2448
2.528 0.148 1.567 805
2.820 0.165 1.725 4114
2.690 0.157 1.650 1517
2.951 0.173 1.799 1123
2.839 0.166 1.724 4612
2.708 0.159 1.650 1749
2.969 0.174 1.799 1131
2.885 0.169 1.739 4723
2.740 0.160 1.658 1581
2.889 0.169 1.731 5347
2.738 0.160 1.646 1185
2.901 0.170 1.727 5981
2.728 0.160 1.630 845
2.905 0.170 1.718 4663
2.952 0.173 1.733 3968
2.820 0.165 1.661 1695
3.083 0.180 1.805 886
2.921 0.171 1.706 3621
3.053 0.179 1.778 1554
3.016 0.177 1.746 3400
2.884 0.169 1.675 1891
3.021 0.177 1.738 4561
2.889 0.169 1.666 1664
3.033 0.178 1.733 6247
2.900 0.170 1.662 1871
3.037 0.178 1.724 8106
2.905 0.170 1.653 2027
3.042 0.178 1.715 9157
2.909 0.170 1.645 1940
3.039 0.178 1.703 13277
2.906 0.170 1.633 1140
3.173 0.186 1.772 953
3.037 0.178 1.690 16834
3.170 0.186 1.760 1156
3.049 0.178 1.685 20610
3.182 0.186 1.754 1726
3.053 0.179 1.676 21031
3.187 0.187 1.745 2650
3.050 0.179 1.664 17633
3.184 0.186 1.732 3388
3.062 0.179 1.659 16783
3.196 0.187 1.727 2591
3.073 0.180 1.654 18175
3.208 0.188 1.721 1720
2.932 0.172 1.583 776
3.078 0.180 1.645 20235
3.212 0.188 1.712 2100
2.929 0.171 1.571 1110
3.146 0.184 1.668 20533
3.011 0.176 1.601 1917
3.309 0.194 1.748 1397
3.143 0.184 1.655 21390
3.008 0.176 1.589 1794
3.307 0.194 1.735 1543
3.148 0.184 1.646 21359
3.311 0.194 1.726 1944
3.013 0.176 1.580 1854
3.159 0.185 1.640 19765
3.323 0.194 1.720 2813
3.024 0.177 1.575 2102
3.458 0.202 1.785 759
3.171 0.186 1.635 23119
3.349 0.196 1.720 4125
3.035 0.178 1.570 1534
3.484 0.204 1.785 1184
3.175 0.186 1.626 27416
3.361 0.197 1.714 5029
3.496 0.205 1.779 1399
3.039 0.178 1.561 1201
3.179 0.186 1.616 27034
3.365 0.197 1.704 4864
3.501 0.205 1.769 1921
3.044 0.178 1.552 1566
3.191 0.187 1.611 23498
3.355 0.196 1.688 7023
3.499 0.205 1.755 3297
3.055 0.179 1.547 1955
3.195 0.187 1.601 14924
3.346 0.196 1.672 9038
3.489 0.204 1.738 4396
3.009 0.176 1.515 2217
3.199 0.187 1.592 9668
3.350 0.196 1.662 9107
3.508 0.205 1.735 4563
2.998 0.175 1.499 2014
3.354 0.196 1.652 8869
3.196 0.187 1.580 7299
3.534 0.207 1.735 4199
3.002 0.176 1.491 1779
3.366 0.197 1.646 7022
3.193 0.187 1.567 4806
3.539 0.207 1.725 4049
3.006 0.176 1.482 1557
3.529 0.207 1.708 5302
3.363 0.197 1.633 3869
3.198 0.187 1.558 3386
3.010 0.176 1.474 1508
3.534 0.207 1.698 5931
3.396 0.199 1.636 2922
3.007 0.176 1.462 1986
3.202 0.187 1.549 1596
3.538 0.207 1.688 5410
3.401 0.199 1.626 3163
3.011 0.176 1.453 2308
3.675 0.215 1.749 1364
3.550 0.208 1.681 4010
3.412 0.200 1.620 2795
3.015 0.176 1.444 2395
3.687 0.216 1.741 1477
3.612 0.211 1.696 4663
3.018 0.177 1.436 2306
3.424 0.200 1.613 1209
3.750 0.219 1.756 1053
3.631 0.213 1.692 6562
3.029 0.177 1.430 1878
3.769 0.221 1.751 885
3.643 0.213 1.684 6896
3.033 0.178 1.421 1407
3.655 0.214 1.677 6291
3.037 0.178 1.413 933
3.659 0.214 1.666 5775
3.797 0.222 1.725 1558
3.744 0.219 1.689 4724
3.605 0.211 1.631 2220
3.882 0.227 1.748 1037
3.748 0.219 1.679 8029
3.610 0.211 1.621 1740
3.887 0.228 1.736 899
3.760 0.220 1.671 9360
3.621 0.212 1.613 1389
3.899 0.228 1.728 845
3.772 0.221 1.663 9300
3.633 0.213 1.606 1385
3.911 0.229 1.720 1038
3.769 0.221 1.649 7771
3.908 0.229 1.706 1349
3.630 0.212 1.593 1291
3.861 0.226 1.674 6206
3.722 0.218 1.618 1592
3.880 0.227 1.669 9097
3.741 0.219 1.613 1004
3.892 0.228 1.660 7644
3.904 0.229 1.652 5674
3.908 0.229 1.641 6420
3.898 0.228 1.624 6172
3.888 0.228 1.607 5949
3.884 0.227 1.593 5468
3.881 0.227 1.579 4485
3.945 0.231 1.590 3789
3.949 0.231 1.578 4837
3.953 0.231 1.567 5831
3.965 0.232 1.558 4135
3.976 0.233 1.549 2600
3.965 0.232 1.533 3705
3.962 0.232 1.519 6964
3.973 0.233 1.510 9643
3.985 0.233 1.501 11114
4.004 0.234 1.494 12497
4.015 0.235 1.485 13129
4.019 0.235 1.474 10808
4.008 0.235 1.457 10201
4.012 0.235 1.446 11847
4.031 0.236 1.439 11311
4.042 0.237 1.430 9975
4.023 0.235 1.411 10581
4.027 0.236 1.399 10614
4.038 0.236 1.390 6941
4.049 0.237 1.381 5840
4.053 0.237 1.369 8583
4.064 0.238 1.360 8775
4.067 0.238 1.348 5679
4.063 0.238 1.334 3212
4.067 0.238 1.322 1857
4.085 0.239 1.315 1500
4.096 0.240 1.305 3527
4.092 0.240 1.291 5733
4.073 0.238 1.273 6273
4.084 0.239 1.263 5541
4.117 0.241 1.260 8739
4.105 0.240 1.244 8180
4.086 0.239 1.226 4816
4.089 0.239 1.214 5380
6.013 0.352 1.727 1173
4.100 0.240 1.204 6040
6.010 0.352 1.708 3027
5.827 0.341 1.660 834
6.015 0.352 1.690 4666
4.118 0.241 1.197 3361
5.839 0.342 1.645 1226
6.020 0.352 1.673 4618
4.167 0.244 1.197 2920
4.022 0.235 1.159 1899
5.828 0.341 1.624 1550
6.009 0.352 1.652 4726
4.170 0.244 1.184 3603
5.733 0.336 1.582 2740
4.025 0.236 1.148 2478
6.021 0.352 1.636 5645
5.737 0.336 1.565 4428
4.181 0.245 1.174 2624
4.020 0.235 1.134 2482
6.048 0.354 1.624 4890
5.749 0.336 1.550 4442
4.023 0.235 1.122 1920
4.168 0.244 1.159 1296
5.761 0.337 1.535 3451
6.114 0.358 1.622 3102
5.906 0.346 1.571 1351
4.171 0.244 1.146 1075
5.757 0.337 1.517 3247
5.903 0.345 1.552 2163
6.126 0.359 1.606 2118
4.174 0.244 1.134 771
5.853 0.343 1.522 5313
6.084 0.356 1.577 1784
5.707 0.334 1.487 1478
5.850 0.342 1.503 7867
6.065 0.355 1.554 1938
3.980 0.233 1.063 1039
5.838 0.342 1.483 10403
5.984 0.350 1.517 2070
6.131 0.359 1.551 1193
3.983 0.233 1.052 1066
5.842 0.342 1.466 10535
5.988 0.350 1.500 1771
6.135 0.359 1.533 1087
6.635 0.388 1.648 936
5.846 0.342 1.449 7151
5.992 0.351 1.482 2072
6.655 0.390 1.632 961
6.994 0.409 1.709 950
5.834 0.341 1.429 4296
5.981 0.350 1.461 3150
6.999 0.410 1.689 1288
6.683 0.391 1.618 953
5.969 0.349 1.441 3611
5.822 0.341 1.408 3246
7.389 0.433 1.753 1623
7.003 0.410 1.668 1505
5.965 0.349 1.422 2882
5.818 0.341 1.390 1890
7.394 0.433 1.732 1635
7.008 0.410 1.648 1463
7.399 0.433 1.710 2166
5.938 0.348 1.398 1792
7.012 0.410 1.628 1244
7.252 0.424 1.679 992
7.411 0.434 1.691 2623
5.895 0.345 1.371 2041
7.759 0.454 1.764 1628
7.612 0.446 1.733 1420
7.764 0.454 1.741 2407
7.617 0.446 1.711 2062
7.416 0.434 1.669 1859
5.937 0.348 1.362 1638
7.768 0.455 1.719 4080
7.621 0.446 1.689 2470
7.428 0.435 1.649 1841
5.941 0.348 1.345 1773
7.781 0.455 1.698 4171
7.633 0.447 1.668 2812
5.945 0.348 1.327 1809
7.432 0.435 1.628 1774
7.793 0.456 1.677 5068
7.646 0.447 1.648 2880
5.956 0.349 1.312 1365
7.444 0.436 1.607 1330
7.790 0.456 1.653 6580
7.953 0.465 1.685 1946
7.642 0.447 1.624 1905
7.456 0.436 1.587 1047
7.794 0.456 1.630 6449
7.965 0.466 1.663 2872
8.198 0.480 1.708 1810
7.647 0.448 1.602 1171
7.814 0.457 1.610 5294
7.977 0.467 1.641 2970
8.202 0.480 1.684 2786
7.457 0.436 1.543 997
7.818 0.458 1.588 4225
8.207 0.480 1.660 3481
7.974 0.467 1.617 2469
7.375 0.432 1.505 986
7.815 0.457 1.563 5518
8.211 0.481 1.636 4110
7.970 0.466 1.592 1607
7.138 0.418 1.439 799
8.208 0.480 1.611 5283
7.819 0.458 1.541 5201
7.982 0.467 1.570 1660
7.375 0.432 1.461 1098
8.220 0.481 1.589 6669
7.830 0.458 1.519 3686
7.994 0.468 1.548 1780
7.379 0.432 1.439 1692
8.232 0.482 1.566 7408
7.842 0.459 1.498 3328
8.683 0.508 1.645 2274
7.375 0.432 1.417 1796
8.228 0.482 1.541 5712
8.680 0.508 1.618 3588
7.846 0.459 1.475 2366
7.153 0.419 1.356 1778
8.668 0.507 1.590 3813
8.224 0.481 1.516 3451
8.466 0.495 1.556 1633
7.842 0.459 1.451 1528
8.704 0.509 1.570 4758
8.493 0.497 1.535 2329
8.259 0.483 1.497 1997
8.891 0.520 1.601 1147
8.700 0.509 1.544 5696
8.497 0.497 1.511 2615
8.255 0.483 1.472 1461
8.848 0.518 1.568 877
8.696 0.509 1.517 3904
8.548 0.500 1.494 2011
8.251 0.483 1.446 1440
8.400 0.492 1.470 1045
8.583 0.502 1.474 3094
8.732 0.511 1.497 1723
8.419 0.493 1.448 1703
8.271 0.484 1.425 879
8.587 0.503 1.449 2465
8.415 0.493 1.422 1994
8.735 0.511 1.471 1710
8.325 0.487 1.384 2202
8.591 0.503 1.424 1746
8.739 0.512 1.446 1315
8.329 0.487 1.360 2194
8.501 0.498 1.385 1920
8.371 0.490 1.341 3064
8.520 0.499 1.362 1651
8.367 0.490 1.316 4310
8.516 0.498 1.337 1536
8.355 0.489 1.289 3600
8.590 0.503 1.322 1375
8.358 0.489 1.265 3891
8.507 0.498 1.285 1103
8.385 0.491 1.244 4533
8.341 0.488 1.213 2951
8.490 0.497 1.232 1279
8.336 0.488 1.188 3106
8.485 0.497 1.207 1108
8.331 0.488 1.163 3512
8.480 0.496 1.181 1155
8.326 0.487 1.138 3704
8.476 0.496 1.156 1106
8.400 0.492 1.122 3173
8.251 0.483 1.104 1194
8.403 0.492 1.097 3635
8.254 0.483 1.080 1820
8.413 0.492 1.074 2449
8.256 0.483 1.056 1697
8.704 0.509 1.106 798
8.971 0.525 1.136 761
8.424 0.493 1.050 1562
8.259 0.483 1.032 1428
8.644 0.506 1.074 1176
8.974 0.525 1.110 835
8.419 0.493 1.025 1992
8.647 0.506 1.049 1517
8.269 0.484 1.009 1342
8.977 0.525 1.084 807
8.413 0.492 0.999 2611
8.649 0.506 1.024 1264
8.264 0.484 0.984 853
8.416 0.493 0.975 2209
8.652 0.506 0.999 971
8.410 0.492 0.950 1506
8.662 0.507 0.974 895
8.961 0.524 1.003 806
8.948 0.524 0.976 1299
8.657 0.507 0.948 939
8.413 0.492 0.925 846
8.934 0.523 0.948 1629
8.714 0.510 0.928 972
8.929 0.523 0.922 1670
8.724 0.511 0.904 1286
9.018 0.528 0.903 1228
8.726 0.511 0.878 1193
9.099 0.533 0.883 1373
8.713 0.510 0.852 900
9.093 0.532 0.856 1463
8.943 0.523 0.844 966
12.969 0.759 1.164 856
8.985 0.526 0.821 1682
12.980 0.760 1.127 1253
12.082 0.707 1.058 1168
12.255 0.717 1.071 840
12.084 0.707 1.023 1624
8.979 0.526 0.795 1542
12.983 0.760 1.089 1542
12.258 0.717 1.036 1190
12.087 0.707 0.988 1785
12.978 0.760 1.050 1652
8.973 0.525 0.768 1437
12.268 0.718 1.000 1391
12.980 0.760 1.013 2019
8.975 0.525 0.742 1680
12.097 0.708 0.953 1646
9.124 0.534 0.752 1371
12.991 0.760 0.975 3009
8.984 0.526 0.716 1926
9.134 0.535 0.726 1390
12.557 0.735 0.947 1167
12.993 0.760 0.937 3752
8.978 0.525 0.690 1535
9.128 0.534 0.699 1206
12.559 0.735 0.911 1035
12.995 0.761 0.900 3869
9.129 0.534 0.672 1031
12.554 0.735 0.874 849
12.990 0.760 0.861 3336
9.131 0.534 0.646 1077
12.992 0.760 0.823 2748
9.132 0.535 0.619 1076
12.986 0.760 0.785 2506
9.126 0.534 0.592 1007
14.312 0.838 0.852 847
12.988 0.760 0.747 1876
14.306 0.837 0.809 1040
9.111 0.533 0.565 823
12.989 0.760 0.710 1090
14.300 0.837 0.767 1082
14.294 0.837 0.725 976
14.280 0.836 0.683 789
2.298 0.127 1.750 3759
2.303 0.127 1.743 7519
2.425 0.134 1.830 1046
2.097 0.116 1.596 1031
2.307 0.127 1.736 7519
2.430 0.134 1.823 2092
2.095 0.116 1.585 1033
2.312 0.128 1.730 5027
2.448 0.135 1.826 2840
2.099 0.116 1.579 946
2.459 0.136 1.823 3964
2.336 0.129 1.737 3086
2.097 0.116 1.569 850
2.360 0.130 1.744 4304
2.484 0.137 1.830 3500
2.081 0.115 1.549 859
2.365 0.131 1.737 5505
2.514 0.139 1.841 4211
2.079 0.115 1.539 1028
2.370 0.131 1.730 5505
2.519 0.139 1.833 4325
2.083 0.115 1.533 1280
2.374 0.131 1.723 5647
2.531 0.140 1.831 4796
2.080 0.115 1.523 1540
2.385 0.132 1.721 5796
2.536 0.140 1.823 5348
2.084 0.115 1.517 1645
2.495 0.138 1.785 7987
2.370 0.131 1.701 3863
2.088 0.115 1.511 1810
2.506 0.138 1.782 11649
2.381 0.131 1.699 3131
2.092 0.116 1.505 1868
2.511 0.139 1.775 11052
2.386 0.132 1.692 1961
2.096 0.116 1.499 1713
2.516 0.139 1.768 10455
2.100 0.116 1.493 1557
2.390 0.132 1.685 790
2.520 0.139 1.761 10455
2.104 0.116 1.487 1183
2.525 0.139 1.754 9375
2.115 0.117 1.485 839
2.517 0.139 1.738 8385
2.515 0.139 1.726 9859
2.641 0.146 1.808 1102
2.519 0.139 1.719 11399
2.646 0.146 1.800 1792
2.524 0.139 1.712 10686
2.651 0.146 1.793 2282
2.528 0.140 1.705 9973
2.655 0.147 1.785 2772
2.540 0.140 1.702 8183
2.667 0.147 1.782 1713
2.591 0.143 1.724 6897
2.732 0.151 1.812 774
2.555 0.141 1.691 7459
2.683 0.148 1.770 1216
2.560 0.141 1.684 8245
2.688 0.148 1.763 1615
2.564 0.142 1.677 7380
2.693 0.149 1.755 2043
2.562 0.141 1.665 6625
2.691 0.149 1.743 3273
2.655 0.147 1.711 5834
2.526 0.139 1.633 3338
2.783 0.154 1.789 1405
2.652 0.146 1.699 5319
2.510 0.139 1.614 2880
2.781 0.154 1.777 2107
2.650 0.146 1.688 3929
2.779 0.153 1.765 3541
2.521 0.139 1.611 2729
2.784 0.154 1.757 4963
2.641 0.146 1.672 2782
2.512 0.139 1.595 2214
2.795 0.154 1.753 5018
2.536 0.140 1.600 2358
2.666 0.147 1.676 2106
2.800 0.155 1.745 5076
2.670 0.147 1.669 1855
2.541 0.140 1.593 1695
2.805 0.155 1.737 4408
2.675 0.148 1.661 2169
2.545 0.141 1.586 1225
2.935 0.162 1.812 768
2.816 0.156 1.733 3763
2.686 0.148 1.657 2200
2.535 0.140 1.570 768
2.821 0.156 1.725 4553
2.691 0.149 1.650 1380
2.951 0.163 1.799 947
2.819 0.156 1.713 5225
2.949 0.163 1.787 1210
2.688 0.148 1.638 863
2.823 0.156 1.704 5164
2.954 0.163 1.778 1111
2.869 0.158 1.720 5451
2.738 0.151 1.646 1141
3.000 0.166 1.793 809
2.881 0.159 1.715 6016
2.749 0.152 1.642 1060
3.012 0.166 1.788 785
2.892 0.160 1.711 5226
3.024 0.167 1.784 1004
2.761 0.152 1.638 830
2.904 0.160 1.706 4592
3.035 0.168 1.779 1138
2.915 0.161 1.702 5500
3.047 0.168 1.774 1353
2.920 0.161 1.693 5381
3.052 0.169 1.765 1977
3.008 0.166 1.730 5707
2.875 0.159 1.659 2397
3.026 0.167 1.729 7028
2.894 0.160 1.658 3462
3.038 0.168 1.724 8842
2.905 0.160 1.653 4060
3.042 0.168 1.715 9667
2.910 0.161 1.645 3763
3.040 0.168 1.703 12655
2.907 0.161 1.633 2369
3.173 0.175 1.772 904
3.038 0.168 1.690 15444
2.904 0.160 1.621 1717
3.171 0.175 1.760 967
3.049 0.168 1.685 19490
3.183 0.176 1.754 1574
2.916 0.161 1.616 1463
3.054 0.169 1.676 20360
3.187 0.176 1.745 2561
3.058 0.169 1.668 16968
3.192 0.176 1.736 2700
3.070 0.169 1.662 16701
3.204 0.177 1.730 1732
3.074 0.170 1.654 18794
3.208 0.177 1.721 1716
3.078 0.170 1.645 20783
3.213 0.177 1.712 2031
2.930 0.162 1.571 938
3.147 0.174 1.668 21621
3.012 0.166 1.601 1888
3.310 0.183 1.748 1138
3.144 0.174 1.655 23971
3.009 0.166 1.589 1682
3.314 0.183 1.739 1379
3.148 0.174 1.646 24549
3.312 0.183 1.726 1704
3.013 0.166 1.580 1686
3.160 0.174 1.640 22089
3.331 0.184 1.723 2345
3.025 0.167 1.575 1999
3.466 0.191 1.788 751
3.171 0.175 1.635 26087
3.342 0.185 1.717 3558
3.036 0.168 1.570 1540
3.478 0.192 1.782 1311
3.176 0.175 1.626 32036
3.354 0.185 1.711 4359
3.497 0.193 1.779 1588
3.040 0.168 1.561 1200
3.180 0.176 1.616 33964
3.359 0.185 1.701 5143
3.502 0.193 1.769 2229
3.044 0.168 1.552 1510
3.191 0.176 1.611 32035
3.356 0.185 1.688 7745
3.499 0.193 1.755 3808
3.055 0.169 1.547 1893
3.189 0.176 1.598 21125
3.346 0.185 1.672 8753
3.490 0.193 1.738 5025
3.052 0.169 1.535 1672
3.193 0.176 1.589 14193
3.351 0.185 1.662 8405
3.509 0.194 1.735 5169
3.013 0.166 1.506 1351
3.197 0.177 1.580 10994
3.434 0.190 1.689 8117
3.571 0.197 1.751 3428
3.003 0.166 1.491 1265
3.194 0.176 1.567 7628
3.367 0.186 1.646 5845
3.539 0.195 1.725 4025
3.021 0.167 1.489 1560
3.198 0.177 1.558 5464
3.537 0.195 1.711 4638
3.364 0.186 1.633 3047
3.018 0.167 1.477 1721
3.534 0.195 1.698 5023
3.202 0.177 1.549 2709
3.397 0.188 1.636 2489
3.015 0.166 1.465 1480
3.539 0.195 1.688 4556
3.401 0.188 1.626 2685
3.206 0.177 1.540 1694
3.676 0.203 1.749 1486
3.558 0.196 1.684 3625
3.420 0.189 1.623 2491
3.695 0.204 1.744 1481
3.210 0.177 1.531 1173
3.613 0.199 1.696 4883
3.750 0.207 1.756 1414
3.410 0.188 1.607 995
3.026 0.167 1.439 826
3.632 0.201 1.692 7046
3.770 0.208 1.751 1408
3.644 0.201 1.684 7430
3.782 0.209 1.744 1220
3.655 0.202 1.677 6872
3.794 0.209 1.736 1066
3.660 0.202 1.666 6264
3.798 0.210 1.725 1657
3.745 0.207 1.689 5932
3.606 0.199 1.631 2050
3.883 0.214 1.748 755
3.749 0.207 1.679 9032
3.610 0.199 1.621 1723
3.761 0.208 1.671 9529
3.622 0.200 1.613 1271
3.773 0.208 1.663 9104
3.626 0.200 1.603 1095
3.912 0.216 1.720 806
3.770 0.208 1.649 8011
3.909 0.216 1.706 1367
3.631 0.200 1.593 1028
3.855 0.213 1.671 6914
3.715 0.205 1.615 1248
3.881 0.214 1.669 9219
3.742 0.207 1.613 956
3.886 0.215 1.657 7485
3.890 0.215 1.646 5052
3.894 0.215 1.635 6299
3.884 0.214 1.618 7349
3.881 0.214 1.604 6716
3.885 0.215 1.593 6237
3.897 0.215 1.584 6149
3.908 0.216 1.576 4944
3.913 0.216 1.565 4688
3.939 0.217 1.561 5292
3.958 0.219 1.555 3398
3.977 0.220 1.549 2477
3.966 0.219 1.533 4399
3.963 0.219 1.519 8712
3.974 0.219 1.510 11543
3.986 0.220 1.501 12535
3.997 0.221 1.492 12572
4.009 0.221 1.483 11326
4.012 0.222 1.471 7647
4.001 0.221 1.455 9058
4.005 0.221 1.443 12372
4.024 0.222 1.437 11287
4.020 0.222 1.423 11624
4.016 0.222 1.409 15287
4.020 0.222 1.397 14202
4.031 0.223 1.388 7952
4.050 0.224 1.381 4638
4.061 0.224 1.371 6496
4.065 0.224 1.360 8301
4.061 0.224 1.346 7102
4.057 0.224 1.332 4659
4.068 0.225 1.322 2847
4.094 0.226 1.317 2080
4.082 0.225 1.301 3094
4.085 0.226 1.289 5489
4.074 0.225 1.273 5875
4.084 0.226 1.263 5235
4.111 0.227 1.258 8242
4.106 0.227 1.244 7689
4.102 0.226 1.230 4764
4.090 0.226 1.214 4182
5.984 0.330 1.719 928
4.131 0.228 1.213 3724
6.012 0.332 1.708 2077
3.986 0.220 1.174 1069
5.843 0.323 1.664 877
6.016 0.332 1.690 3288
4.149 0.229 1.205 2908
4.004 0.221 1.167 1666
5.756 0.318 1.623 1274
6.013 0.332 1.671 3929
4.022 0.222 1.159 3188
4.183 0.231 1.200 2583
5.829 0.322 1.624 1672
4.025 0.222 1.148 4902
6.017 0.332 1.654 4451
5.742 0.317 1.584 4146
4.186 0.231 1.188 3229
5.746 0.317 1.567 7708
6.022 0.333 1.636 4930
4.028 0.222 1.136 4541
4.189 0.231 1.176 2577
5.750 0.317 1.550 7226
6.026 0.333 1.619 3901
4.023 0.222 1.122 3213
4.200 0.232 1.166 1022
5.762 0.318 1.535 4331
6.053 0.334 1.607 1721
4.026 0.222 1.111 1561
5.908 0.326 1.571 1054
5.750 0.318 1.515 4794
5.896 0.326 1.550 1525
6.142 0.339 1.610 1160
4.137 0.228 1.125 795
5.754 0.318 1.498 5208
5.900 0.326 1.533 2474
6.070 0.335 1.574 945
5.843 0.323 1.502 7109
6.066 0.335 1.554 1080
5.697 0.315 1.467 925
5.839 0.322 1.483 9317
5.985 0.330 1.517 1146
5.843 0.323 1.466 9155
5.989 0.331 1.500 936
5.847 0.323 1.449 6302
5.993 0.331 1.482 1448
5.828 0.322 1.427 4058
5.974 0.330 1.460 2915
7.000 0.387 1.689 856
5.816 0.321 1.407 3355
5.970 0.330 1.441 3090
7.005 0.387 1.668 1018
7.391 0.408 1.753 1009
5.812 0.321 1.388 2649
5.959 0.329 1.420 2310
7.388 0.408 1.730 1103
7.009 0.387 1.648 1008
5.924 0.327 1.395 1894
5.777 0.319 1.363 1574
7.400 0.409 1.710 1531
7.014 0.387 1.628 871
5.904 0.326 1.372 2173
7.412 0.409 1.691 1857
7.621 0.421 1.735 1470
7.768 0.429 1.766 1167
7.634 0.422 1.714 2195
7.781 0.430 1.745 1743
5.853 0.323 1.344 1593
7.301 0.403 1.645 1386
7.762 0.429 1.717 3484
7.615 0.420 1.687 2435
5.942 0.328 1.345 1502
7.421 0.410 1.647 1208
7.774 0.429 1.696 4021
7.627 0.421 1.667 2826
5.953 0.329 1.329 1809
7.418 0.410 1.624 1215
7.794 0.430 1.677 5895
7.647 0.422 1.648 3128
5.965 0.329 1.313 1446
7.422 0.410 1.603 1218
7.791 0.430 1.653 7931
7.644 0.422 1.624 1914
7.217 0.398 1.540 1281
7.939 0.438 1.681 1234
7.795 0.430 1.630 6649
7.229 0.399 1.521 1548
7.966 0.440 1.663 1538
8.199 0.453 1.708 1313
7.823 0.432 1.612 4657
8.211 0.453 1.685 2161
7.241 0.400 1.501 1615
7.978 0.441 1.641 1527
7.820 0.432 1.588 3816
8.208 0.453 1.660 2878
7.975 0.440 1.617 1385
7.377 0.407 1.505 1258
7.808 0.431 1.562 5275
8.213 0.453 1.636 3550
7.147 0.395 1.441 2040
7.388 0.408 1.485 1041
7.812 0.431 1.539 5101
8.209 0.453 1.611 4499
7.143 0.394 1.419 2448
7.377 0.407 1.461 1386
8.229 0.454 1.590 5658
7.832 0.432 1.519 3875
7.139 0.394 1.396 2292
7.373 0.407 1.438 2112
8.233 0.455 1.566 6610
7.844 0.433 1.498 3640
7.376 0.407 1.417 2205
8.685 0.480 1.645 2114
8.229 0.454 1.541 4930
8.681 0.479 1.618 3244
7.840 0.433 1.474 2394
7.045 0.389 1.338 2045
8.686 0.480 1.593 3633
8.226 0.454 1.516 2810
7.844 0.433 1.451 1395
7.384 0.408 1.374 1341
8.698 0.480 1.569 4238
8.510 0.470 1.538 2470
8.269 0.457 1.498 1931
8.893 0.491 1.601 1068
8.702 0.480 1.544 4595
8.507 0.470 1.512 2930
8.265 0.456 1.473 1370
7.001 0.387 1.267 1028
8.690 0.480 1.516 3218
8.542 0.472 1.492 2192
7.004 0.387 1.247 1258
8.253 0.456 1.446 1210
8.585 0.474 1.474 3199
8.413 0.465 1.447 2000
8.733 0.482 1.497 1368
6.999 0.386 1.226 984
8.409 0.464 1.421 2373
8.589 0.474 1.449 2337
8.737 0.482 1.471 1214
6.963 0.384 1.199 877
8.319 0.459 1.383 2244
8.592 0.474 1.424 1703
8.749 0.483 1.447 858
8.424 0.465 1.373 2468
8.596 0.475 1.399 1508
8.276 0.457 1.351 1387
8.396 0.464 1.344 3176
8.545 0.472 1.366 1273
8.248 0.455 1.323 836
8.376 0.463 1.317 4167
8.525 0.471 1.338 1685
8.388 0.463 1.293 3286
8.536 0.471 1.314 1147
8.239 0.455 1.273 1040
8.360 0.462 1.265 3063
8.508 0.470 1.285 946
8.211 0.453 1.245 897
8.379 0.463 1.243 3389
8.230 0.454 1.223 1169
8.343 0.461 1.213 3029
8.491 0.469 1.232 882
8.194 0.452 1.194 760
8.330 0.460 1.187 3450
8.479 0.468 1.206 826
8.325 0.460 1.162 3999
8.474 0.468 1.180 760
8.328 0.460 1.138 4149
8.394 0.463 1.121 2978
8.245 0.455 1.103 1500
8.404 0.464 1.097 3266
8.255 0.456 1.080 2650
8.250 0.456 1.055 2520
8.415 0.465 1.074 2201
8.253 0.456 1.031 2130
8.426 0.465 1.050 1546
8.653 0.478 1.075 988
8.984 0.496 1.111 822
8.420 0.465 1.025 2141
8.263 0.456 1.008 1833
8.648 0.478 1.049 1269
8.986 0.496 1.085 913
8.415 0.465 0.999 2848
8.651 0.478 1.024 1103
8.266 0.456 0.984 1085
8.410 0.464 0.974 2358
8.559 0.473 0.989 1074
8.412 0.464 0.950 1728
8.656 0.478 0.973 1016
8.406 0.464 0.925 1043
8.658 0.478 0.948 1036
8.950 0.494 0.976 989
8.944 0.494 0.949 1454
8.731 0.482 0.930 1150
8.946 0.494 0.923 1664
8.734 0.482 0.904 1528
9.096 0.502 0.936 779
8.736 0.482 0.879 1387
8.941 0.494 0.896 1239
9.106 0.503 0.910 946
9.108 0.503 0.884 1357
8.722 0.482 0.852 1155
8.888 0.491 0.866 788
9.103 0.503 0.857 1225
8.716 0.481 0.826 1136
8.953 0.494 0.845 996
12.972 0.716 1.164 978
8.955 0.494 0.819 1401
12.982 0.717 1.127 1369
8.711 0.481 0.800 1166
12.084 0.667 1.058 1073
12.985 0.717 1.089 1591
12.087 0.667 1.023 1463
8.973 0.495 0.794 1299
8.720 0.482 0.776 1040
12.980 0.717 1.050 1693
12.089 0.668 0.988 1613
8.974 0.496 0.768 1180
9.274 0.512 0.789 1077
12.983 0.717 1.013 2073
12.099 0.668 0.953 1561
8.976 0.496 0.742 1471
12.557 0.693 0.984 1085
12.993 0.717 0.975 3267
8.986 0.496 0.716 1898
12.559 0.693 0.947 996
9.136 0.504 0.726 934
12.995 0.718 0.937 4166
8.988 0.496 0.690 1612
9.137 0.505 0.699 893
12.562 0.694 0.911 842
12.998 0.718 0.900 4179
9.131 0.504 0.672 987
8.973 0.495 0.663 928
12.992 0.717 0.861 3401
9.125 0.504 0.645 1003
12.986 0.717 0.823 2855
9.103 0.503 0.618 978
12.988 0.717 0.785 2607
9.104 0.503 0.591 963
12.998 0.718 0.748 1962
9.113 0.503 0.565 797
12.992 0.717 0.710 1106
14.410 0.796 0.646 788
2.299 0.118 1.750 3720
2.303 0.118 1.743 7440
2.426 0.124 1.830 1148
2.097 0.107 1.596 939
2.308 0.118 1.736 7440
2.430 0.124 1.823 2296
2.095 0.107 1.585 940
2.313 0.118 1.730 5779
2.448 0.125 1.826 2804
2.099 0.108 1.579 902
2.324 0.119 1.728 4326
2.460 0.126 1.823 3818
2.103 0.108 1.573 861
2.348 0.120 1.735 4587
2.478 0.127 1.825 3620
2.101 0.108 1.563 883
2.365 0.121 1.737 5524
2.509 0.128 1.836 4156
2.099 0.108 1.552 954
2.370 0.121 1.730 5524
2.513 0.129 1.829 4156
2.090 0.107 1.538 1379
2.375 0.122 1.723 5879
2.518 0.129 1.822 4087
2.094 0.107 1.532 1854
2.379 0.122 1.717 6235
2.517 0.129 1.810 4072
2.091 0.107 1.521 1920
2.489 0.127 1.781 8004
2.364 0.121 1.697 3730
2.095 0.107 1.515 1970
2.500 0.128 1.778 11224
2.375 0.122 1.694 3029
2.093 0.107 1.505 1944
2.505 0.128 1.771 10582
2.380 0.122 1.687 1861
2.097 0.107 1.499 1715
2.516 0.129 1.768 10075
2.094 0.107 1.489 1500
2.521 0.129 1.761 10075
2.105 0.108 1.487 1168
2.519 0.129 1.749 8842
2.115 0.108 1.485 858
2.517 0.129 1.738 7775
2.106 0.108 1.471 750
2.515 0.129 1.726 9467
2.641 0.135 1.808 963
2.520 0.129 1.719 11129
2.646 0.136 1.800 1552
2.094 0.107 1.446 785
2.524 0.129 1.712 11075
2.651 0.136 1.793 2020
2.097 0.107 1.440 852
2.529 0.130 1.705 11022
2.656 0.136 1.785 2488
2.108 0.108 1.438 812
2.540 0.130 1.702 9215
2.667 0.137 1.782 1526
2.112 0.108 1.432 791
2.551 0.131 1.699 7609
2.556 0.131 1.691 7550
2.684 0.137 1.770 1117
2.561 0.131 1.684 7492
2.688 0.138 1.763 1554
2.565 0.131 1.677 6724
2.693 0.138 1.755 2014
2.651 0.136 1.719 6826
2.522 0.129 1.640 3755
2.779 0.142 1.797 785
2.655 0.136 1.711 6144
2.527 0.129 1.633 3040
2.784 0.143 1.789 1299
2.653 0.136 1.699 5490
2.511 0.129 1.614 2634
2.782 0.142 1.777 1850
2.651 0.136 1.688 3833
2.780 0.142 1.765 3260
2.522 0.129 1.611 2495
2.784 0.143 1.757 4661
2.642 0.135 1.672 2615
2.512 0.129 1.595 2011
2.796 0.143 1.753 4821
2.537 0.130 1.600 2138
2.666 0.137 1.676 2030
2.801 0.143 1.745 5033
2.671 0.137 1.669 1969
2.541 0.130 1.593 1545
2.805 0.144 1.737 4459
2.675 0.137 1.661 2272
2.545 0.130 1.586 1108
2.817 0.144 1.733 3965
2.687 0.138 1.657 2216
2.821 0.145 1.725 4833
2.691 0.138 1.650 1325
2.840 0.145 1.724 5615
2.709 0.139 1.650 1272
2.851 0.146 1.720 5690
2.721 0.139 1.646 929
2.863 0.147 1.716 6303
2.732 0.140 1.642 1141
2.874 0.147 1.711 7012
2.743 0.141 1.638 1260
3.006 0.154 1.785 809
2.886 0.148 1.707 7313
3.017 0.155 1.780 1164
2.754 0.141 1.634 1003
2.897 0.148 1.702 7899
3.029 0.155 1.775 1388
2.909 0.149 1.698 9040
3.041 0.156 1.770 1454
2.913 0.149 1.690 8708
3.045 0.156 1.761 2053
3.001 0.154 1.726 7409
2.869 0.147 1.655 2799
3.013 0.154 1.721 7740
2.880 0.148 1.650 3931
3.032 0.155 1.720 8608
2.899 0.148 1.650 6079
3.043 0.156 1.715 9197
2.910 0.149 1.645 6284
3.048 0.156 1.706 11399
2.915 0.149 1.637 4665
3.181 0.163 1.776 758
3.038 0.156 1.690 13213
2.905 0.149 1.621 2874
3.172 0.162 1.760 986
3.057 0.157 1.689 17473
2.923 0.150 1.620 2773
3.190 0.163 1.758 1316
3.061 0.157 1.680 18711
3.195 0.164 1.749 1982
2.928 0.150 1.612 1529
3.059 0.157 1.668 15551
3.193 0.164 1.736 2629
2.925 0.150 1.600 1021
3.070 0.157 1.662 16041
3.204 0.164 1.730 1762
2.936 0.150 1.595 848
3.082 0.158 1.657 18419
3.216 0.165 1.725 1319
2.940 0.151 1.586 819
3.086 0.158 1.648 20230
3.221 0.165 1.715 1507
2.937 0.150 1.574 1075
3.140 0.161 1.664 21207
3.005 0.154 1.597 1310
3.152 0.161 1.658 24829
3.017 0.155 1.592 2225
3.308 0.169 1.735 1049
3.156 0.162 1.649 25865
3.021 0.155 1.584 2315
3.313 0.170 1.726 1388
3.160 0.162 1.640 22740
3.331 0.171 1.723 1886
3.025 0.155 1.575 1851
3.172 0.162 1.635 27156
3.343 0.171 1.717 3019
3.037 0.156 1.570 1501
3.493 0.179 1.789 1325
3.169 0.162 1.622 34661
3.355 0.172 1.711 3734
3.498 0.179 1.779 1662
3.034 0.155 1.558 1056
3.181 0.163 1.616 39206
3.359 0.172 1.701 5201
3.502 0.179 1.769 2528
3.045 0.156 1.552 1346
3.185 0.163 1.607 39314
3.364 0.172 1.691 7866
3.500 0.179 1.755 4359
3.049 0.156 1.543 1621
3.189 0.163 1.598 26504
3.361 0.172 1.678 8036
3.497 0.179 1.742 5484
3.053 0.156 1.535 1570
3.193 0.164 1.589 18138
3.430 0.176 1.698 7672
3.567 0.183 1.762 2132
3.000 0.154 1.499 1247
3.198 0.164 1.580 14214
3.435 0.176 1.689 8100
3.571 0.183 1.751 3434
3.004 0.154 1.491 1401
3.195 0.164 1.567 10150
3.439 0.176 1.679 5918
3.576 0.183 1.741 3670
3.008 0.154 1.482 1682
3.199 0.164 1.558 7380
3.530 0.181 1.708 3988
3.393 0.174 1.646 2348
3.019 0.155 1.477 1718
3.535 0.181 1.698 4370
3.203 0.164 1.549 3753
3.398 0.174 1.636 1847
3.015 0.154 1.465 1242
3.539 0.181 1.688 4009
3.207 0.164 1.540 2353
3.402 0.174 1.626 2027
3.677 0.188 1.749 1589
3.566 0.183 1.687 3405
3.428 0.176 1.626 2050
3.211 0.164 1.531 1606
3.703 0.190 1.748 1389
3.606 0.185 1.692 4514
3.744 0.192 1.753 2047
3.020 0.155 1.436 956
3.396 0.174 1.601 947
3.640 0.186 1.695 6647
3.778 0.194 1.755 1547
3.502 0.179 1.635 997
3.023 0.155 1.427 952
3.652 0.187 1.687 7148
3.790 0.194 1.747 1416
3.514 0.180 1.628 1249
3.034 0.155 1.421 932
3.656 0.187 1.677 6847
3.794 0.194 1.736 1621
3.518 0.180 1.618 972
3.038 0.156 1.413 802
3.661 0.188 1.666 6456
3.799 0.195 1.725 1841
3.753 0.192 1.692 6535
3.614 0.185 1.634 2363
3.750 0.192 1.679 9153
3.611 0.185 1.621 1611
3.762 0.193 1.671 8833
3.623 0.186 1.613 1087
3.900 0.200 1.728 850
3.773 0.193 1.663 7973
3.912 0.200 1.720 915
3.634 0.186 1.606 769
3.778 0.194 1.652 7468
3.917 0.201 1.709 1203
3.856 0.197 1.671 7241
3.716 0.190 1.615 1136
3.875 0.198 1.666 9419
3.872 0.198 1.651 7739
3.883 0.199 1.643 4825
3.888 0.199 1.632 6267
3.885 0.199 1.618 8506
3.889 0.199 1.607 7314
3.893 0.199 1.596 7172
3.898 0.200 1.584 8429
3.909 0.200 1.576 6774
3.913 0.200 1.565 5443
3.932 0.201 1.559 4961
3.944 0.202 1.550 2627
3.978 0.204 1.549 1941
3.960 0.203 1.530 4635
3.964 0.203 1.519 10087
3.975 0.204 1.510 12891
4.154 0.213 1.572 787
3.987 0.204 1.501 12561
3.998 0.205 1.492 11408
4.002 0.205 1.480 9622
3.998 0.205 1.466 7891
3.987 0.204 1.450 11102
4.006 0.205 1.443 13211
4.017 0.206 1.434 10445
4.014 0.206 1.420 12231
4.017 0.206 1.409 18121
4.021 0.206 1.397 16566
4.025 0.206 1.385 9428
4.036 0.207 1.376 4700
4.062 0.208 1.371 5225
4.058 0.208 1.357 7714
4.054 0.208 1.343 8531
4.057 0.208 1.332 6279
4.076 0.209 1.324 3617
4.095 0.210 1.317 2319
4.083 0.209 1.301 2614
4.079 0.209 1.287 4340
4.074 0.209 1.273 4494
4.085 0.209 1.263 4318
4.104 0.210 1.256 6569
4.107 0.210 1.244 6201
4.118 0.211 1.234 4896
3.973 0.204 1.195 803
4.113 0.211 1.220 4187
3.968 0.203 1.182 809
5.947 0.305 1.709 752
4.140 0.212 1.215 4544
3.994 0.205 1.176 1439
6.005 0.308 1.706 1244
5.738 0.294 1.635 838
4.143 0.212 1.203 4059
6.017 0.308 1.690 1973
5.742 0.294 1.619 1511
3.997 0.205 1.165 1202
4.023 0.206 1.159 4267
6.022 0.308 1.673 2627
4.184 0.214 1.200 2514
5.739 0.294 1.600 2346
4.026 0.206 1.148 7605
5.743 0.294 1.584 5491
6.019 0.308 1.654 3057
4.195 0.215 1.190 2438
5.747 0.294 1.567 10630
4.029 0.206 1.136 6386
6.023 0.309 1.636 3230
4.190 0.215 1.176 2663
5.751 0.295 1.550 10237
4.024 0.206 1.122 3967
6.020 0.308 1.617 2561
4.185 0.214 1.162 1527
5.771 0.296 1.537 5737
4.019 0.206 1.109 1943
6.032 0.309 1.601 1150
4.165 0.213 1.145 871
5.752 0.295 1.515 6106
4.138 0.212 1.125 1165
5.898 0.302 1.550 902
6.044 0.310 1.586 796
5.756 0.295 1.498 6146
5.902 0.302 1.533 1597
4.133 0.212 1.111 970
5.844 0.299 1.502 5526
5.698 0.292 1.467 1400
5.825 0.298 1.479 6980
5.971 0.306 1.513 779
5.844 0.299 1.466 6278
5.840 0.299 1.447 4482
5.987 0.307 1.481 1094
5.829 0.299 1.427 3187
5.975 0.306 1.460 2064
5.964 0.305 1.439 2308
5.817 0.298 1.407 2155
5.798 0.297 1.385 2785
5.960 0.305 1.420 1669
5.793 0.297 1.366 2816
5.940 0.304 1.398 1599
7.402 0.379 1.710 856
6.087 0.312 1.429 836
5.874 0.301 1.366 2034
7.623 0.390 1.735 1212
7.406 0.379 1.689 1053
6.099 0.312 1.413 969
5.847 0.299 1.342 1888
7.635 0.391 1.714 1850
7.782 0.399 1.745 1242
6.102 0.313 1.396 998
7.764 0.398 1.717 2776
7.617 0.390 1.687 2149
5.850 0.300 1.326 2008
6.114 0.313 1.379 898
7.768 0.398 1.695 3729
7.621 0.390 1.665 2253
5.869 0.301 1.312 1815
7.420 0.380 1.624 1081
7.788 0.399 1.675 6149
7.641 0.391 1.646 2614
7.416 0.380 1.601 1502
7.214 0.370 1.561 1407
7.785 0.399 1.651 8305
7.219 0.370 1.540 1973
7.638 0.391 1.622 1476
7.413 0.380 1.578 1444
7.789 0.399 1.629 5910
7.230 0.370 1.521 2244
7.424 0.380 1.558 1407
7.642 0.391 1.600 933
7.825 0.401 1.612 3204
7.242 0.371 1.501 2320
8.213 0.421 1.685 1448
7.429 0.381 1.537 1339
7.806 0.400 1.585 2878
8.218 0.421 1.662 2102
7.246 0.371 1.480 1789
7.394 0.379 1.508 1482
7.810 0.400 1.562 4379
7.149 0.366 1.441 2894
8.214 0.421 1.636 2721
7.405 0.379 1.488 1351
7.814 0.400 1.539 4351
7.145 0.366 1.419 3538
8.211 0.421 1.611 3468
7.378 0.378 1.461 1530
8.231 0.422 1.590 4366
7.141 0.366 1.396 3658
7.834 0.401 1.519 3444
7.374 0.378 1.438 2292
8.235 0.422 1.566 5261
7.845 0.402 1.498 3294
7.144 0.366 1.376 3098
7.378 0.378 1.417 2328
8.239 0.422 1.542 3844
8.683 0.445 1.618 2685
7.054 0.361 1.339 2400
7.849 0.402 1.475 2020
8.687 0.445 1.593 3151
8.227 0.421 1.516 1996
7.050 0.361 1.317 1669
7.385 0.378 1.374 1394
8.699 0.446 1.569 3492
8.504 0.436 1.537 2383
8.270 0.424 1.498 1674
6.983 0.358 1.285 1325
8.704 0.446 1.544 3376
8.508 0.436 1.512 2855
6.971 0.357 1.262 1407
8.267 0.423 1.473 1169
8.567 0.439 1.496 2745
8.715 0.446 1.520 2019
8.419 0.431 1.472 1701
7.006 0.359 1.247 1454
8.579 0.439 1.472 3022
8.407 0.431 1.446 2346
6.970 0.357 1.221 1196
8.727 0.447 1.496 1015
8.403 0.430 1.420 2969
8.590 0.440 1.449 1994
6.973 0.357 1.200 1017
8.739 0.448 1.471 762
8.414 0.431 1.397 2465
8.594 0.440 1.424 1459
7.015 0.359 1.186 1033
8.266 0.423 1.374 834
8.426 0.432 1.373 2849
8.277 0.424 1.351 1802
8.590 0.440 1.398 1405
7.026 0.360 1.167 858
8.406 0.431 1.345 3347
8.257 0.423 1.324 1521
8.555 0.438 1.367 1108
8.386 0.430 1.318 3545
8.237 0.422 1.297 1529
8.535 0.437 1.339 1516
8.397 0.430 1.294 2901
8.248 0.423 1.274 1705
8.546 0.438 1.315 917
8.401 0.430 1.270 2222
8.197 0.420 1.242 1844
8.294 0.425 1.231 2500
8.443 0.432 1.251 1238
8.297 0.425 1.207 2815
8.446 0.433 1.226 963
8.332 0.427 1.187 3455
8.183 0.419 1.168 929
8.327 0.427 1.162 4128
8.178 0.419 1.143 901
8.330 0.427 1.138 4106
8.181 0.419 1.120 1255
8.396 0.430 1.121 2593
8.246 0.422 1.103 1950
8.257 0.423 1.080 3372
8.406 0.431 1.097 2665
8.252 0.423 1.055 3269
8.409 0.431 1.073 1885
8.247 0.422 1.030 2827
8.396 0.430 1.047 1557
8.545 0.438 1.063 901
8.249 0.423 1.006 2330
8.406 0.431 1.023 2271
8.658 0.443 1.050 1070
8.417 0.431 0.999 2976
8.260 0.423 0.983 1351
8.566 0.439 1.015 983
8.411 0.431 0.974 2496
8.561 0.439 0.989 1239
8.246 0.422 0.958 875
8.406 0.431 0.949 1990
8.555 0.438 0.964 1082
8.941 0.458 1.001 926
8.241 0.422 0.933 895
8.967 0.459 0.977 1285
8.408 0.431 0.925 1243
8.652 0.443 0.948 1051
8.962 0.459 0.950 1218
8.741 0.448 0.930 1186
8.513 0.436 0.910 870
8.743 0.448 0.905 1545
8.956 0.459 0.924 1167
8.594 0.440 0.892 752
8.738 0.448 0.879 1414
9.100 0.466 0.910 883
8.951 0.458 0.897 778
9.110 0.467 0.884 1447
8.724 0.447 0.852 1324
9.260 0.474 0.896 1005
8.496 0.435 0.833 838
9.105 0.466 0.857 1453
8.718 0.447 0.826 1452
9.254 0.474 0.869 1008
12.974 0.665 1.164 1006
8.996 0.461 0.822 1686
8.712 0.446 0.800 1525
12.985 0.665 1.127 1410
8.468 0.434 0.782 928
8.998 0.461 0.796 1637
12.988 0.665 1.089 1594
8.714 0.446 0.775 1368
12.089 0.619 1.023 1212
12.983 0.665 1.050 1647
12.092 0.619 0.988 1370
9.008 0.461 0.770 1274
8.716 0.446 0.750 830
12.985 0.665 1.013 2060
12.102 0.620 0.953 1332
8.994 0.461 0.743 1251
12.996 0.666 0.975 3360
8.988 0.460 0.716 1624
12.998 0.666 0.937 4276
8.982 0.460 0.690 1446
13.001 0.666 0.900 4164
8.983 0.460 0.664 1102
12.995 0.666 0.861 3228
9.103 0.466 0.644 1138
12.989 0.665 0.823 2684
9.097 0.466 0.617 1391
12.991 0.665 0.785 2362
9.106 0.466 0.591 1318
10.883 0.557 0.680 858
12.993 0.666 0.747 1650
9.115 0.467 0.565 1045
10.876 0.557 0.648 818
12.994 0.666 0.710 977
9.108 0.467 0.538 810
14.520 0.744 0.523 771
2.292 0.110 1.745 3502
2.297 0.111 1.738 7004
2.419 0.116 1.826 1314
2.302 0.111 1.732 7004
2.424 0.117 1.819 2628
2.313 0.111 1.730 6363
2.449 0.118 1.826 2831
2.331 0.112 1.732 6235
2.467 0.119 1.828 3769
2.342 0.113 1.730 5667
2.478 0.119 1.825 3821
2.359 0.113 1.733 5687
2.502 0.120 1.832 4260
2.364 0.114 1.726 5687
2.507 0.121 1.824 4260
2.077 0.100 1.529 948
2.369 0.114 1.719 6081
2.493 0.120 1.804 4046
2.081 0.100 1.523 1191
2.380 0.114 1.717 6568
2.504 0.120 1.801 3837
2.079 0.100 1.512 1388
2.483 0.119 1.776 7830
2.358 0.113 1.692 3493
2.083 0.100 1.506 1743
2.494 0.120 1.774 10258
2.369 0.114 1.690 2799
2.087 0.100 1.500 1882
2.505 0.121 1.771 9562
2.380 0.115 1.687 2064
2.097 0.101 1.499 1875
2.517 0.121 1.768 9019
2.101 0.101 1.493 1880
2.391 0.115 1.685 920
2.521 0.121 1.761 9019
2.098 0.101 1.483 1380
2.396 0.115 1.678 765
2.519 0.121 1.749 7793
2.102 0.101 1.477 894
2.511 0.121 1.733 6837
2.509 0.121 1.722 8590
2.635 0.127 1.803 1087
2.520 0.121 1.719 10287
2.647 0.127 1.800 1348
2.525 0.121 1.712 10782
2.652 0.128 1.793 1787
2.104 0.101 1.444 821
2.529 0.122 1.705 11277
2.656 0.128 1.785 2227
2.108 0.101 1.438 909
2.541 0.122 1.702 9522
2.668 0.128 1.782 1460
2.112 0.102 1.432 996
2.552 0.123 1.699 7897
2.116 0.102 1.426 838
2.679 0.129 1.778 771
2.556 0.123 1.691 7253
2.684 0.129 1.770 1174
2.642 0.127 1.734 6652
2.514 0.121 1.655 3777
2.646 0.127 1.726 6615
2.518 0.121 1.648 3484
2.651 0.128 1.719 6579
2.523 0.121 1.640 3190
2.779 0.134 1.797 787
2.656 0.128 1.711 5920
2.527 0.122 1.633 2626
2.784 0.134 1.789 1077
2.660 0.128 1.703 5261
2.518 0.121 1.618 2299
2.789 0.134 1.781 1367
2.658 0.128 1.692 3624
2.787 0.134 1.769 2623
2.522 0.121 1.611 2165
2.778 0.134 1.753 4040
2.635 0.127 1.668 2459
2.506 0.121 1.591 1494
2.790 0.134 1.749 4364
2.646 0.127 1.664 2116
2.517 0.121 1.588 1519
2.801 0.135 1.745 4803
2.671 0.129 1.669 1961
2.542 0.122 1.593 1318
2.806 0.135 1.737 4385
2.676 0.129 1.661 2239
2.546 0.122 1.586 952
2.824 0.136 1.737 4179
2.694 0.130 1.661 2648
2.870 0.138 1.752 5230
2.740 0.132 1.677 3588
2.868 0.138 1.740 6246
2.737 0.132 1.666 2778
2.859 0.138 1.724 6389
2.728 0.131 1.650 1555
2.863 0.138 1.716 7346
2.732 0.131 1.642 1366
2.875 0.138 1.711 8389
2.744 0.132 1.638 1389
3.006 0.145 1.785 816
2.886 0.139 1.707 9513
3.018 0.145 1.780 1233
2.755 0.133 1.634 1102
2.898 0.139 1.702 11171
3.029 0.146 1.775 1500
2.909 0.140 1.698 12657
3.041 0.146 1.770 1565
2.914 0.140 1.690 12516
3.046 0.147 1.761 2023
2.911 0.140 1.677 10990
3.044 0.146 1.749 3084
2.916 0.140 1.669 10968
3.048 0.147 1.740 4965
2.920 0.140 1.661 10946
3.053 0.147 1.731 6846
2.932 0.141 1.656 10525
3.065 0.147 1.726 7409
3.048 0.147 1.706 9946
2.915 0.140 1.637 6944
3.053 0.147 1.698 10943
2.919 0.140 1.628 5779
3.057 0.147 1.689 14455
2.924 0.141 1.620 4593
3.191 0.153 1.758 1093
3.062 0.147 1.680 15463
2.928 0.141 1.612 2559
3.195 0.154 1.749 1692
3.066 0.148 1.671 12959
3.200 0.154 1.739 1720
2.932 0.141 1.603 1712
3.071 0.148 1.662 14258
3.205 0.154 1.730 1655
2.937 0.141 1.595 1206
3.082 0.148 1.657 17041
3.217 0.155 1.725 1446
2.948 0.142 1.590 904
3.087 0.148 1.648 18387
3.221 0.155 1.715 1583
2.938 0.141 1.574 1066
3.141 0.151 1.664 19106
3.006 0.145 1.597 1234
3.152 0.152 1.658 23855
3.017 0.145 1.592 2217
3.157 0.152 1.649 25403
3.021 0.145 1.584 2220
3.313 0.159 1.726 1027
3.161 0.152 1.640 21870
3.026 0.146 1.575 1650
3.332 0.160 1.723 1463
3.165 0.152 1.631 26997
3.344 0.161 1.717 2544
3.493 0.168 1.789 1215
3.030 0.146 1.566 931
3.170 0.152 1.622 35656
3.348 0.161 1.707 3198
3.505 0.169 1.782 1566
3.013 0.145 1.547 1122
3.181 0.153 1.616 42133
3.360 0.162 1.701 4973
3.496 0.168 1.765 2684
3.010 0.145 1.535 1390
3.185 0.153 1.607 44143
3.364 0.162 1.691 7723
3.500 0.168 1.755 4750
3.049 0.147 1.543 1475
3.190 0.153 1.598 30070
3.369 0.162 1.682 7334
3.505 0.169 1.745 5627
3.053 0.147 1.535 1463
3.194 0.154 1.589 20779
3.424 0.165 1.695 7144
3.560 0.171 1.758 2336
3.058 0.147 1.526 1001
3.198 0.154 1.580 16323
3.435 0.165 1.689 7914
3.572 0.172 1.751 2990
2.997 0.144 1.487 1141
3.195 0.154 1.567 11818
3.447 0.166 1.682 5988
3.584 0.172 1.744 3026
3.008 0.145 1.482 1161
3.199 0.154 1.558 8753
3.531 0.170 1.708 3523
3.394 0.163 1.646 1907
3.668 0.176 1.770 1177
3.203 0.154 1.549 4527
3.535 0.170 1.698 4178
3.398 0.163 1.636 1337
3.673 0.177 1.759 1259
3.533 0.170 1.684 3857
3.208 0.154 1.540 2821
3.670 0.177 1.745 2137
3.395 0.163 1.623 1305
3.566 0.172 1.687 3184
3.212 0.154 1.531 1909
3.429 0.165 1.626 1544
3.704 0.178 1.748 1399
3.607 0.174 1.692 4029
3.745 0.180 1.753 2337
3.027 0.146 1.439 1317
3.469 0.167 1.632 924
3.648 0.175 1.698 5722
3.786 0.182 1.758 1387
3.510 0.169 1.638 1368
3.031 0.146 1.430 1119
3.660 0.176 1.690 6303
3.522 0.169 1.631 1661
3.798 0.183 1.750 1303
3.664 0.176 1.680 6316
3.802 0.183 1.739 1701
3.526 0.170 1.621 1252
3.661 0.176 1.666 6228
3.800 0.183 1.725 1959
3.753 0.181 1.692 6583
3.615 0.174 1.634 2324
3.750 0.180 1.679 8543
3.612 0.174 1.621 1539
3.889 0.187 1.736 1018
3.755 0.181 1.668 7392
3.894 0.187 1.725 1614
3.616 0.174 1.610 925
3.767 0.181 1.660 5920
3.906 0.188 1.717 1495
3.786 0.182 1.655 6157
3.925 0.189 1.712 805
3.834 0.184 1.662 7502
3.868 0.186 1.663 9668
3.865 0.186 1.649 8763
3.855 0.185 1.632 5851
3.881 0.187 1.629 6660
3.885 0.187 1.618 8600
3.897 0.187 1.610 6996
3.894 0.187 1.596 8089
3.906 0.188 1.587 10901
3.910 0.188 1.576 8239
3.914 0.188 1.565 5611
3.926 0.189 1.556 4431
3.937 0.189 1.547 2363
3.919 0.189 1.528 1849
3.960 0.191 1.530 4719
3.964 0.191 1.519 10664
3.968 0.191 1.507 13695
4.147 0.200 1.570 824
3.980 0.191 1.498 11479
3.991 0.192 1.489 9403
3.995 0.192 1.478 8887
3.991 0.192 1.464 9806
3.995 0.192 1.452 13107
3.999 0.192 1.441 13789
4.010 0.193 1.432 9737
4.014 0.193 1.420 11604
4.018 0.193 1.409 18457
4.014 0.193 1.395 17334
4.018 0.193 1.383 10456
4.036 0.194 1.376 5572
4.040 0.194 1.364 4611
4.051 0.195 1.355 6824
4.055 0.195 1.343 8734
4.051 0.195 1.329 6963
4.046 0.195 1.316 4180
4.042 0.194 1.302 2271
4.091 0.197 1.303 1806
4.079 0.196 1.287 2621
4.083 0.196 1.275 3349
4.094 0.197 1.266 4085
4.104 0.197 1.256 4944
4.108 0.198 1.244 5094
4.119 0.198 1.234 5905
3.973 0.191 1.195 1081
4.122 0.198 1.222 5503
3.977 0.191 1.184 1461
4.133 0.199 1.213 5464
3.987 0.192 1.174 1359
5.738 0.276 1.635 899
4.136 0.199 1.201 4068
5.735 0.276 1.617 1351
