3.273 3.089 1.677 3476
3.148 2.971 1.617 2983
3.377 3.186 1.726 828
3.287 3.102 1.669 7317
3.173 2.994 1.615 2014
3.391 3.200 1.718 955
3.291 3.105 1.656 8233
3.400 3.208 1.707 2106
3.187 3.007 1.608 1381
3.398 3.206 1.691 5568
3.294 3.108 1.643 5136
3.190 3.010 1.595 1075
3.401 3.209 1.677 7157
3.297 3.111 1.630 3001
3.193 3.013 1.582 914
3.360 3.171 1.644 4272
3.464 3.269 1.691 1814
3.336 3.148 1.618 4599
3.440 3.246 1.665 2408
3.339 3.151 1.605 3012
3.443 3.249 1.651 2773
3.548 3.347 1.698 854
3.430 3.237 1.631 4379
3.534 3.335 1.676 1951
3.326 3.138 1.585 1004
3.444 3.250 1.622 3711
3.549 3.348 1.667 2347
3.546 3.346 1.651 4128
3.442 3.248 1.606 2296
3.550 3.349 1.637 4859
3.445 3.251 1.592 2091
3.558 3.357 1.625 3743
3.454 3.259 1.581 1989
3.561 3.360 1.611 3962
3.457 3.262 1.567 1085
3.564 3.363 1.597 4814
3.669 3.462 1.640 1624
3.460 3.265 1.553 828
3.656 3.450 1.619 3195
3.551 3.351 1.576 2088
3.687 3.479 1.615 2959
3.571 3.369 1.568 1291
3.695 3.487 1.603 3139
3.590 3.388 1.561 1420
3.800 3.586 1.645 1391
3.687 3.479 1.584 2830
3.815 3.599 1.634 1314
3.582 3.380 1.542 1081
3.674 3.466 1.563 3496
3.779 3.566 1.604 1415
3.978 3.754 1.682 1236
3.677 3.469 1.548 2513
3.976 3.752 1.664 1483
3.782 3.569 1.589 1261
3.730 3.519 1.553 2227
3.979 3.755 1.648 1583
3.846 3.629 1.597 1513
3.624 3.420 1.512 1174
3.966 3.742 1.626 2553
3.738 3.527 1.540 2401
3.633 3.428 1.500 1405
3.844 3.627 1.580 1305
3.974 3.750 1.612 3465
3.641 3.436 1.488 1793
3.747 3.535 1.527 1408
3.869 3.651 1.573 1306
3.983 3.758 1.599 3265
4.189 3.953 1.675 2038
3.644 3.438 1.473 1824
3.877 3.659 1.559 1390
4.198 3.961 1.660 3413
4.003 3.777 1.589 3280
3.897 3.677 1.550 1424
3.647 3.441 1.459 1388
4.012 3.785 1.575 3419
4.206 3.969 1.645 2844
4.312 4.069 1.684 2094
3.906 3.685 1.537 1131
4.304 4.061 1.663 3793
4.187 3.951 1.621 2830
4.020 3.793 1.561 2404
4.246 4.007 1.624 5134
4.352 4.107 1.661 1799
4.029 3.801 1.547 1155
4.140 3.907 1.586 854
4.244 4.004 1.605 5655
4.350 4.104 1.642 3086
4.138 3.904 1.568 1174
4.241 4.002 1.586 5086
4.347 4.102 1.623 4214
4.487 4.234 1.671 1664
4.135 3.902 1.550 963
4.244 4.005 1.569 3689
4.378 4.131 1.615 2795
4.485 4.232 1.651 2469
4.465 4.214 1.626 4518
4.342 4.097 1.584 2161
4.236 3.997 1.549 1241
4.485 4.232 1.613 6199
4.379 4.132 1.578 3726
4.592 4.333 1.649 839
4.477 4.225 1.592 7895
4.371 4.124 1.557 2330
4.668 4.404 1.654 1098
4.469 4.217 1.571 8537
4.576 4.318 1.605 1234
4.363 4.117 1.536 1108
4.693 4.429 1.643 932
4.495 4.241 1.560 8522
4.725 4.458 1.633 1255
4.618 4.358 1.599 1136
4.503 4.249 1.544 10461
4.632 4.371 1.584 1979
4.745 4.477 1.620 1485
4.868 4.593 1.659 899
4.512 4.257 1.528 7540
4.765 4.496 1.606 1913
4.635 4.374 1.566 1876
4.871 4.596 1.639 1622
4.515 4.260 1.510 3631
4.779 4.509 1.591 2167
4.886 4.610 1.623 1789
4.638 4.377 1.548 1555
4.518 4.263 1.492 2527
4.776 4.507 1.570 2099
4.990 4.709 1.634 2026
4.883 4.608 1.602 1728
4.999 4.717 1.616 2260
4.785 4.515 1.552 2036
4.892 4.616 1.584 1652
4.521 4.265 1.474 1466
5.092 4.805 1.623 2384
4.985 4.704 1.591 1896
4.878 4.603 1.560 1734
4.771 4.502 1.528 1254
5.101 4.813 1.604 2568
4.994 4.712 1.573 1811
4.881 4.606 1.540 1330
5.208 4.914 1.635 1135
5.104 4.816 1.584 2617
5.211 4.917 1.614 1772
4.997 4.715 1.553 1613
5.107 4.819 1.563 2551
5.406 5.101 1.647 1440
5.237 4.941 1.600 1355
5.000 4.718 1.533 955
5.110 4.822 1.543 2048
5.415 5.109 1.628 1769
5.296 4.997 1.595 1516
5.429 5.123 1.609 1911
5.322 5.022 1.580 1767
5.113 4.824 1.523 1718
5.537 5.224 1.638 935
5.421 5.115 1.584 2646
5.314 5.014 1.555 1968
5.540 5.227 1.616 1792
5.110 4.822 1.501 958
5.413 5.107 1.560 3059
5.520 5.209 1.588 2249
5.628 5.310 1.617 1882
5.305 5.006 1.531 1494
5.665 5.345 1.603 3152
5.387 5.083 1.531 2514
5.512 5.201 1.563 2356
5.783 5.457 1.634 1897
5.673 5.353 1.582 3027
5.492 5.182 1.535 2187
5.379 5.076 1.506 1864
5.804 5.476 1.615 1495
5.790 5.463 1.588 2269
5.682 5.362 1.561 2205
5.495 5.185 1.514 1634
5.999 5.661 1.641 959
5.793 5.466 1.565 4172
6.002 5.664 1.617 1572
5.674 5.354 1.535 1482
5.543 5.231 1.503 1159
5.796 5.469 1.542 3753
6.006 5.667 1.593 2240
5.660 5.340 1.508 1862
6.227 5.875 1.647 1768
6.009 5.670 1.569 2570
6.230 5.878 1.622 2150
5.787 5.461 1.516 2053
6.411 6.050 1.665 1696
5.796 5.469 1.494 2990
6.409 6.047 1.638 2925
6.216 5.865 1.593 2188
6.017 5.678 1.546 2078
5.804 5.477 1.472 4710
6.412 6.050 1.613 3245
6.219 5.868 1.568 2424
6.043 5.702 1.527 2255
5.813 5.485 1.450 3919
6.421 6.059 1.588 3293
6.290 5.935 1.559 2705
6.040 5.699 1.502 1890
6.424 6.061 1.563 3725
5.816 5.488 1.427 2376
6.299 5.943 1.535 2053
6.043 5.702 1.478 1287
6.427 6.064 1.537 4114
6.285 5.930 1.506 1721
6.535 6.166 1.561 1621
5.813 5.485 1.403 1455
6.430 6.067 1.511 3664
6.538 6.169 1.535 2087
6.976 6.582 1.629 1660
6.276 5.922 1.478 1430
6.979 6.585 1.601 3348
6.433 6.070 1.486 3120
6.541 6.172 1.509 1489
6.712 6.333 1.545 1018
6.965 6.572 1.570 3709
6.436 6.072 1.460 2826
7.256 6.846 1.630 1687
6.720 6.341 1.519 1087
6.968 6.575 1.542 3522
6.438 6.075 1.434 1963
7.259 6.849 1.601 1772
6.558 6.188 1.459 1101
6.988 6.594 1.517 3529
7.387 6.970 1.596 1410
7.598 7.169 1.638 1283
7.256 6.847 1.570 1274
6.985 6.591 1.488 4427
7.396 6.979 1.568 1492
7.607 7.178 1.609 1455
7.253 6.844 1.540 1183
6.982 6.589 1.459 4487
7.268 6.858 1.514 1209
7.638 7.207 1.584 1118
7.393 6.976 1.537 1046
6.985 6.591 1.431 3647
7.893 7.447 1.600 1337
7.282 6.871 1.487 1095
8.383 7.910 1.692 943
6.988 6.594 1.404 2620
8.375 7.903 1.656 1227
7.439 7.019 1.486 1129
7.296 6.885 1.460 1082
7.008 6.612 1.379 1702
8.373 7.900 1.622 1408
7.436 7.017 1.455 1277
7.642 7.210 1.492 1088
7.005 6.609 1.350 1706
8.404 7.930 1.593 1385
8.896 8.394 1.678 1339
7.999 7.547 1.523 1197
8.899 8.397 1.643 1582
8.430 7.955 1.563 1361
8.002 7.550 1.491 1304
7.007 6.612 1.322 1015
8.439 7.963 1.531 1733
8.902 8.400 1.607 1628
8.004 7.553 1.459 1098
8.905 8.403 1.572 2063
8.430 7.955 1.495 2018
8.081 7.626 1.439 1077
9.494 8.958 1.667 984
8.902 8.400 1.535 2170
8.427 7.952 1.460 1712
8.536 8.055 1.478 1204
9.509 8.972 1.631 1121
8.905 8.403 1.500 1692
8.253 7.787 1.400 1322
9.512 8.975 1.593 1153
8.436 7.960 1.428 1092
8.250 7.784 1.366 2869
8.925 8.422 1.467 1273
8.444 7.968 1.395 817
9.521 8.983 1.556 815
8.252 7.787 1.333 3764
8.934 8.430 1.432 1320
9.747 9.197 1.550 786
8.255 7.789 1.300 3719
8.936 8.432 1.396 1172
9.756 9.205 1.512 1036
9.904 9.346 1.533 762
8.246 7.781 1.265 3989
9.758 9.208 1.473 1121
9.907 9.348 1.493 835
8.933 8.429 1.360 822
8.237 7.772 1.231 3917
8.128 7.669 1.216 918
9.761 9.210 1.434 909
8.170 7.709 1.189 4631
8.279 7.812 1.203 2419
10.360 9.776 1.472 764
8.172 7.711 1.156 4638
8.281 7.814 1.170 2005
8.197 7.735 1.126 3836
8.370 7.897 1.147 1060
8.088 7.632 1.113 906
8.228 7.764 1.097 4051
8.119 7.661 1.084 1376
8.372 7.899 1.114 1169
8.207 7.744 1.062 5528
8.098 7.641 1.049 1276
8.379 7.907 1.081 971
8.209 7.746 1.029 6797
8.089 7.632 1.016 1286
8.387 7.914 1.048 819
8.211 7.748 0.996 4339
8.085 7.629 0.983 1255
8.230 7.766 0.965 2637
8.086 7.630 0.950 1154
8.232 7.767 0.932 2054
8.094 7.637 0.919 1070
8.233 7.769 0.899 1032
8.113 7.655 0.888 952
8.120 7.662 0.856 867
8.122 7.663 0.824 772
0.502 0.473 0.121 760
0.502 0.473 0.119 761
0.501 0.473 0.117 762
1.715 1.602 1.782 2831
1.626 1.518 1.694 2106
1.718 1.605 1.775 5663
1.629 1.521 1.688 4212
1.722 1.608 1.768 5663
1.632 1.525 1.682 4212
1.730 1.616 1.766 7661
1.640 1.532 1.680 4519
1.734 1.619 1.760 9672
1.643 1.535 1.673 4403
1.824 1.703 1.846 1057
1.775 1.658 1.789 10764
1.685 1.574 1.703 5529
1.783 1.666 1.787 16347
1.693 1.581 1.701 5153
1.787 1.669 1.780 16347
1.696 1.584 1.694 5153
1.790 1.672 1.773 18276
1.699 1.587 1.688 5174
1.789 1.671 1.761 20221
1.698 1.586 1.677 4417
1.797 1.679 1.759 15987
1.706 1.594 1.674 3744
1.805 1.686 1.756 12254
1.666 1.556 1.628 3172
1.897 1.772 1.840 824
1.809 1.690 1.749 9818
1.669 1.559 1.622 2294
1.900 1.775 1.832 999
1.841 1.720 1.768 9867
1.677 1.567 1.620 1449
1.845 1.723 1.761 9867
1.685 1.574 1.617 877
1.858 1.735 1.762 8459
1.766 1.649 1.680 1122
1.871 1.748 1.764 8914
1.779 1.662 1.682 3421
1.874 1.751 1.756 10518
1.782 1.665 1.675 3267
1.883 1.759 1.753 12249
1.790 1.672 1.672 3452
1.876 1.753 1.737 12419
1.784 1.666 1.657 1526
1.969 1.839 1.818 908
1.875 1.751 1.726 13566
1.968 1.838 1.806 1707
1.782 1.665 1.645 1091
1.883 1.759 1.723 12673
1.976 1.846 1.803 1744
1.790 1.672 1.643 1184
1.896 1.771 1.724 12847
1.774 1.657 1.619 1414
1.990 1.859 1.803 1332
1.900 1.775 1.716 11416
1.777 1.660 1.612 1603
1.993 1.862 1.796 1201
1.903 1.778 1.709 9986
1.780 1.663 1.605 1791
1.997 1.865 1.788 1069
1.911 1.785 1.706 8124
1.788 1.670 1.602 1793
2.005 1.873 1.784 1568
1.920 1.793 1.702 6682
2.019 1.886 1.784 2369
1.791 1.673 1.595 1815
1.928 1.801 1.699 5851
2.022 1.889 1.776 3638
1.794 1.676 1.588 2527
1.936 1.809 1.695 5276
2.031 1.897 1.773 4783
1.792 1.674 1.577 3297
1.989 1.858 1.728 4451
1.800 1.682 1.574 2819
1.895 1.770 1.651 979
2.084 1.946 1.805 904
1.993 1.861 1.720 6207
1.809 1.689 1.571 2415
2.087 1.950 1.797 1204
2.001 1.869 1.717 8392
1.817 1.697 1.568 2454
2.096 1.958 1.793 1097
2.009 1.877 1.713 10867
1.820 1.700 1.561 2532
2.104 1.966 1.789 1046
2.018 1.885 1.709 9625
1.823 1.702 1.554 2550
2.113 1.974 1.784 1115
2.026 1.893 1.705 8720
1.826 1.705 1.547 2480
2.121 1.981 1.780 1067
2.024 1.891 1.693 5485
2.120 1.980 1.768 2509
1.829 1.708 1.540 2410
2.098 1.960 1.740 4792
1.832 1.711 1.532 2283
2.003 1.871 1.666 1997
2.194 2.049 1.814 816
2.117 1.977 1.743 4955
2.021 1.888 1.669 2516
1.830 1.709 1.521 2184
2.100 1.961 1.720 5577
1.838 1.716 1.518 1760
2.004 1.872 1.646 1498
2.103 1.965 1.711 6558
1.840 1.719 1.511 1278
2.007 1.875 1.638 962
2.107 1.968 1.703 6285
1.843 1.722 1.504 981
2.010 1.878 1.630 786
2.110 1.971 1.695 6012
2.118 1.979 1.690 5907
2.122 1.982 1.682 5202
2.218 2.072 1.754 1265
2.015 1.882 1.603 787
2.120 1.980 1.670 4580
2.217 2.070 1.741 1741
2.023 1.890 1.599 889
2.123 1.983 1.662 4043
2.220 2.074 1.733 2503
2.026 1.893 1.591 993
2.121 1.981 1.650 3572
2.218 2.072 1.720 3447
2.024 1.891 1.579 945
2.222 2.075 1.711 3712
2.124 1.984 1.641 3368
2.319 2.166 1.782 922
2.027 1.894 1.571 811
2.246 2.097 1.717 6586
2.148 2.006 1.648 3177
2.244 2.096 1.705 8685
2.146 2.005 1.636 2402
2.341 2.187 1.774 1232
2.252 2.104 1.700 8199
2.155 2.012 1.631 3939
2.350 2.195 1.769 1098
2.194 2.049 1.648 6276
2.292 2.140 1.716 5814
2.096 1.958 1.579 1378
2.305 2.153 1.714 6167
2.135 1.994 1.596 4514
2.314 2.161 1.709 7975
2.138 1.997 1.588 3468
2.412 2.253 1.777 924
2.322 2.169 1.703 9166
2.141 2.000 1.579 2484
2.043 1.908 1.512 1123
2.421 2.261 1.771 1069
2.310 2.158 1.684 8485
2.144 2.003 1.571 2546
2.408 2.250 1.751 2379
2.046 1.911 1.504 1297
2.334 2.180 1.689 7338
2.153 2.011 1.566 2450
2.438 2.277 1.759 1965
2.054 1.919 1.499 1184
2.343 2.188 1.683 6743
2.452 2.290 1.756 2337
2.150 2.009 1.554 2301
2.052 1.916 1.488 955
2.325 2.172 1.660 5792
2.429 2.269 1.729 3418
2.153 2.011 1.546 2268
2.055 1.919 1.480 825
2.360 2.204 1.671 5981
2.459 2.296 1.737 4928
2.162 2.019 1.541 1893
2.261 2.112 1.606 1239
2.478 2.314 1.737 6329
2.373 2.217 1.669 5308
2.170 2.027 1.535 1419
2.274 2.124 1.604 1243
2.491 2.327 1.734 7550
2.371 2.215 1.656 4139
2.079 1.942 1.466 1488
2.256 2.108 1.581 1049
2.500 2.335 1.728 8126
2.395 2.238 1.660 4207
2.066 1.930 1.447 1494
2.259 2.110 1.573 904
2.503 2.338 1.718 10247
2.404 2.245 1.654 4388
2.074 1.937 1.443 1371
2.603 2.431 1.782 886
2.502 2.337 1.705 12706
2.402 2.244 1.642 3128
2.601 2.430 1.768 1133
2.119 1.979 1.461 1012
2.500 2.335 1.692 13721
2.599 2.428 1.755 2551
2.400 2.242 1.629 1717
2.513 2.348 1.689 10290
2.613 2.441 1.751 2548
2.414 2.254 1.626 2030
2.559 2.390 1.705 10131
2.459 2.297 1.643 2489
2.659 2.484 1.767 947
2.562 2.393 1.695 10429
2.462 2.300 1.633 1654
2.662 2.487 1.757 1296
2.576 2.406 1.691 11419
2.465 2.303 1.623 1528
2.676 2.500 1.753 997
2.590 2.419 1.688 14836
2.490 2.325 1.626 1345
2.604 2.432 1.684 16467
2.503 2.338 1.623 1435
2.726 2.546 1.757 805
2.612 2.440 1.677 10940
2.512 2.346 1.616 865
2.718 2.539 1.740 864
2.637 2.463 1.679 7847
2.635 2.461 1.665 7369
2.736 2.556 1.725 1026
2.691 2.514 1.686 7298
2.590 2.419 1.627 2079
2.732 2.552 1.697 7622
2.631 2.457 1.639 4260
2.735 2.555 1.686 7605
2.634 2.460 1.628 2152
2.690 2.513 1.648 8872
2.792 2.608 1.706 1965
2.688 2.511 1.635 7810
2.790 2.606 1.692 2187
2.692 2.514 1.624 4417
2.793 2.609 1.681 1922
2.895 2.704 1.738 960
2.754 2.572 1.646 3642
2.877 2.687 1.715 1568
2.652 2.477 1.590 916
2.751 2.570 1.632 5286
2.912 2.720 1.721 2060
2.776 2.593 1.633 6639
2.916 2.724 1.710 4188
2.806 2.621 1.637 6401
2.919 2.727 1.698 5594
2.704 2.526 1.582 1371
2.826 2.639 1.635 6515
2.928 2.735 1.689 5145
2.723 2.544 1.580 814
2.953 2.758 1.689 4923
2.850 2.662 1.635 4554
2.891 2.701 1.644 4167
2.994 2.796 1.698 2418
2.789 2.605 1.589 911
2.900 2.709 1.635 5227
3.003 2.805 1.689 2455
2.990 2.793 1.668 3689
2.887 2.697 1.615 3260
3.092 2.889 1.722 771
3.004 2.806 1.662 3778
2.901 2.710 1.609 1879
3.107 2.902 1.715 986
3.002 2.804 1.648 3922
3.105 2.900 1.700 1788
2.899 2.707 1.595 1021
3.086 2.883 1.677 4189
2.967 2.771 1.617 3936
3.189 2.979 1.729 883
3.095 2.891 1.667 5571
2.975 2.779 1.608 2828
3.198 2.987 1.719 1224
3.104 2.899 1.658 5845
3.000 2.802 1.607 2588
3.207 2.995 1.709 1543
3.156 2.948 1.670 6490
3.041 2.841 1.614 3650
3.259 3.044 1.721 1352
3.159 2.951 1.657 5128
3.055 2.854 1.607 2749
3.263 3.047 1.708 1803
3.168 2.959 1.648 5601
3.271 3.056 1.698 2415
3.064 2.862 1.598 1720
3.165 2.957 1.632 5233
3.269 3.054 1.682 3361
3.373 3.151 1.732 867
3.018 2.819 1.562 866
3.267 3.052 1.667 3305
3.141 2.934 1.607 2592
3.371 3.149 1.716 1311
3.298 3.080 1.666 5332
3.172 2.963 1.607 1461
3.402 3.177 1.715 852
3.306 3.088 1.656 6715
3.410 3.186 1.704 1684
3.180 2.971 1.597 1362
3.414 3.189 1.691 5174
3.310 3.091 1.643 4878
3.205 2.994 1.595 1023
3.412 3.187 1.675 6914
3.307 3.089 1.627 2584
3.203 2.992 1.580 791
3.376 3.154 1.644 6533
3.481 3.251 1.691 1035
3.272 3.056 1.597 827
3.374 3.152 1.628 5758
3.479 3.249 1.675 1452
3.449 3.221 1.647 3476
3.344 3.124 1.600 3134
3.553 3.319 1.693 1076
3.452 3.224 1.633 5592
3.557 3.322 1.679 2568
3.347 3.127 1.587 1046
3.472 3.243 1.627 4101
3.577 3.341 1.672 3652
3.569 3.333 1.653 4948
3.420 3.194 1.589 2255
3.572 3.336 1.639 4156
3.467 3.238 1.594 2162
3.614 3.376 1.641 3343
3.481 3.252 1.585 2187
3.628 3.389 1.631 3630
3.490 3.260 1.574 1277
3.581 3.345 1.597 3767
3.692 3.449 1.642 2042
3.476 3.247 1.553 1301
3.701 3.457 1.630 3107
3.596 3.359 1.587 2203
3.490 3.260 1.544 1094
3.704 3.460 1.615 4567
3.826 3.574 1.664 1007
3.707 3.463 1.601 4880
3.829 3.577 1.649 2052
3.705 3.461 1.584 2852
3.838 3.585 1.636 2112
3.944 3.684 1.678 843
3.680 3.437 1.558 2437
3.786 3.536 1.599 1687
3.942 3.682 1.660 1147
3.856 3.601 1.610 2060
3.750 3.503 1.569 1760
3.961 3.700 1.651 1670
3.644 3.404 1.529 801
3.870 3.615 1.599 2401
3.753 3.505 1.555 1946
3.976 3.714 1.640 1575
3.647 3.407 1.514 751
4.007 3.743 1.634 1812
3.750 3.503 1.538 1776
3.867 3.612 1.582 1598
3.988 3.725 1.610 2515
4.144 3.871 1.669 1460
3.882 3.626 1.571 1191
3.742 3.495 1.519 984
4.013 3.749 1.603 2601
4.192 3.916 1.669 2244
3.907 3.649 1.564 1447
4.393 4.103 1.743 974
4.201 3.924 1.654 3496
4.016 3.752 1.587 2866
3.910 3.652 1.548 977
4.307 4.023 1.693 862
4.204 3.927 1.637 3371
4.019 3.754 1.571 2758
4.316 4.031 1.678 2314
4.467 4.173 1.732 873
4.325 4.040 1.663 3812
4.218 3.940 1.625 3255
4.028 3.762 1.557 2094
4.278 3.996 1.628 4875
4.384 4.095 1.665 1614
4.171 3.896 1.590 1019
4.037 3.771 1.543 890
4.348 4.061 1.634 4646
4.242 3.962 1.597 2368
4.346 4.059 1.615 5206
4.239 3.960 1.578 2195
4.497 4.201 1.667 1428
4.489 4.193 1.645 2861
4.338 4.052 1.594 2825
4.231 3.952 1.558 1121
4.419 4.128 1.603 5532
4.526 4.228 1.639 2115
4.313 4.028 1.567 1299
4.422 4.131 1.586 7949
4.529 4.231 1.621 4267
4.510 4.213 1.596 8646
4.403 4.113 1.561 3792
4.617 4.312 1.630 1281
4.502 4.205 1.574 6602
4.609 4.305 1.609 1369
4.395 4.105 1.540 1146
4.527 4.229 1.563 8100
4.634 4.329 1.597 1620
4.420 4.129 1.529 991
4.741 4.429 1.631 829
4.530 4.232 1.546 12737
4.637 4.332 1.579 2781
4.886 4.563 1.657 1168
4.778 4.463 1.623 1008
4.533 4.234 1.528 8152
4.641 4.335 1.561 2234
4.889 4.567 1.637 2161
4.782 4.466 1.604 1773
4.542 4.242 1.511 3309
4.886 4.564 1.616 2336
4.649 4.343 1.544 1667
4.779 4.464 1.584 1547
4.539 4.240 1.492 2843
4.799 4.483 1.570 2032
4.647 4.340 1.524 1893
5.014 4.683 1.634 1721
4.627 4.322 1.499 2700
5.023 4.691 1.616 2579
4.802 4.486 1.551 1882
5.130 4.792 1.648 1365
5.014 4.684 1.593 2349
5.128 4.790 1.626 2216
4.635 4.330 1.482 1933
4.822 4.504 1.537 1488
5.131 4.792 1.606 2354
5.018 4.687 1.573 2059
4.655 4.348 1.469 1516
4.904 4.581 1.540 1387
5.134 4.795 1.585 2105
5.026 4.695 1.555 1757
5.241 4.896 1.616 1708
4.658 4.351 1.450 1530
5.148 4.809 1.568 2233
5.267 4.920 1.601 1486
5.432 5.074 1.647 1445
5.041 4.708 1.538 1016
5.168 4.828 1.552 2194
5.441 5.082 1.628 1555
5.293 4.944 1.587 1314
5.455 5.095 1.609 1753
5.347 4.995 1.580 1634
5.177 4.836 1.534 1623
5.563 5.196 1.638 1262
5.447 5.088 1.584 2875
5.566 5.199 1.616 2107
5.339 4.987 1.555 1481
5.186 4.844 1.515 1371
5.450 5.091 1.563 2994
5.563 5.197 1.593 2156
5.677 5.303 1.623 1947
5.342 4.990 1.534 1010
5.692 5.316 1.603 3279
5.464 5.104 1.544 1813
5.822 5.438 1.637 1631
5.578 5.210 1.573 1592
5.695 5.319 1.580 3662
5.513 5.149 1.534 1949
5.826 5.441 1.614 1750
5.698 5.322 1.558 2693
5.533 5.168 1.516 2127
5.829 5.444 1.591 1681
5.948 5.556 1.621 1123
5.826 5.442 1.566 1924
5.564 5.197 1.501 1823
5.951 5.559 1.597 1715
5.701 5.325 1.535 1623
5.829 5.445 1.543 1802
6.034 5.636 1.593 1765
6.251 5.838 1.645 1674
5.692 5.317 1.510 1522
6.442 6.017 1.665 2800
6.032 5.634 1.567 2288
6.259 5.847 1.622 2023
5.843 5.458 1.523 1473
6.439 6.015 1.638 4532
6.046 5.647 1.546 2306
6.251 5.839 1.594 2018
5.829 5.445 1.495 1711
6.443 6.018 1.613 5465
6.055 5.655 1.523 2418
6.249 5.837 1.568 2173
5.832 5.448 1.472 2004
6.457 6.031 1.590 5865
6.337 5.919 1.563 3246
6.058 5.658 1.499 1688
5.841 5.456 1.450 1659
6.454 6.029 1.563 5906
6.340 5.922 1.537 3141
6.009 5.613 1.464 1201
5.849 5.463 1.428 1069
6.457 6.032 1.537 6224
6.332 5.914 1.510 2010
6.566 6.133 1.561 1924
6.817 6.368 1.616 1042
6.460 6.034 1.511 5960
6.569 6.136 1.535 2530
7.003 6.542 1.628 2208
6.878 6.424 1.601 1305
6.463 6.037 1.486 5227
7.007 6.545 1.600 4021
6.572 6.139 1.509 1907
6.355 5.936 1.463 1120
6.466 6.040 1.460 4497
7.010 6.548 1.572 3830
7.290 6.809 1.630 1571
6.357 5.938 1.438 1141
7.013 6.550 1.544 3267
6.475 6.048 1.436 3077
7.299 6.818 1.602 1712
7.408 6.919 1.624 1142
7.027 6.564 1.518 3572
6.477 6.050 1.410 1750
7.296 6.815 1.572 1371
7.428 6.938 1.598 1337
7.024 6.561 1.489 4228
7.425 6.936 1.567 1490
7.666 7.160 1.613 1427
7.288 6.807 1.540 1214
7.021 6.559 1.460 4263
7.675 7.169 1.584 1438
7.503 7.008 1.552 1377
8.099 7.565 1.664 1108
7.019 6.556 1.431 3636
7.936 7.413 1.601 1301
7.489 6.995 1.519 1276
7.678 7.172 1.554 1113
7.027 6.564 1.405 2932
7.474 6.982 1.486 1379
7.675 7.169 1.522 1237
7.950 7.426 1.572 1145
7.035 6.572 1.378 2273
7.678 7.172 1.492 1541
7.471 6.979 1.455 1402
8.441 7.885 1.627 1068
7.038 6.574 1.350 1902
7.681 7.174 1.461 1377
8.456 7.898 1.595 1318
7.474 6.981 1.425 1124
8.487 7.928 1.566 1569
8.040 7.510 1.491 1216
7.046 6.582 1.323 1099
7.684 7.177 1.430 937
8.485 7.925 1.532 2238
8.042 7.512 1.459 1024
9.105 8.505 1.634 757
8.476 7.917 1.496 2300
8.126 7.590 1.440 1168
9.102 8.502 1.597 1053
9.528 8.900 1.665 924
8.479 7.920 1.462 2050
9.554 8.924 1.631 1112
8.278 7.732 1.431 1094
8.939 8.350 1.534 1010
8.482 7.923 1.429 1573
9.557 8.927 1.593 1133
8.281 7.735 1.398 974
8.971 8.379 1.503 958
9.129 8.527 1.491 995
8.985 8.393 1.469 941
8.289 7.742 1.366 916
8.485 7.925 1.395 897
8.211 7.670 1.321 1640
9.149 8.546 1.457 875
9.805 9.158 1.552 853
8.993 8.401 1.434 840
8.219 7.677 1.289 2329
9.802 9.156 1.512 1182
10.072 9.408 1.550 968
8.222 7.680 1.257 2377
9.805 9.158 1.473 1288
10.081 9.416 1.511 1184
8.270 7.725 1.230 2575
9.808 9.161 1.434 1037
10.078 9.414 1.470 955
10.401 9.715 1.512 758
8.272 7.727 1.197 3209
10.409 9.723 1.472 988
8.117 7.582 1.177 912
8.263 7.718 1.163 4353
8.119 7.584 1.145 1610
10.412 9.726 1.430 881
8.254 7.710 1.128 4841
8.121 7.586 1.113 1971
8.250 7.706 1.095 4489
8.123 7.588 1.080 1894
8.258 7.713 1.063 4372
8.125 7.589 1.048 1917
8.260 7.715 1.030 4105
8.116 7.580 1.014 2156
8.256 7.712 0.997 3478
8.112 7.577 0.981 2444
8.258 7.713 0.964 3105
8.119 7.584 0.950 2404
8.127 7.591 0.918 2257
8.259 7.715 0.931 2132
8.134 7.598 0.886 1662
8.273 7.727 0.899 886
8.147 7.610 0.855 1086
8.154 7.617 0.823 983
8.127 7.591 0.788 751
0.510 0.476 0.122 820
0.504 0.471 0.121 867
0.510 0.476 0.119 858
0.504 0.471 0.117 828
0.504 0.471 0.115 762
1.725 1.601 1.786 2902
1.635 1.518 1.699 2260
1.728 1.604 1.780 5804
1.638 1.521 1.692 4521
1.732 1.607 1.773 5804
1.642 1.524 1.686 4521
1.735 1.611 1.766 7388
1.645 1.527 1.680 4439
1.743 1.618 1.764 9029
1.653 1.534 1.678 4703
1.780 1.652 1.789 10070
1.690 1.568 1.703 6078
1.788 1.660 1.787 14999
1.698 1.576 1.701 6131
1.792 1.663 1.780 14999
1.701 1.579 1.694 6131
1.791 1.662 1.768 16956
1.700 1.578 1.683 5200
1.794 1.665 1.761 18952
1.703 1.581 1.677 4853
1.802 1.673 1.759 15418
1.711 1.588 1.674 4186
1.811 1.681 1.756 12682
1.671 1.551 1.628 3184
1.814 1.684 1.749 10226
1.674 1.554 1.622 2310
1.906 1.769 1.832 850
1.847 1.714 1.768 9517
1.735 1.611 1.668 1529
1.850 1.717 1.761 9517
1.758 1.632 1.678 1448
1.863 1.730 1.762 8435
1.771 1.644 1.680 1814
1.877 1.742 1.764 8737
1.784 1.656 1.682 3464
1.880 1.745 1.756 10513
1.787 1.659 1.675 2859
1.883 1.748 1.749 12302
1.791 1.662 1.668 1847
1.882 1.747 1.737 13139
1.789 1.661 1.657 1132
1.975 1.833 1.818 952
1.885 1.750 1.730 14200
1.979 1.837 1.810 1498
1.792 1.664 1.650 949
1.894 1.758 1.727 13713
1.987 1.844 1.807 1457
1.800 1.671 1.647 980
1.902 1.765 1.724 13820
1.996 1.852 1.803 1350
1.808 1.679 1.644 1074
1.905 1.769 1.716 12361
1.792 1.663 1.620 1285
1.999 1.856 1.796 1282
1.909 1.772 1.709 10902
1.790 1.662 1.609 1661
2.003 1.859 1.788 1214
1.917 1.779 1.706 8408
2.011 1.867 1.784 2207
1.803 1.674 1.610 1787
1.930 1.792 1.706 6126
2.025 1.879 1.784 2661
1.811 1.681 1.608 2161
1.944 1.804 1.707 6037
2.038 1.892 1.785 3299
1.810 1.680 1.596 2477
2.017 1.872 1.756 6822
1.922 1.784 1.679 3433
1.808 1.678 1.585 2988
2.020 1.875 1.748 6684
1.816 1.685 1.582 3150
1.925 1.787 1.671 2461
2.004 1.860 1.724 7010
1.819 1.688 1.575 3434
2.007 1.863 1.717 8826
1.822 1.691 1.568 3646
2.102 1.951 1.793 1006
2.015 1.871 1.713 10778
1.825 1.694 1.561 3718
2.110 1.959 1.789 1179
2.024 1.878 1.709 9171
1.828 1.697 1.554 3578
2.119 1.967 1.784 1420
2.032 1.886 1.705 8004
1.831 1.700 1.547 3360
2.128 1.975 1.780 1417
2.045 1.899 1.705 5345
1.839 1.707 1.544 3166
2.141 1.987 1.780 1238
2.104 1.953 1.740 5824
1.837 1.705 1.532 2868
2.008 1.864 1.666 1651
2.108 1.956 1.732 6120
1.835 1.703 1.521 2653
2.012 1.867 1.658 1939
2.106 1.955 1.720 7084
1.838 1.706 1.514 2209
2.010 1.866 1.646 1183
2.202 2.044 1.793 779
2.109 1.958 1.711 8052
1.846 1.713 1.511 1561
2.108 1.956 1.699 6148
1.849 1.716 1.504 1084
2.204 2.046 1.772 796
2.111 1.959 1.691 4462
2.208 2.049 1.763 774
1.796 1.667 1.455 763
2.114 1.963 1.683 4145
2.123 1.970 1.678 4106
2.220 2.060 1.750 1221
2.126 1.973 1.670 4399
2.223 2.063 1.741 1834
2.129 1.976 1.662 3407
2.227 2.067 1.733 3089
2.220 2.060 1.716 4615
2.122 1.970 1.646 2452
2.317 2.151 1.787 790
2.213 2.054 1.700 4180
2.115 1.963 1.630 2343
2.310 2.144 1.770 1084
2.216 2.057 1.692 5148
2.118 1.966 1.622 2274
2.314 2.148 1.761 2001
2.245 2.084 1.701 6355
2.127 1.974 1.617 2224
2.343 2.175 1.771 1684
2.228 2.068 1.678 6935
2.326 2.159 1.747 2795
2.130 1.977 1.609 2654
2.293 2.128 1.713 7462
2.159 2.004 1.619 3993
2.302 2.136 1.707 7573
2.172 2.016 1.617 4260
2.321 2.154 1.709 8201
2.165 2.010 1.602 3810
2.419 2.245 1.777 1097
2.329 2.162 1.703 9046
2.163 2.008 1.590 3880
2.428 2.253 1.771 1277
2.054 1.907 1.515 814
2.312 2.146 1.680 8631
2.166 2.011 1.581 4019
2.410 2.237 1.747 2987
2.047 1.900 1.500 833
2.320 2.154 1.675 7043
2.159 2.004 1.566 3064
2.419 2.245 1.741 2789
2.060 1.912 1.499 1104
2.360 2.190 1.690 5574
2.151 1.997 1.550 2878
2.459 2.282 1.756 2824
2.261 2.099 1.624 2665
2.384 2.213 1.694 5289
2.149 1.995 1.539 3404
2.285 2.121 1.629 3220
2.483 2.305 1.760 2256
2.387 2.216 1.685 5583
2.487 2.308 1.751 3560
2.157 2.003 1.534 3403
2.288 2.124 1.620 2033
2.480 2.302 1.734 6351
2.380 2.209 1.669 4262
2.134 1.981 1.508 2896
2.244 2.083 1.580 1146
2.488 2.310 1.728 7364
2.389 2.217 1.663 3093
2.137 1.984 1.500 2929
2.242 2.081 1.568 1296
2.502 2.323 1.725 6858
2.402 2.230 1.660 3156
2.145 1.991 1.495 2656
2.250 2.089 1.562 1246
2.511 2.331 1.718 8710
2.411 2.238 1.654 3746
2.148 1.994 1.486 1877
2.253 2.092 1.554 826
2.504 2.324 1.702 12042
2.404 2.231 1.638 2399
2.604 2.417 1.765 1891
2.088 1.938 1.438 967
2.507 2.327 1.692 13552
2.607 2.420 1.755 3245
2.407 2.234 1.629 1504
2.510 2.330 1.682 10431
2.611 2.423 1.745 5006
2.410 2.237 1.619 1247
2.566 2.382 1.705 10696
2.466 2.289 1.643 2733
2.667 2.475 1.767 1017
2.570 2.385 1.695 11235
2.469 2.292 1.633 1943
2.670 2.479 1.757 1413
2.584 2.398 1.691 12290
2.472 2.295 1.623 1533
2.684 2.492 1.753 1058
2.598 2.411 1.688 16816
2.497 2.318 1.626 1388
2.735 2.539 1.771 777
2.611 2.424 1.684 20104
2.511 2.330 1.623 1480
2.734 2.537 1.757 942
2.620 2.432 1.677 14381
2.519 2.338 1.616 998
2.721 2.526 1.737 862
2.634 2.445 1.673 8727
2.643 2.453 1.665 7870
2.641 2.451 1.652 6866
2.742 2.545 1.711 3276
2.740 2.543 1.697 7355
2.638 2.449 1.639 4912
2.749 2.551 1.689 7750
2.647 2.457 1.631 2726
2.693 2.500 1.645 8357
2.795 2.594 1.703 3410
2.702 2.508 1.638 8140
2.803 2.602 1.695 4002
2.721 2.526 1.636 6061
2.823 2.620 1.693 3444
2.751 2.553 1.640 5440
2.853 2.648 1.697 1841
2.760 2.561 1.632 6705
2.921 2.711 1.721 2530
2.774 2.574 1.627 7701
2.930 2.719 1.713 5193
2.793 2.592 1.625 6105
2.928 2.718 1.698 5803
2.866 2.660 1.652 6521
2.969 2.756 1.707 2745
2.764 2.565 1.597 2238
2.869 2.663 1.641 5338
2.972 2.759 1.695 5035
2.767 2.568 1.586 1471
2.889 2.682 1.638 5426
2.992 2.777 1.692 3997
2.781 2.581 1.581 927
2.898 2.690 1.629 5616
3.001 2.785 1.683 3803
3.004 2.788 1.671 4622
2.895 2.687 1.615 3795
3.018 2.801 1.665 5678
2.898 2.690 1.604 2025
3.121 2.897 1.718 839
3.010 2.794 1.648 5535
3.114 2.890 1.700 2014
2.907 2.698 1.595 1202
3.095 2.873 1.677 5435
2.981 2.767 1.619 3780
3.104 2.881 1.667 6006
3.000 2.785 1.616 2643
3.207 2.977 1.719 840
3.107 2.884 1.655 6480
3.004 2.788 1.604 1883
3.233 3.001 1.717 1454
3.099 2.877 1.638 6519
3.252 3.019 1.713 1685
2.996 2.781 1.587 839
3.097 2.875 1.623 4417
3.201 2.971 1.673 2264
3.305 3.068 1.724 834
3.172 2.944 1.645 5011
3.275 3.040 1.695 2788
3.068 2.847 1.595 1714
3.180 2.952 1.635 5302
3.284 3.048 1.685 4299
3.076 2.855 1.585 1111
3.277 3.041 1.667 3517
3.172 2.945 1.617 3239
3.381 3.138 1.716 807
3.313 3.075 1.669 3692
3.170 2.942 1.602 2788
3.417 3.172 1.718 976
3.311 3.073 1.653 4214
3.415 3.170 1.702 2266
3.179 2.950 1.592 2226
3.413 3.168 1.686 4750
3.308 3.071 1.638 2963
3.193 2.964 1.585 1008
3.405 3.161 1.667 6180
3.300 3.064 1.620 1512
3.392 3.148 1.647 7647
3.535 3.281 1.711 1189
3.287 3.051 1.599 1110
3.389 3.146 1.631 6701
3.511 3.259 1.685 1628
3.285 3.049 1.584 774
3.431 3.185 1.634 4130
3.536 3.282 1.681 1891
3.326 3.088 1.588 1276
3.468 3.219 1.635 5997
3.573 3.316 1.681 2810
3.363 3.121 1.590 1013
3.482 3.232 1.627 5463
3.587 3.329 1.672 4501
3.579 3.322 1.653 5841
3.419 3.173 1.584 2274
3.588 3.330 1.641 4164
3.483 3.233 1.597 2612
3.624 3.364 1.641 4161
3.491 3.241 1.585 2287
3.644 3.383 1.634 4627
3.494 3.244 1.572 1188
3.653 3.391 1.622 3297
3.492 3.241 1.556 1395
3.820 3.545 1.690 1002
3.712 3.445 1.630 3634
3.606 3.347 1.587 2113
3.500 3.249 1.544 1150
3.823 3.549 1.675 914
3.709 3.443 1.613 5602
3.837 3.562 1.664 1357
3.593 3.335 1.566 1023
3.713 3.446 1.598 5954
3.841 3.565 1.649 2601
3.947 3.663 1.691 861
3.716 3.449 1.584 3117
3.844 3.568 1.634 3046
3.950 3.666 1.676 1149
3.841 3.566 1.617 3246
3.685 3.421 1.556 2053
3.959 3.674 1.662 1624
3.968 3.683 1.649 2888
3.861 3.584 1.608 2710
3.739 3.470 1.561 1348
3.965 3.680 1.631 3677
3.859 3.582 1.591 1965
3.753 3.483 1.550 1227
4.077 3.784 1.674 1093
3.968 3.683 1.616 2301
3.856 3.580 1.573 1615
4.075 3.782 1.655 1376
3.750 3.481 1.533 879
4.044 3.754 1.627 3034
4.151 3.853 1.666 2326
3.938 3.655 1.587 1735
3.669 3.406 1.488 979
4.047 3.757 1.611 3445
4.154 3.856 1.650 2601
3.941 3.658 1.572 1586
3.672 3.408 1.473 1033
4.062 3.770 1.599 2916
4.191 3.890 1.646 1899
3.955 3.671 1.560 1518
4.297 3.989 1.685 1252
4.194 3.893 1.629 3367
4.020 3.731 1.567 2336
4.329 4.018 1.678 1899
4.486 4.164 1.734 882
4.214 3.911 1.619 3991
4.343 4.031 1.665 2557
4.029 3.739 1.553 1726
4.290 3.982 1.628 4466
4.183 3.883 1.590 1912
4.397 4.081 1.665 1441
4.504 4.180 1.703 808
4.361 4.048 1.634 3887
4.203 3.902 1.580 1807
4.496 4.173 1.681 839
4.364 4.051 1.617 4286
4.251 3.946 1.578 1678
4.510 4.187 1.667 1267
4.412 4.095 1.615 3804
4.519 4.195 1.651 2237
4.271 3.965 1.567 1516
4.427 4.109 1.601 6453
4.534 4.208 1.637 2209
4.320 4.009 1.566 1181
4.435 4.117 1.586 8960
4.543 4.216 1.621 2857
4.328 4.017 1.550 809
4.523 4.198 1.596 6460
4.416 4.099 1.561 3712
4.630 4.298 1.630 1263
4.532 4.206 1.580 4609
4.425 4.107 1.545 1753
4.639 4.306 1.614 787
4.541 4.215 1.563 6632
4.648 4.314 1.597 2566
4.433 4.115 1.529 1262
4.544 4.217 1.546 11012
4.651 4.317 1.579 4161
4.894 4.543 1.655 858
5.007 4.648 1.690 794
4.552 4.225 1.529 6605
4.660 4.325 1.562 2544
4.897 4.546 1.636 1640
4.790 4.446 1.603 1090
4.617 4.286 1.530 4399
4.895 4.544 1.615 1868
4.510 4.186 1.498 925
4.787 4.444 1.582 916
4.643 4.310 1.519 4235
4.535 4.210 1.487 1840
5.034 4.673 1.636 1657
4.813 4.468 1.570 1357
4.646 4.313 1.501 6230
5.032 4.670 1.615 2752
5.156 4.786 1.651 1655
4.799 4.455 1.546 1228
4.655 4.320 1.484 5786
5.160 4.789 1.631 2628
5.029 4.668 1.593 2547
4.865 4.515 1.545 1026
4.663 4.328 1.467 4525
5.157 4.787 1.609 2399
5.027 4.666 1.571 2184
4.919 4.566 1.540 956
4.666 4.331 1.449 3952
5.155 4.785 1.587 1855
5.035 4.674 1.553 1649
5.263 4.885 1.618 1211
4.669 4.334 1.430 2861
5.175 4.803 1.571 2670
5.283 4.903 1.601 1568
5.453 5.062 1.649 1027
5.183 4.811 1.552 3051
4.677 4.341 1.413 1958
5.292 4.912 1.582 1566
5.468 5.075 1.631 1062
5.192 4.819 1.534 2573
5.363 4.978 1.580 1626
5.551 5.152 1.631 1415
4.686 4.349 1.396 1378
5.201 4.827 1.515 2336
5.451 5.060 1.581 2152
5.582 5.182 1.616 2107
5.343 4.960 1.552 1098
5.472 5.079 1.564 2541
5.591 5.190 1.596 2201
5.209 4.835 1.495 1504
5.699 5.290 1.624 1473
5.708 5.298 1.603 2696
5.480 5.087 1.544 2067
5.594 5.193 1.573 1684
5.845 5.425 1.638 1172
5.711 5.301 1.580 3707
5.546 5.148 1.538 2024
5.843 5.423 1.614 1531
5.720 5.309 1.559 2857
5.549 5.151 1.516 2373
5.840 5.421 1.589 1572
5.966 5.537 1.621 1312
5.580 5.180 1.501 1970
5.974 5.546 1.598 1735
5.717 5.307 1.535 1451
5.843 5.424 1.566 1003
5.989 5.559 1.577 1669
6.457 5.994 1.691 1572
5.692 5.283 1.506 1476
5.880 5.458 1.551 1243
6.461 5.997 1.665 3159
6.049 5.615 1.567 2126
6.278 5.827 1.622 1476
5.700 5.291 1.484 1317
6.458 5.995 1.638 5136
6.081 5.644 1.550 2440
6.350 5.894 1.613 1928
5.761 5.347 1.475 1101
6.461 5.998 1.613 5967
6.353 5.897 1.588 3043
6.090 5.652 1.527 1996
6.244 5.796 1.563 959
6.470 6.006 1.588 6311
6.362 5.905 1.564 3915
6.070 5.634 1.498 1606
6.253 5.804 1.539 1047
6.473 6.009 1.563 6172
6.365 5.908 1.539 3951
6.067 5.631 1.473 1902
6.582 6.110 1.587 875
6.476 6.011 1.537 6490
6.362 5.905 1.512 2829
6.585 6.112 1.561 1677
6.087 5.650 1.452 1466
6.479 6.014 1.511 6693
6.588 6.115 1.535 2274
7.024 6.520 1.628 2117
6.892 6.397 1.599 1665
6.482 6.017 1.486 5987
7.027 6.523 1.600 3591
6.591 6.118 1.509 2027
6.373 5.916 1.463 1504
6.485 6.020 1.460 4902
7.030 6.526 1.572 3123
6.376 5.918 1.438 1533
7.409 6.877 1.650 1335
6.494 6.027 1.436 3160
7.039 6.534 1.545 2578
7.406 6.875 1.619 1359
7.297 6.773 1.597 1131
7.048 6.542 1.518 3058
6.496 6.030 1.410 1699
7.323 6.798 1.573 1206
7.432 6.899 1.594 1104
7.051 6.544 1.491 3499
7.694 7.142 1.615 1371
7.436 6.902 1.565 1277
7.309 6.784 1.540 1181
7.048 6.542 1.462 3263
7.525 6.985 1.552 1834
7.697 7.145 1.584 1564
7.416 6.883 1.531 1148
7.039 6.534 1.431 2955
7.522 6.982 1.521 1660
7.672 7.121 1.548 1630
7.976 7.404 1.605 1474
7.048 6.542 1.405 2661
7.686 7.134 1.520 1571
7.974 7.401 1.572 1457
7.502 6.963 1.487 1267
7.056 6.549 1.378 2154
7.695 7.142 1.490 1641
7.413 6.881 1.441 1265
8.506 7.895 1.634 1063
7.059 6.552 1.350 1544
7.698 7.145 1.460 1308
8.486 7.877 1.596 1172
7.421 6.888 1.412 972
8.518 7.907 1.567 1666
9.128 8.473 1.670 1019
8.069 7.490 1.492 942
7.067 6.560 1.323 853
8.515 7.904 1.533 2393
9.126 8.471 1.633 1117
8.066 7.487 1.459 791
8.507 7.896 1.497 2338
9.123 8.468 1.596 1326
8.155 7.570 1.441 1017
9.538 8.854 1.662 871
8.498 7.888 1.461 1726
9.588 8.899 1.632 1094
9.138 8.482 1.561 1040
8.158 7.572 1.408 773
8.507 7.896 1.429 1221
9.585 8.897 1.593 1118
9.141 8.485 1.525 913
9.144 8.487 1.489 1139
8.313 7.716 1.366 816
9.588 8.900 1.555 780
9.106 8.453 1.447 941
10.093 9.368 1.589 897
9.828 9.122 1.551 877
8.287 7.692 1.329 876
9.831 9.125 1.512 1147
10.096 9.371 1.549 1107
8.284 7.689 1.295 1093
8.275 7.681 1.260 1513
9.834 9.128 1.473 1168
10.105 9.379 1.510 1132
8.306 7.710 1.231 2169
9.836 9.130 1.434 901
10.108 9.382 1.470 843
8.302 7.706 1.198 3064
8.141 7.556 1.177 979
10.440 9.690 1.472 933
8.299 7.703 1.164 2842
8.131 7.548 1.143 1716
10.229 9.495 1.404 881
10.443 9.693 1.430 816
8.289 7.694 1.130 2692
8.128 7.544 1.110 2508
10.272 9.535 1.368 889
8.292 7.696 1.097 3110
8.130 7.546 1.078 2673
10.280 9.542 1.328 959
8.132 7.548 1.046 2899
8.294 7.698 1.064 2530
10.283 9.545 1.287 842
8.134 7.550 1.014 3380
8.295 7.700 1.031 1780
8.135 7.551 0.981 3621
8.257 7.664 0.994 1682
8.137 7.553 0.949 3608
8.247 7.655 0.960 1883
8.145 7.560 0.918 3629
8.255 7.662 0.928 1966
8.152 7.567 0.886 2896
8.262 7.669 0.896 1390
8.007 7.432 0.872 783
8.154 7.568 0.853 1678
8.003 7.429 0.840 845
8.132 7.548 0.819 1443
8.005 7.430 0.808 831
8.139 7.555 0.787 1340
8.146 7.561 0.756 893
1.738 1.595 1.791 2734
1.648 1.513 1.703 2109
1.742 1.599 1.784 5468
1.652 1.516 1.697 4219
1.745 1.602 1.778 5468
1.655 1.519 1.691 4219
1.754 1.610 1.775 6702
1.663 1.526 1.689 4006
1.714 1.573 1.728 8144
1.805 1.657 1.814 2005
1.623 1.490 1.642 1043
1.785 1.638 1.784 9228
1.694 1.555 1.699 6156
1.793 1.646 1.782 13337
1.702 1.562 1.696 6829
1.796 1.649 1.775 13337
1.705 1.565 1.690 6829
1.800 1.652 1.768 15193
1.708 1.568 1.683 6261
1.803 1.655 1.761 17050
1.712 1.571 1.677 5694
1.812 1.663 1.759 14410
1.720 1.579 1.674 4747
1.825 1.675 1.760 12900
1.733 1.591 1.677 3206
1.828 1.678 1.753 10492
1.736 1.594 1.670 2307
1.856 1.704 1.768 8697
1.764 1.619 1.685 1636
1.671 1.534 1.602 964
1.860 1.707 1.761 8697
1.767 1.622 1.678 1565
1.868 1.715 1.758 7818
1.775 1.629 1.676 1606
1.876 1.722 1.755 7519
1.783 1.637 1.673 2034
1.885 1.730 1.752 9505
1.792 1.645 1.670 2155
1.888 1.733 1.745 11604
1.795 1.648 1.664 1476
1.892 1.736 1.737 12779
1.798 1.651 1.657 1239
1.985 1.822 1.818 873
1.895 1.739 1.730 13954
1.989 1.825 1.810 1440
1.797 1.649 1.645 1014
1.903 1.747 1.727 13997
1.997 1.833 1.807 1437
1.810 1.661 1.647 854
1.907 1.750 1.719 14228
2.001 1.837 1.799 1663
1.758 1.614 1.594 939
1.915 1.758 1.716 12585
2.009 1.844 1.796 1654
1.762 1.617 1.587 874
1.924 1.766 1.713 11090
2.018 1.852 1.792 1742
1.799 1.652 1.609 938
1.927 1.769 1.706 8015
2.021 1.855 1.784 3320
1.808 1.659 1.606 1218
1.950 1.790 1.714 6011
2.045 1.877 1.793 2273
1.821 1.671 1.608 1597
2.019 1.853 1.760 7738
1.924 1.766 1.682 3632
1.819 1.669 1.596 1700
2.017 1.851 1.748 10019
1.922 1.764 1.671 2203
1.822 1.672 1.589 1808
2.030 1.864 1.748 9078
1.935 1.776 1.671 2826
1.825 1.675 1.582 2277
2.034 1.867 1.741 8565
1.828 1.678 1.575 2745
1.939 1.779 1.664 2121
2.022 1.856 1.721 8620
1.831 1.681 1.568 3165
2.118 1.944 1.797 856
1.927 1.769 1.644 764
2.026 1.859 1.713 9549
1.834 1.684 1.561 3501
2.121 1.947 1.789 1188
2.034 1.867 1.709 7848
1.837 1.686 1.554 3418
2.130 1.955 1.784 1287
2.048 1.879 1.709 6831
1.840 1.689 1.547 3472
2.144 1.968 1.784 815
2.112 1.938 1.748 5130
1.843 1.692 1.540 3526
2.016 1.850 1.673 2375
2.110 1.937 1.736 6666
1.846 1.695 1.532 3146
2.014 1.848 1.662 1006
2.114 1.940 1.728 7158
1.844 1.693 1.521 2810
2.017 1.851 1.654 945
2.210 2.028 1.802 775
2.122 1.948 1.723 8459
1.847 1.696 1.514 2300
2.025 1.859 1.650 1061
2.219 2.036 1.797 783
2.130 1.956 1.719 10016
1.855 1.703 1.511 1631
2.024 1.857 1.638 1021
2.227 2.044 1.792 821
2.139 1.963 1.715 7474
1.858 1.706 1.504 1231
2.032 1.865 1.634 1061
2.236 2.052 1.787 931
2.153 1.976 1.714 5350
2.050 1.882 1.638 1175
2.250 2.065 1.786 838
1.810 1.661 1.458 818
2.182 2.002 1.724 4486
2.084 1.913 1.652 1283
2.200 2.020 1.727 5183
2.103 1.930 1.656 1886
2.209 2.027 1.723 5189
2.111 1.938 1.651 2167
2.223 2.040 1.721 5137
2.120 1.946 1.647 2359
2.231 2.048 1.716 5479
2.123 1.949 1.638 2536
2.229 2.046 1.704 4896
2.131 1.956 1.634 2477
2.233 2.049 1.695 6894
2.135 1.959 1.626 1868
2.331 2.139 1.765 1420
2.236 2.052 1.687 9372
2.334 2.143 1.756 2147
2.086 1.915 1.581 2082
2.239 2.055 1.678 8770
2.338 2.146 1.747 2771
2.079 1.908 1.565 1814
2.305 2.116 1.713 8260
2.206 2.025 1.644 3399
2.077 1.906 1.554 1437
2.308 2.119 1.704 8853
2.178 1.999 1.614 2455
2.064 1.894 1.535 1272
2.407 2.209 1.772 951
2.322 2.131 1.702 7958
2.223 2.041 1.634 2714
2.077 1.907 1.534 1796
2.421 2.222 1.770 1454
2.341 2.149 1.703 8195
2.080 1.910 1.526 3293
2.216 2.034 1.618 2917
2.440 2.240 1.771 1367
2.324 2.133 1.680 7665
2.083 1.912 1.518 4228
2.423 2.224 1.747 2884
2.224 2.042 1.613 2789
2.327 2.136 1.671 6950
2.086 1.915 1.510 4691
2.447 2.246 1.752 3193
2.222 2.040 1.601 2202
2.309 2.120 1.648 5377
2.084 1.913 1.498 4475
2.456 2.254 1.746 3380
2.210 2.028 1.582 1513
2.312 2.123 1.639 4215
2.412 2.214 1.705 3397
2.087 1.916 1.490 3208
2.512 2.305 1.771 1365
2.463 2.260 1.726 4833
2.363 2.169 1.661 3150
2.095 1.923 1.485 2565
2.263 2.077 1.596 1409
2.477 2.273 1.724 6037
2.377 2.182 1.659 3069
2.098 1.926 1.477 2353
2.198 2.017 1.542 1381
2.496 2.291 1.724 6833
2.396 2.199 1.660 2375
2.090 1.919 1.462 1840
2.238 2.054 1.558 1030
2.510 2.304 1.721 5815
2.410 2.212 1.657 2526
2.093 1.921 1.454 1597
2.241 2.057 1.549 1140
2.540 2.331 1.728 7366
2.439 2.239 1.664 4388
2.096 1.924 1.446 1573
2.244 2.060 1.540 869
2.517 2.310 1.702 9926
2.617 2.402 1.765 2427
2.416 2.218 1.638 2084
2.104 1.931 1.441 1655
2.520 2.313 1.692 11572
2.621 2.405 1.755 4009
2.102 1.929 1.430 1332
2.419 2.221 1.629 1141
2.544 2.335 1.695 9521
2.645 2.428 1.758 2207
2.444 2.243 1.633 1763
2.099 1.927 1.418 969
2.580 2.368 1.705 11116
2.479 2.275 1.643 4367
2.681 2.460 1.767 1070
2.102 1.929 1.410 766
2.583 2.371 1.695 11660
2.482 2.278 1.633 3509
2.684 2.464 1.757 1430
2.597 2.384 1.691 12606
2.496 2.291 1.630 2328
2.698 2.477 1.753 1046
2.611 2.397 1.688 17569
2.510 2.304 1.626 2007
2.750 2.524 1.771 842
2.620 2.404 1.681 21857
2.518 2.311 1.620 1446
2.721 2.498 1.741 1320
2.628 2.412 1.673 16667
2.730 2.506 1.734 1919
2.527 2.319 1.613 1077
2.642 2.425 1.669 9601
2.744 2.519 1.729 1312
2.656 2.438 1.665 8238
2.758 2.532 1.725 1028
2.654 2.436 1.652 6918
2.756 2.530 1.711 2873
2.749 2.523 1.694 6055
2.647 2.429 1.635 5066
2.768 2.541 1.692 6360
2.666 2.447 1.634 3758
2.707 2.485 1.645 7182
2.809 2.579 1.703 4000
2.721 2.497 1.641 8347
2.823 2.591 1.698 4753
2.740 2.515 1.639 8157
2.843 2.609 1.696 4136
2.760 2.533 1.637 8064
2.862 2.627 1.694 2802
2.774 2.546 1.632 8133
2.942 2.700 1.724 2942
2.788 2.559 1.627 7966
2.945 2.703 1.713 5891
2.910 2.671 1.681 6861
2.802 2.572 1.622 5668
2.903 2.664 1.663 6794
2.800 2.570 1.609 4430
3.006 2.759 1.718 2101
2.901 2.662 1.649 5616
3.004 2.757 1.704 3819
2.797 2.568 1.595 2767
2.904 2.665 1.638 6582
3.007 2.760 1.692 4399
2.800 2.570 1.584 1281
2.907 2.668 1.627 6387
3.011 2.763 1.680 5079
2.804 2.573 1.573 835
3.019 2.771 1.671 5831
2.905 2.666 1.612 4541
3.028 2.779 1.662 7417
2.908 2.669 1.601 2583
3.026 2.777 1.648 7398
3.130 2.873 1.700 1804
2.911 2.672 1.590 1393
3.106 2.851 1.674 5579
3.002 2.755 1.622 3988
3.114 2.859 1.665 5848
3.010 2.763 1.613 2902
3.118 2.862 1.653 6838
3.014 2.766 1.601 1571
3.271 3.003 1.728 1102
3.121 2.865 1.640 7517
3.286 3.016 1.721 1299
3.017 2.769 1.590 896
3.119 2.863 1.626 5521
3.295 3.024 1.710 1438
3.160 2.901 1.632 5159
3.281 3.012 1.690 3389
3.386 3.108 1.740 1096
3.056 2.805 1.582 756
3.180 2.919 1.627 5622
3.290 3.020 1.679 5145
3.395 3.116 1.729 1321
3.075 2.823 1.578 797
3.189 2.927 1.617 4415
3.332 3.058 1.685 3933
3.341 3.067 1.674 4275
3.192 2.930 1.605 4118
3.446 3.163 1.723 938
3.283 3.014 1.633 3800
3.422 3.141 1.697 3080
3.179 2.917 1.585 2333
3.425 3.144 1.683 4511
3.292 3.022 1.623 2532
3.187 2.925 1.575 1023
3.412 3.131 1.662 6179
3.306 3.035 1.615 2135
3.528 3.238 1.715 1211
3.404 3.124 1.644 8216
3.299 3.028 1.597 1631
3.548 3.256 1.709 1478
3.407 3.127 1.631 7065
3.540 3.249 1.690 1756
3.302 3.030 1.584 1326
3.460 3.176 1.639 6069
3.566 3.273 1.686 2177
3.355 3.079 1.593 1741
3.480 3.194 1.633 6688
3.586 3.291 1.679 3235
3.374 3.097 1.587 998
3.494 3.207 1.624 5621
3.600 3.304 1.670 4204
3.592 3.297 1.651 5359
3.486 3.200 1.606 2496
3.698 3.394 1.696 988
3.612 3.315 1.644 4014
3.501 3.213 1.597 3057
3.718 3.413 1.688 858
3.643 3.344 1.641 4128
3.504 3.216 1.583 2714
3.749 3.441 1.685 822
3.663 3.362 1.634 4275
3.507 3.219 1.569 1142
3.825 3.511 1.701 900
3.672 3.370 1.622 3336
3.834 3.519 1.688 1337
3.510 3.222 1.556 952
3.675 3.373 1.607 3875
3.832 3.517 1.671 1427
3.723 3.417 1.611 6064
3.846 3.530 1.660 1812
3.617 3.320 1.568 1662
3.726 3.420 1.596 6591
3.861 3.543 1.649 2911
3.620 3.322 1.554 996
3.858 3.541 1.632 3517
3.729 3.423 1.582 3208
3.965 3.639 1.674 1174
3.850 3.534 1.612 4669
3.979 3.652 1.662 1873
3.704 3.400 1.556 1571
3.864 3.547 1.602 3586
3.982 3.655 1.647 3462
3.747 3.439 1.557 923
3.986 3.658 1.631 4569
3.873 3.555 1.589 1416
4.104 3.767 1.676 1372
3.989 3.661 1.616 2569
4.096 3.759 1.655 1594
3.843 3.527 1.561 812
4.202 3.857 1.695 803
4.059 3.726 1.625 3340
4.166 3.824 1.664 2334
3.953 3.628 1.585 853
4.273 3.922 1.704 847
4.068 3.734 1.611 3221
4.175 3.832 1.650 2238
4.288 3.936 1.691 1501
3.961 3.636 1.572 1055
4.139 3.799 1.619 2358
4.004 3.675 1.571 1969
4.303 3.949 1.678 1676
4.289 3.937 1.656 2418
4.029 3.699 1.563 2268
4.142 3.802 1.603 1837
4.292 3.940 1.639 3747
4.044 3.712 1.551 1731
4.185 3.841 1.601 1344
4.399 4.038 1.677 1046
4.307 3.953 1.626 4884
4.414 4.051 1.663 1606
4.199 3.854 1.588 1343
4.321 3.966 1.613 4744
4.440 4.075 1.654 2618
4.214 3.868 1.576 1399
4.437 4.073 1.634 3829
4.330 3.974 1.598 3731
4.545 4.172 1.671 1029
4.217 3.870 1.559 901
4.435 4.071 1.615 4607
4.327 3.972 1.579 2645
4.543 4.169 1.651 1742
4.444 4.079 1.599 5860
4.336 3.980 1.564 1886
4.551 4.178 1.635 1825
4.458 4.092 1.586 6411
4.611 4.233 1.636 1865
4.351 3.993 1.550 1772
4.473 4.105 1.572 4512
4.580 4.204 1.607 3125
4.365 4.006 1.537 781
4.487 4.119 1.558 4169
4.595 4.218 1.592 3697
4.626 4.247 1.583 5642
4.490 4.121 1.540 2847
4.573 4.197 1.547 7564
4.681 4.296 1.581 3224
4.650 4.268 1.552 8145
4.542 4.169 1.519 3256
4.900 4.498 1.629 865
4.653 4.271 1.534 9439
4.545 4.171 1.501 1575
4.898 4.495 1.608 1133
4.673 4.289 1.521 8406
4.565 4.190 1.488 1485
5.060 4.645 1.636 1460
5.174 4.749 1.670 1296
4.670 4.287 1.501 11473
5.058 4.642 1.615 2224
5.177 4.752 1.650 1695
4.778 4.386 1.532 994
4.679 4.294 1.484 12184
5.186 4.760 1.631 2683
5.055 4.640 1.593 2032
4.787 4.394 1.515 935
4.687 4.302 1.467 9567
5.189 4.763 1.611 2876
5.052 4.638 1.571 1707
5.309 4.873 1.645 1098
4.696 4.310 1.450 7272
5.198 4.771 1.592 1904
5.313 4.876 1.624 1478
5.061 4.646 1.553 1144
4.693 4.307 1.430 5961
5.207 4.779 1.573 2730
5.316 4.879 1.603 1720
4.701 4.315 1.413 4209
5.210 4.782 1.552 3359
5.319 4.882 1.582 2063
5.588 5.129 1.656 1079
5.219 4.790 1.534 2787
4.710 4.323 1.396 2691
5.328 4.890 1.563 1882
5.585 5.126 1.632 1536
5.228 4.798 1.515 2609
5.611 5.150 1.616 1789
5.479 5.029 1.581 1398
5.342 4.903 1.545 1160
5.620 5.158 1.596 2234
5.236 4.806 1.495 2015
5.505 5.053 1.566 1878
5.729 5.258 1.624 983
5.594 5.135 1.566 2369
5.486 5.035 1.538 1860
5.743 5.272 1.604 1853
5.239 4.809 1.475 992
5.752 5.280 1.583 3243
5.586 5.127 1.541 2352
5.867 5.385 1.612 1343
5.477 5.027 1.514 1261
5.761 5.288 1.562 2736
5.578 5.120 1.516 2233
5.870 5.388 1.589 1650
6.059 5.562 1.636 1165
5.598 5.138 1.499 1652
6.063 5.565 1.612 1597
5.925 5.438 1.579 1539
5.781 5.307 1.544 1309
5.911 5.425 1.551 1853
6.095 5.594 1.595 1566
6.474 5.942 1.687 1166
5.716 5.246 1.504 1030
6.488 5.955 1.664 2550
6.115 5.613 1.576 2080
5.908 5.423 1.527 1861
5.764 5.291 1.493 1361
6.492 5.958 1.638 4500
6.078 5.579 1.542 3117
6.382 5.858 1.613 2319
5.779 5.304 1.473 1217
6.501 5.967 1.614 5307
6.391 5.866 1.589 3726
6.075 5.576 1.517 3513
6.650 6.104 1.648 865
6.504 5.970 1.588 5653
6.394 5.869 1.564 4201
6.084 5.584 1.494 2653
6.648 6.102 1.621 1083
6.507 5.972 1.563 5400
6.397 5.872 1.539 4075
6.098 5.597 1.473 2615
6.645 6.099 1.593 1175
6.510 5.975 1.537 5913
6.400 5.875 1.513 3166
6.118 5.616 1.452 2016
6.925 6.356 1.627 1512
6.513 5.978 1.511 6152
6.403 5.877 1.488 1998
6.928 6.359 1.599 1748
6.622 6.078 1.535 1703
6.516 5.981 1.486 5020
7.063 6.483 1.600 2186
6.625 6.081 1.509 1683
6.406 5.880 1.463 1596
6.519 5.983 1.460 3946
7.067 6.486 1.572 1872
7.436 6.825 1.647 1537
6.409 5.883 1.438 1519
6.527 5.991 1.436 2530
7.070 6.489 1.544 1649
7.427 6.817 1.616 1593
6.412 5.885 1.413 1034
7.078 6.497 1.517 1884
7.407 6.799 1.582 1472
6.524 5.988 1.409 1152
7.223 6.629 1.546 1107
7.081 6.500 1.489 1939
7.399 6.791 1.550 1790
7.734 7.099 1.615 1232
7.561 6.940 1.581 1053
7.078 6.497 1.460 1745
7.558 6.937 1.550 1697
7.725 7.091 1.582 1649
7.396 6.789 1.520 1544
7.711 7.078 1.548 2246
8.017 7.359 1.605 2184
7.075 6.494 1.431 1841
7.561 6.940 1.521 1616
8.015 7.357 1.572 2127
7.714 7.081 1.518 1964
7.078 6.497 1.404 1747
7.442 6.831 1.469 1286
8.006 7.349 1.538 1731
7.717 7.083 1.487 1500
7.451 6.839 1.441 1461
7.087 6.505 1.377 1394
7.460 6.847 1.412 1252
8.015 7.357 1.508 1232
8.235 7.559 1.545 1184
8.883 8.153 1.657 1099
8.568 7.864 1.568 1544
9.170 8.417 1.669 1403
8.244 7.567 1.514 1101
8.880 8.151 1.621 1041
8.565 7.862 1.533 2224
9.167 8.414 1.632 1488
8.032 7.373 1.446 967
8.189 7.516 1.472 830
8.556 7.854 1.498 1955
9.165 8.412 1.595 1554
8.035 7.375 1.415 794
8.215 7.540 1.443 754
8.554 7.851 1.463 1279
9.168 8.415 1.559 1088
9.643 8.851 1.633 994
9.640 8.849 1.594 1138
8.551 7.848 1.429 948
9.182 8.428 1.524 877
9.185 8.431 1.488 1057
10.241 9.400 1.644 918
9.638 8.846 1.555 781
10.255 9.413 1.605 1372
9.159 8.407 1.448 993
10.139 9.307 1.588 823
9.873 9.062 1.550 809
10.264 9.421 1.565 1348
10.142 9.310 1.548 959
9.881 9.070 1.512 945
9.162 8.410 1.411 811
10.262 9.419 1.524 1262
9.890 9.078 1.474 947
10.151 9.318 1.509 935
8.312 7.629 1.260 840
8.326 7.642 1.228 1601
10.276 9.432 1.485 1270
10.386 9.533 1.499 815
8.328 7.644 1.196 1933
10.285 9.440 1.445 1294
8.162 7.491 1.142 1923
8.330 7.646 1.163 1646
10.293 9.448 1.405 1051
8.164 7.493 1.110 3704
8.321 7.637 1.128 1619
8.172 7.501 1.078 4495
8.311 7.629 1.094 1722
8.055 7.394 1.065 801
8.168 7.497 1.045 4423
8.313 7.630 1.062 1797
8.057 7.396 1.033 919
8.170 7.499 1.013 4539
8.333 7.648 1.031 1672
8.059 7.397 1.001 989
8.166 7.495 0.980 4391
8.055 7.394 0.969 1538
8.334 7.650 0.998 1172
8.168 7.497 0.948 4182
8.057 7.395 0.937 2154
8.278 7.598 0.959 1047
8.181 7.509 0.917 3849
8.053 7.392 0.905 2257
8.291 7.610 0.928 797
8.194 7.521 0.886 3140
8.054 7.393 0.873 2203
8.190 7.517 0.853 2180
8.044 7.384 0.840 2005
8.174 7.503 0.819 2205
8.040 7.380 0.808 2143
8.181 7.509 0.787 1995
8.047 7.386 0.777 1715
8.183 7.511 0.755 1204
8.066 7.404 0.746 853
1.703 1.548 1.750 2732
1.707 1.551 1.743 5465
1.616 1.469 1.656 990
1.797 1.634 1.830 829
