2.860 1.798 1.744 4995
2.746 1.726 1.678 1634
2.840 1.785 1.720 7924
2.725 1.713 1.655 1046
2.844 1.788 1.711 12412
2.995 1.883 1.796 1208
2.854 1.794 1.704 15527
2.975 1.870 1.772 2032
2.870 1.804 1.701 17207
2.985 1.877 1.765 3026
2.874 1.807 1.692 9885
2.989 1.879 1.755 3237
2.951 1.855 1.722 5768
2.835 1.782 1.659 3088
2.918 1.834 1.692 6232
3.034 1.907 1.755 2123
2.928 1.841 1.685 6413
3.044 1.914 1.747 1974
2.950 1.855 1.685 4671
3.072 1.931 1.750 2225
3.033 1.907 1.717 5740
2.893 1.818 1.643 2430
3.056 1.921 1.716 7033
2.939 1.848 1.655 2310
3.072 1.931 1.712 6810
2.931 1.842 1.639 1884
3.094 1.945 1.712 6834
2.934 1.845 1.629 1484
3.098 1.948 1.701 6340
3.126 1.965 1.703 5802
3.243 2.039 1.762 1536
3.062 1.925 1.658 5689
3.198 2.011 1.727 5114
3.208 2.017 1.719 7210
3.060 1.924 1.645 5459
3.212 2.019 1.708 7337
3.064 1.926 1.634 3659
3.284 2.065 1.730 5714
3.166 1.991 1.673 4289
3.294 2.071 1.722 6836
3.176 1.997 1.665 3602
3.304 2.077 1.714 7495
3.186 2.003 1.657 3304
3.308 2.080 1.703 6807
3.190 2.005 1.646 2266
3.318 2.086 1.694 8297
3.442 2.164 1.754 1542
3.334 2.096 1.689 11956
3.453 2.171 1.745 2641
3.351 2.106 1.684 11653
3.469 2.181 1.739 2367
3.361 2.113 1.675 7877
3.479 2.187 1.730 1921
3.414 2.147 1.687 6949
3.296 2.072 1.632 2394
3.437 2.161 1.683 7364
3.318 2.086 1.629 3369
3.453 2.171 1.677 6292
3.572 2.246 1.731 3540
3.564 2.240 1.713 6279
3.445 2.166 1.660 3301
3.568 2.243 1.701 8710
3.448 2.168 1.648 1790
3.571 2.245 1.689 10905
3.452 2.170 1.637 2037
3.582 2.252 1.680 10619
3.462 2.176 1.628 3008
3.592 2.258 1.670 7332
3.472 2.183 1.619 2992
3.589 2.256 1.655 5037
3.709 2.332 1.707 3736
3.580 2.251 1.638 4712
3.700 2.326 1.689 4529
3.597 2.261 1.631 4855
3.716 2.336 1.681 3124
3.619 2.275 1.626 6181
3.796 2.387 1.700 5074
3.794 2.385 1.685 6964
3.642 2.289 1.622 5456
3.620 2.276 1.599 5424
3.797 2.387 1.672 5396
3.808 2.394 1.661 5881
3.643 2.290 1.595 4456
3.805 2.392 1.646 6446
3.926 2.468 1.694 3227
3.955 2.486 1.691 3975
3.809 2.394 1.633 3650
3.971 2.497 1.682 6243
3.850 2.421 1.635 2775
3.975 2.499 1.669 5623
3.854 2.423 1.622 3082
3.979 2.501 1.655 5389
3.858 2.425 1.609 4081
3.989 2.508 1.644 6776
3.868 2.432 1.598 2833
3.993 2.510 1.631 6609
4.171 2.622 1.698 3323
3.996 2.512 1.617 4774
4.175 2.625 1.684 4548
4.147 2.607 1.658 3278
4.026 2.531 1.613 2807
4.202 2.642 1.662 2633
4.048 2.545 1.606 2088
4.199 2.640 1.646 2862
4.340 2.729 1.697 1896
4.203 2.642 1.631 3444
4.344 2.731 1.682 2191
4.220 2.653 1.622 3185
4.354 2.737 1.670 2625
4.358 2.740 1.655 4045
4.236 2.663 1.612 2758
4.362 2.742 1.640 4812
4.240 2.665 1.597 2191
4.359 2.740 1.623 6700
4.526 2.846 1.680 1518
4.363 2.743 1.608 5012
4.485 2.820 1.650 2239
4.457 2.802 1.623 4372
4.598 2.891 1.671 1468
4.467 2.808 1.610 3086
4.602 2.893 1.655 2170
4.380 2.754 1.565 3226
4.541 2.855 1.618 2935
4.713 2.963 1.658 4183
4.474 2.813 1.580 2683
4.626 2.908 1.612 6216
4.749 2.986 1.652 5096
4.740 2.980 1.632 7630
4.617 2.902 1.592 4136
4.750 2.986 1.617 8592
4.627 2.909 1.579 3032
4.741 2.980 1.597 6612
4.618 2.903 1.559 2288
4.725 2.970 1.575 7249
4.848 3.048 1.613 1110
4.748 2.985 1.565 8029
5.150 3.238 1.687 1493
4.758 2.991 1.550 7103
5.154 3.240 1.669 2768
4.742 2.981 1.528 7426
5.164 3.247 1.654 4004
4.758 2.991 1.516 6628
5.168 3.249 1.636 4496
5.178 3.255 1.620 5251
4.781 3.006 1.505 3057
5.182 3.258 1.602 4606
4.784 3.008 1.489 2545
5.238 3.293 1.599 4564
4.768 2.998 1.467 2828
5.241 3.295 1.581 5443
4.758 2.991 1.447 1877
5.304 3.334 1.580 4117
5.532 3.478 1.642 1487
5.327 3.349 1.567 3538
5.536 3.480 1.623 1281
5.311 3.339 1.543 2531
5.742 3.610 1.658 1851
5.321 3.345 1.527 2860
5.746 3.612 1.639 2524
5.743 3.610 1.617 3287
5.540 3.483 1.565 2428
5.740 3.609 1.596 3590
5.884 3.699 1.633 1576
5.763 3.623 1.581 3853
5.888 3.701 1.613 2630
5.885 3.700 1.591 3430
5.760 3.621 1.560 3060
5.803 3.648 1.550 3700
6.184 3.888 1.643 2925
5.800 3.646 1.529 4792
6.187 3.890 1.622 2685
5.810 3.653 1.510 3764
6.198 3.896 1.602 2785
6.208 3.903 1.583 4116
5.820 3.659 1.492 2880
6.218 3.909 1.563 5112
5.823 3.661 1.472 2375
6.221 3.911 1.542 2966
6.708 4.217 1.652 2448
6.719 4.224 1.631 3796
7.081 4.452 1.712 1798
6.722 4.226 1.608 4433
7.078 4.450 1.686 2258
6.719 4.224 1.583 3966
7.089 4.456 1.663 2850
7.092 4.459 1.639 3433
6.677 4.197 1.551 3189
7.089 4.457 1.613 3497
6.720 4.225 1.536 2356
7.100 4.463 1.590 3230
7.225 4.542 1.616 2131
7.103 4.466 1.566 2676
7.229 4.544 1.592 1857
7.107 4.468 1.542 2102
7.596 4.775 1.639 1673
7.494 4.711 1.592 1898
7.110 4.470 1.517 1557
7.491 4.709 1.565 1804
7.682 4.830 1.602 1509
7.487 4.707 1.538 1629
7.971 5.011 1.629 1595
7.968 5.009 1.601 1831
8.570 5.388 1.712 1694
8.077 5.078 1.593 1712
8.302 5.220 1.633 1698
8.578 5.393 1.653 2339
8.319 5.230 1.607 1411
8.582 5.395 1.624 2883
8.336 5.241 1.581 1398
8.585 5.397 1.594 2131
9.176 5.768 1.695 1704
8.589 5.400 1.565 1349
9.173 5.767 1.662 1289
8.951 5.627 1.594 1249
9.402 5.911 1.668 1162
9.406 5.913 1.635 1375
9.253 5.817 1.611 1174
9.436 5.932 1.607 1826
9.257 5.819 1.579 1310
10.696 6.724 1.767 1817
9.426 5.926 1.573 1755
10.707 6.731 1.731 2394
9.430 5.928 1.540 1477
10.717 6.738 1.695 2611
9.433 5.931 1.508 1264
10.721 6.740 1.658 2612
9.796 6.159 1.527 1041
10.731 6.747 1.623 2577
10.742 6.753 1.587 2700
10.765 6.768 1.552 2166
10.992 6.910 1.582 1072
10.769 6.770 1.515 1763
11.008 6.921 1.546 1377
10.739 6.751 1.474 2050
11.012 6.923 1.508 1440
10.722 6.741 1.435 1693
11.009 6.921 1.470 1108
10.878 6.839 1.416 1101
10.718 6.738 1.397 1096
10.895 6.849 1.380 1005
1.980 1.235 1.773 10521
1.877 1.170 1.685 1312
1.984 1.237 1.766 21042
1.881 1.172 1.679 2625
1.988 1.240 1.759 21042
1.884 1.175 1.672 2625
1.998 1.246 1.757 16415
1.894 1.181 1.671 2096
2.013 1.255 1.760 12943
1.908 1.190 1.673 1228
2.023 1.261 1.757 8722
2.065 1.287 1.782 8456
1.960 1.222 1.696 1236
2.069 1.290 1.775 8456
1.964 1.224 1.690 1236
2.084 1.299 1.777 8330
1.979 1.234 1.692 2776
2.022 1.260 1.717 9184
2.127 1.326 1.801 2938
2.026 1.263 1.710 9925
2.131 1.329 1.794 3202
2.030 1.265 1.703 10666
2.136 1.331 1.787 3467
2.039 1.271 1.701 8348
2.145 1.337 1.784 2242
2.043 1.274 1.694 6112
2.149 1.340 1.777 1764
2.047 1.276 1.687 3853
2.153 1.342 1.770 1764
2.112 1.317 1.728 2610
2.219 1.384 1.810 1996
2.201 1.372 1.785 3443
2.094 1.305 1.703 2131
2.194 1.368 1.769 4782
2.086 1.301 1.688 2603
2.192 1.367 1.757 6333
2.085 1.300 1.676 2790
2.202 1.373 1.754 6401
2.094 1.305 1.674 2562
2.223 1.386 1.760 7839
2.115 1.318 1.679 2365
2.221 1.385 1.748 8297
2.113 1.317 1.668 1652
2.219 1.384 1.736 9321
2.111 1.316 1.657 1005
2.223 1.386 1.729 9070
2.332 1.454 1.808 1528
2.233 1.392 1.725 9045
2.342 1.460 1.804 1986
2.231 1.391 1.714 7408
2.340 1.459 1.792 3955
2.235 1.393 1.706 5996
2.344 1.461 1.784 5632
2.342 1.460 1.772 7445
2.233 1.392 1.695 4307
2.341 1.459 1.760 9571
2.231 1.391 1.683 2703
2.356 1.469 1.761 8622
2.247 1.401 1.684 1929
2.372 1.479 1.761 8406
2.262 1.410 1.684 1468
2.393 1.492 1.765 6563
2.283 1.423 1.689 3575
2.316 1.444 1.701 6150
2.426 1.513 1.777 4981
2.320 1.446 1.693 5466
2.430 1.515 1.768 3670
2.329 1.452 1.689 4672
2.446 1.525 1.768 2672
2.380 1.484 1.713 3955
2.491 1.553 1.787 3414
2.501 1.559 1.783 4737
2.384 1.486 1.705 4558
2.511 1.565 1.778 5997
2.388 1.489 1.697 4259
2.515 1.568 1.770 7980
2.403 1.498 1.696 3711
2.519 1.570 1.761 8498
2.407 1.501 1.688 3461
2.529 1.576 1.757 7215
2.417 1.507 1.684 2885
2.562 1.597 1.767 7576
2.427 1.513 1.680 2047
2.578 1.607 1.766 7573
2.466 1.537 1.694 1759
2.594 1.617 1.765 8293
2.481 1.547 1.693 1499
2.604 1.623 1.760 8383
2.473 1.542 1.677 1311
2.608 1.626 1.751 8186
2.495 1.555 1.680 1025
2.612 1.628 1.742 7989
2.610 1.627 1.730 6370
2.722 1.697 1.800 1146
2.602 1.622 1.714 5249
2.715 1.692 1.783 2417
2.605 1.624 1.705 5072
2.719 1.695 1.774 2526
2.693 1.679 1.747 5211
2.579 1.608 1.678 2204
2.703 1.685 1.741 5760
2.589 1.614 1.673 1599
2.737 1.706 1.750 5382
2.623 1.635 1.682 1106
2.717 1.694 1.727 5504
2.831 1.765 1.794 2546
2.709 1.689 1.710 6153
2.829 1.764 1.781 3954
2.827 1.762 1.768 7256
2.701 1.684 1.694 5962
2.831 1.765 1.759 11103
2.692 1.678 1.678 4055
2.835 1.767 1.749 11568
2.684 1.673 1.662 1875
2.839 1.770 1.739 8505
2.688 1.676 1.653 1381
2.849 1.776 1.733 5016
2.847 1.775 1.720 7663
2.992 1.865 1.802 1068
2.851 1.777 1.711 10819
3.002 1.872 1.796 1292
2.861 1.783 1.704 14009
2.994 1.867 1.779 1886
2.877 1.793 1.701 15285
2.992 1.865 1.765 2426
2.880 1.796 1.692 9132
2.996 1.868 1.755 2350
2.884 1.798 1.682 5537
3.000 1.870 1.745 3208
2.894 1.804 1.675 5942
3.010 1.877 1.738 3362
2.929 1.826 1.682 6354
3.045 1.898 1.744 2200
2.957 1.843 1.685 4633
3.073 1.916 1.747 2203
3.034 1.892 1.714 6143
2.918 1.819 1.652 2043
3.038 1.894 1.704 7363
2.922 1.821 1.643 1770
3.048 1.900 1.696 6487
2.931 1.828 1.636 1695
3.058 1.907 1.689 4221
3.175 1.979 1.750 1506
3.105 1.936 1.701 3935
3.066 1.911 1.669 4548
3.189 1.988 1.731 2621
3.070 1.914 1.658 4605
3.212 2.002 1.730 4316
3.216 2.005 1.719 6084
3.067 1.912 1.645 4358
3.213 2.003 1.705 6410
3.077 1.918 1.637 3086
3.292 2.052 1.730 5814
3.174 1.979 1.673 4581
3.302 2.058 1.722 6997
3.184 1.985 1.665 3892
3.312 2.065 1.714 7161
3.194 1.991 1.657 3232
3.310 2.063 1.700 6465
3.191 1.990 1.643 1824
3.326 2.073 1.694 8211
3.451 2.151 1.754 1766
3.342 2.084 1.689 11902
3.461 2.158 1.745 2978
3.352 2.090 1.681 10643
3.471 2.164 1.736 2948
3.369 2.100 1.675 7028
3.487 2.174 1.730 2245
3.423 2.134 1.687 6366
3.304 2.060 1.632 2042
3.451 2.152 1.686 7808
3.332 2.077 1.632 3460
3.462 2.158 1.677 6566
3.581 2.232 1.731 4015
3.572 2.227 1.713 6999
3.453 2.153 1.660 2438
3.576 2.229 1.701 8644
3.412 2.127 1.629 1116
3.580 2.232 1.689 10801
3.460 2.157 1.637 1498
3.590 2.238 1.680 11202
3.470 2.163 1.628 2632
3.594 2.240 1.667 7646
3.474 2.166 1.616 2428
3.598 2.243 1.655 4831
3.718 2.318 1.707 3853
3.595 2.241 1.640 4575
3.715 2.316 1.691 3817
3.624 2.259 1.639 4707
3.744 2.334 1.689 2388
3.640 2.269 1.632 5956
3.811 2.376 1.703 4785
3.809 2.375 1.687 6739
3.657 2.280 1.625 5382
3.806 2.373 1.672 5991
3.654 2.278 1.610 5148
3.810 2.375 1.659 6558
3.658 2.280 1.597 4057
3.808 2.374 1.643 6679
3.935 2.453 1.694 3319
3.811 2.376 1.630 4073
3.945 2.459 1.683 3865
3.981 2.482 1.682 5041
3.860 2.406 1.635 3094
3.978 2.480 1.666 4795
3.857 2.404 1.619 2612
3.886 2.423 1.616 4716
4.065 2.534 1.685 4510
4.011 2.501 1.649 6207
3.890 2.425 1.603 3136
4.009 2.499 1.633 5844
4.130 2.575 1.679 3205
4.006 2.497 1.617 4311
4.185 2.609 1.684 4184
4.221 2.631 1.682 3350
4.016 2.504 1.606 2557
4.212 2.626 1.662 2863
4.090 2.550 1.618 1778
4.209 2.624 1.646 2410
4.351 2.712 1.697 2324
4.354 2.715 1.682 2952
4.213 2.626 1.631 2526
4.365 2.721 1.670 2998
4.230 2.637 1.622 2486
4.375 2.727 1.657 4500
4.253 2.651 1.614 2777
4.372 2.726 1.640 6158
4.250 2.649 1.597 2454
4.376 2.728 1.625 8472
4.531 2.825 1.678 1777
4.386 2.734 1.612 6218
4.509 2.811 1.654 1913
4.461 2.781 1.621 3987
4.338 2.704 1.580 1266
4.393 2.739 1.582 4210
4.542 2.832 1.632 2673
4.390 2.737 1.565 4292
4.546 2.834 1.616 3955
4.737 2.953 1.662 4169
4.394 2.739 1.550 3478
4.741 2.956 1.646 7346
4.618 2.879 1.606 4304
4.758 2.966 1.634 8742
4.634 2.889 1.594 3312
4.761 2.968 1.617 10754
4.638 2.891 1.579 2422
4.758 2.966 1.599 7900
4.635 2.890 1.561 2082
4.742 2.957 1.577 5781
4.866 3.034 1.615 1247
4.772 2.975 1.569 10799
5.143 3.206 1.681 1459
4.776 2.977 1.552 11016
5.166 3.221 1.669 3150
4.773 2.975 1.534 9285
5.183 3.231 1.655 5276
4.776 2.977 1.518 8606
5.180 3.229 1.636 6751
5.190 3.236 1.620 6837
4.792 2.988 1.505 4080
5.194 3.238 1.602 5243
4.796 2.990 1.489 2911
5.250 3.273 1.599 5273
4.786 2.984 1.469 3040
5.247 3.271 1.580 6315
4.770 2.974 1.447 1662
5.231 3.261 1.556 3929
5.355 3.339 1.590 1932
5.287 3.296 1.553 2764
5.444 3.394 1.595 1430
5.303 3.306 1.538 2769
5.749 3.584 1.657 1833
5.556 3.464 1.585 2829
5.327 3.321 1.525 2327
5.756 3.589 1.617 3261
5.560 3.466 1.566 2412
5.747 3.583 1.594 3903
5.905 3.681 1.635 1730
5.777 3.601 1.581 3594
5.902 3.679 1.613 2592
5.905 3.682 1.593 3561
5.780 3.604 1.562 2847
5.830 3.635 1.553 3908
6.205 3.868 1.645 2581
5.820 3.628 1.530 3620
6.202 3.866 1.622 2407
5.830 3.635 1.512 2613
6.206 3.869 1.601 2602
6.222 3.879 1.583 3633
5.840 3.641 1.493 2119
6.233 3.886 1.563 4443
6.734 4.198 1.678 2175
6.731 4.196 1.654 2768
6.243 3.892 1.543 2712
6.741 4.203 1.632 3972
7.098 4.425 1.712 2324
6.745 4.205 1.609 4537
7.095 4.423 1.686 2860
6.742 4.203 1.585 3962
7.105 4.430 1.663 3586
7.109 4.432 1.639 4372
6.759 4.214 1.565 3283
7.106 4.430 1.613 4412
6.742 4.203 1.537 2186
7.116 4.437 1.590 3963
7.242 4.515 1.616 1605
7.120 4.439 1.566 3251
7.603 4.740 1.664 1802
7.117 4.437 1.540 2679
7.508 4.680 1.618 1563
7.127 4.443 1.517 2064
7.511 4.683 1.592 2004
7.515 4.685 1.567 1703
7.701 4.801 1.602 1526
7.505 4.679 1.538 1699
7.956 4.960 1.623 1657
7.986 4.979 1.601 1841
7.509 4.681 1.513 1784
8.322 5.188 1.633 1969
8.096 5.047 1.593 1736
8.598 5.360 1.653 2063
8.339 5.199 1.607 1712
8.602 5.363 1.624 2782
8.356 5.209 1.581 1674
8.612 5.369 1.595 2211
9.197 5.734 1.695 1645
9.407 5.865 1.698 1447
8.622 5.375 1.567 1320
9.411 5.867 1.665 1342
8.979 5.597 1.595 1220
9.422 5.874 1.634 1393
9.275 5.782 1.611 1042
9.465 5.901 1.608 1913
9.279 5.785 1.579 1151
9.455 5.895 1.574 1709
10.721 6.684 1.767 1648
10.732 6.691 1.731 2189
9.446 5.889 1.539 1323
10.743 6.697 1.695 2392
9.789 6.103 1.557 1078
10.746 6.700 1.658 2425
9.806 6.113 1.525 1115
10.750 6.702 1.622 2866
10.760 6.708 1.586 3381
10.784 6.723 1.551 2428
10.807 6.738 1.517 1764
11.035 6.879 1.546 1169
10.757 6.706 1.473 1731
11.038 6.881 1.508 1303
10.747 6.700 1.435 1924
11.035 6.879 1.470 1055
10.750 6.702 1.398 1553
10.904 6.798 1.416 1003
10.753 6.704 1.361 1045
1.991 1.231 1.777 10248
1.887 1.166 1.690 1316
1.995 1.233 1.771 20497
1.890 1.169 1.683 2633
1.999 1.236 1.764 20497
1.894 1.171 1.677 2633
2.008 1.241 1.762 15873
1.904 1.177 1.675 2073
2.018 1.247 1.760 12332
1.907 1.179 1.669 1074
2.033 1.257 1.762 9143
2.070 1.280 1.782 8814
1.965 1.215 1.696 1551
2.074 1.282 1.775 8814
1.969 1.217 1.690 1551
2.078 1.285 1.768 8208
1.972 1.219 1.683 1922
2.021 1.249 1.712 10236
2.127 1.315 1.797 3504
2.025 1.252 1.705 10170
2.131 1.317 1.790 3715
2.034 1.258 1.703 10178
2.141 1.323 1.787 3440
2.038 1.260 1.696 7983
2.145 1.326 1.780 2581
2.053 1.269 1.698 6096
2.160 1.335 1.781 1259
2.057 1.272 1.691 3765
2.164 1.338 1.774 1259
2.078 1.285 1.697 1874
2.196 1.358 1.788 1861
2.200 1.360 1.781 2613
2.082 1.287 1.690 1860
2.199 1.359 1.769 3804
2.091 1.293 1.688 2279
2.197 1.358 1.757 5004
2.089 1.292 1.676 2506
2.213 1.368 1.759 5230
2.105 1.301 1.678 2608
2.222 1.374 1.755 5976
2.114 1.307 1.675 2296
2.226 1.376 1.748 5725
2.118 1.309 1.668 1643
2.219 1.372 1.732 5895
2.228 1.378 1.729 6251
2.337 1.445 1.808 1413
2.244 1.387 1.730 7036
2.353 1.454 1.808 1861
2.242 1.386 1.718 6424
2.351 1.454 1.796 3645
2.240 1.385 1.706 5928
2.350 1.452 1.784 5244
2.354 1.455 1.776 7169
2.244 1.387 1.699 4354
2.352 1.454 1.764 9250
2.242 1.386 1.687 2683
2.367 1.464 1.765 8727
2.258 1.396 1.688 2191
2.383 1.473 1.765 9415
2.273 1.405 1.688 2064
2.399 1.483 1.765 8136
2.288 1.415 1.689 3913
2.409 1.489 1.761 7576
2.298 1.421 1.685 5375
2.407 1.488 1.749 6039
2.296 1.419 1.673 4543
2.393 1.480 1.729 5256
2.282 1.411 1.654 1631
2.397 1.482 1.721 5877
2.508 1.551 1.795 2862
2.407 1.488 1.716 5378
2.518 1.557 1.791 3864
2.511 1.552 1.775 6291
2.393 1.480 1.697 4192
2.515 1.555 1.766 8257
2.403 1.486 1.692 3873
2.525 1.561 1.761 8764
2.413 1.492 1.688 4083
2.534 1.567 1.757 7033
2.422 1.498 1.684 3411
2.574 1.591 1.771 7810
2.426 1.500 1.676 2395
2.584 1.597 1.766 8251
2.471 1.528 1.694 1663
2.600 1.607 1.765 8468
2.487 1.538 1.693 1310
2.604 1.610 1.756 7670
2.614 1.616 1.751 7652
2.624 1.622 1.746 7829
2.511 1.552 1.676 1073
2.657 1.643 1.756 6183
2.544 1.573 1.686 1309
2.679 1.656 1.758 4767
2.566 1.586 1.688 1382
2.624 1.622 1.712 4538
2.737 1.692 1.782 1405
2.711 1.676 1.754 4421
2.597 1.606 1.685 2391
2.733 1.690 1.756 5449
2.619 1.619 1.687 1311
2.737 1.692 1.747 6138
2.741 1.695 1.737 6612
2.855 1.765 1.805 1342
2.745 1.697 1.728 6304
2.860 1.768 1.796 1881
2.821 1.744 1.761 7312
2.707 1.673 1.694 4668
2.825 1.747 1.752 12518
2.705 1.672 1.682 3227
2.835 1.753 1.746 13567
2.708 1.674 1.672 1605
2.839 1.755 1.736 10379
2.724 1.684 1.670 1391
2.837 1.754 1.723 7018
2.847 1.760 1.717 7550
2.851 1.763 1.707 8603
3.009 1.860 1.796 1020
2.861 1.769 1.701 10944
3.007 1.859 1.782 1552
2.871 1.775 1.695 11271
3.005 1.858 1.769 2016
2.875 1.777 1.685 7201
2.991 1.849 1.748 2133
2.885 1.783 1.679 5742
3.013 1.863 1.748 2895
2.901 1.793 1.675 6130
3.030 1.873 1.745 3585
2.929 1.811 1.679 6294
3.046 1.883 1.741 2605
3.019 1.866 1.714 4877
2.902 1.794 1.653 2811
3.035 1.876 1.711 6834
2.919 1.804 1.649 2902
3.039 1.879 1.700 8283
2.922 1.807 1.639 2377
3.049 1.885 1.693 8602
3.166 1.957 1.754 1695
3.053 1.887 1.683 6530
3.170 1.960 1.743 2516
3.069 1.897 1.679 4201
3.187 1.970 1.739 2265
3.092 1.911 1.678 3777
3.209 1.984 1.737 2279
3.139 1.940 1.689 5147
3.256 2.013 1.748 1941
3.149 1.947 1.682 6054
3.267 2.019 1.740 2574
3.153 1.949 1.671 4581
3.271 2.022 1.729 3439
3.231 1.997 1.697 4974
3.349 2.070 1.755 2555
3.316 2.050 1.725 6492
3.198 1.977 1.668 4425
3.320 2.052 1.714 6403
3.201 1.979 1.657 3401
3.317 2.051 1.700 6383
3.199 1.978 1.643 2254
3.321 2.053 1.689 8442
3.452 2.134 1.751 1710
3.344 2.067 1.686 10867
3.463 2.141 1.742 3226
3.366 2.081 1.684 8985
3.485 2.155 1.739 2494
3.389 2.095 1.681 6245
3.508 2.169 1.736 2093
3.418 2.113 1.681 6166
3.537 2.187 1.735 1549
3.460 2.139 1.686 8418
3.579 2.212 1.740 2173
3.470 2.145 1.677 7265
3.589 2.219 1.731 4545
3.580 2.213 1.713 7637
3.429 2.120 1.646 3281
3.591 2.220 1.704 7539
3.433 2.122 1.634 1936
3.595 2.222 1.692 10265
3.475 2.148 1.639 1265
3.598 2.225 1.680 12616
3.737 2.310 1.740 1777
3.596 2.223 1.665 9236
3.729 2.305 1.722 2724
3.606 2.229 1.655 5899
3.726 2.304 1.707 4191
3.622 2.239 1.648 5816
3.743 2.314 1.699 4537
3.645 2.253 1.644 6706
3.766 2.328 1.695 3740
3.649 2.256 1.632 6612
3.770 2.330 1.682 4885
3.818 2.360 1.687 6003
3.659 2.262 1.622 5197
3.822 2.363 1.674 6811
3.663 2.264 1.610 4475
3.813 2.357 1.656 7131
3.673 2.270 1.600 3239
3.817 2.359 1.643 7175
3.957 2.446 1.699 3238
3.839 2.374 1.638 5728
3.961 2.448 1.686 3683
3.881 2.399 1.640 4830
4.022 2.486 1.695 3721
3.892 2.406 1.629 3992
4.051 2.505 1.691 3439
4.081 2.523 1.687 4342
3.889 2.404 1.614 3834
4.027 2.489 1.651 5781
4.149 2.565 1.698 2821
4.031 2.492 1.638 5677
4.153 2.567 1.684 4027
4.156 2.569 1.670 4937
4.034 2.494 1.624 4504
4.147 2.564 1.651 3741
4.025 2.488 1.606 2774
4.228 2.614 1.665 3477
4.048 2.503 1.599 2194
4.361 2.696 1.697 2637
4.232 2.616 1.650 2554
4.371 2.702 1.684 3690
4.178 2.583 1.615 1364
4.388 2.713 1.674 3572
4.265 2.637 1.631 1181
4.392 2.715 1.659 4685
4.269 2.639 1.616 2187
4.389 2.713 1.642 6788
4.266 2.637 1.600 2038
4.393 2.716 1.627 9170
4.522 2.795 1.671 1821
4.396 2.718 1.612 7371
4.519 2.794 1.654 1730
4.406 2.724 1.599 5604
4.581 2.832 1.658 1877
4.404 2.722 1.582 5463
4.546 2.810 1.630 3197
4.401 2.720 1.565 4381
4.550 2.813 1.614 4330
4.748 2.935 1.662 4406
4.547 2.811 1.597 3635
4.752 2.938 1.646 7373
4.629 2.861 1.606 3641
4.762 2.944 1.632 9899
4.639 2.868 1.592 2609
4.766 2.946 1.615 13110
4.642 2.870 1.577 1538
4.770 2.949 1.599 9320
5.023 3.106 1.678 1522
4.780 2.955 1.585 5080
5.040 3.116 1.665 2311
4.783 2.957 1.569 12425
5.051 3.122 1.649 2620
4.787 2.959 1.552 13695
5.178 3.201 1.669 3648
4.784 2.957 1.534 9451
5.195 3.212 1.655 6887
5.199 3.214 1.638 10003
4.794 2.963 1.520 8513
5.203 3.216 1.620 9296
4.810 2.974 1.507 4936
5.213 3.223 1.604 6862
4.807 2.972 1.489 3007
5.243 3.241 1.594 7256
4.804 2.970 1.471 2320
5.246 3.243 1.576 7776
5.443 3.365 1.630 2207
5.243 3.241 1.556 5892
5.447 3.367 1.612 2510
5.280 3.264 1.547 4532
5.444 3.365 1.591 2604
5.290 3.270 1.531 3415
5.447 3.367 1.573 2440
5.576 3.447 1.587 2578
5.451 3.370 1.554 1959
5.803 3.587 1.626 3417
5.573 3.445 1.566 2106
5.780 3.573 1.599 3963
5.925 3.663 1.636 1970
5.764 3.563 1.575 2762
5.929 3.665 1.616 2552
5.847 3.614 1.575 3270
6.058 3.745 1.627 2798
5.844 3.613 1.553 4477
6.061 3.747 1.606 2971
5.840 3.611 1.532 2914
6.071 3.753 1.587 1928
5.844 3.613 1.512 1944
6.583 4.070 1.687 1934
6.224 3.848 1.580 2171
6.746 4.170 1.701 1940
6.254 3.866 1.565 2650
6.749 4.173 1.678 2346
6.753 4.175 1.655 2649
6.112 3.778 1.510 1823
6.764 4.181 1.634 3287
7.114 4.398 1.712 2602
6.767 4.184 1.611 3545
7.112 4.396 1.686 3131
7.122 4.403 1.663 3885
6.771 4.186 1.588 3395
7.126 4.405 1.639 4843
6.781 4.192 1.566 3156
7.123 4.403 1.613 4896
6.778 4.190 1.542 1940
7.133 4.410 1.590 4113
7.259 4.488 1.616 1287
7.137 4.412 1.566 3225
7.641 4.724 1.668 1718
7.047 4.357 1.523 3019
7.233 4.472 1.560 2249
7.051 4.359 1.499 2670
7.536 4.658 1.594 2047
7.054 4.361 1.475 1752
7.533 4.657 1.567 1569
7.968 4.926 1.622 2085
7.523 4.651 1.538 1551
7.972 4.928 1.595 1952
7.526 4.653 1.513 1622
8.342 5.157 1.633 1826
8.115 5.017 1.593 1493
8.365 5.171 1.608 1905
8.625 5.332 1.654 1396
8.629 5.334 1.625 2124
8.369 5.174 1.580 1895
9.425 5.827 1.730 2066
8.639 5.341 1.596 1935
9.436 5.833 1.699 2026
9.003 5.565 1.627 1226
9.440 5.836 1.667 1490
9.213 5.696 1.630 1221
9.437 5.834 1.633 1334
9.590 5.929 1.658 1191
9.501 5.873 1.610 1499
9.801 6.059 1.657 1033
9.805 6.061 1.624 1859
9.504 5.876 1.578 1262
9.815 6.068 1.591 2502
10.764 6.654 1.732 1458
9.819 6.070 1.558 2438
10.768 6.657 1.695 1659
10.772 6.659 1.658 1822
9.822 6.072 1.524 1752
10.775 6.661 1.622 2508
11.297 6.984 1.694 1097
10.792 6.672 1.587 3170
11.287 6.978 1.653 1383
10.816 6.686 1.552 2511
11.264 6.964 1.611 1049
10.833 6.697 1.517 1510
10.772 6.660 1.435 1274
10.782 6.666 1.399 1269
11.338 7.009 1.464 1122
11.342 7.011 1.425 1054
1.994 1.226 1.777 9256
1.889 1.162 1.690 1027
1.998 1.228 1.771 18513
1.893 1.164 1.683 2054
2.002 1.231 1.764 18513
1.897 1.166 1.677 2054
2.011 1.237 1.762 14450
1.906 1.172 1.675 1622
2.026 1.246 1.764 11249
2.036 1.252 1.762 8812
2.068 1.271 1.778 8124
2.072 1.274 1.771 8124
2.076 1.276 1.764 7854
1.970 1.211 1.679 1364
2.024 1.244 1.712 9994
2.130 1.310 1.797 3654
2.028 1.247 1.705 9420
2.134 1.312 1.790 3698
2.032 1.249 1.699 8847
2.138 1.315 1.782 3742
2.041 1.255 1.696 6854
2.148 1.321 1.780 2835
2.056 1.264 1.698 5158
2.163 1.330 1.781 1913
2.060 1.267 1.691 3136
2.167 1.333 1.774 1913
2.166 1.332 1.762 2263
2.047 1.259 1.671 1227
2.175 1.338 1.759 2478
2.045 1.258 1.660 1214
2.191 1.347 1.761 3343
2.083 1.281 1.679 1562
2.200 1.353 1.757 4340
2.093 1.287 1.676 1931
2.210 1.359 1.754 4596
2.102 1.292 1.674 1835
2.220 1.365 1.751 5111
2.112 1.298 1.671 1598
2.224 1.367 1.744 5086
2.115 1.301 1.664 1229
2.239 1.377 1.745 5151
2.243 1.379 1.737 5802
2.352 1.446 1.816 1184
2.253 1.385 1.734 6519
2.362 1.452 1.813 1610
2.245 1.381 1.718 6002
2.355 1.448 1.796 3077
2.244 1.379 1.706 5780
2.359 1.450 1.789 4123
2.299 1.414 1.736 6090
2.409 1.481 1.813 1657
2.361 1.452 1.769 7976
2.251 1.384 1.691 2744
2.377 1.461 1.769 8305
2.267 1.394 1.692 2645
2.392 1.471 1.769 9661
2.282 1.403 1.692 3080
2.402 1.477 1.765 8715
2.292 1.409 1.689 4131
2.412 1.483 1.761 8369
2.302 1.415 1.685 5256
2.405 1.478 1.745 7200
2.294 1.410 1.669 3738
2.397 1.474 1.729 7268
2.286 1.405 1.654 1585
2.407 1.480 1.725 7122
2.518 1.548 1.799 2227
2.411 1.482 1.716 5596
2.522 1.551 1.791 3473
2.508 1.542 1.771 6083
2.397 1.474 1.697 3620
2.518 1.548 1.766 8136
2.407 1.480 1.692 3753
2.522 1.551 1.758 8513
2.410 1.482 1.684 3819
2.526 1.553 1.749 6806
2.414 1.484 1.676 3200
2.578 1.585 1.771 6841
2.424 1.490 1.672 2619
2.588 1.591 1.766 7982
2.434 1.496 1.668 1881
2.604 1.601 1.765 8191
2.491 1.532 1.693 1490
2.608 1.603 1.756 7067
2.495 1.534 1.685 1096
2.624 1.613 1.755 7182
2.511 1.544 1.684 1244
2.639 1.623 1.754 7969
2.526 1.553 1.683 1375
2.661 1.636 1.756 6788
2.548 1.567 1.686 1413
2.671 1.642 1.750 5330
2.558 1.573 1.681 1289
2.639 1.623 1.720 5343
2.777 1.707 1.803 1564
2.721 1.673 1.758 3935
2.607 1.603 1.689 2273
2.737 1.683 1.756 5343
2.623 1.613 1.687 1245
2.741 1.685 1.747 6498
2.745 1.688 1.737 7279
2.749 1.690 1.728 6936
2.864 1.761 1.796 1122
2.814 1.730 1.754 7654
2.699 1.659 1.687 3810
2.830 1.740 1.752 13206
2.715 1.669 1.685 3079
2.834 1.742 1.742 14709
2.719 1.672 1.676 1699
2.838 1.745 1.733 12109
2.722 1.674 1.667 1487
2.842 1.747 1.723 8417
2.846 1.750 1.713 6847
2.961 1.821 1.778 1191
2.849 1.752 1.704 6618
2.965 1.823 1.768 1308
2.859 1.758 1.698 8413
2.975 1.829 1.762 1130
2.863 1.760 1.688 9142
3.016 1.854 1.772 1636
2.873 1.767 1.682 6502
3.014 1.853 1.758 1755
2.914 1.792 1.692 5274
3.030 1.863 1.755 2638
2.930 1.801 1.689 6285
3.046 1.873 1.751 3249
2.934 1.804 1.679 5759
3.050 1.876 1.741 2437
3.024 1.859 1.714 4648
2.907 1.787 1.653 3404
3.034 1.865 1.707 6687
2.917 1.793 1.646 3649
3.044 1.871 1.700 8125
2.927 1.799 1.639 3157
3.054 1.878 1.693 9114
2.930 1.802 1.629 1631
3.064 1.884 1.686 7629
3.181 1.956 1.746 2599
3.130 1.924 1.707 5296
3.247 1.996 1.767 1442
3.133 1.927 1.697 5410
3.251 1.999 1.756 1629
3.143 1.933 1.689 6548
3.261 2.005 1.748 1457
3.154 1.939 1.682 6817
3.284 2.019 1.746 2267
3.151 1.937 1.668 4388
3.282 2.018 1.732 3233
3.242 1.993 1.700 7263
3.360 2.066 1.758 2390
3.246 1.996 1.689 9918
3.364 2.069 1.746 3268
3.256 2.002 1.681 9806
3.375 2.075 1.738 3194
3.254 2.000 1.667 8253
3.391 2.085 1.733 3387
3.326 2.045 1.689 8397
3.207 1.972 1.632 2244
3.343 2.055 1.683 9380
3.462 2.128 1.739 2990
3.378 2.077 1.686 7304
3.497 2.150 1.742 2248
3.400 2.091 1.684 5565
3.520 2.164 1.739 1953
3.423 2.105 1.681 5948
3.543 2.178 1.735 1907
3.458 2.126 1.683 8272
3.578 2.200 1.738 2448
3.469 2.133 1.675 7310
3.588 2.206 1.728 5163
3.586 2.205 1.713 7634
3.441 2.116 1.649 4097
3.602 2.215 1.707 7283
3.482 2.141 1.654 2720
3.606 2.217 1.695 10512
3.486 2.143 1.642 1565
3.610 2.220 1.682 13014
3.743 2.301 1.740 2149
3.608 2.218 1.667 9846
3.753 2.308 1.730 2706
3.618 2.224 1.658 6452
3.738 2.298 1.709 3969
3.628 2.231 1.648 6594
3.748 2.305 1.699 5155
3.651 2.245 1.644 7859
3.771 2.319 1.695 4687
3.654 2.247 1.632 7205
3.775 2.321 1.682 5605
3.766 2.316 1.664 5868
3.645 2.241 1.614 5020
3.827 2.353 1.674 7014
3.662 2.251 1.607 3692
3.818 2.348 1.656 6655
3.672 2.258 1.597 2354
3.829 2.354 1.646 6732
3.969 2.440 1.702 2862
3.845 2.364 1.638 6164
3.967 2.439 1.686 3362
3.881 2.386 1.637 5027
4.034 2.481 1.697 3621
3.885 2.388 1.624 3817
4.006 2.463 1.671 3062
4.081 2.509 1.685 3502
3.888 2.391 1.611 3158
4.039 2.484 1.654 4984
4.161 2.559 1.700 2270
4.037 2.482 1.638 6268
4.159 2.557 1.684 3785
4.041 2.484 1.624 6280
4.163 2.559 1.670 4858
4.154 2.554 1.651 4021
4.031 2.479 1.606 3707
4.228 2.600 1.662 3966
4.054 2.493 1.599 2884
4.238 2.606 1.650 3496
4.367 2.685 1.697 2540
4.378 2.692 1.684 3564
4.255 2.616 1.641 2691
4.394 2.702 1.674 3770
4.259 2.618 1.626 1608
4.398 2.704 1.659 4263
4.275 2.629 1.616 1398
4.395 2.703 1.642 5318
4.518 2.778 1.685 1597
4.399 2.705 1.627 7197
4.522 2.780 1.669 1937
4.403 2.707 1.612 6397
4.526 2.783 1.654 1606
4.413 2.713 1.599 5553
4.588 2.821 1.658 2253
4.417 2.716 1.585 4874
4.546 2.795 1.627 2951
4.550 2.798 1.612 3651
4.414 2.714 1.567 3234
4.755 2.924 1.662 3561
4.547 2.796 1.594 3098
4.759 2.926 1.646 5635
4.629 2.846 1.604 3526
4.769 2.932 1.632 8630
4.633 2.848 1.588 2697
4.773 2.935 1.615 11619
5.184 3.187 1.744 1278
4.777 2.937 1.599 8344
5.038 3.097 1.680 1972
4.859 2.987 1.607 4911
5.054 3.108 1.667 3374
4.790 2.945 1.569 10046
5.065 3.114 1.651 4214
4.794 2.947 1.552 11406
5.193 3.193 1.671 3410
4.797 2.950 1.536 7193
5.203 3.199 1.655 6603
5.207 3.201 1.638 10138
4.807 2.956 1.522 6274
5.210 3.204 1.620 9261
4.817 2.962 1.507 4155
5.221 3.210 1.604 6721
4.821 2.964 1.491 2400
5.244 3.224 1.592 7198
5.454 3.353 1.651 2140
5.248 3.226 1.574 7292
5.451 3.352 1.630 2599
5.251 3.229 1.556 5782
5.442 3.346 1.608 2893
5.287 3.251 1.547 4929
5.439 3.344 1.588 3256
5.298 3.257 1.531 3364
5.449 3.350 1.571 2949
5.459 3.356 1.554 2284
5.597 3.441 1.591 2183
5.812 3.573 1.626 3572
5.581 3.431 1.566 1737
5.789 3.559 1.599 4176
5.927 3.644 1.635 1598
5.779 3.553 1.576 2427
5.938 3.651 1.616 2045
6.073 3.734 1.629 3053
5.855 3.600 1.575 2885
5.852 3.598 1.553 3691
6.077 3.736 1.608 3161
5.856 3.600 1.533 2589
6.087 3.743 1.589 2332
6.593 4.054 1.687 2344
5.853 3.598 1.512 1828
6.597 4.056 1.664 2332
6.756 4.154 1.701 1685
6.640 4.083 1.651 2140
6.111 3.757 1.530 2129
6.128 3.768 1.512 2048
6.763 4.158 1.655 2018
6.767 4.161 1.632 2245
7.118 4.377 1.710 2130
6.870 4.224 1.631 2749
7.036 4.326 1.667 2709
7.040 4.328 1.643 4092
7.166 4.406 1.671 2685
7.037 4.327 1.618 4406
7.163 4.404 1.645 3361
7.133 4.386 1.613 4281
7.007 4.308 1.587 2458
7.210 4.433 1.604 4465
7.044 4.331 1.570 2034
7.214 4.435 1.579 3246
7.054 4.337 1.547 2455
7.058 4.339 1.523 3489
7.676 4.720 1.646 2262
7.061 4.341 1.499 3250
7.687 4.726 1.621 2095
7.058 4.339 1.474 2207
7.690 4.728 1.594 1750
7.980 4.907 1.622 2228
7.707 4.739 1.571 1313
7.984 4.909 1.595 2048
8.517 5.237 1.692 1184
8.527 5.243 1.665 1392
8.354 5.136 1.633 1335
8.378 5.151 1.608 1636
8.525 5.241 1.634 1294
8.381 5.153 1.580 1717
8.642 5.313 1.625 1508
9.433 5.800 1.729 2023
8.652 5.320 1.596 1456
9.444 5.806 1.698 2121
9.016 5.543 1.627 1257
9.447 5.809 1.665 1488
9.227 5.673 1.630 1445
9.525 5.856 1.645 1343
9.231 5.675 1.598 1248
9.528 5.858 1.612 1519
9.822 6.039 1.658 1303
9.826 6.042 1.625 1846
9.545 5.869 1.582 1267
9.837 6.048 1.592 2397
9.616 5.912 1.559 1127
9.840 6.050 1.559 2366
11.219 6.898 1.758 1116
9.844 6.052 1.525 1658
10.781 6.629 1.658 1101
10.791 6.635 1.622 1674
11.307 6.952 1.693 1424
10.815 6.650 1.588 2523
11.291 6.942 1.652 1893
10.832 6.660 1.552 2356
11.281 6.936 1.611 1430
10.849 6.670 1.517 1437
11.349 6.978 1.463 1237
11.359 6.984 1.425 1034
2.005 1.219 1.782 8643
2.009 1.221 1.775 17286
1.905 1.158 1.688 1686
2.013 1.224 1.768 17286
1.908 1.160 1.682 1686
2.023 1.230 1.766 13701
1.918 1.166 1.680 1223
2.032 1.236 1.764 10750
2.042 1.241 1.762 8673
2.074 1.261 1.778 7726
1.968 1.197 1.692 1020
2.078 1.263 1.771 7726
1.972 1.199 1.685 1020
2.082 1.266 1.764 8140
1.976 1.201 1.679 1384
2.036 1.238 1.717 9116
2.142 1.302 1.801 4022
2.034 1.237 1.705 8265
2.141 1.301 1.790 4179
2.038 1.239 1.699 7439
2.145 1.304 1.782 3931
2.047 1.245 1.696 5676
2.154 1.310 1.780 3648
2.063 1.254 1.698 4360
2.170 1.319 1.781 3469
2.168 1.318 1.770 3598
2.061 1.253 1.687 2598
2.167 1.317 1.758 3890
2.165 1.316 1.746 4196
2.169 1.319 1.739 4574
2.179 1.325 1.736 4987
2.200 1.337 1.742 4503
2.215 1.347 1.743 4444
2.231 1.356 1.744 4958
2.246 1.366 1.745 6266
2.262 1.375 1.745 6486
2.271 1.381 1.742 6912
2.381 1.447 1.821 1001
2.287 1.390 1.743 6183
2.397 1.457 1.821 1048
2.303 1.400 1.743 6258
2.312 1.406 1.740 6301
2.422 1.473 1.817 1393
2.368 1.440 1.769 6619
2.247 1.366 1.683 2583
2.384 1.449 1.769 7639
2.274 1.382 1.692 2784
2.400 1.459 1.769 9510
2.289 1.392 1.692 3892
2.410 1.465 1.765 9142
2.299 1.398 1.689 4591
2.420 1.471 1.761 9149
2.309 1.404 1.685 5373
2.406 1.463 1.741 8829
2.295 1.395 1.665 2842
2.404 1.462 1.729 9531
2.293 1.394 1.654 1487
2.414 1.468 1.725 8380
2.526 1.535 1.799 2169
2.424 1.474 1.720 5526
2.536 1.541 1.795 2791
2.516 1.530 1.771 5835
2.404 1.462 1.697 2687
2.520 1.532 1.762 7859
2.408 1.464 1.689 3110
2.524 1.535 1.754 8127
2.412 1.466 1.681 3532
2.528 1.537 1.745 7747
2.416 1.469 1.672 3184
2.526 1.536 1.733 7540
2.414 1.467 1.661 2584
2.596 1.578 1.766 7424
2.483 1.509 1.694 2301
2.606 1.584 1.761 8168
2.493 1.515 1.690 2035
2.610 1.587 1.753 6899
2.497 1.518 1.681 2073
2.644 1.607 1.762 7045
2.530 1.538 1.692 2146
2.654 1.613 1.757 8558
2.540 1.544 1.687 2091
2.664 1.619 1.752 7643
2.550 1.550 1.682 1937
2.668 1.622 1.743 6495
2.554 1.552 1.673 1665
2.654 1.613 1.723 6826
2.792 1.697 1.807 1655
2.664 1.619 1.718 5411
2.778 1.689 1.787 1896
2.740 1.666 1.752 5207
2.625 1.596 1.684 1595
2.744 1.668 1.743 6614
2.748 1.670 1.734 7774
2.746 1.669 1.721 7874
2.861 1.739 1.788 1494
2.822 1.716 1.754 7554
2.707 1.646 1.687 4085
2.832 1.722 1.748 13262
2.717 1.652 1.682 3069
2.842 1.728 1.742 15363
2.727 1.658 1.676 1500
2.846 1.730 1.733 13507
2.731 1.660 1.667 1261
2.850 1.733 1.723 9931
2.860 1.739 1.717 6640
2.976 1.809 1.782 1114
2.883 1.752 1.717 5176
2.862 1.740 1.694 6360
2.978 1.811 1.758 1620
2.915 1.772 1.711 9248
3.031 1.843 1.775 1065
2.925 1.778 1.705 9876
3.048 1.853 1.772 1361
2.947 1.792 1.705 8940
3.064 1.863 1.768 2228
2.951 1.794 1.695 8275
3.068 1.865 1.758 2894
2.937 1.785 1.675 5737
3.054 1.856 1.738 2796
2.934 1.784 1.662 5077
3.051 1.855 1.724 4293
3.037 1.846 1.704 6456
2.920 1.775 1.643 4222
3.047 1.852 1.697 7622
2.929 1.781 1.636 3838
3.063 1.862 1.693 9235
2.946 1.791 1.633 2477
3.092 1.880 1.696 9585
3.216 1.955 1.759 2431
3.127 1.901 1.701 8212
3.245 1.973 1.761 2758
3.137 1.907 1.694 7721
3.255 1.979 1.753 2418
3.153 1.917 1.689 8280
3.271 1.989 1.748 1505
3.163 1.923 1.682 7744
3.313 2.014 1.756 2167
3.242 1.971 1.708 6245
3.360 2.043 1.766 2179
3.252 1.977 1.700 10685
3.371 2.049 1.758 2629
3.256 1.979 1.689 13399
3.375 2.052 1.746 2615
3.260 1.982 1.678 13064
3.398 2.065 1.744 3436
3.264 1.984 1.667 11403
3.408 2.072 1.736 4922
3.261 1.983 1.653 8657
3.405 2.070 1.721 4391
3.340 2.031 1.677 6876
3.460 2.103 1.733 3186
3.420 2.079 1.701 6156
3.300 2.006 1.646 2950
3.417 2.077 1.687 4562
3.537 2.150 1.742 1948
3.453 2.099 1.689 5264
3.572 2.172 1.744 1800
3.456 2.101 1.678 7967
3.576 2.174 1.732 3097
3.460 2.104 1.666 7018
3.580 2.177 1.720 5976
3.584 2.179 1.708 7291
3.464 2.106 1.654 4512
3.620 2.201 1.710 7464
3.499 2.127 1.657 4158
3.630 2.207 1.700 11455
3.510 2.134 1.648 2692
3.628 2.205 1.685 13303
3.748 2.279 1.737 2152
3.631 2.208 1.673 10145
3.784 2.300 1.738 2607
3.642 2.214 1.663 7423
3.769 2.291 1.717 3289
3.645 2.216 1.651 7745
3.766 2.290 1.702 5292
3.656 2.222 1.641 9152
3.777 2.296 1.692 5760
3.666 2.228 1.632 7813
3.787 2.302 1.682 5990
3.855 2.343 1.695 6299
3.663 2.227 1.617 5264
3.858 2.346 1.682 7516
3.667 2.229 1.604 3146
3.837 2.332 1.659 6107
3.971 2.414 1.713 1911
3.840 2.335 1.646 5914
3.962 2.409 1.694 2548
3.863 2.349 1.640 6128
3.985 2.423 1.688 2999
3.886 2.363 1.635 5145
4.040 2.456 1.695 3322
3.897 2.369 1.624 3922
4.019 2.443 1.671 2918
4.061 2.469 1.673 3436
3.894 2.367 1.609 3069
4.052 2.463 1.654 4192
3.897 2.369 1.595 1793
4.049 2.462 1.638 6791
4.172 2.536 1.684 2818
4.053 2.464 1.624 9013
4.175 2.538 1.670 3960
4.063 2.470 1.613 6736
4.237 2.576 1.677 3571
4.067 2.472 1.599 5337
4.241 2.578 1.662 4787
4.070 2.475 1.585 4426
4.251 2.585 1.650 4377
4.281 2.603 1.645 3936
4.080 2.481 1.574 2852
4.408 2.680 1.674 3222
4.265 2.593 1.624 2263
4.418 2.686 1.661 3166
4.295 2.611 1.619 1444
4.409 2.680 1.642 2985
4.532 2.755 1.685 1388
4.413 2.683 1.627 4136
4.536 2.758 1.669 2327
4.423 2.689 1.614 4635
4.546 2.764 1.656 2258
4.427 2.691 1.599 4464
4.596 2.794 1.656 2750
4.430 2.693 1.585 3276
4.554 2.768 1.625 3139
4.545 2.763 1.606 3292
4.421 2.688 1.565 1668
4.548 2.765 1.590 2385
4.763 2.896 1.660 1986
4.780 2.906 1.648 2951
4.565 2.775 1.579 2774
4.784 2.908 1.632 5813
4.634 2.817 1.584 2607
4.788 2.911 1.615 7565
4.912 2.986 1.654 1682
4.785 2.909 1.597 5608
4.909 2.984 1.635 2896
4.893 2.975 1.613 4380
5.070 3.082 1.667 3667
5.080 3.089 1.651 5468
4.805 2.921 1.569 5170
4.809 2.923 1.552 6199
5.091 3.095 1.636 4683
5.219 3.173 1.655 4606
4.819 2.929 1.538 3522
5.223 3.175 1.638 7593
5.091 3.095 1.600 3315
5.226 3.177 1.620 7040
5.102 3.101 1.584 2793
5.237 3.184 1.604 4979
5.112 3.108 1.569 1641
5.254 3.194 1.590 5096
5.477 3.330 1.653 2102
5.264 3.200 1.574 4803
5.474 3.328 1.632 2456
5.267 3.202 1.556 4139
5.439 3.306 1.603 3112
5.304 3.224 1.547 4177
5.436 3.305 1.583 3921
5.452 3.315 1.568 3186
5.307 3.226 1.529 2617
5.476 3.329 1.554 2100
5.819 3.538 1.644 1944
5.810 3.532 1.621 3818
5.618 3.415 1.572 1718
5.807 3.530 1.599 4307
5.681 3.454 1.568 1869
5.711 3.472 1.555 2580
5.837 3.548 1.586 1813
6.099 3.708 1.630 2732
5.867 3.567 1.573 2179
6.096 3.706 1.608 2875
5.864 3.565 1.552 2679
6.106 3.712 1.589 2499
5.881 3.575 1.535 2286
6.607 4.017 1.685 2469
6.116 3.718 1.570 2014
6.611 4.019 1.663 2406
6.126 3.724 1.550 1507
6.668 4.053 1.653 2542
6.143 3.735 1.533 2009
6.146 3.737 1.512 2273
6.671 4.056 1.630 2263
6.874 4.179 1.652 2532
6.675 4.058 1.607 2235
6.885 4.185 1.630 3060
7.058 4.291 1.667 2886
7.055 4.289 1.642 4617
7.215 4.386 1.676 2541
7.059 4.291 1.618 4625
7.205 4.380 1.649 2532
7.229 4.395 1.629 3292
7.042 4.281 1.590 3058
7.232 4.397 1.604 4357
7.032 4.275 1.563 2425
7.236 4.399 1.579 3138
7.036 4.277 1.539 2248
7.079 4.304 1.523 3370
7.700 4.681 1.646 2750
7.083 4.306 1.499 3182
7.704 4.683 1.619 2871
7.968 4.844 1.643 2343
7.080 4.304 1.474 2208
8.005 4.866 1.622 2243
7.257 4.412 1.482 1817
8.008 4.869 1.595 1968
8.550 5.198 1.694 1945
8.554 5.200 1.665 2045
8.928 5.428 1.732 1061
8.544 5.194 1.633 1764
8.410 5.113 1.610 1162
8.528 5.184 1.601 1527
8.401 5.107 1.579 1315
9.462 5.752 1.729 1560
9.040 5.496 1.658 1158
9.473 5.759 1.698 1987
9.252 5.624 1.661 1130
9.483 5.765 1.667 1737
9.255 5.627 1.630 1588
9.541 5.800 1.643 1626
9.259 5.629 1.598 1386
9.564 5.815 1.613 1818
9.853 5.990 1.658 1506
9.863 5.996 1.626 1620
9.575 5.821 1.582 1447
9.874 6.002 1.593 1932
9.645 5.864 1.559 1137
9.877 6.005 1.559 1945
9.649 5.866 1.526 1012
9.887 6.011 1.527 1366
11.257 6.844 1.720 1001
11.335 6.891 1.692 1323
10.825 6.581 1.622 1045
11.319 6.881 1.651 2057
10.855 6.599 1.588 1629
10.872 6.610 1.553 1844
11.309 6.875 1.610 1576
10.882 6.616 1.517 1287
2.010 1.223 1.786 7677
2.014 1.225 1.780 15355
1.910 1.162 1.692 1223
2.018 1.228 1.773 15355
1.914 1.164 1.686 1223
2.023 1.230 1.766 12406
2.032 1.236 1.764 9775
2.042 1.242 1.762 8059
2.074 1.261 1.778 7771
1.968 1.197 1.692 1049
2.078 1.264 1.771 7771
1.972 1.199 1.685 1049
2.082 1.266 1.764 8642
1.976 1.202 1.679 1239
2.086 1.269 1.757 9513
1.979 1.204 1.672 1429
2.095 1.275 1.754 6979
1.989 1.210 1.670 1551
2.038 1.240 1.699 5665
2.144 1.305 1.782 4005
2.154 1.310 1.780 4522
2.047 1.245 1.696 4353
2.164 1.316 1.777 5368
2.057 1.251 1.694 3506
2.168 1.319 1.770 5368
2.061 1.253 1.687 2140
2.166 1.318 1.758 5792
2.165 1.317 1.746 6325
2.174 1.323 1.743 6327
2.184 1.329 1.740 6775
2.194 1.335 1.737 5872
2.203 1.340 1.734 5109
2.230 1.357 1.744 5781
2.246 1.366 1.745 7544
2.261 1.376 1.745 7266
2.271 1.382 1.742 7319
2.292 1.395 1.747 6180
2.314 1.407 1.751 6695
2.204 1.341 1.673 1718
2.318 1.410 1.744 6190
2.208 1.343 1.666 1327
2.322 1.412 1.736 5685
2.432 1.479 1.813 1469
2.390 1.454 1.773 6574
2.279 1.387 1.696 3480
2.399 1.460 1.769 8688
2.289 1.392 1.692 4390
2.403 1.462 1.761 9082
2.293 1.395 1.685 3826
2.413 1.468 1.757 9600
2.302 1.401 1.681 4241
2.406 1.463 1.741 9891
2.295 1.396 1.665 2405
2.404 1.462 1.729 10737
2.515 1.530 1.804 1627
2.414 1.468 1.725 8781
2.525 1.536 1.799 2289
2.423 1.474 1.720 5157
2.535 1.542 1.795 2864
2.504 1.523 1.763 5589
2.392 1.455 1.689 2051
2.514 1.529 1.758 7545
2.402 1.461 1.685 2416
2.524 1.535 1.754 7882
2.412 1.467 1.681 3185
2.528 1.538 1.745 8844
2.415 1.469 1.672 2915
2.532 1.540 1.737 9807
2.419 1.472 1.664 2645
2.542 1.546 1.732 9012
2.429 1.478 1.660 1954
2.593 1.578 1.754 8511
2.480 1.509 1.682 2139
2.603 1.584 1.749 7397
2.490 1.515 1.677 2619
2.643 1.608 1.762 6950
2.530 1.539 1.692 2617
2.659 1.618 1.761 8653
2.546 1.549 1.690 2865
2.663 1.620 1.752 7947
2.549 1.551 1.682 2339
2.661 1.619 1.739 7249
2.547 1.550 1.670 1440
2.659 1.618 1.727 7584
2.791 1.698 1.807 1527
2.657 1.616 1.714 6042
2.801 1.704 1.801 1770
2.739 1.666 1.752 4940
2.625 1.597 1.684 2389
2.743 1.669 1.743 6179
2.747 1.671 1.734 7978
2.862 1.741 1.802 1206
2.739 1.666 1.718 9064
2.854 1.736 1.785 2601
2.743 1.669 1.708 9072
2.858 1.739 1.775 3626
2.832 1.723 1.748 11815
2.717 1.653 1.682 3799
2.842 1.729 1.742 14295
2.726 1.659 1.676 1349
2.846 1.731 1.733 12947
2.850 1.734 1.723 11388
2.966 1.804 1.788 1169
2.860 1.740 1.717 9484
2.976 1.810 1.782 1313
2.858 1.738 1.704 8210
2.974 1.809 1.768 2131
2.917 1.774 1.725 9336
2.800 1.704 1.660 2058
2.921 1.777 1.715 15025
3.055 1.859 1.789 1174
2.924 1.779 1.705 14262
3.059 1.861 1.778 1817
2.947 1.793 1.705 12119
3.063 1.864 1.768 2652
2.951 1.795 1.695 10150
3.074 1.870 1.761 3276
2.936 1.786 1.675 6451
3.084 1.876 1.754 3407
2.934 1.785 1.662 5901
3.051 1.856 1.724 4564
2.938 1.787 1.652 5901
3.055 1.858 1.714 5000
3.040 1.849 1.694 7014
2.923 1.778 1.633 3590
3.069 1.867 1.696 8749
2.945 1.792 1.633 2833
3.097 1.884 1.699 11291
3.215 1.956 1.759 3192
3.120 1.898 1.698 9834
3.238 1.970 1.758 3866
3.136 1.908 1.694 8712
3.254 1.980 1.753 2974
3.153 1.918 1.689 8715
3.271 1.990 1.748 2164
3.231 1.966 1.716 8685
3.113 1.894 1.657 1835
3.235 1.968 1.705 9901
3.354 2.040 1.763 3298
3.251 1.978 1.700 12436
3.370 2.050 1.758 2892
3.255 1.980 1.689 14545
3.387 2.060 1.752 2517
3.259 1.983 1.678 14177
3.403 2.070 1.747 3844
3.263 1.985 1.667 12620
3.413 2.077 1.739 5828
3.261 1.984 1.653 10101
3.417 2.079 1.727 4910
3.271 1.990 1.645 6398
3.428 2.085 1.718 4862
3.425 2.084 1.704 5519
3.274 1.992 1.634 2920
3.461 2.105 1.707 3837
3.265 1.987 1.617 1758
3.458 2.104 1.692 4775
3.578 2.177 1.747 1978
3.456 2.102 1.678 6622
3.576 2.175 1.732 3166
3.460 2.105 1.666 5932
3.580 2.178 1.720 5240
3.533 2.149 1.685 6487
3.653 2.222 1.739 2481
3.625 2.206 1.712 7161
3.505 2.132 1.659 5228
3.629 2.208 1.700 11514
3.509 2.135 1.648 3476
3.633 2.210 1.688 12768
3.754 2.284 1.740 1890
3.643 2.216 1.678 9540
3.790 2.305 1.741 2983
3.660 2.227 1.671 7680
3.794 2.308 1.728 3934
3.651 2.221 1.654 7841
3.772 2.295 1.705 4858
3.655 2.223 1.641 9158
3.776 2.297 1.692 6182
3.665 2.230 1.632 7505
3.786 2.303 1.682 6290
3.854 2.344 1.695 6632
3.669 2.232 1.619 4876
3.864 2.351 1.685 7442
3.672 2.234 1.607 2378
3.868 2.353 1.672 5766
3.989 2.427 1.720 1348
3.840 2.336 1.646 4839
3.961 2.410 1.694 2759
3.869 2.354 1.643 4953
3.991 2.428 1.691 2649
3.943 2.399 1.657 5153
4.065 2.473 1.705 2558
4.044 2.460 1.681 4331
3.902 2.374 1.627 4322
4.054 2.466 1.670 5147
3.899 2.372 1.611 3388
4.051 2.465 1.654 4508
3.916 2.382 1.603 2155
4.048 2.463 1.638 6715
4.203 2.557 1.696 1957
4.059 2.469 1.627 10105
4.181 2.544 1.672 2840
4.062 2.471 1.613 9437
4.237 2.577 1.677 3909
4.066 2.474 1.599 8419
4.240 2.580 1.662 5238
4.070 2.476 1.585 6871
4.264 2.594 1.655 4589
4.300 2.616 1.652 4794
4.073 2.478 1.572 4615
4.323 2.630 1.644 4281
4.083 2.484 1.560 3584
4.320 2.628 1.628 2347
4.443 2.703 1.671 1841
4.421 2.690 1.647 1775
4.285 2.607 1.600 1572
4.516 2.747 1.663 3213
4.392 2.672 1.621 2133
4.520 2.749 1.647 3847
4.396 2.674 1.606 2457
4.588 2.791 1.654 3405
4.426 2.692 1.599 3347
4.560 2.774 1.627 3692
4.429 2.695 1.585 1984
4.537 2.760 1.604 3369
4.668 2.839 1.646 2415
4.541 2.762 1.588 2212
4.671 2.842 1.630 1840
4.564 2.777 1.579 2610
4.688 2.852 1.619 1917
4.783 2.910 1.632 3848
4.659 2.834 1.592 2552
4.787 2.912 1.615 4888
4.911 2.988 1.654 1998
4.895 2.978 1.631 3407
5.026 3.058 1.672 2890
4.912 2.988 1.619 3750
5.069 3.084 1.667 3379
5.079 3.090 1.651 5527
4.942 3.006 1.610 4242
5.083 3.092 1.634 6314
4.945 3.009 1.593 3288
5.080 3.091 1.615 5074
5.205 3.166 1.652 2935
5.064 3.081 1.592 5166
5.222 3.177 1.638 5031
5.226 3.179 1.620 5335
5.081 3.091 1.579 3642
5.209 3.169 1.597 3529
5.407 3.289 1.652 2451
5.279 3.211 1.597 2717
5.489 3.339 1.656 2159
5.269 3.206 1.576 2684
5.585 3.398 1.663 2657
5.418 3.296 1.597 3340
5.273 3.208 1.558 2407
5.428 3.302 1.581 4131
5.303 3.226 1.547 2638
5.438 3.308 1.564 2885
5.616 3.417 1.611 2744
5.620 3.419 1.592 3127
5.811 3.535 1.642 1999
5.802 3.530 1.619 3962
5.630 3.425 1.575 3191
5.799 3.528 1.598 4415
5.634 3.427 1.556 2501
5.803 3.530 1.578 2491
5.631 3.425 1.535 2276
6.097 3.709 1.630 2144
5.839 3.552 1.567 1806
6.101 3.712 1.610 2383
5.889 3.583 1.558 2250
5.893 3.585 1.538 2376
6.105 3.714 1.589 2121
6.606 4.018 1.685 2315
5.896 3.587 1.518 1946
6.603 4.017 1.661 2270
6.132 3.730 1.552 1521
6.673 4.059 1.654 2443
6.142 3.736 1.533 1697
6.677 4.062 1.632 2030
6.145 3.739 1.512 1868
6.873 4.181 1.652 2629
6.680 4.064 1.609 1801
6.884 4.188 1.630 2912
7.050 4.289 1.666 2386
7.054 4.291 1.642 3771
6.914 4.206 1.612 2199
7.057 4.293 1.618 3798
7.210 4.386 1.650 1928
7.054 4.291 1.593 3002
7.227 4.397 1.629 2789
7.231 4.399 1.604 3471
7.038 4.281 1.565 2911
7.048 4.288 1.542 2908
7.241 4.405 1.581 2858
7.072 4.302 1.522 3175
7.692 4.679 1.644 2595
7.702 4.686 1.619 3029
7.075 4.304 1.498 2727
7.966 4.846 1.643 2728
7.713 4.692 1.594 2292
7.255 4.414 1.482 2201
8.003 4.869 1.622 2139
8.548 5.200 1.694 2269
8.007 4.871 1.595 1771
8.552 5.203 1.665 2200
8.191 4.983 1.600 1428
8.543 5.197 1.633 1920
9.118 5.547 1.734 1391
8.526 5.187 1.601 1683
9.235 5.618 1.723 1496
9.246 5.625 1.693 1273
9.467 5.759 1.730 1226
9.471 5.762 1.698 1661
9.257 5.631 1.662 1153
9.481 5.768 1.667 1581
9.254 5.629 1.630 1479
9.525 5.795 1.641 1776
9.726 5.917 1.673 1420
9.563 5.817 1.613 1845
9.737 5.923 1.640 1438
9.868 6.003 1.627 1471
9.573 5.824 1.582 1446
9.878 6.010 1.594 1753
9.882 6.012 1.560 1722
9.892 6.018 1.528 1191
11.255 6.847 1.720 1032
11.266 6.854 1.683 1220
11.414 6.944 1.703 1187
11.310 6.880 1.650 1666
11.438 6.958 1.667 1267
11.300 6.875 1.609 1338
10.877 6.617 1.554 1057
2.022 1.216 1.791 7508
2.026 1.219 1.784 15017
1.921 1.155 1.697 1474
2.030 1.221 1.778 15017
1.925 1.158 1.691 1474
2.034 1.223 1.771 12218
1.929 1.160 1.684 1105
2.038 1.226 1.764 9420
2.048 1.232 1.762 7381
2.086 1.254 1.782 7277
2.090 1.257 1.775 7277
2.094 1.259 1.768 8524
1.987 1.195 1.683 1117
2.092 1.258 1.757 9797
1.985 1.194 1.672 1191
2.102 1.264 1.754 7638
1.995 1.200 1.670 1189
2.112 1.270 1.752 5566
2.004 1.205 1.668 1158
2.166 1.303 1.784 6113
2.059 1.238 1.701 3122
2.170 1.305 1.777 8266
2.063 1.241 1.694 2519
2.175 1.308 1.770 8266
2.067 1.243 1.687 1615
2.173 1.307 1.758 9003
2.171 1.306 1.746 9922
2.181 1.312 1.743 9001
2.196 1.321 1.745 9373
2.206 1.327 1.742 7700
2.227 1.340 1.747 6333
2.243 1.349 1.748 6936
2.258 1.358 1.749 8663
2.274 1.368 1.750 8246
2.284 1.373 1.746 8205
2.305 1.386 1.751 6682
2.195 1.320 1.672 1354
2.327 1.399 1.756 7642
2.216 1.333 1.677 2351
2.331 1.402 1.748 6518
2.220 1.335 1.670 1883
2.340 1.408 1.744 5398
2.230 1.341 1.667 1632
2.333 1.403 1.728 6364
2.443 1.470 1.805 1655
2.331 1.402 1.716 7807
2.442 1.469 1.793 3147
2.411 1.450 1.761 8633
2.300 1.383 1.685 3944
2.415 1.452 1.753 9978
2.304 1.385 1.677 3106
2.413 1.451 1.741 10573
2.302 1.384 1.665 2001
2.417 1.454 1.733 11385
2.535 1.524 1.812 1958
2.421 1.456 1.725 9247
2.545 1.530 1.807 2683
2.437 1.466 1.724 5560
2.555 1.536 1.803 3544
2.500 1.503 1.755 5464
2.388 1.436 1.681 1215
2.522 1.517 1.758 7276
2.409 1.449 1.685 2130
2.532 1.523 1.754 8280
2.419 1.455 1.681 2755
2.542 1.529 1.749 10722
2.429 1.461 1.676 2967
2.546 1.531 1.741 13204
2.433 1.463 1.668 2769
2.556 1.537 1.736 11887
2.442 1.469 1.664 2116
2.589 1.557 1.746 11224
2.476 1.489 1.675 2170
2.599 1.563 1.741 10278
2.486 1.495 1.670 2440
2.585 1.555 1.721 7672
2.699 1.623 1.792 3247
2.667 1.604 1.761 8432
2.553 1.536 1.690 3865
2.665 1.603 1.748 7981
2.551 1.534 1.678 2415
2.669 1.605 1.739 7803
2.555 1.537 1.670 1468
2.661 1.600 1.723 8154
2.806 1.687 1.811 1018
2.641 1.588 1.700 7160
2.756 1.657 1.769 2714
2.742 1.649 1.749 4444
2.627 1.580 1.680 3718
2.758 1.659 1.747 5098
2.643 1.589 1.678 1791
2.750 1.654 1.730 7929
2.865 1.723 1.798 1906
2.747 1.652 1.718 10907
2.863 1.722 1.785 3206
2.751 1.655 1.708 11379
2.867 1.724 1.775 3751
2.853 1.716 1.755 8669
2.737 1.646 1.689 6977
2.857 1.718 1.746 11781
2.741 1.648 1.679 2672
2.867 1.724 1.739 11868
2.751 1.654 1.674 1542
2.859 1.719 1.723 15211
2.975 1.789 1.788 1403
2.856 1.718 1.710 17973
2.973 1.788 1.775 2661
2.854 1.717 1.697 17058
2.971 1.787 1.762 3830
2.858 1.719 1.687 13713
2.975 1.789 1.752 4634
2.936 1.766 1.718 19449
2.819 1.695 1.654 3458
2.940 1.768 1.708 17477
3.063 1.842 1.775 2999
2.950 1.774 1.702 14611
3.067 1.844 1.765 3812
2.960 1.780 1.695 11698
