4.022 2.977 1.612 5885
3.906 2.891 1.569 781
4.031 2.984 1.600 7581
4.041 2.991 1.587 5530
3.901 2.887 1.536 912
4.026 2.980 1.566 8748
3.898 2.885 1.520 978
4.029 2.982 1.552 11887
4.146 3.068 1.593 819
4.033 2.985 1.537 6742
4.363 3.229 1.653 866
4.024 2.978 1.519 4850
4.373 3.237 1.640 1646
4.490 3.323 1.680 1618
4.140 3.064 1.559 1159
4.027 2.980 1.504 6513
4.413 3.266 1.637 2278
4.143 3.067 1.544 1087
4.530 3.353 1.677 760
4.030 2.983 1.490 5500
4.429 3.278 1.625 2249
4.147 3.069 1.529 948
4.546 3.364 1.664 948
4.039 2.990 1.477 3548
4.525 3.349 1.640 2540
4.402 3.258 1.599 1902
4.156 3.076 1.516 849
4.528 3.351 1.623 5222
4.399 3.256 1.581 2570
4.043 2.992 1.463 1734
4.713 3.488 1.685 967
4.526 3.349 1.605 7343
4.409 3.263 1.567 1534
4.723 3.495 1.670 1340
4.138 3.062 1.478 1005
4.535 3.357 1.591 6608
4.732 3.502 1.655 1284
4.526 3.350 1.571 5822
4.736 3.505 1.638 2935
4.517 3.343 1.550 7161
4.727 3.498 1.617 4387
4.844 3.585 1.654 1422
4.961 3.672 1.691 924
4.527 3.350 1.536 5249
4.718 3.492 1.596 4717
4.835 3.579 1.632 2394
4.953 3.665 1.669 1406
4.728 3.499 1.581 4986
4.530 3.353 1.520 4677
4.845 3.586 1.617 2614
4.962 3.673 1.653 1591
4.743 3.511 1.567 7534
4.533 3.355 1.504 4298
4.960 3.671 1.633 3857
4.747 3.513 1.550 9759
4.963 3.673 1.615 4475
4.543 3.362 1.489 2196
5.081 3.760 1.651 867
4.750 3.515 1.533 8314
4.985 3.690 1.603 2554
5.159 3.818 1.654 1976
4.540 3.360 1.471 1400
4.747 3.513 1.514 5575
5.175 3.830 1.639 3215
5.044 3.733 1.601 3212
4.927 3.646 1.567 1105
5.184 3.837 1.623 5232
4.744 3.511 1.495 3224
5.066 3.750 1.589 3090
4.949 3.662 1.555 1245
5.188 3.839 1.604 8478
5.045 3.734 1.563 2191
4.741 3.509 1.477 1251
5.306 3.927 1.637 972
5.191 3.842 1.585 9244
5.048 3.736 1.545 1387
5.309 3.929 1.618 1299
4.775 3.534 1.468 900
5.194 3.844 1.566 7473
5.312 3.932 1.599 1252
5.076 3.757 1.534 1190
5.530 4.093 1.659 1097
5.198 3.847 1.548 5800
5.533 4.095 1.639 1291
5.751 4.256 1.699 1071
5.316 3.934 1.580 1008
5.195 3.845 1.527 4427
5.767 4.268 1.682 1564
5.537 4.098 1.620 1170
5.350 3.960 1.569 959
5.204 3.852 1.510 3535
5.789 4.285 1.666 2308
5.615 4.156 1.619 1736
5.323 3.939 1.542 885
5.780 4.278 1.642 2717
5.214 3.859 1.493 2229
5.618 4.158 1.599 1994
5.930 4.389 1.681 929
5.759 4.262 1.614 1888
5.921 4.382 1.656 1317
5.628 4.165 1.581 1198
5.217 3.861 1.474 929
5.931 4.389 1.636 1789
5.775 4.274 1.597 1673
6.093 4.509 1.678 847
5.644 4.177 1.563 844
5.797 4.290 1.581 2567
5.940 4.397 1.617 2300
6.109 4.521 1.659 998
5.888 4.358 1.581 3512
5.769 4.270 1.552 1313
6.131 4.538 1.641 1045
6.006 4.445 1.611 896
5.897 4.365 1.562 3439
6.141 4.545 1.621 2053
5.779 4.277 1.533 1581
6.016 4.452 1.590 1057
6.132 4.538 1.596 2684
5.819 4.307 1.521 2498
5.938 4.395 1.549 1695
6.463 4.783 1.675 1386
6.129 4.536 1.572 3109
5.829 4.314 1.501 2372
6.373 4.717 1.629 1591
5.948 4.402 1.529 1101
6.132 4.539 1.550 3160
5.826 4.312 1.479 2098
6.389 4.728 1.609 1549
6.589 4.877 1.656 1466
6.142 4.546 1.529 2302
6.480 4.796 1.606 1990
6.361 4.708 1.579 1841
6.599 4.884 1.633 1559
6.201 4.590 1.520 2124
6.577 4.868 1.604 2115
6.396 4.733 1.563 2112
6.765 5.007 1.646 945
6.574 4.866 1.579 2400
6.411 4.745 1.543 1658
6.775 5.014 1.623 1368
6.211 4.597 1.499 1189
6.872 5.086 1.619 1942
6.578 4.868 1.555 1697
6.753 4.998 1.593 1270
6.427 4.757 1.523 1159
6.870 5.084 1.593 1864
6.531 4.833 1.521 1346
6.669 4.936 1.550 1298
7.095 5.251 1.641 1109
7.237 5.356 1.644 2027
6.923 5.124 1.579 1820
7.086 5.245 1.613 1158
6.779 5.017 1.548 1104
7.303 5.405 1.631 2386
6.914 5.117 1.551 2041
6.782 5.019 1.524 1450
7.115 5.266 1.592 1399
7.325 5.422 1.608 2825
6.917 5.119 1.526 1723
6.773 5.012 1.497 1424
7.112 5.264 1.565 1158
7.329 5.424 1.582 3215
7.593 5.619 1.634 1286
7.473 5.531 1.611 1075
6.908 5.113 1.499 1052
7.339 5.431 1.557 2618
7.521 5.566 1.592 1713
7.823 5.790 1.651 1464
8.156 6.036 1.716 1209
7.531 5.573 1.566 2322
7.826 5.792 1.623 1999
8.160 6.039 1.686 1640
7.354 5.443 1.533 1502
7.830 5.795 1.594 1970
8.018 5.934 1.630 1660
8.169 6.046 1.658 1652
7.540 5.580 1.540 1498
8.173 6.049 1.628 2138
8.022 5.937 1.601 1573
7.827 5.793 1.565 1534
7.632 5.648 1.529 1170
8.170 6.047 1.598 2572
8.044 5.953 1.575 1636
8.901 6.587 1.729 1211
7.817 5.786 1.534 1071
8.167 6.045 1.567 3059
8.904 6.590 1.697 2304
8.048 5.956 1.546 1543
8.457 6.259 1.618 1240
8.171 6.047 1.537 3429
8.908 6.593 1.664 2792
8.051 5.958 1.517 1454
9.028 6.681 1.685 1259
8.174 6.049 1.508 2753
8.918 6.600 1.633 2396
9.038 6.689 1.653 1583
8.054 5.961 1.488 1386
8.177 6.052 1.478 2146
8.921 6.603 1.601 2060
9.041 6.691 1.621 1793
9.855 7.294 1.755 1565
9.038 6.689 1.587 2102
8.180 6.054 1.449 2005
8.912 6.596 1.567 1594
9.878 7.310 1.722 1427
9.042 6.692 1.554 2550
9.888 7.318 1.687 1778
8.189 6.061 1.420 1694
8.884 6.575 1.530 1306
9.039 6.690 1.521 2442
9.891 7.321 1.652 2191
8.192 6.063 1.391 1274
8.906 6.591 1.500 1193
9.914 7.337 1.619 2525
9.042 6.692 1.488 1688
9.200 6.809 1.512 1136
8.916 6.598 1.469 1012
9.930 7.349 1.585 3187
9.083 6.722 1.461 1399
9.209 6.816 1.479 868
9.952 7.366 1.551 2988
9.086 6.725 1.428 1359
10.072 7.454 1.569 848
9.962 7.373 1.516 2255
9.842 7.284 1.500 922
9.083 6.722 1.394 818
10.101 7.476 1.536 769
9.997 7.398 1.485 1398
9.876 7.309 1.468 1049
10.019 7.415 1.451 1283
10.022 7.417 1.415 1046
10.025 7.419 1.378 877
8.387 6.207 -0.010 1217
8.393 6.212 -0.041 1639
8.380 6.202 -0.071 1756
8.373 6.197 -0.101 1965
8.372 6.196 -0.131 2179
8.365 6.191 -0.161 2413
8.358 6.186 -0.191 2196
8.338 6.171 -0.221 2431
8.337 6.171 -0.251 2389
8.343 6.175 -0.281 2412
8.342 6.174 -0.311 2187
8.328 6.164 -0.341 2043
8.321 6.158 -0.370 1759
8.300 6.143 -0.399 1555
8.299 6.142 -0.429 1417
8.278 6.127 -0.458 1312
8.283 6.131 -0.488 1449
8.282 6.129 -0.518 1616
8.268 6.119 -0.547 1446
8.260 6.113 -0.576 1405
8.258 6.112 -0.606 1936
8.250 6.106 -0.635 2487
8.248 6.104 -0.665 2487
8.233 6.093 -0.694 2342
8.219 6.083 -0.722 2421
8.217 6.081 -0.752 2442
8.208 6.075 -0.781 2490
8.206 6.073 -0.810 2454
8.204 6.072 -0.840 2417
8.201 6.070 -0.870 2417
8.205 6.073 -0.900 1909
8.203 6.071 -0.930 1411
8.194 6.064 -0.959 1092
8.191 6.062 -0.988 785
1.895 1.384 1.782 2689
1.755 1.282 1.657 886
1.899 1.387 1.775 5379
1.758 1.284 1.651 1773
1.903 1.390 1.768 5379
1.762 1.287 1.645 1773
1.917 1.400 1.771 6231
1.818 1.328 1.684 1425
1.926 1.407 1.769 7591
1.769 1.292 1.632 1065
1.935 1.413 1.766 7069
1.778 1.298 1.631 911
1.939 1.416 1.760 6596
1.787 1.305 1.629 801
1.943 1.419 1.753 6596
1.941 1.418 1.741 6909
2.042 1.491 1.826 909
1.940 1.417 1.730 7600
2.040 1.490 1.814 1392
1.954 1.427 1.732 7165
2.055 1.501 1.816 1199
1.969 1.438 1.734 7636
2.069 1.511 1.818 1053
1.868 1.364 1.650 965
1.972 1.440 1.727 7426
2.073 1.514 1.810 1221
1.871 1.367 1.644 805
1.971 1.439 1.716 7319
2.072 1.513 1.799 1716
1.974 1.442 1.709 6643
2.076 1.516 1.791 1716
2.026 1.480 1.741 6033
1.925 1.406 1.658 4939
2.128 1.554 1.823 1268
2.025 1.479 1.729 6892
1.923 1.404 1.647 4354
2.127 1.553 1.811 1687
2.034 1.485 1.726 6581
1.932 1.411 1.645 3362
2.136 1.560 1.808 2150
2.048 1.496 1.728 7183
2.151 1.571 1.809 2359
1.946 1.421 1.646 2311
2.068 1.510 1.733 5987
1.955 1.428 1.644 2254
2.171 1.585 1.814 2037
2.083 1.521 1.734 5824
2.185 1.596 1.815 2450
1.959 1.430 1.637 2104
2.092 1.528 1.731 7674
2.195 1.603 1.811 2158
1.962 1.433 1.630 1538
2.101 1.535 1.728 9762
2.204 1.610 1.808 1759
1.966 1.435 1.623 973
2.116 1.545 1.729 11168
2.219 1.621 1.808 1567
1.969 1.438 1.616 853
2.136 1.560 1.734 14509
2.032 1.484 1.655 1110
2.239 1.635 1.813 1027
2.145 1.567 1.730 14409
2.249 1.642 1.809 1575
2.041 1.491 1.652 942
2.160 1.577 1.731 15838
2.263 1.653 1.809 1753
2.056 1.501 1.653 880
2.163 1.580 1.723 12310
2.267 1.656 1.801 2041
2.059 1.504 1.646 759
2.195 1.603 1.736 9942
2.090 1.527 1.659 1362
2.299 1.679 1.813 961
2.204 1.609 1.732 8308
2.099 1.533 1.655 1187
2.308 1.686 1.809 1150
2.219 1.620 1.733 7317
2.114 1.544 1.656 1484
2.323 1.697 1.809 1016
2.228 1.627 1.729 7595
2.123 1.551 1.652 1203
2.333 1.703 1.805 1065
2.265 1.654 1.745 9709
2.160 1.577 1.669 1989
2.268 1.657 1.737 9384
2.163 1.580 1.661 1426
2.374 1.733 1.812 841
2.272 1.659 1.729 9059
2.377 1.736 1.804 1007
2.281 1.666 1.725 7428
2.387 1.743 1.799 989
2.296 1.677 1.724 7808
2.402 1.754 1.799 979
2.191 1.600 1.650 899
2.306 1.684 1.720 9455
2.411 1.761 1.794 931
2.200 1.607 1.646 887
2.321 1.695 1.720 8766
2.426 1.772 1.793 1012
2.215 1.617 1.646 778
2.335 1.706 1.719 9129
2.442 1.783 1.792 813
2.339 1.708 1.711 6552
2.445 1.786 1.784 779
2.348 1.715 1.706 4025
2.472 1.805 1.790 860
2.408 1.759 1.736 3474
2.279 1.665 1.649 1276
2.440 1.782 1.746 7292
2.333 1.704 1.675 957
2.449 1.789 1.741 9965
2.343 1.711 1.670 999
2.448 1.788 1.729 8845
2.340 1.709 1.658 825
2.555 1.866 1.800 807
2.440 1.782 1.713 8310
2.547 1.860 1.783 1781
2.449 1.789 1.708 5886
2.557 1.867 1.778 1972
2.515 1.837 1.739 6119
2.408 1.758 1.670 1425
2.519 1.840 1.730 7960
2.411 1.761 1.661 1567
2.534 1.851 1.729 8247
2.426 1.772 1.660 2032
2.544 1.858 1.723 8824
2.436 1.779 1.655 1532
2.542 1.856 1.711 8335
2.650 1.935 1.779 1627
2.551 1.863 1.705 6940
2.660 1.942 1.773 3133
2.443 1.784 1.638 809
2.578 1.883 1.710 7571
2.686 1.962 1.778 2528
2.469 1.803 1.643 1043
2.558 1.869 1.687 9294
2.667 1.948 1.754 4607
2.637 1.926 1.724 11332
2.528 1.846 1.657 4150
2.746 2.005 1.790 1226
2.640 1.928 1.714 8737
2.531 1.849 1.648 3440
2.749 2.008 1.780 1561
2.627 1.918 1.694 7129
2.736 1.998 1.760 2206
2.518 1.839 1.629 1350
2.619 1.913 1.678 9079
2.728 1.993 1.744 3107
2.510 1.833 1.613 876
0.886 0.647 0.642 767
2.628 1.920 1.672 10476
2.738 2.000 1.737 5220
0.887 0.648 0.639 836
2.519 1.840 1.607 794
2.649 1.935 1.673 11082
2.759 2.015 1.738 4613
2.540 1.855 1.609 1076
0.889 0.649 0.636 819
2.716 1.984 1.701 13574
2.607 1.904 1.637 5108
2.826 2.064 1.765 1533
2.714 1.982 1.688 16403
2.604 1.902 1.624 2883
2.824 2.063 1.752 2517
2.724 1.989 1.682 10160
2.614 1.909 1.618 2010
2.834 2.070 1.745 1726
2.774 2.026 1.698 12546
2.664 1.945 1.635 2482
2.884 2.106 1.762 2043
2.795 2.041 1.698 14882
2.685 1.961 1.636 2861
2.905 2.122 1.761 2438
2.804 2.048 1.692 13197
2.915 2.129 1.754 1644
2.694 1.967 1.630 1435
2.861 2.089 1.711 8755
2.971 2.170 1.773 1486
2.750 2.008 1.649 1220
2.870 2.096 1.704 8221
2.981 2.177 1.766 1956
2.759 2.015 1.643 1381
2.880 2.103 1.697 6958
2.991 2.184 1.758 2083
2.769 2.022 1.636 1796
2.895 2.114 1.693 6023
2.784 2.033 1.633 2115
3.018 2.204 1.760 1961
2.899 2.117 1.683 6265
3.028 2.211 1.753 3078
2.787 2.036 1.623 1181
2.891 2.111 1.666 5439
3.037 2.218 1.745 3680
2.929 2.139 1.675 4523
3.041 2.221 1.734 3836
2.818 2.058 1.615 785
2.974 2.172 1.686 6264
2.862 2.090 1.627 2232
3.086 2.254 1.745 1456
2.995 2.188 1.685 8578
2.884 2.106 1.626 1472
3.107 2.269 1.743 911
3.017 2.203 1.683 12159
2.905 2.121 1.625 1015
3.020 2.206 1.673 9496
3.133 2.288 1.730 1765
3.024 2.208 1.662 5432
3.136 2.290 1.719 2909
3.033 2.215 1.654 4784
3.146 2.298 1.711 2766
3.043 2.222 1.646 3837
3.155 2.305 1.703 2123
3.082 2.251 1.653 3826
3.201 2.338 1.712 3428
3.204 2.340 1.701 7124
3.092 2.258 1.645 3395
3.202 2.339 1.686 8287
3.089 2.256 1.631 2169
3.315 2.421 1.742 1049
3.134 2.289 1.640 6051
3.247 2.372 1.695 4099
3.360 2.454 1.750 947
3.263 2.383 1.689 4818
3.126 2.283 1.623 3144
3.376 2.466 1.744 939
3.273 2.390 1.681 4938
3.159 2.307 1.627 2449
3.386 2.473 1.735 1479
3.288 2.401 1.675 4514
3.175 2.319 1.621 3236
3.402 2.484 1.728 2924
3.298 2.408 1.666 6299
3.411 2.491 1.719 4362
3.184 2.325 1.612 1640
3.301 2.411 1.654 5684
3.415 2.494 1.707 4579
3.529 2.577 1.760 817
3.359 2.453 1.667 4542
3.245 2.370 1.615 3502
3.473 2.536 1.720 999
3.392 2.478 1.669 4833
3.272 2.390 1.614 3953
3.512 2.565 1.724 1229
3.402 2.485 1.659 6626
3.288 2.401 1.608 3289
3.516 2.568 1.711 2203
3.400 2.483 1.644 5597
3.532 2.579 1.704 3282
3.285 2.399 1.593 1435
3.409 2.490 1.635 4436
3.523 2.573 1.686 3467
3.431 2.505 1.631 4776
3.545 2.589 1.681 3392
3.660 2.673 1.732 1304
3.585 2.618 1.684 5391
3.440 2.512 1.621 4540
3.699 2.702 1.734 761
3.601 2.630 1.677 6088
3.486 2.546 1.627 2500
3.715 2.713 1.726 1114
3.580 2.615 1.654 4322
3.695 2.698 1.703 2682
3.465 2.531 1.604 1920
3.674 2.683 1.679 4187
3.559 2.600 1.631 2403
3.445 2.516 1.582 1333
3.672 2.682 1.664 3350
3.787 2.766 1.712 1236
3.490 2.549 1.587 996
3.675 2.684 1.651 4041
3.791 2.768 1.698 2247
3.685 2.691 1.640 6842
3.800 2.775 1.687 2622
3.570 2.607 1.592 1321
3.689 2.694 1.627 8232
3.804 2.778 1.674 3383
3.573 2.610 1.580 964
3.680 2.688 1.609 5941
3.795 2.772 1.655 4659
3.972 2.901 1.727 877
3.811 2.783 1.647 5192
3.671 2.681 1.591 2894
3.927 2.868 1.693 996
3.821 2.790 1.635 5194
3.943 2.879 1.684 2380
3.705 2.706 1.590 1370
3.812 2.784 1.617 4551
3.952 2.886 1.672 3478
3.834 2.800 1.610 5836
3.950 2.885 1.655 2505
4.066 2.969 1.700 762
3.856 2.816 1.604 7786
4.008 2.927 1.662 3303
3.865 2.823 1.592 5573
3.987 2.912 1.639 4583
4.003 2.924 1.629 4774
3.875 2.830 1.581 2117
4.025 2.940 1.622 5497
3.896 2.846 1.574 1522
4.029 2.942 1.607 7360
3.912 2.857 1.564 1012
4.032 2.945 1.593 6729
3.915 2.860 1.550 804
4.042 2.952 1.581 6556
4.039 2.950 1.564 8685
4.155 3.035 1.606 1005
4.048 2.957 1.552 8049
4.165 3.042 1.593 853
4.045 2.954 1.535 5267
4.433 3.238 1.670 1175
4.162 3.040 1.576 1136
4.030 2.943 1.514 5687
4.147 3.029 1.555 2457
4.430 3.236 1.652 1522
4.040 2.950 1.502 6112
4.157 3.036 1.542 3163
4.502 3.288 1.660 2757
4.117 3.007 1.512 6173
4.512 3.295 1.646 4294
4.000 2.921 1.473 1033
4.527 3.307 1.634 4403
4.064 2.968 1.479 4068
4.410 3.221 1.594 1989
4.182 3.054 1.518 957
4.537 3.314 1.619 5394
4.420 3.228 1.581 2367
4.092 2.989 1.473 2293
4.541 3.316 1.603 8394
4.102 2.996 1.460 1923
4.423 3.230 1.565 1566
4.745 3.465 1.670 1200
4.544 3.319 1.587 8332
4.748 3.468 1.653 1359
4.099 2.993 1.444 1148
4.866 3.554 1.690 976
4.541 3.317 1.569 9625
4.752 3.470 1.636 2361
4.869 3.556 1.673 1293
4.987 3.642 1.710 796
4.545 3.319 1.552 9818
4.848 3.541 1.648 3369
4.966 3.627 1.685 1952
4.731 3.455 1.611 1934
4.548 3.321 1.536 4955
4.858 3.548 1.632 4615
4.976 3.634 1.669 2404
4.740 3.462 1.596 2041
4.855 3.546 1.613 5073
4.557 3.328 1.522 4252
4.973 3.632 1.649 3585
4.737 3.460 1.577 1493
4.971 3.630 1.629 5830
4.567 3.335 1.507 4569
4.853 3.544 1.594 4019
4.735 3.458 1.558 1516
4.775 3.487 1.552 5754
4.986 3.642 1.615 4906
4.570 3.338 1.491 2709
5.185 3.787 1.675 1491
4.772 3.485 1.533 4970
5.189 3.790 1.656 3793
5.021 3.667 1.607 2671
4.567 3.335 1.473 1087
5.199 3.797 1.639 5524
4.776 3.488 1.516 3370
5.080 3.710 1.605 2295
4.962 3.624 1.571 976
5.208 3.804 1.623 8366
4.773 3.485 1.497 2107
5.090 3.717 1.589 1863
4.972 3.631 1.555 1256
5.212 3.806 1.604 12392
4.788 3.497 1.484 1459
5.094 3.720 1.570 1221
4.975 3.633 1.537 1102
5.215 3.809 1.585 13082
5.415 3.955 1.641 1577
5.097 3.722 1.552 1277
4.798 3.504 1.468 924
5.219 3.811 1.566 10963
5.412 3.953 1.620 2467
5.100 3.725 1.534 1006
5.222 3.814 1.548 8012
5.409 3.951 1.599 2019
5.640 4.119 1.662 1243
5.778 4.220 1.699 884
5.219 3.812 1.527 5614
5.407 3.949 1.578 1816
5.650 4.127 1.643 1646
5.813 4.245 1.687 1213
5.229 3.819 1.510 4160
5.810 4.243 1.664 2261
5.404 3.946 1.557 2199
5.648 4.125 1.621 1364
5.801 4.237 1.640 2887
5.232 3.821 1.492 2598
5.401 3.944 1.536 1620
5.645 4.123 1.599 1206
5.792 4.230 1.616 2450
5.911 4.317 1.647 1857
5.235 3.823 1.473 1300
5.654 4.130 1.581 947
5.802 4.237 1.597 2804
5.921 4.324 1.627 2094
5.244 3.830 1.456 769
5.812 4.244 1.577 2891
5.975 4.363 1.618 2874
6.188 4.519 1.671 882
5.978 4.366 1.597 3534
5.853 4.274 1.566 2236
6.197 4.526 1.651 1305
5.988 4.373 1.577 3196
6.195 4.524 1.627 2385
5.843 4.268 1.542 1604
5.366 3.919 1.426 915
6.211 4.536 1.608 2684
6.010 4.389 1.560 2242
6.487 4.738 1.673 1040
5.891 4.302 1.531 938
6.151 4.492 1.571 2460
6.019 4.396 1.540 1943
6.610 4.827 1.678 1474
6.491 4.740 1.650 1018
6.620 4.835 1.656 2656
6.167 4.504 1.551 2650
6.016 4.394 1.517 1867
6.500 4.747 1.628 1299
6.227 4.548 1.542 3168
6.617 4.833 1.631 2604
6.013 4.392 1.494 1803
6.498 4.745 1.603 1555
6.237 4.555 1.521 3185
6.621 4.835 1.607 2566
6.501 4.748 1.580 1579
6.017 4.394 1.472 1405
6.599 4.819 1.577 2788
6.807 4.971 1.623 1932
6.240 4.557 1.499 1782
6.989 5.104 1.663 1132
6.590 4.813 1.551 2580
6.816 4.978 1.600 2526
6.986 5.102 1.637 1689
7.131 5.208 1.668 1194
6.820 4.981 1.575 2026
6.984 5.100 1.610 2010
6.593 4.815 1.527 1772
7.330 5.353 1.684 1319
7.334 5.356 1.657 2407
6.974 5.094 1.582 1711
6.817 4.978 1.550 1607
7.119 5.199 1.613 1276
7.344 5.363 1.632 3078
6.814 4.976 1.524 1845
6.946 5.073 1.551 1778
7.135 5.211 1.590 1352
7.353 5.370 1.607 3084
6.811 4.974 1.498 1883
6.943 5.071 1.525 1562
7.139 5.214 1.564 1426
7.363 5.378 1.582 3038
6.814 4.976 1.474 1424
7.515 5.488 1.612 1362
7.136 5.212 1.537 1219
7.373 5.385 1.557 2085
7.556 5.518 1.592 1463
8.049 5.878 1.687 1227
7.253 5.297 1.533 1126
7.566 5.525 1.566 2114
8.059 5.885 1.660 2036
7.869 5.747 1.624 1426
7.275 5.313 1.511 1422
8.056 5.883 1.630 2126
7.569 5.528 1.539 1572
8.208 5.994 1.658 1366
7.860 5.740 1.593 1218
8.053 5.881 1.599 2016
8.205 5.992 1.627 1811
7.655 5.590 1.527 1140
7.857 5.738 1.564 953
8.208 5.995 1.598 2260
8.075 5.898 1.574 1791
8.949 6.535 1.730 1659
8.506 6.212 1.651 1438
8.946 6.534 1.697 2726
8.205 5.993 1.567 2574
8.503 6.210 1.619 1945
8.085 5.905 1.546 1522
8.950 6.536 1.664 3082
8.209 5.995 1.537 2671
8.519 6.222 1.591 1633
9.070 6.624 1.685 1613
8.960 6.543 1.633 3378
8.212 5.997 1.508 2112
9.080 6.631 1.653 2100
8.535 6.233 1.562 1064
8.957 6.541 1.600 3254
9.077 6.629 1.620 2522
8.209 5.995 1.477 1708
9.907 7.236 1.756 1355
9.062 6.618 1.584 2890
8.941 6.530 1.565 1737
8.218 6.002 1.449 1600
9.778 7.141 1.699 1265
9.065 6.620 1.551 3312
8.228 6.009 1.420 1384
9.940 7.260 1.688 1214
9.775 7.139 1.663 1193
9.075 6.627 1.520 2819
9.944 7.262 1.653 1639
8.954 6.539 1.501 1352
9.779 7.142 1.627 1268
9.960 7.274 1.619 2025
9.078 6.630 1.487 1712
9.789 7.149 1.593 1225
8.957 6.542 1.469 1086
9.983 7.291 1.586 2380
9.087 6.637 1.455 1213
9.805 7.161 1.560 914
10.005 7.307 1.552 2951
9.090 6.639 1.423 1062
9.884 7.219 1.535 786
10.008 7.309 1.516 2452
10.167 7.425 1.538 984
10.005 7.307 1.479 1368
10.170 7.428 1.502 893
10.059 7.346 1.450 1199
10.062 7.349 1.414 1212
10.072 7.355 1.378 1023
10.068 7.353 1.341 762
8.432 6.158 -0.041 813
8.413 6.144 -0.071 959
8.406 6.139 -0.101 1200
8.405 6.138 -0.131 1286
8.398 6.133 -0.161 1377
8.378 6.119 -0.190 1250
8.365 6.109 -0.220 1379
8.364 6.108 -0.250 1395
8.375 6.117 -0.281 1432
8.349 6.097 -0.310 1386
8.322 6.078 -0.338 1482
8.327 6.082 -0.368 1458
8.333 6.086 -0.399 1492
8.331 6.085 -0.429 1267
8.311 6.070 -0.457 1185
8.290 6.055 -0.486 1447
8.289 6.053 -0.516 1792
8.287 6.052 -0.545 1817
8.273 6.042 -0.574 1858
8.284 6.050 -0.605 2598
8.282 6.049 -0.635 3354
8.280 6.047 -0.665 3354
8.265 6.036 -0.693 3411
8.257 6.030 -0.722 3741
8.255 6.029 -0.752 4161
8.247 6.023 -0.781 4656
8.244 6.021 -0.810 4739
8.242 6.019 -0.840 4823
8.240 6.018 -0.870 4823
8.244 6.021 -0.900 3975
8.241 6.019 -0.930 3158
8.239 6.017 -0.959 2614
8.230 6.010 -0.988 2089
8.227 6.008 -1.018 1044
1.893 1.375 1.777 2608
1.897 1.378 1.771 5216
1.762 1.280 1.651 1361
1.901 1.381 1.764 5216
1.765 1.282 1.645 1361
1.926 1.399 1.775 5380
1.826 1.327 1.689 1846
1.945 1.413 1.782 7042
1.846 1.341 1.696 1488
1.944 1.412 1.771 6518
1.844 1.340 1.685 1098
1.948 1.415 1.764 5993
1.848 1.342 1.678 863
1.952 1.418 1.757 5993
1.851 1.345 1.672 836
1.950 1.417 1.746 6535
1.949 1.416 1.734 7314
2.049 1.489 1.819 1033
1.963 1.426 1.736 7027
2.064 1.499 1.820 944
1.862 1.353 1.652 799
1.978 1.437 1.738 7661
1.876 1.363 1.655 1081
2.079 1.510 1.822 956
1.981 1.439 1.731 6585
1.880 1.366 1.648 1308
2.083 1.513 1.815 873
2.033 1.477 1.764 6552
1.932 1.403 1.681 3239
2.032 1.476 1.752 6645
1.930 1.402 1.670 3517
2.030 1.475 1.741 6938
1.928 1.401 1.658 3638
2.132 1.549 1.823 1257
2.028 1.474 1.729 7108
1.926 1.399 1.647 3127
2.131 1.548 1.811 1843
2.038 1.480 1.726 6458
1.935 1.406 1.645 2349
2.140 1.554 1.808 2274
2.047 1.487 1.723 6361
2.149 1.561 1.804 2776
1.944 1.412 1.642 1651
2.061 1.497 1.725 4851
2.164 1.572 1.805 2286
1.959 1.423 1.644 2076
2.081 1.512 1.730 4365
2.184 1.587 1.810 2419
1.968 1.429 1.641 2269
2.101 1.526 1.735 6213
1.966 1.428 1.630 1849
2.204 1.601 1.815 1689
2.110 1.533 1.732 8679
1.969 1.430 1.623 1434
2.214 1.608 1.812 1370
2.125 1.544 1.733 10421
2.229 1.619 1.812 1217
1.973 1.433 1.616 1064
2.140 1.554 1.734 13797
2.036 1.479 1.655 1068
2.243 1.630 1.813 929
2.149 1.561 1.730 13974
2.253 1.636 1.809 1252
2.045 1.486 1.652 943
2.164 1.572 1.731 15614
2.268 1.647 1.809 1390
2.060 1.496 1.653 915
2.167 1.574 1.723 12226
2.272 1.650 1.801 1590
2.199 1.597 1.736 10421
2.094 1.521 1.659 1222
2.303 1.673 1.813 911
2.202 1.600 1.728 8228
2.307 1.676 1.805 1332
2.098 1.524 1.651 929
2.223 1.615 1.733 6606
2.118 1.539 1.656 1534
2.327 1.691 1.809 1026
2.265 1.645 1.753 7059
2.160 1.569 1.676 2896
2.274 1.652 1.749 9530
2.169 1.576 1.673 2022
2.273 1.651 1.737 9171
2.167 1.574 1.661 1328
2.276 1.654 1.729 8837
2.382 1.730 1.804 856
2.286 1.660 1.725 7421
2.301 1.671 1.724 7708
2.310 1.678 1.720 9361
2.416 1.755 1.794 960
2.325 1.689 1.720 8934
2.431 1.766 1.793 1207
2.340 1.700 1.719 9490
2.446 1.777 1.792 1025
2.349 1.706 1.715 6768
2.456 1.784 1.787 1284
2.375 1.725 1.722 4236
2.269 1.648 1.649 1364
2.482 1.803 1.794 1198
2.413 1.753 1.736 3921
2.306 1.675 1.664 1368
2.519 1.830 1.808 766
2.450 1.780 1.750 7329
2.332 1.694 1.671 1210
2.454 1.783 1.741 10010
2.347 1.705 1.670 1234
2.452 1.781 1.729 8652
2.559 1.859 1.800 990
2.345 1.703 1.658 868
2.450 1.780 1.716 7623
2.558 1.858 1.787 1619
2.460 1.787 1.711 5460
2.567 1.865 1.782 1824
2.526 1.835 1.743 6421
2.418 1.756 1.673 1864
2.524 1.833 1.730 8651
2.416 1.755 1.661 1728
2.539 1.844 1.729 9011
2.431 1.766 1.660 1952
2.548 1.851 1.723 9489
2.440 1.773 1.655 1346
2.657 1.930 1.792 752
2.546 1.850 1.711 8888
2.655 1.929 1.779 1742
2.556 1.857 1.705 7461
2.665 1.936 1.773 3046
2.447 1.778 1.638 817
2.582 1.876 1.710 8132
2.691 1.955 1.778 2878
2.474 1.797 1.643 1212
2.563 1.862 1.687 9671
2.672 1.941 1.754 4848
2.636 1.915 1.720 10925
2.527 1.835 1.654 3292
2.745 1.994 1.787 1620
2.640 1.917 1.711 8356
2.530 1.838 1.645 2645
2.749 1.997 1.777 2097
2.632 1.912 1.694 6648
2.741 1.991 1.760 2670
2.522 1.832 1.629 1537
2.624 1.906 1.678 9173
2.733 1.986 1.744 3893
2.514 1.826 1.613 1002
2.633 1.913 1.672 10956
2.743 1.993 1.737 5814
2.523 1.833 1.607 867
2.724 1.979 1.714 12314
2.614 1.899 1.649 7876
2.833 2.058 1.779 1008
2.722 1.977 1.701 14857
2.611 1.897 1.637 4910
2.832 2.057 1.765 1537
2.719 1.975 1.688 17200
2.609 1.895 1.624 2157
2.830 2.056 1.752 2104
2.735 1.987 1.685 11244
2.624 1.906 1.622 1700
2.845 2.067 1.748 1216
2.773 2.015 1.695 12638
2.884 2.095 1.758 2093
2.663 1.934 1.632 1823
2.794 2.030 1.695 14164
2.905 2.110 1.758 3220
2.684 1.950 1.633 2271
2.810 2.041 1.692 12594
2.920 2.122 1.754 2490
2.699 1.961 1.630 1220
2.866 2.082 1.711 8596
2.977 2.162 1.773 1740
2.755 2.001 1.649 1436
2.875 2.089 1.704 8781
2.986 2.169 1.766 2163
2.764 2.008 1.643 1481
2.885 2.096 1.697 7555
2.996 2.177 1.758 2065
2.774 2.015 1.636 1815
2.900 2.107 1.693 5800
3.029 2.201 1.763 2121
2.789 2.026 1.633 1992
2.904 2.110 1.683 5215
3.033 2.203 1.753 3609
2.792 2.029 1.623 1068
2.902 2.108 1.669 4571
3.037 2.206 1.742 4537
3.035 2.205 1.728 4709
2.923 2.123 1.669 4068
2.974 2.160 1.683 6028
3.086 2.242 1.742 2159
2.862 2.079 1.624 1797
2.989 2.171 1.679 7857
3.101 2.253 1.737 2230
2.877 2.090 1.620 1202
3.016 2.191 1.680 12518
3.129 2.273 1.738 1326
2.904 2.110 1.622 892
3.014 2.190 1.666 10287
3.126 2.271 1.724 3294
3.107 2.257 1.701 6584
2.994 2.175 1.644 3627
3.116 2.264 1.693 6141
3.004 2.182 1.636 1934
3.108 2.258 1.676 5093
3.221 2.340 1.733 1510
2.995 2.176 1.619 955
3.100 2.252 1.659 5316
3.213 2.334 1.715 3659
3.204 2.328 1.698 7939
3.091 2.246 1.642 3566
3.208 2.330 1.686 8625
3.095 2.248 1.631 2403
3.321 2.413 1.742 1293
3.146 2.285 1.643 6875
3.259 2.368 1.698 4059
3.373 2.450 1.753 958
3.269 2.375 1.689 5195
3.144 2.284 1.629 3316
3.382 2.457 1.744 1010
3.279 2.382 1.681 5248
3.165 2.299 1.627 2459
3.392 2.464 1.735 1321
3.294 2.393 1.675 5063
3.408 2.476 1.728 2726
3.181 2.310 1.621 2606
3.304 2.400 1.666 6684
3.418 2.483 1.719 4253
3.190 2.317 1.612 1379
3.307 2.403 1.654 5262
3.421 2.485 1.707 4073
3.371 2.449 1.670 3979
3.257 2.366 1.617 3430
3.393 2.465 1.666 3919
3.278 2.382 1.614 2905
3.519 2.556 1.724 966
3.402 2.472 1.657 5674
3.288 2.389 1.605 2561
3.529 2.563 1.714 2517
3.406 2.474 1.644 5641
3.532 2.566 1.701 3614
3.291 2.391 1.593 1392
3.421 2.485 1.638 5378
3.536 2.569 1.689 3188
3.650 2.652 1.739 852
3.431 2.492 1.628 5819
3.546 2.576 1.679 3550
3.660 2.659 1.729 1237
3.592 2.609 1.684 6469
3.447 2.504 1.621 5285
3.706 2.692 1.734 967
3.601 2.616 1.674 6878
3.444 2.502 1.606 2873
3.716 2.700 1.724 1230
3.605 2.619 1.661 4970
3.490 2.535 1.612 2493
3.720 2.702 1.711 1834
3.687 2.679 1.682 4526
3.572 2.595 1.633 2272
3.457 2.511 1.584 1236
3.685 2.677 1.666 3903
3.570 2.593 1.618 1319
3.800 2.760 1.715 1010
3.682 2.675 1.651 4512
3.798 2.759 1.698 1830
3.567 2.591 1.603 872
3.686 2.678 1.637 6409
3.801 2.761 1.685 2086
3.570 2.594 1.590 881
3.689 2.680 1.624 7075
3.805 2.764 1.671 3265
3.687 2.678 1.609 5210
3.802 2.762 1.655 4487
3.979 2.891 1.727 909
3.818 2.774 1.647 5010
3.684 2.676 1.593 2694
3.934 2.858 1.693 972
3.840 2.790 1.640 5129
3.956 2.874 1.686 2467
3.724 2.705 1.594 1884
3.880 2.819 1.641 4800
3.764 2.734 1.595 2605
3.996 2.903 1.686 2056
3.841 2.790 1.610 6915
3.957 2.875 1.655 4047
4.073 2.959 1.700 885
3.857 2.802 1.601 8882
3.997 2.904 1.655 4728
3.872 2.813 1.592 5771
3.995 2.902 1.639 5744
3.998 2.905 1.625 4773
3.882 2.820 1.581 2047
4.020 2.920 1.617 4333
3.904 2.836 1.574 1623
4.030 2.927 1.605 7108
3.913 2.843 1.562 1176
4.039 2.934 1.593 7909
3.923 2.850 1.550 914
4.043 2.937 1.578 9005
4.040 2.935 1.562 11279
4.157 3.020 1.603 1353
4.050 2.942 1.550 8479
4.167 3.027 1.591 1020
4.096 2.976 1.550 5406
4.441 3.226 1.670 1408
3.979 2.890 1.509 823
4.099 2.978 1.536 6244
4.439 3.224 1.652 1625
4.103 2.980 1.521 9356
4.455 3.236 1.641 2491
4.112 2.987 1.508 9179
4.520 3.283 1.646 4096
4.335 3.149 1.583 902
4.109 2.985 1.492 6728
4.536 3.295 1.634 4839
4.418 3.210 1.594 1948
4.533 3.293 1.615 5761
4.112 2.987 1.477 4875
4.416 3.208 1.577 1398
4.543 3.300 1.601 6629
4.109 2.985 1.460 3172
4.425 3.215 1.563 1238
4.753 3.453 1.670 772
4.552 3.307 1.587 6306
4.112 2.987 1.446 2047
4.844 3.519 1.681 1313
4.670 3.393 1.625 758
4.550 3.305 1.569 9714
4.847 3.521 1.663 2206
4.965 3.607 1.701 1208
4.730 3.436 1.626 892
4.553 3.307 1.552 9807
4.857 3.528 1.648 3084
4.975 3.614 1.685 2416
4.739 3.443 1.611 1223
4.867 3.536 1.632 4415
4.563 3.314 1.538 4306
4.985 3.621 1.669 2588
4.749 3.450 1.596 1257
4.864 3.534 1.613 5037
4.982 3.619 1.649 3831
4.572 3.321 1.524 3629
4.746 3.448 1.577 1132
4.967 3.608 1.626 6081
4.582 3.328 1.509 3961
4.849 3.523 1.590 3592
5.086 3.694 1.661 1404
4.958 3.602 1.604 4015
4.579 3.326 1.491 2415
4.784 3.475 1.552 2328
5.189 3.769 1.673 1527
5.199 3.776 1.656 3832
4.781 3.473 1.533 2104
5.037 3.659 1.608 2065
4.918 3.573 1.574 1451
5.202 3.779 1.638 5226
5.084 3.693 1.603 2073
4.784 3.476 1.516 1812
4.965 3.607 1.569 1481
5.212 3.786 1.621 7755
4.993 3.627 1.558 2073
4.788 3.478 1.499 1108
5.222 3.793 1.604 11594
5.103 3.707 1.570 1926
4.984 3.621 1.537 1445
5.340 3.879 1.637 927
5.225 3.796 1.585 12230
5.412 3.932 1.637 1800
5.106 3.709 1.552 1227
4.988 3.623 1.519 840
5.228 3.798 1.566 10307
5.416 3.934 1.618 2977
4.828 3.507 1.456 927
5.110 3.712 1.534 832
5.226 3.796 1.546 7245
5.413 3.932 1.597 2570
5.657 4.110 1.663 1054
5.776 4.196 1.696 789
5.229 3.798 1.527 4770
5.410 3.930 1.576 2277
5.661 4.112 1.643 1443
5.780 4.199 1.675 995
5.238 3.805 1.510 3449
5.414 3.933 1.557 2940
5.821 4.228 1.664 1959
5.664 4.115 1.623 1064
5.818 4.227 1.642 2457
5.242 3.808 1.492 2202
5.411 3.931 1.536 2139
5.937 4.313 1.673 889
5.809 4.220 1.618 2280
5.928 4.307 1.648 1653
5.245 3.810 1.473 1148
5.395 3.919 1.511 1044
5.819 4.227 1.598 2835
5.938 4.314 1.628 1749
5.992 4.353 1.620 2709
5.822 4.230 1.577 2654
6.205 4.508 1.673 1161
5.995 4.355 1.598 3218
5.876 4.269 1.569 2215
6.209 4.510 1.651 1468
5.380 3.908 1.447 974
6.011 4.367 1.580 3631
6.206 4.508 1.627 2187
5.854 4.253 1.542 1659
5.370 3.901 1.425 1045
6.027 4.378 1.561 2638
6.216 4.516 1.606 2280
5.373 3.903 1.406 998
5.908 4.292 1.533 970
6.043 4.390 1.543 2195
6.622 4.811 1.678 1712
6.169 4.481 1.572 1681
6.333 4.600 1.610 1315
6.626 4.813 1.654 3059
6.040 4.388 1.519 2100
6.179 4.488 1.551 1862
6.336 4.603 1.588 1819
6.623 4.811 1.629 3211
6.245 4.537 1.543 3102
6.031 4.381 1.495 1566
6.365 4.624 1.571 1296
6.248 4.539 1.521 3172
6.633 4.818 1.607 2873
6.021 4.374 1.471 1383
6.513 4.731 1.580 1125
6.655 4.835 1.587 2735
6.819 4.954 1.623 2015
6.252 4.541 1.499 1982
6.535 4.748 1.561 1557
6.602 4.796 1.551 2739
6.829 4.961 1.600 2460
7.006 5.089 1.638 1897
6.255 4.544 1.476 1105
6.611 4.803 1.529 2193
6.997 5.083 1.610 2074
6.832 4.963 1.575 2019
7.344 5.335 1.684 1456
7.347 5.337 1.657 2506
6.640 4.823 1.510 1759
6.994 5.080 1.584 1628
6.829 4.961 1.550 1596
7.357 5.345 1.632 3032
6.826 4.959 1.524 1558
6.656 4.835 1.489 1346
6.953 5.051 1.550 1325
7.367 5.352 1.607 2841
6.823 4.957 1.498 1632
7.158 5.200 1.565 1474
6.950 5.049 1.523 1254
7.370 5.354 1.581 2604
6.833 4.964 1.475 1466
7.529 5.469 1.612 1219
7.155 5.198 1.538 1213
7.374 5.357 1.554 1482
8.057 5.853 1.686 1332
7.557 5.490 1.590 1253
6.842 4.970 1.452 1104
8.067 5.860 1.659 1988
7.580 5.506 1.566 1740
7.289 5.295 1.511 1080
7.757 5.635 1.600 1054
8.071 5.863 1.630 1993
7.672 5.573 1.555 1866
8.229 5.978 1.659 1093
7.792 5.660 1.578 1009
8.068 5.861 1.599 1790
8.220 5.971 1.627 1452
7.675 5.575 1.528 1306
8.968 6.515 1.763 915
8.965 6.513 1.730 1761
8.224 5.974 1.598 1714
8.521 6.190 1.651 1540
8.090 5.877 1.574 1431
8.963 6.511 1.697 2699
8.519 6.188 1.619 2114
8.227 5.976 1.568 1796
9.083 6.598 1.718 1465
8.973 6.518 1.665 2930
8.224 5.974 1.537 1783
8.535 6.200 1.591 1746
9.093 6.606 1.686 1378
8.976 6.521 1.633 3159
9.097 6.608 1.653 1979
8.227 5.977 1.508 1456
8.767 6.368 1.598 1089
8.973 6.519 1.600 3146
9.094 6.606 1.620 2474
9.805 7.123 1.736 1300
8.224 5.974 1.477 1255
9.072 6.590 1.583 2797
9.809 7.126 1.701 1575
8.951 6.503 1.564 1492
8.227 5.977 1.448 1104
9.088 6.602 1.552 3156
8.967 6.514 1.533 1477
9.800 7.119 1.664 1402
9.965 7.239 1.689 905
9.091 6.604 1.520 2504
9.803 7.122 1.628 1456
8.971 6.517 1.501 1378
9.969 7.242 1.654 1212
9.813 7.129 1.594 1559
9.972 7.244 1.618 1551
9.095 6.607 1.487 1436
8.974 6.519 1.469 1075
9.995 7.261 1.585 1739
9.829 7.140 1.561 1340
9.098 6.609 1.454 1055
10.030 7.286 1.553 2375
9.094 6.607 1.421 900
9.820 7.134 1.524 829
10.033 7.288 1.517 2011
10.199 7.409 1.540 861
10.106 7.342 1.491 1198
9.985 7.254 1.474 781
10.084 7.325 1.451 1308
10.081 7.323 1.414 1394
10.266 7.457 1.437 761
10.084 7.325 1.378 1215
10.087 7.327 1.341 937
10.147 7.371 1.312 781
8.414 6.112 -0.131 757
8.394 6.098 -0.160 865
8.381 6.088 -0.190 900
8.367 6.078 -0.219 1003
8.366 6.078 -0.249 991
8.359 6.072 -0.279 987
8.339 6.058 -0.308 1012
8.331 6.052 -0.338 1083
8.337 6.056 -0.368 1049
8.342 6.060 -0.398 1059
8.334 6.054 -0.428 1038
8.288 6.021 -0.455 1191
8.293 6.024 -0.485 1481
8.298 6.028 -0.515 1804
8.290 6.022 -0.544 1830
8.288 6.021 -0.574 1865
8.299 6.029 -0.605 2704
8.297 6.027 -0.635 3548
8.295 6.026 -0.665 3548
8.281 6.015 -0.693 3806
8.272 6.009 -0.722 4300
8.270 6.008 -0.752 4864
8.262 6.002 -0.781 5566
8.260 6.000 -0.810 5674
8.257 5.998 -0.840 5783
8.255 5.997 -0.870 5783
8.259 6.000 -0.900 4770
8.256 5.998 -0.930 3844
8.254 5.996 -0.959 3227
8.245 5.989 -0.988 2695
8.242 5.987 -1.018 1347
1.903 1.362 1.777 2967
1.907 1.365 1.771 5935
1.807 1.293 1.683 1423
1.911 1.368 1.764 5935
1.811 1.296 1.677 1423
1.909 1.367 1.753 5137
2.009 1.438 1.839 1234
1.809 1.295 1.666 854
1.966 1.407 1.791 6704
1.866 1.335 1.705 3622
1.975 1.414 1.789 6657
1.875 1.342 1.703 3223
1.984 1.420 1.787 6986
1.884 1.348 1.701 2423
1.988 1.423 1.780 6986
1.887 1.351 1.694 2423
1.971 1.411 1.755 7454
1.870 1.338 1.670 1088
1.964 1.406 1.739 9592
2.065 1.478 1.823 1020
1.973 1.412 1.736 9011
2.075 1.485 1.820 1257
1.988 1.423 1.738 8771
2.089 1.495 1.822 964
1.986 1.421 1.727 7336
2.088 1.494 1.810 1459
2.044 1.463 1.764 8085
1.941 1.390 1.681 2415
2.146 1.536 1.847 876
2.042 1.461 1.752 8187
1.940 1.388 1.670 2437
2.144 1.535 1.835 954
2.030 1.453 1.732 8796
1.927 1.379 1.650 2092
2.132 1.526 1.814 1704
2.028 1.451 1.721 9023
2.136 1.529 1.807 2215
1.925 1.378 1.639 1693
2.032 1.454 1.713 7430
2.135 1.528 1.795 2998
1.929 1.381 1.632 1429
2.046 1.465 1.715 6180
2.149 1.538 1.796 3687
1.943 1.391 1.634 1581
2.132 1.526 1.771 4934
2.028 1.452 1.691 3174
2.125 1.521 1.755 6621
2.021 1.447 1.675 1241
2.228 1.595 1.836 894
2.123 1.519 1.744 7536
2.019 1.445 1.664 1151
2.226 1.593 1.824 1055
2.127 1.522 1.736 8535
2.023 1.448 1.657 1118
2.230 1.596 1.816 1076
2.141 1.533 1.737 10475
2.037 1.458 1.658 1369
2.245 1.607 1.816 1031
2.151 1.539 1.734 13293
2.047 1.465 1.655 1422
2.255 1.614 1.813 956
2.160 1.546 1.730 13711
2.056 1.471 1.652 1288
2.264 1.621 1.809 1102
2.169 1.553 1.727 15066
2.274 1.627 1.805 1280
2.065 1.478 1.649 858
2.178 1.559 1.723 11677
2.283 1.634 1.801 1382
2.074 1.484 1.646 838
2.210 1.582 1.736 9461
2.105 1.507 1.659 1064
2.315 1.657 1.813 788
2.214 1.584 1.728 6735
2.319 1.659 1.805 1099
2.109 1.509 1.651 814
2.173 1.555 1.688 5054
2.278 1.631 1.765 4242
2.277 1.629 1.753 7311
2.171 1.554 1.676 3385
2.286 1.636 1.749 10376
2.180 1.561 1.673 1821
2.290 1.639 1.741 10041
2.184 1.563 1.665 1316
2.294 1.642 1.733 9706
2.297 1.644 1.725 8768
2.404 1.720 1.799 887
2.312 1.655 1.724 8434
2.419 1.731 1.799 976
2.327 1.666 1.724 10005
2.434 1.742 1.798 1273
2.342 1.676 1.723 9588
2.449 1.753 1.797 1347
2.357 1.687 1.723 9944
2.464 1.764 1.796 1165
2.250 1.611 1.650 823
2.361 1.690 1.715 6827
2.468 1.766 1.787 1820
2.254 1.613 1.642 843
2.421 1.733 1.744 5478
2.314 1.656 1.672 2023
2.528 1.810 1.817 795
2.425 1.736 1.736 5484
2.318 1.659 1.664 1993
2.532 1.812 1.808 977
2.463 1.763 1.750 7822
2.338 1.673 1.667 1839
2.472 1.769 1.745 10649
2.365 1.692 1.674 1686
2.470 1.768 1.733 9762
2.362 1.691 1.662 1231
2.578 1.845 1.803 1224
2.474 1.771 1.724 8979
2.582 1.848 1.794 1646
2.366 1.693 1.653 877
2.478 1.773 1.715 6752
2.586 1.851 1.785 2129
2.544 1.821 1.747 7711
2.436 1.743 1.677 2077
2.542 1.820 1.734 9694
2.434 1.742 1.665 2096
2.558 1.831 1.732 10498
2.449 1.753 1.663 2085
2.561 1.833 1.723 10811
2.453 1.755 1.655 1097
2.670 1.911 1.792 873
2.565 1.836 1.714 9834
2.674 1.914 1.783 1543
2.586 1.851 1.716 9403
2.695 1.929 1.784 2535
2.477 1.773 1.648 1917
2.596 1.858 1.710 10225
2.705 1.936 1.778 3313
2.486 1.779 1.643 1505
2.582 1.848 1.691 11012
2.692 1.926 1.758 4975
2.473 1.770 1.624 750
2.586 1.851 1.682 10117
2.701 1.933 1.752 7252
2.476 1.772 1.615 773
2.630 1.882 1.697 8307
2.740 1.961 1.763 5401
2.497 1.787 1.617 787
2.634 1.885 1.688 7760
2.744 1.964 1.753 5070
2.500 1.790 1.608 826
2.637 1.887 1.678 9674
2.747 1.966 1.744 5120
2.641 1.890 1.669 10595
2.751 1.969 1.734 7017
2.732 1.955 1.711 11852
2.621 1.876 1.646 7597
2.842 2.034 1.775 1328
2.730 1.954 1.698 12830
2.619 1.874 1.633 4459
2.840 2.033 1.762 2757
2.733 1.956 1.688 15147
2.844 2.035 1.752 3186
2.623 1.877 1.624 1614
2.766 1.980 1.695 13850
2.877 2.059 1.758 1157
2.638 1.888 1.622 1057
2.781 1.991 1.692 13388
2.893 2.070 1.755 1862
2.641 1.890 1.612 907
2.797 2.002 1.689 12583
2.908 2.081 1.751 3538
2.686 1.922 1.626 953
2.818 2.017 1.689 10770
2.935 2.101 1.754 3324
2.707 1.937 1.626 1112
2.875 2.057 1.708 8420
2.986 2.137 1.770 2761
2.763 1.978 1.646 1634
2.890 2.068 1.704 10489
3.002 2.148 1.766 2774
2.778 1.989 1.643 1413
2.900 2.075 1.697 9328
3.011 2.155 1.758 2369
2.788 1.995 1.636 1515
2.909 2.082 1.690 6989
3.051 2.183 1.767 2135
2.797 2.002 1.629 1312
2.954 2.114 1.702 4584
2.842 2.034 1.642 3917
3.066 2.195 1.762 3040
2.970 2.125 1.698 5284
2.857 2.045 1.638 2599
3.082 2.206 1.758 2501
3.044 2.179 1.725 6025
2.902 2.077 1.650 2326
3.048 2.182 1.714 6558
2.936 2.101 1.655 2375
2.998 2.146 1.676 7575
3.111 2.227 1.734 3212
2.886 2.065 1.617 965
3.014 2.157 1.671 12255
3.127 2.238 1.729 3837
2.901 2.076 1.613 873
3.024 2.164 1.663 11156
3.136 2.245 1.721 5457
3.122 2.235 1.701 8155
3.009 2.154 1.644 4042
3.126 2.237 1.690 7610
3.013 2.156 1.633 1412
3.118 2.231 1.673 7810
3.231 2.313 1.730 1272
3.004 2.150 1.616 777
3.127 2.238 1.665 8798
3.241 2.320 1.721 1653
3.137 2.245 1.657 8588
3.251 2.326 1.713 2590
3.159 2.261 1.654 9061
3.272 2.342 1.710 2903
3.168 2.267 1.646 8103
3.288 2.353 1.704 4288
3.402 2.435 1.759 829
3.202 2.291 1.649 5374
3.316 2.373 1.704 4057
3.253 2.328 1.661 6677
3.385 2.423 1.723 2251
3.139 2.247 1.607 1785
3.245 2.322 1.644 7053
3.359 2.404 1.697 2793
3.327 2.381 1.668 6968
3.441 2.463 1.722 3328
3.212 2.299 1.615 2343
3.318 2.375 1.651 4650
3.433 2.457 1.704 3533
3.204 2.293 1.598 976
3.394 2.429 1.673 3414
3.280 2.347 1.620 3275
3.509 2.511 1.725 1368
3.416 2.445 1.669 2768
3.283 2.350 1.608 1630
3.531 2.527 1.721 1050
3.383 2.421 1.640 3621
3.498 2.504 1.692 2937
3.613 2.586 1.744 818
3.268 2.339 1.589 752
3.417 2.446 1.642 4877
3.562 2.550 1.707 3804
3.302 2.363 1.591 1256
3.439 2.461 1.638 5664
3.566 2.552 1.694 3897
3.681 2.635 1.745 1014
3.324 2.379 1.587 778
3.448 2.468 1.628 6528
3.576 2.559 1.684 4592
3.691 2.642 1.734 1158
3.616 2.588 1.687 7348
3.452 2.471 1.616 5720
3.731 2.671 1.737 927
3.626 2.595 1.677 7782
3.510 2.512 1.627 3337
3.741 2.678 1.726 971
3.623 2.593 1.661 7079
3.508 2.510 1.612 2514
3.739 2.676 1.711 2175
3.621 2.591 1.646 6810
3.736 2.674 1.695 3296
3.505 2.509 1.597 1033
3.704 2.651 1.666 5206
3.588 2.568 1.618 2517
3.819 2.734 1.715 894
3.695 2.645 1.648 7314
3.811 2.727 1.696 1447
3.579 2.562 1.600 788
3.699 2.647 1.635 8487
3.815 2.730 1.682 2659
3.708 2.654 1.624 6306
3.824 2.737 1.671 4670
3.803 2.722 1.648 5965
3.687 2.639 1.601 3801
3.920 2.805 1.695 1030
3.832 2.742 1.644 5225
3.715 2.659 1.598 3320
3.954 2.830 1.693 1282
3.878 2.776 1.647 5826
3.737 2.675 1.592 1844
3.995 2.859 1.693 1748
3.961 2.835 1.665 7478
3.845 2.752 1.619 3942
3.959 2.833 1.648 7336
3.842 2.750 1.603 5218
3.876 2.774 1.601 7794
4.012 2.871 1.653 5899
3.991 2.856 1.630 6954
3.874 2.772 1.585 4345
4.000 2.863 1.618 5353
3.883 2.779 1.574 1462
3.979 2.848 1.594 4160
3.862 2.764 1.551 1169
3.983 2.850 1.580 4666
4.100 2.934 1.623 1648
4.060 2.906 1.593 6978
3.943 2.822 1.550 1482
4.057 2.904 1.576 10623
4.175 2.988 1.618 938
4.048 2.897 1.557 16583
4.166 2.982 1.599 2102
4.052 2.900 1.543 15297
4.169 2.984 1.584 2526
4.055 2.902 1.529 8452
4.173 2.986 1.569 3249
4.427 3.168 1.658 1004
4.120 2.949 1.536 10256
4.002 2.865 1.495 1593
4.418 3.162 1.638 1516
4.536 3.246 1.678 1155
4.124 2.951 1.521 14116
4.484 3.209 1.643 2191
4.341 3.107 1.594 1061
4.127 2.954 1.506 13495
4.481 3.207 1.625 3802
4.338 3.105 1.577 1282
4.599 3.291 1.664 788
4.130 2.956 1.492 13004
4.565 3.267 1.636 3349
4.447 3.183 1.597 1563
4.329 3.098 1.557 939
4.133 2.958 1.477 9927
4.563 3.265 1.617 4457
4.687 3.354 1.658 1047
4.444 3.181 1.579 865
4.124 2.952 1.458 4327
4.572 3.272 1.603 3180
4.703 3.366 1.645 1654
4.821 3.451 1.684 1615
4.588 3.284 1.591 3606
4.133 2.958 1.446 2810
4.707 3.369 1.629 1924
4.837 3.462 1.671 1663
4.573 3.273 1.569 6869
4.947 3.541 1.687 1900
4.716 3.375 1.614 1610
4.136 2.960 1.431 1217
4.576 3.275 1.552 6164
4.963 3.552 1.673 3261
4.845 3.467 1.636 2020
4.726 3.382 1.599 1231
4.967 3.555 1.655 3570
4.592 3.287 1.540 3388
4.848 3.470 1.619 2430
5.085 3.640 1.692 1533
4.989 3.571 1.643 4476
4.870 3.486 1.607 2927
4.589 3.284 1.522 2895
5.108 3.656 1.680 2328
4.986 3.569 1.624 6143
5.105 3.654 1.660 3148
4.592 3.287 1.505 2122
4.868 3.484 1.588 2081
4.977 3.562 1.602 5416
5.096 3.647 1.638 3151
4.589 3.285 1.487 1241
4.858 3.477 1.567 888
5.094 3.645 1.618 4352
4.975 3.560 1.583 4176
5.213 3.731 1.653 2135
5.097 3.648 1.600 4672
4.978 3.563 1.565 3558
5.216 3.733 1.634 2720
5.107 3.655 1.583 4353
5.232 3.745 1.619 3872
4.988 3.570 1.549 2559
5.351 3.830 1.653 1114
5.242 3.752 1.602 5791
5.123 3.666 1.569 4530
5.361 3.837 1.636 1706
5.003 3.581 1.535 1472
5.252 3.759 1.585 5770
5.114 3.660 1.547 2527
5.434 3.889 1.636 2228
5.249 3.757 1.565 5198
5.437 3.892 1.616 3526
5.111 3.658 1.527 1169
5.814 4.161 1.720 802
5.252 3.759 1.546 3373
5.441 3.894 1.597 3365
5.824 4.169 1.701 920
5.444 3.896 1.578 2839
5.325 3.811 1.546 2201
5.828 4.171 1.680 1440
5.067 3.626 1.477 932
5.448 3.899 1.558 3530
5.328 3.813 1.527 1446
5.844 4.183 1.662 1380
5.064 3.624 1.457 929
5.451 3.901 1.539 2645
5.860 4.194 1.645 1576
5.331 3.816 1.508 1006
5.858 4.192 1.622 2530
5.461 3.908 1.521 1226
6.047 4.328 1.671 822
5.874 4.204 1.605 2483
6.038 4.321 1.646 1733
5.470 3.915 1.503 924
6.041 4.324 1.624 2873
5.903 4.224 1.590 2524
6.243 4.468 1.674 1189
6.057 4.335 1.606 3884
5.893 4.218 1.566 2987
6.247 4.471 1.652 1282
6.061 4.338 1.584 4682
5.884 4.211 1.542 3134
6.250 4.474 1.630 1432
6.058 4.336 1.561 4425
5.881 4.209 1.519 2101
6.241 4.467 1.605 1673
6.361 4.553 1.633 1538
6.068 4.343 1.541 3494
6.365 4.555 1.610 2929
6.656 4.764 1.678 1602
6.245 4.469 1.582 1563
6.368 4.558 1.588 3979
6.660 4.766 1.654 2844
6.071 4.345 1.519 2566
6.248 4.472 1.560 1422
6.372 4.560 1.565 3851
6.651 4.760 1.628 3408
6.081 4.352 1.499 1654
6.252 4.474 1.538 1593
6.667 4.771 1.607 3041
6.375 4.563 1.542 2527
6.255 4.477 1.515 1456
6.787 4.858 1.633 1396
6.689 4.787 1.587 3202
6.290 4.502 1.500 1669
6.867 4.915 1.626 1293
7.063 5.055 1.669 1035
6.655 4.763 1.555 2085
6.775 4.849 1.581 1851
7.048 5.044 1.639 1547
6.382 4.567 1.497 1074
6.778 4.851 1.557 2808
6.658 4.765 1.531 2426
7.039 5.038 1.612 1430
7.388 5.287 1.685 1362
6.782 4.854 1.533 3587
6.661 4.767 1.508 2226
7.391 5.290 1.659 1810
6.947 4.972 1.567 1548
6.785 4.856 1.508 2641
7.401 5.297 1.634 2141
7.230 5.174 1.599 1680
7.064 5.056 1.565 1679
7.405 5.300 1.607 2150
7.220 5.168 1.570 1861
6.776 4.849 1.482 1739
7.074 5.063 1.541 1444
7.389 5.288 1.577 1891
7.624 5.457 1.623 1498
6.772 4.847 1.456 1321
7.268 5.202 1.553 1310
7.615 5.450 1.593 1705
7.316 5.236 1.536 1675
7.787 5.573 1.626 1139
8.092 5.792 1.685 963
7.625 5.457 1.567 2137
7.790 5.576 1.599 1874
8.108 5.803 1.659 1242
7.319 5.239 1.510 1051
7.806 5.587 1.573 2548
7.628 5.460 1.540 1830
8.112 5.806 1.630 1179
8.443 6.043 1.691 1034
7.803 5.585 1.544 2154
8.459 6.054 1.663 1280
8.243 5.899 1.624 1089
7.631 5.462 1.513 1022
7.788 5.574 1.513 1787
9.164 6.559 1.757 1487
8.571 6.135 1.652 1448
8.450 6.048 1.630 1329
8.569 6.133 1.620 1901
9.161 6.557 1.723 1788
9.008 6.447 1.697 1729
7.772 5.562 1.482 1334
9.018 6.455 1.665 1791
9.159 6.555 1.689 1416
8.566 6.130 1.588 1413
7.800 5.583 1.458 1035
9.022 6.457 1.633 1980
7.816 5.594 1.433 1229
9.143 6.544 1.653 1197
8.518 6.096 1.549 974
9.019 6.455 1.600 2262
9.140 6.542 1.620 1406
9.855 7.053 1.736 1398
7.813 5.592 1.404 1183
9.859 7.056 1.701 2116
9.176 6.567 1.592 1882
9.029 6.462 1.569 1794
8.888 6.362 1.546 1471
9.179 6.570 1.559 2400
9.869 7.063 1.667 2309
8.898 6.368 1.516 1480
9.039 6.469 1.537 1295
9.885 7.075 1.633 2320
9.189 6.577 1.527 2089
9.042 6.471 1.505 1430
8.908 6.375 1.485 1246
9.889 7.078 1.598 2699
9.199 6.583 1.496 1402
9.039 6.469 1.472 1303
8.905 6.373 1.452 756
9.892 7.080 1.563 2460
9.119 6.526 1.451 759
10.014 7.167 1.580 751
9.876 7.069 1.524 1494
10.107 7.233 1.557 1482
10.148 7.263 1.526 1574
9.880 7.071 1.489 1070
10.158 7.270 1.491 1294
9.928 7.105 1.460 861
10.136 7.254 1.451 1396
10.132 7.252 1.414 1695
10.135 7.254 1.378 1670
10.138 7.256 1.341 1583
10.141 7.258 1.305 1172
10.137 7.255 1.268 778
8.389 6.004 -0.279 776
8.381 5.999 -0.308 887
8.374 5.993 -0.338 1041
8.373 5.992 -0.368 1109
8.378 5.996 -0.398 1191
8.370 5.991 -0.427 1153
8.324 5.957 -0.454 1304
8.329 5.961 -0.484 1706
8.327 5.960 -0.514 2119
8.326 5.959 -0.544 2092
8.318 5.953 -0.573 2090
8.341 5.970 -0.605 2606
8.340 5.969 -0.635 3318
8.338 5.967 -0.665 3318
8.323 5.957 -0.693 3900
8.315 5.951 -0.722 4672
8.313 5.949 -0.752 5625
8.304 5.943 -0.781 6781
8.302 5.942 -0.810 6976
8.299 5.940 -0.840 7171
8.297 5.938 -0.870 7171
8.295 5.937 -0.899 5742
8.299 5.939 -0.930 4526
8.296 5.937 -0.959 3903
8.281 5.926 -0.987 3488
8.278 5.924 -1.017 1744
1.902 1.352 1.773 2597
1.906 1.355 1.766 5194
1.806 1.284 1.679 1167
1.910 1.358 1.759 5194
1.810 1.286 1.672 1167
2.010 1.429 1.846 755
1.908 1.357 1.748 5600
2.009 1.428 1.835 1363
1.902 1.352 1.732 6666
2.002 1.423 1.819 2997
1.980 1.407 1.789 6138
1.879 1.336 1.703 3620
1.984 1.410 1.782 7067
1.883 1.338 1.696 2410
1.987 1.413 1.775 7067
1.886 1.341 1.690 2410
1.965 1.397 1.746 8775
1.863 1.325 1.661 802
1.969 1.399 1.739 12228
2.070 1.471 1.823 963
1.867 1.327 1.654 765
1.972 1.402 1.732 10963
2.074 1.474 1.816 1710
1.981 1.408 1.730 9921
2.083 1.481 1.813 1867
1.985 1.411 1.723 8017
2.087 1.484 1.806 2000
2.048 1.456 1.764 6801
1.946 1.383 1.681 2212
2.150 1.529 1.847 956
2.025 1.440 1.735 7502
2.128 1.512 1.817 1440
1.923 1.367 1.652 1142
2.024 1.438 1.723 9203
2.126 1.511 1.806 1771
1.921 1.365 1.641 1285
2.022 1.437 1.712 9631
2.141 1.522 1.807 2100
1.919 1.364 1.630 973
2.026 1.440 1.705 7882
2.134 1.517 1.791 3620
1.923 1.367 1.623 816
2.040 1.450 1.706 6240
2.143 1.524 1.787 5032
1.937 1.377 1.625 1225
2.131 1.515 1.767 7390
2.028 1.441 1.686 3889
2.129 1.514 1.755 10036
2.020 1.436 1.671 2027
2.133 1.516 1.748 9825
2.029 1.443 1.668 1650
2.237 1.590 1.828 765
2.132 1.515 1.736 9637
2.028 1.441 1.657 1085
2.236 1.589 1.816 928
2.146 1.526 1.737 11093
2.042 1.452 1.658 1344
2.251 1.600 1.816 920
2.156 1.532 1.734 12965
2.051 1.458 1.655 1507
2.260 1.606 1.813 872
2.165 1.539 1.730 13077
2.060 1.465 1.652 1340
2.270 1.613 1.809 1078
2.174 1.545 1.727 13851
2.279 1.620 1.805 1340
2.069 1.471 1.649 880
2.178 1.548 1.719 10697
2.283 1.623 1.797 1832
2.220 1.578 1.740 7902
2.115 1.504 1.663 1125
2.326 1.653 1.817 978
2.180 1.550 1.700 6583
2.285 1.624 1.777 2869
2.184 1.552 1.692 5577
2.289 1.627 1.769 3310
2.282 1.622 1.753 6897
2.176 1.547 1.676 3505
2.291 1.629 1.749 10131
2.185 1.553 1.673 1895
2.397 1.704 1.825 965
2.295 1.631 1.741 10080
2.189 1.556 1.665 1402
2.401 1.707 1.816 1006
2.305 1.638 1.737 10059
2.198 1.563 1.661 1004
2.411 1.714 1.812 961
2.303 1.637 1.725 8985
2.409 1.712 1.799 1390
2.323 1.651 1.728 8533
2.430 1.727 1.803 1340
2.217 1.576 1.654 784
2.333 1.658 1.724 10383
2.439 1.734 1.798 1634
2.348 1.669 1.723 9827
2.455 1.745 1.797 1336
2.363 1.679 1.723 9883
2.475 1.760 1.800 1065
2.361 1.678 1.711 6666
2.468 1.754 1.784 1947
2.421 1.721 1.741 6901
2.314 1.645 1.668 2047
2.529 1.797 1.813 1235
2.431 1.728 1.736 6753
2.323 1.651 1.664 2280
2.538 1.804 1.808 1062
2.468 1.755 1.750 7830
2.361 1.678 1.678 2260
2.478 1.761 1.745 10717
2.370 1.685 1.674 1883
2.482 1.764 1.736 10393
2.374 1.687 1.665 1495
2.590 1.841 1.807 1202
2.480 1.763 1.724 10299
2.588 1.840 1.794 1846
2.372 1.686 1.653 975
2.484 1.765 1.715 8411
2.592 1.842 1.785 2227
2.550 1.813 1.747 7077
2.442 1.736 1.677 2198
2.554 1.815 1.738 8617
2.445 1.738 1.668 2022
2.564 1.822 1.732 10098
2.455 1.745 1.663 1671
2.567 1.825 1.723 10769
2.458 1.747 1.655 961
2.577 1.832 1.718 10054
2.686 1.909 1.786 1185
2.468 1.754 1.650 927
2.592 1.843 1.716 10497
2.702 1.920 1.784 2278
2.483 1.765 1.648 1559
2.596 1.845 1.707 11490
2.705 1.923 1.774 3106
2.486 1.767 1.639 1313
2.588 1.840 1.691 11677
2.704 1.922 1.761 4704
2.478 1.762 1.624 803
2.592 1.842 1.682 10868
2.713 1.929 1.755 6972
2.482 1.764 1.615 799
2.624 1.865 1.690 8697
2.734 1.944 1.756 6975
2.634 1.872 1.684 8487
2.744 1.951 1.750 5837
2.637 1.875 1.675 9154
2.748 1.953 1.740 5652
2.647 1.882 1.669 9159
2.758 1.960 1.734 6061
2.738 1.946 1.711 9009
2.627 1.868 1.646 6661
2.849 2.025 1.775 1456
2.748 1.953 1.704 9452
2.637 1.874 1.640 4896
2.858 2.032 1.769 1740
2.769 1.968 1.705 13685
