2.340 2.170 1.676 8968
2.475 2.296 1.767 2674
2.126 1.972 1.533 2288
2.225 2.064 1.599 2170
2.338 2.169 1.663 7806
2.437 2.261 1.729 5294
2.228 2.067 1.591 2389
2.129 1.975 1.525 2099
2.445 2.269 1.723 7917
2.341 2.172 1.654 5670
2.231 2.070 1.582 1948
2.132 1.978 1.516 1693
2.444 2.267 1.710 7001
2.344 2.175 1.645 3492
2.245 2.082 1.580 1275
2.543 2.359 1.775 1267
2.447 2.270 1.700 5091
2.347 2.178 1.636 3449
2.547 2.362 1.765 1904
2.248 2.085 1.571 775
2.513 2.332 1.731 6184
2.414 2.239 1.667 3025
2.314 2.147 1.603 1394
2.511 2.330 1.718 8784
2.412 2.237 1.654 4010
2.611 2.422 1.782 794
2.510 2.328 1.705 10711
2.410 2.235 1.642 3106
2.610 2.421 1.768 1004
2.508 2.326 1.692 11721
2.608 2.419 1.755 1761
2.408 2.233 1.629 1702
2.516 2.334 1.685 8979
2.616 2.427 1.748 2455
2.416 2.241 1.623 2079
2.567 2.381 1.705 7557
2.467 2.288 1.643 2634
2.581 2.394 1.701 8973
2.480 2.301 1.640 1836
2.590 2.402 1.694 11360
2.478 2.299 1.627 1365
2.598 2.410 1.688 11860
2.497 2.317 1.626 1236
2.612 2.423 1.684 10855
2.511 2.330 1.623 1361
2.637 2.446 1.686 8150
2.514 2.333 1.613 1055
2.651 2.459 1.682 7765
2.550 2.365 1.622 1066
2.659 2.467 1.675 7881
2.558 2.373 1.615 1427
2.689 2.495 1.680 8313
2.588 2.401 1.621 2159
2.791 2.589 1.739 994
2.730 2.533 1.691 6601
2.628 2.438 1.632 3095
2.739 2.541 1.683 6183
2.637 2.446 1.625 1966
2.694 2.499 1.645 8059
2.796 2.593 1.703 2043
2.697 2.502 1.635 7436
2.804 2.601 1.695 3598
2.906 2.696 1.752 807
2.706 2.510 1.627 4836
2.808 2.604 1.684 4327
2.910 2.699 1.741 1034
2.779 2.578 1.655 4575
2.881 2.672 1.712 1939
2.676 2.483 1.599 1644
2.830 2.626 1.671 6125
2.728 2.531 1.615 4201
2.933 2.720 1.727 1297
2.828 2.624 1.657 11001
2.726 2.529 1.601 4081
2.931 2.719 1.713 3227
2.826 2.622 1.643 10336
2.929 2.717 1.698 5263
2.723 2.526 1.587 1938
2.818 2.615 1.626 5191
2.926 2.715 1.684 5096
2.897 2.688 1.655 4741
2.795 2.592 1.600 2241
3.000 2.783 1.710 1408
2.922 2.711 1.655 5404
2.819 2.615 1.601 2191
2.931 2.719 1.646 5529
2.822 2.618 1.590 1376
2.934 2.722 1.635 4496
3.037 2.817 1.688 1817
2.997 2.780 1.654 4289
3.100 2.876 1.707 1578
2.894 2.684 1.601 1516
3.000 2.783 1.642 5619
3.114 2.889 1.700 2937
2.897 2.687 1.590 1150
3.003 2.786 1.630 6191
3.150 2.923 1.704 4189
2.900 2.690 1.578 750
3.165 2.936 1.697 5325
3.018 2.799 1.624 4079
3.168 2.939 1.685 6277
3.064 2.843 1.634 4080
2.961 2.747 1.582 1824
3.294 3.055 1.747 841
3.166 2.937 1.670 6770
3.057 2.836 1.616 3328
3.291 3.053 1.731 1588
2.953 2.739 1.565 999
3.169 2.940 1.657 5024
3.054 2.833 1.602 3093
3.295 3.057 1.718 2913
3.172 2.943 1.645 4382
3.309 3.070 1.711 2890
3.068 2.846 1.595 2514
3.165 2.936 1.627 5064
3.318 3.078 1.700 2680
3.060 2.839 1.578 1603
3.223 2.990 1.641 4986
3.332 3.091 1.692 3823
3.069 2.847 1.568 1032
3.319 3.079 1.672 6317
3.215 2.982 1.623 4544
3.423 3.176 1.720 1059
3.317 3.077 1.656 6845
3.213 2.980 1.608 2727
3.427 3.179 1.707 1934
3.425 3.177 1.691 6394
3.320 3.080 1.643 4288
3.216 2.983 1.595 2081
3.428 3.180 1.677 8710
3.323 3.083 1.630 2371
3.219 2.986 1.582 1432
3.442 3.193 1.669 4886
3.338 3.096 1.622 2340
3.374 3.130 1.623 4280
3.479 3.227 1.670 2224
3.449 3.199 1.642 2641
3.344 3.102 1.595 2030
3.554 3.297 1.688 1323
3.446 3.197 1.626 3241
3.551 3.295 1.672 2694
3.450 3.200 1.612 2910
3.555 3.298 1.658 2474
3.503 3.249 1.620 2556
3.608 3.347 1.665 1529
3.397 3.152 1.575 940
3.517 3.262 1.611 3592
3.622 3.360 1.655 1685
3.542 3.286 1.606 3593
3.648 3.384 1.650 1733
3.562 3.304 1.599 3876
3.667 3.402 1.643 1943
3.682 3.415 1.633 3548
3.576 3.318 1.590 3391
3.471 3.220 1.546 807
3.679 3.413 1.616 4432
3.574 3.315 1.573 1460
3.683 3.416 1.602 3676
3.838 3.561 1.664 889
3.691 3.424 1.590 2658
3.842 3.564 1.649 1737
3.666 3.401 1.564 2796
3.834 3.556 1.630 1677
3.686 3.420 1.556 4154
3.798 3.523 1.599 1701
4.021 3.730 1.686 1087
3.904 3.622 1.641 854
3.695 3.428 1.544 3092
3.807 3.531 1.587 1730
4.024 3.733 1.670 1252
3.913 3.630 1.627 1118
3.815 3.539 1.574 2346
3.709 3.441 1.533 1828
3.921 3.638 1.614 1146
4.033 3.742 1.657 1097
4.020 3.729 1.634 1987
3.846 3.568 1.569 1966
3.734 3.464 1.527 1660
4.199 3.895 1.702 856
4.023 3.732 1.619 3102
4.191 3.888 1.681 2264
3.861 3.581 1.558 1500
3.749 3.477 1.517 1435
4.211 3.906 1.671 3444
4.026 3.735 1.603 2893
3.875 3.594 1.547 1154
3.751 3.480 1.502 922
4.225 3.920 1.658 4612
4.040 3.748 1.591 3323
3.855 3.576 1.524 994
4.229 3.923 1.641 4115
4.049 3.756 1.577 3671
4.335 4.022 1.680 1408
4.282 3.973 1.643 3328
4.052 3.759 1.561 2786
4.389 4.072 1.681 1152
4.176 3.874 1.605 1033
4.286 3.976 1.626 4878
4.117 3.819 1.567 1335
4.392 4.075 1.663 1048
4.272 3.963 1.603 4057
4.379 4.062 1.640 2667
4.376 4.060 1.621 4281
4.264 3.955 1.582 4207
4.512 4.185 1.667 1094
4.425 4.105 1.619 3245
4.278 3.969 1.569 3206
4.532 4.204 1.655 1797
4.495 4.170 1.624 4458
4.298 3.987 1.558 1834
4.499 4.173 1.606 7571
4.391 4.074 1.571 2031
4.485 4.160 1.583 6195
4.603 4.270 1.621 1793
4.378 4.061 1.548 1225
4.505 4.179 1.571 4929
4.612 4.279 1.605 2252
4.397 4.079 1.536 909
4.776 4.431 1.657 766
4.519 4.192 1.556 6918
4.627 4.292 1.590 1861
4.762 4.418 1.633 1535
4.528 4.200 1.540 7615
4.635 4.300 1.574 1947
4.760 4.416 1.613 1720
4.536 4.208 1.524 4938
4.763 4.418 1.594 1655
4.644 4.308 1.557 1428
4.870 4.518 1.627 1030
4.579 4.248 1.518 2808
4.862 4.511 1.604 1574
5.004 4.642 1.647 1378
4.755 4.411 1.572 1353
4.996 4.634 1.624 1753
4.854 4.503 1.582 1702
4.548 4.219 1.490 1624
4.656 4.319 1.522 1386
4.834 4.485 1.556 1907
4.642 4.306 1.499 1650
4.942 4.585 1.588 1608
5.050 4.685 1.620 1389
5.150 4.777 1.628 1615
4.928 4.572 1.563 1568
5.042 4.677 1.596 1414
4.820 4.472 1.532 1188
5.164 4.791 1.611 2421
5.045 4.680 1.576 1903
4.909 4.554 1.537 1165
4.670 4.332 1.469 794
5.173 4.799 1.592 2260
5.048 4.683 1.556 2050
5.298 4.915 1.627 1417
5.295 4.912 1.605 2142
5.170 4.796 1.570 1737
5.051 4.686 1.536 1166
5.455 5.060 1.649 1007
5.299 4.915 1.584 1987
5.464 5.068 1.629 1428
5.168 4.794 1.548 1211
5.472 5.077 1.609 2024
5.364 4.976 1.580 1669
5.239 4.860 1.546 1418
5.470 5.074 1.586 2818
5.362 4.974 1.557 2121
5.584 5.180 1.616 1210
5.236 4.858 1.524 1028
5.450 5.056 1.558 2503
5.707 5.294 1.626 1744
5.570 5.167 1.590 1632
5.342 4.956 1.530 1226
5.710 5.297 1.603 2805
5.436 5.043 1.532 1989
5.567 5.165 1.566 1980
5.835 5.413 1.635 1414
5.719 5.305 1.582 3310
5.838 5.416 1.612 2585
5.536 5.136 1.535 2277
5.428 5.035 1.508 1401
5.842 5.419 1.589 3208
5.722 5.308 1.559 2881
5.585 5.181 1.525 1689
6.053 5.615 1.642 1084
5.862 5.438 1.570 3600
6.062 5.623 1.619 1937
5.719 5.305 1.535 1850
5.593 5.189 1.504 1154
5.848 5.425 1.543 3843
6.065 5.626 1.595 3365
5.722 5.308 1.513 1645
6.282 5.828 1.648 1340
5.845 5.422 1.518 4053
6.068 5.629 1.571 3536
6.285 5.831 1.623 2030
5.736 5.321 1.493 1398
5.854 5.430 1.497 3314
6.071 5.632 1.547 2847
6.283 5.828 1.597 1817
6.397 5.934 1.624 1577
5.856 5.433 1.473 2421
6.068 5.629 1.522 2399
6.337 5.879 1.584 1998
6.560 6.086 1.635 1354
6.346 5.887 1.560 3641
5.848 5.425 1.448 2323
6.083 5.643 1.501 1739
6.541 6.068 1.604 1573
6.355 5.895 1.536 4319
5.856 5.433 1.426 2196
6.097 5.656 1.479 1793
6.538 6.065 1.577 1295
6.358 5.898 1.511 3580
6.467 5.999 1.535 1558
6.100 5.659 1.455 1519
7.023 6.515 1.655 1477
7.026 6.518 1.628 2302
6.561 6.087 1.529 2245
6.372 5.911 1.488 2021
6.905 6.406 1.602 1360
7.029 6.521 1.600 2934
6.564 6.090 1.503 2151
6.427 5.962 1.474 1624
6.845 6.350 1.561 1427
7.032 6.523 1.572 4923
6.556 6.082 1.474 1256
6.831 6.337 1.531 1244
7.313 6.784 1.630 1196
7.035 6.526 1.544 6118
7.316 6.787 1.601 1390
7.443 6.904 1.626 1151
6.685 6.201 1.474 1113
7.038 6.529 1.516 5007
7.446 6.907 1.596 1544
7.320 6.790 1.572 1335
7.664 7.110 1.639 1197
7.030 6.521 1.486 3835
7.323 6.793 1.543 1349
7.449 6.910 1.567 1257
7.673 7.118 1.610 1087
7.038 6.529 1.459 2917
7.326 6.796 1.514 1464
7.964 7.388 1.634 1336
8.113 7.526 1.662 1125
7.058 6.548 1.435 3018
7.967 7.391 1.602 1937
7.329 6.798 1.485 1307
8.139 7.551 1.634 1271
7.061 6.550 1.407 2923
7.976 7.399 1.572 1800
8.488 7.874 1.664 1521
8.137 7.548 1.601 1226
7.058 6.547 1.378 2171
7.985 7.407 1.541 1563
8.491 7.877 1.631 1540
8.151 7.562 1.571 1247
8.160 7.570 1.539 1442
8.460 7.848 1.591 1389
7.988 7.410 1.510 1252
7.711 7.153 1.462 1177
8.469 7.856 1.559 1802
8.163 7.573 1.507 1547
7.714 7.156 1.431 1067
8.477 7.864 1.526 2328
8.160 7.570 1.474 1343
8.304 7.704 1.497 1269
9.561 8.869 1.704 1043
8.480 7.867 1.492 2618
9.016 8.364 1.578 1776
8.313 7.712 1.465 1398
9.564 8.872 1.666 1357
8.483 7.870 1.459 2755
9.008 8.356 1.541 1761
8.160 7.570 1.408 1351
8.316 7.714 1.433 1192
8.480 7.867 1.424 2012
9.011 8.359 1.505 1700
8.313 7.712 1.399 1128
9.813 9.103 1.627 1046
8.315 7.714 1.366 2321
9.014 8.362 1.469 1384
8.477 7.864 1.390 1117
9.781 9.074 1.583 1011
8.307 7.706 1.331 3829
9.784 9.076 1.544 1225
9.611 8.916 1.519 999
0.798 0.740 0.248 829
8.309 7.708 1.298 4378
9.793 9.085 1.506 997
9.625 8.929 1.483 951
0.792 0.735 0.244 907
8.311 7.710 1.265 3931
9.628 8.932 1.444 1008
0.792 0.735 0.241 926
8.343 7.739 1.236 4488
8.233 7.638 1.222 1120
0.798 0.740 0.239 839
8.458 7.847 1.251 826
8.328 7.725 1.201 4007
8.461 7.849 1.218 781
8.266 7.669 1.160 3873
8.376 7.770 1.174 1303
8.269 7.670 1.127 3616
8.378 7.772 1.140 976
8.271 7.672 1.094 2906
8.380 7.774 1.107 1077
8.278 7.680 1.062 2639
8.388 7.782 1.075 935
8.292 7.692 1.031 2274
8.294 7.694 0.998 1479
8.301 7.701 0.965 1028
8.303 7.703 0.933 839
1.644 1.518 1.703 4008
1.734 1.600 1.791 2374
1.647 1.521 1.697 8017
1.737 1.604 1.784 4748
1.651 1.524 1.691 8017
1.741 1.607 1.778 4748
1.659 1.531 1.689 8072
1.749 1.615 1.775 5534
1.662 1.534 1.682 8341
1.753 1.618 1.769 6545
1.785 1.648 1.789 11464
1.665 1.537 1.676 6724
1.793 1.655 1.787 17252
1.669 1.540 1.669 5107
1.796 1.658 1.780 17252
1.677 1.548 1.667 4783
1.800 1.662 1.773 18887
1.680 1.551 1.661 3221
1.799 1.660 1.761 20585
1.688 1.558 1.659 2006
1.807 1.668 1.759 15853
1.696 1.566 1.657 1120
1.815 1.676 1.756 11575
1.907 1.761 1.840 886
1.819 1.679 1.749 9591
1.911 1.764 1.832 1043
1.846 1.705 1.764 8496
1.754 1.619 1.681 1314
1.850 1.708 1.756 8496
1.758 1.623 1.674 1072
1.819 1.679 1.719 7197
1.912 1.765 1.801 1549
1.818 1.678 1.708 6908
1.911 1.764 1.789 1762
1.826 1.686 1.705 7556
1.919 1.771 1.786 1815
1.839 1.698 1.706 9456
1.932 1.784 1.787 1530
1.746 1.612 1.625 770
1.882 1.737 1.733 9895
1.789 1.651 1.652 1330
1.885 1.740 1.726 12445
1.777 1.641 1.633 1373
1.979 1.827 1.806 988
1.894 1.748 1.723 11067
1.780 1.643 1.626 1626
1.987 1.834 1.803 775
1.897 1.751 1.715 9784
1.783 1.646 1.619 1878
1.991 1.838 1.795 782
1.905 1.759 1.712 8168
1.792 1.654 1.616 2141
1.999 1.846 1.791 895
1.914 1.767 1.709 6907
1.795 1.657 1.609 2439
2.008 1.853 1.788 1000
1.922 1.774 1.706 5926
1.798 1.660 1.602 2378
2.016 1.861 1.784 2041
1.935 1.786 1.706 5712
2.030 1.874 1.784 2394
1.796 1.658 1.591 2336
1.993 1.840 1.744 4805
1.794 1.656 1.580 2728
1.899 1.753 1.666 1063
2.088 1.927 1.822 758
2.002 1.848 1.740 4863
1.792 1.655 1.569 3258
1.907 1.760 1.663 779
2.005 1.851 1.732 5062
1.790 1.653 1.558 2719
1.910 1.763 1.655 769
2.004 1.850 1.720 5290
1.793 1.656 1.551 2306
2.099 1.937 1.797 796
2.007 1.853 1.713 5782
1.806 1.668 1.552 2625
2.102 1.941 1.789 860
2.015 1.860 1.709 6300
1.819 1.680 1.553 3053
2.034 1.878 1.713 6198
1.823 1.682 1.546 2885
2.129 1.966 1.788 959
2.042 1.885 1.709 6422
1.826 1.685 1.539 2071
2.138 1.974 1.784 1361
2.081 1.921 1.728 5777
1.813 1.674 1.520 1368
1.985 1.832 1.654 902
2.084 1.924 1.720 6981
1.816 1.677 1.513 1224
1.988 1.835 1.646 1042
2.083 1.923 1.708 6676
1.845 1.703 1.525 1129
1.986 1.834 1.634 1083
2.179 2.011 1.782 840
2.091 1.930 1.704 5480
1.995 1.841 1.630 1029
1.853 1.710 1.522 832
2.099 1.938 1.700 4655
2.003 1.849 1.627 854
2.113 1.951 1.699 4892
2.210 2.040 1.772 918
2.142 1.977 1.710 6437
2.161 1.994 1.713 6913
2.064 1.905 1.641 906
2.189 2.021 1.724 6269
2.092 1.932 1.652 1344
2.213 2.043 1.730 6084
2.116 1.953 1.659 1587
2.217 2.046 1.721 6733
2.119 1.956 1.650 1608
2.314 2.136 1.792 799
2.225 2.054 1.716 7389
2.128 1.964 1.646 2152
2.254 2.081 1.726 6716
2.157 1.991 1.656 4659
2.258 2.084 1.717 7660
2.155 1.989 1.644 3324
2.256 2.083 1.705 8101
2.132 1.968 1.617 3420
2.354 2.173 1.774 768
2.233 2.062 1.678 7778
2.125 1.962 1.602 2863
2.332 2.153 1.747 1179
2.232 2.060 1.666 7313
2.330 2.151 1.734 3555
2.118 1.955 1.586 2821
2.313 2.135 1.711 7472
2.214 2.044 1.643 4603
2.116 1.953 1.574 2925
2.326 2.148 1.709 9021
2.228 2.057 1.641 3580
2.129 1.965 1.573 3352
2.425 2.239 1.777 1128
2.335 2.156 1.703 10048
2.132 1.968 1.565 3673
2.236 2.064 1.636 1958
2.434 2.247 1.771 1295
2.338 2.159 1.694 8633
2.125 1.961 1.550 3907
2.224 2.053 1.617 2018
2.437 2.250 1.761 1454
2.342 2.162 1.685 9255
2.128 1.964 1.541 3698
2.227 2.056 1.608 2946
2.451 2.263 1.759 1926
2.345 2.165 1.676 8945
2.230 2.059 1.599 3157
2.476 2.285 1.763 2879
2.131 1.967 1.533 2859
2.343 2.163 1.663 7747
2.442 2.255 1.729 4877
2.244 2.071 1.597 2538
2.139 1.975 1.528 2235
2.451 2.263 1.723 6927
2.346 2.166 1.654 5545
2.215 2.045 1.568 2582
2.116 1.953 1.503 989
2.454 2.266 1.713 6085
2.355 2.174 1.648 3514
2.213 2.043 1.556 2503
2.554 2.358 1.778 1134
2.510 2.317 1.738 5056
2.368 2.186 1.646 3808
2.216 2.046 1.547 1740
2.514 2.321 1.728 6202
2.414 2.228 1.664 2861
2.219 2.049 1.539 1345
2.517 2.324 1.718 8190
2.417 2.231 1.654 3596
2.222 2.051 1.530 1153
2.617 2.416 1.782 801
2.515 2.322 1.705 10340
2.415 2.229 1.642 2930
2.615 2.414 1.768 1016
2.513 2.320 1.692 12086
2.614 2.413 1.755 1963
2.413 2.228 1.629 1697
2.522 2.328 1.685 9520
2.622 2.421 1.748 2677
2.421 2.235 1.623 2073
2.573 2.375 1.705 7863
2.472 2.282 1.643 2594
2.587 2.388 1.701 9108
2.486 2.295 1.640 1635
2.595 2.396 1.694 11564
2.484 2.293 1.627 1343
2.604 2.404 1.688 12945
2.503 2.311 1.626 1120
2.618 2.417 1.684 12843
2.517 2.324 1.623 1124
2.637 2.435 1.683 9235
2.515 2.322 1.610 847
2.657 2.453 1.682 7549
2.555 2.359 1.622 912
2.665 2.461 1.675 7401
2.564 2.367 1.615 1242
2.695 2.488 1.680 7819
2.594 2.394 1.621 2117
2.797 2.582 1.739 981
2.736 2.526 1.691 6548
2.634 2.432 1.632 2954
2.750 2.539 1.686 6328
2.648 2.445 1.628 2408
2.700 2.492 1.645 8221
2.802 2.587 1.703 1563
2.703 2.495 1.635 7661
2.805 2.590 1.692 2710
2.907 2.684 1.749 842
2.712 2.503 1.627 4922
2.814 2.598 1.684 3359
2.916 2.692 1.741 982
2.785 2.571 1.655 3796
2.887 2.665 1.712 1916
2.682 2.476 1.599 1494
2.837 2.619 1.671 5204
2.734 2.524 1.615 3685
2.939 2.713 1.727 1478
2.829 2.612 1.654 10073
2.932 2.706 1.710 3731
2.726 2.517 1.598 3209
2.827 2.610 1.640 9937
2.930 2.705 1.695 5425
2.724 2.515 1.584 1621
2.933 2.708 1.684 5096
2.825 2.608 1.626 5072
2.904 2.681 1.655 5406
2.801 2.586 1.600 2472
3.007 2.776 1.710 1680
2.918 2.694 1.649 5678
2.815 2.598 1.595 2090
3.021 2.789 1.703 976
2.932 2.707 1.644 5033
2.829 2.611 1.590 1283
3.035 2.802 1.697 1009
3.001 2.770 1.666 4104
2.897 2.675 1.612 2305
3.009 2.778 1.657 4352
2.906 2.682 1.604 1883
3.113 2.873 1.710 1324
3.007 2.776 1.642 5621
3.121 2.882 1.700 2893
2.903 2.680 1.590 1120
3.005 2.774 1.628 5754
3.152 2.910 1.702 3794
3.172 2.928 1.697 4793
3.019 2.787 1.621 3541
3.175 2.931 1.685 5598
3.071 2.835 1.634 3604
2.967 2.739 1.582 1700
3.290 3.037 1.742 840
3.173 2.929 1.670 5848
3.058 2.823 1.614 3277
3.293 3.040 1.729 1498
3.176 2.932 1.657 4518
3.061 2.826 1.602 2948
3.302 3.049 1.718 2595
3.180 2.935 1.645 4588
3.306 3.052 1.705 2768
3.075 2.839 1.595 2308
3.172 2.928 1.627 4516
3.293 3.040 1.685 2907
3.067 2.832 1.578 1441
3.397 3.136 1.734 932
3.230 2.982 1.641 4780
3.340 3.083 1.692 3290
3.125 2.885 1.591 983
3.327 3.071 1.672 5246
3.222 2.974 1.623 3791
3.431 3.168 1.720 872
3.324 3.069 1.656 5972
3.209 2.962 1.603 2475
3.435 3.171 1.707 1656
3.432 3.169 1.691 6286
3.328 3.072 1.643 4044
3.223 2.975 1.595 1681
3.436 3.172 1.677 8557
3.331 3.075 1.630 2339
3.226 2.978 1.582 1173
3.445 3.180 1.666 4318
3.340 3.083 1.619 2205
3.550 3.277 1.713 935
3.381 3.122 1.623 4457
3.487 3.219 1.670 1962
3.468 3.201 1.647 2504
3.362 3.104 1.600 2287
3.573 3.298 1.693 936
3.471 3.204 1.633 3469
3.576 3.301 1.679 2109
3.366 3.107 1.587 774
3.452 3.187 1.610 3010
3.563 3.289 1.658 2839
3.516 3.246 1.622 2745
3.622 3.343 1.667 1393
3.411 3.149 1.577 1281
3.525 3.254 1.611 3299
3.630 3.351 1.655 1847
3.539 3.267 1.602 2940
3.645 3.365 1.646 2323
3.576 3.301 1.602 3150
3.681 3.398 1.645 1711
3.696 3.412 1.635 3279
3.590 3.314 1.592 2950
3.484 3.216 1.549 1009
3.693 3.409 1.619 3855
3.587 3.312 1.576 1285
3.685 3.402 1.600 2635
3.847 3.551 1.664 1045
3.716 3.431 1.596 2122
3.856 3.560 1.652 2101
3.610 3.333 1.554 928
3.680 3.397 1.566 2294
3.854 3.557 1.634 2070
3.695 3.411 1.556 3309
3.846 3.550 1.615 1878
4.047 3.736 1.693 1008
3.709 3.424 1.546 2534
3.849 3.553 1.600 1471
4.034 3.724 1.670 1357
3.740 3.452 1.542 2023
3.846 3.551 1.582 1673
4.031 3.721 1.652 1464
4.034 3.724 1.637 2206
3.855 3.559 1.569 2018
3.737 3.450 1.525 1536
4.203 3.880 1.700 810
4.038 3.727 1.621 3064
4.189 3.867 1.677 2673
3.864 3.567 1.556 1257
3.757 3.468 1.517 1026
4.204 3.881 1.664 3534
4.041 3.730 1.605 2880
3.934 3.632 1.566 916
4.310 3.979 1.704 912
4.235 3.910 1.658 4255
4.050 3.738 1.591 3047
3.864 3.567 1.524 799
4.238 3.913 1.641 3604
4.053 3.741 1.575 3279
4.345 4.011 1.680 1365
4.475 4.131 1.726 809
4.292 3.962 1.643 3761
4.056 3.744 1.559 2471
4.399 4.061 1.681 1169
4.185 3.864 1.605 1007
4.301 3.970 1.628 5569
4.126 3.809 1.567 1561
4.408 4.069 1.665 1066
4.299 3.968 1.609 3986
4.406 4.067 1.646 1961
4.381 4.044 1.619 4501
4.273 3.945 1.582 2887
4.488 4.143 1.655 1007
4.440 4.099 1.621 3132
4.293 3.964 1.571 2599
4.548 4.198 1.657 1279
4.506 4.159 1.624 4106
4.381 4.045 1.582 1776
4.274 3.945 1.547 1233
4.509 4.162 1.606 7154
4.401 4.063 1.571 2078
4.627 4.272 1.645 889
4.506 4.160 1.586 5887
4.399 4.061 1.552 1737
4.619 4.264 1.623 1657
4.521 4.173 1.572 5166
4.628 4.273 1.607 2152
4.413 4.074 1.538 1062
4.529 4.181 1.556 7438
4.637 4.281 1.590 2286
4.779 4.411 1.635 1365
4.538 4.189 1.540 8021
4.646 4.289 1.574 2665
4.771 4.404 1.613 1593
4.547 4.197 1.524 5300
4.655 4.297 1.557 1965
4.774 4.407 1.594 1566
4.881 4.506 1.627 969
4.589 4.237 1.518 2569
4.697 4.336 1.551 1536
4.885 4.509 1.608 1443
5.010 4.625 1.646 1381
4.666 4.308 1.522 2695
4.553 4.203 1.488 1841
5.030 4.643 1.631 1723
4.831 4.460 1.572 1461
4.663 4.305 1.502 2837
5.044 4.657 1.615 1789
4.834 4.463 1.552 1773
4.555 4.205 1.470 1006
4.939 4.560 1.563 1691
5.048 4.660 1.595 1660
5.167 4.770 1.629 1623
4.678 4.318 1.487 1590
5.176 4.778 1.611 2401
5.045 4.657 1.573 2042
4.686 4.326 1.470 1690
4.937 4.557 1.542 1272
5.185 4.786 1.592 2212
5.054 4.665 1.555 1849
5.293 4.886 1.622 1466
4.689 4.329 1.452 1403
5.307 4.900 1.605 2100
5.182 4.784 1.570 1565
5.062 4.673 1.536 1007
5.467 5.047 1.649 974
5.311 4.902 1.584 1820
5.476 5.055 1.629 1407
5.157 4.760 1.542 1192
5.485 5.063 1.609 2119
5.376 4.963 1.580 1614
5.239 4.837 1.543 1299
5.627 5.195 1.648 916
5.482 5.061 1.586 3003
5.374 4.961 1.557 1970
5.591 5.161 1.615 1225
5.231 4.829 1.519 1110
5.468 5.048 1.560 2570
5.720 5.280 1.626 1699
5.594 5.164 1.593 1452
5.360 4.948 1.531 1096
5.723 5.283 1.603 2928
5.586 5.156 1.568 1760
5.454 5.035 1.534 1758
5.848 5.399 1.635 1078
5.732 5.291 1.582 3562
5.589 5.159 1.546 2053
5.852 5.402 1.612 2030
5.451 5.032 1.511 1205
5.729 5.289 1.558 2935
5.855 5.405 1.589 2643
5.597 5.167 1.525 1670
6.072 5.606 1.643 968
5.875 5.424 1.570 3212
6.081 5.614 1.621 1892
5.732 5.291 1.535 1760
5.623 5.191 1.508 1216
6.079 5.611 1.595 3270
5.861 5.410 1.543 3240
5.729 5.289 1.511 1509
6.290 5.807 1.647 1315
6.070 5.604 1.569 3347
5.858 5.408 1.518 3099
6.299 5.815 1.623 1987
5.749 5.307 1.493 1284
6.056 5.591 1.541 2582
5.867 5.416 1.497 2366
6.297 5.813 1.597 1745
6.406 5.913 1.622 995
6.093 5.625 1.525 1899
6.357 5.869 1.585 1741
5.870 5.419 1.473 1458
6.575 6.070 1.635 1432
6.366 5.877 1.561 3364
6.102 5.633 1.502 1890
6.555 6.052 1.604 1557
5.861 5.411 1.448 1424
6.369 5.880 1.536 4204
6.105 5.636 1.478 1580
5.870 5.419 1.426 1429
6.559 6.055 1.578 1374
6.372 5.882 1.511 3796
7.038 6.498 1.655 1825
6.573 6.068 1.555 1595
6.855 6.328 1.616 1511
7.042 6.501 1.628 2437
6.386 5.896 1.488 2417
6.576 6.071 1.529 2356
6.881 6.352 1.593 1397
7.051 6.509 1.601 3074
6.585 6.079 1.504 2328
6.435 5.941 1.473 2140
6.878 6.350 1.565 1465
7.054 6.512 1.573 5248
6.576 6.071 1.475 1477
6.432 5.938 1.446 1182
6.864 6.336 1.534 1114
7.051 6.509 1.544 6323
7.333 6.769 1.601 1379
7.454 6.881 1.625 1191
6.700 6.185 1.474 1046
7.054 6.512 1.516 5185
7.469 6.895 1.598 1506
7.336 6.772 1.572 1436
7.682 7.091 1.639 1219
7.045 6.504 1.486 4170
7.339 6.775 1.543 1382
7.472 6.897 1.568 1279
7.708 7.115 1.613 1214
7.060 6.517 1.460 3164
7.987 7.374 1.635 1458
7.342 6.778 1.514 1350
7.717 7.124 1.584 1347
7.074 6.530 1.435 3218
7.991 7.377 1.603 2200
8.158 7.531 1.634 1420
8.498 7.845 1.697 1181
7.077 6.533 1.407 3150
8.000 7.385 1.573 2201
8.507 7.853 1.664 1837
8.155 7.529 1.601 1387
7.074 6.530 1.378 2439
8.003 7.388 1.541 1989
8.516 7.862 1.632 1705
8.153 7.526 1.568 1298
8.006 7.390 1.510 1611
8.513 7.859 1.597 1391
8.179 7.550 1.539 1332
7.071 6.527 1.349 1252
8.499 7.846 1.560 1635
8.182 7.553 1.507 1460
7.737 7.143 1.432 1146
8.008 7.393 1.478 808
8.496 7.843 1.526 2076
8.185 7.556 1.475 1313
9.576 8.840 1.703 1081
9.051 8.355 1.617 977
8.499 7.846 1.492 2275
9.048 8.353 1.580 1578
8.332 7.692 1.465 1479
9.580 8.844 1.665 1397
8.502 7.849 1.459 2353
8.329 7.689 1.432 1736
8.179 7.550 1.408 1489
9.040 8.345 1.542 1460
8.499 7.846 1.424 1781
8.308 7.670 1.395 1591
9.037 8.342 1.506 1315
8.181 7.553 1.376 1050
8.346 7.704 1.367 1702
9.046 8.350 1.471 1102
9.803 9.050 1.583 922
8.519 7.865 1.393 877
8.343 7.702 1.334 3175
9.806 9.053 1.544 1110
8.233 7.600 1.318 947
9.633 8.892 1.519 886
8.339 7.699 1.300 4126
8.229 7.597 1.284 967
9.821 9.066 1.507 926
9.647 8.906 1.483 915
8.330 7.690 1.265 3324
9.656 8.914 1.445 1001
0.794 0.733 0.241 828
8.309 7.671 1.229 3100
8.419 7.772 1.244 822
9.659 8.916 1.407 755
8.289 7.652 1.193 4514
8.399 7.753 1.207 1387
8.279 7.643 1.159 5828
8.389 7.745 1.173 1397
8.281 7.645 1.126 4431
8.391 7.747 1.140 1594
8.283 7.647 1.094 3034
8.394 7.749 1.106 1916
8.291 7.654 1.062 1928
8.401 7.756 1.074 1316
8.345 7.704 1.034 1118
8.336 7.695 1.000 1031
8.320 7.681 0.965 1041
8.333 7.693 0.934 817
1.653 1.507 1.703 4016
1.744 1.590 1.791 2241
1.657 1.510 1.697 8032
1.747 1.593 1.784 4482
1.660 1.513 1.691 8032
1.751 1.596 1.778 4482
1.663 1.516 1.684 7765
1.759 1.604 1.775 5215
1.671 1.524 1.682 7552
1.767 1.611 1.773 6045
1.790 1.632 1.784 11274
1.675 1.527 1.676 6698
1.794 1.635 1.778 16810
1.683 1.534 1.674 5935
1.797 1.638 1.771 16810
1.696 1.546 1.676 5722
1.805 1.646 1.768 18214
1.699 1.549 1.670 4736
1.809 1.649 1.761 19671
1.702 1.552 1.663 3750
1.817 1.657 1.759 15088
1.711 1.560 1.661 2383
1.826 1.664 1.756 11272
1.728 1.576 1.668 1507
1.829 1.668 1.749 9415
1.922 1.752 1.832 1222
1.737 1.583 1.666 1069
1.813 1.653 1.724 8104
1.906 1.738 1.807 3676
1.821 1.661 1.722 7122
1.914 1.745 1.804 3090
1.810 1.650 1.702 6261
1.903 1.735 1.784 4956
1.813 1.653 1.695 6251
1.907 1.738 1.777 4735
1.891 1.724 1.752 7446
1.797 1.639 1.670 3204
1.894 1.727 1.745 8899
1.800 1.642 1.664 1856
1.897 1.730 1.737 11069
1.804 1.645 1.657 2249
1.991 1.815 1.818 795
1.901 1.733 1.730 13239
1.802 1.643 1.645 2729
1.995 1.819 1.810 1098
1.909 1.741 1.727 12225
1.805 1.646 1.638 2544
2.003 1.827 1.807 916
1.913 1.744 1.719 11317
1.809 1.649 1.631 2359
2.007 1.830 1.799 879
1.921 1.752 1.716 9991
1.807 1.647 1.620 2742
2.016 1.838 1.796 1456
1.929 1.759 1.713 9101
1.810 1.650 1.613 3143
2.024 1.845 1.792 1783
1.933 1.762 1.706 7036
1.808 1.649 1.602 3907
2.028 1.849 1.784 2562
2.001 1.825 1.751 5779
1.806 1.647 1.591 4787
1.906 1.738 1.673 2114
1.955 1.782 1.703 6003
1.809 1.650 1.584 4322
2.050 1.869 1.781 2623
1.963 1.790 1.699 6890
1.808 1.648 1.573 3888
2.058 1.877 1.777 3144
1.966 1.793 1.692 5856
2.062 1.880 1.769 3862
1.816 1.655 1.570 3002
1.995 1.819 1.704 5209
2.091 1.906 1.781 3398
1.824 1.663 1.567 2219
2.074 1.891 1.757 4528
1.978 1.803 1.680 3251
1.802 1.643 1.540 2319
2.037 1.857 1.717 4658
1.835 1.673 1.557 2064
2.133 1.945 1.793 1235
1.941 1.770 1.641 822
2.045 1.865 1.713 4667
1.843 1.680 1.554 2211
2.142 1.953 1.788 1715
2.054 1.873 1.709 4793
2.150 1.960 1.784 1988
1.811 1.651 1.519 1889
2.113 1.927 1.744 5173
1.814 1.653 1.512 2245
2.017 1.839 1.669 1322
2.106 1.920 1.728 5748
1.817 1.656 1.505 2016
2.010 1.832 1.654 762
2.089 1.905 1.704 5500
1.855 1.691 1.525 1868
2.186 1.993 1.778 1469
2.113 1.927 1.712 5074
1.817 1.657 1.487 1557
2.016 1.838 1.638 836
2.210 2.015 1.785 827
2.117 1.930 1.704 5314
1.810 1.650 1.472 1216
2.214 2.018 1.777 1040
2.019 1.841 1.630 763
2.171 1.979 1.734 5896
1.813 1.653 1.465 1022
2.074 1.891 1.661 956
2.180 1.987 1.729 8255
2.082 1.898 1.657 765
2.188 1.995 1.724 10548
2.019 1.841 1.599 915
2.197 2.003 1.720 10696
2.027 1.848 1.595 969
2.221 2.025 1.726 9650
2.030 1.851 1.587 1037
2.229 2.033 1.721 9343
2.131 1.943 1.650 1498
2.033 1.854 1.580 941
2.238 2.040 1.716 9306
2.129 1.941 1.638 1928
2.031 1.852 1.568 829
2.272 2.072 1.730 7371
2.174 1.982 1.660 2913
2.045 1.864 1.567 825
2.281 2.080 1.725 6738
2.183 1.990 1.655 2357
2.084 1.900 1.585 1098
2.279 2.078 1.712 5736
2.181 1.988 1.643 2070
2.082 1.898 1.574 1035
2.236 2.038 1.671 6701
2.137 1.948 1.602 1994
2.335 2.129 1.740 1784
2.239 2.041 1.662 6882
2.338 2.132 1.731 4008
2.140 1.951 1.593 2479
2.321 2.116 1.707 7809
2.222 2.025 1.639 4302
2.122 1.935 1.571 2235
2.420 2.206 1.775 874
2.334 2.128 1.705 8461
2.235 2.038 1.638 4335
2.136 1.947 1.570 3096
2.434 2.219 1.773 1650
2.354 2.146 1.707 8348
2.134 1.945 1.558 3955
2.254 2.055 1.639 2943
2.453 2.236 1.774 1431
2.388 2.177 1.719 6806
2.137 1.948 1.550 4308
2.289 2.087 1.652 1905
2.360 2.152 1.689 7605
2.140 1.951 1.541 3896
2.460 2.243 1.755 2952
2.240 2.042 1.608 1927
2.353 2.145 1.672 7533
2.453 2.236 1.739 3770
2.227 2.030 1.589 2801
2.127 1.939 1.523 1959
2.419 2.206 1.705 7168
2.235 2.038 1.584 2989
2.519 2.297 1.771 2099
2.135 1.947 1.518 1652
2.412 2.199 1.689 6418
2.512 2.291 1.754 2711
2.238 2.041 1.575 2286
2.138 1.950 1.510 1592
2.405 2.193 1.672 5476
2.511 2.289 1.741 4002
2.231 2.034 1.559 1248
2.131 1.943 1.494 1157
2.519 2.297 1.734 5517
2.403 2.191 1.660 4008
2.160 1.969 1.503 754
2.528 2.305 1.728 6306
2.417 2.204 1.657 3136
2.537 2.313 1.722 6533
2.436 2.221 1.658 3648
2.519 2.297 1.698 9022
2.620 2.388 1.762 2183
2.418 2.205 1.635 1894
2.528 2.305 1.692 12162
2.629 2.397 1.755 2865
2.427 2.212 1.629 1762
2.526 2.303 1.679 10564
2.627 2.395 1.741 5088
2.425 2.211 1.616 1222
2.593 2.364 1.708 8661
2.492 2.272 1.646 3416
2.596 2.367 1.698 9261
2.484 2.265 1.630 1593
2.698 2.459 1.760 997
2.610 2.380 1.694 11367
2.487 2.268 1.620 1147
2.619 2.388 1.688 14973
2.517 2.295 1.626 905
2.633 2.401 1.684 17763
2.531 2.308 1.623 824
2.751 2.508 1.754 780
2.642 2.409 1.677 13800
2.513 2.291 1.601 761
2.645 2.412 1.666 8156
2.675 2.439 1.672 6186
2.573 2.346 1.612 939
2.673 2.437 1.658 5906
2.775 2.530 1.717 2344
2.763 2.519 1.697 6312
2.660 2.425 1.639 4642
2.707 2.468 1.653 6952
2.809 2.561 1.711 2489
2.715 2.476 1.645 8559
2.818 2.569 1.703 1769
2.724 2.483 1.638 8698
2.859 2.607 1.713 1634
2.738 2.496 1.633 6478
2.868 2.615 1.705 1820
2.752 2.509 1.628 4693
2.866 2.613 1.691 2319
2.793 2.547 1.638 6704
2.945 2.685 1.721 2368
2.807 2.559 1.633 9785
2.949 2.688 1.710 4827
2.832 2.582 1.634 7934
2.941 2.681 1.692 5779
2.729 2.488 1.579 928
2.912 2.655 1.663 6542
2.808 2.560 1.609 3894
3.015 2.749 1.718 1395
2.920 2.663 1.655 7517
2.817 2.568 1.600 3246
3.024 2.757 1.710 2299
2.918 2.661 1.641 7857
3.022 2.755 1.695 2992
2.814 2.566 1.587 1651
2.916 2.659 1.627 6193
3.020 2.753 1.680 3483
2.812 2.564 1.573 825
3.029 2.761 1.671 4325
2.919 2.661 1.615 4037
3.043 2.774 1.665 6619
2.928 2.669 1.607 2567
3.147 2.869 1.718 879
3.035 2.767 1.648 7064
3.139 2.862 1.700 2641
2.931 2.672 1.595 1765
3.115 2.840 1.674 4795
3.011 2.745 1.622 4665
3.219 2.935 1.726 1043
3.124 2.848 1.665 3960
3.003 2.738 1.605 2671
3.228 2.943 1.716 1003
3.188 2.906 1.682 4177
3.083 2.811 1.631 3198
3.292 3.002 1.734 1162
2.979 2.716 1.580 955
3.191 2.909 1.670 4120
3.086 2.814 1.619 3566
3.296 3.005 1.721 1370
3.167 2.887 1.644 4070
3.062 2.792 1.594 2600
3.277 2.988 1.697 1769
3.192 2.910 1.642 5319
3.297 3.006 1.692 3018
3.087 2.815 1.592 1902
3.201 2.918 1.632 5357
3.306 3.014 1.682 5049
3.096 2.823 1.583 1268
3.298 3.007 1.664 4151
3.193 2.911 1.615 3684
3.403 3.103 1.713 1000
3.357 3.060 1.677 3608
3.202 2.919 1.605 3322
3.299 3.008 1.636 3359
3.426 3.124 1.694 2155
3.194 2.912 1.587 2079
3.441 3.137 1.686 5758
3.297 3.006 1.620 3740
3.444 3.140 1.672 7965
3.339 3.044 1.625 2066
3.233 2.948 1.577 986
3.561 3.246 1.725 974
3.436 3.133 1.654 5949
3.564 3.250 1.711 1395
3.331 3.037 1.607 1191
3.429 3.126 1.636 5185
3.545 3.232 1.687 1532
3.448 3.144 1.630 3887
3.554 3.240 1.676 2345
3.502 3.193 1.638 3940
3.608 3.289 1.684 2297
3.396 3.096 1.592 842
3.533 3.221 1.636 4464
3.427 3.124 1.591 2255
3.639 3.318 1.682 1461
3.592 3.275 1.646 4098
3.447 3.143 1.584 2597
3.698 3.372 1.691 766
3.640 3.319 1.651 3663
3.534 3.222 1.606 2384
3.654 3.332 1.641 3896
3.548 3.235 1.597 1667
3.663 3.340 1.629 3039
3.523 3.212 1.572 1300
3.769 3.437 1.673 1176
3.739 3.409 1.644 2768
3.633 3.312 1.601 2069
3.521 3.210 1.556 1508
3.851 3.511 1.690 1130
3.742 3.412 1.630 3216
3.636 3.315 1.587 1618
3.849 3.509 1.673 1407
3.529 3.218 1.544 904
3.723 3.395 1.606 3904
3.852 3.512 1.658 1625
3.617 3.297 1.564 1048
3.732 3.402 1.594 3747
3.872 3.531 1.649 2912
3.979 3.628 1.691 1213
3.625 3.305 1.552 789
3.876 3.533 1.634 3335
3.758 3.426 1.588 2762
3.982 3.631 1.676 1437
3.884 3.542 1.621 3544
3.772 3.439 1.578 2352
3.997 3.644 1.665 1008
3.888 3.544 1.606 2913
3.769 3.437 1.561 1931
4.000 3.647 1.649 1642
4.003 3.650 1.633 2951
3.885 3.542 1.589 2075
3.767 3.434 1.544 1871
4.111 3.748 1.674 1202
4.007 3.653 1.618 2662
3.877 3.535 1.569 2141
4.114 3.751 1.658 1664
3.764 3.432 1.527 1282
4.072 3.712 1.625 4146
4.202 3.831 1.673 3294
3.880 3.538 1.554 1291
4.075 3.715 1.609 3858
4.216 3.844 1.660 3695
4.324 3.942 1.699 1261
4.248 3.873 1.654 2847
4.101 3.739 1.601 2584
4.355 3.971 1.693 857
3.880 3.538 1.522 780
4.262 3.886 1.641 2433
4.059 3.700 1.569 2185
4.370 3.984 1.680 1280
3.878 3.535 1.504 890
4.317 3.936 1.643 4856
4.062 3.703 1.553 2240
4.424 4.034 1.681 1464
4.209 3.837 1.605 1383
4.326 3.944 1.628 6167
4.433 4.042 1.665 1653
4.133 3.768 1.561 998
4.329 3.947 1.611 4479
4.436 4.045 1.648 1863
4.417 4.027 1.623 4452
4.309 3.929 1.586 2618
4.525 4.125 1.659 891
4.432 4.040 1.609 4428
4.324 3.942 1.573 2185
4.539 4.139 1.645 1198
4.440 4.048 1.594 3446
4.548 4.147 1.629 1962
4.332 3.950 1.558 1196
4.529 4.129 1.604 4235
4.421 4.031 1.569 1626
4.660 4.248 1.647 1190
4.549 4.147 1.592 4441
4.441 4.049 1.557 1847
4.657 4.246 1.627 1513
4.552 4.150 1.574 4852
4.660 4.249 1.609 2263
4.444 4.052 1.540 1366
4.555 4.153 1.556 6594
4.663 4.252 1.590 3221
4.806 4.382 1.635 783
4.564 4.161 1.540 7280
4.678 4.265 1.576 3206
4.855 4.426 1.630 1123
4.573 4.169 1.524 4714
4.681 4.268 1.557 2823
4.835 4.408 1.604 1138
5.052 4.606 1.671 1054
4.696 4.281 1.542 3381
4.587 4.182 1.510 1843
5.061 4.614 1.653 1197
4.952 4.515 1.620 1192
4.699 4.284 1.524 6656
5.064 4.617 1.633 1639
4.584 4.180 1.490 1536
4.956 4.518 1.600 1350
4.696 4.281 1.504 7405
5.067 4.620 1.613 1919
4.959 4.521 1.581 1468
4.850 4.422 1.549 1243
4.699 4.284 1.485 5008
5.202 4.743 1.631 2521
5.065 4.618 1.591 2149
4.956 4.519 1.560 1487
4.707 4.292 1.469 5322
5.205 4.746 1.611 3137
5.068 4.621 1.571 2460
4.959 4.521 1.540 1241
4.710 4.294 1.450 5243
5.209 4.749 1.590 2613
5.077 4.629 1.553 1821
5.323 4.853 1.622 1657
4.713 4.297 1.432 3517
5.206 4.746 1.568 2158
5.338 4.867 1.605 1869
5.452 4.971 1.636 966
5.226 4.765 1.552 1830
4.716 4.299 1.413 1767
5.341 4.869 1.584 1362
5.496 5.011 1.626 1336
5.241 4.778 1.535 2409
5.510 5.024 1.607 1976
5.401 4.925 1.578 1200
5.665 5.165 1.649 1064
5.514 5.027 1.586 2918
5.249 4.786 1.516 2314
5.404 4.927 1.557 1367
5.680 5.179 1.630 1152
5.511 5.024 1.563 3102
5.632 5.134 1.594 1657
5.746 5.239 1.624 1475
5.252 4.789 1.495 1356
5.755 5.247 1.603 2684
5.514 5.027 1.541 2628
5.623 5.127 1.569 2079
0.680 0.620 0.303 1081
5.758 5.250 1.580 3604
5.517 5.030 1.519 1992
5.626 5.130 1.547 1698
0.680 0.620 0.300 926
5.762 5.253 1.558 3026
5.537 5.048 1.502 1820
5.911 5.389 1.595 1264
6.021 5.489 1.622 1135
5.897 5.376 1.567 1988
5.753 5.245 1.532 1756
5.534 5.046 1.479 1423
6.127 5.586 1.624 1393
6.113 5.574 1.595 2086
5.894 5.374 1.543 2039
5.739 5.232 1.506 1436
6.407 5.841 1.666 1323
6.099 5.561 1.567 2276
6.405 5.839 1.639 1867
5.897 5.377 1.520 1351
5.776 5.266 1.491 1248
6.137 5.595 1.551 2483
6.425 5.858 1.618 1808
6.027 5.495 1.526 1485
6.610 6.026 1.661 1014
6.140 5.598 1.527 2351
6.440 5.871 1.596 2093
6.030 5.498 1.502 1383
6.613 6.029 1.635 1319
6.426 5.858 1.566 2122
6.148 5.606 1.505 2011
6.593 6.011 1.604 1639
6.039 5.506 1.480 1287
6.411 5.845 1.537 3032
6.146 5.603 1.479 1779
6.608 6.024 1.581 1752
6.717 6.124 1.605 1224
6.414 5.848 1.512 3453
7.073 6.449 1.654 2017
6.611 6.027 1.555 1802
6.732 6.138 1.581 1477
6.423 5.856 1.488 2642
6.625 6.040 1.531 2226
7.076 6.451 1.626 2051
6.955 6.341 1.601 1568
7.091 6.465 1.601 2546
6.634 6.048 1.506 2298
6.466 5.896 1.471 1592
6.975 6.359 1.577 1436
7.094 6.468 1.573 4546
6.620 6.035 1.477 1702
7.476 6.816 1.651 1333
6.429 5.861 1.438 993
7.097 6.471 1.545 5042
6.628 6.043 1.452 1390
7.479 6.819 1.621 1380
7.369 6.719 1.599 968
7.094 6.468 1.516 4215
7.372 6.721 1.570 1319
7.581 6.911 1.611 1116
8.032 7.323 1.699 1036
7.086 6.460 1.486 3746
8.030 7.321 1.667 1698
7.590 6.920 1.582 1647
7.387 6.735 1.544 1370
7.094 6.468 1.459 2967
8.033 7.324 1.635 2592
7.587 6.917 1.552 2119
7.755 7.070 1.583 1787
8.042 7.332 1.605 3469
7.114 6.486 1.435 2884
7.584 6.915 1.521 1999
7.746 7.063 1.550 1863
8.045 7.335 1.573 3625
7.117 6.489 1.407 2810
8.556 7.800 1.664 2186
7.587 6.917 1.491 1420
8.048 7.338 1.541 3358
7.114 6.486 1.378 2288
8.565 7.809 1.632 1820
7.758 7.073 1.490 1098
8.051 7.341 1.510 2860
7.105 6.478 1.348 1366
8.568 7.811 1.598 1345
7.773 7.087 1.462 1010
8.054 7.343 1.478 1878
8.588 7.830 1.567 1140
9.128 8.322 1.657 1117
8.234 7.507 1.508 1110
8.603 7.844 1.535 1384
9.126 8.320 1.621 1243
9.619 8.770 1.701 1115
8.231 7.505 1.475 1091
8.606 7.846 1.502 1541
9.117 8.312 1.583 1320
9.623 8.773 1.663 1255
8.228 7.502 1.441 966
9.196 8.384 1.559 1246
8.557 7.801 1.460 1215
8.225 7.499 1.408 973
9.888 9.015 1.666 903
8.362 7.624 1.396 1531
9.193 8.382 1.522 1254
9.885 9.012 1.626 1046
8.554 7.798 1.425 789
8.359 7.621 1.362 1609
9.865 8.994 1.584 859
9.190 8.379 1.485 764
8.315 7.581 1.323 2251
8.425 7.681 1.339 1233
9.874 9.002 1.546 895
9.589 8.742 1.505 792
8.317 7.583 1.290 2684
8.428 7.684 1.305 1732
9.894 9.021 1.509 944
8.320 7.585 1.257 3625
8.430 7.686 1.272 1904
9.903 9.029 1.471 919
9.717 8.859 1.446 896
8.328 7.593 1.225 6399
8.438 7.694 1.240 1672
9.719 8.861 1.408 768
8.336 7.600 1.193 7361
8.447 7.701 1.207 1375
8.225 7.499 1.179 884
10.310 9.400 1.444 753
8.338 7.602 1.161 4434
8.449 7.703 1.174 929
8.227 7.501 1.147 764
8.340 7.604 1.128 2116
8.342 7.606 1.095 1956
8.232 7.505 1.082 787
8.339 7.603 1.062 1587
8.393 7.652 1.034 1534
8.271 7.541 1.021 1111
8.377 7.638 1.000 1122
8.267 7.537 0.988 823
8.350 7.613 0.964 1108
8.352 7.615 0.931 996
8.272 7.542 0.891 1011
1.664 1.505 1.708 4043
1.754 1.587 1.796 1748
1.667 1.508 1.702 8087
1.758 1.591 1.789 3750
1.670 1.512 1.695 8087
1.766 1.598 1.787 4051
1.679 1.519 1.693 7623
1.775 1.606 1.785 4834
1.692 1.531 1.696 7352
1.783 1.613 1.782 5674
1.791 1.621 1.780 10580
1.695 1.534 1.690 6922
1.800 1.628 1.778 15552
1.698 1.537 1.683 6493
1.803 1.632 1.771 15552
1.702 1.540 1.676 6493
1.807 1.635 1.764 16459
1.705 1.543 1.670 5708
1.810 1.638 1.757 17365
1.708 1.546 1.663 4924
1.819 1.646 1.754 13521
1.716 1.553 1.661 3413
1.832 1.658 1.756 10238
1.734 1.569 1.668 2436
1.831 1.656 1.744 9105
1.738 1.572 1.661 1766
1.923 1.740 1.828 1629
1.824 1.651 1.729 8335
1.917 1.735 1.812 3512
1.721 1.558 1.637 1048
1.833 1.658 1.726 6665
1.926 1.743 1.809 2944
1.739 1.574 1.643 918
1.890 1.710 1.767 6453
1.797 1.626 1.684 2700
1.894 1.713 1.759 6412
1.800 1.629 1.677 3095
1.892 1.712 1.748 8045
1.798 1.627 1.666 1889
1.896 1.715 1.740 9678
1.782 1.612 1.642 1424
1.904 1.723 1.737 11397
1.785 1.615 1.635 1549
1.998 1.808 1.818 774
1.907 1.726 1.730 13248
1.788 1.618 1.628 1673
2.002 1.811 1.810 1087
1.916 1.734 1.727 12395
1.797 1.626 1.626 1580
2.010 1.819 1.807 1035
1.924 1.741 1.724 11730
1.810 1.638 1.627 1680
2.019 1.827 1.803 1090
1.933 1.749 1.720 10975
1.813 1.640 1.620 1957
2.027 1.835 1.800 1650
1.941 1.756 1.717 10883
1.816 1.643 1.613 2234
2.036 1.842 1.796 1907
1.955 1.769 1.718 8104
1.814 1.642 1.602 2595
2.050 1.855 1.796 1887
2.013 1.822 1.756 7302
1.812 1.640 1.591 2984
1.918 1.735 1.677 2589
1.966 1.779 1.707 7096
2.062 1.866 1.785 2628
1.821 1.647 1.588 2368
1.970 1.782 1.699 8511
2.065 1.869 1.777 3231
1.824 1.650 1.581 1755
1.978 1.790 1.696 7432
2.074 1.877 1.773 3649
1.807 1.635 1.558 2274
1.992 1.802 1.696 6622
2.088 1.889 1.773 4546
1.810 1.638 1.551 2789
2.000 1.810 1.693 4136
2.096 1.897 1.769 3978
1.808 1.636 1.540 2693
2.105 1.904 1.765 3742
1.811 1.638 1.533 2414
2.008 1.817 1.689 1972
2.108 1.908 1.757 3794
1.809 1.637 1.522 2212
2.012 1.820 1.681 1667
2.117 1.915 1.752 3941
1.812 1.639 1.515 2293
2.020 1.828 1.677 1313
2.115 1.914 1.740 5074
1.810 1.637 1.504 2376
2.018 1.826 1.666 1022
2.119 1.917 1.732 5776
1.813 1.640 1.497 2018
2.022 1.829 1.658 1139
2.122 1.920 1.724 5251
1.861 1.684 1.525 1707
2.025 1.832 1.650 1395
2.156 1.951 1.739 6070
1.818 1.645 1.483 1670
2.039 1.845 1.650 1192
2.160 1.954 1.731 7295
1.821 1.648 1.476 1449
2.037 1.843 1.638 913
2.179 1.971 1.734 9084
1.819 1.646 1.465 1233
2.081 1.883 1.661 1087
2.187 1.979 1.729 11887
2.028 1.835 1.611 1056
1.827 1.653 1.462 917
2.285 2.068 1.802 761
2.196 1.987 1.724 13646
2.098 1.898 1.652 1023
2.210 1.999 1.724 13071
2.111 1.911 1.652 1011
2.223 2.012 1.723 11172
2.125 1.923 1.651 1286
2.027 1.834 1.580 856
2.232 2.019 1.718 9590
2.133 1.930 1.647 1147
2.035 1.841 1.576 1023
2.330 2.109 1.789 815
2.240 2.027 1.713 8395
2.043 1.849 1.572 1041
2.142 1.938 1.642 857
2.285 2.068 1.734 6544
2.187 1.979 1.663 3493
2.047 1.852 1.564 924
2.294 2.076 1.728 6871
2.195 1.986 1.659 4070
2.050 1.855 1.556 814
2.287 2.069 1.712 6342
2.183 1.975 1.639 4373
2.244 2.030 1.671 6064
2.343 2.120 1.740 2586
2.144 1.940 1.602 1539
2.320 2.099 1.713 6189
2.221 2.009 1.644 3654
2.329 2.107 1.707 7549
2.229 2.017 1.639 3830
2.428 2.197 1.775 789
2.332 2.110 1.698 7731
2.232 2.020 1.630 3538
2.432 2.200 1.766 2339
2.393 2.165 1.728 8491
2.293 2.075 1.661 4297
2.194 1.985 1.593 3440
2.402 2.173 1.722 7540
2.213 2.002 1.595 4053
2.113 1.912 1.528 1346
2.368 2.143 1.689 6080
2.468 2.233 1.755 3614
2.216 2.005 1.587 3254
2.116 1.914 1.520 1184
2.356 2.132 1.669 6190
2.456 2.222 1.735 4505
2.219 2.008 1.578 1988
2.119 1.917 1.512 1012
2.428 2.197 1.705 6361
2.327 2.106 1.639 3646
2.528 2.288 1.771 1794
2.222 2.011 1.570 1520
2.421 2.190 1.689 6019
2.320 2.099 1.623 2545
2.521 2.281 1.754 2443
2.103 1.903 1.482 1858
2.413 2.184 1.672 5004
2.514 2.275 1.737 4182
2.112 1.911 1.477 1811
2.313 2.093 1.607 1398
2.523 2.283 1.731 5486
2.417 2.187 1.663 3886
2.125 1.923 1.476 1548
2.316 2.096 1.598 1129
2.531 2.291 1.725 6360
2.425 2.194 1.657 3186
2.133 1.930 1.471 1404
2.324 2.103 1.593 961
2.583 2.337 1.745 6220
2.482 2.246 1.681 4218
2.136 1.933 1.463 1112
2.243 2.029 1.530 899
2.591 2.345 1.738 8251
2.490 2.253 1.675 5372
2.251 2.037 1.525 819
2.536 2.295 1.692 10577
2.638 2.387 1.755 3539
2.435 2.203 1.629 1541
2.534 2.293 1.679 9516
2.636 2.385 1.741 5956
2.433 2.201 1.616 1044
2.602 2.354 1.708 8868
2.500 2.262 1.646 4969
2.703 2.446 1.770 838
2.605 2.357 1.698 9502
2.503 2.265 1.636 3153
2.707 2.449 1.760 1062
2.619 2.370 1.694 11324
2.517 2.278 1.633 2018
2.628 2.378 1.688 15590
2.526 2.286 1.626 1556
2.637 2.386 1.681 19235
2.739 2.478 1.741 1025
2.535 2.293 1.620 990
2.645 2.394 1.673 15646
2.748 2.486 1.734 1518
2.543 2.301 1.613 862
2.649 2.397 1.663 9542
2.751 2.489 1.723 1906
2.657 2.405 1.656 7099
2.760 2.497 1.715 1712
2.666 2.412 1.649 6134
2.769 2.505 1.708 2805
2.691 2.435 1.651 6224
2.794 2.528 1.709 3749
2.710 2.453 1.650 7396
2.813 2.546 1.708 2822
2.725 2.465 1.645 7919
2.827 2.558 1.703 2600
2.739 2.478 1.641 8820
2.842 2.571 1.698 2485
2.753 2.491 1.636 7329
2.872 2.599 1.702 2923
2.761 2.499 1.628 6434
2.870 2.597 1.688 3613
2.797 2.531 1.635 7754
2.961 2.679 1.724 2633
2.811 2.544 1.630 9655
2.964 2.682 1.713 5174
2.826 2.557 1.625 6722
2.929 2.651 1.681 6392
2.922 2.644 1.663 7533
2.818 2.550 1.609 4204
3.025 2.738 1.718 1810
2.925 2.647 1.652 8006
2.821 2.553 1.598 3242
3.029 2.741 1.707 2719
2.923 2.645 1.638 8468
3.027 2.739 1.692 3473
2.819 2.550 1.584 1594
2.920 2.643 1.624 6823
3.025 2.737 1.677 3592
2.816 2.548 1.570 882
2.924 2.645 1.612 4516
3.033 2.745 1.668 4475
3.048 2.758 1.662 7404
2.932 2.653 1.604 2701
3.158 2.857 1.718 855
3.046 2.756 1.648 8072
3.150 2.850 1.700 2166
2.941 2.661 1.595 1698
3.049 2.759 1.636 5337
3.153 2.853 1.688 3412
2.944 2.664 1.584 878
3.080 2.787 1.638 3902
3.190 2.886 1.692 1781
2.975 2.692 1.586 926
3.099 2.804 1.634 2678
3.204 2.899 1.685 2083
3.309 2.994 1.736 1092
3.174 2.872 1.656 2911
3.069 2.777 1.606 2235
3.301 2.987 1.718 1265
3.183 2.880 1.647 3765
3.078 2.785 1.596 2384
3.288 2.975 1.697 1462
3.198 2.893 1.640 6533
3.303 2.988 1.690 3182
3.092 2.798 1.590 1548
3.408 3.084 1.740 790
3.206 2.901 1.630 7161
3.312 2.997 1.679 5447
3.417 3.092 1.729 1079
3.101 2.806 1.580 1035
3.215 2.909 1.620 5621
3.320 3.005 1.669 4284
3.426 3.100 1.718 1219
3.218 2.912 1.607 4917
3.374 3.053 1.679 3871
3.316 3.000 1.638 3814
3.210 2.905 1.590 2893
3.444 3.116 1.697 2546
3.447 3.119 1.683 5796
3.319 3.003 1.625 3933
3.213 2.908 1.577 1169
3.456 3.127 1.672 7946
3.350 3.031 1.625 3307
3.562 3.223 1.720 1263
3.244 2.936 1.577 791
3.448 3.120 1.654 6424
3.576 3.236 1.711 1740
3.342 3.024 1.607 1700
3.446 3.118 1.638 5617
3.557 3.219 1.687 1962
3.455 3.126 1.627 4450
3.561 3.222 1.673 2753
3.519 3.185 1.640 4366
3.626 3.281 1.686 1912
3.413 3.088 1.594 1109
3.517 3.182 1.624 5022
3.623 3.279 1.670 2920
3.599 3.256 1.644 4013
3.475 3.145 1.591 2776
3.705 3.353 1.689 1543
3.652 3.305 1.651 3689
3.546 3.208 1.606 2186
3.439 3.112 1.562 800
3.667 3.318 1.641 3608
3.560 3.221 1.597 1593
3.773 3.414 1.685 793
3.676 3.326 1.629 2926
3.782 3.423 1.673 1566
3.535 3.199 1.572 1081
3.758 3.400 1.647 3273
3.651 3.303 1.603 2252
3.864 3.497 1.690 1346
3.538 3.202 1.558 1024
3.755 3.398 1.630 3582
3.862 3.495 1.673 1914
3.648 3.301 1.587 1734
3.736 3.380 1.606 5635
3.865 3.498 1.658 2264
3.629 3.284 1.564 1513
3.745 3.388 1.594 5659
3.886 3.516 1.649 3341
3.993 3.613 1.691 1255
3.638 3.292 1.552 1009
3.765 3.407 1.586 3599
3.883 3.514 1.632 3555
3.990 3.611 1.674 1606
3.881 3.512 1.615 4107
3.774 3.414 1.573 3276
3.999 3.619 1.660 1299
3.890 3.520 1.602 3491
3.782 3.422 1.561 2829
4.008 3.627 1.647 2157
4.012 3.630 1.631 3401
3.785 3.425 1.546 1997
3.893 3.522 1.587 1960
4.130 3.737 1.676 1433
4.015 3.633 1.616 3202
4.122 3.730 1.655 2109
3.896 3.525 1.571 1521
3.788 3.428 1.531 1052
4.086 3.697 1.625 4482
4.205 3.805 1.669 3159
3.978 3.600 1.585 1838
4.312 3.902 1.708 821
4.095 3.705 1.611 3694
4.202 3.803 1.650 3286
4.310 3.900 1.689 1704
3.964 3.587 1.564 861
4.274 3.867 1.658 2141
4.115 3.723 1.601 2083
4.317 3.906 1.656 3024
4.129 3.737 1.589 2093
4.022 3.639 1.551 1330
4.498 4.070 1.720 1016
4.326 3.914 1.641 5457
4.144 3.750 1.577 2212
4.434 4.012 1.679 1423
4.036 3.652 1.539 1169
4.335 3.922 1.626 5591
4.443 4.020 1.663 1890
4.215 3.814 1.584 1224
4.344 3.930 1.611 4453
4.452 4.028 1.648 1881
4.347 3.933 1.594 3882
4.455 4.031 1.630 2974
4.563 4.129 1.667 836
4.458 4.034 1.613 4297
4.350 3.936 1.577 2303
4.566 4.132 1.649 1192
4.461 4.037 1.596 4508
4.570 4.135 1.631 1919
4.353 3.939 1.560 1268
4.476 4.050 1.582 3551
4.601 4.164 1.623 3145
4.367 3.952 1.547 1019
4.513 4.084 1.575 3757
4.622 4.182 1.610 2829
4.516 4.087 1.558 5067
4.625 4.185 1.592 4359
4.622 4.182 1.572 5641
4.514 4.084 1.538 3488
4.731 4.281 1.606 989
4.580 4.144 1.540 6235
4.688 4.242 1.574 3252
4.674 4.229 1.550 5647
4.565 4.131 1.517 3070
5.075 4.592 1.672 891
4.783 4.328 1.583 811
4.689 4.243 1.535 6088
5.084 4.600 1.654 1077
4.580 4.144 1.503 932
4.975 4.502 1.622 816
4.709 4.261 1.522 8149
5.087 4.603 1.634 1440
4.600 4.162 1.490 985
5.202 4.707 1.668 948
4.712 4.264 1.504 9626
5.091 4.606 1.615 1708
5.205 4.710 1.648 1479
4.878 4.414 1.552 1024
4.721 4.271 1.487 8096
5.214 4.718 1.629 3136
5.088 4.604 1.593 1853
4.979 4.505 1.562 1008
4.723 4.274 1.469 8075
5.223 4.726 1.611 3990
5.085 4.601 1.571 2037
5.361 4.851 1.650 909
4.721 4.271 1.449 7332
5.226 4.729 1.590 2977
5.353 4.844 1.626 1684
5.094 4.609 1.553 1535
4.729 4.279 1.432 6279
5.230 4.732 1.570 2489
5.350 4.841 1.603 1762
5.488 4.966 1.641 1148
4.732 4.282 1.413 3955
5.244 4.745 1.552 2546
5.353 4.844 1.582 1553
5.515 4.990 1.626 1203
5.259 4.758 1.535 2914
4.740 4.289 1.396 1734
5.529 5.003 1.607 1504
5.368 4.857 1.564 1324
5.262 4.761 1.515 2702
5.532 5.006 1.586 2280
5.423 4.907 1.557 1017
5.642 5.105 1.615 948
5.530 5.004 1.563 2854
5.639 5.103 1.591 2108
5.265 4.764 1.494 1748
5.778 5.228 1.627 1043
5.642 5.106 1.569 3157
5.527 5.001 1.540 2974
5.769 5.220 1.601 1982
5.377 4.865 1.501 968
5.784 5.234 1.582 3026
5.530 5.004 1.518 2495
5.640 5.103 1.546 2059
5.894 5.333 1.609 1017
5.787 5.236 1.559 2735
5.556 5.027 1.502 1822
6.099 5.519 1.636 1419
5.897 5.336 1.586 1278
5.888 5.328 1.560 1744
5.767 5.218 1.531 1610
5.559 5.030 1.480 1262
6.143 5.558 1.622 1156
6.423 5.812 1.665 1476
5.903 5.341 1.540 1470
6.152 5.566 1.600 1427
6.030 5.456 1.571 1413
6.166 5.579 1.578 2907
6.426 5.815 1.639 2052
6.039 5.464 1.548 1761
5.773 5.224 1.486 1288
6.158 5.572 1.551 4248
6.048 5.472 1.526 1808
6.430 5.818 1.614 1766
6.540 5.917 1.640 1174
6.120 5.538 1.518 3272
6.491 5.873 1.602 2126
6.607 5.978 1.628 1527
6.616 5.986 1.604 2175
6.494 5.876 1.577 2146
6.106 5.525 1.490 1922
6.456 5.842 1.542 2249
6.167 5.580 1.479 2216
6.624 5.994 1.579 2210
6.746 6.104 1.606 1321
6.459 5.845 1.517 2983
6.175 5.588 1.456 1967
6.633 6.002 1.555 1965
6.755 6.112 1.581 1961
6.648 6.015 1.531 2205
6.486 5.868 1.497 2159
6.758 6.115 1.554 1951
6.979 6.315 1.601 1677
6.657 6.023 1.506 2237
7.109 6.433 1.600 1583
6.500 5.882 1.474 1517
6.831 6.181 1.542 1509
7.118 6.441 1.573 2841
6.654 6.021 1.479 1588
7.496 6.782 1.650 1503
6.509 5.889 1.450 1290
7.121 6.444 1.545 3093
7.493 6.780 1.619 1487
6.651 6.018 1.452 1318
6.965 6.302 1.514 1090
7.119 6.441 1.516 2636
8.060 7.293 1.699 1530
7.473 6.762 1.585 1529
6.677 6.042 1.430 1072
7.110 6.433 1.486 2439
8.057 7.291 1.667 2383
7.616 6.891 1.582 1500
7.464 6.754 1.554 1479
8.061 7.294 1.635 3291
7.607 6.883 1.550 2090
7.119 6.441 1.459 1990
7.770 7.031 1.581 1729
8.070 7.302 1.605 4093
7.767 7.028 1.549 2224
7.610 6.886 1.521 2006
7.139 6.460 1.435 1851
8.073 7.305 1.573 4234
8.585 7.768 1.664 1944
7.142 6.462 1.407 1778
7.764 7.026 1.518 1644
8.076 7.307 1.541 3933
8.588 7.771 1.631 1554
7.133 6.454 1.377 1459
7.767 7.028 1.487 1088
8.079 7.310 1.510 3431
9.209 8.332 1.702 1134
8.952 8.101 1.659 1131
8.597 7.779 1.598 1084
8.082 7.313 1.478 2465
9.218 8.341 1.667 1292
8.956 8.104 1.624 1226
8.629 7.808 1.569 1059
8.085 7.315 1.446 1634
8.632 7.811 1.535 1371
9.215 8.338 1.630 1193
9.652 8.734 1.701 1038
8.641 7.819 1.502 1373
9.154 8.283 1.584 1155
9.650 8.732 1.662 1072
8.087 7.318 1.415 938
9.222 8.344 1.558 1447
8.411 7.611 1.433 1221
8.638 7.816 1.468 910
10.289 9.310 1.723 844
8.408 7.608 1.399 1518
9.219 8.342 1.521 1428
9.913 8.970 1.625 994
10.286 9.308 1.681 809
8.399 7.600 1.364 1821
9.893 8.952 1.583 883
10.284 9.305 1.640 852
