2.044 1.341 1.709 4081
2.171 1.425 1.809 2859
2.059 1.351 1.710 3722
2.170 1.424 1.797 3265
2.085 1.368 1.721 3932
2.191 1.437 1.802 2709
2.100 1.378 1.722 4188
2.206 1.447 1.803 2136
2.115 1.388 1.723 4646
2.221 1.457 1.804 2167
2.009 1.318 1.642 754
2.147 1.409 1.737 3732
2.253 1.478 1.818 1427
2.041 1.339 1.657 1419
2.162 1.419 1.738 3899
2.268 1.488 1.819 1727
2.056 1.349 1.658 860
2.160 1.417 1.727 3138
2.267 1.487 1.807 2007
2.136 1.402 1.699 3084
2.248 1.475 1.782 2548
2.207 1.448 1.741 3484
2.100 1.378 1.662 850
2.211 1.451 1.734 4605
2.226 1.461 1.734 5427
2.339 1.535 1.817 1120
2.119 1.390 1.656 882
2.247 1.475 1.739 7004
2.355 1.545 1.817 1702
2.140 1.404 1.661 1160
2.262 1.485 1.740 6402
2.370 1.555 1.817 1767
2.155 1.414 1.662 1343
2.272 1.491 1.736 6358
2.380 1.562 1.813 1849
2.164 1.420 1.659 1078
2.276 1.493 1.728 5784
2.384 1.564 1.805 2388
2.280 1.496 1.720 5210
2.388 1.567 1.797 2928
2.284 1.498 1.713 5966
2.392 1.570 1.789 4144
2.379 1.561 1.769 7277
2.270 1.490 1.693 5309
2.488 1.632 1.845 991
2.377 1.560 1.757 7613
2.268 1.488 1.681 3963
2.486 1.631 1.832 1107
2.381 1.562 1.748 7951
2.272 1.491 1.673 3453
2.490 1.634 1.824 1057
2.397 1.572 1.748 7399
2.287 1.501 1.673 3626
2.506 1.644 1.823 812
2.406 1.579 1.744 9814
2.297 1.507 1.669 1999
2.516 1.651 1.818 854
2.410 1.581 1.736 12277
2.301 1.510 1.662 1342
2.520 1.653 1.810 1074
2.414 1.584 1.727 10512
2.524 1.656 1.801 2315
2.304 1.512 1.654 1111
2.418 1.586 1.719 8748
2.528 1.659 1.792 3334
2.308 1.514 1.646 881
2.416 1.585 1.707 5600
2.526 1.657 1.780 3576
2.484 1.630 1.741 6039
2.373 1.557 1.668 1399
2.487 1.632 1.732 6972
2.377 1.560 1.660 1045
2.598 1.705 1.804 967
2.509 1.646 1.735 6487
2.548 1.672 1.749 8321
2.437 1.599 1.677 933
2.546 1.670 1.736 8252
2.544 1.669 1.724 8660
2.655 1.742 1.794 759
2.548 1.672 1.715 7756
2.659 1.745 1.785 1085
2.593 1.701 1.732 6603
2.481 1.628 1.662 754
2.602 1.707 1.727 8643
2.606 1.710 1.718 11225
2.718 1.783 1.787 1134
2.598 1.705 1.702 11404
2.710 1.778 1.770 1962
2.602 1.707 1.693 9407
2.714 1.781 1.761 2591
2.641 1.733 1.705 9669
2.754 1.807 1.773 1682
2.651 1.739 1.700 9674
2.763 1.813 1.767 1314
2.661 1.746 1.694 7789
2.773 1.820 1.761 1175
2.664 1.748 1.685 8029
2.801 1.838 1.766 2042
2.668 1.751 1.676 7673
2.805 1.840 1.756 3108
0.689 0.452 0.516 768
2.672 1.753 1.667 6619
2.809 1.843 1.746 4600
2.807 1.842 1.733 6227
2.682 1.760 1.661 4560
2.926 1.920 1.802 1000
2.823 1.852 1.731 6992
2.703 1.774 1.662 3611
2.936 1.927 1.796 1840
2.827 1.855 1.721 8029
2.701 1.772 1.649 3803
2.940 1.929 1.785 2265
2.836 1.861 1.714 10216
2.711 1.779 1.643 3849
2.950 1.936 1.779 2111
2.846 1.868 1.708 11617
2.714 1.781 1.634 2924
2.960 1.942 1.772 2798
2.856 1.874 1.702 10686
2.970 1.949 1.765 3110
2.718 1.783 1.625 1360
2.860 1.876 1.692 10595
2.974 1.951 1.755 3719
2.734 1.794 1.622 891
2.870 1.883 1.685 11383
2.984 1.958 1.748 3056
2.867 1.881 1.672 11008
2.982 1.957 1.734 2561
2.871 1.884 1.662 7481
2.986 1.959 1.724 2996
2.953 1.938 1.694 6003
2.839 1.863 1.633 2333
3.068 2.013 1.756 1155
2.963 1.944 1.688 5422
2.848 1.869 1.626 2773
3.078 2.020 1.749 2296
3.052 2.002 1.722 5688
2.882 1.891 1.633 3027
3.031 1.989 1.699 6767
3.147 2.065 1.759 1765
2.898 1.901 1.629 1706
3.029 1.988 1.685 5727
3.144 2.063 1.745 2120
2.895 1.900 1.616 784
3.106 2.038 1.712 6581
2.990 1.962 1.653 2294
3.221 2.114 1.772 1111
3.110 2.040 1.702 8490
3.225 2.116 1.761 2658
2.994 1.964 1.643 1802
3.126 2.051 1.697 7157
3.241 2.127 1.756 2486
3.010 1.975 1.639 1345
3.142 2.061 1.692 6601
3.258 2.137 1.751 1520
3.026 1.985 1.634 1297
3.213 2.108 1.715 6402
3.096 2.032 1.657 1940
3.229 2.118 1.710 7480
3.112 2.042 1.653 2423
3.232 2.121 1.699 8094
3.116 2.045 1.642 2313
3.230 2.119 1.685 6945
3.114 2.043 1.628 1806
3.222 2.114 1.668 6172
3.338 2.190 1.724 1033
3.105 2.037 1.612 875
3.219 2.112 1.654 4395
3.336 2.189 1.710 2757
3.346 2.195 1.701 4633
3.198 2.099 1.631 2703
3.356 2.202 1.692 4941
3.239 2.125 1.637 3130
3.384 2.221 1.692 4036
3.267 2.144 1.638 2790
3.401 2.231 1.686 4985
3.265 2.142 1.624 981
3.518 2.308 1.740 840
3.404 2.234 1.675 5888
3.522 2.311 1.728 1579
3.287 2.157 1.621 1034
3.408 2.236 1.663 5036
3.526 2.313 1.716 2389
3.290 2.159 1.610 984
3.412 2.239 1.651 4186
3.529 2.316 1.704 2692
3.496 2.294 1.675 4040
3.378 2.217 1.623 2977
3.614 2.371 1.728 1859
3.487 2.288 1.658 4562
3.369 2.211 1.606 2456
3.649 2.394 1.729 1400
3.485 2.287 1.643 7385
3.653 2.397 1.716 1667
3.367 2.209 1.591 1050
3.495 2.293 1.634 7967
3.613 2.371 1.685 3994
3.731 2.448 1.736 1656
3.610 2.369 1.670 5623
3.492 2.291 1.619 4534
3.729 2.447 1.721 3267
3.614 2.371 1.657 4737
3.733 2.449 1.708 3760
3.496 2.294 1.607 1760
3.674 2.411 1.669 6882
3.549 2.329 1.616 2700
3.793 2.489 1.719 1857
3.678 2.413 1.656 7944
3.797 2.491 1.706 2559
3.534 2.319 1.596 2352
3.688 2.420 1.646 5671
3.807 2.498 1.695 2337
3.538 2.321 1.584 1875
3.704 2.430 1.638 4864
3.823 2.508 1.687 1763
3.547 2.328 1.574 779
3.701 2.429 1.623 3298
3.896 2.556 1.702 2209
3.899 2.559 1.688 3292
3.761 2.468 1.633 2520
3.840 2.520 1.650 3852
3.960 2.598 1.697 2033
3.721 2.442 1.602 1840
3.850 2.526 1.639 6733
3.976 2.609 1.689 2200
3.731 2.448 1.592 1001
3.848 2.525 1.623 7968
4.005 2.628 1.685 1958
3.858 2.531 1.613 6584
4.009 2.630 1.671 3331
3.912 2.567 1.619 4242
4.031 2.645 1.664 3107
4.060 2.664 1.660 2696
3.940 2.586 1.615 2013
4.001 2.625 1.622 4137
4.121 2.704 1.667 1895
3.862 2.534 1.570 921
4.011 2.632 1.611 4993
4.181 2.744 1.674 1265
4.021 2.638 1.599 3741
4.141 2.717 1.643 2512
4.261 2.796 1.688 771
4.132 2.711 1.625 4466
4.012 2.632 1.581 1706
4.252 2.790 1.668 1501
4.129 2.709 1.608 4099
4.262 2.797 1.656 2075
4.009 2.630 1.565 955
4.126 2.708 1.591 3921
4.272 2.803 1.643 3632
4.282 2.810 1.631 4512
4.130 2.710 1.577 3081
4.447 2.918 1.689 859
4.292 2.816 1.618 4872
4.140 2.716 1.565 3014
4.458 2.925 1.676 948
4.302 2.823 1.606 6178
4.150 2.723 1.553 2931
4.474 2.936 1.665 1448
4.319 2.834 1.595 5569
4.159 2.729 1.541 1860
4.478 2.938 1.649 1683
4.328 2.840 1.582 2768
4.545 2.982 1.655 1899
4.169 2.736 1.529 1383
4.510 2.960 1.627 2897
4.249 2.788 1.540 2166
4.389 2.880 1.587 1387
4.632 3.039 1.667 1147
4.527 2.970 1.616 2883
4.654 3.054 1.658 2393
4.252 2.790 1.525 1696
4.374 2.870 1.565 1134
4.684 3.073 1.650 3947
4.562 2.994 1.610 2586
4.262 2.797 1.512 1370
4.441 2.914 1.571 1250
4.707 3.088 1.640 4364
4.585 3.009 1.601 2048
4.464 2.929 1.562 1275
4.259 2.795 1.496 1270
4.768 3.128 1.642 5033
4.646 3.049 1.603 3327
4.480 2.940 1.550 1260
4.771 3.131 1.625 8228
4.650 3.051 1.587 2675
4.906 3.219 1.668 1714
5.027 3.299 1.706 892
4.775 3.133 1.609 10971
4.948 3.247 1.663 2602
4.653 3.053 1.571 2101
4.779 3.135 1.592 12221
4.958 3.253 1.647 2528
4.657 3.056 1.555 2040
5.080 3.333 1.685 1671
4.776 3.134 1.574 11632
4.962 3.256 1.630 3383
5.084 3.336 1.667 2563
4.654 3.054 1.537 1116
4.786 3.140 1.559 9201
5.081 3.334 1.648 3519
4.959 3.254 1.611 3484
5.203 3.414 1.684 1376
4.789 3.142 1.543 5600
5.091 3.340 1.632 4488
4.969 3.260 1.596 1824
5.213 3.421 1.668 1577
5.095 3.343 1.614 5794
4.799 3.149 1.528 2418
5.217 3.423 1.650 1917
4.972 3.263 1.579 1075
5.092 3.341 1.595 7874
5.214 3.421 1.630 3674
4.802 3.151 1.511 1430
5.102 3.348 1.579 5453
5.224 3.428 1.614 3617
5.372 3.525 1.656 1050
4.722 3.098 1.471 951
5.260 3.451 1.605 2755
5.105 3.350 1.561 2655
5.382 3.532 1.639 1690
4.725 3.100 1.455 977
5.392 3.538 1.623 2800
5.122 3.361 1.547 2345
5.257 3.449 1.585 2241
5.390 3.536 1.602 3405
5.241 3.439 1.561 1404
5.635 3.697 1.669 1288
5.119 3.359 1.528 1276
5.412 3.551 1.589 3926
5.645 3.704 1.651 1946
5.283 3.467 1.554 1099
5.128 3.365 1.512 858
5.416 3.554 1.570 4164
5.649 3.706 1.632 2291
5.293 3.473 1.537 971
5.419 3.556 1.551 3010
5.646 3.704 1.611 2775
5.656 3.711 1.593 2857
5.436 3.567 1.536 2574
5.966 3.915 1.673 794
5.653 3.709 1.571 2636
5.459 3.582 1.522 2622
5.964 3.913 1.651 1446
5.776 3.790 1.603 794
5.669 3.720 1.555 2670
5.974 3.920 1.632 2001
5.468 3.588 1.505 1769
5.990 3.931 1.614 3312
5.679 3.726 1.537 2406
5.491 3.603 1.490 949
6.308 4.139 1.693 945
5.987 3.929 1.592 3819
6.312 4.141 1.671 1750
5.683 3.729 1.517 1311
5.984 3.927 1.570 4018
6.322 4.148 1.651 2518
5.744 3.769 1.512 910
6.001 3.937 1.552 4809
6.332 4.155 1.631 3180
6.017 3.948 1.534 6195
6.336 4.157 1.609 3237
6.699 4.396 1.694 1158
6.576 4.315 1.665 869
6.027 3.955 1.515 4164
6.326 4.151 1.584 3225
6.703 4.398 1.670 2120
6.580 4.317 1.642 1195
6.323 4.149 1.560 2420
6.707 4.401 1.647 2134
6.017 3.948 1.491 1410
6.583 4.320 1.619 1265
6.723 4.412 1.627 1939
6.600 4.331 1.599 1516
6.353 4.168 1.544 1480
6.899 4.527 1.666 1326
6.721 4.410 1.602 3219
6.903 4.529 1.642 1974
6.363 4.175 1.524 1361
6.597 4.329 1.575 1251
6.724 4.412 1.579 5226
6.907 4.532 1.618 4617
6.600 4.331 1.552 1395
7.069 4.639 1.653 1287
6.910 4.534 1.594 6789
6.734 4.419 1.557 5814
7.086 4.650 1.631 2323
7.295 4.786 1.676 1847
6.914 4.536 1.570 6101
6.738 4.421 1.533 5109
7.090 4.652 1.607 3263
7.292 4.785 1.649 1654
6.917 4.539 1.546 5207
6.741 4.423 1.510 3733
7.100 4.659 1.583 2891
7.419 4.868 1.649 1180
6.920 4.541 1.522 3738
6.738 4.421 1.485 2742
7.828 5.136 1.705 1585
7.097 4.657 1.558 1362
6.930 4.547 1.499 2103
6.748 4.427 1.463 2101
7.309 4.796 1.574 1830
7.551 4.954 1.622 1823
7.842 5.145 1.652 2483
7.561 4.961 1.597 1902
7.306 4.794 1.548 1832
7.123 4.674 1.512 1721
7.845 5.148 1.624 5303
7.126 4.676 1.487 1456
7.303 4.792 1.521 1402
7.558 4.959 1.570 1209
7.849 5.150 1.597 7874
8.392 5.506 1.698 1430
7.313 4.798 1.497 1204
7.999 5.249 1.625 1102
7.853 5.153 1.570 7289
7.990 5.243 1.595 1415
8.396 5.509 1.669 1016
7.323 4.805 1.473 947
7.856 5.155 1.543 4221
7.987 5.241 1.566 1299
8.903 5.842 1.731 1147
8.419 5.524 1.644 799
7.866 5.161 1.516 3438
8.914 5.849 1.701 1322
8.423 5.527 1.614 1104
8.789 5.767 1.679 855
7.863 5.159 1.488 4021
8.413 5.520 1.583 1290
9.291 6.096 1.734 1179
8.819 5.787 1.653 1083
7.859 5.157 1.460 3610
9.328 6.120 1.708 1674
8.829 5.793 1.623 1260
8.417 5.523 1.554 1113
7.863 5.159 1.432 2698
9.351 6.136 1.678 2003
9.174 6.020 1.649 1016
9.476 6.217 1.699 1005
9.361 6.142 1.647 1995
7.866 5.161 1.405 1993
9.184 6.026 1.618 1126
8.909 5.845 1.574 1120
9.463 6.209 1.630 1777
9.293 6.097 1.603 1589
10.067 6.606 1.726 1257
7.875 5.167 1.379 1189
9.474 6.216 1.598 2693
9.349 6.134 1.579 1590
10.071 6.608 1.691 1268
9.887 6.487 1.662 983
9.477 6.218 1.565 3174
9.352 6.137 1.546 1644
9.891 6.490 1.628 990
10.068 6.606 1.655 965
9.481 6.221 1.532 2765
9.356 6.139 1.514 1371
9.901 6.497 1.594 1043
10.164 6.669 1.633 975
9.484 6.223 1.499 1757
9.359 6.141 1.481 1049
10.207 6.697 1.604 1013
9.904 6.499 1.560 962
9.487 6.225 1.466 1097
10.217 6.704 1.569 1018
10.598 6.954 1.623 866
10.602 6.956 1.586 1075
10.128 6.646 1.521 988
9.504 6.236 1.435 937
10.464 6.866 1.567 872
10.618 6.967 1.551 1023
10.112 6.635 1.483 867
10.460 6.864 1.530 792
10.641 6.982 1.516 1248
10.214 6.702 1.461 923
10.217 6.704 1.425 1216
10.651 6.989 1.480 1117
10.688 7.013 1.447 927
10.227 6.710 1.390 850
10.697 7.019 1.411 964
10.700 7.021 1.373 772
10.845 7.116 1.390 755
8.575 5.627 -0.725 807
8.580 5.629 -0.755 1217
8.577 5.628 -0.785 1630
8.575 5.627 -0.815 1801
8.579 5.629 -0.845 1984
8.577 5.628 -0.875 1984
8.568 5.622 -0.904 1829
8.559 5.616 -0.933 1745
8.549 5.610 -0.962 1398
8.540 5.604 -0.991 1072
1.960 1.279 1.777 6915
1.857 1.212 1.690 1152
1.964 1.282 1.771 13831
1.861 1.215 1.683 2305
1.748 1.141 1.587 1060
1.968 1.284 1.764 13831
1.865 1.217 1.677 2305
1.751 1.143 1.581 1022
1.982 1.294 1.766 13788
1.879 1.227 1.680 2175
1.771 1.156 1.589 808
1.992 1.300 1.764 15068
1.889 1.233 1.678 1129
1.785 1.165 1.592 762
2.001 1.306 1.762 12352
1.898 1.239 1.676 936
2.011 1.312 1.760 10074
2.015 1.315 1.753 10074
2.030 1.325 1.755 10406
1.925 1.257 1.670 1221
2.039 1.331 1.752 11263
1.935 1.263 1.668 1083
2.143 1.399 1.837 754
2.043 1.333 1.745 11437
2.153 1.405 1.834 1153
1.938 1.265 1.661 845
2.041 1.332 1.734 11660
2.162 1.411 1.831 1616
2.040 1.331 1.723 8127
2.167 1.414 1.823 2340
2.044 1.334 1.716 4776
2.165 1.413 1.812 3095
2.047 1.336 1.709 3882
2.169 1.416 1.804 3095
2.107 1.375 1.745 3663
2.212 1.444 1.827 1661
2.001 1.306 1.663 994
2.111 1.378 1.738 4189
2.216 1.447 1.820 1457
2.005 1.309 1.656 1126
2.115 1.380 1.731 4558
2.220 1.449 1.812 1906
2.009 1.311 1.649 959
2.118 1.383 1.723 4940
2.224 1.452 1.804 2544
2.150 1.403 1.737 3969
2.257 1.473 1.818 1574
2.044 1.334 1.657 1177
2.165 1.413 1.738 4402
2.272 1.483 1.819 1882
2.169 1.416 1.731 3575
2.276 1.486 1.811 2126
2.139 1.396 1.699 3055
2.258 1.473 1.787 3047
2.211 1.443 1.741 3581
2.104 1.373 1.662 911
2.220 1.449 1.738 4668
2.113 1.379 1.659 1034
2.247 1.467 1.747 5895
2.139 1.396 1.668 1726
2.354 1.537 1.825 881
2.256 1.473 1.743 7861
2.149 1.403 1.665 1379
2.364 1.543 1.821 1242
2.266 1.479 1.740 7496
2.374 1.549 1.817 1443
2.158 1.409 1.662 1231
2.281 1.489 1.740 7692
2.389 1.560 1.817 1320
2.173 1.419 1.663 1120
2.291 1.495 1.736 6695
2.399 1.566 1.813 1586
2.183 1.425 1.659 1011
2.306 1.505 1.737 6132
2.415 1.576 1.813 1387
2.198 1.435 1.660 1013
2.287 1.493 1.713 5546
2.396 1.564 1.789 3641
2.383 1.555 1.769 6370
2.274 1.484 1.693 4351
2.491 1.626 1.845 1019
2.387 1.558 1.761 6665
2.278 1.487 1.685 4041
2.496 1.629 1.836 964
2.391 1.560 1.752 6960
2.282 1.489 1.677 3678
2.500 1.632 1.827 910
2.406 1.570 1.752 7046
2.297 1.499 1.677 3767
2.416 1.577 1.748 9415
2.306 1.505 1.673 2183
2.525 1.648 1.822 771
2.414 1.576 1.736 11224
2.524 1.647 1.810 1089
2.304 1.504 1.662 1080
2.418 1.578 1.727 9536
2.528 1.650 1.801 2158
2.308 1.506 1.654 916
2.422 1.581 1.719 7849
2.532 1.652 1.792 3051
2.312 1.509 1.646 751
2.426 1.583 1.711 5414
2.536 1.655 1.784 2995
2.487 1.624 1.741 5104
2.377 1.552 1.668 775
2.491 1.626 1.732 6290
2.602 1.698 1.804 808
2.513 1.640 1.735 5874
2.558 1.669 1.753 7860
2.447 1.597 1.681 1168
2.556 1.668 1.740 7187
2.445 1.596 1.669 896
2.554 1.667 1.728 6637
2.558 1.669 1.719 5693
2.669 1.742 1.789 764
2.597 1.695 1.732 6072
2.606 1.701 1.727 8133
2.718 1.774 1.796 839
2.610 1.704 1.718 10987
2.722 1.777 1.787 1443
2.620 1.710 1.713 11115
2.732 1.783 1.781 1771
2.630 1.716 1.707 8684
2.742 1.790 1.775 2108
2.645 1.727 1.705 9479
2.758 1.800 1.773 1837
2.533 1.653 1.638 961
2.655 1.733 1.700 9490
2.768 1.807 1.767 1400
2.659 1.736 1.691 7830
2.772 1.809 1.758 1120
2.663 1.738 1.682 7337
2.805 1.831 1.766 1837
2.667 1.740 1.672 6249
2.809 1.834 1.756 3120
2.670 1.743 1.663 5311
2.813 1.836 1.746 4654
2.805 1.831 1.730 6863
2.674 1.745 1.654 3645
2.931 1.913 1.802 1106
2.809 1.834 1.720 7999
2.696 1.759 1.655 2601
2.935 1.916 1.792 2149
2.825 1.844 1.717 8434
2.699 1.762 1.646 2774
2.939 1.918 1.782 2618
2.841 1.854 1.714 8216
2.709 1.768 1.640 2906
2.955 1.929 1.779 2571
2.851 1.861 1.708 7600
2.965 1.935 1.772 3609
2.719 1.774 1.634 2461
2.861 1.867 1.702 7928
2.975 1.942 1.765 4097
2.722 1.777 1.625 1257
2.864 1.870 1.692 9279
2.979 1.944 1.755 4121
2.868 1.872 1.682 10579
2.983 1.947 1.745 3273
2.872 1.874 1.672 10858
2.987 1.949 1.734 2058
2.876 1.877 1.662 7660
2.990 1.952 1.724 1828
2.873 1.875 1.649 5500
3.037 1.982 1.736 2218
3.053 1.992 1.732 4555
2.877 1.878 1.639 4492
3.057 1.995 1.722 7311
2.887 1.884 1.633 2633
3.172 2.070 1.783 1009
3.054 1.994 1.708 7809
2.896 1.890 1.626 1426
3.170 2.069 1.769 1374
3.070 2.004 1.704 6117
3.186 2.079 1.764 1200
2.955 1.929 1.644 884
3.111 2.030 1.712 6977
2.995 1.955 1.653 3043
3.226 2.106 1.772 1186
3.121 2.037 1.705 7873
3.005 1.961 1.646 2557
3.236 2.112 1.764 2407
3.131 2.043 1.697 6889
3.247 2.119 1.756 2612
3.015 1.968 1.639 1857
3.147 2.054 1.692 7100
3.263 2.130 1.751 1996
3.030 1.978 1.634 1788
3.205 2.092 1.709 6588
3.089 2.016 1.651 1438
3.322 2.168 1.767 777
3.234 2.111 1.710 6605
3.117 2.035 1.653 2489
3.231 2.109 1.696 7407
3.115 2.033 1.639 2289
3.229 2.108 1.682 7291
3.112 2.031 1.625 1711
3.227 2.106 1.668 7414
3.344 2.182 1.724 1202
3.110 2.030 1.612 936
3.224 2.105 1.654 5187
3.341 2.181 1.710 3403
3.345 2.183 1.698 5944
3.209 2.095 1.634 2922
3.355 2.190 1.689 6312
3.238 2.113 1.635 2684
3.390 2.212 1.692 4132
3.266 2.132 1.635 2699
3.412 2.227 1.689 4729
3.295 2.150 1.635 1155
3.422 2.234 1.680 5893
3.304 2.157 1.627 1601
3.540 2.310 1.734 946
3.420 2.232 1.666 5028
3.537 2.309 1.719 2110
3.302 2.155 1.612 1033
3.417 2.230 1.651 4003
3.554 2.319 1.712 2979
3.502 2.285 1.675 3809
3.384 2.208 1.623 3229
3.644 2.379 1.739 1216
3.505 2.288 1.663 4137
3.387 2.211 1.611 2923
3.648 2.381 1.726 1553
3.484 2.274 1.640 6530
3.652 2.384 1.714 2023
3.366 2.197 1.589 906
3.500 2.285 1.634 7107
3.631 2.370 1.690 4291
3.750 2.447 1.742 1217
3.635 2.373 1.678 5828
3.516 2.295 1.627 4762
3.753 2.450 1.729 2253
3.664 2.391 1.676 5385
3.545 2.314 1.626 3389
3.782 2.469 1.726 1450
3.686 2.406 1.671 7504
3.567 2.328 1.621 2769
3.824 2.496 1.729 1277
3.684 2.404 1.656 8130
3.540 2.310 1.596 2263
3.803 2.482 1.706 1662
3.694 2.411 1.646 5612
3.813 2.488 1.695 2052
3.543 2.313 1.584 1782
3.710 2.421 1.638 4762
3.829 2.499 1.687 1936
3.726 2.432 1.631 3524
3.908 2.551 1.704 1889
3.742 2.443 1.623 3417
3.906 2.549 1.688 2990
3.846 2.511 1.650 3214
3.727 2.433 1.602 2427
3.966 2.589 1.697 2332
3.850 2.513 1.637 5020
3.982 2.599 1.689 2727
3.730 2.435 1.590 1024
3.860 2.519 1.626 6065
4.005 2.614 1.682 2594
4.125 2.692 1.729 754
3.920 2.559 1.634 5633
4.040 2.637 1.681 2612
3.801 2.481 1.588 811
3.930 2.565 1.623 4582
4.050 2.644 1.669 3310
4.067 2.654 1.660 3468
3.947 2.576 1.615 2408
3.827 2.498 1.569 789
4.014 2.620 1.625 3404
4.134 2.698 1.670 2061
3.862 2.521 1.568 980
4.017 2.622 1.611 4474
4.188 2.734 1.674 1369
4.122 2.691 1.634 3810
4.002 2.612 1.590 2651
4.243 2.769 1.678 1148
4.132 2.697 1.622 5831
4.253 2.776 1.666 1914
4.012 2.618 1.578 1314
4.136 2.699 1.608 4724
4.263 2.782 1.654 2929
4.015 2.621 1.565 948
4.279 2.793 1.643 4261
4.139 2.702 1.594 3513
4.283 2.795 1.629 4521
4.143 2.704 1.579 2347
4.448 2.903 1.687 909
4.299 2.806 1.618 4354
4.153 2.710 1.567 2027
4.465 2.914 1.676 990
4.315 2.817 1.608 5836
4.156 2.713 1.553 1660
4.487 2.929 1.667 1355
4.325 2.823 1.595 5369
4.517 2.948 1.660 1643
4.172 2.723 1.543 977
4.527 2.955 1.647 2574
4.335 2.830 1.582 2380
4.176 2.726 1.529 842
4.518 2.949 1.627 4097
4.396 2.869 1.587 1422
4.256 2.778 1.540 1031
4.639 3.028 1.667 945
4.528 2.955 1.613 3188
4.687 3.059 1.666 2104
4.355 2.843 1.557 1074
4.698 3.066 1.652 3981
4.576 2.987 1.612 3040
4.454 2.907 1.573 1084
4.695 3.064 1.634 4637
4.573 2.985 1.594 1802
4.816 3.144 1.673 885
4.452 2.906 1.555 774
4.686 3.058 1.613 5730
4.807 3.138 1.652 2546
4.493 2.933 1.552 1045
4.779 3.119 1.625 6973
4.657 3.040 1.587 3150
4.978 3.249 1.688 1195
4.783 3.122 1.609 9581
4.956 3.235 1.663 1621
4.661 3.042 1.571 1101
4.780 3.120 1.590 11483
4.992 3.258 1.655 2186
4.658 3.040 1.553 1705
5.114 3.338 1.693 848
4.783 3.122 1.574 11341
4.976 3.248 1.632 2807
5.098 3.328 1.669 2180
4.661 3.042 1.537 1617
4.793 3.129 1.559 8969
5.050 3.296 1.636 4226
5.192 3.389 1.679 1285
4.928 3.217 1.600 1270
4.797 3.131 1.543 5497
5.054 3.299 1.619 4438
4.674 3.051 1.507 1291
5.189 3.387 1.659 1265
5.096 3.326 1.613 4680
4.806 3.137 1.528 2577
4.684 3.057 1.492 1450
5.219 3.406 1.648 1158
5.100 3.329 1.595 6219
5.222 3.409 1.630 2253
4.810 3.139 1.511 1521
4.687 3.059 1.476 1102
5.110 3.335 1.579 4238
5.265 3.436 1.623 2916
4.736 3.091 1.473 1150
5.387 3.516 1.658 959
5.275 3.443 1.607 3053
5.139 3.354 1.569 2328
5.397 3.523 1.641 1591
4.733 3.089 1.455 1117
5.401 3.525 1.623 3081
5.265 3.437 1.585 2942
5.136 3.352 1.549 1979
5.405 3.528 1.604 4254
5.269 3.439 1.567 2025
5.644 3.684 1.669 1399
5.133 3.350 1.530 936
5.415 3.534 1.587 4793
5.654 3.690 1.651 2248
5.279 3.445 1.550 1208
5.425 3.541 1.570 4653
5.658 3.693 1.632 2543
5.276 3.443 1.530 1230
5.428 3.543 1.551 2857
5.655 3.691 1.611 2620
5.671 3.702 1.594 3085
5.496 3.587 1.549 2090
5.976 3.900 1.673 900
5.668 3.700 1.573 3622
5.493 3.585 1.528 2167
5.973 3.899 1.651 1325
5.678 3.706 1.555 3121
5.983 3.905 1.632 1650
5.464 3.566 1.501 1396
5.993 3.912 1.613 2546
5.695 3.717 1.539 2327
5.997 3.914 1.592 3352
5.744 3.749 1.530 2031
6.322 4.126 1.671 1312
5.994 3.912 1.570 3873
6.332 4.133 1.651 1847
5.747 3.751 1.510 1506
6.017 3.927 1.554 4821
6.342 4.139 1.631 2254
5.750 3.753 1.490 836
6.027 3.934 1.534 6459
6.352 4.146 1.610 2319
6.710 4.380 1.694 1258
6.573 4.290 1.662 848
6.030 3.936 1.513 4353
6.714 4.382 1.670 2415
6.343 4.140 1.585 2187
6.570 4.289 1.637 1205
6.717 4.384 1.647 2582
6.366 4.155 1.568 1713
6.033 3.938 1.493 1426
6.496 4.240 1.597 1373
6.728 4.391 1.625 2361
6.402 4.178 1.553 1386
6.121 3.996 1.490 1135
6.604 4.310 1.598 1088
6.731 4.393 1.602 3532
6.907 4.508 1.641 1494
6.607 4.313 1.575 1257
6.392 4.172 1.528 1235
6.735 4.396 1.579 5638
6.911 4.511 1.617 3406
7.113 4.643 1.660 1891
6.611 4.315 1.552 1614
6.745 4.402 1.557 6423
6.921 4.517 1.594 4878
7.104 4.637 1.633 2839
7.306 4.769 1.676 2004
6.748 4.405 1.533 5622
6.925 4.520 1.570 4428
7.114 4.643 1.609 3934
7.310 4.771 1.650 1960
6.752 4.407 1.510 3931
7.118 4.646 1.585 3884
6.928 4.522 1.546 3869
7.464 4.872 1.656 1166
6.748 4.405 1.485 2802
6.931 4.524 1.522 2663
7.134 4.656 1.563 2034
7.481 4.883 1.632 1258
6.758 4.411 1.463 2224
7.138 4.659 1.538 1874
7.563 4.936 1.622 1760
7.314 4.774 1.573 1437
7.134 4.657 1.512 2635
7.854 5.126 1.652 1974
7.573 4.943 1.597 1873
7.311 4.772 1.546 1618
7.858 5.129 1.624 4175
7.131 4.655 1.486 2144
7.308 4.770 1.520 1357
7.583 4.949 1.572 1243
7.868 5.135 1.598 6051
8.399 5.482 1.697 1458
7.311 4.772 1.494 1131
7.134 4.657 1.461 978
7.865 5.134 1.570 5671
8.009 5.228 1.596 1105
8.396 5.480 1.667 985
7.328 4.783 1.471 838
7.869 5.136 1.543 3353
8.924 5.825 1.732 1121
8.006 5.226 1.567 1066
7.878 5.142 1.516 2436
8.928 5.827 1.701 1335
8.521 5.562 1.629 991
8.803 5.746 1.679 775
7.875 5.140 1.488 2595
9.306 6.074 1.734 1403
8.426 5.500 1.583 1282
8.551 5.581 1.604 1188
7.872 5.138 1.460 2418
9.336 6.093 1.707 1954
8.843 5.772 1.623 1308
8.430 5.502 1.554 1226
9.366 6.113 1.678 1952
7.875 5.140 1.432 1858
8.847 5.774 1.593 929
8.722 5.693 1.572 823
9.376 6.120 1.647 1893
7.878 5.142 1.405 1386
8.890 5.803 1.568 1075
9.205 6.008 1.619 1050
9.314 6.079 1.604 1860
9.472 6.182 1.629 1331
9.695 6.328 1.664 1195
10.090 6.585 1.727 1066
9.489 6.193 1.598 1883
9.311 6.077 1.571 1511
9.699 6.331 1.631 1277
10.093 6.588 1.692 1173
9.499 6.200 1.566 2317
9.374 6.118 1.547 1457
9.709 6.337 1.598 1095
10.110 6.599 1.659 887
9.502 6.202 1.533 2000
9.377 6.120 1.515 1279
9.713 6.339 1.564 1003
10.213 6.666 1.638 949
9.505 6.204 1.500 1166
10.216 6.668 1.603 1056
9.380 6.123 1.482 1033
9.716 6.342 1.531 1007
10.615 6.928 1.623 1213
9.423 6.151 1.455 910
9.713 6.340 1.496 876
10.226 6.675 1.568 875
10.612 6.926 1.585 1347
9.519 6.213 1.435 818
10.642 6.946 1.551 1274
10.652 6.952 1.515 1641
10.668 6.963 1.480 1322
10.240 6.683 1.426 792
10.704 6.987 1.447 1058
10.909 7.120 1.472 760
10.714 6.993 1.411 1055
10.717 6.995 1.373 874
8.593 5.609 -0.755 757
8.591 5.607 -0.785 1024
8.589 5.606 -0.815 1168
8.593 5.609 -0.845 1321
8.590 5.607 -0.875 1321
8.581 5.601 -0.904 1229
8.565 5.591 -0.932 1250
8.556 5.585 -0.961 983
8.540 5.574 -0.989 778
1.963 1.274 1.777 7140
1.860 1.208 1.690 1216
1.967 1.277 1.771 14280
1.864 1.210 1.683 2433
1.751 1.136 1.587 933
1.971 1.279 1.764 14280
1.868 1.213 1.677 2433
1.754 1.139 1.581 895
1.986 1.289 1.766 14051
1.883 1.222 1.680 2241
1.995 1.295 1.764 15060
1.892 1.228 1.678 1141
2.005 1.301 1.762 12153
1.901 1.234 1.676 905
2.019 1.311 1.764 9842
1.916 1.244 1.678 1035
2.023 1.313 1.757 9842
1.919 1.246 1.672 1034
2.033 1.320 1.755 10173
1.929 1.252 1.670 1274
2.048 1.329 1.757 11429
1.943 1.262 1.672 1240
2.152 1.397 1.841 778
2.052 1.332 1.750 11212
2.156 1.400 1.834 1193
1.947 1.264 1.666 1137
2.056 1.334 1.743 10994
2.166 1.406 1.831 1620
1.951 1.266 1.659 1034
2.049 1.330 1.727 7445
2.159 1.402 1.815 2375
2.041 1.325 1.711 4464
2.147 1.393 1.794 3368
2.045 1.328 1.704 3749
2.151 1.396 1.787 3368
2.121 1.377 1.754 4142
2.016 1.308 1.671 1693
2.227 1.446 1.836 1062
2.125 1.380 1.746 4958
2.019 1.311 1.665 1867
2.231 1.448 1.828 919
2.124 1.379 1.735 4955
2.230 1.447 1.816 1678
2.018 1.310 1.653 1373
2.122 1.377 1.723 5019
2.228 1.446 1.804 2659
2.016 1.308 1.642 879
2.131 1.384 1.720 4005
2.238 1.453 1.801 2201
2.169 1.408 1.738 4510
2.276 1.477 1.819 1939
2.173 1.410 1.731 3899
2.280 1.480 1.811 2306
2.267 1.472 1.791 3435
2.143 1.391 1.699 3234
2.271 1.474 1.783 3898
2.147 1.394 1.691 2945
2.224 1.444 1.738 4466
2.117 1.374 1.659 1351
2.331 1.513 1.817 992
2.256 1.465 1.751 6419
2.149 1.395 1.672 1973
2.260 1.467 1.743 8511
2.152 1.397 1.665 1285
2.368 1.537 1.821 941
2.270 1.473 1.740 8397
2.378 1.544 1.817 1140
2.162 1.403 1.662 1071
2.285 1.483 1.740 9045
2.393 1.554 1.817 1110
2.177 1.413 1.663 809
2.300 1.493 1.740 7775
2.409 1.564 1.817 1064
2.192 1.423 1.663 792
2.310 1.500 1.737 7081
2.419 1.570 1.813 1125
2.308 1.498 1.725 5384
2.417 1.569 1.801 1828
2.381 1.546 1.765 5028
2.272 1.475 1.689 2396
2.490 1.616 1.841 1251
2.391 1.552 1.761 5343
2.281 1.481 1.685 3024
2.500 1.623 1.836 1044
2.400 1.558 1.756 5821
2.291 1.487 1.681 3567
2.510 1.629 1.831 858
2.410 1.564 1.752 6479
2.301 1.493 1.677 3246
2.519 1.636 1.827 824
2.414 1.567 1.744 8358
2.304 1.496 1.669 1717
2.524 1.638 1.818 923
2.418 1.570 1.736 9477
2.528 1.641 1.810 989
2.308 1.498 1.662 986
2.422 1.572 1.727 8062
2.532 1.644 1.801 1825
2.426 1.575 1.719 6647
2.536 1.646 1.792 2596
2.429 1.577 1.711 5126
2.540 1.649 1.784 2419
2.492 1.617 1.741 4332
2.381 1.546 1.668 1035
2.495 1.620 1.732 5717
2.385 1.548 1.660 899
2.511 1.630 1.731 5756
2.562 1.663 1.753 7964
2.451 1.591 1.681 1075
2.571 1.669 1.747 7058
2.460 1.597 1.677 1407
2.575 1.672 1.739 6215
2.464 1.599 1.668 1386
2.579 1.674 1.730 4968
2.468 1.602 1.660 1123
2.607 1.692 1.736 5772
2.495 1.620 1.666 894
2.611 1.695 1.727 7925
2.723 1.767 1.796 927
2.615 1.697 1.718 10760
2.727 1.770 1.787 1772
2.630 1.707 1.716 10988
2.742 1.780 1.785 1878
2.640 1.714 1.711 8599
2.752 1.787 1.779 2211
2.527 1.641 1.643 989
2.650 1.720 1.705 9429
2.762 1.793 1.773 2133
2.537 1.647 1.638 1010
2.659 1.726 1.700 9694
2.784 1.807 1.774 1800
2.663 1.729 1.691 8388
2.788 1.810 1.765 1687
2.667 1.731 1.682 7363
2.804 1.820 1.762 2304
2.671 1.734 1.672 5576
2.808 1.823 1.753 3266
2.812 1.825 1.743 4620
2.675 1.736 1.663 4535
2.810 1.824 1.730 6883
2.678 1.739 1.654 3234
2.935 1.906 1.802 1148
2.808 1.823 1.717 8559
2.939 1.908 1.792 2116
2.694 1.749 1.652 2112
2.818 1.829 1.711 9098
2.944 1.911 1.782 2542
2.698 1.751 1.643 2192
2.833 1.839 1.708 6513
2.948 1.913 1.772 3053
2.707 1.757 1.637 2262
2.952 1.916 1.762 5326
2.837 1.842 1.698 3692
2.717 1.764 1.631 1944
2.949 1.915 1.748 7111
2.835 1.840 1.685 3366
2.721 1.766 1.622 982
2.869 1.862 1.692 7388
2.984 1.937 1.755 4510
2.873 1.865 1.682 9097
2.987 1.939 1.745 3015
2.877 1.867 1.672 9986
2.991 1.942 1.734 2252
2.874 1.866 1.659 7528
2.989 1.940 1.721 2740
2.878 1.868 1.649 5911
3.017 1.959 1.724 3327
3.058 1.985 1.732 5797
2.882 1.871 1.639 4519
3.173 2.060 1.794 788
3.062 1.987 1.722 8455
2.891 1.877 1.633 2278
3.177 2.062 1.783 1218
3.059 1.986 1.708 8840
3.175 2.061 1.769 1628
2.895 1.879 1.623 1238
3.069 1.992 1.701 6901
3.185 2.068 1.761 1517
2.886 1.874 1.607 759
3.116 2.023 1.712 6559
3.000 1.947 1.653 3355
3.232 2.098 1.772 1157
3.126 2.029 1.705 6690
3.010 1.954 1.646 3140
3.242 2.104 1.764 2358
3.136 2.036 1.697 6235
3.019 1.960 1.639 2890
3.252 2.111 1.756 2732
3.158 2.050 1.696 7282
3.041 1.974 1.637 2633
3.274 2.125 1.754 2334
3.205 2.080 1.706 7053
3.039 1.973 1.624 1615
3.321 2.156 1.764 956
3.214 2.087 1.698 6560
3.098 2.011 1.641 1592
3.331 2.162 1.755 1028
3.212 2.085 1.684 7259
3.095 2.009 1.627 1221
3.329 2.161 1.741 1004
3.228 2.096 1.679 7722
3.111 2.020 1.622 1433
3.238 2.102 1.671 8276
3.355 2.178 1.727 1286
3.121 2.026 1.615 1038
3.230 2.096 1.654 5524
3.347 2.173 1.710 3683
3.338 2.167 1.692 7976
3.221 2.091 1.637 2883
3.354 2.177 1.687 8615
3.237 2.101 1.632 2152
3.370 2.188 1.681 5079
3.253 2.112 1.626 2241
3.418 2.219 1.689 4377
3.300 2.142 1.635 1288
3.428 2.225 1.680 5801
3.310 2.149 1.627 1445
3.545 2.302 1.734 857
3.425 2.223 1.666 5421
3.543 2.300 1.719 2571
3.307 2.147 1.612 855
3.410 2.214 1.646 4621
3.559 2.311 1.712 4244
3.563 2.313 1.700 4653
3.408 2.212 1.631 3509
3.681 2.390 1.753 1075
3.548 2.303 1.680 4126
3.399 2.206 1.614 2822
3.667 2.380 1.732 1678
3.490 2.265 1.640 5126
3.658 2.375 1.714 2354
3.500 2.272 1.631 5395
3.643 2.365 1.693 4447
3.762 2.442 1.744 1076
3.653 2.372 1.683 5943
3.535 2.294 1.632 4284
3.772 2.449 1.734 1688
3.416 2.217 1.582 757
3.670 2.382 1.676 5704
3.551 2.305 1.626 3681
3.788 2.459 1.726 1616
3.692 2.397 1.671 7783
3.573 2.320 1.621 3576
3.811 2.474 1.721 894
3.696 2.399 1.659 7881
3.577 2.322 1.609 2565
3.815 2.476 1.708 895
3.712 2.410 1.651 4996
3.831 2.487 1.700 1873
3.593 2.332 1.602 1796
3.722 2.416 1.641 3960
3.841 2.494 1.690 2401
3.603 2.339 1.592 991
3.738 2.427 1.633 3599
3.858 2.504 1.681 2076
3.748 2.433 1.623 3711
3.912 2.539 1.688 2874
3.953 2.566 1.690 3069
3.752 2.436 1.610 3061
3.856 2.503 1.637 3481
3.982 2.585 1.686 3032
3.737 2.426 1.590 1100
3.860 2.506 1.623 4131
4.012 2.604 1.682 3324
4.131 2.682 1.729 761
3.933 2.553 1.637 5874
4.053 2.631 1.683 2115
3.813 2.475 1.591 979
3.943 2.560 1.626 5406
4.063 2.638 1.672 3377
3.823 2.482 1.580 793
4.105 2.665 1.672 4364
3.953 2.566 1.615 2831
3.833 2.488 1.569 911
4.102 2.663 1.655 4174
3.982 2.585 1.610 1799
4.223 2.741 1.700 1067
3.862 2.507 1.565 927
4.024 2.612 1.611 4072
4.195 2.723 1.674 1358
4.122 2.676 1.632 4913
4.002 2.598 1.588 2087
4.243 2.754 1.676 1275
4.139 2.687 1.622 6118
4.260 2.765 1.666 2224
4.018 2.608 1.578 951
4.142 2.689 1.608 4291
4.270 2.772 1.654 3604
4.286 2.782 1.643 4767
4.152 2.696 1.596 2901
4.407 2.861 1.686 814
4.296 2.789 1.631 4540
4.150 2.694 1.579 1705
4.417 2.867 1.673 1029
4.312 2.799 1.621 4401
4.159 2.700 1.567 1207
4.434 2.878 1.663 1102
4.322 2.806 1.608 5639
4.444 2.885 1.650 1299
4.163 2.702 1.553 804
4.339 2.817 1.597 4744
4.530 2.941 1.662 1760
4.547 2.952 1.651 3096
4.342 2.819 1.582 2177
4.531 2.942 1.629 4737
4.410 2.863 1.589 1899
4.678 3.037 1.678 1196
4.548 2.952 1.618 3504
4.689 3.044 1.664 1958
4.426 2.873 1.578 1209
4.583 2.975 1.612 3803
4.705 3.054 1.652 3560
4.690 3.044 1.629 5907
4.568 2.965 1.590 2134
4.811 3.123 1.669 1139
4.674 3.034 1.607 8977
4.796 3.113 1.646 2795
4.552 2.955 1.569 930
4.690 3.045 1.595 5523
4.812 3.124 1.633 3186
4.568 2.966 1.557 1155
4.979 3.232 1.686 784
4.790 3.110 1.609 6406
4.668 3.030 1.571 1794
4.996 3.243 1.673 996
4.787 3.108 1.590 8337
4.665 3.028 1.553 2860
5.000 3.246 1.655 1719
5.141 3.337 1.699 1109
4.791 3.110 1.574 8519
4.669 3.031 1.537 2512
5.055 3.281 1.654 2494
4.933 3.202 1.617 988
4.801 3.117 1.559 6805
5.059 3.284 1.636 4386
5.194 3.372 1.677 1251
4.679 3.037 1.523 1186
5.069 3.290 1.621 4608
4.804 3.119 1.543 4109
4.682 3.039 1.507 1961
5.198 3.374 1.659 1600
5.085 3.301 1.607 4014
4.711 3.058 1.498 3417
5.208 3.381 1.643 1498
4.834 3.138 1.534 1487
5.102 3.312 1.593 4451
5.257 3.412 1.638 2419
4.714 3.060 1.482 2010
4.837 3.140 1.517 1011
5.273 3.423 1.623 3308
5.112 3.318 1.577 2669
4.756 3.088 1.476 1243
5.402 3.507 1.660 753
5.277 3.425 1.605 2952
5.154 3.346 1.571 1807
5.413 3.514 1.643 1221
4.747 3.081 1.456 1139
5.410 3.512 1.623 3213
5.280 3.428 1.587 2635
5.157 3.348 1.553 1563
5.413 3.514 1.604 4996
5.284 3.430 1.569 2010
5.653 3.670 1.669 1234
5.423 3.521 1.587 5345
5.663 3.676 1.651 2134
5.287 3.432 1.550 1364
5.427 3.523 1.568 4437
5.673 3.683 1.634 2341
5.284 3.430 1.530 1939
5.550 3.603 1.601 1333
5.430 3.525 1.549 2460
5.690 3.694 1.617 2290
5.294 3.437 1.514 1408
5.554 3.605 1.582 1159
5.693 3.696 1.598 3147
5.512 3.578 1.551 1601
5.985 3.885 1.673 843
5.684 3.690 1.575 4105
5.515 3.580 1.532 1602
6.002 3.896 1.656 1170
5.687 3.692 1.555 3151
5.999 3.894 1.633 1380
5.467 3.549 1.500 970
5.723 3.715 1.544 2255
6.003 3.897 1.613 2212
5.753 3.734 1.530 3220
6.007 3.899 1.592 2835
6.332 4.110 1.671 770
5.997 3.893 1.568 3027
5.756 3.737 1.510 2305
6.349 4.121 1.653 1107
6.127 3.978 1.599 820
6.033 3.916 1.555 4116
6.365 4.132 1.634 1361
5.753 3.735 1.489 1298
6.157 3.997 1.584 1057
6.043 3.923 1.536 6022
6.402 4.156 1.619 1577
5.763 3.741 1.470 1194
6.721 4.363 1.694 1187
6.040 3.921 1.513 4332
6.725 4.365 1.670 2406
6.575 4.268 1.636 1525
6.405 4.158 1.597 1420
6.728 4.368 1.647 2697
6.487 4.211 1.593 1729
6.056 3.931 1.495 1658
6.363 4.131 1.565 876
6.739 4.374 1.625 2502
6.615 4.294 1.598 1699
6.412 4.162 1.553 1317
6.053 3.929 1.473 875
6.742 4.377 1.602 3433
6.618 4.296 1.575 2262
7.121 4.623 1.685 1462
6.409 4.160 1.529 1030
6.746 4.379 1.579 5345
7.118 4.621 1.659 2563
6.622 4.298 1.552 2231
6.922 4.494 1.617 2085
6.756 4.386 1.557 6195
7.122 4.623 1.634 3241
6.926 4.496 1.593 2776
6.625 4.301 1.529 1789
6.759 4.388 1.533 5343
7.126 4.626 1.609 4758
6.936 4.502 1.570 2498
7.322 4.753 1.650 1688
7.129 4.628 1.585 5201
6.763 4.390 1.510 3503
6.939 4.505 1.546 2254
7.483 4.857 1.657 1141
7.139 4.634 1.561 3242
6.759 4.388 1.485 2397
6.943 4.507 1.522 1464
7.493 4.864 1.632 1140
7.149 4.641 1.538 2816
7.392 4.798 1.586 1985
6.769 4.394 1.463 1956
7.582 4.922 1.623 1511
7.146 4.639 1.512 3658
7.395 4.801 1.560 2421
7.585 4.924 1.597 1710
7.867 5.107 1.652 1573
7.149 4.641 1.487 2880
7.871 5.109 1.624 2857
7.392 4.799 1.533 1701
7.602 4.935 1.573 1223
7.881 5.116 1.598 3963
8.412 5.461 1.697 1284
7.146 4.639 1.461 1265
7.330 4.758 1.496 1126
7.878 5.114 1.570 3719
8.409 5.459 1.667 882
7.681 4.986 1.534 821
8.003 5.195 1.593 788
7.888 5.120 1.544 2385
8.952 5.811 1.734 1167
8.512 5.525 1.655 953
7.898 5.127 1.518 1469
8.522 5.532 1.627 1429
8.962 5.818 1.704 1390
9.310 6.044 1.766 887
9.321 6.051 1.734 1571
8.539 5.543 1.600 1495
8.979 5.829 1.676 1166
7.888 5.121 1.488 1116
9.351 6.070 1.707 2113
8.444 5.481 1.554 1335
8.858 5.750 1.623 1201
8.983 5.831 1.644 1106
9.374 6.085 1.677 1826
8.980 5.829 1.612 1026
7.888 5.120 1.432 886
8.855 5.748 1.592 872
9.378 6.088 1.645 1652
9.701 6.297 1.697 1056
9.201 5.973 1.616 1019
8.891 5.772 1.566 992
9.329 6.056 1.604 2072
9.704 6.300 1.663 1528
9.560 6.206 1.640 1118
9.191 5.966 1.582 1055
9.326 6.054 1.571 1633
9.715 6.306 1.631 1558
9.517 6.178 1.600 1382
10.130 6.576 1.695 1109
9.527 6.185 1.568 1742
9.718 6.309 1.597 1332
9.343 6.065 1.540 1108
10.153 6.591 1.663 1024
9.531 6.187 1.535 1491
9.728 6.315 1.564 1195
10.598 6.880 1.692 1088
9.399 6.101 1.516 967
10.602 6.882 1.656 1216
9.732 6.317 1.531 1202
9.547 6.198 1.504 912
10.226 6.638 1.602 867
10.632 6.902 1.623 1531
9.722 6.311 1.495 1074
9.438 6.127 1.455 809
10.138 6.581 1.553 805
10.629 6.900 1.585 1434
9.725 6.313 1.461 784
10.659 6.919 1.551 1398
10.669 6.926 1.515 1895
10.672 6.928 1.478 1444
10.930 7.095 1.511 947
10.722 6.960 1.447 1041
10.927 7.093 1.472 965
10.732 6.966 1.411 1028
10.930 7.095 1.434 800
10.735 6.968 1.373 872
8.600 5.583 -0.845 755
8.598 5.581 -0.874 755
1.966 1.269 1.777 7124
1.863 1.203 1.690 1246
1.970 1.272 1.771 14248
1.867 1.206 1.683 2493
1.753 1.132 1.587 785
1.974 1.275 1.764 14248
1.871 1.208 1.677 2493
1.757 1.134 1.581 755
1.989 1.284 1.766 13903
1.885 1.217 1.680 2259
1.998 1.290 1.764 14670
1.878 1.213 1.664 1167
2.008 1.296 1.762 11625
1.904 1.229 1.676 829
2.023 1.306 1.764 9326
1.919 1.239 1.678 864
2.027 1.309 1.757 9326
1.922 1.241 1.672 858
2.042 1.318 1.759 9828
1.937 1.251 1.674 1261
2.056 1.328 1.761 11494
1.952 1.260 1.677 1183
2.060 1.330 1.754 10945
1.956 1.263 1.670 1155
2.165 1.398 1.838 1083
2.064 1.333 1.747 10396
2.169 1.401 1.831 1473
1.959 1.265 1.663 1127
2.063 1.332 1.736 6973
2.168 1.400 1.819 2201
2.039 1.317 1.707 4291
2.144 1.385 1.790 3581
2.043 1.319 1.700 3761
2.148 1.387 1.783 3581
2.125 1.372 1.754 4468
2.019 1.304 1.671 1926
2.230 1.440 1.836 988
2.129 1.374 1.746 5484
2.023 1.306 1.665 2077
2.235 1.443 1.828 898
2.127 1.373 1.735 5105
2.233 1.442 1.816 1640
2.021 1.305 1.653 1502
2.125 1.372 1.723 4763
2.232 1.441 1.804 2605
2.019 1.304 1.642 998
2.135 1.378 1.720 4032
2.241 1.447 1.801 2087
2.172 1.403 1.738 4202
2.279 1.472 1.819 1832
2.176 1.405 1.731 3832
2.283 1.474 1.811 2330
2.141 1.382 1.694 3565
2.270 1.466 1.791 3560
2.274 1.469 1.783 4271
2.150 1.388 1.691 3272
2.278 1.471 1.775 4983
2.154 1.391 1.684 3026
2.265 1.463 1.755 6455
2.158 1.393 1.677 2198
2.264 1.462 1.743 8411
2.156 1.392 1.665 1293
2.273 1.468 1.740 8620
2.165 1.398 1.662 1096
2.381 1.538 1.817 822
2.294 1.482 1.744 9785
2.186 1.412 1.667 1025
2.403 1.551 1.822 760
2.304 1.488 1.740 8411
2.413 1.558 1.817 868
2.314 1.494 1.737 7558
2.422 1.564 1.813 926
2.318 1.496 1.729 5355
2.449 1.582 1.821 1404
2.385 1.540 1.765 3714
2.275 1.469 1.689 1562
2.494 1.610 1.841 1216
2.394 1.546 1.761 4036
2.285 1.475 1.685 2444
2.504 1.617 1.836 1072
2.410 1.556 1.760 4766
2.300 1.485 1.685 3386
2.519 1.627 1.835 807
2.414 1.559 1.752 5616
2.304 1.488 1.677 3010
2.523 1.629 1.827 840
2.418 1.561 1.744 7000
2.308 1.490 1.669 1893
2.528 1.632 1.818 873
2.422 1.564 1.736 7535
2.312 1.493 1.662 1112
2.532 1.635 1.810 848
2.426 1.566 1.727 6709
2.536 1.637 1.801 1406
2.429 1.569 1.719 5883
2.540 1.640 1.792 1989
2.433 1.571 1.711 4871
2.544 1.643 1.784 1982
2.507 1.619 1.748 4146
2.396 1.547 1.676 1674
2.511 1.621 1.740 5364
2.400 1.550 1.668 1334
2.556 1.650 1.757 6087
2.445 1.579 1.686 1299
2.572 1.661 1.756 8029
2.460 1.589 1.685 1510
2.581 1.667 1.751 7221
2.470 1.595 1.680 1717
2.585 1.669 1.742 6640
2.474 1.597 1.672 1496
2.589 1.672 1.734 5451
2.477 1.600 1.663 1238
2.605 1.682 1.732 5818
2.493 1.610 1.662 917
2.609 1.685 1.723 7545
2.721 1.757 1.793 914
2.625 1.695 1.722 10054
2.737 1.767 1.790 1729
2.512 1.622 1.653 993
2.640 1.705 1.720 10546
2.753 1.777 1.788 1771
2.528 1.632 1.651 1253
2.668 1.723 1.725 8537
2.555 1.650 1.657 2438
2.780 1.795 1.793 1478
2.660 1.717 1.709 9346
2.773 1.790 1.777 2282
2.547 1.645 1.641 1255
2.670 1.724 1.703 9928
2.789 1.801 1.774 2207
2.667 1.722 1.691 8937
2.798 1.807 1.768 2665
2.671 1.725 1.682 7387
2.808 1.813 1.762 3399
2.669 1.723 1.669 4897
2.812 1.816 1.753 3793
2.816 1.819 1.743 4653
2.673 1.726 1.660 3773
2.808 1.813 1.726 6228
2.683 1.732 1.654 2667
2.940 1.898 1.802 1051
2.812 1.816 1.717 8710
2.698 1.742 1.652 1964
2.938 1.897 1.789 1750
2.816 1.818 1.707 10076
2.930 1.892 1.772 2178
2.702 1.745 1.643 2023
2.826 1.825 1.701 8550
2.952 1.906 1.772 2822
2.706 1.747 1.633 2036
2.842 1.835 1.698 7460
2.956 1.909 1.762 5268
2.715 1.753 1.627 1577
2.954 1.908 1.748 6954
2.840 1.834 1.685 5434
2.958 1.910 1.738 6206
2.843 1.836 1.675 3754
2.883 1.862 1.685 7350
2.998 1.936 1.748 2351
2.881 1.860 1.672 8201
2.996 1.935 1.734 2544
2.879 1.859 1.659 6854
2.994 1.933 1.721 3557
2.889 1.865 1.652 5946
3.016 1.948 1.720 4603
3.056 1.974 1.729 6747
2.892 1.868 1.643 4526
3.172 2.048 1.790 856
3.066 1.980 1.722 9041
2.896 1.870 1.633 2109
3.182 2.055 1.783 1299
3.064 1.979 1.708 9310
3.180 2.053 1.769 1742
2.900 1.872 1.623 1016
3.074 1.985 1.701 7469
3.190 2.060 1.761 1666
2.958 1.910 1.641 754
3.121 2.015 1.712 6122
3.005 1.940 1.653 3453
3.237 2.090 1.772 1006
3.131 2.021 1.705 5517
3.014 1.946 1.646 3545
3.247 2.097 1.764 2068
3.134 2.024 1.694 5441
3.018 1.949 1.635 3202
3.251 2.099 1.753 3012
3.163 2.042 1.696 6881
3.046 1.967 1.637 3192
3.279 2.117 1.754 2841
3.203 2.069 1.703 6829
3.044 1.965 1.624 1796
3.320 2.144 1.761 1218
3.207 2.071 1.692 6652
3.324 2.146 1.749 1447
3.054 1.972 1.616 1223
3.211 2.073 1.681 7672
3.328 2.149 1.738 1315
3.094 1.998 1.624 929
3.239 2.092 1.682 7414
3.122 2.016 1.625 1331
3.256 2.102 1.677 8362
3.373 2.178 1.733 1163
3.138 2.026 1.621 968
3.315 2.141 1.692 6437
3.198 2.065 1.636 3449
3.337 2.155 1.689 9907
3.220 2.079 1.634 2704
3.360 2.169 1.687 10545
3.242 2.093 1.632 1819
3.370 2.176 1.678 6338
3.252 2.100 1.623 1762
3.423 2.210 1.689 3812
3.305 2.134 1.635 1804
3.433 2.217 1.680 5211
3.315 2.141 1.627 1681
3.551 2.293 1.734 1008
3.418 2.207 1.660 5271
3.549 2.291 1.719 3207
3.565 2.302 1.712 5517
3.409 2.201 1.643 5088
3.569 2.304 1.700 6127
3.407 2.200 1.628 3744
3.687 2.381 1.753 1029
3.560 2.299 1.682 5198
3.410 2.202 1.617 2778
3.679 2.375 1.735 1535
3.564 2.301 1.670 3932
3.445 2.225 1.619 2348
3.683 2.378 1.722 2135
3.655 2.360 1.696 4407
3.493 2.255 1.626 3819
3.659 2.363 1.683 5733
3.540 2.286 1.632 3590
3.778 2.440 1.734 1537
3.421 2.209 1.582 773
3.675 2.373 1.676 5347
3.556 2.296 1.626 4583
3.794 2.450 1.726 1618
3.698 2.388 1.671 7177
3.579 2.311 1.621 4898
3.817 2.465 1.721 1107
3.708 2.394 1.661 7100
3.589 2.317 1.612 4020
3.827 2.471 1.711 899
3.724 2.405 1.654 4160
3.599 2.324 1.602 2719
3.844 2.482 1.703 1635
3.785 2.444 1.664 4376
3.608 2.330 1.592 1813
3.904 2.521 1.713 953
3.782 2.442 1.648 4444
3.902 2.519 1.697 1530
3.612 2.332 1.580 1004
3.748 2.420 1.620 3694
3.924 2.534 1.691 3011
3.953 2.553 1.687 3695
3.764 2.431 1.612 3293
3.963 2.559 1.676 3414
3.843 2.482 1.629 2462
4.096 2.645 1.728 768
3.942 2.545 1.653 4219
3.822 2.468 1.606 1478
4.113 2.656 1.719 1034
3.946 2.548 1.639 6143
4.066 2.625 1.686 1574
3.825 2.470 1.593 1278
3.949 2.550 1.626 5802
4.120 2.661 1.691 3216
3.829 2.472 1.580 850
4.111 2.655 1.672 4546
3.991 2.577 1.627 3078
3.864 2.495 1.579 1196
4.109 2.653 1.655 4628
3.988 2.575 1.610 1865
4.229 2.731 1.700 1147
3.868 2.497 1.565 863
4.113 2.656 1.641 4438
3.992 2.578 1.597 2061
4.233 2.733 1.686 991
4.129 2.666 1.632 5210
4.008 2.588 1.588 1894
4.313 2.785 1.699 1384
4.139 2.673 1.620 5710
4.317 2.788 1.684 2629
4.276 2.761 1.654 3542
4.155 2.683 1.610 3427
4.299 2.776 1.646 4867
4.165 2.690 1.598 2261
4.420 2.854 1.689 759
4.316 2.787 1.635 5203
4.156 2.684 1.579 1155
4.437 2.865 1.678 1102
4.319 2.789 1.621 5541
4.440 2.867 1.663 1185
4.160 2.686 1.565 775
4.329 2.795 1.608 6213
4.451 2.874 1.650 1389
4.352 2.810 1.599 4775
4.544 2.934 1.665 1776
4.560 2.945 1.653 3438
4.343 2.804 1.580 2512
4.545 2.935 1.631 4816
4.423 2.856 1.591 2296
4.679 3.022 1.676 1567
4.301 2.778 1.550 955
4.561 2.945 1.620 3900
4.683 3.024 1.660 2273
4.439 2.867 1.580 1561
4.591 2.964 1.612 4525
4.713 3.043 1.652 2782
4.469 2.886 1.573 929
4.678 3.020 1.623 8225
4.556 2.942 1.584 1722
4.800 3.099 1.662 1052
4.681 3.023 1.607 11947
4.803 3.102 1.646 1495
4.559 2.944 1.569 1376
4.685 3.025 1.591 7498
4.807 3.104 1.629 2235
4.563 2.946 1.553 1359
4.714 3.044 1.583 4080
4.836 3.123 1.621 1299
4.592 2.965 1.545 949
4.705 3.038 1.563 7326
4.827 3.117 1.600 2787
5.136 3.317 1.695 1534
5.014 3.238 1.657 1167
4.715 3.044 1.549 6421
4.837 3.123 1.585 2374
5.063 3.269 1.654 2244
5.185 3.348 1.691 841
4.802 3.101 1.557 4082
5.067 3.272 1.636 3578
4.679 3.022 1.521 1636
5.215 3.367 1.680 1054
5.083 3.282 1.623 4138
4.715 3.045 1.514 3837
4.838 3.124 1.550 1565
5.238 3.382 1.668 1504
4.718 3.047 1.498 5105
5.100 3.293 1.609 3959
5.242 3.385 1.650 2064
4.841 3.126 1.534 888
5.187 3.350 1.615 4060
4.722 3.049 1.482 2901
5.064 3.270 1.580 2801
5.310 3.429 1.651 1258
5.230 3.377 1.608 4254
5.107 3.298 1.574 2119
4.764 3.076 1.476 1352
5.285 3.413 1.605 3005
5.162 3.333 1.571 1954
4.754 3.070 1.456 1101
5.427 3.505 1.645 885
5.418 3.499 1.623 2894
5.289 3.415 1.587 2363
5.166 3.336 1.553 1453
5.428 3.505 1.606 4705
5.292 3.417 1.569 2411
5.564 3.593 1.643 1302
5.432 3.507 1.587 4826
5.296 3.420 1.550 2076
5.568 3.595 1.624 1880
5.691 3.675 1.657 1388
5.429 3.506 1.566 3785
5.299 3.422 1.532 2507
5.702 3.682 1.639 1801
5.578 3.602 1.606 1623
5.738 3.705 1.628 2767
5.432 3.508 1.548 2094
5.302 3.424 1.514 1971
5.556 3.588 1.580 1253
5.735 3.703 1.606 3530
5.566 3.594 1.563 1379
5.442 3.514 1.531 1311
5.306 3.426 1.495 938
5.699 3.680 1.576 3876
5.576 3.600 1.545 1482
6.012 3.882 1.656 1094
5.452 3.521 1.514 942
5.703 3.682 1.557 2745
6.015 3.884 1.635 1358
5.579 3.603 1.526 865
5.827 3.762 1.588 853
5.745 3.710 1.547 2590
6.012 3.882 1.613 2167
5.762 3.721 1.530 4088
6.009 3.880 1.590 2356
6.159 3.977 1.627 804
5.759 3.719 1.509 3069
6.006 3.879 1.568 2074
6.163 3.980 1.606 1282
6.049 3.906 1.557 3276
5.762 3.721 1.489 1873
6.173 3.986 1.586 1426
6.564 4.239 1.678 1225
6.053 3.908 1.536 5150
5.772 3.727 1.470 1820
6.568 4.241 1.656 1626
6.177 3.988 1.565 1175
6.049 3.906 1.513 4052
6.729 4.345 1.669 1980
6.591 4.256 1.637 1924
5.775 3.729 1.451 1489
6.739 4.351 1.647 2359
6.595 4.259 1.615 2285
6.066 3.917 1.495 1812
6.471 4.178 1.587 1625
6.677 4.312 1.609 2708
6.514 4.206 1.573 1417
6.801 4.392 1.637 1176
6.069 3.919 1.475 1052
6.668 4.305 1.583 3724
7.126 4.601 1.683 1948
6.792 4.386 1.611 1773
6.543 4.225 1.556 1124
6.756 4.363 1.579 4477
6.632 4.282 1.552 2963
7.129 4.604 1.659 2810
6.933 4.477 1.617 1118
6.766 4.369 1.557 5279
7.140 4.610 1.635 3407
6.635 4.285 1.529 2409
7.329 4.733 1.676 1294
7.143 4.613 1.611 5546
6.770 4.371 1.533 4472
6.645 4.291 1.508 1718
7.333 4.735 1.650 1400
7.147 4.615 1.586 6420
6.773 4.374 1.510 2745
7.612 4.915 1.681 1163
7.488 4.835 1.656 1044
7.150 4.617 1.561 4347
6.776 4.376 1.487 1828
7.406 4.782 1.613 1325
7.616 4.918 1.655 1153
7.160 4.624 1.538 3621
7.410 4.785 1.587 2545
6.780 4.378 1.463 1526
7.600 4.907 1.625 1273
7.157 4.622 1.512 4487
7.407 4.783 1.560 2948
7.604 4.910 1.598 1457
7.873 5.084 1.650 1277
7.161 4.624 1.487 3457
7.404 4.781 1.533 1882
7.883 5.090 1.624 1747
8.402 5.425 1.723 1191
7.893 5.097 1.598 2162
7.164 4.626 1.463 1465
8.419 5.436 1.696 1049
7.420 4.791 1.510 1004
7.897 5.099 1.571 2071
8.495 5.485 1.680 1057
7.706 4.976 1.536 906
7.423 4.793 1.485 857
7.900 5.101 1.544 1566
8.512 5.496 1.653 1278
8.972 5.794 1.735 1195
8.529 5.507 1.626 1880
8.983 5.800 1.706 1356
9.325 6.021 1.766 912
7.904 5.104 1.516 855
8.539 5.514 1.598 1827
9.335 6.028 1.734 1605
8.993 5.807 1.676 1080
8.868 5.726 1.654 895
9.359 6.043 1.705 2031
8.503 5.491 1.561 1447
8.878 5.733 1.625 1123
9.003 5.814 1.646 975
9.383 6.059 1.676 1606
8.888 5.739 1.595 1122
9.712 6.271 1.731 872
8.520 5.501 1.534 870
9.386 6.061 1.644 1483
9.716 6.274 1.697 1205
9.202 5.942 1.614 1163
8.899 5.746 1.565 1068
9.344 6.034 1.604 2078
9.720 6.276 1.663 1665
9.581 6.187 1.641 1329
9.205 5.944 1.582 1235
9.347 6.036 1.572 1667
9.730 6.283 1.631 1645
9.578 6.185 1.607 1369
9.202 5.942 1.549 1032
9.549 6.166 1.569 1542
9.734 6.285 1.597 1384
9.371 6.051 1.542 1182
10.604 6.848 1.728 1081
9.559 6.172 1.537 1417
10.615 6.854 1.692 1230
9.744 6.292 1.564 1229
9.400 6.070 1.514 1035
10.625 6.861 1.657 1469
9.740 6.290 1.530 1273
9.562 6.175 1.504 988
9.397 6.068 1.480 847
10.649 6.876 1.623 1782
9.737 6.288 1.495 1225
10.206 6.590 1.561 822
9.374 6.053 1.444 793
10.646 6.874 1.585 1377
9.741 6.290 1.461 977
10.643 6.872 1.547 1447
9.744 6.292 1.428 851
10.679 6.896 1.515 2000
10.676 6.894 1.477 1482
10.954 7.073 1.512 1075
10.801 6.975 1.493 751
10.639 6.870 1.435 1066
10.950 7.071 1.473 995
10.765 6.951 1.450 829
10.742 6.936 1.410 954
10.960 7.077 1.436 788
10.751 6.942 1.373 793
10.950 7.071 1.396 775
10.953 7.073 1.358 782
1.976 1.266 1.782 6826
1.873 1.200 1.694 1466
1.980 1.268 1.775 13653
1.877 1.202 1.688 2932
1.984 1.271 1.768 13653
1.881 1.205 1.682 2932
1.994 1.277 1.766 13233
1.890 1.210 1.680 2312
2.003 1.283 1.764 13738
1.883 1.206 1.664 1252
2.012 1.289 1.762 10581
1.909 1.222 1.676 806
2.033 1.302 1.769 8426
1.929 1.235 1.683 857
2.037 1.305 1.762 8426
1.933 1.238 1.676 857
2.052 1.314 1.764 9191
1.947 1.247 1.679 1055
2.067 1.324 1.766 11117
1.962 1.257 1.681 1171
2.071 1.326 1.759 10326
1.966 1.259 1.674 1204
2.176 1.394 1.843 842
2.075 1.329 1.752 9536
1.970 1.261 1.668 1237
2.180 1.396 1.835 1105
2.073 1.328 1.740 6703
2.179 1.395 1.823 1724
1.968 1.260 1.657 894
2.061 1.320 1.720 4153
2.166 1.387 1.803 2798
2.053 1.315 1.704 3808
2.159 1.383 1.787 3227
2.130 1.364 1.754 4583
2.024 1.296 1.671 1778
2.236 1.432 1.836 859
2.134 1.366 1.746 5659
2.027 1.298 1.665 1928
2.240 1.435 1.828 835
2.132 1.365 1.735 4967
2.238 1.434 1.816 1437
2.026 1.297 1.653 1193
2.136 1.368 1.728 4290
2.243 1.436 1.809 1941
2.140 1.370 1.720 3952
2.247 1.439 1.801 1767
2.155 1.380 1.722 3736
2.279 1.460 1.815 1657
