2.499 0.157 1.521 1192
2.909 0.183 1.743 4825
2.778 0.175 1.669 2857
2.503 0.158 1.514 1132
2.921 0.184 1.738 6372
2.769 0.174 1.654 2355
2.513 0.158 1.511 978
2.918 0.184 1.726 6907
2.787 0.176 1.653 2042
3.050 0.192 1.799 800
2.923 0.184 1.718 7553
2.791 0.176 1.645 1909
3.055 0.192 1.790 1270
2.935 0.185 1.713 6821
2.803 0.177 1.641 1474
3.066 0.193 1.785 1349
2.946 0.186 1.708 5571
3.078 0.194 1.780 1744
2.814 0.177 1.637 914
2.965 0.187 1.707 5103
3.097 0.195 1.779 1488
2.832 0.178 1.636 920
2.990 0.188 1.710 5113
2.858 0.180 1.639 863
3.122 0.197 1.781 765
3.016 0.190 1.713 5761
3.020 0.190 1.704 7147
3.032 0.191 1.699 11115
3.165 0.199 1.769 771
3.043 0.192 1.694 14037
3.176 0.200 1.763 750
3.041 0.192 1.682 14853
3.174 0.200 1.751 929
3.059 0.193 1.680 19363
2.848 0.179 1.572 864
3.193 0.201 1.749 823
3.071 0.193 1.675 24156
2.859 0.180 1.567 1141
3.205 0.202 1.743 819
3.082 0.194 1.670 21876
3.216 0.203 1.737 1155
2.871 0.181 1.563 1001
3.108 0.196 1.671 15612
3.285 0.207 1.760 1579
3.119 0.197 1.666 11262
3.303 0.208 1.758 1626
3.124 0.197 1.657 12412
3.258 0.205 1.724 1953
3.135 0.198 1.652 13812
3.270 0.206 1.718 3361
3.140 0.198 1.642 14448
3.275 0.206 1.708 4332
2.998 0.189 1.573 809
3.151 0.199 1.637 10025
3.336 0.210 1.726 4683
3.016 0.190 1.571 1058
3.355 0.211 1.724 8083
3.170 0.200 1.635 7128
3.034 0.191 1.570 2332
3.490 0.220 1.789 778
3.367 0.212 1.717 9809
3.174 0.200 1.626 8067
3.039 0.191 1.561 3203
3.502 0.221 1.782 840
3.186 0.201 1.620 9918
3.371 0.212 1.708 8649
3.050 0.192 1.556 3857
3.507 0.221 1.772 1132
3.190 0.201 1.611 10014
3.383 0.213 1.701 9481
3.054 0.192 1.547 3234
3.519 0.222 1.765 1643
3.402 0.214 1.698 9936
3.194 0.201 1.601 6341
3.058 0.193 1.538 2477
3.538 0.223 1.762 1761
3.421 0.216 1.695 9538
3.206 0.202 1.596 4533
3.034 0.191 1.516 2943
3.557 0.224 1.758 1931
3.425 0.216 1.685 6938
3.038 0.191 1.507 3395
3.203 0.202 1.583 3048
3.562 0.224 1.748 2890
3.531 0.222 1.721 4742
3.372 0.212 1.649 4288
3.034 0.191 1.495 3858
3.667 0.231 1.784 1091
3.542 0.223 1.714 5260
3.031 0.191 1.483 3740
3.391 0.214 1.646 2369
3.679 0.232 1.776 815
3.576 0.225 1.717 4879
3.035 0.191 1.475 2891
3.432 0.216 1.652 2751
3.595 0.226 1.713 4775
3.429 0.216 1.639 3235
3.039 0.191 1.466 2575
3.732 0.235 1.774 1142
3.686 0.232 1.741 3653
3.433 0.216 1.629 3164
3.050 0.192 1.460 2405
3.713 0.234 1.740 3567
3.575 0.225 1.680 2959
3.054 0.192 1.452 2090
3.437 0.217 1.620 1631
3.608 0.227 1.682 4811
3.746 0.236 1.742 2713
3.050 0.192 1.440 1947
3.471 0.219 1.622 1150
3.613 0.228 1.672 6026
3.751 0.236 1.731 2422
3.054 0.192 1.431 1853
3.221 0.203 1.503 818
3.617 0.228 1.661 5632
3.755 0.237 1.720 2078
3.058 0.193 1.422 1580
3.232 0.204 1.497 897
3.716 0.234 1.691 5126
3.578 0.225 1.632 2134
3.855 0.243 1.750 1629
3.069 0.193 1.416 1319
3.757 0.237 1.696 5793
3.619 0.228 1.637 2615
3.896 0.245 1.754 1188
3.073 0.194 1.408 1052
3.762 0.237 1.685 6592
3.609 0.227 1.621 2369
3.900 0.246 1.743 1085
3.774 0.238 1.677 6060
3.591 0.226 1.601 1363
3.912 0.246 1.734 1012
3.785 0.238 1.669 5782
3.588 0.226 1.588 1109
3.924 0.247 1.726 1106
3.775 0.238 1.652 5035
3.914 0.247 1.709 1758
3.592 0.226 1.578 984
3.882 0.245 1.683 6432
3.743 0.236 1.626 2079
3.604 0.227 1.570 757
3.887 0.245 1.671 11050
3.747 0.236 1.616 1262
3.891 0.245 1.660 10611
3.910 0.246 1.655 8582
3.922 0.247 1.646 8915
3.934 0.248 1.638 6724
3.938 0.248 1.627 4827
3.935 0.248 1.612 6117
3.947 0.249 1.604 5956
3.951 0.249 1.592 6368
3.948 0.249 1.578 9710
3.952 0.249 1.567 10902
3.949 0.249 1.553 10360
3.960 0.249 1.544 8905
3.964 0.250 1.533 5666
3.961 0.250 1.519 4315
3.995 0.252 1.518 6720
4.006 0.252 1.509 9318
4.003 0.252 1.494 13339
4.014 0.253 1.485 18394
4.018 0.253 1.474 17907
4.198 0.264 1.534 776
4.022 0.253 1.462 11772
4.026 0.254 1.451 7291
4.037 0.254 1.442 6723
4.033 0.254 1.427 7641
4.045 0.255 1.418 6728
4.048 0.255 1.407 6694
4.044 0.255 1.392 8417
4.056 0.256 1.383 7650
4.052 0.255 1.369 9212
4.055 0.255 1.357 9907
4.059 0.256 1.346 8168
4.062 0.256 1.334 8371
4.058 0.256 1.320 7215
4.069 0.256 1.311 4650
4.095 0.258 1.305 6959
4.099 0.258 1.294 8692
4.102 0.258 1.282 5275
4.105 0.259 1.270 4048
4.124 0.260 1.262 6088
4.135 0.260 1.252 7971
4.146 0.261 1.242 7145
5.954 0.375 1.730 926
4.149 0.261 1.231 5259
5.974 0.376 1.717 1228
4.129 0.260 1.213 4558
6.070 0.382 1.724 1431
5.841 0.368 1.664 1338
4.109 0.259 1.195 4318
6.059 0.382 1.702 2030
5.853 0.369 1.649 1839
6.003 0.378 1.669 3509
4.120 0.260 1.185 2876
6.148 0.387 1.706 2295
5.857 0.369 1.632 2274
5.992 0.377 1.648 4663
6.137 0.387 1.685 3326
4.154 0.262 1.181 2513
5.846 0.368 1.611 2148
6.111 0.385 1.659 4584
5.965 0.376 1.623 2489
4.172 0.263 1.172 1650
5.728 0.361 1.563 1118
6.115 0.385 1.642 4584
5.885 0.371 1.584 2262
5.732 0.361 1.546 1998
4.198 0.264 1.166 946
6.058 0.382 1.609 4473
5.751 0.362 1.534 2569
5.897 0.372 1.569 1902
6.204 0.391 1.644 1508
6.132 0.386 1.608 5384
5.840 0.368 1.537 2956
5.986 0.377 1.573 1631
4.158 0.262 1.131 812
6.136 0.387 1.590 6629
5.844 0.368 1.520 4688
5.990 0.377 1.555 1510
6.282 0.396 1.625 820
5.840 0.368 1.502 6723
6.125 0.386 1.569 6121
6.271 0.395 1.603 1462
5.844 0.368 1.485 6766
6.129 0.386 1.551 5779
6.275 0.395 1.585 1347
6.637 0.418 1.669 1005
6.210 0.391 1.551 7553
5.848 0.368 1.468 5276
6.641 0.418 1.650 1977
5.994 0.378 1.501 1662
6.214 0.391 1.533 6278
5.952 0.375 1.474 4815
5.806 0.366 1.440 3004
6.653 0.419 1.632 2251
5.964 0.376 1.458 7444
6.218 0.392 1.515 4598
5.817 0.366 1.425 2550
6.658 0.419 1.613 2089
5.968 0.376 1.441 6069
6.222 0.392 1.497 3204
7.387 0.465 1.753 2717
6.662 0.420 1.594 2399
5.964 0.376 1.422 3781
7.384 0.465 1.730 3062
5.817 0.366 1.390 2065
7.014 0.442 1.650 2056
5.859 0.369 1.381 2712
7.389 0.465 1.709 2336
6.006 0.378 1.413 1784
7.018 0.442 1.629 1745
7.401 0.466 1.689 2774
5.979 0.377 1.389 2089
6.698 0.422 1.540 1415
7.625 0.480 1.736 1397
7.421 0.468 1.671 4402
7.746 0.488 1.738 2497
7.599 0.479 1.708 1634
5.959 0.375 1.367 1584
7.759 0.489 1.717 4618
7.426 0.468 1.649 4305
7.611 0.480 1.687 2018
7.279 0.459 1.619 1270
7.755 0.489 1.693 6268
7.422 0.468 1.626 4261
7.608 0.479 1.663 1567
5.951 0.375 1.329 1524
7.760 0.489 1.671 5994
7.434 0.468 1.606 4255
5.962 0.376 1.313 1692
7.907 0.498 1.700 1580
7.764 0.489 1.648 6471
7.446 0.469 1.586 3009
7.912 0.498 1.677 2058
5.965 0.376 1.296 1465
7.769 0.489 1.626 6557
7.963 0.502 1.663 2976
7.466 0.470 1.567 2380
8.188 0.516 1.706 2120
7.781 0.490 1.604 5646
7.990 0.503 1.644 3625
8.200 0.517 1.684 3056
7.470 0.471 1.546 1644
7.785 0.490 1.582 5172
8.204 0.517 1.660 3620
8.002 0.504 1.622 3363
7.474 0.471 1.524 799
7.820 0.493 1.565 5354
8.209 0.517 1.636 3939
8.014 0.505 1.601 2627
8.426 0.531 1.676 1069
8.213 0.517 1.612 5253
7.848 0.494 1.546 5188
8.026 0.506 1.579 3515
8.439 0.532 1.653 1480
8.217 0.518 1.589 6418
7.992 0.503 1.548 4628
7.844 0.494 1.522 4125
8.427 0.531 1.626 1796
8.222 0.518 1.565 5256
7.988 0.503 1.524 5128
7.840 0.494 1.498 3851
8.681 0.547 1.645 3328
8.677 0.547 1.618 4029
7.992 0.503 1.501 3551
8.226 0.518 1.541 2979
7.844 0.494 1.475 2796
8.682 0.547 1.593 3280
8.238 0.519 1.518 2237
7.996 0.504 1.477 1955
8.978 0.566 1.643 1517
8.740 0.551 1.577 2591
8.584 0.541 1.551 2368
8.241 0.519 1.494 2025
9.021 0.568 1.623 1530
8.635 0.544 1.534 3279
9.025 0.569 1.597 2790
8.784 0.553 1.558 1382
8.230 0.518 1.468 1302
8.655 0.545 1.511 4508
9.022 0.568 1.570 2918
8.507 0.536 1.487 1736
8.827 0.556 1.538 966
8.659 0.546 1.486 3364
8.511 0.536 1.463 1895
9.026 0.569 1.543 1560
8.878 0.559 1.520 951
8.593 0.541 1.450 3777
8.749 0.551 1.474 2926
8.444 0.532 1.427 1490
8.960 0.564 1.506 937
8.753 0.551 1.448 3387
8.604 0.542 1.426 3091
8.456 0.533 1.404 2120
8.307 0.523 1.381 859
8.749 0.551 1.422 2745
8.498 0.535 1.385 2745
8.350 0.526 1.363 1298
8.471 0.534 1.356 2844
8.635 0.544 1.379 1707
8.322 0.524 1.334 1581
8.784 0.553 1.401 1019
8.560 0.539 1.343 3259
8.333 0.525 1.311 2074
8.779 0.553 1.374 1138
8.556 0.539 1.317 3042
8.345 0.526 1.288 2172
8.783 0.553 1.349 1237
8.371 0.527 1.267 3238
8.528 0.537 1.288 2541
8.383 0.528 1.244 3974
8.531 0.537 1.263 2376
8.386 0.528 1.219 2772
8.558 0.539 1.242 1463
8.397 0.529 1.196 2404
8.569 0.540 1.218 1126
8.408 0.530 1.172 3653
8.596 0.542 1.196 1034
8.395 0.529 1.146 3625
8.599 0.542 1.171 851
8.246 0.519 1.128 770
8.390 0.529 1.121 3590
8.241 0.519 1.103 976
8.641 0.544 1.150 962
8.393 0.529 1.096 4455
8.636 0.544 1.124 1002
8.244 0.519 1.079 925
8.809 0.555 1.144 824
8.388 0.528 1.071 3584
8.969 0.565 1.136 1170
8.639 0.544 1.099 856
8.382 0.528 1.046 2512
9.011 0.568 1.114 1448
8.642 0.544 1.074 1163
8.401 0.529 1.023 2091
9.021 0.568 1.089 1652
8.644 0.545 1.049 1427
8.864 0.558 1.072 841
8.419 0.530 1.000 2207
9.016 0.568 1.062 1450
8.647 0.545 1.024 1273
8.867 0.559 1.046 848
8.429 0.531 0.977 2181
8.697 0.548 1.003 1201
8.925 0.562 1.026 1007
8.691 0.548 0.977 1372
8.424 0.531 0.951 1230
8.935 0.563 1.001 1090
9.116 0.574 1.019 841
8.945 0.564 0.976 1201
8.694 0.548 0.952 1158
9.103 0.573 0.991 780
9.003 0.567 0.955 1335
9.005 0.567 0.929 1720
9.007 0.567 0.902 1892
12.967 0.817 1.240 983
9.010 0.568 0.876 1727
12.963 0.817 1.202 1268
12.128 0.764 1.133 771
12.958 0.816 1.163 1629
8.996 0.567 0.849 945
9.272 0.584 0.871 755
12.969 0.817 1.126 2017
11.637 0.733 1.024 1005
9.274 0.584 0.844 979
8.935 0.563 0.818 837
12.979 0.818 1.089 2391
11.640 0.733 0.990 1235
12.270 0.773 1.037 948
9.284 0.585 0.817 917
12.974 0.817 1.050 2758
12.265 0.773 1.000 1237
11.642 0.733 0.956 1232
12.115 0.763 0.990 803
12.985 0.818 1.013 3195
12.267 0.773 0.965 1718
11.645 0.734 0.923 1196
12.102 0.762 0.953 959
12.987 0.818 0.975 2847
12.278 0.773 0.929 1605
11.647 0.734 0.889 931
14.193 0.894 1.053 771
12.990 0.818 0.937 2418
12.280 0.774 0.894 1345
12.532 0.790 0.909 868
12.992 0.818 0.900 1753
12.266 0.773 0.857 1262
9.143 0.576 0.673 859
12.986 0.818 0.861 1287
12.252 0.772 0.820 1236
9.144 0.576 0.647 1119
12.988 0.818 0.823 1506
12.254 0.772 0.785 1169
9.146 0.576 0.620 1085
12.990 0.818 0.786 1538
12.264 0.773 0.749 1010
9.155 0.577 0.594 924
12.992 0.818 0.748 1107
9.172 0.578 0.568 760
14.219 0.896 0.722 778
2.349 0.137 1.786 5192
1.874 0.110 1.445 1357
2.227 0.130 1.699 1017
2.354 0.138 1.780 10385
1.878 0.110 1.440 2715
2.232 0.130 1.692 2034
2.359 0.138 1.773 10385
1.881 0.110 1.434 2728
2.236 0.131 1.686 2034
2.481 0.145 1.860 1453
2.363 0.138 1.766 9258
1.885 0.110 1.429 2740
2.486 0.145 1.853 2357
2.241 0.131 1.680 1401
2.368 0.138 1.760 8132
2.491 0.146 1.846 3262
1.889 0.110 1.424 2740
2.245 0.131 1.673 769
2.373 0.139 1.753 6442
2.496 0.146 1.839 4317
1.893 0.111 1.418 2665
2.482 0.145 1.818 5799
2.358 0.138 1.733 4119
1.896 0.111 1.413 2590
2.486 0.145 1.811 5799
2.363 0.138 1.726 4119
1.900 0.111 1.408 2394
2.102 0.123 1.546 1063
2.491 0.146 1.804 6362
2.367 0.138 1.719 3036
1.904 0.111 1.402 2197
2.100 0.123 1.536 1403
2.496 0.146 1.797 6924
2.372 0.139 1.712 1953
1.907 0.112 1.397 1890
2.104 0.123 1.530 1421
2.501 0.146 1.790 6470
1.911 0.112 1.391 1583
2.376 0.139 1.705 1553
2.101 0.123 1.520 1306
2.506 0.147 1.782 6015
1.915 0.112 1.386 1311
2.381 0.139 1.699 1152
2.105 0.123 1.514 1148
2.517 0.147 1.780 7004
2.109 0.123 1.508 1639
2.392 0.140 1.696 1062
1.925 0.113 1.385 1052
2.535 0.148 1.781 8183
2.113 0.124 1.502 2129
1.929 0.113 1.379 1052
2.410 0.141 1.698 950
2.540 0.149 1.774 8183
2.117 0.124 1.496 2053
1.932 0.113 1.374 796
2.414 0.141 1.691 790
2.531 0.148 1.758 8843
2.121 0.124 1.490 1976
2.536 0.148 1.751 9523
2.118 0.124 1.479 1663
2.527 0.148 1.735 9776
2.102 0.123 1.460 1653
2.654 0.155 1.816 1253
2.532 0.148 1.728 10077
2.106 0.123 1.454 1785
2.659 0.155 1.809 1769
2.523 0.148 1.712 9772
2.650 0.155 1.793 3542
2.103 0.123 1.444 1923
2.521 0.147 1.700 9941
2.648 0.155 1.781 5585
2.107 0.123 1.438 1726
2.626 0.154 1.756 9920
2.499 0.146 1.676 6553
2.111 0.123 1.432 1529
2.624 0.153 1.745 10448
2.497 0.146 1.665 5672
2.115 0.124 1.426 1084
2.752 0.161 1.824 846
2.629 0.154 1.737 8576
2.501 0.146 1.658 4809
2.756 0.161 1.816 1194
2.573 0.150 1.692 7266
2.714 0.159 1.779 3863
2.584 0.151 1.689 6320
2.712 0.159 1.767 4195
2.456 0.144 1.610 935
2.649 0.155 1.719 5615
2.521 0.147 1.640 3218
2.778 0.162 1.797 986
2.701 0.158 1.740 5378
2.573 0.150 1.662 3081
2.830 0.165 1.817 873
2.706 0.158 1.732 5523
2.577 0.151 1.655 1318
2.835 0.166 1.809 1238
2.718 0.159 1.728 7530
2.846 0.166 1.805 1906
2.589 0.151 1.651 1253
2.729 0.160 1.724 9711
2.858 0.167 1.801 2476
2.600 0.152 1.648 1249
2.740 0.160 1.721 8309
2.870 0.168 1.797 2695
2.529 0.148 1.596 1155
2.745 0.161 1.713 7103
2.875 0.168 1.789 3151
2.533 0.148 1.589 953
2.763 0.162 1.713 6363
2.893 0.169 1.788 2217
2.633 0.154 1.637 785
2.781 0.163 1.713 6278
2.651 0.155 1.638 1167
2.912 0.170 1.788 1083
2.786 0.163 1.705 5525
2.916 0.171 1.780 1173
2.656 0.155 1.630 919
2.756 0.161 1.677 4459
2.887 0.169 1.752 2649
2.502 0.146 1.532 767
2.774 0.162 1.677 3951
2.905 0.170 1.751 1981
2.499 0.146 1.521 940
2.779 0.162 1.669 3112
2.910 0.170 1.743 2934
2.510 0.147 1.518 883
2.921 0.171 1.738 3934
2.770 0.162 1.654 2370
2.514 0.147 1.511 753
2.926 0.171 1.730 4416
2.795 0.163 1.657 2151
2.924 0.171 1.718 4949
2.792 0.163 1.645 1935
3.055 0.179 1.790 893
2.935 0.172 1.713 5016
2.804 0.164 1.641 1582
3.067 0.179 1.785 1041
2.947 0.172 1.708 4638
3.079 0.180 1.780 1252
2.815 0.165 1.637 774
2.944 0.172 1.696 3986
3.077 0.180 1.768 1759
3.026 0.177 1.729 3809
2.893 0.169 1.658 770
3.023 0.177 1.716 5581
3.028 0.177 1.708 7036
3.032 0.177 1.699 10338
3.166 0.185 1.769 944
3.037 0.178 1.690 12185
3.170 0.185 1.760 1092
3.042 0.178 1.682 15019
3.175 0.186 1.751 1128
3.053 0.179 1.676 21873
3.187 0.186 1.745 1505
3.065 0.179 1.671 26796
3.198 0.187 1.739 1496
2.846 0.166 1.560 863
3.076 0.180 1.666 24044
3.210 0.188 1.734 1600
2.864 0.167 1.559 843
3.088 0.181 1.661 18484
3.222 0.188 1.728 1838
2.897 0.169 1.565 913
3.085 0.180 1.648 14772
3.226 0.189 1.719 1941
2.915 0.170 1.564 1100
3.096 0.181 1.643 17197
3.252 0.190 1.720 2402
2.933 0.172 1.562 1043
3.122 0.183 1.645 17844
3.257 0.190 1.711 3154
2.945 0.172 1.557 766
3.141 0.184 1.642 18204
3.276 0.192 1.708 3460
3.145 0.184 1.633 13326
3.330 0.195 1.723 5265
3.465 0.203 1.788 794
3.171 0.185 1.635 10546
3.342 0.195 1.717 8123
3.035 0.177 1.570 1992
3.477 0.203 1.782 1642
3.161 0.185 1.619 12559
3.346 0.196 1.707 9269
3.482 0.204 1.772 2113
3.025 0.177 1.554 1786
3.187 0.186 1.620 14076
3.358 0.196 1.701 8015
3.051 0.178 1.556 3515
3.494 0.204 1.765 2340
3.191 0.187 1.611 14969
3.377 0.197 1.698 8186
3.055 0.179 1.547 2944
3.513 0.205 1.762 2687
3.195 0.187 1.601 10882
3.410 0.199 1.702 9108
3.059 0.179 1.538 2371
3.546 0.207 1.765 2043
3.429 0.201 1.698 9987
3.199 0.187 1.592 8412
3.063 0.179 1.529 2346
3.565 0.208 1.762 1760
3.426 0.200 1.685 7833
3.196 0.187 1.580 6401
3.563 0.208 1.748 3205
3.060 0.179 1.517 1965
3.524 0.206 1.718 6337
3.388 0.198 1.656 4441
3.201 0.187 1.571 3401
3.064 0.179 1.508 1983
3.536 0.207 1.711 6640
3.399 0.199 1.649 2182
3.039 0.178 1.487 2168
3.198 0.187 1.558 1652
3.548 0.207 1.704 5431
3.029 0.177 1.471 3143
3.411 0.199 1.643 1833
3.685 0.215 1.766 1303
3.632 0.212 1.729 5734
3.032 0.177 1.463 3683
3.437 0.201 1.643 2934
3.177 0.186 1.527 808
3.680 0.215 1.738 4582
3.036 0.178 1.454 4092
3.434 0.201 1.629 2616
3.706 0.217 1.737 4745
3.040 0.178 1.445 4460
3.569 0.209 1.677 2930
3.431 0.201 1.616 1590
3.617 0.211 1.685 6046
3.044 0.178 1.436 4003
3.754 0.220 1.745 2812
3.472 0.203 1.622 1104
3.614 0.211 1.672 7747
3.752 0.219 1.731 3276
3.055 0.179 1.431 3109
3.626 0.212 1.664 7739
3.764 0.220 1.723 2081
3.059 0.179 1.422 1979
3.226 0.189 1.494 841
3.652 0.214 1.663 7164
3.790 0.222 1.722 1475
3.070 0.179 1.416 1263
3.237 0.189 1.487 782
3.758 0.220 1.696 5654
3.620 0.212 1.637 3014
3.897 0.228 1.754 977
3.073 0.180 1.408 840
3.763 0.220 1.685 6459
3.624 0.212 1.627 2285
3.902 0.228 1.743 1028
3.767 0.220 1.674 6228
3.607 0.211 1.607 1860
3.906 0.228 1.731 1112
3.786 0.221 1.669 6339
3.611 0.211 1.597 1669
3.925 0.230 1.726 842
3.776 0.221 1.652 6028
3.915 0.229 1.709 1484
3.615 0.211 1.587 1271
3.869 0.226 1.677 6349
3.729 0.218 1.621 1336
3.590 0.210 1.564 846
3.888 0.227 1.671 9558
3.748 0.219 1.616 1410
3.609 0.211 1.560 837
3.892 0.228 1.660 9137
3.753 0.219 1.605 779
3.904 0.228 1.652 8492
3.916 0.229 1.643 8920
3.928 0.230 1.635 6142
3.880 0.227 1.604 4335
3.884 0.227 1.593 4605
3.955 0.231 1.607 4145
3.952 0.231 1.592 3501
3.942 0.230 1.576 5623
3.946 0.231 1.564 8639
3.950 0.231 1.553 8808
3.961 0.232 1.544 8448
3.958 0.231 1.530 6241
3.955 0.231 1.516 5416
3.988 0.233 1.515 6762
4.000 0.234 1.506 9489
4.004 0.234 1.494 13447
4.008 0.234 1.483 17227
4.019 0.235 1.474 15458
4.016 0.235 1.460 10708
4.019 0.235 1.448 8132
4.023 0.235 1.437 6997
4.027 0.235 1.425 6044
4.038 0.236 1.416 4309
4.042 0.236 1.404 4019
4.046 0.237 1.392 5119
4.057 0.237 1.383 4590
4.053 0.237 1.369 5867
4.056 0.237 1.357 7759
4.060 0.237 1.346 7498
4.063 0.238 1.334 8102
4.059 0.237 1.320 6639
4.055 0.237 1.306 4412
4.081 0.239 1.301 5423
4.100 0.240 1.294 6068
4.111 0.240 1.284 3699
4.076 0.238 1.261 5247
4.087 0.239 1.252 5377
4.136 0.242 1.252 6315
4.139 0.242 1.240 7150
4.142 0.242 1.228 5062
5.838 0.341 1.681 812
5.983 0.350 1.719 780
4.123 0.241 1.210 5217
5.842 0.342 1.664 2017
6.072 0.355 1.724 1128
4.110 0.240 1.195 6048
5.854 0.342 1.649 2522
6.030 0.353 1.694 1522
4.121 0.241 1.185 3976
5.981 0.350 1.663 3948
5.836 0.341 1.626 1932
6.127 0.358 1.701 1277
5.993 0.350 1.648 6134
4.139 0.242 1.177 2587
5.848 0.342 1.611 2459
6.139 0.359 1.685 1732
5.998 0.351 1.630 5432
6.143 0.359 1.667 2327
5.852 0.342 1.594 2239
4.150 0.243 1.167 2001
5.741 0.336 1.548 4001
6.025 0.352 1.619 3482
4.023 0.235 1.122 1778
6.171 0.361 1.655 1766
5.753 0.336 1.534 5510
6.052 0.354 1.607 3034
5.899 0.345 1.569 1623
4.133 0.242 1.137 1281
5.841 0.342 1.537 4057
6.141 0.359 1.610 2861
5.995 0.351 1.574 1603
4.144 0.242 1.127 881
5.846 0.342 1.520 6425
6.138 0.359 1.590 3314
5.992 0.350 1.555 1343
5.834 0.341 1.500 8918
6.119 0.358 1.567 2946
5.846 0.342 1.485 8852
6.131 0.358 1.551 2989
5.850 0.342 1.468 7207
6.142 0.359 1.535 2919
5.996 0.351 1.501 1389
6.643 0.388 1.650 1184
5.838 0.341 1.447 5805
5.985 0.350 1.481 3744
6.216 0.363 1.533 2487
6.655 0.389 1.632 1470
5.965 0.349 1.458 7894
5.819 0.340 1.425 2963
7.007 0.410 1.690 1733
6.212 0.363 1.513 1717
5.961 0.349 1.439 6663
7.389 0.432 1.753 2177
7.004 0.410 1.668 1980
5.815 0.340 1.407 1964
5.965 0.349 1.422 3878
7.386 0.432 1.730 2670
5.818 0.340 1.390 2355
7.016 0.410 1.650 1929
5.853 0.342 1.380 3262
7.391 0.432 1.709 2200
6.000 0.351 1.411 2042
7.020 0.410 1.629 1658
5.864 0.343 1.364 3123
7.396 0.432 1.687 2427
7.620 0.446 1.735 2035
6.011 0.351 1.395 1580
7.416 0.434 1.669 3272
7.624 0.446 1.712 2920
5.860 0.343 1.346 2579
7.771 0.454 1.743 2029
7.761 0.454 1.717 4667
7.428 0.434 1.649 3419
7.614 0.445 1.687 3012
5.848 0.342 1.326 1749
7.757 0.454 1.693 6443
7.432 0.435 1.628 3612
7.610 0.445 1.663 2527
5.844 0.342 1.307 1483
7.762 0.454 1.671 6334
7.436 0.435 1.606 3487
7.615 0.445 1.641 2020
5.847 0.342 1.290 1016
7.774 0.455 1.650 7510
7.448 0.436 1.586 2738
7.627 0.446 1.621 1823
8.185 0.479 1.730 1295
7.779 0.455 1.627 8367
8.190 0.479 1.706 2581
7.460 0.436 1.566 2192
7.980 0.467 1.666 1972
7.783 0.455 1.604 7671
8.202 0.480 1.684 3817
7.992 0.467 1.644 2809
7.472 0.437 1.546 1461
7.795 0.456 1.583 7103
8.207 0.480 1.660 4571
7.997 0.468 1.621 2624
7.368 0.431 1.504 1328
7.807 0.456 1.562 6686
8.211 0.480 1.636 4879
8.001 0.468 1.598 1797
7.371 0.431 1.482 1370
8.215 0.480 1.612 6229
7.834 0.458 1.544 5725
8.029 0.469 1.579 2379
7.383 0.432 1.462 1162
8.212 0.480 1.587 7470
7.862 0.460 1.525 4832
8.009 0.468 1.551 2843
8.687 0.508 1.671 1857
8.224 0.481 1.565 6074
7.858 0.459 1.501 5144
8.691 0.508 1.646 3264
8.006 0.468 1.527 2592
8.672 0.507 1.617 3719
7.854 0.459 1.477 3551
8.236 0.482 1.542 3231
8.002 0.468 1.502 1776
8.645 0.505 1.586 3067
8.248 0.482 1.519 2379
8.793 0.514 1.611 1596
7.866 0.460 1.455 1432
8.602 0.503 1.554 2421
8.244 0.482 1.494 2252
8.782 0.513 1.583 1862
8.992 0.526 1.618 979
8.630 0.505 1.532 3621
8.232 0.481 1.468 1671
8.778 0.513 1.556 1513
9.028 0.528 1.597 1494
8.657 0.506 1.511 4650
8.509 0.498 1.487 2365
9.032 0.528 1.571 1540
8.236 0.482 1.444 1224
8.661 0.506 1.486 3534
8.513 0.498 1.463 2253
8.357 0.489 1.438 962
9.044 0.529 1.546 861
8.595 0.503 1.450 4701
8.751 0.512 1.474 2418
8.446 0.494 1.427 1439
8.298 0.485 1.404 1031
8.607 0.503 1.426 3863
8.763 0.512 1.450 2368
8.395 0.491 1.394 2049
7.020 0.410 1.187 798
8.501 0.497 1.385 2223
8.297 0.485 1.355 2077
8.751 0.512 1.422 1860
7.023 0.411 1.167 754
8.309 0.486 1.332 2468
8.465 0.495 1.355 2384
8.723 0.510 1.392 930
8.336 0.487 1.311 2675
8.484 0.496 1.332 2231
8.316 0.486 1.284 2891
8.566 0.501 1.318 2104
8.374 0.490 1.267 4247
8.523 0.498 1.287 1640
8.385 0.490 1.244 4551
8.534 0.499 1.263 1396
8.236 0.482 1.224 1134
8.380 0.490 1.218 2653
8.231 0.481 1.199 831
8.529 0.499 1.237 785
8.391 0.491 1.195 2218
8.242 0.482 1.176 858
8.402 0.491 1.171 3537
8.245 0.482 1.152 1511
8.397 0.491 1.146 3850
8.248 0.482 1.128 2079
8.392 0.491 1.121 4393
8.243 0.482 1.103 2332
8.643 0.505 1.150 767
8.395 0.491 1.096 5494
8.246 0.482 1.079 1901
8.631 0.505 1.123 881
8.968 0.524 1.162 750
8.390 0.491 1.071 4374
8.241 0.482 1.054 1155
8.979 0.525 1.137 1114
8.641 0.505 1.099 818
8.385 0.490 1.046 3026
8.998 0.526 1.113 1355
8.644 0.505 1.074 1139
8.235 0.482 1.030 776
8.395 0.491 1.022 2497
9.008 0.527 1.087 1509
8.647 0.506 1.049 1412
8.859 0.518 1.071 769
8.421 0.492 1.000 2501
8.657 0.506 1.025 1291
9.011 0.527 1.061 1222
8.862 0.518 1.046 806
8.424 0.493 0.976 2509
8.691 0.508 1.003 1308
8.927 0.522 1.026 1291
8.418 0.492 0.951 1524
8.930 0.522 1.000 1449
8.694 0.508 0.977 1395
8.956 0.524 0.976 1592
8.696 0.508 0.952 1242
8.413 0.492 0.925 852
8.966 0.524 0.951 1532
8.439 0.493 0.903 859
8.714 0.510 0.928 806
9.000 0.526 0.928 1680
8.622 0.504 0.895 965
12.960 0.758 1.277 853
9.010 0.527 0.902 1626
12.963 0.758 1.239 1213
8.616 0.504 0.869 775
12.966 0.758 1.202 1616
9.012 0.527 0.876 1196
9.280 0.543 0.898 892
8.697 0.509 0.850 784
12.961 0.758 1.163 2222
9.085 0.531 0.856 1367
9.282 0.543 0.871 1172
8.707 0.509 0.826 801
12.972 0.759 1.126 2982
9.284 0.543 0.844 1424
9.079 0.531 0.829 1374
11.640 0.681 1.024 1020
12.983 0.759 1.089 3596
9.286 0.543 0.817 1279
11.643 0.681 0.990 1226
9.073 0.531 0.802 1213
12.978 0.759 1.050 4102
9.060 0.530 0.774 1289
11.645 0.681 0.956 1235
12.292 0.719 1.002 805
12.988 0.759 1.013 4871
9.053 0.529 0.747 1323
11.648 0.681 0.923 1206
12.279 0.718 0.965 911
12.991 0.760 0.975 4796
9.047 0.529 0.720 1139
11.650 0.681 0.889 948
12.060 0.705 0.915 920
12.985 0.759 0.937 4528
12.047 0.704 0.879 1161
9.120 0.533 0.698 1037
12.354 0.722 0.898 843
12.987 0.759 0.899 3555
9.129 0.534 0.672 1760
12.041 0.704 0.844 994
9.279 0.543 0.681 777
12.990 0.760 0.861 2382
9.139 0.534 0.646 1749
9.289 0.543 0.655 914
12.264 0.717 0.821 795
12.992 0.760 0.823 2182
9.140 0.534 0.620 1416
9.290 0.543 0.628 1032
12.258 0.717 0.785 777
12.994 0.760 0.786 2004
9.150 0.535 0.594 1067
9.300 0.544 0.601 800
12.995 0.760 0.748 1319
14.332 0.838 0.769 779
14.333 0.838 0.727 760
2.350 0.123 1.786 4312
1.874 0.098 1.445 1424
2.228 0.117 1.699 1217
2.355 0.123 1.780 8625
1.878 0.098 1.440 2848
2.232 0.117 1.692 2435
2.097 0.110 1.596 813
2.359 0.123 1.773 8625
1.882 0.098 1.434 2894
2.237 0.117 1.686 2435
2.482 0.130 1.860 1159
2.371 0.124 1.771 7436
1.886 0.099 1.429 2941
2.248 0.118 1.684 2132
2.493 0.130 1.857 1742
2.382 0.125 1.769 6321
1.890 0.099 1.424 2927
2.505 0.131 1.855 2263
2.259 0.118 1.682 1567
2.387 0.125 1.762 5245
2.510 0.131 1.848 3409
1.893 0.099 1.418 2806
2.107 0.110 1.567 1292
2.482 0.130 1.818 5914
2.359 0.123 1.733 4400
1.897 0.099 1.413 2699
2.105 0.110 1.557 1582
2.487 0.130 1.811 5914
2.363 0.124 1.726 4400
1.901 0.099 1.408 2536
2.103 0.110 1.546 1811
2.486 0.130 1.799 7019
2.362 0.124 1.715 2855
1.904 0.100 1.402 2373
2.100 0.110 1.536 2107
2.484 0.130 1.788 8186
2.104 0.110 1.530 2107
1.908 0.100 1.397 2007
2.353 0.123 1.699 1510
2.489 0.130 1.781 8365
2.108 0.110 1.524 1705
1.912 0.100 1.391 1642
2.364 0.124 1.697 1051
2.493 0.130 1.774 8545
1.915 0.100 1.386 1372
2.112 0.111 1.518 1303
2.511 0.131 1.775 8822
2.110 0.110 1.508 1365
1.919 0.100 1.380 1102
2.386 0.125 1.692 1003
2.523 0.132 1.772 9752
2.107 0.110 1.497 1463
2.397 0.125 1.689 1186
1.923 0.101 1.375 1102
2.527 0.132 1.765 9752
2.111 0.110 1.491 1408
2.402 0.126 1.683 1101
1.926 0.101 1.370 852
2.526 0.132 1.754 8998
2.122 0.111 1.490 1355
2.400 0.126 1.671 807
2.524 0.132 1.742 8366
2.099 0.110 1.466 1493
2.650 0.139 1.824 818
2.515 0.132 1.726 10249
2.103 0.110 1.460 1808
2.641 0.138 1.808 1668
2.520 0.132 1.719 12192
2.646 0.138 1.800 2123
2.100 0.110 1.450 2076
2.524 0.132 1.712 12638
2.651 0.139 1.793 2746
2.104 0.110 1.444 2350
2.529 0.132 1.705 13084
2.656 0.139 1.785 3369
2.108 0.110 1.438 2175
2.533 0.133 1.697 10754
2.661 0.139 1.777 4326
2.105 0.110 1.428 2011
2.625 0.137 1.745 9442
2.498 0.131 1.665 6568
2.109 0.110 1.422 1575
2.753 0.144 1.824 942
2.636 0.138 1.741 8745
2.509 0.131 1.662 5810
2.106 0.110 1.412 1160
2.764 0.145 1.821 991
2.648 0.139 1.738 8370
2.520 0.132 1.659 4710
2.776 0.145 1.817 1066
2.109 0.110 1.406 1018
2.653 0.139 1.730 7989
2.524 0.132 1.652 4088
2.781 0.145 1.809 1160
2.113 0.111 1.400 876
2.650 0.139 1.719 7702
2.522 0.132 1.640 3381
2.779 0.145 1.797 1399
2.709 0.142 1.744 6524
2.581 0.135 1.666 3252
2.838 0.148 1.822 833
2.721 0.142 1.740 6720
2.592 0.136 1.663 2057
2.849 0.149 1.817 1074
2.732 0.143 1.736 8632
2.603 0.136 1.659 2213
2.861 0.150 1.813 1551
2.737 0.143 1.728 10731
2.866 0.150 1.805 2212
2.607 0.136 1.652 1967
2.741 0.143 1.721 9488
2.871 0.150 1.797 2795
2.612 0.137 1.644 1424
2.746 0.144 1.713 8245
2.876 0.150 1.789 3378
2.616 0.137 1.637 880
2.764 0.145 1.713 7363
2.894 0.151 1.788 2406
2.634 0.138 1.637 805
2.782 0.146 1.713 7027
2.913 0.152 1.788 1101
2.652 0.139 1.638 995
2.787 0.146 1.705 6334
2.917 0.153 1.780 1177
2.657 0.139 1.630 764
2.826 0.148 1.716 5489
2.695 0.141 1.642 2457
2.970 0.155 1.799 932
2.817 0.147 1.701 4632
2.686 0.141 1.627 1382
2.954 0.155 1.778 1234
2.801 0.147 1.681 3515
2.959 0.155 1.770 2128
2.964 0.155 1.761 2631
2.805 0.147 1.673 2507
2.976 0.156 1.757 3174
2.810 0.147 1.665 2607
2.987 0.156 1.752 3782
2.814 0.147 1.657 2707
2.985 0.156 1.740 4383
2.832 0.148 1.656 2544
2.927 0.153 1.697 5171
3.059 0.160 1.769 1554
2.795 0.146 1.625 873
2.925 0.153 1.685 4702
3.057 0.160 1.756 1807
3.027 0.158 1.729 4675
2.894 0.151 1.658 2170
3.024 0.158 1.716 6352
2.892 0.151 1.646 1465
3.036 0.159 1.711 7623
2.903 0.152 1.641 1573
3.034 0.159 1.699 9035
2.900 0.152 1.629 1097
3.167 0.166 1.769 1029
3.031 0.159 1.687 9639
3.164 0.166 1.756 1186
2.898 0.152 1.617 792
3.043 0.159 1.682 13714
3.176 0.166 1.751 1172
2.909 0.152 1.613 875
3.054 0.160 1.676 22082
3.188 0.167 1.745 1587
3.066 0.160 1.671 26291
3.199 0.167 1.739 1542
2.861 0.150 1.567 773
3.077 0.161 1.666 22967
3.211 0.168 1.734 1490
2.872 0.150 1.563 852
3.089 0.162 1.661 19106
3.223 0.169 1.728 1621
2.898 0.152 1.565 773
3.086 0.161 1.648 16958
3.228 0.169 1.719 1923
2.937 0.154 1.574 815
3.097 0.162 1.643 20659
3.246 0.170 1.717 2358
2.956 0.155 1.573 928
3.123 0.163 1.645 22105
3.272 0.171 1.718 2683
2.960 0.155 1.564 992
3.142 0.164 1.642 21978
3.305 0.173 1.722 2944
2.950 0.154 1.549 923
3.146 0.165 1.633 17295
3.331 0.174 1.723 5207
3.466 0.181 1.788 857
2.954 0.155 1.541 854
3.158 0.165 1.628 15478
3.336 0.174 1.713 7326
3.478 0.182 1.782 2025
3.022 0.158 1.563 796
3.162 0.165 1.619 17943
3.340 0.175 1.704 8060
3.483 0.182 1.772 2803
3.026 0.158 1.554 1123
3.188 0.167 1.620 18556
3.345 0.175 1.694 8021
3.495 0.183 1.765 3269
3.052 0.160 1.556 2598
3.192 0.167 1.611 20277
3.364 0.176 1.691 7746
3.507 0.183 1.758 4218
3.056 0.160 1.547 2454
3.196 0.167 1.601 16157
3.418 0.179 1.705 7060
3.060 0.160 1.538 2257
3.555 0.186 1.768 2100
3.193 0.167 1.589 13206
3.430 0.179 1.698 8910
3.567 0.187 1.762 2048
3.057 0.160 1.526 1825
3.198 0.167 1.580 11129
3.435 0.180 1.689 7755
3.571 0.187 1.751 3517
3.061 0.160 1.517 1830
3.194 0.167 1.567 7142
3.511 0.184 1.711 6863
3.374 0.177 1.649 3834
3.648 0.191 1.774 1700
3.537 0.185 1.711 6864
3.199 0.167 1.558 3760
3.400 0.178 1.649 2410
3.047 0.159 1.490 1284
3.549 0.186 1.704 5780
3.412 0.178 1.643 2034
3.203 0.168 1.549 1788
3.037 0.159 1.475 1641
3.619 0.189 1.723 7478
3.453 0.181 1.649 3373
3.041 0.159 1.466 2007
3.200 0.167 1.537 1335
3.638 0.190 1.719 6135
3.442 0.180 1.633 2420
3.045 0.159 1.457 2261
3.211 0.168 1.531 895
3.613 0.189 1.696 5461
3.751 0.196 1.756 3084
3.048 0.159 1.448 2423
3.432 0.180 1.616 2142
3.625 0.190 1.688 7113
3.763 0.197 1.748 3007
3.052 0.160 1.440 2115
3.451 0.181 1.613 1352
3.630 0.190 1.678 7194
3.768 0.197 1.737 3280
3.056 0.160 1.431 1556
3.477 0.182 1.612 873
3.641 0.190 1.671 6639
3.780 0.198 1.730 2393
3.060 0.160 1.422 913
3.503 0.183 1.612 830
3.653 0.191 1.663 6072
3.792 0.198 1.722 1539
3.752 0.196 1.692 4592
3.614 0.189 1.634 2383
3.757 0.197 1.682 5091
3.589 0.188 1.612 2209
3.896 0.204 1.739 955
3.842 0.201 1.704 5555
3.703 0.194 1.647 2367
3.564 0.186 1.589 1233
3.788 0.198 1.669 5218
3.627 0.190 1.603 1749
3.778 0.198 1.652 5811
3.917 0.205 1.709 1889
3.638 0.190 1.596 1317
3.863 0.202 1.674 7213
3.723 0.195 1.618 1267
3.882 0.203 1.669 7882
3.742 0.196 1.613 1138
3.886 0.203 1.657 6765
3.898 0.204 1.649 7347
3.910 0.205 1.641 7992
3.914 0.205 1.629 5872
3.882 0.203 1.604 4589
3.886 0.203 1.593 4547
3.912 0.205 1.590 6094
3.924 0.205 1.581 6599
3.921 0.205 1.567 6166
3.932 0.206 1.559 7247
3.951 0.207 1.553 6689
3.963 0.207 1.544 6729
3.959 0.207 1.530 6519
3.948 0.207 1.513 6948
3.967 0.208 1.507 7550
3.994 0.209 1.503 9196
3.998 0.209 1.492 13374
4.002 0.209 1.480 16832
4.006 0.210 1.469 14703
4.002 0.209 1.455 10667
3.998 0.209 1.441 11760
4.010 0.210 1.432 12332
4.036 0.211 1.427 10624
4.040 0.211 1.416 7711
4.051 0.212 1.407 3469
4.039 0.211 1.390 3372
4.036 0.211 1.376 4944
4.032 0.211 1.362 5072
4.050 0.212 1.355 6262
4.061 0.212 1.346 8596
4.065 0.213 1.334 8944
4.068 0.213 1.322 5029
4.072 0.213 1.311 2287
4.075 0.213 1.299 4861
4.086 0.214 1.289 6103
4.074 0.213 1.273 4280
4.077 0.213 1.261 4941
4.088 0.214 1.252 5142
4.099 0.214 1.242 4897
4.118 0.215 1.234 5343
4.136 0.216 1.226 4670
3.991 0.209 1.188 1305
4.124 0.216 1.210 5468
5.844 0.306 1.664 1531
5.997 0.314 1.704 1091
3.979 0.208 1.172 1025
4.112 0.215 1.195 6199
5.849 0.306 1.647 2060
6.009 0.314 1.688 1495
1.105 0.058 0.412 1050
4.023 0.210 1.159 4712
5.976 0.313 1.661 3566
4.168 0.218 1.197 2446
5.746 0.301 1.602 1659
5.995 0.314 1.648 6116
4.026 0.211 1.148 3654
5.750 0.301 1.585 2438
4.172 0.218 1.184 1936
6.000 0.314 1.630 5667
5.747 0.301 1.567 3441
4.037 0.211 1.138 2343
4.182 0.219 1.174 1532
5.751 0.301 1.550 6756
6.004 0.314 1.613 2865
4.032 0.211 1.124 2481
4.178 0.219 1.160 1350
5.755 0.301 1.534 8641
4.134 0.216 1.137 2083
6.054 0.317 1.607 1290
5.901 0.309 1.569 1283
5.759 0.301 1.517 6259
4.145 0.217 1.127 1507
6.036 0.316 1.584 1144
5.755 0.301 1.498 6193
5.901 0.309 1.533 1589
4.156 0.217 1.117 1063
6.047 0.316 1.568 1052
5.836 0.305 1.500 7997
5.690 0.298 1.465 1572
6.044 0.316 1.549 1152
4.158 0.218 1.105 823
5.848 0.306 1.485 7711
5.701 0.298 1.451 2072
6.087 0.318 1.540 1051
5.852 0.306 1.468 6299
6.137 0.321 1.533 989
5.705 0.298 1.434 834
5.840 0.306 1.447 5156
5.987 0.313 1.481 2635
5.967 0.312 1.458 5498
5.821 0.304 1.425 2671
7.009 0.367 1.690 929
5.963 0.312 1.439 4798
5.817 0.304 1.407 1708
7.014 0.367 1.670 1135
7.392 0.387 1.753 1014
5.967 0.312 1.422 3385
5.790 0.303 1.383 2197
7.389 0.387 1.730 1412
7.018 0.367 1.650 1131
5.863 0.307 1.381 2745
6.010 0.314 1.413 1880
7.610 0.398 1.755 1301
7.394 0.387 1.709 1269
5.874 0.307 1.366 2499
7.622 0.399 1.735 1952
7.383 0.386 1.684 1295
6.021 0.315 1.397 1180
7.635 0.399 1.714 2814
5.878 0.307 1.349 1904
7.403 0.387 1.666 1483
7.782 0.407 1.745 1329
7.763 0.406 1.717 3696
7.616 0.398 1.687 3193
7.438 0.389 1.651 1592
5.858 0.306 1.327 1259
7.768 0.406 1.695 5381
7.621 0.399 1.665 3291
7.435 0.389 1.628 1697
5.954 0.311 1.329 1254
7.772 0.407 1.672 5321
7.625 0.399 1.643 2635
7.447 0.390 1.607 1931
5.966 0.312 1.313 1325
7.777 0.407 1.650 7234
7.451 0.390 1.586 2080
7.629 0.399 1.621 1790
5.969 0.312 1.296 1304
7.781 0.407 1.627 8437
8.193 0.429 1.706 2140
7.440 0.389 1.561 1570
7.634 0.399 1.599 1264
7.793 0.408 1.606 8007
8.205 0.429 1.684 3335
7.374 0.386 1.526 1718
7.125 0.373 1.479 1314
7.790 0.407 1.582 7238
8.209 0.429 1.660 4118
7.378 0.386 1.505 1817
7.129 0.373 1.459 1466
7.802 0.408 1.561 5968
8.214 0.430 1.636 4285
7.250 0.379 1.459 2310
7.397 0.387 1.486 1739
8.210 0.429 1.611 5374
7.821 0.409 1.541 4548
7.253 0.379 1.438 2480
7.401 0.387 1.465 1528
8.215 0.430 1.587 6403
7.849 0.411 1.522 3879
7.374 0.386 1.438 2213
8.697 0.455 1.673 1348
8.227 0.430 1.565 5073
7.853 0.411 1.499 4580
7.378 0.386 1.417 2664
8.694 0.455 1.646 2320
7.849 0.411 1.475 3135
8.628 0.451 1.609 2842
8.246 0.431 1.543 2639
7.389 0.387 1.396 1868
8.617 0.451 1.581 3696
8.258 0.432 1.521 2000
7.081 0.370 1.322 1637
7.393 0.387 1.375 1224
8.621 0.451 1.556 2794
8.247 0.431 1.494 1907
6.991 0.366 1.286 1640
8.769 0.459 1.581 1384
8.641 0.452 1.534 3308
8.492 0.444 1.510 1832
7.002 0.366 1.267 1798
8.235 0.431 1.468 1552
8.653 0.453 1.510 3917
8.504 0.445 1.486 2610
8.239 0.431 1.444 1340
7.005 0.366 1.247 966
8.656 0.453 1.485 3004
8.508 0.445 1.461 2327
8.360 0.437 1.438 1457
8.606 0.450 1.451 4210
8.270 0.433 1.399 1715
8.754 0.458 1.474 1559
8.418 0.440 1.422 1492
8.609 0.450 1.426 3587
8.281 0.433 1.377 2358
7.022 0.367 1.187 1416
8.430 0.441 1.399 1294
8.292 0.434 1.354 3680
8.621 0.451 1.402 1671
7.025 0.368 1.167 1283
8.441 0.442 1.376 1158
8.296 0.434 1.330 3996
8.452 0.442 1.352 1470
8.617 0.451 1.376 972
7.021 0.367 1.145 963
8.299 0.434 1.306 3886
8.456 0.442 1.328 1376
8.613 0.451 1.350 892
8.295 0.434 1.280 4310
8.444 0.442 1.301 1322
8.377 0.438 1.267 4288
8.228 0.430 1.247 1828
8.388 0.439 1.244 4379
8.239 0.431 1.224 2899
8.344 0.436 1.213 2503
8.195 0.429 1.194 1486
8.331 0.436 1.187 2725
8.182 0.428 1.168 1217
8.240 0.431 1.151 3062
8.397 0.439 1.170 2627
8.243 0.431 1.127 4080
8.400 0.439 1.146 3142
8.395 0.439 1.121 4500
8.246 0.431 1.103 4306
8.398 0.439 1.096 5584
8.249 0.431 1.079 3036
8.393 0.439 1.071 4293
8.243 0.431 1.054 1777
8.395 0.439 1.047 2889
8.246 0.431 1.030 1607
8.647 0.452 1.074 938
9.001 0.471 1.113 876
8.398 0.439 1.022 2514
8.249 0.431 1.006 1483
8.658 0.453 1.050 1211
9.011 0.471 1.087 919
8.416 0.440 0.999 2593
8.684 0.454 1.027 1217
8.259 0.432 0.983 974
9.006 0.471 1.060 756
8.419 0.440 0.975 2804
8.694 0.455 1.003 1246
8.922 0.467 1.025 793
8.405 0.440 0.949 2135
8.681 0.454 0.976 1303
8.941 0.468 1.001 891
8.408 0.440 0.925 1312
8.967 0.469 0.977 1250
8.668 0.453 0.949 1231
8.985 0.470 0.953 1344
8.631 0.451 0.920 1236
8.426 0.441 0.902 1016
8.625 0.451 0.895 1517
9.003 0.471 0.928 1430
8.775 0.459 0.908 888
8.452 0.442 0.879 830
9.013 0.471 0.902 1406
8.627 0.451 0.869 1211
12.967 0.678 1.239 1160
8.777 0.459 0.882 869
12.971 0.679 1.202 1693
9.102 0.476 0.883 1643
8.700 0.455 0.850 1288
8.503 0.445 0.834 939
12.974 0.679 1.164 2678
9.104 0.476 0.857 1714
8.702 0.455 0.825 1259
9.277 0.485 0.871 1105
12.977 0.679 1.126 3827
9.098 0.476 0.830 1376
9.280 0.485 0.844 1370
8.704 0.455 0.800 1298
12.979 0.679 1.088 4524
9.282 0.486 0.817 1276
8.722 0.456 0.776 1116
9.108 0.476 0.804 993
12.982 0.679 1.050 5129
9.055 0.474 0.774 1054
9.283 0.486 0.790 930
8.739 0.457 0.751 897
12.993 0.680 1.013 6078
9.064 0.474 0.748 1293
11.652 0.610 0.923 869
12.995 0.680 0.975 6174
9.074 0.475 0.722 1357
12.990 0.679 0.937 5961
9.084 0.475 0.696 1302
13.000 0.680 0.900 4702
9.133 0.478 0.672 1737
12.994 0.680 0.861 2720
9.134 0.478 0.646 1798
12.996 0.680 0.823 2054
9.143 0.478 0.620 1579
14.315 0.749 0.893 958
12.998 0.680 0.786 2033
9.145 0.478 0.593 1237
14.332 0.750 0.852 1062
12.992 0.680 0.747 1857
9.146 0.478 0.567 963
14.342 0.750 0.811 931
13.002 0.680 0.710 1466
9.155 0.479 0.540 1053
14.336 0.750 0.769 867
13.003 0.680 0.672 1230
14.330 0.750 0.727 967
9.164 0.479 0.514 902
13.021 0.681 0.635 967
14.332 0.750 0.685 945
14.539 0.761 0.650 816
14.540 0.761 0.608 903
14.544 0.761 0.481 793
14.545 0.761 0.439 994
14.546 0.761 0.396 989
2.357 0.112 1.791 3343
2.235 0.107 1.703 1493
1.875 0.089 1.445 1337
2.362 0.113 1.784 6686
2.239 0.107 1.697 2987
1.879 0.090 1.440 2674
2.373 0.113 1.782 6749
2.250 0.107 1.695 3254
1.882 0.090 1.434 2667
2.378 0.113 1.775 6015
1.886 0.090 1.429 2660
2.255 0.108 1.689 2384
2.500 0.119 1.862 1188
2.382 0.114 1.769 5282
1.890 0.090 1.424 2667
2.505 0.119 1.855 1768
2.259 0.108 1.682 1515
2.355 0.112 1.739 4599
2.478 0.118 1.825 4355
1.894 0.090 1.418 2611
2.101 0.100 1.563 1008
2.483 0.118 1.818 6022
2.353 0.112 1.728 4274
1.897 0.090 1.413 2548
2.099 0.100 1.552 1430
2.488 0.119 1.811 6022
2.357 0.112 1.721 4274
1.901 0.091 1.408 2333
2.103 0.100 1.546 1690
2.486 0.119 1.799 7259
2.362 0.113 1.715 2784
1.905 0.091 1.402 2118
2.101 0.100 1.536 1977
2.491 0.119 1.792 8555
2.007 0.096 1.463 2076
2.131 0.102 1.548 1523
2.367 0.113 1.708 1294
2.489 0.119 1.781 8718
2.011 0.096 1.458 2160
2.135 0.102 1.542 1182
2.365 0.113 1.697 1071
2.494 0.119 1.774 8882
2.021 0.096 1.456 2160
1.896 0.090 1.373 990
2.369 0.113 1.690 871
2.505 0.119 1.771 9608
2.025 0.097 1.451 2135
2.380 0.114 1.687 1096
2.517 0.120 1.768 10920
2.029 0.097 1.445 2109
2.391 0.114 1.685 1354
2.521 0.120 1.761 10920
2.032 0.097 1.439 1918
2.396 0.114 1.678 1198
2.526 0.120 1.754 9597
2.043 0.097 1.438 1731
2.400 0.114 1.671 1043
2.504 0.119 1.729 8648
2.630 0.125 1.811 1582
2.053 0.098 1.436 1543
2.516 0.120 1.726 10939
2.097 0.100 1.456 1863
2.642 0.126 1.808 1465
2.520 0.120 1.719 13225
2.101 0.100 1.450 2392
2.647 0.126 1.800 1771
2.525 0.120 1.712 13371
2.105 0.100 1.444 2921
2.652 0.126 1.793 2345
2.529 0.121 1.705 13518
2.656 0.127 1.785 2920
2.102 0.100 1.434 2876
2.534 0.121 1.697 10697
2.661 0.127 1.777 3519
2.105 0.100 1.428 2843
2.626 0.125 1.745 7947
2.498 0.119 1.665 6085
2.109 0.101 1.422 2451
2.753 0.131 1.824 875
2.637 0.126 1.741 7933
2.509 0.120 1.662 5303
2.106 0.100 1.412 2063
2.765 0.132 1.821 897
2.648 0.126 1.738 8499
2.521 0.120 1.659 4131
2.110 0.101 1.406 1751
2.776 0.132 1.817 972
2.653 0.127 1.730 8223
2.525 0.120 1.652 3670
2.114 0.101 1.400 1438
2.781 0.133 1.809 1154
2.644 0.126 1.714 8141
2.516 0.120 1.636 3056
2.773 0.132 1.793 1877
2.117 0.101 1.394 1159
2.717 0.130 1.748 7258
2.588 0.123 1.670 3174
2.121 0.101 1.388 880
2.721 0.130 1.740 8032
2.592 0.124 1.663 2488
2.850 0.136 1.817 967
2.733 0.130 1.736 9550
2.604 0.124 1.659 2765
2.862 0.136 1.813 1434
2.744 0.131 1.733 11213
2.615 0.125 1.656 2883
2.873 0.137 1.809 1825
2.742 0.131 1.721 10145
2.871 0.137 1.797 2750
2.612 0.125 1.644 1958
2.747 0.131 1.713 9170
2.876 0.137 1.789 3444
2.617 0.125 1.637 1213
2.765 0.132 1.713 7831
2.895 0.138 1.788 2546
2.635 0.126 1.637 1199
2.776 0.132 1.709 7278
2.906 0.139 1.784 1727
2.646 0.126 1.634 859
2.788 0.133 1.705 6443
2.918 0.139 1.780 1347
2.657 0.127 1.630 942
2.833 0.135 1.720 5964
2.703 0.129 1.646 2571
2.811 0.134 1.697 5516
2.948 0.141 1.775 1105
2.680 0.128 1.623 1043
2.808 0.134 1.685 4177
2.960 0.141 1.770 1907
2.889 0.138 1.719 3148
2.757 0.132 1.646 1313
3.020 0.144 1.792 998
2.893 0.138 1.711 4803
3.025 0.144 1.784 1218
2.762 0.132 1.638 1162
2.905 0.139 1.706 6614
2.773 0.132 1.634 1151
3.036 0.145 1.779 1107
2.916 0.139 1.702 7613
3.048 0.145 1.774 1308
2.784 0.133 1.630 1043
2.921 0.139 1.693 7442
3.053 0.146 1.765 1705
2.918 0.139 1.681 6187
3.051 0.145 1.753 1990
3.006 0.143 1.718 5708
2.874 0.137 1.647 1760
3.018 0.144 1.713 7528
2.885 0.138 1.642 1980
3.030 0.144 1.708 8770
2.897 0.138 1.638 2326
3.163 0.151 1.778 778
3.041 0.145 1.703 8847
2.908 0.139 1.633 2239
3.174 0.151 1.772 845
3.053 0.146 1.698 7498
2.919 0.139 1.628 2076
3.050 0.145 1.685 11193
2.917 0.139 1.616 1596
3.184 0.152 1.754 999
3.055 0.146 1.676 18677
3.189 0.152 1.745 1329
2.921 0.139 1.608 1091
3.059 0.146 1.668 22340
3.193 0.152 1.736 1362
2.925 0.140 1.600 838
3.071 0.146 1.662 18791
3.205 0.153 1.730 1245
2.873 0.137 1.563 763
3.089 0.147 1.661 16590
3.224 0.154 1.728 1245
2.906 0.139 1.569 889
3.087 0.147 1.648 16002
3.228 0.154 1.719 1704
2.917 0.139 1.564 1073
3.105 0.148 1.646 20229
3.240 0.155 1.713 2173
2.949 0.141 1.569 1048
3.124 0.149 1.645 23227
3.273 0.156 1.718 2212
2.968 0.142 1.568 1115
3.142 0.150 1.642 23078
3.306 0.158 1.722 2580
2.972 0.142 1.559 936
3.154 0.150 1.637 19554
3.332 0.159 1.723 4320
2.976 0.142 1.551 844
3.158 0.151 1.628 18777
3.337 0.159 1.713 5802
3.486 0.166 1.785 1712
2.980 0.142 1.542 777
3.163 0.151 1.619 21131
3.334 0.159 1.700 6436
3.491 0.167 1.775 2563
3.027 0.144 1.554 837
3.188 0.152 1.620 20560
3.353 0.160 1.698 7081
3.503 0.167 1.769 3584
3.053 0.146 1.556 1708
3.193 0.152 1.611 22448
3.365 0.160 1.691 7086
3.508 0.167 1.758 5197
3.057 0.146 1.547 1835
3.190 0.152 1.598 18376
3.505 0.167 1.745 5737
3.369 0.161 1.682 5276
3.054 0.146 1.535 1592
3.194 0.152 1.589 15381
3.431 0.164 1.698 7321
3.567 0.170 1.762 2207
3.058 0.146 1.526 1402
3.198 0.153 1.580 13783
3.435 0.164 1.689 6985
3.572 0.170 1.751 3322
3.062 0.146 1.517 1295
3.195 0.152 1.567 9766
3.512 0.167 1.711 6639
3.375 0.161 1.649 3465
3.649 0.174 1.774 1882
3.538 0.169 1.711 6409
3.199 0.153 1.558 5175
3.401 0.162 1.649 2849
3.675 0.175 1.773 1216
3.550 0.169 1.704 5403
3.413 0.163 1.643 2910
3.204 0.153 1.549 2526
3.687 0.176 1.766 1348
3.627 0.173 1.726 6863
3.446 0.164 1.646 4079
3.208 0.153 1.540 2027
3.034 0.145 1.463 1500
3.639 0.174 1.719 7354
3.436 0.164 1.629 2866
3.045 0.145 1.457 1715
3.219 0.154 1.534 1556
3.607 0.172 1.692 6826
3.745 0.179 1.753 3502
3.433 0.164 1.616 2283
3.049 0.145 1.448 1928
3.713 0.177 1.726 6632
3.575 0.171 1.666 3504
3.053 0.146 1.440 1825
3.437 0.164 1.607 1257
3.732 0.178 1.722 6113
3.594 0.171 1.662 4545
3.057 0.146 1.431 1449
3.456 0.165 1.603 786
3.650 0.174 1.674 5771
3.788 0.181 1.733 2456
3.053 0.146 1.419 927
3.661 0.175 1.666 5826
3.822 0.182 1.734 1528
3.658 0.174 1.653 4474
3.826 0.182 1.723 3124
3.831 0.183 1.712 6710
3.641 0.174 1.633 3261
3.843 0.183 1.704 7038
3.704 0.177 1.647 2494
3.855 0.184 1.696 5968
3.715 0.177 1.639 1741
3.859 0.184 1.685 6180
3.720 0.177 1.628 1301
3.864 0.184 1.674 7793
3.724 0.178 1.618 1020
3.875 0.185 1.666 8038
3.880 0.185 1.654 5891
3.892 0.186 1.646 6117
3.903 0.186 1.638 6605
3.900 0.186 1.624 5239
3.905 0.186 1.612 4545
3.909 0.186 1.601 5542
3.921 0.187 1.593 7914
3.925 0.187 1.581 8221
3.929 0.187 1.570 7427
3.933 0.188 1.559 7155
3.945 0.188 1.550 5863
3.956 0.189 1.541 6109
3.953 0.189 1.527 6116
3.964 0.189 1.519 5803
3.976 0.190 1.510 6890
3.987 0.190 1.501 7931
3.991 0.190 1.489 10652
3.995 0.191 1.478 15031
3.999 0.191 1.466 14448
4.003 0.191 1.455 9614
3.999 0.191 1.441 9772
4.010 0.191 1.432 8561
4.029 0.192 1.425 8553
4.018 0.192 1.409 10498
4.014 0.191 1.395 7422
4.025 0.192 1.385 6955
4.036 0.193 1.376 8961
4.017 0.192 1.357 7942
4.036 0.192 1.351 5902
4.055 0.193 1.343 7921
4.058 0.194 1.332 9005
4.062 0.194 1.320 6138
4.080 0.195 1.313 3681
4.084 0.195 1.301 4695
4.079 0.195 1.287 5639
4.083 0.195 1.275 4886
4.086 0.195 1.263 5222
4.097 0.195 1.254 5336
4.108 0.196 1.244 6817
4.111 0.196 1.232 6497
4.145 0.198 1.228 4543
4.000 0.191 1.190 1937
5.719 0.273 1.648 790
4.102 0.196 1.204 4382
5.739 0.274 1.635 1515
6.006 0.286 1.706 879
1.104 0.053 0.415 836
4.105 0.196 1.193 4933
5.743 0.274 1.619 1933
6.011 0.287 1.688 1040
1.105 0.053 0.412 955
4.024 0.192 1.159 5505
5.747 0.274 1.602 2825
4.169 0.199 1.197 2448
5.977 0.285 1.661 2414
4.027 0.192 1.148 5588
5.759 0.275 1.587 4339
5.997 0.286 1.648 4309
4.173 0.199 1.184 2282
5.748 0.274 1.567 5363
6.009 0.287 1.632 4347
4.037 0.193 1.138 2188
4.183 0.200 1.174 1832
5.752 0.274 1.550 7750
6.005 0.286 1.613 2211
4.140 0.197 1.151 1885
5.764 0.275 1.535 8425
4.135 0.197 1.137 2021
5.760 0.275 1.517 8041
4.146 0.198 1.127 1435
5.757 0.275 1.498 10295
4.157 0.198 1.117 1004
6.041 0.288 1.566 824
5.753 0.274 1.480 11248
5.899 0.281 1.514 1144
6.053 0.289 1.551 1023
4.152 0.198 1.103 872
5.749 0.274 1.461 8758
5.895 0.281 1.495 1909
5.761 0.275 1.447 4721
5.907 0.282 1.480 1361
5.841 0.279 1.447 3413
5.988 0.286 1.481 1226
5.845 0.279 1.430 2580
5.992 0.286 1.463 2026
5.795 0.276 1.402 2653
5.965 0.284 1.439 2646
5.799 0.277 1.385 4319
5.969 0.285 1.422 2028
5.802 0.277 1.368 4388
5.988 0.286 1.408 1628
7.612 0.363 1.755 779
5.806 0.277 1.351 2058
5.984 0.285 1.389 1513
7.624 0.364 1.735 1216
5.833 0.278 1.339 1991
7.637 0.364 1.714 1773
6.088 0.290 1.392 1522
7.784 0.371 1.745 1086
5.844 0.279 1.324 2676
7.773 0.371 1.719 2598
7.626 0.364 1.689 2476
6.084 0.290 1.373 1622
7.777 0.371 1.696 3791
7.630 0.364 1.667 2813
5.863 0.280 1.310 2374
7.413 0.354 1.623 1841
7.782 0.371 1.674 3718
7.635 0.364 1.644 2260
5.866 0.280 1.293 2183
7.433 0.354 1.604 2118
7.786 0.371 1.651 5249
7.220 0.344 1.540 2304
7.437 0.355 1.583 2078
6.102 0.291 1.322 1780
7.791 0.372 1.629 6358
7.224 0.345 1.519 2284
7.410 0.353 1.555 1848
8.195 0.391 1.706 1246
7.795 0.372 1.606 6301
8.207 0.391 1.684 2093
7.127 0.340 1.479 1998
7.375 0.352 1.526 1887
7.792 0.372 1.582 5428
8.211 0.392 1.660 2693
7.131 0.340 1.459 2256
7.387 0.352 1.506 1784
7.788 0.371 1.558 4028
8.216 0.392 1.636 2743
7.251 0.346 1.459 2678
7.103 0.339 1.432 1847
8.212 0.392 1.611 3464
7.255 0.346 1.438 3139
7.800 0.372 1.537 3057
7.403 0.353 1.465 1613
8.217 0.392 1.587 4196
7.843 0.374 1.521 2572
7.368 0.351 1.437 2188
7.041 0.336 1.379 2135
8.228 0.392 1.565 3301
7.855 0.375 1.499 2983
7.044 0.336 1.358 2920
7.379 0.352 1.417 2488
7.056 0.337 1.339 3465
8.615 0.411 1.606 2427
7.851 0.374 1.475 2092
6.908 0.329 1.314 1771
8.619 0.411 1.581 3498
7.067 0.337 1.320 2720
6.919 0.330 1.295 1464
8.268 0.394 1.522 1259
8.623 0.411 1.556 2780
6.977 0.333 1.284 2298
8.475 0.404 1.532 1341
7.125 0.340 1.308 1275
8.635 0.412 1.532 2660
6.988 0.333 1.265 2218
8.487 0.405 1.508 1653
8.783 0.419 1.556 1113
8.647 0.412 1.509 2953
8.498 0.405 1.485 2107
6.944 0.331 1.237 1937
8.350 0.398 1.461 1406
8.651 0.413 1.483 2326
6.940 0.331 1.216 1916
8.502 0.405 1.460 1829
8.268 0.394 1.424 1711
8.608 0.411 1.451 2917
8.272 0.394 1.399 2197
6.927 0.330 1.193 1679
8.420 0.402 1.422 1514
8.275 0.395 1.375 3326
8.619 0.411 1.427 2493
6.938 0.331 1.174 1457
8.424 0.402 1.398 1199
8.287 0.395 1.353 5107
8.435 0.402 1.375 1343
8.623 0.411 1.402 1329
6.933 0.331 1.153 1087
8.290 0.395 1.329 5141
8.447 0.403 1.351 1627
8.619 0.411 1.376 880
8.278 0.395 1.302 5136
8.450 0.403 1.327 1380
8.289 0.395 1.279 5505
8.438 0.402 1.300 1224
8.284 0.395 1.254 4420
8.433 0.402 1.274 1651
8.249 0.393 1.225 4046
8.397 0.401 1.245 3444
8.228 0.392 1.198 3294
8.377 0.400 1.217 2074
8.215 0.392 1.172 3323
8.365 0.399 1.191 2207
8.242 0.393 1.151 3993
8.391 0.400 1.169 1652
8.245 0.393 1.127 5060
8.394 0.400 1.145 2101
8.256 0.394 1.104 5258
8.405 0.401 1.122 3470
8.400 0.401 1.096 4444
8.251 0.393 1.079 3482
8.403 0.401 1.072 3346
8.245 0.393 1.054 2144
8.397 0.400 1.047 2277
8.240 0.393 1.030 2211
8.243 0.393 1.006 2097
8.408 0.401 1.023 2065
8.667 0.413 1.051 956
8.418 0.401 0.999 2373
8.245 0.393 0.982 1281
8.686 0.414 1.027 1037
8.421 0.402 0.975 2919
8.688 0.414 1.002 1051
8.407 0.401 0.949 2626
8.651 0.413 0.973 1274
8.943 0.427 1.001 801
8.258 0.394 0.935 787
8.410 0.401 0.925 1516
8.969 0.428 0.977 1330
8.654 0.413 0.948 1224
8.260 0.394 0.911 806
8.971 0.428 0.951 1447
8.632 0.412 0.920 1389
8.475 0.404 0.906 1125
8.294 0.396 0.889 963
8.627 0.411 0.895 1686
8.973 0.428 0.925 1232
8.777 0.419 0.908 1145
8.469 0.404 0.881 983
8.692 0.415 0.875 1422
8.479 0.404 0.857 1001
9.118 0.435 0.911 893
12.970 0.619 1.239 872
9.112 0.435 0.884 1538
8.505 0.406 0.834 1514
8.702 0.415 0.850 1514
12.966 0.618 1.201 1342
