2.470 0.164 1.790 7316
2.346 0.156 1.706 2535
2.482 0.165 1.788 8099
2.358 0.157 1.703 2013
2.506 0.166 1.794 6728
2.375 0.158 1.705 1826
2.518 0.167 1.791 5846
2.380 0.158 1.699 1530
2.542 0.169 1.797 7060
2.391 0.159 1.696 1510
2.547 0.169 1.790 8651
2.402 0.159 1.694 1540
2.552 0.169 1.783 8651
2.413 0.160 1.691 1129
2.550 0.169 1.771 10427
2.424 0.161 1.689 805
2.548 0.169 1.759 12364
2.422 0.161 1.677 778
2.546 0.169 1.748 11592
2.551 0.169 1.740 10721
2.677 0.178 1.822 956
2.549 0.169 1.729 7156
2.675 0.178 1.810 1385
2.620 0.174 1.764 7124
2.493 0.166 1.683 2523
2.618 0.174 1.752 8247
2.491 0.165 1.672 1912
2.623 0.174 1.745 9385
2.496 0.166 1.665 1717
2.628 0.174 1.737 7824
2.500 0.166 1.658 1660
2.755 0.183 1.816 879
2.632 0.175 1.730 6263
2.504 0.166 1.651 1603
2.760 0.183 1.808 1326
2.664 0.177 1.739 5274
2.536 0.168 1.660 3358
2.792 0.185 1.817 807
2.675 0.178 1.735 5152
2.547 0.169 1.657 3469
2.803 0.186 1.813 832
2.687 0.178 1.731 5776
2.558 0.170 1.654 2541
2.815 0.187 1.809 996
2.698 0.179 1.728 6451
2.569 0.171 1.650 1358
2.827 0.188 1.805 1169
2.703 0.179 1.720 6687
2.832 0.188 1.797 1777
2.506 0.166 1.603 988
2.707 0.180 1.712 6923
2.836 0.188 1.789 2385
2.524 0.168 1.603 854
2.705 0.180 1.701 5358
2.834 0.188 1.777 2140
2.682 0.178 1.677 3975
2.812 0.187 1.753 2157
2.700 0.179 1.677 3494
2.830 0.188 1.753 2085
2.712 0.180 1.673 2749
2.855 0.190 1.756 2255
2.479 0.165 1.539 773
2.860 0.190 1.748 3027
2.716 0.180 1.666 2103
2.483 0.165 1.532 936
2.990 0.199 1.823 927
2.872 0.191 1.744 4400
2.741 0.182 1.669 1368
3.002 0.199 1.818 1065
2.487 0.165 1.525 957
2.883 0.191 1.739 5185
2.752 0.183 1.665 1196
2.484 0.165 1.514 981
2.908 0.193 1.743 5581
2.778 0.184 1.669 1209
2.488 0.165 1.507 826
3.039 0.202 1.816 793
2.927 0.194 1.742 7054
2.796 0.186 1.669 1170
2.932 0.195 1.734 6903
2.800 0.186 1.661 998
2.999 0.199 1.760 6988
2.825 0.188 1.664 996
3.010 0.200 1.755 7079
2.878 0.191 1.683 1085
3.015 0.200 1.746 9214
2.827 0.188 1.644 978
3.013 0.200 1.734 11251
2.825 0.188 1.632 948
3.024 0.201 1.729 11638
3.029 0.201 1.720 12071
3.033 0.201 1.711 13739
3.045 0.202 1.706 15323
3.057 0.203 1.701 14653
3.054 0.203 1.689 13344
3.187 0.212 1.758 815
3.052 0.203 1.676 16148
3.185 0.211 1.745 1419
3.056 0.203 1.668 20203
3.190 0.212 1.736 1704
3.060 0.203 1.659 19026
3.194 0.212 1.727 2183
3.065 0.203 1.650 15196
3.199 0.212 1.718 2821
3.069 0.204 1.641 12542
3.204 0.213 1.708 3274
3.338 0.222 1.775 966
3.067 0.204 1.629 10957
3.201 0.213 1.696 5323
3.336 0.221 1.762 1613
3.071 0.204 1.620 8565
3.206 0.213 1.686 5590
3.340 0.222 1.753 1783
3.075 0.204 1.611 7718
3.231 0.215 1.688 4498
3.366 0.224 1.753 1413
3.158 0.210 1.640 7407
3.328 0.221 1.723 5062
3.023 0.201 1.575 1625
3.162 0.210 1.631 8696
3.354 0.223 1.724 6467
3.027 0.201 1.566 1154
3.166 0.210 1.622 8849
3.373 0.224 1.721 7142
3.031 0.201 1.558 863
3.509 0.233 1.785 815
3.385 0.225 1.714 7328
3.178 0.211 1.616 7180
3.521 0.234 1.779 927
3.390 0.225 1.705 8960
3.189 0.212 1.611 4115
3.568 0.237 1.789 1159
2.975 0.198 1.510 784
3.401 0.226 1.698 8093
3.186 0.212 1.598 2580
3.573 0.237 1.778 1402
2.979 0.198 1.501 1154
3.413 0.227 1.692 6502
3.205 0.213 1.596 2914
3.026 0.201 1.513 2018
3.585 0.238 1.771 1566
3.425 0.227 1.685 4887
3.030 0.201 1.504 2729
3.202 0.213 1.583 2591
3.583 0.238 1.758 2568
3.587 0.238 1.747 3773
3.451 0.229 1.685 3433
3.034 0.201 1.495 2824
3.192 0.212 1.567 1573
3.592 0.239 1.737 4120
3.455 0.229 1.675 3018
3.030 0.201 1.483 2608
3.611 0.240 1.733 4400
3.438 0.228 1.656 3217
3.034 0.201 1.475 1765
3.616 0.240 1.723 4193
3.428 0.228 1.639 3190
3.038 0.202 1.466 1315
3.606 0.239 1.706 3765
3.425 0.227 1.626 2925
3.743 0.249 1.767 1281
3.035 0.202 1.454 1159
3.632 0.241 1.705 3663
3.770 0.250 1.765 1663
3.466 0.230 1.632 1549
3.039 0.202 1.445 877
3.651 0.242 1.701 4348
3.789 0.252 1.761 1744
3.513 0.233 1.641 1579
3.656 0.243 1.690 4632
3.794 0.252 1.750 2074
3.518 0.234 1.631 1339
3.660 0.243 1.680 4061
3.798 0.252 1.739 1898
3.522 0.234 1.621 974
3.694 0.245 1.682 4164
3.832 0.254 1.740 2440
3.556 0.236 1.623 885
3.706 0.246 1.674 4675
3.844 0.255 1.732 3723
3.567 0.237 1.616 1079
3.746 0.249 1.679 4572
3.608 0.240 1.621 2039
3.885 0.258 1.736 1457
3.766 0.250 1.674 5283
3.598 0.239 1.604 1727
3.904 0.259 1.731 1100
3.777 0.251 1.666 4950
3.916 0.260 1.723 1244
3.595 0.239 1.591 1148
3.782 0.251 1.655 3564
3.921 0.260 1.712 1301
3.599 0.239 1.581 759
3.881 0.258 1.683 5329
3.742 0.248 1.626 962
3.893 0.258 1.674 9906
3.754 0.249 1.619 752
3.898 0.259 1.663 9993
3.909 0.260 1.655 7959
3.921 0.260 1.646 8516
3.933 0.261 1.638 8789
3.930 0.261 1.624 7159
3.912 0.260 1.604 4397
3.946 0.262 1.604 5055
3.950 0.262 1.592 8863
3.954 0.263 1.581 9233
3.959 0.263 1.570 6367
3.963 0.263 1.558 4963
3.974 0.264 1.549 4271
3.993 0.265 1.543 3741
3.997 0.265 1.532 4606
4.009 0.266 1.523 7559
4.013 0.266 1.511 8760
4.017 0.267 1.500 9007
4.013 0.266 1.485 12339
4.025 0.267 1.476 14282
4.029 0.267 1.465 12343
4.032 0.268 1.453 7577
4.006 0.266 1.432 5469
4.017 0.267 1.423 5636
4.044 0.268 1.418 6634
4.047 0.269 1.407 7873
4.051 0.269 1.395 7028
4.055 0.269 1.383 8194
4.058 0.269 1.371 11642
4.062 0.270 1.360 9045
4.065 0.270 1.348 5425
4.061 0.270 1.334 5680
4.072 0.270 1.324 5254
4.083 0.271 1.315 6268
4.087 0.271 1.303 7548
4.098 0.272 1.294 6524
4.063 0.270 1.271 4768
4.135 0.275 1.278 4389
4.138 0.275 1.266 5065
4.134 0.274 1.252 5309
4.130 0.274 1.238 4846
6.029 0.400 1.751 846
4.125 0.274 1.224 4532
6.064 0.403 1.742 1797
6.053 0.402 1.720 3149
4.121 0.274 1.210 3128
5.870 0.390 1.672 795
6.050 0.402 1.700 5171
4.101 0.272 1.193 1907
5.905 0.392 1.663 893
6.055 0.402 1.683 5328
4.134 0.275 1.189 2552
5.879 0.390 1.638 763
6.075 0.403 1.669 5925
4.153 0.276 1.181 3552
5.876 0.390 1.619 1256
6.079 0.404 1.652 6069
4.156 0.276 1.169 2496
5.864 0.389 1.598 2174
5.719 0.380 1.561 827
6.091 0.404 1.636 3714
5.869 0.390 1.581 1577
4.151 0.276 1.155 1264
6.111 0.406 1.622 4617
5.850 0.388 1.558 1212
4.154 0.276 1.143 1189
6.107 0.406 1.602 5259
5.846 0.388 1.539 1742
6.253 0.415 1.638 903
4.165 0.277 1.133 896
6.119 0.406 1.586 4758
5.858 0.389 1.524 2409
6.265 0.416 1.621 1061
6.131 0.407 1.571 4612
5.854 0.389 1.505 3821
6.277 0.417 1.605 918
5.835 0.387 1.483 6277
6.135 0.407 1.553 4435
5.981 0.397 1.517 1833
6.635 0.441 1.669 1748
5.839 0.388 1.466 7062
6.139 0.408 1.535 3940
6.648 0.441 1.652 2347
5.985 0.397 1.500 1662
5.843 0.388 1.449 5261
6.143 0.408 1.517 2613
6.660 0.442 1.634 2207
5.989 0.398 1.482 1816
5.839 0.388 1.430 4098
6.672 0.443 1.616 2964
5.986 0.397 1.463 2527
6.140 0.408 1.498 1863
5.843 0.388 1.414 3187
6.676 0.443 1.597 2959
5.989 0.398 1.446 2645
7.386 0.490 1.753 2027
6.673 0.443 1.576 2781
5.978 0.397 1.425 2278
7.390 0.491 1.732 1870
5.831 0.387 1.393 1798
7.403 0.492 1.712 2935
6.677 0.443 1.557 2258
5.966 0.396 1.404 1513
7.001 0.465 1.626 1398
7.415 0.492 1.692 3848
7.005 0.465 1.606 1677
7.678 0.510 1.748 1350
6.689 0.444 1.539 1200
7.420 0.493 1.671 2281
7.768 0.516 1.743 1856
7.621 0.506 1.712 1191
7.002 0.465 1.584 1140
7.765 0.516 1.719 2229
7.416 0.492 1.647 1525
7.618 0.506 1.689 1246
5.954 0.395 1.348 1105
7.808 0.518 1.704 3167
7.428 0.493 1.628 1800
7.630 0.507 1.668 1265
5.949 0.395 1.329 982
7.805 0.518 1.680 3724
7.456 0.495 1.611 1972
7.650 0.508 1.649 1214
7.952 0.528 1.709 1178
7.817 0.519 1.659 5295
7.476 0.496 1.592 1756
7.964 0.529 1.688 1393
5.972 0.397 1.297 908
7.821 0.519 1.636 6171
7.969 0.529 1.664 986
7.464 0.496 1.567 982
8.194 0.544 1.708 851
7.826 0.520 1.613 5257
8.206 0.545 1.685 1350
7.973 0.529 1.641 1205
8.400 0.558 1.722 920
7.830 0.520 1.591 4294
7.977 0.530 1.618 3130
8.203 0.545 1.660 1820
8.404 0.558 1.698 1503
7.974 0.529 1.593 5635
7.826 0.520 1.566 2454
8.417 0.559 1.675 1904
8.207 0.545 1.636 1819
7.986 0.530 1.572 6024
8.211 0.545 1.612 2750
7.838 0.520 1.545 2496
8.429 0.560 1.652 1740
8.216 0.545 1.589 4042
7.998 0.531 1.550 3440
7.850 0.521 1.524 1733
8.612 0.572 1.659 1649
8.228 0.546 1.566 3530
8.609 0.572 1.633 2604
8.757 0.581 1.658 1652
8.002 0.531 1.527 1288
8.605 0.571 1.606 2993
9.010 0.598 1.676 2038
8.239 0.547 1.543 1999
8.753 0.581 1.632 1962
8.711 0.578 1.598 3200
9.015 0.599 1.649 2229
8.563 0.569 1.573 1623
8.236 0.547 1.518 1327
8.590 0.570 1.552 2656
8.754 0.581 1.579 2550
8.949 0.594 1.612 2139
8.232 0.547 1.493 1478
8.594 0.571 1.527 2742
8.766 0.582 1.555 2443
8.961 0.595 1.587 2029
8.236 0.547 1.469 1262
8.778 0.583 1.531 2718
8.630 0.573 1.507 2615
8.981 0.596 1.563 1610
8.481 0.563 1.484 1261
8.782 0.583 1.505 2624
8.579 0.570 1.474 2065
8.977 0.596 1.536 1055
8.739 0.580 1.473 3118
8.583 0.570 1.449 2623
8.887 0.590 1.495 1419
8.435 0.560 1.426 1019
8.735 0.580 1.446 3465
8.587 0.570 1.424 2569
8.415 0.559 1.398 1536
8.883 0.590 1.468 829
8.543 0.567 1.392 2550
8.747 0.581 1.422 2005
8.395 0.557 1.370 1351
8.563 0.569 1.369 3036
8.328 0.553 1.335 1714
8.774 0.583 1.400 1495
8.574 0.569 1.345 3891
8.332 0.553 1.311 1807
8.762 0.582 1.372 1367
8.578 0.570 1.320 3594
8.429 0.560 1.300 2195
8.750 0.581 1.344 989
8.280 0.550 1.279 780
8.393 0.557 1.270 3557
8.581 0.570 1.296 2626
8.396 0.557 1.246 4124
8.569 0.569 1.269 2386
8.392 0.557 1.220 3678
8.564 0.569 1.243 2830
8.410 0.558 1.198 4064
8.567 0.569 1.218 2720
8.414 0.559 1.173 4822
8.570 0.569 1.193 1763
8.393 0.557 1.146 5244
8.589 0.570 1.170 1015
8.412 0.559 1.123 4199
8.469 0.562 1.105 3585
8.320 0.552 1.088 930
8.775 0.583 1.140 879
8.480 0.563 1.082 2175
8.331 0.553 1.065 1061
8.786 0.583 1.116 1018
8.388 0.557 1.047 1523
8.648 0.574 1.075 863
9.134 0.607 1.128 756
8.415 0.559 1.025 1594
8.635 0.573 1.048 1072
8.417 0.559 1.000 1952
8.645 0.574 1.024 969
8.420 0.559 0.976 1790
9.151 0.608 1.049 924
8.422 0.559 0.951 965
8.697 0.577 0.978 933
11.992 0.796 1.298 812
9.145 0.607 1.022 790
8.700 0.578 0.953 957
11.987 0.796 1.262 924
8.983 0.596 0.979 905
8.993 0.597 0.954 917
9.011 0.598 0.929 796
12.377 0.822 1.154 929
9.023 0.599 0.877 814
12.372 0.821 1.117 1385
12.963 0.861 1.164 1164
9.026 0.599 0.851 1075
12.375 0.822 1.081 1580
12.966 0.861 1.126 1558
9.020 0.599 0.824 1193
12.115 0.804 1.061 996
12.969 0.861 1.088 1736
12.370 0.821 1.044 1571
12.126 0.805 1.026 1181
9.030 0.600 0.799 933
12.971 0.861 1.050 1656
12.365 0.821 1.008 1374
12.105 0.804 0.989 1351
12.966 0.861 1.012 1675
12.107 0.804 0.954 1464
12.351 0.820 0.971 1006
14.196 0.943 1.095 957
12.976 0.862 0.975 1906
14.190 0.942 1.053 1463
12.125 0.805 0.920 1144
12.987 0.862 0.937 2103
14.193 0.942 1.012 1659
12.127 0.805 0.884 912
12.989 0.862 0.900 1800
14.195 0.943 0.971 1468
12.999 0.863 0.862 1395
12.258 0.814 0.821 1020
14.206 0.943 0.930 979
12.970 0.861 0.823 1314
12.267 0.815 0.785 1103
13.011 0.864 0.787 1555
12.277 0.815 0.750 793
13.013 0.864 0.749 1752
14.212 0.944 0.805 776
13.014 0.864 0.711 1162
14.214 0.944 0.764 872
14.216 0.944 0.722 772
2.265 0.143 1.727 2766
2.387 0.151 1.814 915
2.269 0.144 1.720 5532
2.392 0.151 1.807 2330
2.274 0.144 1.714 5532
2.397 0.152 1.801 2830
2.350 0.149 1.757 4853
2.472 0.157 1.844 2480
2.348 0.149 1.746 5292
2.471 0.156 1.832 3539
2.450 0.155 1.807 5318
2.327 0.147 1.721 3471
2.455 0.155 1.800 6913
2.331 0.148 1.714 2321
2.460 0.156 1.793 6913
2.336 0.148 1.708 2321
2.471 0.156 1.790 7274
2.347 0.149 1.706 2342
2.482 0.157 1.788 7780
2.358 0.149 1.703 2085
2.507 0.159 1.794 7004
2.376 0.150 1.705 1786
2.518 0.159 1.791 6611
2.387 0.151 1.703 1468
2.543 0.161 1.797 6973
2.398 0.152 1.701 1459
2.547 0.161 1.790 7839
2.409 0.153 1.698 1487
2.552 0.162 1.783 7839
2.414 0.153 1.691 1087
2.550 0.161 1.771 9154
2.542 0.161 1.755 10867
2.547 0.161 1.748 10448
2.673 0.169 1.829 775
2.545 0.161 1.736 10066
2.671 0.169 1.817 1130
2.536 0.161 1.720 7461
2.663 0.169 1.801 1905
2.109 0.134 1.448 946
2.614 0.165 1.760 6944
2.487 0.157 1.679 3123
2.113 0.134 1.442 945
2.619 0.166 1.752 7979
2.492 0.158 1.672 2885
2.117 0.134 1.436 944
2.623 0.166 1.745 9014
2.496 0.158 1.665 2646
2.628 0.166 1.737 7824
2.501 0.158 1.658 2349
2.756 0.174 1.816 905
2.572 0.163 1.692 7057
2.713 0.172 1.779 3678
2.570 0.163 1.681 5986
2.698 0.171 1.759 4231
2.669 0.169 1.731 5447
2.541 0.161 1.653 3597
2.797 0.177 1.809 873
2.694 0.171 1.736 5490
2.565 0.162 1.658 3051
2.822 0.179 1.813 871
2.705 0.171 1.732 5873
2.577 0.163 1.655 1431
2.834 0.179 1.809 1185
2.710 0.172 1.724 6031
2.839 0.180 1.801 1872
2.506 0.159 1.603 1080
2.721 0.172 1.720 6223
2.851 0.180 1.797 2364
2.524 0.160 1.603 972
2.719 0.172 1.709 5191
2.849 0.180 1.785 2112
2.703 0.171 1.689 4420
2.833 0.179 1.765 1887
2.701 0.171 1.677 4231
2.851 0.181 1.765 1993
2.705 0.171 1.669 3563
2.863 0.181 1.760 2265
2.861 0.181 1.748 3033
2.710 0.172 1.662 2741
2.490 0.158 1.536 772
2.991 0.189 1.823 755
2.872 0.182 1.744 4031
2.742 0.174 1.669 1915
3.003 0.190 1.818 893
2.488 0.157 1.525 766
2.891 0.183 1.743 4563
2.753 0.174 1.665 1385
2.492 0.158 1.518 767
2.902 0.184 1.739 5061
2.764 0.175 1.661 1172
3.033 0.192 1.813 930
2.921 0.185 1.738 5975
2.789 0.177 1.665 1203
3.052 0.193 1.812 776
2.925 0.185 1.730 5659
2.794 0.177 1.657 1230
3.057 0.194 1.803 889
3.006 0.190 1.763 5811
2.819 0.178 1.661 1439
3.011 0.191 1.755 6553
2.837 0.180 1.660 1245
3.015 0.191 1.746 9415
2.842 0.180 1.652 1013
3.020 0.191 1.738 11536
2.839 0.180 1.640 905
3.025 0.191 1.729 12739
2.844 0.180 1.632 874
3.022 0.191 1.716 13973
2.855 0.181 1.627 778
3.034 0.192 1.711 15677
3.046 0.193 1.706 17073
3.050 0.193 1.698 16250
3.055 0.193 1.689 14388
3.188 0.202 1.758 805
3.052 0.193 1.676 16759
3.186 0.202 1.745 1320
3.057 0.194 1.668 20867
3.190 0.202 1.736 1460
3.061 0.194 1.659 20102
3.195 0.202 1.727 1911
3.065 0.194 1.650 16907
3.200 0.203 1.718 2606
3.334 0.211 1.785 832
3.070 0.194 1.641 14477
3.204 0.203 1.708 3105
3.339 0.211 1.775 1088
3.067 0.194 1.629 12580
3.202 0.203 1.696 5094
3.336 0.211 1.762 1499
3.071 0.194 1.620 9631
3.206 0.203 1.686 5535
3.341 0.212 1.753 1453
3.069 0.194 1.608 8493
3.204 0.203 1.674 4559
3.339 0.211 1.739 2138
3.158 0.200 1.640 8572
3.329 0.211 1.723 4579
3.023 0.191 1.575 1696
3.163 0.200 1.631 9814
3.355 0.212 1.724 6388
3.027 0.192 1.566 1248
3.490 0.221 1.789 967
3.167 0.201 1.622 9760
3.367 0.213 1.717 7306
3.502 0.222 1.782 1219
3.003 0.190 1.544 1101
3.178 0.201 1.616 7733
3.379 0.214 1.711 6921
3.514 0.222 1.775 1498
2.993 0.189 1.529 1173
3.383 0.214 1.701 8615
3.190 0.202 1.611 4651
3.519 0.223 1.765 1772
2.990 0.189 1.517 1248
3.402 0.215 1.698 8718
3.187 0.202 1.598 3962
3.538 0.224 1.762 1519
3.051 0.193 1.535 1315
3.421 0.217 1.695 7794
3.206 0.203 1.596 4998
3.055 0.193 1.526 2005
3.557 0.225 1.758 1674
3.425 0.217 1.685 6021
3.203 0.203 1.583 4471
3.576 0.226 1.755 3068
3.030 0.192 1.504 2681
3.581 0.227 1.744 4649
3.379 0.214 1.653 3586
3.027 0.192 1.492 3231
3.200 0.203 1.571 2797
3.586 0.227 1.734 4589
3.024 0.191 1.480 3605
3.449 0.218 1.672 3007
3.204 0.203 1.561 1060
3.612 0.229 1.733 4228
3.439 0.218 1.656 3488
3.028 0.192 1.471 2588
3.638 0.230 1.732 4060
3.436 0.218 1.643 3423
3.024 0.191 1.459 1737
3.664 0.232 1.732 3136
3.426 0.217 1.626 2883
3.035 0.192 1.454 1145
3.626 0.230 1.702 3768
3.763 0.238 1.762 1481
3.437 0.218 1.620 1268
3.630 0.230 1.692 5722
3.768 0.239 1.751 1903
3.492 0.221 1.632 900
3.635 0.230 1.681 6567
3.773 0.239 1.741 1914
3.632 0.230 1.667 5263
3.770 0.239 1.727 1592
3.709 0.235 1.688 3758
3.847 0.244 1.746 1776
3.571 0.226 1.629 1348
3.714 0.235 1.677 4827
3.852 0.244 1.735 2667
3.575 0.226 1.619 1424
3.747 0.237 1.679 5401
3.587 0.227 1.612 1614
3.886 0.246 1.736 1306
3.766 0.238 1.674 6263
3.598 0.228 1.604 1778
3.905 0.247 1.731 902
3.778 0.239 1.666 5969
3.617 0.229 1.600 1328
3.917 0.248 1.723 925
3.782 0.239 1.655 4757
3.922 0.248 1.712 991
3.643 0.231 1.599 969
3.875 0.245 1.680 5177
3.736 0.236 1.624 975
3.887 0.246 1.671 9136
3.891 0.246 1.660 8872
3.903 0.247 1.652 7923
3.922 0.248 1.646 9459
3.926 0.249 1.635 8515
3.931 0.249 1.624 6153
3.905 0.247 1.601 4227
3.954 0.250 1.607 4038
3.958 0.251 1.595 6282
3.955 0.250 1.581 7069
3.959 0.251 1.570 5383
3.964 0.251 1.558 4203
3.983 0.252 1.552 4647
3.994 0.253 1.543 4245
3.991 0.253 1.529 4148
3.995 0.253 1.518 6822
4.006 0.254 1.509 8194
4.010 0.254 1.497 9630
4.014 0.254 1.485 13556
4.018 0.254 1.474 14092
4.029 0.255 1.465 10427
4.033 0.255 1.453 6015
4.037 0.256 1.442 4739
4.041 0.256 1.430 4265
4.045 0.256 1.418 5299
4.041 0.256 1.404 7322
4.052 0.257 1.395 5467
4.056 0.257 1.383 5407
4.059 0.257 1.371 8784
4.063 0.257 1.360 8120
4.066 0.257 1.348 4720
4.062 0.257 1.334 4462
4.066 0.257 1.322 4422
4.077 0.258 1.313 3418
4.088 0.259 1.303 4607
4.091 0.259 1.291 5516
4.072 0.258 1.273 4931
4.121 0.261 1.274 4543
4.131 0.262 1.264 5407
4.135 0.262 1.252 5346
4.130 0.261 1.238 5344
4.118 0.261 1.222 7081
6.027 0.382 1.731 1389
4.114 0.260 1.208 5803
6.047 0.383 1.718 2379
4.155 0.263 1.207 3533
6.051 0.383 1.700 3502
5.853 0.371 1.649 1105
6.048 0.383 1.681 4550
4.158 0.263 1.195 3704
5.857 0.371 1.632 1286
6.068 0.384 1.667 5071
4.146 0.262 1.179 4078
5.854 0.371 1.613 1508
5.708 0.361 1.576 797
6.080 0.385 1.652 4350
4.164 0.264 1.171 3115
5.858 0.371 1.596 2319
5.712 0.362 1.559 1535
6.100 0.386 1.638 2506
5.862 0.371 1.579 2105
5.716 0.362 1.543 1396
4.175 0.264 1.160 1313
6.120 0.387 1.624 3512
5.851 0.370 1.558 2119
4.155 0.263 1.143 834
6.101 0.386 1.600 4260
5.840 0.370 1.537 2817
6.113 0.387 1.585 3781
5.852 0.370 1.522 3746
5.856 0.371 1.505 5727
6.125 0.388 1.569 3619
5.844 0.370 1.485 8766
6.137 0.389 1.553 3477
5.990 0.379 1.519 1400
6.637 0.420 1.669 1242
5.840 0.370 1.466 9877
6.141 0.389 1.535 2995
5.987 0.379 1.500 1778
6.641 0.420 1.650 1573
5.844 0.370 1.449 7299
5.991 0.379 1.482 2232
6.137 0.389 1.515 2225
6.646 0.421 1.631 1748
5.840 0.370 1.430 5700
5.987 0.379 1.463 3153
6.658 0.421 1.613 2414
6.141 0.389 1.498 1674
5.844 0.370 1.414 4592
5.991 0.379 1.446 3141
6.670 0.422 1.595 2214
7.387 0.468 1.753 2180
5.848 0.370 1.397 3060
5.994 0.380 1.428 2546
7.384 0.467 1.730 2049
6.674 0.423 1.576 1938
7.404 0.469 1.712 3122
5.859 0.371 1.381 2144
6.678 0.423 1.557 1586
6.995 0.443 1.624 1568
7.417 0.470 1.692 4064
6.999 0.443 1.604 1818
5.870 0.372 1.366 1662
7.633 0.483 1.738 1425
7.421 0.470 1.671 2432
7.769 0.492 1.743 1935
7.622 0.483 1.712 1838
6.996 0.443 1.582 1394
7.766 0.492 1.719 2402
7.619 0.482 1.689 2046
7.426 0.470 1.649 1472
6.992 0.443 1.560 1094
7.809 0.494 1.704 3121
7.639 0.484 1.670 2187
7.430 0.470 1.628 1792
5.982 0.379 1.335 1056
7.783 0.493 1.675 3614
7.457 0.472 1.611 2020
7.636 0.483 1.646 1850
7.938 0.503 1.706 1191
7.811 0.494 1.657 5456
7.477 0.473 1.592 1765
7.958 0.504 1.686 1445
7.656 0.485 1.627 1402
7.815 0.495 1.634 6679
8.195 0.519 1.708 1178
7.962 0.504 1.663 1075
7.466 0.473 1.567 1028
7.819 0.495 1.612 5969
8.208 0.520 1.685 1895
7.967 0.504 1.640 1313
8.402 0.532 1.722 768
7.831 0.496 1.591 5211
7.979 0.505 1.618 2766
8.204 0.519 1.660 2462
8.406 0.532 1.698 1264
7.975 0.505 1.593 4628
7.828 0.496 1.566 3254
8.209 0.520 1.636 2276
8.418 0.533 1.675 1627
7.995 0.506 1.573 4748
8.213 0.520 1.612 3390
7.847 0.497 1.546 3130
8.431 0.534 1.652 1279
8.217 0.520 1.589 5172
7.999 0.506 1.550 2727
7.852 0.497 1.524 1892
8.614 0.545 1.659 1540
8.229 0.521 1.566 4474
8.611 0.545 1.633 2548
8.758 0.554 1.658 1568
8.003 0.507 1.527 1204
8.607 0.545 1.606 2843
8.241 0.522 1.543 2485
9.012 0.571 1.676 1899
7.852 0.497 1.477 1706
8.705 0.551 1.597 2889
9.016 0.571 1.649 1895
8.245 0.522 1.519 1676
7.848 0.497 1.452 1561
8.584 0.543 1.551 2540
8.764 0.555 1.581 2409
8.234 0.521 1.493 1983
8.951 0.567 1.612 1791
8.588 0.544 1.526 2969
8.776 0.556 1.556 2240
8.237 0.522 1.469 1744
8.955 0.567 1.586 1643
8.639 0.547 1.509 3293
8.787 0.556 1.532 2225
8.983 0.569 1.563 1361
8.491 0.538 1.485 1318
8.581 0.543 1.474 2387
8.784 0.556 1.505 2164
8.979 0.568 1.536 896
8.585 0.543 1.449 2610
8.749 0.554 1.474 2608
8.397 0.532 1.420 1199
8.897 0.563 1.497 875
8.737 0.553 1.446 2781
8.588 0.544 1.424 2326
8.409 0.532 1.397 1794
8.522 0.540 1.388 1932
8.326 0.527 1.360 1706
8.725 0.552 1.418 1521
8.330 0.527 1.335 2296
8.557 0.542 1.368 2219
8.705 0.551 1.390 1114
8.568 0.542 1.344 3108
8.333 0.528 1.311 2471
8.717 0.552 1.365 971
8.352 0.529 1.289 2786
8.571 0.543 1.319 2558
8.395 0.531 1.270 4350
8.567 0.542 1.293 1459
8.390 0.531 1.245 4607
8.547 0.541 1.265 1482
8.393 0.531 1.220 3978
8.566 0.542 1.243 1752
8.412 0.533 1.198 4292
8.569 0.542 1.218 1559
8.415 0.533 1.173 5007
8.580 0.543 1.194 1071
8.395 0.531 1.146 5868
8.398 0.532 1.122 4901
8.385 0.531 1.095 3413
8.534 0.540 1.113 1071
8.387 0.531 1.071 2593
8.537 0.540 1.088 964
8.382 0.531 1.046 2051
8.649 0.548 1.075 931
8.401 0.532 1.023 1917
8.644 0.547 1.049 1127
8.411 0.532 0.999 2253
8.647 0.547 1.024 1019
8.421 0.533 0.976 2069
9.152 0.579 1.049 1016
8.681 0.550 1.002 846
9.003 0.570 1.034 777
8.416 0.533 0.951 1230
8.699 0.551 0.978 1096
8.998 0.570 1.007 957
9.147 0.579 1.022 860
8.992 0.569 0.980 1156
8.701 0.551 0.953 1104
8.987 0.569 0.953 1335
8.981 0.569 0.926 1549
8.984 0.569 0.900 1373
9.002 0.570 0.876 1163
12.962 0.821 1.202 965
12.965 0.821 1.164 1534
9.012 0.571 0.850 1011
12.375 0.783 1.117 984
12.968 0.821 1.126 2056
12.370 0.783 1.080 1146
9.266 0.587 0.843 919
9.014 0.571 0.824 865
12.971 0.821 1.088 2271
12.120 0.767 1.026 1200
12.372 0.783 1.044 1099
9.268 0.587 0.816 1048
12.974 0.821 1.050 2247
12.115 0.767 0.990 1488
12.367 0.783 1.008 979
9.262 0.586 0.789 970
12.969 0.821 1.012 2290
12.109 0.767 0.954 1471
12.354 0.782 0.971 813
12.979 0.822 0.975 2399
12.262 0.776 0.928 1318
14.193 0.899 1.053 1001
12.112 0.767 0.919 948
12.989 0.822 0.937 2531
12.264 0.776 0.893 1582
14.196 0.899 1.012 1094
12.992 0.822 0.900 2313
12.266 0.777 0.857 1599
14.206 0.899 0.971 955
12.994 0.823 0.862 1978
12.268 0.777 0.821 1190
12.972 0.821 0.823 2100
14.282 0.904 0.892 800
12.278 0.777 0.786 767
13.006 0.823 0.786 2092
14.292 0.905 0.851 820
13.007 0.823 0.749 2296
14.207 0.899 0.805 809
13.009 0.824 0.711 1595
14.201 0.899 0.763 840
13.027 0.825 0.673 1101
14.203 0.899 0.722 761
13.036 0.825 0.636 785
2.272 0.134 1.731 2669
2.277 0.134 1.725 5339
2.399 0.141 1.812 1257
2.281 0.134 1.718 5339
2.442 0.144 1.833 1721
2.292 0.135 1.716 3955
2.447 0.144 1.826 2567
2.355 0.138 1.750 3615
2.478 0.146 1.837 3049
2.451 0.144 1.807 4918
2.327 0.137 1.721 2350
2.455 0.144 1.800 6421
2.332 0.137 1.714 1920
2.460 0.145 1.793 6421
2.337 0.137 1.708 1920
2.472 0.145 1.790 6660
2.348 0.138 1.706 2067
2.483 0.146 1.788 7095
2.359 0.139 1.703 2007
2.507 0.147 1.794 7199
2.376 0.140 1.705 1670
2.512 0.148 1.787 7458
2.387 0.140 1.703 1486
2.524 0.148 1.784 7176
2.399 0.141 1.701 1503
2.535 0.149 1.781 7075
2.410 0.142 1.698 1573
2.540 0.149 1.774 7075
2.414 0.142 1.691 1133
2.538 0.149 1.762 8169
2.536 0.149 1.751 9300
2.534 0.149 1.739 9486
2.660 0.156 1.821 929
2.539 0.149 1.732 9717
2.665 0.157 1.813 1236
2.106 0.124 1.454 799
2.530 0.149 1.716 8412
2.657 0.156 1.797 2163
2.110 0.124 1.448 1108
2.528 0.149 1.705 7562
2.655 0.156 1.785 3103
2.107 0.124 1.438 1163
2.619 0.154 1.752 7573
2.492 0.146 1.672 3637
2.111 0.124 1.432 1233
2.624 0.154 1.745 8568
2.497 0.147 1.665 3353
2.115 0.124 1.426 927
2.636 0.155 1.741 7799
2.508 0.147 1.662 3539
2.566 0.151 1.688 8006
2.694 0.158 1.767 3913
2.571 0.151 1.681 6662
2.699 0.159 1.759 4374
2.663 0.157 1.727 6049
2.535 0.149 1.649 3599
2.791 0.164 1.805 917
2.701 0.159 1.740 5247
2.573 0.151 1.662 3436
2.830 0.166 1.817 784
2.713 0.159 1.736 5431
2.584 0.152 1.659 1574
2.842 0.167 1.813 1181
2.717 0.160 1.728 5526
2.846 0.167 1.805 1887
2.507 0.147 1.603 1092
2.736 0.161 1.728 5849
2.865 0.168 1.805 2068
2.525 0.148 1.603 1002
2.740 0.161 1.721 5294
2.870 0.169 1.797 1975
2.529 0.149 1.596 793
2.711 0.159 1.693 4809
2.840 0.167 1.769 2007
2.702 0.159 1.677 4708
2.852 0.168 1.765 2167
2.699 0.159 1.665 4092
2.864 0.168 1.760 2415
2.786 0.164 1.705 3965
2.916 0.171 1.780 1201
2.873 0.169 1.744 3697
2.742 0.161 1.669 2559
2.891 0.170 1.743 3970
2.754 0.162 1.665 1725
2.896 0.170 1.735 4478
2.751 0.162 1.654 1496
3.027 0.178 1.809 995
2.908 0.171 1.731 5149
2.742 0.161 1.638 1345
3.039 0.179 1.804 1128
2.919 0.172 1.726 4612
2.788 0.164 1.653 1360
3.051 0.179 1.799 1182
3.007 0.177 1.763 4887
2.813 0.165 1.657 1694
3.012 0.177 1.755 5952
2.831 0.166 1.656 1492
3.016 0.177 1.746 9257
2.884 0.170 1.675 1015
3.021 0.178 1.738 11498
2.889 0.170 1.666 755
3.019 0.177 1.725 13324
3.023 0.178 1.716 15180
2.891 0.170 1.646 813
3.035 0.178 1.711 16643
2.902 0.171 1.641 892
3.046 0.179 1.706 17743
2.871 0.169 1.615 842
3.051 0.179 1.698 16784
2.897 0.170 1.617 783
3.056 0.180 1.689 14610
3.189 0.187 1.758 759
3.053 0.179 1.676 16354
3.187 0.187 1.745 1247
3.057 0.180 1.668 20104
3.191 0.188 1.736 1359
3.062 0.180 1.659 19688
3.196 0.188 1.727 1846
3.066 0.180 1.650 17176
3.201 0.188 1.718 2511
3.335 0.196 1.785 910
3.071 0.180 1.641 15081
3.205 0.188 1.708 2927
3.340 0.196 1.775 1103
3.075 0.181 1.632 13025
3.210 0.189 1.699 4557
3.344 0.197 1.766 1180
3.065 0.180 1.617 9837
3.200 0.188 1.683 5150
3.335 0.196 1.749 1210
3.070 0.180 1.608 8596
3.205 0.188 1.674 4225
3.340 0.196 1.739 2073
3.159 0.186 1.640 8649
3.330 0.196 1.723 4413
3.024 0.178 1.575 1753
3.465 0.204 1.788 756
3.164 0.186 1.631 10136
3.349 0.197 1.720 6282
3.028 0.178 1.566 1463
3.491 0.205 1.789 1337
3.168 0.186 1.622 10040
3.361 0.198 1.714 7138
3.496 0.205 1.779 1726
3.011 0.177 1.547 1211
3.179 0.187 1.616 7763
3.365 0.198 1.704 6735
3.501 0.206 1.769 2275
2.994 0.176 1.529 1101
3.377 0.198 1.698 8134
3.191 0.188 1.611 5023
3.513 0.206 1.762 2801
3.005 0.177 1.523 1162
3.403 0.200 1.698 8553
3.188 0.187 1.598 5581
3.539 0.208 1.762 2162
3.052 0.179 1.535 1668
3.422 0.201 1.695 8325
3.199 0.188 1.592 7320
3.056 0.180 1.526 2154
3.558 0.209 1.758 2135
3.433 0.202 1.689 6711
3.204 0.188 1.583 6675
3.570 0.210 1.751 3493
3.060 0.180 1.517 2213
3.582 0.211 1.744 4921
3.201 0.188 1.571 4424
3.445 0.202 1.682 3737
3.028 0.178 1.492 2321
3.587 0.211 1.734 4754
3.025 0.178 1.480 3401
3.450 0.203 1.672 2891
3.205 0.188 1.561 1914
3.613 0.212 1.733 3968
3.021 0.178 1.468 3477
3.447 0.203 1.659 3405
3.639 0.214 1.732 4608
3.444 0.202 1.646 3364
3.025 0.178 1.459 3051
3.673 0.216 1.735 3730
3.427 0.201 1.626 2677
3.029 0.178 1.451 2581
3.641 0.214 1.708 3814
3.033 0.178 1.442 1908
3.504 0.206 1.648 1213
3.779 0.222 1.769 812
3.631 0.213 1.692 6504
3.769 0.222 1.751 1417
3.037 0.178 1.433 1269
3.636 0.214 1.681 7219
3.774 0.222 1.741 1420
3.048 0.179 1.428 807
3.633 0.214 1.667 5308
3.771 0.222 1.727 1512
3.717 0.218 1.691 3912
3.856 0.227 1.750 1164
3.579 0.210 1.632 1101
3.722 0.219 1.680 4867
3.583 0.211 1.622 1664
3.860 0.227 1.738 1630
3.748 0.220 1.679 5850
3.610 0.212 1.621 2384
3.887 0.228 1.736 1062
3.760 0.221 1.671 6890
3.621 0.213 1.613 2055
3.899 0.229 1.728 877
3.772 0.222 1.663 6717
3.618 0.213 1.600 1637
3.911 0.230 1.720 834
3.776 0.222 1.652 5771
3.630 0.213 1.593 1228
3.915 0.230 1.709 1093
3.869 0.227 1.677 5298
3.641 0.214 1.585 1043
3.888 0.229 1.671 8148
3.748 0.220 1.616 831
3.892 0.229 1.660 7721
3.904 0.229 1.652 7642
3.916 0.230 1.643 9904
3.920 0.230 1.632 8094
3.902 0.229 1.612 5567
3.899 0.229 1.598 4676
3.948 0.232 1.604 3583
3.952 0.232 1.592 4191
3.956 0.233 1.581 5014
3.946 0.232 1.564 5235
3.950 0.232 1.553 4099
3.976 0.234 1.549 4681
3.988 0.234 1.541 4697
3.992 0.235 1.529 4132
3.988 0.234 1.515 6451
4.000 0.235 1.506 7803
4.004 0.235 1.494 9831
4.008 0.236 1.483 14198
4.012 0.236 1.471 13693
4.023 0.236 1.462 9384
4.027 0.237 1.451 6106
4.038 0.237 1.442 6304
4.034 0.237 1.427 6841
4.031 0.237 1.413 8433
4.042 0.238 1.404 9528
4.046 0.238 1.392 5467
4.057 0.238 1.383 3181
4.060 0.239 1.371 5966
4.064 0.239 1.360 7367
4.067 0.239 1.348 5052
4.063 0.239 1.334 3896
4.074 0.239 1.324 3268
4.093 0.241 1.317 1934
4.089 0.240 1.303 3019
4.077 0.240 1.287 4966
4.073 0.239 1.273 4501
4.114 0.242 1.272 4296
4.133 0.243 1.264 4819
4.144 0.244 1.254 4225
4.086 0.240 1.226 4721
4.096 0.241 1.216 7979
6.013 0.353 1.727 1297
5.280 0.310 1.532 868
4.115 0.242 1.208 6905
6.026 0.354 1.712 1700
5.835 0.343 1.662 978
4.156 0.244 1.207 5059
6.030 0.354 1.694 2189
5.847 0.344 1.647 1524
6.012 0.353 1.671 4469
4.159 0.244 1.195 4424
5.859 0.344 1.632 1942
6.157 0.362 1.708 875
6.009 0.353 1.652 5831
4.139 0.243 1.177 3881
5.855 0.344 1.613 2326
5.710 0.336 1.576 1347
6.013 0.353 1.634 4507
4.158 0.244 1.169 3428
5.737 0.337 1.565 3129
6.159 0.362 1.671 1279
5.741 0.337 1.548 3097
6.017 0.354 1.617 2912
6.163 0.362 1.653 1579
4.168 0.245 1.159 1561
5.837 0.343 1.554 2564
6.045 0.355 1.605 2358
4.141 0.243 1.139 1088
6.190 0.364 1.641 976
5.841 0.343 1.537 3607
6.103 0.359 1.600 3165
4.144 0.244 1.127 931
5.845 0.344 1.520 4793
6.115 0.359 1.585 2690
5.849 0.344 1.503 6816
6.126 0.360 1.569 2237
5.846 0.344 1.485 9902
6.138 0.361 1.553 2232
5.992 0.352 1.519 1011
6.639 0.390 1.669 792
5.850 0.344 1.468 11162
6.142 0.361 1.535 1895
5.996 0.352 1.501 1227
6.643 0.390 1.650 1003
5.846 0.344 1.449 8238
5.992 0.352 1.482 2429
6.139 0.361 1.515 1435
6.640 0.390 1.629 1313
5.842 0.343 1.430 6442
5.988 0.352 1.463 3428
6.652 0.391 1.611 1797
7.385 0.434 1.775 1080
5.846 0.344 1.414 5513
5.992 0.352 1.446 3133
7.389 0.434 1.753 2019
6.664 0.392 1.594 1410
5.849 0.344 1.397 3725
5.996 0.352 1.428 2685
7.386 0.434 1.730 1919
6.676 0.392 1.576 1126
7.406 0.435 1.712 2822
5.861 0.344 1.381 2587
6.007 0.353 1.413 1828
6.997 0.411 1.624 1483
7.419 0.436 1.692 3669
5.872 0.345 1.366 2388
7.627 0.448 1.736 1866
7.001 0.412 1.604 1652
7.624 0.448 1.712 2454
7.431 0.437 1.672 2293
7.771 0.457 1.743 1882
5.876 0.345 1.349 1596
7.629 0.448 1.690 2836
7.776 0.457 1.720 2381
7.335 0.431 1.630 1278
6.994 0.411 1.560 1243
7.773 0.457 1.696 3113
7.626 0.448 1.667 2804
7.416 0.436 1.624 1494
5.983 0.352 1.335 953
7.785 0.458 1.675 3717
7.638 0.449 1.646 2489
7.452 0.438 1.609 1802
7.940 0.467 1.706 983
7.790 0.458 1.653 5891
7.642 0.449 1.624 1766
7.472 0.439 1.590 1528
7.937 0.467 1.681 1333
7.802 0.459 1.632 7215
8.197 0.482 1.708 1433
7.654 0.450 1.603 1250
7.949 0.467 1.660 1034
7.814 0.459 1.610 6221
8.210 0.483 1.685 2274
7.969 0.468 1.640 1250
7.231 0.425 1.500 805
7.834 0.460 1.591 5726
8.206 0.482 1.660 2859
7.981 0.469 1.618 2190
8.408 0.494 1.698 926
7.846 0.461 1.569 4376
7.993 0.470 1.596 3185
8.211 0.483 1.636 2538
8.413 0.494 1.673 1275
8.207 0.482 1.611 3600
7.857 0.462 1.548 3432
8.005 0.471 1.574 3201
7.383 0.434 1.462 1449
8.219 0.483 1.589 5463
7.838 0.461 1.521 2029
8.009 0.471 1.551 2005
7.387 0.434 1.441 1564
8.231 0.484 1.566 4702
8.621 0.507 1.634 2374
7.834 0.460 1.497 1630
7.383 0.434 1.418 1437
8.243 0.485 1.543 2670
8.609 0.506 1.606 2610
7.846 0.461 1.475 2298
9.015 0.530 1.676 1594
8.707 0.512 1.597 2408
7.850 0.461 1.452 2034
8.247 0.485 1.519 1886
9.019 0.530 1.649 1527
8.571 0.504 1.548 2586
8.236 0.484 1.493 2307
8.774 0.516 1.582 2117
8.961 0.527 1.613 1364
8.622 0.507 1.531 3479
8.240 0.484 1.469 2095
8.778 0.516 1.556 1919
8.957 0.526 1.586 1261
8.634 0.507 1.507 3803
8.782 0.516 1.531 1739
8.486 0.499 1.484 1625
8.251 0.485 1.446 1284
8.591 0.505 1.475 2854
8.770 0.516 1.503 1581
8.443 0.496 1.452 1062
8.294 0.488 1.428 871
8.579 0.504 1.447 2658
8.751 0.514 1.474 1881
8.399 0.494 1.420 1453
8.614 0.506 1.427 2224
8.411 0.494 1.397 1938
8.763 0.515 1.450 1632
8.321 0.489 1.358 1854
8.626 0.507 1.403 1781
8.477 0.498 1.381 1391
8.774 0.516 1.425 808
8.332 0.490 1.335 2588
8.582 0.504 1.371 1626
8.336 0.490 1.311 3028
8.578 0.504 1.345 2311
8.347 0.491 1.288 3421
8.566 0.503 1.318 1704
8.389 0.493 1.269 5057
8.546 0.502 1.290 849
8.393 0.493 1.245 4896
8.541 0.502 1.264 830
8.244 0.485 1.225 806
8.396 0.493 1.220 3770
8.247 0.485 1.201 1305
8.568 0.504 1.243 881
8.414 0.495 1.198 3755
8.266 0.486 1.179 1317
8.410 0.494 1.172 4573
8.261 0.486 1.154 1007
8.397 0.494 1.146 5938
8.392 0.493 1.121 5272
8.387 0.493 1.095 4023
8.536 0.502 1.113 924
8.382 0.493 1.070 3118
8.531 0.501 1.087 810
8.377 0.492 1.045 2447
8.652 0.509 1.075 920
8.395 0.493 1.022 2262
8.647 0.508 1.049 1123
8.413 0.495 0.999 2462
8.657 0.509 1.025 1037
8.416 0.495 0.975 2246
8.683 0.510 1.002 910
9.006 0.529 1.034 884
8.418 0.495 0.951 1550
8.992 0.529 1.006 1132
8.694 0.511 0.977 1075
8.987 0.528 0.979 1364
8.704 0.512 0.953 1122
8.428 0.495 0.927 814
9.013 0.530 0.955 1138
8.722 0.513 0.929 788
9.039 0.531 0.931 1103
8.630 0.507 0.895 834
12.971 0.762 1.240 837
9.081 0.534 0.908 833
8.774 0.516 0.882 814
12.966 0.762 1.202 1193
9.107 0.535 0.884 997
8.784 0.516 0.857 851
12.969 0.762 1.164 1881
9.109 0.535 0.857 1172
12.972 0.762 1.126 2419
9.119 0.536 0.832 1180
12.121 0.712 1.061 839
12.279 0.722 1.073 805
12.975 0.763 1.088 2631
12.116 0.712 1.025 1173
9.121 0.536 0.805 976
12.273 0.721 1.037 867
12.977 0.763 1.050 2812
12.110 0.712 0.989 1384
9.067 0.533 0.775 926
9.272 0.545 0.789 774
12.972 0.762 1.012 3059
12.113 0.712 0.954 1380
9.053 0.532 0.747 975
12.983 0.763 0.975 2919
9.047 0.532 0.720 1065
12.281 0.722 0.929 924
12.131 0.713 0.920 897
12.985 0.763 0.937 2811
12.275 0.721 0.893 1198
9.057 0.532 0.695 885
14.200 0.835 1.012 755
12.995 0.764 0.900 2586
12.285 0.722 0.858 1327
12.997 0.764 0.862 2166
12.287 0.722 0.822 1187
12.976 0.763 0.823 2169
12.281 0.722 0.786 901
13.009 0.765 0.786 2279
13.011 0.765 0.749 2476
14.211 0.835 0.805 752
13.005 0.764 0.710 1722
13.014 0.765 0.673 1182
13.016 0.765 0.635 791
2.285 0.127 1.740 2712
2.290 0.128 1.734 5425
2.438 0.136 1.840 848
2.294 0.128 1.727 5425
2.443 0.136 1.833 1697
2.299 0.128 1.721 3504
2.448 0.136 1.826 2360
2.459 0.137 1.823 3033
2.336 0.130 1.737 1797
2.451 0.137 1.807 4449
2.328 0.130 1.721 1587
2.456 0.137 1.800 5911
2.332 0.130 1.714 1707
2.461 0.137 1.793 5911
2.337 0.130 1.708 1707
2.466 0.137 1.786 6210
2.341 0.130 1.701 1775
2.483 0.138 1.788 6622
2.353 0.131 1.699 1858
2.495 0.139 1.785 7463
2.370 0.132 1.701 1546
2.500 0.139 1.778 8365
2.375 0.132 1.694 1327
2.517 0.140 1.780 7700
2.392 0.133 1.696 1424
2.522 0.140 1.772 7216
2.397 0.133 1.689 1286
2.527 0.141 1.765 7216
2.401 0.134 1.683 914
2.532 0.141 1.758 7517
2.088 0.116 1.468 823
2.530 0.141 1.746 7788
2.528 0.141 1.735 8612
2.654 0.148 1.816 934
2.526 0.141 1.723 9506
2.652 0.148 1.804 1539
2.100 0.117 1.450 919
2.530 0.141 1.716 9165
2.657 0.148 1.797 1931
2.110 0.118 1.448 1184
2.528 0.141 1.705 8883
2.655 0.148 1.785 2839
2.107 0.117 1.438 1308
2.540 0.141 1.702 7339
2.667 0.149 1.782 3394
2.111 0.118 1.432 1443
2.631 0.147 1.749 8064
2.504 0.139 1.669 4601
2.115 0.118 1.426 1141
2.636 0.147 1.741 7775
2.508 0.140 1.662 4386
2.112 0.118 1.416 843
2.764 0.154 1.821 795
2.560 0.143 1.684 9031
2.688 0.150 1.763 4553
2.564 0.143 1.677 7511
2.692 0.150 1.755 4937
2.657 0.148 1.723 6733
2.528 0.141 1.645 3414
2.785 0.155 1.801 1089
2.655 0.148 1.711 5407
2.526 0.141 1.633 1994
2.783 0.155 1.789 1739
2.720 0.151 1.740 5307
2.591 0.144 1.663 2206
2.849 0.159 1.817 1022
2.732 0.152 1.736 5474
2.603 0.145 1.659 1842
2.861 0.159 1.813 1470
2.743 0.153 1.733 5841
2.872 0.160 1.809 1762
2.614 0.146 1.656 1461
2.748 0.153 1.725 5797
2.877 0.160 1.801 1813
2.618 0.146 1.648 1010
2.752 0.153 1.717 5752
2.882 0.161 1.793 1864
2.547 0.142 1.597 757
2.764 0.154 1.713 5440
2.894 0.161 1.788 1575
2.545 0.142 1.586 818
2.775 0.155 1.709 5275
2.905 0.162 1.784 1197
2.645 0.147 1.634 780
2.780 0.155 1.701 5519
2.910 0.162 1.776 1432
2.798 0.156 1.701 4363
2.928 0.163 1.775 1329
2.667 0.149 1.626 882
2.892 0.161 1.743 3232
2.754 0.153 1.665 1979
2.897 0.161 1.735 3830
2.759 0.154 1.658 1668
3.028 0.169 1.809 810
2.908 0.162 1.731 4443
2.777 0.155 1.657 1548
3.039 0.169 1.804 897
2.913 0.162 1.722 3964
3.044 0.170 1.795 1451
2.781 0.155 1.649 1317
3.014 0.168 1.767 4103
2.834 0.158 1.668 1789
3.019 0.168 1.759 5279
2.887 0.161 1.687 1975
3.017 0.168 1.746 8723
2.885 0.161 1.675 1746
3.015 0.168 1.734 11173
2.882 0.161 1.662 989
3.019 0.168 1.725 13317
2.887 0.161 1.654 1155
3.024 0.168 1.716 15461
2.891 0.161 1.646 1321
3.035 0.169 1.711 16337
2.903 0.162 1.641 1311
3.047 0.170 1.706 17008
2.914 0.162 1.637 926
3.052 0.170 1.698 15930
2.904 0.162 1.621 777
3.056 0.170 1.689 13897
3.054 0.170 1.676 15142
3.187 0.178 1.745 1213
3.058 0.170 1.668 18239
3.192 0.178 1.736 1321
3.062 0.171 1.659 17971
3.197 0.178 1.727 1856
3.067 0.171 1.650 15961
3.201 0.178 1.718 2396
3.335 0.186 1.785 875
3.071 0.171 1.641 14220
3.206 0.179 1.708 2587
3.340 0.186 1.775 1013
3.076 0.171 1.632 12241
3.210 0.179 1.699 3954
3.345 0.186 1.766 953
3.073 0.171 1.620 9112
3.222 0.179 1.693 4638
3.070 0.171 1.608 7947
3.226 0.180 1.684 4093
3.361 0.187 1.750 1289
3.160 0.176 1.640 7925
3.331 0.185 1.723 4203
3.025 0.168 1.575 1676
3.466 0.193 1.788 846
3.164 0.176 1.631 9784
3.342 0.186 1.717 5933
3.485 0.194 1.785 1617
3.029 0.169 1.566 1495
3.161 0.176 1.619 9589
3.347 0.186 1.707 6672
3.497 0.195 1.779 2112
3.026 0.169 1.554 1086
3.180 0.177 1.616 7183
3.351 0.187 1.698 6797
3.502 0.195 1.769 2865
3.044 0.170 1.552 761
3.370 0.188 1.695 7542
3.184 0.177 1.607 5060
3.506 0.195 1.758 3895
3.048 0.170 1.543 983
3.411 0.190 1.702 7788
3.188 0.178 1.598 7330
3.547 0.198 1.765 2671
3.052 0.170 1.535 1640
3.200 0.178 1.592 9895
3.422 0.191 1.695 8451
3.559 0.198 1.758 2719
3.056 0.170 1.526 2032
3.204 0.178 1.583 9260
3.434 0.191 1.689 7249
3.571 0.199 1.751 3677
3.053 0.170 1.514 1995
3.201 0.178 1.571 6601
3.575 0.199 1.741 4685
3.439 0.192 1.679 3882
3.057 0.170 1.505 1606
3.580 0.199 1.731 4535
3.205 0.179 1.561 3321
3.443 0.192 1.669 2773
3.032 0.169 1.483 1378
3.592 0.200 1.724 4087
3.447 0.192 1.659 3429
3.029 0.169 1.471 1667
3.217 0.179 1.555 1319
3.640 0.203 1.732 5141
3.445 0.192 1.646 3356
3.026 0.169 1.459 1790
3.666 0.204 1.732 4314
3.529 0.197 1.671 2662
3.391 0.189 1.610 2074
3.030 0.169 1.451 1806
3.642 0.203 1.708 3932
3.033 0.169 1.442 1706
3.410 0.190 1.607 1152
3.632 0.202 1.692 6558
3.037 0.169 1.433 1439
3.770 0.210 1.751 1021
3.636 0.203 1.681 7322
3.774 0.210 1.741 1166
3.041 0.169 1.425 1018
3.648 0.203 1.674 5599
3.786 0.211 1.733 987
3.711 0.207 1.688 3787
3.730 0.208 1.683 4684
3.591 0.200 1.625 2172
3.868 0.215 1.742 770
3.749 0.209 1.679 6183
3.610 0.201 1.621 3501
3.888 0.217 1.736 922
3.761 0.209 1.671 6957
3.622 0.202 1.613 2198
3.900 0.217 1.728 1179
3.772 0.210 1.663 6765
3.626 0.202 1.603 1287
3.911 0.218 1.720 1083
3.777 0.210 1.652 6314
3.916 0.218 1.709 1494
3.638 0.203 1.596 1291
3.869 0.215 1.677 5880
3.730 0.208 1.621 1216
3.881 0.216 1.669 7503
3.639 0.203 1.572 903
3.886 0.216 1.657 6689
3.746 0.209 1.602 805
3.905 0.217 1.652 6987
3.765 0.210 1.597 908
3.909 0.218 1.641 9702
3.906 0.218 1.627 8455
3.881 0.216 1.604 6102
3.892 0.217 1.596 5308
3.904 0.217 1.587 5340
3.923 0.218 1.581 4648
3.942 0.220 1.576 4807
3.946 0.220 1.564 5945
3.943 0.220 1.550 4722
3.955 0.220 1.541 4626
3.966 0.221 1.533 4934
3.963 0.221 1.519 4767
3.982 0.222 1.512 6025
4.001 0.223 1.506 7066
4.004 0.223 1.494 9381
4.008 0.223 1.483 13779
4.012 0.223 1.471 12919
4.016 0.224 1.460 8420
4.028 0.224 1.451 6362
4.039 0.225 1.442 7810
4.035 0.225 1.427 9949
4.031 0.225 1.413 13105
4.035 0.225 1.402 13009
4.039 0.225 1.390 7080
4.012 0.223 1.369 2423
4.069 0.227 1.374 3593
4.065 0.226 1.360 6738
4.061 0.226 1.346 6372
4.056 0.226 1.332 4429
4.075 0.227 1.324 2554
4.086 0.228 1.315 2139
4.090 0.228 1.303 2879
4.085 0.228 1.289 3858
4.073 0.227 1.273 3705
4.077 0.227 1.261 3990
4.118 0.229 1.260 4494
4.068 0.227 1.234 3920
4.079 0.227 1.224 6043
4.090 0.228 1.214 8559
6.014 0.335 1.727 926
5.281 0.294 1.532 869
5.839 0.325 1.681 767
4.100 0.228 1.204 6662
6.019 0.335 1.710 1331
5.836 0.325 1.662 1235
4.246 0.236 1.243 752
4.172 0.232 1.211 5201
6.024 0.335 1.692 1744
5.840 0.325 1.645 1565
4.027 0.224 1.173 1028
6.005 0.334 1.669 4415
4.168 0.232 1.197 4208
5.860 0.326 1.632 1791
4.015 0.224 1.157 1253
6.010 0.335 1.652 6259
4.125 0.230 1.173 3404
5.734 0.319 1.582 2594
6.155 0.343 1.689 983
6.014 0.335 1.634 5099
5.738 0.320 1.565 4624
4.151 0.231 1.167 3233
4.005 0.223 1.130 1291
5.742 0.320 1.548 4418
6.011 0.335 1.615 3287
4.169 0.232 1.159 2134
4.016 0.224 1.120 1319
5.785 0.322 1.541 3460
4.141 0.231 1.139 2119
6.038 0.336 1.603 1887
6.184 0.344 1.639 973
5.758 0.321 1.517 4386
6.019 0.335 1.580 2045
4.144 0.231 1.127 1510
6.165 0.343 1.615 1436
5.762 0.321 1.500 5984
5.908 0.329 1.535 1946
6.108 0.340 1.583 1623
5.850 0.326 1.503 7236
5.704 0.318 1.469 1130
6.120 0.341 1.567 1027
5.847 0.326 1.485 9635
6.132 0.341 1.551 1032
3.976 0.221 1.050 752
5.851 0.326 1.468 10679
5.997 0.334 1.501 983
6.143 0.342 1.535 893
5.847 0.326 1.449 7829
5.993 0.334 1.482 2176
6.641 0.370 1.629 795
6.140 0.342 1.515 789
5.843 0.325 1.430 6138
5.989 0.334 1.463 3090
6.653 0.371 1.611 1048
5.839 0.325 1.412 5687
5.986 0.333 1.444 2914
7.391 0.412 1.753 1511
5.835 0.325 1.393 3343
5.982 0.333 1.425 2416
7.388 0.411 1.730 1445
6.994 0.389 1.645 1032
5.869 0.327 1.383 2260
7.408 0.413 1.712 2122
6.998 0.390 1.624 1236
7.616 0.424 1.757 1180
7.420 0.413 1.692 2740
5.873 0.327 1.366 2683
7.621 0.424 1.735 2033
6.995 0.390 1.602 1332
7.626 0.425 1.712 2721
5.861 0.326 1.346 2136
7.432 0.414 1.672 1817
7.773 0.433 1.743 1711
7.630 0.425 1.690 3277
7.777 0.433 1.720 2221
5.849 0.326 1.326 1425
7.351 0.409 1.633 1214
7.642 0.426 1.670 3549
7.790 0.434 1.699 2875
7.387 0.411 1.618 1649
5.852 0.326 1.309 1391
7.786 0.434 1.675 3951
7.639 0.425 1.646 2828
7.407 0.412 1.600 1808
5.949 0.331 1.310 1155
7.791 0.434 1.653 6483
7.643 0.426 1.624 1960
7.411 0.413 1.578 1241
5.991 0.334 1.300 901
7.795 0.434 1.630 7507
8.199 0.457 1.708 1469
7.648 0.426 1.602 1381
7.462 0.416 1.566 896
7.807 0.435 1.609 5819
8.211 0.457 1.685 2237
7.233 0.403 1.500 1355
7.970 0.444 1.640 1033
7.835 0.436 1.591 5507
8.208 0.457 1.660 2788
7.983 0.445 1.618 1461
7.237 0.403 1.479 1162
7.847 0.437 1.569 4488
8.212 0.457 1.636 2552
7.995 0.445 1.596 1915
7.373 0.411 1.482 1311
8.209 0.457 1.611 3468
7.859 0.438 1.548 3330
8.007 0.446 1.574 1885
7.384 0.411 1.462 1846
8.213 0.457 1.587 5019
7.832 0.436 1.519 2046
7.388 0.411 1.441 2027
8.011 0.446 1.551 1277
8.233 0.459 1.566 4177
7.836 0.436 1.497 2061
8.638 0.481 1.637 2014
7.384 0.411 1.418 1939
7.847 0.437 1.475 2740
8.253 0.460 1.545 2509
8.658 0.482 1.614 2243
7.388 0.411 1.396 1731
7.851 0.437 1.452 2297
8.701 0.485 1.596 2038
8.249 0.459 1.519 1874
8.553 0.476 1.571 1703
8.557 0.477 1.546 2976
8.237 0.459 1.493 2252
8.705 0.485 1.570 1783
7.847 0.437 1.428 1256
8.623 0.480 1.531 4058
8.241 0.459 1.469 2090
8.780 0.489 1.556 1375
8.475 0.472 1.507 1361
8.635 0.481 1.507 4236
8.487 0.473 1.484 1720
8.253 0.460 1.446 1306
8.784 0.489 1.531 1191
8.600 0.479 1.476 3221
8.311 0.463 1.431 1289
8.772 0.489 1.503 1084
8.573 0.477 1.446 2546
8.299 0.462 1.404 1737
8.745 0.487 1.473 1097
8.624 0.480 1.428 2024
8.412 0.469 1.397 1844
8.264 0.460 1.374 1244
8.772 0.489 1.451 809
8.307 0.463 1.356 2147
8.627 0.480 1.403 1878
8.479 0.472 1.381 1296
8.318 0.463 1.333 2593
8.615 0.480 1.376 1397
8.467 0.472 1.355 859
8.329 0.464 1.310 3144
8.587 0.478 1.347 1608
8.325 0.464 1.285 3836
8.474 0.472 1.305 1283
8.622 0.480 1.326 854
8.391 0.467 1.269 4744
8.394 0.467 1.245 4514
8.245 0.459 1.225 1368
8.397 0.468 1.220 3309
8.248 0.459 1.201 2310
8.408 0.468 1.197 2860
8.259 0.460 1.178 2306
8.403 0.468 1.171 3657
8.254 0.460 1.153 1720
8.398 0.468 1.146 5309
8.249 0.459 1.128 1253
8.394 0.467 1.121 5250
8.244 0.459 1.103 1082
8.388 0.467 1.095 4272
8.239 0.459 1.078 959
8.538 0.475 1.113 790
8.383 0.467 1.070 3271
8.234 0.459 1.053 1039
8.347 0.465 1.042 2739
8.645 0.481 1.074 872
8.389 0.467 1.021 2466
8.239 0.459 1.006 1236
8.648 0.482 1.049 1098
8.407 0.468 0.999 2563
8.258 0.460 0.983 1069
8.659 0.482 1.025 1038
8.417 0.469 0.975 2346
8.677 0.483 1.001 967
8.999 0.501 1.033 884
8.420 0.469 0.951 1942
8.656 0.482 0.973 1129
8.994 0.501 1.006 1003
8.430 0.469 0.927 1164
8.674 0.483 0.950 1117
8.981 0.500 0.979 993
8.629 0.481 0.920 1086
8.952 0.499 0.950 1074
8.631 0.481 0.895 1236
8.954 0.499 0.924 1109
9.104 0.507 0.937 832
8.649 0.482 0.871 972
9.035 0.503 0.904 956
12.973 0.723 1.240 920
12.968 0.722 1.202 1378
9.108 0.507 0.884 945
8.958 0.499 0.872 847
8.691 0.484 0.850 831
12.971 0.722 1.164 2132
8.984 0.500 0.847 1280
9.134 0.509 0.859 888
8.700 0.485 0.825 818
12.974 0.723 1.126 2432
8.994 0.501 0.822 1429
9.270 0.516 0.843 1163
8.702 0.485 0.800 862
12.977 0.723 1.088 2442
8.996 0.501 0.796 1287
9.264 0.516 0.815 1266
12.118 0.675 1.025 1018
12.972 0.722 1.050 2747
9.037 0.503 0.772 1457
9.266 0.516 0.789 1272
12.112 0.675 0.989 1216
12.974 0.723 1.012 3197
9.015 0.502 0.745 1444
12.115 0.675 0.954 1212
9.268 0.516 0.762 836
12.985 0.723 0.975 3094
8.994 0.501 0.717 1368
12.291 0.685 0.930 752
12.995 0.724 0.937 2897
8.995 0.501 0.691 1231
12.285 0.684 0.894 1023
12.997 0.724 0.900 2762
12.287 0.684 0.858 1188
9.139 0.509 0.673 1010
8.989 0.501 0.664 915
12.992 0.724 0.861 2244
12.289 0.684 0.822 1142
9.140 0.509 0.646 963
12.978 0.723 0.823 2200
12.283 0.684 0.786 952
9.142 0.509 0.620 820
13.004 0.724 0.786 1996
9.143 0.509 0.593 954
13.013 0.725 0.749 2083
9.160 0.510 0.567 1192
12.999 0.724 0.710 1546
9.161 0.510 0.541 1299
13.001 0.724 0.672 1142
9.163 0.510 0.514 1136
13.010 0.725 0.635 791
2.292 0.121 1.745 2973
2.297 0.121 1.738 5946
2.432 0.128 1.835 755
2.301 0.121 1.732 5946
2.437 0.128 1.828 1510
2.312 0.122 1.730 4290
2.448 0.129 1.826 1841
2.349 0.124 1.746 3976
2.472 0.130 1.832 2069
2.451 0.129 1.807 3481
2.328 0.123 1.721 2416
2.450 0.129 1.796 4847
2.326 0.123 1.710 1890
2.455 0.129 1.789 4847
2.331 0.123 1.703 1890
2.466 0.130 1.786 5233
2.335 0.123 1.697 1764
2.477 0.131 1.783 5696
2.346 0.124 1.694 1688
2.495 0.132 1.785 7100
2.364 0.125 1.697 1458
2.500 0.132 1.778 8576
2.375 0.125 1.694 1368
2.511 0.132 1.775 8130
2.386 0.126 1.692 1229
2.523 0.133 1.772 7770
2.397 0.126 1.689 1208
2.527 0.133 1.765 7770
2.402 0.127 1.683 919
2.091 0.110 1.478 756
2.526 0.133 1.754 7327
2.089 0.110 1.468 999
2.517 0.133 1.738 6946
2.093 0.110 1.462 935
2.643 0.139 1.820 754
2.522 0.133 1.731 8081
2.648 0.140 1.812 1003
2.096 0.110 1.456 871
2.526 0.133 1.723 9177
2.653 0.140 1.804 1311
2.100 0.111 1.450 991
2.531 0.133 1.716 9549
2.658 0.140 1.797 1717
2.111 0.111 1.448 1119
2.529 0.133 1.705 9937
2.656 0.140 1.785 2567
2.108 0.111 1.438 1323
2.533 0.134 1.697 8412
2.661 0.140 1.777 3624
2.105 0.111 1.428 1541
2.632 0.139 1.749 7395
2.504 0.132 1.669 5722
2.109 0.111 1.422 1325
2.549 0.134 1.687 8334
2.677 0.141 1.766 4641
2.112 0.111 1.416 1109
2.560 0.135 1.684 9893
2.688 0.142 1.763 4486
2.116 0.112 1.410 779
2.565 0.135 1.677 8259
2.693 0.142 1.755 4895
2.650 0.140 1.719 7105
2.522 0.133 1.640 3017
2.779 0.146 1.797 1490
2.655 0.140 1.711 5736
2.526 0.133 1.633 2100
2.784 0.147 1.789 1845
2.727 0.144 1.744 5346
2.598 0.137 1.667 2904
2.739 0.144 1.740 5697
2.610 0.138 1.663 2574
2.868 0.151 1.817 1066
2.743 0.145 1.733 6088
2.614 0.138 1.656 1819
2.873 0.151 1.809 1558
2.748 0.145 1.725 6460
2.878 0.152 1.801 1646
2.619 0.138 1.648 1374
2.753 0.145 1.717 6832
2.882 0.152 1.793 1734
2.623 0.138 1.641 929
2.764 0.146 1.713 6827
2.894 0.153 1.788 1427
2.634 0.139 1.637 947
2.769 0.146 1.705 6985
2.899 0.153 1.780 1257
2.780 0.147 1.701 6997
2.910 0.153 1.776 1258
2.805 0.148 1.705 5454
2.675 0.141 1.630 1067
2.936 0.155 1.779 912
2.830 0.149 1.708 4302
2.700 0.142 1.634 1147
2.828 0.149 1.696 3613
2.959 0.156 1.770 981
2.909 0.153 1.731 3667
2.777 0.146 1.657 1563
2.906 0.153 1.718 3702
3.038 0.160 1.791 1560
2.775 0.146 1.646 1075
2.911 0.153 1.710 3763
3.043 0.160 1.783 2263
2.779 0.146 1.638 776
3.020 0.159 1.759 4438
2.888 0.152 1.687 3365
3.010 0.159 1.742 8067
2.878 0.152 1.671 2541
3.015 0.159 1.734 11048
2.883 0.152 1.662 1629
3.020 0.159 1.725 13087
2.887 0.152 1.654 1838
3.024 0.159 1.716 15126
2.892 0.152 1.646 2047
3.036 0.160 1.711 14838
2.903 0.153 1.641 2005
3.047 0.161 1.706 14729
2.914 0.154 1.637 1171
3.052 0.161 1.698 13598
2.919 0.154 1.628 750
3.057 0.161 1.689 12316
3.054 0.161 1.676 13293
3.188 0.168 1.745 1248
3.058 0.161 1.668 15449
3.192 0.168 1.736 1284
3.063 0.161 1.659 15032
