11.334 0.308 0.735 858
10.907 0.297 0.712 800
12.458 0.339 0.758 1020
11.343 0.309 0.702 998
8.624 0.235 0.567 931
11.345 0.309 0.669 923
8.954 0.244 0.453 800
12.759 0.347 0.550 795
14.294 0.389 0.600 771
14.287 0.389 0.558 801
14.257 0.388 0.515 942
8.988 0.244 0.376 752
14.345 0.390 0.476 804
14.559 0.396 0.439 908
14.369 0.391 0.435 836
14.560 0.396 0.396 1002
14.378 0.391 0.393 834
14.561 0.396 0.354 794
2.359 0.047 1.791 8389
2.237 0.045 1.703 1698
2.364 0.047 1.784 16779
2.241 0.045 1.697 3396
2.061 0.041 1.568 824
2.369 0.047 1.778 16779
2.246 0.045 1.691 3396
2.367 0.047 1.766 14297
2.244 0.045 1.680 1826
2.490 0.050 1.853 1519
2.339 0.047 1.737 14126
2.462 0.049 1.823 3033
2.350 0.047 1.735 10774
2.487 0.050 1.830 4031
2.414 0.048 1.769 9990
2.290 0.046 1.683 1574
2.537 0.051 1.854 1193
2.418 0.048 1.762 9990
2.294 0.046 1.676 1574
2.542 0.051 1.847 1207
2.423 0.049 1.755 8502
2.547 0.051 1.840 1931
2.299 0.046 1.670 1153
2.057 0.041 1.505 806
2.493 0.050 1.792 10495
2.369 0.047 1.708 3610
2.061 0.041 1.499 900
2.505 0.050 1.790 10276
2.380 0.048 1.705 3479
2.058 0.041 1.489 989
2.516 0.050 1.787 10100
2.391 0.048 1.703 3161
2.062 0.041 1.483 989
2.527 0.051 1.784 7435
2.402 0.048 1.701 3588
2.079 0.042 1.486 1207
2.545 0.051 1.785 5639
2.420 0.049 1.703 4266
2.090 0.042 1.484 1466
2.550 0.051 1.778 5639
2.425 0.049 1.696 3293
2.094 0.042 1.478 1700
2.548 0.051 1.767 6002
2.422 0.049 1.684 2167
2.104 0.042 1.477 1956
2.547 0.051 1.755 6531
2.420 0.049 1.673 2061
2.108 0.042 1.471 1785
2.571 0.052 1.761 9317
2.112 0.042 1.465 1614
2.445 0.049 1.679 1483
2.569 0.051 1.749 12506
2.103 0.042 1.450 1871
2.581 0.052 1.746 10250
2.100 0.042 1.440 2242
2.585 0.052 1.738 8048
2.097 0.042 1.430 2536
2.597 0.052 1.735 8430
2.094 0.042 1.419 2875
2.724 0.055 1.815 774
2.608 0.052 1.732 9165
2.098 0.042 1.413 2264
2.736 0.055 1.812 813
2.640 0.053 1.741 9832
2.101 0.042 1.408 1652
2.512 0.050 1.662 1269
2.651 0.053 1.738 11862
2.523 0.051 1.659 1562
2.105 0.042 1.402 1053
2.669 0.054 1.739 10666
2.541 0.051 1.660 1712
2.681 0.054 1.735 10811
2.552 0.051 1.657 1914
2.699 0.054 1.736 9873
2.570 0.052 1.658 1806
2.827 0.057 1.813 1069
2.717 0.054 1.736 9956
2.568 0.051 1.646 1559
2.846 0.057 1.813 1270
2.715 0.054 1.724 7692
2.844 0.057 1.801 2344
2.586 0.052 1.647 1102
2.692 0.054 1.700 6908
2.842 0.057 1.789 3291
2.683 0.054 1.685 5117
2.847 0.057 1.781 2851
2.770 0.056 1.725 4252
2.640 0.053 1.649 2250
2.899 0.058 1.801 1599
2.747 0.055 1.701 4592
2.877 0.058 1.776 2034
2.751 0.055 1.693 5639
2.882 0.058 1.768 1639
2.770 0.056 1.693 4993
2.900 0.058 1.768 2303
2.870 0.058 1.740 5345
2.740 0.055 1.666 2396
2.868 0.057 1.728 7711
2.737 0.055 1.654 1491
2.999 0.060 1.802 948
2.880 0.058 1.723 7732
2.749 0.055 1.650 1700
3.011 0.060 1.797 1306
2.898 0.058 1.723 8096
2.767 0.055 1.650 1836
3.030 0.061 1.796 865
2.889 0.058 1.707 8441
3.021 0.061 1.780 2386
2.750 0.055 1.630 1318
2.887 0.058 1.695 9360
3.018 0.061 1.767 3863
2.891 0.058 1.687 11102
3.023 0.061 1.759 5496
2.993 0.060 1.731 16670
2.861 0.057 1.659 4813
3.125 0.063 1.803 896
3.005 0.060 1.726 19787
2.872 0.058 1.655 5950
3.137 0.063 1.798 822
3.009 0.060 1.718 21795
2.877 0.058 1.647 6127
3.142 0.063 1.789 784
3.007 0.060 1.705 24253
2.874 0.058 1.635 4763
3.018 0.061 1.700 21350
2.885 0.058 1.630 4380
3.023 0.061 1.692 14830
2.890 0.058 1.622 2374
3.156 0.063 1.761 892
3.006 0.060 1.672 11469
3.140 0.063 1.741 2173
3.032 0.061 1.674 14055
2.898 0.058 1.605 1769
3.166 0.063 1.743 1697
3.037 0.061 1.666 16773
3.170 0.064 1.734 1845
2.903 0.058 1.597 1166
3.034 0.061 1.653 16312
3.168 0.064 1.722 2054
2.900 0.058 1.585 950
3.045 0.061 1.648 11299
3.180 0.064 1.716 1728
3.050 0.061 1.639 6544
3.184 0.064 1.707 2073
3.054 0.061 1.631 6687
3.189 0.064 1.698 2250
3.323 0.067 1.765 992
3.137 0.063 1.661 10944
3.002 0.060 1.594 2197
3.321 0.067 1.752 2107
3.141 0.063 1.652 17356
3.340 0.067 1.749 2693
3.006 0.060 1.585 1781
3.138 0.063 1.639 19130
3.352 0.067 1.743 2688
3.003 0.060 1.573 1727
3.150 0.063 1.633 17626
3.364 0.067 1.737 3332
3.007 0.060 1.565 1468
3.225 0.065 1.659 14265
3.361 0.067 1.724 4005
3.090 0.062 1.594 1612
3.497 0.070 1.789 778
3.223 0.065 1.646 13480
3.366 0.067 1.714 4073
3.501 0.070 1.779 885
3.087 0.062 1.581 817
3.249 0.065 1.647 9242
3.385 0.068 1.711 5901
3.113 0.062 1.583 1667
3.521 0.071 1.775 1115
3.389 0.068 1.701 7609
3.181 0.064 1.604 6975
3.525 0.071 1.765 1483
3.415 0.068 1.702 9496
3.178 0.064 1.591 7888
3.580 0.072 1.778 1129
3.420 0.069 1.692 11207
3.183 0.064 1.582 7504
3.556 0.071 1.755 1848
3.432 0.069 1.685 12576
3.187 0.064 1.573 6038
3.568 0.072 1.748 3696
3.443 0.069 1.679 11837
3.580 0.072 1.741 3906
3.191 0.064 1.564 3437
3.455 0.069 1.672 6532
3.599 0.072 1.737 3546
3.202 0.064 1.558 2040
3.488 0.070 1.675 4876
3.626 0.073 1.736 4337
3.351 0.067 1.614 2168
3.207 0.064 1.549 1833
3.623 0.073 1.723 4772
3.478 0.070 1.659 4420
3.211 0.064 1.540 1786
3.599 0.072 1.700 5323
3.461 0.069 1.639 3415
3.215 0.064 1.531 1615
3.736 0.075 1.760 972
3.603 0.072 1.689 6561
3.465 0.069 1.629 1938
3.741 0.075 1.750 1412
3.211 0.064 1.518 1244
3.629 0.073 1.688 6315
3.223 0.065 1.512 886
3.767 0.076 1.748 806
3.491 0.070 1.629 783
3.641 0.073 1.681 5953
3.646 0.073 1.671 6331
3.799 0.076 1.736 1198
3.657 0.073 1.663 6424
3.796 0.076 1.722 2800
3.669 0.074 1.656 4219
3.808 0.076 1.714 3890
3.798 0.076 1.697 6390
3.659 0.073 1.639 2102
3.773 0.076 1.674 11713
3.634 0.073 1.616 917
3.785 0.076 1.666 13874
3.760 0.075 1.643 10049
3.899 0.078 1.700 968
3.750 0.075 1.626 6720
3.889 0.078 1.683 2163
3.850 0.077 1.654 5299
3.710 0.074 1.598 2162
3.839 0.077 1.637 8302
3.699 0.074 1.582 1122
3.851 0.077 1.629 15903
3.711 0.074 1.574 1411
3.855 0.077 1.618 17989
3.715 0.074 1.563 1175
3.860 0.077 1.607 12750
3.719 0.075 1.552 890
3.871 0.078 1.598 10705
3.876 0.078 1.587 11724
3.880 0.078 1.576 8836
3.891 0.078 1.568 7728
3.895 0.078 1.556 9330
3.900 0.078 1.545 10557
3.904 0.078 1.534 13045
2.423 0.049 0.997 780
3.908 0.078 1.523 12499
2.440 0.049 0.995 858
3.912 0.078 1.511 9533
2.480 0.050 1.002 1054
3.938 0.079 1.508 9230
2.445 0.049 0.982 1369
3.950 0.079 1.499 8547
2.448 0.049 0.975 1612
3.939 0.079 1.483 5002
2.458 0.049 0.970 966
3.905 0.078 1.459 5860
2.527 0.051 0.986 907
3.924 0.079 1.452 9748
3.943 0.079 1.446 12397
3.954 0.079 1.437 8781
2.542 0.051 0.967 768
3.950 0.079 1.423 6854
3.946 0.079 1.410 5484
3.950 0.079 1.398 4117
3.984 0.080 1.396 6367
3.973 0.080 1.380 10616
3.969 0.080 1.366 11295
3.980 0.080 1.357 6369
3.983 0.080 1.346 4877
3.987 0.080 1.334 4741
3.998 0.080 1.325 6575
4.009 0.080 1.316 9832
4.027 0.081 1.309 8194
4.038 0.081 1.299 5710
4.034 0.081 1.286 8731
4.038 0.081 1.274 13177
4.048 0.081 1.265 14285
4.300 0.086 1.335 814
4.059 0.081 1.255 15293
4.311 0.086 1.325 898
4.063 0.081 1.243 14992
4.330 0.087 1.317 1137
4.066 0.081 1.232 12458
4.211 0.084 1.271 819
4.069 0.082 1.220 10929
4.080 0.082 1.210 9008
4.083 0.082 1.198 5210
5.706 0.114 1.625 798
4.124 0.083 1.197 5586
5.718 0.115 1.611 1232
4.120 0.083 1.183 7367
5.722 0.115 1.594 3144
4.146 0.083 1.177 5306
5.726 0.115 1.578 5117
5.730 0.115 1.561 6687
4.149 0.083 1.165 5078
5.734 0.115 1.545 7312
4.121 0.083 1.145 5275
5.746 0.115 1.530 8713
4.124 0.083 1.133 3934
5.750 0.115 1.513 8785
4.119 0.083 1.120 2382
5.731 0.115 1.491 6259
4.130 0.083 1.110 1657
5.720 0.115 1.471 8533
4.148 0.083 1.101 1186
5.731 0.115 1.456 9098
5.735 0.115 1.440 6946
5.723 0.115 1.419 5581
5.735 0.115 1.405 5435
5.746 0.115 1.390 6612
5.742 0.115 1.371 7049
5.761 0.115 1.358 8218
5.765 0.116 1.341 8560
5.768 0.116 1.325 7196
5.915 0.119 1.355 810
5.779 0.116 1.310 4524
5.927 0.119 1.340 1471
5.752 0.115 1.287 3599
5.899 0.118 1.316 2475
5.740 0.115 1.267 2777
5.910 0.118 1.301 2745
6.920 0.139 1.501 1050
5.921 0.119 1.285 4171
5.727 0.115 1.247 1173
6.924 0.139 1.481 969
6.302 0.126 1.360 851
5.917 0.119 1.267 4338
6.065 0.122 1.295 1364
5.769 0.116 1.238 1210
4.122 0.083 0.921 1161
5.920 0.119 1.250 3055
6.877 0.138 1.431 1817
6.068 0.122 1.278 1653
4.124 0.083 0.909 1634
6.873 0.138 1.409 3286
6.243 0.125 1.292 2161
5.916 0.119 1.231 1990
4.118 0.083 0.896 1639
6.869 0.138 1.388 5073
6.246 0.125 1.274 1893
5.927 0.119 1.215 1701
4.120 0.083 0.884 1615
6.872 0.138 1.368 5177
6.249 0.125 1.256 1830
4.115 0.082 0.871 1498
6.047 0.121 1.219 1322
6.876 0.138 1.348 4465
6.245 0.125 1.236 2257
4.109 0.082 0.858 1389
6.058 0.121 1.203 954
6.872 0.138 1.327 6472
6.256 0.125 1.219 2135
4.103 0.082 0.844 1631
6.061 0.121 1.186 922
6.867 0.138 1.306 6253
6.298 0.126 1.208 1633
4.106 0.082 0.833 1449
6.064 0.122 1.168 856
6.855 0.137 1.283 6123
4.115 0.082 0.822 1115
6.309 0.126 1.191 1092
6.866 0.138 1.264 8640
4.109 0.082 0.809 1247
6.869 0.138 1.245 11392
4.104 0.082 0.796 1208
7.018 0.141 1.269 822
6.880 0.138 1.226 13889
4.106 0.082 0.784 1186
7.029 0.141 1.250 851
6.884 0.138 1.206 14455
4.115 0.082 0.773 1132
7.032 0.141 1.229 1092
8.299 0.166 1.427 828
6.879 0.138 1.185 13040
7.027 0.141 1.208 1796
8.271 0.166 1.398 1492
4.133 0.083 0.764 1030
6.890 0.138 1.166 10680
8.259 0.166 1.372 2337
7.038 0.141 1.188 1442
4.134 0.083 0.752 1041
6.893 0.138 1.146 7105
8.263 0.166 1.348 4100
8.114 0.163 1.326 977
7.041 0.141 1.168 966
6.903 0.138 1.127 5090
8.266 0.166 1.324 5089
8.118 0.163 1.303 1708
7.969 0.160 1.281 971
6.914 0.139 1.108 4604
8.262 0.166 1.299 3707
8.113 0.163 1.278 2011
7.455 0.149 1.185 1045
8.211 0.165 1.267 3572
6.909 0.138 1.087 2735
7.466 0.150 1.164 1149
8.360 0.168 1.288 1013
8.214 0.165 1.244 5504
7.006 0.140 1.080 1434
8.065 0.162 1.223 1004
7.461 0.150 1.142 930
8.217 0.165 1.220 5601
8.005 0.160 1.192 1306
7.016 0.141 1.061 1201
7.464 0.150 1.120 915
8.149 0.163 1.187 4281
7.985 0.160 1.165 2293
8.299 0.166 1.206 1078
7.474 0.150 1.099 920
7.988 0.160 1.142 3169
8.176 0.164 1.166 2496
8.006 0.160 1.121 3248
8.171 0.164 1.141 2887
8.088 0.162 1.107 4458
8.237 0.165 1.125 1039
8.122 0.163 1.087 5040
7.972 0.160 1.070 1490
8.125 0.163 1.064 4530
7.975 0.160 1.047 1586
8.049 0.161 1.032 4138
8.198 0.164 1.048 1722
8.051 0.161 1.008 5311
8.201 0.164 1.024 1873
8.054 0.161 0.985 5053
8.203 0.164 1.001 2200
8.064 0.162 0.962 4630
8.214 0.165 0.978 2099
8.058 0.162 0.938 4845
8.208 0.165 0.953 1936
8.053 0.161 0.914 5947
8.203 0.164 0.928 1661
8.079 0.162 0.893 5841
8.228 0.165 0.907 1622
8.097 0.162 0.871 5497
8.246 0.165 0.884 1346
8.538 0.171 0.911 963
8.107 0.162 0.848 3673
8.256 0.165 0.861 1221
8.532 0.171 0.886 1160
8.211 0.165 0.833 3364
8.456 0.169 0.854 1724
8.053 0.161 0.820 905
8.213 0.165 0.809 2351
8.040 0.161 0.795 1959
8.458 0.170 0.829 1858
8.042 0.161 0.772 3243
8.554 0.171 0.812 2676
8.247 0.165 0.788 1380
8.405 0.168 0.801 997
8.043 0.161 0.748 3615
8.556 0.172 0.788 3444
8.256 0.165 0.765 1353
8.406 0.169 0.776 947
8.550 0.171 0.762 5023
8.045 0.161 0.725 3093
8.274 0.166 0.742 1367
8.740 0.175 0.776 986
8.552 0.171 0.737 6814
8.047 0.161 0.702 1926
8.284 0.166 0.718 1471
8.742 0.175 0.751 1329
8.554 0.171 0.713 7275
8.751 0.175 0.726 1591
8.270 0.166 0.693 1112
8.119 0.163 0.683 896
8.555 0.171 0.688 7545
8.753 0.175 0.701 1840
8.366 0.168 0.676 1130
8.137 0.163 0.661 828
8.557 0.172 0.663 6023
8.762 0.176 0.676 1464
8.360 0.168 0.651 889
12.436 0.249 0.902 822
8.551 0.171 0.638 3390
8.772 0.176 0.651 780
8.306 0.166 0.623 771
12.438 0.249 0.866 755
8.528 0.171 0.611 1881
8.900 0.178 0.632 1025
8.506 0.170 0.585 1438
8.917 0.179 0.607 1216
11.328 0.227 0.735 849
8.656 0.174 0.593 772
8.515 0.171 0.561 1214
8.879 0.178 0.579 1173
11.337 0.227 0.702 1032
8.880 0.178 0.554 1313
11.347 0.227 0.669 1205
8.524 0.171 0.537 914
8.873 0.178 0.527 1380
11.348 0.227 0.636 1197
8.525 0.171 0.512 835
9.237 0.185 0.543 801
8.906 0.179 0.503 1321
11.358 0.228 0.604 920
9.246 0.185 0.517 794
8.915 0.179 0.477 1416
8.900 0.178 0.451 1351
8.901 0.178 0.425 937
14.288 0.286 0.599 823
14.290 0.286 0.558 932
14.291 0.286 0.516 1040
8.618 0.173 0.341 817
14.276 0.286 0.474 771
8.619 0.173 0.316 980
8.611 0.173 0.291 859
14.563 0.292 0.396 818
0.951 0.019 0.147 790
0.951 0.019 0.145 846
0.951 0.019 0.142 885
0.951 0.019 0.139 802
2.359 0.035 1.791 8012
2.237 0.033 1.703 1052
2.364 0.035 1.784 16025
2.242 0.033 1.697 2104
2.369 0.035 1.778 16025
2.246 0.033 1.691 2104
2.361 0.035 1.762 13810
2.484 0.037 1.848 1484
2.238 0.033 1.675 1258
2.346 0.035 1.741 13927
2.469 0.037 1.828 2290
2.351 0.035 1.735 10555
2.487 0.037 1.830 3489
2.414 0.036 1.769 9016
2.290 0.034 1.683 1520
2.538 0.038 1.854 1154
2.419 0.036 1.762 9016
2.295 0.034 1.676 1520
2.543 0.038 1.847 1165
2.495 0.037 1.804 7581
2.371 0.035 1.719 5226
2.064 0.031 1.509 865
2.494 0.037 1.792 10613
2.369 0.035 1.708 2606
2.061 0.031 1.499 881
2.505 0.037 1.790 10755
2.380 0.035 1.705 2554
2.065 0.031 1.493 896
2.510 0.037 1.782 11009
2.385 0.036 1.699 2000
2.069 0.031 1.487 885
2.521 0.038 1.780 8030
2.396 0.036 1.696 2420
2.066 0.031 1.477 832
2.539 0.038 1.781 5712
2.414 0.036 1.698 3084
2.064 0.031 1.467 792
2.544 0.038 1.774 5712
2.418 0.036 1.691 2372
2.074 0.031 1.465 784
2.549 0.038 1.767 6134
2.423 0.036 1.684 1661
2.091 0.031 1.468 823
2.547 0.038 1.755 6554
2.421 0.036 1.673 1598
2.102 0.031 1.466 1299
2.571 0.038 1.761 9200
2.106 0.031 1.460 1789
2.438 0.036 1.675 1068
2.576 0.038 1.753 12201
2.096 0.031 1.446 2558
2.581 0.038 1.746 9817
2.093 0.031 1.436 3521
2.592 0.039 1.743 7464
2.097 0.031 1.430 3504
2.597 0.039 1.735 7670
2.094 0.031 1.419 3539
2.608 0.039 1.732 7981
2.091 0.031 1.409 2582
2.640 0.039 1.741 8555
2.088 0.031 1.399 1736
2.512 0.037 1.662 805
2.651 0.039 1.738 10913
2.099 0.031 1.397 1360
2.523 0.038 1.659 987
2.669 0.040 1.739 10706
2.541 0.038 1.660 1045
2.109 0.031 1.396 1037
2.681 0.040 1.735 11472
2.552 0.038 1.657 1170
2.809 0.042 1.813 784
2.113 0.031 1.390 773
2.699 0.040 1.736 10362
2.828 0.042 1.813 1281
2.570 0.038 1.658 1057
2.710 0.040 1.732 10350
2.839 0.042 1.809 1667
2.581 0.038 1.655 882
2.708 0.040 1.720 8673
2.837 0.042 1.797 2801
2.699 0.040 1.704 7680
2.835 0.042 1.785 3704
2.711 0.040 1.701 5770
2.840 0.042 1.777 3468
2.777 0.041 1.729 5152
2.647 0.039 1.653 1194
2.907 0.043 1.805 961
2.740 0.041 1.697 5150
2.870 0.043 1.772 1946
2.745 0.041 1.689 5818
2.889 0.043 1.772 1438
2.763 0.041 1.689 5093
2.894 0.043 1.764 2614
2.871 0.043 1.740 6636
2.740 0.041 1.666 2489
2.869 0.043 1.728 9414
2.738 0.041 1.654 1528
2.999 0.045 1.802 803
2.887 0.043 1.727 9336
2.756 0.041 1.654 1510
3.018 0.045 1.801 773
2.898 0.043 1.723 9881
2.767 0.041 1.650 1121
2.889 0.043 1.707 8900
3.021 0.045 1.780 2207
2.716 0.040 1.611 799
2.887 0.043 1.695 9053
3.019 0.045 1.767 3624
2.891 0.043 1.687 9891
3.023 0.045 1.759 4760
2.993 0.045 1.731 14854
2.861 0.043 1.659 4144
3.126 0.047 1.803 1117
3.005 0.045 1.726 17619
2.873 0.043 1.655 4970
3.137 0.047 1.798 965
3.010 0.045 1.718 19475
2.877 0.043 1.647 5026
3.142 0.047 1.789 867
3.014 0.045 1.709 21331
2.881 0.043 1.638 5015
3.019 0.045 1.700 18765
2.886 0.043 1.630 3324
3.030 0.045 1.695 12550
2.897 0.043 1.626 2488
2.986 0.044 1.661 8879
3.119 0.046 1.730 1568
3.039 0.045 1.678 12580
2.906 0.043 1.609 1804
3.173 0.047 1.747 1108
3.037 0.045 1.666 15673
3.171 0.047 1.734 1601
2.903 0.043 1.597 1025
3.041 0.045 1.657 15078
3.175 0.047 1.725 1391
2.907 0.043 1.589 1027
3.053 0.045 1.652 9719
3.187 0.047 1.720 1701
2.918 0.043 1.584 816
3.135 0.047 1.682 7024
3.001 0.045 1.615 2922
3.147 0.047 1.677 10083
3.012 0.045 1.610 3841
3.302 0.049 1.754 1222
3.151 0.047 1.668 14616
3.016 0.045 1.601 3124
3.314 0.049 1.748 2303
3.148 0.047 1.655 21097
3.333 0.050 1.746 2603
3.013 0.045 1.589 1785
3.153 0.047 1.646 22954
3.345 0.050 1.739 2475
3.010 0.045 1.577 1567
3.157 0.047 1.637 20691
3.293 0.049 1.702 3005
3.007 0.045 1.565 1273
3.428 0.051 1.768 1214
3.169 0.047 1.631 16810
3.304 0.049 1.696 3900
3.440 0.051 1.761 1202
2.997 0.045 1.549 946
3.180 0.047 1.626 15955
3.330 0.050 1.697 3870
3.466 0.052 1.762 1341
3.037 0.045 1.558 801
3.184 0.047 1.616 13267
3.349 0.050 1.694 5344
3.485 0.052 1.758 1438
3.182 0.047 1.604 9985
3.375 0.050 1.695 6990
3.511 0.052 1.758 1226
3.416 0.051 1.702 11032
3.179 0.047 1.591 8169
3.420 0.051 1.692 14315
3.183 0.047 1.582 7119
3.557 0.053 1.755 2050
3.432 0.051 1.685 14828
3.187 0.047 1.573 5584
3.569 0.053 1.748 4325
3.436 0.051 1.675 11936
3.595 0.054 1.747 4882
3.191 0.048 1.564 3004
3.448 0.051 1.669 5842
3.607 0.054 1.740 5346
3.311 0.049 1.607 1875
3.174 0.047 1.545 1212
3.611 0.054 1.730 5874
3.467 0.052 1.665 3615
3.330 0.050 1.604 1706
3.192 0.048 1.542 1209
3.616 0.054 1.720 5292
3.464 0.052 1.652 4306
3.204 0.048 1.537 1253
3.469 0.052 1.642 4980
3.606 0.054 1.703 4829
3.208 0.048 1.527 1347
3.744 0.056 1.763 966
3.603 0.054 1.689 5501
3.466 0.052 1.629 3324
3.219 0.048 1.521 1375
3.741 0.056 1.750 1143
3.615 0.054 1.682 6226
3.477 0.052 1.622 1396
3.223 0.048 1.512 1156
3.753 0.056 1.742 1035
3.620 0.054 1.672 6684
3.758 0.056 1.731 895
3.452 0.051 1.600 836
3.227 0.048 1.503 804
3.631 0.054 1.664 6891
3.784 0.056 1.730 1387
3.658 0.054 1.663 6352
3.796 0.057 1.722 2801
3.713 0.055 1.674 5787
3.852 0.057 1.732 1125
3.575 0.053 1.616 1124
3.740 0.056 1.673 7706
3.601 0.054 1.615 933
3.751 0.056 1.665 12440
3.756 0.056 1.654 14951
3.746 0.056 1.637 13313
3.885 0.058 1.694 1048
3.743 0.056 1.624 10583
3.882 0.058 1.680 2182
3.754 0.056 1.616 9170
3.894 0.058 1.671 2316
3.832 0.057 1.634 11157
3.692 0.055 1.579 973
3.837 0.057 1.623 15499
3.697 0.055 1.568 957
3.848 0.057 1.615 15554
3.708 0.055 1.560 1018
3.853 0.057 1.604 10904
3.857 0.057 1.593 10441
3.861 0.058 1.582 15105
3.865 0.058 1.570 13821
3.877 0.058 1.562 9282
3.888 0.058 1.554 8770
2.425 0.036 1.014 955
3.900 0.058 1.545 10712
2.421 0.036 1.004 978
3.904 0.058 1.534 13994
2.431 0.036 1.000 956
3.901 0.058 1.520 15818
2.463 0.037 1.004 1152
3.905 0.058 1.509 14939
2.480 0.037 1.002 1395
3.924 0.058 1.503 12394
2.468 0.037 0.989 1322
3.935 0.059 1.494 8640
2.455 0.037 0.977 1308
3.924 0.058 1.478 4716
2.525 0.038 0.993 1486
3.898 0.058 1.456 5995
2.513 0.037 0.981 1294
3.917 0.058 1.450 12084
2.508 0.037 0.971 1255
3.928 0.059 1.441 16853
2.525 0.038 0.969 1398
3.939 0.059 1.432 12723
2.535 0.038 0.965 1111
3.936 0.059 1.418 9812
3.939 0.059 1.407 10437
3.935 0.059 1.393 13139
3.939 0.059 1.382 15756
4.082 0.061 1.428 753
3.950 0.059 1.373 15809
3.969 0.059 1.366 12368
3.980 0.059 1.357 5916
3.976 0.059 1.344 3221
3.972 0.059 1.330 5017
3.983 0.059 1.321 7884
3.994 0.059 1.311 9834
4.005 0.060 1.302 8318
4.024 0.060 1.295 6588
4.035 0.060 1.286 9396
4.038 0.060 1.274 12157
4.041 0.060 1.262 12928
4.052 0.060 1.253 13059
4.311 0.064 1.325 758
4.063 0.061 1.243 15251
4.322 0.064 1.315 1166
4.066 0.061 1.232 16627
4.211 0.063 1.271 1051
4.062 0.061 1.218 13319
4.072 0.061 1.208 8843
4.083 0.061 1.198 7147
5.699 0.085 1.623 1026
3.616 0.054 1.076 765
4.109 0.061 1.193 6643
5.711 0.085 1.609 1584
3.619 0.054 1.065 890
4.112 0.061 1.181 6563
5.715 0.085 1.592 2825
3.622 0.054 1.055 803
4.115 0.061 1.169 5558
5.727 0.085 1.578 4543
4.141 0.062 1.163 8031
5.723 0.085 1.559 6340
4.129 0.062 1.147 9673
5.727 0.085 1.543 6373
4.275 0.064 1.183 788
4.132 0.062 1.135 5929
5.747 0.086 1.530 5614
5.735 0.085 1.510 4338
4.143 0.062 1.125 2275
5.716 0.085 1.487 7490
4.122 0.061 1.108 1553
5.720 0.085 1.471 12474
4.179 0.062 1.109 1406
5.724 0.085 1.454 11598
4.190 0.062 1.098 1591
5.728 0.085 1.438 8897
4.192 0.062 1.086 1464
5.095 0.076 1.293 894
5.716 0.085 1.418 7609
4.195 0.062 1.074 1027
5.098 0.076 1.278 966
5.712 0.085 1.399 5424
5.731 0.085 1.386 4264
3.798 0.057 0.962 961
5.743 0.086 1.371 6132
3.801 0.057 0.951 1188
5.754 0.086 1.356 7795
3.803 0.057 0.940 881
5.750 0.086 1.338 7546
5.753 0.086 1.322 5413
5.718 0.085 1.297 3118
5.865 0.087 1.327 1299
3.841 0.057 0.913 1007
5.713 0.085 1.279 4377
5.861 0.087 1.309 1975
3.843 0.057 0.902 1189
5.186 0.077 1.173 775
5.725 0.085 1.264 3427
5.872 0.087 1.293 1724
6.020 0.090 1.322 1127
3.846 0.057 0.891 870
5.922 0.088 1.285 2182
5.728 0.085 1.247 1774
4.127 0.061 0.935 1137
6.070 0.090 1.314 999
5.918 0.088 1.267 2525
6.065 0.090 1.295 1987
4.122 0.061 0.921 1908
5.747 0.086 1.234 1769
6.045 0.090 1.273 2824
4.124 0.061 0.909 2384
5.758 0.086 1.219 2217
6.232 0.093 1.308 1285
4.126 0.061 0.897 2450
6.259 0.093 1.295 2436
5.761 0.086 1.202 2171
6.056 0.090 1.257 2069
6.862 0.102 1.387 3519
4.121 0.061 0.884 2628
6.270 0.093 1.278 2411
5.764 0.086 1.185 1973
6.865 0.102 1.367 3896
4.123 0.061 0.872 2581
6.250 0.093 1.256 2287
6.055 0.090 1.221 1643
6.861 0.102 1.345 3862
6.245 0.093 1.236 3036
4.125 0.061 0.860 2551
6.050 0.090 1.202 1341
6.864 0.102 1.325 5020
6.256 0.093 1.219 2871
4.127 0.061 0.849 2730
6.061 0.090 1.186 1181
6.868 0.102 1.306 4524
6.298 0.094 1.208 2629
4.129 0.062 0.837 2383
6.064 0.090 1.168 1304
6.863 0.102 1.284 5195
6.317 0.094 1.192 2192
4.123 0.061 0.823 1469
6.052 0.090 1.148 1194
6.867 0.102 1.264 8750
6.328 0.094 1.175 1385
4.118 0.061 0.810 1038
6.870 0.102 1.245 12486
4.127 0.061 0.800 1127
6.323 0.094 1.156 898
6.873 0.102 1.225 15284
4.129 0.062 0.788 1057
7.022 0.105 1.248 803
6.876 0.102 1.205 15477
7.025 0.105 1.228 1002
4.131 0.062 0.776 897
6.879 0.102 1.185 13457
7.028 0.105 1.208 1352
8.249 0.123 1.395 1352
7.341 0.109 1.256 772
6.890 0.103 1.166 10603
8.260 0.123 1.372 1900
7.039 0.105 1.188 1162
7.336 0.109 1.233 931
6.893 0.103 1.146 7089
8.272 0.123 1.349 3103
7.340 0.109 1.212 1292
7.042 0.105 1.168 929
6.904 0.103 1.127 4710
8.267 0.123 1.324 3887
7.343 0.109 1.191 1753
8.118 0.121 1.303 1153
6.907 0.103 1.107 4073
8.255 0.123 1.298 3003
7.440 0.111 1.183 1955
8.106 0.121 1.277 1462
8.219 0.122 1.268 3338
6.910 0.103 1.087 2810
7.459 0.111 1.163 2115
8.070 0.120 1.248 1308
8.222 0.122 1.245 4859
7.454 0.111 1.141 1663
8.073 0.120 1.224 1643
6.905 0.103 1.066 1503
8.210 0.122 1.219 4401
8.061 0.120 1.199 1841
7.464 0.111 1.120 1727
7.017 0.105 1.061 892
8.142 0.121 1.186 4223
7.467 0.111 1.098 1627
8.292 0.124 1.205 1191
7.993 0.119 1.166 977
8.130 0.121 1.160 3427
7.517 0.112 1.083 1012
8.279 0.123 1.179 843
8.109 0.121 1.134 4319
7.536 0.112 1.063 1126
7.960 0.119 1.115 901
8.088 0.120 1.107 5972
7.939 0.118 1.089 869
8.099 0.121 1.085 4997
7.950 0.118 1.067 1075
8.125 0.121 1.064 4049
7.976 0.119 1.047 1659
8.034 0.120 1.030 5175
8.183 0.122 1.046 1335
8.036 0.120 1.006 7524
8.186 0.122 1.023 1738
8.039 0.120 0.983 7326
8.188 0.122 0.999 1968
8.049 0.120 0.961 6230
8.199 0.122 0.976 1842
8.051 0.120 0.937 6013
8.201 0.122 0.952 1587
8.054 0.120 0.914 7282
8.203 0.122 0.928 1443
8.064 0.120 0.891 6339
8.213 0.122 0.905 1716
8.090 0.120 0.870 5113
8.239 0.123 0.884 1284
8.539 0.127 0.911 856
8.092 0.121 0.847 3198
8.241 0.123 0.860 1549
8.541 0.127 0.886 1039
8.212 0.122 0.833 2666
8.031 0.120 0.818 1973
8.535 0.127 0.861 1204
8.033 0.120 0.794 3709
8.230 0.123 0.811 1791
8.530 0.127 0.835 1303
8.034 0.120 0.771 5240
8.532 0.127 0.811 2372
8.287 0.123 0.791 1234
8.044 0.120 0.748 5744
8.541 0.127 0.786 3342
8.312 0.124 0.769 1271
8.046 0.120 0.725 4940
8.543 0.127 0.762 4808
8.314 0.124 0.745 1456
8.545 0.127 0.737 6188
8.048 0.120 0.702 3202
8.300 0.124 0.720 1622
8.750 0.130 0.751 795
8.547 0.127 0.712 6449
8.041 0.120 0.678 1471
8.326 0.124 0.697 1350
8.752 0.130 0.726 963
8.548 0.127 0.687 6797
8.367 0.125 0.676 1576
8.145 0.121 0.661 1229
8.754 0.130 0.701 1109
8.550 0.127 0.662 5288
8.360 0.125 0.651 1275
8.763 0.131 0.676 914
8.147 0.121 0.638 868
8.528 0.127 0.636 3680
8.330 0.124 0.625 1116
8.852 0.132 0.655 899
8.678 0.129 0.645 875
8.513 0.127 0.611 3081
8.861 0.132 0.630 1294
8.331 0.124 0.600 1148
8.663 0.129 0.619 764
8.499 0.127 0.585 2731
8.870 0.132 0.605 1354
8.341 0.124 0.577 1069
8.508 0.127 0.561 2202
8.872 0.132 0.579 1365
11.338 0.169 0.702 796
8.350 0.124 0.553 762
8.533 0.127 0.537 1452
8.873 0.132 0.553 1363
9.245 0.138 0.571 842
11.340 0.169 0.669 784
8.874 0.132 0.527 1349
8.542 0.127 0.513 1238
9.238 0.138 0.543 955
8.700 0.130 0.520 860
8.883 0.132 0.502 1192
8.535 0.127 0.488 927
9.239 0.138 0.517 837
8.725 0.130 0.496 760
8.884 0.132 0.476 1107
8.726 0.130 0.470 756
8.877 0.132 0.450 1142
8.727 0.130 0.445 834
8.878 0.132 0.424 819
14.297 0.213 0.600 805
14.291 0.213 0.558 978
9.314 0.139 0.411 787
14.292 0.213 0.516 1151
14.277 0.213 0.474 903
9.323 0.139 0.358 839
8.778 0.131 0.319 814
8.612 0.128 0.316 794
14.564 0.217 0.396 752
0.951 0.014 0.150 754
0.951 0.014 0.147 818
0.951 0.014 0.145 868
0.951 0.014 0.142 903
9.358 0.139 0.168 803
0.951 0.014 0.139 811
2.359 0.023 1.791 7955
2.237 0.022 1.703 785
2.364 0.023 1.784 15910
2.242 0.022 1.697 1571
2.061 0.020 1.568 822
2.369 0.023 1.778 15910
2.246 0.022 1.691 1571
2.367 0.023 1.766 13699
2.244 0.022 1.680 1413
2.490 0.024 1.853 1026
2.353 0.023 1.746 13281
2.476 0.024 1.832 1860
2.229 0.022 1.660 826
2.357 0.023 1.739 9777
2.487 0.024 1.830 3031
2.414 0.023 1.769 7877
2.290 0.022 1.683 1359
2.538 0.024 1.854 1124
2.419 0.023 1.762 7877
2.295 0.022 1.676 1359
2.543 0.025 1.847 1148
2.489 0.024 1.799 7081
2.365 0.023 1.715 3919
2.064 0.020 1.509 780
2.494 0.024 1.792 10175
2.369 0.023 1.708 1671
2.499 0.024 1.785 10632
2.374 0.023 1.701 1455
2.510 0.024 1.782 11268
2.385 0.023 1.699 1451
2.521 0.024 1.780 8309
2.396 0.023 1.696 1912
2.067 0.020 1.477 985
2.533 0.024 1.777 5772
2.407 0.023 1.694 2287
2.070 0.020 1.471 1344
2.537 0.024 1.770 5772
2.412 0.023 1.687 1799
2.074 0.020 1.465 1735
2.542 0.025 1.762 6020
2.078 0.020 1.459 2125
2.416 0.023 1.680 1311
2.554 0.025 1.759 6393
2.089 0.020 1.458 2148
2.427 0.023 1.677 1408
2.572 0.025 1.761 8525
2.106 0.020 1.460 2327
2.438 0.024 1.675 916
2.583 0.025 1.757 10988
2.096 0.020 1.446 2763
2.588 0.025 1.750 8699
2.093 0.020 1.436 3395
2.599 0.025 1.747 6450
2.084 0.020 1.421 3151
2.604 0.025 1.740 6512
2.081 0.020 1.411 3134
2.608 0.025 1.732 6575
2.091 0.020 1.409 3028
2.736 0.026 1.812 800
2.633 0.025 1.737 6680
2.102 0.020 1.408 3054
2.651 0.026 1.738 8508
2.112 0.020 1.406 2494
2.670 0.026 1.739 9063
2.123 0.020 1.404 2067
2.798 0.027 1.817 802
2.681 0.026 1.735 10449
2.133 0.021 1.402 1592
2.809 0.027 1.813 1003
2.552 0.025 1.657 849
2.692 0.026 1.731 9645
2.821 0.027 1.809 1609
2.137 0.021 1.396 1117
2.704 0.026 1.728 9436
2.833 0.027 1.805 2030
2.140 0.021 1.390 907
2.708 0.026 1.720 8397
2.838 0.027 1.797 2945
2.706 0.026 1.708 7757
2.836 0.027 1.785 3972
2.711 0.026 1.701 6249
2.840 0.027 1.777 3844
2.777 0.027 1.729 5251
2.907 0.028 1.805 768
2.740 0.026 1.697 5152
2.870 0.028 1.772 1969
2.745 0.026 1.689 5474
2.889 0.028 1.772 1268
2.756 0.027 1.685 4882
2.887 0.028 1.760 2962
2.871 0.028 1.740 7855
2.740 0.026 1.666 2409
2.876 0.028 1.732 10508
2.745 0.026 1.658 1695
2.887 0.028 1.727 10500
2.756 0.027 1.654 1562
2.899 0.028 1.723 11274
2.767 0.027 1.650 1164
2.896 0.028 1.711 9369
3.028 0.029 1.784 1507
2.887 0.028 1.695 8775
3.019 0.029 1.767 3020
2.892 0.028 1.687 8890
3.024 0.029 1.759 3680
2.994 0.029 1.731 12024
2.861 0.028 1.659 3625
3.126 0.030 1.803 1151
3.005 0.029 1.726 14205
2.873 0.028 1.655 4318
3.138 0.030 1.798 965
3.017 0.029 1.721 15402
2.884 0.028 1.650 5095
3.021 0.029 1.713 16877
2.889 0.028 1.642 4911
3.026 0.029 1.704 15051
2.893 0.028 1.634 3433
3.038 0.029 1.699 10709
2.904 0.028 1.629 2463
3.042 0.029 1.690 8158
2.909 0.028 1.621 2140
3.047 0.029 1.682 11058
2.913 0.028 1.613 1543
3.044 0.029 1.669 12950
3.178 0.031 1.738 1092
3.048 0.029 1.661 12127
3.183 0.031 1.729 1129
3.067 0.030 1.659 8936
3.201 0.031 1.727 1184
3.135 0.030 1.682 12767
3.001 0.029 1.615 2630
3.147 0.030 1.677 16464
3.012 0.029 1.610 2739
3.296 0.032 1.751 1275
3.151 0.030 1.668 20220
3.300 0.032 1.741 2527
3.016 0.029 1.601 2411
3.156 0.030 1.658 27258
3.305 0.032 1.732 2826
3.021 0.029 1.592 1710
3.153 0.030 1.646 30985
3.310 0.032 1.722 2495
3.018 0.029 1.580 1382
3.157 0.030 1.637 29763
3.293 0.032 1.702 3453
3.022 0.029 1.571 1166
3.428 0.033 1.768 1028
3.169 0.031 1.631 26925
3.304 0.032 1.696 4302
3.033 0.029 1.566 1068
3.440 0.033 1.761 893
3.173 0.031 1.622 25060
3.309 0.032 1.687 4368
3.445 0.033 1.751 1008
3.037 0.029 1.558 861
3.178 0.031 1.613 21352
3.335 0.032 1.687 4866
3.471 0.033 1.752 866
2.970 0.029 1.515 786
3.182 0.031 1.604 14880
3.347 0.032 1.681 7166
3.547 0.034 1.775 983
3.416 0.033 1.702 10534
3.179 0.031 1.591 10252
3.552 0.034 1.765 1325
3.420 0.033 1.692 14318
3.183 0.031 1.582 8440
3.557 0.034 1.755 2788
3.432 0.033 1.685 13984
3.187 0.031 1.573 6464
3.569 0.034 1.748 4866
3.437 0.033 1.675 9933
3.595 0.035 1.747 6186
3.192 0.031 1.564 3201
3.600 0.035 1.737 6951
3.448 0.033 1.669 4545
3.311 0.032 1.607 2001
3.174 0.031 1.545 991
3.612 0.035 1.730 7055
3.373 0.033 1.623 3628
3.609 0.035 1.716 5592
3.457 0.033 1.649 4131
3.189 0.031 1.530 810
3.461 0.033 1.639 5469
3.599 0.035 1.700 4226
3.201 0.031 1.524 986
3.737 0.036 1.760 976
3.604 0.035 1.689 4388
3.466 0.033 1.629 3998
3.219 0.031 1.521 1323
3.742 0.036 1.750 1017
3.608 0.035 1.679 6269
3.470 0.033 1.619 1753
3.223 0.031 1.512 1270
3.746 0.036 1.739 903
3.620 0.035 1.672 7900
3.758 0.036 1.731 1259
3.460 0.033 1.603 1009
3.227 0.031 1.503 949
3.624 0.035 1.661 7754
3.763 0.036 1.720 2351
3.472 0.034 1.596 831
3.716 0.036 1.688 7042
3.578 0.035 1.629 1904
3.728 0.036 1.680 8798
3.589 0.035 1.622 1463
3.733 0.036 1.670 9376
3.594 0.035 1.612 869
3.744 0.036 1.662 12611
3.749 0.036 1.651 15647
3.746 0.036 1.637 15361
3.743 0.036 1.624 12972
3.882 0.037 1.680 1272
3.755 0.036 1.616 12275
3.894 0.038 1.671 1903
2.343 0.023 1.052 861
3.759 0.036 1.605 10900
3.899 0.038 1.660 2136
2.346 0.023 1.045 892
3.837 0.037 1.623 13139
2.348 0.023 1.039 845
3.697 0.036 1.568 839
3.841 0.037 1.612 13601
3.838 0.037 1.598 12582
3.850 0.037 1.590 13465
3.854 0.037 1.579 18687
3.858 0.037 1.568 19134
3.870 0.037 1.559 12567
2.408 0.023 1.015 1030
3.874 0.037 1.548 8519
2.418 0.023 1.011 1489
3.893 0.038 1.542 7951
2.413 0.023 1.001 1480
3.897 0.038 1.531 10385
2.431 0.023 1.000 1399
3.901 0.038 1.520 14250
2.456 0.024 1.001 1617
3.905 0.038 1.509 14381
2.480 0.024 1.002 1473
4.084 0.039 1.572 760
3.909 0.038 1.497 10405
2.513 0.024 1.005 1363
3.905 0.038 1.484 7790
2.523 0.024 1.001 1759
3.879 0.037 1.462 7582
2.518 0.024 0.991 2097
3.883 0.037 1.451 5612
2.513 0.024 0.981 1992
3.910 0.038 1.447 8824
2.508 0.024 0.971 1829
3.928 0.038 1.441 14012
2.518 0.024 0.967 1581
3.940 0.038 1.432 13151
2.528 0.024 0.962 1091
3.943 0.038 1.421 11135
3.940 0.038 1.407 10125
3.936 0.038 1.393 12867
3.939 0.038 1.382 16657
4.083 0.039 1.428 849
3.943 0.038 1.371 15751
4.139 0.040 1.433 907
3.954 0.038 1.362 9863
3.965 0.038 1.353 4675
3.961 0.038 1.339 3769
3.965 0.038 1.327 5787
3.968 0.038 1.316 8737
3.987 0.038 1.309 9745
3.998 0.039 1.300 7600
4.009 0.039 1.291 6350
4.027 0.039 1.283 6816
4.038 0.039 1.274 7068
4.041 0.039 1.262 8220
4.045 0.039 1.251 8798
4.063 0.039 1.243 10741
4.315 0.042 1.313 871
4.059 0.039 1.229 13623
4.311 0.042 1.298 808
4.062 0.039 1.218 9930
4.050 0.039 1.202 7170
4.068 0.039 1.194 10581
4.214 0.041 1.233 1001
5.699 0.055 1.623 864
3.617 0.035 1.076 835
4.094 0.040 1.189 9150
5.703 0.055 1.607 1260
3.619 0.035 1.065 819
4.240 0.041 1.226 763
4.105 0.040 1.179 4667
5.707 0.055 1.590 2626
3.622 0.035 1.055 856
4.116 0.040 1.169 4932
5.719 0.055 1.576 3792
3.625 0.035 1.044 923
4.134 0.040 1.161 10841
5.716 0.055 1.557 4981
4.288 0.041 1.199 935
3.627 0.035 1.034 874
4.137 0.040 1.149 12496
5.712 0.055 1.539 5855
4.283 0.041 1.185 999
3.630 0.035 1.023 821
4.125 0.040 1.133 5988
5.724 0.055 1.524 3622
5.728 0.055 1.508 3263
4.143 0.040 1.125 2360
4.982 0.048 1.328 783
5.717 0.055 1.487 8766
4.184 0.040 1.122 3448
5.721 0.055 1.471 14150
4.195 0.040 1.112 3892
5.724 0.055 1.454 11536
4.198 0.041 1.100 3108
4.992 0.048 1.284 894
5.728 0.055 1.438 7433
4.193 0.040 1.086 2169
5.095 0.049 1.293 974
5.709 0.055 1.416 7894
4.203 0.041 1.076 1575
5.099 0.049 1.278 982
5.713 0.055 1.399 6832
4.221 0.041 1.067 1164
4.955 0.048 1.231 808
5.693 0.055 1.378 4738
4.951 0.048 1.215 874
4.232 0.041 1.057 860
5.735 0.055 1.370 5394
5.747 0.055 1.355 6587
3.819 0.037 0.943 808
5.735 0.055 1.335 6074
3.829 0.037 0.934 1312
5.192 0.050 1.221 1103
5.730 0.055 1.317 4615
5.196 0.050 1.206 1489
3.831 0.037 0.923 1474
5.726 0.055 1.299 3513
5.199 0.050 1.191 1829
3.841 0.037 0.913 1159
5.706 0.055 1.277 4079
5.202 0.050 1.176 1612
3.851 0.037 0.904 1513
5.854 0.056 1.307 1293
5.717 0.055 1.262 3591
3.846 0.037 0.891 1825
5.865 0.057 1.292 1121
5.205 0.050 1.161 1075
5.736 0.055 1.249 2785
5.907 0.057 1.282 1532
6.054 0.058 1.311 1345
3.848 0.037 0.880 1246
5.755 0.056 1.235 2107
6.050 0.058 1.292 2065
5.902 0.057 1.264 1818
4.122 0.040 0.921 1764
5.781 0.056 1.223 4026
6.053 0.058 1.275 2479
4.124 0.040 0.909 2198
5.408 0.052 1.152 1489
5.769 0.056 1.203 4338
6.275 0.061 1.298 2647
4.127 0.040 0.897 2261
6.049 0.058 1.256 1611
5.756 0.056 1.184 3841
6.278 0.061 1.279 2695
4.121 0.040 0.884 2610
6.862 0.066 1.387 2452
5.759 0.056 1.167 3502
4.123 0.040 0.872 3208
6.858 0.066 1.365 2861
6.258 0.060 1.257 2532
4.125 0.040 0.860 3701
6.253 0.060 1.238 3644
5.762 0.056 1.151 3318
6.861 0.066 1.345 3004
4.135 0.040 0.850 3824
6.264 0.060 1.221 3501
6.865 0.066 1.325 3337
5.765 0.056 1.134 2861
4.137 0.040 0.838 3390
6.299 0.061 1.208 3375
6.868 0.066 1.306 2559
6.033 0.058 1.163 2241
6.864 0.066 1.284 3152
6.317 0.061 1.192 3061
4.139 0.040 0.826 2717
6.036 0.058 1.145 2618
6.875 0.066 1.266 7412
4.134 0.040 0.813 2081
6.328 0.061 1.175 2043
6.539 0.063 1.210 1475
6.878 0.066 1.246 12931
4.135 0.040 0.801 1622
6.331 0.061 1.157 1249
6.534 0.063 1.190 989
6.881 0.066 1.226 16450
4.130 0.040 0.788 1090
6.319 0.061 1.136 752
6.885 0.066 1.206 15672
7.338 0.071 1.277 877
6.880 0.066 1.185 11220
7.342 0.071 1.256 1407
7.029 0.068 1.208 881
8.241 0.080 1.394 792
6.883 0.066 1.165 7527
7.337 0.071 1.233 1736
8.261 0.080 1.372 1089
7.032 0.068 1.187 781
6.894 0.067 1.146 5115
7.340 0.071 1.212 2051
8.272 0.080 1.349 1724
7.489 0.072 1.234 952
6.904 0.067 1.127 3581
7.343 0.071 1.191 2479
8.276 0.080 1.325 2111
7.492 0.072 1.212 1400
6.907 0.067 1.107 3138
7.346 0.071 1.169 2596
8.248 0.080 1.297 2045
7.495 0.072 1.190 1770
8.227 0.079 1.270 2691
6.902 0.067 1.086 2588
7.459 0.072 1.163 2452
8.071 0.078 1.248 1466
8.223 0.079 1.245 3509
8.042 0.078 1.220 2230
7.352 0.071 1.127 2186
6.913 0.067 1.067 1831
8.163 0.079 1.212 3589
7.363 0.071 1.106 2004
8.014 0.077 1.193 1935
7.512 0.072 1.126 1206
8.151 0.079 1.187 3806
7.468 0.072 1.098 1862
8.002 0.077 1.167 1849
8.300 0.080 1.206 1009
8.154 0.079 1.163 3204
8.005 0.077 1.144 2159
7.470 0.072 1.077 1512
8.086 0.078 1.131 3533
7.536 0.073 1.063 1783
7.371 0.071 1.042 1291
8.065 0.078 1.104 5324
7.547 0.073 1.042 1355
8.215 0.079 1.122 1183
8.084 0.078 1.083 4519
8.094 0.078 1.060 3665
7.945 0.077 1.043 1367
8.018 0.077 1.028 6678
8.168 0.079 1.045 1044
8.021 0.077 1.005 9383
8.170 0.079 1.021 1332
8.031 0.078 0.982 8633
8.181 0.079 0.998 1255
8.034 0.078 0.959 6482
8.183 0.079 0.974 1031
8.052 0.078 0.937 5634
8.201 0.079 0.952 795
8.054 0.078 0.914 6896
8.204 0.079 0.928 932
8.048 0.078 0.890 5905
8.198 0.079 0.904 1316
8.059 0.078 0.867 4121
8.208 0.079 0.881 1408
8.053 0.078 0.843 3110
8.203 0.079 0.856 1619
8.031 0.078 0.818 3316
8.205 0.079 0.833 1664
8.536 0.082 0.861 856
8.033 0.078 0.794 5164
8.285 0.080 0.815 1356
8.514 0.082 0.834 1112
8.035 0.078 0.771 6523
8.524 0.082 0.810 2183
8.287 0.080 0.791 1132
8.037 0.078 0.748 6918
8.534 0.082 0.786 3122
8.297 0.080 0.768 1120
8.046 0.078 0.725 5939
8.536 0.082 0.761 4137
8.307 0.080 0.744 1223
8.538 0.082 0.736 4839
8.048 0.078 0.702 3909
8.309 0.080 0.720 1374
8.547 0.082 0.712 4898
8.042 0.078 0.678 1850
8.350 0.081 0.699 1757
8.192 0.079 0.688 1023
8.549 0.082 0.687 5245
8.359 0.081 0.675 2203
8.154 0.079 0.662 1625
8.535 0.082 0.661 4201
8.377 0.081 0.652 1838
8.147 0.079 0.638 1159
8.685 0.084 0.671 839
8.512 0.082 0.635 4229
8.346 0.081 0.626 1372
8.663 0.084 0.644 1021
8.852 0.085 0.655 927
8.506 0.082 0.610 4318
8.862 0.086 0.630 1453
8.348 0.081 0.601 1305
8.499 0.082 0.585 3830
8.863 0.086 0.604 1561
8.349 0.081 0.577 1396
8.509 0.082 0.561 2898
8.825 0.085 0.577 1508
8.350 0.081 0.553 1241
8.991 0.087 0.585 818
8.541 0.082 0.538 1919
8.866 0.086 0.553 1520
8.692 0.084 0.545 1115
9.245 0.089 0.571 785
8.550 0.083 0.513 1819
8.883 0.086 0.528 1654
8.701 0.084 0.520 1236
9.246 0.089 0.544 853
8.536 0.082 0.488 1472
8.892 0.086 0.502 1257
8.741 0.084 0.496 1237
8.734 0.084 0.471 1207
8.513 0.082 0.462 1153
8.940 0.086 0.478 990
8.727 0.084 0.445 1205
8.498 0.082 0.437 923
8.941 0.086 0.452 794
8.720 0.084 0.419 850
9.258 0.089 0.437 786
9.283 0.090 0.411 927
14.284 0.138 0.558 754
14.285 0.138 0.516 1029
9.292 0.090 0.384 1020
9.300 0.090 0.357 973
14.286 0.138 0.474 942
12.515 0.121 0.324 758
12.532 0.121 0.287 910
9.445 0.091 0.251 849
9.429 0.091 0.223 825
12.532 0.121 0.251 803
0.951 0.009 0.147 754
9.350 0.090 0.195 821
0.943 0.009 0.145 786
9.358 0.090 0.168 989
0.951 0.009 0.142 794
9.358 0.090 0.141 795
2.359 0.011 1.791 8178
2.237 0.010 1.703 894
2.364 0.011 1.784 16356
2.242 0.010 1.697 1789
2.369 0.011 1.778 16356
2.246 0.010 1.691 1789
2.367 0.011 1.766 14105
2.244 0.010 1.680 1312
2.490 0.011 1.853 910
2.359 0.011 1.750 12752
2.482 0.011 1.837 1592
2.370 0.011 1.748 8984
2.494 0.011 1.834 2510
2.414 0.011 1.769 7132
2.290 0.010 1.683 1286
2.538 0.011 1.854 1094
2.419 0.011 1.762 7132
2.295 0.010 1.676 1286
2.543 0.011 1.847 1122
2.430 0.011 1.759 6762
2.306 0.010 1.674 1243
2.554 0.012 1.844 1127
2.487 0.011 1.788 9821
2.323 0.010 1.677 873
2.499 0.011 1.785 10698
2.374 0.011 1.701 1010
2.503 0.011 1.778 11684
2.378 0.011 1.694 1009
2.515 0.011 1.775 8869
2.390 0.011 1.692 1397
2.067 0.009 1.477 1356
2.520 0.011 1.768 6229
2.071 0.009 1.471 1970
2.394 0.011 1.685 1508
2.524 0.011 1.761 6229
2.074 0.009 1.465 2156
2.399 0.011 1.678 1219
2.542 0.011 1.762 5973
2.078 0.009 1.459 2342
2.416 0.011 1.680 1277
2.554 0.011 1.759 6112
2.075 0.009 1.449 1797
2.427 0.011 1.677 1426
2.578 0.012 1.765 7236
2.073 0.009 1.439 1314
2.445 0.011 1.679 1090
2.590 0.012 1.762 9050
2.070 0.009 1.429 1698
2.594 0.012 1.754 7127
2.074 0.009 1.423 2106
2.606 0.012 1.751 5213
2.077 0.009 1.417 2734
2.611 0.012 1.744 5350
2.081 0.009 1.411 3361
2.738 0.012 1.824 770
2.615 0.012 1.736 5488
2.091 0.009 1.409 3289
2.743 0.012 1.816 991
2.627 0.012 1.733 5416
2.102 0.009 1.408 3384
2.754 0.012 1.812 903
2.658 0.012 1.742 5768
2.112 0.010 1.406 2419
2.676 0.012 1.743 7060
2.129 0.010 1.408 1546
2.805 0.013 1.821 861
2.548 0.011 1.664 771
2.681 0.012 1.735 8668
2.810 0.013 1.813 1024
2.133 0.010 1.402 1015
2.553 0.011 1.657 819
2.692 0.012 1.731 8029
2.821 0.013 1.809 1637
2.564 0.012 1.654 819
2.704 0.012 1.728 7559
2.833 0.013 1.805 1990
2.575 0.012 1.650 797
2.702 0.012 1.716 7326
2.831 0.013 1.793 3260
2.706 0.012 1.708 7212
2.836 0.013 1.785 4227
2.711 0.012 1.701 6210
2.841 0.013 1.777 4076
2.729 0.012 1.701 5351
2.859 0.013 1.777 3286
2.741 0.012 1.697 5100
2.871 0.013 1.772 2114
2.745 0.012 1.689 4959
2.875 0.013 1.764 1411
2.756 0.012 1.685 4674
2.887 0.013 1.760 3045
2.871 0.013 1.740 8122
2.740 0.012 1.666 2385
2.876 0.013 1.732 10403
2.745 0.012 1.658 1696
2.887 0.013 1.727 10751
2.756 0.012 1.654 1675
2.899 0.013 1.723 11776
2.767 0.012 1.650 1415
3.030 0.014 1.796 758
2.903 0.013 1.715 9449
2.772 0.012 1.642 1017
3.035 0.014 1.787 1000
2.887 0.013 1.695 7473
3.019 0.014 1.767 2201
2.899 0.013 1.690 7637
3.031 0.014 1.762 1931
2.987 0.013 1.727 9437
2.854 0.013 1.656 2014
3.119 0.014 1.799 1318
2.998 0.013 1.723 11388
2.866 0.013 1.651 2561
3.131 0.014 1.794 1085
3.024 0.014 1.725 11749
2.891 0.013 1.654 4195
3.028 0.014 1.716 13121
2.896 0.013 1.646 4202
3.040 0.014 1.711 12388
2.907 0.013 1.641 3901
3.045 0.014 1.703 10830
2.911 0.013 1.633 2734
3.056 0.014 1.698 9982
2.923 0.013 1.628 3389
3.054 0.014 1.685 10391
2.920 0.013 1.616 1959
3.058 0.014 1.676 9983
2.924 0.013 1.608 1385
3.056 0.014 1.664 9163
3.190 0.014 1.732 1073
2.922 0.013 1.596 1048
3.081 0.014 1.666 9898
2.947 0.013 1.598 1371
3.216 0.014 1.734 770
3.135 0.014 1.682 17151
3.001 0.014 1.615 2414
3.147 0.014 1.677 20876
3.005 0.014 1.606 1928
3.289 0.015 1.747 1223
3.151 0.014 1.668 25097
3.300 0.015 1.741 2529
3.016 0.014 1.601 1979
3.156 0.014 1.658 33784
3.298 0.015 1.728 3048
3.021 0.014 1.592 1709
3.153 0.014 1.646 38385
3.303 0.015 1.719 2948
3.018 0.014 1.580 1406
3.165 0.014 1.640 38585
3.300 0.015 1.706 3357
3.022 0.014 1.571 1150
3.169 0.014 1.631 35364
3.305 0.015 1.696 4099
3.033 0.014 1.566 1170
3.166 0.014 1.619 32130
3.302 0.015 1.683 4789
3.030 0.014 1.554 1211
3.170 0.014 1.610 27143
3.306 0.015 1.674 4814
3.443 0.015 1.738 1535
3.027 0.014 1.542 1059
3.175 0.014 1.601 18457
3.354 0.015 1.685 7143
3.555 0.016 1.779 1363
3.039 0.014 1.537 895
3.179 0.014 1.591 12684
3.409 0.015 1.698 8575
3.552 0.016 1.765 2032
3.420 0.015 1.692 11865
3.183 0.014 1.582 10609
3.564 0.016 1.758 3231
3.425 0.015 1.682 10959
3.187 0.014 1.573 8308
3.576 0.016 1.751 4983
3.437 0.015 1.675 6947
3.595 0.016 1.747 6700
3.192 0.014 1.564 4485
3.600 0.016 1.737 7512
3.347 0.015 1.623 3551
3.203 0.014 1.558 1912
3.605 0.016 1.727 7217
3.373 0.015 1.623 2998
3.193 0.014 1.542 777
3.609 0.016 1.716 5359
3.443 0.016 1.643 3632
3.190 0.014 1.530 801
3.454 0.016 1.636 4799
3.599 0.016 1.700 3192
3.201 0.014 1.524 922
3.737 0.017 1.760 866
3.676 0.017 1.721 4420
3.473 0.016 1.632 3822
3.212 0.014 1.518 1221
3.608 0.016 1.679 6191
3.470 0.016 1.619 1776
3.216 0.014 1.509 1302
3.746 0.017 1.739 985
3.620 0.016 1.672 8333
3.758 0.017 1.731 1456
3.227 0.015 1.503 1045
3.453 0.016 1.600 1003
3.625 0.016 1.661 7561
3.763 0.017 1.720 3053
3.472 0.016 1.596 838
3.239 0.015 1.497 756
3.724 0.017 1.691 7776
3.585 0.016 1.632 2292
3.728 0.017 1.680 9652
3.590 0.016 1.622 1445
3.733 0.017 1.670 9084
3.594 0.016 1.612 920
3.745 0.017 1.662 11154
2.340 0.011 1.082 796
3.749 0.017 1.651 14534
2.335 0.011 1.072 1312
3.746 0.017 1.637 15131
2.338 0.011 1.065 1889
3.750 0.017 1.626 13497
2.340 0.011 1.059 2404
3.890 0.018 1.683 895
3.755 0.017 1.616 13464
2.343 0.011 1.052 2757
3.894 0.018 1.671 1329
3.759 0.017 1.605 12498
2.346 0.011 1.045 2909
3.899 0.018 1.660 1284
3.837 0.017 1.623 9416
2.348 0.011 1.039 2675
3.841 0.017 1.612 10877
2.358 0.011 1.035 1885
3.838 0.017 1.598 11780
2.368 0.011 1.031 1236
3.850 0.017 1.590 14118
2.378 0.011 1.027 1290
3.847 0.017 1.576 20355
2.381 0.011 1.020 1302
3.851 0.017 1.565 21562
2.391 0.011 1.016 1182
3.862 0.017 1.556 14519
2.401 0.011 1.012 1688
3.867 0.017 1.545 10123
2.411 0.011 1.008 2243
3.863 0.017 1.532 9894
2.413 0.011 1.001 2013
3.875 0.017 1.523 9437
2.431 0.011 1.000 1801
3.886 0.017 1.515 10609
2.448 0.011 0.998 1963
3.898 0.018 1.506 9952
2.451 0.011 0.991 1564
3.909 0.018 1.497 7710
2.438 0.011 0.979 1795
3.891 0.018 1.478 8693
2.441 0.011 0.972 2472
3.879 0.017 1.462 12717
2.495 0.011 0.983 2220
3.883 0.017 1.451 11343
2.505 0.011 0.979 2085
3.887 0.018 1.440 9758
2.508 0.011 0.971 1829
3.906 0.018 1.434 9144
2.510 0.011 0.964 1169
3.932 0.018 1.430 10378
3.936 0.018 1.418 11080
3.940 0.018 1.407 8665
3.928 0.018 1.391 6881
3.932 0.018 1.380 10252
3.936 0.018 1.368 13717
4.147 0.019 1.435 757
3.947 0.018 1.359 10273
3.950 0.018 1.348 4864
3.961 0.018 1.339 5220
3.957 0.018 1.325 8830
3.968 0.018 1.316 10525
3.979 0.018 1.307 10332
3.990 0.018 1.298 7986
4.001 0.018 1.288 5691
4.012 0.018 1.279 5160
4.023 0.018 1.270 5000
4.019 0.018 1.256 6424
4.037 0.018 1.249 7006
4.048 0.018 1.239 6578
4.051 0.018 1.227 6116
4.047 0.018 1.214 4550
4.058 0.018 1.204 7296
4.068 0.018 1.194 12877
4.214 0.019 1.233 951
4.079 0.018 1.185 9125
5.703 0.026 1.607 786
4.097 0.018 1.177 6244
5.708 0.026 1.590 1819
3.507 0.016 1.025 798
4.108 0.018 1.167 9161
5.712 0.026 1.574 2886
3.525 0.016 1.019 1079
4.126 0.019 1.159 10926
5.708 0.026 1.555 3454
3.543 0.016 1.013 880
4.311 0.019 1.205 837
4.129 0.019 1.147 10317
5.720 0.026 1.541 5526
4.975 0.022 1.356 769
5.732 0.026 1.526 6323
4.132 0.019 1.135 5954
5.736 0.026 1.510 5791
4.158 0.019 1.129 3229
5.732 0.026 1.491 8638
4.154 0.019 1.115 2722
5.721 0.026 1.471 12189
4.149 0.019 1.101 2656
5.725 0.026 1.454 8998
4.151 0.019 1.089 2495
5.721 0.026 1.436 4875
4.200 0.019 1.088 2245
4.031 0.018 1.049 923
4.980 0.022 1.266 843
5.709 0.026 1.416 6586
4.172 0.019 1.069 1743
4.983 0.022 1.252 1372
4.018 0.018 1.034 790
5.713 0.026 1.399 6938
4.979 0.022 1.236 1618
4.198 0.019 1.062 1611
5.693 0.026 1.378 5522
4.216 0.019 1.053 1668
4.974 0.022 1.220 1333
5.705 0.026 1.363 4569
4.126 0.019 1.021 2110
4.985 0.022 1.207 814
5.731 0.026 1.352 3923
4.129 0.019 1.009 2443
5.189 0.023 1.236 1175
5.719 0.026 1.332 3809
5.193 0.023 1.221 2388
4.131 0.019 0.997 1358
5.723 0.026 1.315 3226
5.196 0.023 1.206 3077
3.924 0.018 0.942 835
5.199 0.023 1.191 3305
5.734 0.026 1.300 2327
3.834 0.017 0.912 877
5.202 0.023 1.176 2726
5.706 0.026 1.277 2657
3.859 0.017 0.905 1046
5.741 0.026 1.267 4001
5.127 0.023 1.145 2034
3.854 0.017 0.893 1466
5.896 0.027 1.298 905
5.744 0.026 1.250 4482
5.130 0.023 1.130 1638
5.402 0.024 1.184 1604
5.892 0.027 1.279 1365
5.786 0.026 1.241 3293
5.397 0.024 1.166 2637
4.130 0.019 0.923 1602
6.050 0.027 1.292 1467
5.797 0.026 1.226 6132
5.408 0.024 1.152 2979
6.054 0.027 1.275 1635
4.132 0.019 0.911 1621
5.769 0.026 1.203 5896
5.411 0.024 1.137 2884
6.275 0.028 1.298 2277
4.135 0.019 0.899 1493
5.757 0.026 1.184 5170
6.278 0.028 1.279 2353
4.121 0.019 0.884 2102
5.414 0.024 1.121 2011
5.760 0.026 1.167 5404
4.123 0.019 0.872 3374
6.266 0.028 1.258 2172
6.866 0.031 1.367 1955
5.763 0.026 1.151 5411
4.133 0.019 0.862 4318
6.254 0.028 1.238 3067
6.862 0.031 1.345 2552
5.765 0.026 1.134 4768
4.128 0.019 0.849 4380
6.031 0.027 1.180 3533
6.272 0.028 1.222 3056
6.034 0.027 1.163 4145
4.130 0.019 0.837 3683
5.768 0.026 1.117 3342
6.299 0.028 1.208 3285
6.037 0.027 1.145 3854
6.318 0.028 1.192 3258
6.536 0.029 1.229 2659
6.880 0.031 1.287 2658
6.883 0.031 1.267 6512
6.040 0.027 1.128 2552
6.539 0.029 1.210 2532
6.329 0.028 1.175 2253
6.879 0.031 1.246 12157
6.050 0.027 1.111 1757
6.535 0.029 1.190 1350
6.332 0.029 1.157 1303
6.882 0.031 1.226 16129
6.053 0.027 1.094 2137
6.452 0.029 1.157 795
7.320 0.033 1.296 759
6.885 0.031 1.206 15331
6.064 0.027 1.078 1658
7.331 0.033 1.276 1177
6.572 0.030 1.157 757
6.888 0.031 1.186 9673
7.342 0.033 1.256 1780
6.082 0.027 1.063 976
7.052 0.032 1.211 939
6.883 0.031 1.165 4051
7.337 0.033 1.233 2309
7.055 0.032 1.191 1079
7.340 0.033 1.212 2440
6.894 0.031 1.146 1920
7.489 0.034 1.234 1298
7.058 0.032 1.170 857
7.343 0.033 1.191 2663
6.913 0.031 1.128 2295
7.492 0.034 1.212 1782
8.268 0.037 1.324 975
7.347 0.033 1.169 2949
6.908 0.031 1.107 2518
7.495 0.034 1.190 1905
8.209 0.037 1.291 1360
7.451 0.034 1.162 2753
6.903 0.031 1.086 2458
7.302 0.033 1.142 2313
8.220 0.037 1.268 1615
7.337 0.033 1.125 3213
8.043 0.036 1.220 2012
8.215 0.037 1.244 1950
6.913 0.031 1.067 1908
7.347 0.033 1.104 3416
8.164 0.037 1.212 2737
8.015 0.036 1.193 1648
7.497 0.034 1.124 1585
8.159 0.037 1.188 2658
7.460 0.034 1.097 2412
7.311 0.033 1.078 2038
8.010 0.036 1.168 1878
8.028 0.036 1.147 2954
7.463 0.034 1.076 2387
8.178 0.037 1.166 1923
7.314 0.033 1.057 1402
8.023 0.036 1.123 4189
7.521 0.034 1.061 2406
8.173 0.037 1.141 2076
7.371 0.033 1.042 1487
8.026 0.036 1.100 5581
8.176 0.037 1.118 1999
7.531 0.034 1.040 1954
7.382 0.033 1.022 879
8.013 0.036 1.075 4617
8.163 0.037 1.092 1824
7.534 0.034 1.018 1359
8.000 0.036 1.049 4303
8.150 0.037 1.067 1532
7.528 0.034 0.995 1157
7.308 0.033 0.970 765
8.011 0.036 1.027 6755
7.641 0.034 0.986 1037
7.492 0.034 0.969 793
8.021 0.036 1.005 8852
7.510 0.034 0.949 879
7.659 0.034 0.965 848
8.024 0.036 0.981 7474
8.026 0.036 0.958 4908
8.028 0.036 0.935 4230
8.039 0.036 0.912 5730
8.041 0.036 0.889 5046
8.043 0.036 0.866 3439
8.193 0.037 0.879 757
8.037 0.036 0.842 3156
8.187 0.037 0.855 796
8.031 0.036 0.818 3899
8.300 0.037 0.841 1014
8.033 0.036 0.794 5583
8.302 0.037 0.817 1092
8.507 0.038 0.833 1011
8.035 0.036 0.771 6525
8.517 0.038 0.809 1897
8.296 0.037 0.792 988
8.037 0.036 0.748 6685
8.526 0.038 0.785 2574
8.305 0.037 0.768 1032
