3.093 5.068 1.485 1072
2.992 4.903 1.441 931
3.248 5.321 1.535 2575
3.171 5.196 1.501 2295
3.324 5.447 1.568 1964
3.401 5.572 1.601 1473
3.395 5.562 1.579 3601
3.254 5.331 1.518 3426
3.173 5.200 1.484 1738
3.397 5.566 1.560 4026
3.312 5.427 1.524 3124
3.236 5.302 1.492 2121
3.159 5.176 1.459 850
3.318 5.437 1.507 3690
3.395 5.563 1.539 3551
3.238 5.305 1.474 1321
3.472 5.688 1.571 1006
3.325 5.447 1.490 3126
3.401 5.573 1.522 2376
3.478 5.698 1.553 1255
3.244 5.315 1.457 879
3.294 5.398 1.459 2727
3.456 5.662 1.524 2095
3.561 5.834 1.567 1184
3.379 5.537 1.493 828
3.478 5.699 1.513 2818
3.321 5.441 1.450 2089
3.559 5.831 1.545 2071
3.636 5.957 1.576 1333
3.480 5.702 1.494 2892
3.557 5.828 1.524 2742
3.327 5.451 1.433 1886
3.634 5.954 1.554 1846
3.559 5.831 1.504 2773
3.478 5.699 1.473 2012
3.644 5.971 1.537 1378
3.329 5.454 1.415 1024
3.585 5.875 1.493 2330
3.682 6.034 1.530 1369
3.508 5.749 1.464 1318
3.428 5.616 1.433 799
3.547 5.812 1.458 2674
3.689 6.044 1.511 1881
3.765 6.170 1.540 913
3.581 5.868 1.451 2705
3.687 6.040 1.489 2574
3.764 6.167 1.518 1502
3.865 6.332 1.555 1161
3.689 6.044 1.469 2555
3.863 6.329 1.532 2059
3.766 6.170 1.497 1574
3.583 5.871 1.431 1414
3.857 6.319 1.508 2172
3.674 6.021 1.443 2026
3.751 6.147 1.470 1245
3.938 6.452 1.537 775
3.818 6.256 1.472 3221
3.741 6.130 1.445 2622
3.899 6.389 1.501 2044
4.013 6.575 1.541 1489
3.755 6.153 1.428 3850
3.837 6.286 1.457 3000
3.914 6.413 1.483 1970
4.015 6.579 1.518 1933
3.778 6.190 1.414 2606
3.855 6.316 1.441 2364
3.993 6.542 1.488 1462
4.107 6.729 1.526 1297
3.865 6.333 1.422 2620
3.971 6.506 1.457 2601
4.162 6.819 1.521 1427
4.243 6.952 1.548 1415
4.021 6.589 1.451 3689
3.944 6.462 1.426 2366
3.859 6.323 1.398 1628
4.269 6.995 1.533 1544
4.015 6.579 1.426 4480
3.938 6.452 1.401 2512
4.117 6.745 1.459 2007
4.280 7.012 1.512 1770
4.017 6.582 1.404 3628
4.131 6.769 1.440 2675
4.241 6.949 1.475 2202
3.940 6.455 1.379 1924
4.141 6.785 1.420 2456
4.288 7.025 1.465 2267
4.023 6.592 1.383 1827
4.381 7.179 1.494 1440
4.298 7.042 1.444 2070
4.143 6.788 1.396 1475
4.595 7.529 1.535 1256
4.375 7.169 1.467 1187
4.777 7.826 1.563 1834
4.308 7.059 1.422 1645
4.601 7.539 1.510 1510
4.463 7.312 1.469 1463
4.489 7.356 1.451 1832
4.775 7.823 1.535 1799
4.677 7.663 1.506 1287
4.599 7.536 1.483 1166
4.675 7.660 1.479 1778
4.495 7.366 1.427 1699
4.838 7.927 1.526 1240
4.597 7.533 1.457 1191
4.677 7.663 1.453 1822
4.599 7.536 1.431 1227
4.836 7.924 1.498 1188
4.501 7.375 1.403 1075
5.140 8.422 1.555 1398
4.907 8.041 1.490 1347
4.683 7.673 1.428 1339
4.997 8.188 1.515 1169
5.142 8.425 1.526 2008
5.036 8.252 1.497 1449
4.828 7.910 1.441 1394
5.277 8.646 1.563 1099
5.136 8.416 1.495 2103
4.830 7.913 1.414 1673
5.271 8.636 1.531 1298
5.034 8.248 1.468 1279
5.293 8.673 1.507 1491
5.138 8.419 1.467 1303
4.828 7.910 1.386 1236
5.584 9.149 1.582 1152
5.365 8.791 1.495 2268
5.287 8.663 1.475 1721
5.557 9.105 1.544 1088
5.479 8.978 1.524 955
5.367 8.794 1.465 2896
5.289 8.667 1.446 1736
5.633 9.230 1.531 1297
5.494 9.002 1.497 1121
5.365 8.790 1.434 2756
5.287 8.663 1.415 1520
5.631 9.226 1.499 1383
5.553 9.099 1.480 1273
5.367 8.794 1.404 2419
5.551 9.095 1.448 1643
5.289 8.666 1.386 1316
5.629 9.223 1.466 1267
5.373 8.803 1.375 1931
5.553 9.099 1.417 1861
5.676 9.300 1.445 1176
5.287 8.663 1.355 1118
5.596 9.169 1.395 2085
5.674 9.296 1.413 1382
6.313 10.343 1.557 1184
5.371 8.800 1.344 1084
5.577 9.138 1.360 2508
5.659 9.273 1.378 1461
6.315 10.347 1.522 1347
5.864 9.608 1.423 1048
5.579 9.141 1.328 1921
5.657 9.269 1.345 1290
6.321 10.357 1.487 1218
5.870 9.618 1.391 1145
6.549 10.730 1.499 1907
6.327 10.367 1.453 1448
5.597 9.171 1.301 1359
6.770 11.093 1.545 1305
6.337 10.384 1.419 1915
6.551 10.733 1.463 1915
6.772 11.096 1.508 1471
6.870 11.257 1.528 987
6.335 10.380 1.383 2083
6.770 11.093 1.469 1582
6.557 10.743 1.427 1087
6.454 10.575 1.407 1047
6.337 10.383 1.348 2181
6.772 11.096 1.431 1681
6.464 10.592 1.372 1116
6.335 10.379 1.312 2013
6.774 11.099 1.393 1476
6.466 10.595 1.336 962
6.901 11.308 1.417 858
6.336 10.382 1.276 1630
6.977 11.432 1.392 1262
6.780 11.109 1.356 1115
6.558 10.746 1.316 948
6.979 11.435 1.353 1347
6.880 11.273 1.336 1216
6.338 10.385 1.241 1150
6.786 11.119 1.319 1021
6.882 11.276 1.297 1112
6.977 11.431 1.313 966
6.784 11.115 1.281 915
6.340 10.388 1.206 801
6.884 11.279 1.259 949
6.785 11.118 1.243 865
7.118 11.663 1.297 769
6.787 11.120 1.205 795
6.890 11.289 1.221 750
1.128 1.820 1.634 5092
1.209 1.951 1.745 1045
1.130 1.823 1.628 10185
1.211 1.955 1.738 2090
0.998 1.610 1.449 1297
1.065 1.719 1.541 783
1.132 1.827 1.622 10185
1.214 1.959 1.732 2090
1.000 1.613 1.444 1411
1.141 1.842 1.625 7045
1.220 1.968 1.730 2706
1.002 1.616 1.438 1526
1.077 1.737 1.538 929
1.157 1.867 1.637 4979
1.229 1.983 1.732 3554
1.092 1.763 1.551 2301
1.004 1.619 1.433 1526
1.156 1.866 1.626 5638
1.235 1.993 1.730 3542
1.091 1.761 1.540 2248
1.006 1.623 1.427 1319
1.155 1.864 1.615 6442
1.258 2.030 1.751 3954
1.090 1.759 1.530 2177
1.008 1.626 1.422 1112
1.154 1.862 1.605 7162
1.260 2.034 1.744 3954
1.089 1.757 1.520 1460
1.009 1.629 1.417 862
1.153 1.860 1.594 8241
1.222 1.971 1.683 5588
1.287 2.077 1.768 1899
1.087 1.754 1.509 868
1.155 1.864 1.588 8241
1.234 1.992 1.690 7899
1.257 2.029 1.710 9446
1.157 1.867 1.582 6499
1.260 2.033 1.703 12537
1.159 1.871 1.575 4757
1.266 2.042 1.701 10730
1.168 1.885 1.578 3551
1.268 2.046 1.694 9082
1.181 1.906 1.585 3048
1.274 2.056 1.691 7331
1.183 1.909 1.578 3387
1.259 2.031 1.663 5909
1.186 1.913 1.572 3726
1.261 2.035 1.656 5819
1.184 1.911 1.561 2927
1.267 2.045 1.653 9957
1.183 1.909 1.550 2221
1.273 2.054 1.651 14707
1.182 1.907 1.540 1386
1.279 2.063 1.648 16588
1.166 1.882 1.512 833
1.285 2.073 1.645 19556
1.290 2.082 1.643 19102
1.293 2.086 1.636 18955
1.295 2.090 1.629 17692
1.297 2.093 1.622 16428
1.300 2.097 1.615 14520
1.302 2.101 1.608 12612
1.304 2.104 1.600 13844
1.306 2.108 1.593 15076
1.312 2.117 1.590 14897
1.434 2.314 1.728 772
1.322 2.132 1.591 16327
1.436 2.318 1.720 1005
1.327 2.142 1.588 14876
1.446 2.333 1.721 1917
1.330 2.145 1.581 10452
1.452 2.343 1.717 2889
1.321 2.132 1.562 7822
1.447 2.335 1.701 3391
1.327 2.141 1.559 6166
1.450 2.339 1.693 4015
1.518 2.450 1.768 868
1.362 2.197 1.587 6766
1.452 2.343 1.685 3736
1.364 2.201 1.579 6674
1.458 2.353 1.681 4276
1.362 2.198 1.568 6631
1.460 2.357 1.673 4932
1.529 2.468 1.747 787
1.463 2.360 1.665 6662
1.365 2.202 1.561 5410
1.539 2.484 1.747 1256
1.465 2.364 1.657 8392
1.367 2.205 1.553 4189
1.542 2.488 1.738 1846
1.467 2.368 1.649 7814
1.369 2.209 1.546 2909
1.555 2.509 1.741 1800
1.466 2.366 1.638 7172
1.579 2.548 1.756 2495
1.389 2.242 1.558 1490
1.472 2.375 1.633 6265
1.575 2.541 1.740 4509
1.392 2.245 1.550 1343
1.577 2.545 1.731 7227
1.482 2.391 1.633 5926
1.390 2.243 1.539 1089
1.579 2.549 1.723 7770
1.495 2.412 1.636 6492
1.385 2.235 1.524 948
1.582 2.553 1.714 7056
1.505 2.428 1.636 6146
1.522 2.455 1.642 6978
1.592 2.568 1.713 5965
1.452 2.342 1.572 926
1.594 2.572 1.704 7874
1.524 2.459 1.634 5798
1.664 2.685 1.774 784
1.600 2.582 1.699 9233
1.530 2.469 1.629 3471
1.670 2.695 1.769 759
1.610 2.598 1.698 9191
1.540 2.484 1.628 4010
1.616 2.608 1.692 7790
1.546 2.494 1.624 3527
1.686 2.721 1.761 775
1.633 2.635 1.698 7667
1.563 2.522 1.630 3869
1.658 2.675 1.711 7311
1.587 2.561 1.643 3517
1.517 2.447 1.574 1147
1.660 2.679 1.702 7224
1.590 2.565 1.634 3779
1.519 2.451 1.566 1032
1.663 2.683 1.693 6882
1.588 2.563 1.622 2827
1.658 2.675 1.677 6920
1.576 2.542 1.599 1725
1.729 2.789 1.744 997
1.656 2.673 1.664 7459
1.578 2.546 1.590 1622
1.727 2.787 1.731 1599
1.651 2.664 1.648 6711
1.722 2.779 1.714 2757
1.576 2.543 1.578 1260
1.698 2.741 1.681 6170
1.627 2.626 1.615 3232
1.770 2.856 1.746 1315
1.556 2.511 1.549 933
1.656 2.672 1.630 6438
1.727 2.787 1.695 3448
1.798 2.902 1.761 1222
1.584 2.557 1.565 788
1.673 2.700 1.635 9202
1.763 2.845 1.717 5477
1.835 2.961 1.782 892
1.602 2.584 1.570 819
1.675 2.703 1.626 10895
1.773 2.861 1.714 7258
1.845 2.977 1.779 802
1.776 2.865 1.704 8684
1.681 2.713 1.620 8454
1.847 2.981 1.769 855
1.782 2.875 1.698 11151
1.691 2.729 1.617 4924
1.854 2.991 1.762 891
1.796 2.897 1.698 12724
1.724 2.782 1.635 4253
1.802 2.907 1.692 12910
1.730 2.791 1.629 5800
1.789 2.887 1.669 11895
1.717 2.771 1.606 2294
1.861 3.003 1.731 1912
1.784 2.878 1.653 8373
1.856 2.995 1.715 5170
1.712 2.762 1.590 1097
1.839 2.968 1.688 7989
1.767 2.851 1.626 2477
1.838 2.966 1.675 7907
1.766 2.849 1.614 1548
1.836 2.963 1.662 9147
1.764 2.846 1.601 911
1.909 3.080 1.723 788
1.839 2.967 1.652 8949
1.911 3.084 1.712 1494
1.856 2.995 1.654 7786
1.929 3.113 1.715 1415
1.870 3.018 1.654 5405
1.943 3.135 1.714 833
1.892 3.052 1.659 3698
1.875 3.025 1.633 5717
1.948 3.143 1.692 1477
1.881 3.035 1.626 9138
1.954 3.153 1.685 1783
1.902 3.070 1.631 9421
1.976 3.188 1.689 2142
1.829 2.952 1.573 757
1.916 3.092 1.630 6740
1.989 3.210 1.688 2430
1.930 3.114 1.629 5129
2.003 3.233 1.686 2250
1.857 2.996 1.571 788
1.940 3.131 1.624 5105
2.013 3.249 1.681 1574
1.867 3.012 1.567 911
1.946 3.141 1.616 5705
2.020 3.259 1.673 2006
1.873 3.022 1.560 932
1.999 3.225 1.644 8876
1.925 3.107 1.588 3918
1.997 3.223 1.630 15536
1.924 3.104 1.575 3455
1.996 3.220 1.617 13705
1.922 3.101 1.561 1652
2.002 3.230 1.609 8601
2.076 3.349 1.663 886
2.035 3.284 1.621 9997
1.961 3.165 1.566 2308
2.037 3.288 1.609 11763
1.964 3.168 1.555 1642
2.111 3.407 1.664 945
2.040 3.291 1.598 8835
2.114 3.411 1.652 2477
1.966 3.172 1.545 1436
2.050 3.307 1.593 6738
2.124 3.427 1.646 2887
1.976 3.188 1.539 1144
2.075 3.349 1.598 8819
2.150 3.469 1.651 1588
2.001 3.229 1.545 975
2.078 3.352 1.587 6795
2.152 3.472 1.639 2143
2.072 3.343 1.570 5346
2.146 3.463 1.622 2747
2.078 3.353 1.561 5794
2.153 3.473 1.613 4082
2.147 3.464 1.596 5654
2.072 3.344 1.545 2853
2.221 3.585 1.647 1083
2.153 3.474 1.587 5576
2.079 3.354 1.536 2058
2.228 3.595 1.638 1587
2.191 3.535 1.599 5587
2.104 3.395 1.541 3695
2.265 3.655 1.649 898
2.193 3.539 1.587 7168
2.110 3.405 1.532 2208
2.268 3.659 1.637 1533
2.187 3.529 1.570 9158
2.262 3.650 1.619 2302
2.112 3.409 1.520 1074
2.182 3.520 1.553 7940
2.256 3.641 1.602 4040
2.331 3.762 1.651 1025
2.251 3.632 1.584 5620
2.176 3.511 1.536 4086
2.330 3.759 1.636 946
2.257 3.642 1.575 4531
2.182 3.521 1.526 1295
2.348 3.788 1.633 1189
2.243 3.620 1.552 3916
2.318 3.741 1.600 2145
2.246 3.623 1.540 4052
2.321 3.745 1.587 3442
2.396 3.866 1.635 1042
2.331 3.761 1.580 4574
2.248 3.627 1.528 3244
2.406 3.882 1.627 1455
2.369 3.822 1.589 5378
2.258 3.643 1.520 2828
2.476 3.995 1.655 798
2.375 3.832 1.578 6928
2.300 3.711 1.532 2265
2.466 3.979 1.634 1187
2.385 3.849 1.570 8219
2.310 3.727 1.524 2233
2.461 3.970 1.616 1672
2.391 3.858 1.560 8051
2.316 3.737 1.514 2210
2.467 3.980 1.605 1741
2.389 3.856 1.544 5132
2.489 4.016 1.603 1724
2.314 3.734 1.499 1423
2.491 4.020 1.590 2792
2.380 3.840 1.524 2498
2.485 4.010 1.571 3917
2.366 3.817 1.502 1896
2.565 4.139 1.618 876
2.480 4.001 1.553 5117
2.376 3.834 1.493 1079
2.571 4.149 1.606 988
2.478 3.998 1.537 3823
2.590 4.179 1.601 1982
2.520 4.066 1.546 3089
2.596 4.189 1.589 2327
2.444 3.944 1.503 791
2.518 4.063 1.530 4396
2.594 4.186 1.573 2906
2.588 4.176 1.554 4824
2.512 4.054 1.512 2645
2.610 4.212 1.551 4896
2.534 4.089 1.509 1380
2.703 4.361 1.601 1025
2.637 4.255 1.550 4384
2.560 4.132 1.508 1619
2.713 4.377 1.591 1532
2.659 4.290 1.546 3605
2.583 4.167 1.505 1471
2.653 4.281 1.527 3088
2.729 4.404 1.567 1583
2.577 4.158 1.487 1010
2.699 4.356 1.536 4271
2.623 4.232 1.496 1920
2.820 4.550 1.599 1210
2.706 4.366 1.523 5039
2.822 4.554 1.583 2637
2.629 4.242 1.483 1834
2.712 4.376 1.510 3729
2.828 4.564 1.570 2346
2.635 4.252 1.471 1424
2.867 4.626 1.573 3517
2.714 4.379 1.495 3305
2.790 4.502 1.534 1457
2.865 4.623 1.555 5223
2.784 4.493 1.515 3280
2.704 4.363 1.474 2745
2.962 4.779 1.603 2360
2.867 4.627 1.539 7420
2.964 4.783 1.587 4115
2.782 4.490 1.497 3287
2.706 4.366 1.459 1442
2.869 4.630 1.523 7241
2.970 4.793 1.573 4926
2.793 4.506 1.486 1602
2.968 4.790 1.554 6635
2.871 4.633 1.508 6231
2.795 4.510 1.471 1170
3.090 4.986 1.613 1075
2.971 4.793 1.538 7092
2.870 4.630 1.490 5726
3.088 4.983 1.594 1275
2.888 4.660 1.482 3985
2.973 4.797 1.522 3666
3.098 4.999 1.581 1901
3.024 4.879 1.528 2780
3.121 5.036 1.573 2087
2.890 4.663 1.466 2022
3.198 5.160 1.609 1424
3.026 4.882 1.511 3400
3.192 5.150 1.587 3054
3.115 5.026 1.552 1973
2.888 4.660 1.448 937
3.145 5.075 1.548 4101
3.222 5.200 1.583 2607
3.032 4.892 1.497 2472
3.221 5.197 1.563 3497
3.143 5.072 1.529 3072
3.026 4.882 1.476 1207
3.306 5.334 1.601 761
3.223 5.200 1.546 4139
3.121 5.036 1.501 1757
3.300 5.325 1.580 1230
3.032 4.892 1.461 1068
3.229 5.210 1.530 3021
3.306 5.335 1.563 1749
3.127 5.046 1.485 1124
3.026 4.882 1.441 912
3.280 5.293 1.533 2722
3.203 5.168 1.500 2226
3.357 5.417 1.566 2080
3.435 5.542 1.599 1562
3.433 5.539 1.579 3608
3.290 5.309 1.518 3514
3.213 5.184 1.486 1671
3.435 5.543 1.560 4011
3.349 5.405 1.524 3040
3.272 5.280 1.492 2145
3.195 5.155 1.459 836
3.356 5.415 1.507 3717
3.433 5.539 1.539 3518
3.274 5.283 1.474 1344
3.510 5.664 1.571 964
3.358 5.418 1.489 3197
3.435 5.543 1.520 2487
3.513 5.668 1.552 1400
3.280 5.293 1.457 959
3.331 5.375 1.459 2898
3.494 5.639 1.524 2084
3.605 5.816 1.568 1184
3.417 5.513 1.493 843
3.517 5.675 1.513 2828
3.358 5.418 1.450 2105
3.599 5.807 1.545 2037
3.676 5.932 1.576 1363
3.519 5.678 1.494 2880
3.597 5.804 1.524 2701
3.364 5.428 1.433 1906
3.674 5.929 1.554 1882
3.599 5.807 1.504 2726
3.517 5.675 1.473 2020
3.685 5.945 1.537 1430
3.366 5.431 1.415 1039
3.625 5.850 1.493 2357
3.724 6.008 1.530 1351
3.548 5.725 1.464 1291
3.466 5.592 1.433 816
3.627 5.853 1.474 2691
3.730 6.018 1.511 1915
3.550 5.728 1.445 1035
3.808 6.144 1.540 886
3.621 5.843 1.451 2747
3.732 6.022 1.491 2622
3.810 6.147 1.519 1299
3.904 6.299 1.554 1159
3.730 6.018 1.469 2602
3.906 6.303 1.532 1928
3.623 5.847 1.431 1428
3.808 6.144 1.497 1336
3.715 5.995 1.443 2120
3.855 6.220 1.492 2119
3.933 6.346 1.519 1443
3.861 6.230 1.472 3213
3.783 6.104 1.445 2601
3.943 6.363 1.501 2044
4.058 6.548 1.541 1512
3.797 6.127 1.428 3879
3.879 6.260 1.457 3068
4.060 6.551 1.518 1950
3.957 6.386 1.483 1855
3.803 6.137 1.409 2601
3.935 6.349 1.453 2366
4.062 6.555 1.496 1505
4.152 6.700 1.526 1334
4.015 6.478 1.457 2668
3.904 6.300 1.421 2486
4.290 6.923 1.548 1450
4.187 6.757 1.514 1432
4.066 6.561 1.451 3781
3.988 6.435 1.426 2372
3.902 6.296 1.398 1628
4.317 6.966 1.533 1586
4.060 6.551 1.426 4437
3.982 6.425 1.401 2498
4.163 6.717 1.459 2015
4.327 6.983 1.512 1825
4.062 6.554 1.404 3591
4.177 6.740 1.440 2613
4.329 6.986 1.488 2175
3.984 6.428 1.379 1924
4.187 6.757 1.420 2466
4.331 6.989 1.464 2286
4.068 6.564 1.383 1823
4.434 7.155 1.496 1501
4.346 7.013 1.444 2014
4.189 6.760 1.396 1480
4.647 7.498 1.535 1260
4.436 7.159 1.471 1043
4.830 7.794 1.563 1842
4.356 7.029 1.422 1620
4.653 7.508 1.510 1519
4.517 7.288 1.470 1500
4.539 7.325 1.451 1835
4.832 7.797 1.536 1767
4.729 7.631 1.506 1319
4.651 7.504 1.483 1185
4.727 7.628 1.479 1834
4.546 7.335 1.427 1657
4.884 7.880 1.524 1586
4.649 7.501 1.457 1200
4.729 7.631 1.453 1864
4.882 7.877 1.496 1609
4.651 7.504 1.431 1197
5.117 8.257 1.561 1047
4.876 7.867 1.466 1377
5.202 8.393 1.556 1369
4.731 7.634 1.427 1344
5.123 8.267 1.534 1260
5.200 8.390 1.526 2049
4.890 7.890 1.443 1594
5.088 8.210 1.496 1470
5.336 8.610 1.563 1066
5.189 8.374 1.494 2271
4.884 7.880 1.414 1954
5.086 8.207 1.467 1296
5.330 8.600 1.531 1277
4.886 7.883 1.387 1628
5.353 8.637 1.507 1461
5.191 8.377 1.465 1387
5.646 9.110 1.582 1202
5.421 8.747 1.494 2117
5.342 8.620 1.474 1586
5.619 9.067 1.544 1107
5.541 8.940 1.524 954
5.423 8.750 1.464 2630
5.344 8.624 1.445 1678
5.696 9.191 1.531 1271
5.617 9.064 1.512 1146
5.425 8.754 1.434 2625
5.346 8.627 1.415 1521
5.694 9.188 1.499 1369
5.615 9.061 1.480 1300
5.427 8.757 1.404 2525
5.613 9.057 1.448 1674
5.692 9.184 1.466 1299
5.344 8.623 1.385 1269
5.433 8.767 1.375 2058
5.615 9.061 1.417 1898
5.739 9.261 1.445 1183
5.346 8.626 1.355 1039
5.658 9.131 1.395 2112
5.737 9.257 1.413 1419
6.383 10.300 1.557 1150
5.866 9.465 1.441 1057
5.640 9.100 1.360 2578
5.718 9.227 1.377 1462
6.385 10.304 1.522 1292
5.930 9.568 1.423 1014
5.641 9.103 1.328 1981
5.720 9.230 1.345 1257
6.387 10.307 1.486 1184
5.936 9.578 1.391 1125
6.622 10.685 1.499 1910
6.398 10.324 1.453 1449
5.660 9.133 1.301 1382
6.846 11.046 1.545 1265
6.408 10.340 1.419 1939
6.624 10.688 1.463 1913
6.848 11.050 1.508 1398
6.947 11.210 1.528 994
6.406 10.337 1.383 2096
6.846 11.046 1.469 1476
6.630 10.698 1.427 1094
6.526 10.531 1.407 1060
6.408 10.340 1.348 2192
6.848 11.049 1.431 1573
6.532 10.541 1.371 1123
6.405 10.336 1.312 2028
6.845 11.046 1.393 1379
6.538 10.550 1.336 960
6.978 11.260 1.417 835
6.407 10.339 1.276 1639
7.055 11.384 1.392 1192
6.856 11.062 1.356 1062
6.631 10.701 1.316 933
7.057 11.387 1.353 1325
6.957 11.226 1.336 1176
6.409 10.342 1.241 1146
6.862 11.072 1.319 1054
6.959 11.229 1.297 1086
7.055 11.383 1.313 979
6.859 11.068 1.281 936
7.200 11.618 1.337 797
6.961 11.232 1.259 938
6.861 11.071 1.243 821
7.198 11.614 1.297 809
1.133 1.816 1.634 4893
1.215 1.947 1.745 1018
1.003 1.609 1.459 817
1.135 1.820 1.628 9787
1.217 1.951 1.738 2037
1.006 1.612 1.453 1635
1.070 1.716 1.541 775
1.137 1.824 1.622 9787
1.219 1.955 1.732 2037
1.008 1.616 1.448 1553
1.143 1.833 1.620 6856
1.225 1.965 1.730 2668
1.010 1.619 1.443 1472
1.078 1.729 1.534 776
1.121 1.798 1.583 5127
1.235 1.980 1.732 3525
1.012 1.622 1.437 1472
1.161 1.862 1.626 5277
1.241 1.989 1.730 3506
1.096 1.758 1.540 2261
1.010 1.620 1.427 1212
1.164 1.866 1.620 5807
1.260 2.021 1.746 3904
1.098 1.761 1.534 2643
1.012 1.623 1.422 972
1.156 1.853 1.600 6545
1.263 2.025 1.739 3904
1.090 1.748 1.515 1188
1.014 1.626 1.417 760
1.158 1.857 1.594 7729
1.227 1.968 1.683 5431
1.293 2.073 1.768 1865
1.092 1.751 1.509 901
1.160 1.860 1.588 7729
1.240 1.988 1.690 7657
1.263 2.025 1.710 9311
1.162 1.864 1.582 6239
1.266 2.029 1.703 12322
1.161 1.862 1.571 4769
1.271 2.039 1.701 10517
1.167 1.871 1.569 3502
1.274 2.043 1.694 8843
1.187 1.903 1.585 2937
1.280 2.052 1.691 6919
1.185 1.901 1.574 3244
1.265 2.028 1.663 5413
1.187 1.904 1.567 3551
1.267 2.032 1.656 5276
1.190 1.908 1.561 2771
1.273 2.041 1.653 9090
1.188 1.905 1.550 2081
1.279 2.050 1.651 13582
1.187 1.903 1.540 1309
1.285 2.060 1.648 15645
1.168 1.873 1.508 813
1.290 2.069 1.645 18847
1.296 2.079 1.643 18807
1.299 2.082 1.636 18937
1.301 2.086 1.629 17462
1.303 2.090 1.622 15987
1.306 2.093 1.615 14124
1.308 2.097 1.608 12262
1.310 2.101 1.600 13522
1.312 2.104 1.593 14782
1.322 2.119 1.594 14550
1.328 2.129 1.591 15912
1.443 2.314 1.720 957
1.333 2.138 1.588 14533
1.453 2.329 1.721 1883
1.336 2.142 1.581 10297
1.459 2.339 1.717 2839
1.327 2.128 1.562 7781
1.454 2.331 1.701 3345
1.333 2.137 1.559 6103
1.453 2.329 1.689 3957
1.522 2.440 1.764 917
1.368 2.193 1.587 6414
1.459 2.339 1.685 3658
1.370 2.197 1.579 5690
1.465 2.349 1.681 4006
1.372 2.200 1.572 4966
1.463 2.347 1.669 4544
1.533 2.458 1.743 867
1.469 2.356 1.665 6168
1.371 2.198 1.561 3741
1.546 2.479 1.747 1316
1.472 2.360 1.657 7822
1.355 2.172 1.534 2961
1.549 2.483 1.738 1949
1.470 2.358 1.646 7332
1.360 2.181 1.531 2512
1.562 2.505 1.741 1862
1.473 2.362 1.638 6729
1.587 2.544 1.756 2581
1.392 2.232 1.554 2105
1.479 2.371 1.633 5864
1.582 2.536 1.740 4544
1.398 2.241 1.550 1773
1.584 2.540 1.731 7204
1.488 2.387 1.633 5814
1.404 2.251 1.546 1467
1.587 2.544 1.723 7758
1.502 2.408 1.636 6523
1.413 2.266 1.546 1264
1.589 2.548 1.714 7032
1.511 2.424 1.636 6063
1.408 2.258 1.531 1293
1.529 2.451 1.642 6842
1.599 2.564 1.713 5954
1.410 2.261 1.523 1256
1.601 2.568 1.704 7808
1.531 2.455 1.634 5673
1.416 2.271 1.520 1153
1.672 2.681 1.774 796
1.607 2.577 1.699 9106
1.537 2.464 1.629 3431
1.418 2.274 1.512 868
1.678 2.691 1.769 755
1.614 2.587 1.694 9047
1.543 2.474 1.625 3268
1.623 2.603 1.692 7667
1.553 2.490 1.624 3515
1.694 2.717 1.761 756
1.641 2.631 1.698 7653
1.570 2.517 1.630 3844
1.666 2.671 1.711 7332
1.595 2.557 1.643 3452
1.524 2.443 1.574 1154
1.668 2.675 1.702 7266
1.597 2.561 1.634 3690
1.526 2.447 1.566 1028
1.670 2.678 1.693 6889
1.595 2.558 1.622 2743
1.665 2.670 1.677 6853
1.583 2.538 1.599 1684
1.737 2.784 1.744 961
1.664 2.668 1.664 7392
1.585 2.541 1.590 1571
1.735 2.782 1.731 1558
1.659 2.660 1.648 6551
1.730 2.774 1.714 2719
1.580 2.533 1.575 1224
1.706 2.736 1.681 6008
1.635 2.621 1.615 3111
1.778 2.851 1.746 1324
1.563 2.506 1.549 896
1.663 2.667 1.630 6207
1.735 2.782 1.695 3428
1.807 2.897 1.761 1216
1.681 2.695 1.635 8998
1.771 2.840 1.717 5297
1.843 2.955 1.782 865
1.683 2.699 1.626 10688
1.781 2.856 1.714 7129
1.853 2.972 1.779 781
1.784 2.860 1.704 8680
1.689 2.708 1.620 8292
1.856 2.976 1.769 836
1.790 2.870 1.698 11285
1.699 2.724 1.617 4737
1.862 2.986 1.762 882
1.804 2.892 1.698 12742
1.732 2.777 1.635 4099
1.810 2.902 1.692 12835
1.738 2.786 1.629 5595
1.797 2.882 1.669 11766
1.725 2.766 1.606 2202
1.870 2.998 1.731 1925
1.792 2.873 1.653 8253
1.864 2.989 1.715 5222
1.719 2.757 1.590 1068
1.848 2.963 1.688 8010
1.775 2.846 1.626 2461
1.846 2.960 1.675 7886
1.774 2.844 1.614 1578
1.845 2.958 1.662 9068
1.772 2.841 1.601 921
1.847 2.962 1.652 8812
1.920 3.079 1.712 1431
1.865 2.990 1.654 7736
1.938 3.107 1.715 1360
1.879 3.012 1.654 5409
1.952 3.130 1.714 831
1.881 3.016 1.644 3593
1.954 3.133 1.703 1261
1.883 3.020 1.633 5736
1.957 3.137 1.692 1535
1.890 3.030 1.626 9100
1.963 3.147 1.685 1790
1.911 3.064 1.631 9441
1.985 3.182 1.689 2187
1.925 3.087 1.630 7040
1.999 3.205 1.688 2415
1.939 3.109 1.629 5470
2.013 3.227 1.686 2282
1.865 2.991 1.571 775
1.945 3.119 1.621 5309
2.019 3.237 1.678 2185
1.871 3.001 1.564 766
1.955 3.135 1.616 5791
2.029 3.253 1.673 2050
1.881 3.017 1.560 900
2.008 3.220 1.644 8753
1.934 3.101 1.588 3718
2.006 3.217 1.630 15329
1.932 3.099 1.575 3166
2.005 3.215 1.617 13537
1.931 3.096 1.561 1608
2.011 3.224 1.609 8411
2.085 3.343 1.663 885
2.044 3.278 1.621 9907
1.970 3.159 1.566 1966
2.047 3.282 1.609 11683
1.972 3.163 1.555 1531
2.121 3.401 1.664 937
2.049 3.285 1.598 8796
2.123 3.405 1.652 2472
1.975 3.166 1.545 1369
2.059 3.302 1.593 6593
2.133 3.421 1.646 2909
1.985 3.182 1.539 1117
2.089 3.349 1.601 8805
2.163 3.469 1.654 1440
2.014 3.230 1.548 1001
2.087 3.347 1.587 6738
2.162 3.466 1.639 2135
2.085 3.344 1.573 5198
2.160 3.464 1.625 2830
2.088 3.347 1.561 5727
2.162 3.467 1.613 4184
2.157 3.458 1.596 5582
2.082 3.338 1.545 2893
2.232 3.578 1.647 1044
2.163 3.468 1.587 5418
2.088 3.348 1.536 2010
2.238 3.588 1.638 1535
2.201 3.529 1.599 5464
2.114 3.389 1.541 3564
2.276 3.649 1.649 884
2.199 3.526 1.584 6994
2.120 3.399 1.532 2151
2.274 3.646 1.634 1791
2.197 3.523 1.570 9032
2.272 3.644 1.619 2277
2.122 3.403 1.520 1063
2.192 3.514 1.553 7889
2.267 3.635 1.602 4002
2.342 3.755 1.651 1045
2.261 3.626 1.584 5487
2.186 3.505 1.536 4064
2.340 3.753 1.636 956
2.267 3.635 1.575 4265
2.192 3.515 1.526 1297
2.358 3.782 1.633 1185
2.250 3.607 1.550 3722
2.325 3.728 1.598 2318
2.256 3.617 1.540 3897
2.331 3.738 1.587 3377
2.407 3.859 1.635 1104
2.341 3.754 1.580 4352
2.258 3.620 1.528 3095
2.417 3.876 1.627 1531
2.380 3.815 1.589 5286
2.268 3.637 1.520 2675
2.487 3.988 1.655 781
2.386 3.825 1.578 6785
2.310 3.704 1.532 2270
2.477 3.972 1.634 1187
2.396 3.842 1.570 7972
2.320 3.720 1.524 2013
2.472 3.963 1.616 1650
2.402 3.852 1.560 8024
2.326 3.730 1.514 2011
2.490 3.993 1.612 1751
2.400 3.849 1.544 5063
2.504 4.015 1.606 1729
2.324 3.727 1.499 1338
2.502 4.013 1.590 2697
2.386 3.827 1.522 2387
2.497 4.003 1.571 3805
2.377 3.811 1.502 1834
2.573 4.125 1.616 908
2.491 3.994 1.553 5060
2.387 3.827 1.493 1111
2.583 4.142 1.606 1047
2.489 3.991 1.537 3802
2.601 4.171 1.601 1948
2.535 4.065 1.549 3085
2.612 4.188 1.591 2093
2.459 3.943 1.506 960
2.530 4.056 1.530 4274
2.606 4.178 1.573 2834
2.600 4.169 1.554 4827
2.524 4.047 1.512 2508
2.622 4.205 1.551 4994
2.546 4.082 1.509 1382
2.715 4.353 1.601 1043
2.649 4.247 1.550 4455
2.572 4.124 1.508 1659
2.725 4.370 1.591 1581
2.671 4.283 1.546 3608
2.594 4.160 1.505 1522
2.665 4.273 1.527 3095
2.742 4.396 1.567 1583
2.588 4.150 1.487 969
2.712 4.348 1.536 4406
2.635 4.225 1.496 1734
2.833 4.542 1.599 1122
2.718 4.358 1.523 4978
2.835 4.546 1.583 2519
2.641 4.235 1.483 1840
2.724 4.368 1.510 3504
2.841 4.556 1.570 2199
2.647 4.245 1.471 1374
2.880 4.618 1.573 3393
2.726 4.371 1.495 3267
2.803 4.495 1.534 1485
2.878 4.615 1.555 4988
2.797 4.485 1.515 3096
2.716 4.355 1.474 2766
2.975 4.771 1.603 2414
2.880 4.618 1.539 7130
2.978 4.774 1.587 4182
2.795 4.482 1.497 3096
2.718 4.358 1.459 1425
2.886 4.628 1.525 6942
2.984 4.785 1.573 5008
2.809 4.505 1.488 1710
2.982 4.782 1.554 6614
2.885 4.625 1.508 5888
2.807 4.502 1.471 1172
3.104 4.977 1.613 1064
2.984 4.785 1.538 7093
2.883 4.622 1.490 5312
3.102 4.974 1.594 1256
2.986 4.789 1.522 3686
2.901 4.652 1.482 3661
3.112 4.991 1.581 1851
3.037 4.870 1.528 3000
3.135 5.027 1.573 2113
2.903 4.655 1.466 1809
3.212 5.151 1.609 1461
3.039 4.874 1.511 3574
3.206 5.141 1.587 3054
3.129 5.017 1.552 1982
2.905 4.658 1.450 851
3.160 5.067 1.548 4127
3.237 5.191 1.583 2625
3.046 4.884 1.497 2561
3.239 5.194 1.565 3519
3.158 5.063 1.529 3104
3.040 4.874 1.476 1311
3.237 5.191 1.546 4147
3.135 5.028 1.501 1767
3.315 5.316 1.580 1200
3.046 4.884 1.461 1091
3.244 5.201 1.530 3021
3.321 5.326 1.563 1706
3.142 5.038 1.485 1121
3.040 4.874 1.441 825
3.299 5.290 1.535 2604
3.221 5.165 1.501 2178
3.377 5.414 1.568 1978
3.454 5.539 1.601 1462
3.448 5.529 1.579 3572
3.305 5.300 1.518 3306
3.228 5.175 1.486 1605
3.451 5.533 1.560 3948
3.365 5.395 1.524 3050
3.287 5.270 1.492 1981
3.209 5.146 1.459 797
3.371 5.405 1.507 3707
3.449 5.530 1.539 3473
3.289 5.274 1.474 1245
3.526 5.654 1.571 1011
3.373 5.408 1.489 3184
3.451 5.533 1.520 2477
3.529 5.658 1.552 1425
3.295 5.284 1.457 881
3.346 5.366 1.459 2918
3.510 5.629 1.524 2107
3.621 5.806 1.568 1186
3.432 5.504 1.493 809
3.533 5.665 1.513 2843
3.373 5.408 1.450 2139
3.615 5.796 1.545 2041
3.693 5.921 1.576 1350
3.535 5.668 1.494 2857
3.613 5.793 1.524 2667
3.379 5.418 1.433 1916
3.691 5.918 1.554 1855
3.615 5.797 1.504 2701
3.533 5.665 1.473 1990
3.701 5.935 1.537 1419
3.381 5.421 1.415 1028
3.642 5.840 1.493 2347
3.736 5.991 1.529 1348
3.564 5.714 1.464 1291
3.814 6.116 1.558 808
3.644 5.843 1.474 2649
3.747 6.008 1.511 1912
3.566 5.718 1.445 1054
3.825 6.133 1.540 859
3.634 5.826 1.449 2686
3.749 6.011 1.491 2653
3.827 6.137 1.519 1320
3.922 6.288 1.554 1230
3.747 6.008 1.469 2613
3.924 6.292 1.532 1945
3.825 6.133 1.497 1409
3.640 5.836 1.431 1377
3.732 5.985 1.443 2089
3.872 6.209 1.492 1953
3.951 6.335 1.519 1359
3.879 6.219 1.472 3028
3.800 6.094 1.445 2455
3.961 6.351 1.501 1956
4.076 6.536 1.541 1509
3.815 6.117 1.428 3740
3.897 6.249 1.457 2999
4.079 6.540 1.518 1967
3.975 6.375 1.483 1879
3.821 6.126 1.409 2593
3.953 6.338 1.453 2462
4.077 6.537 1.495 1554
4.171 6.689 1.526 1330
4.033 6.467 1.457 2568
3.926 6.295 1.422 2538
4.227 6.778 1.521 1457
4.310 6.911 1.548 1406
4.085 6.550 1.451 3891
4.006 6.424 1.426 2304
3.920 6.285 1.398 1636
4.337 6.954 1.533 1561
4.079 6.540 1.426 4524
4.000 6.414 1.401 2404
4.182 6.705 1.459 1969
4.347 6.970 1.512 1814
4.081 6.543 1.404 3577
4.196 6.729 1.440 2538
4.308 6.907 1.475 2261
4.002 6.417 1.379 1835
4.206 6.745 1.420 2377
4.351 6.977 1.464 2207
4.087 6.553 1.383 1792
4.450 7.136 1.494 1536
4.370 7.007 1.445 1993
4.208 6.748 1.396 1410
4.672 7.491 1.536 1230
4.457 7.146 1.471 1118
4.856 7.787 1.564 1801
4.376 7.017 1.422 1593
4.537 7.276 1.470 1468
4.674 7.495 1.510 1434
4.560 7.312 1.451 1843
4.854 7.783 1.536 1799
4.751 7.617 1.506 1298
4.672 7.491 1.483 1139
4.749 7.614 1.479 1784
4.566 7.322 1.427 1664
4.906 7.867 1.524 1609
4.670 7.488 1.457 1219
4.751 7.617 1.453 1818
4.904 7.863 1.496 1637
4.672 7.491 1.431 1187
5.144 8.249 1.563 1044
4.910 7.873 1.470 1444
5.221 8.372 1.555 1415
4.753 7.621 1.427 1334
4.989 8.000 1.491 1188
5.219 8.369 1.525 2030
4.912 7.877 1.443 1678
5.095 8.169 1.492 1439
4.833 7.750 1.422 1079
5.213 8.359 1.494 2222
4.910 7.873 1.415 2037
5.109 8.192 1.467 1285
5.354 8.585 1.531 1247
4.908 7.870 1.387 1782
5.377 8.622 1.507 1383
5.219 8.369 1.467 1372
5.672 9.094 1.582 1230
5.446 8.732 1.494 2034
5.367 8.605 1.474 1508
4.901 7.859 1.358 1107
5.645 9.051 1.544 1096
5.448 8.735 1.464 2604
5.369 8.608 1.445 1592
5.722 9.175 1.531 1255
5.643 9.048 1.512 1125
5.450 8.738 1.434 2723
5.371 8.612 1.415 1457
5.720 9.171 1.499 1362
5.641 9.045 1.480 1293
5.452 8.741 1.404 2698
5.639 9.041 1.448 1674
5.718 9.168 1.466 1285
5.368 8.608 1.385 1258
5.458 8.751 1.375 2082
5.641 9.045 1.417 1885
5.765 9.245 1.445 1178
5.370 8.611 1.355 1061
5.684 9.114 1.395 2092
5.763 9.241 1.413 1415
6.412 10.282 1.557 1150
5.892 9.448 1.441 1072
5.665 9.084 1.360 2550
5.744 9.211 1.377 1472
6.415 10.285 1.522 1282
5.957 9.551 1.423 1000
5.667 9.087 1.328 1956
5.746 9.214 1.345 1258
6.421 10.296 1.487 1184
6.650 10.663 1.536 1101
6.652 10.666 1.499 1905
6.427 10.305 1.453 1459
5.686 9.117 1.301 1340
6.877 11.027 1.545 1282
6.433 10.315 1.418 1934
6.654 10.669 1.463 1903
6.879 11.030 1.508 1430
6.979 11.190 1.528 1016
6.435 10.318 1.383 2084
6.877 11.027 1.469 1485
6.660 10.679 1.427 1082
6.560 10.519 1.407 1044
6.437 10.322 1.348 2170
6.879 11.030 1.431 1549
6.566 10.529 1.372 1120
6.435 10.318 1.312 2000
6.877 11.027 1.393 1352
6.568 10.532 1.336 959
7.010 11.240 1.417 798
6.436 10.321 1.276 1614
7.087 11.364 1.392 1213
6.887 11.043 1.356 1042
6.662 10.682 1.316 933
7.089 11.367 1.353 1314
6.989 11.206 1.336 1172
6.438 10.323 1.241 1131
6.893 11.053 1.319 1002
6.991 11.209 1.297 1096
7.087 11.363 1.313 962
6.891 11.049 1.281 901
6.440 10.326 1.206 770
6.992 11.212 1.259 947
6.892 11.052 1.243 821
7.230 11.594 1.297 789
1.137 1.814 1.634 4807
1.219 1.944 1.745 1026
1.008 1.607 1.459 786
1.140 1.817 1.628 9615
1.222 1.948 1.738 2053
1.010 1.610 1.453 1572
1.075 1.714 1.541 935
1.142 1.821 1.622 9615
1.224 1.952 1.732 2053
1.012 1.613 1.448 1384
1.077 1.717 1.535 876
1.148 1.830 1.620 6958
1.230 1.962 1.730 2660
1.010 1.611 1.438 1201
1.082 1.726 1.534 852
1.126 1.795 1.583 5163
1.240 1.977 1.732 3471
1.012 1.614 1.433 1201
1.166 1.859 1.626 5354
1.246 1.986 1.730 3421
1.101 1.755 1.540 2110
1.014 1.617 1.427 1022
1.168 1.863 1.620 5693
1.269 2.023 1.751 3719
1.103 1.758 1.534 2448
1.016 1.620 1.422 842
1.164 1.856 1.605 6208
1.271 2.027 1.744 3719
1.098 1.751 1.520 1427
1.163 1.854 1.594 7295
1.232 1.965 1.683 5403
1.298 2.070 1.768 1849
1.097 1.749 1.509 852
1.245 1.985 1.690 7523
1.165 1.857 1.588 7295
1.268 2.022 1.710 9185
1.164 1.855 1.577 5968
1.271 2.026 1.703 12125
1.166 1.859 1.571 4702
1.277 2.036 1.701 10294
1.168 1.862 1.565 3494
1.279 2.039 1.694 8586
1.188 1.894 1.580 2798
1.285 2.049 1.691 6617
1.190 1.898 1.574 3103
1.270 2.025 1.663 5189
1.192 1.901 1.567 3408
1.269 2.023 1.652 5033
1.191 1.899 1.557 2658
1.278 2.038 1.653 8777
1.193 1.902 1.550 1968
1.284 2.047 1.651 13211
1.192 1.900 1.540 1238
1.290 2.057 1.648 15423
1.173 1.870 1.508 834
1.296 2.066 1.645 18762
1.302 2.075 1.643 18625
1.304 2.079 1.636 18718
1.306 2.083 1.629 17176
1.308 2.086 1.622 15634
1.311 2.090 1.615 13857
1.313 2.094 1.608 12080
1.315 2.097 1.600 13235
1.318 2.101 1.593 14390
1.327 2.116 1.594 14295
1.333 2.125 1.591 15790
1.449 2.310 1.720 971
1.339 2.135 1.588 14420
1.458 2.326 1.721 1831
1.341 2.138 1.581 10131
1.465 2.335 1.717 2718
1.336 2.130 1.566 7675
1.460 2.328 1.701 3162
1.338 2.134 1.559 6006
1.458 2.326 1.689 3714
1.528 2.436 1.764 887
1.373 2.190 1.587 5695
1.465 2.335 1.685 3373
1.376 2.193 1.579 4736
1.471 2.345 1.681 3699
1.469 2.343 1.669 4301
1.381 2.203 1.576 3804
1.539 2.454 1.743 857
1.475 2.352 1.665 5871
1.365 2.177 1.549 3393
1.552 2.475 1.747 1375
1.478 2.356 1.657 7511
1.364 2.175 1.538 3404
1.555 2.479 1.738 2015
1.476 2.354 1.646 7045
1.370 2.184 1.534 2916
1.568 2.501 1.741 1912
1.479 2.358 1.638 6429
1.593 2.540 1.756 2529
1.379 2.199 1.535 1813
1.485 2.367 1.633 5554
1.588 2.532 1.740 4411
1.389 2.214 1.535 1316
1.591 2.536 1.731 6913
1.509 2.406 1.648 5882
1.398 2.230 1.535 1148
1.593 2.540 1.723 7436
1.508 2.404 1.636 6743
1.400 2.233 1.527 1004
1.595 2.544 1.714 6779
1.514 2.414 1.632 6136
1.535 2.447 1.642 6696
1.605 2.560 1.713 5833
1.464 2.335 1.572 992
1.608 2.564 1.704 7739
1.537 2.451 1.634 5591
1.678 2.676 1.774 776
1.614 2.573 1.699 9151
1.543 2.461 1.629 3416
1.685 2.686 1.769 761
1.624 2.589 1.698 9156
1.553 2.476 1.628 3943
1.630 2.599 1.692 7760
1.559 2.486 1.624 3396
1.701 2.712 1.761 753
1.647 2.627 1.698 7570
1.576 2.513 1.630 3895
1.668 2.660 1.707 7177
1.597 2.547 1.639 3445
1.526 2.433 1.571 1083
1.675 2.670 1.702 7131
1.600 2.551 1.630 3696
1.528 2.437 1.563 956
1.677 2.674 1.693 6760
1.598 2.548 1.618 2786
1.672 2.666 1.677 6550
1.589 2.534 1.599 1685
1.744 2.780 1.744 1005
1.674 2.670 1.668 7053
1.595 2.543 1.594 1583
1.746 2.784 1.734 1487
1.665 2.655 1.648 6612
1.737 2.770 1.714 2587
1.590 2.535 1.578 1224
1.713 2.732 1.681 5882
1.641 2.617 1.615 3138
1.785 2.846 1.746 1271
1.569 2.502 1.549 854
1.670 2.663 1.630 6386
1.742 2.778 1.695 3292
1.814 2.892 1.761 1198
1.598 2.548 1.565 762
1.688 2.691 1.635 9062
1.782 2.842 1.720 5116
1.615 2.576 1.570 762
1.690 2.694 1.626 10741
1.792 2.858 1.717 7013
1.791 2.856 1.704 8574
1.696 2.704 1.620 8365
1.863 2.971 1.769 809
1.797 2.866 1.698 11172
1.706 2.720 1.617 4817
1.870 2.981 1.762 861
1.811 2.888 1.698 12612
1.739 2.772 1.635 3952
1.817 2.898 1.692 12739
1.745 2.782 1.629 5368
1.808 2.883 1.672 11744
1.736 2.767 1.609 2414
1.881 2.999 1.735 1380
1.803 2.875 1.656 8090
1.876 2.991 1.718 4152
1.730 2.759 1.594 1047
1.851 2.952 1.685 7728
1.778 2.836 1.623 2249
1.854 2.956 1.675 7690
1.781 2.839 1.614 1596
1.852 2.953 1.662 8915
1.779 2.837 1.601 928
1.855 2.957 1.652 8723
1.928 3.074 1.712 1370
1.872 2.986 1.654 7710
1.946 3.102 1.715 1324
1.886 3.008 1.654 5340
1.960 3.125 1.714 810
1.889 3.011 1.644 3556
1.962 3.129 1.703 1250
1.891 3.015 1.633 5725
1.964 3.132 1.692 1595
1.897 3.025 1.626 9121
1.971 3.142 1.685 1927
1.919 3.060 1.631 9173
1.993 3.177 1.689 2203
1.933 3.082 1.630 6518
2.007 3.200 1.688 2393
1.947 3.104 1.629 5278
2.021 3.222 1.686 2216
1.873 2.986 1.571 752
1.953 3.114 1.621 5559
2.027 3.232 1.678 2094
1.879 2.996 1.564 795
1.959 3.124 1.613 6190
2.033 3.242 1.670 2530
1.885 3.006 1.557 853
2.016 3.215 1.644 8636
1.942 3.096 1.588 4480
2.014 3.212 1.630 15185
1.940 3.094 1.575 3787
2.017 3.216 1.619 13647
1.942 3.097 1.564 2114
2.019 3.219 1.609 8504
1.945 3.101 1.554 907
2.093 3.338 1.663 861
2.053 3.273 1.621 9902
1.978 3.154 1.566 2371
2.055 3.277 1.609 11558
1.980 3.158 1.555 2023
2.130 3.396 1.664 927
2.057 3.280 1.598 8625
2.132 3.399 1.652 2429
1.983 3.161 1.545 1286
2.067 3.296 1.593 6538
2.142 3.416 1.646 2849
1.993 3.177 1.539 1062
2.097 3.344 1.601 8507
2.172 3.463 1.654 1325
2.022 3.225 1.548 1010
2.095 3.341 1.587 6445
2.170 3.461 1.639 1901
2.094 3.339 1.573 5121
2.169 3.458 1.625 2703
2.100 3.348 1.564 5733
2.175 3.468 1.616 4018
2.165 3.453 1.596 5830
2.090 3.333 1.545 2721
2.241 3.573 1.647 1012
2.172 3.463 1.587 5416
2.096 3.343 1.536 1850
2.247 3.583 1.638 1487
2.210 3.523 1.599 5311
2.122 3.384 1.541 3375
2.285 3.643 1.649 852
2.208 3.520 1.584 6674
2.128 3.394 1.532 2060
2.283 3.641 1.634 1771
2.206 3.518 1.570 8695
2.282 3.638 1.619 2346
2.131 3.397 1.520 1037
2.200 3.508 1.553 7641
2.276 3.629 1.602 4246
2.351 3.749 1.651 1056
2.266 3.613 1.582 5656
2.191 3.493 1.533 3723
2.342 3.734 1.631 927
2.276 3.630 1.575 4298
2.201 3.509 1.526 1237
2.376 3.789 1.638 1182
2.307 3.678 1.580 3602
2.382 3.799 1.628 2001
2.231 3.557 1.532 1826
2.261 3.605 1.537 3718
2.337 3.726 1.585 3229
2.412 3.847 1.632 1287
2.351 3.749 1.580 4410
2.267 3.615 1.528 3058
2.427 3.870 1.627 1543
2.389 3.809 1.589 5293
2.277 3.631 1.520 2626
2.493 3.975 1.653 812
2.395 3.819 1.578 6699
2.319 3.698 1.532 2256
2.487 3.966 1.634 1225
2.406 3.836 1.570 7658
2.329 3.714 1.524 2233
2.482 3.957 1.616 1676
2.412 3.846 1.560 7190
2.336 3.724 1.514 2119
2.488 3.967 1.605 1683
2.410 3.843 1.544 4531
2.514 4.009 1.606 1646
2.334 3.721 1.499 1319
2.513 4.006 1.590 2830
2.392 3.814 1.519 2376
2.507 3.997 1.571 4045
2.386 3.805 1.502 1837
2.583 4.119 1.616 891
2.501 3.988 1.553 5019
2.404 3.834 1.498 1120
2.593 4.135 1.606 1064
2.503 3.991 1.540 3650
2.612 4.165 1.601 2039
2.414 3.850 1.489 773
2.542 4.053 1.546 3063
2.618 4.175 1.589 2334
2.540 4.050 1.530 4176
2.616 4.172 1.573 2926
2.610 4.163 1.554 4923
2.534 4.040 1.512 2482
2.629 4.192 1.549 4970
2.552 4.069 1.507 1113
2.726 4.346 1.601 1022
2.659 4.240 1.550 4524
2.582 4.118 1.508 1570
2.736 4.363 1.591 1519
2.682 4.276 1.546 3645
2.605 4.153 1.505 1517
2.672 4.260 1.525 2852
2.749 4.383 1.565 1602
2.723 4.341 1.536 4388
2.646 4.218 1.496 1671
2.844 4.535 1.599 1244
2.725 4.345 1.521 5000
2.846 4.539 1.583 2676
2.648 4.222 1.481 1630
2.735 4.361 1.510 3537
2.849 4.542 1.568 2336
2.658 4.238 1.471 1297
2.892 4.611 1.573 3382
2.737 4.364 1.495 3070
2.814 4.488 1.534 1751
2.890 4.608 1.555 4998
2.804 4.471 1.513 3128
2.727 4.348 1.474 2452
2.987 4.763 1.603 2280
2.892 4.611 1.539 7049
2.990 4.767 1.587 3928
2.806 4.475 1.497 2970
2.729 4.352 1.459 1337
2.898 4.621 1.525 6811
2.992 4.771 1.571 4743
2.821 4.498 1.488 1595
2.994 4.774 1.554 6396
2.896 4.618 1.508 5726
3.116 4.969 1.613 1155
2.819 4.495 1.471 1032
2.996 4.778 1.538 6828
2.898 4.621 1.492 5298
3.110 4.960 1.592 1393
2.913 4.644 1.482 3780
2.998 4.781 1.522 3541
3.121 4.976 1.579 1861
3.050 4.863 1.528 2775
3.127 4.986 1.564 2059
2.919 4.654 1.468 1889
3.225 5.143 1.609 1439
3.052 4.866 1.511 3424
3.219 5.133 1.587 3015
3.142 5.009 1.552 1942
2.921 4.657 1.452 863
3.172 5.059 1.548 3951
3.250 5.183 1.583 2659
3.058 4.876 1.497 2552
3.252 5.186 1.565 3548
3.171 5.055 1.529 2929
3.056 4.873 1.478 1218
3.334 5.317 1.601 756
3.251 5.183 1.546 4173
3.148 5.020 1.501 1653
3.328 5.307 1.580 1262
3.054 4.869 1.460 1015
3.253 5.187 1.528 3009
3.331 5.311 1.561 1961
3.150 5.023 1.484 1048
3.052 4.866 1.441 802
3.312 5.282 1.535 2467
3.234 5.157 1.501 2243
3.390 5.406 1.568 1991
3.468 5.530 1.601 1486
3.462 5.521 1.579 3667
3.319 5.291 1.518 3145
3.241 5.167 1.486 1616
3.464 5.524 1.560 4019
3.378 5.387 1.524 2906
3.300 5.262 1.492 1981
3.222 5.138 1.459 789
3.463 5.521 1.539 3533
3.384 5.397 1.507 3529
3.302 5.265 1.474 1275
3.541 5.646 1.571 993
3.387 5.400 1.489 3095
3.465 5.525 1.520 2539
3.543 5.649 1.552 1423
3.308 5.275 1.457 842
3.360 5.357 1.459 2883
3.524 5.620 1.524 2033
3.636 5.797 1.568 1183
3.446 5.495 1.493 816
3.547 5.656 1.513 2755
3.387 5.400 1.450 2107
3.630 5.787 1.545 2015
3.708 5.912 1.576 1345
3.549 5.659 1.494 2784
3.628 5.784 1.524 2618
3.706 5.909 1.554 1887
3.393 5.410 1.433 1791
3.630 5.788 1.504 2705
3.547 5.656 1.473 1952
3.716 5.926 1.537 1380
3.395 5.413 1.415 957
3.657 5.830 1.493 2349
3.751 5.982 1.529 1291
3.578 5.705 1.464 1200
3.830 6.107 1.558 784
3.659 5.834 1.474 2649
3.762 5.998 1.511 1885
3.580 5.709 1.445 1010
3.840 6.123 1.540 862
3.652 5.824 1.451 2744
3.764 6.002 1.491 2557
3.842 6.127 1.519 1477
3.937 6.278 1.554 1201
3.762 5.998 1.469 2489
3.940 6.282 1.532 1859
3.840 6.124 1.497 1597
3.654 5.827 1.431 1424
3.888 6.200 1.492 2073
3.747 5.975 1.443 2023
3.967 6.325 1.519 1310
3.894 6.209 1.472 3229
3.816 6.084 1.445 2476
3.977 6.341 1.501 1903
4.093 6.526 1.541 1410
3.830 6.107 1.428 3793
3.913 6.239 1.457 3093
3.991 6.365 1.483 1911
4.095 6.530 1.518 1863
3.836 6.117 1.409 2647
3.973 6.335 1.455 2465
4.068 6.487 1.486 1501
4.188 6.678 1.526 1334
4.049 6.457 1.457 2586
3.946 6.292 1.423 2362
4.223 6.734 1.514 1442
4.327 6.900 1.548 1311
4.101 6.540 1.451 3570
4.022 6.414 1.426 2303
4.354 6.943 1.533 1537
3.935 6.275 1.398 1509
4.095 6.530 1.426 4400
4.016 6.404 1.401 2428
4.199 6.695 1.459 1998
4.365 6.959 1.512 1782
4.097 6.533 1.404 3576
4.213 6.718 1.440 2582
4.325 6.897 1.475 2054
4.018 6.407 1.379 1904
4.223 6.734 1.420 2412
4.369 6.966 1.464 2179
4.103 6.542 1.383 1863
4.468 7.125 1.494 1634
4.387 6.996 1.445 1910
4.225 6.738 1.396 1418
4.686 7.473 1.535 1246
4.475 7.135 1.471 1130
4.876 7.774 1.564 1670
4.394 7.006 1.422 1498
4.556 7.264 1.470 1485
4.693 7.483 1.510 1420
4.578 7.301 1.451 1858
4.878 7.778 1.537 1647
4.774 7.612 1.507 1283
4.695 7.486 1.485 1085
4.768 7.602 1.479 1716
4.585 7.310 1.427 1634
4.926 7.854 1.524 1489
4.689 7.476 1.457 1092
4.770 7.605 1.453 1711
4.928 7.858 1.497 1451
4.691 7.479 1.431 1137
5.161 8.229 1.561 1011
5.246 8.365 1.556 1512
4.930 7.861 1.470 1379
4.776 7.615 1.428 1263
5.009 7.987 1.491 1179
5.244 8.362 1.526 2218
4.932 7.864 1.443 1625
5.128 8.176 1.495 1473
4.853 7.738 1.422 1083
5.238 8.352 1.495 2386
4.934 7.867 1.416 1924
5.130 8.180 1.467 1324
5.376 8.572 1.531 1221
4.932 7.864 1.388 1726
5.240 8.356 1.467 1452
5.399 8.608 1.507 1432
5.695 9.080 1.582 1202
5.472 8.725 1.495 2058
5.392 8.598 1.475 1620
4.917 7.840 1.357 1317
5.668 9.037 1.544 1044
5.474 8.728 1.465 2684
5.394 8.602 1.446 1659
5.745 9.160 1.531 1243
5.599 8.927 1.496 1072
5.472 8.725 1.434 2703
5.392 8.598 1.415 1440
5.743 9.157 1.499 1328
5.663 9.031 1.480 1243
5.474 8.728 1.404 2514
5.661 9.027 1.448 1613
5.741 9.154 1.466 1228
5.390 8.595 1.385 1222
5.480 8.737 1.375 1932
5.663 9.030 1.417 1803
5.789 9.230 1.445 1172
5.392 8.598 1.355 1067
5.707 9.100 1.395 1993
5.786 9.227 1.413 1407
6.438 10.266 1.557 1144
5.477 8.734 1.344 1040
5.688 9.070 1.360 2415
5.768 9.197 1.377 1466
6.440 10.269 1.522 1331
5.981 9.536 1.423 998
5.690 9.073 1.328 1852
5.769 9.200 1.345 1276
6.447 10.279 1.487 1238
5.987 9.546 1.391 1110
6.674 10.643 1.498 1774
6.453 10.289 1.453 1524
6.904 11.009 1.545 1331
5.709 9.102 1.301 1271
6.459 10.299 1.418 1997
6.677 10.646 1.462 1758
6.907 11.013 1.508 1499
7.007 11.173 1.528 1028
6.461 10.302 1.383 2127
6.905 11.009 1.469 1591
6.587 10.502 1.407 1043
6.687 10.663 1.427 972
6.463 10.305 1.348 2207
6.907 11.013 1.431 1674
6.593 10.512 1.372 1157
6.461 10.302 1.312 2045
6.909 11.016 1.393 1483
6.595 10.515 1.336 994
7.034 11.216 1.416 777
6.462 10.304 1.276 1669
7.116 11.346 1.392 1158
6.915 11.026 1.356 1143
6.689 10.665 1.316 885
7.118 11.349 1.353 1250
6.464 10.307 1.241 1186
7.017 11.189 1.336 1146
6.921 11.035 1.319 1052
7.019 11.192 1.297 1089
6.918 11.031 1.281 944
7.115 11.345 1.313 935
6.466 10.310 1.206 818
7.025 11.201 1.259 959
6.920 11.034 1.243 872
7.260 11.576 1.297 801
6.922 11.037 1.205 770
7.027 11.204 1.221 753
1.143 1.810 1.634 4686
1.226 1.940 1.745 1013
1.013 1.603 1.459 973
1.146 1.814 1.628 9372
1.228 1.944 1.738 2026
1.015 1.606 1.453 1946
1.080 1.710 1.541 1129
1.148 1.817 1.622 9372
1.231 1.948 1.732 2026
1.013 1.604 1.444 1610
1.082 1.713 1.535 1010
1.154 1.826 1.620 6998
1.233 1.952 1.725 2612
1.015 1.607 1.438 1306
1.088 1.722 1.534 906
1.135 1.797 1.587 5389
1.246 1.973 1.732 3378
1.018 1.611 1.433 1306
1.172 1.856 1.626 5441
1.252 1.982 1.730 3309
1.106 1.751 1.540 1976
1.020 1.614 1.427 1083
1.175 1.859 1.620 5695
1.275 2.019 1.751 3554
1.108 1.755 1.534 2297
1.022 1.617 1.422 861
1.170 1.852 1.605 6072
1.278 2.023 1.744 3554
1.104 1.747 1.520 1383
1.169 1.850 1.594 7084
1.239 1.961 1.683 5264
1.305 2.066 1.768 1769
1.102 1.745 1.509 819
1.251 1.981 1.690 7330
1.171 1.854 1.588 7084
1.275 2.018 1.710 9016
1.173 1.857 1.582 5842
1.277 2.022 1.703 11929
1.172 1.855 1.571 4649
1.283 2.031 1.701 10236
1.174 1.859 1.565 3519
1.286 2.035 1.694 8654
1.194 1.890 1.580 2740
1.292 2.045 1.691 6617
1.196 1.894 1.574 3047
1.276 2.020 1.663 5246
1.199 1.897 1.567 3354
1.275 2.019 1.652 5123
1.197 1.895 1.557 2655
1.281 2.028 1.649 8785
1.199 1.899 1.550 1992
1.287 2.037 1.646 13165
1.202 1.902 1.544 1257
1.297 2.052 1.648 15111
1.179 1.866 1.508 803
1.302 2.062 1.645 18257
1.308 2.071 1.643 17997
1.311 2.075 1.636 17964
1.313 2.078 1.629 16833
1.315 2.082 1.622 15701
1.318 2.086 1.615 14007
1.320 2.089 1.608 12312
1.322 2.093 1.600 13293
1.325 2.097 1.593 14274
1.334 2.112 1.594 14247
1.340 2.121 1.591 15825
1.456 2.305 1.720 966
1.346 2.130 1.588 14395
1.466 2.321 1.721 1804
1.348 2.134 1.581 10009
1.469 2.325 1.713 2674
1.343 2.126 1.566 7604
1.467 2.323 1.701 3070
1.345 2.129 1.559 5978
1.466 2.321 1.689 3554
1.536 2.431 1.764 836
1.358 2.150 1.563 4786
1.472 2.330 1.685 3169
1.364 2.160 1.560 4035
1.475 2.334 1.677 3470
1.477 2.338 1.669 4131
1.367 2.163 1.553 3325
1.547 2.449 1.743 789
1.483 2.348 1.665 5599
1.372 2.172 1.549 3719
1.561 2.470 1.747 1210
1.485 2.351 1.657 7170
1.378 2.182 1.546 4280
1.563 2.474 1.738 1788
1.484 2.349 1.646 6719
1.381 2.185 1.538 3553
1.577 2.496 1.741 1712
1.486 2.353 1.638 6153
1.601 2.535 1.756 2421
1.383 2.189 1.531 1769
1.489 2.357 1.630 5314
1.596 2.527 1.740 4254
1.407 2.227 1.546 866
1.599 2.531 1.731 6750
1.521 2.407 1.652 5940
1.601 2.535 1.723 7285
1.516 2.399 1.636 6786
1.604 2.539 1.714 6643
1.522 2.409 1.632 6098
1.543 2.442 1.642 6603
1.614 2.554 1.713 5738
1.472 2.330 1.572 1021
1.616 2.558 1.704 7570
1.545 2.446 1.634 5550
1.622 2.568 1.699 8844
1.551 2.455 1.629 3411
1.629 2.578 1.694 8783
1.557 2.465 1.625 3216
1.639 2.594 1.692 7429
1.567 2.481 1.624 3443
1.656 2.621 1.698 7340
1.584 2.508 1.630 3926
1.681 2.661 1.711 6989
1.609 2.548 1.643 3515
1.538 2.434 1.574 1149
1.683 2.665 1.702 6995
1.612 2.551 1.634 3747
1.540 2.438 1.566 1029
1.686 2.669 1.693 6593
1.610 2.549 1.622 2816
1.681 2.660 1.677 6321
1.597 2.529 1.599 1711
1.753 2.774 1.744 974
1.679 2.658 1.664 6823
1.604 2.538 1.594 1607
1.751 2.772 1.731 1545
1.674 2.650 1.648 6439
1.746 2.764 1.714 2663
1.602 2.536 1.582 1233
1.722 2.726 1.681 5930
1.650 2.612 1.615 3161
1.794 2.840 1.746 1217
1.578 2.497 1.549 806
1.679 2.657 1.630 6360
1.751 2.772 1.695 3406
1.823 2.886 1.761 1147
1.696 2.685 1.635 9080
1.792 2.836 1.720 4996
1.699 2.689 1.626 10761
1.802 2.852 1.717 6842
1.800 2.850 1.704 8415
1.705 2.699 1.620 8368
1.873 2.965 1.769 780
1.807 2.860 1.698 10992
1.715 2.714 1.617 4826
1.879 2.975 1.762 831
1.821 2.882 1.698 12422
1.748 2.767 1.635 4147
1.823 2.886 1.689 12598
1.750 2.770 1.625 4746
1.818 2.877 1.672 11659
1.745 2.762 1.609 2565
1.891 2.993 1.735 1337
1.812 2.869 1.656 8079
1.886 2.985 1.718 4020
1.739 2.753 1.594 1073
1.861 2.946 1.685 7651
1.788 2.830 1.623 2311
1.863 2.950 1.675 7600
1.790 2.834 1.614 1699
1.862 2.947 1.662 8963
1.789 2.831 1.601 995
1.864 2.951 1.652 8900
1.938 3.067 1.712 1331
1.882 2.979 1.654 7880
1.956 3.096 1.715 1250
1.892 2.995 1.651 5402
1.966 3.112 1.710 830
1.899 3.005 1.644 3579
1.972 3.122 1.703 1101
1.901 3.009 1.633 5743
1.975 3.126 1.692 1425
1.907 3.019 1.626 9151
1.981 3.136 1.685 1809
1.925 3.047 1.628 9123
1.999 3.164 1.686 2277
1.943 3.075 1.630 6460
2.017 3.193 1.688 2335
1.957 3.098 1.629 4894
2.031 3.215 1.686 2251
1.963 3.108 1.621 4928
2.038 3.225 1.678 2173
1.889 2.990 1.564 793
1.969 3.117 1.613 5663
2.044 3.235 1.670 2510
1.895 3.000 1.557 886
2.027 3.208 1.644 8491
1.952 3.090 1.588 4720
2.025 3.205 1.630 14960
1.950 3.087 1.575 3796
2.027 3.209 1.619 13492
1.953 3.091 1.564 2215
2.030 3.213 1.609 8518
1.955 3.094 1.554 1337
2.104 3.331 1.663 811
2.063 3.266 1.621 9787
1.989 3.148 1.566 2904
2.066 3.270 1.609 11522
1.991 3.151 1.555 2509
2.141 3.389 1.664 904
2.072 3.280 1.601 8608
2.147 3.399 1.655 2216
1.997 3.161 1.547 1996
2.078 3.290 1.593 6372
2.153 3.409 1.646 2718
2.003 3.171 1.539 1237
2.108 3.337 1.601 8344
2.183 3.456 1.654 1258
2.033 3.218 1.548 1025
2.106 3.334 1.587 6320
2.182 3.454 1.639 1812
2.105 3.332 1.573 4963
2.180 3.451 1.625 2539
2.111 3.341 1.564 5548
2.186 3.461 1.616 3918
2.177 3.446 1.596 5772
2.101 3.326 1.545 2721
2.252 3.565 1.647 972
2.183 3.456 1.587 5276
2.107 3.336 1.536 1922
2.259 3.575 1.638 1442
2.221 3.516 1.599 5195
2.133 3.377 1.541 3495
2.297 3.636 1.649 810
2.219 3.513 1.584 6527
2.140 3.387 1.532 2138
2.295 3.633 1.634 1672
2.214 3.504 1.567 8503
2.290 3.624 1.617 2444
2.138 3.384 1.518 946
2.212 3.501 1.553 7609
2.288 3.621 1.602 4158
2.364 3.742 1.651 1011
2.278 3.606 1.582 5584
2.202 3.486 1.533 3792
2.354 3.726 1.631 889
2.288 3.622 1.575 4185
2.212 3.502 1.526 1267
2.388 3.781 1.638 1104
2.271 3.594 1.550 3501
