6.767 3.913 1.703 1392
6.384 3.692 1.613 1359
6.099 3.527 1.526 2204
6.664 3.853 1.655 1565
6.395 3.698 1.594 1463
6.791 3.927 1.685 1414
6.809 3.937 1.665 1764
6.668 3.855 1.633 1556
6.977 4.034 1.703 1515
6.398 3.700 1.572 1204
6.981 4.037 1.679 2695
6.826 3.947 1.645 2100
6.671 3.858 1.611 1385
6.523 3.772 1.578 845
6.985 4.039 1.656 3265
6.830 3.949 1.622 2223
7.113 4.113 1.684 1327
6.641 3.840 1.581 806
7.009 4.053 1.637 4022
6.813 3.940 1.595 2000
7.137 4.127 1.664 1539
7.019 4.059 1.615 4898
6.857 3.965 1.581 2269
7.147 4.133 1.642 1523
7.289 4.215 1.672 800
7.023 4.061 1.591 3967
6.841 3.956 1.553 2223
7.151 4.135 1.618 1690
7.306 4.225 1.650 843
7.020 4.059 1.566 2670
7.168 4.145 1.597 1578
6.844 3.958 1.530 1490
7.742 4.477 1.714 977
7.017 4.057 1.542 2063
7.746 4.479 1.688 1296
7.158 4.139 1.570 1244
8.002 4.627 1.740 1072
7.763 4.489 1.665 1641
7.020 4.059 1.518 1497
8.000 4.626 1.712 1423
8.250 4.770 1.761 1279
8.254 4.773 1.734 1797
7.781 4.499 1.642 1628
8.051 4.655 1.694 1460
8.409 4.862 1.764 1343
8.406 4.861 1.734 2181
8.258 4.775 1.706 1606
7.791 4.505 1.617 1543
8.055 4.658 1.667 1417
8.410 4.863 1.706 2558
7.788 4.503 1.589 1562
8.255 4.773 1.677 1208
8.045 4.652 1.638 1132
8.489 4.909 1.692 3267
8.171 4.725 1.633 1344
7.778 4.498 1.561 1194
8.035 4.646 1.608 977
8.493 4.911 1.663 4307
8.256 4.774 1.620 1809
7.985 4.617 1.571 1036
8.127 4.699 1.597 857
8.483 4.905 1.632 4497
8.273 4.784 1.595 2587
8.076 4.670 1.560 787
8.480 4.903 1.602 2880
8.270 4.782 1.566 2162
8.443 4.882 1.567 2259
8.260 4.776 1.536 1334
8.680 5.019 1.608 963
8.487 4.908 1.546 1639
8.243 4.766 1.505 1252
8.697 5.029 1.581 1130
8.491 4.910 1.517 1778
8.701 5.031 1.551 1380
8.246 4.768 1.477 1123
8.501 4.916 1.490 1365
8.711 5.037 1.523 1357
9.390 5.430 1.632 1189
8.840 5.112 1.544 874
9.401 5.436 1.601 1562
8.511 4.921 1.462 1161
8.817 5.098 1.510 1060
8.514 4.923 1.434 1293
9.418 5.446 1.572 1288
11.035 6.381 1.819 1246
8.813 5.096 1.479 1005
11.032 6.379 1.781 1500
9.435 5.456 1.542 1119
8.518 4.925 1.405 1009
11.050 6.390 1.746 1856
9.439 5.458 1.511 913
11.054 6.392 1.709 2295
11.051 6.390 1.671 2512
9.398 5.434 1.441 780
11.895 6.878 1.788 757
11.055 6.393 1.634 2763
11.395 6.589 1.680 1116
9.415 5.444 1.411 849
11.913 6.888 1.750 757
11.059 6.395 1.597 2425
11.978 6.926 1.718 917
11.399 6.592 1.642 903
11.529 6.666 1.659 798
11.062 6.397 1.559 1853
11.546 6.676 1.622 759
11.989 6.932 1.679 758
11.066 6.399 1.522 1413
11.904 6.883 1.627 899
11.069 6.401 1.485 1085
12.378 7.157 1.645 771
2.046 1.175 1.791 2838
1.896 1.088 1.667 1497
2.050 1.177 1.784 5676
1.899 1.091 1.660 2994
2.060 1.183 1.782 5708
1.903 1.093 1.654 2994
2.059 1.182 1.771 6154
1.907 1.095 1.648 2243
2.165 1.243 1.857 808
2.063 1.184 1.764 6633
1.911 1.097 1.642 1492
2.170 1.246 1.850 924
2.067 1.187 1.757 6111
1.915 1.099 1.635 1001
2.174 1.248 1.843 957
2.110 1.212 1.782 6218
1.992 1.144 1.687 965
2.115 1.214 1.775 6218
1.996 1.146 1.681 965
2.119 1.217 1.768 6954
2.011 1.155 1.683 1267
2.117 1.216 1.757 7721
2.009 1.154 1.672 1494
2.225 1.278 1.841 844
2.138 1.228 1.763 8120
2.030 1.166 1.679 1653
2.247 1.290 1.847 785
2.160 1.240 1.769 10248
2.045 1.175 1.681 1362
2.187 1.256 1.780 10500
2.055 1.180 1.679 1098
2.196 1.261 1.777 12539
2.059 1.182 1.672 842
2.201 1.264 1.770 12539
2.205 1.266 1.762 10219
2.209 1.268 1.755 7950
2.207 1.267 1.743 8642
2.211 1.270 1.736 9384
2.233 1.282 1.742 10344
2.343 1.345 1.822 1306
2.242 1.288 1.738 12039
2.353 1.351 1.819 1876
2.252 1.293 1.735 9532
2.363 1.357 1.815 2194
2.262 1.299 1.732 7399
2.373 1.362 1.812 2100
2.266 1.301 1.725 6316
2.377 1.365 1.804 2876
2.352 1.351 1.775 6219
2.241 1.287 1.696 3670
2.298 1.319 1.726 7365
2.409 1.383 1.805 1413
2.302 1.322 1.719 9220
2.413 1.386 1.797 1740
2.311 1.327 1.715 8180
2.423 1.391 1.793 1493
2.315 1.330 1.707 7275
2.427 1.394 1.785 1423
2.325 1.335 1.704 5261
2.437 1.400 1.781 1883
2.406 1.382 1.749 5373
2.294 1.317 1.672 2742
2.518 1.446 1.825 1069
2.416 1.387 1.745 4663
2.304 1.323 1.668 2452
2.528 1.452 1.821 1721
2.420 1.390 1.737 4117
2.533 1.454 1.813 2454
2.307 1.325 1.661 1962
2.400 1.378 1.713 4110
2.513 1.443 1.788 3709
2.494 1.432 1.764 5196
2.381 1.367 1.689 3489
2.504 1.438 1.760 5593
2.390 1.373 1.685 3119
2.617 1.503 1.835 1114
2.526 1.450 1.763 7082
2.412 1.385 1.689 2722
2.639 1.515 1.838 973
2.524 1.449 1.751 7209
2.410 1.384 1.677 1885
2.637 1.514 1.825 1764
2.534 1.455 1.747 7086
2.648 1.520 1.820 2628
2.420 1.390 1.673 1957
2.538 1.457 1.738 7415
2.652 1.523 1.812 3214
2.424 1.392 1.665 1957
2.542 1.460 1.730 6690
2.656 1.525 1.803 2860
2.428 1.394 1.657 1320
2.546 1.462 1.722 5965
2.660 1.527 1.794 2506
2.556 1.468 1.717 4281
2.670 1.533 1.789 1968
2.644 1.518 1.761 3519
2.530 1.453 1.690 1518
2.655 1.524 1.756 3267
2.540 1.458 1.685 1591
2.659 1.527 1.747 4815
2.544 1.461 1.677 1218
2.774 1.593 1.818 1011
2.669 1.532 1.742 6447
2.784 1.599 1.813 1459
2.554 1.466 1.672 1048
2.673 1.535 1.734 6657
2.825 1.622 1.826 1590
2.677 1.537 1.725 4824
2.829 1.624 1.816 2562
2.827 1.623 1.803 3171
2.669 1.532 1.709 2840
2.837 1.629 1.798 3269
2.721 1.563 1.729 2306
2.606 1.496 1.660 901
2.744 1.575 1.731 4148
2.860 1.642 1.799 3305
2.736 1.571 1.714 5052
2.852 1.638 1.783 3676
2.874 1.650 1.784 5360
2.746 1.577 1.709 4320
2.879 1.653 1.774 7303
2.750 1.579 1.700 3464
2.895 1.662 1.772 8434
2.760 1.585 1.694 3306
2.893 1.661 1.759 10339
2.745 1.576 1.675 3187
2.885 1.656 1.742 11765
2.761 1.586 1.672 2862
3.002 1.724 1.808 885
2.889 1.659 1.733 11468
2.765 1.588 1.663 2679
3.006 1.726 1.798 957
2.911 1.672 1.733 12787
2.781 1.597 1.661 1869
3.029 1.739 1.799 1226
2.928 1.681 1.731 17121
3.045 1.749 1.796 1953
2.810 1.614 1.665 1300
2.932 1.683 1.721 18149
3.050 1.751 1.785 2425
2.814 1.616 1.656 754
2.961 1.700 1.725 14077
3.079 1.768 1.789 1631
2.843 1.632 1.660 1047
2.983 1.713 1.725 14260
2.865 1.645 1.661 3276
3.101 1.781 1.789 2120
2.987 1.715 1.715 13310
2.869 1.647 1.652 3697
3.105 1.783 1.778 2705
2.985 1.714 1.702 11238
3.103 1.782 1.765 5206
2.867 1.646 1.639 2505
3.101 1.781 1.751 9349
2.983 1.713 1.689 8084
2.864 1.645 1.626 1582
3.220 1.849 1.814 1421
3.099 1.779 1.738 10109
2.974 1.708 1.672 4109
3.218 1.848 1.800 1787
2.855 1.640 1.610 754
3.103 1.782 1.727 8949
2.984 1.714 1.666 1968
3.228 1.854 1.792 1479
2.865 1.645 1.604 953
3.107 1.784 1.717 8759
3.226 1.852 1.779 2202
2.988 1.716 1.656 1936
2.869 1.647 1.594 865
3.117 1.790 1.710 9053
3.237 1.858 1.771 2764
2.998 1.722 1.649 1616
3.197 1.836 1.738 8128
3.077 1.767 1.677 3716
3.316 1.904 1.799 801
3.207 1.841 1.731 13516
3.088 1.773 1.670 1701
3.327 1.910 1.791 1020
3.211 1.844 1.720 14480
3.091 1.775 1.660 1198
3.331 1.913 1.780 1119
3.221 1.850 1.712 10074
3.341 1.919 1.772 1321
3.102 1.781 1.653 1086
3.257 1.870 1.717 6426
3.131 1.798 1.655 1577
3.261 1.872 1.706 7477
3.381 1.941 1.765 1087
3.134 1.800 1.645 944
3.265 1.875 1.696 5070
3.385 1.944 1.754 1443
3.339 1.917 1.718 6246
3.218 1.848 1.660 1974
3.478 1.997 1.785 1775
3.343 1.919 1.707 8777
3.476 1.996 1.771 2683
3.222 1.850 1.650 1342
3.346 1.922 1.696 8786
3.480 1.998 1.759 3777
3.226 1.852 1.639 1127
3.350 1.924 1.685 7341
3.490 2.004 1.750 5800
3.230 1.854 1.628 931
3.354 1.926 1.674 7142
3.494 2.006 1.739 6243
3.365 1.932 1.666 7938
3.505 2.012 1.730 5171
3.626 2.082 1.786 996
3.547 2.037 1.736 6751
3.368 1.934 1.654 6493
3.526 2.024 1.713 7088
3.372 1.936 1.643 4296
3.647 2.094 1.768 920
3.530 2.027 1.701 5253
3.376 1.938 1.632 2798
3.651 2.096 1.755 1908
3.636 2.088 1.735 4478
3.514 2.018 1.681 3339
3.380 1.941 1.621 2319
3.640 2.090 1.723 4253
3.518 2.020 1.669 2447
3.384 1.943 1.610 1718
3.644 2.092 1.711 3222
3.522 2.022 1.657 1297
3.394 1.949 1.601 1067
3.766 2.162 1.764 938
3.654 2.098 1.701 3820
3.777 2.168 1.754 1266
3.532 2.028 1.648 1029
3.665 2.104 1.692 5157
3.787 2.174 1.744 1144
3.669 2.107 1.680 5362
3.791 2.177 1.732 1504
3.692 2.120 1.676 4052
3.860 2.216 1.746 889
3.702 2.126 1.666 3862
3.870 2.222 1.736 1930
3.719 2.135 1.659 5043
3.861 2.217 1.718 2763
3.729 2.141 1.649 6176
3.865 2.219 1.705 4356
3.882 2.229 1.698 6246
3.740 2.147 1.640 4941
3.892 2.235 1.687 7184
3.769 2.164 1.638 4111
3.916 2.248 1.682 7975
3.793 2.178 1.633 4766
3.933 2.258 1.674 8098
3.809 2.187 1.625 2832
3.930 2.257 1.659 7362
3.807 2.186 1.610 1297
4.054 2.328 1.707 934
3.986 2.289 1.666 8818
3.862 2.218 1.618 933
4.003 2.298 1.657 10009
3.879 2.227 1.610 980
3.994 2.293 1.639 8308
4.118 2.364 1.686 1555
3.991 2.292 1.623 6204
4.115 2.363 1.670 2342
4.356 2.501 1.761 776
4.001 2.297 1.613 5018
4.125 2.369 1.659 1681
4.367 2.508 1.749 898
4.018 2.307 1.604 6107
4.142 2.378 1.650 1674
4.371 2.510 1.734 1142
4.035 2.317 1.595 7413
4.388 2.520 1.725 1316
4.159 2.388 1.641 1267
4.038 2.319 1.582 6505
4.425 2.541 1.722 1464
4.268 2.450 1.665 980
4.088 2.347 1.585 4841
4.370 2.509 1.686 2464
3.963 2.276 1.540 1128
4.085 2.346 1.569 3783
4.374 2.511 1.671 2958
4.498 2.583 1.716 1264
3.960 2.274 1.525 839
4.456 2.559 1.684 2559
4.089 2.348 1.555 2514
4.332 2.487 1.641 800
4.421 2.538 1.656 2933
4.546 2.610 1.699 1674
4.092 2.350 1.542 1004
4.451 2.556 1.650 4405
4.576 2.628 1.693 2524
4.468 2.566 1.640 5824
4.593 2.637 1.682 2548
4.478 2.571 1.627 3854
4.604 2.643 1.669 3335
4.215 2.420 1.539 848
4.594 2.638 1.650 3909
4.469 2.566 1.608 1844
4.218 2.422 1.525 763
4.605 2.644 1.636 3793
4.479 2.572 1.595 1602
4.215 2.420 1.508 886
4.743 2.724 1.682 844
4.622 2.654 1.625 2503
4.754 2.730 1.668 2141
4.219 2.422 1.494 1521
4.496 2.582 1.585 817
4.764 2.736 1.655 2945
4.606 2.645 1.604 2058
4.222 2.424 1.480 1963
4.821 2.768 1.655 3153
4.623 2.654 1.592 1922
4.219 2.422 1.464 1556
4.947 2.840 1.695 801
4.891 2.808 1.660 2619
4.745 2.725 1.614 1493
4.620 2.653 1.575 1076
4.229 2.428 1.452 809
4.902 2.814 1.646 3162
4.776 2.742 1.607 1806
4.945 2.840 1.642 5989
4.819 2.767 1.603 2575
4.229 2.428 1.422 1383
4.949 2.842 1.625 7387
4.239 2.434 1.410 1967
4.823 2.769 1.587 1718
5.075 2.914 1.664 753
4.939 2.836 1.605 6097
4.242 2.436 1.396 1246
5.072 2.913 1.645 1231
4.787 2.748 1.559 1171
4.937 2.835 1.586 4590
5.063 2.907 1.624 3549
5.202 2.987 1.665 1753
4.258 2.445 1.386 1254
4.973 2.856 1.580 5039
5.100 2.928 1.617 2793
5.246 3.012 1.659 2046
4.261 2.447 1.371 1709
4.977 2.858 1.563 6376
5.117 2.938 1.603 2840
5.257 3.018 1.644 2017
4.271 2.452 1.359 1306
4.981 2.860 1.546 3779
5.147 2.956 1.594 2369
5.467 3.139 1.685 2010
5.321 3.055 1.643 1723
5.458 3.134 1.663 2679
5.211 2.992 1.594 2327
5.018 2.881 1.539 1493
4.891 2.808 1.504 968
5.462 3.136 1.645 2682
5.321 3.056 1.606 2496
5.662 3.251 1.701 1385
5.195 2.983 1.571 1187
5.479 3.146 1.630 2846
5.666 3.253 1.682 2686
5.305 3.046 1.583 2462
4.323 2.482 1.313 1035
5.670 3.255 1.663 4622
5.489 3.152 1.614 2818
5.295 3.041 1.561 2011
5.797 3.328 1.697 1335
5.673 3.258 1.644 4697
5.807 3.334 1.680 2916
5.486 3.150 1.594 1646
5.332 3.062 1.553 953
5.677 3.260 1.625 5872
5.811 3.337 1.660 5206
5.550 3.187 1.591 1091
5.938 3.410 1.694 1003
5.688 3.266 1.608 9898
5.815 3.339 1.641 7316
6.022 3.458 1.695 1555
5.691 3.268 1.589 10050
5.819 3.341 1.622 8046
6.046 3.472 1.680 2388
5.822 3.343 1.602 7072
5.695 3.270 1.570 5516
6.057 3.478 1.662 2934
5.826 3.345 1.583 5924
6.074 3.488 1.645 4012
5.699 3.272 1.551 3591
5.830 3.347 1.563 5007
6.071 3.486 1.623 4562
5.702 3.274 1.532 4329
6.082 3.492 1.604 4628
5.833 3.349 1.544 3568
5.706 3.276 1.513 3004
6.404 3.677 1.682 1534
6.099 3.502 1.587 4534
5.944 3.413 1.550 2728
6.408 3.680 1.661 2204
5.817 3.340 1.519 1677
6.096 3.500 1.565 3026
5.948 3.415 1.530 2300
6.513 3.740 1.663 1865
6.385 3.666 1.633 1515
6.099 3.502 1.545 3192
6.645 3.815 1.671 2339
6.517 3.742 1.642 1673
6.389 3.668 1.612 1177
6.110 3.508 1.526 2795
6.662 3.825 1.652 2110
6.817 3.914 1.688 1444
6.521 3.744 1.620 1270
6.821 3.916 1.665 1939
6.679 3.835 1.633 1662
6.982 4.009 1.701 1507
6.120 3.514 1.507 1218
6.993 4.015 1.679 2783
6.838 3.926 1.645 2316
6.676 3.833 1.609 1160
6.123 3.516 1.486 766
7.004 4.021 1.657 3287
6.842 3.929 1.622 2584
7.132 4.095 1.685 1183
7.014 4.028 1.635 3749
6.832 3.923 1.596 2472
7.142 4.101 1.663 1656
7.025 4.034 1.613 3918
6.863 3.941 1.579 2484
7.153 4.107 1.641 1423
7.302 4.193 1.672 1275
7.028 4.036 1.590 3026
6.853 3.935 1.553 2382
7.157 4.109 1.617 1541
7.319 4.203 1.650 1367
7.032 4.038 1.566 2147
6.856 3.937 1.530 1816
7.161 4.112 1.593 1588
7.336 4.212 1.629 1253
7.029 4.036 1.542 1562
7.157 4.110 1.567 1307
7.340 4.215 1.604 1306
7.469 4.288 1.630 1233
7.790 4.473 1.668 1580
8.264 4.745 1.761 1238
8.014 4.601 1.712 1203
7.161 4.112 1.543 1158
7.801 4.479 1.643 1706
8.424 4.837 1.764 1622
8.268 4.748 1.734 1501
8.065 4.631 1.694 1197
8.421 4.835 1.734 2249
7.812 4.485 1.618 1548
8.055 4.625 1.665 1300
8.272 4.750 1.706 1226
8.425 4.838 1.706 2349
7.795 4.476 1.588 1324
8.059 4.628 1.638 1091
7.924 4.550 1.612 1054
8.504 4.883 1.692 3002
8.158 4.684 1.628 1453
7.792 4.474 1.561 939
7.941 4.560 1.588 851
8.501 4.881 1.662 4009
8.284 4.756 1.623 1454
8.155 4.682 1.599 1250
7.999 4.593 1.571 984
8.491 4.876 1.631 4738
8.287 4.759 1.595 2073
8.091 4.646 1.560 800
8.488 4.874 1.601 3468
8.284 4.757 1.566 1522
8.678 4.983 1.634 797
8.458 4.856 1.567 2428
8.689 4.989 1.606 1064
8.274 4.751 1.536 878
8.502 4.882 1.546 1483
8.706 4.999 1.580 1078
8.506 4.884 1.517 1814
8.716 5.005 1.551 1242
8.509 4.886 1.489 1479
8.720 5.007 1.522 1255
8.849 5.081 1.543 1019
8.526 4.896 1.462 1255
8.825 5.067 1.509 1042
9.417 5.407 1.601 947
9.274 5.325 1.579 799
8.529 4.897 1.434 1375
11.061 6.351 1.820 953
8.822 5.066 1.478 950
9.278 5.327 1.548 794
11.059 6.350 1.782 1049
8.533 4.899 1.405 1034
9.288 5.333 1.518 869
11.069 6.356 1.746 1370
11.080 6.362 1.710 1798
9.207 5.286 1.443 764
11.077 6.361 1.672 2064
11.916 6.842 1.788 784
11.081 6.363 1.635 2173
11.415 6.555 1.680 1273
9.308 5.345 1.394 996
11.934 6.852 1.750 783
11.078 6.361 1.597 1730
11.412 6.553 1.641 1059
9.284 5.331 1.360 961
11.992 6.886 1.717 842
11.082 6.363 1.559 1357
11.914 6.841 1.667 812
11.085 6.365 1.522 1132
11.925 6.847 1.627 1039
12.403 7.122 1.687 772
12.407 7.124 1.646 881
11.089 6.367 1.485 796
2.051 1.166 1.791 2981
1.900 1.080 1.667 1419
2.056 1.168 1.784 5962
1.904 1.082 1.660 2838
2.065 1.174 1.782 6053
1.908 1.084 1.654 2838
2.064 1.173 1.771 6586
1.912 1.087 1.648 2225
2.171 1.234 1.857 849
2.062 1.172 1.760 7226
1.921 1.092 1.646 1623
2.170 1.233 1.846 1211
2.072 1.178 1.757 6585
1.920 1.091 1.635 1172
2.179 1.239 1.843 923
2.116 1.202 1.782 6317
1.912 1.087 1.620 764
2.120 1.205 1.775 6317
2.124 1.207 1.768 7007
2.016 1.146 1.683 1011
2.128 1.209 1.761 7698
2.020 1.148 1.677 1406
2.237 1.271 1.846 802
2.144 1.218 1.763 6975
2.035 1.157 1.679 1555
2.252 1.280 1.847 769
2.171 1.234 1.774 8701
2.051 1.165 1.681 1378
2.192 1.246 1.780 10634
2.083 1.184 1.696 1194
2.196 1.248 1.772 13466
2.087 1.186 1.689 994
2.200 1.250 1.765 13466
2.062 1.172 1.661 788
2.210 1.256 1.762 11198
2.209 1.255 1.751 8926
2.219 1.261 1.748 8775
2.234 1.270 1.749 8786
2.124 1.207 1.668 752
2.244 1.275 1.746 10004
2.354 1.338 1.827 941
2.134 1.213 1.665 784
2.254 1.281 1.743 11500
2.364 1.344 1.823 1195
2.258 1.283 1.735 9177
2.369 1.346 1.815 1853
2.268 1.289 1.732 6955
2.379 1.352 1.812 1828
2.348 1.334 1.779 6002
2.237 1.271 1.700 3711
2.358 1.340 1.775 6468
2.247 1.277 1.696 3761
2.292 1.302 1.718 6077
2.403 1.366 1.796 1995
2.307 1.311 1.719 7781
2.419 1.375 1.797 1538
2.317 1.317 1.715 7367
2.429 1.381 1.793 1430
2.321 1.319 1.707 7197
2.433 1.383 1.785 1438
2.325 1.321 1.700 5592
2.438 1.385 1.777 2447
2.412 1.371 1.749 5513
2.300 1.307 1.672 3469
2.525 1.435 1.825 1001
2.416 1.373 1.741 5150
2.304 1.309 1.664 2692
2.529 1.437 1.817 1682
2.426 1.379 1.737 4881
2.313 1.315 1.661 2197
2.539 1.443 1.813 2103
2.412 1.371 1.717 4878
2.526 1.435 1.792 3282
2.299 1.307 1.641 868
2.410 1.370 1.705 5331
2.524 1.434 1.780 4113
2.528 1.437 1.772 5723
2.414 1.372 1.697 4353
2.532 1.439 1.763 7563
2.418 1.374 1.689 2861
2.646 1.504 1.838 824
2.530 1.438 1.751 7548
2.416 1.373 1.677 2149
2.644 1.503 1.825 1431
2.534 1.440 1.743 6781
2.648 1.505 1.816 2645
2.420 1.375 1.669 2155
2.616 1.487 1.785 6675
2.472 1.405 1.692 5246
2.621 1.489 1.776 5723
2.482 1.411 1.688 4155
2.625 1.492 1.767 4771
2.498 1.420 1.687 3299
2.635 1.497 1.762 4888
2.502 1.422 1.679 2274
2.645 1.503 1.757 4617
2.530 1.438 1.686 1001
2.655 1.509 1.753 4409
2.540 1.444 1.681 1103
2.665 1.515 1.747 5598
2.781 1.580 1.818 1335
2.550 1.449 1.677 1020
2.676 1.520 1.742 7042
2.791 1.586 1.813 1791
2.560 1.455 1.672 910
2.686 1.526 1.737 7747
2.814 1.599 1.815 1697
2.570 1.461 1.667 812
2.696 1.532 1.732 6337
2.830 1.608 1.813 2618
2.706 1.538 1.727 4252
2.828 1.607 1.800 3223
2.716 1.544 1.722 3563
2.839 1.613 1.794 3220
2.751 1.563 1.731 5045
2.867 1.629 1.799 3096
2.749 1.562 1.718 6261
2.865 1.628 1.786 3477
2.876 1.634 1.780 5982
2.753 1.564 1.709 5103
2.886 1.640 1.774 8598
2.763 1.570 1.703 3269
2.890 1.642 1.765 9545
2.773 1.576 1.698 2519
2.888 1.641 1.752 10276
2.752 1.564 1.675 2543
2.892 1.643 1.742 10075
2.768 1.573 1.672 2626
3.009 1.710 1.808 851
2.896 1.646 1.733 10182
2.779 1.579 1.667 2605
3.014 1.713 1.798 1099
2.919 1.659 1.733 11199
2.801 1.592 1.668 2060
3.037 1.726 1.799 1391
2.941 1.672 1.734 15293
3.059 1.739 1.799 1943
2.823 1.605 1.669 1796
2.945 1.674 1.724 16068
3.064 1.741 1.789 2532
2.827 1.607 1.660 1255
2.968 1.687 1.725 14492
3.086 1.754 1.789 1875
2.850 1.620 1.660 1406
2.985 1.696 1.722 14567
3.103 1.763 1.785 2063
2.866 1.629 1.658 1821
2.995 1.702 1.715 13804
2.876 1.635 1.652 2250
3.113 1.769 1.778 2122
2.993 1.701 1.702 11873
3.111 1.768 1.765 4376
2.874 1.633 1.639 1577
2.990 1.699 1.689 8844
3.109 1.767 1.751 8624
3.228 1.834 1.814 1324
2.871 1.632 1.626 1071
3.107 1.766 1.738 10373
2.988 1.698 1.675 4420
3.226 1.833 1.800 1718
2.869 1.630 1.613 807
3.111 1.768 1.727 9417
2.992 1.700 1.666 1824
3.230 1.836 1.789 1402
2.873 1.632 1.604 897
3.121 1.774 1.720 8716
3.241 1.842 1.782 1849
3.002 1.706 1.659 1765
2.883 1.638 1.597 1047
3.132 1.780 1.713 8576
3.251 1.848 1.774 2167
3.012 1.712 1.652 1554
2.893 1.644 1.591 871
3.199 1.818 1.735 7777
3.079 1.750 1.674 3205
3.318 1.886 1.795 835
3.215 1.827 1.731 14146
3.095 1.759 1.670 1509
3.335 1.895 1.791 1060
3.219 1.829 1.720 15697
3.339 1.898 1.780 1239
3.099 1.761 1.660 1023
3.230 1.835 1.712 11279
3.350 1.904 1.772 1318
3.109 1.767 1.653 1125
3.253 1.848 1.711 7737
3.132 1.780 1.652 1735
3.373 1.917 1.770 815
3.269 1.858 1.706 8369
3.149 1.789 1.648 1224
3.318 1.885 1.717 5270
3.197 1.817 1.659 1267
3.483 1.979 1.797 927
3.347 1.902 1.718 6650
3.487 1.981 1.785 1925
3.226 1.833 1.660 1921
3.351 1.904 1.707 8547
3.491 1.984 1.774 2490
3.230 1.836 1.650 1642
3.355 1.907 1.696 8793
3.495 1.986 1.762 3384
3.234 1.838 1.639 1446
3.359 1.909 1.685 7408
3.499 1.989 1.750 5111
3.238 1.840 1.628 1200
3.363 1.911 1.674 7055
3.510 1.994 1.742 5693
3.242 1.842 1.618 776
3.373 1.917 1.666 7938
3.527 2.004 1.736 5435
3.563 2.025 1.739 6696
3.377 1.919 1.654 6656
3.573 2.030 1.730 5816
3.381 1.921 1.643 4261
3.532 2.007 1.698 3846
3.385 1.923 1.632 3261
3.654 2.077 1.753 1700
3.536 2.009 1.686 4431
3.658 2.079 1.740 3386
3.388 1.926 1.621 2819
3.656 2.077 1.726 3572
3.534 2.008 1.672 3349
3.392 1.928 1.610 1656
3.570 2.029 1.674 2523
3.692 2.098 1.727 1606
3.402 1.933 1.601 939
3.599 2.045 1.673 3296
3.747 2.130 1.737 1585
3.674 2.088 1.692 4269
3.797 2.158 1.744 1154
3.685 2.094 1.682 5558
3.807 2.164 1.735 1225
3.695 2.100 1.673 4682
3.882 2.206 1.752 1288
3.712 2.109 1.666 4355
3.886 2.209 1.739 2518
3.729 2.119 1.659 5854
3.884 2.207 1.723 3227
3.739 2.125 1.649 6423
3.888 2.209 1.710 4572
3.892 2.212 1.698 6589
3.769 2.142 1.648 5416
3.896 2.214 1.685 6949
3.772 2.144 1.635 4356
4.019 2.284 1.734 838
3.926 2.231 1.682 7500
3.802 2.161 1.633 4959
3.936 2.237 1.672 7808
3.813 2.167 1.623 2411
3.934 2.235 1.656 6910
3.990 2.267 1.663 8595
3.866 2.197 1.615 801
4.000 2.273 1.652 10824
4.124 2.344 1.700 1000
3.991 2.268 1.634 10242
4.115 2.338 1.681 1963
4.001 2.274 1.623 7605
4.125 2.344 1.670 1839
4.005 2.276 1.610 6249
4.129 2.347 1.656 1320
4.022 2.285 1.602 6332
4.146 2.356 1.647 1344
4.284 2.434 1.698 1308
4.052 2.302 1.598 8480
4.275 2.429 1.679 1521
4.399 2.500 1.725 1351
4.068 2.312 1.589 8348
4.390 2.495 1.705 2269
4.265 2.424 1.660 1321
4.092 2.325 1.583 7704
4.394 2.497 1.691 2592
4.269 2.426 1.646 1049
3.967 2.254 1.538 796
4.089 2.324 1.567 6253
4.385 2.492 1.671 2492
4.510 2.563 1.716 1147
4.260 2.421 1.627 856
4.099 2.329 1.555 4207
4.415 2.509 1.666 2554
4.277 2.430 1.618 1025
4.540 2.580 1.710 1000
4.432 2.519 1.656 3370
4.096 2.328 1.540 1803
4.590 2.609 1.711 1245
4.281 2.433 1.603 823
4.476 2.543 1.655 5446
4.601 2.615 1.698 1690
4.212 2.393 1.564 975
4.479 2.546 1.640 7020
4.605 2.617 1.682 2378
4.215 2.395 1.550 1448
4.490 2.551 1.627 4767
4.635 2.634 1.676 3362
4.219 2.398 1.536 1542
4.613 2.621 1.652 3685
4.487 2.550 1.610 2996
4.222 2.400 1.522 1464
4.738 2.693 1.693 786
4.610 2.620 1.634 3827
4.484 2.548 1.593 2268
4.226 2.402 1.508 1471
4.736 2.691 1.675 1064
4.614 2.622 1.619 2356
4.740 2.693 1.660 2030
4.229 2.403 1.494 1556
4.865 2.765 1.700 844
4.704 2.673 1.631 2748
4.849 2.756 1.678 2718
4.233 2.405 1.480 1461
4.578 2.601 1.591 810
4.847 2.754 1.660 3035
4.707 2.675 1.616 2354
4.236 2.407 1.466 1021
4.751 2.700 1.612 2577
4.897 2.783 1.658 2341
4.233 2.405 1.450 986
4.625 2.628 1.573 880
4.868 2.766 1.632 3194
4.741 2.694 1.592 1503
4.236 2.407 1.436 1456
4.994 2.838 1.671 914
4.951 2.814 1.640 5864
4.825 2.742 1.601 2355
4.240 2.409 1.422 1568
4.962 2.820 1.625 5134
4.835 2.748 1.587 2191
4.243 2.411 1.408 1385
5.088 2.891 1.664 770
4.945 2.810 1.603 4729
4.819 2.738 1.565 1294
5.072 2.882 1.641 1205
4.246 2.413 1.394 915
4.949 2.812 1.586 5802
5.076 2.884 1.624 3624
5.216 2.964 1.665 1970
4.269 2.426 1.386 1008
4.986 2.833 1.580 6753
5.213 2.962 1.646 2547
4.272 2.428 1.371 1588
5.340 3.034 1.683 997
4.990 2.836 1.563 8142
5.324 3.025 1.659 2133
5.123 2.911 1.602 2117
4.282 2.433 1.359 1460
4.993 2.838 1.546 5364
5.221 2.967 1.611 2551
5.488 3.119 1.687 1969
5.347 3.039 1.647 1901
5.238 2.976 1.598 2759
5.478 3.113 1.665 2594
5.010 2.847 1.534 2143
4.295 2.441 1.333 994
5.475 3.112 1.645 2596
5.255 2.986 1.584 2012
5.683 3.229 1.703 1682
5.014 2.849 1.517 1155
5.499 3.125 1.632 2921
5.680 3.228 1.682 2541
5.292 3.007 1.575 1818
4.334 2.463 1.313 1256
5.684 3.230 1.663 3693
5.503 3.127 1.614 2879
5.302 3.013 1.560 1588
4.337 2.465 1.299 927
5.681 3.228 1.642 3705
5.809 3.301 1.676 1861
5.507 3.129 1.596 1459
5.346 3.038 1.553 929
5.692 3.234 1.625 5423
5.819 3.307 1.659 3149
5.564 3.162 1.591 1199
5.947 3.379 1.692 1063
5.702 3.240 1.608 8966
5.830 3.313 1.641 4657
6.038 3.431 1.695 1809
5.575 3.168 1.575 799
5.706 3.242 1.589 8759
5.833 3.315 1.622 5249
6.055 3.441 1.678 2869
5.703 3.241 1.568 5068
5.837 3.317 1.602 4112
6.073 3.451 1.662 3224
6.083 3.457 1.643 4345
5.713 3.247 1.551 3452
5.841 3.319 1.583 3051
6.080 3.455 1.621 5280
5.723 3.252 1.533 4220
5.851 3.325 1.565 2788
6.077 3.454 1.599 5093
5.727 3.254 1.514 2840
5.949 3.381 1.568 2140
6.427 3.653 1.684 1236
6.115 3.475 1.587 4084
5.960 3.387 1.550 2278
6.526 3.708 1.685 1804
6.398 3.636 1.655 1239
6.111 3.473 1.565 2891
6.530 3.711 1.663 2018
5.970 3.393 1.532 1921
6.664 3.787 1.695 1408
6.115 3.475 1.545 3401
6.668 3.789 1.673 2963
6.533 3.713 1.642 1808
6.398 3.636 1.610 1138
6.125 3.481 1.526 3035
6.672 3.792 1.651 2918
6.848 3.891 1.691 1465
6.544 3.719 1.621 1349
6.845 3.890 1.666 1953
6.683 3.798 1.630 1772
6.136 3.487 1.507 1503
7.007 3.982 1.703 1388
7.011 3.984 1.679 2665
6.855 3.896 1.645 2293
6.132 3.485 1.485 935
6.659 3.784 1.602 836
7.022 3.990 1.657 3087
6.859 3.898 1.622 2596
5.906 3.356 1.414 994
7.150 4.063 1.685 991
7.032 3.996 1.635 3366
6.849 3.892 1.596 2545
7.161 4.069 1.663 1496
5.895 3.350 1.392 889
7.036 3.998 1.612 2869
6.867 3.902 1.576 2172
7.327 4.164 1.673 1836
7.165 4.071 1.639 1413
6.870 3.904 1.553 2253
7.067 4.016 1.594 2124
7.338 4.170 1.650 2100
5.902 3.354 1.353 1303
7.355 4.180 1.629 2024
6.874 3.906 1.530 1969
7.070 4.018 1.571 1669
7.924 4.503 1.745 1327
7.359 4.182 1.604 2337
7.488 4.255 1.630 1525
7.928 4.506 1.718 1367
7.169 4.074 1.566 1314
7.356 4.180 1.578 2081
7.817 4.442 1.669 1659
7.186 4.084 1.545 1357
7.485 4.253 1.604 1281
7.821 4.444 1.643 1863
8.459 4.807 1.766 1628
7.346 4.174 1.551 1259
8.289 4.711 1.734 1240
8.463 4.809 1.738 2170
7.940 4.512 1.639 1472
8.069 4.586 1.663 1302
7.811 4.439 1.614 1217
8.161 4.638 1.653 2312
8.494 4.827 1.715 1962
7.944 4.514 1.612 1455
7.489 4.256 1.527 964
8.165 4.640 1.626 2763
8.519 4.841 1.690 2458
7.948 4.516 1.586 1353
8.509 4.835 1.659 3392
8.176 4.646 1.599 1941
8.305 4.719 1.623 1024
7.958 4.522 1.560 1019
8.506 4.834 1.630 4507
8.302 4.718 1.594 1327
8.173 4.644 1.571 760
8.510 4.836 1.601 3871
8.305 4.720 1.566 887
8.700 4.944 1.634 830
8.479 4.819 1.567 2423
8.711 4.950 1.606 970
8.456 4.805 1.534 1481
8.721 4.956 1.578 865
8.527 4.846 1.517 1527
8.732 4.962 1.550 849
9.304 5.287 1.643 825
8.861 5.036 1.571 760
8.531 4.848 1.489 1313
9.322 5.297 1.614 1114
8.858 5.034 1.541 997
8.728 4.960 1.520 846
8.541 4.854 1.461 1149
9.298 5.284 1.579 1043
8.848 5.028 1.509 945
8.551 4.859 1.434 1222
9.302 5.286 1.548 1055
8.844 5.026 1.478 835
9.312 5.292 1.518 1146
8.554 4.861 1.405 878
9.329 5.302 1.489 1026
11.105 6.310 1.747 883
11.109 6.313 1.710 1211
9.223 5.241 1.442 903
9.353 5.315 1.461 811
11.106 6.311 1.672 1368
11.110 6.313 1.635 1412
11.438 6.500 1.679 1263
11.106 6.312 1.597 1080
11.435 6.498 1.640 1077
11.612 6.599 1.663 763
11.110 6.314 1.559 849
11.603 6.594 1.623 806
11.951 6.792 1.667 767
11.955 6.794 1.627 1073
12.434 7.066 1.687 965
12.438 7.068 1.646 1064
11.952 6.792 1.587 780
12.435 7.067 1.603 821
12.158 6.909 1.529 803
2.055 1.160 1.791 3128
1.898 1.071 1.662 892
2.059 1.162 1.784 6257
1.902 1.073 1.656 1784
2.069 1.167 1.782 6379
1.906 1.075 1.649 1784
2.067 1.167 1.771 7046
1.915 1.081 1.648 1649
2.175 1.227 1.857 821
2.072 1.169 1.764 7836
1.925 1.086 1.646 1540
2.179 1.229 1.850 930
2.081 1.174 1.762 7107
1.923 1.085 1.635 1200
2.189 1.235 1.848 934
2.091 1.180 1.760 6642
2.199 1.241 1.845 1027
1.927 1.087 1.629 874
2.095 1.182 1.753 6642
2.203 1.243 1.838 1056
2.122 1.197 1.764 6880
2.014 1.136 1.679 1037
2.230 1.259 1.848 809
2.132 1.203 1.761 7450
2.024 1.142 1.677 1448
2.240 1.264 1.846 844
2.148 1.212 1.763 6474
2.039 1.150 1.679 1437
2.256 1.273 1.847 754
2.180 1.230 1.778 7976
2.071 1.169 1.694 1272
2.196 1.239 1.780 10652
2.087 1.178 1.696 1233
2.206 1.245 1.777 13976
2.097 1.183 1.694 1151
2.210 1.247 1.770 13976
2.101 1.185 1.687 947
2.214 1.249 1.762 11801
2.218 1.252 1.755 9618
2.108 1.190 1.673 879
2.222 1.254 1.748 8637
2.112 1.192 1.666 781
2.332 1.316 1.829 771
2.244 1.266 1.753 8233
2.134 1.204 1.672 1121
2.254 1.272 1.750 9219
2.143 1.209 1.669 1030
2.264 1.277 1.747 10510
2.268 1.280 1.740 8532
2.379 1.342 1.820 1108
2.272 1.282 1.732 6554
2.383 1.345 1.812 1581
2.352 1.327 1.779 6036
2.241 1.264 1.700 3531
2.362 1.333 1.775 6797
2.251 1.270 1.696 3656
2.360 1.332 1.763 6490
2.249 1.269 1.685 2650
2.306 1.301 1.714 6928
2.417 1.364 1.793 1432
2.321 1.310 1.715 7049
2.433 1.373 1.793 1373
2.325 1.312 1.707 7486
2.438 1.375 1.785 1483
2.329 1.314 1.700 6283
2.442 1.378 1.777 2501
2.416 1.363 1.749 5431
2.304 1.300 1.672 3988
2.529 1.427 1.825 881
2.420 1.366 1.741 5304
2.308 1.302 1.664 2973
2.533 1.429 1.817 1334
2.424 1.368 1.733 5178
2.311 1.304 1.657 1959
2.538 1.432 1.809 1788
2.423 1.367 1.721 5239
2.536 1.431 1.796 2861
2.309 1.303 1.645 1052
2.421 1.366 1.709 5521
2.534 1.430 1.784 3949
2.532 1.429 1.772 5780
2.419 1.365 1.697 4076
2.536 1.431 1.763 7569
2.423 1.367 1.689 2753
2.541 1.434 1.755 7345
2.426 1.369 1.681 2804
2.655 1.498 1.829 956
2.599 1.466 1.782 6585
2.466 1.392 1.696 5201
2.609 1.472 1.777 7481
2.470 1.394 1.688 5746
2.619 1.478 1.772 6200
2.480 1.400 1.684 4419
2.623 1.480 1.763 5043
2.490 1.405 1.680 3213
2.633 1.486 1.759 5679
2.494 1.407 1.671 2079
2.656 1.499 1.761 5822
2.541 1.434 1.690 773
2.660 1.501 1.753 5537
2.545 1.436 1.681 770
2.676 1.510 1.751 6427
2.792 1.575 1.822 1406
2.561 1.445 1.680 1010
2.686 1.516 1.746 7781
2.802 1.581 1.817 1828
2.571 1.450 1.676 1112
2.696 1.522 1.741 9006
2.812 1.587 1.811 1841
2.581 1.456 1.671 967
2.707 1.527 1.736 8180
2.823 1.593 1.805 2679
2.711 1.530 1.727 6099
2.827 1.595 1.796 3362
2.715 1.532 1.718 4782
2.831 1.598 1.787 3263
2.756 1.555 1.731 4708
2.872 1.621 1.799 2645
2.747 1.550 1.714 5996
2.864 1.616 1.783 3126
2.881 1.625 1.780 5943
2.751 1.552 1.705 4688
2.885 1.628 1.771 8852
2.768 1.562 1.703 2477
2.889 1.630 1.761 10082
2.741 1.546 1.677 1490
2.881 1.625 1.745 10135
2.751 1.552 1.671 1729
2.998 1.692 1.811 1091
2.897 1.635 1.742 8313
2.773 1.565 1.672 2077
3.015 1.701 1.808 862
2.901 1.637 1.733 8533
2.783 1.571 1.667 2116
3.019 1.703 1.798 1298
2.942 1.660 1.744 8841
2.824 1.594 1.678 1797
3.091 1.744 1.826 1148
2.959 1.670 1.741 12727
3.077 1.736 1.806 1683
2.841 1.603 1.676 1611
2.969 1.675 1.734 14023
3.087 1.742 1.799 2056
2.851 1.609 1.670 1775
2.979 1.681 1.728 14443
3.098 1.748 1.792 2261
2.861 1.614 1.664 1947
2.990 1.687 1.722 14618
3.115 1.757 1.789 2084
2.871 1.620 1.658 1986
3.000 1.693 1.715 13342
3.119 1.760 1.778 1790
2.881 1.626 1.652 1584
2.991 1.688 1.698 11241
3.123 1.762 1.768 3775
2.873 1.621 1.635 834
2.995 1.690 1.689 8577
3.115 1.757 1.751 7348
3.234 1.825 1.814 1031
3.119 1.760 1.741 9517
2.999 1.692 1.679 4732
3.238 1.827 1.803 1444
3.148 1.776 1.744 9134
3.022 1.705 1.679 2607
2.903 1.638 1.617 915
3.158 1.782 1.736 9336
3.039 1.715 1.675 3147
2.913 1.644 1.610 1166
3.278 1.850 1.798 758
3.156 1.781 1.723 8367
3.036 1.713 1.662 2668
3.276 1.848 1.784 1049
2.910 1.642 1.598 967
3.198 1.804 1.732 7095
3.078 1.737 1.671 2734
3.221 1.817 1.731 13434
3.057 1.725 1.648 1365
3.341 1.885 1.791 966
3.225 1.820 1.720 15431
3.345 1.887 1.780 1194
3.235 1.825 1.712 11393
3.356 1.893 1.772 1124
3.115 1.758 1.653 750
3.258 1.838 1.711 8946
3.138 1.770 1.652 1225
3.275 1.848 1.706 9543
3.154 1.780 1.648 936
3.330 1.879 1.720 6346
3.482 1.965 1.794 1125
3.209 1.811 1.662 1121
3.346 1.888 1.715 7371
3.493 1.971 1.785 1647
3.225 1.820 1.657 1318
3.357 1.894 1.707 8960
3.503 1.977 1.777 1671
3.236 1.826 1.650 1424
3.361 1.896 1.696 9516
3.501 1.976 1.762 2113
3.240 1.828 1.639 1320
3.365 1.899 1.685 7556
3.512 1.982 1.753 3509
3.243 1.830 1.628 1104
3.369 1.901 1.674 6609
3.522 1.987 1.745 4879
3.373 1.903 1.663 7883
3.520 1.986 1.730 5732
3.641 2.055 1.786 778
3.383 1.909 1.654 6529
3.575 2.017 1.742 5872
3.586 2.023 1.733 5792
3.380 1.907 1.640 3919
3.545 2.000 1.701 4438
3.384 1.909 1.629 3208
3.667 2.069 1.755 1293
3.542 1.999 1.686 4652
3.664 2.068 1.740 2953
3.394 1.915 1.621 2798
3.546 2.001 1.675 3287
3.668 2.070 1.728 3197
3.404 1.921 1.612 1566
3.621 2.043 1.694 2964
3.769 2.127 1.758 1233
3.498 1.974 1.640 792
3.612 2.038 1.676 3806
3.780 2.133 1.749 1457
3.693 2.084 1.697 4163
3.571 2.015 1.645 1325
3.816 2.153 1.750 825
3.691 2.083 1.682 5975
3.814 2.152 1.735 1653
3.695 2.085 1.670 5164
3.818 2.154 1.722 1614
3.718 2.098 1.666 4566
3.893 2.197 1.739 2957
3.735 2.107 1.659 6211
3.897 2.199 1.726 3981
3.745 2.113 1.649 6205
3.901 2.201 1.713 4834
4.025 2.271 1.764 843
3.892 2.196 1.695 6221
3.769 2.126 1.645 5443
4.016 2.266 1.745 1327
3.896 2.198 1.682 6807
3.772 2.129 1.632 4073
4.020 2.268 1.732 1464
3.933 2.219 1.682 6956
3.809 2.149 1.633 4517
3.936 2.221 1.669 7381
3.813 2.151 1.620 1825
3.940 2.223 1.656 6763
3.990 2.251 1.661 8727
4.114 2.321 1.709 790
3.987 2.250 1.645 11965
4.112 2.320 1.692 2289
3.991 2.252 1.632 11881
4.115 2.322 1.679 2420
4.001 2.258 1.621 8489
4.126 2.328 1.668 1915
4.250 2.398 1.714 759
4.090 2.308 1.639 6127
3.966 2.238 1.593 3130
4.268 2.408 1.705 1071
4.088 2.307 1.623 7408
3.963 2.236 1.577 1989
4.285 2.418 1.696 1585
4.065 2.294 1.600 9495
4.289 2.420 1.682 1888
4.414 2.490 1.727 1449
4.075 2.300 1.589 10036
4.391 2.478 1.703 3186
4.266 2.407 1.658 1736
4.516 2.548 1.748 756
4.092 2.309 1.580 9927
4.408 2.487 1.693 2937
4.283 2.417 1.648 2171
4.096 2.311 1.567 8230
4.419 2.493 1.681 2481
4.280 2.415 1.632 2378
4.100 2.313 1.553 5541
4.429 2.499 1.668 3057
4.284 2.417 1.618 2259
4.493 2.535 1.674 3868
4.103 2.315 1.540 2607
4.288 2.420 1.603 1760
4.618 2.606 1.717 953
4.483 2.530 1.655 5623
4.609 2.601 1.698 1596
4.219 2.381 1.564 1583
4.487 2.532 1.640 6838
4.619 2.607 1.685 2535
4.223 2.383 1.550 1931
4.498 2.538 1.627 5028
4.643 2.620 1.676 3294
4.226 2.385 1.536 1797
4.508 2.544 1.614 3968
4.634 2.615 1.656 3156
4.223 2.383 1.520 1296
4.760 2.686 1.698 853
4.512 2.546 1.599 3630
4.638 2.617 1.641 2609
4.227 2.385 1.506 1251
4.764 2.688 1.682 910
4.622 2.608 1.619 2186
4.748 2.679 1.660 1741
4.237 2.391 1.494 1227
4.495 2.537 1.578 1060
4.858 2.741 1.678 2766
4.712 2.659 1.631 2639
4.240 2.393 1.480 850
4.868 2.747 1.664 3459
4.729 2.668 1.620 3308
4.752 2.682 1.610 4241
4.879 2.753 1.650 2708
4.869 2.748 1.629 3265
4.743 2.676 1.590 2043
4.996 2.819 1.669 1270
4.244 2.394 1.436 1156
4.966 2.802 1.642 5785
4.840 2.731 1.603 2749
4.247 2.396 1.422 920
4.977 2.808 1.627 4721
4.850 2.737 1.589 2525
4.987 2.814 1.613 4707
4.861 2.743 1.575 2226
4.984 2.812 1.594 7112
5.225 2.948 1.665 1887
4.857 2.741 1.557 962
4.283 2.417 1.388 751
4.995 2.818 1.580 7660
5.229 2.950 1.648 2674
4.286 2.419 1.373 1110
5.356 3.022 1.685 901
4.998 2.820 1.563 8428
5.326 3.005 1.657 2328
5.199 2.934 1.621 1611
5.453 3.077 1.694 1201
5.002 2.822 1.546 6472
5.236 2.955 1.613 2670
5.450 3.075 1.674 2070
5.578 3.147 1.710 1029
5.012 2.828 1.532 2608
5.488 3.097 1.665 2553
5.253 2.964 1.599 2408
5.689 3.210 1.722 913
5.485 3.095 1.645 2306
5.693 3.212 1.703 1775
5.358 3.023 1.610 1582
5.043 2.845 1.523 1217
5.509 3.108 1.632 2661
5.697 3.214 1.684 1918
5.294 2.987 1.574 1529
5.519 3.114 1.616 2631
5.687 3.209 1.661 2016
5.365 3.027 1.574 1394
5.698 3.215 1.644 2264
5.523 3.116 1.597 1311
5.825 3.287 1.678 1115
5.369 3.029 1.556 795
5.708 3.221 1.627 4397
5.836 3.293 1.660 1575
5.574 3.145 1.591 992
6.024 3.399 1.710 913
5.712 3.223 1.608 6680
5.840 3.295 1.641 2143
6.048 3.413 1.695 1746
5.577 3.147 1.573 760
5.716 3.225 1.589 6272
5.951 3.358 1.649 3553
6.079 3.430 1.682 2453
5.713 3.223 1.568 3857
5.948 3.356 1.628 3523
6.083 3.432 1.662 2728
6.100 3.442 1.645 3657
5.723 3.229 1.551 2468
5.959 3.362 1.609 2385
6.084 3.433 1.619 5099
5.733 3.235 1.533 2935
5.956 3.361 1.588 1586
6.522 3.680 1.727 772
6.088 3.435 1.599 5094
5.737 3.237 1.514 1947
5.959 3.363 1.568 1332
6.540 3.690 1.708 1199
6.085 3.433 1.577 3471
6.544 3.692 1.687 1712
5.956 3.361 1.547 1466
6.415 3.620 1.656 892
6.054 3.416 1.549 2984
6.541 3.691 1.663 1928
6.676 3.767 1.695 1547
6.183 3.489 1.579 1129
6.680 3.769 1.673 3265
6.126 3.456 1.545 3183
6.551 3.697 1.643 1778
6.808 3.842 1.703 1094
6.684 3.771 1.651 3268
6.129 3.458 1.524 2853
6.555 3.699 1.621 1548
6.819 3.848 1.681 1252
6.830 3.854 1.660 1769
6.687 3.774 1.628 1725
6.146 3.468 1.507 1460
7.026 3.964 1.704 1199
7.023 3.963 1.679 2187
6.867 3.875 1.645 2161
6.596 3.722 1.585 1024
6.143 3.466 1.485 907
7.034 3.969 1.657 2658
6.871 3.877 1.622 2418
7.244 4.087 1.703 763
7.044 3.975 1.635 2945
6.861 3.872 1.596 2167
7.173 4.048 1.663 1431
7.343 4.143 1.699 1048
7.340 4.142 1.673 2223
7.082 3.996 1.619 2214
6.872 3.877 1.575 1815
7.211 4.069 1.646 1808
7.350 4.148 1.650 2606
7.106 4.010 1.600 2064
6.882 3.883 1.553 1863
5.912 3.336 1.353 952
7.368 4.157 1.629 2619
6.886 3.885 1.530 1821
7.103 4.008 1.575 1578
7.239 4.085 1.602 1345
7.371 4.159 1.604 3328
8.166 4.608 1.763 1485
7.501 4.232 1.630 1479
7.242 4.087 1.578 1421
7.368 4.158 1.578 3074
8.163 4.606 1.734 1885
7.830 4.418 1.669 1595
7.497 4.231 1.604 1379
7.365 4.156 1.552 1725
8.168 4.609 1.707 1710
7.828 4.417 1.642 1701
8.480 4.785 1.768 1528
8.171 4.611 1.680 2562
8.491 4.791 1.741 2218
7.954 4.488 1.639 1640
7.498 4.231 1.552 1218
8.175 4.613 1.653 4692
8.509 4.801 1.715 2005
7.964 4.494 1.613 1939
7.502 4.233 1.527 1060
8.179 4.615 1.626 5003
8.520 4.807 1.688 1907
7.968 4.496 1.587 1866
8.329 4.700 1.653 844
8.190 4.621 1.599 3041
8.510 4.802 1.657 2692
7.972 4.498 1.560 1313
8.521 4.808 1.630 3824
8.200 4.627 1.573 1361
9.175 5.177 1.745 999
8.524 4.810 1.601 3889
8.204 4.629 1.546 960
9.172 5.175 1.713 825
8.501 4.797 1.568 2326
8.201 4.627 1.518 1151
8.719 4.920 1.605 797
8.470 4.779 1.534 1357
8.204 4.629 1.490 998
9.207 5.195 1.656 997
9.334 5.267 1.646 1312
9.197 5.190 1.623 1062
8.542 4.820 1.517 1037
8.876 5.009 1.571 750
9.344 5.273 1.616 1613
8.539 4.818 1.488 1020
9.194 5.188 1.592 1013
8.866 5.003 1.540 902
9.348 5.275 1.584 1288
9.205 5.194 1.562 974
8.549 4.824 1.460 968
8.863 5.001 1.509 816
9.256 5.223 1.539 1135
8.559 4.830 1.433 967
9.386 5.296 1.558 961
9.260 5.225 1.508 1326
9.390 5.298 1.527 790
9.202 5.192 1.468 1223
9.332 5.265 1.487 1047
11.363 6.412 1.782 830
9.198 5.190 1.436 1094
9.335 5.267 1.456 963
11.360 6.410 1.743 770
11.128 6.279 1.710 757
9.414 5.312 1.435 1258
11.132 6.281 1.673 844
9.348 5.275 1.394 1068
11.457 6.465 1.679 1015
11.129 6.280 1.635 849
11.307 6.380 1.659 761
11.448 6.459 1.639 884
11.900 6.715 1.698 854
11.639 6.568 1.664 839
9.351 5.277 1.363 808
11.890 6.709 1.657 895
11.636 6.566 1.624 775
12.456 7.028 1.687 1077
11.976 6.758 1.627 898
12.460 7.031 1.646 1155
12.463 7.033 1.604 835
12.179 6.872 1.529 901
12.182 6.874 1.489 784
2.060 1.150 1.791 3164
1.908 1.066 1.667 995
2.064 1.153 1.784 6329
1.912 1.068 1.660 1991
2.074 1.158 1.782 6378
1.916 1.070 1.654 1991
2.073 1.157 1.771 7176
1.926 1.075 1.652 1619
2.180 1.217 1.857 868
2.071 1.156 1.760 8082
1.930 1.077 1.646 1253
2.179 1.217 1.846 1039
2.087 1.165 1.762 6938
2.194 1.225 1.848 1094
1.928 1.076 1.635 954
2.102 1.174 1.764 6490
2.210 1.234 1.850 1069
2.106 1.176 1.757 6490
2.214 1.237 1.842 1110
2.127 1.188 1.764 6346
2.019 1.127 1.679 934
2.236 1.249 1.848 911
2.137 1.193 1.761 6599
2.029 1.133 1.677 1051
2.246 1.254 1.846 927
2.153 1.202 1.763 6318
2.044 1.141 1.679 960
2.262 1.263 1.847 759
2.186 1.221 1.778 7523
2.077 1.160 1.694 958
2.207 1.232 1.784 10800
2.098 1.171 1.701 1428
2.211 1.235 1.777 14391
2.102 1.174 1.694 1017
2.216 1.237 1.770 14391
2.106 1.176 1.687 953
2.220 1.239 1.762 12263
2.110 1.178 1.680 890
2.224 1.242 1.755 10161
2.114 1.180 1.673 1026
2.234 1.247 1.752 8347
2.123 1.186 1.670 1034
2.249 1.256 1.753 7428
2.139 1.194 1.672 932
2.265 1.265 1.754 8151
2.154 1.203 1.674 914
2.269 1.267 1.747 9284
2.082 1.163 1.612 805
2.273 1.269 1.740 8096
2.385 1.332 1.820 993
2.272 1.268 1.728 6950
2.383 1.331 1.808 1999
2.358 1.317 1.779 6003
2.246 1.254 1.700 3625
2.362 1.319 1.771 7046
2.250 1.257 1.692 2933
2.366 1.321 1.763 7014
2.254 1.259 1.685 2466
2.364 1.320 1.751 7154
2.252 1.258 1.673 1615
2.327 1.299 1.715 6818
2.440 1.362 1.793 1380
2.331 1.302 1.707 7826
2.444 1.365 1.785 1564
2.335 1.304 1.700 7093
2.448 1.367 1.777 2402
2.339 1.306 1.692 6361
2.452 1.369 1.769 3239
2.426 1.355 1.741 4884
2.313 1.292 1.664 3212
2.540 1.418 1.817 927
2.431 1.357 1.733 4745
2.317 1.294 1.657 1980
2.544 1.421 1.809 1176
2.429 1.356 1.721 4885
2.542 1.420 1.796 2574
2.315 1.293 1.645 1045
2.433 1.358 1.713 5034
2.546 1.422 1.788 3879
2.539 1.418 1.772 5708
2.425 1.354 1.697 3214
2.549 1.423 1.767 7108
2.435 1.359 1.693 2815
2.583 1.442 1.778 6761
2.463 1.375 1.701 5189
2.605 1.455 1.782 7385
2.467 1.377 1.692 5515
2.609 1.457 1.773 7973
2.477 1.383 1.688 5874
2.620 1.463 1.768 6480
2.481 1.385 1.680 4583
2.630 1.469 1.763 5234
2.491 1.391 1.676 3433
2.640 1.474 1.759 6264
2.494 1.393 1.668 2362
2.662 1.487 1.761 6741
2.498 1.395 1.659 761
2.673 1.492 1.756 6418
2.557 1.428 1.685 841
2.683 1.498 1.751 6928
2.799 1.563 1.822 1286
2.567 1.433 1.680 1090
2.699 1.507 1.750 8152
2.583 1.442 1.679 1624
2.815 1.572 1.820 1363
2.709 1.513 1.745 9712
2.826 1.578 1.815 1473
2.593 1.448 1.675 1277
2.713 1.515 1.736 9389
2.830 1.580 1.805 2644
2.717 1.517 1.727 7440
2.834 1.583 1.796 3536
2.722 1.520 1.718 5818
2.838 1.585 1.787 3446
2.744 1.532 1.720 5345
2.861 1.598 1.788 2913
2.754 1.538 1.714 6799
2.871 1.603 1.783 2622
2.888 1.613 1.780 5420
2.764 1.544 1.709 5297
2.892 1.615 1.771 8315
2.775 1.549 1.703 2979
2.890 1.614 1.758 9710
2.772 1.548 1.691 1375
2.882 1.609 1.741 9388
2.999 1.675 1.808 1721
2.764 1.543 1.675 1487
2.898 1.618 1.739 6346
2.780 1.552 1.672 2049
3.016 1.684 1.805 1273
2.908 1.624 1.733 6365
2.790 1.558 1.667 2387
3.026 1.690 1.798 1401
2.962 1.654 1.751 7514
2.807 1.567 1.664 1927
3.105 1.734 1.830 1041
2.973 1.660 1.744 10105
2.854 1.594 1.679 1731
3.091 1.726 1.809 1313
2.983 1.666 1.738 11586
2.864 1.599 1.673 2369
3.101 1.732 1.802 1848
2.987 1.668 1.728 13047
3.106 1.734 1.792 2351
2.868 1.602 1.664 2279
2.997 1.674 1.722 13773
3.122 1.744 1.789 2209
2.878 1.607 1.658 1890
3.001 1.676 1.712 12189
3.158 1.763 1.795 2127
2.882 1.609 1.648 821
3.005 1.678 1.702 9797
3.143 1.755 1.775 3776
3.003 1.677 1.689 7566
3.129 1.747 1.755 6275
3.126 1.746 1.741 8731
3.007 1.679 1.679 4680
3.246 1.813 1.803 1289
3.156 1.762 1.744 9310
3.036 1.695 1.682 2688
3.275 1.829 1.805 844
2.916 1.628 1.620 769
3.166 1.768 1.736 9512
3.046 1.701 1.675 3104
2.914 1.627 1.607 1036
3.170 1.770 1.726 8367
3.050 1.703 1.665 3023
2.924 1.633 1.601 962
3.206 1.790 1.732 6663
3.067 1.712 1.661 2715
3.223 1.799 1.727 11989
3.052 1.704 1.642 1709
3.343 1.867 1.788 956
3.233 1.805 1.720 14097
3.353 1.873 1.780 1047
3.049 1.703 1.629 940
3.243 1.811 1.712 10560
3.364 1.878 1.772 916
3.285 1.835 1.720 8997
3.165 1.767 1.661 988
3.289 1.837 1.709 10260
3.338 1.864 1.720 6849
3.478 1.942 1.787 1413
3.217 1.796 1.662 1294
3.355 1.873 1.715 7667
3.489 1.948 1.779 1860
3.234 1.806 1.657 1060
3.359 1.876 1.704 9039
3.493 1.950 1.768 1735
3.237 1.808 1.647 804
3.363 1.878 1.693 9992
3.504 1.956 1.759 1499
3.241 1.810 1.636 816
3.373 1.884 1.685 7346
3.527 1.969 1.756 2240
3.251 1.816 1.628 879
3.384 1.889 1.677 5375
3.531 1.972 1.745 4126
3.381 1.888 1.663 6407
3.529 1.970 1.730 5657
3.520 1.965 1.713 6004
3.391 1.894 1.654 5433
3.642 2.034 1.768 1478
3.562 1.989 1.718 5796
3.395 1.896 1.643 3161
3.554 1.984 1.701 5624
3.393 1.894 1.629 2813
3.676 2.053 1.755 1360
3.558 1.987 1.689 5569
3.680 2.055 1.743 2641
3.403 1.900 1.621 2424
3.568 1.992 1.680 4148
3.691 2.061 1.734 3085
3.419 1.909 1.615 1314
3.624 2.023 1.691 3987
3.772 2.106 1.755 1333
3.501 1.955 1.638 1210
3.692 2.062 1.707 4775
3.569 1.993 1.654 1914
3.815 2.130 1.760 823
3.703 2.068 1.697 5652
3.580 1.999 1.645 1496
3.826 2.136 1.750 1033
3.707 2.070 1.685 6477
3.830 2.139 1.737 1967
3.711 2.072 1.673 5215
3.834 2.141 1.725 2009
3.727 2.081 1.666 4427
3.896 2.176 1.736 3189
3.744 2.091 1.659 5944
3.900 2.178 1.723 4328
3.820 2.133 1.676 6073
3.944 2.202 1.726 2748
3.696 2.064 1.626 1670
3.830 2.139 1.666 5557
4.006 2.237 1.737 2222
3.706 2.070 1.616 1208
3.899 2.177 1.679 6734
3.775 2.108 1.630 3710
4.023 2.247 1.729 2091
3.942 2.201 1.682 6802
3.818 2.132 1.633 3749
3.946 2.204 1.669 7114
3.822 2.134 1.620 2011
3.944 2.202 1.653 6639
4.068 2.272 1.702 1148
3.819 2.133 1.605 1127
4.007 2.237 1.663 8103
3.882 2.168 1.615 892
3.997 2.232 1.645 12066
4.122 2.302 1.692 2570
4.001 2.234 1.632 12273
4.126 2.304 1.679 2740
4.011 2.240 1.621 9561
4.136 2.310 1.668 2281
4.261 2.379 1.714 922
4.101 2.290 1.639 6738
3.976 2.220 1.593 4034
4.278 2.389 1.705 1313
4.098 2.288 1.623 9065
3.973 2.218 1.577 2251
4.295 2.399 1.696 1648
4.089 2.283 1.605 9591
4.398 2.456 1.717 2109
4.273 2.386 1.672 1862
3.963 2.213 1.560 757
4.086 2.281 1.589 10023
4.402 2.458 1.703 3724
4.277 2.388 1.658 2351
4.528 2.528 1.748 783
4.103 2.291 1.580 10340
4.294 2.398 1.648 3193
4.419 2.468 1.693 3134
4.106 2.293 1.567 8590
4.291 2.396 1.632 3697
4.437 2.477 1.683 2690
4.110 2.295 1.553 5516
4.288 2.395 1.615 3547
4.440 2.480 1.668 3314
4.451 2.485 1.656 4188
4.299 2.400 1.603 2795
4.113 2.297 1.540 2746
4.488 2.506 1.652 4978
4.236 2.365 1.567 1838
4.614 2.576 1.695 1810
4.110 2.295 1.524 887
4.498 2.512 1.640 5432
4.624 2.582 1.682 3178
4.233 2.364 1.550 1618
4.515 2.521 1.629 4584
4.642 2.592 1.671 2954
4.243 2.370 1.539 1434
4.389 2.451 1.587 805
4.519 2.524 1.614 4009
4.645 2.594 1.656 2915
4.247 2.371 1.525 1022
4.772 2.664 1.698 760
4.523 2.526 1.599 3654
4.649 2.596 1.641 2566
4.244 2.370 1.508 1250
4.776 2.667 1.682 860
4.726 2.639 1.649 2418
4.600 2.569 1.608 1505
4.247 2.372 1.494 1085
4.853 2.710 1.690 968
4.730 2.641 1.633 2913
4.870 2.719 1.678 2263
4.754 2.655 1.624 4506
4.881 2.725 1.664 3996
4.627 2.584 1.584 783
4.764 2.660 1.610 5618
4.891 2.731 1.650 3794
4.888 2.730 1.632 3311
4.761 2.659 1.592 2810
5.015 2.800 1.671 907
4.979 2.780 1.642 5203
4.852 2.709 1.603 2653
4.989 2.786 1.627 4928
4.862 2.715 1.589 2008
5.006 2.796 1.615 5456
4.879 2.725 1.577 1555
5.004 2.794 1.596 8329
5.238 2.925 1.665 1640
4.876 2.723 1.559 773
5.007 2.796 1.580 7865
5.242 2.927 1.648 2297
5.409 3.020 1.696 1157
5.018 2.802 1.565 7569
5.339 2.982 1.657 2076
5.467 3.053 1.694 1508
5.212 2.910 1.621 1155
5.014 2.800 1.546 6855
5.444 3.040 1.668 2956
5.256 2.935 1.615 2021
5.571 3.111 1.704 1660
5.018 2.802 1.530 2874
5.475 3.057 1.658 2387
5.266 2.941 1.599 1854
5.602 3.128 1.693 1431
5.512 3.078 1.649 2151
5.384 3.007 1.613 1955
5.707 3.187 1.703 1706
5.257 2.935 1.578 1141
5.563 3.106 1.643 2815
5.395 3.012 1.597 1790
5.711 3.189 1.684 1462
5.267 2.941 1.563 1059
5.547 3.097 1.619 2738
5.392 3.011 1.578 1366
5.762 3.217 1.677 1306
5.638 3.148 1.624 1960
5.766 3.220 1.658 1650
5.496 3.069 1.587 1297
5.894 3.291 1.692 1098
5.729 3.199 1.629 3316
5.857 3.271 1.662 1695
5.594 3.124 1.593 1121
6.039 3.372 1.710 912
5.726 3.198 1.608 4164
5.962 3.329 1.669 1844
6.090 3.401 1.702 935
5.730 3.200 1.589 3696
5.966 3.331 1.649 3539
6.094 3.403 1.682 1747
5.963 3.330 1.628 3204
5.734 3.202 1.570 2410
6.091 3.401 1.660 1800
6.109 3.411 1.643 2204
5.967 3.332 1.608 1892
5.737 3.204 1.551 1244
6.251 3.490 1.678 1009
6.099 3.406 1.619 3949
5.748 3.209 1.533 1375
5.971 3.334 1.588 1107
6.545 3.655 1.729 881
6.096 3.404 1.598 4201
6.556 3.661 1.708 1264
5.751 3.211 1.514 918
6.394 3.570 1.669 822
6.086 3.399 1.574 2878
6.560 3.663 1.687 1464
6.283 3.508 1.621 1044
6.411 3.580 1.651 879
6.070 3.389 1.549 2427
6.557 3.662 1.663 1727
6.693 3.737 1.695 1451
6.293 3.514 1.601 1168
6.697 3.739 1.673 2853
6.141 3.429 1.545 2299
6.568 3.667 1.643 1908
6.412 3.580 1.607 1252
6.700 3.741 1.651 2827
6.572 3.670 1.621 1947
6.144 3.431 1.524 1858
5.914 3.302 1.472 1711
6.602 3.687 1.606 2239
6.813 3.804 1.653 1864
5.924 3.308 1.454 1642
7.091 3.960 1.715 1547
7.102 3.966 1.693 2015
6.891 3.848 1.646 1730
6.606 3.689 1.584 1308
5.927 3.310 1.434 1275
7.065 3.945 1.660 2127
6.888 3.846 1.622 1886
6.732 3.759 1.588 1122
7.262 4.055 1.703 1067
7.062 3.943 1.635 2488
7.259 4.053 1.678 1729
6.872 3.837 1.595 1705
7.388 4.125 1.705 950
7.249 4.048 1.651 2517
7.113 3.972 1.622 1968
7.378 4.120 1.678 1967
6.882 3.843 1.573 1520
7.369 4.115 1.650 2564
7.124 3.978 1.600 2173
6.899 3.853 1.553 1591
7.954 4.441 1.771 764
7.386 4.124 1.629 2818
7.257 4.052 1.602 1866
7.121 3.976 1.575 1565
6.903 3.855 1.530 1491
7.383 4.123 1.603 4012
7.254 4.050 1.577 2030
8.187 4.571 1.763 1838
7.513 4.195 1.629 1410
7.387 4.125 1.578 3659
8.184 4.570 1.734 2481
7.516 4.197 1.604 1597
7.257 4.053 1.553 1476
8.181 4.568 1.706 2333
7.390 4.127 1.554 1924
7.520 4.199 1.579 1496
7.847 4.382 1.642 1471
8.192 4.574 1.680 3845
8.519 4.757 1.742 1970
7.981 4.456 1.640 1614
7.517 4.197 1.552 1355
8.196 4.577 1.653 7132
7.984 4.458 1.613 2113
8.530 4.763 1.715 1951
7.384 4.123 1.502 1117
8.200 4.579 1.626 7343
7.988 4.461 1.587 2036
8.527 4.762 1.685 1701
8.350 4.663 1.653 845
8.203 4.581 1.598 4257
8.511 4.752 1.653 2185
7.992 4.463 1.560 1361
9.194 5.134 1.775 973
8.542 4.770 1.630 2875
8.221 4.590 1.573 1978
9.198 5.136 1.745 1461
8.546 4.772 1.601 3518
8.224 4.592 1.546 1454
9.195 5.134 1.713 1156
8.549 4.774 1.573 2415
8.221 4.591 1.518 1579
9.315 5.202 1.702 817
9.185 5.129 1.680 751
8.225 4.593 1.490 1427
