2.208 -0.646 1.112 6613
2.069 -0.605 1.049 6162
2.341 -0.684 1.172 787
2.225 -0.651 1.112 7421
2.058 -0.602 1.037 7102
2.060 -0.602 1.031 8117
2.235 -0.653 1.108 5198
2.368 -0.692 1.167 927
2.056 -0.601 1.021 7624
2.280 -0.667 1.120 6041
2.282 -0.667 1.113 8676
2.058 -0.602 1.015 5322
2.450 -0.716 1.187 894
2.306 -0.674 1.116 9897
2.061 -0.602 1.009 6252
2.439 -0.713 1.174 1197
2.309 -0.675 1.109 13611
2.063 -0.603 1.003 8558
2.442 -0.714 1.166 1633
2.311 -0.676 1.102 11997
2.065 -0.604 0.997 9454
2.445 -0.715 1.159 1953
2.321 -0.679 1.098 8878
2.068 -0.605 0.991 8232
2.455 -0.718 1.155 1961
2.338 -0.684 1.097 7531
2.070 -0.605 0.985 4496
2.204 -0.644 1.041 2118
2.472 -0.723 1.153 1255
2.362 -0.691 1.099 6931
2.073 -0.606 0.979 2928
2.228 -0.651 1.043 1580
2.503 -0.732 1.158 811
2.365 -0.691 1.092 7955
2.068 -0.605 0.970 2820
2.230 -0.652 1.037 2111
2.513 -0.735 1.153 931
2.367 -0.692 1.085 10561
2.056 -0.601 0.958 2402
2.233 -0.653 1.030 1975
2.502 -0.731 1.140 1365
2.377 -0.695 1.081 9915
2.511 -0.734 1.135 2220
2.051 -0.600 0.949 1535
2.242 -0.656 1.026 1270
2.387 -0.698 1.077 8475
2.521 -0.737 1.131 3319
2.474 -0.723 1.103 10391
2.340 -0.684 1.050 3791
2.477 -0.724 1.096 10231
2.342 -0.685 1.043 4109
2.444 -0.715 1.075 8596
2.579 -0.754 1.128 1753
2.309 -0.675 1.022 1688
2.440 -0.713 1.065 8564
2.575 -0.753 1.117 2187
2.304 -0.674 1.012 1472
2.457 -0.718 1.063 7515
2.592 -0.758 1.115 1586
2.321 -0.679 1.011 1278
2.530 -0.740 1.083 8519
2.388 -0.698 1.028 4967
2.533 -0.741 1.075 8665
2.390 -0.699 1.021 5855
2.400 -0.702 1.017 6128
2.550 -0.746 1.073 5873
3.222 -0.942 1.325 1392
2.581 -0.755 1.076 5334
2.395 -0.700 1.007 4050
3.226 -0.943 1.315 2263
2.584 -0.756 1.068 6150
3.229 -0.944 1.305 2446
2.398 -0.701 1.000 2197
2.720 -0.795 1.118 1017
2.601 -0.760 1.066 8221
3.218 -0.941 1.290 2289
2.429 -0.710 1.003 1570
2.737 -0.800 1.116 1043
2.611 -0.763 1.061 10087
3.221 -0.942 1.281 2170
2.438 -0.713 0.999 1710
2.747 -0.803 1.110 894
2.613 -0.764 1.053 9421
3.253 -0.951 1.281 2688
2.441 -0.714 0.991 1628
2.750 -0.804 1.102 1037
2.609 -0.763 1.043 9192
3.263 -0.954 1.274 3017
2.745 -0.803 1.091 1082
2.597 -0.759 1.030 6668
3.216 -0.940 1.247 4979
3.219 -0.941 1.237 8229
2.585 -0.756 1.017 2328
2.722 -0.796 1.065 767
3.222 -0.942 1.228 9162
2.717 -0.794 1.054 1541
2.558 -0.748 0.999 1179
3.225 -0.943 1.218 6828
2.720 -0.795 1.046 1681
2.582 -0.755 0.999 1050
3.362 -0.983 1.265 874
3.235 -0.946 1.211 4955
2.729 -0.798 1.040 1556
3.373 -0.986 1.257 1056
2.592 -0.758 0.994 970
3.275 -0.957 1.213 8140
2.732 -0.799 1.032 1327
2.594 -0.759 0.986 1020
3.278 -0.958 1.203 10907
2.618 -0.766 0.986 1457
2.756 -0.806 1.031 800
3.288 -0.961 1.196 8412
2.621 -0.766 0.978 1079
3.291 -0.962 1.186 7021
3.301 -0.965 1.178 7556
3.318 -0.970 1.173 6989
3.314 -0.969 1.161 6022
3.452 -1.009 1.204 769
3.331 -0.974 1.156 5896
3.470 -1.015 1.198 787
3.608 -1.055 1.241 774
3.349 -0.979 1.150 5850
3.619 -1.058 1.233 1002
3.381 -0.989 1.149 8080
3.614 -1.057 1.220 1772
3.220 -0.942 1.100 766
3.391 -0.991 1.141 9240
3.625 -1.060 1.211 2164
3.230 -0.945 1.093 1257
3.394 -0.992 1.131 6037
3.620 -1.059 1.198 3931
3.233 -0.945 1.083 1652
3.623 -1.059 1.187 6868
3.397 -0.993 1.121 4051
3.228 -0.944 1.071 1578
3.626 -1.060 1.176 6901
3.407 -0.996 1.113 4037
3.238 -0.947 1.064 1959
3.614 -1.057 1.161 7399
3.409 -0.997 1.102 4638
3.241 -0.948 1.054 2185
3.798 -1.110 1.214 760
3.617 -1.058 1.150 6335
3.419 -1.000 1.094 3437
3.243 -0.948 1.044 2134
3.801 -1.111 1.202 1175
3.620 -1.058 1.140 4722
3.422 -1.001 1.084 2323
3.246 -0.949 1.035 1816
3.811 -1.114 1.193 1708
3.630 -1.061 1.131 4770
3.814 -1.115 1.182 1720
3.491 -1.021 1.092 1563
3.351 -0.980 1.053 1149
3.648 -1.067 1.124 7375
3.354 -0.981 1.043 1316
3.817 -1.116 1.170 1136
3.508 -1.026 1.086 1065
3.636 -1.063 1.109 8052
3.364 -0.983 1.035 1387
3.820 -1.117 1.159 834
3.624 -1.060 1.094 8439
3.373 -0.986 1.027 1774
3.793 -1.109 1.139 927
3.626 -1.060 1.083 18233
3.376 -0.987 1.017 2032
3.869 -1.131 1.148 1365
3.636 -1.063 1.074 21652
3.378 -0.988 1.007 1493
3.776 -1.104 1.111 1277
3.639 -1.064 1.063 13417
3.779 -1.105 1.100 1316
3.381 -0.989 0.997 872
3.642 -1.065 1.053 13098
3.929 -1.149 1.126 866
3.782 -1.106 1.088 816
3.501 -1.024 1.017 761
3.644 -1.066 1.042 19385
3.792 -1.109 1.079 1068
3.504 -1.024 1.006 832
3.932 -1.150 1.114 787
3.654 -1.068 1.032 22424
3.794 -1.109 1.067 1446
3.514 -1.027 0.998 927
3.935 -1.151 1.102 777
3.649 -1.067 1.020 17939
3.790 -1.108 1.054 957
3.930 -1.149 1.089 805
3.509 -1.026 0.985 754
3.659 -1.070 1.011 11000
3.721 -1.088 1.014 9943
3.580 -1.047 0.980 1113
3.730 -1.091 1.004 12518
3.733 -1.091 0.993 14379
3.021 -0.883 0.828 904
3.735 -1.092 0.982 11628
3.023 -0.884 0.819 943
3.745 -1.095 0.972 8141
3.025 -0.884 0.810 835
3.762 -1.100 0.964 11199
3.978 -1.163 1.012 837
3.772 -1.103 0.955 12144
3.782 -1.106 0.945 9022
3.806 -1.113 0.939 10580
3.816 -1.116 0.929 13784
3.826 -1.119 0.919 12452
3.835 -1.121 0.909 9270
3.837 -1.122 0.897 7137
3.884 -1.136 0.895 5348
3.901 -1.141 0.886 9118
3.911 -1.143 0.876 8646
3.913 -1.144 0.864 8374
3.922 -1.147 0.853 9679
3.932 -1.150 0.843 8410
3.956 -1.157 0.835 5951
3.936 -1.151 0.819 4765
4.078 -1.192 0.844 1021
3.938 -1.151 0.808 4295
4.080 -1.193 0.832 2647
4.044 -1.183 0.814 5259
3.902 -1.141 0.789 1024
4.039 -1.181 0.800 5231
4.056 -1.186 0.791 6356
3.913 -1.144 0.767 821
4.065 -1.189 0.780 6442
4.067 -1.189 0.767 5507
4.069 -1.190 0.755 5179
4.211 -1.231 0.777 873
4.085 -1.195 0.745 6859
4.079 -1.193 0.732 8423
4.222 -1.235 0.753 1520
4.824 -1.411 0.841 1374
4.081 -1.193 0.720 6943
4.224 -1.235 0.740 2158
4.721 -1.380 0.812 2139
4.864 -1.422 0.832 1146
4.090 -1.196 0.708 5017
4.233 -1.238 0.729 2993
4.723 -1.381 0.798 2326
4.866 -1.423 0.818 1208
4.092 -1.196 0.696 4590
4.732 -1.384 0.784 4393
4.235 -1.238 0.716 3427
4.875 -1.425 0.804 890
4.734 -1.384 0.770 7302
4.101 -1.199 0.685 4009
4.244 -1.241 0.704 2100
4.758 -1.391 0.759 5944
4.193 -1.226 0.684 3080
4.615 -1.349 0.740 897
4.050 -1.184 0.666 810
4.768 -1.394 0.746 4780
4.179 -1.222 0.670 1829
4.624 -1.352 0.727 812
4.777 -1.397 0.732 5430
4.090 -1.196 0.646 1132
4.793 -1.402 0.720 4951
4.650 -1.360 0.702 883
4.092 -1.196 0.634 786
4.720 -1.380 0.696 4560
4.863 -1.422 0.713 1992
4.221 -1.234 0.637 841
4.706 -1.376 0.680 4705
4.865 -1.422 0.699 3130
5.907 -1.727 0.820 1177
4.844 -1.416 0.681 4808
4.700 -1.374 0.665 4025
5.909 -1.728 0.802 1635
4.845 -1.417 0.667 4260
4.701 -1.375 0.651 2811
5.903 -1.726 0.783 2346
4.748 -1.388 0.642 3559
5.905 -1.726 0.766 2609
4.892 -1.430 0.657 2541
5.360 -1.567 0.707 866
4.765 -1.393 0.629 2544
4.908 -1.435 0.644 1983
5.914 -1.729 0.749 1976
5.362 -1.568 0.691 1147
4.895 -1.431 0.628 2372
4.683 -1.369 0.606 2229
5.938 -1.736 0.733 1956
5.364 -1.568 0.675 1507
4.873 -1.425 0.611 3016
5.932 -1.735 0.714 2477
5.365 -1.569 0.659 2321
4.684 -1.370 0.592 1759
5.374 -1.571 0.643 3325
5.934 -1.735 0.697 3093
4.875 -1.425 0.596 3022
4.693 -1.372 0.579 872
5.951 -1.740 0.680 3298
5.375 -1.572 0.627 3241
4.883 -1.428 0.582 1940
5.807 -1.698 0.667 1440
5.960 -1.743 0.663 3932
5.369 -1.570 0.610 1948
5.816 -1.701 0.650 1522
4.885 -1.428 0.567 1297
5.961 -1.743 0.645 4518
4.893 -1.431 0.553 1464
5.378 -1.573 0.595 1309
5.817 -1.701 0.632 1100
5.947 -1.739 0.626 5678
5.379 -1.573 0.579 2001
4.902 -1.433 0.539 1389
6.091 -1.781 0.637 826
5.941 -1.737 0.607 5878
5.381 -1.573 0.562 3486
6.085 -1.779 0.618 968
4.903 -1.434 0.525 823
5.389 -1.576 0.547 5206
5.950 -1.740 0.590 4068
6.526 -1.908 0.634 1021
6.208 -1.815 0.609 949
5.398 -1.578 0.531 6338
5.974 -1.747 0.573 3802
6.543 -1.913 0.615 1684
6.209 -1.815 0.591 1224
5.399 -1.579 0.515 6345
5.975 -1.747 0.555 3612
6.551 -1.916 0.596 2088
6.195 -1.811 0.571 1232
5.392 -1.577 0.498 4734
6.022 -1.761 0.540 3452
6.560 -1.918 0.577 2133
6.204 -1.814 0.553 1248
6.023 -1.761 0.522 3053
5.386 -1.575 0.481 2459
6.478 -1.894 0.551 2340
6.205 -1.814 0.534 1167
6.479 -1.894 0.532 3164
5.971 -1.746 0.501 2664
5.387 -1.575 0.465 1787
6.191 -1.810 0.514 766
6.480 -1.895 0.512 3391
6.033 -1.764 0.486 2456
5.426 -1.586 0.451 1603
6.481 -1.895 0.493 3167
5.442 -1.591 0.436 2483
6.041 -1.766 0.469 2018
6.490 -1.898 0.474 4109
5.450 -1.594 0.420 3239
6.034 -1.764 0.450 1246
6.498 -1.900 0.454 5422
5.443 -1.592 0.403 3257
6.020 -1.760 0.431 1079
6.210 -1.816 0.440 758
6.499 -1.900 0.435 4864
5.444 -1.592 0.386 2896
6.021 -1.760 0.413 904
6.530 -1.909 0.417 3749
5.460 -1.596 0.371 2185
6.546 -1.914 0.397 3901
5.476 -1.601 0.355 1958
6.547 -1.914 0.378 5039
5.469 -1.599 0.338 1465
6.548 -1.914 0.358 5592
5.439 -1.590 0.321 1035
6.692 -1.957 0.363 784
6.548 -1.915 0.338 5007
5.439 -1.590 0.304 977
6.556 -1.917 0.319 4400
5.447 -1.593 0.288 846
6.784 -1.984 0.325 826
6.564 -1.919 0.299 4565
6.777 -1.982 0.304 1087
8.137 -2.379 0.338 843
5.463 -1.597 0.272 771
6.557 -1.917 0.279 5282
6.724 -1.966 0.283 1042
8.137 -2.379 0.313 937
6.558 -1.917 0.259 4554
6.778 -1.982 0.263 1183
8.138 -2.379 0.288 865
6.535 -1.911 0.239 3712
6.793 -1.986 0.243 1901
8.153 -2.384 0.264 1397
6.801 -1.989 0.223 2604
6.535 -1.911 0.219 2367
8.154 -2.384 0.239 1971
6.801 -1.989 0.202 2822
8.078 -2.362 0.214 2164
6.596 -1.929 0.200 1060
8.078 -2.362 0.190 3115
6.802 -1.989 0.182 3040
6.612 -1.933 0.180 1015
8.268 -2.418 0.191 845
8.078 -2.362 0.165 3567
6.802 -1.989 0.161 2401
6.597 -1.929 0.160 941
8.299 -2.426 0.166 814
8.078 -2.362 0.141 3501
6.794 -1.987 0.141 1219
8.314 -2.431 0.141 1019
6.589 -1.927 0.141 934
8.078 -2.362 0.116 2982
8.223 -2.404 0.116 1346
6.589 -1.927 0.121 802
8.078 -2.362 0.092 2520
8.314 -2.431 0.091 1324
6.794 -1.987 0.100 822
8.078 -2.362 0.068 2057
8.314 -2.431 0.065 1545
6.801 -1.989 0.079 1026
8.085 -2.364 0.043 1960
8.313 -2.431 0.040 1592
6.801 -1.989 0.058 800
8.093 -2.366 0.019 1956
8.313 -2.431 0.015 1638
9.172 -2.682 0.002 948
8.305 -2.428 -0.010 1572
8.092 -2.366 -0.006 1504
9.156 -2.677 -0.025 975
8.305 -2.428 -0.035 1260
9.163 -2.679 -0.053 938
8.084 -2.364 -0.030 792
8.312 -2.430 -0.060 1007
9.314 -2.723 -0.084 973
9.162 -2.679 -0.081 902
9.321 -2.725 -0.113 1122
8.311 -2.430 -0.085 912
9.169 -2.681 -0.109 846
9.351 -2.734 -0.142 1436
9.184 -2.685 -0.137 824
8.318 -2.432 -0.111 820
8.067 -2.359 -0.103 756
9.365 -2.738 -0.171 1282
8.310 -2.430 -0.136 808
9.372 -2.740 -0.199 1174
10.124 -2.960 -0.227 821
8.301 -2.427 -0.160 805
9.371 -2.740 -0.228 926
10.130 -2.962 -0.258 907
10.129 -2.962 -0.288 995
8.117 -2.373 -0.203 921
9.750 -2.851 -0.272 760
8.033 -2.349 -0.224 921
8.032 -2.348 -0.248 1088
9.975 -2.917 -0.342 869
9.966 -2.914 -0.372 1054
8.023 -2.346 -0.272 954
9.964 -2.913 -0.402 1245
8.007 -2.341 -0.295 848
9.963 -2.913 -0.432 1194
8.013 -2.343 -0.320 916
11.207 -3.277 -0.504 898
11.198 -3.274 -0.537 1274
9.969 -2.915 -0.463 1151
8.012 -2.343 -0.344 990
11.188 -3.271 -0.571 1373
9.967 -2.914 -0.493 951
8.010 -2.342 -0.368 922
10.505 -3.072 -0.527 766
11.178 -3.268 -0.604 1535
10.504 -3.071 -0.559 885
8.009 -2.342 -0.392 854
9.973 -2.916 -0.524 758
11.176 -3.268 -0.638 1251
10.502 -3.071 -0.591 754
11.166 -3.265 -0.671 990
11.172 -3.267 -0.706 801
1.732 -0.512 1.394 7721
1.849 -0.546 1.482 781
1.736 -0.513 1.389 15442
1.853 -0.547 1.476 1563
1.739 -0.514 1.384 17585
1.857 -0.549 1.471 1381
1.743 -0.515 1.379 19729
1.861 -0.550 1.465 1198
1.746 -0.516 1.374 20872
1.864 -0.551 1.460 1198
1.750 -0.517 1.369 22014
1.868 -0.552 1.454 869
1.753 -0.518 1.363 22014
1.756 -0.519 1.358 19385
1.760 -0.520 1.353 16755
1.879 -0.555 1.438 788
1.757 -0.519 1.343 15186
1.876 -0.554 1.428 768
1.760 -0.520 1.338 13864
1.770 -0.523 1.337 11962
1.780 -0.526 1.337 10535
1.783 -0.527 1.331 9718
1.786 -0.528 1.326 8335
1.783 -0.527 1.316 7878
1.787 -0.528 1.311 7797
1.835 -0.542 1.336 8555
1.713 -0.506 1.254 2590
1.844 -0.545 1.335 10176
1.723 -0.509 1.254 3929
1.854 -0.548 1.334 12157
1.732 -0.512 1.253 5428
1.851 -0.547 1.324 10800
1.729 -0.511 1.243 4209
1.973 -0.583 1.404 878
1.841 -0.544 1.310 9900
1.719 -0.508 1.230 2741
1.964 -0.580 1.390 1533
1.845 -0.545 1.304 8356
1.722 -0.509 1.225 2308
1.967 -0.581 1.384 1886
1.842 -0.544 1.295 6906
1.964 -0.580 1.374 2337
1.719 -0.508 1.216 1626
1.896 -0.560 1.323 5352
1.774 -0.524 1.244 2875
1.926 -0.569 1.334 6938
1.803 -0.533 1.255 5100
1.923 -0.568 1.324 7406
1.799 -0.532 1.246 4580
1.893 -0.559 1.298 9123
1.770 -0.523 1.220 1500
1.890 -0.558 1.288 10971
1.766 -0.522 1.210 1026
2.014 -0.595 1.365 805
1.893 -0.559 1.282 12882
2.017 -0.596 1.359 1089
1.769 -0.523 1.205 831
1.923 -0.568 1.293 13047
1.798 -0.531 1.216 1289
1.939 -0.573 1.295 17551
1.815 -0.536 1.219 2183
1.949 -0.576 1.293 19044
1.824 -0.539 1.218 2634
1.952 -0.577 1.288 19082
1.827 -0.540 1.212 3056
1.955 -0.578 1.282 16472
1.830 -0.541 1.207 3478
1.958 -0.578 1.276 18749
1.833 -0.542 1.201 3573
1.961 -0.579 1.270 22089
1.836 -0.542 1.196 3668
1.965 -0.580 1.264 22462
1.839 -0.543 1.190 3026
1.968 -0.581 1.259 22836
1.842 -0.544 1.185 2774
1.971 -0.582 1.253 17940
1.845 -0.545 1.180 3166
1.967 -0.581 1.243 14544
1.841 -0.544 1.170 2202
1.970 -0.582 1.237 15945
1.844 -0.545 1.165 1774
0.700 -0.207 0.509 890
1.974 -0.583 1.231 15368
1.847 -0.546 1.159 1085
0.707 -0.209 0.511 946
1.983 -0.586 1.229 14970
0.708 -0.209 0.509 934
1.980 -0.585 1.220 13707
0.709 -0.210 0.507 964
1.989 -0.588 1.218 18871
0.710 -0.210 0.505 934
1.992 -0.589 1.212 25523
1.818 -0.537 1.115 837
0.711 -0.210 0.503 799
2.120 -0.626 1.282 766
1.995 -0.589 1.206 27756
2.123 -0.627 1.276 1019
1.807 -0.534 1.102 825
2.005 -0.592 1.204 26466
2.133 -0.630 1.273 944
2.001 -0.591 1.194 21636
2.129 -0.629 1.263 758
2.004 -0.592 1.188 16769
2.021 -0.597 1.189 11832
2.037 -0.602 1.190 8118
2.033 -0.601 1.181 5540
2.162 -0.639 1.249 898
2.036 -0.602 1.175 7282
2.165 -0.640 1.242 1255
2.039 -0.602 1.169 8557
2.168 -0.641 1.236 1409
2.049 -0.605 1.166 11034
2.178 -0.643 1.233 958
2.065 -0.610 1.167 17942
2.075 -0.613 1.164 22799
2.078 -0.614 1.158 23534
2.221 -0.656 1.231 1113
2.081 -0.615 1.152 20287
2.218 -0.655 1.221 1304
2.084 -0.615 1.146 15562
2.214 -0.654 1.211 1195
2.093 -0.618 1.143 11914
2.224 -0.657 1.207 926
2.130 -0.629 1.154 11194
2.000 -0.591 1.090 1023
2.126 -0.628 1.144 16704
1.996 -0.589 1.081 1478
2.136 -0.631 1.141 17810
2.005 -0.592 1.078 1312
2.139 -0.632 1.135 12284
2.008 -0.593 1.072 970
2.128 -0.629 1.122 6689
2.259 -0.667 1.184 1039
1.996 -0.590 1.060 825
2.137 -0.631 1.119 9288
2.269 -0.670 1.181 1547
2.006 -0.593 1.057 1484
2.147 -0.634 1.116 11017
2.015 -0.595 1.054 2083
2.279 -0.673 1.177 1653
2.157 -0.637 1.113 10390
2.025 -0.598 1.051 2378
2.289 -0.676 1.174 1481
2.159 -0.638 1.106 8153
2.027 -0.599 1.045 2308
2.292 -0.677 1.167 1209
2.183 -0.645 1.109 6731
2.051 -0.606 1.049 3972
2.315 -0.684 1.169 887
2.207 -0.652 1.112 7465
2.067 -0.611 1.049 6183
2.339 -0.691 1.172 834
2.223 -0.657 1.112 8215
2.056 -0.607 1.037 7044
2.356 -0.696 1.171 818
2.058 -0.608 1.031 7656
2.233 -0.660 1.108 6954
2.366 -0.699 1.167 1093
2.271 -0.671 1.117 7872
2.054 -0.607 1.021 6562
2.404 -0.710 1.176 828
2.273 -0.672 1.110 11180
2.056 -0.607 1.015 4515
2.406 -0.711 1.169 1369
2.290 -0.677 1.110 11497
2.059 -0.608 1.009 5751
2.423 -0.716 1.168 1590
2.307 -0.681 1.109 15608
2.061 -0.609 1.003 7879
2.440 -0.721 1.166 1470
2.303 -0.680 1.099 14569
2.064 -0.610 0.997 8484
2.436 -0.720 1.156 1861
2.305 -0.681 1.092 9945
2.066 -0.610 0.991 7213
2.439 -0.720 1.149 2500
2.357 -0.696 1.106 7152
2.068 -0.611 0.985 3993
2.223 -0.657 1.050 1749
2.491 -0.736 1.162 792
2.360 -0.697 1.099 7332
2.071 -0.612 0.979 2540
2.226 -0.658 1.043 1916
2.494 -0.737 1.155 767
2.356 -0.696 1.089 10908
2.066 -0.610 0.970 2105
2.221 -0.656 1.034 1854
2.490 -0.735 1.144 789
2.358 -0.697 1.082 14830
2.061 -0.609 0.961 1644
2.224 -0.657 1.027 1555
2.492 -0.736 1.137 1184
2.368 -0.699 1.078 10724
2.502 -0.739 1.132 1805
2.057 -0.608 0.952 1070
2.233 -0.660 1.023 1030
2.427 -0.717 1.094 6060
2.562 -0.757 1.148 1126
2.293 -0.677 1.040 1049
2.465 -0.728 1.101 8450
2.331 -0.688 1.047 2748
2.461 -0.727 1.090 9797
2.326 -0.687 1.037 2415
2.449 -0.724 1.078 9560
2.314 -0.684 1.025 2039
2.584 -0.763 1.130 1137
2.452 -0.724 1.070 9169
2.317 -0.684 1.018 1755
2.587 -0.764 1.123 1106
2.383 -0.704 1.036 7941
2.526 -0.746 1.090 7875
2.536 -0.749 1.086 8353
2.386 -0.705 1.028 6841
2.531 -0.748 1.075 8032
2.395 -0.708 1.024 5820
2.448 -0.723 1.036 5607
2.584 -0.763 1.086 2766
3.227 -0.953 1.327 1006
2.429 -0.718 1.020 3712
2.572 -0.760 1.073 3690
3.223 -0.952 1.315 1612
2.589 -0.765 1.071 4899
2.396 -0.708 1.000 2185
3.226 -0.953 1.305 1781
2.606 -0.770 1.069 7283
2.470 -0.730 1.019 1694
3.229 -0.954 1.296 1436
2.608 -0.771 1.061 8676
2.458 -0.726 1.006 2039
3.218 -0.951 1.281 1597
2.745 -0.811 1.110 1007
2.618 -0.773 1.056 8078
3.250 -0.960 1.281 2680
2.439 -0.720 0.991 1752
2.755 -0.814 1.104 1398
2.621 -0.774 1.048 8674
3.239 -0.957 1.267 3132
2.757 -0.815 1.096 1145
2.434 -0.719 0.982 1059
2.623 -0.775 1.040 6783
3.206 -0.947 1.244 6206
3.217 -0.950 1.237 10314
2.640 -0.780 1.037 2935
3.220 -0.951 1.228 11126
2.621 -0.774 1.022 2413
3.215 -0.950 1.215 8079
2.616 -0.773 1.011 2798
2.753 -0.813 1.058 1072
3.218 -0.951 1.206 6423
2.727 -0.806 1.040 1635
2.590 -0.765 0.994 1383
3.229 -0.954 1.199 8588
2.730 -0.806 1.032 1367
2.563 -0.757 0.977 864
3.275 -0.967 1.203 11421
2.645 -0.781 0.995 1558
3.285 -0.970 1.196 9139
2.633 -0.778 0.983 1496
3.148 -0.930 1.151 807
3.288 -0.971 1.186 6896
3.150 -0.931 1.141 815
2.643 -0.781 0.977 772
3.298 -0.974 1.178 6894
3.160 -0.934 1.134 994
3.308 -0.977 1.171 6669
3.311 -0.978 1.161 6159
3.329 -0.983 1.156 5817
3.346 -0.988 1.150 5525
3.371 -0.996 1.147 8303
3.232 -0.955 1.105 1531
3.604 -1.065 1.218 956
3.388 -1.001 1.141 10047
3.235 -0.956 1.095 1413
3.614 -1.068 1.209 1069
3.398 -1.004 1.133 7580
3.617 -1.069 1.198 2356
3.230 -0.954 1.083 1395
3.394 -1.003 1.121 6073
3.620 -1.069 1.187 5103
3.255 -0.962 1.080 1346
3.631 -1.072 1.178 5835
3.411 -1.008 1.115 5520
3.272 -0.967 1.074 1661
3.414 -1.008 1.104 6228
3.611 -1.067 1.161 5618
3.275 -0.967 1.065 1430
3.802 -1.123 1.216 896
3.424 -1.011 1.096 4798
3.614 -1.068 1.150 4783
3.285 -0.970 1.057 1629
3.805 -1.124 1.205 1530
3.624 -1.071 1.142 3731
3.427 -1.012 1.086 3614
3.808 -1.125 1.193 2322
3.273 -0.967 1.043 1402
3.635 -1.074 1.133 5797
3.811 -1.126 1.182 2365
3.429 -1.013 1.076 2155
3.224 -0.952 1.019 1863
3.652 -1.079 1.126 8140
3.366 -0.994 1.047 1773
3.814 -1.127 1.170 1586
3.226 -0.953 1.009 1302
3.655 -1.080 1.115 8733
3.368 -0.995 1.037 1953
3.816 -1.127 1.159 1428
3.508 -1.036 1.075 802
3.643 -1.076 1.100 10230
3.371 -0.996 1.027 2365
3.812 -1.126 1.145 1378
3.631 -1.073 1.085 19033
3.373 -0.996 1.017 2454
3.859 -1.140 1.146 1510
3.633 -1.073 1.074 20829
3.376 -0.997 1.007 1882
3.825 -1.130 1.124 1540
3.636 -1.074 1.063 14257
3.806 -1.124 1.107 1376
3.378 -0.998 0.997 1209
3.639 -1.075 1.053 14210
3.498 -1.033 1.017 1159
3.919 -1.158 1.124 833
3.779 -1.116 1.088 758
3.641 -1.076 1.042 21047
3.501 -1.034 1.006 1422
3.781 -1.117 1.077 1123
3.922 -1.158 1.112 813
3.651 -1.079 1.032 23775
3.791 -1.120 1.067 1468
3.511 -1.037 0.998 1307
3.932 -1.161 1.102 822
3.646 -1.077 1.020 18269
3.506 -1.036 0.985 1090
3.787 -1.119 1.054 1047
3.934 -1.162 1.090 864
3.649 -1.078 1.009 11282
3.508 -1.036 0.975 933
2.465 -0.728 0.722 829
3.718 -1.098 1.014 8787
3.577 -1.057 0.980 961
3.007 -0.888 0.844 927
2.467 -0.729 0.715 780
3.727 -1.101 1.004 14437
3.009 -0.889 0.835 1065
3.730 -1.102 0.993 17792
3.018 -0.892 0.828 1054
3.740 -1.105 0.984 12403
3.020 -0.892 0.819 780
3.749 -1.108 0.974 6576
3.759 -1.110 0.964 9997
3.769 -1.113 0.955 12014
3.771 -1.114 0.944 8178
3.803 -1.123 0.939 9452
3.813 -1.126 0.929 13121
3.822 -1.129 0.919 12478
3.825 -1.130 0.907 9382
3.834 -1.133 0.897 7155
3.881 -1.146 0.895 7088
3.898 -1.152 0.886 11921
3.900 -1.152 0.874 10029
3.910 -1.155 0.864 7721
3.919 -1.158 0.853 8295
3.936 -1.163 0.844 7227
3.953 -1.168 0.835 6116
3.811 -1.126 0.810 817
3.940 -1.164 0.821 4463
4.082 -1.206 0.846 845
4.039 -1.193 0.826 4395
3.897 -1.151 0.801 1699
4.034 -1.192 0.812 5556
4.036 -1.192 0.800 5783
4.052 -1.197 0.791 7965
3.910 -1.155 0.767 915
4.062 -1.200 0.780 8702
4.056 -1.198 0.766 8630
4.199 -1.240 0.788 773
4.058 -1.199 0.754 8782
4.200 -1.241 0.776 1002
4.074 -1.204 0.744 10376
4.217 -1.246 0.766 876
4.076 -1.204 0.732 12605
4.219 -1.246 0.753 1337
4.730 -1.397 0.828 1295
4.078 -1.205 0.720 10486
4.717 -1.393 0.812 2168
4.221 -1.247 0.740 1877
4.079 -1.205 0.707 7280
4.222 -1.247 0.727 2770
4.719 -1.394 0.798 2446
4.081 -1.206 0.695 6146
4.721 -1.395 0.783 4566
4.224 -1.248 0.715 3028
4.723 -1.395 0.769 7368
4.090 -1.208 0.684 5044
4.233 -1.250 0.703 1938
4.579 -1.353 0.750 765
4.724 -1.396 0.755 6092
4.107 -1.213 0.673 2998
4.250 -1.255 0.692 1066
4.581 -1.353 0.736 1001
4.718 -1.394 0.740 4897
4.093 -1.209 0.659 2067
4.236 -1.251 0.678 980
4.758 -1.405 0.730 4846
4.087 -1.207 0.646 1539
4.599 -1.359 0.710 1117
4.759 -1.406 0.716 4172
4.616 -1.364 0.698 1707
4.081 -1.205 0.633 861
4.224 -1.248 0.650 818
4.716 -1.393 0.696 5612
4.859 -1.435 0.713 1133
4.572 -1.351 0.679 1014
4.702 -1.389 0.680 6190
4.846 -1.431 0.697 2307
5.902 -1.743 0.820 1066
4.696 -1.387 0.665 5608
4.840 -1.430 0.681 3779
5.904 -1.744 0.802 1490
4.728 -1.397 0.654 3817
4.871 -1.439 0.670 2356
5.898 -1.742 0.783 2041
4.584 -1.354 0.639 1072
4.744 -1.402 0.642 3652
5.900 -1.743 0.766 2147
4.888 -1.444 0.657 1906
5.349 -1.580 0.707 1325
4.753 -1.404 0.628 2488
4.897 -1.447 0.643 1773
5.350 -1.580 0.690 1748
5.902 -1.743 0.748 1539
4.679 -1.382 0.606 3068
5.352 -1.581 0.674 2206
4.883 -1.442 0.627 2074
5.934 -1.753 0.733 1489
5.353 -1.581 0.658 3079
4.877 -1.441 0.611 2804
4.680 -1.383 0.592 2504
5.928 -1.751 0.714 1902
5.370 -1.586 0.643 3996
4.871 -1.439 0.596 2849
5.929 -1.752 0.697 2406
4.682 -1.383 0.578 1255
5.371 -1.587 0.627 3763
5.946 -1.756 0.680 2577
4.879 -1.441 0.582 1905
5.802 -1.714 0.667 914
5.955 -1.759 0.663 3498
5.372 -1.587 0.611 2399
4.918 -1.453 0.571 1537
5.811 -1.717 0.650 858
5.956 -1.760 0.645 4256
5.374 -1.587 0.595 1811
4.912 -1.451 0.555 1578
4.693 -1.386 0.537 754
5.943 -1.755 0.626 5179
5.375 -1.588 0.579 2941
4.891 -1.445 0.539 1342
5.376 -1.588 0.562 5319
5.936 -1.754 0.607 5144
6.080 -1.796 0.618 871
4.899 -1.447 0.525 818
5.385 -1.591 0.547 7714
5.938 -1.754 0.589 3211
6.528 -1.928 0.634 966
6.082 -1.797 0.600 942
5.386 -1.591 0.531 9146
5.984 -1.768 0.574 3300
6.545 -1.933 0.616 1718
6.196 -1.830 0.590 1173
5.387 -1.591 0.514 9010
5.986 -1.768 0.556 3233
6.546 -1.934 0.596 2156
6.190 -1.829 0.571 1215
5.388 -1.592 0.498 6724
6.017 -1.777 0.540 3039
6.555 -1.936 0.577 2196
6.199 -1.831 0.553 1220
5.382 -1.590 0.481 3950
6.018 -1.778 0.522 2556
6.556 -1.937 0.557 2265
6.208 -1.834 0.534 1189
5.382 -1.590 0.465 3187
6.474 -1.912 0.532 2850
5.974 -1.765 0.501 2287
6.201 -1.832 0.515 835
6.475 -1.913 0.512 3072
5.391 -1.593 0.449 2441
6.020 -1.778 0.486 2090
5.437 -1.606 0.436 2971
6.484 -1.915 0.493 2706
6.029 -1.781 0.468 1769
5.438 -1.606 0.419 3961
6.492 -1.918 0.474 3388
6.030 -1.781 0.450 1091
6.501 -1.920 0.455 4576
5.439 -1.607 0.403 4225
6.023 -1.779 0.431 843
6.494 -1.918 0.435 4323
5.440 -1.607 0.386 3868
6.517 -1.925 0.416 3348
5.455 -1.612 0.371 2967
6.533 -1.930 0.397 3394
5.464 -1.614 0.355 2767
6.542 -1.932 0.378 4397
5.449 -1.610 0.337 2202
6.542 -1.933 0.358 4975
5.434 -1.605 0.321 1842
6.550 -1.935 0.338 4607
5.435 -1.605 0.304 1695
6.559 -1.937 0.319 4101
5.443 -1.608 0.288 1481
6.551 -1.935 0.299 4621
5.458 -1.612 0.272 1311
6.726 -1.987 0.303 880
8.123 -2.399 0.337 814
6.552 -1.935 0.279 5660
6.719 -1.985 0.283 1094
8.123 -2.400 0.313 912
5.459 -1.613 0.255 893
6.545 -1.933 0.259 4945
6.765 -1.998 0.263 1050
8.131 -2.402 0.288 842
6.530 -1.929 0.239 4321
6.780 -2.003 0.243 1999
8.147 -2.407 0.264 1256
6.788 -2.005 0.223 2772
6.530 -1.929 0.219 2736
8.147 -2.407 0.239 1734
6.796 -2.008 0.202 2902
8.071 -2.384 0.214 2262
6.500 -1.920 0.199 1027
8.072 -2.384 0.190 3209
6.796 -2.008 0.182 3063
6.599 -1.949 0.180 939
8.072 -2.384 0.165 3603
6.796 -2.008 0.161 2360
6.591 -1.947 0.160 823
8.072 -2.384 0.141 3421
6.789 -2.005 0.141 1102
8.216 -2.427 0.141 803
8.072 -2.384 0.116 2845
8.216 -2.427 0.116 1158
8.072 -2.384 0.092 2382
8.307 -2.454 0.091 1108
8.071 -2.384 0.068 1918
8.299 -2.452 0.066 1351
6.788 -2.005 0.079 777
8.079 -2.387 0.043 1895
8.299 -2.452 0.040 1349
8.094 -2.391 0.018 1968
8.306 -2.454 0.015 1348
9.164 -2.707 0.002 920
8.086 -2.389 -0.006 1512
8.298 -2.451 -0.010 1342
9.156 -2.705 -0.025 1037
9.323 -2.754 -0.028 869
8.298 -2.451 -0.035 1127
9.156 -2.705 -0.053 977
9.315 -2.752 -0.056 970
8.442 -2.494 -0.038 803
9.314 -2.752 -0.085 1072
9.155 -2.704 -0.081 918
8.297 -2.451 -0.060 917
8.441 -2.494 -0.063 808
9.321 -2.754 -0.113 1369
8.297 -2.451 -0.085 828
9.154 -2.704 -0.108 828
8.130 -2.402 -0.081 767
9.321 -2.753 -0.141 1704
8.099 -2.392 -0.104 1118
9.169 -2.709 -0.137 767
9.320 -2.753 -0.169 1463
8.083 -2.388 -0.128 1058
8.417 -2.486 -0.139 750
9.319 -2.753 -0.198 1223
8.082 -2.387 -0.153 1032
8.416 -2.486 -0.165 826
8.089 -2.389 -0.177 1158
9.212 -2.721 -0.222 863
8.095 -2.391 -0.202 1333
9.211 -2.721 -0.250 1004
10.128 -2.992 -0.289 830
8.087 -2.389 -0.226 1144
9.209 -2.721 -0.277 923
8.078 -2.386 -0.250 982
9.208 -2.720 -0.305 842
10.505 -3.103 -0.368 807
8.014 -2.367 -0.320 775
8.013 -2.367 -0.344 817
1.743 -0.522 1.404 7326
1.746 -0.523 1.398 14652
1.863 -0.558 1.486 1300
1.743 -0.522 1.389 16665
1.861 -0.558 1.476 1308
1.741 -0.522 1.379 18877
1.859 -0.557 1.465 1249
1.744 -0.523 1.374 19429
1.862 -0.558 1.460 1249
1.748 -0.524 1.369 19982
1.866 -0.559 1.454 912
1.751 -0.525 1.363 19982
1.754 -0.526 1.358 18301
1.758 -0.527 1.353 16621
1.761 -0.528 1.348 14379
1.642 -0.492 1.263 765
1.758 -0.527 1.338 12172
1.768 -0.530 1.337 10259
1.648 -0.494 1.254 872
1.727 -0.518 1.301 8451
1.847 -0.554 1.385 1604
1.718 -0.515 1.288 8125
1.838 -0.551 1.371 2507
1.708 -0.512 1.274 8321
1.829 -0.548 1.356 4097
1.711 -0.513 1.269 8666
1.832 -0.549 1.351 3988
1.727 -0.518 1.272 10870
1.848 -0.554 1.354 5065
1.730 -0.519 1.267 12500
1.852 -0.555 1.349 6869
1.734 -0.520 1.262 11162
1.855 -0.556 1.343 9491
1.852 -0.555 1.334 12584
1.730 -0.519 1.253 9601
1.849 -0.554 1.324 11457
1.727 -0.518 1.243 6659
1.846 -0.553 1.314 10445
1.724 -0.517 1.234 4277
1.968 -0.590 1.394 1023
1.849 -0.554 1.309 9119
1.727 -0.517 1.229 4177
1.971 -0.591 1.388 1333
1.846 -0.553 1.299 7920
1.723 -0.516 1.220 3930
1.968 -0.590 1.378 1829
1.849 -0.554 1.294 5906
1.726 -0.517 1.215 3512
1.972 -0.591 1.372 1991
1.898 -0.569 1.317 5032
1.749 -0.524 1.222 3585
1.888 -0.566 1.303 6618
1.752 -0.525 1.217 3214
1.885 -0.565 1.293 8610
1.755 -0.526 1.212 2452
1.888 -0.566 1.288 10934
1.764 -0.529 1.210 1684
1.885 -0.565 1.278 13316
1.761 -0.528 1.201 1226
2.008 -0.602 1.355 1132
1.914 -0.574 1.289 12619
1.777 -0.532 1.204 1209
1.937 -0.580 1.295 16188
1.773 -0.531 1.195 943
1.946 -0.583 1.293 16652
1.822 -0.546 1.218 1083
1.950 -0.584 1.288 16578
1.825 -0.547 1.212 1352
1.953 -0.585 1.282 14764
1.828 -0.548 1.207 1622
1.949 -0.584 1.272 17319
1.824 -0.547 1.197 1603
1.959 -0.587 1.270 20834
1.834 -0.550 1.196 2102
1.969 -0.590 1.268 19340
1.844 -0.552 1.194 2551
1.972 -0.591 1.262 18448
1.846 -0.553 1.189 2745
1.975 -0.592 1.257 14332
1.849 -0.554 1.183 2778
1.965 -0.589 1.243 11664
1.839 -0.551 1.170 1807
0.704 -0.211 0.515 770
1.968 -0.590 1.237 12586
1.842 -0.552 1.165 1740
0.699 -0.209 0.509 919
1.978 -0.593 1.235 12675
1.851 -0.555 1.163 1836
0.706 -0.212 0.511 986
1.981 -0.594 1.229 12953
1.854 -0.556 1.158 1182
0.708 -0.212 0.509 978
1.984 -0.595 1.223 11526
0.702 -0.210 0.503 996
1.857 -0.557 1.152 925
1.987 -0.595 1.218 16851
0.710 -0.213 0.505 963
1.860 -0.557 1.147 824
1.997 -0.598 1.215 23924
1.836 -0.550 1.126 841
0.711 -0.213 0.503 824
1.993 -0.597 1.206 27984
2.120 -0.635 1.276 1023
1.798 -0.539 1.099 851
1.996 -0.598 1.200 28782
2.124 -0.636 1.270 1047
1.999 -0.599 1.194 23756
2.127 -0.637 1.263 842
2.002 -0.600 1.188 18257
2.130 -0.638 1.257 767
2.012 -0.603 1.186 12298
2.140 -0.641 1.254 859
2.028 -0.608 1.187 7871
2.031 -0.609 1.181 5799
2.160 -0.647 1.249 766
2.041 -0.612 1.178 7846
2.169 -0.650 1.246 929
2.044 -0.612 1.172 10365
2.173 -0.651 1.239 989
2.053 -0.615 1.170 16207
2.182 -0.654 1.236 855
2.063 -0.618 1.167 25061
2.199 -0.659 1.237 823
2.066 -0.619 1.161 29165
2.216 -0.664 1.237 912
2.069 -0.620 1.155 29589
2.219 -0.665 1.231 1270
2.071 -0.621 1.149 24722
2.215 -0.664 1.221 1405
2.081 -0.624 1.146 18691
2.211 -0.663 1.211 1338
2.091 -0.627 1.143 13970
2.221 -0.666 1.207 1036
2.100 -0.629 1.140 12109
1.970 -0.590 1.076 1097
2.231 -0.669 1.204 873
2.117 -0.634 1.141 17351
1.986 -0.595 1.077 1872
2.248 -0.674 1.204 845
2.127 -0.637 1.138 18898
1.996 -0.598 1.075 2096
2.257 -0.677 1.201 767
2.129 -0.638 1.131 13591
1.998 -0.599 1.069 1821
2.132 -0.639 1.125 9381
2.001 -0.600 1.063 1459
2.263 -0.678 1.187 862
2.121 -0.636 1.112 12314
2.252 -0.675 1.174 1869
2.131 -0.639 1.109 12097
2.262 -0.678 1.171 1855
1.999 -0.599 1.048 1128
2.147 -0.644 1.109 10829
2.016 -0.604 1.048 2269
2.279 -0.683 1.170 1494
2.143 -0.642 1.100 8563
2.011 -0.603 1.039 1654
2.275 -0.682 1.160 1625
2.187 -0.656 1.112 7105
2.055 -0.616 1.052 4468
2.319 -0.695 1.173 868
2.204 -0.661 1.112 10397
2.058 -0.617 1.046 6056
2.336 -0.700 1.172 855
2.221 -0.666 1.112 10943
2.054 -0.615 1.037 6849
2.353 -0.705 1.171 880
2.230 -0.668 1.108 9453
2.056 -0.616 1.031 6723
2.363 -0.708 1.167 1113
2.268 -0.680 1.117 9525
2.052 -0.615 1.021 4715
2.401 -0.719 1.176 894
2.271 -0.680 1.110 12534
2.054 -0.616 1.015 3066
2.418 -0.725 1.175 1379
2.280 -0.683 1.107 12008
2.056 -0.616 1.009 4481
2.414 -0.723 1.164 1593
2.304 -0.691 1.109 15811
2.059 -0.617 1.003 6188
2.437 -0.730 1.166 1292
2.293 -0.687 1.096 15949
2.068 -0.620 1.000 6569
2.426 -0.727 1.153 1755
2.296 -0.688 1.089 10512
2.071 -0.621 0.994 5445
2.429 -0.728 1.146 2065
2.298 -0.689 1.082 6863
2.073 -0.621 0.988 3007
2.432 -0.729 1.139 2061
2.364 -0.708 1.102 7295
2.230 -0.668 1.046 2246
2.075 -0.622 0.982 1790
2.360 -0.707 1.092 12168
2.226 -0.667 1.037 1702
2.071 -0.621 0.973 1259
2.494 -0.747 1.147 757
2.362 -0.708 1.085 16868
2.228 -0.668 1.030 1385
2.497 -0.748 1.140 900
2.059 -0.617 0.961 861
2.372 -0.711 1.081 12388
2.238 -0.671 1.026 1161
2.506 -0.751 1.135 1082
2.424 -0.727 1.094 8720
2.290 -0.686 1.040 1384
2.559 -0.767 1.148 821
2.455 -0.736 1.098 7742
2.321 -0.695 1.044 1872
2.451 -0.734 1.088 10367
2.316 -0.694 1.034 2231
2.586 -0.775 1.141 781
2.446 -0.733 1.078 10221
2.312 -0.693 1.025 1736
2.581 -0.774 1.130 1290
2.456 -0.736 1.073 9209
2.321 -0.696 1.021 2064
2.591 -0.777 1.125 851
2.523 -0.756 1.090 8981
2.388 -0.716 1.038 7956
2.540 -0.761 1.088 8566
2.390 -0.716 1.031 5706
2.457 -0.736 1.048 7919
2.592 -0.777 1.100 3035
2.445 -0.733 1.036 5816
2.581 -0.773 1.086 3381
2.398 -0.718 1.010 4565
2.569 -0.770 1.073 4397
3.212 -0.963 1.312 935
2.586 -0.775 1.071 6450
2.386 -0.715 0.997 2949
3.222 -0.966 1.305 967
2.603 -0.780 1.069 9040
2.381 -0.714 0.988 2139
3.240 -0.971 1.301 889
2.605 -0.781 1.061 10409
2.419 -0.725 0.993 1803
3.236 -0.970 1.289 1120
2.608 -0.782 1.053 8823
3.246 -0.973 1.281 2094
2.443 -0.732 0.994 1595
2.744 -0.822 1.102 1248
2.611 -0.782 1.045 9943
3.207 -0.961 1.256 2650
2.747 -0.823 1.094 1293
2.445 -0.733 0.987 1247
2.620 -0.785 1.040 8699
3.202 -0.960 1.244 6028
2.462 -0.738 0.984 1036
2.757 -0.826 1.088 925
3.213 -0.963 1.237 10461
2.637 -0.790 1.037 4026
3.216 -0.964 1.228 11522
2.589 -0.776 1.012 2929
2.726 -0.817 1.059 1226
3.212 -0.962 1.215 8572
2.592 -0.777 1.004 2660
2.729 -0.818 1.051 1517
3.207 -0.961 1.203 6880
2.673 -0.801 1.023 1771
3.210 -0.962 1.194 9696
2.712 -0.813 1.027 1056
2.575 -0.772 0.981 754
3.257 -0.976 1.198 11590
2.621 -0.785 0.988 953
3.274 -0.981 1.193 9875
2.616 -0.784 0.978 1255
3.137 -0.940 1.148 827
3.284 -0.984 1.186 6269
2.611 -0.782 0.968 1085
3.147 -0.943 1.141 881
3.302 -0.989 1.181 4958
3.164 -0.948 1.137 1430
3.305 -0.990 1.171 5591
3.300 -0.989 1.159 6040
3.310 -0.992 1.151 5435
3.350 -1.004 1.152 4619
3.211 -0.962 1.110 972
3.367 -1.009 1.147 7679
3.229 -0.968 1.105 1381
3.377 -1.012 1.139 9164
3.224 -0.966 1.093 1623
3.654 -1.095 1.222 1043
3.387 -1.015 1.131 7322
3.241 -0.971 1.087 1723
3.620 -1.085 1.200 1463
3.390 -1.016 1.121 7094
3.631 -1.088 1.191 3654
3.251 -0.974 1.080 2062
3.407 -1.021 1.115 6476
3.641 -1.091 1.183 4895
3.268 -0.979 1.074 2373
3.417 -1.024 1.107 6923
3.651 -1.094 1.174 4149
3.278 -0.982 1.067 1656
3.805 -1.140 1.218 1003
3.420 -1.025 1.096 5572
3.654 -1.095 1.163 4871
3.800 -1.139 1.205 1665
3.281 -0.983 1.057 831
3.642 -1.091 1.148 5309
3.430 -1.028 1.088 4896
3.803 -1.140 1.193 2646
3.291 -0.986 1.049 1719
3.645 -1.092 1.137 6946
3.425 -1.026 1.076 3742
3.799 -1.138 1.180 2793
3.286 -0.985 1.037 2719
3.648 -1.093 1.126 10351
3.288 -0.985 1.027 2658
3.802 -1.139 1.168 1940
3.428 -1.027 1.065 1519
3.651 -1.094 1.115 13906
3.812 -1.142 1.159 1996
3.298 -0.988 1.019 1883
3.646 -1.093 1.102 14808
3.367 -1.009 1.027 2102
3.808 -1.141 1.145 1650
3.634 -1.089 1.087 15463
3.377 -1.012 1.019 2735
3.854 -1.155 1.146 1252
3.629 -1.088 1.074 15524
3.372 -1.010 1.007 1890
3.820 -1.145 1.124 1452
3.632 -1.088 1.063 14234
3.808 -1.141 1.109 1373
3.359 -1.007 0.993 916
3.627 -1.087 1.051 15229
3.774 -1.131 1.088 821
3.637 -1.090 1.042 17850
3.784 -1.134 1.079 858
3.647 -1.093 1.032 19043
3.787 -1.135 1.067 1093
2.466 -0.739 0.739 912
3.649 -1.094 1.022 13752
2.468 -0.740 0.732 1312
3.509 -1.052 0.987 779
3.790 -1.136 1.056 774
3.644 -1.092 1.009 9396
2.470 -0.740 0.724 1320
3.647 -1.093 0.998 8725
2.471 -0.741 0.717 1086
3.787 -1.135 1.031 1065
3.004 -0.900 0.844 926
3.723 -1.116 1.004 14140
3.006 -0.901 0.835 889
3.726 -1.116 0.993 16514
3.728 -1.117 0.982 10214
3.752 -1.125 0.976 4417
3.762 -1.127 0.966 9165
3.764 -1.128 0.955 12406
3.759 -1.127 0.942 7560
3.799 -1.138 0.939 6671
3.808 -1.141 0.929 10466
3.818 -1.144 0.919 10621
3.828 -1.147 0.909 8909
3.837 -1.150 0.899 7735
3.877 -1.162 0.895 8901
3.886 -1.165 0.884 14074
3.903 -1.170 0.876 10939
3.920 -1.175 0.867 8434
3.922 -1.175 0.855 8403
3.924 -1.176 0.843 6704
3.941 -1.181 0.834 5948
3.950 -1.184 0.823 4061
4.092 -1.226 0.848 774
4.020 -1.205 0.823 4247
4.014 -1.203 0.810 5209
4.156 -1.246 0.834 800
4.038 -1.210 0.801 6060
3.896 -1.168 0.778 756
4.055 -1.215 0.792 9678
3.913 -1.173 0.769 1165
4.057 -1.216 0.780 11509
3.915 -1.173 0.757 857
4.051 -1.214 0.766 12284
4.045 -1.212 0.753 12632
4.188 -1.255 0.775 952
4.062 -1.217 0.743 14711
4.205 -1.260 0.764 998
4.064 -1.218 0.731 17112
4.207 -1.261 0.752 1436
4.725 -1.416 0.828 1044
4.066 -1.218 0.718 14322
4.208 -1.261 0.739 1862
4.712 -1.412 0.812 1816
4.067 -1.219 0.706 10055
4.691 -1.406 0.794 2479
4.210 -1.262 0.726 2265
4.061 -1.217 0.693 7957
4.693 -1.406 0.780 5065
4.204 -1.260 0.713 2374
4.709 -1.411 0.768 7286
4.070 -1.220 0.682 5765
4.213 -1.263 0.701 1668
4.567 -1.368 0.749 960
4.711 -1.412 0.754 6248
4.094 -1.227 0.672 3501
4.568 -1.369 0.735 1293
4.237 -1.270 0.691 922
4.705 -1.410 0.739 5633
4.088 -1.225 0.659 2542
4.562 -1.367 0.720 1057
4.231 -1.268 0.678 881
4.707 -1.411 0.725 4938
4.082 -1.223 0.646 1590
4.564 -1.368 0.707 1490
4.709 -1.411 0.710 4587
4.566 -1.368 0.693 2413
4.204 -1.260 0.648 819
4.852 -1.454 0.728 784
4.710 -1.412 0.696 6537
4.567 -1.369 0.679 2226
4.853 -1.454 0.713 804
4.697 -1.407 0.680 7366
4.840 -1.450 0.697 1608
4.554 -1.365 0.664 1047
5.895 -1.767 0.820 825
4.691 -1.406 0.665 6881
4.834 -1.449 0.681 2665
5.897 -1.767 0.802 1160
4.118 -1.234 0.600 889
4.700 -1.408 0.652 4101
4.843 -1.451 0.668 2098
5.899 -1.768 0.784 1549
5.341 -1.600 0.723 991
4.731 -1.418 0.641 3420
5.342 -1.601 0.707 1910
5.893 -1.766 0.766 1549
4.875 -1.461 0.656 1421
4.680 -1.402 0.621 2821
5.344 -1.601 0.690 2512
4.868 -1.459 0.641 1322
5.910 -1.771 0.749 1031
4.674 -1.401 0.606 3832
5.345 -1.602 0.674 3058
4.877 -1.462 0.627 1655
5.927 -1.776 0.733 965
5.347 -1.602 0.658 3883
4.675 -1.401 0.592 3268
4.871 -1.460 0.611 2395
5.921 -1.774 0.714 1227
5.363 -1.607 0.643 4434
4.865 -1.458 0.596 2428
4.646 -1.392 0.575 1959
5.922 -1.775 0.697 1572
5.365 -1.608 0.627 4167
5.946 -1.782 0.681 1683
4.874 -1.461 0.582 1679
4.655 -1.395 0.562 965
5.366 -1.608 0.611 3006
5.948 -1.782 0.663 2645
4.913 -1.472 0.571 1379
4.663 -1.398 0.549 900
5.942 -1.781 0.644 3404
5.367 -1.608 0.595 2507
4.899 -1.468 0.555 1536
4.680 -1.402 0.536 1028
5.369 -1.609 0.579 4064
5.936 -1.779 0.626 4064
4.892 -1.466 0.539 1427
4.673 -1.400 0.521 970
5.370 -1.609 0.562 7216
5.922 -1.775 0.606 3947
4.893 -1.466 0.525 837
6.066 -1.818 0.618 752
5.371 -1.610 0.546 10013
5.969 -1.789 0.592 2276
6.521 -1.954 0.634 809
5.380 -1.612 0.531 11522
5.985 -1.794 0.575 2730
6.537 -1.959 0.616 1564
6.189 -1.855 0.590 993
5.381 -1.612 0.514 11090
5.986 -1.794 0.557 2695
6.538 -1.959 0.596 1984
6.183 -1.853 0.571 1049
5.374 -1.611 0.498 8226
6.002 -1.799 0.540 2413
6.547 -1.962 0.577 2049
6.199 -1.858 0.553 1054
5.375 -1.611 0.481 5420
6.548 -1.962 0.557 2074
6.003 -1.799 0.522 1855
6.200 -1.858 0.534 1076
5.376 -1.611 0.465 4826
6.466 -1.938 0.532 2396
5.967 -1.788 0.501 1609
6.201 -1.858 0.516 842
5.377 -1.611 0.449 3668
6.467 -1.938 0.512 2577
6.013 -1.802 0.486 1485
5.408 -1.621 0.434 3809
6.476 -1.941 0.493 2155
6.022 -1.805 0.468 1311
5.417 -1.623 0.418 5133
6.485 -1.943 0.474 2553
6.022 -1.805 0.450 826
5.417 -1.623 0.402 5539
6.493 -1.946 0.455 3498
5.426 -1.626 0.386 4978
6.486 -1.944 0.435 3520
5.449 -1.633 0.371 3783
6.479 -1.942 0.415 2995
5.457 -1.635 0.355 3628
6.526 -1.956 0.397 2571
6.534 -1.958 0.378 3328
5.443 -1.631 0.337 3141
6.542 -1.961 0.358 3965
5.428 -1.627 0.321 2964
6.550 -1.963 0.339 3888
5.436 -1.629 0.304 2837
6.543 -1.961 0.319 3569
5.437 -1.629 0.288 2412
6.536 -1.959 0.299 4646
5.452 -1.634 0.272 2047
6.718 -2.013 0.303 864
6.529 -1.957 0.279 6122
5.452 -1.634 0.255 1319
6.711 -2.011 0.283 1114
8.114 -2.431 0.313 769
6.522 -1.954 0.259 5379
6.727 -2.016 0.263 1005
6.515 -1.952 0.239 4759
6.772 -2.030 0.243 1956
8.069 -2.418 0.263 1058
6.515 -1.952 0.219 3136
6.780 -2.032 0.223 2714
8.062 -2.416 0.238 1435
6.780 -2.032 0.202 2767
8.062 -2.416 0.214 2315
6.492 -1.946 0.199 1356
8.062 -2.416 0.190 3195
6.788 -2.034 0.182 2867
6.508 -1.950 0.180 1059
8.062 -2.416 0.165 3446
6.788 -2.034 0.161 2172
6.568 -1.968 0.160 824
8.055 -2.414 0.141 3082
6.773 -2.030 0.141 913
8.055 -2.414 0.116 2471
8.199 -2.457 0.116 933
8.062 -2.416 0.092 2041
8.206 -2.459 0.091 863
8.062 -2.416 0.068 1618
8.282 -2.482 0.066 1043
8.077 -2.420 0.043 1712
8.282 -2.482 0.041 1021
8.964 -2.686 0.032 842
8.084 -2.423 0.018 1957
8.274 -2.479 0.016 999
8.971 -2.689 0.005 900
9.153 -2.743 0.002 786
8.084 -2.423 -0.006 1556
8.273 -2.479 -0.010 1108
9.153 -2.743 -0.025 1010
9.312 -2.791 -0.028 822
8.265 -2.477 -0.034 1072
8.076 -2.420 -0.030 1025
9.152 -2.743 -0.053 1003
9.304 -2.788 -0.056 969
9.288 -2.783 -0.084 1216
9.144 -2.740 -0.081 982
8.272 -2.479 -0.060 927
8.083 -2.422 -0.055 865
9.310 -2.790 -0.113 1366
8.082 -2.422 -0.080 1185
8.272 -2.479 -0.085 856
9.151 -2.742 -0.109 759
9.317 -2.792 -0.141 1711
8.082 -2.422 -0.104 1504
8.264 -2.476 -0.110 788
9.316 -2.792 -0.170 1649
8.073 -2.419 -0.128 1363
9.316 -2.792 -0.198 1587
8.065 -2.417 -0.152 1258
8.079 -2.421 -0.177 1481
9.315 -2.791 -0.226 1174
8.086 -2.423 -0.202 1769
9.874 -2.959 -0.278 861
9.298 -2.786 -0.254 791
8.077 -2.421 -0.226 1553
8.061 -2.416 -0.250 1436
9.690 -2.904 -0.329 877
9.205 -2.759 -0.306 846
8.045 -2.411 -0.274 906
9.681 -2.901 -0.358 867
9.672 -2.898 -0.387 893
11.149 -3.341 -0.604 836
11.154 -3.343 -0.638 959
11.152 -3.342 -0.672 1086
11.157 -3.344 -0.706 936
11.162 -3.345 -0.741 813
11.160 -3.344 -0.775 813
1.747 -0.530 1.408 7401
1.864 -0.565 1.496 914
1.630 -0.494 1.320 779
1.751 -0.531 1.403 14802
1.868 -0.566 1.490 1829
1.633 -0.495 1.316 779
1.742 -0.528 1.389 16435
1.859 -0.564 1.476 1807
1.745 -0.529 1.383 18426
1.863 -0.565 1.470 1468
1.742 -0.528 1.374 17945
1.860 -0.564 1.460 1571
1.746 -0.529 1.369 17532
1.864 -0.565 1.454 1103
1.749 -0.530 1.363 17532
1.753 -0.531 1.358 16152
1.756 -0.533 1.353 14772
1.637 -0.496 1.268 756
1.760 -0.534 1.348 12604
1.640 -0.497 1.263 878
1.763 -0.535 1.343 10435
1.644 -0.498 1.259 1000
1.766 -0.536 1.337 8346
1.776 -0.538 1.337 6347
1.656 -0.502 1.253 769
1.779 -0.540 1.331 6069
1.770 -0.537 1.317 5239
1.735 -0.526 1.286 5347
1.856 -0.563 1.368 2572
1.738 -0.527 1.281 6393
1.859 -0.564 1.363 3553
1.837 -0.557 1.340 7017
1.716 -0.520 1.259 5480
1.840 -0.558 1.335 9702
1.719 -0.521 1.254 6127
1.844 -0.559 1.329 12387
1.722 -0.522 1.249 6713
1.847 -0.560 1.324 11666
1.725 -0.523 1.243 5346
1.844 -0.559 1.314 11085
1.722 -0.522 1.234 3779
1.966 -0.596 1.394 885
1.841 -0.558 1.304 10264
1.719 -0.521 1.225 2325
1.963 -0.595 1.384 1291
1.844 -0.559 1.299 9612
1.966 -0.596 1.378 1551
1.722 -0.522 1.220 1126
1.854 -0.562 1.298 7670
1.976 -0.599 1.377 1377
1.731 -0.525 1.219 1143
1.876 -0.569 1.305 6400
1.754 -0.532 1.226 1477
1.880 -0.570 1.299 7779
1.757 -0.533 1.221 1286
1.876 -0.569 1.289 9274
1.747 -0.530 1.208 1111
1.880 -0.570 1.284 11568
1.756 -0.532 1.206 1201
2.003 -0.607 1.361 780
1.883 -0.571 1.278 13861
1.759 -0.533 1.201 1215
2.006 -0.608 1.355 967
1.899 -0.576 1.281 12480
1.775 -0.538 1.204 1496
1.935 -0.587 1.295 13880
1.811 -0.549 1.219 2641
1.938 -0.588 1.289 13637
1.814 -0.550 1.214 3353
1.948 -0.591 1.288 12938
1.823 -0.553 1.212 3066
1.951 -0.592 1.282 11379
1.826 -0.554 1.207 2666
1.954 -0.593 1.276 13697
1.829 -0.555 1.201 3210
1.957 -0.593 1.270 16796
1.832 -0.556 1.196 3753
1.974 -0.598 1.272 15219
1.848 -0.560 1.198 3251
1.977 -0.599 1.266 14705
1.851 -0.561 1.193 2187
1.973 -0.598 1.257 11986
1.848 -0.560 1.183 1649
1.957 -0.593 1.239 11285
1.831 -0.555 1.166 1029
0.697 -0.211 0.511 754
1.966 -0.596 1.237 10711
1.840 -0.558 1.165 1458
0.698 -0.212 0.509 904
1.976 -0.599 1.235 11084
1.850 -0.561 1.163 1524
0.699 -0.212 0.507 981
1.979 -0.600 1.229 11740
0.707 -0.214 0.509 987
1.852 -0.562 1.158 903
1.982 -0.601 1.223 10944
0.701 -0.213 0.503 1009
1.985 -0.602 1.218 15887
0.709 -0.215 0.505 971
1.988 -0.603 1.212 21625
0.710 -0.215 0.503 839
1.807 -0.548 1.112 818
1.991 -0.604 1.206 27012
1.797 -0.545 1.099 882
2.118 -0.642 1.276 872
1.994 -0.605 1.200 29026
2.122 -0.643 1.270 880
1.997 -0.606 1.194 24114
2.125 -0.644 1.263 875
1.993 -0.604 1.184 19107
2.121 -0.643 1.253 875
2.003 -0.607 1.182 13442
2.131 -0.646 1.251 849
2.013 -0.610 1.180 8741
2.036 -0.617 1.184 7585
2.039 -0.618 1.178 9972
2.048 -0.621 1.176 13028
2.058 -0.624 1.173 21021
2.194 -0.665 1.243 909
2.061 -0.625 1.167 30993
2.197 -0.666 1.237 1096
2.064 -0.626 1.161 34979
2.207 -0.669 1.234 1109
2.067 -0.627 1.155 34357
2.217 -0.672 1.231 1356
2.069 -0.627 1.149 27545
2.220 -0.673 1.224 1364
2.079 -0.630 1.146 21123
2.223 -0.674 1.217 1198
2.089 -0.633 1.143 15672
2.219 -0.673 1.207 904
2.098 -0.636 1.140 12501
2.229 -0.676 1.204 918
2.108 -0.639 1.137 16921
2.239 -0.679 1.201 1137
2.118 -0.642 1.134 18315
1.987 -0.603 1.071 995
2.248 -0.682 1.198 986
2.120 -0.643 1.128 13903
1.990 -0.603 1.066 1075
2.251 -0.683 1.191 898
2.116 -0.642 1.119 11532
2.247 -0.681 1.181 1083
1.985 -0.602 1.056 927
2.119 -0.643 1.112 14063
2.250 -0.682 1.174 1505
1.988 -0.603 1.050 798
2.122 -0.643 1.106 12599
2.253 -0.683 1.167 1634
1.990 -0.604 1.045 796
2.138 -0.648 1.106 10570
2.007 -0.608 1.045 1804
2.270 -0.688 1.167 1384
2.134 -0.647 1.097 9150
2.266 -0.687 1.157 1636
2.002 -0.607 1.036 1232
2.192 -0.665 1.116 8780
2.060 -0.625 1.055 4859
2.331 -0.707 1.179 794
2.202 -0.668 1.112 12905
2.056 -0.623 1.046 5481
2.334 -0.708 1.172 972
2.212 -0.671 1.109 13096
2.052 -0.622 1.037 5753
2.344 -0.711 1.168 1165
2.228 -0.676 1.108 10810
2.061 -0.625 1.034 5488
2.361 -0.716 1.167 1189
2.273 -0.689 1.120 9826
2.063 -0.626 1.028 3266
2.405 -0.729 1.179 794
2.269 -0.688 1.110 12481
2.115 -0.641 1.043 2138
2.415 -0.732 1.175 1005
2.278 -0.691 1.107 11600
2.054 -0.623 1.009 2879
2.411 -0.731 1.164 1118
2.302 -0.698 1.109 14431
2.057 -0.624 1.003 4026
2.435 -0.738 1.166 908
2.298 -0.697 1.099 14531
2.066 -0.627 1.000 4225
2.431 -0.737 1.156 1159
2.314 -0.702 1.098 9417
2.069 -0.627 0.994 3346
2.448 -0.742 1.155 851
2.345 -0.711 1.103 8069
2.212 -0.671 1.047 2694
2.071 -0.628 0.988 1857
2.479 -0.752 1.159 871
2.341 -0.710 1.093 7101
2.474 -0.750 1.149 1243
2.207 -0.669 1.037 1237
2.073 -0.629 0.982 1056
2.358 -0.715 1.092 10175
2.224 -0.674 1.037 1018
2.491 -0.755 1.147 766
2.360 -0.716 1.085 13712
2.226 -0.675 1.030 849
2.377 -0.721 1.084 11478
2.243 -0.680 1.029 1222
2.422 -0.734 1.094 11049
2.288 -0.694 1.040 1485
2.425 -0.735 1.086 8061
2.290 -0.694 1.033 1213
2.456 -0.745 1.090 10150
2.321 -0.704 1.037 1834
2.451 -0.743 1.080 10669
2.316 -0.702 1.027 1127
2.586 -0.784 1.133 976
2.454 -0.744 1.073 9190
2.319 -0.703 1.021 958
2.589 -0.785 1.125 854
2.520 -0.764 1.090 8240
2.371 -0.719 1.033 3508
2.452 -0.743 1.056 7656
2.587 -0.784 1.107 2508
2.317 -0.702 1.004 1561
2.469 -0.749 1.054 6880
2.333 -0.708 1.002 2846
2.604 -0.790 1.105 1740
2.500 -0.758 1.057 7161
2.364 -0.717 1.006 4015
2.635 -0.799 1.108 942
2.517 -0.763 1.055 6335
2.367 -0.718 0.999 3034
2.576 -0.781 1.068 7767
2.440 -0.740 1.018 2226
2.593 -0.786 1.066 9093
2.457 -0.745 1.016 2852
2.596 -0.787 1.058 10518
2.460 -0.746 1.009 1802
3.204 -0.972 1.278 988
2.732 -0.828 1.107 960
2.605 -0.790 1.053 9001
3.243 -0.983 1.281 1304
2.742 -0.831 1.102 1298
2.469 -0.749 1.004 1181
2.608 -0.791 1.045 9451
3.196 -0.969 1.254 1942
2.744 -0.832 1.094 955
2.421 -0.734 0.979 953
2.618 -0.794 1.040 9683
3.199 -0.970 1.244 4974
2.481 -0.752 0.992 916
3.210 -0.973 1.237 8972
2.627 -0.797 1.035 5309
2.491 -0.755 0.987 840
2.764 -0.838 1.082 754
3.213 -0.974 1.228 9884
2.608 -0.791 1.019 4103
2.745 -0.832 1.066 1354
3.208 -0.973 1.215 7404
2.625 -0.796 1.016 4670
2.762 -0.838 1.063 923
3.204 -0.972 1.203 5811
2.656 -0.805 1.018 3178
3.207 -0.973 1.194 8689
2.688 -0.815 1.020 1803
3.232 -0.980 1.191 11386
2.604 -0.789 0.983 1187
3.264 -0.990 1.191 10050
2.591 -0.786 0.971 1134
3.223 -0.977 1.167 6091
2.601 -0.789 0.965 949
3.233 -0.980 1.160 4057
3.371 -1.022 1.204 805
3.301 -1.001 1.171 4024
3.297 -1.000 1.159 5584
3.307 -1.003 1.151 5464
3.346 -1.015 1.152 3726
3.208 -0.973 1.110 2165
3.364 -1.020 1.147 6468
3.225 -0.978 1.105 2831
3.366 -1.021 1.137 8117
3.228 -0.979 1.095 2058
3.650 -1.107 1.222 846
3.362 -1.019 1.124 6731
3.223 -0.977 1.083 1583
3.624 -1.099 1.202 957
3.379 -1.025 1.118 6935
3.634 -1.102 1.194 2745
3.241 -0.983 1.078 1927
3.404 -1.032 1.115 7408
3.645 -1.105 1.185 4614
3.265 -0.990 1.074 2304
3.414 -1.035 1.107 7106
3.655 -1.108 1.176 5424
3.275 -0.993 1.067 2021
3.794 -1.150 1.216 874
3.650 -1.107 1.163 6943
3.409 -1.034 1.094 4770
3.270 -0.992 1.055 1503
3.797 -1.151 1.205 1368
3.653 -1.108 1.152 7910
3.412 -1.035 1.084 3899
3.800 -1.152 1.193 2313
3.273 -0.992 1.045 1754
3.649 -1.106 1.139 7515
3.415 -1.035 1.074 3722
3.224 -0.978 1.021 2630
3.795 -1.151 1.180 2553
3.652 -1.107 1.128 10109
3.300 -1.001 1.031 2868
3.439 -1.043 1.070 1825
3.798 -1.152 1.168 1809
3.647 -1.106 1.115 14750
3.295 -0.999 1.019 2231
3.801 -1.153 1.157 2106
3.486 -1.057 1.071 1240
3.642 -1.104 1.102 13533
3.796 -1.151 1.143 1670
3.364 -1.020 1.027 1467
3.503 -1.062 1.065 869
3.638 -1.103 1.089 10788
3.366 -1.021 1.017 1942
3.851 -1.168 1.146 860
3.640 -1.104 1.078 10749
3.368 -1.021 1.007 1881
3.809 -1.155 1.122 1308
3.628 -1.100 1.063 12031
3.805 -1.154 1.109 1231
3.378 -1.024 0.999 1145
3.623 -1.099 1.051 13555
3.484 -1.056 1.015 1091
3.778 -1.146 1.090 931
2.468 -0.748 0.756 866
3.633 -1.102 1.042 12489
2.470 -0.749 0.748 1059
3.493 -1.059 1.006 992
3.773 -1.144 1.077 831
3.643 -1.105 1.032 12335
2.471 -0.749 0.741 1480
3.503 -1.062 0.998 943
3.783 -1.147 1.067 808
3.646 -1.105 1.022 9799
2.466 -0.748 0.732 1938
3.506 -1.063 0.987 811
3.648 -1.106 1.011 9019
2.467 -0.748 0.724 2022
3.651 -1.107 1.000 10613
2.469 -0.749 0.717 1704
3.727 -1.130 1.006 11240
2.471 -0.749 0.710 1034
3.586 -1.088 0.973 896
3.722 -1.129 0.993 12215
3.724 -1.129 0.982 7181
3.749 -1.137 0.976 3947
3.759 -1.140 0.966 8930
3.761 -1.140 0.955 12708
