9.486 2.857 1.708 1219
8.790 2.648 1.592 1091
9.232 2.781 1.665 1067
8.996 2.710 1.598 1523
9.476 2.854 1.676 1392
9.221 2.777 1.635 1387
9.850 2.967 1.738 1345
9.233 2.781 1.608 1534
9.443 2.844 1.642 1205
9.847 2.966 1.706 1167
9.008 2.713 1.572 1046
10.429 3.141 1.767 1206
9.837 2.963 1.674 1121
9.237 2.782 1.580 1040
9.499 2.861 1.621 1013
10.448 3.147 1.738 1073
9.893 2.980 1.652 948
9.638 2.903 1.613 871
10.178 3.066 1.696 839
10.175 3.065 1.664 1153
10.535 3.173 1.719 1059
9.905 2.983 1.624 969
10.745 3.237 1.750 751
10.540 3.175 1.687 1503
10.802 3.254 1.725 1010
9.992 3.010 1.606 864
10.157 3.059 1.630 860
10.529 3.171 1.652 1384
10.814 3.257 1.694 1093
10.979 3.307 1.718 856
10.003 3.013 1.576 788
11.074 3.336 1.697 1247
10.818 3.259 1.661 1043
11.352 3.419 1.736 968
11.071 3.335 1.662 1344
10.823 3.260 1.628 1073
11.356 3.421 1.702 936
10.834 3.263 1.596 1355
11.451 3.449 1.679 1114
11.075 3.336 1.629 835
10.838 3.265 1.563 1562
11.335 3.414 1.629 999
12.485 3.761 1.781 897
11.703 3.525 1.677 857
10.835 3.263 1.529 1344
11.346 3.418 1.595 932
12.490 3.762 1.743 924
12.716 3.830 1.772 911
10.839 3.265 1.497 800
11.952 3.600 1.637 795
11.757 3.541 1.612 790
12.494 3.763 1.705 784
12.167 3.665 1.626 801
11.972 3.606 1.602 764
12.747 3.839 1.697 762
12.751 3.841 1.659 1098
12.269 3.696 1.601 919
13.384 4.031 1.734 873
12.556 3.782 1.635 832
12.793 3.853 1.624 1289
13.381 4.030 1.693 984
12.575 3.788 1.599 756
12.767 3.846 1.582 1226
12.764 3.844 1.542 1178
12.752 3.841 1.502 755
2.261 0.674 1.791 2563
2.266 0.675 1.784 5127
2.148 0.640 1.697 1115
2.383 0.710 1.872 864
2.277 0.678 1.782 5161
2.394 0.713 1.869 1627
2.159 0.643 1.695 1359
2.281 0.680 1.775 5920
2.399 0.715 1.862 1957
2.163 0.645 1.689 1002
2.292 0.683 1.773 6688
2.410 0.718 1.859 2146
2.174 0.648 1.687 780
2.297 0.684 1.766 5415
2.415 0.720 1.852 1991
2.307 0.687 1.764 4282
2.426 0.723 1.850 1832
2.312 0.689 1.757 4282
2.431 0.724 1.842 1990
2.316 0.690 1.750 3563
2.435 0.726 1.835 2429
2.409 0.718 1.806 3735
2.283 0.680 1.717 3185
2.445 0.728 1.820 5700
2.313 0.689 1.728 2671
2.450 0.730 1.813 8531
2.324 0.692 1.725 2426
2.569 0.766 1.897 757
2.454 0.731 1.806 9406
2.334 0.696 1.723 2116
2.574 0.767 1.889 846
2.453 0.731 1.794 10394
2.332 0.695 1.711 1543
2.573 0.767 1.877 1482
2.457 0.732 1.787 10394
2.578 0.768 1.870 1739
2.337 0.696 1.704 1235
2.462 0.734 1.780 9238
2.583 0.769 1.862 2141
2.341 0.698 1.697 927
2.473 0.737 1.777 8129
2.594 0.773 1.858 1695
2.352 0.701 1.695 1096
2.522 0.751 1.799 9238
2.401 0.715 1.718 1420
2.514 0.749 1.783 10571
2.635 0.785 1.864 796
2.392 0.713 1.702 756
2.518 0.750 1.776 7800
2.640 0.787 1.856 1127
2.523 0.752 1.768 5029
2.645 0.788 1.848 1457
2.521 0.751 1.756 4703
2.643 0.788 1.836 2404
2.603 0.776 1.799 5407
2.481 0.739 1.719 1874
2.725 0.812 1.879 1100
2.614 0.779 1.796 5143
2.491 0.742 1.716 1898
2.736 0.815 1.875 1342
2.696 0.803 1.838 6106
2.548 0.759 1.742 4478
2.694 0.803 1.825 8521
2.558 0.762 1.739 3550
2.699 0.804 1.817 10988
2.569 0.766 1.735 2688
2.710 0.808 1.813 9815
2.587 0.771 1.736 1733
2.715 0.809 1.805 8769
2.591 0.772 1.728 919
2.713 0.808 1.793 7824
2.589 0.771 1.716 779
2.718 0.810 1.785 7033
2.594 0.773 1.708 797
2.722 0.811 1.777 6327
2.733 0.814 1.773 5809
2.771 0.826 1.784 6396
2.782 0.829 1.780 7921
2.787 0.830 1.772 7842
2.785 0.830 1.759 6884
2.910 0.867 1.834 1120
2.796 0.833 1.755 5822
2.921 0.870 1.829 1217
2.840 0.846 1.770 4854
2.966 0.884 1.844 2184
2.871 0.855 1.777 5113
2.997 0.893 1.850 2313
2.856 0.851 1.757 8579
2.982 0.888 1.830 3756
2.853 0.850 1.744 12316
2.993 0.892 1.824 4243
2.858 0.852 1.736 12602
3.011 0.897 1.823 3947
2.862 0.853 1.727 12436
3.029 0.903 1.822 4271
2.867 0.854 1.719 11984
3.034 0.904 1.813 3630
2.878 0.857 1.714 12239
3.032 0.903 1.800 3508
2.882 0.859 1.705 12550
3.030 0.903 1.787 4116
2.887 0.860 1.697 10811
3.041 0.906 1.782 3979
3.169 0.944 1.852 860
2.884 0.859 1.684 7608
3.073 0.915 1.787 6041
3.077 0.917 1.778 7702
2.882 0.859 1.672 6484
3.205 0.955 1.847 834
3.149 0.938 1.805 8357
2.893 0.862 1.667 5704
3.021 0.900 1.736 1745
3.161 0.942 1.799 10321
2.897 0.863 1.658 3845
3.032 0.903 1.731 2119
3.165 0.943 1.790 10047
2.901 0.865 1.650 2732
3.037 0.905 1.722 2709
3.177 0.946 1.784 8859
3.048 0.908 1.716 2559
2.906 0.866 1.641 1880
3.181 0.948 1.774 7803
3.052 0.909 1.707 1563
3.179 0.947 1.761 6909
3.050 0.909 1.694 766
3.170 0.944 1.745 8205
3.299 0.983 1.811 1730
3.174 0.946 1.735 10018
3.304 0.984 1.801 2474
3.186 0.949 1.729 10505
3.315 0.988 1.795 2932
3.204 0.955 1.726 8562
3.333 0.993 1.792 2536
3.215 0.958 1.720 6617
3.345 0.997 1.785 2357
3.226 0.961 1.714 6915
3.356 1.000 1.779 1738
3.237 0.965 1.708 7153
3.368 1.003 1.772 1579
3.324 0.991 1.738 8705
3.194 0.952 1.674 2503
3.329 0.992 1.728 8744
3.198 0.953 1.665 1357
3.340 0.995 1.722 7296
3.209 0.956 1.659 1254
3.344 0.997 1.712 8071
3.213 0.957 1.649 938
3.342 0.996 1.698 8822
3.473 1.035 1.761 1023
3.353 0.999 1.692 8218
3.485 1.038 1.753 915
3.371 1.005 1.688 9331
3.397 1.012 1.688 9500
3.408 1.015 1.681 9833
3.540 1.055 1.741 1080
3.426 1.021 1.677 6828
3.558 1.060 1.737 937
3.409 1.016 1.657 6550
3.542 1.055 1.717 1080
3.421 1.019 1.650 8384
3.553 1.059 1.709 1174
3.685 1.098 1.769 798
3.425 1.020 1.640 8201
3.557 1.060 1.699 1892
3.690 1.099 1.758 1585
3.436 1.024 1.632 6055
3.667 1.092 1.734 2859
3.799 1.132 1.793 1278
3.475 1.035 1.637 5589
3.664 1.092 1.720 3365
3.797 1.131 1.778 2220
3.465 1.033 1.621 5109
3.668 1.093 1.709 4523
3.802 1.133 1.767 3109
3.469 1.034 1.610 5384
3.673 1.094 1.698 4848
3.806 1.134 1.755 3353
3.495 1.041 1.609 7089
3.691 1.100 1.693 4395
3.825 1.140 1.750 2530
3.958 1.179 1.807 960
3.499 1.042 1.599 7232
3.829 1.141 1.739 3459
3.696 1.101 1.682 3301
3.963 1.181 1.795 2018
3.510 1.046 1.591 5177
3.834 1.142 1.727 4809
3.967 1.182 1.783 3524
3.700 1.102 1.671 2885
3.972 1.183 1.771 4515
3.838 1.144 1.715 4109
3.704 1.104 1.660 3210
3.521 1.049 1.583 2280
3.976 1.185 1.759 4200
3.842 1.145 1.704 2982
3.708 1.105 1.649 2139
3.518 1.048 1.570 1264
3.995 1.190 1.753 3846
3.847 1.146 1.692 3064
3.713 1.106 1.637 1278
3.402 1.014 1.510 1047
3.992 1.190 1.738 4421
3.851 1.147 1.681 2806
3.717 1.107 1.626 851
3.413 1.017 1.503 793
3.976 1.185 1.718 6031
3.841 1.145 1.664 1529
4.110 1.225 1.772 1353
3.980 1.186 1.706 6373
4.115 1.226 1.759 2133
3.845 1.146 1.652 821
3.992 1.189 1.697 5265
4.126 1.229 1.750 2604
4.010 1.195 1.690 4083
4.145 1.235 1.743 2619
3.414 1.017 1.456 1013
4.142 1.234 1.728 4271
4.007 1.194 1.675 2513
3.417 1.018 1.446 1200
4.278 1.275 1.780 1034
4.168 1.242 1.724 7454
4.004 1.193 1.661 1998
3.414 1.017 1.433 1137
4.215 1.256 1.727 9421
4.080 1.216 1.676 3504
3.417 1.018 1.423 972
4.248 1.266 1.725 6455
4.113 1.225 1.674 3051
3.421 1.019 1.412 843
4.274 1.274 1.721 4748
4.139 1.233 1.670 2817
4.286 1.277 1.710 4763
4.150 1.237 1.660 2561
4.297 1.280 1.700 4487
4.161 1.240 1.650 1733
4.294 1.280 1.685 4913
4.158 1.239 1.635 760
4.299 1.281 1.672 7144
4.485 1.336 1.739 955
4.303 1.282 1.659 9776
4.461 1.329 1.715 1392
4.300 1.281 1.643 12798
4.465 1.330 1.702 2123
4.304 1.283 1.630 13453
4.477 1.334 1.691 3386
4.316 1.286 1.620 9829
4.488 1.337 1.680 6351
4.625 1.378 1.727 884
4.507 1.343 1.671 9874
4.334 1.291 1.612 7366
4.766 1.420 1.761 1283
4.519 1.346 1.660 8358
4.338 1.293 1.599 5334
4.656 1.387 1.707 2335
4.793 1.428 1.754 1787
4.544 1.354 1.654 5649
4.350 1.296 1.588 3928
4.682 1.395 1.700 2524
4.819 1.436 1.746 1313
4.621 1.377 1.664 7106
4.339 1.293 1.570 4424
4.773 1.422 1.715 3273
4.484 1.336 1.619 1776
4.625 1.378 1.650 6641
4.777 1.423 1.701 4967
4.336 1.292 1.555 4388
4.488 1.337 1.605 2470
4.629 1.379 1.636 5967
4.796 1.429 1.691 5935
4.333 1.291 1.539 3468
4.492 1.338 1.591 2016
4.786 1.426 1.672 5814
4.641 1.383 1.625 5799
4.344 1.294 1.529 2282
4.923 1.467 1.716 1541
4.783 1.425 1.655 4356
4.645 1.384 1.611 3798
4.921 1.466 1.699 1939
4.355 1.298 1.518 1141
4.656 1.387 1.599 2535
4.918 1.465 1.682 2522
4.958 1.477 1.679 3558
4.798 1.430 1.629 2657
4.660 1.389 1.585 1769
4.992 1.487 1.673 3655
4.803 1.431 1.614 2524
5.010 1.493 1.662 5697
4.872 1.452 1.620 2017
5.007 1.492 1.645 6397
4.869 1.451 1.603 2227
5.012 1.493 1.630 9296
5.201 1.550 1.687 1835
4.873 1.452 1.588 1512
5.016 1.495 1.615 12261
5.205 1.551 1.671 2898
5.005 1.491 1.595 9490
5.210 1.552 1.655 3637
5.392 1.607 1.709 960
5.597 1.668 1.769 794
4.995 1.488 1.576 6957
5.221 1.556 1.642 5217
5.404 1.610 1.695 2301
5.601 1.669 1.752 1026
4.999 1.489 1.561 6185
5.233 1.559 1.628 5046
5.416 1.614 1.681 3993
5.606 1.670 1.735 946
5.244 1.563 1.614 6323
5.420 1.615 1.664 6166
5.010 1.493 1.548 5133
5.632 1.678 1.725 921
5.432 1.618 1.650 11297
5.248 1.564 1.599 6849
5.014 1.494 1.533 2604
5.629 1.677 1.706 1786
5.443 1.622 1.636 16705
5.619 1.674 1.685 4888
5.260 1.567 1.585 4663
5.010 1.493 1.516 806
5.440 1.621 1.617 15195
5.616 1.673 1.666 8937
5.256 1.566 1.567 3800
5.444 1.622 1.601 11231
5.628 1.677 1.651 11062
5.260 1.567 1.551 3343
5.632 1.678 1.634 20273
5.455 1.625 1.586 8188
5.771 1.720 1.671 1841
5.279 1.573 1.539 1582
5.636 1.679 1.617 26713
5.467 1.629 1.572 5039
5.776 1.721 1.654 2108
6.077 1.811 1.733 2002
5.640 1.681 1.600 22670
5.478 1.632 1.557 5097
6.082 1.812 1.715 2783
5.934 1.768 1.677 2627
5.644 1.682 1.583 16927
5.482 1.633 1.541 3448
6.093 1.816 1.699 2750
5.953 1.774 1.662 2646
5.648 1.683 1.566 10785
6.149 1.832 1.693 2492
5.972 1.780 1.648 1791
5.832 1.738 1.613 1573
5.652 1.684 1.549 6735
6.131 1.827 1.669 3146
6.301 1.877 1.712 2498
5.984 1.783 1.632 1377
6.128 1.826 1.649 4121
5.663 1.687 1.533 4041
6.328 1.885 1.698 2056
5.464 1.628 1.484 1225
6.125 1.825 1.629 3459
6.384 1.902 1.692 2517
5.675 1.691 1.518 2025
5.468 1.629 1.467 1173
6.351 1.892 1.664 3342
6.491 1.934 1.698 2080
6.115 1.822 1.606 1791
6.632 1.976 1.732 1644
6.363 1.896 1.646 2910
6.525 1.944 1.685 2085
6.666 1.986 1.719 1358
6.207 1.850 1.609 1134
6.537 1.948 1.667 2156
6.396 1.906 1.634 1790
6.722 2.003 1.711 1306
6.863 2.045 1.744 857
6.408 1.909 1.616 1698
6.615 1.971 1.665 1618
6.926 2.064 1.737 949
6.756 2.013 1.697 944
6.620 1.972 1.645 1823
6.916 2.061 1.713 1425
6.775 2.019 1.680 1249
7.101 2.116 1.755 1107
6.587 1.963 1.616 1587
6.802 2.027 1.665 1477
7.135 2.126 1.740 1443
6.943 2.069 1.697 1366
7.147 2.130 1.720 1599
6.969 2.077 1.681 1593
6.583 1.962 1.595 1003
6.806 2.028 1.644 940
7.159 2.133 1.700 1845
7.018 2.091 1.669 1697
7.300 2.175 1.731 986
6.877 2.049 1.638 832
7.067 2.106 1.658 1960
7.208 2.148 1.688 1557
7.550 2.250 1.762 976
7.364 2.194 1.722 787
7.264 2.164 1.678 1932
7.577 2.258 1.744 1313
7.071 2.107 1.636 1123
7.435 2.215 1.714 1093
7.276 2.168 1.657 2400
7.447 2.219 1.693 1994
7.603 2.265 1.726 958
7.135 2.126 1.628 756
7.451 2.220 1.671 2442
7.303 2.176 1.640 2022
7.161 2.134 1.611 1131
7.958 2.371 1.775 1038
7.687 2.290 1.695 2544
7.471 2.226 1.651 1740
7.322 2.182 1.621 1544
7.828 2.332 1.724 1459
7.698 2.294 1.673 3726
7.840 2.336 1.702 2202
7.981 2.378 1.730 1775
7.557 2.252 1.645 1658
7.732 2.304 1.656 3987
7.882 2.348 1.685 2669
7.591 2.262 1.628 1954
8.150 2.428 1.738 1260
7.722 2.301 1.630 4329
7.886 2.350 1.662 3650
8.445 2.516 1.770 1005
8.303 2.474 1.743 961
7.718 2.300 1.605 4445
7.883 2.349 1.636 3982
8.472 2.524 1.749 1388
8.024 2.391 1.663 1056
7.887 2.350 1.612 3497
7.730 2.303 1.583 2978
8.394 2.501 1.708 2354
8.559 2.550 1.739 1047
7.891 2.351 1.589 3086
8.414 2.507 1.685 2777
7.719 2.300 1.557 1201
8.556 2.549 1.711 1184
7.895 2.352 1.565 2416
8.575 2.555 1.688 2266
8.784 2.617 1.726 1788
8.403 2.504 1.657 1717
8.587 2.559 1.664 2277
8.789 2.619 1.700 2212
7.906 2.356 1.542 1636
8.445 2.516 1.638 1466
8.471 2.524 1.617 2324
8.793 2.620 1.673 2077
8.613 2.566 1.642 1392
9.190 2.738 1.743 1366
8.797 2.621 1.646 1893
8.483 2.528 1.592 1746
9.194 2.739 1.715 1444
8.940 2.664 1.671 1397
8.809 2.625 1.621 1712
9.026 2.689 1.658 1223
9.221 2.747 1.691 1147
8.592 2.560 1.584 1087
9.015 2.686 1.628 1555
9.495 2.829 1.708 1154
8.806 2.624 1.593 1152
9.225 2.749 1.663 1051
8.997 2.681 1.597 1449
9.229 2.750 1.635 1372
9.499 2.830 1.679 1323
9.912 2.953 1.746 1316
9.234 2.751 1.607 1541
9.534 2.841 1.655 1201
9.863 2.939 1.708 999
8.806 2.624 1.539 916
9.245 2.755 1.580 1104
10.453 3.115 1.770 1086
9.530 2.840 1.625 1020
9.920 2.956 1.686 920
10.495 3.127 1.744 1116
9.910 2.953 1.654 952
9.662 2.879 1.616 890
10.195 3.038 1.697 853
10.192 3.037 1.665 1088
10.545 3.142 1.719 1008
9.921 2.956 1.625 974
9.726 2.898 1.595 850
10.557 3.145 1.688 1401
10.737 3.199 1.714 1040
9.918 2.955 1.594 878
10.166 3.029 1.630 789
10.538 3.140 1.652 1244
10.809 3.221 1.691 918
11.076 3.300 1.696 1397
10.813 3.222 1.659 945
11.362 3.385 1.736 898
10.490 3.126 1.613 830
11.081 3.302 1.662 1505
11.359 3.384 1.701 1000
10.832 3.228 1.628 947
10.479 3.122 1.579 766
11.461 3.415 1.679 1411
10.844 3.231 1.596 1156
11.077 3.301 1.628 891
10.468 3.119 1.545 837
10.841 3.230 1.562 1321
11.465 3.416 1.645 1115
11.322 3.374 1.626 924
12.489 3.721 1.780 812
10.844 3.231 1.529 1134
11.349 3.382 1.594 999
12.305 3.666 1.718 893
11.108 3.310 1.563 772
11.963 3.565 1.637 968
11.368 3.387 1.562 820
11.982 3.570 1.602 952
12.276 3.658 1.638 784
12.755 3.801 1.658 1110
12.280 3.659 1.601 932
12.559 3.742 1.634 829
12.759 3.802 1.619 1141
13.393 3.991 1.693 857
12.284 3.660 1.564 755
12.771 3.805 1.581 1088
12.767 3.804 1.542 1077
13.613 4.056 1.635 790
2.264 0.666 1.791 2542
2.274 0.669 1.789 5134
2.157 0.634 1.702 1229
2.392 0.703 1.876 785
2.279 0.670 1.782 5242
2.397 0.705 1.869 1570
2.161 0.636 1.695 1229
2.284 0.672 1.775 5572
2.402 0.706 1.862 1854
2.166 0.637 1.689 784
2.288 0.673 1.769 5903
2.406 0.708 1.855 2138
2.299 0.676 1.766 4941
2.417 0.711 1.852 2018
2.310 0.679 1.764 4084
2.429 0.714 1.850 1963
2.314 0.681 1.757 4084
2.433 0.716 1.842 2080
2.313 0.680 1.746 3441
2.432 0.715 1.831 2719
2.418 0.711 1.810 3787
2.292 0.674 1.721 3177
2.441 0.718 1.816 5771
2.315 0.681 1.728 2775
2.452 0.721 1.813 8408
2.332 0.686 1.730 2644
2.451 0.721 1.802 9389
2.330 0.685 1.718 1867
2.571 0.756 1.885 954
2.449 0.720 1.790 10570
2.569 0.756 1.873 1792
2.329 0.685 1.707 891
2.453 0.722 1.783 10570
2.574 0.757 1.865 2040
2.458 0.723 1.775 9826
2.579 0.758 1.857 2586
2.463 0.724 1.768 9024
2.584 0.760 1.850 2798
2.525 0.742 1.799 9595
2.403 0.707 1.718 1501
2.529 0.744 1.792 11169
2.408 0.708 1.711 1142
2.651 0.780 1.873 939
2.534 0.745 1.784 8020
2.656 0.781 1.865 910
2.412 0.709 1.703 771
2.564 0.754 1.793 5668
2.442 0.718 1.713 815
2.595 0.763 1.803 5060
2.472 0.727 1.723 1368
2.717 0.799 1.883 817
2.612 0.768 1.803 5601
2.490 0.732 1.724 1773
2.735 0.804 1.883 934
2.610 0.768 1.791 4946
2.733 0.804 1.871 1597
2.488 0.732 1.712 1299
2.693 0.792 1.833 6347
2.550 0.750 1.742 4603
2.697 0.793 1.825 8194
2.561 0.753 1.739 3802
2.702 0.795 1.817 10041
2.566 0.754 1.731 3027
2.707 0.796 1.809 8970
2.577 0.758 1.727 1928
2.718 0.799 1.805 7980
2.594 0.763 1.728 985
2.716 0.799 1.793 7955
2.592 0.762 1.716 820
2.721 0.800 1.785 8011
2.725 0.801 1.777 7385
2.736 0.805 1.773 6980
2.774 0.816 1.784 7109
2.785 0.819 1.780 8535
2.789 0.820 1.772 7831
2.915 0.857 1.846 767
2.794 0.822 1.763 6315
2.919 0.859 1.838 1079
2.799 0.823 1.755 5366
2.924 0.860 1.829 1287
2.849 0.838 1.774 4997
2.975 0.875 1.847 2202
2.874 0.845 1.777 5451
3.000 0.882 1.850 2540
2.859 0.841 1.757 8044
2.985 0.878 1.830 3715
2.856 0.840 1.744 11072
2.996 0.881 1.824 4107
2.861 0.841 1.736 10980
3.014 0.886 1.823 3749
2.865 0.843 1.727 10300
3.032 0.892 1.822 3991
2.877 0.846 1.723 9737
3.037 0.893 1.813 3447
2.881 0.847 1.714 10036
3.028 0.891 1.796 3722
2.885 0.849 1.705 10336
3.026 0.890 1.783 4826
2.890 0.850 1.697 8653
3.038 0.893 1.778 4605
3.165 0.931 1.848 1050
3.076 0.905 1.787 5911
2.887 0.849 1.684 5886
3.080 0.906 1.778 7453
2.885 0.848 1.672 5209
3.092 0.909 1.772 7460
2.896 0.852 1.667 4654
3.157 0.928 1.796 9082
2.907 0.855 1.662 3171
3.169 0.932 1.790 8602
3.040 0.894 1.722 2319
2.904 0.854 1.650 2181
3.180 0.935 1.784 7860
3.051 0.897 1.716 2270
2.909 0.855 1.641 1449
3.184 0.936 1.774 7200
3.055 0.899 1.707 1488
3.182 0.936 1.761 5926
3.053 0.898 1.694 751
3.180 0.935 1.748 6475
3.309 0.973 1.815 1301
3.178 0.934 1.735 7877
3.307 0.973 1.801 1931
3.189 0.938 1.729 8467
3.319 0.976 1.795 2239
3.200 0.941 1.723 7336
3.330 0.979 1.788 2430
3.218 0.946 1.720 6282
3.348 0.985 1.785 1995
3.223 0.948 1.711 6819
3.353 0.986 1.775 2341
3.227 0.949 1.701 7240
3.358 0.987 1.765 3522
3.321 0.977 1.735 8290
3.190 0.938 1.671 3338
3.325 0.978 1.725 8501
3.195 0.939 1.662 1899
3.337 0.981 1.718 7056
3.206 0.943 1.655 1360
3.341 0.983 1.708 7723
3.210 0.944 1.646 941
3.345 0.984 1.698 8390
3.477 1.022 1.761 1058
3.357 0.987 1.692 8090
3.488 1.026 1.753 995
3.368 0.990 1.685 9195
3.386 0.996 1.681 8404
3.411 1.003 1.681 8663
3.430 1.009 1.677 6382
3.659 1.076 1.781 912
3.413 1.004 1.657 5578
3.664 1.077 1.770 1060
3.424 1.007 1.650 6690
3.675 1.081 1.762 1048
3.428 1.008 1.640 6478
3.694 1.086 1.758 1786
3.561 1.047 1.699 1383
3.440 1.012 1.632 5109
3.684 1.084 1.740 2635
3.817 1.123 1.799 1227
3.479 1.023 1.637 6903
3.682 1.083 1.726 2927
3.815 1.122 1.784 2393
3.469 1.020 1.621 6280
3.799 1.117 1.764 3978
3.665 1.078 1.706 3580
3.473 1.021 1.610 5693
3.803 1.118 1.752 4316
3.670 1.079 1.695 3921
3.498 1.029 1.609 6956
3.695 1.087 1.693 3836
3.829 1.126 1.750 3188
3.962 1.165 1.807 989
3.502 1.030 1.599 7274
3.833 1.127 1.739 3989
3.699 1.088 1.682 2545
3.967 1.167 1.795 2281
3.514 1.033 1.591 5239
3.838 1.129 1.727 5001
3.971 1.168 1.783 4062
3.690 1.085 1.665 1472
3.976 1.169 1.771 5522
3.842 1.130 1.715 4156
3.525 1.037 1.583 2329
3.694 1.086 1.654 1520
3.974 1.169 1.756 5519
3.839 1.129 1.701 2819
3.522 1.036 1.570 1287
3.705 1.090 1.646 1087
3.964 1.166 1.739 5021
3.830 1.126 1.684 2477
3.519 1.035 1.556 1042
3.990 1.173 1.735 5155
3.855 1.134 1.681 2876
3.721 1.094 1.626 999
4.124 1.213 1.790 958
3.980 1.170 1.718 7100
3.845 1.131 1.664 1604
4.115 1.210 1.772 1589
3.984 1.172 1.706 7687
4.119 1.211 1.759 2071
3.996 1.175 1.697 6421
4.131 1.215 1.750 2253
4.007 1.178 1.687 4726
4.149 1.220 1.743 2214
4.147 1.219 1.728 4182
4.004 1.178 1.673 2992
4.282 1.259 1.780 865
3.421 1.006 1.446 835
4.165 1.225 1.721 7264
4.009 1.179 1.661 2348
3.417 1.005 1.433 989
4.220 1.241 1.727 8557
4.084 1.201 1.676 3152
3.428 1.008 1.425 1026
4.231 1.244 1.717 5956
4.096 1.204 1.666 2288
3.432 1.009 1.415 899
4.272 1.256 1.718 4425
4.136 1.216 1.667 2622
4.297 1.264 1.713 4856
4.161 1.224 1.663 3085
4.309 1.267 1.703 4665
4.173 1.227 1.653 2339
4.306 1.266 1.687 4499
4.170 1.226 1.638 1284
4.310 1.268 1.674 7048
4.483 1.318 1.736 1132
4.315 1.269 1.661 10274
4.473 1.315 1.718 1796
4.312 1.268 1.646 11274
4.470 1.315 1.702 2905
4.316 1.269 1.633 11024
4.482 1.318 1.691 5027
4.618 1.358 1.739 773
4.327 1.273 1.622 8638
4.486 1.319 1.677 8488
4.623 1.359 1.725 1459
4.505 1.325 1.669 11656
4.339 1.276 1.612 5400
4.642 1.365 1.716 1859
4.779 1.405 1.763 903
4.523 1.330 1.660 10140
4.343 1.277 1.599 3579
4.661 1.371 1.707 3244
4.798 1.411 1.754 1398
4.549 1.338 1.654 7040
4.687 1.378 1.700 2858
4.354 1.280 1.588 2687
4.824 1.419 1.746 1051
4.633 1.362 1.667 9346
4.496 1.322 1.621 2902
4.351 1.280 1.573 2704
4.778 1.405 1.715 2681
4.637 1.364 1.653 8576
4.782 1.406 1.701 3848
4.500 1.323 1.607 3835
4.340 1.276 1.555 2626
4.634 1.363 1.636 7951
4.794 1.410 1.689 4564
4.497 1.322 1.591 3090
4.337 1.275 1.539 1994
4.646 1.366 1.625 7942
4.791 1.409 1.672 5278
4.508 1.326 1.580 1865
4.929 1.449 1.716 1800
4.657 1.370 1.613 5308
4.795 1.410 1.657 3855
4.933 1.451 1.702 2114
4.519 1.329 1.569 1012
4.661 1.371 1.599 3585
4.894 1.439 1.673 3158
5.032 1.480 1.717 1393
4.956 1.458 1.676 3076
4.665 1.372 1.585 2698
4.818 1.417 1.633 2184
5.026 1.478 1.682 4124
4.844 1.425 1.625 2167
4.655 1.369 1.567 1244
5.023 1.477 1.664 6885
4.885 1.436 1.622 2758
5.020 1.476 1.647 7527
4.881 1.436 1.605 3625
5.024 1.477 1.632 9917
4.886 1.437 1.590 2470
5.207 1.531 1.687 1127
5.028 1.479 1.617 11967
5.211 1.532 1.671 1816
5.025 1.478 1.600 8939
5.223 1.536 1.658 3286
5.361 1.577 1.698 864
5.603 1.648 1.769 757
5.015 1.475 1.580 5843
5.227 1.537 1.642 5379
5.410 1.591 1.695 1621
5.600 1.647 1.750 1057
5.011 1.474 1.563 4677
5.231 1.538 1.626 4249
5.414 1.592 1.679 2785
5.612 1.650 1.735 1135
5.426 1.596 1.664 5441
5.015 1.475 1.548 3845
5.242 1.542 1.612 3504
5.638 1.658 1.725 952
5.437 1.599 1.650 10904
5.254 1.545 1.599 3996
5.019 1.476 1.533 1979
5.577 1.640 1.689 1258
5.441 1.600 1.634 15897
5.588 1.643 1.674 3646
5.265 1.548 1.585 2921
5.438 1.599 1.615 14822
5.615 1.651 1.664 7200
5.269 1.550 1.569 2146
5.450 1.603 1.601 11809
5.626 1.655 1.649 9180
5.281 1.553 1.555 1741
5.638 1.658 1.634 20053
5.454 1.604 1.584 11231
5.777 1.699 1.671 1100
5.285 1.554 1.539 865
5.642 1.659 1.617 26593
5.458 1.605 1.568 8984
6.091 1.791 1.735 2036
5.885 1.731 1.681 1461
5.646 1.660 1.600 20057
5.469 1.608 1.553 7287
6.095 1.793 1.717 2689
5.896 1.734 1.665 1564
5.650 1.662 1.583 14698
5.466 1.607 1.535 4529
6.188 1.820 1.721 2311
6.048 1.779 1.685 1637
5.654 1.663 1.566 9022
6.163 1.812 1.695 2559
5.470 1.608 1.519 1903
6.303 1.854 1.731 1213
5.658 1.664 1.549 4807
6.138 1.805 1.669 3565
6.315 1.857 1.714 3099
5.473 1.610 1.502 1304
6.142 1.806 1.651 3973
6.334 1.863 1.698 3319
5.684 1.672 1.537 2966
6.002 1.765 1.616 837
6.346 1.866 1.681 3799
6.139 1.805 1.630 2791
5.725 1.684 1.529 1825
6.487 1.908 1.715 1466
6.350 1.867 1.662 4927
6.491 1.909 1.696 2294
6.639 1.952 1.732 1738
6.121 1.800 1.606 1521
6.362 1.871 1.644 3954
6.540 1.923 1.687 2119
6.214 1.827 1.609 1447
6.680 1.965 1.720 1198
6.381 1.876 1.629 2002
6.544 1.924 1.667 1967
6.744 1.983 1.714 1150
6.892 2.027 1.749 1001
6.415 1.886 1.616 1606
6.919 2.035 1.733 1246
6.630 1.950 1.666 1206
6.771 1.991 1.699 1070
6.923 2.036 1.713 1470
6.634 1.951 1.646 1426
6.775 1.992 1.679 1259
7.116 2.093 1.757 944
7.150 2.103 1.742 1518
6.943 2.042 1.695 1332
6.802 2.000 1.663 1242
6.579 1.935 1.613 1150
7.162 2.106 1.722 1735
6.977 2.052 1.681 1598
6.798 1.999 1.641 797
6.988 2.055 1.661 1621
7.196 2.116 1.707 1570
7.531 2.215 1.780 907
7.543 2.218 1.759 1522
7.201 2.118 1.685 1272
7.037 2.069 1.650 1154
7.555 2.222 1.738 1959
7.272 2.139 1.678 1509
7.413 2.180 1.708 1041
7.056 2.075 1.632 872
7.552 2.221 1.713 1851
7.284 2.142 1.657 1650
7.053 2.074 1.609 887
7.571 2.226 1.694 2054
7.430 2.185 1.664 1461
7.288 2.143 1.635 1404
7.713 2.268 1.723 1025
7.702 2.265 1.697 2547
7.561 2.223 1.668 2027
7.866 2.313 1.730 1387
7.322 2.153 1.619 1251
7.706 2.266 1.673 3622
7.871 2.315 1.706 2417
7.565 2.225 1.645 2160
8.154 2.398 1.763 1260
7.741 2.276 1.656 4709
7.882 2.318 1.684 3859
7.584 2.230 1.625 1825
8.024 2.360 1.712 1221
7.737 2.275 1.631 5198
7.887 2.319 1.660 5157
8.462 2.488 1.772 1197
8.029 2.361 1.688 977
7.891 2.321 1.636 5592
7.734 2.274 1.606 5045
8.474 2.492 1.748 1547
8.033 2.362 1.663 895
7.895 2.322 1.612 5188
7.738 2.276 1.583 3333
8.448 2.484 1.716 2303
8.740 2.570 1.771 963
7.899 2.323 1.589 4531
8.438 2.481 1.688 2692
7.720 2.270 1.555 1336
8.774 2.580 1.750 1209
7.903 2.324 1.565 3374
8.509 2.502 1.675 2120
8.794 2.586 1.726 2012
8.651 2.544 1.701 1032
8.798 2.587 1.700 2552
8.499 2.499 1.646 2386
7.915 2.327 1.542 2201
8.641 2.541 1.672 1280
8.488 2.496 1.618 2506
8.795 2.586 1.672 2428
8.960 2.635 1.701 1649
7.911 2.326 1.517 1480
8.792 2.585 1.644 2122
8.499 2.499 1.594 1952
8.949 2.632 1.671 1808
9.204 2.707 1.715 1512
8.818 2.593 1.621 1750
9.216 2.710 1.688 1230
8.961 2.635 1.645 1222
8.511 2.503 1.569 1133
9.025 2.654 1.628 1440
9.250 2.720 1.665 1104
8.815 2.592 1.593 1104
9.520 2.800 1.710 1062
9.922 2.918 1.746 1402
8.999 2.646 1.596 1329
9.239 2.717 1.635 1287
9.517 2.799 1.680 1218
9.243 2.718 1.607 1478
9.536 2.804 1.654 1184
9.934 2.921 1.717 996
9.709 2.855 1.681 957
9.255 2.722 1.580 1118
10.479 3.082 1.772 1104
9.540 2.806 1.625 1034
9.683 2.848 1.647 965
10.499 3.087 1.742 1285
9.687 2.849 1.618 931
9.920 2.917 1.654 836
10.206 3.001 1.697 765
9.736 2.863 1.595 946
10.202 3.000 1.665 882
10.533 3.098 1.715 882
9.932 2.921 1.625 856
10.568 3.108 1.688 1139
10.741 3.159 1.713 1123
9.928 2.920 1.594 783
9.733 2.862 1.565 782
10.534 3.098 1.650 1103
10.753 3.162 1.682 911
11.053 3.251 1.725 804
11.073 3.256 1.694 1374
10.508 3.090 1.614 964
11.299 3.323 1.726 843
10.817 3.181 1.658 796
11.077 3.258 1.660 1353
11.476 3.375 1.715 1131
10.497 3.087 1.580 877
11.333 3.333 1.696 795
11.473 3.374 1.679 1534
10.486 3.084 1.546 901
11.089 3.261 1.628 899
10.848 3.190 1.595 861
11.477 3.375 1.645 1149
10.844 3.189 1.561 986
11.960 3.517 1.708 820
11.101 3.264 1.595 816
12.311 3.620 1.717 923
11.120 3.270 1.563 914
11.368 3.343 1.595 876
10.848 3.190 1.528 873
11.976 3.522 1.637 1006
11.139 3.276 1.532 812
12.292 3.615 1.676 810
11.501 3.382 1.577 809
11.995 3.527 1.602 999
12.259 3.605 1.635 916
11.520 3.388 1.544 771
12.210 3.591 1.591 987
12.761 3.753 1.657 929
12.354 3.633 1.608 859
12.758 3.752 1.617 1092
12.769 3.755 1.580 927
13.207 3.884 1.629 812
12.773 3.756 1.541 917
13.619 4.005 1.634 901
13.211 3.885 1.589 897
2.267 0.655 1.791 2680
2.271 0.657 1.784 5360
2.154 0.623 1.697 945
2.288 0.662 1.787 5545
2.406 0.696 1.874 1425
2.170 0.628 1.700 1367
2.287 0.661 1.775 5099
2.405 0.695 1.862 1663
2.291 0.662 1.769 4741
2.416 0.699 1.859 1871
2.302 0.666 1.766 4191
2.421 0.700 1.852 2172
2.307 0.667 1.760 3745
2.425 0.701 1.845 2545
2.311 0.668 1.753 3745
2.430 0.703 1.838 2616
2.429 0.702 1.826 3296
2.309 0.668 1.741 3186
2.427 0.702 1.814 4136
2.295 0.664 1.721 3031
2.444 0.707 1.816 5856
2.318 0.670 1.728 2723
2.455 0.710 1.813 8130
2.335 0.675 1.730 2722
2.454 0.709 1.802 9076
2.334 0.675 1.718 1754
2.574 0.744 1.885 887
2.452 0.709 1.790 10310
2.573 0.744 1.873 1692
2.457 0.710 1.783 10310
2.578 0.745 1.865 1914
2.461 0.712 1.775 9937
2.582 0.747 1.857 2383
2.460 0.711 1.764 9481
2.581 0.746 1.845 3201
2.534 0.733 1.803 9450
2.413 0.698 1.722 2076
2.656 0.768 1.885 777
2.533 0.732 1.792 11279
2.411 0.697 1.711 1223
2.654 0.767 1.873 1098
2.544 0.735 1.788 8265
2.422 0.700 1.708 1042
2.666 0.771 1.869 991
2.568 0.742 1.793 6059
2.598 0.751 1.803 5499
2.476 0.716 1.723 992
2.720 0.787 1.883 752
2.622 0.758 1.808 5951
2.499 0.723 1.728 1941
2.745 0.794 1.887 762
2.614 0.756 1.791 4807
2.491 0.720 1.712 1550
2.737 0.791 1.871 1401
2.696 0.780 1.833 6540
2.541 0.735 1.734 4196
2.701 0.781 1.825 7616
2.558 0.740 1.734 3648
2.706 0.782 1.817 8693
2.563 0.741 1.727 3157
2.717 0.786 1.813 7874
2.574 0.744 1.723 2156
2.721 0.787 1.805 7056
2.598 0.751 1.728 1386
2.720 0.786 1.793 7986
2.595 0.750 1.716 1061
2.724 0.788 1.785 8950
2.600 0.752 1.708 786
2.729 0.789 1.777 8366
2.740 0.792 1.773 7974
2.771 0.801 1.780 7472
2.789 0.806 1.780 8530
2.663 0.770 1.705 894
2.793 0.808 1.772 7256
2.919 0.844 1.846 814
2.798 0.809 1.763 5358
2.923 0.845 1.838 1175
2.842 0.822 1.778 4940
2.716 0.785 1.704 1123
2.988 0.864 1.864 827
2.860 0.827 1.778 5507
2.986 0.863 1.851 2260
2.878 0.832 1.777 5853
3.004 0.869 1.850 2720
2.876 0.831 1.764 7568
3.002 0.868 1.837 3438
2.874 0.831 1.752 9462
3.000 0.867 1.824 3929
2.871 0.830 1.740 8739
3.018 0.873 1.823 3382
2.876 0.832 1.731 7970
3.036 0.878 1.822 3509
2.880 0.833 1.723 7796
3.041 0.879 1.813 3168
2.885 0.834 1.714 8252
3.019 0.873 1.789 4037
2.889 0.835 1.705 8709
3.024 0.874 1.780 5630
3.151 0.911 1.850 832
2.900 0.839 1.700 7146
3.028 0.876 1.770 5552
3.156 0.912 1.841 1484
3.080 0.890 1.787 5400
2.898 0.838 1.688 4445
3.084 0.892 1.778 6761
2.889 0.835 1.672 3864
3.096 0.895 1.772 6989
2.900 0.838 1.667 3422
3.155 0.912 1.792 7534
2.904 0.840 1.658 2299
3.173 0.917 1.790 6643
3.044 0.880 1.722 1916
2.908 0.841 1.650 1536
3.191 0.923 1.787 6201
3.062 0.885 1.720 2415
2.913 0.842 1.641 981
3.196 0.924 1.778 5964
3.066 0.887 1.710 1852
3.193 0.923 1.765 4525
3.064 0.886 1.698 1066
3.184 0.921 1.748 4357
3.314 0.958 1.815 978
3.189 0.922 1.739 5225
3.318 0.959 1.805 1398
3.193 0.923 1.729 5759
3.323 0.961 1.795 1728
3.204 0.927 1.723 5751
3.335 0.964 1.788 2014
3.216 0.930 1.717 6187
3.346 0.967 1.782 2221
3.220 0.931 1.707 7324
3.351 0.969 1.772 2524
3.225 0.932 1.698 7664
3.355 0.970 1.762 4031
3.318 0.959 1.732 8293
3.188 0.922 1.668 3776
3.323 0.961 1.722 8236
3.192 0.923 1.658 2309
3.334 0.964 1.715 7032
3.203 0.926 1.652 1555
3.339 0.965 1.705 7417
3.207 0.927 1.642 1028
3.470 1.003 1.768 957
3.350 0.969 1.698 7710
3.481 1.007 1.761 1174
3.218 0.931 1.636 814
3.354 0.970 1.688 8088
3.486 1.008 1.750 1338
3.223 0.932 1.626 787
3.366 0.973 1.682 9480
3.497 1.011 1.743 868
3.377 0.976 1.675 8137
3.416 0.988 1.681 7546
3.427 0.991 1.673 5643
3.664 1.059 1.781 1216
3.418 0.988 1.657 4114
3.662 1.059 1.767 1436
3.422 0.989 1.647 4547
3.673 1.062 1.759 1456
3.426 0.991 1.636 4829
3.706 1.071 1.761 1945
3.559 1.029 1.695 1099
3.486 1.008 1.651 5188
3.703 1.071 1.746 2566
3.836 1.109 1.805 1010
3.490 1.009 1.640 7880
3.792 1.096 1.772 2893
3.659 1.058 1.714 1678
3.474 1.004 1.621 7248
3.797 1.098 1.761 4704
3.663 1.059 1.703 2300
3.478 1.006 1.610 5633
3.801 1.099 1.749 5127
3.668 1.060 1.692 2533
3.496 1.011 1.606 5886
3.806 1.100 1.738 4345
3.672 1.062 1.681 2104
3.939 1.139 1.795 1198
3.507 1.014 1.599 6259
3.838 1.110 1.739 4485
3.704 1.071 1.682 2485
3.972 1.148 1.795 2281
3.850 1.113 1.730 5138
3.518 1.017 1.591 4575
3.984 1.152 1.786 3818
3.709 1.072 1.671 1646
3.981 1.151 1.771 5870
3.847 1.112 1.715 3920
3.522 1.018 1.580 2158
3.713 1.074 1.660 1681
3.972 1.148 1.753 6513
3.745 1.083 1.660 2123
3.519 1.018 1.567 1287
3.969 1.148 1.739 6126
3.743 1.082 1.646 1793
3.523 1.019 1.556 1065
4.104 1.187 1.794 875
3.981 1.151 1.730 5743
3.846 1.112 1.675 2392
4.115 1.190 1.784 1348
3.978 1.150 1.715 7673
4.113 1.189 1.769 2114
3.843 1.111 1.661 1781
3.990 1.154 1.706 8297
4.125 1.193 1.759 1921
3.855 1.115 1.652 1168
4.001 1.157 1.697 6822
4.136 1.196 1.750 1709
3.866 1.118 1.643 809
4.005 1.158 1.685 4926
4.141 1.197 1.737 1967
3.870 1.119 1.632 845
4.167 1.205 1.733 3988
4.010 1.159 1.673 3322
4.171 1.206 1.721 6327
4.014 1.161 1.661 2580
3.422 0.989 1.433 864
4.218 1.220 1.725 6930
4.083 1.180 1.673 2233
3.425 0.990 1.423 870
4.230 1.223 1.715 4951
4.094 1.184 1.663 1777
3.429 0.991 1.412 751
4.184 1.210 1.683 4576
4.320 1.249 1.734 2509
4.196 1.213 1.673 4608
4.332 1.252 1.724 3917
4.322 1.250 1.705 4857
4.186 1.210 1.655 3575
4.326 1.251 1.692 4940
4.190 1.211 1.643 2148
4.323 1.250 1.677 7567
4.474 1.294 1.731 1366
4.187 1.211 1.628 1071
4.328 1.251 1.664 10625
4.472 1.293 1.715 2189
4.325 1.250 1.648 10150
4.476 1.294 1.702 3404
4.343 1.256 1.640 9495
4.488 1.298 1.691 6065
4.625 1.337 1.739 802
4.485 1.297 1.675 9634
4.348 1.257 1.627 7542
4.622 1.336 1.722 1907
4.503 1.302 1.666 12125
4.345 1.256 1.612 3340
4.641 1.342 1.713 2324
4.522 1.308 1.658 10787
4.660 1.347 1.704 4302
4.334 1.253 1.594 2105
4.797 1.387 1.751 926
4.635 1.340 1.681 8537
4.497 1.300 1.634 4887
4.353 1.259 1.586 1958
4.787 1.384 1.732 1348
4.639 1.341 1.667 10784
4.502 1.302 1.621 3789
4.777 1.381 1.713 1979
4.357 1.260 1.573 1516
4.651 1.345 1.655 9750
4.513 1.305 1.610 5243
4.788 1.385 1.701 2665
4.339 1.255 1.552 1315
4.640 1.342 1.636 9082
4.503 1.302 1.591 3823
4.786 1.384 1.684 3464
4.923 1.424 1.729 1936
4.652 1.345 1.625 9103
4.790 1.385 1.669 4586
4.928 1.425 1.714 2347
4.514 1.305 1.580 2299
4.663 1.348 1.613 6130
4.881 1.411 1.683 4046
4.525 1.308 1.569 1185
5.020 1.451 1.727 866
4.893 1.415 1.671 4330
4.667 1.350 1.599 4174
5.031 1.455 1.714 1692
4.854 1.403 1.642 3499
4.672 1.351 1.585 3291
5.014 1.450 1.692 2854
5.033 1.455 1.682 4373
4.894 1.415 1.639 2671
4.661 1.348 1.567 1629
5.037 1.456 1.667 6885
4.898 1.416 1.624 3905
4.694 1.357 1.562 787
5.027 1.453 1.647 7610
4.888 1.413 1.605 4690
5.165 1.493 1.689 835
5.031 1.455 1.632 9511
4.892 1.414 1.590 3487
5.214 1.507 1.687 1221
5.035 1.456 1.617 10693
5.218 1.509 1.671 1886
4.896 1.416 1.576 1167
5.047 1.459 1.604 8090
5.230 1.512 1.658 3515
4.907 1.419 1.563 871
5.369 1.552 1.698 794
5.065 1.465 1.593 5630
5.234 1.513 1.642 5346
5.373 1.553 1.682 1247
5.607 1.621 1.750 945
5.238 1.514 1.626 4407
5.033 1.455 1.567 3123
5.385 1.557 1.668 2099
5.619 1.625 1.735 1168
5.440 1.573 1.666 4908
5.242 1.516 1.610 2569
5.029 1.454 1.550 2277
5.638 1.630 1.723 1082
5.444 1.574 1.650 9960
5.254 1.519 1.597 2145
5.026 1.453 1.533 1333
5.584 1.615 1.689 1256
5.449 1.575 1.634 14042
5.588 1.616 1.672 3293
5.265 1.522 1.583 1812
5.446 1.574 1.615 15627
5.607 1.621 1.660 5060
5.291 1.530 1.573 1102
5.450 1.576 1.599 14955
5.626 1.627 1.647 5889
5.645 1.632 1.634 16392
5.454 1.577 1.582 16167
5.785 1.673 1.671 811
5.649 1.633 1.617 22138
5.458 1.578 1.566 15072
6.106 1.766 1.737 1539
5.893 1.704 1.681 996
5.646 1.632 1.598 14521
5.462 1.579 1.550 11752
6.104 1.765 1.717 1945
5.904 1.707 1.665 913
5.650 1.634 1.581 10353
5.466 1.580 1.533 8057
6.204 1.794 1.723 2467
6.064 1.753 1.687 1360
5.676 1.641 1.569 6665
5.470 1.581 1.517 4276
6.171 1.784 1.695 2332
6.312 1.825 1.731 1186
6.331 1.830 1.716 3520
6.146 1.777 1.669 3504
5.688 1.645 1.554 2976
5.473 1.583 1.500 2671
6.350 1.836 1.700 4683
6.158 1.780 1.653 3373
5.721 1.654 1.544 2282
5.485 1.586 1.486 1104
6.362 1.839 1.683 5615
6.192 1.790 1.641 2399
5.725 1.655 1.527 1768
6.503 1.880 1.717 1250
6.359 1.839 1.662 6342
6.500 1.879 1.696 2090
6.218 1.798 1.628 2082
6.648 1.922 1.732 1452
6.370 1.842 1.644 4903
6.563 1.898 1.690 1944
6.222 1.799 1.609 1551
6.845 1.979 1.758 1153
6.382 1.845 1.627 2384
6.568 1.899 1.671 1543
6.842 1.978 1.735 1188
6.219 1.798 1.589 997
6.423 1.857 1.616 1584
6.757 1.954 1.694 1383
6.921 2.001 1.732 1225
6.594 1.907 1.656 1006
6.762 1.955 1.673 1512
6.925 2.002 1.711 1404
6.591 1.906 1.634 1193
6.413 1.854 1.594 1061
7.160 2.070 1.742 1470
6.892 1.993 1.682 1366
6.588 1.905 1.613 1166
6.394 1.849 1.569 1051
7.179 2.076 1.724 1874
6.993 2.022 1.682 1566
6.793 1.964 1.638 862
7.536 2.179 1.803 801
6.998 2.023 1.661 1621
7.213 2.086 1.708 1515
7.541 2.180 1.780 1512
7.545 2.182 1.758 2183
7.017 2.029 1.643 1079
7.166 2.072 1.675 972
7.307 2.113 1.706 761
7.557 2.185 1.736 2878
7.416 2.144 1.706 1168
7.274 2.103 1.676 994
7.562 2.186 1.713 2961
7.420 2.145 1.684 1094
7.279 2.104 1.654 957
7.070 2.044 1.610 908
7.574 2.190 1.692 3127
7.313 2.114 1.638 1071
7.715 2.231 1.721 965
7.872 2.276 1.754 868
7.586 2.193 1.671 3234
7.727 2.234 1.700 2087
7.884 2.280 1.732 1457
7.220 2.087 1.596 1162
7.732 2.235 1.676 3574
7.881 2.279 1.706 2918
7.582 2.192 1.646 2722
8.023 2.320 1.735 915
7.743 2.239 1.654 5154
7.893 2.282 1.684 4884
7.586 2.194 1.624 1805
8.035 2.323 1.712 1065
7.897 2.283 1.660 6195
7.740 2.238 1.630 5605
8.473 2.450 1.772 1149
7.598 2.197 1.602 864
7.901 2.285 1.636 6483
7.744 2.239 1.606 5043
8.485 2.453 1.748 1447
7.906 2.286 1.612 6264
7.748 2.240 1.583 3199
8.474 2.450 1.719 2154
8.766 2.535 1.774 902
7.910 2.287 1.589 5544
8.464 2.447 1.691 2383
8.786 2.540 1.750 1306
7.730 2.235 1.555 1240
7.914 2.288 1.565 3955
8.805 2.546 1.726 2065
8.521 2.464 1.675 1877
8.378 2.422 1.649 778
8.802 2.545 1.698 2733
7.925 2.291 1.542 2504
8.502 2.458 1.645 2228
8.645 2.499 1.670 1070
8.807 2.546 1.672 2630
8.499 2.457 1.618 2341
8.972 2.594 1.701 1898
7.922 2.290 1.517 1681
8.803 2.545 1.644 2187
8.968 2.593 1.672 2065
8.511 2.461 1.594 1887
9.208 2.662 1.714 1539
8.822 2.551 1.620 1574
8.973 2.594 1.645 1375
9.213 2.664 1.686 1261
8.522 2.464 1.569 1142
8.999 2.602 1.622 1351
9.540 2.758 1.711 1081
9.938 2.873 1.777 991
8.842 2.556 1.596 940
9.935 2.873 1.746 1318
9.011 2.605 1.596 1283
9.605 2.777 1.692 1236
9.251 2.675 1.635 975
9.256 2.676 1.607 1126
9.624 2.783 1.666 1108
9.970 2.883 1.721 914
10.135 2.930 1.747 874
10.501 3.036 1.773 1103
10.027 2.899 1.699 975
9.553 2.762 1.625 924
9.260 2.677 1.579 881
10.513 3.040 1.742 1445
10.099 2.920 1.679 890
10.517 3.041 1.711 1083
10.096 2.919 1.647 827
10.735 3.104 1.743 752
10.747 3.107 1.712 1065
10.559 3.053 1.684 890
10.518 3.041 1.646 1049
11.068 3.200 1.725 931
10.752 3.109 1.680 930
11.080 3.204 1.693 1279
10.522 3.042 1.614 989
11.306 3.269 1.725 967
10.673 3.086 1.635 870
11.484 3.320 1.714 1108
11.092 3.207 1.660 1093
10.519 3.041 1.581 907
11.303 3.268 1.689 845
11.488 3.322 1.679 1413
11.971 3.461 1.744 921
11.209 3.241 1.642 913
10.500 3.036 1.546 885
11.500 3.325 1.646 1052
11.983 3.465 1.709 957
11.130 3.218 1.597 853
11.987 3.466 1.673 967
11.142 3.222 1.564 863
12.312 3.560 1.715 849
11.384 3.291 1.595 753
11.999 3.469 1.638 1040
11.516 3.330 1.577 865
12.294 3.555 1.675 844
13.230 3.825 1.792 755
12.253 3.543 1.632 1039
12.011 3.473 1.602 968
11.535 3.335 1.544 869
12.234 3.537 1.592 1184
12.378 3.579 1.609 877
12.884 3.725 1.670 802
12.881 3.724 1.630 802
13.221 3.823 1.669 780
13.225 3.824 1.629 971
13.229 3.825 1.589 1106
13.637 3.943 1.634 851
2.269 0.648 1.791 2818
2.273 0.650 1.784 5636
2.156 0.616 1.697 910
2.297 0.656 1.791 5747
2.179 0.623 1.704 1485
2.415 0.690 1.878 1259
2.282 0.652 1.771 4677
2.413 0.690 1.867 1533
2.281 0.652 1.760 3746
2.424 0.693 1.864 1751
2.298 0.657 1.762 3435
2.423 0.692 1.852 2302
2.309 0.660 1.760 3350
2.428 0.694 1.845 2978
2.313 0.661 1.753 3350
2.432 0.695 1.838 3037
2.431 0.695 1.826 3811
2.311 0.661 1.741 2901
2.429 0.694 1.814 4667
2.303 0.658 1.726 2678
2.447 0.699 1.816 5912
2.320 0.663 1.728 2490
2.458 0.702 1.813 7808
2.337 0.668 1.730 2566
2.456 0.702 1.802 8517
2.336 0.667 1.718 1645
2.576 0.736 1.885 807
2.454 0.701 1.790 9583
2.575 0.736 1.873 1570
2.459 0.703 1.783 9583
2.580 0.737 1.865 1768
2.464 0.704 1.775 9654
2.585 0.739 1.857 2178
2.468 0.705 1.768 9632
2.589 0.740 1.850 2350
2.537 0.725 1.803 8939
2.415 0.690 1.722 2284
2.658 0.760 1.885 794
2.541 0.726 1.796 10895
2.420 0.691 1.715 1680
2.663 0.761 1.877 1069
2.546 0.728 1.788 8132
2.668 0.762 1.869 1220
2.424 0.693 1.708 1043
2.576 0.736 1.798 6132
2.454 0.701 1.717 792
2.600 0.743 1.803 5658
2.478 0.708 1.723 1430
2.631 0.752 1.812 6164
2.508 0.717 1.732 2221
2.674 0.764 1.829 5223
2.526 0.722 1.733 2979
2.692 0.769 1.829 6741
2.536 0.725 1.730 3783
2.703 0.773 1.825 6926
2.554 0.730 1.730 3357
2.714 0.776 1.821 7273
2.565 0.733 1.727 3151
2.713 0.775 1.809 6732
2.576 0.736 1.723 2256
2.717 0.777 1.801 6251
2.593 0.741 1.724 1752
2.722 0.778 1.793 8039
2.598 0.742 1.716 1274
2.720 0.777 1.781 9853
2.731 0.781 1.777 9240
2.742 0.784 1.773 8760
2.767 0.791 1.776 7324
2.791 0.798 1.780 7835
2.666 0.762 1.705 958
2.802 0.801 1.776 6052
2.677 0.765 1.701 948
2.928 0.837 1.850 814
2.866 0.819 1.803 4465
2.741 0.783 1.728 2510
2.858 0.817 1.786 4891
2.732 0.781 1.712 1500
2.984 0.853 1.860 945
2.862 0.818 1.778 5598
2.989 0.854 1.851 2352
2.736 0.782 1.704 890
2.874 0.821 1.773 5837
3.000 0.857 1.846 3119
2.878 0.823 1.764 7041
3.005 0.859 1.837 3361
2.883 0.824 1.756 8245
3.010 0.860 1.828 3602
2.887 0.825 1.747 7407
3.014 0.861 1.819 2998
2.885 0.825 1.735 7036
3.039 0.868 1.822 2905
2.890 0.826 1.726 7465
3.044 0.870 1.813 2767
2.894 0.827 1.718 7841
3.022 0.864 1.789 4253
2.898 0.828 1.709 8217
3.026 0.865 1.780 6064
3.154 0.901 1.850 801
3.017 0.862 1.763 6588
2.889 0.826 1.693 5726
3.145 0.899 1.833 2196
3.022 0.864 1.754 5491
3.150 0.900 1.824 3409
2.894 0.827 1.684 3227
3.087 0.882 1.778 5854
2.891 0.826 1.672 2676
3.099 0.885 1.772 6346
2.896 0.827 1.663 2304
3.117 0.891 1.770 7211
2.907 0.831 1.658 1490
3.114 0.890 1.757 5201
2.918 0.834 1.653 1005
3.201 0.915 1.791 4444
3.071 0.878 1.723 2546
3.198 0.914 1.778 4685
3.069 0.877 1.710 1926
3.210 0.917 1.772 3440
3.080 0.880 1.705 1733
3.139 0.897 1.724 2482
3.269 0.934 1.790 1916
3.178 0.908 1.732 2935
3.308 0.945 1.798 1723
3.189 0.911 1.726 3397
3.319 0.949 1.791 1818
3.200 0.915 1.720 4582
3.331 0.952 1.785 2367
3.212 0.918 1.713 6695
3.342 0.955 1.778 2421
3.216 0.919 1.704 8361
3.347 0.956 1.768 2360
3.221 0.920 1.694 8335
3.351 0.958 1.758 4032
3.315 0.947 1.728 8605
3.184 0.910 1.664 3566
3.326 0.950 1.722 8094
3.195 0.913 1.658 2743
3.337 0.954 1.715 7119
3.206 0.916 1.652 1861
3.342 0.955 1.705 7252
3.210 0.917 1.642 1211
3.473 0.993 1.768 1063
3.353 0.958 1.698 7095
3.485 0.996 1.761 1271
3.221 0.921 1.636 811
3.364 0.961 1.692 8239
3.496 0.999 1.753 1252
3.232 0.924 1.630 788
3.369 0.963 1.682 10102
3.501 1.000 1.743 1005
3.373 0.964 1.671 8596
3.505 1.002 1.732 944
3.377 0.965 1.661 6721
3.510 1.003 1.722 1178
3.670 1.049 1.795 863
3.423 0.978 1.670 4683
3.667 1.048 1.781 1450
3.462 0.989 1.676 3710
3.658 1.045 1.764 1696
3.330 0.952 1.616 991
3.488 0.997 1.675 3348
3.677 1.051 1.759 1781
3.355 0.959 1.615 1358
3.450 0.986 1.646 4420
3.716 1.062 1.764 2130
3.583 1.024 1.705 889
3.482 0.995 1.648 5935
3.707 1.059 1.746 2792
3.840 1.097 1.805 989
3.487 0.996 1.637 8198
3.739 1.069 1.748 3360
3.477 0.994 1.621 7759
3.793 1.084 1.758 5290
3.610 1.032 1.679 1308
3.797 1.085 1.746 5722
3.474 0.993 1.607 5361
3.607 1.031 1.665 1516
3.809 1.089 1.738 5033
3.499 1.000 1.606 4266
3.675 1.050 1.681 1899
3.943 1.127 1.795 1149
3.835 1.096 1.736 4903
3.510 1.003 1.599 4530
3.701 1.058 1.679 2411
3.969 1.134 1.792 2271
3.853 1.101 1.730 5235
3.514 1.004 1.588 3429
3.987 1.139 1.786 3387
3.719 1.063 1.674 1851
3.985 1.139 1.771 5538
3.851 1.100 1.715 3573
3.525 1.007 1.580 1806
3.716 1.062 1.660 1798
3.975 1.136 1.753 6715
3.742 1.069 1.657 2470
3.522 1.007 1.567 1173
3.973 1.135 1.739 6371
3.746 1.071 1.646 1814
4.107 1.174 1.794 1108
3.533 1.010 1.559 924
3.977 1.137 1.727 5767
3.842 1.098 1.672 1996
4.112 1.175 1.781 1727
3.982 1.138 1.715 7605
4.117 1.176 1.769 2229
3.847 1.099 1.661 2039
3.993 1.141 1.706 7919
4.128 1.180 1.759 1840
3.858 1.103 1.652 1455
3.998 1.142 1.694 6347
4.133 1.181 1.747 1668
3.862 1.104 1.640 846
4.002 1.144 1.682 4881
4.159 1.188 1.743 2192
3.867 1.105 1.629 786
4.177 1.194 1.736 3794
4.013 1.147 1.673 3615
4.182 1.195 1.724 4793
4.018 1.148 1.661 2576
4.222 1.207 1.725 5468
4.079 1.166 1.670 1757
4.184 1.196 1.696 5260
4.320 1.234 1.747 1259
4.048 1.157 1.644 756
4.181 1.195 1.681 5511
4.317 1.234 1.731 2561
4.192 1.198 1.671 5911
4.328 1.237 1.721 3966
4.333 1.238 1.708 5156
4.189 1.197 1.655 4845
4.337 1.239 1.695 5955
4.186 1.196 1.640 2842
4.474 1.279 1.745 897
4.334 1.239 1.679 8362
4.471 1.278 1.729 1788
4.198 1.200 1.630 1629
4.332 1.238 1.664 10334
4.476 1.279 1.715 2799
4.195 1.199 1.615 1008
4.336 1.239 1.651 9257
4.480 1.280 1.702 3852
4.199 1.200 1.603 758
4.354 1.244 1.643 9697
4.492 1.284 1.691 6064
4.629 1.323 1.739 814
4.489 1.283 1.675 9189
4.351 1.244 1.627 8197
4.626 1.322 1.722 1765
4.500 1.286 1.664 11451
4.363 1.247 1.617 4294
4.638 1.325 1.711 2172
4.519 1.291 1.655 10270
4.656 1.331 1.702 4649
4.360 1.246 1.601 2670
4.639 1.326 1.681 9193
4.501 1.286 1.634 6105
4.357 1.245 1.586 2067
4.777 1.365 1.727 1171
4.651 1.329 1.669 11034
4.513 1.290 1.623 4947
4.788 1.368 1.715 1420
4.361 1.246 1.573 1053
4.662 1.332 1.658 9863
4.524 1.293 1.612 6084
4.800 1.372 1.703 1587
4.938 1.411 1.748 1087
4.652 1.329 1.639 8847
4.514 1.290 1.594 4539
4.790 1.369 1.684 2879
4.928 1.408 1.729 2302
4.656 1.331 1.625 8698
4.794 1.370 1.669 4149
4.932 1.410 1.714 2760
4.518 1.291 1.580 2346
4.667 1.334 1.613 5980
4.886 1.396 1.683 5130
4.529 1.294 1.569 1172
4.897 1.400 1.671 5454
4.672 1.335 1.599 4012
5.036 1.439 1.714 1515
4.843 1.384 1.638 4497
4.676 1.336 1.585 3313
5.026 1.436 1.695 2737
4.935 1.410 1.650 4775
5.074 1.450 1.693 2380
4.665 1.333 1.567 1715
4.947 1.414 1.638 7129
5.085 1.453 1.680 2021
4.808 1.374 1.595 1298
4.951 1.415 1.623 7006
5.090 1.454 1.665 2545
4.812 1.375 1.581 1170
5.419 1.548 1.764 778
5.043 1.441 1.634 8309
4.904 1.401 1.593 4279
5.218 1.491 1.687 1487
5.416 1.548 1.746 762
5.047 1.442 1.619 8920
5.230 1.495 1.673 2215
4.908 1.403 1.578 1692
5.058 1.446 1.606 7206
5.242 1.498 1.660 3882
4.919 1.406 1.565 1102
5.070 1.449 1.593 5597
5.246 1.499 1.644 5396
5.385 1.539 1.684 907
5.243 1.498 1.626 4904
5.081 1.452 1.580 2960
5.389 1.540 1.668 1752
5.624 1.607 1.735 994
5.445 1.556 1.666 4754
5.247 1.499 1.610 3310
5.107 1.460 1.571 1151
5.636 1.611 1.721 1129
5.449 1.557 1.650 9087
5.251 1.501 1.594 2203
5.604 1.601 1.693 1347
5.454 1.558 1.634 13358
5.601 1.601 1.674 2858
5.255 1.502 1.579 1620
5.450 1.558 1.615 17735
5.612 1.604 1.660 3659
5.274 1.507 1.567 839
5.454 1.559 1.599 18348
5.617 1.605 1.643 3535
5.459 1.560 1.582 19658
5.643 1.613 1.632 12177
5.790 1.655 1.671 825
5.463 1.561 1.566 19662
5.647 1.614 1.615 16266
6.156 1.759 1.749 1081
5.795 1.656 1.654 860
5.467 1.562 1.550 15544
5.636 1.611 1.594 9142
6.190 1.769 1.738 1813
5.777 1.651 1.630 781
5.471 1.563 1.533 10867
5.626 1.608 1.573 8279
6.209 1.775 1.723 2796
5.474 1.564 1.517 6171
5.630 1.609 1.556 6112
6.221 1.778 1.707 2767
6.362 1.818 1.742 1080
5.478 1.566 1.500 3815
6.344 1.813 1.717 3763
6.159 1.760 1.671 3290
5.626 1.608 1.537 2437
6.356 1.816 1.700 5692
6.178 1.766 1.656 3190
5.497 1.571 1.487 1926
5.734 1.639 1.546 1660
6.368 1.820 1.683 6793
6.212 1.775 1.645 2985
5.701 1.629 1.520 1547
6.508 1.860 1.717 889
6.364 1.819 1.662 7013
6.224 1.779 1.628 2491
6.580 1.880 1.714 1605
6.846 1.957 1.778 1049
6.376 1.822 1.644 5285
6.584 1.882 1.694 1825
6.235 1.782 1.611 1466
6.851 1.958 1.758 1296
6.388 1.825 1.627 2471
6.670 1.906 1.693 1810
6.848 1.957 1.735 1207
6.529 1.866 1.660 1146
6.845 1.956 1.713 1532
6.422 1.835 1.615 1458
6.645 1.899 1.666 1175
6.994 1.999 1.747 964
6.894 1.970 1.702 1599
6.411 1.832 1.592 1342
6.597 1.885 1.634 1148
6.753 1.930 1.670 1042
6.898 1.971 1.682 1583
6.407 1.831 1.571 1510
7.166 2.048 1.742 1293
6.593 1.884 1.613 1177
7.193 2.056 1.725 1821
7.000 2.000 1.682 1292
7.543 2.156 1.803 1064
6.404 1.830 1.550 1043
7.548 2.157 1.780 1885
7.212 2.061 1.707 1789
7.004 2.002 1.661 1268
7.552 2.158 1.758 2584
7.180 2.052 1.677 1485
7.023 2.007 1.643 1004
7.336 2.096 1.711 958
7.564 2.162 1.736 3501
7.191 2.055 1.657 1337
7.422 2.121 1.706 1296
7.561 2.161 1.712 3814
7.419 2.120 1.682 1071
7.218 2.063 1.640 937
7.703 2.201 1.742 791
7.580 2.166 1.692 4137
7.222 2.064 1.618 1046
7.722 2.207 1.721 845
7.585 2.168 1.669 4181
7.727 2.208 1.698 1751
7.884 2.253 1.730 1639
7.226 2.065 1.596 1337
7.888 2.254 1.706 3566
7.739 2.211 1.676 3333
7.582 2.167 1.645 3106
8.030 2.295 1.735 836
7.892 2.255 1.682 5515
7.750 2.215 1.654 5016
7.593 2.170 1.624 1889
8.035 2.296 1.710 1104
7.904 2.259 1.660 6251
7.747 2.214 1.630 5405
7.605 2.173 1.602 1130
8.488 2.426 1.773 927
7.908 2.260 1.636 6096
7.751 2.215 1.606 4424
8.492 2.427 1.748 1190
7.609 2.174 1.579 814
7.913 2.261 1.612 6130
7.755 2.216 1.583 2639
8.497 2.428 1.722 1773
8.782 2.510 1.775 866
7.917 2.262 1.589 5630
8.486 2.425 1.694 1796
8.801 2.515 1.752 1344
7.752 2.215 1.558 1003
7.921 2.264 1.565 3816
8.806 2.516 1.725 2002
8.521 2.435 1.673 1564
8.063 2.304 1.590 863
8.810 2.518 1.698 2666
7.940 2.269 1.543 2295
8.510 2.432 1.645 1842
8.953 2.558 1.724 1082
8.814 2.519 1.672 2489
8.972 2.564 1.699 1907
8.514 2.433 1.619 1899
8.019 2.292 1.533 1574
8.976 2.565 1.672 2074
8.804 2.516 1.643 2021
8.526 2.436 1.595 1633
8.023 2.293 1.508 1578
8.988 2.569 1.646 1364
8.815 2.519 1.617 1337
9.206 2.631 1.683 1146
8.643 2.470 1.588 1110
9.000 2.572 1.621 1291
9.150 2.615 1.645 1166
9.564 2.733 1.714 1104
9.947 2.843 1.777 868
9.019 2.577 1.596 1244
9.561 2.732 1.684 1196
10.125 2.893 1.775 1142
9.944 2.842 1.746 1136
10.137 2.897 1.746 1058
9.550 2.729 1.653 922
9.843 2.813 1.699 917
9.986 2.854 1.722 832
10.517 3.006 1.774 1072
10.141 2.898 1.715 945
10.352 2.958 1.748 825
10.522 3.007 1.742 1601
10.123 2.893 1.681 968
10.349 2.957 1.716 780
10.526 3.008 1.711 1347
10.112 2.890 1.648 1014
10.139 2.897 1.621 914
10.523 3.007 1.678 905
10.749 3.072 1.711 866
11.086 3.168 1.726 962
10.520 3.006 1.645 940
10.754 3.073 1.678 835
11.297 3.228 1.757 764
11.098 3.171 1.694 1224
11.316 3.234 1.725 1024
10.690 3.055 1.636 876
10.524 3.008 1.613 873
11.200 3.201 1.674 1253
11.502 3.287 1.715 888
10.528 3.009 1.581 827
10.709 3.061 1.606 779
11.506 3.288 1.680 1183
11.212 3.204 1.641 1125
11.982 3.424 1.744 895
10.517 3.006 1.547 809
12.001 3.430 1.710 1012
11.216 3.205 1.607 990
11.510 3.289 1.646 948
12.417 3.548 1.765 753
12.006 3.431 1.674 1065
