6.996 3.468 1.537 1492
7.485 3.710 1.635 1298
7.726 3.830 1.658 3488
7.182 3.560 1.550 1792
7.496 3.716 1.612 1411
7.021 3.480 1.518 1228
7.716 3.825 1.630 3284
7.507 3.721 1.589 1358
7.031 3.485 1.497 1034
7.884 3.908 1.662 993
7.720 3.827 1.605 3570
7.874 3.903 1.634 1419
7.517 3.726 1.566 851
7.224 3.581 1.510 826
7.717 3.825 1.579 3145
7.878 3.905 1.609 1454
7.735 3.834 1.556 2552
7.882 3.907 1.583 1574
8.050 3.990 1.614 1057
7.752 3.843 1.534 2583
8.046 3.988 1.587 1654
7.885 3.909 1.558 1360
7.749 3.841 1.507 3338
8.057 3.994 1.562 2073
7.924 3.928 1.538 1360
7.753 3.843 1.482 4016
8.068 3.999 1.537 2429
7.921 3.926 1.511 1538
7.756 3.845 1.457 3251
8.057 3.994 1.509 1814
7.917 3.924 1.485 1196
8.625 4.275 1.606 971
7.759 3.846 1.432 2086
8.629 4.277 1.578 1037
8.054 3.992 1.481 965
10.418 5.164 1.878 871
7.763 3.848 1.407 1051
10.415 5.163 1.843 827
8.633 4.279 1.550 796
8.644 4.284 1.523 849
8.647 4.286 1.495 1337
10.494 5.202 1.786 989
8.644 4.285 1.466 1491
10.470 5.190 1.748 1408
10.723 5.315 1.787 1143
10.447 5.178 1.710 1712
10.714 5.311 1.750 1436
8.647 4.286 1.438 1409
8.478 4.203 1.412 759
10.437 5.173 1.674 1334
8.657 4.291 1.411 1148
10.690 5.299 1.711 1044
8.489 4.208 1.386 854
10.778 5.343 1.689 1216
8.492 4.209 1.358 1051
11.636 5.768 1.813 841
10.747 5.327 1.649 1631
8.495 4.211 1.331 1191
11.634 5.767 1.774 1178
11.296 5.599 1.726 827
10.744 5.326 1.613 1610
11.638 5.769 1.736 1241
8.498 4.212 1.303 1091
11.300 5.601 1.689 908
10.755 5.331 1.579 1192
11.628 5.764 1.696 993
11.410 5.656 1.667 913
11.248 5.575 1.645 773
11.237 5.570 1.607 1047
11.442 5.671 1.634 978
11.611 5.755 1.656 880
8.504 4.215 1.248 750
11.241 5.572 1.570 1192
8.500 4.213 1.220 1091
11.720 5.810 1.632 926
12.045 5.970 1.673 779
8.503 4.215 1.192 959
12.063 5.979 1.636 948
11.731 5.815 1.595 879
11.245 5.574 1.534 810
8.505 4.216 1.165 916
12.828 6.359 1.689 859
12.588 6.240 1.660 821
12.066 5.981 1.597 794
12.592 6.242 1.619 1111
8.508 4.217 1.137 1106
8.511 4.219 1.110 1130
12.596 6.244 1.578 778
8.513 4.220 1.082 880
12.437 6.165 1.519 754
8.499 4.213 0.803 756
8.501 4.214 0.775 1054
8.502 4.214 0.748 1140
8.497 4.212 0.720 923
8.500 4.213 0.665 865
8.494 4.210 0.637 1030
8.502 4.214 0.610 1068
8.503 4.215 0.582 1136
8.504 4.216 0.555 1156
8.513 4.220 0.527 1121
8.514 4.220 0.500 1046
8.515 4.221 0.472 963
8.515 4.221 0.445 877
2.071 1.018 1.754 4486
2.076 1.020 1.748 8973
2.185 1.074 1.835 999
2.080 1.022 1.741 8973
2.190 1.076 1.828 1999
2.084 1.024 1.734 6946
2.194 1.079 1.821 2811
2.170 1.066 1.791 6060
2.059 1.012 1.705 3317
2.180 1.071 1.789 5169
2.069 1.017 1.703 2365
2.207 1.085 1.800 5000
2.096 1.031 1.714 2398
2.212 1.087 1.793 5000
2.100 1.033 1.708 2398
2.193 1.078 1.768 5142
2.081 1.023 1.683 949
2.304 1.133 1.853 937
2.191 1.077 1.757 6073
2.303 1.132 1.841 1552
2.201 1.082 1.754 6599
2.313 1.137 1.838 1905
2.223 1.093 1.760 7851
2.335 1.148 1.844 1493
2.251 1.106 1.771 6967
2.363 1.162 1.854 950
2.139 1.051 1.687 800
2.273 1.117 1.777 7548
2.386 1.173 1.860 976
2.277 1.119 1.770 7548
2.390 1.175 1.852 1013
2.276 1.119 1.758 7820
2.389 1.174 1.840 1116
2.274 1.118 1.746 8185
2.399 1.179 1.837 1108
2.278 1.120 1.739 7379
2.392 1.176 1.821 1272
2.282 1.122 1.732 6507
2.396 1.178 1.813 1460
2.298 1.130 1.733 4726
2.418 1.189 1.818 1846
2.327 1.144 1.743 4334
2.441 1.200 1.823 2384
2.331 1.146 1.735 3990
2.445 1.202 1.815 2385
2.419 1.189 1.787 4155
2.305 1.133 1.707 3012
2.418 1.188 1.775 4958
2.303 1.132 1.695 2335
2.416 1.188 1.763 5939
2.301 1.131 1.684 1705
2.396 1.178 1.739 4995
2.511 1.234 1.817 1484
2.400 1.180 1.731 4364
2.515 1.236 1.809 2048
2.398 1.179 1.719 3762
2.514 1.236 1.797 2548
2.384 1.172 1.699 3758
2.500 1.229 1.777 3019
2.504 1.231 1.769 3645
2.388 1.174 1.692 2934
2.508 1.233 1.761 4271
2.392 1.176 1.684 2110
2.624 1.290 1.837 935
2.506 1.232 1.749 5701
2.623 1.289 1.825 2419
2.390 1.175 1.672 1116
2.511 1.234 1.741 7137
2.627 1.291 1.817 3738
2.521 1.239 1.737 7347
2.638 1.297 1.812 3688
2.525 1.241 1.729 7579
2.642 1.299 1.804 4123
2.523 1.240 1.717 5782
2.640 1.298 1.791 4149
2.515 1.236 1.701 3855
2.645 1.300 1.783 3412
2.525 1.241 1.697 3272
2.655 1.305 1.778 3228
2.659 1.307 1.770 4740
2.529 1.243 1.689 2549
2.777 1.365 1.844 938
2.664 1.309 1.761 6279
2.539 1.248 1.684 1857
2.781 1.367 1.835 1291
2.662 1.308 1.749 5921
2.780 1.366 1.822 2283
2.543 1.250 1.676 1477
2.653 1.304 1.733 5871
2.772 1.362 1.805 3621
2.745 1.349 1.778 5385
2.626 1.291 1.706 3215
2.863 1.408 1.850 840
2.780 1.367 1.788 5835
2.637 1.296 1.701 1880
2.791 1.372 1.783 6659
2.647 1.301 1.696 1541
2.789 1.371 1.770 5407
2.651 1.303 1.688 1197
2.787 1.370 1.757 3917
2.655 1.305 1.679 853
2.823 1.387 1.767 3148
2.703 1.329 1.697 1058
2.858 1.405 1.776 3944
2.739 1.346 1.706 1822
2.863 1.407 1.767 4535
2.743 1.348 1.698 1889
2.861 1.406 1.754 6436
2.741 1.347 1.685 1321
2.980 1.465 1.823 1136
2.865 1.408 1.745 8345
2.985 1.467 1.814 1795
2.863 1.407 1.732 7840
2.983 1.466 1.800 2947
2.867 1.409 1.723 4868
2.987 1.468 1.791 4490
2.998 1.474 1.785 4984
2.877 1.414 1.718 2523
3.002 1.476 1.775 3929
2.881 1.416 1.708 2429
2.917 1.434 1.717 4262
3.038 1.494 1.783 3528
2.796 1.375 1.650 1237
2.934 1.442 1.714 5186
3.055 1.502 1.780 3591
2.813 1.383 1.648 1250
2.951 1.451 1.712 5852
3.072 1.510 1.778 2708
2.830 1.391 1.646 1243
2.968 1.459 1.709 5526
3.090 1.519 1.775 2420
2.846 1.399 1.644 923
3.068 1.508 1.751 6315
2.946 1.448 1.686 4238
3.072 1.510 1.741 8305
2.951 1.450 1.677 4587
3.083 1.516 1.735 7757
2.961 1.456 1.671 4355
3.094 1.521 1.728 9917
2.971 1.461 1.664 2826
3.222 1.584 1.795 1311
3.098 1.523 1.718 11747
3.233 1.589 1.788 1880
2.975 1.463 1.655 1548
3.108 1.528 1.712 12560
3.244 1.595 1.781 2074
2.986 1.468 1.649 1453
3.112 1.530 1.702 14053
3.261 1.603 1.778 2494
2.990 1.470 1.639 1447
3.110 1.529 1.689 13701
3.272 1.608 1.770 3554
2.987 1.468 1.626 1475
3.114 1.531 1.679 10882
3.276 1.610 1.760 4346
2.991 1.470 1.617 1362
3.125 1.536 1.672 9044
3.287 1.616 1.753 4413
3.001 1.475 1.610 1299
3.122 1.535 1.659 7208
3.284 1.615 1.739 4809
3.408 1.675 1.800 1476
2.999 1.474 1.598 881
3.289 1.617 1.728 5684
3.126 1.537 1.649 4173
3.412 1.677 1.789 2642
3.299 1.622 1.721 6459
3.176 1.561 1.661 2840
3.423 1.683 1.781 2429
3.303 1.624 1.710 6539
3.434 1.688 1.773 2170
3.180 1.563 1.651 1975
3.308 1.626 1.700 5477
3.432 1.687 1.759 3124
3.184 1.565 1.640 1469
3.390 1.666 1.727 5520
3.214 1.580 1.643 1837
3.388 1.665 1.713 3859
3.512 1.726 1.771 1564
3.263 1.604 1.654 1264
3.457 1.699 1.732 4233
3.307 1.625 1.662 1694
3.448 1.695 1.715 5843
3.573 1.756 1.773 1899
3.324 1.634 1.657 1376
3.160 1.553 1.581 840
3.472 1.707 1.713 6249
3.597 1.768 1.771 1506
3.347 1.645 1.656 1135
3.163 1.555 1.571 785
3.489 1.715 1.708 7551
3.364 1.654 1.651 1172
3.614 1.777 1.765 1111
3.493 1.717 1.697 6113
3.651 1.795 1.768 1814
3.368 1.656 1.640 820
3.517 1.729 1.694 4851
3.656 1.797 1.757 2506
3.548 1.744 1.695 4956
3.673 1.806 1.751 2969
3.422 1.682 1.639 858
3.572 1.756 1.692 5145
3.697 1.817 1.748 3220
3.446 1.694 1.637 1506
3.582 1.761 1.684 4746
3.708 1.823 1.739 2440
3.457 1.699 1.629 1146
3.679 1.809 1.712 3390
3.553 1.747 1.658 2675
3.690 1.814 1.703 5599
3.564 1.752 1.649 1669
3.816 1.876 1.758 1097
3.694 1.816 1.692 6156
3.820 1.878 1.745 1617
3.568 1.754 1.638 1110
3.705 1.821 1.683 4373
3.831 1.883 1.736 2655
3.755 1.846 1.690 4888
3.882 1.908 1.743 3369
3.779 1.858 1.686 4713
3.906 1.920 1.739 2676
3.823 1.879 1.691 4074
3.950 1.942 1.743 1798
3.697 1.817 1.639 1346
3.847 1.891 1.687 4092
3.974 1.954 1.738 2552
3.721 1.829 1.635 1503
3.858 1.896 1.677 4510
3.985 1.959 1.728 2412
3.731 1.834 1.626 1148
3.895 1.915 1.678 4739
4.022 1.977 1.729 1811
3.768 1.852 1.627 951
3.913 1.923 1.671 3718
4.040 1.986 1.721 1778
3.786 1.861 1.620 751
4.004 1.968 1.692 3677
3.877 1.906 1.642 2382
4.158 2.044 1.753 1198
4.001 1.967 1.677 5464
3.874 1.904 1.627 2581
4.169 2.049 1.742 1672
4.005 1.969 1.664 5008
4.133 2.032 1.713 1793
3.878 1.906 1.615 1669
4.023 1.977 1.656 3888
4.184 2.057 1.718 1915
3.895 1.915 1.607 1355
4.027 1.979 1.643 3657
4.188 2.059 1.704 2404
4.031 1.981 1.630 3838
4.206 2.067 1.696 2933
4.210 2.069 1.682 4461
4.035 1.983 1.617 3012
1.419 0.698 0.647 814
4.194 2.061 1.661 6070
4.065 1.998 1.614 1963
4.322 2.124 1.709 1331
1.420 0.698 0.642 965
4.204 2.067 1.650 5878
4.333 2.130 1.697 1660
4.076 2.004 1.604 1459
1.422 0.699 0.638 911
4.235 2.082 1.647 5207
4.411 2.168 1.710 1503
4.307 2.117 1.657 3871
4.178 2.054 1.611 2066
4.435 2.180 1.703 1398
4.324 2.126 1.648 4521
4.196 2.062 1.603 1877
4.453 2.189 1.693 1213
4.582 2.252 1.739 751
4.396 2.161 1.658 4687
4.227 2.078 1.599 2012
4.552 2.238 1.712 1466
4.414 2.170 1.648 6238
4.570 2.246 1.702 1754
4.278 2.103 1.601 1627
4.418 2.172 1.634 5504
4.581 2.252 1.690 3938
4.275 2.101 1.585 1043
4.591 2.257 1.678 6023
4.421 2.173 1.620 4402
4.595 2.259 1.663 7112
4.425 2.175 1.606 4009
4.759 2.339 1.717 993
4.593 2.258 1.646 6429
4.443 2.184 1.596 2470
4.749 2.335 1.698 1306
4.597 2.260 1.631 5128
4.440 2.182 1.579 1382
4.753 2.337 1.682 1107
4.607 2.265 1.618 4643
4.771 2.345 1.671 1315
4.450 2.188 1.567 843
4.901 2.409 1.714 792
4.611 2.267 1.603 3518
4.775 2.347 1.656 1609
4.905 2.411 1.698 1352
4.615 2.269 1.589 2258
4.929 2.423 1.688 1849
4.786 2.353 1.643 1619
4.940 2.428 1.675 2773
4.619 2.270 1.574 1911
4.810 2.365 1.634 987
5.070 2.492 1.716 870
4.930 2.424 1.655 2376
4.629 2.276 1.561 1990
5.060 2.488 1.695 1221
4.969 2.442 1.649 2953
5.119 2.516 1.695 2191
4.838 2.378 1.609 1296
4.640 2.281 1.548 1116
4.979 2.448 1.635 4262
5.110 2.512 1.675 3537
4.849 2.384 1.596 1011
5.322 2.616 1.739 858
5.155 2.534 1.671 4243
4.983 2.450 1.619 2982
5.326 2.618 1.722 1095
5.159 2.536 1.654 5174
4.987 2.452 1.603 1969
5.289 2.600 1.693 1086
5.170 2.541 1.639 6349
5.300 2.605 1.678 1882
5.012 2.464 1.593 1788
4.702 2.312 1.502 793
5.180 2.547 1.625 6486
5.311 2.611 1.663 3687
5.015 2.465 1.577 1285
4.706 2.313 1.487 1142
5.267 2.589 1.632 6786
5.136 2.525 1.594 1755
4.709 2.315 1.472 1566
5.398 2.653 1.669 1068
5.278 2.594 1.617 5800
4.713 2.317 1.457 1662
5.050 2.483 1.552 1617
5.408 2.659 1.654 1359
5.350 2.630 1.619 7883
5.061 2.488 1.538 2228
5.206 2.559 1.578 2082
5.495 2.701 1.659 1300
5.361 2.635 1.604 9038
5.058 2.486 1.520 2087
5.513 2.710 1.645 1943
5.727 2.815 1.704 1452
5.386 2.647 1.592 7586
5.620 2.763 1.656 1968
5.800 2.851 1.705 1297
5.061 2.488 1.504 1174
5.383 2.646 1.573 8586
5.652 2.778 1.645 2386
5.811 2.856 1.688 1976
5.521 2.714 1.610 1037
5.386 2.648 1.555 9342
5.815 2.858 1.669 2413
5.663 2.784 1.629 1900
5.981 2.940 1.713 1239
5.390 2.650 1.538 7356
5.805 2.854 1.647 2118
5.943 2.922 1.683 1943
5.653 2.779 1.607 1924
5.394 2.651 1.521 4846
5.968 2.934 1.669 2407
5.788 2.845 1.623 2196
6.100 2.998 1.703 1368
5.397 2.653 1.503 2809
5.993 2.946 1.655 2345
5.799 2.851 1.606 1928
6.124 3.011 1.689 1282
6.128 3.013 1.669 1731
5.941 2.921 1.622 1628
5.401 2.655 1.486 1623
6.295 3.094 1.711 1170
6.125 3.011 1.647 2334
6.292 3.093 1.689 1825
5.987 2.943 1.613 1185
6.424 3.158 1.721 865
6.109 3.003 1.623 2259
6.289 3.091 1.667 1564
6.546 3.218 1.730 1254
5.977 2.938 1.590 858
6.557 3.223 1.710 2315
6.099 2.998 1.599 1388
6.397 3.145 1.672 1362
6.230 3.063 1.631 1170
6.554 3.222 1.687 2502
6.408 3.150 1.653 1448
6.241 3.068 1.613 1387
6.551 3.220 1.664 3295
6.252 3.073 1.594 1697
6.405 3.149 1.630 1386
6.555 3.222 1.643 4365
6.409 3.150 1.610 1776
6.256 3.075 1.574 1293
6.559 3.224 1.622 4192
6.413 3.152 1.589 1211
6.691 3.289 1.652 1140
6.274 3.084 1.557 813
6.577 3.233 1.604 3900
6.960 3.421 1.690 1176
6.709 3.298 1.634 1110
6.594 3.242 1.586 5408
6.992 3.437 1.674 1979
6.727 3.307 1.615 1255
6.598 3.243 1.565 6203
6.996 3.439 1.651 3420
6.731 3.309 1.593 1817
6.595 3.242 1.542 3979
7.000 3.441 1.629 3074
6.728 3.307 1.570 1810
7.474 3.674 1.730 1552
7.478 3.676 1.706 2023
7.101 3.491 1.627 1964
6.696 3.292 1.541 1405
7.722 3.796 1.758 1265
7.461 3.668 1.678 2229
7.727 3.798 1.733 2090
7.105 3.493 1.604 1990
6.707 3.297 1.521 1092
7.738 3.804 1.709 3196
7.458 3.666 1.652 2319
7.004 3.443 1.559 1874
7.186 3.532 1.596 1316
7.742 3.806 1.684 3693
7.092 3.486 1.553 2049
7.490 3.682 1.633 1704
7.224 3.551 1.580 1140
7.746 3.808 1.659 3183
7.508 3.691 1.612 1891
7.186 3.533 1.548 1585
7.935 3.901 1.696 1394
7.743 3.806 1.633 2892
7.519 3.696 1.589 1957
7.939 3.903 1.671 1836
7.092 3.486 1.506 820
7.733 3.801 1.605 2575
7.901 3.884 1.637 1668
7.530 3.701 1.566 1386
8.048 3.956 1.665 1368
7.905 3.886 1.611 2028
7.737 3.803 1.580 1915
8.045 3.955 1.638 1393
7.533 3.703 1.542 775
7.902 3.884 1.585 2525
7.754 3.812 1.557 1919
8.056 3.960 1.613 1265
7.765 3.817 1.534 2387
7.898 3.883 1.558 2012
8.060 3.962 1.587 1598
7.762 3.815 1.507 2904
8.070 3.967 1.562 2338
7.937 3.902 1.538 1686
7.765 3.817 1.482 3269
8.081 3.972 1.537 3063
7.941 3.903 1.513 1829
8.636 4.245 1.634 1581
8.639 4.247 1.606 2679
7.769 3.819 1.457 2600
8.078 3.971 1.510 2274
7.930 3.898 1.485 1341
8.643 4.249 1.578 2561
7.772 3.821 1.432 1703
8.081 3.972 1.484 1337
8.215 4.038 1.506 1115
8.654 4.254 1.551 1944
8.085 3.974 1.458 971
7.775 3.822 1.407 882
10.418 5.121 1.840 875
8.658 4.256 1.523 2211
8.661 4.258 1.495 3301
10.504 5.164 1.785 1213
8.658 4.256 1.466 3669
10.488 5.155 1.748 1591
10.741 5.280 1.787 1131
8.661 4.258 1.438 3544
10.471 5.147 1.711 1746
10.731 5.275 1.750 1398
8.665 4.259 1.410 2897
10.461 5.142 1.675 1265
10.728 5.274 1.714 1035
8.675 4.264 1.383 1592
10.753 5.286 1.683 1210
11.655 5.729 1.813 756
10.765 5.292 1.649 1726
11.660 5.732 1.775 1094
11.293 5.551 1.723 886
10.898 5.357 1.668 813
10.768 5.293 1.614 1642
11.664 5.734 1.737 1186
11.304 5.557 1.688 933
10.902 5.359 1.632 794
10.772 5.295 1.579 1218
11.661 5.732 1.698 936
11.273 5.542 1.646 892
11.263 5.536 1.608 1000
11.721 5.762 1.668 912
11.253 5.531 1.570 1099
11.733 5.767 1.631 1053
8.514 4.185 1.220 856
8.524 4.190 1.193 1461
11.758 5.780 1.595 944
12.146 5.971 1.644 755
11.270 5.540 1.535 750
8.526 4.191 1.166 1602
12.171 5.983 1.607 967
12.849 6.316 1.689 775
8.529 4.193 1.138 1440
12.620 6.204 1.620 901
12.168 5.981 1.567 821
8.525 4.190 1.110 1221
8.527 4.192 1.082 1236
12.182 5.988 1.489 752
8.530 4.193 1.054 1154
8.532 4.194 1.027 756
8.507 4.182 0.775 1053
8.509 4.183 0.747 1121
8.511 4.184 0.720 896
8.508 4.182 0.637 787
8.509 4.183 0.609 858
8.510 4.183 0.582 1050
8.511 4.184 0.554 1172
8.519 4.188 0.527 1171
8.528 4.192 0.500 1077
8.528 4.192 0.472 962
8.522 4.189 0.444 760
2.080 1.015 1.759 4383
2.084 1.017 1.752 8767
2.195 1.070 1.840 884
2.089 1.019 1.746 8767
2.199 1.072 1.833 1768
2.087 1.018 1.734 6676
2.198 1.072 1.821 2753
2.167 1.057 1.787 6693
2.056 1.003 1.701 2822
2.177 1.062 1.784 5489
2.066 1.008 1.699 2096
2.205 1.075 1.796 5066
2.094 1.021 1.710 2468
2.209 1.077 1.789 5066
2.098 1.023 1.703 2468
2.196 1.071 1.768 5515
2.084 1.017 1.683 1080
2.308 1.125 1.853 824
2.200 1.073 1.761 6342
2.312 1.128 1.846 1213
2.088 1.018 1.677 789
2.216 1.081 1.763 6727
2.328 1.136 1.847 1054
2.104 1.026 1.679 919
2.232 1.089 1.765 8319
2.345 1.144 1.848 835
2.120 1.034 1.681 793
2.254 1.099 1.771 7252
2.142 1.045 1.687 1406
2.367 1.154 1.854 787
2.276 1.110 1.777 7687
2.164 1.055 1.694 1732
2.389 1.165 1.860 905
2.281 1.112 1.770 7687
2.168 1.057 1.687 1130
2.394 1.167 1.852 923
2.285 1.114 1.762 7715
2.398 1.170 1.844 1062
2.283 1.114 1.751 7706
2.397 1.169 1.833 1195
2.288 1.116 1.743 6811
2.401 1.171 1.825 1099
2.286 1.115 1.732 5910
2.400 1.170 1.813 1058
2.308 1.126 1.737 4640
2.422 1.181 1.818 1447
2.336 1.139 1.747 4381
2.450 1.195 1.827 1713
2.340 1.141 1.740 3725
2.455 1.197 1.820 1809
2.423 1.182 1.787 3249
2.308 1.126 1.707 2535
2.427 1.184 1.779 4355
2.312 1.128 1.700 2348
2.438 1.189 1.775 5499
2.323 1.133 1.696 2380
2.460 1.200 1.780 5176
2.345 1.144 1.701 2277
2.471 1.205 1.776 5571
2.355 1.149 1.698 1904
2.475 1.207 1.768 4743
2.359 1.151 1.691 1882
2.467 1.203 1.752 4278
2.351 1.147 1.675 1017
2.496 1.217 1.761 4872
2.379 1.160 1.684 2054
2.612 1.274 1.838 863
2.506 1.222 1.757 6033
2.390 1.165 1.680 1608
2.622 1.279 1.833 1273
2.510 1.224 1.749 7110
2.627 1.281 1.825 2659
2.394 1.167 1.672 1091
2.521 1.229 1.745 8304
2.637 1.286 1.821 3491
2.404 1.172 1.669 781
2.531 1.234 1.741 8044
2.648 1.291 1.816 3256
2.414 1.177 1.665 832
2.535 1.236 1.733 7971
2.652 1.293 1.808 3651
2.539 1.238 1.725 5647
2.657 1.296 1.799 3242
2.519 1.228 1.701 3619
2.649 1.292 1.783 3410
2.529 1.233 1.697 3342
2.659 1.297 1.778 3203
2.663 1.299 1.770 4475
2.533 1.235 1.689 2689
2.781 1.356 1.844 795
2.661 1.298 1.758 5864
2.543 1.240 1.684 2051
2.780 1.356 1.831 1570
2.659 1.297 1.745 5506
2.778 1.355 1.818 2595
2.541 1.239 1.672 1575
2.745 1.339 1.786 5445
2.626 1.281 1.714 3507
2.749 1.341 1.778 5522
2.630 1.283 1.706 2882
2.868 1.399 1.850 836
2.785 1.358 1.788 6143
2.647 1.291 1.705 2037
2.795 1.363 1.783 7354
2.657 1.296 1.700 1906
2.799 1.365 1.774 7099
2.680 1.307 1.703 1368
2.804 1.367 1.765 6276
2.684 1.309 1.694 997
2.814 1.373 1.759 4925
2.695 1.314 1.689 906
2.856 1.393 1.772 4849
2.737 1.335 1.703 1710
2.867 1.398 1.767 5121
2.747 1.340 1.698 1494
2.865 1.397 1.754 7019
2.745 1.339 1.685 997
2.985 1.456 1.823 855
2.869 1.399 1.745 8897
2.989 1.458 1.814 1404
2.873 1.401 1.736 8229
2.994 1.460 1.804 2154
2.877 1.403 1.727 6394
2.998 1.462 1.794 3212
2.888 1.408 1.721 5129
3.009 1.467 1.788 3614
2.899 1.414 1.715 4474
3.026 1.476 1.786 3216
2.909 1.419 1.710 4412
3.043 1.484 1.783 3942
2.945 1.436 1.718 4616
3.066 1.496 1.784 3816
2.968 1.448 1.719 6040
3.090 1.507 1.785 2735
3.075 1.500 1.764 7252
2.953 1.440 1.699 5323
3.079 1.502 1.754 10830
2.957 1.442 1.689 5028
3.084 1.504 1.745 12219
2.961 1.444 1.680 4891
3.094 1.509 1.738 12176
2.972 1.449 1.674 4384
3.105 1.514 1.732 16579
2.982 1.455 1.668 2949
3.227 1.574 1.795 1300
3.109 1.516 1.722 19924
3.232 1.576 1.785 1862
2.986 1.456 1.658 1546
3.113 1.518 1.712 19997
3.236 1.578 1.775 1850
2.990 1.458 1.649 1159
3.117 1.520 1.702 19541
3.266 1.593 1.778 1980
2.994 1.460 1.639 965
3.115 1.519 1.689 17362
3.277 1.598 1.770 3216
2.992 1.459 1.626 913
3.119 1.521 1.679 13145
3.281 1.600 1.760 4188
2.996 1.461 1.617 921
3.123 1.523 1.669 10415
3.285 1.602 1.749 4594
3.000 1.463 1.607 771
3.127 1.525 1.659 8860
3.290 1.604 1.739 5247
3.413 1.665 1.800 1348
3.294 1.606 1.728 5793
3.131 1.527 1.649 5640
3.417 1.667 1.789 2321
3.304 1.612 1.721 6440
3.180 1.551 1.661 3410
3.428 1.672 1.781 2476
3.309 1.614 1.710 6432
3.439 1.677 1.773 2575
3.184 1.553 1.651 1996
3.313 1.616 1.700 5587
3.437 1.676 1.759 3646
3.188 1.555 1.640 1412
3.402 1.659 1.730 4836
3.225 1.573 1.646 2148
3.471 1.693 1.750 4117
3.347 1.632 1.691 2230
3.222 1.572 1.632 1358
3.469 1.692 1.735 4395
3.312 1.615 1.662 1597
3.187 1.554 1.604 798
3.454 1.684 1.715 5162
3.578 1.745 1.773 2213
3.329 1.623 1.657 1296
3.477 1.696 1.713 5600
3.602 1.757 1.771 2212
3.352 1.635 1.656 1135
3.495 1.704 1.708 7016
3.620 1.765 1.765 1859
3.370 1.643 1.651 1182
3.552 1.732 1.721 6010
3.677 1.793 1.777 1564
3.426 1.671 1.664 1051
3.523 1.718 1.694 4872
3.661 1.786 1.757 2771
3.566 1.739 1.701 4983
3.692 1.801 1.757 2985
3.441 1.678 1.645 915
3.577 1.745 1.692 5837
3.703 1.806 1.748 3422
3.451 1.683 1.637 1206
3.588 1.750 1.684 5504
3.714 1.811 1.739 2706
3.462 1.688 1.629 859
3.592 1.752 1.672 3813
3.718 1.813 1.727 2594
3.695 1.802 1.703 5510
3.569 1.741 1.649 1578
3.822 1.864 1.758 1005
3.706 1.808 1.694 5757
3.832 1.869 1.748 1476
3.580 1.746 1.641 1053
3.777 1.842 1.711 4329
3.650 1.780 1.657 1428
3.903 1.904 1.764 966
3.781 1.844 1.698 5110
3.907 1.906 1.751 2171
3.654 1.782 1.646 1006
3.805 1.856 1.695 4984
3.932 1.917 1.747 1959
3.678 1.794 1.642 1101
3.836 1.871 1.693 4443
3.963 1.933 1.745 2048
3.709 1.809 1.641 1546
3.853 1.879 1.687 4659
3.980 1.941 1.738 2991
3.726 1.817 1.635 1861
3.871 1.888 1.680 5137
3.998 1.950 1.731 2707
3.743 1.826 1.628 1572
3.901 1.903 1.678 4742
4.029 1.965 1.729 1489
3.761 1.834 1.622 849
3.919 1.911 1.671 3339
4.046 1.973 1.721 1620
4.010 1.956 1.692 3652
3.883 1.894 1.642 2098
4.171 2.034 1.755 1650
4.001 1.951 1.674 6255
4.169 2.033 1.739 2415
3.873 1.889 1.625 2084
4.011 1.956 1.664 5931
4.180 2.038 1.729 2230
3.884 1.894 1.615 1636
4.029 1.965 1.656 4911
4.184 2.040 1.715 2591
3.901 1.903 1.607 1396
4.033 1.967 1.643 3921
4.195 2.046 1.704 2968
4.037 1.969 1.630 3249
4.212 2.054 1.696 2931
4.223 2.060 1.685 4259
4.047 1.974 1.620 2482
4.207 2.052 1.664 5632
4.078 1.989 1.617 2213
4.335 2.114 1.711 854
4.245 2.070 1.663 6155
4.102 2.001 1.611 1725
4.407 2.149 1.722 1233
4.255 2.075 1.651 5997
4.411 2.151 1.707 1858
4.259 2.077 1.638 4249
4.415 2.153 1.693 2092
4.358 2.125 1.658 3732
4.229 2.063 1.612 2299
4.555 2.221 1.727 1098
4.410 2.151 1.660 5284
4.233 2.064 1.599 1924
4.566 2.227 1.715 1630
4.414 2.153 1.646 6124
4.577 2.232 1.702 1930
4.250 2.073 1.590 1730
4.431 2.161 1.636 5345
4.588 2.237 1.690 3625
4.275 2.085 1.583 957
4.598 2.243 1.678 5767
4.435 2.163 1.622 5090
4.602 2.245 1.663 7589
4.439 2.165 1.608 4799
4.752 2.318 1.713 1597
4.593 2.240 1.643 7404
4.450 2.170 1.596 3086
4.756 2.320 1.698 1846
4.604 2.245 1.631 5463
4.447 2.169 1.579 1835
4.761 2.322 1.682 1552
4.607 2.247 1.616 4443
4.771 2.327 1.669 2152
4.450 2.170 1.565 1243
4.611 2.249 1.601 3003
4.775 2.329 1.654 2638
4.905 2.392 1.696 1217
4.786 2.334 1.641 2505
4.608 2.247 1.584 1983
4.916 2.398 1.682 1616
4.948 2.413 1.675 2729
4.626 2.256 1.574 1874
4.818 2.350 1.634 1500
4.965 2.422 1.663 2726
4.643 2.264 1.563 1802
4.835 2.358 1.623 1629
5.157 2.515 1.723 1278
4.969 2.424 1.647 3438
5.155 2.514 1.704 2878
4.839 2.360 1.607 1347
4.647 2.266 1.548 860
5.152 2.513 1.685 4395
4.980 2.429 1.633 4372
4.850 2.365 1.594 846
5.337 2.603 1.741 753
5.163 2.518 1.671 5194
4.991 2.434 1.619 2495
5.341 2.605 1.724 1177
5.167 2.520 1.654 5513
5.029 2.453 1.613 1576
5.352 2.610 1.709 1129
4.713 2.298 1.520 818
5.171 2.522 1.637 7153
5.301 2.585 1.676 2034
4.703 2.294 1.500 1260
5.019 2.448 1.593 1233
5.181 2.527 1.623 7346
5.312 2.591 1.661 3776
4.713 2.299 1.487 2543
5.023 2.450 1.577 778
5.268 2.569 1.630 7776
4.717 2.300 1.472 3455
5.137 2.505 1.592 1864
5.399 2.633 1.667 1587
5.279 2.574 1.615 7171
4.720 2.302 1.457 3086
5.410 2.638 1.652 1838
5.596 2.729 1.704 1010
5.345 2.607 1.615 7527
5.214 2.543 1.578 2476
4.724 2.304 1.442 2085
5.069 2.472 1.538 968
5.369 2.619 1.604 10214
5.217 2.545 1.562 1609
5.735 2.797 1.704 1176
5.072 2.474 1.522 1129
5.387 2.627 1.590 12170
5.629 2.745 1.656 1641
5.816 2.836 1.707 1332
5.069 2.472 1.504 931
5.391 2.629 1.573 14305
5.820 2.838 1.688 2437
5.640 2.751 1.639 2174
5.951 2.902 1.723 889
5.394 2.631 1.555 13650
5.824 2.840 1.669 3110
5.671 2.766 1.629 2175
5.955 2.904 1.704 1209
5.398 2.633 1.538 10836
5.814 2.835 1.647 2620
5.675 2.768 1.610 2368
5.952 2.903 1.683 1776
5.402 2.634 1.521 7657
5.956 2.905 1.664 2223
5.818 2.837 1.628 1979
6.088 2.969 1.698 1624
5.405 2.636 1.503 4871
5.933 2.893 1.637 2494
5.801 2.829 1.604 1518
6.106 2.978 1.682 1419
5.409 2.638 1.486 2884
5.936 2.895 1.618 1916
6.138 2.993 1.669 1761
6.304 3.075 1.711 1404
6.135 2.992 1.647 2227
6.308 3.077 1.690 1935
5.413 2.640 1.468 1355
5.940 2.897 1.599 1127
6.118 2.984 1.623 2144
6.312 3.079 1.670 1726
6.556 3.197 1.730 1252
5.958 2.906 1.583 851
6.567 3.203 1.710 2440
6.108 2.979 1.599 1700
6.414 3.128 1.673 1575
6.240 3.043 1.631 791
6.564 3.201 1.687 2514
6.418 3.130 1.653 1602
6.209 3.028 1.603 1017
6.561 3.200 1.664 2901
6.415 3.129 1.630 1255
6.255 3.050 1.593 917
6.693 3.264 1.695 751
6.565 3.202 1.643 3610
6.419 3.130 1.610 1657
6.265 3.056 1.574 756
6.569 3.204 1.622 2944
6.430 3.136 1.590 1182
6.952 3.391 1.709 1123
6.701 3.268 1.652 993
6.663 3.250 1.621 2727
6.970 3.399 1.690 1947
6.531 3.185 1.592 980
6.612 3.224 1.587 4023
7.002 3.415 1.674 2747
6.744 3.289 1.617 868
6.608 3.223 1.565 4443
7.006 3.417 1.651 4197
6.741 3.288 1.593 1548
7.488 3.652 1.756 899
7.003 3.416 1.627 3847
6.696 3.266 1.561 2980
7.492 3.654 1.732 2112
7.136 3.480 1.655 1131
7.497 3.656 1.708 2642
7.000 3.414 1.603 2215
6.700 3.267 1.540 1495
7.140 3.482 1.632 1332
7.480 3.648 1.679 2397
7.018 3.423 1.583 1932
7.746 3.777 1.734 1869
7.165 3.494 1.614 1026
7.750 3.780 1.709 2549
7.477 3.646 1.653 2535
7.015 3.421 1.559 2124
7.925 3.865 1.745 1324
7.754 3.782 1.684 3068
7.509 3.662 1.635 2223
7.929 3.867 1.719 1807
7.102 3.464 1.553 1695
7.758 3.783 1.659 3042
7.527 3.671 1.613 2537
7.947 3.876 1.696 2165
7.106 3.466 1.530 1398
7.762 3.785 1.634 3048
7.958 3.881 1.672 2750
7.530 3.673 1.589 2162
7.103 3.464 1.506 995
7.962 3.883 1.646 2477
7.808 3.808 1.617 2371
7.541 3.678 1.566 1666
8.095 3.948 1.672 1307
7.924 3.864 1.613 2675
8.057 3.929 1.638 1841
7.790 3.799 1.588 1695
7.531 3.673 1.539 1128
7.914 3.859 1.585 3037
7.780 3.794 1.560 2062
8.068 3.935 1.613 1430
7.896 3.851 1.555 2444
7.763 3.786 1.531 2242
8.079 3.940 1.588 1725
8.083 3.942 1.562 2617
7.773 3.791 1.507 2341
7.949 3.877 1.538 1788
8.638 4.213 1.660 840
8.093 3.947 1.537 3405
8.649 4.218 1.634 3116
7.777 3.793 1.482 2299
7.953 3.879 1.513 1996
8.653 4.220 1.606 5076
8.090 3.946 1.510 2417
7.781 3.795 1.457 1748
8.224 4.011 1.533 1621
8.657 4.222 1.578 4667
8.213 4.006 1.504 1796
8.080 3.940 1.481 1368
7.784 3.796 1.432 1175
8.667 4.227 1.551 3375
8.090 3.946 1.456 1289
8.224 4.011 1.478 1087
10.434 5.089 1.840 811
8.671 4.229 1.523 3815
8.093 3.947 1.430 944
10.516 5.129 1.819 840
8.667 4.227 1.494 5800
10.528 5.134 1.786 1419
8.671 4.229 1.466 6390
10.525 5.133 1.751 1764
10.764 5.250 1.788 965
8.674 4.231 1.438 6089
10.494 5.118 1.712 1531
10.755 5.245 1.751 1136
8.678 4.232 1.410 4972
10.477 5.109 1.675 1099
8.523 4.157 1.387 826
10.752 5.244 1.715 820
8.688 4.237 1.383 2781
10.784 5.259 1.685 1146
8.519 4.155 1.358 1093
11.229 5.476 1.749 908
10.781 5.258 1.649 1549
8.522 4.156 1.331 1242
8.691 4.239 1.355 1170
11.303 5.513 1.722 1044
10.778 5.256 1.613 1456
11.689 5.701 1.738 1210
8.525 4.158 1.303 1116
11.315 5.518 1.687 1012
10.789 5.262 1.579 1121
11.700 5.706 1.701 1088
11.304 5.513 1.648 945
11.732 5.722 1.667 1174
11.294 5.508 1.610 940
11.750 5.731 1.631 1045
11.270 5.496 1.570 1019
12.160 5.931 1.683 819
12.172 5.936 1.645 956
11.776 5.743 1.595 777
8.530 4.160 1.192 765
12.190 5.945 1.607 1203
8.539 4.165 1.166 994
8.542 4.166 1.138 1200
12.193 5.947 1.567 983
12.646 6.168 1.621 790
8.545 4.167 1.110 1118
12.197 5.949 1.528 806
12.201 5.950 1.489 891
8.540 4.165 1.082 865
12.477 6.085 1.519 789
8.528 4.159 1.053 884
12.211 5.955 1.450 826
8.524 4.157 1.025 992
8.519 4.155 0.996 913
8.521 4.156 0.969 864
8.520 4.155 0.775 875
8.522 4.156 0.747 982
8.516 4.153 0.719 794
8.532 4.161 0.527 800
8.541 4.165 0.500 823
8.534 4.162 0.472 761
2.084 1.006 1.759 4409
2.088 1.008 1.752 8818
2.199 1.062 1.840 818
2.093 1.010 1.746 8818
2.203 1.064 1.833 1637
2.103 1.015 1.744 6578
2.214 1.069 1.830 1462
2.165 1.045 1.782 7213
2.054 0.992 1.696 2441
2.170 1.048 1.775 5800
2.058 0.994 1.690 1487
2.139 1.033 1.742 4906
2.250 1.086 1.827 941
2.143 1.035 1.735 4906
2.255 1.089 1.820 941
2.206 1.065 1.773 5696
2.094 1.011 1.688 920
2.210 1.067 1.766 6805
2.322 1.121 1.850 991
2.098 1.013 1.681 972
2.226 1.075 1.767 7340
2.114 1.021 1.683 1383
2.237 1.080 1.765 8634
2.124 1.026 1.681 1541
2.259 1.091 1.771 7158
2.146 1.036 1.687 2013
2.281 1.101 1.777 7445
2.168 1.047 1.694 1833
2.285 1.103 1.770 7445
2.172 1.049 1.687 1202
2.398 1.158 1.852 776
2.289 1.105 1.762 7139
2.403 1.160 1.844 908
2.294 1.107 1.755 6766
2.407 1.162 1.837 1002
2.292 1.107 1.743 6305
2.406 1.162 1.825 937
2.290 1.106 1.732 5902
2.428 1.172 1.830 918
2.300 1.111 1.729 4792
2.433 1.174 1.822 1085
2.341 1.130 1.747 4381
2.467 1.191 1.836 1359
2.226 1.075 1.667 827
2.345 1.132 1.740 3678
2.478 1.196 1.832 1745
2.355 1.137 1.736 3044
2.482 1.198 1.824 2150
2.450 1.183 1.791 3675
2.335 1.127 1.712 2667
2.455 1.185 1.784 5331
2.339 1.129 1.705 2508
2.465 1.190 1.780 5753
2.349 1.134 1.701 2222
2.475 1.195 1.776 6387
2.360 1.139 1.698 2149
2.474 1.194 1.764 5477
2.358 1.138 1.686 1956
2.466 1.190 1.748 5213
2.349 1.134 1.671 1273
2.582 1.246 1.826 972
2.507 1.210 1.765 5643
2.390 1.154 1.688 2529
2.623 1.266 1.842 843
2.511 1.212 1.757 7091
2.394 1.156 1.680 1741
2.627 1.268 1.833 1360
2.521 1.217 1.753 8181
2.638 1.274 1.829 2267
2.404 1.161 1.676 1122
2.525 1.219 1.745 9338
2.642 1.276 1.821 3415
2.536 1.224 1.741 8770
2.653 1.281 1.816 3100
2.540 1.226 1.733 8436
2.657 1.283 1.808 3487
2.544 1.228 1.725 5787
2.662 1.285 1.799 3032
2.654 1.281 1.783 3092
2.536 1.224 1.709 2973
2.664 1.286 1.778 3050
2.534 1.223 1.697 2811
2.668 1.288 1.770 4071
2.544 1.228 1.692 2261
2.667 1.287 1.758 5095
2.548 1.230 1.684 1722
2.785 1.345 1.831 1272
2.746 1.326 1.795 4825
2.627 1.268 1.722 3171
2.750 1.328 1.786 5100
2.631 1.270 1.714 3242
2.748 1.327 1.774 5714
2.629 1.269 1.702 2818
2.867 1.384 1.846 907
2.752 1.329 1.765 5254
2.633 1.271 1.693 2206
2.871 1.386 1.837 1168
2.807 1.355 1.786 6391
2.688 1.298 1.715 2405
2.805 1.354 1.774 7722
2.685 1.296 1.703 1837
2.809 1.356 1.765 8267
2.689 1.298 1.694 1373
2.820 1.361 1.759 7216
2.700 1.303 1.689 1272
2.940 1.419 1.830 831
2.862 1.382 1.772 4926
2.742 1.324 1.703 1608
2.898 1.399 1.782 5053
2.778 1.341 1.712 1672
2.877 1.389 1.758 5041
2.756 1.331 1.689 834
2.875 1.388 1.745 6391
2.995 1.446 1.814 878
2.873 1.387 1.732 6668
2.993 1.445 1.800 1644
2.877 1.389 1.723 6492
3.023 1.460 1.805 2429
2.894 1.397 1.721 6023
3.034 1.465 1.799 3353
2.898 1.399 1.712 4521
3.045 1.470 1.793 3989
3.055 1.475 1.787 4606
2.915 1.407 1.710 3722
2.951 1.425 1.718 4984
3.072 1.483 1.784 4275
2.829 1.366 1.652 1043
2.961 1.430 1.712 6899
3.083 1.489 1.778 5461
2.840 1.371 1.646 991
3.081 1.487 1.764 11490
2.959 1.429 1.699 6039
2.837 1.370 1.633 884
3.092 1.493 1.758 16861
2.970 1.434 1.693 4972
3.096 1.495 1.748 18171
2.974 1.436 1.683 4100
3.107 1.500 1.742 18752
2.984 1.441 1.677 3689
3.229 1.559 1.806 820
3.111 1.502 1.732 24912
2.988 1.443 1.668 3282
3.233 1.561 1.795 1337
3.115 1.504 1.722 28865
2.992 1.445 1.658 3588
3.238 1.563 1.785 1862
3.119 1.506 1.712 28472
2.996 1.447 1.649 3776
3.242 1.565 1.775 1816
3.123 1.508 1.702 26766
3.000 1.448 1.639 3684
3.246 1.567 1.764 1739
3.121 1.507 1.689 22986
2.998 1.447 1.626 3083
3.290 1.588 1.774 2665
3.125 1.509 1.679 16758
3.287 1.587 1.760 3687
3.001 1.449 1.617 2388
3.129 1.511 1.669 12828
3.292 1.589 1.749 4485
3.005 1.451 1.607 1986
3.133 1.513 1.659 11299
3.296 1.591 1.739 5523
3.009 1.453 1.598 1565
3.420 1.651 1.800 1140
3.137 1.514 1.649 7721
3.307 1.596 1.732 5931
3.431 1.656 1.792 1610
3.013 1.455 1.588 857
3.311 1.598 1.721 6592
3.187 1.538 1.661 4571
3.435 1.658 1.781 2235
3.315 1.600 1.710 6696
3.439 1.660 1.770 2721
3.191 1.540 1.651 2443
3.326 1.606 1.703 6265
3.450 1.666 1.762 3730
3.201 1.545 1.644 1949
3.330 1.608 1.692 4832
3.454 1.668 1.751 4614
3.205 1.547 1.633 1668
3.478 1.679 1.750 4860
3.340 1.613 1.685 2720
3.216 1.552 1.626 1454
3.482 1.681 1.738 5067
3.331 1.608 1.668 1507
3.206 1.548 1.610 1052
3.480 1.680 1.724 4424
3.605 1.741 1.782 1690
3.322 1.604 1.651 1259
3.497 1.688 1.719 5075
3.623 1.749 1.777 2088
3.372 1.628 1.662 1070
3.508 1.694 1.711 6502
3.633 1.754 1.768 2381
3.383 1.633 1.654 1055
3.525 1.702 1.706 5994
3.651 1.763 1.762 2551
3.380 1.632 1.640 812
3.530 1.704 1.694 4688
3.662 1.768 1.754 2830
3.580 1.728 1.704 5510
3.706 1.789 1.760 2415
3.454 1.668 1.648 830
3.584 1.730 1.692 6652
3.710 1.791 1.748 3116
3.458 1.670 1.637 839
3.595 1.736 1.684 6212
3.727 1.800 1.742 2968
3.599 1.737 1.672 4702
3.725 1.798 1.727 2805
3.703 1.788 1.703 4749
3.576 1.727 1.649 1950
3.829 1.849 1.758 878
3.713 1.793 1.694 4664
3.840 1.854 1.748 1344
3.587 1.732 1.641 1240
3.777 1.824 1.708 4360
3.904 1.885 1.761 1195
3.651 1.763 1.654 1100
3.795 1.832 1.701 4787
3.922 1.893 1.754 1928
3.668 1.771 1.648 896
3.819 1.844 1.697 5227
3.946 1.905 1.750 2135
3.692 1.783 1.645 1306
3.843 1.855 1.693 4445
3.970 1.917 1.745 2287
3.716 1.794 1.641 1956
3.867 1.867 1.689 5112
3.995 1.929 1.741 3170
3.740 1.806 1.638 2412
3.885 1.876 1.682 5585
4.012 1.937 1.734 3065
3.757 1.814 1.631 1762
3.909 1.887 1.678 4648
4.036 1.949 1.729 1131
3.761 1.816 1.619 1012
3.920 1.892 1.668 3059
4.047 1.954 1.718 1118
4.004 1.933 1.687 3485
4.179 2.018 1.755 2094
3.877 1.872 1.637 1787
4.008 1.935 1.674 6338
4.177 2.016 1.739 3144
3.881 1.874 1.625 1576
4.019 1.940 1.664 6126
4.181 2.019 1.726 2798
3.891 1.879 1.615 1398
4.043 1.952 1.659 5500
4.192 2.024 1.715 2999
3.915 1.890 1.610 1540
4.047 1.954 1.646 4089
4.196 2.026 1.702 3503
4.214 2.034 1.693 2812
4.045 1.953 1.630 2660
4.258 2.056 1.695 4190
4.082 1.971 1.630 2049
4.255 2.055 1.679 5289
4.093 1.976 1.619 2119
4.253 2.053 1.663 6014
4.104 1.981 1.609 1554
4.415 2.132 1.722 1171
4.263 2.058 1.651 6335
4.420 2.134 1.707 1959
4.281 2.067 1.643 4619
4.424 2.136 1.693 2752
4.428 2.138 1.679 3757
4.258 2.056 1.619 2416
4.564 2.203 1.727 889
4.425 2.136 1.663 5308
4.248 2.051 1.601 1869
4.581 2.212 1.717 1482
4.429 2.138 1.648 4901
4.279 2.066 1.597 1976
4.586 2.214 1.702 1704
4.446 2.147 1.639 5087
4.590 2.216 1.688 2714
4.303 2.078 1.590 1450
4.444 2.145 1.622 6344
4.607 2.224 1.678 4607
4.611 2.226 1.663 6711
4.447 2.147 1.608 5814
4.762 2.299 1.713 1777
4.602 2.222 1.643 6902
4.458 2.152 1.596 3527
4.759 2.298 1.695 2185
4.612 2.227 1.631 4887
4.763 2.299 1.680 1976
4.455 2.151 1.579 1912
4.616 2.229 1.616 3665
4.781 2.308 1.669 2575
4.466 2.156 1.567 1492
4.911 2.371 1.711 842
4.785 2.310 1.654 3148
4.613 2.227 1.599 2552
4.915 2.373 1.696 1179
4.795 2.315 1.641 2530
4.610 2.226 1.582 1766
4.926 2.378 1.682 1272
4.861 2.347 1.645 2384
4.991 2.410 1.685 1801
4.635 2.238 1.574 1451
4.975 2.402 1.663 2884
4.844 2.339 1.623 1939
5.167 2.495 1.723 1568
4.652 2.246 1.563 1184
4.972 2.400 1.645 3262
5.171 2.497 1.706 3156
4.841 2.337 1.605 1170
5.169 2.495 1.687 4648
4.983 2.406 1.631 3789
4.721 2.280 1.552 1032
5.354 2.585 1.743 855
5.173 2.497 1.671 5740
5.001 2.414 1.619 2826
4.718 2.278 1.535 1409
5.358 2.587 1.726 1315
5.177 2.499 1.654 6038
5.011 2.419 1.605 2490
4.715 2.276 1.518 1693
5.363 2.589 1.709 1494
5.181 2.501 1.637 7571
5.312 2.564 1.676 1992
4.719 2.278 1.502 1943
5.001 2.415 1.585 1857
5.191 2.506 1.623 7691
4.722 2.280 1.487 4091
5.323 2.570 1.661 3126
4.984 2.406 1.563 1041
5.271 2.545 1.628 7328
4.726 2.282 1.472 5297
5.140 2.482 1.590 1782
5.402 2.608 1.665 1501
5.289 2.553 1.615 7466
4.729 2.283 1.457 4112
5.420 2.617 1.652 1578
5.158 2.490 1.578 932
5.334 2.575 1.609 5922
4.726 2.282 1.440 2466
5.203 2.512 1.573 2272
5.380 2.597 1.604 9276
5.248 2.534 1.567 2357
4.729 2.283 1.425 933
5.733 2.768 1.701 897
5.397 2.606 1.590 15398
5.834 2.816 1.708 1331
5.640 2.723 1.656 1215
5.266 2.542 1.554 1117
5.401 2.608 1.573 18799
5.838 2.818 1.690 2543
5.644 2.725 1.638 1801
5.969 2.882 1.725 957
5.405 2.609 1.555 16276
5.835 2.817 1.669 3357
5.682 2.743 1.629 2005
5.967 2.881 1.704 1028
5.409 2.611 1.538 12551
5.832 2.816 1.648 2812
5.686 2.745 1.610 2257
5.964 2.879 1.683 1248
5.412 2.613 1.521 9311
5.919 2.858 1.651 2498
6.100 2.945 1.698 1764
5.683 2.744 1.590 1221
5.416 2.615 1.503 6392
5.937 2.866 1.636 2934
6.118 2.954 1.682 1374
5.805 2.803 1.602 1234
5.419 2.616 1.486 3807
5.948 2.872 1.618 2348
6.150 2.969 1.669 1683
6.323 3.053 1.712 1387
6.154 2.971 1.649 2111
5.423 2.618 1.468 1804
6.328 3.055 1.692 1637
5.952 2.874 1.599 1357
6.137 2.963 1.624 2232
6.325 3.054 1.670 1553
5.426 2.620 1.451 1127
6.645 3.208 1.748 1063
6.134 2.961 1.603 2153
6.580 3.177 1.710 2086
6.419 3.099 1.672 1698
6.287 3.035 1.640 1260
6.660 3.216 1.707 2174
6.430 3.104 1.653 1616
6.221 3.004 1.603 1347
6.657 3.214 1.684 2758
6.399 3.090 1.624 1238
6.225 3.005 1.583 860
6.578 3.176 1.643 2926
6.445 3.112 1.613 1547
6.710 3.240 1.674 798
6.672 3.221 1.643 2844
6.540 3.157 1.613 1438
6.966 3.363 1.709 1216
6.400 3.090 1.581 1017
6.683 3.227 1.623 3887
6.991 3.375 1.692 2450
6.551 3.163 1.593 1177
6.830 3.298 1.656 911
6.687 3.229 1.601 4618
7.016 3.387 1.674 3659
6.554 3.164 1.572 821
7.020 3.389 1.651 5280
6.698 3.234 1.581 3443
7.496 3.619 1.754 934
6.565 3.170 1.552 778
7.017 3.388 1.627 4853
7.500 3.621 1.730 2118
6.709 3.239 1.561 2052
7.241 3.496 1.675 888
7.021 3.390 1.604 2944
7.490 3.616 1.703 2675
6.698 3.234 1.537 1485
7.749 3.741 1.758 1321
7.480 3.611 1.676 2457
7.025 3.391 1.582 2177
7.795 3.764 1.741 1763
7.312 3.530 1.641 1344
7.491 3.617 1.653 2757
7.807 3.769 1.718 2184
7.035 3.397 1.561 2034
7.947 3.837 1.746 1990
7.523 3.632 1.635 2831
7.951 3.839 1.721 2551
7.769 3.751 1.684 2229
7.207 3.480 1.572 1564
7.548 3.644 1.615 3276
7.955 3.841 1.695 2788
7.766 3.749 1.658 2725
7.211 3.482 1.548 1163
7.966 3.846 1.671 3291
7.777 3.755 1.634 3166
7.538 3.639 1.588 2120
8.100 3.911 1.696 1069
7.977 3.851 1.646 3021
7.788 3.760 1.610 2711
7.535 3.638 1.562 1644
8.111 3.916 1.672 1596
7.974 3.850 1.619 3256
7.841 3.785 1.594 2109
8.108 3.914 1.644 1455
7.538 3.639 1.538 1372
7.971 3.848 1.592 4006
7.802 3.767 1.561 2252
8.105 3.913 1.617 1442
7.996 3.860 1.570 3362
7.792 3.762 1.534 2164
8.130 3.925 1.594 1403
8.091 3.906 1.561 3162
7.781 3.757 1.506 1644
7.957 3.842 1.537 1576
8.654 4.178 1.660 1484
8.658 4.180 1.632 4720
8.102 3.912 1.536 3626
7.968 3.847 1.513 1973
8.236 3.976 1.559 1337
8.669 4.186 1.606 7393
8.106 3.913 1.510 2434
8.240 3.978 1.533 1850
7.965 3.845 1.486 1679
8.673 4.187 1.578 6774
8.222 3.970 1.503 2393
8.088 3.905 1.480 1291
10.020 4.838 1.802 1154
8.684 4.193 1.551 4943
8.233 3.975 1.477 1813
8.099 3.910 1.455 1412
10.024 4.840 1.770 1281
8.688 4.194 1.523 5596
8.229 3.973 1.449 1082
8.095 3.908 1.428 992
10.028 4.842 1.738 981
8.684 4.193 1.494 8374
10.548 5.092 1.786 1411
8.688 4.194 1.466 9153
10.552 5.095 1.752 1573
10.778 5.204 1.787 845
11.054 5.337 1.829 787
8.691 4.196 1.438 8730
10.528 5.083 1.714 1106
10.818 5.223 1.757 871
11.065 5.342 1.795 839
8.695 4.198 1.410 7224
8.698 4.199 1.382 4170
11.250 5.432 1.749 1298
10.798 5.213 1.684 1112
8.708 4.204 1.355 1800
11.262 5.437 1.713 1429
10.802 5.215 1.649 1322
11.714 5.656 1.777 1014
11.718 5.658 1.739 1262
11.259 5.436 1.676 1227
10.806 5.217 1.614 1185
11.039 5.330 1.646 930
11.730 5.663 1.702 1221
11.312 5.461 1.646 989
10.810 5.219 1.579 972
8.545 4.125 1.276 845
11.755 5.675 1.667 1357
11.358 5.484 1.615 919
12.180 5.880 1.722 796
11.759 5.677 1.629 1163
12.184 5.882 1.683 1014
11.384 5.496 1.581 907
12.202 5.891 1.645 1085
11.805 5.700 1.596 803
8.539 4.123 1.191 761
12.213 5.896 1.607 1308
8.542 4.124 1.164 813
12.217 5.898 1.567 1068
12.228 5.903 1.529 862
12.231 5.905 1.489 952
12.235 5.907 1.450 907
8.542 4.124 0.914 776
2.087 1.000 1.759 5790
2.092 1.002 1.752 11581
2.096 1.004 1.746 11581
2.206 1.057 1.833 1264
2.094 1.003 1.734 9191
2.205 1.056 1.821 1991
2.163 1.036 1.778 7154
2.052 0.983 1.691 3000
2.138 1.024 1.748 5863
2.026 0.971 1.662 1092
2.255 1.080 1.839 876
2.142 1.026 1.742 5363
2.259 1.082 1.832 993
2.030 0.973 1.656 891
2.146 1.028 1.735 5363
2.264 1.085 1.824 993
2.034 0.975 1.650 803
2.215 1.061 1.777 5095
2.103 1.008 1.692 2554
2.220 1.063 1.770 6593
2.095 1.004 1.677 2397
2.332 1.117 1.854 770
2.230 1.068 1.767 7261
2.117 1.014 1.683 2286
2.246 1.076 1.769 8469
2.133 1.022 1.685 2722
2.262 1.084 1.771 6971
2.149 1.030 1.687 2421
2.375 1.138 1.854 908
2.278 1.091 1.772 6881
2.165 1.037 1.689 1874
2.391 1.146 1.855 858
2.283 1.093 1.765 6881
2.169 1.039 1.683 1529
2.396 1.148 1.848 886
2.293 1.098 1.762 6258
2.179 1.044 1.680 1237
2.406 1.153 1.844 838
2.297 1.100 1.755 5712
2.183 1.046 1.673 1239
2.411 1.155 1.837 899
2.289 1.097 1.739 5599
2.403 1.151 1.821 1001
2.175 1.042 1.658 820
2.287 1.096 1.728 5830
2.402 1.151 1.809 979
2.298 1.101 1.725 4804
2.448 1.173 1.831 1226
2.344 1.123 1.747 4040
2.459 1.178 1.827 1734
2.354 1.128 1.744 3355
2.475 1.186 1.828 2280
2.480 1.188 1.820 2872
2.365 1.133 1.740 2858
2.460 1.178 1.796 3723
2.345 1.123 1.716 2101
2.458 1.178 1.784 5248
2.343 1.122 1.705 1845
2.469 1.183 1.780 6260
2.353 1.127 1.701 1612
2.473 1.185 1.772 7280
2.357 1.129 1.694 1214
2.589 1.240 1.850 885
2.465 1.181 1.756 6682
2.581 1.236 1.834 1171
2.469 1.183 1.748 6610
2.585 1.239 1.826 1345
2.510 1.203 1.765 6443
2.394 1.147 1.688 1225
2.627 1.258 1.842 875
2.514 1.205 1.757 7864
2.631 1.261 1.833 1283
2.525 1.210 1.753 8352
2.642 1.266 1.829 2039
2.529 1.212 1.745 8880
2.646 1.268 1.821 3084
2.533 1.214 1.737 8328
2.651 1.270 1.812 3415
2.544 1.219 1.733 7917
2.661 1.275 1.808 2991
2.548 1.221 1.725 5525
2.666 1.277 1.799 2559
2.540 1.217 1.709 2974
2.658 1.273 1.783 2610
2.544 1.219 1.701 2733
2.668 1.278 1.778 2681
2.672 1.280 1.770 3836
2.548 1.221 1.692 2051
2.791 1.337 1.844 757
2.670 1.279 1.758 4829
2.789 1.336 1.831 1437
2.552 1.223 1.684 1368
2.737 1.311 1.787 4737
2.618 1.254 1.715 3001
2.741 1.313 1.779 5753
2.623 1.256 1.706 3017
2.746 1.315 1.770 6312
2.627 1.258 1.698 3088
2.865 1.372 1.842 1111
2.744 1.314 1.757 5362
2.625 1.257 1.686 2092
2.863 1.372 1.829 1663
2.811 1.347 1.786 4556
2.666 1.277 1.700 2652
2.809 1.346 1.774 6184
2.689 1.288 1.703 1983
2.929 1.403 1.845 830
2.813 1.348 1.765 7037
2.693 1.290 1.694 1496
2.933 1.405 1.835 998
2.824 1.353 1.759 6042
2.704 1.295 1.689 1346
2.944 1.410 1.830 1152
2.898 1.388 1.791 4651
2.777 1.331 1.721 2740
2.902 1.390 1.782 5030
2.782 1.333 1.712 1663
2.906 1.392 1.772 4376
2.786 1.335 1.703 1414
2.879 1.379 1.745 4762
2.883 1.381 1.736 4600
3.004 1.439 1.804 993
2.881 1.380 1.723 4704
3.027 1.450 1.805 2560
2.911 1.394 1.728 4626
3.032 1.452 1.796 3810
2.789 1.336 1.661 907
3.043 1.458 1.789 4672
2.915 1.396 1.719 3457
2.793 1.338 1.652 965
3.066 1.469 1.790 4972
2.944 1.411 1.724 2835
2.823 1.352 1.657 785
2.961 1.419 1.721 5372
3.083 1.477 1.787 4618
2.972 1.424 1.715 7224
3.094 1.482 1.781 6346
3.085 1.478 1.764 15178
2.963 1.420 1.699 5824
3.096 1.483 1.758 21547
2.974 1.425 1.693 4735
3.100 1.485 1.748 22453
2.978 1.427 1.683 4060
3.236 1.550 1.819 766
3.111 1.490 1.742 23372
2.988 1.432 1.677 3848
3.234 1.549 1.806 950
3.115 1.492 1.732 31217
2.992 1.434 1.668 2503
3.238 1.551 1.795 1418
3.120 1.494 1.722 36086
3.243 1.553 1.785 1922
2.997 1.436 1.658 1551
3.124 1.496 1.712 35241
3.247 1.555 1.775 1831
3.000 1.437 1.649 1479
3.128 1.498 1.702 32427
3.251 1.558 1.764 1693
3.004 1.439 1.639 1369
3.125 1.497 1.689 27134
3.249 1.556 1.751 2478
2.995 1.435 1.623 1197
3.129 1.499 1.679 19566
3.292 1.577 1.760 3039
3.006 1.440 1.617 947
3.133 1.501 1.669 14853
3.296 1.579 1.749 4036
3.010 1.442 1.607 862
3.138 1.503 1.659 13244
3.301 1.581 1.739 5238
3.014 1.444 1.598 1070
3.425 1.641 1.800 972
3.141 1.505 1.649 9239
3.311 1.586 1.732 5626
3.017 1.446 1.588 1103
3.436 1.646 1.792 1096
3.217 1.541 1.673 7426
3.342 1.601 1.734 5374
3.466 1.660 1.794 1194
3.093 1.482 1.613 756
3.326 1.594 1.714 6894
3.202 1.534 1.654 3585
3.451 1.653 1.773 2221
3.330 1.595 1.703 6820
3.455 1.655 1.762 3289
3.206 1.536 1.644 2136
3.335 1.597 1.692 5604
3.459 1.657 1.751 4258
3.210 1.538 1.633 1857
3.483 1.669 1.750 4775
3.345 1.603 1.685 3063
3.220 1.543 1.626 1702
3.487 1.671 1.738 4740
3.323 1.592 1.662 1591
3.198 1.532 1.604 875
3.498 1.676 1.730 3961
3.623 1.736 1.788 1408
3.327 1.594 1.651 1314
3.502 1.678 1.719 4557
3.628 1.738 1.777 2252
3.377 1.618 1.662 801
3.520 1.686 1.714 5855
3.645 1.746 1.771 2564
3.388 1.623 1.654 987
3.531 1.691 1.706 5601
3.656 1.752 1.762 2999
3.385 1.622 1.640 954
3.535 1.693 1.694 4722
3.667 1.757 1.754 2738
3.585 1.718 1.704 5940
3.711 1.778 1.760 2016
3.589 1.720 1.692 6575
3.715 1.780 1.748 2437
3.600 1.725 1.684 5586
3.733 1.788 1.742 2992
3.611 1.730 1.675 4462
3.737 1.790 1.730 2643
3.715 1.780 1.706 3855
3.588 1.719 1.652 2266
3.719 1.782 1.694 3665
3.592 1.721 1.641 1148
3.845 1.842 1.748 1142
3.776 1.809 1.705 3935
3.903 1.870 1.758 1499
3.649 1.748 1.652 955
3.800 1.821 1.701 4297
3.927 1.881 1.754 2099
3.673 1.760 1.648 1166
3.825 1.832 1.697 4899
3.952 1.893 1.750 2494
3.697 1.771 1.645 1490
3.849 1.844 1.693 4165
3.976 1.905 1.745 2364
3.721 1.783 1.641 2009
3.880 1.859 1.692 5300
4.007 1.920 1.744 3098
3.752 1.798 1.640 2643
3.890 1.864 1.682 5659
4.018 1.925 1.734 3676
3.763 1.803 1.631 1826
3.908 1.872 1.675 4438
4.036 1.933 1.726 1580
3.780 1.811 1.624 1277
3.972 1.903 1.687 3485
3.845 1.842 1.636 1500
4.188 2.006 1.772 1059
4.003 1.918 1.684 3325
4.185 2.005 1.755 2438
3.876 1.857 1.634 1608
4.014 1.923 1.674 5280
4.190 2.007 1.742 3564
3.886 1.862 1.625 1080
4.025 1.928 1.664 5152
4.200 2.012 1.731 3068
3.897 1.867 1.615 995
4.056 1.943 1.661 5143
4.205 2.014 1.718 3130
3.928 1.882 1.613 1361
4.053 1.942 1.646 3823
4.202 2.013 1.702 3716
4.206 2.015 1.688 2737
4.050 1.940 1.630 2191
4.271 2.046 1.697 3959
4.115 1.972 1.640 2159
4.262 2.042 1.679 4707
4.106 1.967 1.622 1989
4.266 2.044 1.665 5040
4.110 1.969 1.609 1256
4.395 2.105 1.712 1088
4.270 2.045 1.651 5424
4.419 2.117 1.705 2014
4.287 2.054 1.643 3958
4.437 2.126 1.696 3338
4.448 2.131 1.684 4558
4.298 2.059 1.631 2385
4.452 2.133 1.670 5732
4.316 2.067 1.622 2179
4.595 2.201 1.719 1130
4.449 2.131 1.653 4934
4.319 2.069 1.608 3241
4.592 2.200 1.702 1186
4.460 2.137 1.641 6170
4.310 2.065 1.590 2100
4.596 2.202 1.688 1642
4.457 2.135 1.625 7791
4.621 2.214 1.680 3093
4.454 2.134 1.608 6768
4.618 2.212 1.663 4861
4.762 2.281 1.711 1613
4.615 2.211 1.646 5212
4.465 2.139 1.596 3829
4.766 2.283 1.695 2286
4.619 2.213 1.631 3703
4.770 2.285 1.680 2570
4.468 2.141 1.582 1734
4.781 2.290 1.667 3056
4.623 2.215 1.616 2570
4.472 2.143 1.567 1528
4.911 2.353 1.709 976
4.792 2.295 1.654 3331
4.627 2.217 1.601 1953
4.922 2.358 1.696 1115
4.802 2.301 1.641 2309
4.624 2.215 1.584 1302
4.933 2.363 1.682 1064
4.882 2.339 1.649 2439
5.012 2.401 1.690 1427
4.635 2.220 1.572 823
4.975 2.384 1.661 3145
4.845 2.321 1.621 1905
5.168 2.476 1.720 1460
4.966 2.379 1.641 3458
5.179 2.481 1.706 2804
4.835 2.316 1.601 1096
5.183 2.483 1.689 4145
4.969 2.381 1.625 3159
4.735 2.269 1.554 1620
5.369 2.572 1.746 873
5.180 2.482 1.671 5470
5.001 2.396 1.617 2716
4.732 2.267 1.537 2412
5.366 2.571 1.726 1291
5.184 2.484 1.654 5883
4.729 2.265 1.520 3213
5.012 2.401 1.603 2558
5.364 2.570 1.707 1759
5.188 2.485 1.637 6822
4.726 2.264 1.502 3205
5.361 2.568 1.688 2272
5.016 2.403 1.587 1681
5.199 2.491 1.623 6560
4.729 2.266 1.487 4745
5.351 2.564 1.667 2664
4.999 2.395 1.565 1038
5.279 2.529 1.628 5845
4.733 2.267 1.472 5315
5.410 2.592 1.665 1686
5.148 2.466 1.590 1556
5.290 2.534 1.613 6247
4.736 2.269 1.457 3620
5.421 2.597 1.650 1730
5.158 2.471 1.576 779
5.307 2.543 1.600 4804
4.740 2.271 1.442 2361
5.439 2.606 1.636 1813
5.176 2.480 1.563 975
5.394 2.584 1.605 7031
5.263 2.521 1.569 2436
4.750 2.276 1.429 1234
5.405 2.589 1.590 15502
5.842 2.799 1.708 1258
5.273 2.526 1.554 1185
5.641 2.702 1.654 822
5.409 2.591 1.573 19857
5.846 2.801 1.690 2335
5.645 2.704 1.636 1255
5.978 2.864 1.725 1024
5.413 2.593 1.555 15905
5.843 2.799 1.669 3107
5.691 2.726 1.629 1439
5.975 2.863 1.704 931
5.410 2.592 1.536 11693
5.840 2.798 1.648 2619
5.694 2.728 1.610 1607
5.972 2.861 1.683 1049
5.413 2.593 1.519 8774
5.935 2.843 1.653 2501
6.109 2.926 1.698 1433
5.803 2.780 1.619 1317
5.424 2.598 1.503 6310
5.946 2.848 1.636 2860
5.813 2.785 1.602 1199
6.127 2.935 1.682 1125
5.427 2.600 1.486 3746
5.950 2.850 1.617 2327
6.159 2.950 1.669 1374
6.340 3.037 1.714 1347
5.431 2.602 1.468 1692
6.163 2.952 1.649 1692
5.960 2.855 1.599 1258
6.351 3.042 1.696 1248
6.153 2.948 1.626 2283
6.285 3.011 1.658 1736
6.418 3.074 1.690 1075
5.434 2.603 1.451 1044
6.149 2.946 1.604 2673
6.289 3.013 1.638 1994
6.436 3.083 1.673 1798
6.589 3.157 1.710 1543
6.670 3.195 1.707 1983
6.447 3.088 1.654 1718
6.153 2.948 1.585 1689
6.314 3.025 1.623 1292
6.667 3.194 1.684 2513
6.374 3.053 1.616 1483
6.506 3.117 1.647 1324
6.234 2.987 1.583 1021
6.671 3.196 1.663 2747
6.489 3.109 1.621 1949
6.357 3.045 1.590 1156
6.675 3.198 1.641 3361
6.500 3.114 1.601 1736
6.976 3.342 1.709 1079
6.367 3.050 1.571 1077
6.686 3.203 1.621 4084
7.001 3.354 1.692 2655
6.518 3.123 1.584 1411
6.847 3.280 1.657 1167
7.026 3.366 1.674 4366
6.697 3.208 1.601 4314
6.837 3.275 1.632 975
6.550 3.138 1.569 948
