2.618 0.586 1.747 2284
2.742 0.613 1.813 10261
2.616 0.585 1.735 1311
2.747 0.614 1.805 10239
2.621 0.586 1.727 1346
2.751 0.615 1.797 10217
2.625 0.587 1.720 1381
2.763 0.618 1.793 8282
2.637 0.590 1.716 1198
2.787 0.623 1.797 6536
2.661 0.595 1.720 945
2.792 0.624 1.789 7064
2.797 0.626 1.781 7593
2.801 0.627 1.772 6275
2.928 0.655 1.848 1113
2.853 0.638 1.792 5990
2.726 0.610 1.717 1535
2.837 0.635 1.772 6532
2.965 0.663 1.846 927
2.710 0.606 1.697 820
2.842 0.636 1.763 8006
2.970 0.664 1.838 1241
2.681 0.600 1.669 828
2.853 0.638 1.759 9136
2.981 0.667 1.833 1316
2.685 0.601 1.662 872
2.872 0.642 1.758 8362
3.000 0.671 1.832 1376
2.917 0.652 1.773 7250
3.045 0.681 1.846 1291
2.788 0.624 1.700 840
2.921 0.653 1.764 5402
3.050 0.682 1.837 1295
2.980 0.667 1.786 5831
2.851 0.638 1.714 3430
2.992 0.669 1.781 6462
2.863 0.640 1.709 3767
3.003 0.672 1.776 7469
2.874 0.643 1.705 3241
2.987 0.668 1.756 8082
2.858 0.639 1.685 1129
3.117 0.697 1.828 804
2.999 0.671 1.751 8492
3.128 0.700 1.822 1247
2.869 0.642 1.680 1106
3.017 0.675 1.750 9364
3.147 0.704 1.820 1064
2.887 0.646 1.679 802
3.056 0.683 1.759 8558
2.926 0.654 1.689 985
3.067 0.686 1.754 9063
3.197 0.715 1.824 1055
3.072 0.687 1.745 7878
3.202 0.716 1.814 1441
3.083 0.690 1.740 11420
3.214 0.719 1.809 2004
3.088 0.691 1.731 14399
3.218 0.720 1.799 2793
3.092 0.692 1.722 13695
3.223 0.721 1.790 3066
3.097 0.693 1.712 9246
3.228 0.722 1.780 3582
3.212 0.718 1.760 5251
3.080 0.689 1.693 3693
3.209 0.718 1.747 4968
3.078 0.688 1.680 2875
3.214 0.719 1.738 9167
3.082 0.689 1.671 3132
3.232 0.723 1.735 14825
3.101 0.693 1.669 4187
3.237 0.724 1.726 17039
3.105 0.694 1.660 4182
3.383 0.757 1.798 902
3.241 0.725 1.716 14062
3.109 0.695 1.651 3045
3.374 0.755 1.782 1309
3.246 0.726 1.707 8308
3.378 0.756 1.772 2865
3.114 0.696 1.642 1726
3.341 0.747 1.741 8183
3.208 0.718 1.677 6045
3.346 0.748 1.731 10083
3.213 0.719 1.667 6621
3.252 0.727 1.674 10534
3.385 0.757 1.738 5617
3.119 0.698 1.611 1238
3.264 0.730 1.668 11770
3.397 0.760 1.732 4333
3.130 0.700 1.605 1482
3.544 0.793 1.802 832
3.268 0.731 1.659 11302
3.401 0.761 1.722 5016
3.135 0.701 1.596 1279
3.279 0.733 1.652 10475
3.413 0.763 1.715 5372
3.146 0.704 1.590 1080
3.284 0.734 1.643 7970
3.417 0.764 1.705 5026
3.379 0.756 1.675 5518
3.513 0.786 1.737 2112
3.246 0.726 1.613 1699
3.377 0.755 1.662 5248
3.511 0.785 1.724 2485
3.243 0.725 1.601 804
3.395 0.759 1.659 5033
3.529 0.789 1.720 2174
3.261 0.729 1.598 1040
3.428 0.767 1.661 6781
3.562 0.797 1.722 2285
3.293 0.737 1.601 755
3.517 0.787 1.689 6365
3.382 0.757 1.629 2466
3.557 0.796 1.695 7465
3.422 0.765 1.635 2604
3.691 0.826 1.755 917
3.590 0.803 1.697 7641
3.455 0.773 1.637 2847
3.724 0.833 1.756 1091
3.615 0.809 1.695 9075
3.480 0.778 1.636 2359
3.750 0.839 1.754 1557
3.620 0.810 1.685 8655
3.755 0.840 1.743 2522
3.485 0.779 1.626 1537
3.688 0.825 1.702 12165
3.553 0.795 1.643 6431
3.824 0.855 1.760 2687
3.693 0.826 1.691 17166
3.557 0.796 1.633 5311
3.828 0.856 1.749 2676
3.697 0.827 1.680 19071
3.561 0.797 1.623 4952
3.833 0.857 1.737 1676
3.702 0.828 1.669 18699
3.566 0.797 1.612 4286
3.837 0.858 1.726 1345
3.706 0.829 1.658 18859
3.570 0.798 1.602 3068
3.878 0.867 1.730 1560
3.710 0.830 1.647 21238
3.889 0.870 1.721 2859
3.574 0.799 1.591 1955
4.025 0.900 1.777 1306
3.722 0.832 1.639 23030
3.887 0.869 1.707 4647
4.030 0.901 1.765 1789
3.585 0.802 1.583 777
3.719 0.832 1.625 18447
3.877 0.867 1.689 5919
4.035 0.902 1.753 1624
3.723 0.833 1.614 11702
3.860 0.863 1.669 5999
4.082 0.913 1.759 1725
3.727 0.834 1.603 7325
3.864 0.864 1.658 3655
4.101 0.917 1.753 1962
3.731 0.835 1.592 4872
3.868 0.865 1.646 4054
4.020 0.899 1.706 2840
4.157 0.930 1.760 1379
3.865 0.865 1.632 5699
4.031 0.902 1.697 5632
3.728 0.834 1.578 2593
4.168 0.932 1.751 1139
4.050 0.906 1.691 8080
3.855 0.862 1.615 5629
4.187 0.937 1.744 2407
3.718 0.832 1.562 844
4.149 0.928 1.715 9073
3.859 0.863 1.604 4994
4.011 0.897 1.662 2149
4.146 0.927 1.700 11849
3.871 0.866 1.595 4530
4.008 0.896 1.648 1065
4.143 0.927 1.685 8421
3.868 0.865 1.581 2886
4.005 0.896 1.633 841
4.133 0.924 1.667 4847
3.872 0.866 1.570 1265
4.271 0.955 1.719 920
4.166 0.932 1.666 5840
4.156 0.930 1.648 11042
4.294 0.960 1.699 1194
4.160 0.930 1.636 14689
4.299 0.961 1.687 2649
4.165 0.931 1.624 11295
4.303 0.962 1.674 3404
4.456 0.997 1.729 1000
4.227 0.945 1.632 8672
4.373 0.978 1.685 1778
4.512 1.009 1.734 853
4.261 0.953 1.630 7643
4.122 0.922 1.581 2564
4.545 1.017 1.731 1691
4.399 0.984 1.679 1461
4.265 0.954 1.618 7198
4.535 1.014 1.713 2861
4.126 0.923 1.569 1987
4.262 0.953 1.603 8397
4.525 1.012 1.694 4297
4.123 0.922 1.554 971
4.259 0.952 1.587 7377
4.544 1.016 1.686 3843
4.578 1.024 1.682 5852
4.263 0.953 1.575 4011
4.439 0.993 1.635 1161
4.582 1.025 1.669 9124
4.289 0.959 1.570 2643
4.722 1.056 1.716 1034
4.443 0.994 1.622 935
4.550 1.018 1.643 12588
4.689 1.049 1.690 3271
4.278 0.957 1.552 2508
4.547 1.017 1.627 12726
4.694 1.050 1.676 5006
4.275 0.956 1.537 2530
4.870 1.089 1.734 927
4.551 1.018 1.614 7722
4.691 1.049 1.660 4531
4.279 0.957 1.524 2026
4.882 1.092 1.722 1670
4.562 1.020 1.603 4263
4.702 1.052 1.648 2860
4.887 1.093 1.708 1893
4.283 0.958 1.512 942
4.677 1.046 1.625 2674
4.537 1.015 1.580 2654
4.891 1.094 1.693 1738
5.031 1.125 1.738 845
4.740 1.060 1.630 3306
4.954 1.108 1.698 2559
4.541 1.016 1.566 1293
4.929 1.102 1.674 4136
4.745 1.061 1.616 3334
4.926 1.102 1.657 4489
4.749 1.062 1.602 2854
5.118 1.145 1.717 1279
4.938 1.104 1.644 3878
5.123 1.146 1.702 2370
4.760 1.065 1.590 2340
4.942 1.105 1.630 3747
5.135 1.148 1.689 2834
4.772 1.067 1.578 1358
4.939 1.105 1.613 3347
5.147 1.151 1.676 3111
5.310 1.188 1.725 1252
4.746 1.062 1.555 942
5.158 1.154 1.663 4236
4.988 1.116 1.612 2926
5.351 1.197 1.720 1295
5.259 1.176 1.676 4398
5.059 1.131 1.617 2384
5.400 1.208 1.717 1532
5.278 1.181 1.665 4979
5.085 1.137 1.608 2363
5.420 1.212 1.706 2161
5.327 1.192 1.662 3426
5.089 1.138 1.593 1572
5.469 1.223 1.703 867
5.257 1.176 1.625 2435
5.399 1.207 1.665 1255
5.425 1.213 1.655 3163
5.269 1.178 1.611 2243
5.430 1.214 1.639 4712
5.288 1.183 1.600 1463
5.586 1.249 1.683 1016
5.419 1.212 1.619 6525
5.598 1.252 1.669 1835
5.423 1.213 1.603 9640
5.610 1.255 1.654 1706
5.752 1.286 1.693 1434
5.420 1.212 1.585 8456
5.771 1.291 1.680 2287
5.569 1.246 1.625 1863
5.913 1.322 1.718 960
5.424 1.213 1.569 5395
5.783 1.293 1.665 2438
5.573 1.247 1.609 2312
5.925 1.325 1.702 887
5.435 1.216 1.555 3848
5.765 1.289 1.642 3177
5.593 1.251 1.596 2045
5.907 1.321 1.679 2010
5.889 1.317 1.656 4035
6.151 1.376 1.724 3164
5.746 1.285 1.619 2390
5.439 1.217 1.539 1988
5.893 1.318 1.638 4235
6.155 1.377 1.705 3809
5.601 1.253 1.563 2445
5.751 1.286 1.602 1904
6.160 1.378 1.687 3085
5.897 1.319 1.621 2970
6.302 1.410 1.723 2221
5.605 1.254 1.546 2081
6.254 1.399 1.691 4139
5.939 1.328 1.613 1897
5.631 1.260 1.535 1222
6.112 1.367 1.656 1154
6.259 1.400 1.673 5135
6.116 1.368 1.638 1480
6.401 1.432 1.708 1370
5.928 1.326 1.591 1264
6.263 1.401 1.654 5175
6.406 1.433 1.689 3615
5.932 1.327 1.574 1136
6.120 1.369 1.619 1108
6.410 1.434 1.670 4912
6.267 1.402 1.636 4483
6.407 1.433 1.649 5707
6.264 1.401 1.615 3683
6.419 1.436 1.632 8435
6.276 1.404 1.599 3463
6.931 1.550 1.752 1234
6.607 1.478 1.676 959
6.415 1.435 1.611 12575
6.928 1.550 1.730 2527
6.272 1.403 1.578 1577
7.116 1.592 1.774 1211
6.420 1.436 1.592 14074
6.940 1.552 1.711 3777
7.121 1.593 1.752 2263
6.608 1.478 1.635 1161
6.424 1.437 1.573 10307
6.937 1.552 1.689 5786
7.126 1.594 1.731 3589
6.620 1.481 1.617 897
6.949 1.554 1.670 6854
6.428 1.438 1.554 6374
7.130 1.595 1.710 3194
7.387 1.652 1.767 881
6.953 1.555 1.649 5452
6.432 1.439 1.535 4695
7.134 1.596 1.689 2201
7.414 1.658 1.750 1340
6.950 1.554 1.627 3540
6.436 1.439 1.516 2888
7.146 1.598 1.669 2687
7.403 1.656 1.725 1641
7.151 1.599 1.648 3423
6.962 1.557 1.608 2339
7.408 1.657 1.703 1713
6.440 1.440 1.497 1365
7.155 1.600 1.627 2028
7.488 1.675 1.697 1670
6.966 1.558 1.587 1216
7.647 1.710 1.730 928
7.901 1.767 1.759 2319
7.500 1.677 1.676 1424
7.720 1.727 1.721 1238
7.921 1.772 1.738 3732
7.550 1.689 1.663 1873
7.717 1.726 1.697 1366
7.406 1.656 1.634 802
7.926 1.773 1.715 3122
7.547 1.688 1.639 1651
8.297 1.856 1.789 1558
7.766 1.737 1.683 1341
8.302 1.857 1.765 2620
7.923 1.772 1.690 2038
7.778 1.740 1.661 1391
8.150 1.823 1.735 1086
8.307 1.858 1.740 2208
7.935 1.775 1.668 2107
8.147 1.822 1.709 1555
8.511 1.904 1.780 1239
8.341 1.866 1.721 1896
8.524 1.906 1.756 1740
7.939 1.776 1.644 1729
8.144 1.821 1.683 1612
8.437 1.887 1.713 1980
8.878 1.986 1.796 1238
7.920 1.771 1.616 1098
8.126 1.817 1.655 1036
8.890 1.988 1.771 2118
8.434 1.886 1.687 1783
8.289 1.854 1.660 934
8.746 1.956 1.744 907
8.895 1.989 1.745 2170
8.545 1.911 1.681 1301
8.324 1.862 1.641 1253
8.750 1.957 1.718 977
8.899 1.990 1.718 1892
8.755 1.958 1.692 1131
8.549 1.912 1.656 854
8.336 1.864 1.618 843
8.866 1.983 1.685 2568
8.721 1.951 1.660 1219
9.650 2.158 1.823 913
8.862 1.982 1.657 3512
9.662 2.161 1.795 879
8.718 1.950 1.632 864
9.815 2.195 1.822 839
8.867 1.983 1.631 3222
9.812 2.195 1.791 1283
9.271 2.073 1.699 1065
9.012 2.016 1.656 1034
8.894 1.989 1.608 2896
9.817 2.196 1.762 1398
9.664 2.161 1.736 1046
9.298 2.080 1.676 956
8.898 1.990 1.582 2480
9.836 2.200 1.735 2069
9.676 2.164 1.709 1138
10.470 2.342 1.838 918
9.849 2.203 1.707 2508
8.902 1.991 1.555 1730
9.704 2.170 1.684 1463
10.482 2.344 1.808 1319
9.861 2.205 1.679 1859
10.487 2.345 1.777 1728
9.716 2.173 1.656 1315
8.898 1.990 1.528 1201
9.865 2.206 1.650 1804
10.491 2.347 1.746 1459
10.346 2.314 1.724 876
10.858 2.429 1.802 845
9.869 2.207 1.620 1843
10.848 2.426 1.768 1192
10.504 2.349 1.716 903
10.236 2.289 1.676 860
9.873 2.208 1.591 1625
11.043 2.470 1.764 1479
10.730 2.400 1.717 1103
10.508 2.350 1.685 996
10.742 2.403 1.687 1822
11.048 2.471 1.731 1485
9.870 2.207 1.560 1337
10.505 2.350 1.652 1255
10.754 2.405 1.656 1857
10.907 2.439 1.677 1151
11.052 2.472 1.698 1057
10.501 2.349 1.620 1051
11.340 2.536 1.704 1317
10.751 2.404 1.623 1170
10.934 2.446 1.648 1147
11.723 2.622 1.757 1038
11.735 2.625 1.724 1431
11.406 2.551 1.679 1245
11.214 2.508 1.653 971
11.038 2.469 1.629 942
11.747 2.627 1.690 1404
11.395 2.549 1.643 1172
11.058 2.473 1.598 860
11.384 2.546 1.607 1070
11.759 2.630 1.656 804
11.568 2.587 1.631 752
11.894 2.660 1.637 897
11.395 2.549 1.574 790
11.898 2.661 1.602 1027
12.397 2.773 1.663 757
12.409 2.775 1.627 1114
11.902 2.662 1.566 1006
12.413 2.776 1.590 1098
12.996 2.907 1.659 912
12.977 2.903 1.617 1207
13.131 2.937 1.635 1022
12.417 2.777 1.553 779
12.982 2.903 1.579 933
13.174 2.946 1.600 818
13.201 2.952 1.563 750
2.285 0.504 1.777 2815
2.290 0.505 1.771 5631
2.410 0.531 1.858 1422
2.295 0.506 1.764 5631
2.414 0.532 1.851 2844
2.306 0.508 1.762 4577
2.426 0.535 1.848 2583
2.323 0.512 1.764 3631
2.443 0.539 1.850 2043
2.397 0.529 1.807 3898
2.277 0.502 1.721 1197
2.402 0.530 1.800 4352
2.281 0.503 1.714 1322
2.523 0.556 1.886 984
2.407 0.531 1.793 4352
2.528 0.557 1.878 1391
2.286 0.504 1.708 1322
2.405 0.530 1.781 3771
2.526 0.557 1.866 1603
2.284 0.504 1.697 834
2.474 0.545 1.819 3352
2.339 0.516 1.726 2054
2.491 0.549 1.820 4043
2.344 0.517 1.719 1267
2.509 0.553 1.822 5498
2.520 0.556 1.819 5920
2.525 0.557 1.812 6434
2.530 0.558 1.804 6434
2.652 0.585 1.887 1050
2.515 0.555 1.784 5192
2.638 0.582 1.866 2074
2.598 0.573 1.828 5336
2.474 0.546 1.746 4162
2.498 0.551 1.752 6319
2.622 0.578 1.833 4327
2.503 0.552 1.745 7460
2.627 0.579 1.826 4617
2.514 0.554 1.742 6247
2.671 0.589 1.844 5289
2.682 0.591 1.840 7089
2.519 0.555 1.734 5092
2.680 0.591 1.828 7079
2.523 0.556 1.727 3685
2.678 0.591 1.816 7296
2.521 0.556 1.715 2344
2.690 0.593 1.812 5469
2.532 0.558 1.712 1711
2.741 0.604 1.833 5696
2.616 0.577 1.754 2368
2.745 0.605 1.825 7693
2.620 0.578 1.747 1790
2.744 0.605 1.813 9902
2.618 0.577 1.735 931
2.748 0.606 1.805 9636
2.623 0.578 1.727 882
2.753 0.607 1.797 9369
2.627 0.579 1.720 833
2.765 0.610 1.793 7455
2.638 0.582 1.716 851
2.789 0.615 1.797 5656
2.663 0.587 1.720 1048
2.787 0.615 1.785 6231
2.661 0.587 1.709 937
2.792 0.616 1.777 6907
2.919 0.644 1.853 986
2.665 0.588 1.701 951
2.803 0.618 1.772 5724
2.930 0.646 1.848 1390
2.676 0.590 1.697 922
2.862 0.631 1.796 5881
2.734 0.603 1.721 1930
2.860 0.631 1.784 5793
2.732 0.602 1.709 1320
2.844 0.627 1.763 6803
2.972 0.655 1.838 1105
2.855 0.630 1.759 7787
2.983 0.658 1.833 1260
2.873 0.634 1.758 7237
3.002 0.662 1.832 1394
2.912 0.642 1.769 5853
3.047 0.672 1.846 1196
2.964 0.654 1.787 4350
2.835 0.625 1.715 2416
2.989 0.659 1.790 5822
2.860 0.631 1.718 2985
3.000 0.662 1.785 6927
2.871 0.633 1.713 3262
3.005 0.663 1.776 7786
2.876 0.634 1.705 2714
2.989 0.659 1.756 7992
2.860 0.631 1.685 1010
3.014 0.665 1.759 8574
2.885 0.636 1.688 1409
3.026 0.667 1.754 9984
2.896 0.639 1.683 912
3.058 0.674 1.759 10115
2.928 0.646 1.689 910
3.069 0.677 1.754 11010
3.199 0.705 1.824 959
3.053 0.673 1.734 10199
3.184 0.702 1.803 2260
3.078 0.679 1.736 13918
3.209 0.708 1.805 2171
3.083 0.680 1.727 16321
3.214 0.709 1.796 3014
3.094 0.682 1.722 14821
3.225 0.711 1.790 3014
3.092 0.682 1.709 10753
3.223 0.711 1.777 4251
3.110 0.686 1.707 6344
3.241 0.715 1.774 2998
3.128 0.690 1.705 5976
3.260 0.719 1.772 2400
3.216 0.709 1.738 9061
3.084 0.680 1.671 3888
3.235 0.713 1.735 13276
3.103 0.684 1.669 3638
3.239 0.714 1.726 15615
3.107 0.685 1.660 3905
3.392 0.748 1.802 797
3.244 0.715 1.716 12950
3.111 0.686 1.651 2982
3.376 0.744 1.782 1226
3.241 0.715 1.703 8350
3.374 0.744 1.768 3367
3.109 0.685 1.638 1541
3.350 0.739 1.745 7587
3.218 0.709 1.680 6472
3.348 0.738 1.731 9666
3.215 0.709 1.667 6246
3.338 0.736 1.715 9547
3.205 0.707 1.651 3825
3.266 0.720 1.668 10403
3.399 0.749 1.732 4016
3.133 0.691 1.605 1096
3.270 0.721 1.659 10304
3.403 0.750 1.722 4778
3.137 0.692 1.596 969
3.281 0.724 1.652 9134
3.415 0.753 1.715 5127
3.148 0.694 1.590 775
3.286 0.725 1.643 6490
3.419 0.754 1.705 4379
3.389 0.747 1.679 6355
3.523 0.777 1.740 2000
3.255 0.718 1.617 1848
3.400 0.750 1.672 6822
3.534 0.779 1.733 1792
3.266 0.720 1.610 1298
3.411 0.752 1.665 6916
3.546 0.782 1.726 2415
3.277 0.723 1.604 1092
3.423 0.755 1.658 7661
3.557 0.784 1.719 3096
3.434 0.757 1.651 6622
3.569 0.787 1.712 5118
3.573 0.788 1.701 7150
3.439 0.758 1.641 3461
3.708 0.818 1.761 961
3.599 0.794 1.700 8104
3.464 0.764 1.640 2727
3.734 0.823 1.759 1066
3.618 0.798 1.695 9641
3.483 0.768 1.636 2386
3.753 0.828 1.754 1855
3.622 0.799 1.685 8960
3.757 0.829 1.743 2835
3.487 0.769 1.626 1882
3.691 0.814 1.702 12762
3.548 0.782 1.640 6422
3.826 0.844 1.760 2313
3.695 0.815 1.691 17370
3.560 0.785 1.633 4991
3.831 0.845 1.749 2348
3.700 0.816 1.680 19781
3.564 0.786 1.623 4728
3.835 0.846 1.737 1411
3.704 0.817 1.669 19834
3.568 0.787 1.612 4227
3.861 0.851 1.735 1626
3.708 0.818 1.658 19598
3.572 0.788 1.602 3033
3.844 0.848 1.715 2192
3.713 0.819 1.647 21125
3.849 0.849 1.703 3234
3.576 0.789 1.591 2011
4.028 0.888 1.777 1017
3.724 0.821 1.639 22378
3.882 0.856 1.704 5221
4.033 0.889 1.765 1191
3.721 0.821 1.625 18412
3.872 0.854 1.686 6865
4.045 0.892 1.756 1526
3.725 0.821 1.614 12247
3.862 0.852 1.669 6910
4.064 0.896 1.750 2151
3.730 0.822 1.603 7639
3.866 0.853 1.658 4445
4.075 0.899 1.741 2355
3.734 0.823 1.592 4739
3.871 0.854 1.646 4649
4.080 0.900 1.729 3053
3.868 0.853 1.632 7101
4.034 0.890 1.697 4148
3.731 0.823 1.578 2513
4.171 0.920 1.751 1284
3.858 0.851 1.615 7313
4.060 0.895 1.694 5213
4.197 0.926 1.747 2215
3.720 0.820 1.562 896
4.151 0.915 1.715 9295
3.862 0.852 1.604 6426
4.014 0.885 1.662 1587
4.156 0.916 1.703 12126
3.873 0.854 1.595 5841
4.018 0.886 1.650 1201
4.153 0.916 1.688 8059
3.870 0.853 1.581 3999
4.015 0.885 1.636 1161
4.172 0.920 1.681 4978
3.874 0.854 1.570 1913
4.034 0.890 1.629 1066
4.169 0.919 1.666 6838
4.159 0.917 1.648 11523
4.297 0.948 1.699 1061
4.163 0.918 1.636 15180
4.301 0.948 1.687 2254
4.167 0.919 1.624 11772
4.306 0.949 1.674 2737
4.172 0.920 1.612 8218
4.310 0.950 1.661 2728
4.471 0.986 1.719 1162
4.263 0.940 1.630 8572
4.125 0.909 1.581 2882
4.402 0.971 1.679 1371
4.541 1.001 1.729 1259
4.260 0.939 1.615 9825
4.531 0.999 1.710 2037
4.121 0.909 1.566 1402
4.257 0.939 1.600 11606
4.521 0.997 1.692 3193
4.261 0.940 1.587 10257
4.554 1.004 1.688 3477
4.581 1.010 1.682 6692
4.265 0.941 1.575 5676
4.593 1.013 1.671 8964
4.277 0.943 1.565 3395
4.732 1.043 1.718 982
4.553 1.004 1.643 8492
4.274 0.942 1.550 3475
4.692 1.035 1.690 3143
4.550 1.003 1.627 8218
4.697 1.036 1.676 4909
4.278 0.943 1.537 4164
4.687 1.033 1.657 4832
4.547 1.003 1.611 4579
4.282 0.944 1.524 3583
4.878 1.076 1.720 1320
4.669 1.029 1.636 3784
4.529 0.999 1.591 1902
4.868 1.073 1.701 1838
4.285 0.945 1.512 1709
4.643 1.024 1.613 2571
4.857 1.071 1.682 2311
4.503 0.993 1.568 1133
4.998 1.102 1.727 1106
4.736 1.044 1.627 3695
4.877 1.075 1.672 2083
4.596 1.013 1.583 1077
5.017 1.106 1.716 983
4.740 1.045 1.613 3940
4.918 1.084 1.669 3529
4.907 1.082 1.650 4220
4.745 1.046 1.599 3151
5.048 1.113 1.694 1314
4.926 1.086 1.640 3169
4.756 1.049 1.587 2525
5.067 1.117 1.683 1803
4.953 1.092 1.632 2613
5.138 1.133 1.689 1993
4.768 1.051 1.576 1506
5.279 1.164 1.732 806
5.061 1.116 1.649 3247
5.202 1.147 1.691 2203
4.750 1.047 1.555 1095
4.920 1.085 1.606 1040
5.162 1.138 1.663 3699
5.021 1.107 1.621 2279
5.303 1.169 1.705 1469
5.263 1.160 1.676 5188
5.092 1.123 1.625 2293
5.404 1.192 1.717 1359
5.282 1.165 1.665 6189
5.089 1.122 1.608 2445
5.423 1.196 1.706 2147
5.301 1.169 1.653 4036
5.443 1.200 1.694 1816
5.093 1.123 1.593 1792
5.253 1.158 1.623 3344
5.477 1.208 1.686 1589
5.421 1.195 1.653 3409
5.272 1.163 1.611 3224
5.426 1.196 1.637 5613
5.284 1.165 1.598 1679
5.717 1.261 1.718 1093
5.423 1.196 1.619 6902
5.721 1.262 1.702 1344
5.564 1.227 1.658 1155
5.427 1.197 1.603 9547
5.748 1.267 1.691 2382
5.606 1.236 1.652 1360
5.890 1.299 1.729 850
5.423 1.196 1.585 8765
5.767 1.272 1.678 3274
5.565 1.227 1.623 1501
5.909 1.303 1.716 1210
5.428 1.197 1.569 5566
5.794 1.278 1.667 3360
5.577 1.230 1.609 1530
5.936 1.309 1.704 781
5.776 1.274 1.643 4332
5.439 1.199 1.555 3205
5.918 1.305 1.681 1732
5.589 1.232 1.594 1602
5.788 1.276 1.628 4969
6.147 1.356 1.722 3434
5.930 1.308 1.665 2985
5.458 1.204 1.543 1838
5.800 1.279 1.613 5432
6.152 1.357 1.704 4442
5.942 1.310 1.650 2783
5.447 1.201 1.523 1482
5.901 1.301 1.621 4280
6.156 1.358 1.685 4248
6.299 1.389 1.721 2215
5.759 1.270 1.584 2085
6.161 1.358 1.667 4807
6.303 1.390 1.703 3242
5.943 1.310 1.613 2142
6.173 1.361 1.651 5460
6.315 1.393 1.686 3484
5.932 1.308 1.591 1238
6.403 1.412 1.687 4629
6.177 1.362 1.632 3728
5.936 1.309 1.574 1035
6.407 1.413 1.668 6079
6.264 1.381 1.634 3163
6.411 1.414 1.649 6467
6.268 1.382 1.615 3441
6.607 1.457 1.696 921
6.423 1.416 1.632 9117
6.280 1.385 1.599 3375
6.611 1.458 1.676 1223
6.936 1.529 1.752 794
6.420 1.416 1.611 13211
6.276 1.384 1.578 1547
6.940 1.530 1.732 1395
6.631 1.462 1.660 1297
6.424 1.417 1.592 14724
7.126 1.571 1.752 2539
6.945 1.531 1.711 2074
6.620 1.460 1.637 1392
6.428 1.417 1.573 10806
6.949 1.532 1.690 3556
7.130 1.572 1.731 3534
6.715 1.481 1.638 1133
6.432 1.418 1.554 6270
6.953 1.533 1.670 4522
7.127 1.572 1.708 3163
6.719 1.482 1.618 1137
6.436 1.419 1.535 4479
6.958 1.534 1.649 3634
7.124 1.571 1.686 2276
7.427 1.638 1.752 1390
6.440 1.420 1.516 2916
6.962 1.535 1.629 2267
7.151 1.577 1.669 2259
7.424 1.637 1.728 1736
7.156 1.578 1.648 2972
7.413 1.635 1.703 1999
6.444 1.421 1.497 1612
6.966 1.536 1.608 1459
7.425 1.637 1.682 2081
7.160 1.579 1.627 1973
7.660 1.689 1.732 1165
6.455 1.423 1.479 967
7.907 1.743 1.759 2138
7.452 1.643 1.665 1902
7.717 1.702 1.720 1541
7.164 1.580 1.606 937
7.919 1.746 1.737 2993
7.456 1.644 1.643 1781
7.714 1.701 1.695 1593
8.063 1.778 1.766 857
7.923 1.747 1.713 2698
7.552 1.665 1.639 1360
7.779 1.715 1.685 1259
8.068 1.779 1.742 987
7.905 1.743 1.685 2480
8.482 1.870 1.799 1493
8.300 1.830 1.763 1213
8.148 1.797 1.733 971
7.917 1.746 1.663 1942
8.502 1.875 1.777 1885
8.145 1.796 1.708 1313
8.342 1.840 1.746 976
8.522 1.879 1.754 2429
7.914 1.745 1.638 1427
8.134 1.794 1.680 1420
8.355 1.842 1.722 1306
8.526 1.880 1.729 2371
8.359 1.843 1.698 1549
8.891 1.961 1.798 1180
7.926 1.748 1.616 1156
8.888 1.960 1.770 2303
8.523 1.879 1.702 2127
8.379 1.848 1.676 977
8.188 1.806 1.640 897
8.885 1.959 1.742 2479
8.528 1.880 1.677 2099
8.741 1.927 1.716 896
8.185 1.805 1.615 782
8.814 1.943 1.702 2016
8.524 1.880 1.650 1843
8.959 1.975 1.728 956
8.826 1.946 1.677 2050
8.529 1.881 1.625 1251
8.971 1.978 1.702 1202
9.656 2.129 1.823 854
8.861 1.954 1.656 2702
8.541 1.883 1.601 1265
9.006 1.986 1.681 1010
9.654 2.129 1.793 962
8.873 1.956 1.631 2790
9.658 2.130 1.764 1202
8.552 1.886 1.577 1152
9.018 1.988 1.656 1104
8.907 1.964 1.610 2972
9.815 2.164 1.761 1283
9.670 2.132 1.736 1220
9.960 2.196 1.785 847
8.912 1.965 1.583 2474
9.851 2.172 1.736 1811
9.690 2.137 1.710 1204
10.469 2.308 1.837 1120
9.863 2.175 1.708 2260
8.908 1.964 1.555 1559
9.710 2.141 1.684 1435
10.481 2.311 1.807 1251
9.860 2.174 1.678 1555
10.501 2.316 1.778 1434
9.661 2.130 1.647 1171
8.904 1.963 1.528 1068
9.879 2.178 1.651 1447
10.506 2.317 1.747 1253
10.361 2.285 1.725 910
9.876 2.178 1.620 1673
10.534 2.323 1.719 1098
10.847 2.392 1.767 981
10.373 2.287 1.695 780
9.880 2.179 1.591 1492
11.051 2.437 1.764 1211
10.523 2.320 1.686 1110
10.729 2.366 1.716 967
10.749 2.370 1.687 1623
9.884 2.179 1.561 1170
10.512 2.318 1.652 1165
11.055 2.438 1.731 1147
10.761 2.373 1.656 1656
10.922 2.408 1.678 1252
11.389 2.511 1.745 1168
10.508 2.317 1.620 1023
11.440 2.522 1.717 1387
10.942 2.413 1.648 1223
11.233 2.477 1.688 1196
10.758 2.372 1.623 968
11.413 2.517 1.679 1394
11.743 2.589 1.724 1344
11.229 2.476 1.654 951
11.076 2.442 1.633 917
11.755 2.592 1.690 1416
11.402 2.514 1.643 1352
11.073 2.442 1.599 831
11.399 2.514 1.608 1182
11.775 2.596 1.657 860
11.894 2.623 1.636 1053
11.487 2.533 1.585 883
11.898 2.624 1.601 1103
13.195 2.910 1.761 754
12.409 2.736 1.626 930
11.902 2.625 1.565 856
12.429 2.741 1.591 933
12.997 2.866 1.658 763
13.124 2.894 1.633 838
12.978 2.862 1.616 763
13.082 2.885 1.589 946
2.300 0.497 1.786 2912
2.305 0.498 1.780 5824
2.424 0.524 1.867 1345
2.309 0.499 1.773 5824
2.429 0.525 1.860 2691
2.314 0.500 1.766 5049
2.434 0.526 1.853 2431
2.319 0.501 1.760 4274
2.439 0.527 1.846 2171
2.323 0.502 1.753 4323
2.444 0.528 1.839 2687
2.328 0.503 1.746 4371
2.449 0.529 1.832 3203
2.332 0.504 1.739 4371
2.454 0.530 1.824 3203
2.458 0.531 1.817 3413
2.337 0.505 1.732 3358
2.470 0.534 1.814 3756
2.335 0.504 1.721 2365
2.506 0.542 1.829 4369
2.346 0.507 1.719 1543
2.518 0.544 1.826 6178
2.396 0.518 1.743 902
2.529 0.546 1.823 6973
2.534 0.547 1.816 7893
2.539 0.548 1.809 7893
2.556 0.552 1.810 5849
2.679 0.579 1.892 1013
2.593 0.560 1.824 4962
2.470 0.534 1.742 3450
2.494 0.539 1.748 5630
2.618 0.566 1.829 4694
2.505 0.541 1.745 6530
2.629 0.568 1.826 4850
2.608 0.563 1.801 5771
2.484 0.537 1.720 3538
2.732 0.590 1.882 1353
2.684 0.580 1.840 6598
2.521 0.545 1.734 4533
2.683 0.580 1.828 6265
2.525 0.546 1.727 3193
2.681 0.579 1.816 6144
2.537 0.548 1.724 1890
2.699 0.583 1.816 4673
2.548 0.550 1.720 1469
2.750 0.594 1.838 5215
2.625 0.567 1.759 2612
2.748 0.594 1.825 7183
2.623 0.567 1.747 2052
2.746 0.593 1.813 9319
2.621 0.566 1.735 1199
2.751 0.594 1.805 8861
2.625 0.567 1.727 1386
2.756 0.595 1.797 8404
2.630 0.568 1.720 1573
2.760 0.596 1.789 6690
2.634 0.569 1.712 1155
2.765 0.597 1.781 4975
2.777 0.600 1.777 5693
2.903 0.627 1.853 904
2.781 0.601 1.769 6443
2.915 0.630 1.849 1371
2.786 0.602 1.761 5572
2.913 0.629 1.836 2562
2.871 0.620 1.800 6255
2.744 0.593 1.725 1316
2.869 0.620 1.787 5553
2.741 0.592 1.713 899
2.914 0.630 1.803 5631
2.786 0.602 1.728 1762
2.865 0.619 1.763 6137
2.993 0.647 1.837 1080
2.696 0.583 1.665 1001
2.876 0.621 1.758 5774
3.004 0.649 1.832 1517
2.701 0.583 1.658 832
2.888 0.624 1.754 4604
3.016 0.652 1.827 1688
2.980 0.644 1.795 4170
2.851 0.616 1.722 2566
2.998 0.648 1.794 6085
2.856 0.617 1.714 2170
3.010 0.650 1.789 7607
2.874 0.621 1.713 2211
3.015 0.651 1.780 8390
2.885 0.623 1.708 2013
2.985 0.645 1.753 8068
3.115 0.673 1.824 1061
3.024 0.653 1.762 9350
2.894 0.625 1.692 1344
3.035 0.656 1.757 11314
2.899 0.626 1.683 1063
3.061 0.661 1.759 12053
2.930 0.633 1.689 890
3.065 0.662 1.750 13603
3.195 0.690 1.820 1068
3.063 0.662 1.738 13557
3.193 0.690 1.807 1792
3.074 0.664 1.732 16991
3.205 0.692 1.801 2211
3.086 0.667 1.727 18749
3.217 0.695 1.796 2730
3.090 0.668 1.718 16528
3.221 0.696 1.786 3134
3.095 0.669 1.709 13235
3.226 0.697 1.777 4104
3.092 0.668 1.696 8959
3.224 0.696 1.764 5214
3.097 0.669 1.687 7812
3.228 0.697 1.754 6147
3.184 0.688 1.720 10198
3.053 0.660 1.654 2545
3.316 0.716 1.787 1004
3.231 0.698 1.732 10941
3.099 0.669 1.665 3048
3.242 0.700 1.726 12858
3.110 0.672 1.660 3441
3.240 0.700 1.713 10948
3.107 0.671 1.647 2589
3.372 0.729 1.778 1187
3.244 0.701 1.703 8425
3.377 0.730 1.768 3074
3.111 0.672 1.638 1470
3.256 0.703 1.697 8589
3.388 0.732 1.762 3930
3.123 0.675 1.632 1164
3.344 0.722 1.728 9287
3.211 0.694 1.664 4967
3.341 0.722 1.715 9519
3.208 0.693 1.651 3095
3.269 0.706 1.668 8247
3.402 0.735 1.732 5043
3.135 0.677 1.605 935
3.280 0.709 1.662 8731
3.414 0.738 1.725 4827
3.147 0.680 1.599 971
3.284 0.710 1.652 7264
3.418 0.738 1.715 4753
3.387 0.732 1.689 6476
3.254 0.703 1.626 2725
3.521 0.761 1.751 2142
3.399 0.734 1.682 7970
3.533 0.763 1.744 1972
3.265 0.705 1.620 1730
3.410 0.737 1.675 9463
3.544 0.766 1.736 1810
3.276 0.708 1.614 1036
3.415 0.738 1.665 9161
3.549 0.767 1.726 2616
3.280 0.709 1.604 832
3.419 0.739 1.655 8645
3.554 0.768 1.716 3865
3.430 0.741 1.648 7132
3.565 0.770 1.708 5217
3.577 0.773 1.701 6803
3.442 0.744 1.641 3882
3.712 0.802 1.761 950
3.595 0.777 1.697 7837
3.460 0.748 1.637 2738
3.730 0.806 1.756 1234
3.621 0.782 1.695 8774
3.486 0.753 1.636 2690
3.771 0.815 1.761 2053
3.633 0.785 1.688 7834
3.775 0.816 1.750 2845
3.497 0.756 1.629 2550
3.694 0.798 1.702 11566
3.559 0.769 1.643 5993
3.830 0.827 1.760 1916
3.699 0.799 1.691 15495
3.563 0.770 1.633 4177
3.834 0.828 1.749 1973
3.703 0.800 1.680 18252
3.567 0.771 1.623 3926
3.846 0.831 1.740 1395
3.707 0.801 1.669 18652
3.571 0.772 1.612 3706
3.858 0.833 1.732 2037
3.712 0.802 1.658 18154
3.848 0.831 1.715 3371
3.576 0.772 1.602 2669
3.716 0.803 1.647 18792
3.852 0.832 1.703 4664
3.580 0.773 1.591 1854
4.039 0.873 1.780 858
3.728 0.805 1.639 19221
3.871 0.836 1.698 6250
4.044 0.874 1.768 955
3.725 0.805 1.625 16046
3.876 0.837 1.686 8146
4.056 0.876 1.759 1750
3.729 0.806 1.614 11105
3.866 0.835 1.669 8478
4.067 0.879 1.750 2680
3.733 0.807 1.603 6930
3.870 0.836 1.658 6548
4.072 0.880 1.738 2734
3.874 0.837 1.646 5867
3.737 0.807 1.592 3984
4.077 0.881 1.726 3745
3.871 0.836 1.632 8052
4.096 0.885 1.720 4875
3.734 0.807 1.578 2039
3.861 0.834 1.615 8415
4.107 0.887 1.711 5071
3.724 0.805 1.562 787
4.162 0.899 1.718 8245
3.865 0.835 1.604 7431
4.003 0.865 1.657 1096
4.160 0.899 1.703 11260
3.870 0.836 1.592 6921
4.007 0.866 1.645 1120
4.164 0.900 1.691 8333
3.874 0.837 1.581 5083
4.026 0.870 1.639 1200
4.176 0.902 1.681 6292
3.878 0.838 1.570 2664
4.038 0.872 1.629 907
4.180 0.903 1.669 8034
3.896 0.842 1.564 981
4.163 0.899 1.648 10626
4.301 0.929 1.699 891
4.160 0.899 1.633 13217
4.298 0.929 1.684 1641
4.171 0.901 1.624 10234
4.310 0.931 1.674 1962
4.175 0.902 1.612 7619
4.314 0.932 1.661 1923
4.511 0.975 1.732 864
4.267 0.922 1.630 8108
4.128 0.892 1.581 3058
4.414 0.954 1.682 1103
4.553 0.984 1.731 833
4.257 0.920 1.613 11644
4.535 0.980 1.710 1283
4.118 0.890 1.564 939
4.396 0.950 1.661 803
4.261 0.921 1.600 15007
4.525 0.978 1.692 1851
4.265 0.922 1.587 14333
4.588 0.991 1.698 3216
4.277 0.924 1.577 8501
4.592 0.992 1.685 7184
4.597 0.993 1.671 8484
4.281 0.925 1.565 4573
4.736 1.023 1.718 818
4.616 0.997 1.663 7046
4.278 0.924 1.550 4416
4.476 0.967 1.616 828
4.756 1.027 1.709 774
4.282 0.925 1.537 6383
4.628 1.000 1.651 4762
4.768 1.030 1.698 1324
4.488 0.970 1.605 896
4.286 0.926 1.524 5999
4.683 1.012 1.655 5169
4.543 0.982 1.609 1912
4.846 1.047 1.708 959
4.680 1.011 1.638 4840
4.289 0.927 1.512 2998
4.857 1.049 1.696 1883
4.540 0.981 1.593 1161
4.692 1.014 1.627 3821
4.869 1.052 1.684 3457
4.279 0.924 1.494 997
4.552 0.983 1.582 984
4.726 1.021 1.623 4766
4.881 1.055 1.672 4098
4.585 0.991 1.578 995
4.900 1.059 1.662 5089
4.730 1.022 1.609 4624
4.905 1.060 1.648 6626
4.742 1.024 1.597 3198
5.053 1.092 1.694 1216
4.916 1.062 1.635 6197
4.753 1.027 1.585 2513
5.064 1.094 1.681 2232
5.205 1.125 1.724 1063
4.928 1.065 1.623 4880
5.069 1.095 1.666 3202
5.210 1.126 1.709 1522
4.750 1.026 1.569 1485
5.066 1.094 1.649 3923
4.925 1.064 1.606 3479
5.207 1.125 1.691 2635
4.747 1.025 1.553 1043
5.226 1.129 1.680 4378
5.077 1.097 1.636 3057
4.929 1.065 1.592 3004
5.367 1.160 1.722 815
5.260 1.136 1.674 5598
5.097 1.101 1.625 1988
4.933 1.066 1.577 1971
5.401 1.167 1.715 1342
5.287 1.142 1.665 6768
5.093 1.100 1.608 2001
5.428 1.173 1.706 1785
4.930 1.065 1.560 796
5.299 1.145 1.651 4222
5.440 1.175 1.692 1844
5.098 1.101 1.593 1611
5.258 1.136 1.623 4005
5.482 1.184 1.686 2348
5.277 1.140 1.611 3745
5.427 1.172 1.653 3050
5.703 1.232 1.731 876
5.431 1.173 1.637 5263
5.289 1.143 1.598 1844
5.715 1.235 1.716 1706
5.428 1.173 1.619 6328
5.726 1.237 1.702 2322
5.868 1.268 1.741 1030
5.570 1.203 1.658 860
5.432 1.174 1.603 8226
5.761 1.245 1.693 3123
5.574 1.204 1.642 1270
5.903 1.275 1.731 760
5.428 1.173 1.585 7704
5.773 1.247 1.678 3874
5.571 1.204 1.623 1700
5.915 1.278 1.716 880
5.433 1.174 1.569 4700
5.807 1.255 1.669 4483
5.665 1.224 1.631 1901
6.129 1.324 1.754 1025
5.789 1.251 1.645 5386
5.444 1.176 1.555 2530
6.134 1.325 1.736 1488
5.931 1.281 1.683 1473
5.793 1.252 1.628 6282
6.146 1.328 1.720 3527
5.936 1.282 1.665 2609
5.456 1.179 1.541 1944
5.805 1.254 1.613 7082
6.150 1.329 1.702 4864
5.948 1.285 1.650 2232
5.452 1.178 1.523 2029
6.155 1.330 1.683 5677
5.899 1.275 1.619 4534
5.757 1.244 1.583 2284
6.305 1.362 1.721 1741
6.159 1.331 1.665 6331
6.324 1.366 1.707 2367
5.903 1.275 1.601 2302
6.171 1.333 1.649 6485
6.359 1.374 1.695 3001
5.900 1.275 1.582 1112
6.175 1.334 1.630 5317
6.408 1.385 1.687 4576
5.934 1.282 1.572 763
6.413 1.386 1.668 6157
6.194 1.338 1.616 4109
6.425 1.388 1.651 6869
6.199 1.339 1.597 4282
6.613 1.429 1.696 929
6.429 1.389 1.632 8931
6.286 1.358 1.599 2990
6.618 1.430 1.676 1277
6.874 1.485 1.736 950
6.426 1.388 1.611 11513
6.282 1.357 1.578 1446
6.630 1.432 1.658 1327
7.113 1.537 1.770 1243
6.430 1.389 1.592 12477
7.125 1.539 1.751 2474
6.626 1.432 1.637 1448
6.860 1.482 1.690 1278
6.434 1.390 1.573 9544
7.137 1.542 1.731 2832
6.925 1.496 1.684 1506
6.729 1.454 1.639 1235
6.438 1.391 1.554 5685
7.134 1.541 1.708 2630
6.945 1.500 1.666 1964
6.725 1.453 1.618 1554
6.442 1.392 1.535 4053
7.123 1.539 1.684 2297
7.267 1.570 1.715 1920
6.972 1.506 1.651 1770
6.446 1.393 1.516 2669
7.438 1.607 1.730 2561
7.150 1.545 1.668 1749
7.294 1.576 1.699 1443
7.435 1.606 1.706 3152
7.162 1.547 1.648 1961
6.450 1.394 1.497 1476
7.655 1.654 1.753 1136
7.439 1.607 1.684 4131
7.166 1.548 1.627 1552
7.674 1.658 1.733 1331
7.879 1.702 1.776 1151
7.451 1.610 1.663 3974
7.709 1.666 1.717 1781
7.899 1.707 1.756 1756
7.171 1.549 1.606 1033
7.463 1.612 1.643 3594
7.911 1.709 1.734 2045
7.721 1.668 1.695 1839
8.055 1.740 1.763 1113
7.468 1.613 1.621 2857
7.908 1.709 1.709 2545
7.733 1.671 1.674 1420
8.493 1.835 1.826 1118
7.905 1.708 1.684 3199
8.490 1.834 1.799 2181
7.472 1.614 1.599 1396
8.186 1.769 1.739 1045
7.902 1.707 1.659 2970
8.495 1.835 1.774 2930
8.183 1.768 1.713 1469
7.712 1.666 1.622 779
8.522 1.841 1.753 2879
7.898 1.706 1.634 2234
8.149 1.761 1.682 1800
8.743 1.889 1.795 1030
8.534 1.844 1.729 3082
8.138 1.758 1.655 1490
7.918 1.711 1.613 1387
8.732 1.887 1.766 1369
8.531 1.843 1.702 3103
8.889 1.920 1.768 2268
8.744 1.889 1.742 1129
8.386 1.812 1.676 1004
8.528 1.842 1.676 3275
8.878 1.918 1.739 3039
8.734 1.887 1.713 829
8.532 1.843 1.650 3198
8.784 1.898 1.695 2387
8.929 1.929 1.721 1124
8.544 1.846 1.626 2151
8.826 1.907 1.676 2072
8.979 1.940 1.702 977
8.831 1.908 1.649 2212
8.548 1.847 1.601 1937
8.976 1.939 1.674 1762
9.670 2.089 1.794 986
8.889 1.920 1.632 2523
8.553 1.848 1.575 1745
9.675 2.090 1.765 1336
9.034 1.952 1.657 1172
8.908 1.925 1.608 2815
9.687 2.093 1.738 1324
9.832 2.124 1.762 1011
8.557 1.849 1.550 929
8.920 1.927 1.583 2200
10.471 2.262 1.836 1444
9.707 2.097 1.711 1230
9.852 2.129 1.735 1218
9.872 2.133 1.708 1540
10.476 2.263 1.805 1370
8.993 1.943 1.568 1329
9.711 2.098 1.683 1255
9.853 2.129 1.675 1052
9.677 2.091 1.648 990
10.511 2.271 1.778 981
9.004 1.945 1.542 865
10.531 2.275 1.750 1137
9.896 2.138 1.652 1007
10.386 2.244 1.727 794
10.776 2.328 1.787 787
9.893 2.137 1.621 1407
10.536 2.276 1.718 1402
10.934 2.362 1.778 869
10.742 2.321 1.749 837
10.540 2.277 1.687 1282
9.889 2.137 1.591 1282
10.724 2.317 1.714 1131
10.938 2.363 1.746 1044
10.759 2.324 1.687 1221
10.943 2.364 1.713 1202
10.529 2.275 1.653 1076
11.089 2.396 1.734 853
10.940 2.364 1.680 1502
11.392 2.461 1.744 1275
10.771 2.327 1.656 1190
10.526 2.274 1.621 848
11.412 2.466 1.712 1472
10.952 2.366 1.648 1398
11.243 2.429 1.688 1097
11.416 2.466 1.678 1618
11.086 2.395 1.633 1022
11.754 2.539 1.724 991
11.240 2.428 1.654 897
11.421 2.467 1.644 1577
11.774 2.544 1.691 1154
11.091 2.396 1.600 914
11.410 2.465 1.608 1274
11.886 2.568 1.670 877
11.890 2.569 1.634 1208
11.506 2.486 1.586 1095
11.894 2.570 1.599 1173
11.518 2.488 1.552 804
11.898 2.571 1.563 764
13.017 2.812 1.659 819
13.013 2.812 1.619 876
2.309 0.488 1.791 2897
2.313 0.489 1.784 5794
2.433 0.514 1.872 1019
2.318 0.490 1.778 5794
2.438 0.515 1.865 2039
2.316 0.489 1.766 5263
2.437 0.515 1.853 2129
2.321 0.490 1.760 4793
2.441 0.516 1.846 1982
2.326 0.491 1.753 4677
2.446 0.517 1.839 2378
2.330 0.492 1.746 4561
2.451 0.518 1.832 2774
2.335 0.493 1.739 4561
2.456 0.519 1.824 2774
2.339 0.494 1.732 3586
2.461 0.520 1.817 3131
2.472 0.522 1.814 3508
2.337 0.494 1.721 2623
2.515 0.531 1.834 4592
2.348 0.496 1.719 1659
2.520 0.532 1.826 6887
2.398 0.507 1.743 1464
2.531 0.535 1.823 7840
2.409 0.509 1.740 1377
2.536 0.536 1.816 8876
2.407 0.508 1.729 1172
2.541 0.537 1.809 8876
2.412 0.509 1.722 1337
2.552 0.539 1.806 6835
2.429 0.513 1.723 1817
2.675 0.565 1.888 999
2.570 0.543 1.807 5206
2.447 0.517 1.725 2619
2.693 0.569 1.889 1013
2.581 0.545 1.803 5471
2.458 0.519 1.722 2606
2.705 0.571 1.885 1175
2.593 0.548 1.800 6186
2.469 0.521 1.719 2884
2.716 0.574 1.881 1206
2.597 0.549 1.793 6169
2.473 0.522 1.712 2014
2.721 0.575 1.873 1794
2.609 0.551 1.789 6187
2.733 0.577 1.870 1891
2.484 0.525 1.709 1540
2.685 0.567 1.828 5317
2.535 0.535 1.731 2889
2.684 0.567 1.816 5180
2.552 0.539 1.732 1603
2.695 0.569 1.812 4407
2.570 0.543 1.733 1321
2.753 0.581 1.838 4347
2.627 0.555 1.759 2826
2.751 0.581 1.825 6117
2.625 0.555 1.747 2176
2.749 0.581 1.813 8229
2.623 0.554 1.735 1427
2.754 0.582 1.805 7597
2.628 0.555 1.727 1411
2.758 0.583 1.797 6965
2.632 0.556 1.720 1395
2.763 0.584 1.789 5584
2.637 0.557 1.712 895
2.761 0.583 1.777 4260
2.888 0.610 1.854 833
2.773 0.586 1.773 5064
2.899 0.612 1.849 1073
2.777 0.587 1.765 5926
2.918 0.616 1.849 1548
2.789 0.589 1.761 5243
2.916 0.616 1.836 2823
2.874 0.607 1.800 6752
2.746 0.580 1.725 1377
2.899 0.612 1.803 6140
2.771 0.585 1.728 2298
2.917 0.616 1.803 6424
2.789 0.589 1.728 1589
2.922 0.617 1.794 4957
2.793 0.590 1.720 1177
2.879 0.608 1.758 4393
3.007 0.635 1.832 1722
2.890 0.611 1.754 3760
3.019 0.638 1.827 1831
3.003 0.634 1.807 4315
2.875 0.607 1.734 2352
3.008 0.635 1.798 6436
2.859 0.604 1.714 1647
3.020 0.638 1.793 8030
2.870 0.606 1.709 1576
3.018 0.637 1.780 8818
2.888 0.610 1.708 1371
3.022 0.638 1.771 8075
2.893 0.611 1.700 1160
3.034 0.641 1.766 10214
2.904 0.613 1.695 1168
3.045 0.643 1.761 12554
2.902 0.613 1.683 1128
3.064 0.647 1.759 13352
2.933 0.620 1.689 951
3.068 0.648 1.750 15116
3.199 0.676 1.820 1090
3.066 0.648 1.738 15618
3.196 0.675 1.807 1615
3.077 0.650 1.732 18811
3.208 0.678 1.801 1934
3.089 0.652 1.727 19879
3.220 0.680 1.796 2319
3.093 0.653 1.718 17200
3.224 0.681 1.786 2606
3.091 0.653 1.705 14783
3.222 0.681 1.773 4032
3.095 0.654 1.696 10878
3.227 0.682 1.764 4866
3.100 0.655 1.687 9304
3.232 0.683 1.754 6370
3.188 0.673 1.720 11083
3.056 0.645 1.654 2758
3.319 0.701 1.787 751
3.199 0.676 1.714 9465
3.067 0.648 1.648 1902
3.238 0.684 1.722 10330
3.106 0.656 1.656 2695
3.236 0.684 1.709 9397
3.103 0.656 1.644 2129
3.375 0.713 1.778 1017
3.247 0.686 1.703 8217
3.380 0.714 1.768 2450
3.115 0.658 1.638 1344
3.273 0.691 1.704 9169
3.406 0.719 1.768 2233
3.140 0.663 1.639 1377
3.326 0.703 1.718 9103
3.193 0.675 1.654 2916
3.331 0.704 1.708 9951
3.197 0.675 1.644 1346
3.314 0.700 1.688 8084
3.448 0.728 1.752 1713
3.153 0.666 1.612 842
3.304 0.698 1.672 7917
3.438 0.726 1.735 2964
3.157 0.667 1.602 807
3.400 0.718 1.705 5761
3.267 0.690 1.642 4202
3.534 0.747 1.768 1210
3.391 0.716 1.689 6296
3.525 0.745 1.751 2134
3.257 0.688 1.626 1909
3.409 0.720 1.685 8486
3.543 0.749 1.747 1449
3.275 0.692 1.623 1418
3.414 0.721 1.675 10377
3.548 0.749 1.736 1612
3.279 0.693 1.614 786
3.418 0.722 1.665 9924
3.553 0.750 1.726 2340
3.422 0.723 1.655 8824
3.557 0.751 1.716 3738
3.434 0.725 1.648 7033
3.569 0.754 1.708 4759
3.566 0.753 1.695 6195
3.431 0.725 1.635 3803
3.708 0.783 1.758 855
3.585 0.757 1.690 7110
3.449 0.729 1.631 2565
3.720 0.786 1.750 1328
3.625 0.766 1.695 6707
3.489 0.737 1.636 3007
3.767 0.796 1.758 2149
3.679 0.777 1.706 5872
3.544 0.749 1.648 4226
3.815 0.806 1.765 1795
3.698 0.781 1.702 8879
3.562 0.752 1.643 5284
3.834 0.810 1.760 1864
3.702 0.782 1.691 12117
3.566 0.753 1.633 3448
3.838 0.811 1.749 1869
3.707 0.783 1.680 14834
3.571 0.754 1.623 3008
3.843 0.812 1.737 1668
3.711 0.784 1.669 15405
3.575 0.755 1.612 2866
3.847 0.813 1.726 2607
3.715 0.785 1.658 14530
3.852 0.814 1.715 3984
3.579 0.756 1.602 2078
3.720 0.786 1.647 14366
3.856 0.815 1.703 5113
3.583 0.757 1.591 1523
4.050 0.856 1.783 794
3.724 0.787 1.636 14282
3.861 0.816 1.692 6975
4.062 0.858 1.774 1041
3.728 0.788 1.625 12002
3.865 0.816 1.681 9230
4.060 0.858 1.759 1830
3.862 0.816 1.666 9885
3.725 0.787 1.611 8213
4.064 0.859 1.747 2855
3.874 0.818 1.658 8182
3.737 0.789 1.603 5290
4.076 0.861 1.738 2797
3.878 0.819 1.646 6463
4.081 0.862 1.726 3421
3.741 0.790 1.592 2869
3.875 0.819 1.632 7751
4.100 0.866 1.720 4969
3.738 0.790 1.578 1328
3.872 0.818 1.618 7931
4.111 0.868 1.711 5540
3.869 0.817 1.604 7090
4.167 0.880 1.718 6248
4.007 0.846 1.657 961
4.164 0.880 1.703 9236
3.873 0.818 1.592 6943
4.011 0.847 1.645 1001
4.168 0.880 1.691 8423
3.878 0.819 1.581 5434
4.030 0.851 1.639 948
4.173 0.881 1.678 7905
3.882 0.820 1.570 3098
4.177 0.882 1.666 9162
3.900 0.824 1.564 1089
4.174 0.882 1.651 8944
4.164 0.880 1.633 9123
4.302 0.909 1.684 1120
4.168 0.880 1.621 7119
4.307 0.910 1.671 1353
4.180 0.883 1.612 6579
4.318 0.912 1.661 1261
4.250 0.898 1.623 6663
4.111 0.868 1.573 908
4.418 0.933 1.682 771
4.261 0.900 1.613 11163
4.122 0.871 1.564 944
4.620 0.976 1.738 841
4.265 0.901 1.600 16314
4.632 0.978 1.727 1206
4.269 0.902 1.587 17198
4.600 0.972 1.701 3367
4.281 0.904 1.577 10987
4.597 0.971 1.685 6994
4.609 0.974 1.674 7727
4.285 0.905 1.565 5743
4.628 0.978 1.665 6928
4.282 0.904 1.550 5312
4.286 0.905 1.537 8117
4.632 0.978 1.651 5419
4.772 1.008 1.698 1402
4.290 0.906 1.524 7840
4.681 0.989 1.652 5411
4.821 1.018 1.698 1055
4.692 0.991 1.641 5923
4.294 0.907 1.512 4065
4.870 1.029 1.698 1794
4.711 0.995 1.632 5853
4.889 1.033 1.689 4469
4.283 0.905 1.494 1470
4.571 0.966 1.587 1023
4.716 0.996 1.618 6698
4.893 1.034 1.674 6102
4.905 1.036 1.662 7015
4.727 0.999 1.606 5301
4.909 1.037 1.648 9111
4.739 1.001 1.595 2825
5.184 1.095 1.733 1045
4.921 1.040 1.635 10090
4.750 1.003 1.583 2079
5.069 1.071 1.681 1975
5.210 1.101 1.724 1709
4.925 1.040 1.621 8542
5.066 1.070 1.664 3385
5.207 1.100 1.707 1952
4.740 1.001 1.564 1155
4.930 1.041 1.606 6472
5.078 1.073 1.651 3914
5.219 1.103 1.694 2623
4.744 1.002 1.550 824
4.934 1.042 1.592 5649
5.231 1.105 1.680 4649
5.090 1.075 1.638 2904
5.258 1.111 1.671 5331
4.938 1.043 1.577 3622
5.109 1.079 1.628 1594
5.399 1.141 1.713 1411
5.292 1.118 1.665 6081
4.934 1.042 1.560 1604
5.106 1.079 1.610 1549
5.434 1.148 1.706 1493
5.289 1.117 1.647 3665
5.445 1.150 1.692 1597
5.110 1.079 1.595 1302
5.256 1.110 1.621 3936
5.487 1.159 1.686 2804
5.282 1.116 1.611 3361
5.499 1.162 1.672 2754
5.693 1.203 1.727 1021
5.436 1.148 1.637 3406
5.713 1.207 1.714 1968
5.294 1.118 1.598 1568
5.877 1.241 1.760 1005
5.508 1.163 1.640 4849
5.725 1.209 1.699 2807
5.874 1.241 1.741 1468
5.366 1.133 1.601 1451
5.512 1.164 1.623 6905
5.759 1.217 1.691 3115
5.901 1.247 1.729 1294
5.370 1.134 1.585 1163
5.441 1.149 1.587 5260
5.816 1.229 1.688 3731
5.674 1.198 1.649 2335
5.981 1.263 1.732 1154
5.820 1.229 1.671 5087
5.438 1.149 1.569 3056
5.670 1.198 1.631 2261
5.985 1.264 1.714 1390
5.802 1.226 1.647 5469
5.945 1.256 1.685 2015
5.449 1.151 1.555 1590
5.660 1.196 1.610 1499
5.799 1.225 1.628 6281
6.144 1.298 1.718 3399
5.942 1.255 1.665 2430
5.461 1.154 1.541 1452
5.818 1.229 1.615 7378
6.149 1.299 1.700 4874
6.006 1.269 1.663 2892
5.457 1.153 1.523 1745
6.161 1.301 1.683 6490
5.807 1.227 1.594 4594
6.018 1.271 1.647 3853
6.326 1.336 1.725 1472
6.165 1.302 1.665 7028
6.022 1.272 1.629 2692
5.879 1.242 1.594 2495
6.346 1.340 1.710 1741
6.177 1.305 1.649 6563
6.365 1.345 1.695 2520
6.034 1.275 1.613 1384
5.891 1.244 1.578 1160
6.181 1.306 1.630 6212
6.407 1.353 1.686 3539
6.038 1.275 1.596 858
6.201 1.310 1.616 5563
6.427 1.358 1.670 5051
6.050 1.278 1.580 769
6.454 1.363 1.657 7311
6.205 1.311 1.597 5318
6.620 1.398 1.696 821
6.443 1.361 1.634 8173
6.209 1.312 1.579 3181
6.624 1.399 1.676 1153
6.881 1.454 1.736 961
6.432 1.359 1.611 8102
6.205 1.311 1.559 1653
6.976 1.474 1.737 1492
6.628 1.400 1.657 1180
6.436 1.360 1.592 8187
7.124 1.505 1.749 1982
6.981 1.475 1.716 1858
6.625 1.400 1.635 1271
6.440 1.360 1.573 6740
7.144 1.509 1.731 2149
7.424 1.568 1.794 1489
6.728 1.421 1.638 1239
6.444 1.361 1.554 4449
7.141 1.508 1.708 2314
7.285 1.539 1.740 1813
7.436 1.571 1.774 1521
6.448 1.362 1.535 3212
7.433 1.570 1.750 2617
7.138 1.508 1.686 2187
7.282 1.538 1.717 2040
7.445 1.573 1.730 3702
6.452 1.363 1.516 2018
7.301 1.542 1.699 1658
7.036 1.486 1.642 1342
7.450 1.574 1.708 4742
7.306 1.543 1.677 1147
7.154 1.511 1.645 1079
7.662 1.619 1.753 990
7.454 1.575 1.686 6597
7.690 1.624 1.735 1361
7.887 1.666 1.776 1237
7.166 1.514 1.625 971
7.459 1.576 1.663 6595
7.702 1.627 1.713 1975
7.899 1.669 1.754 1737
8.043 1.699 1.784 1241
7.478 1.580 1.644 5999
7.896 1.668 1.729 2178
7.714 1.629 1.692 1876
8.048 1.700 1.760 1487
7.475 1.579 1.621 4819
7.901 1.669 1.706 2753
7.733 1.634 1.672 1325
8.494 1.794 1.824 1180
7.913 1.671 1.684 3407
7.479 1.580 1.599 2659
8.498 1.795 1.799 2529
8.186 1.729 1.738 1394
8.503 1.796 1.774 3649
7.917 1.672 1.660 3404
8.199 1.732 1.715 1616
7.491 1.582 1.578 1397
8.515 1.799 1.750 3261
7.914 1.672 1.635 2667
8.157 1.723 1.682 1769
8.759 1.850 1.796 1190
8.543 1.805 1.729 3367
8.162 1.724 1.658 1790
7.926 1.674 1.613 1585
8.741 1.846 1.766 1387
8.540 1.804 1.702 3645
8.860 1.872 1.761 2109
8.166 1.725 1.633 1075
8.395 1.773 1.676 946
8.536 1.803 1.676 3987
8.880 1.876 1.738 3106
8.735 1.845 1.711 896
8.193 1.731 1.613 757
8.541 1.804 1.650 3888
8.793 1.857 1.695 2757
8.938 1.888 1.721 1517
8.545 1.805 1.625 2411
8.797 1.858 1.669 2018
9.018 1.905 1.708 1170
8.817 1.862 1.646 2353
8.557 1.808 1.601 1962
9.008 1.903 1.678 1916
9.680 2.045 1.794 890
8.813 1.862 1.618 2815
8.997 1.900 1.649 2263
8.561 1.808 1.575 1888
9.684 2.046 1.765 1253
8.917 1.884 1.608 2307
9.697 2.048 1.738 1155
8.771 1.853 1.584 1111
8.565 1.809 1.550 1055
8.936 1.888 1.584 1693
10.481 2.214 1.836 1662
9.961 2.104 1.751 1027
9.716 2.052 1.711 962
10.479 2.213 1.804 1547
9.002 1.901 1.568 1347
9.851 2.081 1.703 1152
10.065 2.126 1.738 952
10.476 2.213 1.771 1347
9.848 2.080 1.673 1046
9.013 1.904 1.542 965
9.687 2.046 1.648 777
10.519 2.222 1.746 1217
9.959 2.104 1.660 982
10.794 2.280 1.788 852
10.538 2.226 1.717 1449
10.753 2.271 1.749 1158
9.918 2.095 1.624 1068
10.937 2.310 1.777 1067
10.957 2.315 1.747 1415
10.558 2.230 1.688 1312
10.735 2.268 1.714 1282
9.907 2.093 1.592 935
10.961 2.315 1.714 1554
10.731 2.267 1.681 1105
10.555 2.230 1.656 1051
11.514 2.432 1.794 874
10.958 2.315 1.681 1736
11.403 2.409 1.744 1275
11.211 2.368 1.716 891
10.720 2.265 1.647 868
11.415 2.411 1.711 1505
10.963 2.316 1.648 1481
11.247 2.376 1.687 877
10.732 2.267 1.616 792
11.428 2.414 1.678 1685
11.881 2.510 1.739 1015
11.074 2.339 1.630 912
11.243 2.375 1.653 751
11.424 2.413 1.643 1600
11.885 2.511 1.704 1014
11.086 2.342 1.598 755
11.421 2.413 1.608 1214
11.897 2.513 1.670 1128
11.902 2.514 1.634 1346
11.525 2.434 1.587 1181
11.898 2.513 1.598 1186
11.544 2.439 1.554 933
13.098 2.767 1.746 783
13.014 2.749 1.657 803
12.714 2.686 1.622 802
2.310 0.480 1.791 2779
2.315 0.481 1.784 5559
2.435 0.506 1.872 782
2.345 0.488 1.796 5852
2.225 0.463 1.709 1359
2.324 0.483 1.771 5146
2.445 0.508 1.857 1511
2.322 0.483 1.760 4906
2.443 0.508 1.846 1586
2.327 0.484 1.753 4551
2.448 0.509 1.839 1710
2.332 0.485 1.746 4197
2.453 0.510 1.832 1834
2.336 0.486 1.739 4197
2.458 0.511 1.824 1834
2.334 0.485 1.728 3226
2.469 0.513 1.822 2193
2.480 0.516 1.819 2759
2.339 0.486 1.721 2293
2.517 0.523 1.834 4831
2.395 0.498 1.750 2029
2.522 0.524 1.826 7360
2.399 0.499 1.743 2028
2.533 0.527 1.823 8462
2.410 0.501 1.740 2122
2.538 0.528 1.816 9651
2.415 0.502 1.733 2011
2.543 0.529 1.809 9651
2.420 0.503 1.726 2031
2.547 0.530 1.801 7508
2.424 0.504 1.719 2048
2.671 0.555 1.883 1042
2.565 0.533 1.802 5653
2.435 0.506 1.716 2091
2.689 0.559 1.884 1140
2.576 0.536 1.799 6195
2.453 0.510 1.718 1903
2.700 0.562 1.881 1435
2.588 0.538 1.796 7022
2.464 0.512 1.715 2076
2.712 0.564 1.877 1570
2.592 0.539 1.788 6867
2.717 0.565 1.869 1929
2.468 0.513 1.708 1370
2.597 0.540 1.781 6713
2.722 0.566 1.861 2287
2.608 0.542 1.777 5042
2.733 0.568 1.857 1833
2.685 0.558 1.816 4296
2.560 0.532 1.736 1897
2.690 0.559 1.808 3866
2.565 0.533 1.729 1347
2.754 0.573 1.838 3769
2.629 0.547 1.759 2675
2.753 0.572 1.825 5230
2.627 0.546 1.747 2203
2.751 0.572 1.813 7007
2.625 0.546 1.735 1649
2.756 0.573 1.805 6404
2.629 0.547 1.727 1790
2.760 0.574 1.797 5801
2.634 0.548 1.720 1930
2.765 0.575 1.789 4915
2.639 0.549 1.712 1282
2.891 0.601 1.866 766
2.763 0.575 1.777 4081
2.890 0.601 1.854 1014
2.768 0.576 1.769 4679
2.895 0.602 1.845 1308
2.779 0.578 1.765 5296
2.913 0.606 1.845 1560
2.871 0.597 1.808 5278
2.743 0.571 1.733 1899
2.882 0.599 1.804 7226
2.755 0.573 1.729 1817
2.901 0.603 1.803 6873
2.773 0.577 1.728 2143
2.912 0.606 1.799 7246
2.784 0.579 1.724 1178
2.923 0.608 1.794 5526
2.795 0.581 1.720 1012
2.962 0.616 1.805 3542
2.834 0.589 1.731 1804
2.906 0.604 1.761 3739
3.034 0.631 1.835 1410
3.012 0.626 1.810 4400
2.883 0.600 1.738 2325
3.017 0.627 1.802 6509
2.888 0.601 1.729 1584
3.022 0.628 1.793 8021
2.892 0.602 1.721 1321
3.026 0.629 1.784 8904
2.897 0.602 1.712 1101
3.024 0.629 1.771 8533
2.895 0.602 1.700 983
3.036 0.631 1.766 11074
2.906 0.604 1.695 1261
3.047 0.634 1.761 13688
2.917 0.607 1.690 1382
3.066 0.638 1.759 13849
2.935 0.610 1.689 1122
3.070 0.639 1.750 15465
3.201 0.666 1.820 1119
2.940 0.611 1.681 812
3.068 0.638 1.738 16279
3.199 0.665 1.807 1404
3.079 0.640 1.732 19195
3.210 0.668 1.801 1546
3.084 0.641 1.723 19615
3.215 0.669 1.792 1749
3.088 0.642 1.714 16861
3.220 0.670 1.783 2035
3.093 0.643 1.705 15028
3.224 0.671 1.773 3322
3.097 0.644 1.696 11391
3.229 0.672 1.764 4323
3.102 0.645 1.687 9588
3.234 0.672 1.754 6186
3.190 0.663 1.720 10797
3.058 0.636 1.654 2696
3.201 0.666 1.714 8661
3.069 0.638 1.648 1912
3.233 0.672 1.719 8238
3.101 0.645 1.653 2106
3.231 0.672 1.706 8573
3.098 0.644 1.640 1741
3.371 0.701 1.775 1090
3.249 0.676 1.703 8504
3.382 0.703 1.768 1990
3.117 0.648 1.638 1182
3.275 0.681 1.704 9822
3.408 0.709 1.768 1850
3.142 0.653 1.639 934
3.328 0.692 1.718 8719
3.195 0.665 1.654 2732
3.462 0.720 1.782 814
3.333 0.693 1.708 10017
3.200 0.665 1.644 1084
3.466 0.721 1.772 919
