2.784 1.973 1.653 1578
2.900 2.055 1.704 11954
3.012 2.134 1.766 3227
2.910 2.061 1.697 10634
3.022 2.141 1.758 3462
2.797 1.982 1.636 1072
2.919 2.068 1.690 6725
3.049 2.160 1.760 2753
2.807 1.989 1.629 1118
2.870 2.033 1.651 4773
2.988 2.117 1.715 3762
3.100 2.197 1.775 1430
2.968 2.103 1.692 4516
3.081 2.183 1.751 3142
2.855 2.023 1.632 2133
2.995 2.122 1.694 6387
2.883 2.042 1.634 1730
3.108 2.202 1.753 1518
3.047 2.159 1.708 7746
2.928 2.074 1.646 2885
3.056 2.165 1.700 7316
2.943 2.085 1.642 2650
3.030 2.147 1.674 9054
3.143 2.227 1.732 3614
3.040 2.154 1.666 9772
3.153 2.234 1.724 4570
3.133 2.220 1.701 8284
3.020 2.139 1.644 3737
3.131 2.218 1.687 8075
3.017 2.138 1.630 1119
3.122 2.212 1.670 8202
3.236 2.293 1.727 2018
3.132 2.219 1.662 8655
3.246 2.300 1.718 2965
3.220 2.281 1.692 8315
3.106 2.200 1.636 2544
3.334 2.362 1.748 1034
3.217 2.280 1.678 7964
3.331 2.360 1.733 1816
3.103 2.199 1.622 1140
3.203 2.269 1.658 6820
3.317 2.350 1.713 3692
3.219 2.280 1.652 6384
3.333 2.361 1.707 3314
3.234 2.292 1.646 8467
3.349 2.373 1.701 3269
3.250 2.303 1.641 8304
3.365 2.384 1.694 4701
3.332 2.361 1.666 7109
3.447 2.442 1.719 3429
3.217 2.279 1.612 1745
3.396 2.406 1.682 8427
3.281 2.325 1.629 4567
3.511 2.488 1.735 1142
3.412 2.417 1.675 7955
3.297 2.336 1.623 4473
3.527 2.499 1.728 1434
3.440 2.437 1.674 6614
3.319 2.351 1.619 2725
3.585 2.540 1.740 1228
3.468 2.457 1.673 5662
3.352 2.375 1.621 3067
3.583 2.539 1.725 2132
3.471 2.459 1.661 4920
3.587 2.541 1.712 3522
3.356 2.378 1.609 2113
3.451 2.445 1.638 5436
3.584 2.540 1.697 3655
3.454 2.447 1.626 6122
3.570 2.529 1.676 4367
3.685 2.611 1.726 1218
3.634 2.575 1.690 6996
3.464 2.454 1.616 4946
3.638 2.578 1.677 7964
3.522 2.495 1.627 3407
3.636 2.576 1.661 7786
3.520 2.494 1.612 3488
3.752 2.658 1.711 1933
3.633 2.574 1.646 7687
3.749 2.656 1.695 2722
3.517 2.492 1.597 1628
3.637 2.577 1.633 5764
3.753 2.659 1.681 2275
3.708 2.627 1.648 8615
3.824 2.709 1.696 1884
3.711 2.629 1.635 8649
3.828 2.712 1.682 2225
3.715 2.632 1.622 5208
3.831 2.714 1.669 3283
3.823 2.708 1.650 5487
3.706 2.626 1.604 3739
3.939 2.791 1.697 1065
3.838 2.720 1.642 5457
3.722 2.637 1.595 3308
3.955 2.802 1.688 1621
3.910 2.770 1.655 6406
3.762 2.665 1.597 2422
4.039 2.862 1.705 1095
3.907 2.768 1.638 5249
3.790 2.685 1.593 1519
4.024 2.851 1.684 1335
3.966 2.810 1.646 5909
3.849 2.727 1.601 3608
3.964 2.808 1.630 7367
3.846 2.725 1.585 3333
3.979 2.819 1.620 7819
3.862 2.736 1.576 3025
4.097 2.903 1.664 1262
4.032 2.857 1.625 7920
3.878 2.748 1.567 1613
4.036 2.860 1.610 7703
3.894 2.759 1.558 1982
4.052 2.871 1.601 10369
3.903 2.765 1.546 1329
4.055 2.873 1.586 16872
4.173 2.957 1.629 1388
4.059 2.876 1.572 21456
4.177 2.959 1.614 1909
4.062 2.878 1.557 21593
4.180 2.962 1.599 2588
4.065 2.880 1.543 20486
4.183 2.964 1.584 3174
4.069 2.883 1.529 16008
4.187 2.966 1.569 3018
4.485 3.178 1.673 1103
4.134 2.929 1.536 9902
4.016 2.845 1.495 1648
4.508 3.194 1.663 1327
4.138 2.932 1.521 9931
4.493 3.183 1.641 2127
4.019 2.848 1.481 1009
4.141 2.934 1.506 10177
4.496 3.186 1.625 3041
4.259 3.018 1.546 1254
4.615 3.269 1.664 1128
4.150 2.941 1.494 7411
4.562 3.232 1.629 5073
4.572 3.239 1.615 6778
4.147 2.938 1.477 5123
4.582 3.246 1.601 6748
4.144 2.936 1.460 4970
4.700 3.330 1.639 1493
4.844 3.432 1.686 1379
4.585 3.249 1.585 5824
4.147 2.938 1.446 2853
4.735 3.355 1.633 1961
4.854 3.439 1.671 1748
4.588 3.251 1.569 7810
4.970 3.521 1.689 1704
4.851 3.437 1.651 1325
4.732 3.353 1.614 1221
4.592 3.253 1.552 8146
4.986 3.533 1.675 2761
4.867 3.449 1.638 2081
4.748 3.364 1.601 1347
4.890 3.464 1.627 4578
4.601 3.260 1.538 3976
5.009 3.549 1.663 3834
4.746 3.362 1.582 1299
5.006 3.547 1.643 6098
4.887 3.462 1.607 3784
4.605 3.263 1.522 3043
5.125 3.631 1.680 1743
5.003 3.545 1.624 5129
5.123 3.629 1.660 3899
4.614 3.269 1.507 2505
4.884 3.460 1.588 1599
5.114 3.623 1.638 4819
4.994 3.539 1.602 3078
4.611 3.267 1.489 1189
4.875 3.454 1.567 1020
5.123 3.630 1.621 5586
5.004 3.545 1.586 3821
5.243 3.715 1.656 1885
5.121 3.628 1.601 5908
5.001 3.543 1.567 3101
5.240 3.713 1.636 2626
5.124 3.631 1.583 4189
5.250 3.720 1.619 3370
5.005 3.546 1.549 2298
5.260 3.727 1.602 4936
5.134 3.637 1.567 3051
5.455 3.865 1.657 1750
5.014 3.553 1.533 1331
5.270 3.734 1.585 5221
5.131 3.635 1.547 2127
5.459 3.867 1.637 2073
5.273 3.736 1.566 4773
5.468 3.874 1.620 3021
5.147 3.647 1.532 1835
5.466 3.872 1.599 4497
5.276 3.738 1.548 3087
5.138 3.640 1.510 1612
5.469 3.875 1.579 4315
5.349 3.790 1.547 2581
5.473 3.877 1.560 4063
5.352 3.792 1.528 1936
5.864 4.155 1.662 1701
5.043 3.573 1.447 1031
5.476 3.880 1.540 3400
5.880 4.166 1.645 2036
5.356 3.795 1.509 1414
5.928 4.200 1.635 2477
5.486 3.887 1.523 2367
5.932 4.203 1.614 2038
5.482 3.884 1.502 1932
6.058 4.292 1.646 1018
5.935 4.205 1.593 2323
6.062 4.295 1.624 2222
5.486 3.887 1.482 1128
6.065 4.297 1.603 3645
5.907 4.185 1.564 2704
6.262 4.437 1.651 1429
6.075 4.304 1.583 4355
5.904 4.183 1.542 2160
6.272 4.444 1.630 1256
6.079 4.307 1.561 3866
5.901 4.181 1.519 1631
6.275 4.446 1.608 1539
6.082 4.309 1.540 3114
6.279 4.449 1.585 2312
5.898 4.179 1.497 1506
6.399 4.534 1.613 1504
6.282 4.451 1.563 2315
6.085 4.312 1.518 2223
6.651 4.712 1.647 1869
6.403 4.537 1.591 1411
6.648 4.710 1.622 2508
6.368 4.512 1.559 2064
6.781 4.805 1.652 1723
6.076 4.305 1.494 1360
6.728 4.767 1.615 2112
6.295 4.460 1.520 1608
6.607 4.681 1.589 1377
6.085 4.312 1.473 1183
6.731 4.769 1.591 2408
6.305 4.467 1.499 1470
6.101 4.323 1.455 1073
6.722 4.762 1.565 2055
7.059 5.001 1.637 1475
6.801 4.819 1.557 1907
7.063 5.004 1.612 1826
7.260 5.144 1.653 1706
6.661 4.720 1.527 1410
7.257 5.142 1.626 2287
6.824 4.835 1.537 2161
7.066 5.006 1.586 1681
7.410 5.250 1.657 1580
7.254 5.140 1.599 2192
7.420 5.257 1.632 1808
6.821 4.833 1.511 1732
7.076 5.013 1.563 1370
7.430 5.264 1.607 1879
7.290 5.165 1.579 1711
6.799 4.817 1.482 1685
7.647 5.418 1.650 1354
7.408 5.249 1.576 2424
7.644 5.416 1.622 1730
7.791 5.520 1.650 1523
7.287 5.163 1.552 1415
7.418 5.255 1.551 2181
7.794 5.522 1.623 2144
7.641 5.414 1.593 1954
7.296 5.170 1.527 1023
7.804 5.529 1.596 3158
7.651 5.421 1.567 2187
7.427 5.262 1.525 1176
8.136 5.764 1.659 1082
7.820 5.541 1.571 4201
7.661 5.428 1.541 2015
8.127 5.758 1.627 1341
7.830 5.548 1.544 3940
8.124 5.756 1.597 1555
7.664 5.430 1.514 1229
8.341 5.910 1.636 1218
7.821 5.541 1.514 2898
8.479 6.008 1.630 1495
9.195 6.515 1.757 1253
8.338 5.908 1.606 1205
7.824 5.543 1.486 2375
9.045 6.409 1.698 1387
8.598 6.092 1.620 1381
8.329 5.901 1.574 1099
8.934 6.330 1.646 1780
7.827 5.545 1.458 1403
9.056 6.416 1.667 1282
8.595 6.090 1.588 1139
8.931 6.328 1.613 2305
9.059 6.418 1.634 1411
9.194 6.514 1.657 1377
9.891 7.008 1.772 1246
9.204 6.521 1.625 2897
8.922 6.321 1.579 1909
9.895 7.011 1.737 1827
9.043 6.407 1.599 1779
9.213 6.528 1.593 3569
9.899 7.013 1.702 2706
8.912 6.315 1.545 1869
9.034 6.401 1.565 1517
9.210 6.526 1.559 3461
9.903 7.016 1.667 3226
8.922 6.321 1.515 1533
9.076 6.430 1.538 1283
9.906 7.019 1.631 3282
9.201 6.519 1.525 2485
9.066 6.424 1.504 1436
10.111 7.164 1.662 1113
9.903 7.017 1.595 2898
9.063 6.421 1.471 1291
9.185 6.508 1.489 1251
10.121 7.171 1.627 1135
9.907 7.019 1.560 1995
10.099 7.155 1.587 1651
10.109 7.162 1.552 2033
9.910 7.021 1.524 1597
9.913 7.024 1.489 1399
10.125 7.174 1.518 1315
10.161 7.199 1.486 1050
10.138 7.183 1.447 1029
10.160 7.199 1.413 1316
10.170 7.205 1.378 1754
10.292 7.292 1.393 1022
10.173 7.207 1.341 1491
10.295 7.294 1.356 1052
10.175 7.209 1.305 1167
8.424 5.969 -0.429 1010
8.423 5.968 -0.459 1395
8.422 5.967 -0.489 1605
8.420 5.966 -0.519 1816
8.418 5.965 -0.549 1402
8.421 5.967 -0.610 1006
8.426 5.970 -0.640 1060
8.424 5.969 -0.670 1060
8.375 5.934 -0.725 1013
8.373 5.932 -0.755 1154
8.377 5.935 -0.786 1313
8.381 5.938 -0.816 1449
8.379 5.937 -0.846 1597
8.377 5.935 -0.876 1597
8.349 5.915 -0.903 1253
8.320 5.895 -0.929 1480
8.299 5.880 -0.956 1286
8.296 5.878 -0.985 1184
1.872 1.316 1.740 3058
1.876 1.319 1.734 6116
1.976 1.389 1.821 1551
1.880 1.321 1.727 6116
1.980 1.392 1.814 2758
1.910 1.343 1.744 5957
2.011 1.413 1.830 1951
1.919 1.349 1.741 6309
2.020 1.420 1.828 1790
1.739 1.222 1.587 1077
1.987 1.397 1.789 6402
1.886 1.326 1.703 2824
1.991 1.399 1.782 7513
1.890 1.328 1.696 2357
1.995 1.402 1.775 7513
1.894 1.331 1.690 2357
1.994 1.401 1.764 8356
1.892 1.330 1.679 2317
1.981 1.393 1.743 10395
1.879 1.321 1.659 1560
1.990 1.399 1.741 9868
1.888 1.327 1.657 1537
1.994 1.402 1.734 9500
1.892 1.330 1.650 1217
2.097 1.474 1.818 1035
1.998 1.404 1.727 8034
2.101 1.476 1.810 1284
1.896 1.332 1.644 1029
2.056 1.445 1.764 7496
1.953 1.373 1.681 1914
2.159 1.517 1.847 1239
2.033 1.429 1.735 8519
2.157 1.516 1.835 1249
1.930 1.356 1.652 1016
2.047 1.439 1.736 10565
2.150 1.511 1.819 1846
1.944 1.367 1.654 1234
2.057 1.446 1.733 12046
2.160 1.518 1.815 2127
1.953 1.373 1.652 1657
2.082 1.464 1.743 10553
1.979 1.391 1.662 2090
2.186 1.536 1.825 1082
2.097 1.474 1.745 12605
1.993 1.401 1.664 1549
2.106 1.480 1.742 10995
2.002 1.407 1.661 2074
2.210 1.553 1.822 1134
2.116 1.487 1.738 10029
2.006 1.410 1.654 1978
2.220 1.560 1.819 1564
2.125 1.493 1.735 8744
2.021 1.420 1.655 1724
2.229 1.567 1.815 1607
2.134 1.500 1.732 7549
2.030 1.427 1.652 1675
2.239 1.573 1.812 1581
2.160 1.518 1.741 8919
2.055 1.445 1.662 1677
2.169 1.525 1.738 10554
2.179 1.531 1.734 10632
2.188 1.538 1.731 11123
2.304 1.620 1.817 1149
2.208 1.552 1.736 9376
2.314 1.626 1.813 1494
2.218 1.559 1.732 8533
2.323 1.633 1.809 1659
2.216 1.558 1.720 6777
2.322 1.632 1.797 2207
2.203 1.548 1.700 5895
2.314 1.627 1.781 2821
2.290 1.610 1.753 5996
2.184 1.535 1.676 2967
2.305 1.620 1.753 9163
2.199 1.546 1.677 1891
2.412 1.695 1.829 1047
2.309 1.623 1.745 9475
2.203 1.548 1.669 1897
2.416 1.698 1.820 1098
2.319 1.630 1.741 9862
2.212 1.555 1.665 2152
2.425 1.705 1.816 1051
2.317 1.629 1.728 8184
2.424 1.704 1.803 1417
2.210 1.553 1.654 1056
2.338 1.643 1.732 7614
2.445 1.718 1.806 1414
2.347 1.650 1.728 9397
2.454 1.725 1.802 1598
2.357 1.656 1.723 9217
2.464 1.732 1.797 1641
2.366 1.663 1.719 9408
2.479 1.742 1.796 1702
2.370 1.666 1.711 6672
2.483 1.745 1.787 1983
2.413 1.696 1.729 6062
2.521 1.772 1.802 1880
2.440 1.715 1.736 5600
2.332 1.639 1.664 2171
2.483 1.745 1.754 8741
2.375 1.669 1.682 2585
2.487 1.748 1.745 12006
2.379 1.672 1.674 2009
2.491 1.751 1.736 11723
2.383 1.675 1.665 1840
2.600 1.827 1.807 1077
2.489 1.750 1.724 11709
2.598 1.826 1.794 1677
2.380 1.673 1.653 1532
2.493 1.752 1.715 9689
2.602 1.829 1.785 2074
2.384 1.676 1.645 1208
2.554 1.795 1.743 8256
2.445 1.719 1.673 1485
2.558 1.798 1.734 10127
2.449 1.721 1.665 1059
2.567 1.805 1.729 10617
2.571 1.807 1.720 8989
2.575 1.810 1.711 6592
2.685 1.887 1.779 1235
2.579 1.813 1.702 7348
2.706 1.902 1.780 1791
2.588 1.819 1.696 10000
2.716 1.909 1.774 2361
2.592 1.822 1.687 11874
2.714 1.907 1.761 3276
2.607 1.833 1.685 10824
2.718 1.910 1.752 4711
2.628 1.847 1.686 8628
2.739 1.925 1.753 4839
2.512 1.766 1.617 1151
2.638 1.854 1.681 7801
2.749 1.932 1.746 5367
2.516 1.768 1.608 1129
2.653 1.865 1.678 8195
2.764 1.943 1.744 6080
2.745 1.929 1.720 10057
2.634 1.851 1.655 6213
2.855 2.007 1.785 1086
2.748 1.932 1.711 11316
2.637 1.854 1.646 6627
2.859 2.010 1.775 1351
2.746 1.930 1.698 12653
2.635 1.852 1.633 4218
2.857 2.008 1.762 2297
2.762 1.941 1.695 16209
2.873 2.019 1.758 2767
2.650 1.863 1.631 2285
2.789 1.960 1.698 17668
2.900 2.039 1.762 2440
2.677 1.882 1.635 1270
2.804 1.971 1.695 16640
2.916 2.050 1.758 2459
2.693 1.892 1.632 1261
2.802 1.969 1.682 12343
2.914 2.048 1.745 3191
2.894 2.034 1.721 6531
2.782 1.955 1.659 4167
3.006 2.113 1.784 1524
2.904 2.041 1.714 11104
3.016 2.120 1.776 2184
2.792 1.962 1.653 2136
2.908 2.044 1.704 14261
3.020 2.123 1.766 2944
2.795 1.965 1.643 2001
2.911 2.046 1.694 12922
3.024 2.125 1.755 3381
2.799 1.967 1.633 1968
2.927 2.057 1.690 9312
3.040 2.136 1.751 2233
2.814 1.978 1.629 2085
2.960 2.081 1.696 5408
2.848 2.001 1.635 2770
3.073 2.160 1.756 2358
2.982 2.096 1.695 6339
2.869 2.016 1.635 2188
3.095 2.175 1.755 2033
3.003 2.111 1.694 7291
3.116 2.190 1.753 1479
2.890 2.032 1.634 1365
3.049 2.143 1.705 8350
2.936 2.063 1.646 3588
3.058 2.150 1.697 6922
2.945 2.070 1.639 3597
3.172 2.229 1.756 1405
3.038 2.136 1.674 7695
3.152 2.215 1.732 3623
2.925 2.056 1.616 1145
3.048 2.142 1.666 8993
3.162 2.222 1.724 5079
3.135 2.204 1.698 7569
3.022 2.124 1.641 2675
3.121 2.194 1.678 6621
3.235 2.274 1.735 1542
3.131 2.201 1.670 8238
3.245 2.281 1.727 2643
3.146 2.212 1.665 9553
3.261 2.292 1.721 3459
3.156 2.218 1.657 7748
3.270 2.299 1.713 2536
3.202 2.250 1.666 7655
3.316 2.331 1.721 2818
3.218 2.261 1.661 7614
3.332 2.342 1.716 3798
3.227 2.268 1.652 7509
3.342 2.349 1.707 3774
3.243 2.279 1.646 9356
3.358 2.360 1.701 4332
3.259 2.290 1.641 8357
3.404 2.392 1.709 5693
3.401 2.391 1.694 8491
3.268 2.297 1.632 5558
3.405 2.393 1.682 9868
3.284 2.308 1.626 4544
3.520 2.474 1.735 1926
3.415 2.400 1.673 8663
3.300 2.319 1.620 3647
3.530 2.481 1.725 2814
3.443 2.420 1.671 7121
3.327 2.339 1.619 2637
3.558 2.501 1.724 1896
3.471 2.440 1.670 6675
3.355 2.358 1.619 3273
3.586 2.521 1.722 1975
3.474 2.442 1.658 4819
3.590 2.523 1.709 2484
3.359 2.361 1.607 2156
3.460 2.432 1.638 3962
3.588 2.522 1.694 3139
3.567 2.507 1.671 5793
3.451 2.426 1.620 3791
3.683 2.589 1.721 2298
3.650 2.566 1.692 6495
3.467 2.437 1.613 3307
3.642 2.560 1.674 7494
3.525 2.478 1.625 2877
3.645 2.562 1.661 8285
3.529 2.480 1.612 2979
3.786 2.661 1.721 1514
3.643 2.560 1.646 8731
3.759 2.642 1.695 2167
3.526 2.479 1.597 1445
3.646 2.563 1.633 5134
3.763 2.645 1.681 2103
3.717 2.613 1.648 8526
3.871 2.721 1.711 1398
3.721 2.615 1.635 9443
3.868 2.719 1.695 2673
3.731 2.622 1.624 5894
3.884 2.730 1.686 3721
3.747 2.633 1.616 5146
3.864 2.716 1.663 4674
3.981 2.798 1.709 1413
3.855 2.709 1.644 5907
3.738 2.627 1.598 4732
3.972 2.792 1.690 2987
3.963 2.786 1.672 6113
3.846 2.703 1.626 4357
3.729 2.621 1.580 2046
3.979 2.797 1.662 8307
3.862 2.714 1.617 2776
3.983 2.799 1.648 8776
3.865 2.717 1.603 2529
3.980 2.798 1.632 10479
3.863 2.715 1.587 1862
3.984 2.800 1.618 10433
3.866 2.717 1.574 1245
4.101 2.883 1.662 1160
3.994 2.807 1.606 7743
3.876 2.724 1.562 1084
4.040 2.840 1.608 7348
3.904 2.744 1.558 1390
4.044 2.842 1.594 8508
4.162 2.925 1.637 1714
4.066 2.858 1.586 13189
4.184 2.941 1.629 1889
4.063 2.856 1.570 17241
4.181 2.939 1.612 1855
4.060 2.854 1.553 16183
4.179 2.937 1.595 2488
4.341 3.051 1.652 1208
4.070 2.861 1.541 15678
4.188 2.944 1.582 3506
4.344 3.053 1.636 1807
4.080 2.867 1.529 13818
4.198 2.951 1.569 3187
4.354 3.060 1.623 1894
4.472 3.143 1.664 1101
4.152 2.918 1.538 9569
4.033 2.835 1.497 3106
4.445 3.124 1.638 2907
4.276 3.006 1.580 1523
4.149 2.916 1.521 10083
4.448 3.127 1.622 2735
4.579 3.219 1.666 1497
4.267 2.999 1.561 1476
4.152 2.918 1.506 9915
4.514 3.173 1.627 2482
4.271 3.002 1.546 1559
4.161 2.925 1.494 7580
4.574 3.215 1.629 3257
4.455 3.132 1.590 1464
4.693 3.299 1.669 1178
4.584 3.222 1.615 5584
4.165 2.927 1.479 5352
4.703 3.306 1.654 1762
4.465 3.138 1.577 1403
4.162 2.925 1.462 5162
4.594 3.229 1.601 4812
4.713 3.312 1.639 2322
4.851 3.409 1.684 2242
4.604 3.236 1.587 3424
4.165 2.927 1.448 2886
4.861 3.416 1.669 2772
4.735 3.328 1.629 2372
4.601 3.234 1.569 6269
4.971 3.494 1.685 2155
4.739 3.331 1.612 1985
4.604 3.236 1.552 6405
4.887 3.435 1.640 3058
4.767 3.351 1.603 2073
5.006 3.518 1.677 1689
4.878 3.428 1.619 4576
5.072 3.565 1.679 2934
4.601 3.234 1.534 2177
4.758 3.344 1.582 1899
5.095 3.581 1.666 5568
4.875 3.426 1.600 3360
4.623 3.250 1.524 1756
4.755 3.342 1.564 1036
5.098 3.584 1.648 7359
4.979 3.500 1.613 3509
4.620 3.247 1.505 1974
4.859 3.416 1.577 1296
5.083 3.573 1.625 7760
4.964 3.489 1.589 2049
4.617 3.245 1.487 1416
5.093 3.580 1.608 6789
4.973 3.496 1.574 2087
5.219 3.668 1.645 1155
4.614 3.243 1.469 1101
5.122 3.600 1.598 6444
5.002 3.516 1.563 3826
5.242 3.684 1.632 1750
5.361 3.768 1.667 1230
5.125 3.602 1.580 5002
5.005 3.518 1.546 2315
5.245 3.687 1.614 2013
5.365 3.771 1.648 1774
5.148 3.618 1.567 4305
5.369 3.773 1.629 2457
5.488 3.858 1.662 1199
5.028 3.534 1.533 1176
5.372 3.776 1.610 3971
5.138 3.612 1.545 2508
5.498 3.865 1.644 1395
5.382 3.783 1.592 4802
5.502 3.867 1.625 2404
5.135 3.609 1.525 1336
5.262 3.698 1.560 1285
5.385 3.785 1.573 4779
5.506 3.870 1.606 3420
5.158 3.625 1.512 1370
5.389 3.788 1.554 4372
5.509 3.872 1.586 3406
5.173 3.636 1.497 1004
5.806 4.081 1.665 1001
5.398 3.794 1.537 3906
5.550 3.901 1.576 3253
5.899 4.146 1.667 1178
5.402 3.797 1.518 3171
5.522 3.881 1.549 2433
5.896 4.144 1.645 1881
5.887 4.138 1.621 2831
5.399 3.795 1.497 1897
5.519 3.879 1.527 1623
5.878 4.131 1.597 3370
5.503 3.868 1.503 1305
5.875 4.129 1.574 3273
6.072 4.268 1.623 1793
6.192 4.352 1.653 1110
5.916 4.158 1.563 3207
6.082 4.275 1.603 2912
6.202 4.359 1.632 1478
6.361 4.471 1.671 1160
6.098 4.286 1.584 3290
5.920 4.161 1.542 3083
6.219 4.371 1.613 1697
6.358 4.469 1.647 1306
5.917 4.159 1.519 3197
6.108 4.293 1.564 2741
6.381 4.485 1.629 2024
6.228 4.378 1.593 1356
5.914 4.157 1.497 3398
6.391 4.492 1.607 2798
6.111 4.295 1.543 2085
6.270 4.407 1.579 1654
6.382 4.485 1.582 2674
5.911 4.154 1.475 1886
6.121 4.302 1.522 1536
6.681 4.696 1.650 1271
6.379 4.483 1.558 2980
6.799 4.779 1.652 2231
6.672 4.689 1.623 1891
6.551 4.604 1.596 1039
6.758 4.750 1.618 2946
6.388 4.490 1.537 2168
6.762 4.753 1.594 3601
6.398 4.497 1.515 1458
6.765 4.755 1.570 2050
6.574 4.620 1.529 1120
6.401 4.499 1.493 1070
7.065 4.966 1.634 1054
6.820 4.793 1.557 2461
7.075 4.973 1.610 1635
7.279 5.116 1.653 1379
6.954 4.887 1.585 1020
6.836 4.805 1.535 2865
7.078 4.975 1.585 2065
7.270 5.110 1.625 1960
6.957 4.890 1.560 1277
6.839 4.807 1.511 2441
7.267 5.108 1.597 2244
7.107 4.996 1.565 1787
7.670 5.391 1.679 1532
7.667 5.389 1.650 2551
6.823 4.796 1.483 2219
7.309 5.137 1.579 2120
7.117 5.002 1.541 1696
7.671 5.391 1.623 3406
7.811 5.490 1.650 2091
7.332 5.153 1.557 2064
7.453 5.239 1.581 1741
7.668 5.389 1.595 3476
7.815 5.493 1.623 2823
7.450 5.236 1.553 1816
7.329 5.151 1.530 1270
7.671 5.392 1.567 3727
7.831 5.504 1.597 3379
7.447 5.234 1.525 1041
7.847 5.516 1.572 4064
7.681 5.399 1.541 4038
8.520 5.988 1.695 1036
7.851 5.518 1.544 3746
7.684 5.401 1.514 3159
8.492 5.968 1.659 1213
8.293 5.829 1.624 1074
7.835 5.507 1.513 3171
7.688 5.403 1.487 2178
9.226 6.485 1.758 1720
8.495 5.971 1.629 1525
7.838 5.509 1.485 2875
7.691 5.406 1.460 1780
9.230 6.487 1.725 1555
8.518 5.987 1.602 1260
8.958 6.296 1.646 2438
7.841 5.511 1.457 1579
7.687 5.403 1.431 1456
9.240 6.494 1.694 1078
8.961 6.299 1.614 3248
9.231 6.488 1.659 1482
9.911 6.966 1.771 1473
7.697 5.410 1.405 1219
9.234 6.491 1.626 3090
8.946 6.287 1.579 2656
9.921 6.973 1.737 1737
9.112 6.405 1.606 1240
9.244 6.498 1.594 4105
8.930 6.276 1.544 2637
9.925 6.976 1.702 2505
9.052 6.362 1.564 1186
9.248 6.500 1.561 4036
9.923 6.974 1.666 3162
8.939 6.283 1.514 2217
9.061 6.369 1.532 1075
9.926 6.977 1.630 3185
9.251 6.502 1.528 2823
9.071 6.376 1.501 1233
8.949 6.290 1.483 1118
9.930 6.979 1.595 2873
9.267 6.514 1.497 1260
9.087 6.387 1.471 1081
9.940 6.986 1.561 2177
10.132 7.122 1.588 1158
9.936 6.984 1.524 1688
10.142 7.129 1.553 1547
9.261 6.509 1.430 1008
9.946 6.991 1.490 1447
10.178 7.154 1.522 1372
10.181 7.156 1.485 1399
9.988 7.020 1.460 1058
10.165 7.145 1.447 1492
10.175 7.151 1.411 1475
10.190 7.162 1.377 1615
10.200 7.169 1.341 1330
10.215 7.180 1.307 1081
8.442 5.934 -0.519 1025
8.380 5.890 -0.784 1126
8.324 5.851 -0.837 1073
8.322 5.849 -0.867 1073
8.313 5.843 -0.895 1310
8.304 5.837 -0.924 1606
8.301 5.835 -0.953 1881
8.299 5.833 -0.983 2156
8.296 5.831 -1.012 1078
1.905 1.326 1.763 3952
1.909 1.328 1.757 7905
1.718 1.196 1.591 1220
1.913 1.331 1.750 7905
1.727 1.202 1.590 1218
2.014 1.401 1.837 1196
1.922 1.337 1.748 7060
2.023 1.408 1.835 1344
1.731 1.204 1.584 1219
1.936 1.347 1.750 6631
1.739 1.210 1.583 1227
1.946 1.354 1.748 5751
1.743 1.213 1.577 1042
1.992 1.386 1.778 6489
1.891 1.316 1.692 1746
1.996 1.389 1.771 6489
1.894 1.318 1.685 1746
1.995 1.388 1.759 7369
1.893 1.317 1.674 1576
1.982 1.379 1.739 9823
1.986 1.382 1.732 8556
2.089 1.453 1.816 1025
1.995 1.389 1.730 7378
2.098 1.460 1.813 1103
2.005 1.395 1.727 6425
2.107 1.466 1.810 1256
2.041 1.420 1.746 6117
2.155 1.499 1.838 1265
2.039 1.419 1.735 7299
2.159 1.502 1.830 1265
2.049 1.426 1.732 9637
2.152 1.498 1.814 2045
2.063 1.436 1.733 11238
2.167 1.508 1.815 2279
2.084 1.450 1.739 9799
2.187 1.522 1.821 1263
1.980 1.378 1.658 1092
2.104 1.464 1.745 11548
2.000 1.392 1.664 1448
2.113 1.470 1.742 9948
2.009 1.398 1.661 1575
2.128 1.481 1.743 9144
2.018 1.404 1.658 1216
2.132 1.483 1.735 7333
2.236 1.556 1.815 1258
2.027 1.411 1.655 1110
2.141 1.490 1.732 5609
2.246 1.563 1.812 1386
2.036 1.417 1.652 1116
2.167 1.508 1.741 7059
2.062 1.435 1.662 1341
2.171 1.511 1.734 8862
2.276 1.584 1.813 1246
2.186 1.521 1.734 8664
2.297 1.598 1.817 1295
2.195 1.527 1.731 8867
2.306 1.605 1.813 1578
2.210 1.538 1.731 7124
2.316 1.611 1.809 2286
2.225 1.548 1.732 6356
2.331 1.622 1.809 2461
2.229 1.551 1.724 6419
2.335 1.625 1.801 2784
2.233 1.554 1.716 6483
2.350 1.635 1.801 3116
2.236 1.556 1.709 6385
2.343 1.630 1.785 5041
2.313 1.610 1.753 9166
2.206 1.535 1.677 2028
2.420 1.684 1.829 1107
2.323 1.616 1.749 10095
2.216 1.542 1.673 2862
2.429 1.690 1.824 1271
2.326 1.619 1.741 11028
2.219 1.544 1.665 2572
2.433 1.693 1.816 1596
2.336 1.625 1.736 8829
2.229 1.551 1.662 2286
2.443 1.700 1.811 1716
2.351 1.636 1.736 8538
2.458 1.711 1.810 1620
2.244 1.561 1.662 1376
2.355 1.639 1.728 10675
2.462 1.713 1.802 1828
2.364 1.645 1.723 10020
2.472 1.720 1.797 1547
2.374 1.652 1.719 9576
2.493 1.735 1.800 1664
2.378 1.654 1.711 6651
2.497 1.737 1.791 2352
2.438 1.697 1.741 7074
2.330 1.621 1.668 2282
2.546 1.772 1.813 1145
2.448 1.703 1.736 7056
2.339 1.628 1.664 2344
2.492 1.734 1.754 8853
2.383 1.658 1.682 2606
2.495 1.736 1.745 12082
2.387 1.661 1.674 1948
2.494 1.735 1.733 12331
2.385 1.659 1.662 1474
2.602 1.811 1.803 1286
2.497 1.738 1.724 12927
2.606 1.814 1.794 1680
2.388 1.662 1.653 1337
2.501 1.740 1.715 11554
2.610 1.816 1.785 1981
2.392 1.664 1.645 1084
2.511 1.747 1.710 7488
2.620 1.823 1.780 2460
2.566 1.786 1.734 8416
2.457 1.710 1.665 1578
2.576 1.792 1.729 9840
2.466 1.716 1.660 1488
2.580 1.795 1.720 9450
2.578 1.794 1.707 7543
2.688 1.870 1.775 1064
2.587 1.800 1.702 9087
2.697 1.877 1.770 1493
2.597 1.807 1.696 11834
2.725 1.896 1.774 1735
2.601 1.810 1.687 12826
2.717 1.891 1.758 2535
2.610 1.816 1.682 11608
2.727 1.897 1.752 3583
2.499 1.739 1.615 1064
2.625 1.827 1.679 9509
2.736 1.904 1.746 3896
2.509 1.746 1.610 1167
2.635 1.834 1.674 8024
2.752 1.915 1.743 4858
2.506 1.744 1.597 1052
2.656 1.848 1.675 7584
2.767 1.926 1.740 6407
2.759 1.920 1.724 7770
2.648 1.843 1.659 6139
2.871 1.998 1.789 1105
2.763 1.923 1.714 8511
2.652 1.845 1.649 6072
2.875 2.000 1.779 1381
2.773 1.929 1.708 8995
2.661 1.852 1.643 5255
2.885 2.007 1.772 1420
2.788 1.940 1.705 14058
2.677 1.862 1.641 3242
2.900 2.018 1.769 1996
2.804 1.951 1.702 17580
2.916 2.029 1.765 2685
2.692 1.873 1.638 1789
2.814 1.958 1.695 16936
2.926 2.036 1.758 3222
2.701 1.880 1.632 1679
2.817 1.960 1.685 12730
2.930 2.038 1.748 3300
2.705 1.882 1.623 1292
2.815 1.959 1.672 6499
2.927 2.037 1.734 4649
2.913 2.027 1.714 12394
2.801 1.949 1.653 3891
3.026 2.106 1.776 1835
2.917 2.030 1.704 16033
2.805 1.952 1.643 3794
3.030 2.108 1.766 2385
2.921 2.033 1.694 14438
2.808 1.954 1.633 3511
3.034 2.111 1.755 2370
2.937 2.043 1.690 10153
2.824 1.965 1.629 3154
3.091 2.151 1.773 1094
2.970 2.067 1.696 5969
2.857 1.988 1.635 2840
3.101 2.158 1.765 1615
2.992 2.082 1.695 7305
2.878 2.003 1.635 1828
3.105 2.161 1.755 1669
3.007 2.093 1.690 7789
3.121 2.172 1.750 1777
3.059 2.128 1.705 9196
2.945 2.049 1.646 4663
3.172 2.208 1.764 1017
3.063 2.131 1.694 8208
2.949 2.052 1.635 4100
3.176 2.210 1.753 1579
3.060 2.130 1.680 7215
3.174 2.209 1.738 2797
2.946 2.050 1.622 1814
3.064 2.132 1.670 7641
3.178 2.211 1.727 4531
3.152 2.193 1.701 6594
3.038 2.114 1.644 3001
3.155 2.196 1.690 5524
3.270 2.275 1.747 1247
3.041 2.116 1.633 1205
3.153 2.194 1.676 7751
3.268 2.274 1.733 2331
3.157 2.197 1.665 9502
3.271 2.276 1.721 3393
3.166 2.203 1.657 6870
3.281 2.283 1.713 2317
3.218 2.240 1.669 6773
3.333 2.319 1.724 2299
3.228 2.246 1.661 7760
3.343 2.326 1.716 3768
3.232 2.249 1.649 6995
3.347 2.329 1.704 3971
3.248 2.260 1.644 7458
3.363 2.340 1.698 4621
3.269 2.275 1.641 6235
3.415 2.376 1.709 6092
3.419 2.379 1.697 8329
3.279 2.282 1.632 4296
3.416 2.377 1.682 8671
3.295 2.293 1.626 3383
3.532 2.458 1.735 2427
3.426 2.384 1.673 6857
3.542 2.465 1.725 3524
3.310 2.304 1.620 2677
3.436 2.391 1.663 6508
3.552 2.471 1.715 3036
3.320 2.310 1.611 1661
3.415 2.376 1.640 6240
3.531 2.457 1.692 3060
3.449 2.400 1.642 4666
3.565 2.481 1.693 2093
3.681 2.562 1.744 1224
3.459 2.407 1.632 3672
3.661 2.547 1.721 3195
3.591 2.499 1.676 5980
3.475 2.418 1.626 2933
3.707 2.580 1.726 2084
3.601 2.506 1.666 7493
3.717 2.587 1.716 2881
3.484 2.425 1.616 2278
3.654 2.542 1.674 6922
3.531 2.457 1.622 2855
3.770 2.623 1.724 1779
3.651 2.541 1.659 6921
3.534 2.459 1.610 2952
3.768 2.622 1.708 2250
3.655 2.543 1.646 7356
3.772 2.624 1.695 3137
3.538 2.462 1.597 1758
3.745 2.606 1.669 5759
3.628 2.524 1.620 3757
3.742 2.604 1.653 7663
3.859 2.685 1.701 1004
3.739 2.602 1.637 8155
3.875 2.696 1.692 2531
3.743 2.605 1.624 5424
3.885 2.703 1.681 3727
4.002 2.785 1.728 1196
3.759 2.616 1.616 5308
3.876 2.697 1.663 4631
3.994 2.779 1.709 2003
3.868 2.691 1.644 6050
3.750 2.609 1.598 5021
3.985 2.773 1.690 3790
3.983 2.771 1.674 7404
3.859 2.685 1.626 4690
3.741 2.603 1.580 2279
3.992 2.778 1.662 10065
3.875 2.696 1.617 2067
3.757 2.614 1.572 1179
3.996 2.781 1.648 9866
3.878 2.699 1.603 2155
3.993 2.779 1.632 10926
3.876 2.697 1.587 1586
3.997 2.781 1.618 9795
4.140 2.881 1.671 1592
4.001 2.784 1.604 6921
4.144 2.883 1.657 1602
4.010 2.791 1.592 6319
4.216 2.933 1.667 1656
4.051 2.819 1.591 7476
4.169 2.901 1.634 3112
4.067 2.830 1.582 10065
4.185 2.912 1.624 3271
4.070 2.832 1.567 12413
4.239 2.950 1.627 3106
4.357 3.032 1.669 1567
4.061 2.826 1.549 11695
4.249 2.956 1.614 3292
4.367 3.039 1.656 2469
4.071 2.833 1.537 10373
4.190 2.915 1.578 4231
4.358 3.033 1.636 3878
4.087 2.844 1.527 8905
4.368 3.040 1.623 4554
4.206 2.927 1.567 3980
4.487 3.122 1.664 1391
4.165 2.898 1.538 6967
4.366 3.038 1.606 4986
4.046 2.816 1.497 2934
4.485 3.121 1.646 2898
4.162 2.896 1.521 7712
4.369 3.040 1.590 4134
4.488 3.123 1.630 2749
4.043 2.814 1.481 1276
4.166 2.899 1.506 7156
4.373 3.043 1.575 3003
4.492 3.126 1.614 2145
4.611 3.208 1.654 1234
4.175 2.905 1.494 5282
4.589 3.193 1.629 2771
4.376 3.045 1.559 2225
4.709 3.276 1.669 1262
4.599 3.200 1.615 4741
4.178 2.908 1.479 3605
4.480 3.117 1.577 2144
4.718 3.283 1.654 1709
4.691 3.264 1.627 4083
4.175 2.905 1.462 3226
4.854 3.378 1.680 2484
4.571 3.181 1.589 2439
4.694 3.266 1.611 4364
4.864 3.385 1.665 3217
4.575 3.183 1.573 2098
4.178 2.908 1.448 1851
4.616 3.212 1.569 3566
4.754 3.308 1.612 2334
4.893 3.405 1.655 2138
5.012 3.488 1.693 1508
4.626 3.219 1.554 3437
4.896 3.407 1.638 3263
5.016 3.490 1.675 2423
4.764 3.315 1.597 2379
4.887 3.401 1.617 4926
5.007 3.484 1.654 3345
4.768 3.318 1.580 1810
5.127 3.568 1.690 1797
5.004 3.482 1.634 5848
5.124 3.566 1.670 4445
4.885 3.399 1.598 3611
4.714 3.280 1.546 1047
5.090 3.542 1.641 7593
4.970 3.458 1.605 3417
5.100 3.549 1.625 9205
4.980 3.465 1.589 2500
5.116 3.560 1.610 7713
4.996 3.476 1.575 2718
5.331 3.710 1.673 1115
5.094 3.545 1.585 6057
5.341 3.717 1.656 1711
4.974 3.461 1.551 1377
5.215 3.629 1.619 1001
5.110 3.556 1.571 5545
5.370 3.737 1.644 2267
5.250 3.653 1.610 1202
4.990 3.472 1.537 1022
5.152 3.585 1.563 4273
5.386 3.748 1.629 3251
5.371 3.737 1.604 5002
5.155 3.587 1.545 2670
5.355 3.726 1.580 5715
5.488 3.819 1.616 1369
5.121 3.563 1.517 1313
5.390 3.751 1.570 4259
5.555 3.866 1.614 2456
5.175 3.601 1.512 1170
5.835 4.060 1.689 1071
5.394 3.753 1.551 3928
5.565 3.873 1.596 3696
5.832 4.058 1.666 1472
5.184 3.607 1.495 1115
5.569 3.875 1.576 4380
5.410 3.764 1.535 3708
5.829 4.056 1.644 1035
5.413 3.767 1.516 3366
5.572 3.877 1.557 3084
5.903 4.107 1.642 1801
5.900 4.106 1.619 3695
5.416 3.769 1.497 2094
5.582 3.884 1.539 1319
5.891 4.099 1.595 5218
5.592 3.891 1.521 1158
6.203 4.316 1.673 1070
5.413 3.767 1.476 1035
5.888 4.097 1.573 4795
6.206 4.319 1.651 1926
6.216 4.326 1.631 2600
5.904 4.108 1.555 2481
6.095 4.241 1.601 1646
6.382 4.441 1.671 1387
5.946 4.137 1.543 3082
6.220 4.328 1.609 2991
6.099 4.244 1.580 1798
6.386 4.444 1.648 1389
5.924 4.122 1.516 4677
6.230 4.335 1.588 2296
6.402 4.455 1.629 2180
6.109 4.251 1.560 1509
5.927 4.124 1.495 5108
6.412 4.462 1.607 2981
6.252 4.351 1.571 1679
6.565 4.568 1.643 1574
6.409 4.460 1.583 2706
5.930 4.126 1.475 2592
6.531 4.544 1.611 1963
6.288 4.375 1.556 1622
6.406 4.458 1.559 3056
6.822 4.747 1.652 1953
6.528 4.542 1.586 1898
6.272 4.364 1.529 1712
6.780 4.718 1.618 4005
6.410 4.460 1.537 2389
6.576 4.576 1.573 1602
6.275 4.367 1.507 1420
6.784 4.721 1.594 4990
6.586 4.583 1.551 1978
6.419 4.467 1.515 1437
6.787 4.723 1.570 3257
6.595 4.589 1.529 2290
7.044 4.901 1.624 1143
6.435 4.478 1.495 1006
6.842 4.761 1.557 2310
6.599 4.592 1.506 1877
7.034 4.895 1.597 1739
7.156 4.979 1.622 1163
6.858 4.772 1.535 2595
7.102 4.942 1.585 2349
7.685 5.348 1.705 1913
7.275 5.062 1.621 1585
7.695 5.355 1.679 2898
6.849 4.766 1.508 2264
7.041 4.900 1.547 2004
7.285 5.069 1.596 1930
7.692 5.353 1.650 3996
7.186 5.000 1.550 2023
6.846 4.764 1.483 2020
7.333 5.103 1.579 1763
7.696 5.355 1.623 5191
7.837 5.453 1.650 2237
7.195 5.007 1.526 2053
7.362 5.123 1.558 1796
7.699 5.358 1.596 5314
7.841 5.456 1.623 2972
7.481 5.206 1.554 1338
7.186 5.000 1.498 1233
7.703 5.360 1.569 5820
7.857 5.467 1.597 3109
8.538 5.941 1.724 1314
7.713 5.367 1.543 6714
7.867 5.474 1.571 3242
8.548 5.948 1.695 1461
7.710 5.365 1.514 5690
7.851 5.463 1.539 2857
8.314 5.785 1.622 1228
8.520 5.928 1.659 1173
7.713 5.367 1.487 4163
7.854 5.465 1.512 2427
9.263 6.446 1.759 1823
8.324 5.792 1.594 1328
7.716 5.369 1.460 3327
7.864 5.472 1.485 2281
9.267 6.448 1.726 1999
8.752 6.090 1.638 1279
7.713 5.367 1.431 2744
8.987 6.254 1.646 2548
9.271 6.451 1.694 1459
7.861 5.470 1.456 1268
8.991 6.256 1.614 3553
7.722 5.374 1.405 2387
9.937 6.915 1.770 1425
9.268 6.449 1.660 1392
8.975 6.245 1.579 2990
9.271 6.451 1.627 2738
7.725 5.376 1.378 1821
9.941 6.918 1.735 1416
9.275 6.454 1.594 3944
8.966 6.239 1.545 2933
9.952 6.925 1.701 1969
9.152 6.369 1.575 1070
9.285 6.461 1.562 4085
9.955 6.927 1.666 2623
8.969 6.241 1.514 2567
9.162 6.376 1.543 1112
9.288 6.463 1.529 3212
9.952 6.925 1.629 2641
8.972 6.243 1.482 1404
9.969 6.937 1.596 2472
9.298 6.470 1.497 1721
9.985 6.948 1.563 2095
9.301 6.472 1.465 1129
10.002 6.960 1.529 1749
9.298 6.470 1.431 1017
10.011 6.966 1.494 1719
10.014 6.969 1.459 1345
10.221 7.112 1.486 1019
8.371 5.825 -0.839 1032
8.369 5.823 -0.869 1032
8.360 5.817 -0.898 1211
8.351 5.811 -0.926 1454
8.348 5.809 -0.956 1650
8.339 5.803 -0.985 1871
1.921 1.325 1.773 3806
1.925 1.328 1.766 7612
1.824 1.258 1.679 1625
1.723 1.189 1.591 1559
1.929 1.331 1.759 7612
1.828 1.261 1.672 1625
1.727 1.191 1.585 1533
1.943 1.341 1.762 7299
1.735 1.197 1.584 1439
1.842 1.271 1.675 1063
1.953 1.347 1.760 7510
1.744 1.203 1.583 1350
1.956 1.350 1.753 6502
1.748 1.206 1.577 1147
1.966 1.356 1.751 5532
2.067 1.426 1.836 1017
1.970 1.359 1.744 5532
2.072 1.429 1.829 1017
1.973 1.361 1.737 7535
2.076 1.432 1.822 1025
1.983 1.368 1.734 9606
1.986 1.370 1.728 8633
2.089 1.441 1.812 1271
1.996 1.377 1.725 7732
2.098 1.448 1.809 1297
2.043 1.409 1.753 5709
1.940 1.338 1.670 1523
2.052 1.416 1.751 5755
1.949 1.345 1.668 1362
2.166 1.495 1.842 1195
2.056 1.418 1.743 6617
2.170 1.497 1.835 1195
1.953 1.347 1.661 1074
2.060 1.421 1.736 8851
2.164 1.493 1.819 1925
2.075 1.431 1.738 10689
2.178 1.503 1.820 2196
2.095 1.445 1.743 9978
1.991 1.374 1.662 1362
2.199 1.517 1.825 1130
2.110 1.456 1.745 11502
2.005 1.384 1.664 1852
2.119 1.462 1.742 9531
2.015 1.390 1.661 1607
2.134 1.472 1.743 8629
2.018 1.392 1.654 1037
2.143 1.479 1.740 6637
2.169 1.497 1.749 5224
2.064 1.424 1.669 1552
2.173 1.499 1.741 6697
2.068 1.427 1.662 1252
2.177 1.502 1.734 8170
2.282 1.575 1.813 1070
2.186 1.508 1.730 7635
2.303 1.589 1.817 1388
2.201 1.519 1.731 7581
2.307 1.592 1.809 1851
2.216 1.529 1.731 5754
2.322 1.602 1.809 2639
2.259 1.559 1.752 5691
2.153 1.485 1.675 1399
2.365 1.632 1.830 1075
2.246 1.550 1.732 6579
2.353 1.623 1.809 2777
2.250 1.552 1.724 7970
2.357 1.626 1.801 3505
2.248 1.551 1.713 7587
2.355 1.625 1.789 4895
2.336 1.612 1.765 8661
2.230 1.538 1.689 5205
2.335 1.611 1.753 9599
2.228 1.537 1.677 3919
2.442 1.685 1.828 1424
2.339 1.613 1.744 10631
2.231 1.539 1.669 3526
2.446 1.687 1.820 1850
2.348 1.620 1.740 8403
2.241 1.546 1.666 3016
2.455 1.694 1.815 1899
2.363 1.630 1.740 9044
2.256 1.556 1.666 1623
2.471 1.705 1.814 1601
2.367 1.633 1.732 11868
2.475 1.707 1.806 1586
2.377 1.640 1.727 10746
2.485 1.714 1.801 1495
2.380 1.642 1.719 9657
2.506 1.729 1.804 1897
2.378 1.641 1.707 6376
2.510 1.731 1.795 2974
2.445 1.687 1.741 7688
2.337 1.612 1.668 2301
2.554 1.762 1.813 1164
2.455 1.693 1.736 8003
2.346 1.618 1.664 2309
2.499 1.724 1.754 9137
2.390 1.649 1.682 2225
2.502 1.726 1.745 12123
2.393 1.651 1.674 1829
2.506 1.729 1.736 12496
2.397 1.654 1.665 1465
2.615 1.804 1.807 1129
2.504 1.728 1.724 13340
2.614 1.803 1.794 1664
2.508 1.730 1.715 12372
2.618 1.806 1.785 1873
2.512 1.733 1.706 8719
2.622 1.809 1.776 2594
2.568 1.771 1.730 7716
2.458 1.696 1.661 1386
2.571 1.774 1.722 10181
2.461 1.698 1.653 1058
2.581 1.781 1.716 10785
2.585 1.783 1.707 8761
2.695 1.859 1.775 1156
2.594 1.790 1.702 9722
2.705 1.866 1.770 1481
2.604 1.797 1.696 11256
2.715 1.873 1.764 1450
2.608 1.799 1.687 11577
2.719 1.876 1.754 1961
2.617 1.806 1.682 10582
2.734 1.886 1.752 2795
2.633 1.816 1.679 9238
2.756 1.901 1.753 3263
2.636 1.819 1.670 7957
2.765 1.908 1.746 5041
2.769 1.910 1.737 6809
2.658 1.834 1.671 6462
2.779 1.917 1.731 7517
2.667 1.840 1.665 6025
2.890 1.994 1.796 1437
2.783 1.920 1.721 8335
2.671 1.843 1.656 5693
2.894 1.997 1.785 1768
2.798 1.931 1.718 9336
2.680 1.849 1.650 5195
2.910 2.008 1.782 1332
2.808 1.937 1.711 14469
2.678 1.848 1.638 3554
2.920 2.015 1.775 1848
2.818 1.944 1.705 16713
2.930 2.021 1.768 2306
2.694 1.858 1.635 1945
2.827 1.951 1.698 16429
2.940 2.028 1.762 2797
2.709 1.869 1.632 1810
2.831 1.953 1.689 13532
2.944 2.031 1.751 3306
2.718 1.876 1.626 1495
2.823 1.948 1.672 8776
2.936 2.025 1.734 5081
2.922 2.016 1.714 12170
2.809 1.938 1.653 5359
3.034 2.094 1.776 1319
2.925 2.018 1.704 15581
2.812 1.940 1.643 4673
3.038 2.096 1.766 1752
2.929 2.021 1.694 13860
2.816 1.943 1.633 4139
3.042 2.099 1.755 1863
2.945 2.032 1.690 9031
2.831 1.953 1.629 3359
3.058 2.110 1.751 1383
2.984 2.059 1.699 5927
2.871 1.981 1.639 2628
3.098 2.137 1.759 1795
2.994 2.066 1.692 7124
3.132 2.160 1.764 2096
2.880 1.987 1.632 1379
3.016 2.081 1.690 7486
3.129 2.159 1.750 2059
3.061 2.112 1.702 9949
2.947 2.034 1.643 4081
3.071 2.119 1.694 8440
2.957 2.040 1.635 3717
3.185 2.197 1.753 1374
3.099 2.138 1.696 6793
2.985 2.059 1.637 2376
3.213 2.217 1.754 1520
3.157 2.178 1.712 6328
3.042 2.099 1.654 4556
3.160 2.180 1.701 6745
3.046 2.102 1.644 2974
3.164 2.183 1.690 6720
3.279 2.262 1.747 1218
3.050 2.104 1.633 1146
3.162 2.181 1.676 8128
3.277 2.261 1.733 2022
3.166 2.184 1.665 8587
3.280 2.263 1.721 2509
3.169 2.187 1.654 5373
3.284 2.266 1.710 1962
3.227 2.227 1.669 4982
3.343 2.306 1.724 1850
3.112 2.147 1.614 1200
3.237 2.233 1.661 6231
3.352 2.313 1.716 3215
3.235 2.232 1.646 5293
3.350 2.311 1.701 4015
3.354 2.314 1.689 4806
3.238 2.234 1.635 4547
3.424 2.363 1.709 5928
3.266 2.253 1.635 3209
3.428 2.365 1.697 7598
3.312 2.285 1.643 1988
3.426 2.364 1.682 7225
3.542 2.444 1.735 2473
3.286 2.267 1.618 1467
3.436 2.370 1.673 5479
3.552 2.450 1.725 3563
3.320 2.290 1.620 1586
3.439 2.373 1.661 6418
3.556 2.453 1.713 2995
3.323 2.293 1.608 1311
3.431 2.367 1.643 7931
3.547 2.447 1.695 2641
3.440 2.374 1.634 6348
3.557 2.454 1.685 3192
3.673 2.534 1.736 1758
3.462 2.389 1.630 4118
3.671 2.533 1.721 4100
3.675 2.535 1.708 6634
3.558 2.455 1.657 3573
3.441 2.374 1.607 1180
3.617 2.495 1.669 7761
3.734 2.576 1.719 3351
3.500 2.415 1.619 2226
3.621 2.498 1.656 5969
3.750 2.587 1.711 3678
3.504 2.417 1.606 1398
3.655 2.522 1.656 5195
3.772 2.602 1.705 3283
3.538 2.441 1.607 2060
3.653 2.520 1.641 6014
3.770 2.601 1.690 5460
3.535 2.439 1.592 1458
3.767 2.599 1.674 8268
3.650 2.518 1.625 4536
3.765 2.597 1.658 7793
3.882 2.678 1.706 1486
3.647 2.516 1.610 1026
3.756 2.591 1.640 7221
3.880 2.677 1.690 2625
3.766 2.598 1.629 5964
3.890 2.684 1.679 3750
4.007 2.765 1.726 1256
3.776 2.605 1.618 5592
3.893 2.686 1.665 4417
4.011 2.767 1.712 1921
3.878 2.676 1.644 5780
3.761 2.594 1.598 4578
3.996 2.757 1.690 3581
4.000 2.760 1.676 7155
3.870 2.670 1.626 4744
3.752 2.588 1.580 1840
4.010 2.766 1.665 9663
3.892 2.685 1.619 1816
4.007 2.765 1.648 9211
3.889 2.683 1.603 1990
4.005 2.763 1.632 9594
3.886 2.681 1.587 1800
4.148 2.862 1.686 1229
4.014 2.770 1.620 7964
4.158 2.868 1.674 2502
3.896 2.688 1.576 1253
4.012 2.768 1.604 5500
4.155 2.867 1.657 2686
4.021 2.774 1.592 4905
4.159 2.869 1.642 2698
4.056 2.798 1.589 6437
4.175 2.880 1.632 4339
4.078 2.814 1.582 6962
4.197 2.896 1.624 4043
4.366 3.012 1.685 1447
4.076 2.812 1.565 7606
4.244 2.928 1.625 4701
4.370 3.015 1.669 2361
4.073 2.810 1.549 7942
4.261 2.939 1.614 4291
4.379 3.021 1.656 3745
4.082 2.816 1.537 6027
4.371 3.015 1.636 5812
4.201 2.899 1.578 4612
4.490 3.097 1.678 1007
4.374 3.018 1.621 6904
4.186 2.888 1.557 5389
4.067 2.806 1.516 3876
4.493 3.100 1.662 2044
4.378 3.020 1.606 7542
4.183 2.886 1.540 4575
4.497 3.103 1.646 3129
4.064 2.804 1.499 2063
4.381 3.023 1.590 6206
4.174 2.880 1.521 5314
4.501 3.105 1.630 3086
4.620 3.187 1.670 1124
4.385 3.025 1.575 4748
4.177 2.882 1.506 4477
4.504 3.107 1.614 2332
4.624 3.190 1.654 1723
4.388 3.027 1.559 3725
4.596 3.171 1.627 3532
4.187 2.889 1.494 2619
4.715 3.253 1.667 1173
4.606 3.178 1.613 5158
4.486 3.095 1.575 2577
4.196 2.895 1.481 1418
4.366 3.012 1.536 1241
4.697 3.241 1.625 5570
4.823 3.328 1.666 2797
4.578 3.158 1.587 2741
4.401 3.036 1.531 1206
4.701 3.243 1.609 7690
4.833 3.335 1.651 3436
4.581 3.161 1.571 2077
5.010 3.456 1.706 1013
4.704 3.246 1.592 4805
4.843 3.341 1.636 2245
4.970 3.429 1.675 2107
4.585 3.163 1.555 1212
4.986 3.440 1.661 3569
4.708 3.248 1.576 3164
4.866 3.357 1.624 2645
5.106 3.523 1.698 1104
5.002 3.451 1.648 5363
4.882 3.368 1.611 4452
4.711 3.250 1.559 3000
5.122 3.534 1.684 2029
5.006 3.454 1.630 8234
5.126 3.536 1.666 3499
4.886 3.371 1.594 3193
4.721 3.257 1.545 2189
5.009 3.456 1.613 7000
5.130 3.539 1.648 4903
4.889 3.373 1.577 1438
5.114 3.528 1.625 7311
4.994 3.445 1.589 3378
5.247 3.620 1.664 1089
5.111 3.526 1.605 6038
4.991 3.443 1.570 1762
5.340 3.684 1.671 1318
5.070 3.498 1.574 5244
5.191 3.581 1.609 2100
5.356 3.695 1.656 1957
5.112 3.527 1.567 4692
5.379 3.711 1.642 2360
5.233 3.610 1.601 1291
4.991 3.444 1.533 1087
5.128 3.538 1.553 3611
5.395 3.722 1.627 3300
5.274 3.639 1.593 1676
5.367 3.703 1.599 4794
5.163 3.562 1.543 2430
5.370 3.705 1.580 5564
5.211 3.595 1.537 1523
5.374 3.707 1.561 3684
5.564 3.839 1.612 1975
5.157 3.558 1.504 1104
5.845 4.032 1.687 1096
5.574 3.846 1.594 3761
5.377 3.710 1.542 3163
5.848 4.035 1.666 1939
5.584 3.853 1.576 4754
5.406 3.730 1.530 3267
5.852 4.037 1.646 1470
5.588 3.855 1.557 3243
5.428 3.745 1.516 2831
5.906 4.075 1.638 2281
5.910 4.077 1.618 5314
5.432 3.747 1.497 1519
5.597 3.862 1.539 1263
5.907 4.075 1.595 7011
6.220 4.291 1.673 1279
5.607 3.868 1.521 1233
5.904 4.073 1.573 5458
6.224 4.294 1.651 2244
6.240 4.305 1.632 3121
5.920 4.085 1.555 2717
6.400 4.415 1.671 1223
6.244 4.308 1.610 3649
5.917 4.083 1.533 3128
6.576 4.537 1.689 1398
6.404 4.418 1.648 1042
5.934 4.094 1.515 5506
6.260 4.319 1.591 2938
6.580 4.540 1.666 2144
6.414 4.425 1.627 1746
5.943 4.100 1.495 5470
6.283 4.335 1.573 2535
6.430 4.436 1.607 2525
6.577 4.538 1.641 2308
6.529 4.505 1.606 3411
6.292 4.341 1.553 2507
5.947 4.103 1.475 2497
6.779 4.677 1.663 1433
6.520 4.498 1.581 3057
6.296 4.344 1.531 2731
6.789 4.684 1.641 2295
5.950 4.105 1.454 1350
6.799 4.691 1.618 4505
6.524 4.501 1.558 2216
6.299 4.346 1.508 2137
5.953 4.107 1.433 1192
6.803 4.693 1.594 5374
6.610 4.561 1.553 2754
6.431 4.437 1.514 1096
6.806 4.696 1.570 3754
6.614 4.563 1.529 3377
6.980 4.815 1.607 1379
6.617 4.565 1.506 2723
6.816 4.703 1.547 2482
7.041 4.858 1.594 1866
7.696 5.310 1.730 1505
7.706 5.317 1.705 2733
6.813 4.700 1.522 2194
7.051 4.865 1.571 2056
7.276 5.020 1.617 1659
7.716 5.324 1.679 4099
7.299 5.035 1.595 1962
7.054 4.867 1.546 1891
6.816 4.703 1.498 1560
7.714 5.322 1.650 5023
7.212 4.976 1.551 2578
7.038 4.856 1.517 1605
6.845 4.723 1.479 1536
7.717 5.324 1.623 6194
7.215 4.978 1.526 2343
7.865 5.426 1.652 1998
6.836 4.716 1.452 1618
7.721 5.327 1.596 6735
7.869 5.429 1.624 2633
6.832 4.714 1.427 1435
7.219 4.980 1.500 1245
7.724 5.329 1.569 7403
7.860 5.422 1.594 2586
8.562 5.907 1.724 1497
7.734 5.336 1.543 8607
7.857 5.420 1.565 2473
8.572 5.914 1.695 1591
7.731 5.334 1.514 7466
7.860 5.423 1.537 2280
8.337 5.752 1.622 1250
8.601 5.934 1.670 1217
7.734 5.336 1.487 5463
7.883 5.438 1.513 1666
9.289 6.408 1.759 1456
8.347 5.759 1.594 1237
7.738 5.338 1.460 4183
9.293 6.411 1.726 1932
7.886 5.441 1.485 1461
8.770 6.051 1.637 1131
7.734 5.336 1.431 3416
9.012 6.218 1.646 2130
9.296 6.414 1.694 1565
8.793 6.066 1.609 1160
9.016 6.220 1.614 3087
7.744 5.343 1.405 3031
8.790 6.064 1.577 1586
9.306 6.421 1.662 1274
9.000 6.209 1.579 2696
7.747 5.345 1.378 2350
9.304 6.419 1.628 2169
9.917 6.842 1.727 1477
9.307 6.421 1.595 3294
8.990 6.203 1.545 2684
9.928 6.849 1.693 1392
7.756 5.351 1.351 1283
9.311 6.424 1.562 3596
8.994 6.205 1.514 2349
9.976 6.883 1.665 1656
9.737 6.718 1.628 1228
9.320 6.430 1.530 3165
9.909 6.836 1.619 1694
8.997 6.207 1.482 1289
9.741 6.720 1.593 1170
9.330 6.437 1.498 1965
10.003 6.901 1.597 1466
9.880 6.817 1.579 1125
9.744 6.723 1.559 1014
10.019 6.913 1.563 1510
9.327 6.435 1.465 1083
10.029 6.919 1.529 1454
10.033 6.922 1.494 1658
10.042 6.928 1.459 1449
10.697 7.380 1.545 1000
8.361 5.768 -0.925 1001
8.371 5.776 -0.956 1063
8.375 5.778 -0.986 1176
1.932 1.321 1.777 4918
1.936 1.324 1.771 9837
1.728 1.182 1.591 1879
1.834 1.255 1.683 1840
1.940 1.326 1.764 9837
1.732 1.184 1.585 1851
1.838 1.257 1.677 1840
1.949 1.333 1.762 10220
1.740 1.190 1.584 1707
1.847 1.263 1.675 1255
1.958 1.339 1.760 10870
1.744 1.193 1.578 1564
1.967 1.345 1.757 8424
1.753 1.199 1.577 1283
1.971 1.348 1.751 6102
2.073 1.418 1.836 1444
1.756 1.201 1.570 1005
1.975 1.351 1.744 6102
2.077 1.421 1.829 1444
1.984 1.357 1.741 7655
2.087 1.427 1.826 1147
1.988 1.360 1.734 9284
2.091 1.430 1.819 1204
1.997 1.366 1.732 9181
2.100 1.436 1.816 1014
2.007 1.372 1.730 9264
2.011 1.375 1.723 6473
2.157 1.475 1.841 1218
2.058 1.407 1.751 5393
2.167 1.482 1.838 1815
1.954 1.337 1.668 1453
2.062 1.410 1.743 5908
2.171 1.485 1.830 1815
1.958 1.339 1.661 1106
2.071 1.416 1.741 7763
2.175 1.488 1.823 2313
2.080 1.423 1.738 9493
2.185 1.494 1.820 2375
2.095 1.433 1.739 8945
2.200 1.504 1.821 1465
2.110 1.443 1.740 10124
2.006 1.372 1.659 1412
2.120 1.450 1.737 8247
2.015 1.378 1.657 1359
2.224 1.521 1.818 1154
2.140 1.463 1.743 7736
2.024 1.384 1.654 1167
2.245 1.535 1.823 1148
2.166 1.481 1.752 8023
2.170 1.484 1.745 8523
2.179 1.490 1.741 9154
2.001 1.369 1.608 1131
2.183 1.493 1.734 9850
2.005 1.371 1.601 1335
2.192 1.499 1.730 8257
2.315 1.583 1.821 1136
2.009 1.374 1.594 1054
2.207 1.510 1.731 7497
2.314 1.582 1.809 1783
2.101 1.437 1.653 1252
2.228 1.524 1.736 5583
2.334 1.596 1.813 2270
2.122 1.451 1.658 1334
2.266 1.549 1.752 6735
2.159 1.477 1.675 1384
2.264 1.548 1.740 7611
2.370 1.621 1.817 1816
2.157 1.475 1.663 1036
2.262 1.547 1.728 8663
2.369 1.620 1.805 2795
2.260 1.546 1.717 7678
2.367 1.619 1.793 3869
2.349 1.606 1.769 7633
2.241 1.533 1.693 6068
2.347 1.605 1.757 8495
2.240 1.532 1.681 4485
2.454 1.678 1.832 1511
2.351 1.608 1.748 9368
2.243 1.534 1.673 3839
2.458 1.681 1.824 1911
2.360 1.614 1.744 8130
2.253 1.541 1.669 3194
2.468 1.688 1.819 1847
2.376 1.625 1.744 10251
2.268 1.551 1.669 1659
2.483 1.698 1.818 1351
2.379 1.627 1.736 13231
2.488 1.701 1.810 1290
2.383 1.630 1.727 11297
2.492 1.704 1.801 1610
2.381 1.629 1.715 9366
2.490 1.703 1.788 2085
2.454 1.678 1.753 6126
2.345 1.604 1.680 2654
2.458 1.681 1.744 7124
2.349 1.606 1.672 1884
2.467 1.687 1.740 7783
2.358 1.613 1.668 1477
2.506 1.714 1.754 9037
2.396 1.639 1.682 1513
2.515 1.720 1.749 12062
2.406 1.645 1.677 2077
2.513 1.719 1.736 12537
2.404 1.644 1.665 1296
2.623 1.794 1.807 1030
2.511 1.717 1.724 13648
2.621 1.792 1.794 1403
2.515 1.720 1.715 13040
2.625 1.795 1.785 1620
2.519 1.723 1.706 9624
2.629 1.798 1.776 2402
2.569 1.757 1.727 7859
2.573 1.760 1.718 11092
2.683 1.835 1.787 1108
2.583 1.766 1.713 12127
2.693 1.842 1.781 1324
2.586 1.769 1.704 9809
2.697 1.844 1.772 1910
2.596 1.775 1.698 9882
2.707 1.851 1.766 1881
2.611 1.786 1.696 10030
2.722 1.862 1.764 1316
2.609 1.784 1.684 9615
2.720 1.860 1.751 1591
2.625 1.795 1.682 8768
2.754 1.883 1.759 2723
2.513 1.719 1.615 1041
2.634 1.802 1.676 7743
2.769 1.894 1.756 3927
2.523 1.725 1.610 1117
2.638 1.804 1.667 6699
2.773 1.896 1.746 5931
2.777 1.899 1.737 7752
2.648 1.811 1.661 4445
2.889 1.976 1.802 1337
2.781 1.902 1.727 8352
2.669 1.825 1.662 3298
2.893 1.978 1.792 2438
2.791 1.908 1.721 9268
2.672 1.828 1.653 3050
2.903 1.985 1.785 2729
2.806 1.919 1.718 9735
2.682 1.834 1.647 3821
2.918 1.996 1.782 2166
2.816 1.926 1.711 12756
2.686 1.837 1.638 3812
2.928 2.003 1.775 2449
2.826 1.932 1.705 14590
2.938 2.009 1.768 2558
2.695 1.843 1.632 2107
2.829 1.935 1.695 15136
2.942 2.012 1.758 2947
2.717 1.858 1.632 1549
2.833 1.937 1.685 14193
2.946 2.015 1.748 3149
2.720 1.860 1.623 1246
2.831 1.936 1.672 11653
2.944 2.013 1.734 4605
2.930 2.004 1.714 9962
2.817 1.926 1.653 7105
2.934 2.006 1.704 12529
2.820 1.929 1.643 5627
3.047 2.084 1.766 1039
2.937 2.009 1.694 11032
2.824 1.931 1.633 4723
3.051 2.086 1.755 1649
2.947 2.015 1.687 6624
2.833 1.938 1.626 3066
3.061 2.093 1.748 2387
2.993 2.047 1.699 6072
3.106 2.124 1.759 2642
2.873 1.965 1.635 2084
2.996 2.049 1.688 6171
3.110 2.127 1.748 3048
2.877 1.967 1.625 1144
3.072 2.101 1.715 7601
2.958 2.023 1.656 3948
3.070 2.100 1.702 9712
2.956 2.021 1.643 3726
3.086 2.110 1.697 8215
2.971 2.032 1.639 3551
3.200 2.189 1.756 1146
3.114 2.129 1.699 8501
2.999 2.051 1.640 2394
3.228 2.208 1.757 1333
3.166 2.165 1.712 7645
3.051 2.087 1.654 4746
3.169 2.168 1.701 7078
3.055 2.089 1.644 3306
3.167 2.166 1.687 7072
3.052 2.087 1.630 1122
3.171 2.168 1.676 7702
3.286 2.247 1.733 1101
3.175 2.171 1.665 6807
3.290 2.250 1.721 1170
3.166 2.165 1.648 3661
3.281 2.244 1.704 1786
3.230 2.209 1.666 3636
3.346 2.288 1.721 1709
3.115 2.130 1.611 1353
3.234 2.212 1.655 4834
3.350 2.291 1.710 3150
3.226 2.206 1.638 4054
3.353 2.293 1.698 3710
3.357 2.296 1.686 5038
3.235 2.213 1.629 2434
3.361 2.298 1.675 5865
3.477 2.378 1.728 1875
3.245 2.219 1.621 1833
3.444 2.355 1.699 5461
3.328 2.276 1.646 3091
3.436 2.350 1.682 4904
3.319 2.270 1.629 2317
3.552 2.429 1.735 1798
3.464 2.369 1.681 4853
3.347 2.289 1.628 2454
3.580 2.448 1.733 2275
3.449 2.359 1.661 6739
3.566 2.438 1.713 1852
3.333 2.279 1.608 1018
3.447 2.357 1.646 9215
3.612 2.470 1.719 2241
3.450 2.360 1.634 7871
3.567 2.439 1.685 4784
3.684 2.519 1.736 2062
3.558 2.433 1.667 5165
3.675 2.513 1.718 4234
3.441 2.354 1.616 3062
3.685 2.520 1.708 5972
3.556 2.432 1.652 4420
3.689 2.523 1.695 6256
3.553 2.430 1.637 3953
3.806 2.603 1.745 1096
3.625 2.479 1.653 5303
3.760 2.572 1.711 3500
3.508 2.399 1.604 1503
3.653 2.498 1.651 4769
3.777 2.583 1.703 3470
3.536 2.418 1.602 1444
3.651 2.497 1.636 6539
3.780 2.585 1.690 6496
3.778 2.584 1.674 9874
3.654 2.499 1.623 4619
3.895 2.664 1.722 1092
3.782 2.586 1.661 8265
3.899 2.667 1.709 1716
3.664 2.506 1.613 1298
3.767 2.576 1.640 4621
