5.445 1.582 1.669 3145
5.093 1.480 1.569 1438
5.244 1.524 1.594 4066
5.457 1.586 1.654 3649
5.097 1.481 1.553 1086
5.476 1.591 1.642 6627
5.256 1.527 1.581 3550
5.616 1.632 1.681 1777
5.473 1.590 1.623 6317
5.612 1.631 1.662 3795
5.260 1.528 1.565 2668
5.470 1.589 1.605 7646
5.609 1.630 1.643 6399
5.249 1.525 1.545 959
5.599 1.627 1.622 12225
5.459 1.586 1.584 10859
5.812 1.689 1.679 804
5.610 1.630 1.607 11635
5.463 1.587 1.568 9907
5.750 1.671 1.644 1200
6.148 1.787 1.749 1068
5.614 1.631 1.590 8551
5.467 1.589 1.552 7263
6.145 1.786 1.729 1639
5.755 1.672 1.627 1049
5.604 1.628 1.569 7966
5.464 1.588 1.533 5017
6.135 1.783 1.706 1992
5.744 1.669 1.605 1379
5.652 1.642 1.564 5166
5.475 1.591 1.519 2900
6.147 1.786 1.690 2760
6.324 1.838 1.735 895
5.671 1.648 1.550 7245
6.210 1.805 1.686 4056
6.351 1.845 1.721 1848
5.479 1.592 1.502 1630
6.222 1.808 1.669 4435
5.667 1.647 1.531 4080
6.362 1.849 1.704 3145
5.497 1.597 1.489 1102
6.211 1.805 1.647 3787
6.367 1.850 1.685 3501
5.664 1.646 1.513 1920
5.501 1.598 1.473 827
6.238 1.813 1.633 2956
6.379 1.854 1.667 2823
5.668 1.647 1.495 1052
6.645 1.931 1.732 874
6.398 1.859 1.652 4327
6.257 1.818 1.618 3162
6.605 1.919 1.701 1134
6.857 1.993 1.761 956
6.387 1.856 1.629 4278
6.246 1.815 1.596 1673
6.617 1.923 1.683 1318
6.854 1.992 1.739 1158
6.376 1.853 1.606 3285
6.651 1.933 1.670 1560
6.844 1.989 1.715 854
5.835 1.695 1.480 835
6.388 1.856 1.589 2019
6.670 1.938 1.653 1292
6.915 2.009 1.709 969
5.831 1.694 1.461 875
6.778 1.970 1.656 1225
6.986 2.030 1.703 1172
6.384 1.855 1.568 1044
7.187 2.088 1.749 825
7.013 2.038 1.687 1448
7.533 2.189 1.803 1395
7.206 2.094 1.730 1096
6.842 1.988 1.649 797
7.538 2.190 1.780 2097
7.025 2.041 1.668 1279
7.196 2.091 1.705 1266
7.337 2.132 1.736 1135
7.543 2.192 1.758 2368
7.185 2.088 1.680 1478
7.364 2.140 1.719 1337
7.036 2.045 1.648 1033
7.554 2.195 1.736 3583
7.301 2.122 1.682 1408
7.160 2.081 1.652 1129
7.696 2.236 1.766 1006
7.559 2.197 1.713 5261
7.410 2.153 1.682 1401
7.216 2.097 1.642 1338
7.701 2.238 1.743 1256
7.563 2.198 1.691 5276
7.705 2.239 1.720 1901
7.422 2.157 1.661 1515
7.220 2.098 1.620 1138
7.568 2.199 1.668 4236
7.717 2.242 1.698 3220
7.866 2.286 1.729 2184
7.366 2.140 1.627 1447
7.871 2.287 1.705 4660
7.721 2.244 1.675 3837
7.579 2.202 1.646 3069
7.378 2.144 1.606 1054
7.875 2.288 1.681 5734
7.733 2.247 1.653 4723
7.584 2.204 1.624 1902
8.017 2.330 1.709 1003
7.737 2.248 1.630 5869
7.879 2.290 1.657 5844
8.021 2.331 1.685 1493
7.588 2.205 1.601 1127
7.749 2.252 1.608 5951
7.891 2.293 1.635 5655
8.033 2.334 1.662 1563
8.526 2.478 1.756 1171
7.888 2.292 1.610 4730
7.745 2.251 1.583 3929
8.030 2.333 1.636 2162
8.688 2.525 1.760 1231
7.892 2.293 1.586 3356
8.034 2.335 1.612 2046
7.749 2.252 1.560 1596
8.715 2.532 1.738 1417
7.903 2.297 1.563 2382
8.787 2.553 1.724 1713
8.045 2.338 1.589 1523
8.622 2.505 1.694 913
8.799 2.557 1.698 2277
8.634 2.509 1.669 1569
8.019 2.330 1.559 1539
8.941 2.598 1.724 1292
8.016 2.329 1.534 2267
8.631 2.508 1.642 2150
8.781 2.552 1.668 1679
8.953 2.602 1.698 1287
8.020 2.330 1.510 2863
8.635 2.509 1.615 1947
9.257 2.690 1.723 1460
9.077 2.638 1.692 1169
8.024 2.332 1.485 2033
9.262 2.691 1.695 1328
8.639 2.510 1.589 1194
8.857 2.574 1.626 1154
9.574 2.782 1.718 1382
8.883 2.581 1.603 1295
9.266 2.693 1.667 1211
9.123 2.651 1.643 1059
9.578 2.783 1.689 1380
9.931 2.886 1.746 1056
10.104 2.936 1.774 1049
8.925 2.593 1.582 1010
9.973 2.898 1.722 1077
10.229 2.972 1.763 950
9.993 2.904 1.694 1542
10.489 3.048 1.772 977
10.226 2.971 1.731 892
9.722 2.825 1.652 814
10.509 3.054 1.742 1392
9.997 2.905 1.664 1324
10.155 2.951 1.688 1084
9.741 2.831 1.625 875
10.144 2.948 1.655 1701
10.513 3.055 1.711 1357
10.347 3.007 1.686 967
9.994 2.904 1.633 865
10.141 2.947 1.623 1246
10.420 3.028 1.664 1122
11.067 3.216 1.760 1097
11.079 3.219 1.727 1268
11.290 3.281 1.758 1170
10.454 3.038 1.637 850
10.733 3.119 1.677 762
11.189 3.251 1.709 1489
11.332 3.293 1.729 1167
11.483 3.337 1.750 854
10.827 3.146 1.658 802
11.178 3.248 1.673 2240
11.321 3.290 1.692 1172
10.568 3.071 1.589 1052
10.839 3.150 1.626 914
11.190 3.252 1.640 1959
12.027 3.495 1.753 884
10.602 3.081 1.561 873
10.866 3.157 1.596 834
11.209 3.257 1.608 1709
11.684 3.395 1.671 1108
12.024 3.494 1.715 1079
11.443 3.325 1.639 870
11.213 3.258 1.574 1378
12.013 3.491 1.677 1185
12.262 3.563 1.709 1143
11.681 3.394 1.634 1123
12.259 3.562 1.671 1025
11.685 3.396 1.599 917
11.413 3.317 1.565 917
12.010 3.490 1.640 908
12.376 3.596 1.648 946
12.396 3.602 1.612 988
12.902 3.749 1.672 750
12.415 3.608 1.576 1075
12.898 3.748 1.632 906
12.487 3.628 1.546 836
13.247 3.849 1.592 840
13.912 4.043 1.665 817
13.662 3.970 1.637 783
13.667 3.971 1.596 809
2.268 0.650 1.791 2102
2.285 0.655 1.794 4474
2.167 0.621 1.706 1286
2.403 0.689 1.881 858
2.333 0.669 1.819 6156
2.197 0.630 1.718 1698
2.307 0.661 1.789 6612
2.425 0.695 1.876 1867
2.189 0.627 1.703 1074
2.311 0.663 1.782 7430
2.430 0.696 1.868 2503
2.310 0.662 1.771 7601
2.429 0.696 1.857 4061
2.308 0.662 1.760 7934
2.427 0.696 1.845 6196
2.313 0.663 1.753 7934
2.432 0.697 1.838 6223
2.424 0.695 1.822 7872
2.305 0.661 1.737 5028
2.429 0.696 1.814 9237
2.309 0.662 1.730 2782
2.446 0.701 1.816 9296
2.326 0.667 1.732 2357
2.457 0.704 1.813 10636
2.337 0.670 1.730 1752
2.462 0.706 1.806 10393
2.341 0.671 1.723 1569
2.460 0.705 1.794 10293
2.340 0.671 1.711 1049
2.465 0.706 1.787 10293
2.586 0.741 1.870 946
2.344 0.672 1.704 896
2.463 0.706 1.775 9699
2.584 0.741 1.857 1772
2.468 0.707 1.768 9148
2.589 0.742 1.850 2270
2.466 0.707 1.756 7722
2.587 0.742 1.838 2068
2.470 0.708 1.749 6173
2.618 0.750 1.847 1816
2.481 0.711 1.746 5202
2.629 0.753 1.844 2570
2.492 0.714 1.743 4354
2.653 0.760 1.848 3416
2.503 0.717 1.740 4221
2.658 0.762 1.841 4128
2.669 0.765 1.837 4853
2.514 0.721 1.736 4265
2.674 0.766 1.829 4819
2.525 0.724 1.733 3506
2.646 0.758 1.800 4792
2.523 0.723 1.721 2598
2.638 0.756 1.784 4773
2.514 0.721 1.706 1305
2.642 0.757 1.776 4845
2.706 0.775 1.805 6099
2.582 0.740 1.727 1116
2.710 0.777 1.797 8379
2.586 0.741 1.720 877
2.721 0.780 1.793 11005
2.597 0.744 1.716 925
2.726 0.781 1.785 13657
2.602 0.746 1.708 785
2.731 0.783 1.777 11246
2.735 0.784 1.769 8835
2.860 0.820 1.845 781
2.733 0.783 1.757 6687
2.858 0.819 1.832 1077
2.731 0.783 1.744 4851
2.856 0.819 1.820 1446
2.736 0.784 1.736 4863
2.861 0.820 1.811 1953
2.753 0.789 1.736 4156
2.879 0.825 1.810 2189
2.764 0.792 1.732 3625
2.890 0.828 1.806 2115
2.855 0.818 1.774 5100
2.981 0.854 1.847 2441
2.729 0.782 1.700 1158
2.866 0.822 1.769 6381
2.993 0.858 1.842 3408
2.878 0.825 1.764 7441
3.004 0.861 1.837 3616
2.889 0.828 1.760 8709
3.016 0.864 1.832 3883
2.887 0.827 1.747 9016
3.014 0.864 1.819 3579
2.891 0.829 1.739 8020
3.032 0.869 1.818 3157
2.902 0.832 1.734 6777
3.036 0.870 1.809 3072
2.900 0.831 1.721 5975
3.028 0.868 1.792 3610
3.012 0.863 1.772 5455
2.884 0.827 1.702 4815
3.140 0.900 1.843 1468
3.017 0.865 1.763 5506
2.889 0.828 1.693 3334
3.145 0.901 1.833 2218
3.109 0.891 1.802 5120
2.981 0.854 1.732 2250
3.114 0.892 1.793 4615
2.985 0.856 1.723 2439
3.111 0.892 1.780 5266
2.983 0.855 1.711 2117
3.109 0.891 1.767 5974
2.981 0.854 1.698 1528
3.114 0.892 1.757 7737
2.985 0.856 1.689 1140
3.243 0.929 1.826 756
3.125 0.896 1.752 8862
2.996 0.859 1.684 913
3.254 0.933 1.819 812
3.130 0.897 1.742 8213
3.259 0.934 1.810 835
3.141 0.900 1.737 8250
3.270 0.937 1.804 997
3.139 0.900 1.724 7506
3.268 0.937 1.790 1957
3.143 0.901 1.714 6685
3.273 0.938 1.780 2365
3.154 0.904 1.708 6548
3.284 0.941 1.774 2730
3.159 0.905 1.699 5959
3.289 0.943 1.764 5141
3.287 0.942 1.751 9848
3.156 0.905 1.686 3745
3.019 0.865 1.618 1114
3.291 0.943 1.741 12439
3.160 0.906 1.677 2572
3.023 0.866 1.609 1204
3.296 0.945 1.731 13057
3.165 0.907 1.667 2087
3.027 0.868 1.600 935
3.307 0.948 1.725 13740
3.176 0.910 1.661 2224
3.438 0.985 1.789 829
3.311 0.949 1.715 11554
3.180 0.912 1.652 1656
3.442 0.987 1.778 1072
3.323 0.952 1.708 9659
3.191 0.915 1.645 1360
3.454 0.990 1.771 1173
3.334 0.956 1.702 7168
3.465 0.993 1.764 1066
3.202 0.918 1.639 1054
3.380 0.969 1.711 5914
3.377 0.968 1.698 7492
3.509 1.006 1.760 842
3.375 0.967 1.685 7833
3.507 1.005 1.746 1286
3.372 0.967 1.671 6653
3.504 1.004 1.732 1555
3.439 0.986 1.690 6160
3.307 0.948 1.629 1099
3.571 1.024 1.751 901
3.423 0.981 1.670 5165
3.555 1.019 1.731 1638
3.688 1.057 1.791 764
3.434 0.984 1.663 5156
3.566 1.022 1.723 1610
3.706 1.062 1.786 1181
3.438 0.985 1.653 5962
3.704 1.062 1.772 1952
3.571 1.023 1.712 1318
3.498 1.003 1.667 6230
3.701 1.061 1.758 2823
3.365 0.965 1.608 1360
3.496 1.002 1.654 6195
3.706 1.062 1.746 2118
3.362 0.964 1.595 755
3.479 0.997 1.634 6919
3.703 1.061 1.732 2574
3.837 1.100 1.791 757
3.483 0.998 1.624 9435
3.785 1.085 1.755 4135
3.652 1.047 1.697 2065
3.487 0.999 1.613 9329
3.797 1.088 1.746 4938
3.663 1.050 1.689 2539
3.498 1.003 1.606 6381
3.801 1.089 1.735 4240
3.667 1.051 1.678 2244
3.502 1.004 1.596 4830
3.848 1.103 1.741 3520
3.700 1.060 1.679 2763
3.982 1.141 1.798 1111
3.866 1.108 1.736 4863
3.513 1.007 1.588 4059
3.718 1.066 1.674 2150
4.001 1.147 1.792 1239
3.878 1.112 1.727 4488
3.744 1.073 1.671 3479
3.525 1.010 1.580 2327
4.012 1.150 1.783 1686
3.967 1.137 1.751 4047
3.748 1.074 1.660 3959
3.500 1.003 1.558 1175
3.986 1.142 1.744 5590
3.766 1.080 1.655 2681
4.121 1.181 1.799 886
3.983 1.142 1.730 6913
3.849 1.103 1.675 1881
4.118 1.180 1.784 1458
3.988 1.143 1.718 7242
3.853 1.104 1.664 2050
4.123 1.182 1.772 1921
3.985 1.142 1.703 5123
4.120 1.181 1.757 2710
3.850 1.104 1.649 1057
3.968 1.137 1.683 3800
4.139 1.186 1.750 2997
4.158 1.192 1.743 4163
3.980 1.141 1.673 2714
4.169 1.195 1.733 4610
4.005 1.148 1.670 1891
4.138 1.186 1.707 5386
4.002 1.147 1.655 1558
4.274 1.225 1.759 773
4.178 1.198 1.708 8266
4.042 1.159 1.657 1376
4.183 1.199 1.696 9753
4.319 1.238 1.747 853
4.173 1.196 1.678 8885
4.309 1.235 1.729 1276
4.177 1.197 1.665 6888
4.313 1.236 1.716 2743
4.188 1.200 1.655 6311
4.325 1.240 1.705 4273
4.193 1.202 1.643 7370
4.336 1.243 1.695 4011
4.473 1.282 1.745 1358
4.204 1.205 1.633 6197
4.355 1.248 1.687 4718
4.492 1.287 1.736 2163
4.359 1.249 1.674 6291
4.208 1.206 1.620 3387
4.496 1.289 1.723 2845
4.457 1.278 1.694 6840
4.320 1.238 1.646 4093
4.184 1.199 1.597 952
4.454 1.277 1.678 7066
4.317 1.237 1.630 3882
4.592 1.316 1.726 1192
4.358 1.249 1.630 6608
4.495 1.288 1.677 3874
4.632 1.328 1.725 1329
4.362 1.250 1.617 8709
4.499 1.290 1.664 4698
4.637 1.329 1.711 1525
4.373 1.253 1.606 7559
4.511 1.293 1.653 6670
4.648 1.332 1.700 2093
4.486 1.286 1.630 9301
4.624 1.325 1.676 3905
4.348 1.246 1.583 2672
4.483 1.285 1.614 7205
4.642 1.331 1.667 4893
4.780 1.370 1.713 1296
4.345 1.245 1.568 1046
4.654 1.334 1.655 6818
4.487 1.286 1.600 3223
4.792 1.373 1.701 1523
4.930 1.413 1.746 939
4.665 1.337 1.644 7326
4.905 1.406 1.722 2686
4.484 1.285 1.584 1542
4.677 1.340 1.632 6022
4.917 1.409 1.709 3229
4.539 1.301 1.587 960
4.681 1.342 1.618 3881
4.826 1.383 1.664 2827
4.965 1.423 1.709 1465
4.678 1.341 1.602 2905
4.911 1.408 1.675 2727
5.049 1.447 1.719 811
4.915 1.409 1.660 4522
4.777 1.369 1.617 2109
4.638 1.329 1.574 1299
4.912 1.408 1.643 5393
5.051 1.448 1.686 1745
4.774 1.368 1.601 1666
4.924 1.411 1.631 5247
5.062 1.451 1.673 3559
4.726 1.355 1.571 994
5.037 1.444 1.649 5299
4.899 1.404 1.607 3346
5.176 1.484 1.691 1810
5.042 1.445 1.634 4684
5.232 1.500 1.691 2517
4.903 1.405 1.593 2273
5.060 1.450 1.623 4412
5.251 1.505 1.680 2282
4.921 1.411 1.582 1351
5.065 1.452 1.608 3468
5.226 1.498 1.655 2043
5.431 1.557 1.716 978
5.245 1.503 1.644 3278
5.435 1.558 1.699 1708
5.047 1.446 1.587 1669
5.249 1.504 1.628 4100
5.447 1.561 1.685 2677
5.095 1.460 1.584 1077
5.238 1.501 1.608 4703
5.444 1.560 1.666 2696
5.099 1.461 1.569 1062
5.242 1.503 1.592 3729
5.455 1.564 1.652 3676
5.595 1.604 1.691 892
5.103 1.463 1.553 818
5.482 1.571 1.642 7402
5.268 1.510 1.583 2635
5.621 1.611 1.681 1716
5.493 1.574 1.627 7041
5.633 1.615 1.666 2349
5.265 1.509 1.565 1984
5.593 1.603 1.637 8968
5.453 1.563 1.599 5285
5.247 1.504 1.543 773
5.605 1.606 1.622 12964
5.465 1.566 1.584 9624
5.745 1.647 1.659 1022
5.616 1.610 1.607 12661
5.469 1.567 1.568 9368
5.756 1.650 1.644 1449
6.162 1.766 1.751 1276
5.620 1.611 1.590 10683
5.473 1.569 1.552 7169
6.152 1.763 1.729 1670
5.761 1.651 1.627 1413
5.617 1.610 1.571 9124
5.469 1.568 1.533 4688
6.149 1.762 1.708 1839
5.757 1.650 1.607 1591
5.643 1.617 1.560 6077
6.220 1.783 1.707 3982
5.481 1.571 1.519 2086
5.784 1.658 1.596 989
5.669 1.625 1.549 7457
6.224 1.784 1.688 6098
6.365 1.824 1.723 1260
5.484 1.572 1.502 1160
6.236 1.787 1.671 5059
5.673 1.626 1.531 4194
6.384 1.830 1.708 3430
5.503 1.577 1.489 1015
6.381 1.829 1.686 4255
6.211 1.780 1.645 3619
5.670 1.625 1.513 2121
5.507 1.578 1.473 911
6.259 1.794 1.637 3483
6.400 1.834 1.671 2977
5.674 1.626 1.495 1128
6.630 1.900 1.726 869
6.404 1.836 1.652 4163
6.263 1.795 1.618 3935
6.627 1.899 1.705 1295
6.857 1.965 1.759 882
6.394 1.833 1.629 4068
6.253 1.792 1.596 1945
6.639 1.903 1.686 1743
6.861 1.967 1.739 1141
6.383 1.830 1.606 3287
6.658 1.908 1.670 1848
6.851 1.964 1.715 938
5.833 1.672 1.479 888
6.395 1.833 1.589 2034
6.670 1.912 1.651 1429
7.182 2.059 1.769 1110
6.915 1.982 1.707 1008
6.763 1.938 1.651 1315
7.016 2.011 1.708 1207
7.180 2.058 1.745 1005
6.391 1.832 1.568 902
7.020 2.012 1.687 1624
7.541 2.161 1.803 1375
7.303 2.093 1.750 1038
6.678 1.914 1.611 933
7.546 2.163 1.780 2034
7.047 2.020 1.671 1663
7.188 2.060 1.702 1421
7.330 2.101 1.733 1035
7.551 2.164 1.758 2159
7.185 2.059 1.679 1787
7.387 2.117 1.722 1646
7.044 2.019 1.648 1415
7.562 2.168 1.736 3288
7.205 2.065 1.660 1747
7.391 2.118 1.700 1531
7.063 2.024 1.630 976
7.567 2.169 1.713 5125
7.216 2.068 1.640 1928
7.358 2.109 1.670 1134
7.843 2.248 1.771 1037
7.571 2.170 1.691 5113
7.721 2.213 1.721 1717
7.362 2.110 1.648 1706
7.220 2.070 1.618 1505
7.576 2.171 1.668 3884
7.725 2.214 1.698 3069
7.874 2.257 1.729 2391
7.367 2.111 1.625 1895
7.879 2.258 1.705 5223
7.729 2.215 1.675 3197
7.587 2.175 1.646 2871
7.371 2.113 1.603 1133
7.883 2.259 1.681 6559
7.741 2.219 1.653 3596
7.592 2.176 1.624 1824
8.025 2.300 1.709 980
7.887 2.261 1.657 6728
7.745 2.220 1.630 4721
8.030 2.301 1.685 1382
7.596 2.177 1.601 1030
7.892 2.262 1.633 6524
7.749 2.221 1.606 4731
8.034 2.303 1.661 1834
8.453 2.423 1.740 1351
7.896 2.263 1.610 4899
7.754 2.222 1.583 3060
8.038 2.304 1.636 2147
8.675 2.486 1.756 1309
7.900 2.264 1.586 3167
8.042 2.305 1.612 1884
8.724 2.501 1.738 1460
7.758 2.223 1.560 1096
7.911 2.268 1.563 2277
8.789 2.519 1.722 1489
8.054 2.308 1.589 1169
8.631 2.474 1.694 969
8.801 2.522 1.697 2159
8.643 2.477 1.669 1677
8.020 2.299 1.558 1524
8.943 2.563 1.722 1394
8.017 2.298 1.533 2343
8.632 2.474 1.640 2188
8.790 2.519 1.668 1638
8.948 2.565 1.695 1178
8.028 2.301 1.510 3080
8.636 2.475 1.614 1875
9.267 2.656 1.723 1319
9.095 2.607 1.693 1279
8.032 2.302 1.485 2208
9.279 2.660 1.696 1359
8.873 2.543 1.627 1276
8.648 2.479 1.589 1206
8.893 2.549 1.603 1438
9.148 2.622 1.645 1414
9.584 2.747 1.718 1403
9.291 2.663 1.669 1370
10.115 2.899 1.774 1271
9.588 2.748 1.689 1241
9.145 2.621 1.617 1123
8.837 2.533 1.566 1092
10.240 2.935 1.763 1083
9.991 2.864 1.723 987
10.003 2.867 1.694 1410
10.237 2.934 1.731 1121
10.527 3.017 1.744 1353
10.158 2.912 1.687 1207
10.008 2.868 1.664 1155
9.759 2.797 1.626 915
10.148 2.908 1.654 1862
10.524 3.016 1.711 1520
10.351 2.967 1.685 1019
10.144 2.908 1.622 1472
10.431 2.990 1.664 1310
11.079 3.175 1.760 887
10.574 3.031 1.685 811
11.294 3.237 1.757 1209
11.091 3.179 1.727 1021
10.457 2.997 1.636 935
10.148 2.909 1.592 838
11.201 3.210 1.709 1703
11.344 3.251 1.729 1045
10.846 3.109 1.659 755
10.567 3.029 1.619 754
11.190 3.207 1.673 2521
11.333 3.248 1.692 1076
10.865 3.114 1.628 1032
10.609 3.041 1.593 964
11.202 3.211 1.640 2099
10.877 3.118 1.596 982
10.621 3.044 1.562 921
11.700 3.353 1.707 882
11.221 3.216 1.608 1758
11.689 3.350 1.670 1313
12.036 3.450 1.715 1052
10.889 3.121 1.564 871
11.217 3.215 1.573 1464
11.693 3.352 1.634 1353
12.033 3.449 1.678 1171
12.282 3.520 1.710 1021
11.697 3.353 1.599 1060
12.279 3.519 1.672 916
12.030 3.448 1.640 880
11.433 3.277 1.566 837
12.389 3.551 1.648 946
12.409 3.557 1.612 911
11.547 3.309 1.509 775
12.428 3.562 1.576 1010
12.912 3.701 1.632 756
13.927 3.992 1.665 920
13.931 3.993 1.623 768
8.614 2.469 -0.799 785
8.611 2.468 -0.825 823
8.609 2.467 -0.851 861
8.606 2.467 -0.877 861
2.270 0.642 1.791 1900
2.294 0.649 1.798 4143
2.176 0.615 1.711 1211
2.412 0.682 1.885 759
2.336 0.660 1.819 6397
2.193 0.620 1.714 1293
2.315 0.655 1.794 6355
2.434 0.688 1.880 1580
2.197 0.621 1.707 1075
2.314 0.654 1.782 6989
2.439 0.690 1.873 2174
2.195 0.621 1.696 757
2.306 0.652 1.766 7736
2.425 0.686 1.852 4192
2.310 0.653 1.760 8675
2.430 0.687 1.845 5932
2.315 0.655 1.753 8675
2.434 0.688 1.838 5914
2.427 0.686 1.822 8359
2.307 0.652 1.737 6030
2.431 0.687 1.814 10270
2.311 0.654 1.730 3826
2.449 0.692 1.816 10447
2.329 0.658 1.732 2615
2.460 0.695 1.813 11640
2.339 0.661 1.730 1484
2.464 0.697 1.806 10812
2.344 0.663 1.723 1543
2.463 0.696 1.794 10179
2.342 0.662 1.711 1161
2.467 0.698 1.787 10179
2.346 0.663 1.704 967
2.588 0.732 1.870 773
2.472 0.699 1.780 9721
2.593 0.733 1.862 1080
2.351 0.665 1.697 772
2.470 0.698 1.768 9253
2.592 0.733 1.850 1541
2.468 0.698 1.756 8226
2.590 0.732 1.838 1495
2.473 0.699 1.749 7210
2.640 0.746 1.860 1610
2.477 0.700 1.742 5929
2.651 0.750 1.856 2754
2.488 0.704 1.738 4756
2.656 0.751 1.848 3952
2.667 0.754 1.845 4806
2.499 0.707 1.735 4113
2.672 0.755 1.837 5694
2.517 0.712 1.736 3880
2.670 0.755 1.825 6290
2.540 0.718 1.741 3134
2.675 0.756 1.817 6948
2.551 0.721 1.738 3042
2.686 0.759 1.813 5919
2.562 0.725 1.734 2337
2.658 0.752 1.784 5445
2.702 0.764 1.801 7053
2.578 0.729 1.723 1463
2.713 0.767 1.797 9172
2.589 0.732 1.720 1362
2.718 0.768 1.789 12117
2.593 0.733 1.712 1198
2.722 0.770 1.781 15062
2.598 0.735 1.704 1035
2.727 0.771 1.773 12305
2.852 0.806 1.849 836
2.738 0.774 1.769 9550
2.863 0.810 1.845 775
2.736 0.774 1.757 6815
2.861 0.809 1.832 1119
2.734 0.773 1.744 4284
2.859 0.808 1.820 1561
2.738 0.774 1.736 4554
2.864 0.810 1.811 2221
2.836 0.802 1.783 4063
2.710 0.766 1.709 1653
2.840 0.803 1.775 4301
2.714 0.767 1.701 1249
2.966 0.839 1.848 842
2.858 0.808 1.774 5088
2.984 0.844 1.847 2167
2.732 0.772 1.700 1062
2.863 0.809 1.765 5729
2.989 0.845 1.839 3243
2.874 0.813 1.761 6659
3.001 0.848 1.833 3422
2.878 0.814 1.752 7619
3.005 0.850 1.824 3795
2.883 0.815 1.743 8762
3.017 0.853 1.819 3165
2.894 0.818 1.739 8240
3.028 0.856 1.814 2759
2.905 0.822 1.734 6850
3.039 0.859 1.809 2962
2.903 0.821 1.721 5788
3.031 0.857 1.792 3386
3.008 0.851 1.768 5694
2.881 0.815 1.698 3433
3.136 0.887 1.839 1651
3.020 0.854 1.763 5843
2.892 0.818 1.693 2829
3.148 0.890 1.833 1850
3.024 0.855 1.754 5524
3.153 0.891 1.824 2223
2.896 0.819 1.684 1355
3.029 0.856 1.745 4819
3.157 0.893 1.814 2032
2.900 0.820 1.676 1061
3.115 0.881 1.780 5093
2.986 0.844 1.711 2181
3.119 0.882 1.770 6309
2.990 0.846 1.702 2027
3.124 0.883 1.761 8103
2.995 0.847 1.693 1718
3.253 0.920 1.829 762
3.128 0.885 1.752 9528
2.999 0.848 1.684 1280
3.257 0.921 1.819 794
3.133 0.886 1.742 9160
3.262 0.922 1.810 786
3.144 0.889 1.737 9289
3.274 0.926 1.804 972
3.149 0.890 1.727 8054
3.278 0.927 1.794 1459
3.153 0.892 1.718 6698
3.283 0.928 1.784 1581
3.009 0.851 1.645 826
3.164 0.895 1.712 6878
3.294 0.932 1.778 1984
3.014 0.852 1.636 874
3.244 0.917 1.740 6426
3.114 0.880 1.675 1393
3.283 0.928 1.748 10887
3.152 0.891 1.683 3319
3.294 0.932 1.741 13752
3.164 0.895 1.677 2712
3.299 0.933 1.731 13786
3.168 0.896 1.667 2049
3.303 0.934 1.722 13909
3.172 0.897 1.658 1490
3.441 0.973 1.789 928
3.308 0.935 1.712 11561
3.439 0.972 1.775 1367
3.177 0.898 1.648 1178
3.326 0.940 1.708 10063
3.457 0.978 1.771 1521
3.195 0.903 1.645 1099
3.337 0.944 1.702 8664
3.469 0.981 1.764 1508
3.206 0.906 1.639 812
3.376 0.955 1.708 6751
3.508 0.992 1.770 947
3.381 0.956 1.698 8997
3.513 0.993 1.760 1109
3.385 0.957 1.688 10140
3.517 0.995 1.749 1128
3.389 0.958 1.678 9059
3.522 0.996 1.739 899
3.415 0.966 1.677 7818
3.561 1.007 1.744 949
3.419 0.967 1.667 7384
3.552 1.004 1.727 1522
3.698 1.046 1.794 795
3.430 0.970 1.660 6794
3.563 1.007 1.720 1646
3.710 1.049 1.786 1256
3.435 0.971 1.650 7131
3.707 1.048 1.772 2024
3.568 1.009 1.709 1393
3.502 0.990 1.667 8241
3.705 1.048 1.758 3067
3.369 0.953 1.608 1812
3.506 0.991 1.657 8029
3.710 1.049 1.746 2491
3.373 0.954 1.598 1339
3.489 0.987 1.637 5717
3.707 1.048 1.732 2552
3.479 0.984 1.621 7223
3.704 1.047 1.718 4040
3.838 1.085 1.776 1857
3.491 0.987 1.613 8198
3.800 1.075 1.746 4475
3.667 1.037 1.689 2925
3.502 0.990 1.606 5362
3.805 1.076 1.735 4067
3.671 1.038 1.678 2531
3.852 1.089 1.741 4971
3.506 0.991 1.596 3320
3.704 1.047 1.679 2927
3.986 1.127 1.798 965
3.863 1.092 1.733 6169
3.524 0.996 1.591 2725
3.729 1.054 1.677 2621
4.005 1.132 1.792 1407
3.868 1.094 1.721 4309
3.733 1.056 1.666 3508
4.023 1.138 1.786 1776
3.535 1.000 1.583 1529
3.752 1.061 1.660 3933
3.986 1.127 1.756 2975
4.004 1.132 1.750 4516
3.770 1.066 1.655 2523
3.995 1.130 1.732 5174
3.860 1.091 1.678 2304
4.129 1.168 1.787 1115
3.992 1.129 1.718 5339
3.857 1.091 1.664 2148
4.127 1.167 1.772 1620
3.975 1.124 1.697 4022
4.110 1.162 1.751 2846
3.840 1.086 1.644 948
4.143 1.172 1.750 4176
3.965 1.121 1.680 3556
4.155 1.175 1.740 6131
3.969 1.122 1.668 2443
4.166 1.178 1.731 6846
4.031 1.140 1.678 1880
4.157 1.175 1.713 9020
4.021 1.137 1.661 1203
4.300 1.216 1.767 770
4.175 1.181 1.706 11843
4.039 1.142 1.654 1058
4.318 1.221 1.760 891
4.187 1.184 1.696 11997
4.330 1.224 1.750 832
4.184 1.183 1.681 10149
4.392 1.242 1.758 802
4.188 1.184 1.668 9034
4.325 1.223 1.718 2040
4.185 1.183 1.653 8354
4.322 1.222 1.703 3950
4.458 1.261 1.753 802
4.197 1.187 1.643 9071
4.334 1.225 1.692 3467
4.470 1.264 1.742 1810
4.208 1.190 1.633 7898
4.460 1.261 1.723 4057
4.465 1.262 1.710 6862
4.212 1.191 1.620 4483
4.469 1.264 1.697 9478
4.332 1.225 1.648 5091
4.195 1.186 1.600 1375
4.473 1.265 1.683 10106
4.336 1.226 1.635 4209
4.611 1.304 1.731 753
4.471 1.264 1.667 7425
4.333 1.225 1.620 4298
4.644 1.313 1.727 1262
4.366 1.235 1.617 6589
4.504 1.273 1.664 5569
4.648 1.314 1.713 1886
4.494 1.271 1.645 8354
4.356 1.232 1.599 4970
4.631 1.310 1.692 3106
4.491 1.270 1.630 10348
4.628 1.309 1.676 4728
4.353 1.231 1.583 2338
4.487 1.269 1.614 8906
4.640 1.312 1.664 5017
4.778 1.351 1.710 1295
4.350 1.230 1.568 961
4.659 1.317 1.655 4869
4.492 1.270 1.600 4748
4.906 1.387 1.737 1290
4.677 1.323 1.646 4912
4.910 1.388 1.722 2824
4.539 1.284 1.601 2419
4.689 1.326 1.634 4935
4.922 1.392 1.709 3245
4.551 1.287 1.590 1398
4.693 1.327 1.620 3366
4.941 1.397 1.699 3048
4.916 1.390 1.675 2071
4.704 1.330 1.608 1944
4.920 1.391 1.660 4168
4.782 1.352 1.617 1741
4.924 1.392 1.646 5816
4.786 1.353 1.603 1850
5.063 1.432 1.689 1086
4.943 1.398 1.635 6525
5.082 1.437 1.678 1674
4.761 1.346 1.579 1360
4.947 1.399 1.621 6686
5.167 1.461 1.687 2200
4.959 1.402 1.608 4443
5.149 1.456 1.665 2305
5.288 1.495 1.706 1047
5.249 1.484 1.678 2531
4.963 1.403 1.593 2348
5.102 1.443 1.634 1218
5.231 1.479 1.655 2690
4.967 1.404 1.578 1930
5.422 1.533 1.711 767
5.265 1.489 1.648 3085
4.971 1.406 1.563 1851
5.433 1.536 1.697 1503
5.125 1.449 1.608 968
5.269 1.490 1.632 3372
5.452 1.542 1.685 2462
4.982 1.409 1.550 1342
5.129 1.450 1.592 783
5.244 1.483 1.608 4481
5.464 1.545 1.671 2760
4.994 1.412 1.537 1039
5.520 1.561 1.669 4538
5.255 1.486 1.594 3404
5.509 1.558 1.648 9091
5.274 1.491 1.583 1808
5.649 1.597 1.687 954
5.514 1.559 1.631 9590
5.654 1.599 1.670 1391
5.271 1.490 1.565 1262
5.518 1.560 1.615 10008
5.658 1.600 1.653 1888
5.378 1.521 1.577 832
5.522 1.561 1.598 11982
5.662 1.601 1.636 5052
5.629 1.592 1.609 10382
5.489 1.552 1.572 7429
6.198 1.753 1.759 1205
5.770 1.631 1.646 1041
5.641 1.595 1.594 11938
5.500 1.555 1.557 6285
6.225 1.760 1.746 2009
5.781 1.635 1.630 1072
5.638 1.594 1.575 10965
6.237 1.763 1.729 3453
5.497 1.554 1.539 3360
5.778 1.634 1.611 1397
5.649 1.597 1.560 7888
6.226 1.761 1.707 5936
5.508 1.558 1.524 1394
5.790 1.637 1.596 926
5.668 1.603 1.547 7896
6.231 1.762 1.688 7186
6.416 1.814 1.734 1111
5.527 1.563 1.511 1024
6.242 1.765 1.671 4900
5.672 1.604 1.530 4392
6.398 1.809 1.709 3063
6.591 1.864 1.757 851
6.387 1.806 1.686 3982
6.247 1.766 1.652 3766
5.676 1.605 1.513 2406
6.528 1.846 1.721 1132
6.258 1.770 1.635 4362
6.399 1.809 1.669 2896
5.679 1.606 1.495 1424
6.570 1.858 1.710 1126
6.270 1.773 1.618 4268
6.418 1.815 1.653 3193
6.641 1.878 1.706 1562
6.408 1.812 1.631 2892
6.267 1.772 1.597 2320
6.645 1.879 1.686 1930
6.868 1.942 1.739 916
6.397 1.809 1.608 2688
6.657 1.882 1.668 1656
5.824 1.647 1.475 944
6.910 1.954 1.727 770
6.401 1.810 1.589 1773
6.691 1.892 1.655 1481
7.190 2.033 1.769 1228
6.922 1.957 1.707 1148
7.031 1.988 1.710 1488
6.681 1.889 1.631 1110
7.187 2.032 1.745 1058
6.889 1.948 1.678 903
7.035 1.989 1.689 1730
7.176 2.029 1.720 1251
7.318 2.069 1.752 1061
6.677 1.888 1.610 1008
7.173 2.028 1.697 2211
7.554 2.136 1.780 1525
7.032 1.988 1.666 1432
7.315 2.068 1.728 1243
7.193 2.034 1.679 2217
7.558 2.137 1.758 1604
7.051 1.994 1.648 1576
7.379 2.087 1.719 1513
7.570 2.141 1.736 2565
7.212 2.039 1.660 1923
7.384 2.088 1.697 1671
7.070 1.999 1.630 1144
7.582 2.144 1.715 4445
7.224 2.043 1.640 2222
7.388 2.089 1.674 1189
7.851 2.220 1.771 1104
7.586 2.145 1.692 4274
7.228 2.044 1.618 1860
7.728 2.185 1.721 1254
7.385 2.088 1.651 1188
7.591 2.146 1.669 2775
7.882 2.229 1.729 2455
7.733 2.187 1.698 2330
7.381 2.087 1.627 1455
7.887 2.230 1.705 5083
7.745 2.190 1.676 2322
7.595 2.148 1.646 1882
7.371 2.084 1.602 1081
7.891 2.231 1.681 6771
7.749 2.191 1.653 1940
7.592 2.147 1.622 1114
8.430 2.384 1.787 900
7.896 2.233 1.657 7292
7.753 2.192 1.630 2590
8.442 2.387 1.763 1417
8.038 2.273 1.685 1173
7.900 2.234 1.633 7085
7.757 2.193 1.606 2934
8.462 2.393 1.740 1925
8.042 2.274 1.661 1640
7.904 2.235 1.610 4758
8.046 2.275 1.636 2048
8.466 2.394 1.715 1952
7.761 2.195 1.583 1838
8.013 2.266 1.605 3063
8.456 2.391 1.687 1594
7.870 2.225 1.579 1369
8.748 2.474 1.741 1302
8.017 2.267 1.581 1798
8.790 2.485 1.721 1491
8.452 2.390 1.660 1131
8.595 2.430 1.686 994
8.802 2.489 1.696 2159
8.659 2.449 1.670 1701
8.021 2.268 1.557 1150
8.945 2.529 1.721 1077
8.025 2.269 1.533 2227
8.641 2.443 1.640 1895
8.799 2.488 1.668 1715
9.092 2.571 1.719 1058
8.036 2.272 1.510 2994
8.660 2.449 1.617 1522
9.104 2.574 1.693 1265
9.299 2.629 1.726 1171
8.040 2.273 1.485 2246
9.296 2.629 1.697 1470
9.589 2.711 1.747 1398
8.898 2.516 1.630 1341
9.293 2.628 1.668 1525
9.150 2.587 1.644 1452
9.594 2.713 1.718 1418
8.834 2.498 1.592 1375
10.133 2.865 1.775 1425
9.154 2.588 1.617 1268
8.830 2.497 1.564 1264
9.734 2.752 1.711 1103
10.145 2.869 1.746 1482
10.002 2.828 1.723 937
9.723 2.749 1.679 854
10.164 2.874 1.718 1287
10.014 2.831 1.694 1180
9.788 2.768 1.659 876
10.307 2.915 1.740 763
10.161 2.873 1.686 1484
10.538 2.980 1.744 1319
9.784 2.767 1.628 1150
9.927 2.807 1.650 1055
10.158 2.872 1.654 2036
10.527 2.977 1.710 1586
10.324 2.919 1.679 959
9.788 2.768 1.599 913
10.155 2.871 1.622 1742
10.449 2.954 1.666 1476
10.592 2.995 1.687 778
10.468 2.960 1.636 1156
10.166 2.875 1.593 1015
10.611 3.000 1.657 973
11.306 3.197 1.757 969
11.204 3.168 1.708 1651
11.016 3.115 1.681 802
10.616 3.002 1.625 802
10.865 3.072 1.660 758
11.201 3.167 1.673 2366
10.884 3.078 1.629 1084
11.443 3.236 1.706 999
10.627 3.005 1.594 932
11.206 3.168 1.639 1988
11.447 3.237 1.671 1167
11.704 3.309 1.706 1066
10.888 3.079 1.596 1021
11.225 3.174 1.607 1688
11.693 3.306 1.669 1472
11.459 3.240 1.638 1163
10.650 3.012 1.531 952
11.698 3.308 1.633 1490
11.221 3.173 1.572 1482
11.463 3.241 1.603 1116
12.045 3.406 1.678 1092
11.702 3.309 1.598 1109
12.413 3.510 1.687 927
11.225 3.174 1.538 911
12.050 3.407 1.641 819
12.402 3.507 1.648 861
12.448 3.520 1.577 846
13.933 3.940 1.664 1015
8.620 2.437 -0.825 802
8.618 2.437 -0.851 863
8.615 2.436 -0.877 863
2.261 0.629 1.782 1758
2.328 0.647 1.821 3526
2.197 0.611 1.725 1360
2.338 0.650 1.819 6668
2.220 0.617 1.732 1456
2.337 0.650 1.807 6539
2.218 0.617 1.721 1495
2.455 0.683 1.894 785
2.323 0.646 1.787 7014
2.442 0.679 1.873 1831
2.204 0.613 1.701 1014
2.309 0.642 1.766 8342
2.428 0.675 1.852 3731
2.313 0.643 1.760 10061
2.432 0.677 1.845 5335
2.318 0.645 1.753 10061
2.437 0.678 1.838 5302
2.429 0.676 1.822 8570
2.310 0.642 1.737 7713
2.434 0.677 1.814 11285
2.314 0.644 1.730 5852
2.452 0.682 1.816 11864
2.331 0.648 1.732 3924
2.463 0.685 1.813 13195
2.342 0.651 1.730 1820
2.461 0.684 1.802 11682
2.340 0.651 1.718 1856
2.466 0.686 1.794 10275
2.345 0.652 1.711 1934
2.470 0.687 1.787 10275
2.349 0.653 1.704 1461
2.475 0.688 1.780 9719
2.354 0.655 1.697 988
2.479 0.690 1.772 9047
2.358 0.656 1.690 1106
2.478 0.689 1.761 8488
2.638 0.734 1.868 1367
2.476 0.689 1.749 7932
2.643 0.735 1.860 2150
2.480 0.690 1.742 6355
2.654 0.738 1.856 3232
2.491 0.693 1.738 4867
2.665 0.741 1.853 4406
2.664 0.741 1.841 5455
2.496 0.694 1.731 3801
2.668 0.742 1.833 6518
2.507 0.697 1.728 2740
2.673 0.743 1.825 7720
2.550 0.709 1.745 2608
2.678 0.745 1.817 8921
2.555 0.710 1.738 2592
2.683 0.746 1.809 8166
2.559 0.712 1.730 2178
2.687 0.747 1.801 7412
2.563 0.713 1.723 1764
2.811 0.782 1.879 785
2.699 0.751 1.797 8300
2.574 0.716 1.719 1843
2.710 0.754 1.793 9497
2.585 0.719 1.716 1625
2.714 0.755 1.785 12440
2.590 0.720 1.708 1484
2.726 0.758 1.781 15446
2.601 0.723 1.704 1455
2.730 0.759 1.773 12838
2.605 0.725 1.697 1029
2.855 0.794 1.849 905
2.735 0.761 1.765 10231
2.860 0.795 1.841 1183
2.739 0.762 1.757 6760
2.865 0.797 1.832 1362
2.823 0.785 1.796 4231
2.698 0.750 1.721 2031
2.821 0.785 1.784 5218
2.695 0.750 1.709 1396
2.819 0.784 1.771 6172
2.693 0.749 1.697 926
2.945 0.819 1.846 800
2.837 0.789 1.771 6103
2.711 0.754 1.697 1140
2.848 0.792 1.766 6085
2.975 0.827 1.840 1632
2.722 0.757 1.692 848
2.859 0.795 1.761 6298
2.986 0.830 1.835 2498
2.864 0.797 1.753 7056
2.991 0.832 1.826 2690
2.862 0.796 1.741 7840
3.002 0.835 1.821 2934
2.873 0.799 1.736 8925
3.020 0.840 1.819 2560
2.891 0.804 1.735 8235
3.032 0.843 1.814 2347
2.902 0.807 1.730 6463
3.050 0.848 1.813 3111
2.907 0.808 1.721 5038
3.075 0.855 1.815 3941
3.005 0.836 1.765 5377
2.877 0.800 1.694 1734
3.133 0.871 1.835 1639
3.017 0.839 1.759 5548
3.145 0.875 1.830 1833
2.888 0.803 1.689 1508
3.035 0.844 1.758 5641
3.163 0.880 1.828 1478
2.906 0.808 1.688 868
3.032 0.843 1.745 5036
3.161 0.879 1.814 1770
3.118 0.867 1.780 4315
2.990 0.831 1.711 2438
3.116 0.867 1.767 5812
2.987 0.831 1.698 2371
3.245 0.903 1.835 842
3.128 0.870 1.761 7432
2.998 0.834 1.693 2657
3.132 0.871 1.752 9310
3.003 0.835 1.684 2269
3.137 0.872 1.742 9558
3.007 0.836 1.675 1659
3.148 0.875 1.737 9707
3.011 0.838 1.666 1438
3.278 0.912 1.804 924
3.159 0.879 1.731 8280
3.016 0.839 1.657 1017
3.289 0.915 1.797 936
3.218 0.895 1.749 10525
3.088 0.859 1.683 889
3.355 0.933 1.819 869
3.223 0.896 1.739 10742
3.353 0.933 1.805 1106
3.079 0.856 1.667 821
3.241 0.901 1.737 8527
3.049 0.848 1.640 1080
3.372 0.938 1.802 841
3.287 0.914 1.748 10670
3.156 0.878 1.683 3158
3.026 0.841 1.618 1119
3.298 0.917 1.741 12923
3.168 0.881 1.677 2378
3.037 0.845 1.612 1359
3.310 0.921 1.735 12100
3.179 0.884 1.671 2011
3.048 0.848 1.606 1091
3.475 0.967 1.816 752
3.314 0.922 1.725 11464
3.183 0.885 1.661 1459
3.445 0.958 1.789 924
3.024 0.841 1.584 806
3.305 0.919 1.708 10151
3.436 0.956 1.772 1655
3.173 0.883 1.645 938
3.021 0.840 1.571 885
3.337 0.928 1.712 10626
3.469 0.965 1.775 1438
3.198 0.890 1.645 1039
3.018 0.839 1.559 949
3.341 0.929 1.702 11292
3.473 0.966 1.764 1751
3.022 0.841 1.550 1072
3.367 0.936 1.702 8304
3.499 0.973 1.764 1972
3.026 0.842 1.541 952
3.378 0.939 1.695 9829
3.510 0.976 1.757 1840
3.389 0.943 1.688 11850
3.522 0.979 1.749 1288
3.394 0.944 1.678 11477
3.526 0.981 1.739 1054
3.024 0.841 1.508 819
3.419 0.951 1.677 11002
3.579 0.995 1.751 881
3.423 0.952 1.667 10899
3.570 0.993 1.734 1209
3.427 0.953 1.657 9642
3.574 0.994 1.723 1561
3.714 1.033 1.786 919
3.439 0.956 1.650 9032
3.712 1.032 1.772 1514
3.572 0.993 1.709 1424
3.499 0.973 1.664 9888
3.710 1.032 1.758 2488
3.366 0.936 1.605 1486
3.510 0.976 1.657 9499
3.714 1.033 1.746 2566
3.377 0.939 1.598 1432
3.501 0.974 1.640 5305
3.634 1.011 1.699 2963
3.768 1.048 1.757 2240
3.367 0.936 1.582 790
3.491 0.971 1.624 5427
3.702 1.030 1.715 3630
3.836 1.067 1.773 2193
3.495 0.972 1.613 6318
3.706 1.031 1.704 4483
3.840 1.068 1.761 2476
3.718 1.034 1.696 4178
3.506 0.975 1.606 3591
3.852 1.071 1.753 3196
3.863 1.075 1.744 5867
3.722 1.035 1.685 3368
3.574 0.994 1.622 1741
3.998 1.112 1.801 777
3.868 1.076 1.733 7254
3.734 1.038 1.677 2521
3.543 0.985 1.597 1452
4.017 1.117 1.795 1312
3.844 1.069 1.710 5266
4.021 1.118 1.783 1925
3.710 1.032 1.654 1233
3.561 0.990 1.592 853
3.997 1.112 1.759 2800
3.849 1.070 1.698 2710
3.714 1.033 1.643 1258
4.016 1.117 1.753 4036
3.782 1.052 1.658 2021
4.014 1.116 1.738 4159
3.879 1.079 1.684 2518
4.025 1.119 1.729 4226
3.890 1.082 1.675 2989
4.160 1.157 1.783 1047
4.037 1.123 1.720 4589
3.901 1.085 1.666 2315
4.172 1.160 1.774 2148
4.141 1.152 1.747 5831
3.991 1.110 1.688 3308
3.856 1.072 1.635 788
4.160 1.157 1.740 8695
4.024 1.119 1.687 2238
4.164 1.158 1.728 9570
4.029 1.120 1.675 1653
4.162 1.157 1.713 12977
4.026 1.120 1.661 799
4.312 1.199 1.770 787
4.180 1.163 1.706 16950
4.316 1.200 1.757 1411
4.044 1.125 1.654 988
4.192 1.166 1.696 15574
4.328 1.204 1.747 1321
4.056 1.128 1.644 971
4.189 1.165 1.681 12301
4.326 1.203 1.731 813
4.193 1.166 1.668 11947
4.330 1.204 1.718 1557
4.191 1.165 1.653 11085
4.327 1.203 1.703 3362
4.464 1.241 1.753 1233
4.195 1.167 1.640 10270
4.332 1.205 1.690 3661
4.468 1.243 1.739 2534
4.213 1.172 1.633 8392
4.466 1.242 1.723 4818
4.463 1.241 1.708 8062
4.218 1.173 1.620 5182
4.467 1.242 1.694 10248
4.330 1.204 1.646 4292
4.193 1.166 1.597 2161
4.479 1.246 1.683 11790
4.342 1.207 1.635 3850
4.197 1.167 1.585 772
4.483 1.247 1.670 10776
4.338 1.207 1.620 3321
4.642 1.291 1.725 1756
4.495 1.250 1.659 8839
4.647 1.292 1.711 2918
4.357 1.212 1.612 2853
4.499 1.251 1.645 9119
4.651 1.294 1.697 3376
4.361 1.213 1.599 2150
4.496 1.250 1.630 9340
4.634 1.289 1.676 5227
4.358 1.212 1.583 1239
4.493 1.250 1.614 8141
4.638 1.290 1.662 4027
4.776 1.328 1.708 752
4.504 1.253 1.603 4889
4.701 1.307 1.667 2138
4.904 1.364 1.734 1209
4.574 1.272 1.610 2628
4.909 1.365 1.719 2348
4.712 1.311 1.655 2295
4.695 1.306 1.634 2842
4.920 1.368 1.707 2495
4.556 1.267 1.590 1067
4.947 1.376 1.699 3390
4.735 1.317 1.632 2238
4.951 1.377 1.684 3910
4.739 1.318 1.618 1769
4.941 1.374 1.665 4667
4.736 1.317 1.601 1009
4.938 1.373 1.648 5555
4.748 1.320 1.589 1330
4.942 1.374 1.633 6107
5.176 1.440 1.705 1843
4.744 1.319 1.573 1455
4.953 1.378 1.621 5996
5.180 1.441 1.689 3162
4.972 1.383 1.610 4701
5.185 1.442 1.674 3240
5.013 1.394 1.606 3283
5.196 1.445 1.660 2983
5.336 1.484 1.701 773
5.208 1.448 1.647 4455
4.973 1.383 1.578 3032
5.347 1.487 1.688 1054
5.212 1.450 1.631 6116
4.984 1.386 1.565 2487
5.440 1.513 1.697 1423
5.216 1.451 1.616 4687
5.452 1.516 1.683 2191
4.996 1.389 1.552 1591
5.235 1.456 1.604 4137
5.478 1.524 1.673 3871
4.992 1.388 1.535 1502
5.618 1.562 1.712 926
5.504 1.531 1.662 5734
5.247 1.459 1.590 4117
5.644 1.570 1.702 1120
4.996 1.390 1.520 914
5.523 1.536 1.650 9871
5.236 1.456 1.571 2392
5.663 1.575 1.689 1172
5.520 1.535 1.631 12903
5.660 1.574 1.670 1836
5.240 1.457 1.555 1106
5.532 1.539 1.617 14954
5.672 1.578 1.655 2329
5.310 1.477 1.557 1087
5.543 1.542 1.602 16908
5.684 1.581 1.640 4258
5.555 1.545 1.587 13651
5.695 1.584 1.624 5775
6.205 1.726 1.759 1086
5.888 1.637 1.675 924
5.552 1.544 1.569 10708
5.692 1.583 1.605 6992
6.225 1.731 1.744 2119
5.892 1.639 1.657 935
5.652 1.572 1.577 9161
5.511 1.533 1.541 4450
6.237 1.735 1.727 3676
5.792 1.611 1.613 796
5.656 1.573 1.560 8706
6.241 1.736 1.708 4688
5.515 1.534 1.524 2315
5.667 1.576 1.545 8566
6.245 1.737 1.690 5185
5.526 1.537 1.510 1396
6.401 1.780 1.729 993
6.257 1.740 1.673 6100
5.664 1.575 1.526 4294
6.406 1.782 1.709 1784
6.599 1.835 1.757 1026
6.262 1.741 1.654 6922
6.410 1.783 1.690 2197
5.742 1.597 1.527 1927
6.603 1.836 1.737 1342
6.273 1.745 1.637 5296
6.429 1.788 1.674 2089
6.689 1.860 1.737 1325
5.686 1.581 1.495 1144
6.307 1.754 1.625 4420
6.738 1.874 1.728 1943
6.582 1.831 1.690 1664
6.319 1.757 1.608 2743
6.743 1.875 1.707 2582
6.579 1.830 1.669 1550
7.018 1.952 1.772 860
6.740 1.874 1.685 2080
6.323 1.758 1.589 1380
7.038 1.957 1.754 1032
6.583 1.831 1.649 950
7.049 1.961 1.735 1473
6.737 1.874 1.663 1381
7.191 2.000 1.767 1336
6.319 1.758 1.568 1180
7.039 1.958 1.710 2213
6.666 1.854 1.626 1380
7.196 2.001 1.745 1045
6.808 1.893 1.658 1040
7.043 1.959 1.689 1916
7.185 1.998 1.720 1557
6.670 1.855 1.606 1426
7.327 2.038 1.752 999
7.175 1.995 1.695 2503
7.316 2.035 1.726 1312
7.033 1.956 1.664 843
6.667 1.854 1.585 797
7.186 1.999 1.675 1933
7.425 2.065 1.727 1197
7.213 2.006 1.659 1658
7.587 2.110 1.738 1513
7.378 2.052 1.693 1386
7.071 1.967 1.628 756
7.606 2.115 1.718 3125
7.232 2.011 1.640 2004
7.374 2.051 1.670 1258
7.786 2.165 1.756 1226
7.626 2.121 1.698 3217
7.237 2.013 1.618 1829
7.798 2.169 1.734 1516
7.940 2.208 1.763 1358
7.907 2.199 1.732 2607
7.630 2.122 1.675 2262
7.398 2.057 1.628 1333
7.233 2.012 1.595 922
7.896 2.196 1.705 4254
7.717 2.146 1.669 1376
8.421 2.342 1.809 984
7.387 2.054 1.603 871
7.901 2.197 1.681 5654
8.448 2.349 1.789 1508
8.043 2.237 1.709 910
7.676 2.135 1.637 893
7.905 2.199 1.657 6330
8.452 2.351 1.763 2010
8.047 2.238 1.685 1231
7.665 2.132 1.611 835
7.909 2.200 1.633 6183
8.457 2.352 1.738 2306
8.052 2.239 1.661 1867
8.637 2.402 1.772 1300
7.921 2.203 1.611 3698
8.469 2.355 1.714 2454
8.649 2.405 1.747 2024
8.064 2.243 1.638 1911
8.466 2.355 1.687 2203
8.030 2.233 1.606 1990
8.646 2.405 1.720 1579
8.789 2.444 1.746 1022
8.455 2.352 1.658 1759
8.094 2.251 1.593 1330
8.801 2.448 1.721 1298
8.598 2.391 1.684 1210
8.828 2.455 1.698 1886
8.091 2.250 1.567 1820
8.459 2.353 1.633 1556
8.685 2.415 1.673 1488
8.080 2.247 1.540 1771
8.870 2.467 1.678 1760
8.697 2.419 1.648 1667
9.013 2.507 1.703 1180
8.708 2.422 1.623 1601
8.904 2.476 1.657 1395
9.325 2.594 1.729 1320
8.076 2.246 1.515 1119
9.315 2.591 1.698 1545
8.833 2.457 1.617 1470
9.601 2.670 1.747 1425
9.021 2.509 1.649 1299
8.830 2.456 1.589 1585
9.749 2.711 1.741 1576
9.387 2.611 1.682 1555
9.010 2.506 1.619 1411
9.761 2.715 1.713 1559
10.145 2.821 1.775 1527
8.834 2.457 1.563 1403
9.007 2.505 1.591 1231
10.157 2.825 1.746 2035
9.742 2.710 1.680 1050
10.014 2.785 1.723 1007
9.199 2.559 1.594 822
10.161 2.826 1.715 1984
9.679 2.692 1.640 1031
10.018 2.786 1.693 1026
9.845 2.738 1.666 1023
10.166 2.827 1.685 1789
9.804 2.727 1.629 1336
10.483 2.915 1.733 1264
10.324 2.871 1.709 914
10.170 2.829 1.654 1963
10.487 2.917 1.702 1686
9.800 2.726 1.599 1131
10.329 2.873 1.678 793
10.174 2.830 1.623 1801
10.484 2.916 1.669 1544
10.877 3.025 1.726 954
10.481 2.915 1.636 1251
10.624 2.955 1.657 1147
10.186 2.833 1.594 1031
10.874 3.024 1.693 982
11.226 3.122 1.709 1178
11.014 3.063 1.679 1079
10.636 2.958 1.626 887
11.215 3.119 1.673 1536
10.905 3.033 1.630 1099
11.472 3.191 1.708 1094
11.056 3.075 1.651 791
11.211 3.118 1.638 1414
11.469 3.190 1.672 1265
11.718 3.259 1.706 980
10.909 3.034 1.597 961
11.238 3.126 1.607 1277
11.473 3.191 1.638 1254
11.715 3.258 1.670 975
10.671 2.968 1.532 821
11.485 3.194 1.604 1227
11.235 3.125 1.572 1227
11.636 3.236 1.624 975
12.060 3.354 1.678 856
11.489 3.195 1.569 943
11.246 3.128 1.539 864
11.633 3.235 1.587 833
12.216 3.397 1.660 800
11.500 3.198 1.536 918
11.925 3.316 1.587 855
11.497 3.197 1.500 887
12.262 3.410 1.591 837
11.929 3.318 1.551 786
12.690 3.529 1.603 821
12.679 3.526 1.563 873
13.923 3.872 1.704 780
13.935 3.876 1.662 894
2.277 0.619 1.791 1956
2.281 0.620 1.784 3913
2.400 0.652 1.872 1200
2.157 0.587 1.692 1005
2.342 0.637 1.819 6457
2.224 0.605 1.732 1380
2.334 0.635 1.803 6664
2.216 0.602 1.716 1308
2.453 0.667 1.889 854
2.327 0.633 1.787 7490
2.445 0.665 1.873 1559
2.208 0.600 1.701 1137
2.312 0.629 1.766 8441
2.432 0.661 1.852 3201
2.317 0.630 1.760 10192
2.436 0.662 1.845 4529
2.322 0.631 1.753 10192
2.441 0.664 1.838 4514
2.326 0.632 1.746 8453
2.446 0.665 1.831 7371
2.438 0.663 1.814 10695
2.318 0.630 1.730 6414
2.455 0.668 1.816 11459
2.335 0.635 1.732 4463
2.466 0.671 1.813 12782
2.340 0.636 1.725 2211
2.465 0.670 1.802 11102
2.344 0.637 1.718 2322
2.470 0.672 1.794 9513
2.348 0.639 1.711 2433
2.474 0.673 1.787 9513
2.353 0.640 1.704 1819
2.479 0.674 1.780 8731
2.357 0.641 1.697 1205
2.483 0.675 1.772 7909
2.362 0.642 1.690 1311
2.482 0.675 1.761 7556
2.636 0.717 1.864 1445
2.360 0.642 1.679 793
2.486 0.676 1.753 7163
2.641 0.718 1.856 2342
2.491 0.677 1.746 5662
2.658 0.723 1.856 3101
2.502 0.680 1.743 4215
2.670 0.726 1.853 4053
2.668 0.725 1.841 5128
2.500 0.680 1.731 3242
2.673 0.727 1.833 6256
2.550 0.693 1.753 2552
2.677 0.728 1.825 7483
2.554 0.694 1.745 2598
2.682 0.729 1.817 8710
2.559 0.696 1.738 2645
2.687 0.731 1.809 8217
2.563 0.697 1.730 2248
2.685 0.730 1.797 7755
2.561 0.696 1.719 1383
2.703 0.735 1.797 7922
2.579 0.701 1.719 1922
2.714 0.738 1.793 8480
2.590 0.704 1.716 1728
2.719 0.739 1.785 11366
2.594 0.705 1.708 1485
2.723 0.741 1.777 14253
2.598 0.707 1.700 1242
2.848 0.774 1.854 836
2.728 0.742 1.769 12068
2.853 0.776 1.845 1290
2.603 0.708 1.693 900
2.732 0.743 1.761 9883
2.858 0.777 1.837 1744
2.744 0.746 1.757 6513
2.869 0.780 1.832 1485
2.828 0.769 1.796 4826
2.702 0.735 1.721 1695
2.826 0.768 1.784 5878
2.700 0.734 1.709 1254
2.824 0.768 1.771 7054
2.697 0.733 1.697 850
2.835 0.771 1.767 7115
2.708 0.736 1.693 940
2.853 0.776 1.766 7129
2.979 0.810 1.840 1210
2.726 0.741 1.692 769
2.864 0.779 1.761 7329
2.991 0.813 1.835 1792
2.862 0.778 1.749 7849
3.002 0.816 1.830 1906
2.860 0.778 1.737 8628
3.014 0.819 1.824 2159
2.878 0.782 1.736 8995
3.025 0.823 1.819 2060
2.889 0.786 1.731 8037
3.050 0.829 1.822 2041
2.900 0.789 1.726 6289
3.061 0.832 1.816 2913
2.904 0.790 1.718 4749
3.073 0.836 1.811 3976
3.003 0.817 1.761 4790
2.875 0.782 1.690 1763
3.132 0.852 1.831 1738
3.015 0.820 1.756 4991
3.143 0.855 1.826 1840
2.886 0.785 1.686 1510
3.040 0.826 1.758 5306
3.168 0.861 1.828 1328
3.037 0.826 1.745 4806
3.166 0.861 1.814 1505
3.021 0.822 1.725 4437
3.150 0.857 1.794 2620
3.128 0.851 1.770 4911
2.999 0.815 1.702 3305
3.132 0.852 1.761 6332
3.003 0.817 1.693 3236
3.137 0.853 1.752 8267
3.007 0.818 1.684 2777
3.142 0.854 1.742 8781
3.012 0.819 1.675 1967
3.153 0.857 1.737 8609
3.016 0.820 1.666 1617
3.283 0.893 1.804 963
3.212 0.873 1.755 8841
3.027 0.823 1.661 1176
3.224 0.877 1.749 12471
3.093 0.841 1.683 1171
3.354 0.912 1.815 894
3.228 0.878 1.739 12639
3.077 0.837 1.663 1161
3.359 0.913 1.805 1070
3.246 0.883 1.737 9447
3.061 0.832 1.644 1279
3.377 0.918 1.802 870
3.292 0.895 1.748 8942
3.161 0.860 1.683 2593
3.030 0.824 1.618 1491
3.304 0.898 1.741 10200
3.062 0.833 1.622 2128
3.315 0.901 1.735 9075
3.066 0.834 1.613 1605
3.326 0.905 1.728 8636
3.195 0.869 1.664 1131
3.331 0.906 1.718 8256
3.199 0.870 1.655 1265
3.462 0.942 1.782 1034
3.019 0.821 1.568 886
3.342 0.909 1.712 10836
3.210 0.873 1.649 1197
3.023 0.822 1.559 1160
3.474 0.945 1.775 1137
3.354 0.912 1.705 12412
3.486 0.948 1.768 1420
3.027 0.823 1.550 1369
3.215 0.874 1.639 941
3.365 0.915 1.698 8989
3.497 0.951 1.761 2009
3.031 0.824 1.541 1298
3.233 0.879 1.636 809
3.383 0.920 1.695 9213
3.516 0.956 1.757 1651
3.035 0.825 1.532 882
3.251 0.884 1.633 802
3.395 0.923 1.688 11202
3.527 0.959 1.749 1169
3.032 0.824 1.520 873
3.399 0.924 1.678 11163
3.036 0.826 1.511 1003
3.532 0.960 1.739 986
3.424 0.931 1.677 11922
3.592 0.977 1.754 1049
3.040 0.827 1.502 851
3.429 0.932 1.667 12180
3.590 0.976 1.740 1639
3.433 0.933 1.657 10496
3.594 0.977 1.729 2108
3.444 0.937 1.650 9482
3.606 0.980 1.722 1979
3.739 1.017 1.781 827
3.505 0.953 1.664 9623
3.638 0.989 1.723 1969
3.371 0.917 1.605 1188
3.516 0.956 1.657 8948
3.650 0.992 1.716 2527
3.382 0.920 1.598 1229
3.825 1.040 1.793 1017
3.506 0.953 1.640 4767
3.640 0.990 1.699 3100
3.774 1.026 1.757 2033
3.496 0.951 1.624 4319
3.687 1.002 1.706 3859
3.821 1.039 1.764 2804
3.712 1.009 1.704 5183
3.500 0.952 1.613 4690
3.846 1.046 1.761 2185
3.724 1.013 1.696 5373
3.858 1.049 1.753 2740
3.526 0.959 1.612 2563
3.863 1.050 1.741 5157
3.728 1.014 1.685 4203
3.579 0.973 1.622 1511
3.867 1.052 1.730 6969
3.732 1.015 1.674 2626
3.555 0.967 1.600 1172
4.023 1.094 1.795 1036
3.857 1.049 1.713 5929
4.020 1.093 1.780 1779
3.723 1.012 1.657 1391
3.862 1.050 1.701 2975
4.004 1.089 1.759 2814
3.727 1.013 1.646 1036
4.023 1.094 1.753 3692
3.788 1.030 1.658 2081
4.027 1.095 1.741 3804
3.892 1.058 1.687 2439
4.032 1.096 1.729 4092
3.896 1.059 1.675 2940
4.167 1.133 1.783 1109
4.043 1.099 1.720 4630
3.908 1.063 1.666 2415
4.179 1.136 1.774 2168
4.148 1.128 1.747 5993
4.012 1.091 1.694 3004
3.876 1.054 1.640 950
4.159 1.131 1.737 9130
4.023 1.094 1.685 1853
4.164 1.132 1.725 9907
4.028 1.095 1.673 1682
4.168 1.133 1.713 13352
4.032 1.096 1.661 1502
4.187 1.139 1.706 17626
4.323 1.176 1.757 1489
4.051 1.101 1.654 1280
4.191 1.140 1.693 16502
4.328 1.177 1.744 1649
4.055 1.103 1.642 842
4.196 1.141 1.681 13053
4.332 1.178 1.731 1000
4.200 1.142 1.668 12630
4.337 1.179 1.718 1687
4.197 1.141 1.653 11830
4.334 1.179 1.703 3505
4.471 1.216 1.753 1150
4.201 1.142 1.640 10163
4.338 1.180 1.690 4490
4.475 1.217 1.739 2420
4.220 1.148 1.633 7623
4.473 1.216 1.723 4333
4.463 1.213 1.705 7350
4.224 1.149 1.620 4991
4.467 1.215 1.692 9239
4.330 1.177 1.643 3706
4.192 1.140 1.595 2507
4.471 1.216 1.678 10939
4.334 1.178 1.630 3429
4.196 1.141 1.582 1270
4.609 1.253 1.726 822
4.483 1.219 1.667 11153
4.324 1.176 1.612 3295
4.635 1.260 1.720 2266
4.186 1.138 1.565 855
4.495 1.222 1.656 9334
4.654 1.266 1.711 3385
4.320 1.175 1.597 2204
4.506 1.225 1.645 8250
4.659 1.267 1.697 3359
4.317 1.174 1.582 1758
4.503 1.224 1.630 7354
4.641 1.262 1.676 5150
4.314 1.173 1.566 1455
4.500 1.224 1.614 6492
4.638 1.261 1.660 4448
4.325 1.176 1.556 1042
4.519 1.229 1.605 3862
4.708 1.280 1.667 2839
4.905 1.334 1.732 967
4.581 1.246 1.610 2041
4.909 1.335 1.717 1960
4.720 1.283 1.655 1954
4.443 1.208 1.565 788
4.935 1.342 1.709 2218
4.724 1.284 1.641 1404
4.585 1.247 1.597 1197
4.954 1.347 1.699 3554
4.743 1.290 1.632 1644
4.604 1.252 1.588 769
4.952 1.346 1.682 4581
4.740 1.289 1.615 1569
4.956 1.348 1.667 4209
4.744 1.290 1.601 957
4.953 1.347 1.650 4326
4.748 1.291 1.587 1262
5.092 1.385 1.693 968
4.950 1.346 1.633 4780
5.184 1.410 1.705 2127
4.752 1.292 1.573 1361
4.961 1.349 1.621 4464
5.189 1.411 1.689 3565
4.987 1.356 1.612 4111
5.193 1.412 1.674 3992
5.205 1.415 1.660 3808
5.021 1.365 1.606 3671
5.216 1.418 1.647 5807
4.981 1.354 1.578 3210
5.356 1.456 1.688 1153
5.220 1.420 1.631 8808
5.000 1.359 1.567 2768
5.360 1.458 1.672 1472
5.500 1.496 1.712 1082
5.225 1.421 1.616 7051
5.490 1.493 1.691 2051
5.004 1.361 1.552 1603
5.229 1.422 1.600 5193
5.487 1.492 1.673 4550
5.000 1.360 1.535 1345
5.627 1.530 1.712 968
5.506 1.497 1.660 5641
5.240 1.425 1.586 5137
5.646 1.535 1.699 1222
5.004 1.361 1.520 828
5.532 1.504 1.650 7654
5.237 1.424 1.569 3675
5.672 1.542 1.689 900
5.529 1.503 1.631 11371
5.241 1.425 1.553 1846
5.669 1.542 1.670 1238
5.541 1.507 1.617 14731
5.681 1.545 1.655 1936
5.334 1.450 1.561 1088
5.552 1.510 1.602 16911
5.693 1.548 1.640 3882
5.345 1.453 1.547 866
5.564 1.513 1.587 12709
5.704 1.551 1.624 4384
6.215 1.690 1.759 1026
5.889 1.601 1.673 849
5.560 1.512 1.569 9338
5.701 1.550 1.605 4728
6.220 1.691 1.740 1887
5.901 1.605 1.657 756
5.661 1.539 1.577 6847
5.520 1.501 1.541 3777
6.232 1.695 1.723 2508
5.672 1.542 1.562 7444
6.251 1.700 1.708 2351
5.531 1.504 1.526 2033
5.669 1.541 1.543 7763
6.263 1.703 1.691 3222
5.528 1.503 1.508 1090
6.122 1.665 1.656 891
6.275 1.706 1.675 6497
5.665 1.540 1.524 3906
6.416 1.745 1.709 1002
6.602 1.795 1.755 921
6.271 1.705 1.654 8077
5.751 1.564 1.527 1721
6.413 1.744 1.688 1394
6.606 1.796 1.735 1156
6.305 1.715 1.642 5796
6.447 1.753 1.676 1376
6.707 1.824 1.739 1212
5.881 1.599 1.540 824
