6.089 4.093 1.562 1490
5.976 4.017 1.513 2611
6.518 4.381 1.639 2427
6.396 4.299 1.611 1740
6.667 4.481 1.673 1412
6.541 4.397 1.621 3046
5.993 4.028 1.495 2542
6.419 4.314 1.593 2038
6.677 4.488 1.652 1583
6.564 4.412 1.602 4082
6.687 4.495 1.630 2339
7.023 4.721 1.705 2120
5.989 4.026 1.473 1905
6.671 4.484 1.602 3990
7.040 4.732 1.683 3422
6.548 4.402 1.575 3032
6.070 4.080 1.469 1298
6.675 4.487 1.579 3452
7.030 4.726 1.656 3389
6.507 4.374 1.542 2044
7.295 4.904 1.714 826
7.034 4.728 1.631 3335
6.678 4.489 1.555 2661
6.555 4.406 1.529 1919
7.319 4.919 1.692 1387
7.057 4.743 1.611 4564
6.682 4.491 1.532 2766
6.559 4.408 1.506 2386
7.303 4.909 1.662 1683
7.067 4.750 1.588 4332
6.594 4.432 1.490 2721
7.307 4.911 1.637 2153
6.717 4.515 1.515 1920
7.077 4.757 1.564 3336
7.323 4.922 1.614 1863
6.578 4.422 1.463 1744
6.701 4.504 1.488 1405
7.080 4.759 1.539 3522
7.327 4.925 1.588 1666
7.761 5.217 1.675 1413
7.508 5.047 1.625 1288
7.077 4.757 1.513 3570
7.324 4.923 1.562 1840
7.791 5.237 1.653 1669
7.505 5.045 1.597 1581
7.074 4.755 1.487 2161
7.801 5.243 1.627 1817
7.321 4.921 1.535 1251
7.619 5.121 1.592 1225
7.610 5.115 1.563 1245
8.337 5.604 1.700 1196
7.084 4.762 1.464 1129
7.804 5.246 1.599 1112
7.607 5.113 1.535 1214
7.087 4.764 1.439 995
7.801 5.244 1.571 942
7.327 4.925 1.483 924
8.429 5.665 1.657 1552
7.805 5.246 1.544 1074
8.870 5.962 1.737 821
7.330 4.927 1.458 768
8.419 5.659 1.625 1866
8.874 5.965 1.706 1167
7.802 5.244 1.515 800
8.738 5.873 1.681 765
8.416 5.657 1.594 2021
8.852 5.950 1.670 1373
9.398 6.317 1.765 1024
8.995 6.046 1.695 774
8.426 5.664 1.566 1702
9.402 6.320 1.732 1644
8.836 5.939 1.636 1169
9.239 6.210 1.704 1115
9.393 6.314 1.697 1644
9.074 6.099 1.644 1640
9.256 6.222 1.674 1583
8.801 5.916 1.598 1142
9.403 6.321 1.665 2131
9.260 6.224 1.642 2033
9.091 6.110 1.614 1882
8.374 5.629 1.497 1064
9.413 6.327 1.633 3017
9.270 6.231 1.610 1698
9.094 6.113 1.582 1437
8.371 5.627 1.467 904
9.423 6.334 1.601 2293
9.280 6.238 1.579 1573
9.091 6.111 1.549 848
9.612 6.461 1.631 824
9.290 6.244 1.547 1958
9.433 6.341 1.569 1594
10.489 7.051 1.730 1056
9.609 6.459 1.596 1019
9.300 6.251 1.516 1738
9.443 6.348 1.537 1286
10.493 7.053 1.693 1174
9.619 6.466 1.563 919
10.484 7.047 1.655 1554
9.453 6.354 1.505 1223
9.310 6.258 1.484 1137
10.066 6.766 1.594 803
10.468 7.036 1.615 1865
9.457 6.356 1.472 1263
10.471 7.039 1.579 1626
9.440 6.345 1.436 994
10.488 7.050 1.544 1377
9.443 6.347 1.403 762
10.524 7.074 1.511 1679
10.785 7.250 1.545 834
10.534 7.081 1.475 1868
10.583 7.113 1.444 2032
10.586 7.116 1.407 1784
10.589 7.118 1.370 1305
0.839 0.564 0.220 798
0.839 0.564 0.218 829
0.839 0.564 0.215 772
8.485 5.703 -0.902 939
8.483 5.702 -0.931 1348
8.480 5.700 -0.961 1414
8.477 5.698 -0.991 1480
1.941 1.296 1.773 3973
1.945 1.299 1.766 7947
1.741 1.163 1.591 894
1.949 1.301 1.759 7947
1.745 1.165 1.585 882
1.947 1.300 1.748 9527
2.050 1.369 1.835 1060
1.951 1.303 1.741 11263
2.054 1.371 1.828 1387
1.950 1.302 1.730 10800
2.052 1.370 1.816 3044
1.953 1.304 1.724 10416
2.056 1.373 1.809 4523
1.957 1.307 1.717 10416
2.060 1.376 1.802 4523
1.967 1.313 1.715 10901
2.070 1.382 1.799 4821
1.976 1.319 1.712 11805
2.079 1.389 1.797 4405
2.045 1.366 1.759 9920
1.941 1.296 1.674 3333
2.049 1.368 1.752 8758
1.945 1.299 1.668 2304
2.164 1.445 1.844 1004
2.053 1.371 1.744 5742
1.949 1.301 1.661 1781
2.174 1.451 1.841 1104
2.007 1.341 1.698 3838
2.112 1.410 1.781 2045
2.088 1.394 1.752 3549
1.984 1.325 1.670 1753
2.193 1.464 1.835 1151
2.087 1.393 1.741 2808
2.191 1.463 1.823 1079
2.057 1.374 1.708 2179
2.162 1.444 1.789 1169
2.089 1.395 1.722 2876
2.194 1.465 1.803 1230
2.093 1.397 1.715 3802
2.198 1.468 1.796 1519
2.119 1.415 1.725 4879
2.224 1.485 1.805 1481
2.123 1.417 1.717 6263
2.228 1.488 1.798 1607
2.126 1.420 1.710 5654
2.232 1.491 1.790 2828
2.197 1.467 1.753 5467
2.091 1.396 1.673 1952
2.218 1.481 1.758 7816
2.112 1.410 1.679 2506
2.227 1.487 1.754 10661
2.121 1.416 1.676 1657
2.237 1.494 1.751 9304
2.130 1.423 1.672 1597
2.247 1.500 1.747 8109
2.140 1.429 1.669 1518
2.256 1.507 1.744 8370
2.149 1.435 1.666 1368
2.266 1.513 1.740 8765
2.158 1.441 1.663 1294
2.281 1.523 1.740 6635
2.173 1.451 1.663 1074
2.302 1.537 1.745 5536
2.194 1.465 1.668 1520
2.283 1.524 1.721 3771
2.413 1.612 1.813 1318
2.275 1.519 1.705 3319
2.417 1.614 1.805 2142
2.268 1.514 1.689 3657
2.416 1.613 1.792 2376
2.271 1.517 1.681 3828
2.391 1.597 1.764 2909
2.395 1.599 1.756 3878
2.287 1.527 1.681 3525
2.393 1.598 1.744 4524
2.285 1.526 1.669 2445
2.502 1.671 1.818 894
2.380 1.589 1.724 4485
2.489 1.662 1.798 2332
2.271 1.517 1.650 979
2.464 1.646 1.770 5972
2.355 1.573 1.696 2575
2.462 1.644 1.758 7337
2.353 1.571 1.684 1590
2.466 1.647 1.749 6759
2.357 1.574 1.676 1416
2.470 1.650 1.741 6182
2.361 1.576 1.668 1242
2.492 1.664 1.743 7807
2.382 1.590 1.671 1959
2.507 1.674 1.742 10529
2.397 1.601 1.671 1661
2.511 1.677 1.734 11077
2.401 1.603 1.662 1208
2.521 1.683 1.729 9334
2.410 1.609 1.658 1121
2.631 1.757 1.800 1120
2.524 1.686 1.720 7602
2.635 1.759 1.791 1677
2.414 1.612 1.650 924
2.534 1.692 1.715 9466
2.645 1.766 1.785 1784
2.544 1.699 1.710 10327
2.655 1.773 1.780 2137
2.553 1.705 1.705 9213
2.664 1.779 1.774 2127
2.575 1.719 1.707 8783
2.686 1.794 1.776 2352
2.614 1.745 1.720 8350
2.725 1.820 1.788 2106
2.502 1.671 1.651 1419
2.617 1.748 1.711 6809
2.729 1.822 1.779 2433
2.506 1.673 1.643 1200
2.627 1.754 1.705 7604
2.751 1.837 1.780 2687
2.515 1.680 1.638 1016
2.637 1.761 1.700 8637
2.778 1.855 1.785 3261
2.641 1.763 1.691 8505
2.770 1.850 1.768 5095
2.780 1.856 1.762 7364
2.644 1.766 1.682 6402
2.784 1.859 1.753 7784
2.648 1.768 1.672 3024
2.788 1.862 1.743 7187
2.676 1.787 1.677 2168
2.798 1.868 1.737 5910
2.679 1.789 1.668 1699
2.910 1.943 1.802 1129
2.796 1.867 1.724 9122
2.909 1.942 1.789 1758
2.671 1.784 1.652 1608
2.794 1.865 1.711 13693
2.907 1.941 1.775 2224
2.681 1.790 1.646 1899
2.803 1.872 1.704 14830
2.916 1.948 1.769 3221
2.672 1.785 1.630 1806
2.813 1.879 1.698 14494
2.926 1.954 1.762 5963
2.676 1.787 1.621 1249
2.817 1.881 1.688 8256
2.930 1.957 1.752 7522
2.934 1.959 1.742 6363
2.821 1.884 1.679 4321
2.866 1.914 1.692 6032
2.980 1.990 1.755 1948
2.858 1.909 1.675 5951
2.972 1.985 1.738 1922
2.850 1.903 1.659 4955
2.964 1.979 1.721 2377
2.853 1.905 1.649 4611
3.022 2.018 1.740 3500
3.026 2.020 1.729 6762
2.857 1.908 1.639 3562
3.035 2.027 1.722 8412
2.921 1.951 1.661 2311
3.150 2.103 1.783 1129
3.039 2.030 1.712 9580
3.154 2.106 1.772 1713
2.925 1.953 1.651 1359
3.049 2.036 1.704 8556
3.170 2.117 1.767 1786
2.934 1.959 1.644 1124
3.071 2.051 1.703 6837
2.956 1.974 1.644 2402
3.186 2.127 1.762 1474
3.087 2.061 1.699 4384
2.972 1.985 1.640 3065
3.202 2.138 1.758 1897
3.012 2.011 1.648 5298
3.170 2.117 1.728 5297
3.161 2.111 1.711 8242
3.016 2.014 1.637 3886
3.277 2.188 1.769 1383
3.165 2.114 1.700 9384
3.013 2.012 1.624 1838
3.281 2.191 1.758 1320
3.181 2.124 1.695 7398
3.065 2.047 1.638 1609
3.185 2.127 1.684 4917
3.069 2.049 1.627 1216
3.301 2.204 1.741 959
3.182 2.125 1.670 4753
3.298 2.203 1.727 1368
3.253 2.172 1.692 5214
3.369 2.250 1.748 1216
3.137 2.095 1.635 1124
3.275 2.187 1.689 9340
3.392 2.265 1.745 1170
3.159 2.110 1.633 1015
3.291 2.198 1.684 12706
3.175 2.120 1.628 1046
3.408 2.276 1.739 939
3.326 2.221 1.687 9818
3.209 2.143 1.632 1789
3.348 2.236 1.684 6465
3.231 2.158 1.629 1405
3.389 2.263 1.689 3047
3.272 2.185 1.635 2427
3.505 2.341 1.743 1226
3.398 2.269 1.680 4520
3.515 2.347 1.734 2705
3.282 2.191 1.627 1831
3.378 2.255 1.657 5879
3.519 2.350 1.722 4847
3.529 2.357 1.712 6059
3.381 2.258 1.646 5103
3.533 2.359 1.700 5550
3.385 2.260 1.634 3465
3.512 2.345 1.677 5677
3.388 2.263 1.622 2960
3.629 2.424 1.729 1008
3.516 2.348 1.665 5617
3.398 2.269 1.613 2227
3.633 2.426 1.716 1808
3.532 2.358 1.658 6268
3.699 2.470 1.731 2234
3.414 2.280 1.607 1788
3.535 2.361 1.646 8238
3.653 2.439 1.697 3036
3.418 2.282 1.595 1121
3.539 2.363 1.633 8384
3.657 2.442 1.684 4045
3.775 2.521 1.734 1181
3.537 2.362 1.619 6104
3.661 2.444 1.671 4890
3.779 2.523 1.721 1762
3.720 2.484 1.682 5740
3.534 2.360 1.604 4488
3.730 2.491 1.672 5325
3.537 2.362 1.591 3832
3.740 2.498 1.661 6317
3.553 2.373 1.584 2732
3.859 2.577 1.710 1187
3.744 2.500 1.648 4957
3.862 2.579 1.697 2520
3.569 2.383 1.577 1414
3.797 2.536 1.656 4368
3.916 2.615 1.703 2157
3.679 2.457 1.608 1727
3.907 2.609 1.685 4751
3.789 2.530 1.637 3429
3.670 2.451 1.590 805
3.905 2.608 1.669 6011
3.742 2.499 1.604 2438
3.902 2.606 1.653 6638
3.777 2.522 1.604 1630
4.078 2.723 1.722 902
3.912 2.612 1.642 7364
3.793 2.533 1.595 1455
4.100 2.738 1.715 1410
3.916 2.615 1.628 6732
4.098 2.736 1.698 2826
3.797 2.535 1.582 944
3.932 2.626 1.619 3961
4.076 2.722 1.674 3382
3.813 2.546 1.574 832
4.074 2.720 1.658 3702
3.954 2.641 1.613 2785
4.193 2.800 1.703 1365
3.983 2.660 1.608 3785
4.103 2.740 1.653 2384
4.222 2.819 1.698 1443
4.094 2.734 1.634 4294
3.974 2.654 1.590 2368
4.245 2.834 1.690 1244
4.104 2.740 1.622 4611
4.242 2.833 1.673 1099
3.984 2.660 1.578 856
4.151 2.772 1.624 3102
4.271 2.852 1.667 1393
4.250 2.838 1.643 3178
4.130 2.758 1.601 1792
4.259 2.844 1.631 4223
4.139 2.764 1.588 1168
4.379 2.924 1.673 967
4.276 2.855 1.621 3552
4.156 2.775 1.578 1233
4.396 2.935 1.663 893
4.286 2.862 1.608 2236
4.418 2.951 1.654 1722
4.165 2.782 1.566 871
4.409 2.944 1.634 2520
4.289 2.864 1.593 2047
4.530 3.025 1.675 1221
4.299 2.871 1.580 3556
4.495 3.002 1.647 2478
4.629 3.091 1.692 1657
4.303 2.873 1.565 4066
4.620 3.085 1.672 3338
4.499 3.004 1.631 2564
4.623 3.087 1.655 3350
4.503 3.007 1.616 2390
4.300 2.871 1.548 2066
0.961 0.642 0.442 919
4.633 3.094 1.641 5076
4.513 3.013 1.602 2625
0.962 0.642 0.439 1012
4.392 2.933 1.562 974
4.637 3.096 1.625 5113
4.516 3.016 1.586 2760
0.962 0.643 0.436 922
4.641 3.099 1.609 5136
4.520 3.018 1.571 2627
0.957 0.639 0.430 792
4.657 3.110 1.597 7973
4.536 3.029 1.559 1613
4.660 3.112 1.581 7734
4.657 3.110 1.563 10257
5.072 3.387 1.691 1658
4.779 3.191 1.600 791
4.661 3.112 1.547 9095
5.069 3.385 1.671 2462
4.664 3.115 1.530 7720
5.035 3.362 1.642 2661
5.156 3.443 1.679 924
4.668 3.117 1.514 8722
5.038 3.364 1.624 3176
5.160 3.446 1.661 1354
4.898 3.271 1.583 760
4.671 3.119 1.498 5202
5.067 3.384 1.614 4192
5.189 3.465 1.650 1867
5.154 3.442 1.621 4084
4.674 3.121 1.482 3719
5.033 3.361 1.586 2706
5.151 3.440 1.601 5095
4.677 3.123 1.465 2078
5.030 3.359 1.566 1232
5.369 3.585 1.664 788
5.193 3.468 1.594 5268
5.366 3.584 1.643 1250
4.681 3.126 1.449 904
5.072 3.387 1.560 842
5.197 3.470 1.576 4071
5.357 3.577 1.621 1163
4.684 3.128 1.433 884
5.232 3.494 1.567 1855
5.361 3.580 1.602 1390
5.483 3.661 1.636 898
5.249 3.505 1.552 2673
5.493 3.668 1.618 1598
5.371 3.586 1.585 1548
5.673 3.788 1.667 792
5.239 3.499 1.530 3118
5.509 3.679 1.603 2747
5.387 3.597 1.570 1168
5.663 3.782 1.644 863
5.513 3.681 1.583 2155
5.236 3.497 1.510 2144
5.674 3.789 1.626 2126
5.378 3.591 1.548 1499
5.690 3.800 1.609 2781
5.388 3.598 1.531 2009
5.536 3.696 1.569 1282
5.233 3.495 1.490 1138
5.700 3.806 1.591 1917
5.397 3.604 1.514 1816
5.526 3.690 1.547 1267
5.945 3.970 1.654 1249
5.948 3.972 1.633 2568
5.678 3.791 1.565 2469
5.800 3.873 1.596 1183
5.394 3.602 1.493 958
5.688 3.798 1.547 5114
5.945 3.970 1.611 2176
6.068 4.052 1.642 967
5.697 3.805 1.529 7691
6.065 4.050 1.619 1918
5.943 3.968 1.589 1453
5.701 3.807 1.509 5770
6.094 4.070 1.604 2790
5.946 3.971 1.568 1243
6.359 4.246 1.668 847
6.104 4.076 1.584 2798
5.704 3.809 1.489 2393
5.982 3.994 1.555 2158
6.511 4.348 1.681 1153
5.979 3.992 1.533 2619
6.521 4.355 1.660 2425
6.101 4.074 1.562 2158
5.714 3.815 1.470 1576
6.538 4.366 1.640 3120
5.989 3.999 1.513 2127
6.415 4.284 1.612 1578
6.111 4.081 1.542 1169
6.555 4.377 1.621 3760
6.076 4.057 1.512 2069
6.425 4.291 1.591 1642
6.690 4.468 1.652 1193
6.578 4.392 1.602 4505
7.037 4.699 1.705 2084
6.701 4.474 1.630 1990
6.079 4.060 1.490 1891
6.581 4.395 1.579 3710
7.054 4.710 1.683 3368
6.704 4.477 1.606 2459
6.082 4.062 1.469 1362
7.045 4.704 1.656 3413
6.688 4.466 1.579 2507
6.520 4.354 1.542 2171
7.310 4.882 1.714 875
7.068 4.720 1.635 3516
6.575 4.391 1.530 2010
6.698 4.473 1.557 1800
7.334 4.897 1.692 1521
7.078 4.726 1.612 4936
6.604 4.410 1.513 2847
7.337 4.900 1.667 1519
6.728 4.492 1.539 1469
7.081 4.729 1.588 5088
6.608 4.412 1.490 3155
7.347 4.906 1.642 1620
6.731 4.495 1.515 1577
7.085 4.731 1.563 3750
6.591 4.402 1.463 2009
7.358 4.913 1.618 1696
7.552 5.043 1.657 1301
7.095 4.738 1.539 3084
7.355 4.911 1.591 1603
7.770 5.189 1.674 1221
7.536 5.033 1.627 1012
7.092 4.736 1.513 3001
7.345 4.905 1.563 1716
7.527 5.026 1.598 1201
7.813 5.217 1.654 1173
7.088 4.733 1.487 1919
7.823 5.224 1.628 1460
7.336 4.898 1.535 1238
7.635 5.098 1.592 1155
8.347 5.574 1.698 1224
7.625 5.092 1.563 1207
7.098 4.740 1.464 1131
7.827 5.226 1.601 1037
7.915 5.285 1.589 1229
7.622 5.090 1.535 1147
8.156 5.446 1.633 1058
7.101 4.742 1.439 1031
8.446 5.640 1.657 1689
7.899 5.275 1.558 902
8.888 5.935 1.737 871
8.166 5.453 1.606 762
8.436 5.634 1.625 2194
8.892 5.938 1.706 1152
9.016 6.021 1.727 770
8.433 5.632 1.594 2352
8.870 5.923 1.670 1276
9.013 6.019 1.695 1055
9.417 6.289 1.765 894
8.443 5.638 1.566 1864
9.421 6.291 1.732 1378
9.252 6.178 1.703 1228
9.063 6.052 1.671 1108
9.086 6.067 1.643 1814
9.269 6.189 1.673 1598
9.412 6.285 1.697 1355
8.799 5.876 1.595 1169
9.109 6.083 1.614 2064
9.279 6.196 1.642 1945
9.442 6.305 1.668 1754
8.391 5.604 1.497 1069
9.439 6.303 1.634 2570
9.113 6.085 1.582 1640
9.289 6.203 1.610 1566
8.388 5.601 1.467 905
9.443 6.305 1.601 2174
9.299 6.210 1.579 1417
10.507 7.016 1.767 1032
9.116 6.087 1.550 938
9.309 6.216 1.547 1721
9.453 6.312 1.569 1651
10.517 7.023 1.731 1422
9.629 6.430 1.596 854
9.312 6.218 1.515 1581
10.541 7.039 1.697 1565
9.463 6.319 1.537 1139
10.064 6.720 1.626 778
10.518 7.024 1.657 1924
9.316 6.221 1.482 1024
9.976 6.662 1.578 816
9.473 6.325 1.505 812
10.509 7.017 1.618 1924
9.476 6.328 1.472 932
9.986 6.668 1.544 872
10.499 7.011 1.579 1467
9.453 6.312 1.435 812
10.509 7.018 1.544 1200
10.519 7.024 1.508 1372
10.722 7.160 1.534 847
10.523 7.027 1.471 1647
10.726 7.162 1.497 1061
10.598 7.077 1.443 1832
10.722 7.160 1.458 829
10.594 7.075 1.405 1977
10.597 7.077 1.368 1467
0.841 0.562 0.218 796
0.841 0.562 0.215 755
8.500 5.676 -0.931 821
8.484 5.665 -0.959 990
8.475 5.659 -0.988 1239
1.946 1.289 1.773 3485
1.950 1.291 1.766 6971
1.740 1.152 1.587 767
1.954 1.294 1.759 6971
1.744 1.155 1.581 757
1.952 1.293 1.748 8730
2.055 1.361 1.835 1023
1.951 1.292 1.737 10631
2.053 1.360 1.823 1432
1.955 1.294 1.730 10425
2.058 1.363 1.816 2640
1.958 1.297 1.724 10219
2.062 1.365 1.809 3849
1.962 1.300 1.717 10219
2.066 1.368 1.802 3849
1.972 1.306 1.715 10896
2.075 1.374 1.799 3933
1.975 1.308 1.708 11855
2.079 1.377 1.792 4539
1.979 1.311 1.701 9713
2.083 1.380 1.785 4300
1.983 1.313 1.694 7572
2.087 1.382 1.778 4061
1.992 1.319 1.692 5399
2.097 1.389 1.775 3039
2.013 1.333 1.698 3749
2.117 1.402 1.781 1768
2.088 1.383 1.748 3289
1.983 1.313 1.665 1398
2.193 1.452 1.830 891
2.092 1.385 1.741 2496
2.197 1.455 1.823 862
2.057 1.362 1.703 2326
2.162 1.432 1.785 1102
2.094 1.387 1.722 3061
2.200 1.457 1.803 1247
2.120 1.404 1.732 4801
2.226 1.474 1.813 1439
2.130 1.410 1.729 6082
2.235 1.481 1.810 1238
2.134 1.413 1.722 7366
2.240 1.483 1.802 1190
2.132 1.412 1.710 6036
2.238 1.482 1.790 2704
2.203 1.459 1.753 5406
2.096 1.388 1.673 1912
2.224 1.473 1.758 7694
2.117 1.402 1.679 2478
2.233 1.479 1.754 10440
2.126 1.408 1.676 1596
2.237 1.482 1.747 8844
2.130 1.411 1.668 1353
2.247 1.488 1.743 7341
2.139 1.417 1.665 1276
2.267 1.502 1.748 7711
2.160 1.431 1.670 1380
2.283 1.512 1.748 8319
2.175 1.441 1.671 1155
2.304 1.526 1.753 6408
2.196 1.454 1.676 1404
2.319 1.536 1.753 5573
2.211 1.464 1.676 1750
2.323 1.538 1.745 3883
2.215 1.467 1.668 1574
2.431 1.610 1.821 1115
2.275 1.507 1.701 3468
2.384 1.579 1.777 2826
2.492 1.650 1.853 755
2.268 1.502 1.685 3658
2.399 1.589 1.776 2471
2.272 1.504 1.677 3508
2.426 1.607 1.784 2502
2.292 1.518 1.681 3277
2.424 1.605 1.772 3057
2.354 1.559 1.713 4077
2.463 1.631 1.787 3647
2.467 1.634 1.778 4619
2.357 1.561 1.704 4573
2.471 1.636 1.770 6521
2.361 1.564 1.696 3746
2.474 1.639 1.761 7451
2.365 1.566 1.688 2918
2.478 1.641 1.753 6588
2.369 1.569 1.680 2294
2.488 1.648 1.748 5744
2.378 1.575 1.676 1853
2.504 1.658 1.747 7624
2.394 1.585 1.675 2087
2.513 1.665 1.742 10530
2.403 1.592 1.671 1795
2.523 1.671 1.738 10954
2.413 1.598 1.666 1486
0.710 0.470 0.567 765
2.527 1.674 1.729 9334
2.638 1.747 1.800 1447
2.416 1.600 1.658 1032
2.531 1.676 1.720 7714
2.642 1.749 1.791 2161
2.540 1.683 1.715 9432
2.651 1.756 1.785 2245
2.550 1.689 1.710 9881
2.661 1.763 1.780 2499
2.560 1.695 1.705 8569
2.671 1.769 1.774 2387
2.581 1.709 1.707 7829
2.693 1.783 1.776 2460
2.620 1.735 1.720 7494
2.732 1.809 1.788 2069
2.509 1.661 1.651 1479
2.624 1.738 1.711 6214
2.736 1.812 1.779 2406
2.512 1.664 1.643 1150
2.640 1.748 1.709 6668
2.758 1.826 1.780 2881
2.528 1.674 1.641 1258
2.649 1.755 1.703 7883
2.785 1.845 1.785 3684
2.653 1.757 1.694 8071
2.777 1.839 1.768 5869
2.787 1.846 1.762 8552
2.651 1.756 1.682 6018
2.791 1.849 1.753 8965
2.655 1.758 1.672 2757
2.795 1.851 1.743 7584
2.682 1.776 1.677 1779
2.811 1.862 1.740 5511
2.698 1.787 1.675 1447
2.924 1.936 1.806 791
2.797 1.852 1.720 8806
2.910 1.927 1.785 1327
2.684 1.777 1.655 1204
2.801 1.855 1.711 13761
2.914 1.930 1.775 1601
2.687 1.780 1.646 1546
2.810 1.861 1.704 16258
2.924 1.936 1.769 2346
2.679 1.774 1.630 1463
2.826 1.872 1.701 17361
2.940 1.947 1.765 3788
2.671 1.769 1.614 1000
2.830 1.874 1.692 9699
2.944 1.950 1.755 4647
2.894 1.916 1.715 5912
2.780 1.841 1.652 1910
2.886 1.911 1.698 6197
3.000 1.987 1.761 925
2.883 1.910 1.685 4516
2.997 1.985 1.747 1149
2.857 1.892 1.659 3575
2.971 1.968 1.721 2133
3.011 1.994 1.730 3785
2.861 1.895 1.649 3535
3.033 2.009 1.729 6740
2.919 1.933 1.668 2906
3.037 2.011 1.719 7732
2.922 1.935 1.658 2348
3.152 2.087 1.779 943
3.047 2.018 1.712 8364
3.162 2.094 1.772 1615
2.932 1.942 1.651 1443
3.051 2.021 1.701 7411
3.172 2.101 1.764 1935
2.936 1.944 1.641 791
3.079 2.039 1.703 5622
2.964 1.963 1.644 1646
3.194 2.115 1.762 1608
3.010 1.993 1.655 4367
3.155 2.090 1.730 3421
3.020 2.000 1.648 5100
3.172 2.100 1.725 4992
3.169 2.099 1.711 7081
3.023 2.002 1.637 3631
3.285 2.176 1.769 1728
3.173 2.101 1.700 8214
3.289 2.178 1.758 1803
3.027 2.005 1.627 1673
3.183 2.108 1.692 6898
3.067 2.031 1.635 1523
3.299 2.185 1.749 1254
3.187 2.111 1.681 5080
3.071 2.034 1.624 1228
3.303 2.187 1.738 1042
3.190 2.113 1.670 5254
3.307 2.190 1.727 1128
3.274 2.168 1.697 4976
3.157 2.091 1.641 2181
3.390 2.245 1.754 1267
3.290 2.179 1.692 10562
3.173 2.102 1.636 1560
3.406 2.256 1.748 1392
3.300 2.185 1.684 13249
3.416 2.263 1.739 1253
3.183 2.108 1.628 861
3.334 2.208 1.687 8840
3.217 2.131 1.632 1394
3.356 2.223 1.684 6340
3.240 2.145 1.629 1406
3.486 2.308 1.744 803
3.372 2.234 1.678 3863
3.489 2.311 1.732 1630
3.255 2.156 1.624 1322
3.407 2.256 1.680 3796
3.524 2.334 1.734 2796
3.290 2.179 1.627 1768
3.386 2.243 1.657 5153
3.528 2.337 1.722 5025
3.538 2.343 1.712 6345
3.384 2.241 1.643 4234
3.542 2.346 1.700 5698
3.424 2.268 1.648 3626
3.527 2.336 1.680 5999
3.409 2.258 1.628 3139
3.531 2.338 1.667 6668
3.413 2.260 1.616 2898
3.649 2.416 1.719 1238
3.541 2.345 1.658 6984
3.423 2.267 1.607 1958
3.659 2.423 1.709 1692
3.544 2.347 1.646 8389
3.662 2.426 1.697 2268
3.426 2.269 1.595 1043
3.548 2.350 1.633 8206
3.666 2.428 1.684 3140
3.784 2.506 1.734 1095
3.552 2.352 1.621 6856
3.738 2.476 1.700 5282
3.736 2.474 1.685 6250
3.555 2.355 1.609 5569
3.740 2.477 1.672 5449
3.559 2.357 1.597 3934
3.750 2.483 1.661 6953
3.569 2.363 1.587 2764
3.868 2.562 1.710 1532
3.753 2.486 1.648 5758
3.872 2.564 1.697 3089
3.578 2.370 1.577 1776
3.807 2.521 1.656 4701
3.926 2.600 1.703 2245
3.688 2.443 1.608 1515
3.569 2.364 1.560 814
3.917 2.594 1.685 4831
3.798 2.516 1.637 3482
3.915 2.593 1.669 6045
3.783 2.505 1.617 2088
3.912 2.591 1.653 7056
3.787 2.508 1.604 2004
3.922 2.598 1.642 7529
3.803 2.519 1.595 1618
4.104 2.718 1.712 1371
3.932 2.604 1.631 6458
4.108 2.721 1.698 2788
3.813 2.525 1.585 855
3.980 2.636 1.634 4080
4.112 2.723 1.684 3267
3.854 2.552 1.586 755
3.990 2.642 1.622 3317
4.109 2.721 1.667 2986
4.229 2.801 1.712 1047
3.993 2.645 1.608 3059
4.119 2.728 1.655 2501
4.239 2.807 1.700 1399
4.104 2.718 1.634 3513
3.984 2.639 1.590 1943
4.262 2.822 1.692 1438
4.120 2.729 1.625 3782
4.266 2.825 1.678 1485
3.994 2.645 1.578 968
4.162 2.756 1.624 3223
4.282 2.836 1.667 1520
4.172 2.763 1.612 2471
4.292 2.842 1.655 1753
4.270 2.828 1.631 3406
4.150 2.748 1.588 1632
4.293 2.843 1.623 3136
4.172 2.763 1.581 1357
4.432 2.935 1.671 1018
4.296 2.845 1.608 2846
4.436 2.938 1.656 1873
4.176 2.766 1.566 793
4.306 2.852 1.595 3114
4.427 2.932 1.636 2227
4.548 3.012 1.678 1070
4.316 2.859 1.582 4016
4.507 2.985 1.647 2504
4.634 3.069 1.690 1589
4.313 2.857 1.565 4152
4.631 3.067 1.672 3200
4.510 2.987 1.631 2363
4.635 3.070 1.655 3555
4.514 2.990 1.616 2004
4.310 2.855 1.548 1871
4.639 3.072 1.639 5499
4.518 2.992 1.600 2403
4.397 2.912 1.560 999
4.649 3.079 1.625 5343
4.528 2.999 1.586 2803
4.652 3.081 1.609 5097
4.531 3.001 1.571 2955
4.669 3.092 1.597 7441
4.547 3.012 1.559 1842
4.672 3.094 1.581 6169
4.663 3.088 1.561 9159
5.098 3.376 1.695 1319
4.673 3.095 1.547 9040
5.108 3.383 1.679 1896
4.676 3.097 1.530 8111
5.118 3.389 1.663 2113
4.679 3.099 1.514 9141
5.122 3.392 1.645 2257
4.683 3.101 1.498 5581
5.087 3.369 1.616 3477
5.209 3.450 1.652 1188
5.148 3.409 1.615 4448
4.686 3.104 1.482 3902
5.026 3.329 1.580 1431
5.158 3.416 1.599 4722
4.683 3.101 1.464 1916
5.036 3.335 1.564 1051
5.280 3.497 1.634 759
5.213 3.452 1.596 5745
5.451 3.610 1.663 955
4.693 3.108 1.449 781
5.217 3.455 1.578 4483
5.454 3.612 1.644 1085
4.702 3.114 1.435 802
5.252 3.478 1.569 1938
5.458 3.615 1.625 1614
5.256 3.481 1.550 2787
5.462 3.617 1.606 1982
5.253 3.479 1.530 3502
5.517 3.654 1.601 2653
5.394 3.573 1.568 1407
5.652 3.743 1.637 928
5.688 3.767 1.626 2509
5.249 3.477 1.510 2390
5.527 3.660 1.583 2136
5.391 3.571 1.548 1208
5.704 3.778 1.609 3698
5.556 3.680 1.571 1360
5.253 3.479 1.492 1229
5.395 3.573 1.529 1019
5.714 3.785 1.591 2381
5.953 3.943 1.653 1278
5.559 3.682 1.552 1105
5.405 3.579 1.512 898
5.963 3.949 1.633 2627
5.686 3.765 1.563 2562
5.808 3.847 1.594 2001
6.086 4.031 1.664 1095
5.702 3.776 1.547 4710
5.960 3.948 1.611 2342
6.083 4.029 1.642 1337
5.825 3.858 1.577 1161
5.712 3.783 1.529 6642
6.080 4.027 1.619 2621
5.958 3.946 1.589 1608
5.715 3.785 1.509 4712
6.097 4.038 1.601 3443
5.955 3.944 1.567 1114
6.120 4.053 1.584 3525
5.719 3.787 1.489 1729
5.997 3.972 1.555 1447
6.528 4.323 1.681 1325
6.117 4.051 1.562 2739
6.538 4.330 1.660 2648
5.994 3.970 1.533 1582
5.735 3.798 1.472 1358
6.555 4.341 1.640 3361
6.094 4.036 1.534 2127
6.431 4.259 1.612 1230
5.731 3.796 1.451 925
6.571 4.352 1.621 4043
6.091 4.034 1.512 2020
6.416 4.249 1.585 1434
6.967 4.614 1.710 935
6.588 4.363 1.601 4502
6.095 4.036 1.490 1864
7.055 4.672 1.705 1820
6.718 4.449 1.630 1598
6.604 4.374 1.581 3889
7.072 4.683 1.683 2919
6.728 4.456 1.608 1815
6.098 4.039 1.469 1329
7.062 4.677 1.656 3133
6.621 4.385 1.560 2525
6.744 4.467 1.587 1263
6.497 4.303 1.534 1154
7.086 4.693 1.635 3397
6.624 4.387 1.537 1983
7.346 4.865 1.691 1598
6.962 4.611 1.609 1480
7.096 4.699 1.612 4963
6.628 4.389 1.514 2703
7.362 4.876 1.668 1560
6.972 4.618 1.586 1483
7.093 4.697 1.586 5608
6.631 4.392 1.491 3137
7.373 4.883 1.644 1753
7.548 4.999 1.680 1247
7.096 4.700 1.561 4280
7.383 4.889 1.619 2009
6.615 4.381 1.464 1954
7.584 5.023 1.660 1197
7.106 4.706 1.538 2638
7.380 4.887 1.592 1915
7.764 5.142 1.668 1103
7.608 5.038 1.637 914
7.110 4.709 1.513 2175
7.377 4.885 1.565 1862
7.761 5.140 1.640 1212
7.917 5.244 1.671 1123
7.106 4.706 1.487 1541
7.374 4.883 1.538 1414
8.325 5.514 1.720 1192
7.849 5.199 1.629 1103
8.355 5.534 1.696 1241
7.944 5.261 1.619 1235
8.166 5.408 1.661 1088
7.371 4.881 1.511 1060
7.941 5.259 1.590 1590
8.176 5.415 1.633 1396
7.641 5.061 1.535 1041
8.379 5.549 1.671 899
8.467 5.608 1.657 1676
8.186 5.422 1.606 1085
7.932 5.253 1.560 1021
8.904 5.897 1.735 869
8.458 5.601 1.625 2322
8.915 5.904 1.706 1066
9.039 5.986 1.727 839
8.203 5.433 1.580 812
8.461 5.604 1.595 2410
9.036 5.985 1.695 1146
8.886 5.885 1.669 1126
9.252 6.127 1.732 1028
8.465 5.606 1.566 1771
9.269 6.138 1.702 1367
9.079 6.013 1.670 1149
8.863 5.870 1.633 1069
9.109 6.033 1.643 1749
9.279 6.145 1.671 1636
8.821 5.842 1.595 1149
9.429 6.245 1.696 1042
9.132 6.048 1.614 2012
9.296 6.156 1.641 1715
9.466 6.269 1.668 1331
8.825 5.845 1.564 1056
9.463 6.267 1.634 2015
9.136 6.050 1.582 1653
9.319 6.172 1.611 1270
8.409 5.569 1.467 768
9.467 6.270 1.601 1800
10.540 6.981 1.768 1252
9.329 6.178 1.580 1111
9.146 6.057 1.551 1054
10.544 6.983 1.731 1601
9.477 6.276 1.569 1439
9.326 6.176 1.546 1308
9.195 6.090 1.527 919
10.567 6.999 1.697 1686
9.336 6.183 1.515 1279
9.513 6.300 1.541 1088
10.565 6.997 1.659 2099
9.339 6.185 1.482 903
10.568 6.999 1.623 2006
9.513 6.300 1.474 774
10.546 6.984 1.582 1211
9.562 6.333 1.447 759
10.536 6.978 1.544 1098
10.533 6.976 1.506 1483
10.657 7.058 1.522 972
10.543 6.982 1.470 1623
10.753 7.121 1.497 1149
10.625 7.037 1.443 1321
10.763 7.128 1.460 945
10.621 7.034 1.405 1426
10.785 7.143 1.425 812
10.611 7.028 1.367 1015
1.950 1.282 1.773 2933
1.954 1.284 1.766 5867
1.958 1.287 1.759 5867
1.951 1.282 1.744 7746
2.054 1.350 1.830 1167
1.955 1.285 1.737 9849
2.058 1.353 1.823 1348
1.959 1.287 1.730 10003
2.062 1.355 1.816 2118
1.963 1.290 1.724 10156
2.067 1.358 1.809 2889
1.967 1.292 1.717 10156
2.071 1.361 1.802 2889
1.971 1.295 1.710 10454
2.075 1.363 1.795 3433
1.980 1.301 1.708 10912
2.084 1.369 1.792 3110
1.984 1.304 1.701 9161
2.088 1.372 1.785 3125
1.993 1.310 1.699 7417
2.098 1.378 1.782 2486
1.997 1.312 1.692 5394
2.102 1.381 1.775 2602
2.012 1.322 1.694 3588
2.117 1.391 1.777 1993
2.093 1.375 1.748 3299
1.988 1.306 1.665 1437
2.097 1.378 1.741 2680
2.068 1.359 1.708 2422
2.173 1.428 1.789 1185
2.138 1.405 1.752 3856
2.032 1.336 1.670 1396
2.136 1.404 1.740 6155
2.242 1.473 1.822 1073
2.031 1.334 1.659 802
2.140 1.406 1.733 7385
2.246 1.476 1.814 1013
2.144 1.409 1.726 8616
2.250 1.479 1.806 954
2.148 1.412 1.718 6367
2.255 1.481 1.798 2036
2.202 1.447 1.749 5476
2.096 1.377 1.669 1278
2.223 1.461 1.754 7490
2.116 1.391 1.675 1856
2.233 1.467 1.750 10074
2.126 1.397 1.671 1263
2.242 1.473 1.747 8297
2.135 1.403 1.668 1269
2.246 1.476 1.739 6630
2.139 1.405 1.661 1077
2.354 1.547 1.817 999
2.278 1.497 1.752 6910
2.171 1.427 1.674 1525
2.294 1.507 1.752 7716
2.186 1.436 1.675 1226
2.315 1.521 1.757 5962
2.207 1.450 1.680 1607
2.330 1.531 1.757 5114
2.222 1.460 1.680 1542
2.357 1.549 1.765 4085
2.248 1.477 1.689 2929
2.378 1.563 1.769 4192
2.269 1.491 1.693 3957
2.486 1.634 1.845 863
2.273 1.494 1.685 3847
2.388 1.569 1.765 3167
2.496 1.640 1.840 898
2.294 1.507 1.689 3337
2.409 1.583 1.768 2644
2.338 1.536 1.709 3489
2.447 1.608 1.784 2907
2.348 1.543 1.705 4253
2.463 1.618 1.783 3944
2.472 1.625 1.778 5153
2.363 1.553 1.704 4131
2.476 1.627 1.770 7008
2.367 1.555 1.696 3388
2.480 1.630 1.761 7604
2.371 1.558 1.688 2645
2.484 1.632 1.753 6423
2.374 1.560 1.680 2080
2.500 1.643 1.752 5410
2.390 1.570 1.680 1956
2.515 1.653 1.751 7354
2.405 1.580 1.679 1978
2.525 1.659 1.746 9911
2.415 1.587 1.675 1413
2.529 1.662 1.738 10031
2.418 1.589 1.666 1107
0.711 0.467 0.567 779
2.533 1.664 1.729 8784
2.644 1.737 1.800 1825
2.422 1.592 1.658 917
0.718 0.472 0.568 759
2.537 1.667 1.720 7538
2.648 1.740 1.791 2765
2.547 1.673 1.715 8880
2.658 1.746 1.785 2753
2.556 1.680 1.710 8776
2.668 1.753 1.780 2845
2.566 1.686 1.705 7372
2.677 1.759 1.774 2597
2.587 1.700 1.707 6573
2.699 1.774 1.776 2555
2.632 1.730 1.723 6223
2.521 1.656 1.655 1704
2.744 1.803 1.792 1694
2.630 1.728 1.711 5237
2.742 1.802 1.779 2251
2.518 1.655 1.643 1166
2.658 1.746 1.716 5402
2.770 1.820 1.784 2885
2.546 1.673 1.648 1481
2.656 1.745 1.703 6647
2.792 1.834 1.785 3717
2.660 1.748 1.694 7015
2.784 1.829 1.768 6249
2.788 1.832 1.759 9396
2.657 1.746 1.682 5062
2.798 1.838 1.753 9999
2.655 1.745 1.669 2322
2.802 1.841 1.743 7977
2.689 1.767 1.677 1463
2.823 1.855 1.744 5370
2.710 1.781 1.678 1456
2.804 1.842 1.720 8501
2.917 1.917 1.785 1316
2.690 1.768 1.655 819
2.807 1.845 1.711 13170
2.921 1.919 1.775 1489
2.658 1.747 1.626 1073
2.817 1.851 1.704 16556
2.931 1.926 1.769 1747
2.668 1.753 1.620 1091
2.833 1.862 1.701 18699
2.947 1.936 1.765 1898
2.671 1.755 1.611 827
2.837 1.864 1.692 10268
2.951 1.939 1.755 2017
2.895 1.902 1.712 7254
2.780 1.827 1.649 1066
2.898 1.905 1.702 7182
2.784 1.829 1.639 882
2.908 1.911 1.695 5301
3.023 1.986 1.757 1374
2.930 1.925 1.695 4238
3.045 2.001 1.757 1694
2.816 1.850 1.633 855
2.970 1.952 1.704 5370
2.855 1.876 1.643 2177
3.085 2.027 1.766 1388
3.040 1.998 1.729 6134
2.926 1.922 1.668 3921
3.044 2.000 1.719 6342
2.929 1.925 1.658 2820
3.159 2.076 1.779 771
3.054 2.007 1.712 6367
3.169 2.083 1.772 1558
2.939 1.931 1.651 1174
3.058 2.009 1.701 5619
3.173 2.085 1.761 2008
3.062 2.012 1.690 3908
3.177 2.088 1.750 2405
3.023 1.986 1.658 4245
3.157 2.074 1.727 4047
3.161 2.077 1.716 4791
3.027 1.989 1.648 4647
3.277 2.153 1.774 1532
3.238 2.128 1.742 5975
3.098 2.035 1.671 3589
2.982 1.959 1.613 817
3.181 2.090 1.700 6660
3.297 2.166 1.758 2446
3.065 2.014 1.642 1552
3.191 2.097 1.692 6071
3.307 2.173 1.749 1923
3.074 2.020 1.635 1589
3.194 2.099 1.681 4846
3.311 2.175 1.738 1500
3.078 2.023 1.624 1222
3.198 2.101 1.670 5156
3.315 2.178 1.727 1460
3.300 2.168 1.706 5774
3.183 2.092 1.650 3664
3.417 2.245 1.762 1006
3.304 2.171 1.695 12093
3.187 2.094 1.639 1885
3.421 2.248 1.751 1497
3.308 2.173 1.684 13162
3.424 2.250 1.739 1419
3.191 2.097 1.628 1005
3.330 2.188 1.681 7469
3.213 2.111 1.626 890
3.371 2.215 1.687 6217
3.253 2.138 1.632 1735
3.488 2.292 1.741 1031
3.387 2.225 1.681 5034
3.504 2.302 1.735 1932
3.269 2.148 1.627 1763
3.384 2.224 1.666 3856
3.520 2.313 1.728 2829
3.530 2.320 1.719 4663
3.388 2.226 1.654 4033
3.546 2.330 1.712 6038
3.429 2.253 1.659 3591
3.464 2.276 1.661 5749
3.581 2.353 1.714 2901
3.535 2.323 1.680 5757
3.418 2.246 1.628 3506
3.545 2.330 1.670 7176
3.427 2.252 1.619 3326
3.664 2.407 1.722 963
3.555 2.336 1.661 7071
3.437 2.259 1.609 2218
3.674 2.414 1.712 1278
3.553 2.335 1.646 7538
3.671 2.412 1.697 1643
3.435 2.257 1.595 975
3.557 2.337 1.633 7171
3.750 2.464 1.716 3113
3.566 2.343 1.624 7174
3.754 2.466 1.703 5719
3.576 2.350 1.614 7324
3.745 2.461 1.685 6279
3.864 2.539 1.734 847
3.749 2.463 1.672 5201
3.580 2.352 1.602 4964
3.867 2.541 1.721 1032
3.752 2.466 1.659 6970
3.583 2.355 1.589 3103
3.871 2.544 1.708 1848
3.756 2.468 1.646 6253
3.875 2.546 1.694 3800
3.593 2.361 1.580 2113
3.822 2.512 1.658 4824
3.942 2.590 1.706 2244
3.703 2.433 1.610 1548
3.584 2.355 1.562 1028
3.927 2.580 1.685 4511
3.807 2.502 1.637 3293
3.924 2.578 1.669 5319
3.805 2.500 1.622 2000
3.928 2.581 1.655 6506
3.808 2.502 1.609 2212
3.931 2.583 1.642 6808
3.812 2.505 1.595 1689
4.114 2.703 1.712 1206
3.948 2.594 1.633 5483
4.118 2.706 1.698 2505
3.828 2.515 1.587 835
3.983 2.617 1.631 3747
4.122 2.708 1.684 2903
3.999 2.628 1.622 2923
4.138 2.719 1.674 2725
4.129 2.713 1.655 2503
4.003 2.630 1.608 2255
4.249 2.792 1.700 1073
4.120 2.707 1.636 2572
4.278 2.811 1.695 1397
4.000 2.628 1.592 1335
4.155 2.731 1.634 2785
4.276 2.810 1.678 1820
3.997 2.627 1.576 816
4.165 2.737 1.622 2909
4.286 2.816 1.665 1875
4.175 2.744 1.610 2692
4.296 2.823 1.652 1662
4.192 2.754 1.600 2520
4.312 2.834 1.642 2169
4.309 2.832 1.625 2735
4.182 2.748 1.581 1454
4.443 2.919 1.671 1249
4.313 2.834 1.610 3187
4.447 2.922 1.656 1907
4.192 2.755 1.568 806
4.323 2.841 1.597 3699
4.444 2.920 1.639 1517
4.565 3.000 1.680 1048
4.327 2.843 1.582 3941
4.511 2.964 1.645 2503
4.645 3.052 1.690 1272
4.324 2.841 1.565 3691
4.483 2.946 1.618 2889
4.642 3.050 1.672 2328
4.640 3.049 1.653 2895
4.480 2.944 1.601 1856
4.327 2.843 1.550 1585
4.650 3.055 1.639 4941
4.528 2.976 1.600 2096
4.407 2.896 1.560 1214
4.660 3.062 1.625 5017
4.538 2.982 1.586 2418
4.417 2.902 1.547 793
4.663 3.064 1.609 5095
4.542 2.984 1.571 2641
4.693 3.083 1.601 7818
4.558 2.995 1.559 1823
4.702 3.090 1.587 8492
4.831 3.174 1.627 825
4.581 3.010 1.549 808
4.693 3.084 1.567 9955
5.039 3.311 1.673 1214
4.815 3.164 1.604 822
4.690 3.082 1.549 9697
5.120 3.364 1.679 1768
4.812 3.162 1.585 834
4.694 3.084 1.532 9202
5.104 3.354 1.655 2778
4.697 3.086 1.516 9240
5.108 3.357 1.638 2946
4.700 3.089 1.500 6209
5.157 3.388 1.633 3871
5.035 3.308 1.598 1160
5.154 3.387 1.613 6168
4.697 3.087 1.482 4090
5.032 3.306 1.578 1266
5.164 3.393 1.597 5925
4.681 3.076 1.460 1619
5.042 3.313 1.563 933
5.286 3.474 1.632 873
5.232 3.438 1.598 5819
5.109 3.357 1.563 1128
5.464 3.590 1.663 1113
4.704 3.091 1.449 756
5.235 3.440 1.580 4446
5.461 3.588 1.642 1276
5.252 3.451 1.565 2113
5.465 3.591 1.623 2004
5.268 3.462 1.550 2650
5.475 3.597 1.606 2317
5.655 3.716 1.655 975
5.265 3.460 1.530 3279
5.523 3.629 1.599 2477
5.659 3.719 1.635 1278
5.401 3.549 1.566 1219
5.714 3.755 1.629 2780
5.262 3.458 1.510 2180
5.533 3.636 1.582 2051
5.411 3.555 1.549 875
5.718 3.757 1.609 4178
5.589 3.672 1.576 1226
5.466 3.592 1.544 1074
5.259 3.456 1.490 1025
5.728 3.764 1.591 2550
5.961 3.917 1.651 1484
5.482 3.602 1.528 1203
5.605 3.683 1.560 996
5.816 3.822 1.593 2864
5.971 3.924 1.632 2816
5.693 3.741 1.562 1945
6.094 4.004 1.663 1294
5.716 3.756 1.547 3490
5.968 3.922 1.610 2649
5.839 3.837 1.577 1907
6.091 4.003 1.640 1767
5.725 3.762 1.529 4794
6.088 4.001 1.617 3013
5.965 3.920 1.587 1893
6.105 4.012 1.599 3688
5.735 3.769 1.510 3388
5.969 3.922 1.567 1521
6.455 4.242 1.684 771
6.128 4.027 1.583 3767
5.836 3.835 1.513 1355
6.543 4.300 1.681 1243
6.005 3.946 1.554 1048
6.119 4.020 1.559 2971
6.554 4.306 1.660 2453
5.755 3.782 1.474 958
6.570 4.317 1.640 3105
6.109 4.014 1.534 2120
6.980 4.586 1.735 1022
6.447 4.236 1.612 930
6.587 4.328 1.621 3814
6.106 4.012 1.512 1871
6.983 4.589 1.710 1422
6.437 4.230 1.587 1167
6.610 4.343 1.602 4071
6.109 4.014 1.490 1612
6.747 4.433 1.633 1598
6.987 4.591 1.686 1474
6.633 4.359 1.583 4017
7.089 4.658 1.683 2231
6.906 4.538 1.643 1744
6.757 4.440 1.611 1686
6.643 4.365 1.562 3021
7.086 4.656 1.657 2696
6.910 4.541 1.619 2005
6.767 4.446 1.589 1483
7.103 4.667 1.635 3060
6.653 4.372 1.540 2150
6.979 4.586 1.609 2128
7.363 4.838 1.691 1613
7.113 4.674 1.612 4741
6.656 4.374 1.517 2367
6.989 4.592 1.586 2222
7.380 4.849 1.668 1680
7.110 4.672 1.586 5962
6.653 4.372 1.493 2731
7.390 4.856 1.644 2005
6.986 4.590 1.561 1766
7.113 4.674 1.561 4729
7.400 4.863 1.619 2308
6.630 4.357 1.464 1675
6.989 4.593 1.537 1503
7.117 4.676 1.537 2383
7.404 4.865 1.594 2169
7.756 5.097 1.663 1324
7.926 5.208 1.697 997
7.401 4.863 1.567 1958
7.120 4.679 1.512 1414
7.936 5.215 1.671 1402
7.780 5.112 1.640 1265
7.398 4.861 1.540 1503
7.960 5.230 1.647 1230
7.110 4.672 1.485 1108
8.345 5.484 1.720 1089
7.963 5.233 1.619 1490
8.186 5.379 1.661 1289
7.395 4.859 1.513 1186
8.375 5.503 1.696 1183
7.960 5.231 1.590 1788
8.196 5.385 1.633 1712
8.477 5.570 1.685 1056
7.542 4.956 1.513 1055
8.481 5.573 1.655 1592
8.212 5.396 1.607 1454
7.970 5.237 1.564 1120
8.919 5.861 1.734 822
8.478 5.571 1.625 2258
8.223 5.403 1.580 1205
8.844 5.812 1.689 1200
7.993 5.253 1.539 882
8.481 5.573 1.595 2343
9.051 5.948 1.694 1212
9.274 6.094 1.732 1175
8.835 5.806 1.656 1137
8.492 5.580 1.567 1619
9.284 6.101 1.701 1462
9.055 5.950 1.662 1211
8.871 5.829 1.631 978
9.295 6.107 1.670 1663
9.131 6.000 1.643 1522
8.842 5.810 1.595 1182
9.445 6.207 1.695 851
9.154 6.015 1.614 1756
9.298 6.110 1.637 1546
8.846 5.813 1.564 1185
9.495 6.239 1.669 961
9.158 6.017 1.582 1520
9.492 6.237 1.635 1412
9.367 6.155 1.616 940
10.561 6.940 1.805 816
10.565 6.942 1.768 1433
9.489 6.235 1.601 1433
9.161 6.020 1.550 1080
9.351 6.145 1.580 823
10.569 6.945 1.731 1686
9.525 6.259 1.573 1254
9.342 6.138 1.545 1015
9.217 6.056 1.527 827
10.573 6.948 1.694 1522
9.352 6.145 1.514 1049
9.535 6.266 1.541 1009
10.577 6.950 1.658 1821
9.355 6.147 1.481 797
10.580 6.952 1.621 1739
9.575 6.292 1.479 757
10.584 6.955 1.584 1290
9.591 6.303 1.448 851
10.594 6.961 1.548 1499
10.571 6.946 1.508 1515
10.874 7.145 1.547 777
10.574 6.948 1.471 1461
10.877 7.147 1.509 753
10.578 6.951 1.434 1134
10.627 6.983 1.403 1229
10.623 6.981 1.365 926
1.938 1.265 1.759 2431
1.942 1.267 1.752 4863
1.946 1.270 1.746 4863
2.049 1.337 1.833 1371
1.950 1.273 1.739 6986
2.053 1.340 1.826 1494
1.954 1.275 1.732 9110
2.057 1.343 1.819 1617
1.963 1.281 1.730 9429
2.067 1.349 1.816 1570
1.967 1.284 1.724 9764
2.071 1.351 1.809 1638
1.971 1.286 1.717 9764
2.075 1.354 1.802 1638
1.975 1.289 1.710 9836
2.079 1.357 1.795 2124
1.984 1.295 1.708 9931
2.088 1.363 1.792 2003
1.988 1.297 1.701 8444
2.092 1.366 1.785 2419
1.997 1.303 1.699 7012
2.102 1.372 1.782 2331
2.001 1.306 1.692 5033
2.106 1.374 1.775 2618
2.088 1.363 1.751 3439
1.983 1.294 1.668 1667
2.097 1.369 1.748 3451
1.992 1.300 1.665 1348
2.101 1.371 1.741 3030
2.100 1.370 1.729 2507
2.142 1.398 1.752 4701
2.037 1.329 1.670 1255
2.141 1.397 1.740 7332
2.247 1.466 1.822 978
2.035 1.328 1.659 750
2.145 1.400 1.733 8351
2.251 1.469 1.814 958
2.154 1.406 1.730 9430
2.261 1.475 1.810 854
2.158 1.408 1.723 6760
2.265 1.478 1.803 1643
2.207 1.440 1.749 5861
2.100 1.371 1.669 1071
2.222 1.450 1.750 7417
2.115 1.380 1.670 1212
2.232 1.456 1.746 9684
2.125 1.386 1.667 847
2.241 1.463 1.743 7780
2.134 1.393 1.664 1002
2.349 1.533 1.821 977
2.245 1.465 1.735 5967
2.353 1.536 1.813 1530
2.138 1.395 1.657 913
2.289 1.494 1.756 6177
2.181 1.423 1.678 1635
2.310 1.507 1.760 7344
2.202 1.437 1.683 1632
2.325 1.517 1.761 6060
2.217 1.447 1.684 1756
2.346 1.531 1.765 6000
2.238 1.460 1.688 1509
2.356 1.538 1.761 5351
2.247 1.467 1.685 2638
2.377 1.551 1.765 5133
2.268 1.480 1.689 4385
2.497 1.630 1.849 829
2.272 1.483 1.681 3982
2.381 1.554 1.757 3623
2.490 1.625 1.832 1004
2.299 1.500 1.689 3367
2.414 1.575 1.768 3029
2.343 1.529 1.709 3742
2.458 1.604 1.787 2701
2.352 1.535 1.705 4557
2.468 1.610 1.783 4007
2.472 1.613 1.775 5571
2.356 1.538 1.697 4258
2.482 1.619 1.770 7461
2.372 1.548 1.696 3724
2.485 1.622 1.761 7827
2.375 1.550 1.688 3326
2.489 1.625 1.753 6283
2.379 1.553 1.680 2533
2.505 1.635 1.752 5088
2.395 1.563 1.680 1883
2.532 1.653 1.759 7242
2.404 1.569 1.675 1598
2.536 1.655 1.750 9452
2.414 1.575 1.671 1133
2.540 1.658 1.741 9304
2.429 1.585 1.670 1065
2.538 1.656 1.729 8016
2.649 1.729 1.800 2205
2.427 1.584 1.658 755
2.612 1.705 1.765 7509
2.501 1.632 1.694 3324
2.622 1.711 1.759 7917
2.511 1.639 1.689 3868
2.561 1.672 1.710 7442
2.673 1.745 1.780 3135
2.583 1.686 1.712 6475
2.695 1.759 1.782 1638
2.587 1.688 1.703 5318
2.699 1.761 1.772 2988
2.667 1.741 1.741 5157
2.555 1.668 1.673 2849
2.779 1.814 1.810 823
2.701 1.763 1.750 4442
2.559 1.670 1.664 2015
2.675 1.746 1.723 4457
2.788 1.819 1.791 2544
2.563 1.672 1.655 1292
2.667 1.741 1.707 5237
2.803 1.830 1.788 3436
2.784 1.817 1.765 6361
2.665 1.739 1.694 5589
2.794 1.823 1.759 10061
2.669 1.742 1.685 4028
2.798 1.826 1.749 10874
2.684 1.752 1.683 2179
2.796 1.824 1.736 8681
2.682 1.751 1.670 1784
2.787 1.819 1.720 5467
2.901 1.893 1.785 1331
2.674 1.745 1.654 949
2.809 1.833 1.720 7960
2.923 1.908 1.785 1574
2.813 1.836 1.711 11734
2.927 1.910 1.775 1769
2.652 1.730 1.619 954
2.823 1.842 1.704 15377
2.937 1.917 1.769 1662
2.661 1.737 1.613 953
2.839 1.853 1.701 17814
2.953 1.927 1.765 1418
2.677 1.747 1.611 769
2.867 1.871 1.705 10263
2.981 1.945 1.768 1049
2.895 1.889 1.708 7963
3.009 1.964 1.771 766
2.904 1.895 1.702 7251
3.019 1.970 1.764 833
2.790 1.821 1.639 796
2.914 1.902 1.695 4295
3.029 1.977 1.757 1558
2.800 1.827 1.633 797
2.966 1.936 1.711 5455
2.852 1.861 1.649 1581
2.976 1.942 1.704 6913
2.861 1.867 1.643 1303
3.091 2.017 1.766 1234
2.986 1.949 1.697 7297
3.101 2.024 1.758 1622
2.871 1.874 1.636 1334
2.990 1.951 1.687 5290
3.105 2.027 1.748 1771
2.875 1.876 1.626 1007
3.054 1.993 1.708 4356
2.939 1.918 1.648 1740
3.170 2.069 1.769 1476
3.058 1.996 1.698 3806
3.174 2.071 1.758 2008
2.943 1.920 1.638 1110
3.032 1.979 1.672 3880
3.160 2.062 1.737 2988
3.157 2.061 1.723 4516
3.029 1.977 1.658 4161
3.161 2.063 1.713 4881
3.033 1.979 1.648 4159
3.277 2.139 1.771 1709
3.251 2.121 1.745 5188
3.104 2.026 1.671 4134
3.218 2.100 1.715 6056
3.102 2.024 1.657 2984
3.334 2.176 1.773 1108
3.222 2.103 1.704 5698
3.105 2.027 1.647 2446
3.338 2.178 1.761 1052
3.207 2.093 1.684 4286
3.324 2.169 1.741 1881
3.090 2.017 1.627 1281
3.211 2.095 1.673 4575
3.328 2.172 1.730 1906
3.307 2.158 1.706 6425
3.190 2.082 1.650 2921
3.424 2.234 1.762 1185
3.311 2.161 1.695 12644
3.428 2.237 1.751 1751
3.194 2.084 1.639 1711
3.314 2.163 1.684 12548
3.432 2.239 1.739 1525
3.197 2.087 1.628 1337
3.337 2.178 1.681 6654
3.219 2.101 1.626 1256
3.509 2.290 1.762 816
3.384 2.208 1.689 6467
3.266 2.132 1.635 1837
3.513 2.293 1.750 1234
3.400 2.219 1.683 6453
3.517 2.296 1.738 2235
3.282 2.142 1.629 1997
3.404 2.221 1.672 3749
3.521 2.298 1.726 2736
3.286 2.144 1.618 1201
3.538 2.309 1.719 4034
3.420 2.232 1.666 2418
3.302 2.155 1.612 799
3.548 2.315 1.710 5237
3.430 2.238 1.657 2438
3.471 2.265 1.661 5470
3.589 2.342 1.714 2504
3.474 2.267 1.650 5258
3.593 2.345 1.702 2476
3.559 2.323 1.673 7373
3.441 2.245 1.621 3421
3.677 2.400 1.725 940
3.569 2.329 1.663 6838
3.451 2.252 1.612 2357
3.687 2.406 1.715 1440
3.566 2.328 1.648 6578
3.685 2.405 1.699 1719
3.448 2.250 1.598 1176
3.570 2.330 1.636 6295
3.757 2.452 1.716 2931
3.580 2.336 1.626 7358
3.761 2.455 1.703 5312
3.584 2.339 1.614 8470
3.753 2.449 1.685 5874
3.872 2.527 1.734 1099
3.593 2.345 1.604 5972
3.731 2.435 1.661 4868
3.850 2.513 1.711 1536
3.754 2.450 1.656 6522
3.610 2.356 1.597 3698
3.873 2.528 1.705 1894
3.764 2.456 1.646 6331
3.883 2.534 1.694 3957
3.607 2.354 1.582 2339
3.868 2.524 1.673 4795
3.749 2.446 1.625 3231
3.610 2.356 1.570 1238
3.987 2.602 1.721 1114
3.941 2.572 1.687 4003
3.821 2.494 1.640 3340
3.938 2.570 1.671 4239
3.819 2.492 1.624 2072
3.936 2.569 1.655 5458
3.816 2.490 1.609 2202
4.100 2.676 1.719 857
3.946 2.575 1.644 5832
3.826 2.497 1.598 1747
4.066 2.653 1.690 1379
3.962 2.586 1.635 4508
4.120 2.689 1.696 2431
3.842 2.507 1.590 902
3.991 2.605 1.631 3484
4.130 2.695 1.684 2920
4.014 2.619 1.625 2814
4.153 2.710 1.677 2671
4.106 2.680 1.644 2514
3.986 2.601 1.599 1423
4.277 2.791 1.707 794
4.116 2.686 1.632 1981
4.281 2.794 1.692 1294
3.996 2.608 1.588 920
4.170 2.722 1.636 2146
4.291 2.800 1.680 1942
4.168 2.720 1.619 2619
4.301 2.807 1.667 2145
4.184 2.731 1.610 2806
4.317 2.818 1.657 1566
4.200 2.741 1.600 2817
4.334 2.828 1.647 1811
4.331 2.827 1.629 2467
4.191 2.735 1.581 1583
4.452 2.905 1.671 1290
4.322 2.821 1.610 3248
4.449 2.904 1.654 1798
4.201 2.742 1.568 860
4.332 2.827 1.597 3831
4.453 2.906 1.639 1653
4.574 2.985 1.680 1030
4.342 2.834 1.585 3523
4.489 2.929 1.634 3028
4.667 3.046 1.694 992
4.486 2.928 1.616 4203
4.333 2.828 1.565 2915
4.633 3.023 1.665 1540
4.585 2.992 1.632 2800
4.464 2.913 1.592 2114
4.342 2.834 1.552 1424
4.707 3.072 1.672 857
4.666 3.045 1.641 4277
4.544 2.966 1.602 1968
4.423 2.886 1.562 1395
4.676 3.051 1.627 4941
4.554 2.972 1.588 2139
4.432 2.893 1.549 919
4.686 3.058 1.613 5908
4.551 2.970 1.571 2189
4.702 3.069 1.601 10312
4.580 2.989 1.563 1587
4.712 3.075 1.587 12188
4.590 2.996 1.549 1210
4.834 3.155 1.625 906
4.716 3.078 1.571 11988
4.953 3.233 1.643 1562
5.075 3.312 1.681 1165
4.713 3.076 1.552 11513
5.118 3.340 1.675 1886
4.957 3.235 1.626 1523
4.835 3.155 1.589 814
4.710 3.074 1.534 11229
5.115 3.338 1.655 3904
4.713 3.076 1.518 9895
5.119 3.340 1.638 4826
4.996 3.261 1.602 1024
4.710 3.074 1.500 7165
5.167 3.372 1.633 4814
5.045 3.292 1.598 1485
5.164 3.370 1.613 7423
4.720 3.080 1.485 4728
5.042 3.291 1.578 1285
5.168 3.373 1.596 6824
4.710 3.074 1.465 1427
5.291 3.453 1.630 1002
5.046 3.293 1.561 869
5.236 3.417 1.596 5196
5.114 3.337 1.561 2012
5.481 3.577 1.665 1062
4.713 3.076 1.449 848
5.240 3.420 1.578 3954
5.472 3.571 1.642 1358
5.117 3.339 1.544 1205
5.469 3.569 1.622 2398
5.243 3.422 1.560 2170
5.663 3.696 1.675 840
5.479 3.576 1.604 2567
5.273 3.441 1.549 2106
5.673 3.703 1.657 1114
5.276 3.443 1.530 2591
5.522 3.604 1.596 2306
5.677 3.705 1.637 1333
5.813 3.794 1.673 1030
5.726 3.737 1.629 2867
5.538 3.614 1.580 2122
5.273 3.441 1.510 1581
5.849 3.817 1.662 813
5.730 3.739 1.609 4310
5.490 3.583 1.547 1607
5.957 3.887 1.668 1063
5.746 3.750 1.593 2688
5.973 3.898 1.651 1634
5.487 3.581 1.527 1468
5.623 3.670 1.562 1164
5.828 3.803 1.593 3344
5.983 3.905 1.632 3084
5.698 3.719 1.560 1347
6.107 3.985 1.663 1279
5.980 3.903 1.610 3105
5.831 3.806 1.573 2946
6.104 3.983 1.640 1841
5.708 3.725 1.542 1771
6.094 3.977 1.616 3048
5.744 3.748 1.530 2757
5.971 3.897 1.586 2309
6.111 3.988 1.598 3466
5.747 3.751 1.510 2199
5.988 3.908 1.568 2103
6.475 4.226 1.685 959
6.134 4.003 1.581 3547
5.848 3.817 1.513 1612
6.004 3.918 1.550 1543
6.557 4.279 1.681 1003
6.131 4.001 1.559 2852
6.567 4.286 1.660 1907
5.858 3.823 1.495 1105
6.007 3.921 1.530 1068
6.584 4.297 1.640 2396
6.122 3.995 1.534 2058
6.994 4.564 1.735 1253
6.460 4.216 1.612 819
6.600 4.308 1.621 3072
6.125 3.997 1.513 1836
6.998 4.567 1.710 1748
6.763 4.414 1.657 1291
6.637 4.331 1.605 3374
6.910 4.510 1.666 2197
6.760 4.412 1.633 1774
6.128 3.999 1.492 1396
6.653 4.342 1.585 4171
6.914 4.512 1.642 2848
6.777 4.423 1.612 1714
7.103 4.636 1.683 1626
6.663 4.349 1.563 3342
6.918 4.515 1.618 3132
7.100 4.634 1.657 2286
6.787 4.429 1.590 1670
7.013 4.577 1.613 3209
7.137 4.658 1.640 2302
6.673 4.355 1.542 2188
7.378 4.815 1.691 1367
7.121 4.647 1.611 4391
6.931 4.524 1.571 2797
6.683 4.362 1.520 2009
7.395 4.826 1.668 1529
7.118 4.645 1.585 5886
6.935 4.526 1.547 2346
6.667 4.351 1.493 2129
7.412 4.837 1.645 1961
7.121 4.648 1.560 4701
7.416 4.840 1.619 2271
6.932 4.524 1.522 1658
6.677 4.357 1.471 1283
7.131 4.654 1.537 2532
7.419 4.842 1.594 2238
7.772 5.072 1.663 1545
7.007 4.573 1.512 1187
7.416 4.840 1.567 1995
7.953 5.190 1.671 1500
7.102 4.635 1.506 1375
7.789 5.083 1.639 1214
7.413 4.838 1.540 1498
7.983 5.210 1.648 1463
7.819 5.103 1.617 1159
7.590 4.953 1.573 1136
7.986 5.212 1.620 1586
8.209 5.357 1.662 1343
7.574 4.943 1.543 1289
7.816 5.101 1.588 1229
8.213 5.360 1.633 1823
7.977 5.206 1.590 1751
7.557 4.932 1.513 1121
8.494 5.544 1.685 1072
8.229 5.371 1.607 1686
8.498 5.546 1.655 1338
7.993 5.217 1.565 1129
8.872 5.790 1.722 861
8.495 5.544 1.625 1998
8.239 5.377 1.580 1552
8.863 5.784 1.689 1425
8.010 5.227 1.539 923
8.505 5.551 1.596 2108
8.853 5.778 1.656 1384
9.286 6.060 1.731 1326
9.070 5.919 1.694 1085
9.297 6.067 1.700 1502
8.509 5.553 1.567 1400
9.074 5.922 1.662 1285
8.857 5.780 1.626 987
9.307 6.074 1.669 1629
9.149 5.971 1.643 1185
8.867 5.787 1.596 1087
9.458 6.173 1.694 757
9.311 6.076 1.636 1645
9.166 5.982 1.613 1402
8.871 5.789 1.565 1171
9.436 6.158 1.657 957
9.176 5.989 1.582 1298
9.301 6.070 1.602 1187
9.505 6.203 1.634 980
10.583 6.907 1.805 883
10.587 6.909 1.768 1548
9.588 6.257 1.613 1146
9.180 5.991 1.550 1019
9.463 6.175 1.594 937
10.591 6.912 1.731 1830
9.578 6.251 1.578 1366
9.262 6.045 1.530 830
10.595 6.914 1.694 1659
9.581 6.253 1.545 1053
10.598 6.917 1.658 1783
10.615 6.928 1.623 1582
10.632 6.939 1.588 966
11.080 7.231 1.649 823
10.626 6.935 1.512 998
10.622 6.932 1.474 1388
10.613 6.926 1.436 1367
10.609 6.924 1.398 1012
1.905 1.234 1.727 2584
1.909 1.236 1.720 5169
2.017 1.306 1.812 1734
1.913 1.239 1.714 5169
2.026 1.312 1.810 2626
1.960 1.269 1.744 6051
2.063 1.336 1.830 1379
1.958 1.268 1.732 7311
2.062 1.335 1.819 1744
1.968 1.274 1.730 8096
2.071 1.341 1.816 1403
1.977 1.280 1.728 9011
2.081 1.348 1.814 937
1.981 1.283 1.721 9011
2.085 1.350 1.806 937
1.985 1.285 1.715 9030
2.089 1.353 1.799 1661
1.983 1.284 1.703 9084
2.088 1.352 1.788 2841
1.993 1.290 1.701 7678
2.097 1.358 1.785 2809
2.002 1.296 1.699 6503
2.107 1.364 1.782 2806
2.011 1.303 1.696 4674
2.116 1.371 1.780 2650
2.093 1.355 1.751 3899
1.987 1.287 1.668 1497
2.102 1.361 1.748 3941
1.997 1.293 1.665 1306
2.106 1.364 1.741 3569
2.110 1.366 1.733 3041
2.004 1.298 1.652 769
