7.148 1.532 1.689 2354
7.421 1.590 1.748 2350
6.967 1.493 1.649 1638
6.520 1.397 1.552 1156
7.350 1.575 1.710 2562
7.168 1.536 1.671 2535
6.979 1.496 1.630 1386
7.494 1.606 1.741 1219
7.438 1.594 1.706 3399
7.172 1.537 1.650 2546
7.680 1.646 1.758 1230
6.983 1.497 1.610 1007
7.434 1.593 1.682 3905
7.700 1.650 1.738 2088
7.177 1.538 1.628 1269
7.874 1.688 1.774 1000
7.439 1.594 1.660 4736
7.704 1.651 1.715 2592
7.894 1.692 1.754 1733
7.295 1.563 1.631 986
7.458 1.598 1.641 4724
7.701 1.650 1.691 2224
8.013 1.717 1.754 2057
7.868 1.686 1.725 1474
7.478 1.603 1.622 4209
7.918 1.697 1.710 2619
7.637 1.637 1.654 1874
8.154 1.747 1.757 1584
7.482 1.603 1.600 3246
7.915 1.696 1.685 2834
8.516 1.825 1.803 2147
8.174 1.752 1.736 1889
8.536 1.829 1.781 3074
7.927 1.699 1.663 2383
7.486 1.604 1.578 2053
8.193 1.756 1.715 1864
8.510 1.824 1.750 3924
7.932 1.700 1.640 2105
8.206 1.759 1.692 1856
7.498 1.607 1.557 1180
8.499 1.822 1.722 4287
8.789 1.884 1.776 1786
8.187 1.755 1.663 1783
7.928 1.699 1.615 1547
8.511 1.824 1.698 4276
8.862 1.899 1.763 3212
8.367 1.793 1.671 1357
8.176 1.752 1.636 1278
8.523 1.827 1.674 4121
8.851 1.897 1.734 3796
8.787 1.883 1.695 4495
8.551 1.833 1.653 3178
8.932 1.914 1.721 2513
8.791 1.884 1.669 4759
8.944 1.917 1.696 3314
8.547 1.832 1.626 2371
9.654 2.069 1.820 782
8.903 1.908 1.661 4199
8.758 1.877 1.636 2066
8.551 1.833 1.601 1699
9.674 2.073 1.794 1243
8.915 1.911 1.636 4151
8.769 1.879 1.612 1632
9.701 2.079 1.769 1197
8.556 1.834 1.575 1113
8.919 1.911 1.610 2714
8.774 1.880 1.586 1314
10.470 2.244 1.867 1064
9.713 2.082 1.742 935
8.984 1.925 1.593 2031
10.475 2.245 1.836 1521
8.808 1.888 1.565 1386
9.718 2.083 1.713 1337
8.981 1.925 1.565 2087
9.952 2.133 1.720 1900
9.715 2.082 1.683 1590
10.472 2.244 1.804 1392
9.964 2.135 1.692 1707
10.492 2.249 1.775 1288
9.719 2.083 1.654 1256
8.992 1.927 1.540 1193
10.007 2.145 1.668 1464
10.512 2.253 1.746 1321
10.749 2.304 1.782 1084
10.979 2.353 1.818 871
10.539 2.259 1.718 1672
10.746 2.303 1.749 1640
9.973 2.137 1.633 1359
10.953 2.347 1.781 1071
10.950 2.347 1.747 1631
10.559 2.263 1.689 1550
10.758 2.306 1.719 1446
9.954 2.133 1.600 1131
10.978 2.353 1.718 1746
10.564 2.264 1.658 1360
10.771 2.308 1.688 1129
11.867 2.543 1.846 883
10.982 2.354 1.685 1478
11.419 2.447 1.747 1189
10.537 2.258 1.622 1050
11.856 2.541 1.809 1030
11.462 2.456 1.718 1744
10.956 2.348 1.648 1168
11.239 2.409 1.687 992
11.459 2.456 1.683 1615
12.157 2.605 1.778 911
12.357 2.648 1.805 893
10.952 2.347 1.614 881
11.532 2.471 1.658 1672
12.354 2.648 1.767 1208
12.146 2.603 1.739 1097
11.386 2.440 1.639 1010
11.529 2.471 1.623 1735
12.143 2.602 1.702 1004
11.383 2.439 1.604 862
11.897 2.550 1.671 838
11.533 2.472 1.589 1318
11.902 2.551 1.635 1220
13.262 2.842 1.807 1000
13.046 2.796 1.780 997
11.906 2.552 1.600 1387
13.243 2.838 1.765 1072
13.043 2.795 1.740 1050
12.429 2.664 1.664 757
13.017 2.790 1.697 1410
11.910 2.552 1.564 1229
13.240 2.838 1.724 1153
12.441 2.666 1.628 932
13.022 2.791 1.659 1525
12.445 2.667 1.591 1010
13.237 2.837 1.684 966
13.110 2.810 1.630 1137
12.449 2.668 1.554 802
13.107 2.809 1.590 976
13.126 2.813 1.552 806
2.310 0.483 1.791 1989
2.321 0.485 1.789 4048
2.440 0.510 1.876 850
2.382 0.498 1.823 5247
2.262 0.473 1.736 1628
2.343 0.490 1.785 6036
2.463 0.515 1.871 1082
2.347 0.491 1.778 7616
2.468 0.516 1.864 874
2.358 0.493 1.775 8227
2.479 0.518 1.861 910
2.369 0.495 1.773 9016
2.529 0.529 1.886 1009
2.374 0.496 1.766 9016
2.534 0.530 1.878 1499
2.398 0.501 1.773 6815
2.539 0.531 1.871 2140
2.409 0.504 1.770 5368
2.544 0.532 1.863 2782
2.287 0.478 1.686 843
2.420 0.506 1.767 4604
2.542 0.531 1.851 4155
2.521 0.527 1.826 7024
2.399 0.501 1.743 3057
2.533 0.529 1.823 8198
2.410 0.504 1.740 2528
2.544 0.532 1.820 9649
2.421 0.506 1.737 2326
2.549 0.533 1.813 9649
2.426 0.507 1.730 2308
2.553 0.534 1.806 8179
2.430 0.508 1.723 1903
2.677 0.560 1.888 970
2.565 0.536 1.802 6973
2.441 0.510 1.721 1974
2.688 0.562 1.884 1108
2.569 0.537 1.795 7265
2.693 0.563 1.876 1452
2.446 0.511 1.713 1410
2.574 0.538 1.787 7506
2.698 0.564 1.869 1848
2.585 0.540 1.784 7694
2.710 0.566 1.865 1994
2.461 0.514 1.703 900
2.597 0.543 1.781 8001
2.721 0.569 1.861 1851
2.472 0.517 1.700 1248
2.601 0.544 1.773 6221
2.726 0.570 1.853 2202
2.477 0.518 1.693 1133
2.691 0.563 1.820 6305
2.553 0.534 1.732 2349
2.696 0.564 1.812 6155
2.564 0.536 1.729 1903
2.701 0.565 1.804 6005
2.576 0.538 1.725 1681
2.719 0.568 1.805 6536
2.593 0.542 1.726 1687
2.750 0.575 1.813 7784
2.624 0.549 1.735 1853
2.762 0.577 1.809 7553
2.636 0.551 1.731 2294
2.773 0.580 1.805 7515
2.647 0.553 1.728 2542
2.899 0.606 1.883 854
2.784 0.582 1.801 5823
2.658 0.556 1.724 1949
2.911 0.608 1.878 1192
2.802 0.586 1.801 4882
2.929 0.612 1.878 1193
2.676 0.559 1.724 1188
2.780 0.581 1.777 4243
2.914 0.609 1.857 2639
2.654 0.555 1.701 888
2.778 0.581 1.765 4712
2.926 0.612 1.853 3458
2.917 0.610 1.836 4412
2.783 0.582 1.757 4007
2.909 0.608 1.820 5798
2.781 0.581 1.744 3043
2.920 0.610 1.815 5493
2.792 0.584 1.740 2461
2.851 0.596 1.763 5870
2.979 0.623 1.838 1473
2.849 0.595 1.751 5285
2.977 0.622 1.825 1722
2.693 0.563 1.662 769
2.853 0.596 1.743 3770
2.982 0.623 1.816 1701
2.905 0.607 1.761 4106
3.034 0.634 1.835 2063
2.944 0.615 1.772 4337
3.073 0.642 1.845 1780
2.815 0.588 1.699 793
2.955 0.618 1.767 5663
3.084 0.645 1.840 2299
3.041 0.636 1.804 6327
2.912 0.609 1.732 2121
3.046 0.637 1.795 8304
2.917 0.610 1.724 1280
3.051 0.638 1.786 11944
2.921 0.611 1.715 1513
3.056 0.639 1.777 18434
2.926 0.612 1.706 1796
3.185 0.666 1.848 925
3.053 0.638 1.765 22330
2.923 0.611 1.694 1741
3.183 0.665 1.835 1240
3.065 0.641 1.759 23006
2.935 0.613 1.689 1722
3.195 0.668 1.830 935
3.070 0.642 1.750 23948
3.200 0.669 1.820 1182
2.939 0.614 1.681 1094
3.067 0.641 1.738 24569
3.198 0.668 1.807 1832
2.854 0.597 1.625 781
3.079 0.644 1.732 22609
3.210 0.671 1.801 1552
3.083 0.644 1.723 20681
3.214 0.672 1.792 1571
3.081 0.644 1.711 20345
3.212 0.671 1.779 1608
3.092 0.646 1.705 18070
3.224 0.674 1.773 3070
3.097 0.647 1.696 13557
3.228 0.675 1.764 4772
3.094 0.647 1.684 11274
3.226 0.674 1.751 6503
3.106 0.649 1.678 9577
3.238 0.677 1.745 5733
3.228 0.675 1.728 6502
3.096 0.647 1.662 5937
3.233 0.676 1.719 8716
3.100 0.648 1.653 4633
3.365 0.703 1.785 888
3.237 0.677 1.709 10036
3.105 0.649 1.644 3632
3.370 0.704 1.775 2053
3.235 0.676 1.696 10821
3.368 0.704 1.761 6209
3.102 0.648 1.631 1759
3.246 0.679 1.690 10648
3.379 0.706 1.755 8793
3.113 0.651 1.626 1260
3.356 0.701 1.731 13154
3.223 0.674 1.667 5493
3.503 0.732 1.802 938
3.089 0.646 1.603 798
3.346 0.699 1.715 13583
3.136 0.655 1.614 1056
3.515 0.735 1.795 760
3.344 0.699 1.702 10373
3.154 0.659 1.612 1064
3.355 0.701 1.695 9197
3.158 0.660 1.602 1240
3.489 0.729 1.758 948
3.374 0.705 1.692 10559
3.508 0.733 1.755 2004
3.155 0.660 1.590 1151
3.385 0.708 1.685 11884
3.519 0.736 1.747 2959
3.251 0.680 1.623 1310
3.404 0.711 1.682 11639
3.538 0.740 1.744 2476
3.269 0.683 1.620 1452
3.415 0.714 1.675 12206
3.550 0.742 1.736 1856
3.281 0.686 1.614 1254
3.420 0.715 1.665 11377
3.554 0.743 1.726 2390
3.285 0.687 1.604 1144
3.431 0.717 1.658 9914
3.566 0.745 1.719 3721
3.296 0.689 1.598 1047
3.442 0.720 1.651 8115
3.613 0.755 1.727 5869
3.525 0.737 1.676 8114
3.660 0.765 1.736 3184
3.390 0.709 1.616 1456
3.802 0.795 1.799 1044
3.529 0.738 1.665 8530
3.665 0.766 1.725 3809
3.800 0.794 1.784 1286
3.394 0.709 1.606 933
3.633 0.759 1.699 7043
3.498 0.731 1.640 4390
3.769 0.788 1.758 2766
3.631 0.759 1.685 9423
3.781 0.790 1.750 4869
3.495 0.731 1.626 1741
3.635 0.760 1.674 11768
3.778 0.790 1.735 7001
3.499 0.731 1.616 1062
3.632 0.759 1.660 10274
3.775 0.789 1.721 6885
3.496 0.731 1.603 1036
3.630 0.759 1.647 6386
3.794 0.793 1.716 6244
3.806 0.796 1.708 6954
3.634 0.760 1.636 6648
3.810 0.796 1.697 8787
3.638 0.760 1.625 8498
3.829 0.800 1.692 14239
3.642 0.761 1.615 8269
4.045 0.846 1.780 824
3.848 0.804 1.686 17241
3.647 0.762 1.604 5989
4.050 0.846 1.768 1115
3.852 0.805 1.675 13424
3.658 0.765 1.596 2900
4.047 0.846 1.753 1396
3.842 0.803 1.658 8565
4.059 0.848 1.744 1824
3.662 0.765 1.585 1450
3.854 0.806 1.649 10118
4.085 0.854 1.741 2213
3.717 0.777 1.595 752
3.865 0.808 1.641 13066
4.126 0.862 1.743 2758
3.877 0.810 1.632 8081
4.109 0.859 1.723 3155
4.120 0.861 1.713 4609
3.881 0.811 1.621 4210
4.154 0.868 1.712 7726
3.885 0.812 1.609 5076
4.166 0.871 1.703 8961
3.882 0.812 1.595 4602
4.020 0.840 1.648 776
4.148 0.867 1.682 8094
3.894 0.814 1.586 3420
4.153 0.868 1.670 10467
3.898 0.815 1.575 2286
4.291 0.897 1.722 895
4.164 0.870 1.661 12316
3.931 0.822 1.574 954
4.303 0.899 1.712 900
4.169 0.871 1.648 13525
4.307 0.900 1.699 1140
4.173 0.872 1.636 12012
4.312 0.901 1.687 1461
4.170 0.872 1.621 7747
4.309 0.901 1.671 1813
4.181 0.874 1.612 8227
4.320 0.903 1.661 1742
4.186 0.875 1.599 12420
4.325 0.904 1.648 1551
4.596 0.961 1.744 754
4.226 0.883 1.600 10537
4.615 0.965 1.736 1251
4.446 0.929 1.677 831
4.253 0.889 1.595 9592
4.619 0.966 1.722 1795
4.414 0.923 1.651 959
4.257 0.890 1.582 6897
4.595 0.960 1.698 3312
4.411 0.922 1.635 1240
4.276 0.894 1.575 5699
4.592 0.960 1.682 4296
4.415 0.923 1.622 794
4.287 0.896 1.565 7856
4.596 0.961 1.669 4039
4.736 0.990 1.716 920
4.291 0.897 1.552 12363
4.615 0.965 1.660 4858
4.755 0.994 1.707 1435
4.295 0.898 1.539 8572
4.627 0.967 1.649 6295
4.767 0.996 1.695 2107
4.639 0.970 1.638 4816
4.292 0.897 1.524 3459
4.779 0.999 1.684 2076
4.919 1.028 1.730 941
4.724 0.987 1.650 5940
4.288 0.896 1.509 3504
4.901 1.025 1.708 2566
4.584 0.958 1.605 1462
4.728 0.988 1.636 6129
4.891 1.022 1.689 3416
4.292 0.897 1.497 3116
4.588 0.959 1.591 1504
4.718 0.986 1.618 5895
4.895 1.023 1.674 4592
4.303 0.900 1.486 1494
4.907 1.026 1.662 7720
4.722 0.987 1.604 4324
5.048 1.055 1.706 1165
5.196 1.086 1.753 822
4.912 1.027 1.648 9757
4.726 0.988 1.590 1852
5.052 1.056 1.691 1345
5.201 1.087 1.737 1320
4.923 1.029 1.635 9831
5.190 1.085 1.717 1611
4.738 0.990 1.578 1524
4.928 1.030 1.621 8731
5.262 1.100 1.722 2020
5.076 1.061 1.666 1741
4.742 0.991 1.564 1342
4.932 1.031 1.606 6941
5.244 1.096 1.700 2809
5.103 1.067 1.658 1271
4.936 1.032 1.592 6016
5.226 1.092 1.678 3031
5.367 1.122 1.720 1012
4.940 1.033 1.577 4648
5.253 1.098 1.669 3712
5.111 1.068 1.628 1343
5.394 1.128 1.711 1015
5.287 1.105 1.662 6207
4.944 1.033 1.563 2600
5.093 1.065 1.606 1520
5.429 1.135 1.704 1375
5.291 1.106 1.647 5400
5.448 1.139 1.692 1968
4.941 1.033 1.546 1043
5.090 1.064 1.589 797
5.266 1.101 1.623 3600
5.482 1.146 1.684 2507
5.427 1.134 1.651 3182
5.277 1.103 1.609 2653
5.584 1.167 1.695 2120
5.431 1.135 1.635 3618
5.289 1.106 1.596 2283
5.723 1.196 1.716 1820
5.573 1.165 1.675 1606
5.435 1.136 1.619 3329
5.727 1.197 1.699 3009
5.578 1.166 1.658 1107
5.884 1.230 1.743 825
5.447 1.139 1.605 3648
5.732 1.198 1.683 3480
5.874 1.228 1.721 1446
5.589 1.168 1.644 1384
5.758 1.204 1.672 4249
5.444 1.138 1.587 3503
6.006 1.255 1.738 2083
5.601 1.171 1.629 1582
5.785 1.209 1.661 6290
5.515 1.153 1.589 2872
6.003 1.255 1.718 2237
6.145 1.285 1.756 853
5.850 1.223 1.659 7366
6.015 1.257 1.703 4399
6.157 1.287 1.740 2355
5.444 1.138 1.553 1529
5.854 1.224 1.642 10157
6.027 1.260 1.687 6513
6.169 1.290 1.724 5062
5.851 1.223 1.623 7456
6.024 1.259 1.667 6731
6.166 1.289 1.704 6458
6.309 1.319 1.740 1526
6.028 1.260 1.649 8204
6.171 1.290 1.685 7550
5.832 1.219 1.600 4188
6.314 1.320 1.721 2449
6.190 1.294 1.671 7438
6.040 1.263 1.633 7067
5.897 1.233 1.598 2621
6.431 1.344 1.731 2370
6.180 1.292 1.649 5589
6.037 1.262 1.613 4442
6.451 1.348 1.716 4064
5.848 1.222 1.567 1903
6.440 1.346 1.693 5198
6.252 1.307 1.647 4726
6.048 1.264 1.597 3194
5.905 1.234 1.563 1313
6.430 1.344 1.670 7567
6.286 1.314 1.636 4359
6.052 1.265 1.580 1945
6.441 1.346 1.653 6689
6.298 1.316 1.619 2760
6.056 1.266 1.562 964
6.970 1.457 1.778 807
6.446 1.347 1.634 4491
6.242 1.305 1.586 1297
6.967 1.456 1.756 1201
6.488 1.356 1.624 5915
6.979 1.459 1.737 1826
6.344 1.326 1.590 1411
7.145 1.494 1.775 778
6.500 1.359 1.606 6886
6.984 1.460 1.716 3051
7.150 1.495 1.754 1335
6.643 1.389 1.639 1153
6.504 1.359 1.587 4314
6.981 1.459 1.694 2950
7.147 1.494 1.731 1440
7.442 1.556 1.798 1182
6.508 1.360 1.568 3139
7.265 1.519 1.735 1848
7.432 1.553 1.772 1785
6.955 1.454 1.666 1726
7.421 1.551 1.747 2750
6.520 1.363 1.550 2340
7.277 1.521 1.715 1896
7.005 1.464 1.656 1745
7.441 1.555 1.728 4005
7.016 1.467 1.637 2041
7.297 1.525 1.697 1745
6.539 1.367 1.534 1526
7.446 1.556 1.706 5603
7.279 1.521 1.671 1623
7.013 1.466 1.614 1137
7.696 1.609 1.759 1006
7.450 1.557 1.684 5946
7.708 1.611 1.738 1742
7.291 1.524 1.651 1165
7.860 1.643 1.770 841
7.454 1.558 1.662 7372
7.713 1.612 1.715 2340
8.017 1.676 1.778 1459
7.872 1.646 1.748 1254
7.474 1.562 1.643 8767
7.725 1.615 1.694 2291
8.021 1.677 1.754 1957
8.166 1.707 1.783 1496
7.486 1.565 1.622 9279
8.163 1.706 1.757 2166
7.919 1.655 1.709 2017
7.744 1.619 1.674 1915
7.490 1.566 1.600 7831
8.182 1.710 1.736 2644
8.517 1.780 1.802 2234
7.916 1.655 1.684 2189
7.494 1.567 1.578 5612
8.537 1.785 1.780 3323
8.202 1.715 1.715 2536
7.928 1.657 1.662 1665
8.527 1.782 1.751 4446
7.498 1.567 1.556 3726
8.199 1.714 1.689 2538
7.925 1.657 1.637 1542
8.516 1.780 1.723 4570
8.188 1.712 1.662 2684
7.502 1.568 1.534 2284
8.798 1.839 1.776 2093
8.513 1.779 1.697 4295
8.780 1.835 1.746 2328
8.185 1.711 1.636 1792
7.514 1.571 1.513 1210
8.525 1.782 1.673 3844
8.777 1.835 1.718 3314
8.922 1.865 1.745 1464
8.189 1.712 1.612 1227
8.796 1.839 1.695 5263
8.545 1.786 1.650 2736
8.957 1.872 1.724 2419
8.209 1.716 1.590 1167
8.801 1.840 1.669 5698
8.961 1.873 1.697 3397
8.549 1.787 1.625 2126
8.805 1.841 1.643 3655
8.958 1.873 1.669 2855
8.561 1.789 1.601 1605
9.539 1.994 1.769 1131
8.916 1.864 1.635 2913
8.771 1.833 1.610 2030
9.551 1.996 1.742 1703
9.062 1.894 1.659 1441
8.814 1.842 1.591 2974
8.959 1.873 1.615 1502
9.556 1.997 1.714 1366
10.481 2.191 1.867 1184
9.001 1.882 1.594 2068
8.818 1.843 1.565 2005
10.486 2.192 1.836 1769
9.958 2.082 1.750 1110
8.998 1.881 1.566 1959
9.955 2.081 1.719 1915
9.718 2.031 1.681 1307
10.476 2.190 1.802 1277
9.959 2.082 1.690 1827
9.010 1.883 1.541 1195
10.258 2.144 1.736 1191
9.722 2.032 1.653 1044
9.971 2.084 1.661 1329
10.301 2.153 1.712 1034
10.493 2.193 1.741 1033
10.738 2.245 1.779 946
10.313 2.156 1.682 1387
10.497 2.194 1.710 1360
10.742 2.245 1.747 1331
9.976 2.085 1.632 1216
10.578 2.211 1.690 1495
10.962 2.291 1.747 1446
10.732 2.243 1.713 1267
10.279 2.149 1.646 1120
10.982 2.295 1.716 1434
10.575 2.210 1.658 1387
10.728 2.243 1.680 897
10.978 2.295 1.683 1366
11.424 2.388 1.746 1181
11.869 2.481 1.809 902
11.270 2.356 1.724 838
11.474 2.398 1.718 1566
10.960 2.291 1.647 1223
11.275 2.357 1.691 1081
11.635 2.432 1.740 875
11.433 2.390 1.678 1430
12.170 2.544 1.778 1209
11.279 2.358 1.657 1011
12.370 2.586 1.805 878
11.545 2.413 1.658 1661
12.367 2.585 1.767 1357
11.399 2.383 1.639 1211
12.175 2.545 1.741 1174
11.549 2.414 1.624 1875
11.403 2.384 1.605 1125
12.379 2.588 1.731 1002
11.902 2.488 1.670 957
11.553 2.415 1.590 1516
11.907 2.489 1.634 1102
13.276 2.775 1.807 934
11.407 2.384 1.571 881
11.911 2.490 1.599 1105
13.273 2.774 1.766 818
13.023 2.722 1.697 1163
11.907 2.489 1.563 849
13.277 2.775 1.727 819
13.035 2.725 1.659 1349
13.047 2.727 1.621 1031
2.312 0.472 1.791 2196
2.316 0.473 1.784 4393
2.378 0.486 1.819 5315
2.258 0.461 1.732 778
2.358 0.481 1.794 6020
2.362 0.482 1.787 7394
2.367 0.483 1.780 8191
2.372 0.484 1.773 8989
2.493 0.509 1.859 1087
2.376 0.485 1.766 8989
2.530 0.517 1.874 1692
2.400 0.490 1.773 7275
2.535 0.518 1.866 2061
2.418 0.494 1.774 6604
2.546 0.520 1.863 2449
2.296 0.469 1.690 1087
2.422 0.495 1.767 5489
2.545 0.520 1.851 4384
2.517 0.514 1.822 8198
2.395 0.489 1.738 3068
2.535 0.518 1.823 9176
2.412 0.493 1.740 3294
2.546 0.520 1.820 10386
2.423 0.495 1.737 2886
2.551 0.521 1.813 10386
2.428 0.496 1.730 2855
2.674 0.546 1.896 912
2.556 0.522 1.806 8570
2.432 0.497 1.723 2244
2.679 0.547 1.888 1088
2.561 0.523 1.798 6746
2.437 0.498 1.716 1745
2.684 0.548 1.880 1202
2.572 0.525 1.795 7237
2.448 0.500 1.713 2082
2.696 0.550 1.876 1315
2.583 0.527 1.792 7893
2.459 0.502 1.711 2306
2.707 0.553 1.873 1413
2.588 0.528 1.784 8719
2.463 0.503 1.703 1816
2.712 0.554 1.865 1468
2.593 0.529 1.777 9545
2.717 0.555 1.857 1522
2.468 0.504 1.696 1327
2.604 0.532 1.773 7456
2.729 0.557 1.853 1848
2.479 0.506 1.693 1293
2.628 0.537 1.778 5879
2.753 0.562 1.858 1806
2.503 0.511 1.699 1326
2.626 0.536 1.766 5093
2.751 0.562 1.846 3091
2.501 0.511 1.687 851
2.710 0.553 1.808 5291
2.585 0.528 1.730 2224
2.715 0.554 1.801 5698
2.589 0.529 1.722 1666
2.753 0.562 1.813 6278
2.627 0.536 1.735 1742
2.771 0.566 1.813 6238
2.645 0.540 1.736 2085
2.776 0.567 1.805 6332
2.649 0.541 1.728 1827
2.902 0.593 1.883 975
2.787 0.569 1.801 5695
2.914 0.595 1.878 1374
2.660 0.543 1.724 1361
2.805 0.573 1.801 5423
2.932 0.599 1.878 1352
2.658 0.543 1.712 805
2.783 0.568 1.777 4383
2.910 0.594 1.853 3153
2.774 0.567 1.761 4501
2.928 0.598 1.853 4035
2.920 0.596 1.836 4800
2.786 0.569 1.757 3638
2.918 0.596 1.824 5815
2.790 0.570 1.748 2873
2.923 0.597 1.815 5228
2.795 0.571 1.740 2080
2.860 0.584 1.767 5511
2.988 0.610 1.842 967
2.858 0.584 1.755 4888
2.986 0.610 1.829 1280
2.917 0.596 1.778 4547
3.045 0.622 1.851 848
2.922 0.597 1.769 5002
3.050 0.623 1.842 1095
2.940 0.600 1.768 5131
3.069 0.627 1.841 1775
2.951 0.603 1.763 5784
3.080 0.629 1.836 2337
2.976 0.608 1.766 5650
3.106 0.634 1.838 1439
2.847 0.581 1.694 754
3.008 0.614 1.773 7098
3.138 0.641 1.844 1082
2.879 0.588 1.701 755
3.061 0.625 1.790 10289
2.931 0.598 1.719 2789
3.059 0.625 1.777 17044
2.929 0.598 1.706 2164
3.188 0.651 1.848 889
3.056 0.624 1.765 22012
2.926 0.598 1.694 1650
3.187 0.651 1.835 1206
3.068 0.626 1.759 23431
2.937 0.600 1.689 1650
3.198 0.653 1.830 953
3.072 0.627 1.750 25442
3.203 0.654 1.820 1182
2.942 0.601 1.681 1035
3.070 0.627 1.738 25557
3.201 0.654 1.807 1685
2.864 0.585 1.628 797
3.082 0.629 1.732 22496
3.213 0.656 1.801 1326
3.086 0.630 1.723 18744
3.217 0.657 1.792 1167
3.091 0.631 1.714 17979
3.222 0.658 1.783 1086
3.095 0.632 1.705 15744
3.227 0.659 1.773 2359
3.100 0.633 1.696 12782
3.231 0.660 1.764 3713
3.104 0.634 1.687 12055
3.236 0.661 1.754 4874
2.972 0.607 1.620 864
3.109 0.635 1.678 10808
3.241 0.662 1.745 5335
2.976 0.608 1.611 886
3.113 0.636 1.669 7671
3.245 0.663 1.735 6364
3.236 0.661 1.719 9094
3.103 0.634 1.653 5185
3.233 0.660 1.706 10773
3.101 0.633 1.640 3383
3.366 0.687 1.771 1888
3.238 0.661 1.696 11838
3.371 0.688 1.761 5720
3.105 0.634 1.631 1442
3.242 0.662 1.687 11300
3.375 0.689 1.751 8751
3.366 0.687 1.735 12424
3.233 0.660 1.671 6565
3.513 0.717 1.806 914
3.356 0.685 1.718 13337
3.223 0.658 1.654 1334
3.354 0.685 1.705 11517
3.164 0.646 1.615 889
3.365 0.687 1.698 11831
3.161 0.646 1.602 1000
3.499 0.715 1.762 791
3.377 0.690 1.692 12013
3.511 0.717 1.755 1665
3.243 0.662 1.629 1031
3.388 0.692 1.685 11983
3.523 0.719 1.747 2630
3.254 0.665 1.623 1116
3.400 0.694 1.679 11198
3.534 0.722 1.740 2614
3.266 0.667 1.617 974
3.418 0.698 1.675 11250
3.553 0.726 1.736 1646
3.284 0.671 1.614 1016
3.430 0.700 1.668 10126
3.565 0.728 1.729 2019
3.295 0.673 1.607 1008
3.441 0.703 1.661 8100
3.605 0.736 1.735 3777
3.306 0.675 1.601 938
3.503 0.715 1.677 7703
3.638 0.743 1.737 4909
3.780 0.772 1.800 899
3.368 0.688 1.616 796
3.521 0.719 1.673 7515
3.656 0.747 1.732 4006
3.792 0.774 1.792 1343
3.533 0.721 1.665 7498
3.668 0.749 1.725 3775
3.803 0.777 1.784 1627
3.637 0.743 1.699 6643
3.501 0.715 1.640 3857
3.772 0.770 1.758 2685
3.634 0.742 1.685 9007
3.784 0.773 1.750 3952
3.498 0.714 1.626 1573
3.639 0.743 1.674 10104
3.782 0.772 1.735 5188
3.503 0.715 1.616 1257
3.636 0.742 1.660 7503
3.779 0.772 1.721 6082
3.500 0.715 1.603 1003
3.915 0.799 1.779 768
3.805 0.777 1.719 5989
3.640 0.743 1.650 5095
3.504 0.716 1.592 793
3.831 0.782 1.717 6191
3.652 0.746 1.642 5613
3.821 0.780 1.700 7420
3.649 0.745 1.628 6150
3.840 0.784 1.694 12739
3.646 0.744 1.615 5869
4.013 0.819 1.765 1029
3.852 0.787 1.686 17651
3.643 0.744 1.601 4334
4.039 0.825 1.762 1310
3.856 0.787 1.675 14948
3.647 0.745 1.590 2045
4.044 0.826 1.751 1529
3.846 0.785 1.658 10798
4.055 0.828 1.742 2004
3.658 0.747 1.582 1076
3.894 0.795 1.664 9514
4.067 0.831 1.732 2657
3.756 0.767 1.609 804
3.898 0.796 1.652 10616
4.050 0.827 1.712 3773
3.895 0.795 1.638 6334
4.062 0.829 1.703 3814
4.199 0.858 1.757 1127
4.110 0.839 1.708 4319
3.914 0.799 1.632 3274
4.158 0.849 1.712 6515
3.911 0.799 1.618 4266
4.170 0.851 1.703 8446
3.915 0.799 1.606 3888
4.152 0.848 1.682 8434
3.919 0.800 1.595 3089
4.157 0.849 1.670 10519
3.923 0.801 1.583 2283
4.161 0.850 1.658 11602
3.942 0.805 1.577 1011
4.300 0.878 1.709 851
4.173 0.852 1.648 12718
4.311 0.880 1.699 1051
4.177 0.853 1.636 10914
4.316 0.881 1.687 1238
4.181 0.854 1.624 7346
4.320 0.882 1.674 1103
4.193 0.856 1.614 9660
4.332 0.885 1.664 1070
4.197 0.857 1.602 13390
4.336 0.885 1.651 1547
4.230 0.864 1.600 11241
4.641 0.948 1.743 1315
4.257 0.869 1.595 9441
4.631 0.946 1.725 2214
4.268 0.872 1.585 7437
4.621 0.944 1.706 3164
4.415 0.902 1.635 921
4.280 0.874 1.575 6072
4.603 0.940 1.685 3849
4.743 0.969 1.732 1136
4.291 0.876 1.565 6598
4.711 0.962 1.706 3660
4.571 0.933 1.659 2256
4.303 0.879 1.555 10768
4.715 0.963 1.692 5012
4.575 0.934 1.645 1983
4.299 0.878 1.539 7597
4.646 0.949 1.654 6881
4.786 0.977 1.700 1389
4.732 0.966 1.667 8134
4.303 0.879 1.527 3410
4.591 0.938 1.621 1702
4.894 0.999 1.720 1027
4.729 0.966 1.650 10356
4.300 0.878 1.512 3796
4.913 1.003 1.710 2580
4.588 0.937 1.605 1324
4.725 0.965 1.634 10626
4.296 0.877 1.497 3286
4.918 1.004 1.696 2918
4.585 0.936 1.589 1056
4.730 0.966 1.620 9526
4.900 1.001 1.674 3883
4.300 0.878 1.484 1503
4.919 1.005 1.664 7300
4.741 0.968 1.609 6235
5.060 1.033 1.709 854
4.924 1.005 1.650 9271
4.775 0.975 1.604 2587
5.206 1.063 1.737 1109
5.065 1.034 1.694 1078
4.921 1.005 1.633 9139
4.779 0.976 1.590 1838
5.203 1.062 1.720 1391
5.062 1.034 1.676 1153
4.932 1.007 1.621 9034
5.073 1.036 1.664 1513
5.244 1.071 1.716 1341
4.791 0.978 1.578 1175
4.936 1.008 1.606 7963
5.152 1.052 1.671 1743
5.294 1.081 1.714 1216
4.941 1.009 1.592 6468
5.157 1.053 1.656 2575
5.343 1.091 1.711 1384
4.945 1.010 1.577 5126
5.273 1.077 1.674 2518
5.131 1.048 1.632 2086
5.414 1.106 1.715 769
5.299 1.082 1.665 4372
4.949 1.011 1.563 2989
5.135 1.049 1.617 1957
5.441 1.111 1.706 1136
5.304 1.083 1.649 3786
5.498 1.123 1.705 1873
5.162 1.054 1.608 1323
4.953 1.011 1.548 1198
5.271 1.076 1.623 3067
5.502 1.124 1.689 2483
5.582 1.140 1.693 2911
5.275 1.077 1.607 2113
5.439 1.111 1.653 1889
5.993 1.224 1.809 769
5.429 1.109 1.633 2265
5.586 1.141 1.677 2239
5.287 1.080 1.594 1168
5.728 1.170 1.716 1148
5.718 1.168 1.695 2213
5.500 1.123 1.636 2161
6.010 1.227 1.776 1085
5.715 1.167 1.676 2595
5.565 1.136 1.636 2519
5.422 1.107 1.597 1802
5.872 1.199 1.719 1673
5.771 1.179 1.674 3685
5.569 1.137 1.619 2626
6.012 1.228 1.738 2031
5.426 1.108 1.581 1566
5.783 1.181 1.659 5731
5.603 1.144 1.611 2856
6.016 1.229 1.720 2731
5.461 1.115 1.573 1006
5.780 1.180 1.640 4944
6.021 1.229 1.703 4065
5.615 1.147 1.596 2295
6.178 1.262 1.744 1300
5.867 1.198 1.644 6394
6.033 1.232 1.687 6023
6.175 1.261 1.724 3297
5.627 1.149 1.582 841
6.029 1.231 1.667 8222
5.856 1.196 1.623 5595
6.172 1.260 1.704 4464
6.315 1.290 1.740 1563
6.034 1.232 1.649 10214
6.222 1.271 1.697 6551
5.861 1.197 1.605 3346
6.365 1.300 1.733 1310
6.046 1.235 1.633 8219
6.242 1.275 1.682 7589
5.887 1.202 1.594 1973
6.460 1.319 1.737 1395
6.261 1.279 1.667 7113
6.057 1.237 1.617 5580
6.465 1.320 1.717 2742
5.869 1.198 1.571 980
6.265 1.279 1.649 6993
6.462 1.319 1.697 4284
6.054 1.236 1.597 4048
6.270 1.280 1.630 6139
6.451 1.317 1.674 6117
6.051 1.236 1.578 2232
6.964 1.422 1.797 804
6.455 1.318 1.655 6658
6.274 1.281 1.612 4039
6.969 1.423 1.776 1771
6.062 1.238 1.562 1096
6.460 1.319 1.636 5457
6.974 1.424 1.756 2331
6.316 1.290 1.602 2300
6.603 1.348 1.669 807
6.486 1.325 1.622 7149
6.978 1.425 1.735 3329
6.343 1.295 1.589 2448
6.498 1.327 1.604 7540
6.990 1.427 1.716 5362
6.354 1.298 1.572 1128
7.354 1.502 1.799 1024
6.995 1.428 1.696 5335
6.510 1.329 1.587 4728
7.449 1.521 1.798 1650
7.275 1.486 1.758 1271
6.499 1.327 1.564 4113
6.999 1.429 1.675 3339
7.287 1.488 1.739 2145
7.431 1.518 1.770 1592
7.004 1.430 1.654 3596
6.511 1.329 1.547 2557
7.428 1.517 1.747 2415
7.284 1.487 1.715 1956
7.448 1.521 1.728 4440
7.016 1.433 1.635 3770
7.304 1.491 1.697 2016
6.545 1.337 1.534 1265
7.460 1.523 1.708 6411
7.293 1.489 1.672 2075
7.020 1.433 1.614 1935
7.465 1.524 1.686 7135
7.305 1.492 1.652 1432
7.024 1.434 1.594 1178
7.632 1.558 1.720 1003
7.469 1.525 1.663 8615
7.712 1.575 1.713 1390
8.039 1.642 1.781 1318
7.036 1.437 1.574 1072
7.481 1.528 1.643 10746
8.036 1.641 1.755 1860
7.740 1.580 1.695 1683
8.181 1.671 1.785 1246
7.493 1.530 1.622 12253
8.170 1.668 1.757 2085
8.026 1.639 1.729 1792
7.752 1.583 1.674 1565
7.497 1.531 1.600 10542
8.190 1.672 1.736 2746
8.510 1.738 1.799 2327
8.038 1.641 1.706 1649
7.501 1.532 1.578 7670
8.530 1.742 1.777 3176
8.202 1.675 1.713 2553
8.058 1.645 1.685 1603
7.505 1.533 1.556 5253
8.550 1.746 1.754 4432
8.199 1.674 1.688 2396
8.054 1.645 1.660 1227
8.524 1.741 1.723 4242
7.509 1.533 1.534 3318
8.188 1.672 1.661 2403
8.822 1.801 1.779 1873
8.521 1.740 1.697 3411
8.857 1.809 1.758 2305
7.521 1.536 1.513 1836
8.193 1.673 1.636 1573
8.777 1.792 1.717 3129
8.525 1.741 1.671 2642
8.923 1.822 1.743 1329
8.205 1.675 1.613 1181
8.805 1.798 1.695 4416
8.537 1.743 1.648 1972
8.973 1.832 1.725 1882
8.216 1.678 1.590 1132
8.817 1.800 1.670 4939
8.970 1.832 1.697 2579
8.549 1.746 1.624 1564
9.115 1.861 1.722 909
8.814 1.800 1.643 3351
8.967 1.831 1.669 2485
9.556 1.951 1.770 1700
8.554 1.747 1.598 1047
8.818 1.801 1.617 2821
9.560 1.952 1.742 2809
8.963 1.830 1.641 2011
9.912 2.024 1.801 1116
8.822 1.802 1.591 3068
9.565 1.953 1.714 2389
9.006 1.839 1.621 1953
10.108 2.064 1.804 1046
9.010 1.840 1.594 1978
8.826 1.802 1.565 1929
9.592 1.959 1.689 1739
10.090 2.060 1.770 1422
9.597 1.960 1.661 1683
9.014 1.841 1.568 1572
10.079 2.058 1.738 1441
10.256 2.094 1.766 1321
10.268 2.097 1.736 1687
10.736 2.192 1.810 1257
9.593 1.959 1.631 1238
9.977 2.037 1.691 1176
10.295 2.102 1.710 1445
10.510 2.146 1.742 1275
10.740 2.193 1.778 1226
10.035 2.049 1.670 966
10.315 2.106 1.681 1833
10.745 2.194 1.746 1415
10.507 2.146 1.710 1244
10.945 2.235 1.776 1204
10.297 2.103 1.647 1662
10.742 2.194 1.713 1515
10.980 2.242 1.748 1355
10.588 2.162 1.690 1191
10.992 2.245 1.716 1430
10.593 2.163 1.659 1166
10.301 2.103 1.617 1052
10.739 2.193 1.680 1013
10.989 2.244 1.683 1365
11.411 2.330 1.742 1233
11.565 2.362 1.764 1131
11.266 2.300 1.722 916
11.439 2.336 1.712 1407
10.970 2.240 1.647 1144
11.285 2.305 1.691 1082
11.647 2.378 1.740 1031
11.428 2.334 1.676 1428
12.189 2.489 1.779 1428
11.282 2.304 1.656 981
11.651 2.379 1.706 961
11.425 2.333 1.641 1502
12.194 2.490 1.742 1305
12.379 2.528 1.767 1280
11.571 2.363 1.660 1166
11.575 2.364 1.626 1516
11.429 2.334 1.607 1394
12.376 2.527 1.729 1090
11.914 2.433 1.670 1006
11.579 2.365 1.591 1298
12.680 2.589 1.730 1157
11.433 2.335 1.573 1090
11.910 2.432 1.633 966
12.677 2.589 1.692 987
13.763 2.810 1.825 932
11.907 2.431 1.597 845
11.584 2.365 1.557 776
13.768 2.811 1.784 917
13.264 2.709 1.684 910
13.772 2.812 1.743 789
12.732 2.600 1.622 755
2.296 0.454 1.777 2964
2.300 0.455 1.771 5929
2.420 0.479 1.858 1024
2.305 0.456 1.764 5929
2.425 0.480 1.851 2049
2.367 0.468 1.798 5411
2.246 0.444 1.712 758
2.372 0.469 1.791 6563
2.492 0.493 1.878 844
2.376 0.470 1.784 6964
2.497 0.494 1.870 1052
2.387 0.472 1.782 7443
2.509 0.496 1.868 1289
2.392 0.473 1.775 7443
2.514 0.497 1.860 1615
2.403 0.476 1.773 6639
2.525 0.500 1.857 2051
2.414 0.478 1.770 6148
2.536 0.502 1.854 2570
2.419 0.479 1.763 5879
2.541 0.503 1.847 4797
2.527 0.500 1.826 8212
2.404 0.476 1.743 4921
2.538 0.502 1.823 8996
2.415 0.478 1.740 4746
2.543 0.503 1.816 9963
2.420 0.479 1.733 4052
2.666 0.528 1.899 810
2.548 0.504 1.809 9963
2.424 0.480 1.726 3474
2.671 0.529 1.891 1258
2.559 0.506 1.806 8688
2.435 0.482 1.723 2854
2.683 0.531 1.888 1204
2.564 0.507 1.798 7499
2.440 0.483 1.716 2237
2.688 0.532 1.880 1291
2.568 0.508 1.791 8280
2.444 0.484 1.709 1573
2.692 0.533 1.872 1566
2.580 0.510 1.787 9150
2.704 0.535 1.869 1704
2.455 0.486 1.706 914
2.584 0.511 1.780 9583
2.709 0.536 1.861 1814
2.596 0.514 1.777 10387
2.720 0.538 1.857 1582
2.607 0.516 1.773 8466
2.732 0.541 1.853 2106
2.618 0.518 1.770 6776
2.743 0.543 1.849 2554
2.636 0.522 1.770 5767
2.761 0.546 1.850 3290
2.733 0.541 1.821 5422
2.608 0.516 1.742 2361
2.712 0.537 1.796 5178
2.586 0.512 1.718 1235
2.703 0.535 1.780 6242
2.829 0.560 1.858 1317
2.524 0.499 1.669 1110
2.714 0.537 1.776 4985
2.841 0.562 1.854 1596
2.588 0.512 1.699 1034
2.792 0.553 1.813 4720
2.646 0.524 1.724 2649
2.797 0.554 1.805 5830
2.650 0.524 1.716 2082
2.924 0.579 1.882 1139
2.795 0.553 1.793 6987
2.922 0.578 1.870 1980
2.655 0.525 1.708 1514
2.793 0.553 1.781 6024
2.920 0.578 1.857 3285
2.666 0.528 1.705 1028
2.785 0.551 1.765 5355
2.925 0.579 1.849 4276
2.923 0.579 1.836 4909
2.796 0.553 1.761 4045
2.922 0.578 1.824 5695
2.794 0.553 1.748 2609
2.920 0.578 1.811 4916
2.792 0.552 1.736 1799
2.918 0.577 1.799 4291
2.789 0.552 1.724 1086
2.916 0.577 1.786 4931
2.787 0.552 1.712 987
3.044 0.602 1.860 769
2.920 0.578 1.778 5947
2.792 0.552 1.704 818
2.932 0.580 1.773 6378
2.803 0.555 1.700 754
2.937 0.581 1.764 5652
3.066 0.607 1.837 1198
2.955 0.585 1.763 5138
3.084 0.610 1.836 1523
2.973 0.588 1.762 5484
3.103 0.614 1.834 1414
2.991 0.592 1.761 7614
3.121 0.618 1.833 1124
2.989 0.592 1.749 8634
3.119 0.617 1.820 2129
3.055 0.605 1.774 13816
2.925 0.579 1.703 2547
3.186 0.630 1.845 886
3.053 0.604 1.761 19170
2.923 0.578 1.690 1851
3.184 0.630 1.831 1274
3.065 0.606 1.756 20920
2.934 0.581 1.686 1925
3.195 0.632 1.826 983
3.076 0.609 1.750 22622
2.945 0.583 1.681 1029
3.207 0.635 1.820 1021
3.074 0.608 1.738 22220
3.205 0.634 1.807 1245
3.085 0.611 1.732 19181
3.217 0.636 1.801 1586
3.097 0.613 1.727 16475
3.228 0.639 1.796 1816
3.094 0.612 1.714 16723
3.226 0.638 1.783 2286
3.106 0.615 1.709 13753
3.238 0.641 1.777 2409
2.974 0.589 1.641 764
3.166 0.626 1.728 12491
3.298 0.653 1.796 1128
2.999 0.594 1.643 1011
3.170 0.627 1.719 11002
3.303 0.654 1.786 1489
2.990 0.592 1.627 917
3.182 0.630 1.713 6597
3.314 0.656 1.780 1553
3.008 0.595 1.625 1011
3.242 0.642 1.732 6204
3.110 0.615 1.665 3149
3.247 0.642 1.722 8093
3.114 0.616 1.656 1995
3.237 0.641 1.706 10334
3.104 0.614 1.640 1950
3.370 0.667 1.771 1657
3.242 0.641 1.696 12491
3.375 0.668 1.761 4660
3.109 0.615 1.631 1807
3.246 0.642 1.687 12165
3.379 0.669 1.751 7156
3.113 0.616 1.622 1530
3.513 0.695 1.816 801
3.370 0.667 1.735 10499
3.237 0.640 1.671 7407
3.518 0.696 1.806 936
3.361 0.665 1.718 11502
3.227 0.639 1.654 2407
3.365 0.666 1.708 11031
3.231 0.639 1.645 1442
3.370 0.667 1.698 12676
3.158 0.625 1.599 846
3.503 0.693 1.762 762
3.381 0.669 1.692 11751
3.515 0.696 1.755 1352
3.169 0.627 1.593 871
3.385 0.670 1.682 9670
3.520 0.697 1.744 2496
3.397 0.672 1.675 7765
3.531 0.699 1.737 2861
3.408 0.674 1.669 7128
3.543 0.701 1.730 2221
3.477 0.688 1.688 6588
3.612 0.715 1.749 1422
3.342 0.661 1.626 1105
3.488 0.690 1.681 7941
3.623 0.717 1.741 3159
3.353 0.664 1.620 1279
3.500 0.693 1.673 8440
3.635 0.719 1.734 4133
3.770 0.746 1.794 859
3.504 0.693 1.663 6582
3.639 0.720 1.723 4190
3.775 0.747 1.783 1376
3.558 0.704 1.675 6351
3.694 0.731 1.734 1969
3.830 0.758 1.794 1092
3.423 0.677 1.615 763
3.598 0.712 1.680 5804
3.791 0.750 1.764 2360
3.463 0.685 1.621 1600
3.646 0.721 1.688 7328
3.810 0.754 1.759 3028
3.510 0.695 1.629 2166
3.643 0.721 1.674 7453
3.815 0.755 1.748 4185
3.507 0.694 1.616 1830
3.820 0.756 1.736 7148
3.647 0.722 1.663 4924
3.511 0.695 1.606 1170
3.824 0.757 1.725 9272
3.659 0.724 1.656 3764
3.836 0.759 1.717 9453
3.663 0.725 1.645 4183
3.847 0.761 1.709 9216
3.668 0.726 1.634 3958
3.859 0.764 1.700 11758
3.650 0.722 1.615 3429
4.025 0.796 1.768 1101
3.856 0.763 1.686 14820
3.640 0.720 1.598 3094
3.993 0.790 1.742 1881
3.861 0.764 1.675 14381
3.998 0.791 1.730 2296
3.644 0.721 1.587 1853
4.135 0.818 1.786 757
3.865 0.765 1.663 14002
4.003 0.792 1.718 2357
4.140 0.819 1.773 1580
3.648 0.722 1.577 1095
3.906 0.773 1.666 14394
4.116 0.814 1.750 3433
3.645 0.721 1.563 1011
3.917 0.775 1.658 14000
4.070 0.805 1.718 4757
3.649 0.722 1.552 779
3.929 0.777 1.649 10715
4.067 0.805 1.703 4452
4.205 0.832 1.757 1025
3.941 0.780 1.640 7388
4.144 0.820 1.719 3699
3.938 0.779 1.626 7193
4.163 0.824 1.712 4855
4.175 0.826 1.703 6710
3.935 0.779 1.612 6387
4.157 0.823 1.682 8578
3.939 0.779 1.600 4964
4.154 0.822 1.667 10017
3.943 0.780 1.589 3012
4.293 0.850 1.719 839
4.166 0.824 1.658 9047
3.962 0.784 1.582 1121
4.305 0.852 1.709 1042
4.178 0.827 1.648 9177
4.317 0.854 1.699 1208
4.241 0.839 1.657 9981
4.252 0.841 1.648 11757
4.113 0.814 1.598 1125
4.242 0.839 1.630 12334
4.103 0.812 1.580 782
4.410 0.873 1.690 773
4.246 0.840 1.617 13117
4.430 0.877 1.682 1066
4.258 0.843 1.607 15022
4.647 0.920 1.743 1401
4.485 0.888 1.687 966
4.269 0.845 1.597 14094
4.644 0.919 1.727 2841
4.505 0.891 1.679 1076
4.288 0.849 1.590 12795
4.641 0.918 1.711 3600
4.502 0.891 1.663 1438
4.285 0.848 1.575 9057
4.646 0.919 1.697 3916
4.506 0.892 1.650 1434
4.289 0.849 1.562 7993
4.724 0.935 1.709 5495
4.584 0.907 1.661 2657
4.308 0.852 1.555 10210
4.655 0.921 1.670 6973
4.514 0.893 1.623 1146
4.138 0.819 1.498 1032
4.659 0.922 1.656 8470
4.312 0.853 1.542 6153
4.800 0.950 1.703 1271
4.134 0.818 1.483 1177
4.737 0.937 1.667 10606
4.323 0.855 1.532 2661
4.597 0.910 1.621 1478
4.878 0.965 1.713 1112
4.734 0.937 1.650 13653
4.312 0.853 1.514 2896
4.942 0.978 1.717 1925
4.594 0.909 1.605 1254
4.731 0.936 1.634 13574
4.946 0.979 1.703 2219
4.301 0.851 1.497 2200
4.590 0.908 1.589 789
4.736 0.937 1.620 11947
4.928 0.975 1.681 2618
4.305 0.852 1.484 962
4.747 0.939 1.609 8828
4.925 0.975 1.664 5184
5.118 1.013 1.725 762
4.930 0.975 1.650 5953
4.766 0.943 1.599 4893
5.138 1.017 1.714 1045
4.934 0.976 1.635 5526
4.793 0.948 1.592 3639
5.135 1.016 1.697 1215
4.946 0.979 1.623 6303
4.804 0.951 1.580 2530
5.132 1.015 1.680 1470
4.950 0.980 1.609 5676
5.159 1.021 1.671 2234
4.808 0.951 1.566 1055
4.947 0.979 1.592 3991
5.163 1.022 1.656 2901
5.364 1.061 1.716 1169
4.951 0.980 1.577 3446
5.152 1.020 1.636 2521
5.302 1.049 1.680 1999
5.443 1.077 1.722 1048
5.313 1.051 1.667 3592
5.142 1.017 1.617 2682
4.970 0.983 1.567 2361
5.455 1.080 1.708 1071
5.325 1.054 1.653 4122
5.153 1.020 1.604 1841
5.497 1.088 1.703 1417
4.974 0.984 1.552 843
5.315 1.052 1.633 3176
5.561 1.101 1.703 2465
5.172 1.024 1.593 847
5.581 1.104 1.691 3636
5.431 1.075 1.649 2172
5.289 1.047 1.609 1668
6.000 1.187 1.809 852
5.585 1.105 1.675 2908
5.443 1.077 1.635 2014
6.012 1.190 1.793 1438
5.810 1.150 1.737 791
5.680 1.124 1.683 2823
6.017 1.191 1.776 1718
5.537 1.096 1.644 1703
5.822 1.152 1.722 1504
5.684 1.125 1.666 3400
5.827 1.153 1.705 1502
5.999 1.187 1.752 1373
5.541 1.097 1.628 1343
5.779 1.143 1.674 5085
5.636 1.115 1.635 2167
5.959 1.179 1.722 1644
5.426 1.074 1.579 847
5.783 1.144 1.657 6483
5.948 1.177 1.700 2944
5.640 1.116 1.619 2400
5.795 1.147 1.642 6921
5.945 1.176 1.681 3415
5.637 1.115 1.600 1781
6.193 1.226 1.746 754
5.799 1.148 1.624 5526
5.942 1.176 1.661 4230
6.190 1.225 1.726 1742
5.641 1.116 1.584 914
6.037 1.195 1.667 6030
5.811 1.150 1.609 3783
6.233 1.233 1.717 2737
6.041 1.195 1.649 7446
6.245 1.236 1.701 4859
5.807 1.149 1.590 2644
6.388 1.264 1.737 884
6.053 1.198 1.633 6896
6.257 1.238 1.684 6299
5.910 1.169 1.598 1554
6.400 1.266 1.720 1416
6.269 1.240 1.667 6879
6.057 1.199 1.615 6778
6.465 1.279 1.716 2665
6.273 1.241 1.649 6614
6.061 1.199 1.597 5516
6.469 1.280 1.697 4236
6.277 1.242 1.630 5663
6.466 1.280 1.676 4570
6.058 1.199 1.578 2512
6.973 1.380 1.797 1036
6.372 1.261 1.633 6327
6.516 1.289 1.667 3429
6.978 1.381 1.776 2201
6.229 1.233 1.599 1402
6.377 1.262 1.614 6460
6.520 1.290 1.648 4803
6.982 1.382 1.756 2768
6.233 1.233 1.581 1199
6.502 1.287 1.624 5977
6.987 1.383 1.735 4048
6.358 1.258 1.590 3463
6.797 1.345 1.692 1312
6.999 1.385 1.716 6354
6.506 1.287 1.604 5348
6.362 1.259 1.572 1471
6.802 1.346 1.671 1335
7.003 1.386 1.696 6402
6.503 1.287 1.583 4107
7.337 1.452 1.770 1611
7.481 1.480 1.803 1210
7.008 1.387 1.675 4293
6.499 1.286 1.563 4291
7.311 1.447 1.742 2119
7.463 1.477 1.775 1203
7.020 1.389 1.656 4326
6.503 1.287 1.543 2707
7.324 1.449 1.722 2451
7.468 1.478 1.753 1968
7.024 1.390 1.635 4323
7.465 1.477 1.730 3818
7.320 1.449 1.699 2363
6.492 1.285 1.521 1176
7.469 1.478 1.708 5536
7.317 1.448 1.675 2275
7.028 1.391 1.614 2184
7.481 1.480 1.687 6681
7.322 1.449 1.654 1457
7.033 1.392 1.594 1455
7.478 1.480 1.663 7735
7.044 1.394 1.574 1384
8.064 1.596 1.784 986
7.334 1.451 1.634 971
7.498 1.484 1.644 9667
8.046 1.592 1.755 1435
7.353 1.455 1.615 1101
7.841 1.552 1.714 1068
7.502 1.485 1.622 11725
8.043 1.592 1.730 1499
8.188 1.620 1.759 1499
8.493 1.681 1.820 1464
7.506 1.485 1.600 9897
8.513 1.685 1.797 2592
8.193 1.621 1.735 2017
8.048 1.593 1.706 1452
7.510 1.486 1.578 6882
8.525 1.687 1.774 2923
8.212 1.625 1.713 1959
8.068 1.596 1.685 1598
7.515 1.487 1.556 4799
8.561 1.694 1.754 3502
8.217 1.626 1.689 2072
8.072 1.597 1.662 1466
8.565 1.695 1.729 3172
7.519 1.488 1.534 3089
8.206 1.624 1.662 1671
8.863 1.754 1.785 1655
8.868 1.755 1.758 2496
8.608 1.703 1.711 2375
7.530 1.490 1.513 1796
8.356 1.653 1.664 1489
8.865 1.754 1.731 2395
8.505 1.683 1.666 1997
8.360 1.654 1.640 1655
8.651 1.712 1.692 1517
8.839 1.749 1.699 2593
8.525 1.687 1.643 1491
9.099 1.800 1.745 1032
8.364 1.655 1.615 984
8.835 1.748 1.672 2974
9.073 1.795 1.713 1215
8.544 1.691 1.621 1024
9.608 1.901 1.807 775
8.817 1.745 1.642 2331
9.567 1.893 1.770 1739
9.077 1.796 1.686 1550
9.368 1.854 1.736 809
9.572 1.894 1.742 3200
8.829 1.747 1.617 2040
9.074 1.796 1.658 1997
10.108 2.000 1.832 1293
9.584 1.897 1.715 2928
8.841 1.749 1.592 2252
9.025 1.786 1.622 1874
10.113 2.001 1.802 1515
9.612 1.902 1.690 2378
10.110 2.001 1.771 1746
9.021 1.785 1.594 1564
8.852 1.752 1.567 1383
9.608 1.901 1.661 2138
10.099 1.998 1.739 1644
10.276 2.033 1.767 1230
10.752 2.128 1.843 1093
10.749 2.127 1.810 1582
10.288 2.036 1.738 1515
9.613 1.902 1.632 1463
9.996 1.978 1.692 1031
10.753 2.128 1.778 1565
10.308 2.040 1.710 1440
10.546 2.087 1.746 1381
9.625 1.905 1.605 954
10.320 2.042 1.680 1797
10.766 2.130 1.747 1631
10.528 2.083 1.711 1068
11.004 2.178 1.783 1016
10.309 2.040 1.647 1938
10.763 2.130 1.714 1485
11.016 2.180 1.751 1320
10.486 2.075 1.673 1180
10.313 2.041 1.617 1378
11.021 2.181 1.719 1259
11.575 2.290 1.798 1198
11.421 2.260 1.776 1083
11.579 2.291 1.764 1470
11.425 2.261 1.742 1336
11.064 2.189 1.691 1113
10.333 2.045 1.588 837
11.438 2.263 1.710 1369
11.653 2.306 1.739 1230
11.076 2.192 1.660 1035
12.184 2.411 1.813 843
11.427 2.261 1.674 1452
11.665 2.308 1.706 1357
12.204 2.415 1.779 1338
11.088 2.194 1.628 829
11.439 2.264 1.641 1461
12.217 2.417 1.743 1329
11.670 2.309 1.671 1136
12.671 2.507 1.803 975
12.683 2.510 1.767 1535
11.443 2.264 1.607 1397
11.597 2.295 1.627 1292
12.244 2.423 1.710 1234
12.688 2.511 1.729 1783
11.609 2.297 1.593 1119
12.249 2.424 1.674 1117
11.447 2.265 1.573 1096
12.685 2.510 1.691 1595
13.780 2.727 1.825 1137
13.441 2.660 1.784 922
12.253 2.425 1.638 818
12.697 2.513 1.654 1178
13.785 2.728 1.784 1105
13.789 2.729 1.743 861
12.740 2.521 1.621 793
2.291 0.442 1.773 3506
2.296 0.443 1.766 7013
2.416 0.467 1.853 1210
2.301 0.444 1.759 7013
2.421 0.467 1.846 2421
2.375 0.459 1.803 5346
2.255 0.435 1.716 956
2.374 0.458 1.791 6772
2.495 0.482 1.878 973
2.385 0.460 1.789 7592
2.506 0.484 1.875 1222
2.396 0.463 1.787 8745
2.517 0.486 1.872 1408
2.401 0.464 1.780 8745
2.522 0.487 1.865 1716
2.412 0.466 1.777 8337
2.534 0.489 1.862 2171
2.423 0.468 1.774 8273
2.545 0.491 1.859 2383
2.518 0.486 1.829 6144
2.395 0.462 1.745 4290
2.529 0.488 1.826 8242
2.406 0.465 1.743 3404
2.534 0.489 1.819 9086
2.411 0.465 1.736 2729
2.545 0.491 1.816 10027
2.422 0.468 1.733 2480
2.668 0.515 1.899 751
2.550 0.492 1.809 10027
2.427 0.469 1.726 2349
2.673 0.516 1.891 1250
2.561 0.495 1.806 8509
2.438 0.471 1.723 2304
2.685 0.518 1.888 1273
2.566 0.495 1.798 7308
2.442 0.472 1.716 2039
2.690 0.519 1.880 1368
2.571 0.496 1.791 7328
2.447 0.472 1.709 1949
2.695 0.520 1.872 1529
2.576 0.497 1.783 7275
2.700 0.521 1.864 1787
2.451 0.473 1.702 1766
2.593 0.501 1.784 8026
2.718 0.525 1.865 1757
2.449 0.473 1.691 1425
2.605 0.503 1.781 9355
2.729 0.527 1.861 1909
2.453 0.474 1.683 1099
2.609 0.504 1.773 8167
2.734 0.528 1.853 2575
2.484 0.480 1.693 1100
2.614 0.505 1.766 6978
2.739 0.529 1.845 3242
2.489 0.481 1.686 1123
2.645 0.511 1.775 5578
2.771 0.535 1.854 3401
2.520 0.486 1.695 1245
2.742 0.529 1.825 5861
2.617 0.505 1.746 2589
2.674 0.516 1.772 4961
2.800 0.541 1.850 2697
2.528 0.488 1.681 1141
2.706 0.522 1.780 5778
2.533 0.489 1.673 1076
2.832 0.547 1.858 924
2.717 0.525 1.776 4846
2.843 0.549 1.854 1383
2.531 0.489 1.662 962
2.728 0.527 1.773 4158
2.855 0.551 1.850 2050
2.602 0.502 1.695 1061
2.786 0.538 1.797 6089
2.653 0.512 1.716 1420
2.913 0.562 1.874 1412
2.791 0.539 1.789 8297
2.918 0.563 1.866 2008
2.664 0.514 1.712 1012
2.796 0.540 1.781 7426
2.923 0.564 1.857 3002
2.794 0.539 1.769 6580
2.921 0.564 1.845 4179
2.805 0.542 1.765 5485
2.933 0.566 1.840 4243
2.918 0.563 1.820 5145
2.790 0.539 1.744 2974
2.828 0.546 1.756 4573
2.956 0.571 1.831 2680
2.873 0.555 1.771 4739
3.035 0.586 1.865 871
2.891 0.558 1.771 5313
3.033 0.586 1.852 871
2.916 0.563 1.774 5554
2.787 0.538 1.700 930
2.928 0.565 1.769 5683
2.799 0.540 1.696 881
2.932 0.566 1.761 4850
2.896 0.559 1.729 4160
3.026 0.584 1.802 1397
2.948 0.569 1.747 5139
3.078 0.594 1.819 1491
2.980 0.575 1.754 7714
3.110 0.601 1.825 1454
2.851 0.550 1.682 781
2.985 0.576 1.745 9067
3.115 0.601 1.816 2889
3.044 0.588 1.766 11056
2.914 0.563 1.695 2384
3.175 0.613 1.837 893
3.056 0.590 1.761 15572
2.926 0.565 1.690 2697
3.186 0.615 1.831 1002
3.067 0.592 1.756 16836
2.937 0.567 1.686 2688
3.198 0.617 1.826 900
3.079 0.594 1.750 17928
2.948 0.569 1.681 1316
3.210 0.620 1.820 899
3.077 0.594 1.738 17200
3.222 0.622 1.814 974
3.088 0.596 1.732 14311
3.219 0.622 1.801 1523
3.093 0.597 1.723 11355
3.224 0.623 1.792 2079
3.097 0.598 1.714 11270
3.229 0.623 1.783 2437
3.102 0.599 1.705 9309
3.234 0.624 1.773 2837
3.176 0.613 1.732 10511
3.308 0.639 1.799 1110
2.995 0.578 1.639 800
3.173 0.613 1.719 10414
3.306 0.638 1.786 1793
2.992 0.578 1.627 929
3.185 0.615 1.713 7269
3.317 0.640 1.780 1955
3.004 0.580 1.622 1059
3.245 0.627 1.732 5661
3.113 0.601 1.665 3230
3.257 0.629 1.726 6982
3.124 0.603 1.660 2688
3.390 0.654 1.791 762
3.233 0.624 1.702 8996
3.366 0.650 1.768 2594
3.100 0.599 1.637 1107
3.238 0.625 1.693 11882
3.371 0.651 1.758 4573
3.105 0.599 1.628 1151
3.242 0.626 1.683 11628
3.376 0.652 1.748 5857
3.109 0.600 1.619 1347
3.366 0.650 1.731 7993
3.233 0.624 1.667 7143
3.528 0.681 1.809 919
3.364 0.649 1.718 8990
3.230 0.624 1.654 2809
3.547 0.685 1.806 970
3.368 0.650 1.708 9082
3.234 0.624 1.645 1555
3.537 0.683 1.788 981
3.380 0.653 1.702 10476
3.246 0.627 1.639 993
3.556 0.687 1.785 935
3.384 0.653 1.692 9197
3.561 0.688 1.774 969
3.396 0.656 1.685 6553
3.530 0.682 1.747 1544
3.471 0.670 1.708 5954
3.336 0.644 1.646 1752
3.490 0.674 1.704 6951
3.355 0.648 1.643 2290
3.487 0.673 1.691 6831
3.352 0.647 1.630 1659
3.622 0.699 1.752 954
3.484 0.673 1.677 8026
3.619 0.699 1.738 2524
3.349 0.647 1.617 962
3.496 0.675 1.670 7847
3.631 0.701 1.731 2836
3.507 0.677 1.663 5348
3.643 0.703 1.723 2329
3.778 0.729 1.783 1007
3.583 0.692 1.684 5730
3.783 0.730 1.772 1584
3.447 0.666 1.625 891
3.595 0.694 1.677 5999
3.823 0.738 1.776 2493
3.459 0.668 1.618 1146
3.656 0.706 1.691 5309
3.835 0.740 1.768 3500
3.520 0.680 1.632 2758
3.833 0.740 1.754 5737
3.646 0.704 1.674 4599
3.510 0.678 1.616 1688
3.823 0.738 1.736 10436
3.651 0.705 1.663 3098
3.514 0.679 1.606 928
3.828 0.739 1.725 13374
3.669 0.708 1.659 2148
4.022 0.776 1.807 751
3.839 0.741 1.717 13611
3.674 0.709 1.648 2230
3.976 0.768 1.774 967
3.858 0.745 1.712 12683
3.664 0.707 1.631 2399
3.995 0.771 1.768 815
3.892 0.751 1.712 13613
3.654 0.705 1.615 2144
4.036 0.779 1.771 840
3.896 0.752 1.701 14219
3.643 0.703 1.598 1852
4.033 0.779 1.757 1689
3.893 0.752 1.686 14028
4.038 0.780 1.745 2730
3.640 0.703 1.584 1254
3.905 0.754 1.678 16670
4.050 0.782 1.736 2926
3.767 0.727 1.623 1302
3.630 0.701 1.568 816
3.924 0.758 1.672 17834
4.112 0.794 1.747 3577
3.786 0.731 1.618 1293
3.641 0.703 1.560 1023
3.921 0.757 1.658 17628
4.102 0.792 1.729 5220
3.653 0.705 1.552 1016
3.933 0.759 1.649 15871
4.114 0.794 1.720 4296
3.944 0.762 1.640 11386
4.148 0.801 1.719 3776
3.941 0.761 1.626 9921
4.138 0.799 1.701 4162
3.945 0.762 1.615 7849
4.120 0.796 1.681 5267
4.146 0.801 1.677 6536
3.942 0.761 1.600 5707
4.151 0.801 1.665 7082
3.954 0.763 1.591 3377
4.290 0.828 1.716 1074
4.163 0.804 1.655 6302
4.301 0.830 1.707 1539
3.958 0.764 1.580 1273
4.167 0.805 1.643 7549
4.306 0.831 1.694 1773
4.244 0.819 1.657 13895
4.105 0.793 1.607 1192
4.241 0.819 1.642 16072
4.469 0.863 1.724 939
4.102 0.792 1.592 814
4.253 0.821 1.632 15861
4.451 0.859 1.703 1027
4.114 0.794 1.583 841
4.265 0.823 1.623 18141
4.463 0.862 1.692 1430
4.125 0.796 1.573 997
4.269 0.824 1.610 19927
4.489 0.867 1.687 1731
4.644 0.897 1.741 1339
4.129 0.797 1.561 861
4.273 0.825 1.597 20026
4.641 0.896 1.725 2752
4.501 0.869 1.676 1553
4.285 0.827 1.587 18301
4.653 0.898 1.714 3598
4.513 0.871 1.666 2645
4.281 0.827 1.572 13184
4.672 0.902 1.705 4353
4.532 0.875 1.657 3156
4.285 0.827 1.560 10709
4.669 0.902 1.689 6163
4.529 0.874 1.642 1894
4.130 0.797 1.508 996
4.297 0.830 1.550 10500
4.652 0.898 1.668 8647
4.134 0.798 1.496 1753
4.792 0.925 1.714 1085
4.656 0.899 1.654 8984
4.308 0.832 1.539 5756
4.131 0.798 1.481 2181
4.796 0.926 1.700 1491
4.727 0.913 1.662 9091
4.135 0.798 1.469 1993
4.312 0.833 1.527 1918
4.586 0.885 1.616 1420
4.739 0.915 1.650 12084
4.316 0.833 1.514 1749
4.138 0.799 1.457 1538
4.954 0.956 1.720 1264
4.736 0.914 1.634 12125
4.936 0.953 1.698 1937
4.135 0.798 1.442 953
4.313 0.833 1.499 928
4.740 0.915 1.620 10801
4.933 0.952 1.681 2435
4.759 0.919 1.611 8737
4.930 0.952 1.664 3427
4.808 0.928 1.611 5490
4.949 0.956 1.654 2976
5.090 0.983 1.698 797
4.834 0.933 1.603 6478
4.976 0.961 1.647 2944
5.154 0.995 1.702 986
4.838 0.934 1.589 5040
4.980 0.962 1.632 3611
5.122 0.989 1.675 1392
4.992 0.964 1.620 3099
4.843 0.935 1.575 2349
5.148 0.994 1.667 1791
5.305 1.024 1.714 913
5.011 0.967 1.609 2449
5.160 0.996 1.654 1957
5.317 1.027 1.700 1735
4.854 0.937 1.563 1555
5.306 1.025 1.680 3132
5.164 0.997 1.639 2163
5.000 0.965 1.590 1893
4.858 0.938 1.549 1163
5.311 1.025 1.665 5203
5.169 0.998 1.623 2422
5.004 0.966 1.576 1778
5.453 1.053 1.706 860
5.323 1.028 1.651 5553
5.158 0.996 1.604 1616
5.465 1.055 1.692 1444
5.016 0.968 1.563 889
5.319 1.027 1.633 4086
5.566 1.075 1.703 2575
5.177 1.000 1.593 852
5.578 1.077 1.689 3430
5.324 1.028 1.618 2620
5.628 1.087 1.685 3024
5.440 1.050 1.633 2507
6.010 1.160 1.791 1298
5.298 1.023 1.594 1041
5.677 1.096 1.681 3923
5.535 1.069 1.642 1947
6.023 1.163 1.776 1720
5.392 1.041 1.603 1107
5.674 1.096 1.662 4676
5.817 1.123 1.701 1841
6.012 1.161 1.754 1610
5.531 1.068 1.623 1369
5.784 1.117 1.674 6474
5.927 1.144 1.712 3545
5.641 1.089 1.635 3374
6.069 1.172 1.750 785
5.803 1.120 1.661 8347
5.946 1.148 1.698 6769
5.660 1.093 1.623 4086
6.089 1.176 1.736 862
5.936 1.146 1.677 9382
5.792 1.118 1.640 8516
5.649 1.091 1.602 2053
6.079 1.174 1.714 1308
5.940 1.147 1.659 11605
5.797 1.119 1.622 7261
6.083 1.174 1.696 1600
5.654 1.092 1.585 831
5.952 1.149 1.644 12740
5.809 1.121 1.607 5197
6.201 1.197 1.707 2024
6.359 1.228 1.748 917
5.949 1.149 1.624 8579
5.805 1.121 1.588 3570
6.092 1.176 1.661 3226
6.243 1.205 1.699 2396
6.051 1.168 1.631 6905
6.270 1.211 1.686 3165
5.907 1.141 1.596 1708
6.413 1.238 1.722 1536
6.063 1.171 1.615 7913
6.357 1.227 1.688 4454
6.501 1.255 1.723 1635
6.214 1.200 1.652 1469
