2.419 0.535 1.802 7755
2.298 0.508 1.717 1416
2.540 0.562 1.887 941
2.424 0.536 1.795 6107
2.545 0.563 1.880 1021
2.303 0.509 1.710 896
2.461 0.544 1.810 4685
2.339 0.517 1.726 1292
2.408 0.532 1.763 3527
2.529 0.559 1.847 2375
2.509 0.555 1.822 2675
2.387 0.528 1.738 1946
2.631 0.582 1.906 761
2.520 0.557 1.819 2889
2.398 0.530 1.736 2165
2.531 0.560 1.816 3166
2.409 0.533 1.733 2455
2.536 0.561 1.809 3166
2.413 0.534 1.726 2228
2.515 0.556 1.784 4039
2.638 0.583 1.866 1276
2.392 0.529 1.702 907
2.513 0.556 1.772 5360
2.636 0.583 1.854 1586
2.390 0.529 1.690 821
2.511 0.555 1.761 5781
2.634 0.583 1.842 1742
2.516 0.556 1.753 6178
2.639 0.584 1.834 1805
2.605 0.576 1.801 4756
2.481 0.549 1.720 2593
2.729 0.604 1.882 1429
2.623 0.580 1.802 6151
2.499 0.553 1.722 2476
2.747 0.608 1.882 1605
2.673 0.591 1.824 5441
2.523 0.558 1.727 1907
2.685 0.594 1.820 5654
2.560 0.566 1.740 954
2.722 0.602 1.833 5046
2.597 0.574 1.754 2319
2.734 0.605 1.829 6217
2.609 0.577 1.750 1496
2.739 0.606 1.821 7263
2.613 0.578 1.743 1146
2.750 0.608 1.817 8494
2.624 0.580 1.739 969
2.755 0.609 1.809 7912
2.629 0.581 1.731 1056
2.766 0.612 1.805 7386
2.640 0.584 1.728 1254
2.784 0.616 1.805 5061
2.658 0.588 1.728 1009
2.802 0.620 1.805 4086
2.820 0.624 1.805 5010
2.832 0.626 1.801 6308
2.705 0.598 1.725 866
2.850 0.630 1.800 6962
2.723 0.602 1.725 974
2.861 0.633 1.796 8031
2.734 0.605 1.721 922
2.859 0.632 1.784 7634
2.732 0.604 1.709 776
2.844 0.629 1.763 8857
2.971 0.657 1.838 1450
2.848 0.630 1.755 9412
2.976 0.658 1.829 1556
2.860 0.632 1.751 7805
2.988 0.661 1.824 1891
2.871 0.635 1.746 7109
3.013 0.666 1.827 2594
2.963 0.655 1.787 5548
2.835 0.627 1.715 2256
3.092 0.684 1.860 779
2.975 0.658 1.783 7087
2.846 0.629 1.710 1981
3.104 0.686 1.855 915
2.980 0.659 1.774 7026
2.851 0.630 1.702 1753
3.108 0.688 1.846 1229
2.998 0.663 1.773 7048
2.869 0.634 1.701 2290
3.127 0.692 1.844 1144
3.043 0.673 1.786 7705
2.914 0.644 1.715 4813
3.055 0.676 1.781 9792
2.925 0.647 1.710 3922
3.066 0.678 1.776 11273
2.937 0.649 1.705 3489
3.064 0.678 1.763 9933
2.934 0.649 1.693 1828
3.062 0.677 1.750 9991
3.066 0.678 1.741 10846
3.078 0.681 1.736 10155
3.208 0.710 1.805 913
3.089 0.683 1.731 7712
3.220 0.712 1.799 1244
3.087 0.683 1.718 5780
3.218 0.712 1.786 2004
3.147 0.696 1.737 5887
3.016 0.667 1.670 929
3.151 0.697 1.728 6290
3.156 0.698 1.719 5579
3.287 0.727 1.786 856
3.223 0.713 1.741 9557
3.091 0.684 1.675 2209
3.227 0.714 1.732 18905
3.095 0.685 1.665 2616
3.232 0.715 1.722 24890
3.100 0.686 1.656 2409
3.243 0.717 1.716 26887
3.111 0.688 1.651 2327
3.255 0.720 1.710 24157
3.122 0.691 1.645 1870
3.387 0.749 1.775 1561
3.266 0.722 1.704 22894
3.399 0.752 1.768 2267
3.126 0.691 1.636 1915
3.270 0.723 1.694 23120
3.403 0.753 1.758 2906
3.138 0.694 1.630 1801
3.536 0.782 1.823 778
3.261 0.721 1.678 22292
3.394 0.751 1.742 3869
3.128 0.692 1.614 1322
3.265 0.722 1.668 21314
3.398 0.752 1.732 2972
3.132 0.693 1.605 1930
3.277 0.725 1.662 21601
3.410 0.754 1.725 4476
3.143 0.695 1.599 2828
3.281 0.726 1.652 17164
3.414 0.755 1.715 6035
3.147 0.696 1.590 3197
3.278 0.725 1.639 11198
3.412 0.755 1.702 6230
3.144 0.695 1.577 3227
3.546 0.784 1.764 1050
3.282 0.726 1.630 7458
3.452 0.763 1.708 4207
3.149 0.696 1.568 2296
3.585 0.793 1.770 809
3.294 0.728 1.623 5741
3.491 0.772 1.714 3940
3.153 0.697 1.559 1177
3.503 0.775 1.707 5982
3.298 0.729 1.614 4003
3.521 0.779 1.703 7883
3.387 0.749 1.642 3282
3.533 0.781 1.696 7750
3.398 0.752 1.635 3513
3.668 0.811 1.756 759
3.545 0.784 1.688 7550
3.410 0.754 1.629 1801
3.708 0.820 1.761 880
3.549 0.785 1.678 8092
3.684 0.815 1.737 1033
3.546 0.784 1.664 8840
3.681 0.814 1.723 1378
3.816 0.844 1.782 870
3.543 0.784 1.651 9166
3.707 0.820 1.722 2250
3.842 0.850 1.780 1260
3.555 0.786 1.643 7528
3.719 0.822 1.714 4121
3.854 0.852 1.772 2046
3.609 0.798 1.654 9130
3.745 0.828 1.712 4381
3.880 0.858 1.770 1572
3.606 0.798 1.641 8804
3.742 0.828 1.698 5061
3.878 0.858 1.755 2246
3.618 0.800 1.633 6288
3.754 0.830 1.690 5451
3.889 0.860 1.747 2224
3.837 0.849 1.712 6036
3.629 0.803 1.625 5893
3.834 0.848 1.697 10369
3.698 0.818 1.641 6648
3.562 0.788 1.585 1849
4.042 0.894 1.783 773
3.853 0.852 1.692 12703
3.716 0.822 1.636 9560
4.047 0.895 1.771 1599
3.580 0.792 1.580 1226
3.864 0.855 1.684 11830
3.728 0.824 1.628 9775
4.037 0.893 1.753 2235
3.591 0.794 1.573 1323
3.876 0.857 1.675 9982
3.739 0.827 1.620 6570
4.027 0.891 1.736 2619
3.603 0.797 1.565 1053
3.873 0.857 1.661 7675
3.736 0.826 1.606 3093
4.024 0.890 1.721 2228
3.863 0.854 1.644 5396
4.065 0.899 1.723 2787
3.726 0.824 1.589 1461
4.069 0.900 1.711 5872
3.860 0.854 1.629 3058
3.723 0.823 1.576 930
4.059 0.898 1.694 6634
3.864 0.855 1.618 2234
4.197 0.928 1.747 967
4.057 0.897 1.679 5273
3.876 0.857 1.609 2460
4.194 0.928 1.732 1825
4.083 0.903 1.675 5169
3.880 0.858 1.598 3039
4.220 0.933 1.728 1905
4.102 0.907 1.669 6904
3.884 0.859 1.586 2204
4.239 0.938 1.721 996
4.121 0.911 1.662 8273
3.888 0.860 1.575 1084
4.139 0.916 1.655 8207
4.307 0.952 1.717 1122
4.173 0.923 1.654 8088
4.311 0.953 1.705 1263
4.206 0.930 1.652 8969
4.345 0.961 1.702 1481
4.068 0.900 1.602 933
4.218 0.933 1.642 8920
4.356 0.963 1.692 2025
4.079 0.902 1.592 814
4.251 0.940 1.640 8529
4.390 0.971 1.690 1733
4.113 0.910 1.591 1709
4.248 0.940 1.625 6910
4.409 0.975 1.682 1935
4.548 1.006 1.731 999
4.109 0.909 1.576 801
4.179 0.924 1.587 5444
4.318 0.955 1.636 2660
4.538 1.004 1.713 2193
4.308 0.953 1.618 4320
4.169 0.922 1.569 3505
4.542 1.005 1.699 2474
4.319 0.955 1.608 5347
4.568 1.010 1.693 2099
4.180 0.925 1.560 1897
4.309 0.953 1.590 4407
4.588 1.015 1.685 3124
4.448 0.984 1.637 2120
4.170 0.922 1.542 943
4.533 1.003 1.652 6249
4.269 0.944 1.562 3296
4.673 1.033 1.699 1522
4.538 1.004 1.638 10387
4.677 1.034 1.685 1960
4.273 0.945 1.550 1947
4.549 1.006 1.627 10689
4.733 1.047 1.688 1898
4.284 0.948 1.539 1342
4.902 1.084 1.744 779
4.568 1.010 1.619 8417
4.737 1.048 1.674 3402
4.899 1.084 1.727 1412
4.288 0.948 1.527 1138
4.572 1.011 1.605 5181
4.712 1.042 1.650 4665
4.896 1.083 1.710 1774
4.717 1.043 1.636 4565
4.576 1.012 1.591 3385
4.871 1.077 1.686 3067
5.012 1.108 1.731 1314
4.883 1.080 1.674 5273
4.736 1.047 1.627 5118
4.558 1.008 1.571 2522
4.330 0.958 1.498 904
4.725 1.045 1.609 4836
4.895 1.083 1.662 4618
4.548 1.006 1.553 1797
4.326 0.957 1.483 1388
4.714 1.043 1.590 4036
4.899 1.084 1.648 2661
4.330 0.958 1.470 1547
5.062 1.120 1.698 1329
4.726 1.045 1.578 3237
4.926 1.089 1.640 2608
4.334 0.958 1.457 2116
5.074 1.122 1.686 2066
4.930 1.090 1.625 2983
4.330 0.958 1.442 2779
4.730 1.046 1.564 2291
5.086 1.125 1.673 1625
4.341 0.960 1.432 3228
5.038 1.114 1.642 2038
4.897 1.083 1.600 1594
5.209 1.152 1.694 1431
5.042 1.115 1.627 2817
4.345 0.961 1.419 2724
5.376 1.189 1.727 1787
5.213 1.153 1.678 1593
5.373 1.188 1.709 2779
5.099 1.128 1.628 2358
4.348 0.962 1.406 2045
4.957 1.096 1.586 1028
5.393 1.193 1.697 3414
5.110 1.130 1.615 1621
4.359 0.964 1.396 1483
5.251 1.161 1.656 1203
5.397 1.194 1.681 5409
5.233 1.157 1.634 1000
5.394 1.193 1.663 7220
5.223 1.155 1.614 1017
5.406 1.196 1.649 8699
5.403 1.195 1.631 10505
5.544 1.226 1.671 1245
5.708 1.263 1.716 997
5.414 1.197 1.617 10668
5.720 1.265 1.702 1418
5.556 1.229 1.656 1106
5.426 1.200 1.603 14351
5.613 1.241 1.654 2103
5.777 1.278 1.699 1905
5.430 1.201 1.587 14235
5.774 1.277 1.680 3772
5.587 1.236 1.629 2443
5.916 1.308 1.718 1278
5.427 1.200 1.569 9351
5.771 1.276 1.661 5307
5.599 1.238 1.615 2326
5.913 1.308 1.698 1355
5.438 1.203 1.555 5178
5.775 1.277 1.643 3970
5.917 1.309 1.681 2895
5.633 1.246 1.606 2789
5.892 1.303 1.656 6429
5.630 1.245 1.587 2810
5.442 1.204 1.539 2493
6.154 1.361 1.724 1181
5.889 1.302 1.636 8338
6.196 1.370 1.715 2948
5.611 1.241 1.565 2929
5.446 1.205 1.523 1810
5.885 1.302 1.617 6742
6.193 1.370 1.695 4766
5.608 1.240 1.546 2806
5.450 1.205 1.507 1253
6.175 1.366 1.671 5395
5.897 1.304 1.601 3739
6.318 1.397 1.707 2064
5.612 1.241 1.530 1517
6.179 1.367 1.652 5461
6.322 1.398 1.688 3529
5.894 1.304 1.582 2712
5.465 1.209 1.476 1103
6.304 1.394 1.664 4203
6.161 1.363 1.629 2968
5.905 1.306 1.566 1670
6.447 1.426 1.698 1524
6.368 1.409 1.659 4632
6.225 1.377 1.625 2211
6.511 1.440 1.694 1238
5.465 1.209 1.442 1145
6.403 1.416 1.648 5920
6.260 1.384 1.614 2192
5.462 1.208 1.424 1042
6.407 1.417 1.629 6273
7.123 1.575 1.796 1084
6.724 1.487 1.703 1023
6.196 1.370 1.579 1002
6.411 1.418 1.610 6101
7.113 1.573 1.772 1685
6.736 1.490 1.685 1536
6.555 1.450 1.643 1328
6.423 1.421 1.592 6668
6.944 1.536 1.711 1887
7.125 1.576 1.752 1832
6.725 1.487 1.661 1461
6.427 1.422 1.573 4116
7.137 1.578 1.733 2639
6.956 1.538 1.692 2550
6.744 1.492 1.645 1298
7.156 1.583 1.715 3281
6.439 1.424 1.556 2757
6.960 1.539 1.672 2589
6.756 1.494 1.626 1459
7.161 1.584 1.694 2531
6.443 1.425 1.537 2495
6.964 1.540 1.651 2046
6.753 1.494 1.605 1265
7.143 1.580 1.668 1971
6.447 1.426 1.518 1595
6.961 1.540 1.629 1509
7.453 1.648 1.735 1181
7.162 1.584 1.650 1652
7.427 1.643 1.706 1463
7.571 1.674 1.737 1226
6.965 1.541 1.608 1144
7.553 1.670 1.709 1917
7.409 1.639 1.679 1126
7.166 1.585 1.628 944
7.840 1.734 1.770 930
7.565 1.673 1.688 1884
7.709 1.705 1.718 1468
7.853 1.737 1.748 1377
7.997 1.769 1.778 936
7.705 1.704 1.694 2737
7.865 1.739 1.726 2091
7.561 1.672 1.664 1710
8.009 1.771 1.755 1008
7.710 1.705 1.671 2426
7.877 1.742 1.704 1783
8.021 1.774 1.733 1524
7.566 1.673 1.642 1464
8.025 1.775 1.709 2054
8.375 1.852 1.778 1670
7.593 1.679 1.624 1222
7.881 1.743 1.681 1185
8.387 1.855 1.755 2218
8.030 1.776 1.685 1486
7.886 1.744 1.657 1164
8.843 1.956 1.843 974
8.414 1.861 1.734 2193
8.847 1.957 1.817 1528
7.920 1.752 1.640 1061
8.125 1.797 1.679 967
8.852 1.958 1.790 2713
8.472 1.874 1.719 2537
7.925 1.753 1.616 1165
8.236 1.822 1.675 1012
8.849 1.957 1.763 3619
8.476 1.875 1.694 1678
8.705 1.925 1.736 1154
8.256 1.826 1.653 932
8.846 1.957 1.735 2982
8.428 1.864 1.659 1256
8.572 1.896 1.685 1216
8.991 1.989 1.761 1113
8.904 1.969 1.718 3333
8.424 1.863 1.633 1101
8.759 1.937 1.692 1030
9.285 2.054 1.786 895
8.908 1.970 1.692 4085
9.609 2.125 1.815 1147
8.764 1.938 1.666 958
8.421 1.862 1.606 814
8.928 1.975 1.668 4129
9.683 2.142 1.798 1133
8.910 1.971 1.637 3225
9.680 2.141 1.768 1892
8.891 1.966 1.607 2717
9.677 2.140 1.738 1984
9.852 2.179 1.767 1056
9.326 2.063 1.679 912
8.910 1.971 1.583 2083
9.681 2.141 1.709 1914
10.200 2.256 1.794 1150
9.330 2.064 1.652 1085
8.945 1.978 1.562 2198
9.686 2.142 1.680 1875
10.236 2.264 1.768 983
9.854 2.179 1.707 943
8.957 1.981 1.536 1512
9.866 2.182 1.679 1217
9.682 2.141 1.650 1192
10.492 2.321 1.777 1015
10.497 2.322 1.746 1272
9.878 2.185 1.651 1166
10.933 2.418 1.813 966
10.757 2.379 1.786 751
10.502 2.323 1.715 1720
10.960 2.424 1.784 1367
9.859 2.181 1.618 953
10.754 2.378 1.753 905
10.950 2.422 1.749 1531
10.498 2.322 1.682 1430
10.353 2.290 1.661 976
9.871 2.183 1.590 925
10.931 2.418 1.713 1292
10.503 2.323 1.651 1157
9.890 2.187 1.563 890
10.778 2.384 1.691 783
11.028 2.439 1.694 1148
10.515 2.326 1.621 1119
11.472 2.537 1.757 1108
11.227 2.483 1.722 955
11.476 2.538 1.722 1684
10.932 2.418 1.647 1129
11.323 2.504 1.701 1008
11.744 2.598 1.760 937
11.473 2.538 1.687 1498
11.772 2.604 1.728 987
10.944 2.421 1.616 946
11.327 2.505 1.667 912
10.987 2.430 1.588 971
11.431 2.528 1.647 951
11.769 2.603 1.692 908
11.577 2.561 1.666 863
11.566 2.558 1.630 1220
11.420 2.526 1.611 1082
11.896 2.631 1.673 995
10.983 2.429 1.554 899
11.908 2.634 1.638 1235
12.383 2.739 1.698 1168
11.570 2.559 1.595 1012
12.951 2.864 1.770 994
11.912 2.635 1.603 1325
12.956 2.865 1.731 1107
12.380 2.738 1.660 1061
12.687 2.806 1.698 784
11.924 2.637 1.568 1299
13.014 2.878 1.699 1004
12.684 2.805 1.660 880
12.384 2.739 1.624 753
13.018 2.879 1.661 948
11.928 2.638 1.533 930
13.015 2.879 1.621 858
2.281 0.494 1.773 2751
2.285 0.495 1.766 5503
2.405 0.521 1.853 1107
2.290 0.496 1.759 5503
2.410 0.522 1.846 2215
2.320 0.503 1.771 5332
2.447 0.530 1.862 1452
2.318 0.502 1.760 5407
2.439 0.528 1.846 1648
2.406 0.521 1.812 5040
2.285 0.495 1.726 2227
2.410 0.522 1.805 6328
2.289 0.496 1.719 1361
2.531 0.548 1.890 872
2.415 0.523 1.797 6328
2.294 0.497 1.712 1361
2.536 0.549 1.883 1357
2.413 0.523 1.786 5316
2.535 0.549 1.871 1858
2.405 0.521 1.770 5067
2.527 0.547 1.854 2632
2.404 0.521 1.759 4601
2.525 0.547 1.843 2580
2.402 0.520 1.747 4357
2.524 0.547 1.831 2562
2.413 0.523 1.744 4027
2.535 0.549 1.828 2676
2.430 0.526 1.746 4137
2.566 0.556 1.838 3127
2.435 0.527 1.739 3667
2.571 0.557 1.830 3127
2.536 0.549 1.797 3908
2.413 0.523 1.715 2009
2.660 0.576 1.879 781
2.535 0.549 1.785 4934
2.411 0.522 1.703 1757
2.678 0.580 1.880 828
2.546 0.551 1.782 5023
2.422 0.525 1.701 1704
2.669 0.578 1.864 1617
2.590 0.561 1.800 6402
2.466 0.534 1.719 2633
2.713 0.588 1.881 978
2.601 0.563 1.797 6700
2.477 0.537 1.716 2160
2.725 0.590 1.878 1529
2.612 0.566 1.793 7281
2.736 0.593 1.874 1939
2.488 0.539 1.713 1579
2.610 0.565 1.782 5941
2.735 0.592 1.862 2541
2.486 0.538 1.702 1064
2.687 0.582 1.820 4825
2.497 0.541 1.699 783
2.731 0.592 1.837 4175
2.607 0.565 1.758 3031
2.743 0.594 1.833 5232
2.618 0.567 1.754 2260
2.748 0.595 1.825 6422
2.622 0.568 1.747 1674
2.753 0.596 1.817 7612
2.627 0.569 1.739 1087
2.757 0.597 1.809 6879
2.631 0.570 1.731 1038
2.769 0.600 1.805 6217
2.643 0.572 1.728 1172
2.800 0.607 1.813 4917
2.674 0.579 1.736 1531
2.825 0.612 1.817 5231
2.698 0.584 1.741 1755
2.830 0.613 1.809 5841
2.703 0.585 1.733 1377
2.841 0.615 1.805 6455
2.714 0.588 1.729 1220
2.852 0.618 1.800 6453
2.725 0.590 1.725 1260
2.871 0.622 1.800 7148
2.743 0.594 1.725 1332
2.842 0.616 1.772 7548
2.969 0.643 1.846 1036
2.846 0.617 1.763 9258
2.974 0.644 1.838 1110
2.851 0.618 1.755 8929
2.979 0.645 1.829 1318
2.689 0.583 1.662 780
2.856 0.619 1.747 6896
2.984 0.646 1.820 2326
2.874 0.622 1.746 5951
3.009 0.652 1.823 3345
2.745 0.595 1.673 874
3.014 0.653 1.814 5556
2.885 0.625 1.741 4704
2.756 0.597 1.669 769
3.018 0.654 1.805 7766
2.890 0.626 1.733 3507
2.982 0.646 1.774 8062
2.853 0.618 1.702 1866
3.111 0.674 1.846 1126
3.035 0.657 1.791 8656
2.905 0.629 1.720 3326
3.046 0.660 1.786 11569
2.917 0.632 1.715 3918
3.058 0.662 1.781 14840
2.928 0.634 1.710 3143
3.062 0.663 1.772 16421
2.933 0.635 1.702 2368
3.192 0.691 1.843 922
3.060 0.663 1.759 16131
2.930 0.635 1.689 1163
3.190 0.691 1.830 1051
3.065 0.664 1.750 17247
3.195 0.692 1.820 977
3.069 0.665 1.741 18355
3.200 0.693 1.811 904
3.074 0.666 1.732 17102
3.205 0.694 1.801 947
3.085 0.668 1.727 14043
3.216 0.697 1.796 956
3.083 0.668 1.714 12144
3.214 0.696 1.783 2139
3.143 0.681 1.734 9742
3.011 0.652 1.666 778
3.274 0.709 1.802 772
3.147 0.682 1.725 10143
3.279 0.710 1.792 933
3.145 0.681 1.712 8688
3.276 0.710 1.779 1445
3.219 0.697 1.738 9476
3.087 0.669 1.671 4164
3.230 0.700 1.732 16370
3.098 0.671 1.665 3574
3.242 0.702 1.726 21945
3.109 0.674 1.660 4587
3.246 0.703 1.716 23659
3.114 0.674 1.651 3355
3.393 0.735 1.788 811
3.258 0.706 1.710 21369
3.125 0.677 1.645 2507
3.390 0.734 1.775 1835
3.269 0.708 1.704 20312
3.122 0.676 1.632 2636
3.402 0.737 1.768 2592
3.274 0.709 1.694 21092
3.406 0.738 1.758 3649
3.134 0.679 1.627 2332
3.539 0.767 1.823 924
3.271 0.709 1.681 19470
3.404 0.737 1.745 4545
3.138 0.680 1.617 1651
3.551 0.769 1.816 904
3.275 0.709 1.672 18265
3.409 0.738 1.735 3529
3.142 0.681 1.608 1966
3.563 0.772 1.808 787
3.280 0.710 1.662 19312
3.413 0.739 1.725 4009
3.146 0.682 1.599 2699
3.284 0.711 1.652 15521
3.418 0.740 1.715 5342
3.150 0.682 1.590 2826
3.580 0.775 1.791 779
3.281 0.711 1.639 10824
3.415 0.740 1.702 6882
3.147 0.682 1.577 2661
3.549 0.769 1.764 1495
3.286 0.712 1.630 7058
3.420 0.741 1.692 5520
3.554 0.770 1.753 2035
3.152 0.683 1.568 1944
3.495 0.757 1.714 5385
3.290 0.713 1.620 4725
3.156 0.684 1.559 1125
3.506 0.759 1.707 7514
3.301 0.715 1.614 3501
3.525 0.764 1.703 9527
3.390 0.734 1.642 4113
3.536 0.766 1.696 10805
3.402 0.737 1.635 4694
3.534 0.765 1.682 11359
3.399 0.736 1.622 2037
3.669 0.795 1.742 1135
3.545 0.768 1.675 11815
3.680 0.797 1.734 1306
3.410 0.739 1.615 1072
3.542 0.767 1.661 12461
3.678 0.797 1.720 1753
3.813 0.826 1.779 935
3.547 0.768 1.651 13016
3.775 0.818 1.750 2098
3.622 0.785 1.671 10467
3.772 0.817 1.735 2924
3.487 0.755 1.613 895
3.627 0.786 1.660 12740
3.777 0.818 1.724 3267
3.491 0.756 1.603 1092
3.624 0.785 1.647 9999
3.796 0.822 1.719 4259
3.628 0.786 1.636 5966
3.800 0.823 1.708 5095
3.936 0.853 1.765 750
3.812 0.826 1.700 7559
3.654 0.791 1.634 5220
3.948 0.855 1.756 1183
3.518 0.762 1.578 909
3.830 0.830 1.694 10790
3.694 0.800 1.638 5566
3.558 0.771 1.582 1864
4.053 0.878 1.786 829
3.849 0.834 1.689 11589
3.713 0.804 1.633 6708
4.050 0.877 1.771 1230
3.576 0.775 1.578 886
3.868 0.838 1.684 8728
3.731 0.808 1.628 7125
4.034 0.874 1.751 1681
3.595 0.779 1.573 1133
3.880 0.840 1.675 6623
3.743 0.811 1.620 4548
4.031 0.873 1.736 2352
3.606 0.781 1.565 1062
3.848 0.834 1.649 7272
3.711 0.804 1.595 2198
4.035 0.874 1.724 1880
3.845 0.833 1.635 6943
4.091 0.886 1.732 2446
3.708 0.803 1.581 1368
3.857 0.835 1.627 5484
4.073 0.882 1.711 4166
3.719 0.806 1.573 834
3.861 0.836 1.615 5394
4.063 0.880 1.694 4320
4.201 0.910 1.747 1224
3.865 0.837 1.604 4370
4.147 0.898 1.712 3520
4.010 0.869 1.659 2908
4.166 0.902 1.706 4267
3.884 0.841 1.598 3987
4.029 0.873 1.653 2787
4.135 0.896 1.680 5167
3.888 0.842 1.586 3382
4.139 0.897 1.667 6850
3.892 0.843 1.575 1857
4.151 0.899 1.658 9003
3.969 0.860 1.591 813
4.162 0.902 1.648 9864
4.174 0.904 1.639 6928
4.320 0.936 1.692 1352
4.236 0.918 1.648 6649
4.098 0.888 1.598 1307
4.375 0.948 1.698 875
4.263 0.923 1.643 8736
4.124 0.893 1.593 2758
4.401 0.953 1.692 882
4.179 0.905 1.599 9120
4.318 0.935 1.648 2207
4.530 0.981 1.723 818
4.191 0.908 1.589 9432
4.542 0.984 1.713 1952
4.330 0.938 1.638 986
4.261 0.923 1.600 8381
4.546 0.985 1.699 2691
4.265 0.924 1.587 5637
4.587 0.994 1.698 3814
4.599 0.996 1.687 6025
4.262 0.923 1.572 4284
4.401 0.953 1.620 1018
4.611 0.999 1.676 5395
4.266 0.924 1.560 3679
4.471 0.969 1.629 843
4.542 0.984 1.638 4773
4.277 0.926 1.550 2800
4.682 1.014 1.685 1826
4.590 0.994 1.639 4866
4.281 0.927 1.537 2145
4.745 1.028 1.690 1696
4.631 1.003 1.638 4932
4.771 1.034 1.684 2460
4.285 0.928 1.524 1843
4.650 1.007 1.629 4826
4.791 1.038 1.674 1710
4.296 0.931 1.514 1257
4.931 1.068 1.720 1231
4.714 1.021 1.634 4604
4.876 1.056 1.686 4499
4.573 0.991 1.589 1871
5.016 1.087 1.731 1253
4.888 1.059 1.674 6711
4.740 1.027 1.627 5095
4.600 0.996 1.583 1549
5.028 1.089 1.719 879
4.900 1.061 1.662 6887
4.730 1.024 1.609 5035
5.077 1.100 1.718 935
4.589 0.994 1.564 786
4.911 1.064 1.650 6117
4.719 1.022 1.590 4479
5.074 1.099 1.701 1845
5.215 1.130 1.744 930
4.923 1.066 1.638 5389
4.730 1.025 1.578 3582
5.079 1.100 1.686 2507
5.219 1.131 1.729 1225
4.927 1.067 1.623 3669
4.735 1.026 1.564 2587
5.202 1.127 1.707 1700
4.924 1.067 1.606 3119
5.214 1.129 1.694 2489
4.739 1.026 1.550 1488
5.065 1.097 1.649 1403
4.936 1.069 1.594 3016
5.218 1.130 1.678 2789
5.077 1.100 1.636 2379
5.396 1.169 1.731 1320
5.111 1.107 1.630 2911
5.252 1.138 1.671 2625
4.940 1.070 1.579 2098
5.401 1.170 1.715 1940
5.256 1.139 1.656 2528
5.405 1.171 1.699 2103
5.115 1.108 1.615 2092
4.490 0.973 1.432 1146
5.402 1.170 1.681 3098
5.246 1.136 1.636 2448
5.104 1.106 1.595 952
4.501 0.975 1.421 951
5.407 1.171 1.665 4530
5.250 1.137 1.621 2395
5.593 1.211 1.718 786
5.418 1.174 1.651 5858
5.277 1.143 1.611 1462
5.590 1.211 1.700 1065
5.415 1.173 1.633 6900
5.557 1.204 1.673 1523
5.729 1.241 1.721 1444
5.273 1.142 1.594 818
5.427 1.176 1.619 9668
5.741 1.243 1.706 2445
5.599 1.213 1.667 1215
5.439 1.178 1.605 15018
5.760 1.248 1.693 3357
5.618 1.217 1.654 2242
5.977 1.295 1.752 882
5.435 1.177 1.587 13377
5.772 1.250 1.678 6170
5.630 1.219 1.639 1857
5.914 1.281 1.716 1480
5.776 1.251 1.661 8984
5.432 1.177 1.569 8356
5.926 1.284 1.700 2308
5.634 1.220 1.623 1196
5.788 1.254 1.645 7445
5.443 1.179 1.555 4585
5.931 1.285 1.683 4126
6.148 1.332 1.740 1989
5.800 1.256 1.630 8778
5.942 1.287 1.667 4173
6.160 1.334 1.724 2612
5.448 1.180 1.539 2547
5.804 1.257 1.613 10351
6.179 1.339 1.709 4549
5.451 1.181 1.523 3004
5.947 1.288 1.650 2977
6.176 1.338 1.689 7012
5.816 1.260 1.598 6242
5.959 1.291 1.634 2678
5.455 1.182 1.507 2131
6.173 1.337 1.669 8161
5.903 1.279 1.601 3679
6.316 1.368 1.705 2625
5.474 1.186 1.494 1187
6.178 1.338 1.651 8710
6.321 1.369 1.686 4702
5.899 1.278 1.582 2735
6.463 1.400 1.721 1317
6.182 1.339 1.632 6924
6.325 1.370 1.667 4444
6.468 1.401 1.702 1872
5.919 1.282 1.568 1677
6.194 1.342 1.616 3498
6.382 1.382 1.661 3112
5.471 1.185 1.442 1264
6.525 1.413 1.696 1108
6.416 1.390 1.649 5442
6.198 1.343 1.597 2213
5.467 1.184 1.424 1004
6.428 1.392 1.632 7329
6.202 1.343 1.579 1699
6.722 1.456 1.701 1112
7.107 1.539 1.791 933
6.433 1.393 1.613 6424
6.742 1.460 1.685 1579
7.112 1.540 1.770 1371
6.576 1.424 1.646 1250
6.429 1.393 1.592 6022
6.618 1.434 1.635 1556
6.867 1.487 1.692 1403
7.116 1.541 1.749 1219
6.433 1.394 1.573 4223
6.970 1.510 1.694 1878
7.136 1.546 1.731 1676
7.393 1.601 1.789 1556
6.437 1.394 1.554 3044
7.171 1.553 1.717 2303
6.974 1.511 1.673 2069
7.405 1.604 1.769 1895
7.410 1.605 1.747 2641
6.441 1.395 1.535 2406
7.266 1.574 1.715 1926
6.979 1.512 1.653 1895
7.414 1.606 1.725 3056
7.271 1.575 1.694 1905
6.453 1.398 1.518 1471
6.960 1.508 1.627 1266
7.426 1.609 1.704 2488
7.283 1.577 1.674 1261
7.578 1.641 1.737 902
6.949 1.505 1.603 842
7.439 1.611 1.684 3047
7.583 1.642 1.714 1159
7.863 1.703 1.773 1144
7.294 1.580 1.654 818
7.443 1.612 1.662 3563
7.701 1.668 1.715 2428
7.868 1.704 1.749 2273
8.012 1.735 1.779 997
7.872 1.705 1.726 3277
7.713 1.671 1.694 3215
7.455 1.615 1.641 2396
8.016 1.736 1.755 1254
7.725 1.673 1.672 2644
7.884 1.708 1.704 2502
7.474 1.619 1.622 2126
8.029 1.739 1.733 1726
8.474 1.835 1.796 2744
8.018 1.737 1.706 2318
7.471 1.618 1.599 1601
8.162 1.768 1.735 1449
8.478 1.837 1.771 2709
8.136 1.762 1.705 2084
7.992 1.731 1.677 1194
8.775 1.901 1.828 1165
8.468 1.834 1.743 2675
8.141 1.763 1.680 1558
8.863 1.920 1.818 1334
7.890 1.709 1.633 953
8.480 1.837 1.719 2873
8.868 1.921 1.792 2360
8.130 1.761 1.653 1177
8.724 1.890 1.765 845
8.850 1.917 1.761 3309
8.500 1.841 1.697 2308
8.705 1.886 1.735 1329
8.157 1.767 1.633 902
8.908 1.930 1.745 2734
8.763 1.898 1.718 2001
8.519 1.845 1.674 1898
8.912 1.931 1.718 4035
8.768 1.899 1.692 2011
8.516 1.845 1.648 1760
8.909 1.930 1.690 4493
8.764 1.898 1.665 2141
8.520 1.846 1.622 1533
9.619 2.083 1.815 1023
8.944 1.937 1.669 4043
8.784 1.903 1.642 1919
9.692 2.099 1.798 1240
8.517 1.845 1.596 820
8.956 1.940 1.644 3531
9.681 2.097 1.766 2033
8.796 1.905 1.617 1140
9.987 2.163 1.818 953
8.968 1.943 1.619 2658
9.678 2.096 1.736 2351
9.938 2.153 1.780 1188
8.808 1.908 1.592 1123
8.965 1.942 1.591 2908
9.683 2.097 1.708 2423
10.455 2.265 1.833 1213
9.935 2.152 1.749 1184
8.961 1.941 1.563 2856
9.687 2.098 1.679 2171
10.459 2.266 1.802 1407
9.947 2.155 1.720 1339
8.965 1.942 1.536 1857
9.692 2.099 1.650 1298
9.952 2.156 1.691 1281
10.464 2.267 1.771 1031
10.515 2.278 1.747 1086
10.943 2.370 1.813 1026
9.910 2.147 1.654 923
10.767 2.332 1.786 861
10.504 2.275 1.714 1773
10.978 2.378 1.785 1284
10.358 2.244 1.692 956
10.764 2.332 1.753 861
10.501 2.275 1.681 1648
10.983 2.379 1.752 1273
10.355 2.243 1.660 910
9.949 2.155 1.600 838
11.018 2.387 1.724 1254
10.497 2.274 1.649 1163
11.447 2.480 1.786 1021
11.030 2.389 1.693 1399
11.467 2.484 1.754 1381
11.260 2.439 1.725 1041
10.517 2.278 1.620 972
11.487 2.488 1.722 1986
11.250 2.437 1.690 1159
11.050 2.394 1.662 1088
11.771 2.550 1.762 889
11.469 2.484 1.685 1772
11.798 2.556 1.730 1008
11.047 2.393 1.628 882
11.200 2.426 1.649 834
11.527 2.497 1.658 1096
10.990 2.380 1.587 1083
12.141 2.630 1.739 916
11.780 2.552 1.692 862
11.539 2.499 1.625 1380
11.907 2.579 1.673 1040
10.986 2.380 1.553 993
12.959 2.807 1.809 946
11.911 2.580 1.637 1387
11.535 2.499 1.590 1178
12.971 2.810 1.771 1088
12.418 2.690 1.701 912
11.916 2.581 1.602 1375
12.976 2.811 1.732 996
12.661 2.742 1.694 845
12.123 2.626 1.627 779
11.928 2.584 1.567 1018
12.611 2.732 1.649 897
13.011 2.818 1.697 880
13.023 2.821 1.660 801
12.716 2.754 1.624 774
13.027 2.822 1.621 833
13.301 2.881 1.612 899
13.039 2.824 1.583 799
2.308 0.488 1.791 2853
2.313 0.489 1.784 5706
2.324 0.491 1.782 5817
2.444 0.517 1.869 1390
2.322 0.491 1.771 6132
2.443 0.517 1.857 1331
2.321 0.491 1.760 6651
2.441 0.516 1.846 1441
2.332 0.493 1.757 5295
2.453 0.519 1.843 1585
2.406 0.509 1.800 4946
2.285 0.483 1.714 1019
2.528 0.534 1.886 892
2.411 0.510 1.793 4946
2.533 0.536 1.878 1431
2.290 0.484 1.708 1019
2.403 0.508 1.777 4819
2.525 0.534 1.862 2035
2.401 0.508 1.766 5210
2.530 0.535 1.854 2549
2.406 0.509 1.759 4485
2.528 0.535 1.843 2566
2.404 0.508 1.747 3969
2.526 0.534 1.831 2653
2.409 0.509 1.740 3689
2.538 0.537 1.828 2879
2.426 0.513 1.742 3659
2.556 0.540 1.829 3274
2.560 0.541 1.822 3274
2.437 0.515 1.739 3260
2.546 0.538 1.801 3782
2.422 0.512 1.719 2194
2.669 0.564 1.883 828
2.544 0.538 1.789 4480
2.420 0.512 1.708 1975
2.674 0.565 1.876 901
2.581 0.546 1.803 5582
2.457 0.520 1.722 2124
2.705 0.572 1.885 868
2.586 0.547 1.796 7360
2.462 0.521 1.715 1937
2.710 0.573 1.877 1115
2.597 0.549 1.793 7631
2.721 0.575 1.873 1526
2.473 0.523 1.712 1459
2.608 0.552 1.789 8008
2.733 0.578 1.870 1857
2.484 0.525 1.709 950
2.613 0.553 1.782 6383
2.738 0.579 1.862 2081
2.489 0.526 1.702 778
2.618 0.554 1.774 4758
2.743 0.580 1.854 2306
2.622 0.555 1.766 3777
2.748 0.581 1.846 3171
2.746 0.581 1.833 4055
2.621 0.554 1.754 2643
2.751 0.582 1.825 5283
2.625 0.555 1.747 1980
2.755 0.583 1.817 6511
2.603 0.550 1.723 1328
2.760 0.584 1.809 5903
2.634 0.557 1.731 1308
2.765 0.585 1.801 5295
2.639 0.558 1.724 1298
2.891 0.611 1.879 821
2.803 0.593 1.813 4981
2.677 0.566 1.736 1120
2.821 0.597 1.813 5852
2.694 0.570 1.737 1020
2.833 0.599 1.809 5986
2.706 0.572 1.733 820
2.837 0.600 1.801 6226
2.842 0.601 1.792 5880
2.969 0.628 1.868 789
2.874 0.608 1.800 5957
2.746 0.581 1.725 1846
2.838 0.600 1.768 7480
2.966 0.627 1.843 1295
2.849 0.602 1.763 8747
2.977 0.630 1.838 855
2.847 0.602 1.751 7964
2.975 0.629 1.825 1425
2.859 0.604 1.747 5881
2.987 0.632 1.820 2250
2.890 0.611 1.754 4716
3.019 0.638 1.827 3539
3.017 0.638 1.814 5600
2.888 0.611 1.741 3896
3.022 0.639 1.805 7634
2.886 0.610 1.729 3120
2.986 0.631 1.774 7999
2.856 0.604 1.702 1840
3.115 0.659 1.846 970
3.045 0.644 1.795 9180
2.908 0.615 1.720 2337
3.049 0.645 1.786 12745
2.920 0.617 1.715 3028
3.054 0.646 1.777 16729
2.924 0.618 1.706 2361
3.184 0.673 1.848 770
3.066 0.648 1.772 18472
2.936 0.621 1.702 2048
3.196 0.676 1.843 953
3.063 0.648 1.759 18983
2.933 0.620 1.689 1132
3.194 0.675 1.830 1073
3.068 0.649 1.750 20702
3.198 0.676 1.820 964
3.073 0.650 1.741 21874
3.203 0.677 1.811 867
3.077 0.651 1.732 20545
3.208 0.678 1.801 781
3.082 0.652 1.723 17684
2.951 0.624 1.655 758
3.086 0.653 1.714 16153
3.217 0.680 1.783 1766
2.955 0.625 1.646 782
3.098 0.655 1.709 13017
3.229 0.683 1.777 3233
3.151 0.666 1.725 12406
3.120 0.660 1.698 11715
3.252 0.688 1.765 3376
3.118 0.659 1.685 8723
3.250 0.687 1.752 6497
3.234 0.684 1.732 12301
3.101 0.656 1.665 4667
3.245 0.686 1.726 16844
3.113 0.658 1.660 5175
3.257 0.689 1.720 18129
3.124 0.661 1.654 4114
3.261 0.690 1.710 15938
3.128 0.661 1.645 2546
3.394 0.718 1.775 1735
3.266 0.691 1.700 14906
3.398 0.719 1.765 2735
3.126 0.661 1.632 2616
3.277 0.693 1.694 16347
3.410 0.721 1.758 3564
3.137 0.663 1.627 2429
3.543 0.749 1.823 850
3.281 0.694 1.685 15676
3.415 0.722 1.748 4412
3.141 0.664 1.617 1761
3.548 0.750 1.812 863
3.286 0.695 1.675 14785
3.419 0.723 1.738 4048
3.152 0.667 1.612 1646
3.567 0.754 1.808 799
3.290 0.696 1.665 16011
3.424 0.724 1.728 3788
3.157 0.667 1.602 2075
3.288 0.695 1.652 12705
3.421 0.723 1.715 5242
3.154 0.667 1.590 2048
3.583 0.758 1.791 777
3.391 0.717 1.689 9715
3.257 0.689 1.626 5655
3.525 0.745 1.751 2581
3.123 0.660 1.564 1199
3.402 0.719 1.682 7860
3.268 0.691 1.620 4392
3.536 0.748 1.744 3197
3.134 0.663 1.558 1147
3.413 0.722 1.675 7434
3.548 0.750 1.736 3577
3.279 0.693 1.614 3253
3.145 0.665 1.552 830
3.503 0.741 1.704 7736
3.312 0.700 1.617 2812
3.637 0.769 1.765 1126
3.529 0.746 1.703 9017
3.394 0.718 1.642 4486
3.540 0.749 1.696 10769
3.405 0.720 1.635 4876
3.675 0.777 1.756 849
3.537 0.748 1.682 11707
3.402 0.719 1.622 2327
3.672 0.777 1.742 1352
3.549 0.750 1.675 11907
3.414 0.722 1.615 1512
3.684 0.779 1.734 1441
3.546 0.750 1.661 12398
3.682 0.778 1.720 1991
3.817 0.807 1.779 1034
3.411 0.721 1.602 957
3.551 0.751 1.651 13229
3.786 0.801 1.753 2246
3.626 0.767 1.671 11249
3.783 0.800 1.738 2521
3.491 0.738 1.613 900
3.631 0.768 1.660 13743
3.781 0.799 1.724 2566
3.495 0.739 1.603 992
3.628 0.767 1.647 10057
3.800 0.803 1.719 4405
3.804 0.804 1.708 6078
3.632 0.768 1.636 5624
3.816 0.807 1.700 8538
3.658 0.773 1.634 4730
3.952 0.836 1.756 1098
3.521 0.745 1.578 916
3.827 0.809 1.692 10839
3.691 0.780 1.635 4354
3.554 0.752 1.579 1648
3.964 0.838 1.748 786
3.846 0.813 1.686 11124
3.709 0.784 1.630 4552
4.062 0.859 1.774 865
3.858 0.816 1.678 7227
3.721 0.787 1.622 4218
4.038 0.854 1.751 1380
3.819 0.807 1.649 5108
3.660 0.774 1.585 2541
3.956 0.836 1.704 2383
3.845 0.813 1.646 7724
3.982 0.842 1.701 2204
3.664 0.775 1.575 1778
4.134 0.874 1.761 1049
3.849 0.814 1.635 8297
4.131 0.873 1.746 2295
3.986 0.843 1.689 2288
3.712 0.785 1.581 1132
3.861 0.816 1.627 7545
4.056 0.858 1.703 2921
4.193 0.887 1.757 1322
3.865 0.817 1.615 7814
4.162 0.880 1.730 3163
4.024 0.851 1.677 2867
3.869 0.818 1.604 5787
4.036 0.853 1.668 3286
4.174 0.882 1.721 3090
3.880 0.821 1.595 4307
4.149 0.877 1.697 4067
4.153 0.878 1.685 5632
3.892 0.823 1.586 3629
4.158 0.879 1.673 6938
3.896 0.824 1.575 1984
4.162 0.880 1.661 9249
3.980 0.842 1.593 798
4.167 0.881 1.648 10060
4.156 0.879 1.631 6966
4.295 0.908 1.681 1219
4.255 0.900 1.653 5908
4.117 0.870 1.603 2850
4.260 0.901 1.640 8966
4.121 0.871 1.591 2318
4.399 0.930 1.690 839
4.184 0.885 1.599 11797
4.323 0.914 1.648 1828
4.542 0.960 1.726 834
4.261 0.901 1.613 11219
4.547 0.961 1.713 1820
4.122 0.872 1.564 982
4.265 0.902 1.600 11543
4.551 0.962 1.699 2516
4.269 0.903 1.587 8906
4.600 0.973 1.701 4471
4.604 0.974 1.687 6750
4.273 0.904 1.575 5493
4.616 0.976 1.676 5732
4.278 0.904 1.562 3799
4.628 0.979 1.665 4583
4.282 0.905 1.550 3544
4.632 0.979 1.651 4523
4.286 0.906 1.537 2517
4.772 1.009 1.698 1538
4.644 0.982 1.640 4771
4.297 0.909 1.527 1948
4.784 1.012 1.686 1914
4.655 0.984 1.629 4369
4.906 1.037 1.710 2166
4.301 0.909 1.514 1614
4.889 1.034 1.689 5512
4.660 0.985 1.615 2890
5.029 1.063 1.734 896
4.297 0.909 1.499 885
4.893 1.035 1.674 7634
4.745 1.003 1.627 3454
4.605 0.974 1.583 1346
5.034 1.064 1.719 982
4.905 1.037 1.662 8328
4.727 1.000 1.606 4154
5.075 1.073 1.716 1067
4.917 1.040 1.650 9241
4.724 0.999 1.590 3922
5.080 1.074 1.701 1910
5.220 1.104 1.744 1184
4.928 1.042 1.638 8702
4.728 1.000 1.576 3256
5.084 1.075 1.686 2445
5.225 1.105 1.729 1570
4.925 1.041 1.621 6860
4.740 1.002 1.564 2267
5.192 1.098 1.702 1867
4.929 1.042 1.606 6292
5.219 1.104 1.694 2683
4.736 1.001 1.548 1229
5.070 1.072 1.649 1057
4.933 1.043 1.592 5750
5.231 1.106 1.680 3638
5.090 1.076 1.638 2021
5.409 1.144 1.733 953
4.938 1.044 1.577 3926
5.250 1.110 1.669 3320
5.109 1.080 1.628 2693
5.407 1.143 1.715 1525
5.269 1.114 1.658 2693
4.942 1.045 1.563 1958
5.120 1.083 1.615 1604
5.411 1.144 1.699 1545
5.274 1.115 1.642 2877
5.497 1.162 1.707 1814
5.132 1.085 1.602 880
4.498 0.951 1.419 854
5.263 1.113 1.623 3121
5.420 1.146 1.667 1731
5.591 1.182 1.716 1011
5.424 1.147 1.651 2603
5.282 1.117 1.611 1973
5.566 1.177 1.691 1628
5.511 1.165 1.658 4525
5.727 1.211 1.718 1365
5.324 1.126 1.606 1293
5.440 1.150 1.621 5888
5.754 1.217 1.708 2416
5.582 1.180 1.660 1552
5.298 1.120 1.582 798
5.444 1.151 1.605 10296
5.766 1.219 1.693 3506
5.624 1.189 1.654 2159
5.983 1.265 1.752 1112
5.441 1.151 1.587 9066
5.778 1.222 1.678 6279
5.935 1.255 1.720 1769
5.583 1.181 1.625 1501
5.790 1.224 1.663 9785
5.438 1.150 1.569 5406
5.932 1.254 1.700 3034
5.580 1.180 1.607 1728
5.802 1.227 1.647 8961
5.944 1.257 1.685 4844
5.442 1.151 1.553 2989
6.154 1.301 1.740 2563
5.814 1.229 1.632 10785
5.956 1.259 1.669 3864
6.166 1.304 1.724 3684
5.453 1.153 1.539 1846
5.810 1.229 1.613 11838
6.179 1.306 1.707 5784
6.021 1.273 1.667 3987
5.457 1.154 1.523 2306
6.183 1.307 1.689 8872
5.822 1.231 1.598 6746
6.033 1.276 1.651 5032
5.461 1.155 1.507 1802
6.180 1.307 1.669 9440
5.901 1.248 1.599 3345
6.323 1.337 1.705 2402
6.466 1.367 1.740 1186
6.184 1.308 1.651 9888
6.327 1.338 1.686 4451
5.898 1.247 1.580 2516
6.041 1.277 1.615 1880
6.188 1.309 1.632 8391
6.332 1.339 1.667 4416
6.045 1.278 1.597 1853
6.475 1.369 1.702 1776
6.193 1.309 1.614 4565
6.336 1.340 1.648 2211
6.479 1.370 1.683 1834
5.476 1.158 1.442 1175
6.446 1.363 1.655 4443
6.197 1.310 1.596 2891
5.473 1.157 1.424 838
6.450 1.364 1.636 7126
6.209 1.313 1.579 2142
6.813 1.441 1.720 935
6.594 1.394 1.669 911
6.454 1.365 1.617 5870
6.862 1.451 1.711 1242
6.621 1.400 1.655 1126
7.112 1.504 1.768 1056
6.444 1.362 1.594 4925
6.625 1.401 1.635 1506
6.988 1.478 1.718 1494
6.844 1.447 1.685 1241
6.440 1.362 1.573 3560
7.007 1.482 1.701 1794
7.408 1.566 1.791 1599
6.637 1.403 1.617 1239
6.452 1.364 1.556 2541
7.421 1.569 1.770 2445
7.012 1.483 1.680 1771
7.194 1.521 1.720 1587
7.425 1.570 1.748 3884
7.274 1.538 1.715 2428
6.456 1.365 1.537 1847
7.001 1.480 1.656 1736
7.430 1.571 1.726 4849
7.286 1.541 1.695 2520
6.990 1.478 1.632 1243
6.535 1.382 1.534 1121
7.442 1.574 1.706 3980
7.290 1.542 1.674 1692
7.616 1.610 1.743 888
6.919 1.463 1.595 753
7.446 1.575 1.684 4967
7.697 1.627 1.736 1349
7.871 1.664 1.773 1116
7.302 1.544 1.654 871
7.451 1.575 1.662 6595
7.709 1.630 1.715 2566
7.876 1.665 1.749 2253
8.111 1.715 1.798 916
7.470 1.580 1.643 5850
7.881 1.666 1.726 3254
7.721 1.633 1.694 2981
8.025 1.697 1.755 1234
7.482 1.582 1.622 5352
7.885 1.667 1.703 2481
7.733 1.635 1.672 2444
8.143 1.722 1.754 2172
8.483 1.794 1.796 3874
7.479 1.581 1.599 3660
8.140 1.721 1.729 3403
7.996 1.691 1.700 1711
8.487 1.795 1.771 4138
8.153 1.724 1.706 3015
7.490 1.584 1.578 1836
8.008 1.693 1.678 1524
8.484 1.794 1.744 3563
8.157 1.725 1.682 2101
8.781 1.857 1.801 1596
8.012 1.694 1.654 1094
8.489 1.795 1.719 3220
8.801 1.861 1.778 1859
8.131 1.719 1.652 1588
8.634 1.826 1.746 933
8.501 1.798 1.695 2703
8.867 1.875 1.763 2630
8.166 1.727 1.633 1687
8.722 1.844 1.736 1354
8.513 1.800 1.671 2695
8.910 1.884 1.743 2480
8.750 1.850 1.714 2014
8.185 1.731 1.612 1389
8.930 1.888 1.720 3743
8.517 1.801 1.646 2777
8.785 1.857 1.694 2479
8.919 1.886 1.690 3765
8.774 1.855 1.665 2667
8.529 1.804 1.622 2251
9.636 2.038 1.816 821
8.961 1.895 1.670 3253
8.793 1.859 1.642 2401
9.710 2.053 1.799 1205
8.534 1.804 1.597 1078
8.973 1.897 1.645 3490
9.692 2.049 1.766 1799
8.798 1.860 1.615 1524
10.013 2.117 1.821 1058
8.978 1.898 1.619 3059
9.689 2.049 1.736 2138
8.809 1.863 1.591 1543
9.941 2.102 1.778 1496
8.974 1.898 1.591 3268
9.693 2.050 1.708 2178
10.466 2.213 1.833 1652
8.813 1.864 1.565 1430
8.971 1.897 1.563 2949
9.698 2.051 1.679 1837
10.470 2.214 1.802 1726
9.958 2.106 1.720 1338
8.975 1.898 1.536 1832
9.947 2.103 1.688 1278
10.475 2.215 1.771 1248
9.702 2.051 1.650 1099
10.495 2.219 1.742 1104
10.947 2.315 1.812 961
9.936 2.101 1.657 901
10.786 2.281 1.787 810
10.507 2.222 1.712 1736
10.990 2.324 1.785 1006
10.362 2.191 1.691 910
10.504 2.221 1.680 1766
11.002 2.326 1.754 951
10.358 2.190 1.659 802
10.508 2.222 1.649 1341
11.038 2.334 1.725 1198
11.459 2.423 1.786 1047
11.206 2.370 1.750 799
11.042 2.335 1.693 1477
11.472 2.426 1.753 1318
11.272 2.384 1.725 1027
10.528 2.226 1.620 1014
11.499 2.432 1.722 1878
11.261 2.381 1.690 1276
11.062 2.339 1.662 1052
11.814 2.498 1.766 840
11.481 2.428 1.685 1837
11.811 2.497 1.730 955
12.164 2.572 1.778 936
10.982 2.322 1.618 911
11.539 2.440 1.658 1416
10.994 2.325 1.586 1087
12.161 2.571 1.740 949
12.968 2.742 1.847 794
11.551 2.442 1.625 1586
10.998 2.325 1.553 992
11.912 2.519 1.672 944
11.405 2.412 1.606 849
11.547 2.442 1.590 1300
11.924 2.521 1.637 1248
12.993 2.747 1.772 907
12.670 2.679 1.731 797
11.921 2.521 1.601 1205
12.613 2.667 1.686 962
12.997 2.748 1.733 827
13.251 2.802 1.765 811
12.617 2.668 1.648 1011
11.925 2.521 1.565 785
2.310 0.480 1.791 3044
2.315 0.481 1.784 6089
2.435 0.505 1.872 750
2.326 0.483 1.782 6134
2.446 0.508 1.869 1377
2.324 0.483 1.771 6690
2.445 0.508 1.857 1395
2.323 0.482 1.760 7381
2.443 0.507 1.846 1555
2.327 0.483 1.753 5677
2.448 0.508 1.839 1541
2.408 0.500 1.800 4046
2.287 0.475 1.714 1145
2.530 0.525 1.886 844
2.413 0.501 1.793 4046
2.534 0.526 1.878 1432
2.292 0.476 1.708 1145
2.405 0.499 1.777 4412
2.533 0.526 1.866 2091
2.403 0.499 1.766 5166
2.538 0.527 1.859 2669
2.401 0.499 1.754 4934
2.536 0.527 1.847 3039
2.400 0.498 1.743 4917
2.522 0.524 1.826 3603
2.533 0.526 1.823 3895
2.411 0.500 1.740 3728
2.545 0.528 1.820 4249
2.415 0.501 1.733 2586
2.549 0.529 1.813 4249
2.426 0.504 1.730 2021
2.672 0.555 1.896 793
2.548 0.529 1.801 4765
2.424 0.503 1.719 1308
2.671 0.555 1.883 981
2.546 0.529 1.789 5280
2.422 0.503 1.708 1173
2.669 0.554 1.871 1047
2.577 0.535 1.799 6733
2.453 0.509 1.718 1246
2.700 0.561 1.881 1002
2.588 0.537 1.796 9004
2.464 0.512 1.715 1257
2.712 0.563 1.877 1046
2.599 0.540 1.793 8879
2.723 0.565 1.873 1301
2.475 0.514 1.712 1021
2.604 0.541 1.785 8959
2.728 0.566 1.865 1839
2.609 0.542 1.777 6805
2.733 0.567 1.857 1942
2.620 0.544 1.774 4734
2.745 0.570 1.854 1963
2.624 0.545 1.766 3857
2.750 0.571 1.846 2714
2.755 0.572 1.838 3466
2.629 0.546 1.759 2980
2.753 0.572 1.825 4816
2.627 0.545 1.747 2357
2.751 0.571 1.813 6371
2.618 0.544 1.731 1963
2.756 0.572 1.805 5765
2.623 0.545 1.723 1645
2.882 0.598 1.883 760
2.760 0.573 1.797 5158
2.634 0.547 1.720 1362
2.887 0.599 1.874 1097
2.805 0.582 1.813 5203
2.632 0.546 1.708 816
2.817 0.585 1.809 6196
2.828 0.587 1.805 6032
2.839 0.590 1.801 5989
2.804 0.582 1.768 5842
2.931 0.609 1.844 2409
2.802 0.582 1.756 6584
2.930 0.608 1.831 3278
2.833 0.588 1.764 7340
2.961 0.615 1.839 1601
2.845 0.591 1.759 7885
2.973 0.617 1.834 959
2.856 0.593 1.755 6666
2.984 0.620 1.829 1050
2.901 0.602 1.770 4913
3.030 0.629 1.844 1853
2.926 0.608 1.773 4335
3.055 0.634 1.846 1537
3.019 0.627 1.814 5331
2.890 0.600 1.741 3083
3.024 0.628 1.805 7044
2.881 0.598 1.725 3001
2.988 0.620 1.774 7496
2.859 0.593 1.702 1793
3.117 0.647 1.846 828
3.047 0.633 1.795 8935
2.918 0.606 1.724 1718
3.052 0.634 1.786 12655
2.922 0.607 1.715 2043
3.056 0.635 1.777 17265
2.927 0.608 1.706 1710
3.061 0.636 1.768 19369
2.931 0.609 1.698 1378
3.191 0.663 1.839 975
3.066 0.636 1.759 20386
2.935 0.609 1.689 1125
3.196 0.664 1.830 942
3.070 0.637 1.750 22586
3.201 0.665 1.820 815
2.940 0.610 1.681 787
3.075 0.638 1.741 23768
2.862 0.594 1.628 786
3.080 0.639 1.732 22432
2.866 0.595 1.620 750
3.084 0.640 1.723 20114
2.953 0.613 1.655 839
3.089 0.641 1.714 19133
3.220 0.668 1.783 1248
2.957 0.614 1.646 891
3.100 0.644 1.709 15600
3.231 0.671 1.777 2441
3.132 0.650 1.714 14401
3.264 0.678 1.781 1396
3.123 0.648 1.698 14681
3.255 0.676 1.765 3069
3.120 0.648 1.685 10947
3.252 0.675 1.752 5047
3.236 0.672 1.732 8337
3.104 0.644 1.665 5746
3.248 0.674 1.726 11595
3.115 0.647 1.660 5393
3.259 0.677 1.720 12344
3.126 0.649 1.654 4057
3.271 0.679 1.713 10293
3.131 0.650 1.645 2420
3.403 0.707 1.778 1422
3.275 0.680 1.704 9370
3.135 0.651 1.636 2363
3.408 0.708 1.768 2051
3.287 0.682 1.698 11258
3.420 0.710 1.762 2710
3.139 0.652 1.627 2331
3.553 0.738 1.826 758
3.326 0.691 1.705 13165
3.144 0.653 1.617 1778
3.459 0.718 1.769 1106
3.309 0.687 1.685 12325
3.443 0.715 1.748 2817
3.148 0.654 1.608 1335
3.307 0.687 1.672 12650
3.441 0.714 1.735 3183
3.159 0.656 1.602 1455
3.311 0.687 1.662 9855
3.445 0.715 1.725 3294
3.163 0.657 1.593 1289
3.393 0.704 1.689 10048
3.259 0.677 1.626 4177
3.527 0.732 1.751 2297
3.405 0.707 1.682 8852
3.270 0.679 1.620 3291
3.539 0.735 1.744 2955
3.416 0.709 1.675 8827
3.551 0.737 1.736 3460
3.282 0.681 1.614 2395
3.498 0.726 1.700 7613
3.321 0.690 1.620 2328
3.633 0.754 1.761 1454
3.517 0.730 1.696 7952
3.382 0.702 1.636 3065
3.652 0.758 1.757 1189
3.536 0.734 1.692 9548
3.401 0.706 1.632 3898
3.671 0.762 1.753 1078
3.540 0.735 1.682 10925
3.405 0.707 1.622 2372
3.675 0.763 1.742 1541
3.552 0.737 1.675 11042
3.416 0.709 1.615 1753
3.687 0.765 1.734 1524
3.822 0.794 1.794 849
3.549 0.737 1.661 11048
3.684 0.765 1.720 2207
3.820 0.793 1.779 1309
3.413 0.709 1.602 1093
3.553 0.738 1.651 11912
3.796 0.788 1.756 2737
3.622 0.752 1.668 10949
3.801 0.789 1.745 2656
3.633 0.754 1.660 13347
3.812 0.791 1.736 1962
3.497 0.726 1.603 932
3.638 0.755 1.650 9313
3.803 0.789 1.719 4714
3.502 0.727 1.592 788
3.807 0.790 1.708 7689
3.649 0.758 1.642 5132
3.819 0.793 1.700 9971
3.661 0.760 1.634 4370
3.955 0.821 1.756 871
3.524 0.732 1.578 857
3.830 0.795 1.692 11145
3.665 0.761 1.624 4169
3.849 0.799 1.686 10840
3.712 0.771 1.630 3229
3.832 0.796 1.666 7611
3.659 0.760 1.596 2173
3.969 0.824 1.721 1474
3.829 0.795 1.652 5841
3.966 0.823 1.707 2445
3.663 0.760 1.585 1910
3.848 0.799 1.646 7919
3.985 0.827 1.701 2447
3.667 0.761 1.575 1237
4.130 0.857 1.758 962
3.852 0.800 1.635 8900
3.990 0.828 1.689 2518
4.141 0.860 1.749 2323
3.715 0.771 1.581 816
3.864 0.802 1.627 8822
4.016 0.834 1.686 3190
4.153 0.862 1.740 2856
3.868 0.803 1.615 9288
4.165 0.865 1.730 3146
4.027 0.836 1.677 2944
3.865 0.802 1.601 6699
4.177 0.867 1.721 3411
4.039 0.839 1.668 3294
4.058 0.842 1.661 4318
3.883 0.806 1.595 4291
4.196 0.871 1.714 2471
4.149 0.861 1.682 6190
3.895 0.809 1.586 3368
4.161 0.864 1.673 7269
3.899 0.809 1.575 1816
4.173 0.866 1.663 9756
4.034 0.838 1.612 946
4.170 0.866 1.648 9865
4.159 0.864 1.631 7535
4.298 0.892 1.681 1514
4.164 0.864 1.619 7146
4.303 0.893 1.669 2495
4.183 0.868 1.612 10053
4.322 0.897 1.661 1756
4.187 0.869 1.599 13327
4.326 0.898 1.648 1803
4.546 0.944 1.726 786
4.257 0.884 1.610 12423
4.550 0.945 1.713 1554
4.268 0.886 1.600 14374
4.562 0.947 1.702 2084
4.129 0.857 1.552 751
4.273 0.887 1.587 12977
4.603 0.956 1.701 4492
4.284 0.889 1.577 8349
4.608 0.957 1.687 6279
4.612 0.958 1.674 5180
4.288 0.890 1.565 4943
4.752 0.987 1.721 1193
4.292 0.891 1.552 4152
4.624 0.960 1.663 3665
4.764 0.989 1.709 1230
4.717 0.979 1.678 4534
4.296 0.892 1.539 2609
4.577 0.950 1.632 1628
4.647 0.965 1.640 4937
4.787 0.994 1.686 1937
4.308 0.894 1.529 1822
4.928 1.023 1.732 940
4.659 0.967 1.629 3688
4.910 1.019 1.710 3072
4.304 0.894 1.514 1827
4.900 1.017 1.691 6820
4.700 0.976 1.627 2268
4.301 0.893 1.499 1216
4.897 1.017 1.674 8704
4.719 0.980 1.618 2962
5.037 1.046 1.719 1008
4.909 1.019 1.662 9607
4.731 0.982 1.606 2953
5.049 1.048 1.706 1192
4.920 1.022 1.650 11845
4.720 0.980 1.588 2231
5.083 1.055 1.701 1663
5.224 1.085 1.744 1250
4.932 1.024 1.638 11275
5.192 1.078 1.717 2321
4.732 0.982 1.576 1969
4.929 1.023 1.621 9253
5.196 1.079 1.702 1887
4.743 0.985 1.564 1439
4.933 1.024 1.606 8626
5.231 1.086 1.696 2687
5.089 1.057 1.653 1145
4.937 1.025 1.592 7696
5.242 1.088 1.683 4284
5.101 1.059 1.640 2307
5.406 1.122 1.731 856
4.941 1.026 1.577 5141
5.254 1.091 1.669 3646
5.113 1.061 1.628 2281
5.411 1.123 1.715 1365
4.946 1.027 1.563 2702
5.311 1.103 1.669 2383
5.497 1.141 1.723 1022
5.132 1.065 1.617 976
5.315 1.103 1.653 2737
5.494 1.141 1.705 1806
4.950 1.028 1.548 1144
5.282 1.097 1.627 3279
5.484 1.138 1.684 1889
5.626 1.168 1.725 819
5.570 1.156 1.691 2371
5.294 1.099 1.613 2254
5.712 1.186 1.731 847
5.522 1.147 1.660 5042
5.380 1.117 1.621 1434
5.724 1.188 1.716 1166
5.527 1.147 1.644 5893
5.751 1.194 1.706 1939
5.384 1.118 1.605 1409
5.449 1.131 1.605 4932
5.771 1.198 1.693 2944
5.628 1.169 1.654 2235
5.995 1.245 1.754 1268
5.790 1.202 1.680 5316
5.445 1.130 1.587 4535
6.000 1.246 1.736 2134
5.625 1.168 1.635 1677
5.794 1.203 1.663 9008
5.937 1.233 1.700 3133
5.532 1.148 1.593 2861
6.162 1.279 1.760 1054
5.806 1.205 1.647 9201
5.949 1.235 1.685 5473
6.167 1.280 1.742 2651
5.544 1.151 1.579 1635
5.818 1.208 1.632 10903
5.961 1.238 1.669 4221
6.171 1.281 1.724 3917
5.450 1.131 1.537 1007
5.822 1.209 1.615 11161
6.183 1.284 1.707 6242
6.025 1.251 1.667 6129
5.469 1.135 1.525 1127
6.188 1.285 1.689 9882
6.037 1.253 1.651 7668
5.827 1.210 1.598 5980
5.465 1.135 1.507 1104
6.185 1.284 1.669 9683
6.042 1.254 1.633 4889
5.898 1.225 1.598 2875
6.328 1.314 1.705 2022
6.189 1.285 1.651 9664
6.332 1.315 1.686 3896
6.046 1.255 1.615 3448
5.903 1.225 1.580 2174
6.193 1.286 1.632 8272
6.337 1.316 1.667 4607
6.050 1.256 1.597 3158
6.480 1.345 1.702 1634
6.197 1.287 1.614 4571
6.341 1.316 1.648 2996
6.054 1.257 1.580 1831
6.484 1.346 1.683 1705
6.466 1.342 1.658 4401
6.202 1.288 1.596 3068
6.058 1.258 1.562 837
6.463 1.342 1.637 7478
6.213 1.290 1.579 2230
6.992 1.452 1.761 1597
6.825 1.417 1.722 850
6.467 1.343 1.618 5613
6.989 1.451 1.739 1893
6.323 1.313 1.585 1433
6.845 1.421 1.706 1191
6.486 1.347 1.603 4355
6.993 1.452 1.718 2453
6.630 1.376 1.635 1260
6.849 1.422 1.685 1143
6.483 1.346 1.582 3382
6.998 1.453 1.697 2888
7.429 1.542 1.794 1865
6.627 1.376 1.614 1047
7.434 1.543 1.772 3317
7.017 1.457 1.680 2398
6.479 1.345 1.561 2067
7.252 1.506 1.732 1838
7.439 1.544 1.750 5143
7.279 1.511 1.715 2634
7.014 1.456 1.657 2138
6.537 1.357 1.553 1925
7.436 1.544 1.726 6465
7.291 1.514 1.695 2811
7.003 1.454 1.633 1854
6.525 1.355 1.531 1442
7.448 1.546 1.706 5661
7.296 1.515 1.674 2126
7.015 1.456 1.614 1322
7.622 1.582 1.743 791
7.452 1.547 1.684 7082
7.695 1.598 1.735 1603
7.877 1.635 1.773 1083
7.308 1.517 1.654 953
7.464 1.550 1.663 9906
7.715 1.602 1.715 2636
7.882 1.636 1.749 2081
8.125 1.687 1.799 1251
7.476 1.552 1.643 10058
7.887 1.637 1.726 2934
7.727 1.604 1.694 2703
8.031 1.667 1.755 1313
7.488 1.555 1.622 9266
8.150 1.692 1.754 2826
7.891 1.638 1.703 2267
8.484 1.761 1.821 2239
7.484 1.554 1.599 6122
8.489 1.762 1.796 4555
8.154 1.693 1.730 4368
8.010 1.663 1.702 1922
8.502 1.765 1.772 5232
8.159 1.694 1.706 3830
7.496 1.556 1.578 3125
8.014 1.664 1.678 1798
8.499 1.764 1.746 4545
8.163 1.695 1.682 2684
7.508 1.559 1.557 1804
8.788 1.825 1.801 1698
8.496 1.764 1.719 3555
8.137 1.689 1.652 2028
8.793 1.825 1.775 1842
7.992 1.659 1.625 957
8.508 1.766 1.695 2828
8.180 1.698 1.635 2053
8.874 1.842 1.763 1918
8.721 1.811 1.735 1223
8.512 1.767 1.670 3254
8.917 1.851 1.743 2059
8.756 1.818 1.714 1894
8.191 1.701 1.612 1807
8.532 1.771 1.648 3565
8.936 1.855 1.720 3134
8.791 1.825 1.694 2598
9.570 1.987 1.832 783
8.803 1.828 1.669 3379
8.536 1.772 1.622 2803
8.949 1.858 1.694 2609
9.552 1.983 1.800 1076
8.983 1.865 1.673 2741
8.800 1.827 1.642 2581
8.533 1.771 1.596 1308
9.557 1.984 1.772 1235
8.988 1.866 1.646 3334
8.804 1.828 1.615 1811
9.577 1.988 1.746 1533
9.722 2.018 1.770 1396
8.992 1.867 1.620 3319
9.589 1.991 1.719 1991
8.816 1.830 1.591 1907
9.941 2.064 1.777 1533
8.989 1.866 1.592 3358
9.586 1.990 1.689 1854
10.481 2.176 1.835 1732
8.820 1.831 1.565 1718
8.985 1.865 1.564 2710
10.479 2.175 1.802 1580
9.582 1.989 1.659 1393
8.832 1.834 1.540 1245
8.981 1.865 1.536 1530
9.947 2.065 1.687 1335
10.476 2.175 1.770 1156
9.579 1.989 1.630 868
9.951 2.066 1.658 1059
10.955 2.274 1.812 968
10.503 2.181 1.742 953
10.802 2.243 1.788 835
10.515 2.183 1.712 1450
10.968 2.277 1.781 832
10.354 2.150 1.688 824
10.512 2.182 1.680 1600
11.019 2.288 1.755 792
10.336 2.146 1.654 774
10.517 2.183 1.649 1297
11.046 2.293 1.725 1178
11.468 2.381 1.786 922
11.223 2.330 1.751 829
11.051 2.294 1.693 1422
11.419 2.371 1.745 1224
10.528 2.186 1.619 995
11.250 2.336 1.721 979
11.516 2.391 1.723 1740
11.262 2.338 1.688 1315
11.070 2.298 1.662 956
10.802 2.243 1.625 897
11.482 2.384 1.684 1835
12.174 2.527 1.778 1086
11.267 2.339 1.655 933
10.990 2.282 1.618 914
11.548 2.397 1.658 1582
12.186 2.530 1.742 1071
11.002 2.284 1.586 1049
11.909 2.472 1.706 837
11.552 2.398 1.624 1598
11.914 2.473 1.671 948
11.006 2.285 1.553 947
12.613 2.619 1.761 939
11.556 2.399 1.590 1236
11.918 2.474 1.635 1053
12.595 2.615 1.721 940
12.622 2.621 1.686 1082
11.922 2.475 1.600 1009
12.627 2.621 1.648 1063
2.312 0.470 1.791 3474
2.317 0.471 1.784 6948
2.322 0.472 1.778 6948
2.442 0.497 1.865 1319
2.326 0.473 1.771 7757
