5.820 2.243 1.592 2223
5.468 2.107 1.503 1544
6.287 2.423 1.710 1384
6.054 2.333 1.631 3462
6.191 2.386 1.665 1709
6.328 2.438 1.699 1270
5.479 2.111 1.488 1118
6.058 2.334 1.613 3104
6.210 2.393 1.650 2109
6.368 2.454 1.689 1787
5.482 2.112 1.471 928
6.113 2.355 1.606 2814
6.466 2.491 1.692 2143
6.329 2.439 1.658 1977
6.484 2.499 1.675 3382
6.326 2.438 1.637 2750
6.102 2.351 1.584 2219
6.657 2.565 1.716 959
6.496 2.503 1.656 2749
6.337 2.442 1.619 2193
6.669 2.570 1.697 1511
6.113 2.356 1.566 1472
6.673 2.571 1.677 1820
6.861 2.644 1.720 1819
6.514 2.510 1.640 1651
6.377 2.457 1.608 1519
6.858 2.643 1.697 2564
6.692 2.579 1.659 1853
6.511 2.509 1.618 1664
6.877 2.650 1.679 3748
6.703 2.583 1.640 2168
6.501 2.505 1.594 1214
6.888 2.654 1.659 5288
6.693 2.579 1.616 1742
6.497 2.504 1.573 1257
7.271 2.802 1.745 960
6.899 2.659 1.640 4509
6.501 2.505 1.552 1487
6.697 2.580 1.595 1320
7.268 2.801 1.720 1053
6.896 2.657 1.617 3315
7.519 2.897 1.751 1850
6.505 2.507 1.532 1205
7.244 2.791 1.692 1139
6.900 2.659 1.595 3176
7.545 2.907 1.732 2537
7.741 2.983 1.774 1872
7.255 2.796 1.671 1212
6.911 2.663 1.575 3156
7.557 2.912 1.710 2598
7.752 2.987 1.751 2272
7.354 2.834 1.668 1312
6.915 2.665 1.554 2864
7.757 2.989 1.727 2817
7.554 2.911 1.685 2356
7.365 2.838 1.646 1593
7.761 2.991 1.703 3906
7.551 2.909 1.660 2334
6.912 2.663 1.531 1831
7.384 2.845 1.627 1738
7.765 2.992 1.679 5093
7.547 2.908 1.635 1672
7.395 2.849 1.605 1101
6.916 2.665 1.509 969
7.769 2.994 1.655 6755
7.551 2.910 1.612 1230
7.766 2.993 1.629 6871
8.202 3.161 1.714 1515
7.563 2.914 1.590 1157
7.770 2.994 1.605 5716
8.214 3.165 1.689 2739
8.629 3.325 1.768 1439
8.352 3.218 1.716 884
7.782 2.998 1.582 4677
8.218 3.167 1.664 3870
8.633 3.327 1.741 2116
8.356 3.220 1.690 840
7.851 3.025 1.570 4024
8.215 3.165 1.637 3999
8.725 3.362 1.730 2607
8.506 3.278 1.690 935
8.729 3.364 1.703 3932
7.862 3.030 1.547 3246
8.204 3.161 1.609 2920
8.532 3.288 1.668 1179
8.733 3.365 1.676 3959
7.866 3.031 1.523 2164
8.208 3.163 1.583 1683
8.551 3.295 1.644 1455
8.737 3.367 1.649 3740
9.014 3.474 1.697 1456
7.884 3.038 1.501 1326
8.212 3.164 1.558 1221
8.749 3.371 1.623 2454
9.026 3.478 1.670 1445
9.413 3.627 1.736 1260
9.887 3.810 1.817 1049
9.059 3.491 1.647 1751
9.417 3.629 1.707 1517
8.782 3.384 1.601 1259
8.643 3.331 1.577 1049
9.071 3.495 1.620 1798
8.757 3.374 1.569 1451
9.421 3.630 1.678 1351
10.159 3.914 1.799 1046
9.381 3.615 1.641 1817
8.761 3.376 1.541 1303
10.127 3.902 1.761 1285
9.060 3.491 1.590 1218
9.393 3.619 1.613 1600
10.153 3.912 1.733 1377
10.292 3.966 1.755 1041
10.570 4.073 1.799 996
10.157 3.914 1.702 1754
9.426 3.632 1.589 1452
10.581 4.077 1.767 1243
10.296 3.967 1.723 900
10.161 3.916 1.670 1836
9.445 3.639 1.561 1135
10.600 4.085 1.736 1036
10.761 4.147 1.761 773
10.166 3.917 1.638 1821
10.685 4.117 1.715 1258
11.066 4.264 1.772 784
10.546 4.064 1.695 765
10.170 3.919 1.607 1483
10.580 4.077 1.666 1398
10.785 4.156 1.696 1389
11.063 4.263 1.736 1230
10.576 4.075 1.632 1151
10.803 4.163 1.664 1102
11.455 4.414 1.757 1081
11.060 4.262 1.701 995
11.430 4.404 1.717 1504
10.485 4.040 1.586 1248
10.742 4.139 1.622 1019
11.093 4.275 1.670 763
11.442 4.409 1.682 1543
10.489 4.042 1.553 1263
10.753 4.143 1.589 1050
11.816 4.553 1.733 889
11.453 4.413 1.648 1496
10.500 4.046 1.522 1058
11.944 4.603 1.713 929
10.757 4.145 1.556 864
11.450 4.412 1.611 1217
11.956 4.607 1.676 1008
12.034 4.637 1.648 1026
11.439 4.408 1.574 920
12.246 4.719 1.675 909
12.958 4.993 1.765 850
12.250 4.720 1.637 1220
11.950 4.605 1.600 984
11.436 4.407 1.537 948
12.955 4.992 1.724 927
12.262 4.725 1.600 1138
12.533 4.830 1.632 1034
11.946 4.603 1.562 866
11.440 4.408 1.501 781
12.523 4.825 1.592 1029
12.258 4.724 1.561 804
13.166 5.073 1.625 864
12.593 4.852 1.560 818
13.262 5.110 1.552 917
13.258 5.109 1.510 980
13.255 5.107 1.468 834
2.138 0.817 1.740 10540
2.142 0.819 1.734 21081
2.146 0.821 1.727 21081
2.157 0.825 1.725 16131
2.326 0.889 1.853 994
2.161 0.826 1.719 11207
2.331 0.891 1.846 1560
2.159 0.826 1.708 9983
2.335 0.893 1.839 2134
2.151 0.823 1.692 9580
2.346 0.897 1.836 2724
2.156 0.824 1.685 9580
2.351 0.899 1.829 2724
2.172 0.831 1.688 10118
2.331 0.891 1.804 2826
2.176 0.832 1.681 11117
2.329 0.891 1.792 3367
2.187 0.836 1.679 10037
2.334 0.892 1.785 3761
2.197 0.840 1.677 8968
2.344 0.896 1.782 4183
2.486 0.950 1.884 885
2.201 0.842 1.670 7761
2.361 0.903 1.784 5411
2.484 0.950 1.872 1187
2.366 0.905 1.777 6778
2.212 0.846 1.668 6708
2.489 0.952 1.864 1841
2.370 0.906 1.770 6778
2.197 0.840 1.648 5325
2.494 0.954 1.856 2154
2.381 0.910 1.767 7991
2.189 0.837 1.632 5420
2.498 0.955 1.849 3198
2.385 0.912 1.759 9261
2.193 0.839 1.626 4512
2.503 0.957 1.841 4102
2.396 0.916 1.756 7774
2.197 0.840 1.619 3530
2.514 0.961 1.838 3527
2.413 0.923 1.757 7025
2.276 0.870 1.664 3893
2.157 0.825 1.582 2706
2.531 0.968 1.839 2393
2.417 0.924 1.750 6719
2.174 0.831 1.584 4648
2.536 0.970 1.831 3402
2.292 0.877 1.665 2746
2.497 0.955 1.793 7009
2.178 0.833 1.578 5893
2.297 0.878 1.658 1856
2.545 0.973 1.815 6753
2.426 0.928 1.735 6148
2.182 0.834 1.571 5505
2.301 0.880 1.651 1209
2.556 0.977 1.812 9118
2.430 0.929 1.728 5883
2.179 0.833 1.560 5207
2.560 0.979 1.804 9846
2.441 0.933 1.725 4696
2.177 0.832 1.549 4077
2.565 0.981 1.796 10573
2.445 0.935 1.717 3579
2.174 0.831 1.539 3155
2.576 0.985 1.792 8358
2.456 0.939 1.714 2698
2.178 0.833 1.532 2503
2.695 1.031 1.871 1254
2.580 0.987 1.784 6213
2.201 0.842 1.538 2053
2.700 1.032 1.863 1978
2.460 0.941 1.706 1684
2.591 0.991 1.781 5856
2.711 1.037 1.858 2296
2.179 0.833 1.515 1957
2.471 0.945 1.703 1274
2.602 0.995 1.777 5746
2.722 1.041 1.854 2485
2.171 0.830 1.500 2455
2.619 1.001 1.777 7775
2.174 0.831 1.493 2620
2.740 1.048 1.854 1840
2.630 1.006 1.773 10126
2.178 0.833 1.486 2081
2.751 1.052 1.849 1854
2.640 1.010 1.769 8007
2.762 1.056 1.845 1989
2.169 0.829 1.472 1631
2.664 1.019 1.773 6989
2.785 1.065 1.849 1961
2.172 0.831 1.465 1424
2.662 1.018 1.761 5835
2.784 1.064 1.836 1682
2.176 0.832 1.459 1218
2.660 1.017 1.748 4931
2.782 1.064 1.824 1303
2.180 0.833 1.452 897
2.677 1.024 1.748 5876
2.799 1.070 1.823 1469
2.701 1.033 1.752 6102
2.823 1.079 1.826 1371
2.738 1.047 1.763 5677
2.860 1.094 1.837 771
2.755 1.053 1.762 6010
2.877 1.100 1.836 1745
2.759 1.055 1.754 5298
2.882 1.102 1.827 2786
2.803 1.072 1.768 5433
2.925 1.119 1.841 1130
2.680 1.025 1.695 945
2.833 1.083 1.775 7118
2.710 1.036 1.702 1719
2.956 1.130 1.847 1211
2.844 1.087 1.770 6305
2.720 1.040 1.698 2127
2.967 1.135 1.842 962
2.900 1.109 1.791 4439
2.770 1.059 1.716 3352
2.918 1.116 1.790 4100
2.788 1.066 1.715 2901
2.922 1.117 1.781 4433
2.798 1.070 1.710 2221
2.920 1.117 1.768 4612
2.796 1.069 1.698 1519
3.044 1.164 1.839 1066
2.944 1.126 1.770 4724
2.820 1.078 1.700 1163
2.962 1.133 1.769 6034
3.086 1.180 1.839 996
2.973 1.137 1.763 6473
3.097 1.184 1.833 894
2.977 1.138 1.754 5490
3.102 1.186 1.823 1272
2.852 1.091 1.685 751
3.061 1.170 1.788 4985
2.936 1.122 1.720 2880
3.058 1.169 1.775 6489
2.933 1.122 1.707 2141
3.070 1.174 1.770 6558
2.944 1.126 1.702 1754
3.195 1.222 1.837 951
3.087 1.180 1.767 5440
2.962 1.132 1.700 1366
3.092 1.182 1.758 4947
2.886 1.104 1.648 1614
3.217 1.230 1.825 840
3.089 1.181 1.745 6486
2.897 1.108 1.643 1857
3.215 1.229 1.811 1300
3.094 1.183 1.735 9030
2.908 1.112 1.638 2236
3.220 1.231 1.801 1334
3.091 1.182 1.722 9385
2.912 1.113 1.629 2328
3.218 1.230 1.788 1739
3.102 1.186 1.716 7676
3.229 1.235 1.782 2519
2.916 1.115 1.620 1982
3.107 1.188 1.707 8347
3.233 1.236 1.772 2921
2.927 1.119 1.614 1875
3.104 1.187 1.694 10505
3.245 1.241 1.765 2421
2.931 1.121 1.605 2098
3.115 1.191 1.687 10591
3.242 1.240 1.752 4894
2.941 1.125 1.600 2745
3.233 1.236 1.735 13504
3.106 1.188 1.671 6731
2.945 1.126 1.591 3316
3.360 1.285 1.799 1358
3.251 1.243 1.732 19045
3.103 1.187 1.658 3392
2.956 1.130 1.585 2616
3.378 1.292 1.795 1313
3.262 1.247 1.725 17432
3.108 1.188 1.649 2952
2.960 1.132 1.576 2057
3.390 1.296 1.788 1130
3.273 1.252 1.718 12914
3.112 1.190 1.639 2414
2.964 1.133 1.567 1680
3.401 1.300 1.781 1372
3.271 1.251 1.705 9673
3.399 1.299 1.767 3123
3.109 1.189 1.626 1760
2.954 1.130 1.551 951
3.275 1.252 1.695 9895
3.403 1.301 1.757 4396
3.106 1.188 1.613 1371
3.286 1.256 1.688 9207
3.421 1.308 1.753 4095
3.117 1.192 1.607 1055
3.290 1.258 1.678 7577
3.452 1.320 1.755 4311
3.128 1.196 1.601 810
3.287 1.257 1.665 5097
3.450 1.319 1.741 4039
3.578 1.368 1.802 1536
3.285 1.256 1.651 4057
3.447 1.318 1.727 3529
3.576 1.367 1.788 2548
3.554 1.359 1.764 3684
3.425 1.309 1.704 3069
3.296 1.260 1.644 3013
3.558 1.360 1.753 4471
3.429 1.311 1.694 2615
3.300 1.262 1.634 2202
3.569 1.365 1.745 8927
3.433 1.313 1.683 2229
3.304 1.263 1.624 1638
3.698 1.414 1.804 817
3.580 1.369 1.737 13683
3.444 1.317 1.676 2095
3.710 1.418 1.796 1071
3.308 1.265 1.614 844
3.592 1.373 1.729 12020
3.462 1.324 1.671 2062
3.721 1.423 1.787 1659
3.589 1.372 1.715 9845
3.719 1.422 1.773 2220
3.459 1.323 1.657 1626
3.586 1.371 1.701 10248
3.716 1.421 1.758 1977
3.457 1.322 1.644 991
3.598 1.376 1.693 9177
3.728 1.425 1.750 2798
3.663 1.401 1.709 8282
3.794 1.451 1.765 2069
3.533 1.351 1.652 1518
3.675 1.405 1.700 6593
3.805 1.455 1.757 2116
3.544 1.355 1.644 966
3.679 1.407 1.689 4666
3.809 1.457 1.745 2350
3.766 1.440 1.713 5215
3.607 1.379 1.646 2160
3.896 1.490 1.768 1413
3.770 1.441 1.701 5847
3.901 1.491 1.756 1867
3.639 1.391 1.646 907
3.788 1.448 1.695 4311
3.919 1.498 1.750 2715
3.902 1.492 1.729 4694
3.771 1.442 1.675 2720
3.914 1.496 1.720 3982
3.782 1.446 1.666 3096
4.045 1.547 1.774 1020
3.939 1.506 1.716 3649
3.800 1.453 1.660 2962
4.070 1.556 1.770 1056
3.936 1.505 1.701 3540
4.068 1.555 1.754 1463
3.805 1.455 1.648 1219
3.920 1.499 1.681 4130
4.051 1.549 1.733 1686
3.924 1.500 1.669 4315
4.090 1.564 1.735 2789
4.095 1.566 1.722 5183
3.935 1.505 1.659 2781
4.085 1.562 1.704 6752
3.939 1.506 1.647 1670
4.217 1.612 1.755 1278
4.082 1.561 1.689 7522
4.214 1.611 1.739 2570
3.950 1.510 1.638 1312
4.184 1.600 1.713 6227
4.052 1.549 1.663 4170
4.316 1.650 1.764 995
4.195 1.604 1.703 9354
4.063 1.553 1.653 2938
4.328 1.655 1.753 1836
4.199 1.606 1.690 8525
4.332 1.656 1.739 2932
4.067 1.555 1.640 2014
4.183 1.599 1.669 4910
4.315 1.650 1.718 4723
4.448 1.701 1.767 1149
4.320 1.652 1.705 4319
4.173 1.596 1.651 3385
4.453 1.703 1.754 1081
4.317 1.651 1.689 5071
4.184 1.600 1.641 1704
4.450 1.702 1.737 1064
4.328 1.655 1.678 6977
4.461 1.706 1.726 2873
4.195 1.604 1.630 1012
4.332 1.657 1.665 6127
4.466 1.708 1.712 3691
4.421 1.690 1.681 4310
4.287 1.639 1.634 1661
4.575 1.749 1.736 848
4.418 1.689 1.665 4833
4.566 1.746 1.717 1075
4.284 1.638 1.618 968
4.422 1.691 1.651 3326
4.556 1.742 1.698 2091
4.525 1.730 1.672 4574
4.391 1.679 1.626 1411
4.529 1.732 1.658 6499
4.663 1.783 1.703 970
4.395 1.681 1.612 773
4.554 1.741 1.651 6176
4.688 1.793 1.696 1237
4.420 1.690 1.606 924
4.573 1.748 1.641 5750
4.438 1.697 1.597 1118
4.707 1.800 1.686 1026
4.570 1.747 1.625 4667
4.704 1.799 1.669 1599
4.859 1.858 1.720 1078
4.566 1.746 1.608 3220
4.701 1.797 1.652 2059
4.864 1.860 1.705 1360
4.776 1.826 1.660 3006
4.620 1.767 1.610 2924
4.946 1.891 1.715 984
4.773 1.825 1.643 4473
4.617 1.765 1.594 3113
4.908 1.876 1.686 1554
4.784 1.829 1.631 6689
4.621 1.767 1.579 3476
4.919 1.881 1.673 2419
5.054 1.932 1.716 1085
4.788 1.831 1.616 8129
4.923 1.882 1.658 3088
4.618 1.766 1.563 2833
5.058 1.934 1.700 1481
4.792 1.832 1.601 7568
5.048 1.930 1.680 3346
4.657 1.781 1.560 1545
4.796 1.834 1.586 5767
5.066 1.937 1.669 5448
4.931 1.886 1.628 1723
4.625 1.769 1.534 1055
5.078 1.942 1.655 5355
4.807 1.838 1.574 3511
4.942 1.890 1.615 1653
5.082 1.943 1.640 7254
4.811 1.840 1.559 2026
4.946 1.891 1.599 1264
5.217 1.995 1.680 881
5.079 1.942 1.622 7918
5.243 2.005 1.670 1626
4.815 1.841 1.544 1075
5.414 2.070 1.721 961
5.090 1.946 1.608 7597
5.382 2.058 1.693 1794
5.247 2.006 1.654 1540
5.101 1.950 1.594 6726
5.379 2.057 1.675 4357
5.244 2.005 1.636 1143
5.384 2.059 1.658 5925
5.105 1.952 1.579 4155
5.248 2.007 1.619 1034
5.519 2.110 1.697 854
5.388 2.060 1.641 6768
5.102 1.951 1.561 3562
5.524 2.112 1.680 1376
5.252 2.008 1.603 839
5.385 2.059 1.623 7199
5.105 1.952 1.545 2801
5.521 2.111 1.661 1439
5.657 2.163 1.698 805
5.403 2.066 1.610 6554
5.102 1.951 1.527 1581
5.539 2.118 1.647 1042
5.711 2.184 1.695 762
5.421 2.073 1.597 6699
5.780 2.210 1.695 1336
5.557 2.125 1.634 1193
5.432 2.077 1.582 8154
5.791 2.214 1.679 1997
5.612 2.146 1.630 1228
5.443 2.081 1.567 7945
5.810 2.221 1.664 2315
5.609 2.145 1.611 1038
6.039 2.309 1.725 1013
5.426 2.075 1.545 4531
5.814 2.223 1.646 4095
6.087 2.327 1.718 1908
5.677 2.171 1.611 1237
5.818 2.225 1.628 5545
5.430 2.076 1.528 2923
6.048 2.313 1.688 2753
5.681 2.172 1.593 1202
5.829 2.229 1.612 4023
6.052 2.314 1.669 2980
5.455 2.086 1.517 1903
6.189 2.366 1.704 1131
6.107 2.335 1.663 2912
5.826 2.228 1.592 2006
6.301 2.409 1.712 1590
5.473 2.093 1.503 1505
6.132 2.345 1.649 2506
6.305 2.411 1.692 1867
5.823 2.226 1.572 1353
5.477 2.094 1.487 1308
6.223 2.379 1.652 2488
6.071 2.322 1.614 2100
6.360 2.432 1.685 1605
5.870 2.244 1.565 1039
6.119 2.340 1.606 2164
6.328 2.420 1.657 2052
6.465 2.472 1.690 1985
6.491 2.482 1.675 3400
6.332 2.421 1.637 2516
6.116 2.338 1.585 1704
6.664 2.548 1.716 810
6.495 2.483 1.655 3278
6.343 2.426 1.619 2198
6.668 2.550 1.696 1347
6.892 2.635 1.748 1169
6.521 2.493 1.640 2184
6.868 2.626 1.720 1741
6.658 2.546 1.672 1697
6.383 2.441 1.608 1574
6.865 2.625 1.697 2123
6.525 2.495 1.619 1690
6.691 2.559 1.657 1334
6.387 2.442 1.588 789
6.891 2.635 1.681 3355
6.717 2.568 1.642 1302
6.522 2.494 1.598 1050
7.252 2.773 1.762 765
6.895 2.636 1.659 5218
6.511 2.490 1.574 1341
6.663 2.548 1.608 1246
7.279 2.783 1.745 1054
6.899 2.638 1.638 4136
6.508 2.488 1.552 1297
7.276 2.782 1.720 1196
7.522 2.876 1.774 1112
7.526 2.878 1.751 2263
6.939 2.653 1.624 2060
7.258 2.775 1.693 1276
6.512 2.490 1.532 963
7.545 2.885 1.731 2775
6.965 2.663 1.607 2772
7.748 2.963 1.774 1646
7.357 2.813 1.691 1384
6.940 2.654 1.580 3059
7.564 2.892 1.710 2939
7.760 2.967 1.751 2195
7.368 2.817 1.669 1609
7.561 2.891 1.685 3083
7.764 2.969 1.727 2774
6.922 2.647 1.554 2670
7.372 2.819 1.646 1622
7.769 2.971 1.703 3402
7.558 2.890 1.660 2910
7.398 2.829 1.628 1754
6.919 2.645 1.531 1619
7.773 2.972 1.679 4679
7.548 2.886 1.634 1864
7.409 2.833 1.606 1315
6.930 2.650 1.511 875
7.777 2.974 1.655 6873
7.559 2.890 1.612 1308
7.781 2.975 1.631 7218
7.570 2.895 1.590 1316
8.494 3.248 1.768 977
8.211 3.139 1.714 894
7.778 2.974 1.605 6001
8.222 3.144 1.689 1655
8.637 3.303 1.768 1345
8.360 3.197 1.716 1068
7.789 2.978 1.582 4698
8.226 3.146 1.664 2505
8.642 3.304 1.741 1953
8.503 3.251 1.715 1133
7.859 3.005 1.570 3350
8.223 3.144 1.637 2879
8.741 3.342 1.732 2010
8.507 3.253 1.689 1388
8.738 3.341 1.703 2873
7.870 3.009 1.547 2650
8.213 3.140 1.609 2268
8.526 3.260 1.665 1641
8.742 3.343 1.676 2867
8.552 3.270 1.643 1744
7.881 3.013 1.524 1676
9.005 3.443 1.723 1443
8.746 3.344 1.649 2880
9.016 3.447 1.696 1338
8.600 3.288 1.624 1283
7.899 3.020 1.502 1168
8.765 3.351 1.624 1880
8.626 3.298 1.601 1325
9.429 3.605 1.738 1290
9.028 3.452 1.669 1156
9.426 3.604 1.707 1784
9.068 3.467 1.647 1449
8.674 3.317 1.581 1448
9.901 3.786 1.786 984
9.431 3.606 1.678 1759
9.072 3.469 1.619 1614
8.758 3.349 1.567 1102
9.906 3.788 1.756 944
9.391 3.591 1.641 2349
9.032 3.454 1.584 1298
9.925 3.795 1.727 1107
10.137 3.876 1.761 1050
9.402 3.595 1.613 2230
10.170 3.889 1.734 1411
10.002 3.824 1.708 1256
10.573 4.043 1.798 929
9.428 3.605 1.587 1959
10.175 3.890 1.703 1646
10.592 4.050 1.767 1049
10.014 3.829 1.678 822
9.447 3.612 1.560 1432
10.172 3.889 1.670 1327
10.508 4.018 1.721 976
10.721 4.099 1.753 867
10.703 4.093 1.716 1428
10.176 3.891 1.638 1077
11.077 4.235 1.772 793
10.564 4.039 1.696 777
10.707 4.094 1.683 1538
11.074 4.234 1.736 1185
10.568 4.041 1.663 1032
10.180 3.892 1.607 1001
10.814 4.135 1.664 1170
11.474 4.387 1.758 969
10.499 4.014 1.620 934
11.071 4.233 1.701 934
10.503 4.016 1.587 1229
11.449 4.378 1.718 1187
10.745 4.109 1.621 915
11.104 4.246 1.670 859
10.507 4.017 1.554 1305
11.453 4.379 1.682 1246
11.116 4.250 1.637 1041
11.835 4.525 1.734 1031
11.465 4.384 1.648 1287
10.511 4.019 1.522 998
11.839 4.527 1.697 984
11.699 4.474 1.679 914
11.469 4.385 1.612 1104
11.968 4.576 1.676 944
11.124 4.253 1.568 760
11.704 4.475 1.642 757
11.965 4.575 1.638 1017
12.978 4.962 1.766 880
11.458 4.381 1.575 878
11.961 4.574 1.600 1045
12.263 4.689 1.637 980
11.454 4.380 1.538 947
12.549 4.798 1.672 866
12.546 4.797 1.632 975
12.267 4.690 1.599 932
11.958 4.572 1.562 917
11.458 4.381 1.502 820
12.543 4.796 1.592 884
13.204 5.049 1.669 765
13.179 5.039 1.625 961
12.605 4.820 1.560 930
12.444 4.758 1.542 855
13.268 5.073 1.551 860
13.271 5.075 1.510 916
13.268 5.073 1.468 751
2.146 0.814 1.745 9514
2.150 0.816 1.738 19028
2.155 0.818 1.732 19028
2.159 0.819 1.725 14072
2.163 0.821 1.719 9116
2.339 0.888 1.850 999
2.168 0.823 1.712 8844
2.344 0.889 1.843 1897
2.166 0.822 1.701 8938
2.348 0.891 1.836 2794
2.170 0.824 1.694 8938
2.353 0.893 1.829 2794
2.174 0.825 1.688 10080
2.339 0.888 1.808 2987
2.185 0.829 1.686 11449
2.332 0.885 1.792 3559
2.189 0.831 1.679 9887
2.354 0.894 1.798 4500
2.199 0.835 1.677 8441
2.365 0.898 1.796 5845
2.482 0.942 1.879 783
2.209 0.839 1.674 6880
2.382 0.904 1.797 5962
2.499 0.948 1.880 989
2.393 0.908 1.794 6795
2.220 0.842 1.672 5618
2.510 0.953 1.877 1332
2.397 0.910 1.787 6795
2.218 0.842 1.661 4371
2.515 0.954 1.870 1638
2.402 0.911 1.780 7228
2.191 0.831 1.632 4366
2.519 0.956 1.862 2301
2.400 0.911 1.768 7724
2.276 0.864 1.682 4098
2.518 0.956 1.850 3288
2.158 0.819 1.600 2462
2.404 0.912 1.761 7315
2.280 0.865 1.675 3918
2.523 0.957 1.842 3121
2.162 0.820 1.593 2458
2.415 0.917 1.757 7075
2.284 0.867 1.668 3770
2.533 0.961 1.839 2703
2.166 0.822 1.587 2558
2.494 0.947 1.801 7357
2.176 0.826 1.584 4071
2.295 0.871 1.665 2735
2.499 0.948 1.793 7737
2.180 0.827 1.578 5300
2.311 0.877 1.667 1771
2.618 0.993 1.874 836
2.541 0.964 1.811 7639
2.422 0.919 1.731 5650
2.184 0.829 1.571 5184
2.303 0.874 1.651 1448
2.552 0.968 1.808 9950
2.433 0.923 1.728 5940
2.181 0.828 1.560 5231
2.301 0.873 1.640 1197
2.556 0.970 1.800 10159
2.437 0.925 1.720 4536
2.179 0.827 1.549 4221
2.676 1.016 1.879 867
2.567 0.974 1.796 10502
2.447 0.929 1.717 3345
2.176 0.826 1.539 3319
2.687 1.020 1.875 924
2.572 0.976 1.788 8067
2.187 0.830 1.536 2588
2.452 0.930 1.710 2360
2.692 1.022 1.867 1775
2.576 0.978 1.780 5633
2.696 1.023 1.858 2626
2.203 0.836 1.538 2151
2.456 0.932 1.702 1375
2.593 0.984 1.781 5457
2.714 1.030 1.858 2477
2.188 0.830 1.519 1882
2.473 0.939 1.703 1058
2.604 0.988 1.777 5776
2.725 1.034 1.854 2504
2.179 0.827 1.504 2222
2.615 0.992 1.773 7574
2.183 0.828 1.497 2336
2.736 1.038 1.850 2315
2.632 0.999 1.773 9697
2.753 1.045 1.849 2032
2.180 0.827 1.486 1832
2.656 1.008 1.777 7635
2.777 1.054 1.853 1786
2.171 0.824 1.472 1414
2.535 0.962 1.701 791
2.673 1.014 1.777 6922
2.794 1.061 1.853 1868
2.181 0.828 1.469 1254
2.552 0.968 1.701 880
2.671 1.014 1.765 5958
2.793 1.060 1.840 1592
2.185 0.829 1.462 1109
2.669 1.013 1.752 5278
2.791 1.059 1.827 1142
2.188 0.830 1.456 824
2.680 1.017 1.748 5972
2.802 1.063 1.823 1423
2.691 1.021 1.744 5630
2.813 1.068 1.818 1645
2.747 1.042 1.767 4783
2.758 1.047 1.762 6152
2.880 1.093 1.836 2006
2.762 1.048 1.754 6343
2.885 1.095 1.827 3133
2.773 1.052 1.749 5945
2.896 1.099 1.822 3097
2.823 1.071 1.767 6240
2.946 1.118 1.840 1456
2.699 1.024 1.695 795
2.847 1.080 1.770 5445
2.723 1.033 1.698 1903
2.970 1.127 1.842 1131
2.883 1.094 1.780 3644
2.760 1.047 1.708 3013
2.914 1.106 1.786 3571
2.790 1.059 1.715 3208
2.919 1.108 1.777 4343
2.794 1.061 1.706 2524
3.043 1.155 1.848 811
2.916 1.107 1.765 4781
2.792 1.060 1.694 1661
3.041 1.154 1.835 1253
2.954 1.121 1.774 4475
2.829 1.074 1.704 1464
2.971 1.128 1.772 6217
2.847 1.080 1.703 1233
3.096 1.175 1.842 849
2.976 1.129 1.763 6678
3.100 1.177 1.833 1034
2.851 1.082 1.694 915
2.987 1.133 1.758 5893
3.112 1.181 1.827 1055
2.862 1.086 1.689 953
3.004 1.140 1.756 5430
3.136 1.190 1.828 966
2.879 1.093 1.687 914
3.015 1.144 1.750 6257
3.141 1.192 1.818 1094
2.877 1.092 1.675 759
3.079 1.169 1.773 6726
2.954 1.121 1.705 2076
3.090 1.173 1.767 6336
2.964 1.125 1.700 1513
3.081 1.169 1.751 5858
3.207 1.217 1.818 1325
2.902 1.101 1.655 944
3.086 1.171 1.741 6296
3.212 1.219 1.808 1418
2.907 1.103 1.646 1207
3.090 1.173 1.732 7429
2.911 1.105 1.638 1490
3.216 1.221 1.798 1283
3.088 1.172 1.719 7780
3.214 1.220 1.785 1916
2.915 1.106 1.629 1508
3.165 1.201 1.747 8267
3.039 1.153 1.682 2364
2.912 1.105 1.616 1241
3.292 1.249 1.813 1033
3.163 1.200 1.734 9840
3.036 1.152 1.669 2124
3.290 1.249 1.799 1976
2.909 1.104 1.604 982
3.114 1.182 1.697 10876
3.248 1.232 1.765 2693
2.933 1.113 1.605 1515
3.125 1.186 1.691 10881
3.252 1.234 1.755 5447
2.944 1.117 1.600 1859
3.243 1.231 1.738 14124
3.116 1.182 1.674 7303
2.948 1.119 1.591 2140
3.370 1.279 1.802 1123
3.254 1.235 1.732 20024
3.106 1.179 1.658 3800
2.959 1.123 1.585 1820
3.382 1.283 1.795 1344
3.265 1.239 1.725 19009
3.111 1.180 1.649 3338
2.969 1.127 1.579 1649
3.393 1.288 1.788 1174
3.276 1.243 1.718 15057
3.115 1.182 1.639 2639
3.404 1.292 1.781 1453
2.973 1.128 1.570 1387
3.274 1.242 1.705 11263
3.402 1.291 1.767 3645
3.105 1.178 1.623 1922
2.971 1.127 1.558 1034
3.278 1.244 1.695 10706
3.413 1.295 1.760 5388
3.109 1.180 1.613 1528
2.974 1.129 1.548 850
3.289 1.248 1.688 9867
3.424 1.299 1.753 5154
3.120 1.184 1.607 1136
3.286 1.247 1.675 8387
3.456 1.311 1.755 4445
3.131 1.188 1.601 885
3.584 1.360 1.816 853
3.284 1.246 1.661 6240
3.446 1.308 1.738 3883
3.575 1.357 1.799 2115
3.288 1.248 1.651 5107
3.444 1.307 1.724 4365
3.573 1.356 1.784 3424
3.448 1.309 1.714 4764
3.577 1.358 1.773 3799
3.299 1.252 1.644 3688
3.561 1.352 1.753 5425
3.432 1.303 1.694 3311
3.303 1.254 1.634 2730
3.566 1.353 1.742 10209
3.436 1.304 1.683 2439
3.307 1.255 1.624 2015
3.695 1.402 1.801 1113
3.577 1.357 1.734 14662
3.447 1.308 1.676 2468
3.706 1.407 1.793 1337
3.311 1.257 1.614 982
3.588 1.362 1.726 12928
3.458 1.313 1.668 2597
3.718 1.411 1.784 1897
3.586 1.361 1.712 11166
3.715 1.410 1.770 2655
3.456 1.311 1.654 1850
3.590 1.362 1.701 11151
3.720 1.412 1.758 2258
3.460 1.313 1.644 1376
3.594 1.364 1.690 9647
3.724 1.413 1.747 2879
3.464 1.315 1.633 811
3.674 1.394 1.712 8163
3.543 1.345 1.655 2005
3.804 1.444 1.768 1733
3.678 1.396 1.700 6782
3.809 1.445 1.757 1800
3.548 1.346 1.644 1088
3.675 1.395 1.686 4402
3.806 1.444 1.742 2064
3.769 1.430 1.713 4643
3.611 1.370 1.646 2504
3.900 1.480 1.768 1324
3.773 1.432 1.701 5876
3.904 1.482 1.756 1655
3.608 1.369 1.632 995
3.798 1.442 1.698 4021
3.929 1.491 1.753 2456
3.913 1.485 1.732 4576
3.768 1.430 1.672 2253
4.044 1.535 1.786 875
3.924 1.489 1.723 4336
3.793 1.439 1.669 2850
4.056 1.539 1.776 1286
3.949 1.499 1.719 4160
3.818 1.449 1.666 2699
4.081 1.549 1.772 1099
3.954 1.500 1.707 4129
4.085 1.550 1.760 1543
3.822 1.450 1.654 1306
3.937 1.494 1.686 4545
4.083 1.549 1.744 2093
3.927 1.491 1.669 4240
4.094 1.554 1.735 3273
4.098 1.555 1.722 5166
3.932 1.492 1.657 2477
4.103 1.557 1.709 5491
3.971 1.507 1.658 1482
4.079 1.548 1.686 5852
4.211 1.598 1.737 2853
3.947 1.498 1.635 1047
4.195 1.592 1.716 6434
4.062 1.542 1.665 4325
4.199 1.594 1.703 10261
4.067 1.543 1.653 2662
4.332 1.644 1.753 1325
4.203 1.595 1.690 10362
4.336 1.646 1.739 2192
4.071 1.545 1.640 1750
4.201 1.594 1.674 6692
4.334 1.645 1.723 3354
4.466 1.695 1.773 860
4.282 1.625 1.690 4226
4.149 1.575 1.641 1874
4.415 1.675 1.738 1821
4.307 1.635 1.684 4311
4.440 1.685 1.732 1627
4.174 1.584 1.636 1080
4.332 1.644 1.678 6034
4.466 1.695 1.726 3249
4.199 1.594 1.630 1425
4.337 1.646 1.665 5785
4.470 1.696 1.712 4001
4.203 1.595 1.617 908
4.432 1.682 1.684 5018
4.299 1.631 1.637 1809
4.580 1.738 1.736 880
4.436 1.684 1.670 5875
4.303 1.633 1.623 1019
4.577 1.737 1.719 907
4.440 1.685 1.656 3763
4.574 1.736 1.703 1309
4.536 1.722 1.674 4779
4.402 1.671 1.628 993
4.547 1.726 1.662 6923
4.559 1.730 1.651 7226
4.693 1.781 1.696 799
4.570 1.734 1.639 6896
4.704 1.785 1.684 1094
4.574 1.736 1.625 5293
4.708 1.787 1.669 1493
4.857 1.843 1.718 852
4.635 1.759 1.629 3552
4.769 1.810 1.673 3054
4.780 1.814 1.660 4675
4.632 1.758 1.613 3053
4.950 1.879 1.715 790
4.777 1.813 1.643 7179
4.614 1.751 1.591 2936
4.912 1.864 1.686 1187
4.789 1.817 1.631 10763
4.618 1.753 1.577 4005
4.923 1.869 1.673 1851
5.058 1.920 1.716 857
4.793 1.819 1.616 12838
4.622 1.754 1.563 3316
4.928 1.870 1.658 2507
5.063 1.921 1.700 1190
4.797 1.820 1.601 12177
5.046 1.915 1.678 3285
4.662 1.769 1.560 1533
4.801 1.822 1.586 9642
5.064 1.922 1.667 5172
4.630 1.757 1.534 979
4.805 1.823 1.572 6575
5.082 1.929 1.655 5338
4.940 1.875 1.612 1215
5.087 1.930 1.640 7729
4.808 1.825 1.557 4437
4.944 1.876 1.597 1211
5.251 1.993 1.689 900
5.083 1.929 1.622 9072
4.812 1.826 1.542 2629
5.262 1.997 1.674 1456
4.948 1.878 1.582 753
5.095 1.933 1.608 9091
5.273 2.001 1.660 1491
5.416 2.055 1.702 1370
4.816 1.828 1.527 992
5.099 1.935 1.592 7244
5.392 2.046 1.677 3272
5.256 1.995 1.638 1129
5.396 2.048 1.660 5592
5.110 1.939 1.579 4259
5.260 1.996 1.621 1135
5.532 2.099 1.699 998
5.407 2.052 1.645 7768
5.106 1.938 1.561 3717
5.543 2.104 1.684 1473
5.271 2.000 1.607 1374
5.411 2.054 1.629 7836
5.110 1.939 1.545 2687
5.547 2.105 1.667 1277
5.275 2.002 1.591 1129
5.415 2.055 1.612 6680
5.114 1.941 1.529 1507
5.616 2.131 1.667 1033
5.434 2.062 1.599 5828
5.620 2.133 1.650 1350
5.778 2.193 1.693 1290
5.118 1.942 1.513 754
5.459 2.072 1.588 6199
5.797 2.200 1.679 2482
5.610 2.129 1.628 1584
5.323 2.020 1.552 851
5.456 2.071 1.569 6244
5.815 2.207 1.664 2841
5.679 2.155 1.628 1556
6.088 2.310 1.737 982
5.819 2.208 1.646 4154
5.438 2.064 1.547 3442
6.100 2.315 1.720 1968
5.675 2.154 1.609 1965
5.823 2.210 1.628 5499
6.054 2.297 1.688 2521
5.435 2.063 1.528 1987
5.687 2.158 1.593 1548
5.835 2.214 1.612 3922
6.065 2.302 1.671 2436
5.467 2.075 1.519 1334
5.698 2.162 1.577 1061
6.134 2.328 1.668 2914
5.817 2.208 1.589 1964
6.307 2.394 1.712 1666
5.478 2.079 1.503 1382
6.145 2.332 1.651 3008
6.304 2.392 1.691 2299
5.886 2.234 1.587 1423
5.482 2.080 1.487 1170
6.229 2.364 1.652 2962
6.366 2.416 1.685 1454
6.070 2.304 1.613 1227
5.882 2.232 1.567 1066
6.327 2.401 1.655 2075
6.464 2.453 1.688 1763
6.132 2.327 1.608 1359
6.497 2.466 1.675 3080
6.338 2.405 1.637 2025
6.121 2.323 1.585 1055
6.501 2.467 1.655 3488
6.364 2.415 1.623 2049
6.639 2.519 1.687 1615
6.899 2.618 1.748 1072
6.513 2.472 1.636 2692
6.650 2.524 1.668 2575
6.881 2.612 1.722 1545
6.375 2.419 1.604 1447
6.647 2.523 1.646 1998
6.864 2.605 1.696 1594
6.509 2.470 1.614 1501
6.299 2.391 1.567 759
6.904 2.620 1.682 2855
6.644 2.521 1.624 1735
7.259 2.755 1.762 845
6.901 2.619 1.659 4715
6.655 2.526 1.605 2460
6.517 2.473 1.574 1161
7.293 2.768 1.746 974
6.898 2.618 1.636 4235
6.652 2.524 1.582 2190
7.290 2.767 1.722 1155
7.529 2.857 1.774 1041
6.895 2.617 1.613 2358
7.534 2.859 1.751 2239
7.294 2.768 1.699 1458
6.648 2.523 1.560 1439
7.545 2.863 1.729 2572
6.950 2.638 1.603 2533
7.349 2.789 1.688 1670
7.756 2.943 1.774 1141
6.954 2.639 1.581 3126
7.571 2.873 1.710 2857
7.775 2.951 1.753 1934
7.353 2.791 1.665 1915
7.576 2.875 1.687 3377
7.779 2.952 1.729 2631
6.936 2.632 1.555 2150
7.387 2.803 1.648 1702
7.572 2.874 1.662 2991
7.769 2.948 1.702 2676
7.413 2.813 1.629 1736
6.933 2.631 1.532 1171
7.773 2.950 1.678 3752
7.555 2.867 1.634 1776
7.417 2.815 1.606 1509
7.792 2.957 1.656 6313
7.566 2.871 1.612 1136
8.505 3.228 1.796 769
7.789 2.956 1.631 6939
8.510 3.230 1.770 1272
7.585 2.878 1.591 1245
8.371 3.177 1.743 988
7.785 2.955 1.605 5764
8.507 3.228 1.742 1235
8.368 3.176 1.716 1138
8.645 3.281 1.768 1110
7.797 2.959 1.582 4491
8.650 3.283 1.741 1547
8.511 3.230 1.715 1441
8.336 3.164 1.683 1414
7.859 2.983 1.569 2889
8.516 3.232 1.689 1836
8.231 3.124 1.637 1787
8.654 3.284 1.714 1445
8.534 3.239 1.665 2142
7.877 2.990 1.547 2033
8.761 3.325 1.706 1824
8.220 3.120 1.609 1566
8.560 3.249 1.643 2024
8.758 3.324 1.677 1812
9.013 3.421 1.723 1512
8.414 3.193 1.617 1485
8.754 3.322 1.649 1903
8.616 3.270 1.625 1552
9.017 3.422 1.695 1284
9.434 3.580 1.767 1077
8.663 3.288 1.606 1584
9.446 3.585 1.739 1297
8.802 3.341 1.629 1176
8.364 3.174 1.555 1087
9.435 3.581 1.707 1856
8.675 3.292 1.580 1561
9.084 3.448 1.648 1225
8.375 3.178 1.530 981
9.432 3.580 1.677 1992
9.081 3.446 1.619 1431
8.664 3.288 1.551 995
9.922 3.766 1.757 822
9.407 3.570 1.642 2698
9.034 3.428 1.583 1322
10.007 3.798 1.739 1140
9.766 3.706 1.700 917
9.418 3.574 1.614 2660
10.012 3.799 1.708 1394
10.187 3.866 1.736 1319
9.038 3.430 1.554 963
9.430 3.579 1.586 2361
10.184 3.865 1.703 1597
10.536 3.998 1.757 987
10.023 3.804 1.678 970
9.448 3.586 1.559 1668
10.189 3.867 1.671 1185
10.526 3.995 1.722 1185
10.716 4.067 1.751 1011
10.713 4.066 1.716 1488
10.574 4.013 1.696 915
11.094 4.210 1.773 754
10.725 4.070 1.684 1568
10.585 4.017 1.664 1086
11.084 4.207 1.736 1085
10.916 4.143 1.712 993
10.736 4.075 1.652 1249
10.509 3.988 1.620 905
11.477 4.356 1.757 879
11.081 4.205 1.701 862
10.513 3.990 1.587 1037
10.748 4.079 1.620 1019
11.841 4.494 1.771 901
11.115 4.218 1.670 832
10.524 3.994 1.555 1143
11.846 4.496 1.734 1078
11.126 4.223 1.637 1049
10.774 4.089 1.589 976
11.711 4.444 1.679 1137
11.483 4.358 1.649 1080
11.858 4.500 1.698 1030
11.130 4.224 1.602 891
11.487 4.359 1.613 984
11.707 4.443 1.641 946
11.987 4.549 1.677 859
12.993 4.931 1.807 833
11.976 4.545 1.638 1019
12.998 4.933 1.767 930
11.476 4.355 1.575 839
11.153 4.233 1.535 773
11.973 4.544 1.600 976
11.473 4.354 1.539 910
12.561 4.767 1.672 878
13.010 4.937 1.727 831
12.558 4.766 1.632 898
11.969 4.542 1.562 811
11.477 4.355 1.503 802
12.444 4.723 1.580 897
13.084 4.966 1.654 833
12.591 4.779 1.597 800
13.184 5.003 1.624 987
12.617 4.788 1.560 953
12.448 4.724 1.541 934
13.273 5.037 1.551 760
13.277 5.039 1.509 808
2.149 0.806 1.745 8321
2.153 0.808 1.738 16643
2.158 0.809 1.732 16643
2.168 0.813 1.730 12103
2.197 0.824 1.741 7915
2.361 0.885 1.864 787
2.171 0.814 1.712 8685
2.347 0.880 1.843 1459
2.175 0.816 1.705 9841
2.352 0.882 1.836 2165
2.179 0.817 1.699 9841
2.369 0.888 1.838 2318
2.183 0.819 1.692 10900
2.379 0.892 1.835 2647
2.188 0.821 1.686 11960
2.384 0.894 1.828 2982
2.198 0.824 1.683 9976
2.370 0.889 1.807 4103
2.202 0.826 1.677 8058
2.375 0.891 1.800 5457
2.385 0.895 1.797 7227
2.213 0.830 1.674 6148
2.503 0.939 1.880 1010
2.390 0.896 1.790 9128
2.223 0.834 1.672 4581
2.507 0.941 1.873 1663
2.394 0.898 1.783 9128
2.227 0.835 1.665 3490
2.512 0.942 1.865 1971
2.399 0.900 1.775 8855
2.275 0.853 1.689 3677
2.517 0.944 1.857 2911
2.157 0.809 1.606 1542
2.403 0.902 1.768 8533
2.279 0.855 1.682 3674
2.522 0.946 1.850 3480
2.161 0.811 1.600 1593
2.408 0.903 1.761 6968
2.526 0.948 1.842 3224
2.277 0.854 1.670 3119
2.140 0.803 1.576 2007
2.493 0.935 1.809 7502
2.281 0.856 1.664 2560
2.144 0.804 1.570 2141
2.498 0.937 1.801 8134
2.173 0.815 1.580 3307
2.292 0.860 1.661 2317
2.503 0.939 1.793 8766
2.177 0.816 1.573 4521
2.296 0.861 1.654 2094
2.622 0.983 1.874 948
2.545 0.954 1.811 8370
2.425 0.910 1.731 5075
2.181 0.818 1.567 4510
2.300 0.863 1.647 1772
2.556 0.959 1.808 10552
2.436 0.914 1.728 5137
2.185 0.819 1.560 4498
2.310 0.867 1.644 1490
2.560 0.960 1.800 10633
2.440 0.915 1.720 4099
2.182 0.818 1.549 3802
2.321 0.870 1.641 1308
2.571 0.964 1.796 10738
2.451 0.919 1.717 3378
2.180 0.818 1.539 3290
2.691 1.009 1.875 1237
2.575 0.966 1.788 8166
2.183 0.819 1.532 2668
2.455 0.921 1.710 2172
2.696 1.011 1.867 2124
2.580 0.968 1.780 5595
2.700 1.013 1.858 3011
2.206 0.828 1.538 2176
2.460 0.923 1.702 965
2.591 0.972 1.776 5524
2.711 1.017 1.854 3022
2.191 0.822 1.519 1931
2.608 0.978 1.777 5771
2.729 1.024 1.854 2411
2.188 0.821 1.508 1957
2.619 0.982 1.773 7177
2.740 1.028 1.850 2344
2.186 0.820 1.497 2006
2.636 0.989 1.773 9041
2.757 1.034 1.849 2186
2.190 0.821 1.490 1501
2.666 1.000 1.781 7303
2.787 1.046 1.857 1654
2.180 0.818 1.476 1076
2.545 0.954 1.705 914
2.683 1.006 1.781 7022
2.805 1.052 1.857 1659
2.562 0.961 1.705 1172
2.184 0.819 1.469 966
2.675 1.003 1.765 6095
2.797 1.049 1.840 1620
2.188 0.821 1.462 856
2.673 1.003 1.752 5584
2.795 1.048 1.827 1158
2.684 1.007 1.748 6020
2.806 1.053 1.823 1339
2.688 1.008 1.740 5527
2.811 1.054 1.814 1566
2.693 1.010 1.732 4473
2.815 1.056 1.806 2254
2.762 1.036 1.762 6220
2.884 1.082 1.836 2254
2.766 1.037 1.754 7389
2.889 1.084 1.827 3377
2.770 1.039 1.745 6741
2.894 1.085 1.818 3648
2.775 1.041 1.737 6094
2.898 1.087 1.809 3918
2.779 1.042 1.728 5049
2.903 1.089 1.800 3233
2.783 1.044 1.720 3667
2.907 1.090 1.791 2749
2.801 1.051 1.719 3553
2.925 1.097 1.790 2857
2.916 1.094 1.774 4319
2.792 1.047 1.703 2598
3.040 1.140 1.845 1058
2.914 1.093 1.761 4934
3.039 1.140 1.831 1567
2.790 1.046 1.690 1565
2.925 1.097 1.756 4111
3.050 1.144 1.826 1783
2.801 1.050 1.686 1217
2.976 1.116 1.772 6060
2.851 1.069 1.703 1356
3.100 1.163 1.842 883
2.980 1.118 1.763 6472
3.105 1.165 1.833 1154
2.855 1.071 1.694 1104
2.991 1.122 1.758 5969
3.116 1.169 1.827 1206
2.866 1.075 1.689 888
3.009 1.128 1.756 5965
3.141 1.178 1.828 1244
3.013 1.130 1.747 6591
3.139 1.177 1.815 1468
3.077 1.154 1.770 7141
2.951 1.107 1.702 1545
3.088 1.158 1.764 7249
2.962 1.111 1.696 1056
3.214 1.206 1.831 802
3.079 1.155 1.747 6885
3.205 1.202 1.814 1301
3.077 1.154 1.734 6433
3.203 1.201 1.801 1438
3.075 1.153 1.721 6277
3.201 1.201 1.787 1348
3.086 1.157 1.715 6518
3.212 1.205 1.781 2271
3.170 1.189 1.747 8764
3.043 1.141 1.682 2345
3.297 1.237 1.813 987
3.161 1.186 1.731 11395
3.288 1.233 1.796 2001
3.034 1.138 1.665 1742
3.159 1.185 1.717 12455
3.292 1.235 1.785 2405
2.944 1.104 1.609 1392
3.129 1.174 1.691 10612
3.263 1.224 1.758 5754
2.948 1.106 1.600 1537
3.254 1.221 1.742 14190
3.127 1.173 1.678 7099
2.959 1.110 1.594 1435
3.382 1.269 1.806 914
3.259 1.222 1.732 19912
3.111 1.167 1.658 3664
3.387 1.270 1.795 1228
2.963 1.111 1.585 1172
3.270 1.227 1.725 19458
3.115 1.168 1.649 3146
2.967 1.113 1.576 1162
3.398 1.274 1.788 1127
3.281 1.231 1.718 16182
3.153 1.183 1.656 2465
3.409 1.279 1.781 1437
2.964 1.112 1.563 1307
3.279 1.230 1.705 12358
3.407 1.278 1.767 3925
3.110 1.166 1.623 1761
2.968 1.113 1.554 1294
3.283 1.231 1.695 11057
3.411 1.279 1.757 6013
3.114 1.168 1.613 1448
2.972 1.115 1.545 1000
3.294 1.235 1.688 9933
3.422 1.284 1.749 6014
3.125 1.172 1.607 1080
2.976 1.116 1.536 775
3.291 1.235 1.675 8626
3.427 1.285 1.739 4496
3.555 1.334 1.800 1709
3.135 1.176 1.601 885
3.289 1.234 1.661 6863
3.445 1.292 1.735 3610
3.574 1.340 1.795 2533
3.293 1.235 1.651 5708
3.442 1.291 1.721 5251
3.571 1.340 1.781 3871
3.453 1.295 1.714 6216
3.583 1.344 1.773 4058
3.304 1.239 1.644 3971
3.567 1.338 1.753 5980
3.437 1.289 1.694 3853
3.308 1.241 1.634 2935
3.571 1.339 1.742 10842
3.441 1.291 1.683 2507
3.312 1.242 1.624 2121
3.701 1.388 1.801 1311
3.582 1.344 1.734 14577
3.452 1.295 1.676 2632
3.712 1.392 1.793 1388
3.316 1.244 1.614 1007
3.587 1.345 1.723 13059
3.457 1.297 1.665 2766
3.716 1.394 1.781 2219
3.584 1.344 1.709 12098
3.714 1.393 1.767 3137
3.454 1.296 1.651 2197
3.588 1.346 1.698 11449
3.718 1.395 1.755 2687
3.458 1.297 1.641 1492
3.599 1.350 1.690 9380
3.730 1.399 1.747 2669
3.469 1.301 1.633 864
3.672 1.377 1.709 7705
3.803 1.426 1.765 1562
3.542 1.328 1.652 1456
3.683 1.382 1.700 6802
3.553 1.333 1.644 1523
3.814 1.431 1.757 1488
3.688 1.383 1.689 4129
3.818 1.432 1.745 2060
3.557 1.334 1.633 1316
3.761 1.411 1.707 4311
3.609 1.354 1.643 2652
3.892 1.460 1.762 1332
3.772 1.415 1.698 5699
3.903 1.464 1.753 1444
3.606 1.353 1.629 1016
3.818 1.432 1.704 3650
3.949 1.481 1.758 2170
3.686 1.383 1.649 971
3.919 1.470 1.732 4521
3.767 1.413 1.669 2073
4.071 1.527 1.795 1105
3.937 1.477 1.726 4912
3.805 1.427 1.672 2489
4.068 1.526 1.779 1548
3.955 1.484 1.719 4519
3.823 1.434 1.666 2222
4.087 1.533 1.772 1272
3.952 1.483 1.704 4225
4.084 1.532 1.757 1836
3.821 1.433 1.651 1081
3.950 1.482 1.689 4869
4.103 1.539 1.750 2748
4.100 1.538 1.735 4047
3.933 1.475 1.669 3695
4.111 1.542 1.725 5972
3.979 1.493 1.673 2181
4.116 1.544 1.712 6068
3.983 1.494 1.661 1926
4.113 1.543 1.697 4968
3.980 1.493 1.646 1316
4.246 1.592 1.747 788
4.201 1.576 1.716 5950
4.068 1.526 1.665 3340
4.205 1.577 1.703 10578
4.073 1.528 1.653 2114
4.338 1.627 1.753 896
4.203 1.576 1.687 12218
4.336 1.626 1.737 1651
4.070 1.526 1.638 1089
4.207 1.578 1.674 9142
4.340 1.628 1.723 2266
4.473 1.678 1.773 861
4.218 1.582 1.664 4856
4.351 1.632 1.713 2370
4.484 1.682 1.761 907
4.299 1.613 1.679 3652
4.433 1.663 1.727 2452
4.166 1.563 1.631 955
4.444 1.667 1.716 4515
4.311 1.617 1.668 3649
4.177 1.567 1.620 1019
4.336 1.626 1.662 4970
4.469 1.676 1.710 4065
4.202 1.576 1.615 1267
4.439 1.665 1.684 5674
4.305 1.615 1.637 1719
4.572 1.715 1.731 811
4.450 1.669 1.673 7296
4.316 1.619 1.626 849
4.454 1.671 1.659 4972
4.543 1.704 1.674 4912
4.409 1.654 1.628 877
4.568 1.713 1.667 7402
4.434 1.663 1.622 969
4.572 1.715 1.653 7943
4.576 1.717 1.639 7803
4.711 1.767 1.684 1030
4.581 1.718 1.625 5751
4.779 1.793 1.690 1783
4.783 1.794 1.675 4122
4.641 1.741 1.629 4008
4.787 1.796 1.660 6017
4.631 1.737 1.610 3689
4.791 1.797 1.646 9384
4.614 1.731 1.589 3255
4.926 1.848 1.689 890
4.796 1.799 1.631 13955
4.618 1.732 1.575 4134
5.023 1.884 1.702 1365
4.800 1.800 1.616 16394
4.622 1.734 1.561 3512
4.935 1.851 1.658 1798
5.070 1.902 1.700 1004
4.804 1.802 1.601 15843
5.053 1.895 1.678 2883
4.618 1.732 1.544 1400
4.808 1.803 1.586 13158
5.064 1.900 1.665 4336
4.812 1.805 1.572 9789
5.090 1.909 1.655 4460
4.954 1.858 1.615 888
4.815 1.806 1.557 6901
5.094 1.911 1.640 6628
4.958 1.860 1.599 1224
5.265 1.975 1.691 1050
5.091 1.910 1.622 7914
4.819 1.808 1.542 4071
5.270 1.977 1.674 1361
4.955 1.859 1.582 814
5.102 1.914 1.608 7925
5.295 1.986 1.664 1951
4.809 1.804 1.523 1699
5.431 2.037 1.704 950
5.106 1.915 1.592 5963
5.314 1.993 1.652 3200
5.450 2.044 1.691 1025
4.805 1.802 1.506 1023
5.411 2.030 1.662 5050
5.117 1.919 1.579 3380
5.275 1.979 1.623 2342
4.809 1.804 1.491 1154
5.429 2.036 1.649 9574
5.114 1.918 1.561 2681
5.293 1.985 1.611 2099
5.566 2.088 1.688 1396
5.426 2.035 1.631 9130
5.118 1.920 1.545 1807
5.563 2.086 1.669 1251
5.290 1.984 1.593 1202
5.445 2.042 1.618 7122
5.122 1.921 1.529 1086
5.624 2.110 1.667 959
5.308 1.991 1.580 832
5.449 2.044 1.601 5763
5.786 2.170 1.693 1562
5.643 2.117 1.654 1435
5.481 2.056 1.592 5271
5.805 2.177 1.679 2704
5.618 2.107 1.628 1613
5.478 2.055 1.573 4585
5.824 2.184 1.664 3047
5.687 2.133 1.628 2114
6.090 2.284 1.735 939
5.828 2.186 1.646 3191
5.453 2.045 1.549 2405
5.677 2.129 1.607 2308
6.109 2.291 1.720 1686
5.832 2.187 1.628 3755
6.026 2.260 1.678 2436
5.695 2.136 1.593 1644
6.163 2.312 1.714 1271
5.843 2.192 1.612 2684
6.052 2.270 1.665 2065
6.189 2.322 1.700 1164
5.706 2.140 1.577 1136
6.150 2.307 1.670 2544
6.316 2.369 1.712 1747
5.825 2.185 1.589 1638
5.963 2.236 1.623 1117
6.147 2.306 1.649 3153
6.313 2.368 1.691 2364
5.887 2.208 1.585 1399
6.245 2.342 1.653 3208
6.108 2.291 1.620 1232
5.884 2.207 1.565 939
6.382 2.394 1.687 924
6.336 2.377 1.655 1923
6.473 2.428 1.688 1409
6.162 2.311 1.613 1113
6.514 2.443 1.677 2509
6.362 2.386 1.640 1997
6.224 2.335 1.608 1015
6.658 2.498 1.711 768
6.511 2.442 1.655 3126
6.648 2.494 1.687 2222
6.373 2.391 1.623 2012
6.887 2.583 1.743 831
6.645 2.493 1.665 4025
6.508 2.441 1.633 2656
6.891 2.585 1.722 1310
6.370 2.389 1.601 1119
6.649 2.494 1.644 3109
6.512 2.442 1.613 1571
6.896 2.587 1.700 1242
6.653 2.496 1.624 2792
6.915 2.594 1.682 2281
7.263 2.724 1.761 852
6.657 2.497 1.603 4027
6.911 2.592 1.659 3875
7.311 2.742 1.748 804
6.916 2.594 1.638 4480
6.661 2.499 1.582 3707
7.337 2.752 1.730 1022
7.540 2.828 1.774 824
6.912 2.593 1.615 3679
6.658 2.497 1.560 2637
7.545 2.830 1.751 1906
7.305 2.740 1.699 1630
6.945 2.605 1.600 2765
6.669 2.502 1.541 2159
7.549 2.832 1.728 2105
7.316 2.744 1.678 1971
6.957 2.609 1.580 2763
7.575 2.841 1.709 2417
7.350 2.757 1.662 2288
6.680 2.506 1.522 1959
7.587 2.846 1.687 3187
7.790 2.922 1.729 2630
7.346 2.756 1.637 1854
6.953 2.608 1.557 1542
7.584 2.845 1.662 2668
7.766 2.913 1.699 2170
7.431 2.787 1.631 1813
7.777 2.917 1.676 2777
7.435 2.789 1.608 1720
7.573 2.841 1.635 1427
7.810 2.930 1.658 5581
7.439 2.790 1.585 913
8.518 3.195 1.796 913
7.672 2.878 1.631 857
7.807 2.928 1.632 6188
8.522 3.197 1.770 1482
8.384 3.145 1.743 1076
7.610 2.855 1.594 927
7.804 2.927 1.606 4957
8.519 3.196 1.742 1359
8.381 3.144 1.716 1164
8.658 3.248 1.768 783
7.808 2.929 1.582 3961
8.524 3.197 1.715 1526
8.341 3.129 1.681 1411
8.662 3.249 1.741 1073
7.863 2.949 1.567 2799
8.528 3.199 1.689 2109
8.345 3.130 1.656 1557
8.667 3.251 1.714 1066
8.547 3.206 1.665 2512
8.364 3.137 1.632 2071
7.823 2.934 1.535 1821
8.795 3.299 1.710 1364
8.609 3.229 1.649 2383
8.412 3.155 1.614 1824
9.019 3.383 1.721 1541
8.800 3.301 1.683 1384
8.621 3.234 1.624 1936
9.023 3.385 1.693 1321
8.423 3.159 1.589 1291
8.760 3.286 1.648 1283
8.610 3.230 1.594 1620
9.437 3.540 1.735 1448
8.383 3.144 1.556 1188
8.852 3.320 1.635 1029
9.442 3.541 1.706 1798
8.687 3.259 1.580 1425
8.387 3.146 1.530 1039
9.097 3.412 1.648 893
9.446 3.543 1.677 2090
9.050 3.395 1.612 984
8.669 3.252 1.549 965
9.798 3.675 1.734 788
9.428 3.536 1.644 2786
9.047 3.393 1.583 1254
10.022 3.759 1.739 1133
9.787 3.671 1.701 1107
9.432 3.538 1.614 2881
10.026 3.761 1.708 1383
10.202 3.827 1.736 1219
9.051 3.395 1.554 945
9.444 3.542 1.586 2636
10.207 3.828 1.704 1549
10.551 3.958 1.757 1160
10.038 3.765 1.678 1014
9.462 3.549 1.559 1794
10.211 3.830 1.672 1328
10.548 3.957 1.723 1249
10.725 4.023 1.750 1198
10.729 4.024 1.716 1557
10.589 3.972 1.696 910
10.208 3.829 1.639 758
10.740 4.029 1.684 1599
10.513 3.943 1.651 948
10.931 4.100 1.712 942
11.108 4.166 1.737 929
10.752 4.033 1.652 1377
10.517 3.945 1.619 905
11.097 4.163 1.701 775
10.778 4.043 1.622 1253
11.366 4.263 1.703 863
11.866 4.451 1.772 840
10.536 3.952 1.588 753
10.790 4.047 1.589 1294
11.731 4.400 1.716 1105
11.378 4.268 1.669 1039
11.871 4.453 1.735 1000
11.728 4.399 1.679 1323
10.793 4.049 1.556 1122
11.382 4.269 1.633 1071
11.882 4.457 1.699 980
11.725 4.398 1.641 1163
11.379 4.268 1.597 886
11.886 4.458 1.662 879
11.158 4.185 1.569 852
13.017 4.883 1.767 916
11.706 4.391 1.602 893
11.986 4.496 1.637 890
11.508 4.316 1.577 830
11.504 4.315 1.541 919
12.579 4.718 1.672 884
13.036 4.890 1.728 844
11.983 4.495 1.599 808
12.584 4.720 1.633 844
11.508 4.317 1.505 815
13.062 4.900 1.690 800
13.096 4.912 1.653 941
12.462 4.674 1.580 879
12.610 4.730 1.597 842
12.628 4.737 1.559 1008
13.100 4.914 1.612 944
12.466 4.676 1.541 913
13.240 4.966 1.628 768
12.529 4.699 1.509 814
2.157 0.803 1.750 7426
2.161 0.805 1.743 14852
2.166 0.806 1.736 14852
2.170 0.808 1.730 11509
2.334 0.869 1.853 779
2.199 0.818 1.741 9036
2.339 0.871 1.846 1083
2.179 0.811 1.717 9878
2.349 0.875 1.843 1339
2.177 0.810 1.705 11865
2.354 0.876 1.836 1608
2.181 0.812 1.699 11865
2.389 0.889 1.851 1955
2.186 0.814 1.692 12359
2.376 0.884 1.831 2761
2.190 0.815 1.686 12853
2.380 0.886 1.823 3742
2.200 0.819 1.683 10250
2.385 0.888 1.816 4471
2.204 0.821 1.677 7669
2.389 0.889 1.809 5200
2.394 0.891 1.802 6691
2.215 0.824 1.674 5624
2.511 0.935 1.885 793
2.398 0.893 1.794 8183
2.225 0.828 1.672 3717
2.516 0.937 1.877 1328
2.403 0.894 1.787 8183
2.285 0.851 1.704 3122
2.521 0.938 1.870 1606
2.167 0.807 1.622 914
2.401 0.894 1.775 8529
2.277 0.848 1.689 3678
2.519 0.938 1.857 2845
2.159 0.804 1.606 905
2.399 0.893 1.764 8836
2.518 0.937 1.845 4170
2.275 0.847 1.677 3676
2.150 0.801 1.591 1265
2.404 0.895 1.756 6978
2.522 0.939 1.838 4089
2.267 0.844 1.662 3160
2.148 0.800 1.580 1694
2.496 0.929 1.809 7759
2.258 0.841 1.646 3076
2.377 0.885 1.728 2756
2.140 0.796 1.565 1456
2.500 0.931 1.801 8177
2.262 0.842 1.640 2574
2.381 0.886 1.720 2318
2.144 0.798 1.559 1614
2.505 0.932 1.793 8595
2.185 0.813 1.578 3210
2.304 0.858 1.658 1967
2.624 0.977 1.874 803
2.547 0.948 1.811 7846
2.428 0.904 1.731 4316
2.183 0.812 1.567 3522
2.302 0.857 1.647 1608
2.558 0.952 1.808 9714
2.438 0.908 1.728 4064
2.174 0.809 1.552 4004
2.300 0.856 1.636 1156
2.562 0.954 1.800 9834
2.178 0.811 1.545 3543
2.443 0.909 1.720 3187
2.682 0.998 1.879 1105
2.567 0.956 1.792 9953
2.182 0.812 1.539 3081
2.447 0.911 1.713 2310
2.687 1.000 1.871 1779
2.578 0.960 1.788 7471
2.192 0.816 1.536 2440
2.698 1.004 1.867 2281
2.458 0.915 1.710 1695
2.582 0.961 1.780 4992
2.703 1.006 1.858 3117
2.208 0.822 1.538 1945
2.593 0.965 1.776 5391
2.714 1.010 1.854 3035
2.206 0.821 1.527 1791
2.604 0.969 1.773 5834
2.725 1.014 1.850 2903
2.197 0.818 1.512 1733
2.608 0.971 1.765 6677
2.730 1.016 1.842 3354
2.194 0.817 1.501 1706
2.638 0.982 1.773 7858
2.760 1.027 1.849 2228
2.192 0.816 1.490 1209
2.675 0.996 1.785 6516
2.796 1.041 1.861 1373
2.553 0.950 1.709 1110
2.189 0.815 1.480 815
2.692 1.002 1.785 6926
2.570 0.957 1.709 1466
2.814 1.047 1.861 1334
2.697 1.004 1.776 6237
2.575 0.958 1.701 1141
2.819 1.049 1.852 1067
2.682 0.998 1.756 5760
2.804 1.044 1.831 1033
2.686 1.000 1.748 6029
2.809 1.045 1.823 1142
2.691 1.002 1.740 5557
2.813 1.047 1.814 1250
2.702 1.006 1.736 4821
2.824 1.051 1.810 1621
2.764 1.029 1.762 5990
2.887 1.075 1.836 2320
2.762 1.028 1.750 8020
2.885 1.074 1.823 3531
2.766 1.030 1.741 7252
2.890 1.076 1.814 3933
2.771 1.031 1.733 6485
2.894 1.077 1.805 4335
2.775 1.033 1.724 5421
2.899 1.079 1.797 3300
2.786 1.037 1.720 3858
2.910 1.083 1.791 2322
2.803 1.044 1.719 3665
2.928 1.090 1.790 2425
2.912 1.084 1.770 4270
2.788 1.038 1.699 2363
3.037 1.130 1.841 1512
2.917 1.086 1.761 4846
3.041 1.132 1.831 1708
2.792 1.039 1.690 1589
2.928 1.090 1.756 3906
3.053 1.136 1.826 1694
2.803 1.043 1.686 1266
2.985 1.111 1.776 5894
2.860 1.065 1.706 1604
2.989 1.113 1.767 6184
2.864 1.066 1.698 1511
3.114 1.159 1.836 938
3.000 1.117 1.761 5887
2.875 1.070 1.692 1207
3.126 1.164 1.830 1109
3.011 1.121 1.756 5998
3.137 1.168 1.824 1415
3.016 1.123 1.747 6538
3.141 1.169 1.815 1647
3.080 1.146 1.770 7382
2.954 1.100 1.702 1329
3.091 1.151 1.764 7794
2.965 1.104 1.696 939
3.082 1.147 1.747 7540
3.208 1.194 1.814 1034
3.073 1.144 1.731 6913
3.200 1.191 1.797 1589
3.071 1.143 1.718 6332
3.197 1.190 1.784 2032
3.082 1.147 1.712 5979
3.209 1.194 1.778 3068
3.166 1.179 1.744 8666
3.039 1.131 1.678 2049
3.293 1.226 1.809 815
3.164 1.178 1.731 12489
3.291 1.225 1.796 1717
3.037 1.130 1.665 1622
3.162 1.177 1.717 13732
3.289 1.224 1.782 2432
3.034 1.129 1.653 993
3.179 1.183 1.714 10733
3.307 1.231 1.779 2730
3.052 1.136 1.650 1520
3.258 1.213 1.742 13417
3.130 1.165 1.678 6294
3.385 1.260 1.806 861
2.969 1.105 1.597 756
3.262 1.214 1.732 18621
3.121 1.162 1.662 3316
2.966 1.104 1.585 1296
3.390 1.262 1.795 1115
3.273 1.218 1.725 18504
3.118 1.161 1.649 2781
2.970 1.105 1.576 1580
3.401 1.266 1.788 1102
3.284 1.222 1.718 15877
3.156 1.175 1.656 2146
2.974 1.107 1.567 1555
3.412 1.270 1.781 1399
3.275 1.219 1.702 12524
3.403 1.267 1.764 3907
3.113 1.159 1.623 1537
2.971 1.106 1.554 1426
3.286 1.223 1.695 10758
3.414 1.271 1.757 6154
3.124 1.163 1.617 1259
2.975 1.107 1.545 1077
3.290 1.225 1.685 9521
3.419 1.273 1.746 6495
3.141 1.169 1.614 938
3.294 1.226 1.675 8374
3.423 1.274 1.736 4770
3.552 1.322 1.797 1644
3.145 1.171 1.604 794
3.292 1.225 1.661 6793
3.434 1.278 1.728 3557
3.563 1.326 1.789 2824
3.452 1.285 1.724 5985
3.296 1.227 1.651 5522
3.581 1.333 1.784 3403
3.457 1.287 1.714 7388
3.586 1.335 1.773 3929
3.307 1.231 1.644 3726
3.468 1.291 1.706 6459
3.597 1.339 1.766 4391
3.311 1.232 1.634 2735
3.567 1.328 1.739 10389
3.315 1.234 1.624 1968
3.697 1.376 1.798 1621
3.579 1.332 1.731 13357
3.449 1.284 1.672 1841
3.708 1.380 1.790 1714
3.319 1.235 1.614 896
3.590 1.336 1.723 12213
3.460 1.288 1.665 3098
3.720 1.385 1.781 2095
3.587 1.335 1.709 12027
3.717 1.384 1.767 3124
3.457 1.287 1.651 2736
3.598 1.340 1.701 10806
3.729 1.388 1.758 2906
3.468 1.291 1.644 1945
3.603 1.341 1.690 8283
3.754 1.397 1.756 2491
3.472 1.293 1.633 864
3.676 1.368 1.709 6955
3.545 1.320 1.652 1936
3.806 1.417 1.765 1214
3.687 1.372 1.700 6581
3.556 1.324 1.644 1995
3.818 1.421 1.757 1346
3.712 1.382 1.698 4534
3.581 1.333 1.642 2782
