3.928 2.652 1.608 1988
4.166 2.813 1.698 1073
4.057 2.739 1.641 5239
3.938 2.659 1.597 2536
4.233 2.858 1.707 842
4.073 2.750 1.632 6455
3.954 2.670 1.588 2090
4.249 2.869 1.697 1160
4.083 2.757 1.620 6509
4.247 2.867 1.680 1918
4.087 2.759 1.606 3996
4.231 2.857 1.658 3248
4.235 2.859 1.643 4532
4.097 2.766 1.594 2018
4.355 2.940 1.686 1005
4.245 2.866 1.631 4029
4.365 2.947 1.673 1281
4.094 2.764 1.577 1078
4.261 2.877 1.621 2763
4.381 2.958 1.663 1185
4.271 2.884 1.608 4760
4.416 2.981 1.658 1415
4.281 2.890 1.595 5767
4.426 2.988 1.645 2201
4.423 2.986 1.627 3190
4.284 2.893 1.580 2770
4.613 3.114 1.692 1108
4.421 2.985 1.610 4018
4.604 3.108 1.672 1892
4.300 2.903 1.570 1003
4.614 3.115 1.658 4054
4.405 2.974 1.588 3714
4.630 3.126 1.646 7611
4.421 2.985 1.577 2701
4.634 3.128 1.629 7124
4.425 2.987 1.562 1859
4.631 3.127 1.611 6579
4.511 3.045 1.573 1139
4.635 3.129 1.595 6620
4.755 3.210 1.633 850
4.514 3.048 1.557 808
4.651 3.140 1.583 5889
4.771 3.221 1.621 1394
4.924 3.324 1.669 1070
5.051 3.410 1.708 752
4.642 3.134 1.563 6266
5.004 3.378 1.675 2320
4.762 3.215 1.600 1850
4.883 3.297 1.638 1577
4.645 3.136 1.547 6272
5.008 3.381 1.658 2890
4.868 3.286 1.615 1828
5.128 3.462 1.695 1013
4.636 3.130 1.527 5259
4.998 3.375 1.636 3162
5.119 3.456 1.673 1369
4.757 3.211 1.563 1239
4.639 3.132 1.510 4142
5.021 3.390 1.624 3785
5.142 3.472 1.661 1336
4.868 3.287 1.579 1109
5.127 3.461 1.637 4049
4.649 3.139 1.496 3592
5.006 3.379 1.601 3051
5.130 3.464 1.619 6313
4.652 3.141 1.480 3100
5.009 3.382 1.584 2757
5.322 3.593 1.675 1105
5.134 3.466 1.601 4816
4.655 3.143 1.464 2290
5.338 3.604 1.660 1716
5.013 3.384 1.566 1550
5.144 3.473 1.585 3239
5.342 3.606 1.641 2226
4.658 3.145 1.447 1099
5.022 3.391 1.551 807
5.218 3.523 1.587 3566
5.358 3.618 1.626 3288
5.096 3.441 1.553 1346
5.601 3.782 1.694 817
5.215 3.521 1.567 4179
5.362 3.620 1.607 3558
5.586 3.771 1.669 1400
5.359 3.618 1.587 4171
5.212 3.519 1.547 2636
5.602 3.782 1.653 2307
5.480 3.700 1.620 1188
5.362 3.620 1.568 5381
5.619 3.793 1.637 2955
5.497 3.711 1.604 1534
5.228 3.530 1.532 1293
5.366 3.623 1.549 4717
5.616 3.791 1.616 2987
5.494 3.709 1.583 1341
5.231 3.532 1.514 776
5.606 3.785 1.593 3709
5.369 3.625 1.531 3000
5.889 3.976 1.666 1106
5.610 3.788 1.573 3864
5.912 3.991 1.651 1473
5.379 3.632 1.514 1345
5.613 3.790 1.554 2508
5.934 4.007 1.635 2256
5.389 3.638 1.496 810
5.735 3.872 1.585 761
5.944 4.013 1.616 2942
5.687 3.840 1.552 2505
5.684 3.838 1.530 3847
5.942 4.011 1.594 3427
6.314 4.263 1.686 785
5.688 3.840 1.510 3848
5.939 4.009 1.571 3709
6.305 4.257 1.660 1216
6.061 4.092 1.601 1024
5.691 3.842 1.490 3417
5.948 4.016 1.552 3051
6.315 4.264 1.640 1604
6.071 4.099 1.581 1249
5.971 4.031 1.536 3426
5.694 3.844 1.470 2699
6.313 4.262 1.616 1927
6.435 4.344 1.645 1682
5.968 4.029 1.513 3120
6.419 4.334 1.618 2797
6.297 4.251 1.590 1935
6.542 4.416 1.646 1731
6.423 4.336 1.596 2922
5.991 4.045 1.497 2792
6.655 4.493 1.649 2346
6.300 4.254 1.568 1817
6.652 4.491 1.624 4031
6.336 4.278 1.553 3030
5.988 4.042 1.475 2761
6.529 4.408 1.596 1737
6.656 4.493 1.601 5416
6.533 4.411 1.573 3029
6.339 4.280 1.531 2187
5.991 4.045 1.454 1752
6.659 4.496 1.577 5542
6.536 4.413 1.551 3584
7.040 4.753 1.660 3086
6.343 4.282 1.508 1229
6.669 4.502 1.555 3463
7.050 4.760 1.637 3358
6.546 4.420 1.529 2717
6.856 4.629 1.595 1421
7.054 4.762 1.612 4092
7.299 4.928 1.664 2029
6.685 4.514 1.535 1981
6.562 4.431 1.509 1642
7.051 4.760 1.586 4943
6.689 4.516 1.511 2457
7.303 4.931 1.638 2437
6.566 4.433 1.486 1630
7.061 4.767 1.563 3896
6.692 4.518 1.488 2373
7.307 4.933 1.613 2345
7.747 5.230 1.702 1448
7.064 4.769 1.538 2756
7.310 4.935 1.587 1772
7.750 5.233 1.675 1722
7.498 5.062 1.625 1392
7.061 4.767 1.512 2571
7.773 5.248 1.652 2023
7.495 5.060 1.597 1499
7.236 4.885 1.546 1336
7.784 5.255 1.626 2957
7.064 4.769 1.487 2281
8.308 5.609 1.726 2019
7.492 5.058 1.570 1194
7.781 5.253 1.597 3376
8.319 5.616 1.698 2923
7.074 4.776 1.464 1205
7.599 5.130 1.563 1107
7.791 5.260 1.571 2723
8.322 5.619 1.669 2493
7.603 5.133 1.536 1340
7.946 5.365 1.600 980
8.339 5.630 1.642 2124
7.794 5.262 1.544 1992
8.495 5.735 1.671 975
7.619 5.144 1.512 949
8.343 5.632 1.613 2877
7.797 5.264 1.516 2340
8.862 5.983 1.706 1201
8.466 5.716 1.635 1175
8.346 5.635 1.584 2913
7.794 5.262 1.488 2597
9.210 6.218 1.734 1864
8.470 5.718 1.606 1331
9.207 6.216 1.701 2085
7.797 5.264 1.461 1932
8.343 5.633 1.554 1845
8.863 5.984 1.642 1413
9.276 6.263 1.680 2351
9.399 6.346 1.700 1324
8.860 5.982 1.610 1116
9.088 6.135 1.648 1101
9.286 6.269 1.648 2725
9.410 6.353 1.668 2262
9.091 6.138 1.616 1397
8.831 5.962 1.574 1075
9.290 6.272 1.616 2384
9.413 6.355 1.635 2102
9.082 6.131 1.582 1458
8.821 5.956 1.541 951
9.293 6.274 1.583 2145
9.417 6.358 1.602 1359
9.072 6.125 1.548 1084
10.087 6.810 1.707 834
9.297 6.277 1.550 2034
9.420 6.360 1.569 1271
10.084 6.808 1.671 1083
10.481 7.077 1.731 954
9.294 6.275 1.517 1814
10.088 6.811 1.635 1372
10.485 7.079 1.694 1325
9.437 6.371 1.538 1143
10.489 7.082 1.658 1514
9.290 6.272 1.483 1386
10.092 6.813 1.600 1229
9.440 6.374 1.505 856
10.493 7.084 1.621 1647
9.300 6.279 1.452 1076
10.115 6.829 1.567 924
9.424 6.363 1.469 867
10.509 7.095 1.586 1711
9.310 6.285 1.420 932
10.014 6.761 1.517 875
10.532 7.111 1.551 1712
10.011 6.759 1.481 878
10.754 7.260 1.581 802
10.542 7.117 1.515 1357
10.751 7.258 1.543 1120
10.487 7.080 1.471 1240
10.761 7.265 1.506 1100
10.611 7.164 1.487 792
10.771 7.272 1.469 1194
10.503 7.091 1.436 1123
10.774 7.274 1.431 1261
10.519 7.102 1.400 931
10.777 7.276 1.393 1010
10.535 7.113 1.365 1001
10.545 7.119 1.329 987
8.377 5.656 -0.949 819
8.374 5.654 -0.978 955
1.927 1.294 1.763 3251
1.931 1.297 1.757 6503
1.733 1.164 1.587 1477
1.935 1.299 1.750 6503
1.741 1.170 1.585 1425
2.036 1.368 1.837 1189
1.955 1.313 1.757 9181
1.745 1.172 1.579 1259
1.852 1.244 1.671 954
2.057 1.381 1.844 867
1.953 1.312 1.746 12182
2.055 1.380 1.832 1426
1.748 1.174 1.573 1126
1.962 1.318 1.744 10806
2.065 1.387 1.830 2274
1.757 1.180 1.572 961
1.966 1.321 1.737 9570
2.069 1.390 1.823 3400
1.766 1.186 1.570 847
1.970 1.323 1.730 9570
2.073 1.392 1.815 3400
2.023 1.359 1.764 9914
1.920 1.289 1.679 1735
2.032 1.365 1.761 14139
1.929 1.295 1.677 2476
2.042 1.371 1.759 12632
1.938 1.302 1.674 2951
2.045 1.374 1.752 11264
1.942 1.304 1.668 2386
2.149 1.443 1.835 874
2.049 1.376 1.744 7181
1.945 1.307 1.661 1668
2.153 1.446 1.828 1621
2.059 1.383 1.742 3180
2.163 1.453 1.825 2199
1.955 1.313 1.659 1237
2.085 1.400 1.752 3295
2.189 1.470 1.835 1600
1.980 1.330 1.670 1450
2.077 1.395 1.736 3400
2.182 1.465 1.819 2034
2.081 1.398 1.729 3220
2.186 1.468 1.811 2085
1.977 1.327 1.647 795
2.080 1.397 1.718 3764
2.185 1.467 1.799 1800
2.078 1.396 1.706 4284
2.183 1.466 1.787 1761
2.098 1.409 1.712 4138
2.204 1.480 1.793 2356
2.108 1.416 1.709 4549
2.213 1.486 1.789 3718
2.206 1.482 1.773 4720
2.100 1.411 1.693 3302
2.216 1.488 1.770 5367
2.110 1.417 1.690 2911
2.214 1.487 1.758 7354
2.108 1.416 1.679 2085
2.212 1.486 1.746 9398
2.106 1.414 1.667 1531
2.319 1.557 1.825 905
2.227 1.496 1.747 10353
2.121 1.424 1.668 1383
2.334 1.567 1.825 760
2.237 1.502 1.743 11802
2.130 1.431 1.665 1161
2.344 1.574 1.821 793
2.246 1.509 1.740 10520
2.140 1.437 1.662 972
2.353 1.581 1.817 891
2.267 1.523 1.744 10185
2.160 1.451 1.667 1256
2.282 1.533 1.744 8440
2.175 1.461 1.667 1219
2.292 1.539 1.741 7648
2.184 1.467 1.664 1320
2.290 1.538 1.729 5766
2.420 1.626 1.821 1566
2.183 1.466 1.652 757
2.283 1.533 1.713 4541
2.424 1.628 1.813 2652
2.372 1.593 1.765 4189
2.264 1.520 1.689 3895
2.480 1.665 1.840 1108
2.381 1.599 1.760 5479
2.267 1.523 1.681 4034
2.490 1.672 1.835 997
2.385 1.602 1.752 5926
2.277 1.529 1.677 3516
2.494 1.675 1.827 1052
2.395 1.608 1.748 6164
2.286 1.535 1.673 2542
2.503 1.681 1.822 821
2.393 1.607 1.736 5937
2.284 1.534 1.662 1469
2.502 1.680 1.810 1170
2.460 1.652 1.770 6275
2.351 1.579 1.696 1837
2.464 1.655 1.761 7643
2.355 1.581 1.688 1752
2.474 1.661 1.757 6684
2.364 1.588 1.684 1863
2.477 1.664 1.748 5787
2.368 1.590 1.676 1561
2.481 1.666 1.740 6803
2.372 1.593 1.668 1258
2.497 1.677 1.739 8182
2.387 1.603 1.667 1038
2.512 1.687 1.738 8804
2.402 1.613 1.666 780
2.522 1.694 1.733 7953
2.632 1.768 1.803 1024
2.412 1.620 1.662 947
2.302 1.546 1.591 750
2.526 1.696 1.724 7132
2.636 1.770 1.794 1440
2.415 1.622 1.653 1055
2.535 1.703 1.719 7940
2.646 1.777 1.789 1399
2.425 1.629 1.649 877
2.551 1.713 1.717 8678
2.661 1.787 1.787 1647
2.572 1.727 1.720 9837
2.683 1.802 1.789 1157
2.582 1.734 1.714 13002
2.693 1.808 1.783 2449
2.586 1.737 1.705 12865
2.697 1.811 1.774 3919
2.584 1.735 1.693 9624
2.695 1.810 1.761 4668
2.623 1.761 1.705 8029
2.734 1.836 1.773 2270
2.511 1.686 1.638 999
2.638 1.772 1.703 7638
2.756 1.851 1.774 2277
2.636 1.770 1.691 7069
2.765 1.857 1.768 3232
2.640 1.773 1.682 6266
2.769 1.860 1.759 5118
2.773 1.863 1.749 5998
2.661 1.787 1.683 4555
2.783 1.869 1.743 6333
2.671 1.794 1.677 3163
2.787 1.872 1.733 6139
2.674 1.796 1.668 2662
2.905 1.951 1.802 1485
2.773 1.862 1.713 8472
2.903 1.950 1.789 2617
2.654 1.783 1.645 2129
2.789 1.873 1.711 10673
2.901 1.949 1.775 3248
2.658 1.785 1.636 2297
2.798 1.879 1.704 9682
2.911 1.955 1.769 3967
2.685 1.804 1.640 2534
2.808 1.886 1.698 8753
2.921 1.962 1.762 6631
2.695 1.810 1.634 2035
2.919 1.961 1.748 8581
2.806 1.884 1.685 6362
2.693 1.808 1.622 775
2.840 1.907 1.692 7416
2.953 1.983 1.755 5168
2.849 1.914 1.685 9529
2.963 1.990 1.748 2925
2.847 1.912 1.672 10182
2.961 1.988 1.734 2375
2.845 1.911 1.659 7339
2.959 1.987 1.721 2447
2.848 1.913 1.649 5656
3.028 2.034 1.746 3441
3.026 2.032 1.732 6415
2.852 1.915 1.639 4199
3.030 2.035 1.722 9290
2.862 1.922 1.633 2026
3.144 2.112 1.783 838
3.034 2.038 1.712 10678
3.148 2.114 1.772 1755
2.859 1.920 1.620 1248
3.044 2.044 1.704 8815
3.158 2.121 1.764 2315
2.929 1.967 1.644 1210
3.066 2.059 1.703 6800
2.951 1.982 1.644 2875
3.180 2.136 1.762 2168
2.997 2.013 1.655 5094
3.154 2.118 1.736 5026
3.164 2.125 1.728 7226
3.019 2.027 1.654 5522
3.180 2.136 1.723 8075
3.065 2.058 1.665 4735
3.190 2.142 1.715 8064
3.075 2.065 1.657 2254
3.194 2.145 1.704 9465
3.030 2.035 1.623 1243
3.203 2.151 1.696 10876
3.088 2.074 1.639 990
3.362 2.258 1.774 760
3.226 2.166 1.694 8600
3.110 2.089 1.637 1268
3.341 2.244 1.750 987
3.241 2.177 1.689 7455
3.126 2.099 1.632 1458
3.357 2.255 1.745 1040
3.264 2.192 1.686 8730
3.148 2.114 1.630 2653
3.379 2.270 1.742 830
3.292 2.211 1.686 11679
3.176 2.133 1.631 3892
3.320 2.230 1.687 11642
3.204 2.152 1.632 2289
3.330 2.236 1.678 7033
3.213 2.158 1.623 1194
3.303 2.218 1.652 4057
3.419 2.296 1.706 2648
3.399 2.282 1.683 5418
3.282 2.204 1.629 2943
3.378 2.268 1.660 5675
3.513 2.359 1.722 2037
3.261 2.190 1.607 916
3.369 2.263 1.643 5261
3.523 2.366 1.712 4099
3.521 2.364 1.697 4778
3.373 2.265 1.631 3645
3.638 2.443 1.750 1263
3.506 2.354 1.677 5160
3.389 2.276 1.625 2497
3.623 2.433 1.729 1693
3.497 2.349 1.659 4535
3.614 2.427 1.711 2191
3.380 2.270 1.608 1503
3.606 2.422 1.693 4151
3.458 2.322 1.628 3712
3.723 2.501 1.744 1181
3.529 2.370 1.646 5971
3.696 2.482 1.718 3420
3.412 2.291 1.595 1133
3.527 2.369 1.631 7610
3.644 2.448 1.681 5102
3.762 2.527 1.732 1549
3.409 2.289 1.580 752
3.654 2.454 1.671 6812
3.530 2.371 1.619 5626
3.772 2.533 1.721 1742
3.658 2.457 1.659 6084
3.528 2.369 1.604 3255
3.776 2.536 1.708 1987
3.742 2.513 1.679 3842
3.544 2.380 1.597 2824
3.860 2.593 1.729 863
3.765 2.528 1.674 4047
3.647 2.449 1.625 1978
3.528 2.370 1.577 1561
3.883 2.608 1.723 942
3.737 2.510 1.648 4039
3.868 2.598 1.702 1749
3.569 2.397 1.580 830
3.791 2.546 1.656 4550
3.672 2.466 1.608 2254
3.909 2.625 1.703 2238
3.900 2.620 1.685 4452
3.713 2.494 1.610 3693
3.904 2.622 1.671 4112
3.729 2.505 1.602 2614
4.048 2.718 1.728 1018
3.895 2.616 1.653 4230
3.777 2.536 1.606 1659
4.064 2.729 1.719 1200
3.899 2.619 1.639 5695
4.018 2.698 1.686 1772
3.780 2.539 1.593 1260
3.909 2.625 1.628 6266
4.084 2.743 1.696 3130
3.790 2.545 1.582 873
4.063 2.729 1.672 4786
3.944 2.649 1.627 3886
3.818 2.565 1.579 929
4.054 2.723 1.653 5111
3.935 2.643 1.608 1835
4.173 2.803 1.698 1260
4.058 2.725 1.639 4380
3.938 2.645 1.594 1863
4.240 2.847 1.707 1159
4.080 2.740 1.632 5383
3.961 2.660 1.588 2032
4.262 2.863 1.699 1680
4.090 2.747 1.620 6160
4.266 2.865 1.684 2426
4.100 2.753 1.608 3523
4.257 2.859 1.665 2884
4.255 2.857 1.648 4896
4.116 2.764 1.598 1626
4.374 2.938 1.691 783
4.258 2.860 1.633 5177
4.378 2.940 1.676 1142
4.274 2.871 1.623 3207
4.394 2.951 1.665 852
4.155 2.790 1.581 805
4.284 2.877 1.610 3899
4.417 2.966 1.656 1317
4.164 2.797 1.568 841
4.288 2.880 1.595 4605
4.421 2.969 1.641 2492
4.437 2.980 1.630 2960
4.291 2.882 1.580 2746
4.614 3.099 1.690 1216
4.485 3.012 1.629 3651
4.611 3.097 1.672 2071
4.365 2.931 1.589 1590
4.621 3.104 1.658 4427
4.501 3.023 1.618 3175
4.381 2.942 1.578 1767
4.631 3.110 1.644 7701
4.511 3.030 1.604 2833
4.390 2.949 1.564 1035
4.629 3.109 1.625 5831
4.508 3.028 1.586 2063
4.626 3.107 1.607 5145
4.505 3.026 1.569 1155
4.636 3.113 1.593 6691
4.515 3.032 1.555 1164
4.757 3.195 1.631 758
4.646 3.120 1.579 6475
4.767 3.201 1.617 1172
4.525 3.039 1.541 775
5.059 3.398 1.708 759
4.643 3.118 1.561 7477
5.006 3.362 1.673 2013
4.764 3.199 1.598 1424
4.646 3.120 1.545 8919
5.086 3.416 1.679 2507
4.965 3.334 1.642 1426
4.767 3.202 1.582 1191
4.643 3.118 1.527 7923
5.058 3.397 1.652 2507
4.937 3.315 1.615 1067
4.764 3.200 1.563 906
4.647 3.121 1.510 6454
5.029 3.378 1.624 3683
5.151 3.459 1.661 1937
4.908 3.296 1.588 793
4.656 3.127 1.496 5771
5.142 3.453 1.639 3807
5.020 3.372 1.603 3373
5.145 3.455 1.621 5038
4.660 3.129 1.480 4528
5.024 3.374 1.586 2959
5.337 3.584 1.677 881
5.168 3.471 1.608 4920
4.663 3.132 1.464 3208
5.046 3.389 1.574 1961
5.347 3.591 1.660 1293
5.178 3.477 1.592 3804
5.351 3.593 1.641 2141
4.666 3.134 1.447 1588
5.056 3.396 1.558 841
5.226 3.510 1.587 4707
5.361 3.600 1.624 3000
5.104 3.428 1.553 1132
5.223 3.508 1.567 5430
5.371 3.607 1.607 2703
5.492 3.689 1.641 1098
5.614 3.770 1.675 849
5.227 3.510 1.549 3722
5.368 3.605 1.587 3562
5.631 3.781 1.658 1758
5.502 3.695 1.624 1620
5.371 3.607 1.568 4752
5.653 3.797 1.644 2845
5.243 3.521 1.534 2302
5.506 3.698 1.604 2050
5.375 3.610 1.549 3802
5.638 3.786 1.619 2358
5.509 3.700 1.585 1744
5.246 3.523 1.515 1162
5.628 3.780 1.596 2912
5.378 3.612 1.531 2208
5.506 3.698 1.564 1172
5.237 3.517 1.494 904
5.626 3.778 1.575 3274
5.503 3.696 1.543 1187
5.921 3.977 1.651 1116
5.381 3.614 1.512 899
5.629 3.780 1.555 2159
5.944 3.992 1.635 1876
5.751 3.863 1.586 1069
5.507 3.698 1.524 780
5.697 3.826 1.552 2941
5.948 3.995 1.614 2223
5.687 3.820 1.529 4543
5.945 3.993 1.592 3018
6.080 4.083 1.625 1006
5.691 3.822 1.509 4707
5.948 3.995 1.571 3889
6.077 4.081 1.602 2115
6.341 4.259 1.667 815
5.700 3.828 1.490 3893
5.965 4.006 1.554 2999
6.087 4.088 1.583 2332
6.474 4.348 1.675 1316
5.704 3.831 1.470 3013
5.981 4.017 1.536 2984
6.445 4.329 1.645 1794
6.104 4.099 1.565 1521
6.430 4.318 1.618 2844
5.978 4.015 1.513 2697
6.552 4.401 1.646 2364
5.700 3.828 1.449 1839
6.569 4.412 1.627 3013
6.427 4.316 1.594 2821
6.001 4.030 1.497 2385
6.692 4.494 1.654 1580
6.663 4.475 1.624 3321
6.540 4.392 1.596 2502
5.997 4.028 1.475 2420
6.353 4.267 1.554 2073
6.563 4.408 1.578 4579
6.686 4.490 1.605 3336
7.041 4.729 1.683 1902
6.001 4.030 1.454 1627
6.566 4.410 1.555 5705
7.052 4.736 1.660 3724
6.689 4.493 1.582 3541
6.010 4.036 1.434 1036
6.576 4.417 1.533 4271
7.062 4.743 1.637 3901
6.699 4.499 1.560 2283
7.314 4.912 1.691 1188
7.065 4.745 1.612 4338
6.573 4.415 1.509 2898
6.696 4.497 1.535 1783
7.318 4.915 1.665 1717
7.062 4.743 1.586 5714
6.577 4.417 1.486 2706
6.700 4.499 1.511 2166
7.315 4.913 1.638 2022
7.066 4.745 1.561 4930
6.580 4.419 1.463 2193
6.703 4.502 1.488 2157
7.319 4.915 1.613 2151
7.076 4.752 1.538 3081
7.322 4.918 1.587 1875
7.763 5.214 1.675 1627
6.583 4.421 1.440 1616
7.073 4.750 1.512 2392
7.332 4.924 1.563 1486
7.793 5.234 1.653 1375
7.624 5.120 1.620 1145
7.082 4.757 1.489 2210
8.322 5.589 1.726 1931
7.803 5.240 1.627 1632
7.628 5.123 1.593 1073
8.332 5.596 1.698 2638
7.800 5.238 1.598 1648
7.612 5.112 1.563 1246
7.092 4.763 1.465 1241
8.343 5.603 1.671 2370
7.615 5.114 1.536 1577
7.803 5.241 1.571 1516
7.959 5.346 1.600 771
8.353 5.610 1.642 2230
7.807 5.243 1.544 1113
7.625 5.121 1.511 973
8.509 5.715 1.671 926
8.356 5.612 1.613 3209
8.480 5.695 1.635 1149
8.877 5.962 1.706 1126
9.221 6.193 1.767 1067
8.360 5.615 1.584 3226
9.225 6.196 1.734 1976
8.874 5.960 1.673 1214
8.484 5.698 1.606 1174
9.222 6.194 1.701 2405
8.357 5.613 1.554 1982
8.871 5.958 1.641 1325
8.481 5.696 1.575 908
9.226 6.196 1.669 2385
9.102 6.113 1.648 1222
8.438 5.667 1.537 1177
8.868 5.956 1.609 1156
9.230 6.199 1.636 2083
9.412 6.321 1.666 1932
9.100 6.111 1.615 1778
8.833 5.932 1.572 1003
9.422 6.328 1.634 2119
9.299 6.245 1.614 1978
9.097 6.109 1.582 1837
8.836 5.934 1.541 843
9.309 6.252 1.583 1955
9.439 6.339 1.603 1579
9.087 6.103 1.548 1353
9.621 6.462 1.632 930
9.482 6.368 1.576 1909
9.312 6.254 1.550 1829
9.632 6.469 1.599 1041
10.499 7.051 1.731 1028
9.478 6.366 1.542 1954
9.309 6.252 1.517 1579
10.496 7.049 1.693 1315
10.118 6.795 1.637 847
10.500 7.052 1.657 1541
9.482 6.368 1.509 1390
9.299 6.245 1.482 1148
10.128 6.802 1.603 794
10.510 7.058 1.621 1618
9.420 6.326 1.466 1036
10.053 6.752 1.556 897
10.526 7.070 1.586 1497
10.037 6.741 1.518 1037
9.430 6.333 1.434 907
10.523 7.068 1.548 1460
10.034 6.739 1.482 905
10.481 7.039 1.505 1395
10.644 7.149 1.527 888
10.510 7.059 1.472 1467
10.635 7.142 1.488 875
10.520 7.065 1.436 1274
10.644 7.149 1.451 914
10.628 7.138 1.411 1094
10.559 7.091 1.366 961
10.555 7.089 1.328 884
1.926 1.283 1.759 2814
1.930 1.286 1.752 5629
1.742 1.161 1.591 1360
1.934 1.288 1.746 5629
2.036 1.356 1.833 1389
1.751 1.167 1.590 1342
1.943 1.295 1.744 8033
2.046 1.363 1.830 1395
1.755 1.169 1.584 1092
1.953 1.301 1.741 10847
2.055 1.369 1.828 1480
1.753 1.168 1.573 849
1.956 1.303 1.735 9946
2.059 1.372 1.821 2845
1.767 1.177 1.577 777
1.966 1.309 1.733 9066
2.069 1.378 1.818 3568
1.970 1.312 1.726 9066
2.073 1.381 1.811 3568
2.044 1.362 1.777 9518
1.941 1.293 1.692 5531
2.037 1.357 1.761 13145
1.934 1.288 1.677 2818
2.047 1.363 1.759 11514
1.943 1.294 1.674 3147
2.056 1.370 1.756 9965
1.952 1.300 1.672 3011
2.060 1.372 1.749 6508
1.956 1.303 1.666 2198
2.164 1.442 1.832 1512
2.086 1.390 1.759 3248
1.976 1.316 1.672 1805
2.190 1.459 1.842 1572
2.090 1.392 1.752 3264
2.194 1.462 1.835 1572
1.985 1.322 1.670 1416
2.094 1.395 1.745 3230
2.199 1.465 1.827 1649
1.989 1.325 1.663 1047
2.092 1.394 1.733 3176
2.197 1.464 1.815 1837
1.987 1.324 1.652 962
2.085 1.389 1.718 3499
2.190 1.459 1.799 1783
2.078 1.384 1.702 4155
2.183 1.454 1.783 1866
2.109 1.405 1.716 4142
2.215 1.475 1.797 2305
2.113 1.408 1.709 4898
2.219 1.478 1.789 3707
2.212 1.473 1.773 4591
2.106 1.403 1.693 3602
2.193 1.461 1.749 5219
2.087 1.390 1.669 1765
2.300 1.532 1.828 839
2.220 1.479 1.758 7058
2.113 1.408 1.679 2404
2.218 1.477 1.746 9025
2.111 1.406 1.667 1796
2.325 1.548 1.825 855
2.239 1.491 1.751 9761
2.132 1.420 1.672 1603
2.243 1.494 1.743 10875
2.136 1.423 1.665 1336
2.252 1.500 1.740 9913
2.145 1.429 1.662 1182
2.273 1.514 1.744 10252
2.166 1.443 1.667 1723
2.288 1.524 1.744 8347
2.181 1.453 1.667 1504
2.303 1.534 1.745 7269
2.196 1.463 1.668 1015
2.302 1.533 1.733 5557
2.415 1.609 1.813 1513
2.288 1.524 1.713 4450
2.425 1.615 1.809 2501
2.281 1.519 1.697 3999
2.423 1.614 1.796 3014
2.393 1.594 1.764 4072
2.273 1.514 1.681 3863
2.501 1.666 1.839 946
2.397 1.597 1.756 4707
2.288 1.524 1.681 3458
2.506 1.669 1.831 909
2.401 1.599 1.748 4895
2.292 1.527 1.673 2383
2.510 1.672 1.822 873
2.468 1.644 1.782 4753
2.359 1.571 1.708 2460
2.472 1.647 1.774 6833
2.363 1.574 1.700 2308
2.470 1.645 1.761 7799
2.361 1.573 1.688 1928
2.480 1.652 1.757 6829
2.370 1.579 1.684 1850
2.484 1.655 1.748 5888
2.374 1.581 1.676 1545
2.493 1.661 1.743 7041
2.384 1.588 1.671 1518
2.509 1.671 1.742 8843
2.399 1.598 1.671 1238
2.519 1.678 1.738 9252
2.408 1.604 1.666 989
2.528 1.684 1.733 8547
2.639 1.758 1.803 1260
2.418 1.611 1.662 1035
2.532 1.687 1.724 7919
2.643 1.760 1.794 1811
2.422 1.613 1.653 1031
2.536 1.689 1.715 8820
2.647 1.763 1.785 2355
2.425 1.616 1.645 812
2.546 1.696 1.710 8876
2.657 1.770 1.780 3206
2.579 1.718 1.720 9170
2.690 1.792 1.789 1187
2.588 1.724 1.714 11721
2.700 1.798 1.783 2273
2.610 1.738 1.716 11430
2.721 1.813 1.785 2237
2.498 1.664 1.648 1265
2.619 1.745 1.711 8321
2.731 1.819 1.779 2375
2.508 1.671 1.643 1400
2.629 1.751 1.705 7417
2.747 1.830 1.777 2407
2.517 1.677 1.638 1213
2.645 1.762 1.703 7264
2.763 1.840 1.774 2705
2.643 1.760 1.691 7131
2.772 1.847 1.768 4436
2.782 1.853 1.762 7022
2.646 1.763 1.682 6076
2.786 1.856 1.753 7927
2.668 1.777 1.683 3876
2.790 1.859 1.743 7531
2.678 1.784 1.677 2517
2.800 1.865 1.737 6185
2.681 1.786 1.668 2090
2.913 1.940 1.802 1234
2.780 1.852 1.713 8876
2.899 1.931 1.782 1975
2.667 1.777 1.648 1832
2.790 1.858 1.707 12543
2.903 1.934 1.772 2513
2.665 1.775 1.636 2020
2.805 1.869 1.704 13486
2.919 1.944 1.769 3018
2.686 1.789 1.637 2170
2.821 1.879 1.701 14880
2.935 1.955 1.765 4900
2.696 1.796 1.631 1617
2.831 1.886 1.695 9941
2.944 1.961 1.758 5730
2.664 1.774 1.601 787
2.859 1.904 1.698 6805
2.972 1.980 1.762 2825
2.862 1.907 1.689 8462
2.976 1.983 1.751 2227
2.860 1.905 1.675 8356
2.974 1.981 1.738 2127
2.852 1.900 1.659 6110
2.966 1.976 1.721 2968
2.856 1.902 1.649 4987
2.976 1.982 1.714 3960
3.090 2.058 1.775 874
3.034 2.021 1.732 6655
2.859 1.905 1.639 3811
3.032 2.020 1.719 8836
2.869 1.911 1.633 1967
3.036 2.022 1.708 9875
3.150 2.099 1.769 1166
2.866 1.910 1.620 1066
3.051 2.033 1.704 7959
3.166 2.109 1.764 1470
2.937 1.956 1.644 1130
3.073 2.047 1.703 6188
2.958 1.971 1.644 2810
3.188 2.124 1.762 1680
3.004 2.001 1.655 5137
3.156 2.102 1.733 4374
3.166 2.109 1.725 6958
3.020 2.012 1.651 5963
3.188 2.124 1.723 7948
3.073 2.047 1.665 4669
3.198 2.130 1.715 7430
3.082 2.053 1.657 2513
3.196 2.129 1.701 8121
3.031 2.019 1.619 1318
3.311 2.206 1.758 772
3.212 2.139 1.696 9123
3.041 2.026 1.612 960
3.346 2.229 1.762 765
3.240 2.158 1.697 8430
3.124 2.081 1.640 1671
3.356 2.235 1.753 1193
3.250 2.165 1.689 7623
3.134 2.087 1.632 1657
3.366 2.242 1.745 1371
3.278 2.184 1.689 10010
3.162 2.106 1.633 3045
3.394 2.261 1.745 1074
3.300 2.198 1.686 13400
3.184 2.121 1.631 3806
3.322 2.213 1.684 11983
3.206 2.135 1.629 2163
3.338 2.224 1.678 7373
3.222 2.146 1.623 1431
3.299 2.198 1.646 4145
3.416 2.275 1.701 1897
3.401 2.266 1.680 4350
3.284 2.188 1.627 2280
3.518 2.343 1.734 869
3.380 2.252 1.657 5772
3.522 2.346 1.722 2386
3.378 2.250 1.643 5388
3.526 2.349 1.710 4840
3.529 2.351 1.697 4905
3.375 2.248 1.628 3452
3.647 2.429 1.750 890
3.521 2.345 1.680 3915
3.379 2.251 1.617 2364
3.638 2.424 1.732 1079
3.537 2.356 1.673 3662
3.407 2.270 1.616 2126
3.698 2.463 1.744 1291
3.547 2.363 1.663 4052
3.429 2.284 1.612 2291
3.702 2.466 1.731 2027
3.538 2.357 1.646 6365
3.656 2.435 1.697 3059
3.420 2.278 1.595 1138
3.536 2.355 1.631 8623
3.653 2.434 1.681 4140
3.771 2.512 1.732 1495
3.533 2.353 1.616 6827
3.663 2.440 1.671 5594
3.781 2.519 1.721 2009
3.717 2.476 1.679 6211
3.537 2.356 1.604 4225
3.733 2.487 1.672 4612
3.559 2.371 1.599 3843
3.749 2.498 1.664 5322
3.569 2.377 1.589 2919
3.868 2.576 1.713 1098
3.747 2.496 1.648 5149
3.865 2.575 1.697 2553
3.578 2.384 1.580 1236
3.800 2.532 1.656 5394
3.919 2.611 1.703 2478
3.682 2.453 1.608 2116
3.910 2.605 1.685 5090
3.791 2.526 1.637 3872
3.673 2.447 1.590 949
3.908 2.603 1.669 5239
3.745 2.495 1.604 2576
3.911 2.606 1.655 5427
3.792 2.526 1.609 2282
4.074 2.714 1.719 1029
3.915 2.608 1.642 6565
3.796 2.529 1.595 1754
4.084 2.721 1.707 1321
3.925 2.615 1.631 6645
4.101 2.732 1.698 3068
3.806 2.535 1.585 1007
3.979 2.651 1.636 4613
4.098 2.730 1.682 3912
3.834 2.554 1.581 805
4.071 2.712 1.655 4948
3.951 2.632 1.610 2341
4.190 2.791 1.700 1256
3.986 2.655 1.608 3750
4.106 2.735 1.653 2218
4.257 2.836 1.709 1444
4.090 2.725 1.632 4425
4.273 2.846 1.699 2068
3.971 2.645 1.588 1885
4.094 2.727 1.618 5235
4.277 2.849 1.684 2602
4.117 2.742 1.610 2869
4.281 2.851 1.670 2663
4.272 2.846 1.650 4824
4.145 2.761 1.605 1728
4.275 2.848 1.635 5936
4.395 2.928 1.678 793
4.155 2.768 1.593 766
4.285 2.855 1.623 4024
4.165 2.775 1.581 1022
4.301 2.865 1.612 3657
4.422 2.946 1.654 1412
4.181 2.785 1.571 1078
4.305 2.868 1.597 3670
4.425 2.948 1.639 2818
4.499 2.997 1.647 2871
4.296 2.862 1.578 2772
4.619 3.077 1.688 1442
4.509 3.004 1.633 3477
4.629 3.084 1.674 2181
4.293 2.860 1.561 1927
4.633 3.086 1.658 4684
4.512 3.006 1.618 3403
4.392 2.926 1.578 1380
4.637 3.089 1.641 7759
4.516 3.008 1.602 3037
4.395 2.928 1.562 1018
4.640 3.091 1.625 5378
4.520 3.011 1.586 2531
4.638 3.089 1.607 4811
4.517 3.009 1.569 1726
4.641 3.092 1.591 7792
4.520 3.011 1.553 1425
4.645 3.094 1.575 7900
4.766 3.175 1.613 839
4.524 3.013 1.537 754
4.642 3.092 1.557 8749
5.082 3.385 1.693 1788
4.763 3.173 1.594 1090
4.652 3.099 1.543 10973
5.092 3.392 1.677 2402
4.773 3.179 1.580 1032
4.971 3.311 1.640 751
4.655 3.101 1.527 9620
5.032 3.352 1.640 1953
5.154 3.433 1.677 1215
4.796 3.195 1.569 781
4.658 3.103 1.510 8128
5.048 3.363 1.626 2839
5.170 3.444 1.662 2133
4.927 3.282 1.590 765
4.668 3.110 1.496 7840
5.154 3.434 1.639 3666
5.033 3.353 1.603 2872
4.671 3.112 1.480 5408
5.158 3.436 1.621 4809
5.036 3.355 1.586 2663
5.181 3.451 1.608 5323
4.675 3.114 1.464 3523
5.059 3.370 1.574 1706
5.360 3.571 1.660 1051
5.197 3.462 1.594 4257
5.364 3.573 1.641 2026
4.678 3.116 1.447 1737
5.075 3.381 1.560 1020
5.239 3.490 1.587 5089
5.368 3.576 1.623 2438
5.117 3.409 1.553 1251
5.236 3.488 1.567 5775
5.378 3.582 1.606 1752
5.500 3.664 1.639 1284
5.628 3.749 1.675 829
5.246 3.495 1.550 4413
5.381 3.585 1.587 2505
5.510 3.670 1.622 1758
5.664 3.773 1.664 1740
5.378 3.583 1.566 3128
5.668 3.776 1.644 3106
5.250 3.497 1.532 3046
5.520 3.677 1.604 2256
5.671 3.778 1.624 2526
5.382 3.585 1.548 2259
5.517 3.675 1.583 1835
5.253 3.499 1.514 1407
5.656 3.767 1.599 2211
5.392 3.592 1.531 1337
5.778 3.849 1.631 1069
5.250 3.497 1.494 1044
5.653 3.766 1.578 2595
5.775 3.847 1.610 1313
5.524 3.680 1.545 1264
5.253 3.499 1.476 914
5.708 3.802 1.571 2135
5.953 3.965 1.633 1376
5.521 3.678 1.524 932
6.075 4.047 1.664 862
5.705 3.800 1.550 3220
5.956 3.968 1.613 1890
6.085 4.054 1.645 991
5.695 3.794 1.527 4691
5.953 3.966 1.590 2666
6.095 4.060 1.625 1799
5.818 3.876 1.557 811
5.705 3.800 1.509 4850
5.963 3.972 1.571 3420
6.099 4.063 1.604 3373
6.383 4.252 1.673 957
5.715 3.807 1.490 3786
6.103 4.065 1.583 3541
5.980 3.983 1.554 2668
6.497 4.328 1.677 1473
5.718 3.809 1.470 2744
5.996 3.994 1.536 2589
6.119 4.076 1.565 2455
6.513 4.339 1.657 2147
6.556 4.367 1.643 2689
6.433 4.285 1.615 2350
5.999 3.997 1.515 2201
5.715 3.807 1.449 1747
6.585 4.387 1.627 3612
6.443 4.292 1.594 2300
6.022 4.012 1.498 1793
6.708 4.469 1.654 1162
6.583 4.385 1.602 3783
6.013 4.005 1.475 1673
6.706 4.467 1.630 1590
6.440 4.290 1.570 1571
6.580 4.383 1.578 5277
6.703 4.465 1.605 2087
7.059 4.702 1.683 2040
6.016 4.007 1.454 1292
6.583 4.385 1.555 6320
7.069 4.709 1.660 3974
6.706 4.467 1.582 2111
6.025 4.014 1.434 913
6.593 4.392 1.533 5043
7.080 4.716 1.637 4180
6.716 4.474 1.560 1538
7.339 4.889 1.692 1364
7.083 4.718 1.612 4245
6.590 4.390 1.509 3893
7.336 4.887 1.665 1637
7.492 4.991 1.698 1303
7.080 4.716 1.586 5926
6.593 4.392 1.486 3569
7.320 4.877 1.636 1751
6.717 4.474 1.511 1624
7.084 4.719 1.561 5492
6.596 4.394 1.463 2759
7.324 4.879 1.610 2061
6.720 4.476 1.488 1670
7.094 4.725 1.538 3148
7.341 4.890 1.587 1955
6.600 4.396 1.440 1880
7.783 5.184 1.675 1468
7.097 4.728 1.513 2128
7.364 4.905 1.565 1770
7.864 5.239 1.663 1228
7.741 5.157 1.639 1173
7.100 4.730 1.489 2050
8.337 5.553 1.725 1700
7.367 4.908 1.540 1159
7.836 5.220 1.629 1093
8.360 5.569 1.700 2065
7.624 5.079 1.562 1248
7.110 4.736 1.465 1244
7.930 5.283 1.619 916
8.370 5.576 1.672 1983
7.634 5.086 1.536 1537
7.921 5.276 1.589 1128
8.136 5.420 1.629 828
8.380 5.583 1.644 2177
8.504 5.665 1.666 958
8.882 5.917 1.734 906
7.638 5.088 1.510 862
8.384 5.585 1.614 3259
8.899 5.928 1.706 1081
9.244 6.158 1.767 1006
8.508 5.667 1.636 952
8.381 5.583 1.584 3132
9.248 6.161 1.734 1892
8.903 5.931 1.674 1026
9.033 6.017 1.697 847
9.246 6.159 1.701 2571
8.371 5.577 1.553 1917
8.887 5.920 1.640 1126
8.495 5.659 1.574 850
9.249 6.161 1.669 2737
8.453 5.631 1.536 1342
9.125 6.079 1.648 1312
8.884 5.918 1.608 1141
9.253 6.164 1.636 2168
9.122 6.077 1.615 1861
9.429 6.281 1.665 1369
8.822 5.877 1.566 1078
9.120 6.075 1.582 1923
9.446 6.292 1.634 1668
9.250 6.162 1.603 1514
8.832 5.883 1.537 861
9.116 6.073 1.549 1514
9.508 6.334 1.610 1496
9.332 6.217 1.583 1286
9.646 6.425 1.632 1016
9.505 6.332 1.576 1970
9.264 6.171 1.539 1238
9.656 6.432 1.599 1064
10.519 7.007 1.730 1044
9.509 6.334 1.543 2091
10.516 7.005 1.692 1116
9.274 6.178 1.508 1113
10.045 6.692 1.623 802
9.506 6.332 1.509 1558
10.526 7.012 1.657 1498
9.310 6.202 1.480 779
10.556 7.032 1.624 1675
9.450 6.295 1.467 1096
10.072 6.709 1.555 829
10.566 7.039 1.588 1469
10.069 6.707 1.519 960
9.453 6.297 1.434 948
10.537 7.019 1.546 1715
10.065 6.705 1.483 764
10.534 7.017 1.509 1751
10.530 7.015 1.471 1374
10.661 7.102 1.488 796
10.534 7.017 1.434 1040
10.658 7.100 1.449 922
10.661 7.102 1.412 962
10.524 7.010 1.396 755
10.651 7.095 1.373 784
1.892 1.254 1.727 2804
1.994 1.321 1.814 1334
1.896 1.256 1.720 5608
1.998 1.324 1.807 3695
1.751 1.160 1.596 1339
1.899 1.259 1.714 5608
2.002 1.326 1.801 4723
1.754 1.162 1.590 1339
1.946 1.290 1.744 7007
2.049 1.358 1.830 1167
1.758 1.165 1.584 1031
1.950 1.292 1.737 9561
2.053 1.360 1.823 1433
1.745 1.156 1.564 758
1.954 1.295 1.730 9233
2.057 1.363 1.816 2843
1.958 1.298 1.724 8906
2.061 1.366 1.809 4253
1.962 1.300 1.717 8906
2.065 1.369 1.802 4253
1.971 1.306 1.715 9536
2.075 1.375 1.799 4677
2.046 1.356 1.766 11686
1.942 1.287 1.681 4481
2.050 1.358 1.759 9987
1.946 1.290 1.674 3197
2.059 1.365 1.756 8520
1.955 1.296 1.672 2660
2.164 1.434 1.840 770
2.069 1.371 1.753 5930
1.964 1.302 1.670 2435
2.173 1.440 1.837 1400
2.073 1.373 1.746 3357
2.177 1.443 1.829 2165
1.968 1.304 1.663 1389
2.093 1.387 1.752 3248
2.198 1.456 1.835 1500
1.988 1.318 1.670 1408
2.097 1.390 1.745 3155
2.202 1.459 1.827 1588
1.992 1.320 1.663 1042
2.101 1.392 1.738 3112
2.206 1.462 1.820 1583
1.996 1.323 1.656 1173
2.099 1.391 1.726 3361
2.205 1.461 1.808 1438
1.994 1.321 1.645 811
2.081 1.379 1.702 3985
2.187 1.449 1.783 1815
2.113 1.400 1.716 4366
2.218 1.470 1.797 2426
2.122 1.406 1.713 5267
2.228 1.476 1.793 3334
2.131 1.412 1.710 4639
2.238 1.483 1.790 3556
2.197 1.456 1.749 4801
2.090 1.385 1.669 1709
2.303 1.526 1.828 768
2.206 1.462 1.745 6452
2.100 1.391 1.666 1818
2.313 1.533 1.825 922
2.216 1.468 1.742 8241
2.109 1.398 1.663 1744
2.323 1.539 1.821 880
2.242 1.486 1.751 8725
2.135 1.415 1.672 1654
2.246 1.488 1.743 9379
2.139 1.417 1.665 1414
2.256 1.495 1.740 8862
2.148 1.424 1.662 1289
2.282 1.512 1.748 10057
2.175 1.441 1.671 2455
2.298 1.522 1.748 8047
2.190 1.451 1.671 2042
2.313 1.533 1.749 6861
2.205 1.461 1.672 1220
2.311 1.531 1.737 5440
2.419 1.603 1.813 1612
2.203 1.460 1.660 794
2.286 1.515 1.709 4728
2.412 1.598 1.797 2700
2.285 1.514 1.697 4337
2.421 1.605 1.792 3024
2.288 1.516 1.689 3950
2.426 1.607 1.784 3360
2.412 1.598 1.764 3619
2.304 1.526 1.689 3484
2.521 1.671 1.839 758
2.462 1.632 1.787 4102
2.330 1.544 1.697 2858
2.466 1.634 1.778 5538
2.357 1.562 1.704 2687
2.476 1.641 1.774 7704
2.367 1.568 1.700 2609
2.480 1.643 1.765 8377
2.370 1.571 1.692 2440
2.484 1.646 1.757 7230
2.374 1.573 1.684 1998
2.494 1.652 1.752 6209
2.384 1.579 1.680 1808
2.503 1.659 1.747 7007
2.393 1.586 1.675 1694
2.519 1.669 1.746 8353
2.408 1.596 1.675 1270
2.523 1.672 1.738 8518
2.412 1.598 1.666 1068
2.532 1.678 1.733 8414
2.643 1.751 1.803 1508
2.422 1.605 1.662 1029
2.536 1.681 1.724 8348
2.647 1.754 1.794 2206
2.425 1.607 1.653 930
2.540 1.683 1.715 8882
2.651 1.757 1.785 2982
2.550 1.690 1.710 8328
2.661 1.763 1.780 3766
2.374 1.573 1.600 763
2.583 1.711 1.720 8460
2.694 1.785 1.789 1240
2.378 1.576 1.592 892
2.598 1.722 1.718 10553
2.710 1.796 1.787 2004
2.487 1.648 1.649 880
2.376 1.574 1.580 806
2.620 1.736 1.720 10443
2.731 1.810 1.788 1960
2.508 1.662 1.651 1570
2.624 1.739 1.711 7688
2.735 1.813 1.779 2340
2.512 1.664 1.643 1425
2.639 1.749 1.709 6662
2.757 1.827 1.780 2537
2.527 1.675 1.641 1383
2.649 1.755 1.703 6519
2.785 1.845 1.785 3099
2.647 1.754 1.691 6646
2.777 1.840 1.768 5486
2.787 1.847 1.762 8719
2.651 1.756 1.682 5472
2.791 1.849 1.753 9645
2.660 1.763 1.676 3064
2.795 1.852 1.743 8326
2.676 1.773 1.674 1669
2.804 1.858 1.737 5754
2.674 1.772 1.661 1452
2.917 1.933 1.802 969
2.790 1.849 1.717 8822
2.677 1.774 1.652 1497
2.904 1.924 1.782 1464
2.794 1.852 1.707 13460
2.908 1.927 1.772 1771
2.675 1.773 1.639 1747
2.810 1.862 1.704 16069
2.923 1.937 1.769 2265
2.679 1.775 1.630 1845
2.826 1.872 1.701 19096
2.939 1.948 1.765 3613
2.676 1.773 1.617 1325
2.848 1.887 1.702 11661
2.961 1.962 1.765 2841
2.662 1.764 1.598 763
2.869 1.901 1.702 7159
2.983 1.977 1.765 1451
2.873 1.904 1.692 7880
2.987 1.979 1.755 1334
2.877 1.906 1.682 6755
2.991 1.982 1.744 1598
2.857 1.893 1.659 4759
2.971 1.969 1.721 3642
2.969 1.967 1.707 5146
2.854 1.891 1.646 4058
3.083 2.043 1.769 1439
3.039 2.014 1.732 6480
2.924 1.938 1.671 3331
3.037 2.012 1.719 7972
2.922 1.936 1.658 2330
3.040 2.015 1.708 8531
2.926 1.939 1.648 1013
3.050 2.021 1.701 6740
3.165 2.097 1.761 802
3.078 2.040 1.703 5109
2.963 1.964 1.644 2268
3.194 2.116 1.762 1276
3.009 1.994 1.655 4762
3.161 2.095 1.733 3912
3.171 2.101 1.725 6757
3.025 2.005 1.651 5688
3.286 2.178 1.784 798
3.193 2.116 1.723 7256
3.077 2.039 1.665 4901
3.309 2.192 1.781 818
3.203 2.122 1.715 5907
3.087 2.046 1.657 3068
3.319 2.199 1.773 877
3.182 2.109 1.692 6126
3.298 2.186 1.749 2390
3.042 2.016 1.623 1213
3.241 2.148 1.708 7459
3.125 2.071 1.651 2413
3.357 2.225 1.765 752
3.245 2.150 1.697 7723
3.129 2.073 1.640 1646
3.361 2.227 1.753 1317
3.267 2.165 1.694 7594
3.151 2.088 1.638 2375
3.383 2.242 1.751 1327
3.289 2.180 1.692 11620
3.173 2.102 1.636 3066
3.406 2.257 1.748 1423
3.305 2.190 1.686 14021
3.189 2.113 1.631 3245
3.422 2.267 1.742 1110
3.328 2.205 1.684 10680
3.211 2.128 1.629 2098
3.350 2.220 1.681 6801
3.233 2.142 1.626 1889
3.467 2.297 1.735 913
3.298 2.185 1.644 4079
3.415 2.263 1.698 2605
3.532 2.340 1.752 808
3.382 2.241 1.669 3944
3.524 2.335 1.734 1005
3.379 2.239 1.654 5128
3.527 2.337 1.722 2485
3.531 2.340 1.710 5215
3.383 2.242 1.643 4451
3.529 2.338 1.695 5702
3.387 2.244 1.631 2894
3.458 2.292 1.650 3812
3.576 2.370 1.702 1387
3.561 2.360 1.681 3465
3.443 2.282 1.629 3127
3.716 2.462 1.749 1036
3.577 2.371 1.674 4976
3.447 2.284 1.618 2484
3.714 2.461 1.734 1348
3.544 2.348 1.646 5933
3.662 2.426 1.697 2893
3.426 2.270 1.595 1079
3.535 2.342 1.628 8355
3.659 2.425 1.681 3425
3.778 2.503 1.732 1388
3.539 2.345 1.616 7159
3.738 2.477 1.700 5915
3.729 2.471 1.682 7220
3.548 2.351 1.606 4713
3.739 2.478 1.672 5330
3.565 2.362 1.599 4426
3.749 2.484 1.661 6452
3.574 2.368 1.589 3380
3.868 2.563 1.710 1501
3.753 2.487 1.648 6165
3.872 2.565 1.697 3444
3.584 2.375 1.580 1393
3.806 2.522 1.656 5866
3.925 2.601 1.703 2812
3.688 2.444 1.608 1766
3.917 2.595 1.685 5296
3.798 2.516 1.637 4107
3.679 2.438 1.590 802
3.914 2.594 1.669 5605
3.795 2.515 1.622 2493
3.918 2.596 1.655 6115
3.799 2.517 1.609 2667
4.081 2.704 1.719 895
3.921 2.598 1.642 6947
3.802 2.519 1.595 2038
4.110 2.723 1.715 1315
3.931 2.605 1.631 6405
4.114 2.726 1.701 2808
3.812 2.526 1.585 898
3.979 2.637 1.634 4231
4.111 2.724 1.684 3483
4.083 2.706 1.658 4162
3.964 2.627 1.613 2560
4.203 2.785 1.703 1266
3.993 2.646 1.608 3065
4.112 2.725 1.653 2270
4.264 2.825 1.709 1491
4.103 2.719 1.634 3266
4.280 2.836 1.699 2091
3.983 2.640 1.590 1723
4.113 2.726 1.622 3807
4.284 2.839 1.684 2321
3.993 2.646 1.578 953
4.161 2.757 1.624 2502
4.294 2.845 1.672 2416
4.279 2.835 1.650 4416
4.158 2.755 1.607 1942
4.282 2.838 1.635 6051
4.162 2.758 1.593 1243
4.292 2.844 1.623 4815
4.172 2.764 1.581 1060
4.302 2.851 1.610 4020
4.435 2.939 1.656 1584
4.182 2.771 1.568 941
4.306 2.853 1.595 3211
4.426 2.933 1.636 2664
4.547 3.013 1.678 977
4.512 2.990 1.649 2832
4.309 2.855 1.580 2582
4.633 3.070 1.690 1508
4.522 2.997 1.635 3038
4.306 2.854 1.563 2106
4.643 3.077 1.676 1831
4.634 3.071 1.655 4362
4.513 2.991 1.616 2698
4.392 2.911 1.576 1255
4.644 3.077 1.641 7226
4.523 2.997 1.602 2864
4.402 2.917 1.562 1219
4.648 3.080 1.625 5329
4.527 3.000 1.586 2641
4.645 3.078 1.607 5482
4.524 2.998 1.569 2204
4.649 3.080 1.591 10040
4.527 3.000 1.553 1675
4.783 3.169 1.633 797
4.652 3.083 1.575 10395
4.818 3.193 1.627 769
4.649 3.081 1.557 10804
5.078 3.365 1.689 1556
4.659 3.087 1.543 13252
5.101 3.380 1.677 1835
4.781 3.168 1.580 876
4.663 3.090 1.527 10915
5.130 3.399 1.667 1650
5.008 3.319 1.630 880
4.810 3.187 1.571 787
4.672 3.096 1.512 9025
5.166 3.423 1.659 2394
5.044 3.342 1.623 1618
4.676 3.098 1.496 8750
5.150 3.413 1.635 3712
5.028 3.332 1.599 1432
5.154 3.415 1.617 5810
4.679 3.100 1.480 5418
5.032 3.334 1.582 1506
5.276 3.496 1.652 959
5.170 3.426 1.603 6157
4.682 3.103 1.464 3195
5.048 3.345 1.568 1176
5.369 3.558 1.660 765
5.167 3.424 1.583 4624
4.685 3.105 1.447 1669
5.379 3.564 1.643 1540
5.241 3.473 1.585 4483
5.376 3.563 1.623 1727
5.119 3.392 1.551 1418
5.251 3.480 1.569 4996
5.464 3.620 1.627 1883
5.637 3.735 1.675 901
5.255 3.482 1.550 4209
5.461 3.618 1.606 2140
5.680 3.764 1.665 1666
5.258 3.484 1.532 3202
5.677 3.762 1.644 2924
5.451 3.612 1.584 2592
5.674 3.760 1.623 2792
5.461 3.619 1.566 2431
5.262 3.486 1.514 1397
5.797 3.841 1.655 762
5.665 3.754 1.599 2309
5.471 3.625 1.549 1311
5.787 3.835 1.631 1303
5.246 3.476 1.490 1032
5.662 3.752 1.578 2194
5.784 3.833 1.610 1805
5.526 3.662 1.543 1170
5.946 3.940 1.651 939
5.788 3.835 1.589 2187
5.665 3.754 1.558 1657
5.949 3.942 1.630 1589
6.085 4.032 1.664 1256
5.707 3.782 1.548 3469
5.960 3.949 1.611 2011
6.095 4.039 1.645 1420
5.830 3.863 1.579 844
5.704 3.780 1.527 4551
6.105 4.046 1.625 2440
5.963 3.951 1.590 2331
5.827 3.861 1.557 910
6.109 4.048 1.604 4347
5.714 3.786 1.509 4258
5.967 3.954 1.570 2603
6.400 4.241 1.674 955
6.119 4.055 1.584 4487
5.724 3.793 1.490 3164
5.989 3.969 1.554 2087
6.507 4.312 1.677 1503
6.129 4.061 1.565 3262
6.524 4.323 1.657 2328
6.006 3.980 1.536 2200
5.727 3.795 1.470 2000
6.560 4.347 1.642 2570
6.113 4.051 1.539 2238
6.437 4.265 1.614 1765
5.990 3.969 1.510 1523
6.609 4.379 1.629 3801
6.447 4.272 1.593 1757
6.116 4.053 1.518 1491
5.993 3.971 1.490 965
6.600 4.373 1.604 3861
7.054 4.674 1.705 1364
6.437 4.266 1.567 1156
6.126 4.059 1.498 1089
6.590 4.367 1.578 5317
7.071 4.685 1.683 1881
6.136 4.066 1.478 1209
6.714 4.449 1.605 1168
6.600 4.374 1.556 6225
7.081 4.692 1.660 3710
6.957 4.610 1.633 1376
6.146 4.072 1.458 1142
6.604 4.376 1.533 5080
7.091 4.699 1.637 4070
6.968 4.617 1.611 1788
7.351 4.871 1.692 1542
6.600 4.374 1.509 4148
7.095 4.701 1.612 3792
7.348 4.869 1.665 1738
6.971 4.619 1.586 1685
7.092 4.699 1.586 5419
6.604 4.376 1.486 3730
7.326 4.854 1.634 1765
7.449 4.936 1.660 1406
7.089 4.697 1.560 5334
6.607 4.378 1.463 2781
7.329 4.857 1.609 2112
7.590 5.029 1.661 1365
7.099 4.704 1.537 2994
7.372 4.885 1.591 2056
6.610 4.380 1.440 1743
7.763 5.144 1.668 1318
7.382 4.892 1.567 2066
7.108 4.710 1.513 1901
7.890 5.228 1.665 1484
7.760 5.142 1.640 1262
7.112 4.713 1.489 1859
7.379 4.890 1.540 1465
8.344 5.529 1.724 1395
7.926 5.252 1.644 1080
8.380 5.553 1.701 1523
7.943 5.263 1.619 1223
7.122 4.719 1.465 1202
7.643 5.065 1.563 1100
8.390 5.560 1.673 1563
7.940 5.261 1.590 1442
7.640 5.063 1.535 1300
8.149 5.400 1.629 1107
8.394 5.562 1.644 1975
8.518 5.644 1.666 1031
8.896 5.895 1.734 969
7.931 5.255 1.560 885
8.398 5.565 1.614 2903
8.835 5.854 1.692 1118
9.259 6.136 1.767 935
9.031 5.984 1.726 894
8.395 5.563 1.584 2652
9.263 6.138 1.734 1768
9.041 5.991 1.696 1000
8.845 5.861 1.662 926
9.261 6.136 1.701 2541
8.463 5.608 1.566 2015
9.136 6.054 1.680 976
8.895 5.894 1.639 902
9.264 6.139 1.669 2866
9.140 6.057 1.648 1490
8.467 5.610 1.536 1309
8.820 5.844 1.595 1267
9.268 6.141 1.636 2198
9.144 6.059 1.616 1824
8.830 5.851 1.565 1292
9.438 6.254 1.664 1078
9.134 6.053 1.582 1840
9.259 6.135 1.602 1469
9.468 6.274 1.635 1150
8.846 5.862 1.537 947
9.131 6.051 1.549 1578
9.530 6.315 1.611 1477
9.262 6.137 1.570 1262
10.532 6.979 1.767 1003
9.534 6.318 1.578 1695
10.542 6.986 1.731 1284
9.285 6.153 1.540 1211
9.128 6.049 1.517 1084
9.537 6.320 1.545 1778
10.566 7.001 1.697 1367
9.289 6.155 1.508 1161
10.061 6.667 1.623 794
10.563 6.999 1.659 1774
9.541 6.322 1.512 1447
9.298 6.161 1.477 818
10.573 7.006 1.624 1971
9.465 6.272 1.467 814
10.583 7.013 1.588 1572
9.475 6.279 1.435 777
10.541 6.985 1.544 1986
10.557 6.996 1.509 1801
10.561 6.998 1.473 1223
10.544 6.987 1.433 859
10.859 7.196 1.472 757
10.626 7.041 1.406 779
10.891 7.217 1.323 760
1.902 1.250 1.731 3063
2.004 1.317 1.819 919
1.906 1.252 1.725 6126
2.008 1.320 1.812 2767
1.755 1.153 1.596 1119
1.910 1.255 1.718 6126
2.012 1.322 1.805 3697
1.758 1.156 1.590 1119
1.940 1.275 1.734 6287
2.043 1.343 1.821 1456
1.757 1.154 1.579 925
1.955 1.285 1.737 8585
2.058 1.353 1.823 1102
1.755 1.153 1.569 778
1.959 1.288 1.730 8692
2.062 1.355 1.816 2058
1.963 1.290 1.724 8800
2.066 1.358 1.809 3015
1.967 1.293 1.717 8800
2.070 1.361 1.802 3015
1.976 1.299 1.715 9480
2.080 1.367 1.799 3314
1.980 1.301 1.708 10311
2.084 1.370 1.792 4260
1.989 1.307 1.705 8686
2.094 1.376 1.790 3519
1.999 1.314 1.703 7227
2.103 1.382 1.787 2977
2.074 1.363 1.753 5417
1.969 1.294 1.670 2416
2.179 1.432 1.837 1372
2.078 1.366 1.746 3998
2.183 1.435 1.829 2056
1.973 1.297 1.663 1255
2.082 1.368 1.739 3688
2.187 1.437 1.822 2056
1.977 1.299 1.656 859
2.102 1.382 1.745 3189
2.208 1.451 1.827 1425
1.997 1.313 1.663 862
2.106 1.384 1.738 3107
2.212 1.454 1.820 1435
2.001 1.315 1.656 950
2.110 1.387 1.731 3708
2.216 1.456 1.812 1329
2.005 1.317 1.649 804
2.120 1.393 1.728 4332
2.225 1.463 1.809 1279
2.123 1.396 1.720 5018
2.230 1.465 1.801 2106
2.127 1.398 1.713 5705
2.234 1.468 1.793 2933
2.137 1.404 1.710 4729
2.243 1.474 1.790 2915
2.208 1.451 1.753 4270
2.101 1.381 1.673 1948
2.212 1.454 1.745 5714
2.105 1.383 1.666 1628
2.319 1.524 1.825 764
2.227 1.464 1.746 7238
2.120 1.393 1.667 1662
2.248 1.477 1.751 7168
2.141 1.407 1.672 1532
2.252 1.480 1.743 7117
2.144 1.409 1.665 1331
2.359 1.551 1.821 782
2.284 1.501 1.756 7726
2.176 1.430 1.678 2640
2.299 1.511 1.756 9427
2.192 1.440 1.679 3599
2.315 1.521 1.757 7799
2.207 1.450 1.680 2897
2.324 1.528 1.753 6905
2.216 1.456 1.676 1849
2.334 1.534 1.749 5614
2.226 1.463 1.672 1860
2.442 1.605 1.825 1240
2.286 1.503 1.705 5347
2.395 1.574 1.781 3662
2.503 1.645 1.857 976
2.290 1.505 1.697 4863
2.399 1.577 1.772 3014
2.508 1.648 1.848 989
2.305 1.515 1.697 4485
2.432 1.598 1.784 3046
2.326 1.529 1.701 3890
2.453 1.612 1.787 3592
2.463 1.618 1.783 4514
2.348 1.543 1.705 3717
2.472 1.625 1.778 6276
2.363 1.553 1.704 3329
2.476 1.627 1.770 8351
2.367 1.555 1.696 3085
2.486 1.634 1.765 8631
2.376 1.562 1.692 2958
2.490 1.636 1.757 7322
2.380 1.564 1.684 2296
2.506 1.647 1.756 6348
2.395 1.574 1.683 2030
2.527 1.661 1.759 7400
2.417 1.588 1.687 1979
2.531 1.663 1.750 8289
2.420 1.591 1.678 1117
2.541 1.670 1.745 8090
2.430 1.597 1.674 1146
2.574 1.691 1.755 7924
2.463 1.619 1.684 1149
2.334 1.534 1.602 917
2.589 1.702 1.754 8954
2.344 1.540 1.598 1558
2.478 1.629 1.683 1173
2.611 1.716 1.756 8596
2.500 1.643 1.686 2569
2.347 1.543 1.590 1938
2.626 1.726 1.754 8416
2.515 1.653 1.684 2982
2.351 1.545 1.582 1610
2.630 1.729 1.745 7468
2.519 1.655 1.676 2401
2.349 1.544 1.570 1319
2.742 1.802 1.814 947
2.628 1.727 1.732 9381
2.517 1.654 1.663 1932
2.358 1.550 1.565 1427
2.740 1.801 1.801 1349
2.626 1.726 1.720 8907
2.738 1.800 1.788 1943
2.361 1.552 1.557 1728
2.514 1.653 1.651 1210
2.630 1.729 1.711 6376
2.742 1.802 1.779 2270
2.371 1.558 1.553 1901
2.518 1.655 1.643 1107
2.640 1.735 1.705 5252
2.770 1.820 1.784 2588
2.374 1.560 1.545 1493
2.528 1.661 1.638 950
2.656 1.745 1.703 5035
2.792 1.835 1.785 3294
2.389 1.570 1.544 928
2.784 1.830 1.768 6241
2.653 1.744 1.691 5062
2.788 1.832 1.759 10303
2.651 1.743 1.678 4221
2.792 1.835 1.749 11385
2.661 1.749 1.672 2451
2.796 1.837 1.739 9288
2.683 1.763 1.674 1828
2.770 1.820 1.713 5697
2.883 1.895 1.778 1379
2.657 1.746 1.647 858
2.797 1.839 1.717 8457
2.929 1.925 1.792 1194
2.660 1.748 1.638 848
2.807 1.845 1.711 13272
2.921 1.920 1.775 1278
2.670 1.755 1.632 1229
2.823 1.855 1.708 17054
2.943 1.934 1.775 1761
2.679 1.761 1.627 1351
2.839 1.866 1.705 20646
2.953 1.941 1.769 1993
2.677 1.759 1.614 1126
2.861 1.880 1.705 12159
2.747 1.805 1.642 833
2.975 1.955 1.768 768
2.876 1.890 1.702 7412
2.886 1.897 1.695 7315
3.001 1.972 1.758 982
2.902 1.907 1.692 6130
3.029 1.990 1.761 1484
2.966 1.949 1.714 5405
2.852 1.874 1.653 2792
3.081 2.025 1.776 750
2.970 1.952 1.704 6583
2.855 1.877 1.643 2567
3.085 2.027 1.766 1583
2.980 1.958 1.697 6774
2.865 1.883 1.636 2259
3.095 2.034 1.758 1937
3.038 1.997 1.716 6136
2.923 1.921 1.655 2633
3.048 2.003 1.708 5961
2.933 1.928 1.648 1084
3.058 2.010 1.701 4460
3.173 2.086 1.761 869
3.013 1.980 1.665 3331
3.129 2.056 1.725 1940
3.017 1.983 1.655 4364
3.163 2.079 1.730 3681
3.173 2.085 1.722 6602
3.027 1.989 1.648 5054
3.289 2.161 1.780 1176
3.189 2.096 1.717 6395
3.073 2.020 1.659 4404
3.305 2.172 1.775 1825
3.266 2.146 1.743 4931
3.107 2.042 1.663 3950
3.264 2.145 1.728 4978
3.148 2.069 1.671 3655
3.031 1.992 1.613 858
3.255 2.140 1.711 6312
3.139 2.063 1.654 2899
3.253 2.138 1.697 6810
3.137 2.061 1.640 1556
3.370 2.215 1.753 1347
3.281 2.157 1.697 8023
3.165 2.080 1.641 2467
3.398 2.233 1.754 1583
3.297 2.167 1.692 13251
3.181 2.090 1.636 2326
3.414 2.244 1.748 1957
3.307 2.174 1.684 14032
3.191 2.097 1.628 2085
3.424 2.251 1.739 1665
3.330 2.188 1.681 8365
3.213 2.111 1.626 1575
3.447 2.265 1.736 1088
3.370 2.215 1.687 5967
3.253 2.138 1.632 2599
3.488 2.292 1.741 1022
3.399 2.234 1.686 5128
3.282 2.157 1.632 3094
3.516 2.311 1.740 1082
3.415 2.244 1.680 4144
3.298 2.167 1.627 2436
3.532 2.322 1.734 1391
3.450 2.267 1.683 3969
3.332 2.190 1.629 1860
3.567 2.344 1.736 1844
3.534 2.323 1.707 5305
3.391 2.229 1.643 3100
3.532 2.321 1.692 6975
3.401 2.235 1.634 2402
3.535 2.323 1.680 5997
3.417 2.246 1.628 3162
3.551 2.334 1.673 4442
3.433 2.257 1.621 3359
3.670 2.412 1.725 1297
3.586 2.357 1.674 5771
3.449 2.267 1.615 2472
3.748 2.463 1.744 844
3.553 2.335 1.646 5195
3.671 2.413 1.697 2821
3.434 2.257 1.595 1021
3.544 2.329 1.628 7003
3.737 2.456 1.710 3136
3.747 2.463 1.700 6625
3.547 2.331 1.616 6596
3.745 2.461 1.685 7727
3.557 2.338 1.606 4895
3.863 2.539 1.734 788
3.748 2.464 1.672 5740
3.580 2.353 1.602 4862
3.752 2.466 1.659 7068
3.589 2.359 1.592 3541
3.871 2.544 1.708 1835
3.756 2.468 1.646 6878
3.875 2.547 1.694 4331
3.599 2.366 1.582 1360
3.822 2.512 1.658 5977
3.941 2.590 1.706 2588
3.703 2.434 1.610 1741
3.933 2.585 1.687 4707
3.813 2.506 1.640 4265
3.694 2.428 1.592 812
3.924 2.579 1.669 5192
3.804 2.500 1.622 2475
4.043 2.657 1.716 762
3.928 2.581 1.655 5955
3.808 2.503 1.609 2914
4.047 2.660 1.702 979
3.938 2.588 1.644 6433
3.818 2.509 1.598 2540
4.057 2.666 1.690 1236
3.947 2.594 1.633 5577
4.118 2.706 1.698 2444
3.828 2.516 1.587 1141
3.964 2.605 1.624 3814
4.084 2.684 1.670 3365
4.203 2.763 1.715 757
4.087 2.686 1.655 3022
3.967 2.607 1.610 2108
4.207 2.765 1.700 1246
4.009 2.635 1.611 2559
4.135 2.718 1.658 2245
4.274 2.809 1.709 1228
4.133 2.716 1.641 2436
4.284 2.816 1.697 1768
4.012 2.637 1.597 1383
4.136 2.718 1.627 2236
4.288 2.818 1.682 1753
4.171 2.742 1.624 1881
4.298 2.825 1.670 1810
4.289 2.819 1.650 3744
4.169 2.740 1.607 1933
4.299 2.826 1.638 5715
4.179 2.746 1.595 1821
4.316 2.836 1.627 5840
4.195 2.757 1.585 1215
4.443 2.920 1.671 998
4.313 2.834 1.610 5083
4.453 2.926 1.658 1765
4.192 2.755 1.568 867
4.316 2.837 1.595 3586
4.475 2.941 1.649 1795
4.409 2.898 1.610 2912
4.530 2.977 1.651 2471
4.288 2.818 1.569 1279
4.651 3.057 1.692 1027
4.330 2.846 1.567 2505
4.483 2.946 1.618 2294
