5.419 1.772 1.484 2433
6.224 2.036 1.686 2161
5.895 1.928 1.603 2132
5.921 1.936 1.590 1853
6.221 2.035 1.665 1834
6.075 1.987 1.629 1672
6.470 2.116 1.726 1600
6.526 2.134 1.719 2375
6.350 2.077 1.676 2029
6.189 2.024 1.637 1738
6.049 1.978 1.603 1278
6.398 2.093 1.667 2783
6.538 2.138 1.701 2100
6.252 2.045 1.632 1645
6.039 1.975 1.581 1340
6.395 2.092 1.646 3098
6.725 2.200 1.725 1564
6.256 2.046 1.613 1422
6.535 2.137 1.679 1245
6.377 2.086 1.622 2869
6.656 2.177 1.687 2006
6.517 2.131 1.654 1000
6.661 2.178 1.667 2651
6.374 2.085 1.600 1679
6.521 2.133 1.634 1271
6.800 2.224 1.699 910
6.672 2.182 1.648 2871
6.452 2.110 1.598 1413
6.981 2.283 1.718 1044
6.812 2.228 1.680 809
6.676 2.183 1.628 2572
6.985 2.285 1.697 1318
6.536 2.138 1.596 1129
6.816 2.229 1.659 922
6.673 2.182 1.606 1970
6.968 2.279 1.671 1959
6.828 2.233 1.640 1020
7.277 2.380 1.739 894
7.038 2.302 1.664 1614
6.861 2.244 1.626 1341
6.677 2.184 1.585 1200
7.289 2.384 1.719 1180
7.293 2.385 1.697 1510
7.050 2.306 1.644 1376
7.433 2.431 1.727 977
6.747 2.207 1.579 883
7.290 2.384 1.673 2169
7.046 2.305 1.621 1466
7.548 2.469 1.728 1426
7.688 2.514 1.757 874
7.567 2.475 1.708 2340
7.294 2.386 1.651 2277
7.722 2.526 1.740 959
7.028 2.299 1.595 956
7.579 2.479 1.686 1963
7.298 2.387 1.628 1596
7.882 2.578 1.748 1352
7.741 2.532 1.719 1117
7.709 2.521 1.688 2099
7.908 2.586 1.729 2094
7.487 2.449 1.643 1214
7.295 2.386 1.605 972
7.942 2.598 1.710 3354
7.706 2.520 1.663 3279
7.506 2.455 1.624 1032
7.947 2.599 1.686 4213
7.710 2.522 1.640 2962
7.943 2.598 1.661 4172
7.714 2.523 1.616 1752
8.491 2.777 1.766 788
7.948 2.599 1.636 4030
8.481 2.774 1.737 1102
7.807 2.553 1.610 832
7.952 2.601 1.612 3630
8.478 2.773 1.710 1401
8.619 2.819 1.736 968
7.956 2.602 1.588 4645
8.097 2.648 1.614 1148
8.482 2.774 1.684 1080
8.623 2.820 1.710 874
7.960 2.603 1.563 5541
8.101 2.649 1.589 1111
8.635 2.824 1.685 1065
8.494 2.778 1.660 1020
7.971 2.607 1.540 3827
8.639 2.825 1.659 1538
8.498 2.779 1.634 1069
8.891 2.908 1.703 899
7.982 2.611 1.517 2484
8.643 2.827 1.632 1600
8.895 2.909 1.676 1296
9.259 3.028 1.739 857
7.971 2.607 1.491 1865
8.647 2.828 1.606 1346
8.892 2.908 1.648 1141
9.160 2.996 1.693 837
9.706 3.174 1.756 1071
9.966 3.260 1.800 1069
7.982 2.611 1.467 961
8.659 2.832 1.581 952
9.711 3.176 1.727 1288
9.971 3.261 1.769 919
9.153 2.994 1.635 893
8.908 2.913 1.595 765
9.522 3.114 1.666 1139
9.998 3.270 1.742 914
9.708 3.175 1.696 837
10.002 3.271 1.712 1228
9.504 3.108 1.633 1065
10.426 3.410 1.779 1029
9.861 3.225 1.690 794
10.007 3.273 1.681 1682
10.438 3.414 1.748 1190
10.833 3.543 1.809 837
9.672 3.163 1.629 808
10.011 3.274 1.651 1986
10.562 3.454 1.734 1351
10.830 3.542 1.775 1056
10.420 3.408 1.713 973
10.008 3.273 1.619 1581
10.566 3.456 1.702 1201
10.835 3.543 1.742 978
10.417 3.407 1.680 836
10.302 3.369 1.631 1176
10.876 3.557 1.714 1130
11.182 3.657 1.759 1075
10.012 3.274 1.588 915
11.186 3.658 1.725 1665
10.985 3.593 1.696 1300
10.314 3.373 1.600 1231
11.514 3.766 1.771 1037
11.511 3.765 1.735 1730
10.982 3.592 1.661 1461
11.206 3.665 1.692 1380
10.571 3.457 1.604 837
11.516 3.766 1.700 1660
11.232 3.673 1.661 1264
11.016 3.603 1.632 1034
12.060 3.944 1.774 977
11.236 3.675 1.627 1504
12.072 3.948 1.738 1390
11.035 3.609 1.600 1279
11.654 3.812 1.682 1081
12.084 3.952 1.702 1642
11.233 3.674 1.591 1572
11.039 3.610 1.566 1201
11.651 3.811 1.646 1129
12.089 3.954 1.665 1462
11.229 3.673 1.556 1389
11.909 3.895 1.642 1025
11.558 3.780 1.598 982
11.906 3.894 1.605 1403
11.248 3.679 1.524 1084
12.093 3.955 1.628 1044
11.570 3.784 1.563 978
11.902 3.893 1.568 1223
12.702 4.154 1.664 782
12.269 4.013 1.612 760
13.065 4.273 1.667 1185
12.280 4.016 1.575 934
12.699 4.153 1.624 769
13.077 4.277 1.628 1313
13.096 4.283 1.590 934
2.209 0.712 1.763 7000
2.092 0.675 1.676 961
2.213 0.714 1.757 14000
2.097 0.676 1.669 1923
2.218 0.715 1.750 14000
2.101 0.678 1.663 1923
2.372 0.765 1.865 1346
2.222 0.717 1.744 14161
2.376 0.766 1.857 2650
2.105 0.679 1.657 1545
2.227 0.718 1.737 14322
2.381 0.768 1.850 3954
2.109 0.680 1.651 1167
2.225 0.718 1.726 12275
2.386 0.770 1.843 5996
2.107 0.680 1.640 925
2.229 0.719 1.719 10348
2.391 0.771 1.836 8037
2.099 0.677 1.624 830
2.234 0.720 1.712 10348
2.401 0.775 1.833 8162
2.412 0.778 1.831 8271
2.232 0.720 1.701 7966
2.423 0.782 1.828 8657
2.224 0.717 1.686 5923
2.422 0.781 1.816 8698
2.253 0.727 1.697 5455
2.426 0.783 1.809 8813
2.270 0.732 1.699 6220
2.431 0.784 1.802 7652
2.280 0.736 1.696 5424
2.550 0.823 1.885 971
2.442 0.788 1.799 6634
2.291 0.739 1.694 4849
2.561 0.826 1.882 1357
2.447 0.789 1.791 6634
2.295 0.740 1.687 3789
2.566 0.828 1.874 1853
2.451 0.791 1.784 5511
2.293 0.740 1.676 2736
2.571 0.829 1.866 2670
2.481 0.800 1.794 4863
2.601 0.839 1.876 2999
2.298 0.741 1.669 2733
2.574 0.830 1.846 6053
2.454 0.791 1.765 4829
2.302 0.742 1.662 2055
2.579 0.832 1.839 8617
2.458 0.793 1.757 5271
2.312 0.746 1.659 1410
2.590 0.835 1.835 8542
2.469 0.796 1.754 4168
2.317 0.747 1.652 1123
2.601 0.839 1.832 8784
2.480 0.800 1.751 2858
2.314 0.747 1.641 865
2.606 0.840 1.824 8161
2.485 0.801 1.744 2536
2.610 0.842 1.816 7538
2.489 0.803 1.736 2213
2.596 0.837 1.796 6308
2.474 0.798 1.716 1256
2.237 0.722 1.562 899
2.718 0.877 1.875 770
2.594 0.837 1.784 5383
2.235 0.721 1.551 1216
2.716 0.876 1.862 1048
2.669 0.861 1.821 4720
2.547 0.822 1.743 2638
2.245 0.724 1.548 1283
2.680 0.865 1.817 5023
2.558 0.825 1.739 2112
2.249 0.725 1.542 1352
2.685 0.866 1.809 4986
2.563 0.827 1.731 1695
2.253 0.727 1.535 1178
2.696 0.870 1.805 4970
2.573 0.830 1.728 1579
2.263 0.730 1.532 957
2.668 0.861 1.777 6813
2.791 0.900 1.854 963
2.274 0.733 1.530 765
2.545 0.821 1.700 758
2.666 0.860 1.765 9604
2.790 0.900 1.841 1646
2.677 0.864 1.761 9223
2.801 0.903 1.837 1783
2.688 0.867 1.757 9153
2.812 0.907 1.833 1632
2.699 0.871 1.753 6373
2.823 0.911 1.828 1502
2.763 0.891 1.780 5838
2.639 0.851 1.705 1483
2.887 0.931 1.855 857
2.780 0.897 1.780 5903
2.656 0.857 1.705 1456
2.905 0.937 1.854 757
2.785 0.898 1.771 6492
2.909 0.938 1.846 888
2.783 0.898 1.759 6771
2.907 0.938 1.833 954
2.794 0.901 1.754 7486
2.919 0.941 1.828 2005
2.798 0.903 1.746 8539
2.923 0.943 1.819 3163
2.803 0.904 1.738 7110
2.928 0.944 1.810 4057
2.807 0.905 1.729 5680
2.933 0.946 1.802 4951
2.931 0.945 1.789 5911
2.805 0.905 1.717 4382
3.056 0.986 1.861 986
2.935 0.947 1.780 7729
2.809 0.906 1.708 2522
3.061 0.987 1.852 1374
2.940 0.948 1.771 8845
2.814 0.908 1.700 1726
3.066 0.989 1.843 1375
2.951 0.952 1.766 8505
2.825 0.911 1.695 1821
3.077 0.993 1.837 1253
2.962 0.955 1.761 8285
2.836 0.915 1.690 2171
3.089 0.996 1.831 1096
3.027 0.976 1.785 6284
2.860 0.922 1.693 2059
3.153 1.017 1.855 973
3.038 0.980 1.780 7475
2.911 0.939 1.710 2034
3.165 1.021 1.850 1295
3.049 0.983 1.774 6575
2.922 0.942 1.705 1911
3.176 1.024 1.844 1682
3.074 0.991 1.776 7293
2.946 0.950 1.707 1669
3.201 1.032 1.845 1475
3.078 0.993 1.767 8092
3.206 1.034 1.835 1467
3.110 1.003 1.772 6921
3.237 1.044 1.840 1146
2.982 0.962 1.704 1062
3.128 1.009 1.770 5888
3.000 0.968 1.702 1239
3.255 1.050 1.837 1122
3.152 1.017 1.771 5033
3.011 0.971 1.696 865
3.280 1.058 1.838 770
3.150 1.016 1.758 6023
3.015 0.973 1.687 972
3.278 1.057 1.825 852
3.209 1.035 1.776 9115
3.080 0.994 1.710 1293
3.213 1.036 1.767 12188
3.085 0.995 1.700 1193
3.218 1.038 1.757 13622
3.089 0.996 1.691 1048
3.346 1.079 1.823 908
3.236 1.044 1.754 13012
3.107 1.002 1.689 1551
3.365 1.085 1.819 794
3.261 1.052 1.754 11628
3.132 1.010 1.689 2673
3.258 1.051 1.741 9485
3.129 1.009 1.677 2327
3.388 1.093 1.806 872
3.263 1.052 1.731 9003
3.133 1.011 1.667 1565
3.392 1.094 1.796 1317
3.267 1.054 1.722 7807
3.397 1.096 1.785 1886
3.285 1.060 1.718 6175
3.415 1.101 1.782 2216
3.317 1.070 1.722 5455
3.447 1.112 1.785 1740
3.321 1.071 1.712 5186
3.451 1.113 1.774 2633
3.346 1.079 1.711 6723
3.477 1.121 1.774 2653
3.364 1.085 1.708 8477
3.495 1.127 1.770 2296
3.376 1.089 1.701 8157
3.506 1.131 1.762 2826
3.245 1.047 1.639 769
3.387 1.092 1.694 7842
3.518 1.135 1.755 4589
3.256 1.050 1.633 781
3.405 1.098 1.690 7834
3.536 1.140 1.751 5417
3.274 1.056 1.629 990
3.457 1.115 1.702 6737
3.589 1.157 1.762 1976
3.326 1.073 1.642 1604
3.469 1.119 1.695 7329
3.600 1.161 1.755 1691
3.337 1.076 1.635 900
3.487 1.125 1.690 7402
3.618 1.167 1.750 1976
3.355 1.082 1.631 988
3.533 1.139 1.699 9704
3.664 1.182 1.758 1958
3.401 1.097 1.640 1024
3.544 1.143 1.691 11788
3.711 1.197 1.765 3115
3.357 1.083 1.608 818
3.555 1.147 1.683 10128
3.715 1.198 1.754 4686
3.566 1.150 1.676 5640
3.699 1.193 1.733 5096
3.831 1.236 1.791 1493
3.696 1.192 1.719 3737
3.550 1.145 1.656 3549
3.828 1.235 1.777 2265
3.554 1.146 1.645 3850
3.791 1.223 1.747 3476
3.924 1.266 1.804 901
3.747 1.208 1.715 5010
3.558 1.148 1.634 3619
3.914 1.262 1.786 1985
3.793 1.223 1.721 7431
3.562 1.149 1.624 2940
3.926 1.266 1.777 2444
3.811 1.229 1.715 9996
3.944 1.272 1.771 3168
3.566 1.150 1.613 1702
3.823 1.233 1.707 7379
3.956 1.276 1.762 4658
3.690 1.190 1.651 861
3.953 1.275 1.747 7387
3.820 1.232 1.692 4957
3.958 1.277 1.735 7341
3.824 1.234 1.681 4617
3.941 1.271 1.715 6823
3.808 1.228 1.661 2693
4.075 1.314 1.769 1691
4.016 1.295 1.731 6164
3.833 1.236 1.658 2321
4.150 1.338 1.785 1154
4.041 1.304 1.727 6381
3.851 1.242 1.652 2436
4.175 1.347 1.781 1741
4.081 1.316 1.729 7681
3.947 1.273 1.676 3919
4.215 1.360 1.782 1017
3.813 1.230 1.623 818
4.107 1.325 1.725 7009
3.972 1.281 1.673 4216
4.132 1.333 1.721 8457
3.998 1.289 1.669 2532
4.130 1.332 1.706 7845
3.995 1.289 1.654 1143
4.264 1.375 1.757 938
4.120 1.329 1.688 5918
4.254 1.372 1.739 2445
4.131 1.332 1.678 6942
4.266 1.376 1.729 3972
4.150 1.338 1.671 6704
4.284 1.382 1.721 3380
4.239 1.367 1.690 6375
4.104 1.324 1.640 1704
4.374 1.411 1.740 1393
4.229 1.364 1.672 6468
4.364 1.408 1.721 2121
4.233 1.365 1.659 6179
4.369 1.409 1.708 2972
4.280 1.381 1.661 5905
4.416 1.424 1.710 3133
4.145 1.337 1.613 1751
4.587 1.479 1.772 751
4.399 1.419 1.689 5286
4.263 1.375 1.641 3499
4.584 1.479 1.755 1125
4.396 1.418 1.673 4766
4.260 1.374 1.625 2046
4.560 1.471 1.731 1566
4.393 1.417 1.657 3795
4.557 1.470 1.715 2299
4.257 1.373 1.610 1114
4.433 1.430 1.656 4073
4.626 1.492 1.723 2551
4.297 1.386 1.609 2294
4.459 1.438 1.650 3739
4.645 1.498 1.714 3285
4.323 1.394 1.604 1164
4.463 1.439 1.637 3908
4.635 1.495 1.695 3746
4.654 1.501 1.686 5101
4.453 1.436 1.619 3136
4.687 1.512 1.682 5827
4.449 1.435 1.603 1305
4.823 1.556 1.727 929
4.705 1.518 1.672 5679
4.842 1.562 1.717 1383
4.569 1.474 1.627 1329
4.688 1.512 1.651 4813
4.825 1.556 1.695 2610
4.685 1.511 1.634 5332
4.850 1.564 1.688 4591
4.862 1.568 1.675 7167
4.696 1.515 1.622 4319
4.866 1.570 1.660 9696
4.729 1.525 1.617 3622
4.878 1.573 1.648 7817
4.740 1.529 1.605 2479
5.058 1.631 1.704 1136
4.882 1.575 1.633 6665
5.077 1.637 1.694 1879
4.744 1.530 1.591 838
4.879 1.574 1.616 10286
5.081 1.639 1.678 1650
4.883 1.575 1.601 10002
5.057 1.631 1.654 2006
4.894 1.579 1.589 5935
5.061 1.632 1.639 3029
4.539 1.464 1.482 978
5.198 1.677 1.680 920
5.079 1.638 1.627 4588
4.898 1.580 1.574 4544
4.543 1.465 1.469 1420
5.217 1.683 1.668 912
5.083 1.640 1.612 6096
4.895 1.579 1.557 4964
4.525 1.459 1.448 1808
5.221 1.684 1.652 809
5.088 1.641 1.597 5588
4.899 1.580 1.542 2948
4.514 1.456 1.430 2434
5.335 1.721 1.668 813
5.092 1.642 1.581 4193
4.888 1.577 1.523 1900
5.368 1.731 1.660 1787
4.517 1.457 1.417 1745
5.372 1.733 1.644 2525
5.096 1.644 1.566 2437
4.892 1.578 1.508 1929
4.550 1.468 1.411 1454
5.383 1.736 1.630 3347
4.524 1.459 1.389 1822
5.100 1.645 1.550 1207
4.896 1.579 1.493 986
5.373 1.733 1.609 5854
4.499 1.451 1.368 2797
5.679 1.832 1.694 957
5.103 1.646 1.535 761
5.377 1.734 1.593 7682
4.502 1.452 1.354 3400
5.610 1.810 1.657 1042
5.771 1.861 1.700 832
5.381 1.736 1.577 9941
4.513 1.456 1.342 2882
5.702 1.839 1.663 1818
5.841 1.884 1.701 1207
5.392 1.739 1.562 12875
5.706 1.841 1.646 2485
4.516 1.457 1.329 2183
5.553 1.791 1.605 2095
5.396 1.741 1.546 13534
5.930 1.913 1.686 3249
5.557 1.792 1.588 2635
5.784 1.865 1.648 2529
5.400 1.742 1.529 10460
5.919 1.909 1.664 3832
5.561 1.794 1.571 1945
5.781 1.864 1.628 1714
5.411 1.745 1.515 5946
5.865 1.892 1.631 3929
6.048 1.951 1.678 2624
6.187 1.996 1.714 1227
5.415 1.747 1.498 3396
6.052 1.952 1.660 3241
5.869 1.893 1.613 2788
6.221 2.006 1.703 2118
6.232 2.010 1.686 2940
6.057 1.953 1.641 2429
5.910 1.906 1.605 2054
5.426 1.750 1.484 1909
6.237 2.012 1.667 3103
6.464 2.085 1.723 1586
5.929 1.912 1.590 1575
6.068 1.957 1.625 1286
6.256 2.018 1.651 2180
6.454 2.082 1.699 2016
6.593 2.127 1.733 1025
6.043 1.949 1.599 1016
6.407 2.066 1.667 2161
6.546 2.111 1.701 1629
6.223 2.007 1.623 1604
6.047 1.950 1.581 869
6.404 2.065 1.646 2325
6.573 2.120 1.686 1619
6.257 2.018 1.611 1479
6.712 2.165 1.719 846
6.658 2.147 1.685 2597
6.378 2.057 1.620 2227
6.518 2.102 1.653 1425
6.878 2.219 1.737 1147
6.662 2.149 1.665 3059
6.375 2.056 1.599 1540
6.522 2.104 1.633 1395
6.883 2.220 1.716 1090
6.681 2.155 1.648 2569
6.983 2.252 1.717 1414
6.541 2.110 1.616 1333
6.821 2.200 1.680 886
6.678 2.154 1.626 1817
7.002 2.258 1.699 1471
6.818 2.199 1.657 988
6.538 2.109 1.595 938
7.051 2.274 1.687 1804
6.675 2.153 1.604 1502
6.859 2.212 1.645 1215
7.286 2.350 1.739 829
7.055 2.275 1.666 1840
6.863 2.214 1.624 1292
7.291 2.352 1.717 1122
6.679 2.154 1.584 972
7.295 2.353 1.695 1686
7.059 2.277 1.644 1619
6.919 2.232 1.614 1142
7.435 2.398 1.725 960
7.300 2.354 1.673 2601
7.661 2.471 1.749 1398
7.071 2.281 1.624 1369
7.440 2.400 1.703 928
7.296 2.353 1.649 2608
7.577 2.444 1.708 2082
7.725 2.492 1.738 1006
7.082 2.284 1.604 909
7.589 2.448 1.686 1911
7.308 2.357 1.628 1842
7.907 2.550 1.751 1393
7.759 2.503 1.721 1377
7.919 2.554 1.729 2503
7.652 2.468 1.675 2146
7.312 2.358 1.606 1015
7.512 2.423 1.646 806
7.945 2.563 1.709 3755
7.716 2.489 1.663 2999
7.568 2.441 1.634 1700
7.950 2.564 1.685 4915
7.720 2.490 1.640 3028
7.565 2.440 1.609 1013
7.939 2.561 1.658 5373
7.739 2.496 1.619 2084
7.943 2.562 1.633 4862
7.765 2.505 1.600 1170
7.955 2.566 1.611 3649
8.489 2.738 1.710 1014
7.792 2.513 1.580 809
7.966 2.569 1.588 4764
8.107 2.615 1.614 951
8.716 2.811 1.725 784
7.963 2.568 1.562 6185
8.104 2.614 1.588 1299
7.974 2.572 1.539 4480
8.650 2.790 1.659 981
8.205 2.646 1.580 899
7.986 2.576 1.516 2373
8.216 2.650 1.556 997
8.655 2.791 1.632 971
7.989 2.577 1.492 1476
8.227 2.654 1.532 792
8.666 2.795 1.607 778
9.980 3.219 1.800 943
7.993 2.578 1.467 866
9.724 3.136 1.727 880
9.977 3.218 1.768 855
10.004 3.227 1.741 843
9.527 3.073 1.665 766
10.016 3.230 1.712 1244
10.440 3.367 1.779 905
10.291 3.319 1.755 833
10.020 3.232 1.681 1485
10.571 3.410 1.767 1032
10.333 3.333 1.730 1030
10.840 3.496 1.808 844
10.576 3.411 1.734 1680
10.024 3.233 1.651 1523
10.375 3.346 1.704 1383
10.844 3.498 1.775 1077
10.573 3.410 1.701 1685
10.021 3.232 1.619 1305
10.379 3.348 1.672 1166
10.834 3.494 1.740 1036
10.189 3.286 1.612 1381
10.331 3.332 1.633 1304
11.197 3.611 1.759 992
10.995 3.546 1.729 923
11.201 3.613 1.725 1583
11.007 3.550 1.697 1554
10.201 3.290 1.582 1331
10.342 3.336 1.602 1223
11.527 3.718 1.735 1740
11.004 3.549 1.662 1371
11.213 3.617 1.691 1317
10.384 3.349 1.576 945
11.531 3.719 1.700 1658
11.247 3.628 1.661 1096
11.673 3.765 1.719 1034
12.076 3.895 1.774 961
11.251 3.629 1.627 1238
12.081 3.897 1.737 1215
11.670 3.764 1.682 1068
11.042 3.561 1.599 1057
12.093 3.900 1.701 1351
11.248 3.628 1.591 1190
11.667 3.763 1.646 1082
11.046 3.563 1.565 1061
12.112 3.907 1.666 1231
11.252 3.629 1.557 1040
11.671 3.764 1.610 984
11.925 3.846 1.642 971
11.922 3.845 1.605 1258
12.116 3.908 1.629 872
11.263 3.633 1.524 872
11.697 3.773 1.577 849
12.719 4.102 1.664 1130
11.918 3.844 1.568 1105
13.064 4.213 1.706 870
12.195 3.933 1.601 818
13.075 4.217 1.667 1294
12.716 4.101 1.624 1037
0.810 0.261 0.228 835
12.169 3.925 1.560 752
13.094 4.223 1.628 1332
0.810 0.261 0.226 804
13.106 4.227 1.589 909
2.212 0.703 1.763 7237
2.095 0.666 1.676 872
2.216 0.704 1.757 14474
2.100 0.667 1.669 1744
2.364 0.751 1.867 783
2.221 0.705 1.750 14474
2.104 0.668 1.663 1744
2.369 0.752 1.860 1567
2.225 0.707 1.744 14297
2.374 0.754 1.853 2843
2.108 0.670 1.657 1410
2.230 0.708 1.737 14121
2.384 0.757 1.850 4128
2.112 0.671 1.651 1077
2.234 0.710 1.730 11677
2.389 0.759 1.843 5966
2.117 0.672 1.644 1010
2.239 0.711 1.724 9233
2.394 0.760 1.836 7805
2.121 0.674 1.638 942
2.243 0.712 1.717 9233
2.399 0.762 1.829 7805
2.410 0.765 1.826 7355
2.248 0.714 1.710 6278
2.421 0.769 1.823 7096
2.252 0.715 1.703 3322
2.425 0.770 1.816 7794
2.269 0.721 1.705 3789
2.424 0.770 1.804 8556
2.279 0.724 1.703 4571
2.543 0.808 1.888 1053
2.428 0.771 1.797 7957
2.284 0.725 1.696 4159
2.548 0.809 1.880 1451
2.439 0.775 1.794 7415
2.294 0.729 1.694 3855
2.559 0.813 1.877 1892
2.444 0.776 1.787 7415
2.299 0.730 1.687 3185
2.564 0.814 1.870 2354
2.448 0.778 1.780 5953
2.568 0.816 1.862 2697
2.309 0.733 1.684 2574
2.491 0.791 1.798 4942
2.314 0.735 1.677 2553
2.611 0.829 1.880 2215
2.578 0.819 1.846 5643
2.451 0.778 1.761 4819
2.318 0.736 1.670 1904
2.583 0.820 1.839 8271
2.462 0.782 1.757 5145
2.335 0.742 1.672 1384
2.594 0.824 1.835 8969
2.460 0.781 1.746 4050
2.339 0.743 1.665 918
2.605 0.827 1.832 9978
2.464 0.783 1.738 2955
2.609 0.829 1.824 9831
2.488 0.790 1.744 2447
2.614 0.830 1.816 9684
2.493 0.792 1.736 2205
2.612 0.830 1.804 7440
2.491 0.791 1.725 1910
2.611 0.829 1.792 5548
2.489 0.790 1.713 1491
2.628 0.835 1.792 4427
2.506 0.796 1.714 1575
2.691 0.855 1.821 3842
2.549 0.810 1.731 1695
2.246 0.713 1.538 821
2.676 0.850 1.801 4987
2.553 0.811 1.723 1379
2.681 0.851 1.793 6232
2.558 0.812 1.716 1064
2.672 0.849 1.777 7991
2.795 0.888 1.854 905
2.670 0.848 1.765 10122
2.794 0.887 1.841 1469
2.681 0.852 1.761 9399
2.805 0.891 1.837 1702
2.692 0.855 1.757 8870
2.816 0.894 1.833 1573
2.703 0.859 1.753 6115
2.827 0.898 1.828 1413
2.773 0.881 1.784 6806
2.649 0.841 1.709 1249
2.778 0.882 1.776 6898
2.902 0.922 1.850 910
2.653 0.843 1.701 900
2.782 0.884 1.767 7118
2.907 0.923 1.842 1136
2.787 0.885 1.759 6642
2.912 0.925 1.833 1389
2.791 0.887 1.751 6510
2.916 0.926 1.824 2147
2.802 0.890 1.746 7167
2.928 0.930 1.819 2567
2.813 0.894 1.741 6051
2.939 0.933 1.814 3139
2.824 0.897 1.737 5013
2.950 0.937 1.809 3687
2.935 0.932 1.789 5580
2.809 0.892 1.717 4040
3.061 0.972 1.861 1204
2.939 0.934 1.780 8769
2.813 0.894 1.708 2530
3.066 0.974 1.852 1731
2.944 0.935 1.771 10316
3.070 0.975 1.843 1689
2.818 0.895 1.700 1611
2.955 0.939 1.766 9489
2.829 0.898 1.695 2157
3.082 0.979 1.837 1480
2.966 0.942 1.761 8689
2.840 0.902 1.690 3067
3.093 0.982 1.831 1367
2.978 0.946 1.756 5980
2.851 0.905 1.686 2918
3.104 0.986 1.826 2528
3.049 0.968 1.783 6995
2.922 0.928 1.714 3009
3.176 1.009 1.853 816
3.047 0.968 1.771 6162
2.920 0.927 1.701 2436
3.174 1.008 1.840 1342
3.085 0.980 1.780 7259
2.957 0.939 1.711 2539
3.212 1.020 1.849 1187
3.096 0.983 1.774 8724
2.969 0.943 1.705 1457
3.224 1.024 1.842 1286
3.107 0.987 1.768 7901
3.235 1.027 1.836 1187
2.980 0.946 1.700 1171
3.125 0.993 1.766 6032
2.997 0.952 1.698 1496
3.253 1.033 1.834 1075
3.157 1.003 1.771 5029
3.022 0.960 1.700 1274
3.148 1.000 1.754 6163
3.020 0.959 1.687 1137
3.276 1.041 1.821 1053
3.220 1.023 1.780 7613
3.091 0.982 1.713 1642
3.225 1.024 1.770 9944
3.096 0.983 1.704 1216
3.229 1.026 1.760 11766
3.100 0.985 1.694 1068
3.358 1.067 1.826 810
3.247 1.031 1.757 13965
3.118 0.990 1.692 1959
3.376 1.072 1.823 805
3.258 1.035 1.751 12333
3.129 0.994 1.686 2589
3.388 1.076 1.816 990
3.270 1.038 1.745 9153
3.140 0.997 1.680 3464
3.399 1.080 1.809 911
3.267 1.038 1.731 7498
3.138 0.997 1.667 2082
3.397 1.079 1.796 1537
3.265 1.037 1.718 5370
3.395 1.078 1.782 2089
3.135 0.996 1.654 814
3.269 1.038 1.708 4717
3.399 1.080 1.772 1940
3.287 1.044 1.705 4515
3.424 1.088 1.771 1790
3.326 1.056 1.712 4670
3.456 1.098 1.774 2080
3.358 1.066 1.715 6299
3.488 1.108 1.777 1950
3.383 1.074 1.714 8488
3.514 1.116 1.776 1807
3.394 1.078 1.707 8887
3.525 1.120 1.769 2089
3.263 1.036 1.646 1118
3.399 1.079 1.697 9028
3.530 1.121 1.758 3457
3.267 1.038 1.636 1015
3.403 1.081 1.687 8550
3.534 1.122 1.748 5630
3.532 1.122 1.734 6099
3.400 1.080 1.673 4923
3.684 1.170 1.803 773
3.481 1.105 1.698 7742
3.612 1.147 1.758 1119
3.492 1.109 1.690 8019
3.624 1.151 1.750 1423
3.360 1.067 1.631 779
3.545 1.126 1.702 10282
3.718 1.181 1.779 1826
3.413 1.084 1.643 1246
3.556 1.129 1.694 10537
3.709 1.178 1.762 2694
3.424 1.087 1.635 947
3.560 1.131 1.683 8066
3.713 1.179 1.751 4359
3.704 1.176 1.733 5108
3.572 1.134 1.676 4764
3.836 1.218 1.791 1438
3.708 1.178 1.722 4488
3.548 1.127 1.653 3095
3.841 1.220 1.780 1888
3.720 1.181 1.714 4101
3.552 1.128 1.642 3095
3.915 1.243 1.798 2024
3.752 1.192 1.715 5834
3.927 1.247 1.789 3687
3.563 1.132 1.634 2973
3.805 1.209 1.724 7448
3.938 1.251 1.780 4878
3.567 1.133 1.624 2542
3.817 1.212 1.715 10726
3.950 1.255 1.771 5685
3.572 1.134 1.613 1533
3.940 1.252 1.753 8700
3.807 1.209 1.698 6656
3.952 1.255 1.744 10672
3.819 1.213 1.689 4596
4.085 1.298 1.799 808
3.949 1.254 1.730 10420
3.816 1.212 1.675 3527
4.083 1.297 1.784 1176
3.954 1.256 1.718 9821
3.820 1.213 1.664 2372
4.088 1.298 1.772 1697
3.958 1.257 1.706 8734
4.092 1.300 1.759 3130
3.824 1.215 1.652 2031
3.955 1.256 1.691 6674
4.090 1.299 1.744 4817
3.821 1.214 1.638 1776
3.974 1.262 1.685 6586
4.108 1.305 1.737 6288
3.840 1.219 1.632 967
4.127 1.311 1.731 8147
3.985 1.266 1.675 5890
4.261 1.353 1.783 843
4.138 1.314 1.721 10638
3.990 1.267 1.663 2569
4.273 1.357 1.773 827
4.143 1.316 1.708 10082
4.291 1.363 1.765 872
4.008 1.273 1.657 810
4.140 1.315 1.693 7686
4.275 1.358 1.744 1660
4.144 1.316 1.681 9008
4.279 1.359 1.731 3555
4.156 1.320 1.671 8800
4.291 1.363 1.721 3494
4.245 1.348 1.690 6989
4.110 1.305 1.640 1975
4.380 1.391 1.740 1035
4.242 1.347 1.674 8619
4.378 1.390 1.724 1506
4.107 1.304 1.625 1221
4.254 1.351 1.664 8573
4.118 1.308 1.615 1768
4.389 1.394 1.713 1718
4.279 1.359 1.659 7544
4.144 1.316 1.610 2370
4.415 1.402 1.708 2089
4.276 1.358 1.643 5159
4.412 1.401 1.692 3463
4.591 1.458 1.755 974
4.388 1.394 1.668 5234
4.252 1.350 1.620 2646
4.574 1.453 1.734 1527
4.378 1.390 1.650 5426
4.578 1.454 1.720 2240
4.242 1.347 1.602 1182
4.382 1.392 1.637 6094
4.626 1.469 1.721 2664
4.246 1.348 1.590 848
4.386 1.393 1.623 5952
4.644 1.475 1.712 2808
4.405 1.399 1.615 4040
4.649 1.476 1.698 2828
4.660 1.480 1.686 3706
4.452 1.414 1.616 2797
4.315 1.371 1.570 827
4.672 1.484 1.674 3521
4.377 1.390 1.576 1906
4.808 1.527 1.720 1445
4.513 1.433 1.622 1234
4.755 1.510 1.686 4404
4.618 1.467 1.641 2059
4.381 1.391 1.563 989
4.774 1.516 1.677 4154
4.637 1.473 1.632 1349
4.699 1.492 1.636 4198
4.850 1.540 1.685 2718
4.854 1.542 1.671 4047
4.703 1.494 1.622 3418
4.866 1.545 1.658 7220
4.729 1.502 1.615 2508
4.885 1.551 1.648 6245
4.747 1.508 1.605 2292
5.065 1.609 1.704 1471
4.896 1.555 1.635 4887
5.084 1.615 1.694 2516
4.759 1.511 1.593 1703
4.886 1.552 1.616 6989
5.081 1.614 1.676 2294
4.890 1.553 1.601 7422
5.064 1.608 1.654 3059
4.894 1.554 1.586 5304
5.068 1.610 1.639 4346
5.242 1.665 1.691 806
5.087 1.616 1.627 6510
4.905 1.558 1.574 4068
5.239 1.664 1.673 1183
5.084 1.615 1.610 9006
4.902 1.557 1.557 4339
5.229 1.661 1.652 1719
5.367 1.705 1.693 1092
5.095 1.618 1.597 8269
4.906 1.558 1.542 2675
4.506 1.431 1.426 2093
5.233 1.662 1.637 1635
5.099 1.619 1.581 6182
4.495 1.428 1.408 2563
5.368 1.705 1.658 1998
4.902 1.557 1.525 1149
5.103 1.621 1.566 3579
4.542 1.443 1.407 2860
5.387 1.711 1.646 2797
5.249 1.667 1.607 1330
5.391 1.712 1.630 3278
4.487 1.425 1.377 2732
5.107 1.622 1.550 1709
5.253 1.668 1.591 1687
5.381 1.709 1.609 7066
4.476 1.422 1.360 2546
5.687 1.806 1.694 1594
5.242 1.665 1.571 1141
5.385 1.710 1.593 11006
4.472 1.420 1.344 1641
5.692 1.808 1.677 1446
5.524 1.754 1.631 950
5.389 1.711 1.577 12071
5.703 1.811 1.661 2382
5.842 1.855 1.699 1446
5.564 1.767 1.624 897
5.393 1.713 1.560 12483
5.715 1.815 1.646 3168
5.854 1.859 1.683 1665
5.561 1.766 1.605 1427
5.397 1.714 1.544 11707
5.931 1.884 1.684 4004
5.792 1.840 1.648 3438
5.558 1.765 1.586 1725
5.408 1.718 1.529 7271
5.935 1.885 1.666 5407
5.796 1.841 1.630 2790
5.569 1.769 1.571 1264
6.020 1.912 1.669 3126
5.419 1.721 1.515 3023
5.866 1.863 1.629 2451
6.181 1.963 1.710 1414
6.076 1.930 1.664 3076
5.870 1.864 1.612 2047
6.215 1.974 1.699 1879
5.416 1.720 1.497 1306
6.065 1.926 1.641 3019
6.234 1.980 1.684 2741
5.926 1.882 1.607 1678
6.374 2.024 1.719 949
6.246 1.984 1.667 2973
6.055 1.923 1.619 2309
6.451 2.049 1.717 1385
5.915 1.879 1.585 896
6.287 1.997 1.657 2135
6.448 2.048 1.696 2119
6.037 1.917 1.596 1329
6.416 2.038 1.667 2328
6.225 1.977 1.622 1630
6.570 2.087 1.705 1179
6.391 2.030 1.641 1975
6.575 2.088 1.685 1631
6.251 1.985 1.608 1514
6.899 2.191 1.761 1173
6.660 2.115 1.684 2439
6.483 2.059 1.642 1767
6.896 2.190 1.739 1611
6.270 1.991 1.592 1306
6.664 2.117 1.663 2878
6.893 2.189 1.716 1638
6.524 2.072 1.631 1349
6.384 2.028 1.599 993
6.624 2.104 1.633 2309
6.993 2.221 1.717 1888
6.838 2.172 1.682 912
6.484 2.059 1.601 909
6.621 2.103 1.611 1680
7.012 2.227 1.699 1451
6.872 2.183 1.667 970
7.053 2.240 1.686 1226
6.669 2.118 1.601 1175
6.869 2.182 1.645 1015
6.954 2.209 1.642 1608
7.094 2.253 1.672 1082
7.301 2.319 1.717 1051
6.681 2.122 1.582 912
7.069 2.245 1.644 1592
7.298 2.318 1.693 1501
6.929 2.201 1.614 1161
7.439 2.363 1.724 890
7.303 2.319 1.671 2088
7.073 2.246 1.623 1600
7.658 2.432 1.746 1505
7.443 2.364 1.701 898
7.307 2.321 1.649 2130
7.662 2.433 1.723 1787
7.100 2.255 1.606 1064
7.462 2.370 1.681 968
7.659 2.433 1.698 1973
7.918 2.515 1.751 1922
7.311 2.322 1.627 1799
7.067 2.244 1.577 902
7.930 2.519 1.729 3113
7.663 2.434 1.675 2474
7.330 2.328 1.608 1186
7.523 2.389 1.646 935
7.949 2.525 1.708 3808
7.719 2.452 1.662 2514
7.579 2.407 1.634 1896
7.954 2.526 1.683 4847
7.739 2.458 1.641 2736
7.583 2.408 1.611 1238
7.943 2.523 1.656 6438
7.750 2.461 1.619 1985
8.084 2.568 1.683 775
7.947 2.524 1.632 5838
7.806 2.479 1.605 1202
7.944 2.523 1.606 3865
7.803 2.478 1.580 926
8.085 2.568 1.633 917
7.970 2.531 1.586 4541
8.186 2.600 1.626 1062
7.974 2.533 1.562 5793
8.197 2.604 1.602 1020
7.986 2.536 1.539 4212
8.209 2.607 1.579 923
8.004 2.542 1.517 2140
8.220 2.611 1.555 959
8.001 2.541 1.492 1131
10.030 3.186 1.712 1115
10.343 3.285 1.761 879
10.172 3.231 1.734 755
10.363 3.291 1.732 1343
10.027 3.185 1.680 1271
10.587 3.362 1.767 1056
10.184 3.234 1.704 757
10.591 3.364 1.734 1581
10.382 3.297 1.703 1534
10.031 3.186 1.650 1121
10.852 3.447 1.774 879
10.588 3.363 1.701 1724
10.364 3.292 1.668 1229
10.835 3.441 1.738 1172
10.207 3.242 1.644 918
10.211 3.243 1.613 1383
10.353 3.288 1.634 1253
10.577 3.359 1.667 1141
11.033 3.504 1.733 1130
11.030 3.503 1.698 1640
11.217 3.563 1.725 1412
10.761 3.418 1.660 1244
10.215 3.244 1.582 1217
11.543 3.666 1.735 1495
11.027 3.502 1.663 1198
11.229 3.566 1.691 1197
10.713 3.402 1.620 1040
11.540 3.665 1.699 1520
11.682 3.710 1.718 1301
10.717 3.404 1.587 964
12.109 3.846 1.776 918
11.537 3.664 1.663 1211
11.679 3.709 1.681 1141
10.751 3.414 1.558 1111
11.058 3.512 1.599 959
11.429 3.630 1.613 1144
11.676 3.708 1.645 1130
11.054 3.511 1.564 961
10.777 3.423 1.528 946
11.687 3.712 1.610 1022
11.545 3.667 1.592 1000
12.519 3.976 1.715 863
11.942 3.793 1.642 813
11.939 3.792 1.605 1028
11.714 3.720 1.577 1022
12.531 3.980 1.678 976
12.748 4.049 1.705 876
12.745 4.048 1.665 1262
0.811 0.258 0.230 1002
11.928 3.788 1.567 994
13.082 4.155 1.706 990
13.087 4.156 1.666 1311
0.811 0.258 0.228 1167
12.734 4.044 1.624 1073
13.106 4.162 1.627 1258
0.811 0.258 0.226 1117
0.812 0.258 0.223 970
13.110 4.164 1.587 855
12.780 4.059 1.551 835
12.791 4.062 1.513 910
0.812 0.258 0.221 836
12.795 4.064 1.474 786
2.215 0.693 1.763 7263
2.220 0.694 1.757 14526
2.103 0.658 1.669 1463
2.361 0.739 1.863 1107
2.224 0.696 1.750 14526
2.366 0.740 1.855 2214
2.107 0.659 1.663 1463
2.228 0.697 1.744 13972
2.377 0.744 1.853 3228
2.111 0.660 1.657 1322
2.227 0.697 1.732 13459
2.382 0.745 1.846 4244
2.109 0.660 1.646 952
2.237 0.700 1.730 10882
2.392 0.748 1.843 5767
2.120 0.663 1.644 1055
2.242 0.701 1.724 8345
2.397 0.750 1.836 7313
2.124 0.664 1.638 930
2.246 0.703 1.717 8345
2.402 0.751 1.829 7313
2.407 0.753 1.822 6957
2.257 0.706 1.715 5814
2.430 0.760 1.828 6861
2.299 0.719 1.734 3938
2.180 0.682 1.650 850
2.429 0.760 1.816 7844
2.278 0.713 1.710 3531
2.548 0.797 1.900 757
2.433 0.761 1.809 8868
2.283 0.714 1.703 3580
2.552 0.799 1.893 1015
2.432 0.761 1.797 8069
2.287 0.715 1.696 3533
2.551 0.798 1.880 1566
2.430 0.760 1.785 7481
2.297 0.719 1.694 3610
2.550 0.798 1.868 2908
2.434 0.762 1.778 7481
2.554 0.799 1.861 3351
2.308 0.722 1.691 2886
2.439 0.763 1.771 7108
2.559 0.801 1.853 2994
2.312 0.723 1.684 2201
2.431 0.760 1.755 6812
2.564 0.802 1.845 2683
2.310 0.723 1.673 2178
2.524 0.790 1.808 5938
2.404 0.752 1.726 3195
2.283 0.714 1.645 1003
2.580 0.807 1.834 8563
2.459 0.769 1.753 5010
2.338 0.731 1.672 1428
2.591 0.811 1.831 9591
2.470 0.773 1.750 3488
2.342 0.733 1.665 975
2.602 0.814 1.827 11187
2.481 0.776 1.747 2084
2.613 0.817 1.824 11579
2.491 0.779 1.744 2106
2.618 0.819 1.816 11975
2.464 0.771 1.715 2263
2.622 0.820 1.808 9805
2.500 0.782 1.729 2479
2.621 0.820 1.796 7818
2.498 0.782 1.717 2641
2.625 0.821 1.788 6262
2.503 0.783 1.710 1821
2.630 0.823 1.780 4707
2.507 0.784 1.702 1000
2.752 0.861 1.858 888
2.673 0.836 1.797 5349
2.550 0.798 1.719 1559
2.678 0.838 1.789 7427
2.555 0.799 1.712 1029
2.801 0.876 1.866 772
2.676 0.837 1.777 8182
2.799 0.876 1.854 1110
2.680 0.839 1.769 9205
2.804 0.877 1.845 1386
2.685 0.840 1.761 8353
2.809 0.879 1.837 1721
2.696 0.843 1.757 7717
2.820 0.882 1.833 1527
2.772 0.867 1.792 6202
2.648 0.828 1.717 1355
2.770 0.867 1.780 7859
2.782 0.870 1.776 7922
2.906 0.909 1.850 824
2.786 0.872 1.767 7576
2.911 0.911 1.842 1091
2.791 0.873 1.759 6285
2.916 0.912 1.833 1981
2.795 0.874 1.751 5502
2.920 0.914 1.824 3089
2.806 0.878 1.746 5605
2.932 0.917 1.819 3364
2.817 0.881 1.741 5091
2.943 0.921 1.814 3578
2.835 0.887 1.741 5171
2.961 0.926 1.813 3883
2.846 0.890 1.736 6263
2.972 0.930 1.808 4627
2.943 0.921 1.780 8911
2.817 0.881 1.708 2920
3.070 0.960 1.852 1844
2.948 0.922 1.771 10685
3.074 0.962 1.843 1745
2.822 0.883 1.700 1611
2.953 0.924 1.762 9409
2.826 0.884 1.692 1957
3.079 0.963 1.833 1923
2.964 0.927 1.757 8213
2.837 0.888 1.687 2939
3.091 0.967 1.828 1869
3.042 0.952 1.789 5277
2.881 0.901 1.700 4512
3.053 0.955 1.783 6353
2.926 0.915 1.714 3948
3.051 0.954 1.771 5680
2.924 0.915 1.701 3123
3.096 0.969 1.783 7180
2.961 0.927 1.711 3338
3.223 1.008 1.852 963
3.100 0.970 1.774 8888
2.973 0.930 1.705 1982
3.228 1.010 1.842 1136
3.112 0.973 1.768 7764
2.984 0.933 1.700 1494
3.240 1.014 1.836 937
3.123 0.977 1.762 5521
2.995 0.937 1.695 1429
3.251 1.017 1.830 941
3.141 0.983 1.760 4887
3.013 0.942 1.693 1261
3.145 0.984 1.751 6422
3.274 1.024 1.818 1269
3.017 0.944 1.684 1052
3.150 0.985 1.741 7120
3.279 1.026 1.808 2347
3.229 1.010 1.770 6837
3.100 0.970 1.704 1093
3.240 1.014 1.764 8916
3.111 0.973 1.698 1498
3.245 1.015 1.754 13189
3.116 0.975 1.689 1333
3.374 1.056 1.819 888
3.256 1.019 1.748 11859
3.127 0.978 1.683 2065
3.386 1.059 1.813 1258
3.254 1.018 1.734 8573
3.383 1.058 1.799 1908
3.124 0.977 1.670 1792
3.245 1.015 1.718 5793
3.374 1.056 1.782 2818
3.242 1.014 1.705 4665
3.372 1.055 1.769 2700
3.260 1.020 1.702 5635
3.390 1.061 1.765 2025
3.264 1.021 1.692 5836
3.395 1.062 1.755 1967
3.317 1.038 1.705 4942
3.447 1.079 1.768 1682
3.369 1.054 1.718 6112
3.500 1.095 1.780 1353
3.394 1.062 1.718 7718
3.525 1.103 1.779 1379
3.399 1.063 1.707 8172
3.530 1.104 1.769 1531
3.268 1.022 1.646 804
3.403 1.065 1.697 8843
3.534 1.106 1.758 2351
3.407 1.066 1.687 8930
3.539 1.107 1.748 4326
3.433 1.074 1.686 5729
3.564 1.115 1.746 3601
3.485 1.090 1.698 8133
3.354 1.049 1.638 1394
3.645 1.140 1.770 828
3.497 1.094 1.690 8323
3.365 1.053 1.631 1070
3.719 1.163 1.791 1006
3.550 1.110 1.702 8645
3.730 1.167 1.782 1514
3.418 1.069 1.643 1510
3.561 1.114 1.694 7899
3.707 1.160 1.759 2621
3.429 1.073 1.635 1242
3.572 1.118 1.686 5942
3.718 1.163 1.751 4693
3.440 1.076 1.628 915
3.716 1.163 1.736 6203
3.576 1.119 1.676 4799
3.918 1.226 1.825 1071
3.720 1.164 1.725 5926
3.574 1.118 1.662 3163
3.916 1.225 1.810 1630
3.725 1.165 1.714 5380
3.928 1.229 1.801 2911
3.550 1.111 1.639 2175
3.743 1.171 1.709 6628
3.932 1.230 1.789 5198
3.575 1.119 1.637 1968
3.937 1.232 1.777 7724
3.762 1.177 1.703 7075
3.579 1.120 1.626 1534
3.934 1.231 1.762 10776
3.801 1.189 1.707 8244
3.668 1.147 1.651 832
3.946 1.234 1.753 12460
3.812 1.193 1.698 6598
4.136 1.294 1.832 809
3.679 1.151 1.643 752
3.950 1.236 1.742 13266
3.817 1.194 1.687 3807
4.084 1.278 1.797 993
3.955 1.237 1.730 12954
3.821 1.195 1.675 3098
4.089 1.279 1.784 1085
3.959 1.239 1.718 12416
3.825 1.197 1.664 2068
4.100 1.283 1.775 1814
3.964 1.240 1.706 11455
4.105 1.284 1.762 3326
3.830 1.198 1.652 1699
3.961 1.239 1.691 9412
4.095 1.281 1.744 4274
3.827 1.197 1.638 1365
3.972 1.243 1.682 8656
4.121 1.289 1.740 5413
4.132 1.293 1.731 8318
3.984 1.246 1.673 7601
4.267 1.335 1.783 958
4.144 1.296 1.721 11408
3.995 1.250 1.663 3436
4.278 1.339 1.773 1056
4.148 1.298 1.708 10672
4.283 1.340 1.760 1178
4.013 1.256 1.657 1068
4.153 1.299 1.696 8206
4.288 1.341 1.747 1860
4.018 1.257 1.644 779
4.150 1.298 1.681 9491
4.285 1.341 1.731 3733
4.161 1.302 1.671 9281
4.296 1.344 1.721 4047
4.251 1.330 1.690 9851
4.116 1.288 1.640 1936
4.386 1.372 1.740 1061
4.248 1.329 1.674 12538
4.384 1.371 1.724 1599
4.113 1.287 1.625 1121
4.259 1.333 1.664 10828
4.124 1.290 1.615 1682
4.395 1.375 1.713 1484
4.285 1.341 1.659 8967
4.149 1.298 1.610 2487
4.421 1.383 1.708 1070
4.289 1.342 1.646 6622
4.425 1.384 1.694 1637
4.153 1.299 1.597 1013
4.279 1.339 1.628 5358
4.415 1.381 1.676 4074
4.580 1.433 1.734 1192
4.319 1.351 1.627 7066
4.455 1.394 1.675 2144
4.592 1.437 1.722 1815
4.388 1.373 1.637 8945
4.632 1.449 1.721 2045
4.252 1.330 1.590 1737
4.392 1.374 1.623 9816
4.658 1.457 1.714 2017
4.256 1.331 1.577 1163
4.389 1.373 1.608 7421
4.655 1.456 1.698 2153
4.386 1.372 1.592 4538
4.652 1.455 1.681 2673
4.803 1.503 1.732 796
4.707 1.473 1.684 3352
4.376 1.369 1.574 2993
4.844 1.515 1.729 1451
4.512 1.412 1.619 1275
4.776 1.494 1.691 4351
4.639 1.451 1.646 2157
4.394 1.375 1.565 1897
4.715 1.475 1.655 4456
4.398 1.376 1.552 1351
4.852 1.518 1.700 1112
4.720 1.477 1.641 4473
4.857 1.519 1.685 1570
4.402 1.377 1.539 1059
4.832 1.512 1.661 3761
4.695 1.469 1.618 2353
4.970 1.555 1.705 983
4.858 1.520 1.654 5995
4.721 1.477 1.610 1710
5.053 1.581 1.715 859
4.870 1.523 1.641 5934
5.065 1.585 1.702 1661
4.732 1.480 1.598 978
4.910 1.536 1.638 3454
5.069 1.586 1.687 2136
4.772 1.493 1.595 2125
4.907 1.535 1.621 3319
5.045 1.578 1.663 2132
5.183 1.621 1.705 1014
4.769 1.492 1.578 848
4.889 1.530 1.599 4362
5.071 1.586 1.654 4203
5.209 1.630 1.696 864
5.082 1.590 1.641 5299
4.900 1.533 1.586 4196
5.220 1.633 1.682 870
5.086 1.591 1.625 5265
4.912 1.537 1.574 2719
5.224 1.634 1.666 1662
5.090 1.593 1.610 6512
5.243 1.640 1.655 3166
4.916 1.538 1.559 2394
5.095 1.594 1.594 6041
5.262 1.646 1.643 3316
4.912 1.537 1.542 1537
5.422 1.696 1.689 1186
5.106 1.597 1.581 4226
5.274 1.650 1.629 3738
4.479 1.401 1.402 1551
5.412 1.693 1.669 1245
5.270 1.649 1.611 2918
4.490 1.405 1.391 2825
5.110 1.599 1.566 2024
5.409 1.692 1.650 1431
4.486 1.403 1.375 3588
5.274 1.650 1.595 2217
5.413 1.694 1.634 1568
5.669 1.773 1.705 1183
5.388 1.686 1.609 4881
4.482 1.402 1.360 3803
5.658 1.770 1.684 1881
5.249 1.642 1.571 1293
5.392 1.687 1.593 9608
4.485 1.403 1.346 2991
5.648 1.767 1.663 2887
5.787 1.810 1.700 779
5.396 1.688 1.577 9133
5.652 1.768 1.645 3330
4.489 1.404 1.332 1703
5.938 1.858 1.722 1183
5.400 1.689 1.560 8251
5.656 1.770 1.628 2820
5.935 1.857 1.702 1869
5.796 1.813 1.665 1722
5.404 1.691 1.544 8228
5.939 1.858 1.684 3909
5.734 1.794 1.630 3039
6.078 1.902 1.721 1196
5.943 1.859 1.666 5106
5.408 1.692 1.527 4553
5.731 1.793 1.611 2990
6.083 1.903 1.702 1048
6.014 1.881 1.665 4344
5.801 1.815 1.611 1776
5.419 1.695 1.513 1736
6.197 1.939 1.712 1240
6.055 1.894 1.656 3241
5.871 1.837 1.610 1903
6.194 1.938 1.691 1854
5.416 1.694 1.495 1039
6.074 1.900 1.641 3822
6.213 1.944 1.676 2030
5.934 1.856 1.607 1587
6.353 1.987 1.711 1159
6.070 1.899 1.621 2733
6.217 1.945 1.657 2285
6.445 2.016 1.714 1467
6.442 2.016 1.692 2619
6.222 1.946 1.639 1800
6.045 1.891 1.596 1618
6.582 2.059 1.726 908
6.425 2.010 1.667 2950
6.233 1.950 1.622 1710
6.631 2.074 1.717 1010
6.422 2.009 1.646 2214
6.562 2.053 1.679 1440
6.915 2.163 1.763 1375
6.245 1.954 1.604 1208
6.470 2.024 1.637 1991
6.905 2.160 1.739 1747
6.669 2.086 1.684 1449
6.300 1.971 1.597 1050
6.902 2.159 1.716 1945
6.666 2.085 1.662 1877
6.496 2.032 1.623 1408
7.042 2.203 1.748 1117
7.002 2.191 1.717 2336
6.633 2.075 1.633 2027
6.774 2.119 1.665 957
6.493 2.031 1.601 896
7.007 2.192 1.696 1815
6.637 2.077 1.613 1555
6.866 2.148 1.664 934
7.011 2.193 1.674 1616
6.871 2.149 1.643 1159
6.671 2.087 1.599 1064
7.001 2.190 1.650 2085
7.141 2.234 1.680 1068
7.296 2.283 1.714 1033
6.690 2.093 1.582 1027
7.049 2.205 1.638 1832
7.316 2.289 1.695 1267
7.464 2.335 1.727 917
7.619 2.384 1.760 877
7.068 2.211 1.620 2020
7.216 2.258 1.651 1526
7.653 2.394 1.743 1232
7.483 2.341 1.707 1154
7.146 2.236 1.614 1655
7.665 2.398 1.721 1472
7.309 2.287 1.648 1434
7.502 2.347 1.688 1385
7.929 2.481 1.751 2129
7.677 2.402 1.700 1828
7.336 2.295 1.630 1403
7.529 2.355 1.669 1260
7.926 2.480 1.726 3408
7.689 2.405 1.678 2284
7.347 2.299 1.609 1358
7.548 2.361 1.649 1131
7.945 2.486 1.705 3695
7.804 2.442 1.677 2234
7.663 2.397 1.649 1931
7.359 2.302 1.588 903
7.950 2.487 1.680 4796
7.742 2.422 1.640 2350
7.593 2.376 1.611 1117
7.954 2.488 1.656 6938
7.746 2.423 1.616 1691
7.605 2.379 1.589 802
8.117 2.540 1.688 802
7.958 2.490 1.632 6223
7.817 2.446 1.605 1016
7.962 2.491 1.608 4241
7.821 2.447 1.582 977
7.974 2.495 1.585 4320
8.197 2.564 1.626 954
7.978 2.496 1.561 4611
8.209 2.568 1.602 873
7.989 2.499 1.538 3245
8.220 2.572 1.579 767
8.038 2.515 1.521 1816
8.232 2.575 1.555 767
8.019 2.509 1.493 865
10.114 3.164 1.754 1053
10.118 3.166 1.724 1014
10.357 3.240 1.761 935
10.377 3.246 1.732 1425
10.040 3.141 1.680 913
10.579 3.310 1.763 899
10.396 3.252 1.703 1359
10.598 3.316 1.733 1181
10.740 3.360 1.755 820
10.037 3.140 1.648 750
10.595 3.315 1.700 1470
10.849 3.394 1.738 1179
10.251 3.207 1.649 1015
10.408 3.256 1.672 930
10.255 3.208 1.618 1388
10.592 3.314 1.667 1348
10.816 3.384 1.699 1154
11.056 3.459 1.734 1142
10.783 3.374 1.661 1658
10.297 3.221 1.592 1572
11.053 3.458 1.699 1538
11.225 3.512 1.723 1225
10.795 3.377 1.629 1374
11.679 3.654 1.752 1150
11.229 3.513 1.689 1023
11.057 3.459 1.665 1003
11.698 3.660 1.718 1356
11.556 3.615 1.699 1164
10.791 3.376 1.595 1121
12.125 3.793 1.776 884
10.788 3.375 1.561 1259
11.553 3.614 1.663 1184
11.695 3.659 1.681 1180
11.073 3.464 1.599 944
11.564 3.618 1.628 1287
10.799 3.379 1.529 1120
11.707 3.662 1.647 1091
12.524 3.918 1.753 980
11.561 3.617 1.592 1146
11.703 3.661 1.610 1095
12.536 3.922 1.715 1040
12.386 3.875 1.696 835
12.548 3.926 1.678 1166
11.722 3.667 1.576 1052
0.812 0.254 0.233 958
12.766 3.994 1.705 903
0.812 0.254 0.230 1167
12.762 3.993 1.665 1079
13.093 4.096 1.705 1067
12.537 3.922 1.638 891
0.812 0.254 0.228 1310
13.104 4.100 1.666 1144
12.751 3.989 1.624 870
13.390 4.189 1.699 863
0.813 0.254 0.226 1221
13.116 4.103 1.627 989
13.387 4.188 1.657 817
0.813 0.254 0.223 1071
12.805 4.006 1.552 899
13.113 4.102 1.586 791
12.809 4.007 1.513 990
0.813 0.254 0.221 907
13.778 4.311 1.617 881
13.782 4.312 1.575 949
12.812 4.008 1.474 872
13.794 4.315 1.534 792
2.218 0.683 1.763 6742
2.222 0.685 1.757 13485
2.105 0.649 1.669 1482
2.370 0.730 1.867 1315
2.227 0.686 1.750 13485
2.375 0.732 1.860 2630
2.110 0.650 1.663 1482
2.231 0.688 1.744 12452
2.380 0.733 1.853 3525
2.114 0.651 1.657 1458
2.230 0.687 1.732 11703
2.385 0.735 1.846 4420
2.112 0.651 1.646 1192
2.240 0.690 1.730 9397
2.389 0.736 1.839 5840
2.122 0.654 1.644 1207
2.251 0.694 1.728 7606
2.394 0.738 1.832 7261
2.133 0.657 1.642 1132
2.255 0.695 1.721 7606
2.399 0.739 1.824 7261
2.404 0.741 1.817 6810
2.260 0.696 1.715 5879
2.421 0.746 1.819 6531
2.264 0.698 1.708 4152
2.438 0.751 1.820 7701
2.275 0.701 1.705 3550
2.449 0.755 1.818 9068
2.279 0.702 1.699 3009
2.428 0.748 1.793 8003
2.290 0.706 1.696 3019
2.548 0.785 1.876 1936
2.427 0.748 1.781 7860
2.547 0.785 1.864 3411
2.307 0.711 1.698 3315
2.431 0.749 1.774 7860
2.551 0.786 1.856 3756
2.311 0.712 1.691 2383
2.436 0.751 1.767 7577
2.556 0.788 1.849 3169
2.309 0.712 1.680 1478
2.440 0.752 1.759 7315
2.567 0.791 1.845 2923
2.314 0.713 1.673 1464
2.528 0.779 1.808 6778
2.407 0.742 1.726 2964
2.286 0.704 1.645 961
2.564 0.790 1.822 9646
2.443 0.753 1.740 4320
2.303 0.710 1.646 956
2.685 0.827 1.903 931
2.588 0.797 1.827 9990
2.467 0.760 1.746 3466
2.345 0.723 1.665 843
2.709 0.835 1.907 775
2.605 0.803 1.827 11649
2.484 0.765 1.747 2906
2.617 0.806 1.824 12592
2.495 0.769 1.744 2580
2.621 0.808 1.816 13610
2.474 0.762 1.719 2163
2.619 0.807 1.804 11991
2.497 0.769 1.725 2125
2.624 0.809 1.796 10567
2.502 0.771 1.717 2110
2.747 0.846 1.875 1056
2.622 0.808 1.784 7902
2.745 0.846 1.863 1633
2.500 0.770 1.706 1300
2.620 0.807 1.772 5399
2.743 0.845 1.850 2443
2.670 0.823 1.793 5945
2.547 0.785 1.715 1198
2.793 0.861 1.871 888
2.688 0.828 1.793 8108
2.565 0.790 1.716 1396
2.811 0.866 1.870 918
2.686 0.828 1.781 7636
2.809 0.866 1.858 1275
2.562 0.790 1.704 784
2.684 0.827 1.769 7195
2.808 0.865 1.845 1757
2.695 0.830 1.765 6450
2.819 0.869 1.841 1602
2.700 0.832 1.757 5737
2.824 0.870 1.833 1713
2.776 0.855 1.792 6327
2.652 0.817 1.717 845
2.774 0.855 1.780 8569
2.779 0.856 1.772 8799
2.903 0.895 1.846 943
2.783 0.858 1.763 7912
2.908 0.896 1.838 1492
2.788 0.859 1.755 6163
2.913 0.898 1.829 2702
2.792 0.860 1.747 5153
2.924 0.901 1.824 4568
2.929 0.902 1.815 5216
2.803 0.864 1.742 4984
2.834 0.873 1.749 5278
2.960 0.912 1.822 4165
2.845 0.877 1.744 6151
2.971 0.916 1.817 4286
2.850 0.878 1.736 7809
2.976 0.917 1.808 4700
2.868 0.884 1.735 8286
2.994 0.922 1.807 3840
2.952 0.910 1.771 9518
2.825 0.871 1.700 1969
3.079 0.949 1.843 1575
2.957 0.911 1.762 8226
2.830 0.872 1.692 1991
3.083 0.950 1.833 1675
2.968 0.914 1.757 6930
2.841 0.875 1.687 2653
3.095 0.954 1.828 1726
2.959 0.912 1.741 5030
3.086 0.951 1.811 3749
2.832 0.872 1.671 1188
3.057 0.942 1.783 5905
2.930 0.903 1.714 4236
3.089 0.952 1.789 5522
2.954 0.910 1.716 4462
3.100 0.955 1.783 6892
2.959 0.912 1.707 3615
3.228 0.994 1.852 757
3.104 0.957 1.774 8375
2.977 0.917 1.705 2220
3.232 0.996 1.842 928
3.109 0.958 1.765 6968
2.981 0.918 1.696 1515
3.237 0.997 1.833 781
3.120 0.961 1.759 5164
2.992 0.922 1.691 1277
3.249 1.001 1.827 959
3.145 0.969 1.760 5625
3.017 0.929 1.693 1108
3.150 0.970 1.751 7641
3.278 1.010 1.818 1250
3.021 0.931 1.684 920
3.154 0.972 1.741 8757
3.283 1.012 1.808 2354
3.159 0.973 1.732 7392
3.288 1.013 1.798 2887
3.163 0.975 1.722 7107
3.292 1.014 1.788 4053
3.249 1.001 1.754 10094
3.120 0.961 1.689 1583
3.379 1.041 1.819 756
3.247 1.000 1.741 10156
3.376 1.040 1.806 1270
3.117 0.960 1.676 939
3.244 1.000 1.728 8540
3.374 1.040 1.792 1986
3.235 0.997 1.711 6315
3.365 1.037 1.775 2169
3.246 1.000 1.705 5328
3.377 1.040 1.769 1968
3.264 1.006 1.702 7063
3.395 1.046 1.765 1596
3.283 1.011 1.698 7680
3.413 1.052 1.762 1514
3.314 1.021 1.702 7103
3.445 1.061 1.764 1598
3.401 1.048 1.731 6500
3.271 1.008 1.669 1424
3.413 1.052 1.724 6763
3.282 1.011 1.662 915
3.544 1.092 1.786 769
3.417 1.053 1.714 6259
3.286 1.012 1.652 1138
3.548 1.093 1.775 839
3.394 1.046 1.691 8179
3.525 1.086 1.752 1673
3.405 1.049 1.684 9591
3.537 1.090 1.744 3170
3.409 1.050 1.673 6100
3.541 1.091 1.734 3942
3.490 1.075 1.698 8334
3.358 1.035 1.638 2938
3.494 1.077 1.687 8218
3.362 1.036 1.628 2546
3.626 1.117 1.747 1122
3.499 1.078 1.677 7189
3.366 1.037 1.618 2287
3.631 1.119 1.736 1743
3.763 1.159 1.795 809
3.496 1.077 1.663 5777
3.705 1.142 1.756 2281
3.364 1.036 1.605 1068
3.716 1.145 1.748 4353
3.577 1.102 1.686 4319
3.444 1.061 1.628 1330
3.728 1.149 1.739 6944
3.581 1.103 1.676 4565
3.924 1.209 1.825 1131
3.725 1.148 1.725 7257
3.579 1.103 1.662 3125
3.928 1.210 1.813 1697
3.730 1.149 1.714 6303
3.933 1.212 1.801 3175
3.597 1.108 1.657 1712
3.741 1.153 1.706 7021
3.937 1.213 1.789 5816
3.552 1.094 1.625 1315
3.412 1.051 1.566 795
3.942 1.215 1.777 8460
3.739 1.152 1.692 7534
3.549 1.094 1.612 1028
3.416 1.052 1.555 860
3.947 1.216 1.765 11891
3.813 1.175 1.710 6527
3.680 1.134 1.654 2252
3.420 1.054 1.545 765
3.951 1.217 1.753 14047
3.817 1.176 1.698 5380
3.684 1.135 1.643 1545
4.141 1.276 1.832 876
3.956 1.219 1.742 12566
3.758 1.158 1.661 3810
4.089 1.260 1.797 790
3.960 1.220 1.730 11757
3.770 1.162 1.652 2798
4.094 1.261 1.784 1059
3.410 1.051 1.506 898
3.965 1.222 1.718 12506
3.830 1.180 1.664 2076
4.106 1.265 1.775 1563
3.414 1.052 1.495 1269
3.969 1.223 1.706 11201
4.103 1.264 1.759 2606
3.418 1.053 1.485 1373
3.835 1.182 1.652 1257
3.966 1.222 1.691 9314
4.101 1.263 1.744 3952
3.421 1.054 1.475 981
3.978 1.226 1.682 8820
4.112 1.267 1.735 4611
3.989 1.229 1.673 7481
4.138 1.275 1.731 6884
4.273 1.316 1.783 795
4.149 1.278 1.721 9683
4.000 1.233 1.663 3427
4.284 1.320 1.773 861
4.154 1.280 1.708 8309
4.019 1.238 1.657 1300
4.289 1.321 1.760 1260
4.165 1.283 1.698 6119
4.300 1.325 1.750 1828
4.030 1.242 1.647 794
4.162 1.283 1.683 7376
4.298 1.324 1.734 3096
4.238 1.306 1.697 7577
4.103 1.264 1.647 1313
4.373 1.348 1.748 1012
4.257 1.312 1.690 12083
4.121 1.270 1.640 1576
4.392 1.353 1.740 862
4.254 1.311 1.674 14217
4.390 1.352 1.724 1449
4.118 1.269 1.625 843
4.258 1.312 1.661 11925
4.394 1.354 1.711 1691
4.122 1.270 1.612 791
4.284 1.320 1.656 8869
4.148 1.278 1.607 1402
4.420 1.362 1.705 1020
4.295 1.323 1.646 7061
4.431 1.365 1.694 1183
4.159 1.281 1.597 777
4.314 1.329 1.638 7018
4.450 1.371 1.686 1703
4.325 1.333 1.627 9064
4.461 1.375 1.675 1587
4.598 1.417 1.722 1013
4.387 1.352 1.634 9640
4.250 1.310 1.587 2005
4.681 1.442 1.736 1630
4.391 1.353 1.621 11403
4.693 1.446 1.724 2001
4.254 1.311 1.574 1309
4.388 1.352 1.605 9314
4.704 1.450 1.712 2092
4.399 1.355 1.594 6056
4.716 1.453 1.701 3076
4.536 1.398 1.640 794
4.410 1.359 1.583 4689
4.713 1.452 1.684 4464
4.850 1.494 1.729 1898
4.710 1.451 1.667 4617
4.407 1.358 1.568 3390
4.847 1.494 1.712 3240
4.714 1.453 1.653 5656
4.852 1.495 1.698 3731
4.404 1.357 1.552 2155
4.726 1.456 1.641 5088
4.863 1.498 1.685 4621
4.408 1.358 1.539 1526
4.853 1.495 1.666 6248
4.716 1.453 1.622 3099
4.991 1.538 1.710 1059
4.419 1.362 1.528 794
4.857 1.497 1.651 7670
4.720 1.454 1.608 2859
4.995 1.539 1.695 1181
4.876 1.502 1.641 6621
5.072 1.563 1.702 1882
4.738 1.460 1.598 1631
4.895 1.508 1.631 3545
5.033 1.551 1.673 2301
5.171 1.593 1.716 836
4.757 1.466 1.588 814
5.059 1.559 1.665 2742
4.921 1.516 1.623 2144
5.197 1.601 1.707 1250
5.085 1.567 1.656 4133
4.896 1.508 1.599 3018
5.223 1.609 1.698 1138
4.907 1.512 1.586 4645
5.096 1.570 1.643 4153
5.234 1.613 1.684 1475
4.918 1.515 1.574 3325
5.100 1.572 1.627 2905
5.275 1.625 1.679 2426
5.265 1.622 1.659 3802
5.090 1.568 1.608 3358
4.930 1.519 1.561 1935
4.492 1.384 1.434 1138
5.269 1.623 1.643 4348
5.101 1.572 1.594 2754
5.408 1.666 1.683 2441
4.489 1.383 1.418 1781
5.273 1.625 1.627 5577
5.412 1.668 1.666 2101
4.485 1.382 1.402 1501
5.120 1.578 1.583 1267
5.277 1.626 1.611 4208
4.481 1.381 1.387 1696
5.424 1.671 1.652 1673
5.643 1.739 1.714 1207
5.398 1.663 1.628 2535
4.485 1.382 1.373 2182
5.260 1.621 1.589 1851
5.537 1.706 1.666 1335
5.388 1.660 1.607 3054
5.637 1.737 1.676 2858
4.488 1.383 1.360 1599
5.249 1.617 1.569 1002
5.663 1.745 1.665 4425
5.392 1.661 1.591 3668
4.491 1.384 1.346 1147
5.469 1.685 1.594 4871
5.675 1.748 1.649 4858
5.953 1.834 1.724 955
5.814 1.791 1.687 828
5.473 1.686 1.578 4702
5.679 1.750 1.632 4585
5.935 1.829 1.700 1750
5.411 1.667 1.544 4041
5.932 1.828 1.680 3535
5.683 1.751 1.615 3430
6.072 1.871 1.717 1316
5.944 1.831 1.664 3959
5.746 1.770 1.613 2476
5.474 1.687 1.543 1993
6.084 1.874 1.701 1488
6.029 1.858 1.667 4666
5.875 1.810 1.628 2477
5.735 1.767 1.592 1938
5.478 1.688 1.526 1432
6.070 1.870 1.658 4619
