0.491 2.173 1.187 20052
0.493 2.183 1.184 14538
0.494 2.186 1.177 8858
0.779 3.448 1.754 4806
0.781 3.460 1.746 5521
0.782 3.465 1.736 5521
0.783 3.469 1.726 2760
0.495 2.193 1.141 782
0.148 0.652 1.721 19118
0.150 0.660 1.727 17862
0.151 0.664 1.725 16619
0.153 0.672 1.730 13328
0.154 0.680 1.735 10218
0.155 0.684 1.733 9721
0.156 0.689 1.731 10484
0.157 0.690 1.721 11416
0.159 0.698 1.726 13522
0.160 0.705 1.731 15809
0.161 0.710 1.729 16079
0.163 0.718 1.734 16753
0.164 0.722 1.732 16495
0.166 0.730 1.737 15028
0.166 0.731 1.727 13745
0.168 0.739 1.732 13311
0.169 0.744 1.730 12917
0.171 0.752 1.735 11756
0.172 0.756 1.732 10774
0.174 0.764 1.737 8747
0.176 0.776 1.749 7643
0.177 0.780 1.746 7834
0.178 0.785 1.744 8024
0.180 0.793 1.749 12196
0.182 0.801 1.753 16451
0.183 0.806 1.751 14637
0.184 0.810 1.748 12824
0.186 0.818 1.753 10161
0.187 0.823 1.750 7607
0.188 0.827 1.748 9329
0.189 0.832 1.745 11051
0.191 0.840 1.749 11324
0.191 0.841 1.740 15967
0.192 0.846 1.737 21032
0.193 0.850 1.735 26643
0.194 0.855 1.732 31756
0.195 0.859 1.730 27727
0.196 0.864 1.727 23698
0.197 0.868 1.724 16113
0.198 0.873 1.722 9534
0.199 0.877 1.719 10540
0.201 0.885 1.723 8489
0.204 0.898 1.734 7011
0.205 0.902 1.731 7591
0.207 0.911 1.735 9305
0.208 0.915 1.732 10317
0.209 0.920 1.730 9216
0.211 0.928 1.733 10470
0.213 0.937 1.737 14848
0.214 0.941 1.734 18765
0.215 0.946 1.732 18986
0.217 0.955 1.735 17976
0.218 0.959 1.732 18215
0.219 0.964 1.729 16852
0.221 0.972 1.733 18117
0.222 0.977 1.730 20660
0.224 0.986 1.734 18443
0.225 0.990 1.731 16611
0.227 0.999 1.734 17912
0.227 0.999 1.725 16392
0.228 1.004 1.722 12696
0.230 1.012 1.725 12383
0.234 1.030 1.742 13387
0.235 1.034 1.739 16178
0.235 1.034 1.729 19957
0.236 1.039 1.726 21306
0.238 1.048 1.729 25767
0.240 1.057 1.732 34112
0.242 1.066 1.736 36538
0.243 1.070 1.732 36301
0.245 1.079 1.735 32247
0.247 1.088 1.739 21498
0.250 1.102 1.748 13420
0.250 1.102 1.738 9125
0.251 1.106 1.735 5412
0.251 1.106 1.725 4646
0.253 1.115 1.728 6240
0.256 1.124 1.731 9237
0.256 1.124 1.721 12925
0.257 1.129 1.718 16495
0.258 1.133 1.714 18329
0.259 1.138 1.711 16068
0.261 1.147 1.714 14185
0.262 1.151 1.710 12096
0.260 1.146 1.694 8211
0.260 1.146 1.684 6353
0.266 1.169 1.706 9065
0.268 1.179 1.709 14423
0.270 1.188 1.711 19746
0.271 1.192 1.707 20870
0.271 1.192 1.698 14331
0.272 1.196 1.694 8926
0.274 1.205 1.697 10765
0.277 1.220 1.705 12882
0.280 1.234 1.714 13248
0.279 1.229 1.698 11133
0.279 1.228 1.688 10576
0.283 1.247 1.702 11912
0.284 1.252 1.698 11681
0.285 1.256 1.695 13157
0.286 1.260 1.691 19051
0.289 1.270 1.693 20140
0.292 1.284 1.701 17910
0.293 1.289 1.697 11367
0.293 1.288 1.687 6899
0.296 1.303 1.695 11484
0.297 1.307 1.691 14549
0.299 1.317 1.693 12878
0.300 1.321 1.689 9890
0.300 1.320 1.679 8898
0.303 1.335 1.687 12076
0.308 1.355 1.700 14144
0.309 1.359 1.696 8559
0.309 1.358 1.686 7774
0.310 1.363 1.682 12769
0.312 1.372 1.684 19510
0.312 1.372 1.674 31675
0.313 1.376 1.670 46655
0.315 1.385 1.671 56948
0.315 1.384 1.661 60293
0.316 1.389 1.657 60716
0.317 1.393 1.653 58136
0.318 1.397 1.649 48983
0.319 1.402 1.644 36470
0.320 1.406 1.640 21345
0.343 1.508 1.737 26689
0.344 1.512 1.733 25216
0.345 1.517 1.728 20955
0.347 1.527 1.729 27157
0.348 1.531 1.724 28867
0.349 1.536 1.720 20097
0.350 1.540 1.715 12102
0.357 1.572 1.738 14492
0.361 1.588 1.744 27762
0.364 1.604 1.750 37252
0.365 1.608 1.745 34249
0.367 1.613 1.741 24510
0.368 1.617 1.736 13762
0.370 1.627 1.736 8534
0.373 1.643 1.742 16604
0.374 1.648 1.737 22931
0.375 1.652 1.732 14837
0.378 1.662 1.732 7280
0.380 1.673 1.733 9923
0.381 1.677 1.728 9811
0.386 1.699 1.738 8885
0.388 1.709 1.738 15411
0.389 1.714 1.733 19113
0.392 1.724 1.733 14745
0.395 1.740 1.739 14667
0.396 1.745 1.733 18138
0.397 1.749 1.728 17180
0.401 1.765 1.733 14963
0.402 1.770 1.728 11168
0.406 1.786 1.733 10477
0.410 1.802 1.737 10243
0.412 1.813 1.737 10699
0.414 1.823 1.737 17214
0.415 1.828 1.731 21760
0.416 1.832 1.726 21146
0.420 1.848 1.730 21620
0.421 1.853 1.724 21441
0.423 1.863 1.724 17856
0.427 1.880 1.728 15424
0.431 1.896 1.732 13346
0.435 1.913 1.737 17497
0.437 1.923 1.736 21858
0.437 1.922 1.725 18130
0.435 1.914 1.709 15897
0.439 1.931 1.713 15722
0.443 1.948 1.717 14533
0.444 1.952 1.711 10347
0.456 2.005 1.744 10369
0.454 1.998 1.728 10795
0.455 2.002 1.722 9701
0.463 2.037 1.740 10573
0.464 2.042 1.734 10877
0.465 2.047 1.727 9497
0.468 2.057 1.726 7609
0.471 2.074 1.729 5063
0.477 2.097 1.737 3758
0.476 2.096 1.726 4526
0.479 2.106 1.724 5266
0.480 2.111 1.718 4755
0.482 2.122 1.716 4056
0.493 2.170 1.742 4507
0.497 2.187 1.744 5240
0.498 2.192 1.738 5056
0.498 2.190 1.726 4142
0.494 2.175 1.706 3452
0.501 2.205 1.718 2816
0.512 2.254 1.742 2765
0.532 2.342 1.793 2841
0.525 2.308 1.759 2817
0.529 2.326 1.761 3142
0.532 2.343 1.763 2613
0.534 2.348 1.756 2056
0.540 2.378 1.766 1645
0.547 2.408 1.776 1626
0.547 2.407 1.765 1407
0.560 2.463 1.792 1753
0.561 2.468 1.784 1756
0.560 2.466 1.773 1555
0.560 2.464 1.761 1393
0.699 3.076 2.145 1092
0.569 2.506 1.767 971
0.554 2.438 1.714 949
0.555 2.443 1.706 757
0.429 1.888 1.347 659
0.710 3.124 2.111 818
0.843 3.711 2.462 861
0.722 3.175 2.117 819
0.724 3.187 2.111 752
0.863 3.797 2.469 587
0.884 3.890 2.509 520
0.910 4.004 2.562 522
0.887 3.904 2.486 430
0.939 4.131 2.605 476
0.890 3.917 2.462 435
0.898 3.950 2.466 457
0.907 3.991 2.474 478
0.910 4.004 2.466 333
0.622 2.736 1.725 264
0.167 0.735 0.578 288
0.169 0.743 0.580 305
0.169 0.744 0.577 320
0.473 2.082 1.318 361
0.475 2.092 1.316 1121
0.476 2.096 1.309 1882
0.479 2.106 1.307 3462
0.479 2.109 1.300 5043
0.480 2.112 1.294 7930
0.481 2.115 1.288 10816
0.481 2.119 1.281 16096
0.482 2.122 1.275 21376
0.483 2.125 1.268 22482
0.484 2.128 1.262 23587
0.483 2.125 1.252 22930
0.484 2.128 1.246 22376
0.484 2.131 1.239 20757
0.485 2.134 1.233 19139
0.489 2.151 1.233 23505
0.491 2.161 1.230 29180
0.490 2.157 1.220 32591
0.491 2.160 1.214 36134
0.492 2.163 1.207 32727
0.492 2.166 1.200 29232
0.493 2.169 1.194 29144
0.494 2.172 1.187 22511
0.496 2.182 1.184 16258
0.497 2.185 1.177 9907
0.783 3.447 1.754 5336
0.786 3.459 1.746 6069
0.787 3.464 1.736 6069
0.788 3.468 1.726 3034
0.498 2.192 1.141 1001
0.151 0.655 1.729 19613
0.152 0.659 1.727 18206
0.153 0.664 1.725 16799
0.155 0.671 1.730 13559
0.157 0.679 1.735 10306
0.158 0.683 1.733 9534
0.158 0.685 1.723 10968
0.159 0.689 1.721 12473
0.161 0.697 1.726 14366
0.163 0.705 1.731 16534
0.164 0.709 1.729 16146
0.166 0.717 1.734 16018
0.167 0.722 1.732 15763
0.168 0.726 1.730 14344
0.169 0.731 1.727 13179
0.171 0.738 1.732 12997
0.172 0.743 1.730 12902
0.174 0.751 1.735 11429
0.175 0.755 1.732 10075
0.176 0.763 1.737 7772
0.179 0.775 1.749 6195
0.180 0.779 1.746 6900
0.181 0.784 1.744 7606
0.183 0.792 1.749 11550
0.185 0.800 1.753 15676
0.186 0.805 1.751 13967
0.188 0.813 1.755 12299
0.189 0.818 1.753 10354
0.190 0.822 1.750 8410
0.191 0.827 1.748 10206
0.192 0.831 1.745 12003
0.193 0.836 1.743 11648
0.194 0.840 1.740 16093
0.195 0.845 1.737 21386
0.196 0.849 1.735 26769
0.197 0.854 1.732 31658
0.198 0.858 1.730 27313
0.199 0.863 1.727 22969
0.200 0.867 1.724 15620
0.201 0.872 1.722 9283
0.203 0.880 1.726 10377
0.205 0.889 1.730 8500
0.207 0.897 1.734 7069
0.208 0.902 1.731 7955
0.210 0.910 1.735 10121
0.211 0.915 1.732 11240
0.213 0.923 1.736 9744
0.214 0.928 1.733 10578
0.216 0.936 1.737 14602
0.217 0.941 1.734 17955
0.218 0.945 1.732 18067
0.220 0.954 1.735 17169
0.221 0.958 1.732 17473
0.222 0.963 1.729 16564
0.224 0.971 1.733 17997
0.226 0.976 1.730 20166
0.228 0.985 1.734 16926
0.229 0.989 1.731 14479
0.231 0.998 1.734 15577
0.231 0.998 1.725 14505
0.231 0.998 1.715 11857
0.235 1.016 1.732 12628
0.238 1.029 1.742 14654
0.239 1.033 1.739 17626
0.239 1.034 1.729 21954
0.240 1.038 1.726 23843
0.242 1.047 1.729 28320
0.244 1.056 1.732 36374
0.246 1.065 1.736 38418
0.247 1.069 1.732 37901
0.249 1.078 1.735 33531
0.251 1.087 1.739 22100
0.254 1.101 1.748 13372
0.254 1.101 1.738 9129
0.254 1.101 1.729 6707
0.255 1.105 1.725 6650
0.257 1.114 1.728 7469
0.259 1.119 1.725 10055
0.260 1.123 1.721 14112
0.261 1.128 1.718 18461
0.262 1.132 1.714 20240
0.263 1.137 1.711 16965
0.265 1.146 1.714 15203
0.266 1.150 1.710 13908
0.265 1.145 1.694 9481
0.265 1.145 1.684 6670
0.270 1.168 1.706 9342
0.272 1.178 1.709 15476
0.273 1.182 1.705 21101
0.274 1.186 1.701 22312
0.275 1.191 1.698 15755
0.276 1.195 1.694 9531
0.277 1.200 1.690 11105
0.282 1.219 1.705 13568
0.285 1.233 1.714 13517
0.284 1.227 1.698 11811
0.284 1.227 1.688 11797
0.288 1.246 1.702 11970
0.289 1.251 1.698 11320
0.289 1.250 1.689 14201
0.290 1.254 1.685 19834
0.292 1.264 1.687 19625
0.297 1.283 1.701 17048
0.298 1.288 1.697 10761
0.299 1.292 1.693 5451
0.301 1.302 1.695 10391
0.302 1.306 1.691 14854
0.304 1.315 1.693 12120
0.305 1.320 1.689 9026
0.306 1.324 1.685 10211
0.308 1.334 1.687 13587
0.312 1.349 1.695 14761
0.314 1.358 1.696 7273
0.314 1.357 1.686 6582
0.315 1.362 1.682 14666
0.317 1.371 1.684 18624
0.317 1.370 1.674 28001
0.318 1.375 1.670 45897
0.320 1.384 1.671 58628
0.320 1.383 1.661 61101
0.321 1.388 1.657 60556
0.322 1.392 1.653 57112
0.323 1.396 1.649 44026
0.324 1.400 1.644 29273
0.347 1.502 1.742 16786
0.348 1.507 1.737 23959
0.348 1.506 1.727 25198
0.350 1.516 1.728 23185
0.352 1.525 1.729 28958
0.354 1.530 1.724 27724
0.355 1.534 1.720 18253
0.356 1.539 1.715 11840
0.363 1.571 1.738 15530
0.368 1.592 1.750 29195
0.370 1.602 1.750 39342
0.371 1.607 1.745 36949
0.372 1.611 1.741 25636
0.373 1.616 1.736 12455
0.377 1.632 1.742 6262
0.379 1.642 1.742 13754
0.380 1.646 1.737 20334
0.381 1.651 1.732 14070
0.384 1.661 1.732 7832
0.386 1.671 1.733 10517
0.387 1.676 1.728 9883
0.392 1.697 1.738 8587
0.395 1.708 1.738 15612
0.396 1.712 1.733 19425
0.397 1.717 1.728 14490
0.402 1.739 1.739 14532
0.403 1.743 1.733 18395
0.404 1.748 1.728 17496
0.408 1.764 1.733 16686
0.409 1.768 1.728 13043
0.411 1.779 1.727 10141
0.416 1.801 1.737 9068
0.418 1.811 1.737 10246
0.421 1.822 1.737 16607
0.422 1.826 1.731 21127
0.423 1.831 1.726 20826
0.425 1.841 1.725 20612
0.428 1.851 1.724 19789
0.430 1.862 1.724 15226
0.435 1.884 1.733 12163
0.439 1.901 1.737 12422
0.443 1.917 1.741 18726
0.444 1.922 1.736 23008
0.444 1.920 1.725 18829
0.443 1.919 1.714 15805
0.446 1.929 1.713 15081
0.448 1.940 1.712 13220
0.463 2.005 1.755 10587
0.463 2.004 1.744 12193
0.461 1.996 1.728 11438
0.465 2.013 1.732 8714
0.472 2.042 1.745 10823
0.471 2.040 1.734 10894
0.472 2.045 1.727 9026
0.476 2.062 1.731 7621
0.479 2.072 1.729 5572
0.484 2.096 1.737 4401
0.485 2.100 1.731 5208
0.488 2.111 1.729 6289
0.489 2.115 1.722 5748
0.490 2.120 1.716 4329
0.502 2.175 1.746 4878
0.505 2.185 1.744 5540
0.507 2.196 1.742 5234
0.507 2.194 1.731 4063
0.502 2.174 1.706 3406
0.508 2.197 1.713 3119
0.522 2.259 1.747 3051
0.541 2.340 1.793 2968
0.533 2.306 1.759 3158
0.537 2.324 1.761 3404
0.541 2.341 1.763 2726
0.543 2.352 1.760 2089
0.549 2.376 1.766 1810
0.555 2.400 1.772 1686
0.568 2.456 1.799 1505
0.569 2.461 1.792 1869
0.570 2.466 1.784 1795
0.569 2.464 1.773 1508
0.569 2.462 1.761 1344
0.710 3.074 2.145 1230
0.579 2.504 1.767 998
0.578 2.502 1.755 920
0.572 2.474 1.727 711
0.726 3.142 2.137 746
0.723 3.128 2.115 985
0.726 3.141 2.110 1004
0.732 3.166 2.113 987
0.734 3.178 2.107 881
0.878 3.801 2.473 648
0.898 3.887 2.509 556
0.900 3.894 2.498 515
0.901 3.901 2.486 433
0.955 4.134 2.609 502
0.963 4.168 2.612 441
0.912 3.947 2.466 480
0.921 3.987 2.474 500
0.923 3.994 2.462 341
0.632 2.734 1.725 258
0.898 3.885 2.353 278
0.478 2.070 1.321 276
0.481 2.080 1.318 395
0.483 2.090 1.316 1202
0.484 2.094 1.309 2013
0.486 2.104 1.307 3693
0.487 2.107 1.300 5380
0.488 2.110 1.294 8397
0.488 2.114 1.288 11415
0.489 2.117 1.281 16947
0.490 2.120 1.275 22479
0.491 2.123 1.268 23821
0.491 2.127 1.262 25164
0.490 2.123 1.252 24417
0.491 2.126 1.246 23793
0.492 2.129 1.239 22212
0.493 2.132 1.233 20630
0.497 2.149 1.233 25238
0.499 2.159 1.230 31368
0.498 2.155 1.220 34845
0.499 2.158 1.214 38384
0.499 2.161 1.207 34763
0.500 2.164 1.200 31048
0.501 2.167 1.194 30955
0.501 2.170 1.187 23923
0.504 2.180 1.184 17228
0.504 2.183 1.177 10479
0.796 3.445 1.754 5698
0.799 3.456 1.746 6428
0.800 3.461 1.736 6428
0.801 3.465 1.726 3214
0.506 2.190 1.141 1155
0.153 0.654 1.729 20080
0.154 0.659 1.727 18411
0.155 0.663 1.725 16741
0.158 0.674 1.737 13732
0.159 0.679 1.735 10339
0.160 0.683 1.733 9261
0.160 0.684 1.723 11237
0.161 0.689 1.721 13247
0.163 0.697 1.726 14957
0.165 0.704 1.731 17094
0.166 0.709 1.729 16057
0.168 0.717 1.734 15173
0.169 0.721 1.732 14921
0.170 0.726 1.730 13487
0.171 0.730 1.727 12306
0.173 0.738 1.732 12496
0.174 0.743 1.730 12822
0.175 0.750 1.735 11079
0.176 0.755 1.732 9403
0.178 0.763 1.737 6766
0.181 0.774 1.749 4640
0.182 0.779 1.746 6069
0.183 0.784 1.744 7498
0.185 0.792 1.749 11209
0.187 0.800 1.753 15182
0.188 0.804 1.751 13539
0.190 0.813 1.755 12055
0.191 0.817 1.753 10577
0.192 0.822 1.750 9098
0.193 0.826 1.748 10873
0.194 0.831 1.745 12647
0.195 0.835 1.743 11834
0.196 0.840 1.740 15925
0.197 0.844 1.737 21322
0.198 0.849 1.735 26600
0.199 0.853 1.732 31386
0.201 0.858 1.730 26806
0.202 0.862 1.727 22226
0.203 0.867 1.724 15128
0.204 0.871 1.722 9090
0.206 0.880 1.726 10390
0.208 0.888 1.730 8599
0.210 0.897 1.734 7150
0.212 0.905 1.738 8334
0.213 0.910 1.735 10958
0.215 0.918 1.739 12315
0.216 0.923 1.736 10677
0.218 0.931 1.740 11093
0.219 0.936 1.737 14549
0.220 0.940 1.734 17285
0.222 0.949 1.738 17236
0.223 0.953 1.735 16353
0.224 0.958 1.732 16658
0.225 0.962 1.729 16220
0.227 0.971 1.733 17769
0.228 0.975 1.730 19465
0.229 0.980 1.727 15145
0.231 0.989 1.731 11847
0.233 0.997 1.734 12560
0.234 1.002 1.731 12386
0.234 1.002 1.722 11044
0.237 1.015 1.732 13055
0.240 1.028 1.742 15739
0.242 1.037 1.745 19090
0.242 1.037 1.735 23865
0.242 1.037 1.726 26081
0.245 1.046 1.729 30454
0.247 1.055 1.732 38214
0.249 1.064 1.736 39846
0.250 1.069 1.732 38986
0.252 1.078 1.735 34339
0.254 1.087 1.739 22360
0.256 1.096 1.742 13088
0.256 1.096 1.732 9237
0.257 1.100 1.729 8334
0.259 1.109 1.732 8748
0.260 1.114 1.728 8826
0.261 1.118 1.725 10378
0.262 1.123 1.721 14286
0.263 1.127 1.718 19523
0.264 1.132 1.714 21750
0.266 1.136 1.711 17806
0.268 1.145 1.714 15941
0.269 1.150 1.710 15266
0.268 1.145 1.694 10724
0.267 1.144 1.684 7059
0.273 1.168 1.706 9426
0.275 1.177 1.709 15768
0.276 1.181 1.705 21130
0.277 1.186 1.701 22359
0.278 1.190 1.698 16235
0.279 1.195 1.694 9844
0.280 1.199 1.690 11176
0.284 1.213 1.699 13617
0.287 1.227 1.707 13958
0.286 1.222 1.692 13428
0.287 1.226 1.688 13267
0.291 1.245 1.702 11790
0.291 1.245 1.692 11743
0.291 1.244 1.683 16500
0.292 1.249 1.679 21420
0.295 1.263 1.687 19939
0.299 1.277 1.695 16455
0.301 1.287 1.697 10399
0.305 1.307 1.711 4915
0.304 1.301 1.695 9569
0.305 1.305 1.691 14691
0.307 1.315 1.693 11546
0.310 1.324 1.695 8417
0.311 1.329 1.691 10568
0.313 1.338 1.693 14735
0.315 1.348 1.695 16533
0.316 1.352 1.690 9078
0.318 1.362 1.692 8735
0.319 1.366 1.688 18401
0.320 1.370 1.684 20162
0.320 1.370 1.674 26633
0.321 1.374 1.670 46273
0.323 1.384 1.671 60234
0.323 1.383 1.661 61846
0.324 1.387 1.657 60333
0.325 1.391 1.653 54897
0.326 1.395 1.649 37342
0.327 1.400 1.644 19961
0.352 1.506 1.747 17410
0.352 1.506 1.737 22000
0.352 1.505 1.727 25104
0.354 1.515 1.728 25379
0.356 1.525 1.729 30472
0.357 1.529 1.724 26088
0.360 1.539 1.725 16725
0.359 1.538 1.715 11735
0.368 1.576 1.743 15997
0.372 1.591 1.750 29279
0.374 1.601 1.750 39707
0.375 1.606 1.745 38603
0.376 1.610 1.741 26701
0.377 1.615 1.736 12712
0.380 1.625 1.736 5464
0.384 1.641 1.742 11262
0.383 1.640 1.732 18091
0.386 1.650 1.732 13421
0.388 1.660 1.732 8122
0.389 1.665 1.727 10492
0.391 1.675 1.728 9668
0.397 1.696 1.738 7607
0.399 1.707 1.738 14410
0.400 1.711 1.733 18421
0.401 1.716 1.728 13658
0.406 1.738 1.739 13881
0.406 1.736 1.728 17910
0.408 1.747 1.728 17297
0.412 1.763 1.733 18518
0.413 1.767 1.728 16598
0.417 1.783 1.733 11615
0.422 1.806 1.743 8742
0.424 1.816 1.742 9790
0.426 1.820 1.737 15723
0.427 1.825 1.731 20507
0.428 1.829 1.726 20705
0.430 1.840 1.725 19785
0.432 1.850 1.724 17646
0.434 1.855 1.719 12565
0.440 1.883 1.733 8734
0.445 1.906 1.742 11543
0.448 1.916 1.741 19016
0.449 1.921 1.736 22787
0.449 1.919 1.725 18425
0.448 1.918 1.714 14885
0.452 1.934 1.718 14160
0.455 1.945 1.717 11848
0.467 1.998 1.750 11241
0.467 1.996 1.739 14269
0.465 1.989 1.723 13163
0.473 2.024 1.741 8247
0.477 2.041 1.745 10633
0.477 2.039 1.734 10308
0.478 2.044 1.727 8388
0.482 2.060 1.731 7613
0.484 2.071 1.729 5990
0.490 2.094 1.737 5084
0.492 2.105 1.735 6076
0.493 2.110 1.729 7427
0.494 2.114 1.722 6818
0.495 2.119 1.716 4474
0.509 2.180 1.751 5141
0.511 2.184 1.744 5680
0.513 2.195 1.742 5389
0.514 2.200 1.735 4115
0.511 2.185 1.715 3343
0.513 2.196 1.713 3504
0.528 2.258 1.747 3290
0.547 2.339 1.793 3041
0.537 2.299 1.755 3410
0.543 2.322 1.761 3444
0.547 2.340 1.763 2762
0.551 2.357 1.765 2127
0.555 2.375 1.766 2045
0.556 2.379 1.759 1892
0.559 2.390 1.756 1712
0.576 2.466 1.796 1994
0.578 2.471 1.789 1888
0.577 2.469 1.777 1541
0.670 2.864 2.023 1456
0.718 3.072 2.145 1353
0.585 2.502 1.767 1083
0.584 2.500 1.755 951
0.688 2.945 2.026 767
0.734 3.141 2.137 799
0.731 3.126 2.115 1054
0.734 3.139 2.110 1114
0.740 3.164 2.113 1146
0.741 3.170 2.103 1020
0.744 3.182 2.097 726
0.907 3.878 2.505 604
0.910 3.892 2.498 551
0.935 3.998 2.546 459
0.928 3.972 2.514 481
0.928 3.972 2.498 467
0.924 3.952 2.470 542
0.930 3.978 2.470 569
0.931 3.985 2.458 401
0.957 4.092 2.504 313
0.905 3.870 2.361 321
0.908 3.883 2.353 349
0.484 2.069 1.321 283
0.486 2.079 1.318 404
0.488 2.089 1.316 1193
0.489 2.093 1.309 1992
0.491 2.103 1.307 3702
0.492 2.106 1.300 5416
0.493 2.109 1.294 8462
0.494 2.112 1.288 11508
0.495 2.116 1.281 17109
0.495 2.119 1.275 22710
0.496 2.122 1.268 24305
0.497 2.125 1.262 25900
0.496 2.122 1.252 25150
0.497 2.125 1.246 24536
0.497 2.128 1.239 23031
0.498 2.131 1.233 21525
0.502 2.148 1.233 26325
0.503 2.151 1.227 32768
0.503 2.154 1.220 36224
0.504 2.157 1.214 39680
0.505 2.160 1.207 35897
0.506 2.163 1.200 32014
0.506 2.166 1.194 31915
0.507 2.169 1.187 24634
0.509 2.179 1.184 17629
0.510 2.182 1.177 10730
0.805 3.443 1.754 5891
0.807 3.454 1.746 6603
0.808 3.459 1.736 6603
0.809 3.463 1.726 3301
0.512 2.189 1.141 1314
0.154 0.654 1.729 20163
0.155 0.658 1.727 18174
0.156 0.663 1.725 16184
0.159 0.674 1.737 13239
0.160 0.678 1.735 10140
0.161 0.683 1.733 9213
0.161 0.684 1.723 11465
0.162 0.689 1.721 13769
0.164 0.696 1.726 15354
0.166 0.704 1.731 17426
0.167 0.709 1.729 15897
0.169 0.716 1.734 14432
0.170 0.721 1.732 14204
0.171 0.725 1.730 12954
0.172 0.730 1.727 11934
0.174 0.738 1.732 12040
0.175 0.742 1.730 12249
0.176 0.747 1.728 10343
0.178 0.755 1.732 8511
0.179 0.759 1.730 5771
0.182 0.774 1.749 3412
0.183 0.779 1.746 5694
0.184 0.783 1.744 7976
0.186 0.791 1.749 11388
0.188 0.800 1.753 15060
0.189 0.804 1.751 13301
0.191 0.812 1.755 11718
0.192 0.817 1.753 10542
0.193 0.821 1.750 9367
0.194 0.826 1.748 11047
0.195 0.830 1.745 12728
0.197 0.835 1.743 11750
0.198 0.840 1.740 15675
0.199 0.844 1.737 21088
0.200 0.849 1.735 26152
0.200 0.849 1.725 30738
0.202 0.858 1.730 26035
0.203 0.862 1.727 21364
0.204 0.867 1.724 14623
0.207 0.879 1.735 9213
0.207 0.879 1.726 10787
0.209 0.888 1.730 9022
0.211 0.896 1.734 7548
0.213 0.905 1.738 8731
0.215 0.913 1.742 11560
0.216 0.918 1.739 13288
0.218 0.926 1.743 11836
0.220 0.935 1.747 12053
0.220 0.935 1.737 14734
0.221 0.940 1.734 16609
0.223 0.948 1.738 16184
0.224 0.953 1.735 15134
0.225 0.957 1.732 15671
0.226 0.962 1.729 15986
0.228 0.971 1.733 17632
0.230 0.975 1.730 18766
0.231 0.980 1.727 13558
0.232 0.984 1.724 9667
0.235 0.997 1.734 9395
0.237 1.006 1.738 10166
0.238 1.010 1.735 10423
0.239 1.015 1.732 13405
0.242 1.028 1.742 16510
0.244 1.037 1.745 20150
0.244 1.037 1.735 25209
0.244 1.037 1.726 27643
0.246 1.046 1.729 31934
0.248 1.055 1.732 39529
0.250 1.064 1.736 40504
0.251 1.068 1.732 39072
0.254 1.077 1.735 34163
0.256 1.086 1.739 21923
0.258 1.095 1.742 12638
0.258 1.095 1.732 9664
0.259 1.100 1.729 10007
0.261 1.109 1.732 10828
0.262 1.113 1.728 10299
0.263 1.118 1.725 10696
0.264 1.122 1.721 13923
0.265 1.127 1.718 19801
0.266 1.131 1.714 22642
0.267 1.136 1.711 18194
0.269 1.145 1.714 15581
0.269 1.145 1.704 15078
0.269 1.144 1.694 11643
0.270 1.149 1.691 7726
0.276 1.172 1.712 9334
0.277 1.176 1.709 14763
0.278 1.181 1.705 19560
0.279 1.185 1.701 21115
0.280 1.190 1.698 15921
0.281 1.194 1.694 9922
0.282 1.198 1.690 11298
0.285 1.213 1.699 13783
0.289 1.227 1.707 14910
0.287 1.221 1.692 15976
0.289 1.226 1.688 15072
0.291 1.235 1.690 13001
0.292 1.239 1.686 15250
0.292 1.239 1.677 19703
0.294 1.248 1.679 23379
0.296 1.258 1.681 20621
0.299 1.272 1.689 15740
0.303 1.286 1.697 10220
0.309 1.311 1.717 5167
0.306 1.300 1.695 8756
0.307 1.305 1.691 13332
0.311 1.319 1.699 11019
0.313 1.329 1.701 8643
0.313 1.328 1.691 10088
0.315 1.338 1.693 14968
0.317 1.347 1.695 17835
0.318 1.352 1.690 11910
0.322 1.366 1.698 12636
0.321 1.366 1.688 22502
0.322 1.370 1.684 23394
0.322 1.369 1.674 28501
0.323 1.373 1.670 48243
0.326 1.383 1.671 61537
0.325 1.382 1.661 62023
0.326 1.386 1.657 60051
0.329 1.396 1.659 53383
0.328 1.395 1.649 32918
0.350 1.485 1.735 15843
0.354 1.506 1.747 18914
0.356 1.510 1.743 21687
0.354 1.504 1.727 24750
0.356 1.514 1.728 27124
0.359 1.524 1.729 31588
0.361 1.534 1.730 24908
0.362 1.538 1.725 15926
0.361 1.532 1.710 12196
0.371 1.575 1.743 15575
0.374 1.591 1.750 27556
0.377 1.601 1.750 38194
0.378 1.605 1.745 38903
0.378 1.604 1.735 27667
0.379 1.609 1.730 14274
0.381 1.619 1.731 6681
0.385 1.635 1.737 9902
0.386 1.639 1.732 16731
0.388 1.649 1.732 13365
0.391 1.659 1.732 8306
0.392 1.664 1.727 9767
0.393 1.668 1.722 8918
0.398 1.690 1.733 6480
0.402 1.706 1.738 12449
0.403 1.711 1.733 16540
0.404 1.715 1.728 12474
0.409 1.737 1.739 12918
0.409 1.736 1.728 16943
0.411 1.746 1.728 16689
0.415 1.762 1.733 20131
0.417 1.772 1.733 20461
0.421 1.789 1.738 13650
0.426 1.811 1.748 9151
0.427 1.815 1.742 9450
0.428 1.820 1.737 15002
0.431 1.830 1.736 20389
0.430 1.829 1.726 20968
0.433 1.839 1.725 18931
0.434 1.844 1.719 15389
0.435 1.848 1.714 9960
0.445 1.888 1.738 6218
0.448 1.905 1.742 10992
0.451 1.916 1.741 18138
0.452 1.920 1.736 21212
0.453 1.925 1.730 17165
0.453 1.923 1.719 13318
0.455 1.934 1.718 13014
0.459 1.950 1.722 10849
0.470 1.997 1.750 11626
0.470 1.996 1.739 16056
0.468 1.988 1.723 14968
0.478 2.029 1.746 7948
0.480 2.040 1.745 10025
0.480 2.038 1.734 9367
0.481 2.043 1.727 7766
0.485 2.060 1.731 7596
0.487 2.070 1.729 6158
0.494 2.100 1.742 5630
0.495 2.104 1.735 6906
0.496 2.109 1.729 8382
0.497 2.113 1.722 7682
0.512 2.174 1.757 4987
0.513 2.179 1.751 5384
0.514 2.183 1.744 5681
0.516 2.194 1.742 5475
0.519 2.205 1.740 4417
0.516 2.191 1.720 3482
0.518 2.201 1.718 3721
0.531 2.257 1.747 3378
0.538 2.287 1.758 3084
0.539 2.291 1.751 3563
0.543 2.309 1.752 3369
0.552 2.345 1.767 2865
0.555 2.356 1.765 2301
0.559 2.374 1.766 2342
0.560 2.378 1.759 2240
0.559 2.376 1.748 2065
0.580 2.465 1.796 2388
0.581 2.470 1.789 2237
0.582 2.475 1.781 1704
0.674 2.863 2.023 1563
0.721 3.064 2.141 1397
0.721 3.064 2.128 1084
0.692 2.938 2.035 985
0.693 2.944 2.026 852
0.737 3.133 2.133 848
0.736 3.125 2.115 1155
0.739 3.138 2.110 1251
0.744 3.163 2.113 1303
0.746 3.168 2.103 1158
0.747 3.174 2.093 855
0.913 3.877 2.505 659
0.914 3.884 2.494 605
0.749 3.184 2.061 509
0.935 3.970 2.514 525
0.936 3.977 2.502 512
0.936 3.977 2.486 573
0.938 3.984 2.474 647
0.939 3.990 2.462 463
0.963 4.091 2.504 375
0.911 3.868 2.361 367
0.912 3.875 2.349 382
0.971 4.124 2.474 313
0.488 2.072 1.315 374
0.492 2.088 1.316 1077
0.492 2.092 1.309 1802
0.495 2.102 1.307 3478
0.496 2.105 1.300 5162
0.496 2.108 1.294 8123
0.495 2.105 1.284 11091
0.498 2.115 1.281 16552
0.499 2.118 1.275 22020
0.499 2.121 1.268 23825
0.500 2.124 1.262 25630
0.499 2.121 1.252 24975
0.500 2.124 1.246 24458
0.501 2.127 1.239 23129
0.501 2.130 1.233 21800
0.505 2.147 1.233 26586
0.506 2.150 1.227 33114
0.507 2.153 1.220 36381
0.508 2.156 1.214 39647
0.508 2.159 1.207 35837
0.509 2.162 1.200 31930
0.510 2.165 1.194 31833
0.510 2.168 1.187 24562
0.513 2.178 1.184 17512
0.513 2.181 1.177 10674
0.810 3.441 1.754 5937
0.813 3.453 1.746 6637
0.814 3.457 1.736 6637
0.815 3.462 1.726 3318
0.515 2.188 1.141 1321
0.156 0.654 1.729 19964
0.157 0.658 1.727 17835
0.158 0.663 1.725 15705
0.160 0.670 1.730 12843
0.162 0.678 1.735 9906
0.163 0.682 1.733 9117
0.163 0.684 1.723 11637
0.164 0.688 1.721 14157
0.166 0.696 1.726 15569
0.168 0.704 1.731 17470
0.169 0.708 1.729 15727
0.171 0.716 1.734 13997
0.172 0.720 1.732 13787
0.173 0.725 1.730 12697
0.175 0.733 1.734 11817
0.176 0.737 1.732 11467
0.177 0.742 1.730 11118
0.178 0.746 1.728 9610
0.179 0.751 1.725 8101
0.180 0.755 1.723 5372
0.185 0.777 1.756 2858
0.186 0.778 1.746 5585
0.187 0.783 1.744 8373
0.189 0.791 1.749 11390
0.191 0.799 1.753 14598
0.192 0.803 1.751 12785
0.194 0.812 1.755 11050
0.195 0.816 1.753 10038
0.195 0.817 1.743 9102
0.196 0.822 1.741 10960
0.197 0.826 1.738 12817
0.199 0.834 1.743 11752
0.200 0.839 1.740 15498
0.201 0.843 1.737 20645
0.202 0.848 1.735 25216
0.202 0.849 1.725 29518
0.204 0.857 1.730 24818
0.206 0.861 1.727 20321
0.207 0.866 1.724 14171
0.210 0.878 1.735 9625
0.211 0.883 1.733 11453
0.213 0.891 1.737 9605
0.215 0.900 1.741 8157
0.216 0.904 1.738 9343
0.218 0.913 1.742 12126
0.219 0.917 1.739 13826
0.221 0.926 1.743 12628
0.223 0.934 1.747 12717
0.224 0.939 1.744 14564
0.225 0.943 1.741 15581
0.226 0.948 1.738 14706
0.227 0.952 1.735 13667
0.228 0.957 1.732 14725
0.229 0.961 1.729 15954
0.231 0.970 1.733 17685
0.232 0.974 1.730 18256
0.233 0.975 1.721 12315
0.234 0.979 1.718 8121
0.235 0.984 1.715 6383
0.241 1.009 1.744 7791
0.242 1.014 1.741 10002
0.243 1.018 1.738 13340
0.245 1.027 1.742 16511
0.247 1.036 1.745 20508
0.247 1.036 1.735 25949
0.247 1.036 1.726 28740
0.249 1.045 1.729 33055
0.251 1.054 1.732 40364
0.254 1.063 1.736 40330
0.255 1.068 1.732 38136
0.257 1.076 1.735 32931
0.258 1.081 1.732 20715
0.261 1.094 1.742 11859
0.261 1.094 1.732 10167
0.263 1.104 1.735 11942
0.264 1.108 1.732 13031
0.265 1.113 1.728 12017
0.266 1.117 1.725 10963
0.268 1.121 1.721 12673
0.269 1.126 1.718 18848
0.270 1.130 1.714 23067
0.271 1.135 1.711 19342
0.273 1.144 1.714 16373
0.273 1.144 1.704 15395
0.274 1.148 1.700 12656
0.276 1.157 1.703 9226
0.279 1.171 1.712 9890
0.280 1.176 1.709 13647
0.282 1.180 1.705 17896
0.283 1.184 1.701 19994
0.285 1.194 1.704 15730
0.285 1.193 1.694 10005
0.286 1.198 1.690 11492
0.289 1.212 1.699 14179
0.292 1.226 1.707 16672
0.291 1.221 1.692 19765
0.292 1.225 1.688 18347
0.293 1.229 1.684 16066
0.294 1.234 1.680 19412
0.295 1.238 1.677 24481
0.298 1.247 1.679 28470
0.299 1.252 1.675 23763
0.302 1.266 1.683 15428
0.307 1.286 1.697 8311
0.315 1.320 1.729 5179
0.310 1.299 1.695 8626
0.311 1.304 1.691 11772
0.316 1.324 1.705 10059
0.318 1.333 1.707 9000
0.318 1.332 1.697 9939
0.320 1.342 1.699 14857
0.321 1.346 1.695 18798
0.322 1.351 1.690 14604
0.326 1.365 1.698 17086
0.327 1.370 1.694 26920
0.327 1.369 1.684 28386
0.326 1.368 1.674 31330
0.327 1.372 1.670 49301
0.330 1.382 1.671 62368
0.331 1.386 1.667 62075
0.332 1.391 1.663 59343
0.333 1.395 1.659 52417
0.334 1.399 1.654 32576
0.353 1.479 1.729 17625
0.359 1.505 1.747 21465
0.361 1.515 1.749 24004
0.360 1.508 1.733 24112
0.361 1.513 1.728 28565
0.363 1.523 1.729 31885
0.366 1.533 1.730 25260
0.364 1.526 1.714 17620
0.364 1.525 1.704 13777
0.376 1.574 1.743 14690
0.379 1.590 1.750 23886
0.382 1.600 1.750 34808
0.381 1.599 1.740 38152
0.382 1.603 1.735 28852
0.384 1.608 1.730 16292
0.385 1.612 1.725 8710
0.388 1.628 1.731 9808
0.391 1.638 1.732 15864
0.393 1.648 1.732 13961
0.394 1.653 1.727 8887
0.397 1.663 1.727 8484
0.398 1.667 1.722 7925
0.402 1.683 1.728 6233
0.407 1.705 1.738 10346
0.408 1.709 1.733 13700
0.409 1.714 1.728 11028
0.414 1.736 1.739 11581
0.414 1.734 1.728 15059
0.416 1.745 1.728 15502
0.421 1.767 1.738 21559
0.424 1.777 1.738 24425
0.426 1.787 1.738 16217
0.432 1.809 1.748 9902
0.433 1.814 1.742 9064
0.435 1.824 1.742 14795
0.436 1.829 1.736 21086
0.436 1.827 1.726 21956
0.437 1.832 1.720 18364
0.440 1.842 1.719 12626
0.439 1.841 1.709 7388
0.446 1.869 1.723 5563
0.454 1.904 1.742 11121
0.457 1.914 1.741 16260
0.459 1.925 1.741 18427
0.459 1.923 1.730 14960
0.460 1.928 1.724 11510
0.462 1.938 1.723 12561
0.466 1.955 1.727 10963
0.475 1.990 1.745 11806
0.474 1.988 1.734 17557
0.474 1.987 1.723 16671
0.474 1.985 1.713 8116
0.486 2.039 1.745 9107
0.486 2.037 1.734 8097
0.487 2.041 1.727 7196
0.491 2.058 1.731 7810
0.494 2.069 1.729 6381
0.501 2.098 1.742 6204
0.503 2.109 1.740 7728
0.503 2.107 1.729 9229
0.504 2.112 1.722 8423
0.520 2.179 1.762 5809
0.521 2.184 1.755 5660
0.522 2.188 1.749 5551
0.525 2.199 1.747 5454
0.527 2.210 1.744 4931
0.528 2.214 1.738 4101
0.525 2.200 1.718 4046
0.538 2.255 1.747 3431
0.544 2.279 1.753 3241
0.540 2.264 1.733 3882
0.540 2.262 1.722 4065
0.559 2.344 1.767 3019
0.568 2.380 1.782 2544
0.564 2.366 1.762 2730
0.565 2.370 1.755 2789
0.567 2.375 1.748 2644
0.589 2.470 1.800 2683
0.590 2.475 1.793 2472
0.591 2.479 1.785 1892
0.684 2.868 2.028 1633
0.595 2.495 1.775 1498
0.596 2.500 1.767 1145
0.700 2.936 2.035 963
0.702 2.941 2.026 877
0.747 3.131 2.133 917
0.745 3.123 2.115 1254
0.748 3.135 2.110 1396
0.754 3.161 2.113 1501
0.755 3.166 2.103 1352
0.757 3.172 2.093 1059
0.758 3.177 2.084 765
0.759 3.183 2.074 759
0.759 3.182 2.061 655
0.759 3.180 2.047 576
0.760 3.186 2.037 544
0.947 3.967 2.482 583
0.948 3.974 2.470 658
0.951 3.987 2.462 485
0.977 4.095 2.507 430
0.921 3.859 2.357 421
0.924 3.872 2.349 426
0.964 4.040 2.429 447
0.965 4.047 2.416 492
0.498 2.087 1.316 900
0.499 2.090 1.309 1494
0.501 2.100 1.307 3042
0.502 2.104 1.300 4612
0.503 2.107 1.294 7398
0.502 2.103 1.284 10201
0.504 2.113 1.281 15367
0.505 2.117 1.275 20550
0.506 2.120 1.268 22554
0.506 2.123 1.262 24557
0.506 2.119 1.252 24040
0.506 2.122 1.246 23671
0.507 2.125 1.239 22568
0.508 2.129 1.233 21465
0.512 2.145 1.233 26117
0.513 2.149 1.227 32507
0.513 2.152 1.220 35484
0.514 2.155 1.214 38462
0.515 2.158 1.207 34742
0.515 2.161 1.200 30923
0.516 2.164 1.194 30824
0.517 2.167 1.187 23753
0.519 2.177 1.184 16841
0.520 2.179 1.177 10266
0.820 3.439 1.754 5825
0.823 3.450 1.746 6546
0.824 3.455 1.736 6546
0.825 3.459 1.726 3273
0.522 2.187 1.141 1336
0.157 0.653 1.729 19434
0.158 0.658 1.727 17479
0.159 0.662 1.725 15524
0.161 0.670 1.730 12822
0.163 0.678 1.735 9776
0.162 0.676 1.718 8840
0.164 0.683 1.723 11460
0.165 0.688 1.721 14109
0.167 0.696 1.726 15382
0.169 0.703 1.731 17103
0.170 0.708 1.729 15280
0.171 0.712 1.727 13457
0.173 0.720 1.732 13255
0.174 0.725 1.730 12170
0.175 0.729 1.727 11285
0.177 0.737 1.732 10800
0.178 0.741 1.730 10323
0.178 0.742 1.721 9115
0.179 0.747 1.718 7938
0.181 0.751 1.716 5446
0.182 0.756 1.714 2954
0.187 0.778 1.746 5598
0.188 0.782 1.744 8804
0.190 0.791 1.749 11781
0.192 0.799 1.753 14930
0.193 0.803 1.751 13185
0.195 0.811 1.755 11464
0.195 0.812 1.746 10329
0.196 0.817 1.743 9218
0.197 0.821 1.741 11157
0.198 0.826 1.738 13097
0.199 0.830 1.736 11664
0.201 0.839 1.740 14724
0.203 0.843 1.737 19542
0.204 0.848 1.735 23863
0.204 0.848 1.725 27985
0.205 0.853 1.723 23491
0.207 0.861 1.727 19117
0.207 0.862 1.717 13579
0.211 0.878 1.735 9649
0.212 0.882 1.733 11599
0.214 0.891 1.737 9775
0.216 0.899 1.741 8402
0.217 0.904 1.738 9619
0.219 0.912 1.742 12385
0.220 0.917 1.739 13911
0.222 0.925 1.743 13059
0.224 0.934 1.747 13040
0.225 0.938 1.744 14370
0.226 0.943 1.741 14924
0.228 0.947 1.738 13797
0.229 0.952 1.735 12738
0.230 0.956 1.732 13963
0.231 0.961 1.729 15662
0.233 0.970 1.733 17329
0.234 0.974 1.730 17355
0.234 0.974 1.721 11408
0.234 0.975 1.711 7731
0.235 0.979 1.708 5603
0.244 1.017 1.758 6837
0.243 1.013 1.741 10271
0.245 1.018 1.738 13704
0.247 1.027 1.742 16957
0.249 1.036 1.745 21403
0.249 1.036 1.735 27064
0.249 1.036 1.726 29786
0.251 1.045 1.729 33523
0.253 1.054 1.732 39974
0.255 1.063 1.736 39298
0.256 1.067 1.732 36723
0.259 1.076 1.735 31600
0.261 1.085 1.739 20030
0.263 1.094 1.742 11977
0.263 1.094 1.732 11055
0.265 1.103 1.735 13382
0.266 1.108 1.732 14075
0.267 1.112 1.728 12413
0.268 1.117 1.725 9912
0.268 1.116 1.715 10693
0.270 1.126 1.718 17700
0.271 1.130 1.714 23348
0.273 1.134 1.711 20190
0.275 1.144 1.714 16612
0.276 1.148 1.710 15123
0.276 1.148 1.700 12991
0.279 1.162 1.709 10341
0.282 1.175 1.718 10133
0.282 1.175 1.709 12329
0.282 1.175 1.699 16311
0.284 1.184 1.701 18628
0.287 1.193 1.704 15081
0.287 1.193 1.694 9467
0.288 1.197 1.690 10875
0.292 1.216 1.705 13610
0.294 1.225 1.707 18004
0.293 1.220 1.692 23450
0.294 1.224 1.688 22380
0.295 1.229 1.684 20389
0.296 1.233 1.680 24149
0.297 1.238 1.677 29724
0.300 1.247 1.679 33950
0.301 1.251 1.675 28186
0.303 1.261 1.677 17609
0.303 1.260 1.667 9308
0.302 1.259 1.657 5733
0.311 1.294 1.689 7960
0.313 1.303 1.691 9912
0.318 1.323 1.705 9205
0.320 1.333 1.707 8868
0.321 1.337 1.703 9485
0.323 1.347 1.705 14756
0.323 1.346 1.695 19178
0.324 1.350 1.690 16490
0.328 1.365 1.698 20332
0.329 1.369 1.694 30300
0.329 1.368 1.684 32508
0.330 1.373 1.680 34750
0.331 1.377 1.675 50193
0.332 1.382 1.671 62473
0.333 1.386 1.667 61936
0.334 1.390 1.663 58899
0.335 1.394 1.659 52690
0.336 1.399 1.654 34482
0.355 1.478 1.729 18029
0.361 1.504 1.747 23676
0.364 1.514 1.749 26408
0.364 1.513 1.738 23333
0.363 1.512 1.728 28564
0.367 1.528 1.735 30285
0.368 1.532 1.730 25811
0.365 1.520 1.709 20866
0.365 1.519 1.698 15496
0.378 1.573 1.743 12974
0.382 1.589 1.750 19147
0.384 1.599 1.750 30410
0.384 1.598 1.740 36324
0.385 1.602 1.735 29123
0.386 1.607 1.730 17110
0.387 1.611 1.725 9547
0.391 1.627 1.731 9910
0.393 1.637 1.732 15393
0.396 1.647 1.732 15083
0.397 1.652 1.727 9722
0.398 1.656 1.722 6915
0.400 1.667 1.722 6792
0.404 1.682 1.728 7419
0.409 1.704 1.738 9374
0.410 1.709 1.733 10837
0.413 1.719 1.733 9614
0.417 1.735 1.739 10111
0.416 1.734 1.728 12386
0.420 1.750 1.733 14289
0.424 1.766 1.738 22638
0.427 1.776 1.738 27204
0.431 1.792 1.743 17949
0.435 1.809 1.748 10234
0.436 1.813 1.742 8892
0.438 1.824 1.742 15411
0.439 1.828 1.736 22687
0.439 1.827 1.726 23469
0.440 1.831 1.720 18190
0.442 1.842 1.719 10605
0.445 1.852 1.719 6186
0.449 1.868 1.723 6997
0.456 1.897 1.737 11454
0.460 1.913 1.741 13949
0.462 1.924 1.741 15417
0.463 1.929 1.735 12848
0.464 1.933 1.729 10628
0.467 1.944 1.728 12794
0.471 1.960 1.732 11316
0.476 1.983 1.740 11954
0.477 1.987 1.734 18476
0.477 1.986 1.723 17478
0.475 1.978 1.708 8643
0.491 2.044 1.749 8361
0.489 2.036 1.734 6901
0.490 2.041 1.727 6659
0.494 2.057 1.731 8031
0.497 2.068 1.729 6614
0.504 2.098 1.742 6566
0.506 2.108 1.740 8185
0.508 2.113 1.733 9515
0.507 2.111 1.722 8557
0.525 2.184 1.767 6560
0.524 2.183 1.755 5962
0.525 2.187 1.749 5508
0.528 2.198 1.747 5611
0.531 2.209 1.744 5499
0.532 2.213 1.738 4844
0.530 2.205 1.722 4081
0.545 2.267 1.756 3281
0.543 2.259 1.740 3254
0.544 2.263 1.733 4379
0.543 2.261 1.722 5040
0.549 2.285 1.728 3242
0.572 2.379 1.782 2784
0.568 2.365 1.762 2999
0.569 2.369 1.755 3221
0.570 2.374 1.748 3103
0.593 2.469 1.800 3139
0.594 2.474 1.793 2918
0.597 2.485 1.790 2185
0.598 2.489 1.782 1633
0.601 2.501 1.779 1552
0.735 3.060 2.128 1124
0.705 2.935 2.035 895
0.706 2.940 2.026 842
0.750 3.123 2.129 971
0.750 3.122 2.115 1323
0.753 3.134 2.110 1511
0.759 3.159 2.113 1661
0.760 3.165 2.103 1513
0.762 3.171 2.093 1220
0.763 3.176 2.084 927
0.763 3.175 2.070 890
0.764 3.180 2.061 797
0.764 3.179 2.047 757
0.765 3.184 2.037 720
0.768 3.197 2.032 685
0.956 3.979 2.474 675
0.958 3.986 2.462 520
0.985 4.100 2.511 478
0.927 3.857 2.357 446
0.970 4.039 2.445 516
0.970 4.039 2.429 535
0.972 4.045 2.416 569
0.501 2.086 1.316 735
0.502 2.089 1.309 1163
0.504 2.100 1.307 2538
0.505 2.103 1.300 3941
0.506 2.106 1.294 6466
0.505 2.103 1.284 9017
0.508 2.113 1.281 13738
0.508 2.116 1.275 18485
0.509 2.119 1.268 20598
0.510 2.122 1.262 22710
0.509 2.118 1.252 22340
0.510 2.122 1.246 22128
0.510 2.125 1.239 21203
0.511 2.128 1.233 20279
0.515 2.145 1.233 24540
0.516 2.148 1.227 30424
0.517 2.151 1.220 32966
0.517 2.154 1.214 35509
0.518 2.157 1.207 31971
0.519 2.160 1.200 28331
0.520 2.163 1.194 28229
0.520 2.166 1.187 21672
0.523 2.176 1.184 15206
0.522 2.172 1.174 9284
0.826 3.438 1.754 5516
0.829 3.449 1.746 6212
0.830 3.454 1.736 6212
0.831 3.458 1.726 3106
0.525 2.186 1.141 1155
0.159 0.653 1.729 18766
0.160 0.657 1.727 17085
0.162 0.665 1.732 15462
0.164 0.673 1.737 12974
0.165 0.677 1.735 9818
0.164 0.675 1.718 8618
0.166 0.683 1.723 11117
0.167 0.687 1.721 13695
0.169 0.695 1.726 14811
0.171 0.703 1.731 16351
0.172 0.707 1.729 14595
0.174 0.715 1.734 12877
0.175 0.720 1.732 12686
0.176 0.724 1.730 11469
0.177 0.729 1.727 10444
0.179 0.733 1.725 10030
0.180 0.737 1.723 9615
0.181 0.742 1.721 8835
0.182 0.746 1.718 8055
0.183 0.751 1.716 5849
0.184 0.755 1.714 3642
0.189 0.777 1.746 6112
0.190 0.782 1.744 9444
0.192 0.790 1.749 12532
0.194 0.798 1.753 15802
0.195 0.803 1.751 14113
0.197 0.811 1.755 12446
0.198 0.812 1.746 11120
0.199 0.816 1.743 9815
0.200 0.821 1.741 11654
0.201 0.825 1.738 13492
0.202 0.830 1.736 11539
0.203 0.834 1.733 13671
0.205 0.842 1.737 17969
0.206 0.847 1.735 22089
0.206 0.848 1.725 26027
0.208 0.852 1.723 21786
0.209 0.857 1.720 17545
0.210 0.861 1.717 12820
0.214 0.877 1.735 9682
0.215 0.882 1.733 11690
0.217 0.890 1.737 9827
0.219 0.898 1.741 8435
0.221 0.907 1.745 9746
0.222 0.911 1.742 12550
0.224 0.920 1.746 14094
0.225 0.925 1.743 13624
0.227 0.933 1.747 13508
0.228 0.938 1.744 14505
0.229 0.942 1.741 14782
0.231 0.947 1.738 13559
0.232 0.951 1.735 12512
0.233 0.956 1.732 13591
0.234 0.960 1.729 15356
0.235 0.965 1.726 16994
0.237 0.973 1.730 16450
0.237 0.974 1.721 11561
0.237 0.974 1.711 9338
0.238 0.978 1.708 8109
0.247 1.012 1.751 8498
0.248 1.017 1.748 11379
0.248 1.017 1.738 14759
0.250 1.026 1.742 18072
0.252 1.035 1.745 22796
0.252 1.035 1.735 28295
0.252 1.035 1.726 30416
0.254 1.044 1.729 32934
0.255 1.049 1.726 38166
0.259 1.062 1.736 37217
0.260 1.066 1.732 34542
0.262 1.075 1.735 29903
0.264 1.084 1.739 19761
0.266 1.093 1.742 12864
0.266 1.093 1.732 12222
0.268 1.102 1.735 14611
0.270 1.107 1.732 14597
0.272 1.116 1.734 12193
0.272 1.116 1.725 8328
0.273 1.120 1.721 8385
0.274 1.125 1.718 16372
0.275 1.129 1.714 23177
0.277 1.138 1.717 20500
0.278 1.143 1.714 15923
0.279 1.147 1.710 13703
0.280 1.152 1.707 12415
0.284 1.165 1.716 11398
0.286 1.175 1.718 10385
0.286 1.174 1.709 10815
0.286 1.174 1.699 13989
0.288 1.183 1.701 16057
0.290 1.192 1.704 13017
0.291 1.197 1.700 8434
0.293 1.201 1.697 10254
0.296 1.215 1.705 13195
0.298 1.225 1.707 19222
0.297 1.219 1.692 26506
0.298 1.224 1.688 26544
0.299 1.228 1.684 25830
0.300 1.232 1.680 29616
0.301 1.237 1.677 34748
0.302 1.241 1.673 38905
0.304 1.250 1.675 32240
0.306 1.255 1.671 21054
0.307 1.259 1.667 12413
0.306 1.258 1.657 7718
0.311 1.278 1.671 8056
0.316 1.297 1.685 8520
0.322 1.322 1.705 8286
0.324 1.332 1.707 8124
0.325 1.336 1.703 9081
0.328 1.346 1.705 14932
0.329 1.350 1.700 19306
0.329 1.349 1.690 17421
0.332 1.364 1.698 22080
0.333 1.368 1.694 31844
0.333 1.367 1.684 34638
0.334 1.372 1.680 38115
0.335 1.376 1.675 51470
0.336 1.380 1.671 62288
0.337 1.385 1.667 61859
0.338 1.389 1.663 58852
0.339 1.393 1.659 53066
0.340 1.398 1.654 35618
0.341 1.402 1.650 20068
0.366 1.503 1.747 24924
0.370 1.519 1.754 27873
0.368 1.512 1.738 23582
0.368 1.511 1.728 27592
0.372 1.527 1.735 28174
0.373 1.531 1.730 26595
0.370 1.519 1.709 23661
0.368 1.513 1.693 16657
0.382 1.567 1.738 11092
0.385 1.582 1.744 14074
0.388 1.592 1.745 25592
0.389 1.597 1.740 32786
0.390 1.601 1.735 27792
0.391 1.606 1.730 16167
0.392 1.610 1.725 8430
0.396 1.626 1.731 9465
0.398 1.636 1.732 14914
0.401 1.646 1.732 16408
0.402 1.651 1.727 11776
0.402 1.650 1.717 6298
0.407 1.671 1.728 5647
0.411 1.687 1.733 9393
0.413 1.697 1.733 9503
0.417 1.713 1.739 8738
0.418 1.718 1.733 8546
0.422 1.734 1.739 8805
0.423 1.738 1.733 9994
0.426 1.748 1.733 13451
0.430 1.765 1.738 23422
0.432 1.775 1.738 28569
0.436 1.791 1.743 18498
0.440 1.807 1.748 10021
0.443 1.818 1.747 8857
0.444 1.822 1.742 16435
0.445 1.827 1.736 24323
0.445 1.825 1.726 24351
0.447 1.836 1.725 17810
0.450 1.846 1.724 9756
0.452 1.857 1.724 6458
0.456 1.873 1.728 8780
0.459 1.884 1.727 12058
0.464 1.906 1.737 11616
0.470 1.929 1.746 12358
0.471 1.933 1.740 12078
0.473 1.944 1.739 11903
0.474 1.948 1.733 13569
0.477 1.959 1.732 11714
0.481 1.975 1.735 11837
0.484 1.986 1.734 18546
0.483 1.984 1.723 17488
0.481 1.977 1.708 8897
0.499 2.049 1.754 7860
0.498 2.047 1.743 6197
0.497 2.039 1.727 6021
0.501 2.056 1.731 7961
0.503 2.067 1.729 6822
0.515 2.115 1.756 6867
0.515 2.113 1.744 8169
0.514 2.111 1.733 9262
0.515 2.116 1.727 8282
0.532 2.183 1.767 7133
0.533 2.187 1.760 6126
0.534 2.192 1.753 5464
0.536 2.203 1.751 5832
0.538 2.207 1.744 5909
0.539 2.212 1.738 5342
0.537 2.204 1.722 3996
0.549 2.253 1.747 3158
0.548 2.251 1.735 3588
0.549 2.255 1.728 5079
0.552 2.266 1.726 6154
0.556 2.283 1.728 3999
0.581 2.384 1.787 3049
0.575 2.363 1.762 3271
0.577 2.368 1.755 3657
0.578 2.372 1.748 3575
0.601 2.467 1.800 3361
0.604 2.478 1.797 3179
0.606 2.489 1.794 2486
0.606 2.488 1.782 1930
0.607 2.492 1.775 1820
0.606 2.490 1.763 1172
0.663 2.724 1.901 913
0.786 3.226 2.209 848
0.760 3.121 2.129 1029
0.760 3.120 2.115 1382
0.763 3.132 2.110 1624
0.767 3.150 2.108 1808
0.769 3.156 2.099 1653
0.772 3.168 2.093 1390
0.773 3.174 2.084 1127
0.773 3.172 2.070 1040
0.772 3.171 2.057 948
0.774 3.177 2.047 948
0.775 3.182 2.037 928
0.776 3.187 2.028 908
0.778 3.193 2.018 662
0.970 3.983 2.462 524
0.932 3.828 2.357 525
0.981 4.030 2.457 490
0.983 4.036 2.445 601
0.983 4.036 2.429 611
0.984 4.042 2.416 641
0.725 2.979 1.811 610
0.508 2.088 1.309 806
0.511 2.098 1.307 1984
0.512 2.101 1.300 3189
0.513 2.105 1.294 5380
0.512 2.101 1.284 7605
0.514 2.111 1.281 11750
0.515 2.114 1.275 15930
0.516 2.117 1.268 18047
0.516 2.121 1.262 20165
0.516 2.117 1.252 19947
0.516 2.120 1.246 19896
0.517 2.123 1.239 19159
0.518 2.126 1.233 18422
0.522 2.143 1.233 22096
0.523 2.146 1.227 27225
0.523 2.149 1.220 29222
0.524 2.152 1.214 31219
0.525 2.155 1.207 27946
0.526 2.158 1.200 24570
0.526 2.161 1.194 24466
0.527 2.164 1.187 18679
0.529 2.174 1.184 12936
0.528 2.170 1.174 7919
0.837 3.435 1.754 4972
0.839 3.446 1.746 5599
0.840 3.451 1.736 5599
0.842 3.455 1.726 2799
0.532 2.184 1.141 1014
0.160 0.653 1.729 18005
0.161 0.657 1.727 16627
0.163 0.665 1.732 15419
0.165 0.672 1.737 13062
0.166 0.677 1.735 9764
0.165 0.675 1.718 8398
0.167 0.683 1.723 10645
0.168 0.687 1.721 12984
0.170 0.695 1.726 13974
0.172 0.702 1.731 15338
0.173 0.707 1.729 13789
0.175 0.715 1.734 12323
0.176 0.719 1.732 12135
0.177 0.724 1.730 10819
0.179 0.728 1.727 9692
0.180 0.733 1.725 9340
0.181 0.737 1.723 8987
0.182 0.742 1.721 8704
0.183 0.746 1.718 8421
0.184 0.751 1.716 6412
0.186 0.758 1.721 4456
0.191 0.777 1.746 6791
0.192 0.782 1.744 10032
0.194 0.790 1.749 13216
0.196 0.798 1.753 16567
0.197 0.802 1.751 14912
0.198 0.807 1.748 13256
0.199 0.811 1.746 11658
0.200 0.816 1.743 10060
0.201 0.820 1.741 11863
0.202 0.825 1.738 13665
0.203 0.829 1.736 11403
0.204 0.834 1.733 12740
0.206 0.842 1.737 16429
0.208 0.847 1.735 20261
0.208 0.847 1.725 23987
0.209 0.852 1.723 20073
0.210 0.856 1.720 16159
0.211 0.861 1.717 12062
0.215 0.877 1.735 9764
0.216 0.881 1.733 11933
0.218 0.890 1.737 10144
0.221 0.902 1.747 8848
0.222 0.907 1.745 10108
0.224 0.915 1.749 12595
0.225 0.920 1.746 14051
0.227 0.924 1.743 13996
0.229 0.933 1.747 13979
0.230 0.937 1.744 14833
0.231 0.942 1.741 14876
0.232 0.946 1.738 13519
0.233 0.951 1.735 12503
0.234 0.955 1.732 13426
0.235 0.960 1.729 15127
0.236 0.964 1.726 16729
0.239 0.973 1.730 15903
0.239 0.973 1.721 12798
0.240 0.978 1.718 12305
0.242 0.986 1.721 12100
0.247 1.008 1.744 11026
0.249 1.017 1.748 13142
0.249 1.017 1.738 16128
0.251 1.026 1.742 19180
0.254 1.034 1.745 24034
0.254 1.035 1.735 29261
0.254 1.035 1.726 30777
0.256 1.044 1.729 32249
0.257 1.048 1.726 36433
0.260 1.061 1.736 35091
0.262 1.070 1.739 32303
0.264 1.075 1.735 28102
0.266 1.084 1.739 19531
0.268 1.093 1.742 13929
0.268 1.093 1.732 13339
0.270 1.102 1.735 15652
0.272 1.111 1.738 15124
0.273 1.115 1.734 12147
0.275 1.120 1.731 7708
0.276 1.124 1.728 7475
0.277 1.129 1.724 15627
0.278 1.133 1.721 22689
0.278 1.133 1.711 20192
0.280 1.142 1.714 14518
0.281 1.147 1.710 11728
0.282 1.151 1.707 12073
0.286 1.165 1.716 12812
0.289 1.179 1.725 10645
0.289 1.179 1.715 9346
0.288 1.173 1.699 11731
0.290 1.183 1.701 13479
0.293 1.197 1.710 11111
0.294 1.201 1.706 8181
0.296 1.206 1.703 10786
0.298 1.215 1.705 14182
0.300 1.224 1.707 21399
0.299 1.219 1.692 29323
0.300 1.223 1.688 30312
0.301 1.227 1.684 31162
0.302 1.232 1.680 35129
0.303 1.236 1.677 39272
0.304 1.240 1.673 42912
0.305 1.245 1.669 35677
0.306 1.249 1.665 24279
0.307 1.253 1.661 15328
0.308 1.258 1.657 9686
0.313 1.277 1.671 9037
0.318 1.297 1.685 7394
0.324 1.322 1.705 6501
0.324 1.321 1.695 6699
0.329 1.341 1.709 8398
0.331 1.350 1.710 14827
0.331 1.349 1.700 18623
0.331 1.349 1.690 17215
0.334 1.363 1.698 22244
0.335 1.368 1.694 31482
0.335 1.367 1.684 34872
0.336 1.371 1.680 39383
0.337 1.376 1.675 51263
0.338 1.380 1.671 61437
0.339 1.384 1.667 61428
0.340 1.389 1.663 58483
0.342 1.393 1.659 53254
0.343 1.397 1.654 36700
0.344 1.401 1.650 22042
0.368 1.503 1.747 24587
0.371 1.513 1.749 28056
0.371 1.512 1.738 24639
0.370 1.511 1.728 26506
0.374 1.526 1.735 27322
0.375 1.531 1.730 27742
0.371 1.513 1.703 25035
0.371 1.512 1.693 16864
0.384 1.566 1.738 9740
0.388 1.582 1.744 9752
0.390 1.592 1.745 20666
0.391 1.596 1.740 27976
0.392 1.601 1.735 24782
0.394 1.605 1.730 13693
0.396 1.615 1.731 5949
0.400 1.631 1.737 8377
0.402 1.641 1.737 14384
0.403 1.646 1.732 17594
0.405 1.650 1.727 14103
0.407 1.660 1.727 6638
0.411 1.676 1.733 5880
0.413 1.686 1.733 11815
0.416 1.697 1.733 10600
0.421 1.718 1.744 8098
0.421 1.717 1.733 8274
0.425 1.733 1.739 8075
0.427 1.743 1.738 8936
0.430 1.754 1.738 13830
0.432 1.764 1.738 24190
0.435 1.774 1.738 28519
0.438 1.785 1.738 17552
0.443 1.807 1.748 9061
0.446 1.817 1.747 8955
0.447 1.822 1.742 17339
0.448 1.826 1.736 25086
0.449 1.831 1.731 24346
0.450 1.835 1.725 17492
0.453 1.846 1.724 10367
0.457 1.862 1.729 8125
0.459 1.872 1.728 10578
0.460 1.877 1.722 12845
0.466 1.899 1.732 10130
0.473 1.928 1.746 10453
0.474 1.932 1.740 13579
0.475 1.937 1.734 14845
0.477 1.947 1.733 14764
0.480 1.958 1.732 12040
0.484 1.975 1.735 11655
0.487 1.985 1.734 17945
0.486 1.984 1.723 16783
0.484 1.976 1.708 8692
0.502 2.048 1.754 7805
0.502 2.046 1.743 6490
0.503 2.051 1.737 5894
0.505 2.061 1.735 7838
0.508 2.072 1.734 7057
0.518 2.114 1.756 7107
0.519 2.118 1.749 7974
0.517 2.110 1.733 8743
0.519 2.115 1.727 7784
0.535 2.182 1.767 7487
0.536 2.187 1.760 6296
0.539 2.197 1.758 5521
0.540 2.202 1.751 5968
0.541 2.206 1.744 6185
0.542 2.211 1.738 5661
0.542 2.209 1.727 3784
0.551 2.245 1.742 2961
0.552 2.250 1.735 3814
0.553 2.254 1.728 5622
0.555 2.265 1.726 7089
0.560 2.282 1.728 4733
0.565 2.306 1.734 3546
0.581 2.368 1.766 3476
0.580 2.367 1.755 4014
0.581 2.371 1.748 3985
0.606 2.473 1.805 3712
0.607 2.477 1.797 3518
0.610 2.488 1.794 2705
0.611 2.493 1.786 2034
0.611 2.491 1.775 1922
0.610 2.489 1.763 1233
0.668 2.723 1.901 972
0.669 2.728 1.893 929
0.765 3.119 2.129 1026
0.766 3.125 2.119 1379
0.768 3.131 2.110 1659
0.772 3.149 2.108 1874
0.774 3.155 2.099 1719
0.777 3.167 2.093 1491
0.778 3.172 2.084 1268
0.778 3.171 2.070 1138
0.777 3.170 2.057 1058
0.779 3.175 2.047 1094
0.780 3.181 2.037 1075
0.781 3.186 2.028 1057
0.781 3.185 2.014 805
0.779 3.177 1.997 645
0.938 3.827 2.357 562
0.988 4.028 2.457 546
0.989 4.035 2.445 673
0.989 4.034 2.429 691
0.991 4.041 2.416 722
0.730 2.977 1.811 777
0.731 2.982 1.802 870
0.514 2.097 1.307 1452
0.515 2.100 1.300 2424
0.516 2.104 1.294 4241
0.515 2.100 1.284 6099
0.517 2.110 1.281 9633
0.518 2.113 1.275 13206
0.519 2.117 1.268 15281
0.520 2.120 1.262 17355
0.519 2.116 1.252 17281
