2.022 1.123 1.210 5382
2.049 1.139 1.216 5143
2.058 1.144 1.213 5197
2.086 1.160 1.219 6103
2.089 1.161 1.212 6103
2.092 1.163 1.205 8202
0.585 0.324 1.721 8900
0.592 0.327 1.727 9475
0.596 0.330 1.725 10118
0.603 0.333 1.730 10326
0.607 0.336 1.728 11497
0.614 0.339 1.733 12424
0.615 0.340 1.723 12665
0.619 0.342 1.721 12907
0.620 0.343 1.712 10749
0.624 0.345 1.710 8672
0.631 0.349 1.715 8144
0.641 0.354 1.727 8242
0.639 0.353 1.710 9923
0.643 0.356 1.708 13018
0.647 0.358 1.706 14061
0.648 0.358 1.697 15732
0.649 0.359 1.687 17624
0.653 0.361 1.685 15084
0.654 0.361 1.676 12732
0.658 0.363 1.674 13661
0.661 0.366 1.671 14590
0.665 0.368 1.669 15552
0.672 0.372 1.674 16948
0.679 0.376 1.678 16036
0.683 0.378 1.676 15617
0.687 0.380 1.674 13959
0.691 0.382 1.671 12302
0.695 0.384 1.669 9182
0.696 0.385 1.660 6553
0.703 0.389 1.664 7344
0.717 0.396 1.683 7952
0.721 0.398 1.680 7096
0.728 0.402 1.685 7770
0.732 0.405 1.682 8392
0.729 0.403 1.666 11675
0.729 0.403 1.656 15625
0.737 0.407 1.661 16702
0.741 0.409 1.658 15476
0.744 0.411 1.656 12935
0.759 0.419 1.674 10111
0.773 0.427 1.692 7954
0.774 0.428 1.682 7549
0.767 0.424 1.659 7806
0.771 0.426 1.656 8014
0.778 0.430 1.661 7578
0.807 0.446 1.705 9543
0.811 0.448 1.702 10767
0.815 0.451 1.700 11192
0.815 0.451 1.690 10825
0.812 0.449 1.674 8190
0.812 0.449 1.664 8373
0.816 0.451 1.662 10402
0.824 0.455 1.666 12037
0.831 0.460 1.669 11378
0.858 0.474 1.707 11390
0.869 0.480 1.717 12471
0.881 0.487 1.727 16569
0.885 0.489 1.724 20266
0.885 0.489 1.715 21760
0.881 0.487 1.698 21483
0.889 0.491 1.702 15072
0.897 0.496 1.705 13275
0.905 0.500 1.709 20118
0.909 0.502 1.706 28697
0.913 0.505 1.703 28186
0.917 0.507 1.700 25452
0.925 0.511 1.703 24302
0.933 0.516 1.706 26887
0.937 0.518 1.703 26574
0.945 0.522 1.706 19042
0.944 0.522 1.697 12075
0.948 0.524 1.693 9316
0.952 0.526 1.690 9623
0.956 0.529 1.687 14828
0.960 0.531 1.684 18259
0.960 0.531 1.674 17019
0.964 0.533 1.671 17578
0.972 0.537 1.674 19674
0.980 0.542 1.677 23746
0.984 0.544 1.674 26739
0.988 0.546 1.670 26968
0.992 0.548 1.667 26977
1.000 0.553 1.670 20517
1.021 0.564 1.691 19584
1.025 0.566 1.688 25428
1.033 0.571 1.691 21684
1.045 0.578 1.700 15351
1.058 0.585 1.709 15416
1.066 0.589 1.711 15701
1.070 0.592 1.707 12262
1.070 0.591 1.698 8602
1.074 0.593 1.694 7782
1.069 0.591 1.678 8917
1.073 0.593 1.674 10282
1.107 0.612 1.714 9857
1.111 0.614 1.710 12724
1.111 0.614 1.700 10307
1.133 0.626 1.720 5863
1.137 0.628 1.717 4698
1.132 0.626 1.701 8114
1.154 0.638 1.721 14658
1.162 0.642 1.723 20142
1.166 0.645 1.719 17653
1.170 0.647 1.715 10466
1.174 0.649 1.711 7978
1.187 0.656 1.719 7773
1.187 0.656 1.709 5843
1.182 0.653 1.693 8685
1.186 0.655 1.689 9801
1.203 0.665 1.703 7363
1.221 0.675 1.716 6479
1.235 0.682 1.724 5746
1.239 0.685 1.720 8439
1.243 0.687 1.715 11577
1.242 0.687 1.705 13881
1.246 0.689 1.701 15441
1.250 0.691 1.697 16437
1.259 0.696 1.699 17077
1.267 0.701 1.700 15310
1.276 0.705 1.701 13367
1.299 0.718 1.720 15219
1.303 0.720 1.716 15814
1.298 0.717 1.700 12407
1.306 0.722 1.701 10165
1.315 0.727 1.702 14880
1.309 0.724 1.687 16086
1.313 0.726 1.682 26260
1.317 0.728 1.678 28191
1.326 0.733 1.679 21945
1.335 0.738 1.680 29893
1.339 0.740 1.675 31860
1.338 0.739 1.665 24987
1.347 0.744 1.666 29497
1.350 0.747 1.662 32633
1.354 0.749 1.657 20441
1.368 0.756 1.663 23288
1.382 0.764 1.670 36086
1.391 0.769 1.670 36486
1.395 0.771 1.666 32056
1.399 0.773 1.661 25800
1.403 0.775 1.656 17102
1.406 0.777 1.652 16098
1.415 0.782 1.652 24114
1.419 0.785 1.647 30503
1.423 0.787 1.642 22476
1.427 0.789 1.638 20312
1.436 0.794 1.638 29027
1.440 0.796 1.633 28958
1.449 0.801 1.634 19557
1.452 0.803 1.629 9544
1.519 0.840 1.686 10592
1.533 0.848 1.692 17004
1.537 0.850 1.686 27898
1.541 0.852 1.681 32836
1.545 0.854 1.676 26025
1.554 0.859 1.676 25122
1.558 0.861 1.671 28834
1.567 0.866 1.670 22662
1.576 0.871 1.670 24333
1.586 0.877 1.670 23555
1.595 0.882 1.670 16085
1.609 0.890 1.674 20558
1.613 0.892 1.669 23340
1.623 0.897 1.668 16368
1.637 0.905 1.673 14213
1.641 0.907 1.667 10924
1.683 0.930 1.696 7474
1.687 0.933 1.691 6569
1.669 0.923 1.665 8620
1.673 0.925 1.660 10153
1.677 0.927 1.654 9219
1.730 0.956 1.692 10706
1.734 0.959 1.686 10283
1.738 0.961 1.680 8088
1.747 0.966 1.679 7654
1.751 0.968 1.673 7116
1.006 0.556 1.027 6886
1.014 0.561 1.028 6577
1.779 0.984 1.669 5516
1.795 0.992 1.673 5742
1.815 1.003 1.681 6563
1.819 1.006 1.675 5767
1.857 1.026 1.696 7050
1.878 1.038 1.704 10031
1.887 1.043 1.702 10184
1.885 1.042 1.691 6651
1.918 1.060 1.708 5034
1.922 1.062 1.701 6873
1.920 1.061 1.690 8606
1.924 1.064 1.684 9411
1.934 1.069 1.682 5917
1.989 1.099 1.715 7801
1.999 1.105 1.713 10248
2.014 1.113 1.715 11171
2.024 1.119 1.713 10915
2.028 1.121 1.706 6743
1.974 1.091 1.655 6147
1.966 1.087 1.640 8233
1.970 1.089 1.633 10564
1.974 1.091 1.627 11363
1.972 1.090 1.616 13563
1.970 1.089 1.605 17914
1.968 1.088 1.594 20005
1.971 1.090 1.587 17126
1.975 1.092 1.581 18070
1.979 1.094 1.574 21892
1.988 1.099 1.572 18955
1.980 1.095 1.557 14240
1.972 1.090 1.542 14119
1.964 1.085 1.527 14525
1.955 1.081 1.512 15431
1.965 1.086 1.509 10554
1.968 1.088 1.503 6926
1.972 1.090 1.496 8054
1.963 1.085 1.482 9663
1.960 1.084 1.471 11749
1.952 1.079 1.456 10498
1.949 1.077 1.446 9745
1.946 1.076 1.435 8485
1.920 1.061 1.409 9960
1.923 1.063 1.403 10254
1.926 1.065 1.396 7718
1.929 1.066 1.390 5183
1.017 0.562 0.804 3987
1.019 0.563 0.801 3169
1.957 1.082 1.382 3978
1.960 1.084 1.375 6043
1.957 1.082 1.365 6815
1.960 1.084 1.358 7634
1.957 1.082 1.348 7096
1.954 1.080 1.337 6836
1.951 1.078 1.327 8311
1.948 1.077 1.317 9995
1.945 1.075 1.307 9025
1.941 1.073 1.296 8605
1.950 1.078 1.294 8207
1.953 1.080 1.287 7968
1.956 1.081 1.280 9744
1.959 1.083 1.274 11520
1.962 1.085 1.267 12557
1.965 1.086 1.261 13594
1.974 1.091 1.257 13019
1.983 1.096 1.254 12951
1.992 1.101 1.251 10551
1.995 1.103 1.244 8249
2.004 1.108 1.241 6787
2.019 1.116 1.241 6208
2.022 1.118 1.234 6208
2.019 1.116 1.224 6080
2.021 1.117 1.217 6132
2.024 1.119 1.210 5112
2.046 1.131 1.213 4700
2.023 1.118 1.193 5075
2.026 1.120 1.187 6088
2.028 1.121 1.180 6088
2.037 1.126 1.176 7367
0.586 0.322 1.721 9187
0.593 0.326 1.727 9893
0.597 0.328 1.725 10678
0.604 0.332 1.730 10999
0.608 0.334 1.728 12322
0.612 0.336 1.726 13307
0.616 0.339 1.723 13641
0.620 0.341 1.721 13974
0.621 0.341 1.712 11552
0.625 0.344 1.710 9218
0.632 0.347 1.715 7877
0.642 0.353 1.727 7024
0.640 0.352 1.710 9069
0.641 0.352 1.701 12452
0.645 0.355 1.699 13433
0.649 0.357 1.697 15450
0.650 0.357 1.687 17824
0.651 0.358 1.678 15783
0.651 0.358 1.669 14135
0.658 0.362 1.674 14800
0.662 0.364 1.671 15566
0.666 0.366 1.669 16111
0.673 0.370 1.674 17053
0.680 0.374 1.678 15974
0.684 0.376 1.676 15443
0.688 0.378 1.674 13687
0.692 0.380 1.671 11931
0.693 0.381 1.662 8833
0.697 0.383 1.660 6430
0.704 0.387 1.664 7488
0.714 0.393 1.676 8094
0.711 0.391 1.659 7602
0.725 0.399 1.678 8373
0.729 0.401 1.675 9338
0.730 0.401 1.666 12158
0.730 0.401 1.656 15695
0.738 0.406 1.661 17121
0.741 0.408 1.658 16529
0.749 0.412 1.663 14356
0.756 0.416 1.667 10749
0.771 0.424 1.685 7455
0.767 0.422 1.668 7668
0.768 0.422 1.659 9106
0.768 0.422 1.650 9792
0.776 0.426 1.654 9295
0.787 0.432 1.665 9515
0.812 0.446 1.702 10378
0.812 0.447 1.693 11370
0.813 0.447 1.683 11876
0.813 0.447 1.674 9587
0.813 0.447 1.664 10191
0.817 0.449 1.662 12354
0.821 0.451 1.659 14019
0.825 0.453 1.656 13580
0.821 0.451 1.640 11928
0.829 0.456 1.644 12965
0.882 0.485 1.727 15698
0.886 0.487 1.724 19102
0.886 0.487 1.715 20596
0.882 0.485 1.698 20471
0.890 0.489 1.702 14237
0.898 0.494 1.705 12438
0.910 0.500 1.715 18580
0.914 0.502 1.712 26107
0.914 0.502 1.703 26213
0.918 0.505 1.700 24072
0.926 0.509 1.703 23020
0.934 0.513 1.706 25462
0.938 0.516 1.703 25208
0.946 0.520 1.706 18017
0.946 0.520 1.697 11418
0.950 0.522 1.693 9475
0.954 0.524 1.690 10223
0.958 0.526 1.687 13905
0.966 0.531 1.690 15316
0.965 0.531 1.680 14200
0.973 0.535 1.684 17384
0.977 0.537 1.680 21645
0.981 0.539 1.677 26441
0.985 0.542 1.674 29982
0.989 0.544 1.670 31170
0.993 0.546 1.667 31498
0.997 0.548 1.663 23390
1.022 0.562 1.691 19863
1.026 0.564 1.688 25473
1.030 0.566 1.684 21071
1.047 0.575 1.700 14336
1.059 0.582 1.709 14985
1.067 0.587 1.711 16030
1.067 0.587 1.701 12580
1.067 0.586 1.691 10205
1.071 0.589 1.688 10661
1.070 0.588 1.678 9875
1.070 0.588 1.668 9121
1.078 0.593 1.671 7851
1.104 0.607 1.698 9177
1.099 0.604 1.682 8559
1.139 0.626 1.727 6108
1.138 0.626 1.717 6433
1.138 0.625 1.707 8588
1.155 0.635 1.721 14976
1.164 0.640 1.723 20922
1.168 0.642 1.719 18107
1.172 0.644 1.715 10007
1.176 0.646 1.711 7223
1.184 0.651 1.713 7538
1.184 0.651 1.703 6705
1.188 0.653 1.699 9238
1.187 0.653 1.689 8456
1.205 0.662 1.703 4827
1.228 0.675 1.722 6152
1.236 0.680 1.724 7641
1.240 0.682 1.720 8287
1.244 0.684 1.715 9150
1.244 0.684 1.705 12273
1.243 0.683 1.695 15921
1.251 0.688 1.697 17889
1.260 0.693 1.699 19048
1.269 0.698 1.700 17508
1.278 0.702 1.701 15017
1.301 0.715 1.720 15783
1.305 0.717 1.716 15056
1.294 0.712 1.694 10198
1.303 0.716 1.695 9011
1.312 0.721 1.697 14171
1.311 0.721 1.687 15576
1.315 0.723 1.682 26837
1.319 0.725 1.678 27637
1.328 0.730 1.679 21795
1.337 0.735 1.680 31209
1.341 0.737 1.675 33173
1.339 0.736 1.665 26227
1.348 0.741 1.666 30948
1.352 0.743 1.662 35242
1.356 0.745 1.657 21917
1.370 0.753 1.663 23056
1.384 0.761 1.670 32494
1.393 0.766 1.670 32581
1.397 0.768 1.666 30098
1.401 0.770 1.661 25910
1.404 0.772 1.656 16620
1.413 0.777 1.657 15137
1.417 0.779 1.652 25912
1.421 0.781 1.647 34068
1.425 0.783 1.642 26122
1.434 0.788 1.643 24552
1.438 0.790 1.638 34113
1.441 0.792 1.633 34494
1.450 0.797 1.634 24570
1.454 0.799 1.629 13100
1.515 0.833 1.681 7776
1.535 0.844 1.692 12114
1.544 0.849 1.692 21470
1.548 0.851 1.686 26696
1.552 0.853 1.681 20887
1.556 0.855 1.676 19523
1.560 0.858 1.671 23515
1.569 0.863 1.670 20176
1.584 0.871 1.675 23177
1.588 0.873 1.670 23139
1.597 0.878 1.670 16473
1.611 0.886 1.674 20214
1.615 0.888 1.669 22023
1.625 0.893 1.668 15614
1.639 0.901 1.673 14966
1.643 0.903 1.667 11142
1.685 0.926 1.696 7938
1.689 0.929 1.691 7232
1.671 0.919 1.665 8826
1.675 0.921 1.660 10365
1.679 0.923 1.654 9623
1.732 0.952 1.692 11507
1.742 0.957 1.691 12213
1.746 0.960 1.685 8995
1.750 0.962 1.679 7837
1.753 0.964 1.673 8234
1.008 0.554 1.027 6801
1.016 0.558 1.028 6448
1.018 0.560 1.024 5301
0.735 0.404 0.782 7856
0.737 0.405 0.779 9662
0.738 0.406 0.777 10833
0.740 0.407 0.774 11338
1.880 1.034 1.704 11122
1.890 1.039 1.702 10861
1.888 1.038 1.691 7031
1.920 1.056 1.708 4771
1.924 1.058 1.701 6342
1.922 1.057 1.690 8585
1.926 1.059 1.684 10390
1.936 1.064 1.682 6693
1.992 1.095 1.715 9248
1.996 1.097 1.709 11784
2.011 1.106 1.711 11872
2.027 1.114 1.713 10742
2.031 1.116 1.706 6412
1.977 1.087 1.655 7686
1.969 1.082 1.640 10437
1.967 1.081 1.629 12681
1.971 1.083 1.623 12896
1.974 1.085 1.616 14471
1.966 1.081 1.601 18893
1.970 1.083 1.594 21908
1.974 1.085 1.587 18841
1.978 1.087 1.581 18627
1.987 1.092 1.578 21626
1.991 1.094 1.572 18543
1.983 1.090 1.557 14687
1.974 1.085 1.542 15468
1.966 1.081 1.527 16026
1.964 1.080 1.516 16363
1.967 1.081 1.509 11129
1.977 1.087 1.507 7019
1.974 1.085 1.496 8082
1.966 1.081 1.482 9441
1.963 1.079 1.471 11548
1.954 1.074 1.456 10433
1.008 0.554 0.825 11348
1.004 0.552 0.817 12894
1.012 0.556 0.818 14314
1.013 0.557 0.815 15125
1.015 0.558 0.811 14653
1.017 0.559 0.808 14197
1.018 0.560 0.804 12738
1.020 0.561 0.801 9361
1.022 0.562 0.797 7458
1.023 0.563 0.794 5784
1.972 1.084 1.372 6450
1.969 1.082 1.362 7459
1.960 1.077 1.348 7699
1.957 1.076 1.337 8630
1.953 1.074 1.327 10242
1.956 1.076 1.320 12086
1.953 1.074 1.310 10694
1.944 1.069 1.296 10131
1.953 1.074 1.294 10436
1.956 1.075 1.287 10982
1.959 1.077 1.280 12766
1.962 1.078 1.274 14550
1.965 1.080 1.267 14759
1.967 1.082 1.261 14969
1.977 1.087 1.257 13480
1.986 1.092 1.254 12582
1.988 1.093 1.247 10174
1.997 1.098 1.244 7943
2.007 1.103 1.241 6735
2.022 1.112 1.241 6129
2.025 1.113 1.234 6129
2.021 1.111 1.224 5781
2.024 1.113 1.217 5515
2.027 1.114 1.210 4739
2.042 1.123 1.210 4297
2.026 1.114 1.193 5318
2.028 1.115 1.187 6679
2.031 1.117 1.180 6679
2.040 1.121 1.176 8107
0.587 0.320 1.721 9369
0.594 0.324 1.727 10245
0.601 0.328 1.732 11192
0.605 0.330 1.730 11636
0.609 0.332 1.728 13120
0.613 0.334 1.726 14162
0.617 0.337 1.723 14619
0.621 0.339 1.721 15076
0.622 0.339 1.712 12403
0.626 0.342 1.710 9821
0.630 0.344 1.708 7786
0.637 0.348 1.713 5856
0.638 0.348 1.703 8418
0.642 0.350 1.701 12025
0.646 0.353 1.699 12964
0.647 0.353 1.690 15401
0.651 0.355 1.687 17996
0.652 0.356 1.678 16748
0.652 0.356 1.669 15668
0.656 0.358 1.667 16174
0.663 0.362 1.671 16745
0.667 0.364 1.669 16815
0.674 0.368 1.674 17268
0.682 0.372 1.678 15947
0.685 0.374 1.676 15212
0.689 0.376 1.674 13300
0.693 0.378 1.671 11389
0.694 0.379 1.662 8433
0.698 0.381 1.660 6258
0.705 0.385 1.664 7663
0.709 0.387 1.662 8616
0.709 0.387 1.652 8670
0.727 0.397 1.678 9097
0.731 0.399 1.675 10425
0.731 0.399 1.666 12697
0.732 0.399 1.656 15746
0.739 0.403 1.661 17592
0.743 0.405 1.658 17807
0.750 0.409 1.663 16124
0.757 0.413 1.667 11958
0.765 0.417 1.671 7663
0.765 0.418 1.662 8545
0.766 0.418 1.652 10928
0.769 0.420 1.650 12190
0.777 0.424 1.654 11651
0.784 0.428 1.658 11606
0.795 0.434 1.669 10022
0.810 0.442 1.686 11793
0.814 0.444 1.683 13162
0.814 0.444 1.674 11247
0.815 0.445 1.664 12328
0.815 0.445 1.655 14623
0.822 0.449 1.659 16522
0.823 0.449 1.649 16563
0.823 0.449 1.640 15480
0.826 0.451 1.637 16250
0.883 0.482 1.727 14661
0.887 0.484 1.724 17789
0.888 0.484 1.715 19322
0.884 0.482 1.698 19199
0.892 0.487 1.702 13482
0.903 0.493 1.712 11924
0.911 0.497 1.715 17097
0.915 0.500 1.712 23262
0.915 0.500 1.703 24020
0.919 0.502 1.700 22615
0.927 0.506 1.703 21794
0.935 0.510 1.706 24282
0.939 0.513 1.703 24036
0.947 0.517 1.706 17149
0.947 0.517 1.697 10862
0.951 0.519 1.693 9549
0.955 0.521 1.690 10529
0.959 0.523 1.687 12638
0.967 0.528 1.690 12703
0.975 0.532 1.693 13803
0.975 0.532 1.684 19559
0.979 0.534 1.680 24201
0.983 0.536 1.677 29401
0.987 0.539 1.674 33471
0.991 0.541 1.670 35889
0.995 0.543 1.667 36762
0.999 0.545 1.663 27251
1.019 0.556 1.685 20272
1.028 0.561 1.688 24855
1.032 0.563 1.684 20124
1.048 0.572 1.700 13670
1.061 0.579 1.709 15274
1.069 0.583 1.711 17125
1.069 0.583 1.701 13812
1.069 0.583 1.691 12290
1.072 0.585 1.688 13313
1.072 0.585 1.678 11174
1.072 0.585 1.668 8148
1.075 0.587 1.665 6514
1.088 0.594 1.673 6771
1.088 0.594 1.663 7525
1.141 0.622 1.727 6519
1.140 0.622 1.717 8348
1.140 0.622 1.707 9606
1.157 0.631 1.721 15172
1.166 0.636 1.723 21423
1.170 0.638 1.719 18441
1.174 0.641 1.715 9661
1.173 0.640 1.705 6811
1.182 0.645 1.707 8011
1.186 0.647 1.703 8208
1.194 0.652 1.705 10351
1.194 0.651 1.695 7589
1.216 0.664 1.715 4555
1.225 0.668 1.716 7611
1.234 0.673 1.718 10265
1.238 0.675 1.714 10001
1.242 0.678 1.710 10068
1.241 0.677 1.700 13591
1.245 0.679 1.695 17192
1.249 0.682 1.691 18866
1.262 0.689 1.699 20180
1.271 0.694 1.700 18949
1.280 0.698 1.701 15984
1.303 0.711 1.720 16217
1.307 0.713 1.716 14444
1.297 0.708 1.694 9083
1.305 0.712 1.695 9010
1.314 0.717 1.697 13673
1.308 0.714 1.681 14723
1.317 0.719 1.682 25781
1.321 0.721 1.678 24757
1.330 0.726 1.679 19625
1.339 0.731 1.680 30176
1.343 0.733 1.675 32541
1.342 0.732 1.665 27821
1.351 0.737 1.666 33706
1.354 0.739 1.662 37309
1.358 0.741 1.657 23619
1.372 0.749 1.663 22643
1.386 0.756 1.670 27561
1.395 0.761 1.670 27390
1.399 0.763 1.666 26844
1.403 0.766 1.661 24678
1.407 0.768 1.656 15312
1.416 0.773 1.657 13472
1.420 0.775 1.652 27049
1.423 0.777 1.647 36847
1.427 0.779 1.642 29311
1.436 0.784 1.643 28612
1.440 0.786 1.638 38435
1.444 0.788 1.633 39205
1.453 0.793 1.634 29413
1.457 0.795 1.629 16789
1.461 0.797 1.624 7480
1.543 0.842 1.697 8325
1.547 0.844 1.692 15823
1.551 0.846 1.686 22028
1.555 0.848 1.681 17650
1.564 0.854 1.681 14803
1.568 0.856 1.676 18045
1.583 0.864 1.681 18054
1.586 0.866 1.675 22026
1.590 0.868 1.670 21911
1.600 0.873 1.670 16337
1.614 0.881 1.674 19654
1.618 0.883 1.669 20141
1.633 0.891 1.673 14669
1.642 0.896 1.673 15577
1.651 0.901 1.672 11420
1.688 0.921 1.696 8084
1.692 0.923 1.691 7590
1.680 0.917 1.670 8743
1.678 0.916 1.660 10154
1.687 0.921 1.659 9563
1.741 0.950 1.697 13013
1.745 0.952 1.691 14753
1.749 0.954 1.685 10869
1.753 0.956 1.679 9291
1.756 0.958 1.673 10022
1.760 0.961 1.667 6744
1.012 0.552 1.023 4263
0.735 0.401 0.784 5089
0.731 0.399 0.777 7573
0.738 0.403 0.779 8960
0.734 0.400 0.772 9588
0.735 0.401 0.770 10399
1.878 1.025 1.699 11876
0.744 0.406 0.769 11154
0.746 0.407 0.767 10340
0.747 0.408 0.764 8763
0.749 0.409 0.761 7315
1.926 1.051 1.690 8649
1.930 1.053 1.684 11253
1.934 1.055 1.677 7558
1.995 1.089 1.715 10697
1.999 1.091 1.709 13428
2.009 1.096 1.706 12830
2.024 1.105 1.708 10540
1.970 1.075 1.658 7214
1.980 1.080 1.655 8655
1.972 1.076 1.640 12091
1.970 1.075 1.629 14895
1.974 1.077 1.623 15057
1.972 1.076 1.612 15217
1.970 1.075 1.601 19417
1.974 1.077 1.594 23292
1.977 1.079 1.587 20224
1.981 1.081 1.581 18839
1.990 1.086 1.578 20762
1.988 1.085 1.567 17722
1.980 1.081 1.552 15116
1.978 1.079 1.542 16876
1.969 1.075 1.527 17662
1.967 1.073 1.516 17698
1.970 1.075 1.509 11995
1.980 1.080 1.507 7235
1.983 1.082 1.500 7882
1.969 1.074 1.482 8654
1.960 1.070 1.467 10857
1.958 1.068 1.456 10221
1.010 0.551 0.825 9473
1.012 0.552 0.821 10390
1.013 0.553 0.818 11231
1.015 0.554 0.815 11584
1.017 0.555 0.811 11151
1.018 0.556 0.808 10738
1.020 0.557 0.804 9736
1.022 0.558 0.801 7443
1.023 0.558 0.797 6171
1.984 1.083 1.386 5894
1.981 1.081 1.376 6294
1.972 1.076 1.362 7127
1.963 1.071 1.348 7715
1.966 1.073 1.341 9007
1.963 1.071 1.331 10724
1.960 1.069 1.320 12693
1.957 1.068 1.310 11238
1.947 1.063 1.296 10880
1.956 1.068 1.294 12136
1.965 1.073 1.291 13911
1.962 1.071 1.280 16030
1.965 1.072 1.274 18297
1.968 1.074 1.267 17749
1.971 1.075 1.261 17202
1.980 1.080 1.257 14662
1.989 1.085 1.254 12720
1.992 1.087 1.247 10179
2.001 1.092 1.244 7852
2.010 1.097 1.241 7068
2.019 1.102 1.237 6501
2.022 1.103 1.231 6501
2.025 1.105 1.224 5653
2.027 1.106 1.217 4805
2.030 1.108 1.210 4290
2.045 1.116 1.210 3985
2.035 1.111 1.197 5552
2.038 1.112 1.190 7329
2.041 1.114 1.183 7329
2.050 1.119 1.179 8811
0.588 0.319 1.721 9439
0.594 0.323 1.727 10495
0.601 0.327 1.732 11629
0.605 0.329 1.730 12222
0.609 0.331 1.728 13914
0.616 0.335 1.733 15014
0.618 0.335 1.723 15612
0.622 0.338 1.721 16211
0.623 0.338 1.712 13329
0.627 0.340 1.710 10539
0.631 0.343 1.708 8017
0.635 0.345 1.706 5496
0.639 0.347 1.703 8208
0.640 0.347 1.694 11979
0.644 0.350 1.692 12889
0.648 0.352 1.690 15537
0.648 0.352 1.680 18434
0.652 0.354 1.678 17729
0.653 0.355 1.669 17171
0.657 0.357 1.667 17586
0.664 0.361 1.671 18076
0.668 0.363 1.669 17630
0.675 0.367 1.674 17584
0.679 0.369 1.671 15952
0.686 0.373 1.676 14883
0.690 0.375 1.674 12808
0.694 0.377 1.671 10733
0.695 0.377 1.662 7958
0.699 0.379 1.660 6029
0.706 0.383 1.664 7775
0.710 0.385 1.662 9257
0.710 0.386 1.652 9676
0.724 0.393 1.671 9866
0.731 0.397 1.675 11561
0.732 0.397 1.666 13267
0.732 0.398 1.656 15784
0.740 0.402 1.661 18112
0.744 0.404 1.658 19356
0.751 0.408 1.663 18301
0.758 0.412 1.667 13860
0.762 0.414 1.664 9082
0.763 0.414 1.655 10406
0.766 0.416 1.652 13465
0.770 0.418 1.650 15079
0.778 0.422 1.654 14462
0.782 0.424 1.651 14242
0.785 0.427 1.648 12016
0.811 0.440 1.686 12426
0.815 0.443 1.683 14494
0.815 0.443 1.674 13065
0.812 0.441 1.658 14961
0.816 0.443 1.655 17388
0.820 0.445 1.652 19459
0.820 0.445 1.643 20221
0.824 0.447 1.640 19548
0.827 0.449 1.637 19900
0.831 0.451 1.634 17169
0.888 0.482 1.724 16558
0.889 0.483 1.715 18168
0.885 0.481 1.698 17923
0.893 0.485 1.702 12874
0.904 0.491 1.712 11627
0.912 0.495 1.715 15467
0.916 0.498 1.712 20291
0.917 0.498 1.703 21715
0.920 0.500 1.700 21038
0.928 0.504 1.703 20668
0.936 0.509 1.706 23431
0.940 0.511 1.703 23202
0.948 0.515 1.706 16525
0.952 0.517 1.703 10507
0.952 0.517 1.693 9725
0.960 0.522 1.697 10925
0.964 0.524 1.693 11450
0.976 0.530 1.703 11316
0.980 0.532 1.700 15504
0.980 0.532 1.690 23000
0.980 0.532 1.680 27022
0.984 0.534 1.677 32459
0.988 0.537 1.674 37055
0.992 0.539 1.670 40715
0.996 0.541 1.667 42144
1.000 0.543 1.663 31389
1.016 0.552 1.679 20755
1.029 0.559 1.688 23747
1.033 0.561 1.684 18960
1.049 0.570 1.700 13122
1.066 0.579 1.715 15543
1.070 0.581 1.711 18136
1.070 0.581 1.701 15065
1.070 0.581 1.691 13947
1.074 0.583 1.688 15266
1.078 0.585 1.684 12591
1.077 0.585 1.674 7348
1.077 0.585 1.665 5707
1.081 0.587 1.661 5944
1.089 0.591 1.663 6471
1.142 0.620 1.727 6989
1.141 0.620 1.717 10168
1.136 0.617 1.701 11236
1.158 0.629 1.721 15265
1.167 0.634 1.723 21635
1.171 0.636 1.719 18609
1.175 0.638 1.715 9501
1.179 0.640 1.711 6899
1.183 0.642 1.707 9244
1.192 0.647 1.709 10107
1.200 0.652 1.711 11776
1.200 0.651 1.701 8623
1.213 0.659 1.709 6993
1.222 0.663 1.710 10281
1.230 0.668 1.712 12518
1.239 0.673 1.714 11992
1.238 0.672 1.704 12476
1.242 0.675 1.700 16441
1.246 0.677 1.695 18948
1.250 0.679 1.691 19399
1.264 0.686 1.699 20366
1.273 0.691 1.700 19431
1.281 0.696 1.701 16013
1.305 0.708 1.720 16499
1.309 0.711 1.716 14873
1.298 0.705 1.694 10586
1.307 0.710 1.695 10769
1.311 0.712 1.691 13554
1.310 0.711 1.681 13734
1.314 0.713 1.676 23247
1.323 0.718 1.678 20050
1.336 0.726 1.684 16486
1.340 0.728 1.680 26862
1.344 0.730 1.675 29665
1.343 0.729 1.665 28879
1.347 0.732 1.661 36407
1.356 0.736 1.662 37802
1.360 0.738 1.657 24533
1.364 0.741 1.652 21774
1.393 0.756 1.675 22670
1.402 0.761 1.676 22153
1.401 0.761 1.666 22744
1.405 0.763 1.661 22198
1.403 0.762 1.651 13371
1.422 0.772 1.662 11488
1.421 0.772 1.652 26979
1.425 0.774 1.647 38242
1.429 0.776 1.642 31665
1.438 0.781 1.643 31765
1.442 0.783 1.638 41131
1.451 0.788 1.639 42525
1.455 0.790 1.634 33618
1.458 0.792 1.629 20100
1.462 0.794 1.624 9051
1.545 0.839 1.697 5520
1.549 0.841 1.692 11135
1.553 0.843 1.686 18086
1.562 0.848 1.686 15990
1.571 0.853 1.686 11552
1.575 0.855 1.681 13150
1.590 0.863 1.686 16810
1.594 0.865 1.680 20737
1.592 0.865 1.670 19925
1.607 0.873 1.675 15585
1.616 0.878 1.674 18581
1.620 0.880 1.669 17819
1.635 0.888 1.673 13589
1.649 0.896 1.678 15533
1.659 0.901 1.677 11166
1.690 0.918 1.696 7749
1.699 0.923 1.695 7556
1.681 0.913 1.670 8313
1.680 0.912 1.660 9527
1.689 0.917 1.659 9229
1.743 0.946 1.697 14931
1.747 0.948 1.691 17314
1.751 0.951 1.685 13500
1.760 0.956 1.684 12040
1.764 0.958 1.678 12290
1.773 0.963 1.677 8101
1.783 0.968 1.675 5698
1.798 0.976 1.679 5430
1.813 0.985 1.682 4912
0.733 0.398 0.775 5236
0.735 0.399 0.772 4930
1.876 1.019 1.706 7769
1.880 1.021 1.699 12189
1.889 1.026 1.698 10787
1.899 1.031 1.696 6698
1.926 1.046 1.708 4764
1.941 1.054 1.710 5939
1.928 1.047 1.690 8767
1.932 1.049 1.684 11958
1.936 1.051 1.677 8248
1.997 1.085 1.715 12008
2.001 1.087 1.709 15088
2.011 1.092 1.706 13864
2.021 1.097 1.704 10233
1.973 1.071 1.658 7666
1.976 1.073 1.651 8924
1.974 1.072 1.640 13018
1.972 1.071 1.629 16808
1.970 1.070 1.618 17447
1.974 1.072 1.612 16075
1.972 1.071 1.601 19433
1.976 1.073 1.594 23862
1.974 1.072 1.583 20942
1.983 1.077 1.581 18576
1.993 1.082 1.578 19319
1.990 1.081 1.567 16585
1.982 1.076 1.552 15649
1.980 1.075 1.542 18302
1.972 1.071 1.527 18854
1.969 1.069 1.516 18575
1.979 1.074 1.514 12812
1.988 1.080 1.511 7493
1.992 1.082 1.504 7652
1.977 1.074 1.486 7571
1.956 1.062 1.463 10074
1.960 1.064 1.456 10153
1.963 1.066 1.450 9566
1.960 1.065 1.439 7882
1.928 1.047 1.409 8932
1.937 1.052 1.407 10806
1.934 1.050 1.396 9534
1.937 1.052 1.390 8390
1.940 1.054 1.383 6313
1.023 0.555 0.801 4606
1.977 1.074 1.389 4241
1.986 1.079 1.386 5627
1.983 1.077 1.376 5729
1.980 1.076 1.365 6108
1.971 1.071 1.351 7230
1.968 1.069 1.341 9055
1.971 1.071 1.334 11240
1.962 1.065 1.320 13592
1.959 1.064 1.310 12041
1.949 1.059 1.296 11785
1.959 1.064 1.294 12995
1.968 1.069 1.291 14694
1.964 1.067 1.280 17144
1.967 1.068 1.274 19752
1.970 1.070 1.267 18990
1.973 1.071 1.261 18228
1.982 1.076 1.257 15079
1.991 1.081 1.254 12538
2.000 1.086 1.251 10171
2.009 1.091 1.248 7990
2.012 1.093 1.241 7643
2.015 1.094 1.234 7296
2.018 1.096 1.227 7296
2.021 1.097 1.221 5783
2.030 1.102 1.217 4353
2.032 1.104 1.210 3938
2.048 1.112 1.210 3654
2.044 1.110 1.200 5696
2.047 1.112 1.193 7844
2.049 1.113 1.186 7844
2.059 1.118 1.182 9365
0.588 0.318 1.721 9456
0.595 0.321 1.727 10692
0.602 0.325 1.732 12026
0.606 0.327 1.730 12854
0.610 0.329 1.728 14870
0.614 0.332 1.726 16058
0.618 0.334 1.723 16861
0.623 0.336 1.721 17664
0.624 0.337 1.712 14499
0.628 0.339 1.710 11409
0.632 0.341 1.708 8449
0.636 0.343 1.706 5488
0.637 0.344 1.696 8406
0.641 0.346 1.694 12349
0.645 0.348 1.692 13273
0.645 0.348 1.683 16186
0.649 0.350 1.680 19150
0.653 0.353 1.678 18943
0.654 0.353 1.669 18827
0.661 0.357 1.674 19134
0.665 0.359 1.671 19532
0.669 0.361 1.669 18398
0.676 0.365 1.674 17723
0.680 0.367 1.671 15734
0.687 0.371 1.676 14262
0.691 0.373 1.674 12135
0.692 0.373 1.664 10012
0.696 0.375 1.662 7459
0.700 0.377 1.660 5837
0.707 0.381 1.664 7891
0.711 0.383 1.662 9851
0.711 0.384 1.652 10590
0.725 0.391 1.671 10707
0.732 0.395 1.675 12512
0.733 0.396 1.666 13600
0.733 0.396 1.656 15549
0.741 0.400 1.661 18451
0.745 0.402 1.658 21007
0.752 0.406 1.663 20767
0.756 0.408 1.660 16544
0.756 0.408 1.651 11913
0.764 0.412 1.655 13105
0.768 0.414 1.652 16238
0.771 0.416 1.650 18241
0.775 0.418 1.647 17843
0.783 0.422 1.651 17724
0.787 0.424 1.648 15035
0.809 0.436 1.679 13367
0.816 0.440 1.683 15902
0.816 0.441 1.674 15004
0.813 0.439 1.658 18011
0.817 0.441 1.655 20574
0.821 0.443 1.652 22854
0.821 0.443 1.643 24434
0.825 0.445 1.640 24078
0.829 0.447 1.637 24015
0.832 0.449 1.634 21136
0.836 0.451 1.631 17831
0.840 0.453 1.629 17657
0.890 0.480 1.705 16606
0.894 0.482 1.702 12401
0.902 0.487 1.705 11440
0.914 0.493 1.715 13575
0.918 0.495 1.712 17111
0.918 0.495 1.703 19374
0.922 0.497 1.700 19575
0.930 0.502 1.703 19802
0.938 0.506 1.706 23033
0.942 0.508 1.703 22632
0.950 0.513 1.706 16047
0.954 0.515 1.703 10328
0.958 0.517 1.700 9878
0.962 0.519 1.697 11167
0.966 0.521 1.693 10439
0.982 0.530 1.709 12004
0.982 0.530 1.700 18855
0.982 0.530 1.690 26367
0.982 0.530 1.680 29501
0.985 0.532 1.677 35105
0.994 0.536 1.680 40485
0.993 0.536 1.670 45500
0.997 0.538 1.667 47628
1.001 0.540 1.663 35991
1.013 0.547 1.673 22109
1.030 0.556 1.688 22098
1.034 0.558 1.684 17560
1.051 0.567 1.700 12679
1.068 0.576 1.715 15527
1.072 0.578 1.711 18469
1.072 0.578 1.701 15808
1.071 0.578 1.691 15099
1.075 0.580 1.688 16731
1.079 0.582 1.684 13858
1.083 0.584 1.681 7183
1.083 0.584 1.671 5083
1.086 0.586 1.667 5380
1.090 0.588 1.663 5398
1.143 0.617 1.727 7595
1.143 0.617 1.717 11561
1.134 0.612 1.695 13637
1.160 0.626 1.721 15109
1.169 0.631 1.723 21221
1.173 0.633 1.719 18275
1.181 0.638 1.721 9347
1.181 0.637 1.711 7361
1.185 0.639 1.707 10869
1.193 0.644 1.709 12068
1.202 0.649 1.711 13593
1.211 0.653 1.713 10744
1.215 0.656 1.709 10005
1.223 0.660 1.710 12861
1.232 0.665 1.712 14145
1.236 0.667 1.708 13575
1.240 0.669 1.704 14886
1.244 0.671 1.700 19412
1.248 0.674 1.695 21035
1.252 0.676 1.691 19866
1.266 0.683 1.699 19781
1.274 0.688 1.700 18838
1.283 0.692 1.701 14914
1.302 0.702 1.714 16507
1.306 0.705 1.710 17127
1.300 0.701 1.694 14061
1.309 0.706 1.695 13243
1.308 0.706 1.685 14408
1.312 0.708 1.681 13815
1.316 0.710 1.676 19228
1.320 0.712 1.672 16826
1.338 0.722 1.684 15161
1.342 0.724 1.680 21986
1.341 0.724 1.670 24797
1.345 0.726 1.665 28396
1.349 0.728 1.661 37304
1.358 0.733 1.662 36191
1.362 0.735 1.657 24454
1.366 0.737 1.652 20318
1.390 0.750 1.670 18233
1.399 0.755 1.670 17440
1.403 0.757 1.666 18055
1.407 0.759 1.661 18378
1.405 0.758 1.651 11131
1.425 0.769 1.662 9701
1.423 0.768 1.652 25555
1.427 0.770 1.647 37375
1.431 0.772 1.642 31912
1.440 0.777 1.643 32649
1.444 0.779 1.638 41694
1.453 0.784 1.639 44339
1.457 0.786 1.634 36913
1.460 0.788 1.629 23136
1.464 0.790 1.624 10727
1.479 0.798 1.629 5525
1.551 0.837 1.692 7553
1.555 0.839 1.686 14324
1.569 0.847 1.691 14299
1.584 0.855 1.696 9145
1.588 0.857 1.691 9748
1.592 0.859 1.686 15795
1.596 0.861 1.680 19166
1.600 0.863 1.675 17581
1.614 0.871 1.680 14651
1.624 0.876 1.679 17832
1.628 0.878 1.674 16175
1.642 0.886 1.678 12904
1.652 0.891 1.678 15189
1.661 0.896 1.677 10622
1.692 0.913 1.696 6778
1.702 0.918 1.695 7041
1.689 0.912 1.675 7310
1.682 0.908 1.660 8381
1.736 0.937 1.698 10169
1.745 0.942 1.697 16893
1.755 0.947 1.696 19441
1.753 0.946 1.685 16401
1.757 0.948 1.679 15661
1.766 0.953 1.678 15099
1.776 0.958 1.677 10175
1.785 0.964 1.675 8637
1.795 0.969 1.674 7862
1.821 0.983 1.687 5537
1.021 0.551 1.013 3964
1.818 0.981 1.665 4384
1.878 1.014 1.706 7680
1.882 1.016 1.699 11620
1.892 1.021 1.698 9546
0.748 0.404 0.767 6901
0.749 0.404 0.764 6363
1.944 1.049 1.710 5914
1.931 1.042 1.690 8757
1.935 1.044 1.684 12207
1.939 1.046 1.677 8543
2.006 1.082 1.720 13195
2.004 1.081 1.709 16616
2.014 1.087 1.706 14744
2.018 1.089 1.700 9809
1.970 1.063 1.653 7892
1.973 1.065 1.647 8559
1.971 1.064 1.636 12864
1.969 1.063 1.625 17580
1.973 1.065 1.618 18967
1.971 1.064 1.607 16449
1.969 1.063 1.596 19016
1.973 1.065 1.590 23723
1.976 1.067 1.583 21206
1.980 1.069 1.577 18381
1.990 1.074 1.574 18225
1.981 1.069 1.559 16290
1.979 1.068 1.548 17192
1.977 1.067 1.538 20331
1.974 1.065 1.527 20147
1.978 1.067 1.520 19228
1.981 1.069 1.514 13628
1.991 1.074 1.511 7910
1.994 1.076 1.504 7508
1.962 1.059 1.473 6745
1.959 1.057 1.463 9638
1.963 1.059 1.456 10186
1.966 1.061 1.450 10104
1.969 1.063 1.443 8490
1.942 1.048 1.417 8389
1.940 1.047 1.407 10497
1.943 1.048 1.400 10016
1.940 1.047 1.390 9605
1.943 1.049 1.383 7089
2.007 1.083 1.415 4735
1.992 1.075 1.397 5587
1.995 1.077 1.390 7019
1.992 1.075 1.380 6333
1.989 1.074 1.369 5750
1.980 1.069 1.355 7065
1.977 1.067 1.345 9088
1.974 1.065 1.334 12303
1.965 1.060 1.320 15676
1.962 1.059 1.310 14283
1.952 1.053 1.296 14264
1.961 1.058 1.294 14163
1.964 1.060 1.287 14161
1.967 1.062 1.280 16257
1.970 1.063 1.274 18354
1.973 1.065 1.267 17749
1.976 1.066 1.261 17145
1.985 1.071 1.257 14131
2.000 1.079 1.258 11861
2.003 1.081 1.251 10359
2.006 1.083 1.244 8857
2.009 1.084 1.237 8799
2.012 1.086 1.231 8740
2.014 1.087 1.224 8740
2.023 1.092 1.221 6443
2.026 1.093 1.214 4332
2.029 1.095 1.207 3804
2.057 1.110 1.213 3306
2.053 1.108 1.203 5745
2.056 1.110 1.196 8226
2.059 1.111 1.189 8226
2.061 1.112 1.182 9879
0.592 0.318 1.729 9052
0.596 0.320 1.727 10446
0.603 0.324 1.732 11955
0.607 0.326 1.730 13047
0.611 0.328 1.728 15367
0.615 0.331 1.726 16596
0.619 0.333 1.723 17557
0.623 0.335 1.721 18518
0.624 0.336 1.712 15158
0.628 0.338 1.710 11859
0.632 0.340 1.708 8814
0.633 0.340 1.698 5824
0.628 0.338 1.675 8954
0.638 0.343 1.687 13096
0.642 0.345 1.685 13934
0.646 0.347 1.683 16758
0.650 0.349 1.680 19622
0.654 0.352 1.678 19749
0.658 0.354 1.676 19875
0.662 0.356 1.674 20145
0.666 0.358 1.671 20414
0.670 0.360 1.669 18807
0.677 0.364 1.674 17691
0.684 0.368 1.678 15390
0.688 0.370 1.676 13566
0.692 0.372 1.674 11380
0.692 0.372 1.664 9208
0.696 0.374 1.662 6893
0.700 0.376 1.660 5587
0.707 0.380 1.664 7759
0.711 0.382 1.662 9905
0.712 0.383 1.652 10827
0.726 0.390 1.671 11109
0.733 0.394 1.675 12923
0.734 0.394 1.666 13534
0.734 0.395 1.656 15107
0.741 0.399 1.661 18477
0.749 0.403 1.665 22268
0.753 0.405 1.663 22651
0.756 0.407 1.660 18752
0.757 0.407 1.651 14512
0.761 0.409 1.648 15300
0.765 0.411 1.645 18366
0.772 0.415 1.650 20672
0.776 0.417 1.647 20561
0.783 0.421 1.651 20530
0.787 0.423 1.648 17531
0.809 0.435 1.679 14119
0.817 0.439 1.683 16964
0.817 0.439 1.674 16433
0.814 0.438 1.658 20269
0.818 0.440 1.655 22849
0.821 0.442 1.652 25215
0.822 0.442 1.643 27628
0.825 0.444 1.640 27738
0.829 0.446 1.637 27417
0.833 0.448 1.634 24742
0.837 0.450 1.631 21561
0.841 0.452 1.629 20974
0.852 0.458 1.639 17808
0.895 0.481 1.702 11904
0.903 0.485 1.705 11282
0.914 0.492 1.715 11862
0.918 0.494 1.712 14543
0.919 0.494 1.703 17395
0.923 0.496 1.700 18282
0.930 0.500 1.703 19199
0.938 0.505 1.706 23084
0.942 0.507 1.703 22543
0.950 0.511 1.706 15941
0.954 0.513 1.703 10405
0.958 0.515 1.700 10043
0.962 0.518 1.697 11238
0.966 0.520 1.693 9825
0.979 0.526 1.703 12437
0.983 0.528 1.700 21003
0.982 0.528 1.690 28088
0.982 0.528 1.680 30332
0.986 0.530 1.677 35910
0.994 0.535 1.680 42178
0.994 0.535 1.670 47971
0.998 0.537 1.667 50648
1.002 0.539 1.663 39456
1.010 0.543 1.666 24040
1.031 0.554 1.688 20267
1.039 0.559 1.691 16103
1.052 0.566 1.700 12017
1.069 0.575 1.715 14700
1.073 0.577 1.711 17707
1.068 0.574 1.695 15637
1.072 0.577 1.691 15347
1.076 0.579 1.688 16988
1.084 0.583 1.690 14202
1.084 0.583 1.681 7335
1.114 0.599 1.714 5499
1.118 0.601 1.710 6470
1.109 0.596 1.688 5645
1.144 0.615 1.727 8128
1.135 0.610 1.704 12527
1.134 0.610 1.695 16068
1.143 0.615 1.697 15379
1.170 0.629 1.723 20096
1.178 0.634 1.725 17312
1.182 0.636 1.721 9157
1.177 0.633 1.705 8230
1.186 0.638 1.707 12578
1.194 0.642 1.709 13517
1.208 0.649 1.717 14954
1.212 0.652 1.713 12485
1.216 0.654 1.709 12174
1.224 0.658 1.710 14339
1.233 0.663 1.712 14542
1.237 0.665 1.708 13935
1.241 0.667 1.704 15967
1.245 0.670 1.700 21084
1.249 0.672 1.695 22519
1.253 0.674 1.691 20223
1.267 0.681 1.699 18626
1.275 0.686 1.700 17256
1.289 0.693 1.707 13379
1.303 0.700 1.714 16164
1.302 0.700 1.704 19973
1.301 0.700 1.694 17125
1.310 0.704 1.695 15012
1.309 0.704 1.685 15899
1.313 0.706 1.681 16942
1.317 0.708 1.676 16709
1.316 0.708 1.666 15847
1.330 0.715 1.673 16223
1.343 0.722 1.680 16833
1.342 0.722 1.670 19857
1.346 0.724 1.665 26314
1.355 0.729 1.666 35958
1.359 0.731 1.662 33126
1.363 0.733 1.657 23476
1.367 0.735 1.652 18842
1.386 0.745 1.664 14822
1.395 0.750 1.665 14624
1.404 0.755 1.666 13838
1.408 0.757 1.661 13971
1.396 0.751 1.640 9148
1.426 0.767 1.662 8526
1.430 0.769 1.657 23083
1.428 0.768 1.647 34238
1.432 0.770 1.642 29917
1.441 0.775 1.643 30914
1.445 0.777 1.638 39562
1.454 0.782 1.639 43581
1.458 0.784 1.634 38098
1.462 0.786 1.629 24485
1.465 0.788 1.624 11691
1.480 0.796 1.629 6498
1.484 0.798 1.624 6713
1.556 0.837 1.686 11107
1.571 0.845 1.691 12057
1.585 0.852 1.696 7408
1.589 0.855 1.691 8327
1.593 0.857 1.686 15090
1.597 0.859 1.680 17575
1.601 0.861 1.675 15533
1.621 0.872 1.685 14348
1.630 0.877 1.684 17645
1.634 0.879 1.679 15253
1.644 0.884 1.678 12361
1.653 0.889 1.678 14465
1.662 0.894 1.677 9994
1.688 0.908 1.691 5437
1.703 0.916 1.695 6132
1.691 0.909 1.675 6114
1.684 0.905 1.660 6962
1.737 0.934 1.698 11164
1.746 0.939 1.697 18027
1.756 0.944 1.696 20060
1.754 0.943 1.685 18194
1.758 0.946 1.679 19490
1.768 0.951 1.678 18075
1.777 0.956 1.677 12168
1.781 0.958 1.671 11031
1.791 0.963 1.669 9845
1.834 0.986 1.696 6462
1.855 0.997 1.704 4899
0.748 0.402 0.781 4883
0.749 0.403 0.779 8521
0.745 0.401 0.772 12902
0.747 0.402 0.769 16299
0.748 0.402 0.767 17455
0.750 0.403 0.764 16170
0.752 0.404 0.761 14375
0.753 0.405 0.759 12422
1.936 1.041 1.684 12240
1.940 1.043 1.677 8392
2.007 1.079 1.720 13509
2.006 1.079 1.709 17052
2.015 1.084 1.706 14884
2.014 1.083 1.695 9238
1.965 1.057 1.649 8660
1.969 1.059 1.642 8314
1.973 1.061 1.636 11547
1.971 1.060 1.625 16719
1.969 1.059 1.614 19026
1.967 1.058 1.603 16082
1.971 1.060 1.596 17673
1.974 1.062 1.590 22084
1.978 1.064 1.583 20053
1.982 1.066 1.577 17775
1.985 1.068 1.570 17526
1.977 1.063 1.555 16543
1.975 1.062 1.544 18644
1.978 1.064 1.538 21862
1.982 1.066 1.531 20999
1.979 1.065 1.520 19679
1.989 1.070 1.518 14522
2.004 1.078 1.519 9069
2.002 1.077 1.508 7697
1.008 0.542 0.835 6694
1.961 1.054 1.463 9063
1.011 0.544 0.828 10974
1.013 0.545 0.825 14089
1.015 0.546 0.821 15720
1.017 0.547 0.818 17215
1.018 0.548 0.815 17931
1.020 0.549 0.811 17539
1.022 0.549 0.808 17157
1.023 0.550 0.804 15612
1.025 0.551 0.801 12068
1.027 0.552 0.797 10079
1.991 1.071 1.386 9699
1.988 1.069 1.376 8428
1.979 1.064 1.362 7716
1.982 1.066 1.355 8786
1.991 1.071 1.352 10143
1.976 1.062 1.334 13637
1.966 1.057 1.320 17642
1.963 1.056 1.310 16534
1.960 1.054 1.300 16949
1.963 1.056 1.294 15881
1.966 1.057 1.287 14813
1.969 1.059 1.280 15682
1.965 1.057 1.270 16607
1.974 1.062 1.267 15814
1.977 1.063 1.261 15075
1.986 1.068 1.257 12676
2.002 1.077 1.258 11448
2.005 1.078 1.251 11090
2.008 1.080 1.244 10731
2.010 1.081 1.237 10628
2.007 1.079 1.227 10629
2.010 1.081 1.221 10629
2.019 1.086 1.217 7690
2.028 1.090 1.214 4894
2.024 1.089 1.204 4101
2.027 1.090 1.197 3347
2.055 1.105 1.203 5705
2.058 1.107 1.196 8447
2.060 1.108 1.189 8447
2.063 1.109 1.182 9954
0.593 0.316 1.729 8764
0.597 0.319 1.727 10342
0.604 0.322 1.732 12028
0.608 0.324 1.730 13324
0.612 0.327 1.728 15893
0.616 0.329 1.726 17166
0.620 0.331 1.723 18246
0.624 0.333 1.721 19326
0.625 0.334 1.712 15859
0.629 0.336 1.710 12466
0.630 0.336 1.701 9476
0.625 0.334 1.677 6685
0.629 0.336 1.675 10117
0.636 0.339 1.680 13781
0.643 0.343 1.685 14429
0.647 0.345 1.683 17054
0.651 0.347 1.680 19783
0.655 0.350 1.678 20229
0.659 0.352 1.676 20674
0.663 0.354 1.674 20827
0.667 0.356 1.671 20981
0.671 0.358 1.669 19030
0.678 0.362 1.674 17628
0.685 0.366 1.678 15028
0.689 0.368 1.676 12831
0.693 0.370 1.674 10526
0.693 0.370 1.664 8233
0.697 0.372 1.662 6400
0.701 0.374 1.660 5548
0.708 0.378 1.664 7712
0.712 0.380 1.662 9851
0.716 0.382 1.659 10805
0.727 0.388 1.671 11145
0.734 0.392 1.675 12841
0.735 0.392 1.666 13048
0.735 0.392 1.656 14428
0.743 0.396 1.661 18268
0.750 0.400 1.665 23328
0.754 0.402 1.663 24219
0.758 0.404 1.660 20716
0.758 0.405 1.651 16780
0.762 0.407 1.648 17272
0.766 0.409 1.645 20286
0.770 0.411 1.643 22809
0.777 0.415 1.647 22840
0.785 0.419 1.651 22886
0.788 0.421 1.648 19622
0.811 0.433 1.679 14607
0.818 0.437 1.683 17645
0.815 0.435 1.667 17473
0.811 0.433 1.651 22150
0.819 0.437 1.655 24691
0.819 0.437 1.646 27113
0.823 0.439 1.643 30104
0.827 0.441 1.640 30544
0.831 0.443 1.637 30038
0.834 0.445 1.634 27895
0.838 0.447 1.631 25161
0.842 0.449 1.629 24209
0.850 0.454 1.632 20067
0.896 0.478 1.702 11202
0.904 0.483 1.705 10807
0.912 0.487 1.709 10530
0.920 0.491 1.712 13061
0.920 0.491 1.703 16315
0.928 0.495 1.706 17743
0.932 0.497 1.703 19031
0.940 0.502 1.706 23443
0.948 0.506 1.710 22871
0.956 0.510 1.713 15855
0.956 0.510 1.703 10203
0.960 0.512 1.700 9643
0.964 0.515 1.697 10567
0.968 0.517 1.693 8895
0.980 0.523 1.703 12411
0.980 0.523 1.693 22135
0.984 0.525 1.690 28703
0.984 0.525 1.680 30215
0.988 0.527 1.677 35634
0.996 0.532 1.680 42853
0.996 0.531 1.670 49399
1.000 0.534 1.667 52288
1.004 0.536 1.663 41885
1.012 0.540 1.666 25831
1.033 0.551 1.688 18443
1.041 0.556 1.691 14931
1.054 0.562 1.700 11278
1.071 0.571 1.715 13215
1.075 0.574 1.711 16170
1.070 0.571 1.695 14871
1.074 0.573 1.691 14820
1.078 0.575 1.688 16413
1.086 0.580 1.690 14139
1.090 0.582 1.687 7666
1.116 0.596 1.714 7426
1.120 0.598 1.710 9009
1.124 0.600 1.706 7936
1.128 0.602 1.702 8817
1.132 0.604 1.698 13773
1.136 0.607 1.695 18612
1.140 0.609 1.691 17168
1.172 0.625 1.723 18305
1.180 0.630 1.725 15738
1.189 0.635 1.727 8977
1.179 0.629 1.705 9446
1.188 0.634 1.707 14436
1.196 0.639 1.709 14716
1.210 0.646 1.717 16018
1.214 0.648 1.713 13850
1.218 0.650 1.709 13488
1.222 0.652 1.705 14851
1.235 0.659 1.712 13951
1.239 0.661 1.708 13282
1.243 0.664 1.704 15962
1.247 0.666 1.700 21700
1.251 0.668 1.695 23343
1.255 0.670 1.691 20389
1.264 0.675 1.693 17165
1.277 0.682 1.700 14902
1.291 0.689 1.707 12085
1.300 0.694 1.709 16420
1.304 0.696 1.704 22334
1.308 0.698 1.700 19317
1.312 0.700 1.695 16085
1.311 0.700 1.685 17585
1.315 0.702 1.681 21561
1.319 0.704 1.676 17536
1.318 0.703 1.666 17434
1.327 0.708 1.668 17812
1.346 0.718 1.680 11183
1.340 0.715 1.664 15503
1.348 0.720 1.665 23481
1.357 0.724 1.666 33395
1.361 0.727 1.662 29537
1.365 0.729 1.657 21887
1.364 0.728 1.647 18380
1.373 0.733 1.648 13138
1.387 0.740 1.654 12615
1.411 0.753 1.671 9753
1.400 0.747 1.650 9694
1.393 0.744 1.635 8303
1.428 0.762 1.662 8042
1.432 0.764 1.657 20031
1.431 0.764 1.647 29451
1.434 0.766 1.642 26238
1.444 0.770 1.643 26944
1.447 0.773 1.638 34963
1.456 0.777 1.639 40550
1.460 0.779 1.634 37411
1.464 0.781 1.629 24412
1.468 0.783 1.624 12051
1.482 0.791 1.629 7317
1.486 0.793 1.624 7508
1.559 0.832 1.686 7939
1.573 0.840 1.691 9327
1.588 0.848 1.696 5970
1.597 0.852 1.696 7814
1.596 0.852 1.686 14785
1.600 0.854 1.680 16083
1.609 0.859 1.680 13550
1.629 0.870 1.690 14982
1.639 0.875 1.689 17926
1.637 0.874 1.679 14553
1.652 0.882 1.683 11726
1.656 0.884 1.678 13552
1.660 0.886 1.672 9601
1.680 0.897 1.681 4213
1.706 0.911 1.695 5286
1.693 0.904 1.675 5482
1.747 0.932 1.713 6216
1.740 0.929 1.698 12303
1.749 0.934 1.697 18816
1.759 0.939 1.696 19436
1.752 0.935 1.680 19346
1.761 0.940 1.679 23309
1.765 0.942 1.673 21401
1.775 0.947 1.672 14227
1.784 0.952 1.671 13175
1.794 0.957 1.669 11488
1.854 0.990 1.710 8164
1.858 0.992 1.704 6625
1.851 0.988 1.689 5668
0.750 0.401 0.779 8059
0.746 0.398 0.772 13012
0.748 0.399 0.769 17229
0.750 0.400 0.767 19091
0.751 0.401 0.764 18295
0.753 0.402 0.761 16723
0.754 0.403 0.759 14703
1.939 1.035 1.684 12593
1.943 1.037 1.677 8449
2.011 1.073 1.720 12988
2.009 1.072 1.709 16520
2.019 1.078 1.706 14382
1.959 1.046 1.651 8857
1.963 1.048 1.645 9864
1.949 1.040 1.625 8572
1.970 1.052 1.631 9860
1.968 1.051 1.621 14587
1.972 1.053 1.614 17340
1.964 1.048 1.599 15190
1.968 1.050 1.592 16148
1.978 1.056 1.590 19389
1.981 1.058 1.583 17662
1.979 1.056 1.572 16020
1.983 1.058 1.566 16221
1.980 1.057 1.555 16119
1.978 1.056 1.544 19071
1.982 1.058 1.538 22145
1.985 1.060 1.531 20946
1.983 1.058 1.520 19181
1.992 1.063 1.518 15309
2.002 1.068 1.515 10066
2.005 1.070 1.508 7711
1.010 0.539 0.835 9360
1.017 0.543 0.836 11994
1.013 0.541 0.828 14745
1.015 0.542 0.825 18649
1.017 0.543 0.821 20678
1.018 0.544 0.818 22444
1.020 0.544 0.815 23232
1.022 0.545 0.811 22613
1.024 0.546 0.808 21948
1.025 0.547 0.804 19865
1.027 0.548 0.801 15192
1.029 0.549 0.797 12555
1.994 1.064 1.386 11087
1.991 1.063 1.376 9632
1.970 1.051 1.354 9330
1.985 1.060 1.355 10035
1.994 1.065 1.352 11320
1.979 1.056 1.334 14716
1.976 1.055 1.324 18714
1.973 1.053 1.314 17661
1.963 1.048 1.300 18123
1.966 1.049 1.294 16820
1.969 1.051 1.287 15516
1.972 1.053 1.280 15472
1.969 1.051 1.270 15484
1.978 1.056 1.267 14289
1.981 1.057 1.261 13150
1.996 1.065 1.261 11613
2.012 1.074 1.261 11426
2.008 1.072 1.251 12050
2.005 1.070 1.241 12902
2.007 1.071 1.234 12751
2.010 1.073 1.227 12601
2.013 1.074 1.221 12601
2.016 1.076 1.214 9212
2.025 1.081 1.210 5829
2.021 1.079 1.200 4803
2.011 1.073 1.187 3801
2.046 1.092 1.197 5665
2.055 1.097 1.193 8294
2.057 1.098 1.186 8294
2.067 1.103 1.182 9499
0.593 0.315 1.729 8505
0.597 0.317 1.727 10306
0.604 0.321 1.732 12198
0.608 0.323 1.730 13692
0.612 0.325 1.728 16522
0.617 0.328 1.726 17858
0.621 0.330 1.723 19017
0.625 0.332 1.721 20176
0.626 0.333 1.712 16621
0.630 0.335 1.710 13161
0.631 0.335 1.701 10299
0.626 0.333 1.677 7980
0.630 0.335 1.675 11276
0.637 0.338 1.680 14695
0.644 0.342 1.685 14889
0.648 0.344 1.683 17264
0.649 0.345 1.673 19914
0.656 0.348 1.678 20483
0.659 0.350 1.676 21129
0.663 0.353 1.674 21353
0.667 0.355 1.671 21578
0.671 0.357 1.669 19365
0.678 0.361 1.674 17719
0.686 0.364 1.678 14663
0.690 0.366 1.676 11970
0.693 0.368 1.674 9598
0.697 0.371 1.671 7226
0.698 0.371 1.662 5925
0.705 0.375 1.667 5540
0.709 0.377 1.664 7502
0.713 0.379 1.662 9452
0.717 0.381 1.659 10395
0.731 0.388 1.678 10920
0.738 0.392 1.682 12604
0.732 0.389 1.659 12624
0.732 0.389 1.650 14148
0.743 0.395 1.661 18205
0.751 0.399 1.665 24251
0.755 0.401 1.663 25434
0.758 0.403 1.660 22227
0.759 0.403 1.651 18506
0.763 0.405 1.648 18689
0.767 0.407 1.645 21490
0.770 0.409 1.643 24108
0.778 0.413 1.647 24261
0.785 0.417 1.651 24398
0.789 0.419 1.648 21049
0.800 0.425 1.659 15079
0.819 0.435 1.683 18134
0.816 0.433 1.667 18399
0.812 0.432 1.651 23614
0.820 0.436 1.655 25985
0.820 0.436 1.646 28314
0.824 0.438 1.643 31686
0.828 0.440 1.640 32572
0.831 0.442 1.637 31943
0.835 0.444 1.634 30152
0.839 0.446 1.631 27472
0.843 0.448 1.629 25985
0.851 0.452 1.632 21203
0.862 0.458 1.643 11125
0.901 0.479 1.699 10637
0.913 0.485 1.709 10030
0.921 0.489 1.712 12597
0.921 0.489 1.703 16122
0.929 0.494 1.706 18069
0.933 0.496 1.703 19533
0.941 0.500 1.706 24396
0.949 0.504 1.710 23559
0.957 0.509 1.713 16210
0.961 0.511 1.710 10379
0.961 0.511 1.700 9473
0.965 0.513 1.697 10087
0.969 0.515 1.693 8205
0.977 0.519 1.697 11980
0.981 0.521 1.693 22115
0.985 0.523 1.690 28302
0.985 0.523 1.680 29455
0.989 0.525 1.677 34742
0.997 0.530 1.680 42682
0.997 0.530 1.670 49852
1.001 0.532 1.667 52709
1.005 0.534 1.663 43110
1.013 0.538 1.666 26855
1.034 0.549 1.688 16582
1.042 0.554 1.691 13917
1.055 0.560 1.700 10556
1.072 0.569 1.715 11397
1.076 0.572 1.711 14154
1.071 0.569 1.695 13684
1.075 0.571 1.691 13849
1.079 0.573 1.688 15314
1.087 0.578 1.690 13477
1.091 0.580 1.687 7725
1.122 0.596 1.720 8809
1.121 0.596 1.710 10798
1.125 0.598 1.706 10349
1.129 0.600 1.702 10895
1.133 0.602 1.698 15126
1.137 0.604 1.695 20908
1.137 0.604 1.685 18802
1.173 0.623 1.723 16469
1.181 0.628 1.725 13923
1.140 0.606 1.661 8833
1.180 0.627 1.705 10843
1.189 0.632 1.707 16269
1.198 0.636 1.709 15592
1.211 0.643 1.717 16546
1.215 0.646 1.713 14651
1.219 0.648 1.709 13976
1.223 0.650 1.705 14671
1.236 0.657 1.712 12908
1.240 0.659 1.708 11976
1.244 0.661 1.704 15118
1.248 0.663 1.700 21354
1.252 0.665 1.695 23212
1.256 0.668 1.691 20048
1.265 0.672 1.693 15536
1.284 0.682 1.706 12520
1.292 0.687 1.707 11447
1.301 0.691 1.709 17004
1.305 0.694 1.704 23564
1.309 0.696 1.700 20424
1.313 0.698 1.695 16142
1.312 0.697 1.685 18871
1.316 0.699 1.681 26544
1.325 0.704 1.682 23663
1.324 0.704 1.672 23269
1.323 0.703 1.662 19697
1.327 0.705 1.658 7386
1.336 0.710 1.659 13568
1.350 0.717 1.665 20936
1.359 0.722 1.666 30772
1.363 0.724 1.662 26623
1.361 0.723 1.652 20712
1.360 0.723 1.642 19946
1.364 0.725 1.637 13520
1.378 0.732 1.643 10302
1.367 0.726 1.622 7232
1.386 0.736 1.634 8897
1.390 0.738 1.629 8736
1.429 0.760 1.662 7888
1.433 0.762 1.657 16801
1.432 0.761 1.647 23985
1.436 0.763 1.642 21979
1.445 0.768 1.643 21850
1.449 0.770 1.638 29020
1.458 0.775 1.639 35898
1.462 0.777 1.634 34909
1.465 0.779 1.629 23137
1.469 0.781 1.624 11805
1.478 0.786 1.624 7515
1.487 0.790 1.624 7695
1.507 0.801 1.635 5956
1.580 0.840 1.697 6966
1.589 0.845 1.696 5033
1.599 0.850 1.696 7817
1.597 0.849 1.686 14730
1.601 0.851 1.680 14842
1.611 0.856 1.680 12386
1.631 0.867 1.690 16041
1.640 0.872 1.689 18115
1.644 0.874 1.684 13925
1.653 0.879 1.683 11037
1.657 0.881 1.678 12660
1.661 0.883 1.672 9678
1.671 0.888 1.672 4920
1.702 0.904 1.691 6584
1.701 0.904 1.680 7273
1.738 0.923 1.703 7159
1.742 0.925 1.698 13686
1.746 0.928 1.692 19982
1.750 0.930 1.686 18675
1.753 0.932 1.680 20257
1.757 0.934 1.674 26547
1.767 0.939 1.673 24322
1.776 0.944 1.672 15698
1.786 0.949 1.671 14157
1.790 0.951 1.665 12215
1.856 0.986 1.710 9539
1.860 0.988 1.704 8272
1.852 0.984 1.689 7106
1.868 0.993 1.692 7116
1.883 1.001 1.695 8208
0.749 0.398 0.769 9734
0.756 0.402 0.771 12017
0.758 0.403 0.769 12449
0.753 0.400 0.761 12074
0.755 0.401 0.759 11011
1.941 1.032 1.684 11899
1.945 1.034 1.677 8003
2.013 1.069 1.720 12070
2.011 1.069 1.709 15426
2.015 1.071 1.702 13342
1.955 1.039 1.647 9739
1.959 1.041 1.640 10995
1.951 1.037 1.625 10043
1.955 1.039 1.618 9668
1.970 1.047 1.621 12984
1.968 1.046 1.610 15751
1.960 1.042 1.594 14434
1.964 1.044 1.588 14916
1.974 1.049 1.586 17255
1.977 1.051 1.579 15305
1.981 1.053 1.572 13812
1.979 1.051 1.562 14297
1.976 1.050 1.551 15086
1.980 1.052 1.544 18300
1.984 1.054 1.538 20956
1.987 1.056 1.531 19448
1.985 1.055 1.520 17319
1.994 1.060 1.518 14850
2.004 1.065 1.515 10029
1.983 1.054 1.492 7589
1.963 1.043 1.469 7316
1.960 1.041 1.459 7907
1.969 1.046 1.456 8926
1.979 1.052 1.454 10435
1.982 1.053 1.447 10712
1.986 1.055 1.440 8924
1.021 0.543 0.815 8387
1.023 0.544 0.811 7888
1.025 0.544 0.808 7298
1.026 0.545 0.804 6378
1.996 1.061 1.403 8177
