1.329 1.878 1.744 6642
1.362 1.925 1.773 6797
1.364 1.928 1.766 6807
1.371 1.938 1.764 5157
1.408 1.990 1.797 5081
1.418 2.005 1.798 5251
1.436 2.030 1.808 6018
1.439 2.034 1.801 6943
1.407 1.989 1.755 6640
1.410 1.993 1.748 6654
1.451 2.051 1.783 5945
1.450 2.050 1.772 5249
1.449 2.048 1.760 4488
1.452 2.052 1.752 4859
1.458 2.061 1.749 6089
1.465 2.070 1.746 7055
1.468 2.074 1.739 5891
1.501 2.122 1.764 5074
1.504 2.126 1.757 5487
1.499 2.119 1.741 4543
1.509 2.133 1.741 4446
1.524 2.154 1.746 6427
1.538 2.174 1.750 7618
1.541 2.178 1.742 10815
1.544 2.182 1.734 12035
1.546 2.186 1.727 14631
1.553 2.195 1.723 17538
1.556 2.199 1.715 16000
1.558 2.203 1.707 14462
1.561 2.206 1.699 11171
1.564 2.210 1.691 7446
1.562 2.208 1.679 7265
1.573 2.223 1.679 8262
1.583 2.238 1.678 10569
1.586 2.241 1.670 10428
1.588 2.245 1.662 10287
1.647 2.328 1.707 10868
1.650 2.332 1.699 13142
1.652 2.336 1.690 12674
1.655 2.339 1.682 12206
1.662 2.349 1.677 12326
1.664 2.352 1.669 12529
1.671 2.362 1.664 17311
1.677 2.371 1.659 22684
1.684 2.380 1.654 20710
1.691 2.390 1.649 19441
1.697 2.399 1.644 13932
1.712 2.420 1.646 10504
1.715 2.423 1.637 8643
1.766 2.496 1.670 7141
1.773 2.506 1.665 7945
1.775 2.510 1.656 8747
1.778 2.513 1.647 7391
1.781 2.517 1.638 6036
1.787 2.526 1.632 6659
1.802 2.547 1.633 7035
1.809 2.556 1.627 6803
1.811 2.560 1.618 7952
1.810 2.558 1.606 9287
1.812 2.561 1.596 7851
1.823 2.576 1.594 6641
1.825 2.580 1.584 6641
1.815 2.565 1.565 6359
1.817 2.569 1.556 6304
1.820 2.572 1.547 3152
0.390 0.547 1.729 3558
0.396 0.556 1.741 4904
0.399 0.560 1.739 6443
0.401 0.564 1.737 6535
0.406 0.570 1.742 8267
0.409 0.574 1.740 9782
0.411 0.578 1.738 12942
0.412 0.579 1.728 16477
0.415 0.583 1.726 17443
0.418 0.586 1.724 18409
0.422 0.593 1.729 15532
0.425 0.597 1.727 12769
0.430 0.603 1.732 12300
0.432 0.607 1.730 8576
0.435 0.611 1.727 5173
0.438 0.615 1.725 4279
0.442 0.621 1.730 3429
0.445 0.625 1.728 3861
0.448 0.629 1.725 4294
0.450 0.632 1.723 5093
0.453 0.636 1.721 5893
0.456 0.640 1.718 6922
0.458 0.644 1.716 7951
0.461 0.647 1.714 8686
0.464 0.651 1.711 9420
0.466 0.655 1.709 9968
0.471 0.662 1.713 10591
0.474 0.665 1.711 12503
0.478 0.672 1.715 14519
0.483 0.679 1.720 18297
0.486 0.683 1.717 22803
0.489 0.686 1.715 24476
0.494 0.693 1.719 23807
0.496 0.697 1.717 21604
0.501 0.704 1.721 18077
0.506 0.711 1.725 14678
0.509 0.714 1.723 16086
0.514 0.721 1.727 17710
0.514 0.722 1.717 17626
0.514 0.722 1.708 19058
0.517 0.726 1.705 20135
0.522 0.733 1.709 21619
0.527 0.740 1.713 23189
0.527 0.741 1.704 20209
0.528 0.741 1.694 15057
0.533 0.748 1.698 12566
0.538 0.755 1.702 13299
0.543 0.762 1.706 13675
0.550 0.773 1.717 13893
0.555 0.780 1.721 12083
0.563 0.790 1.732 9558
0.570 0.801 1.742 9240
0.573 0.805 1.739 13771
0.576 0.808 1.736 16385
0.581 0.816 1.740 19328
0.586 0.823 1.743 26202
0.591 0.830 1.747 33290
0.594 0.834 1.744 38133
0.599 0.841 1.748 37237
0.607 0.852 1.758 29606
0.612 0.860 1.761 25969
0.610 0.856 1.745 24118
0.612 0.860 1.742 19538
0.618 0.868 1.745 15223
0.623 0.875 1.748 14767
0.626 0.879 1.745 12844
0.628 0.883 1.742 8931
0.631 0.886 1.739 8123
0.634 0.890 1.736 9966
0.637 0.894 1.732 9992
0.642 0.902 1.735 10612
0.647 0.909 1.739 12479
0.650 0.913 1.735 15395
0.650 0.913 1.725 20292
0.653 0.917 1.722 23252
0.655 0.920 1.719 22231
0.658 0.924 1.715 19509
0.661 0.928 1.712 17321
0.666 0.935 1.715 15087
0.677 0.951 1.731 13065
0.680 0.954 1.727 12654
0.682 0.958 1.724 15863
0.690 0.970 1.733 22465
0.699 0.981 1.742 27231
0.701 0.985 1.738 22965
0.704 0.989 1.734 14998
0.704 0.989 1.725 12836
0.710 0.997 1.727 17453
0.718 1.008 1.736 18641
0.723 1.016 1.738 14432
0.726 1.020 1.735 14962
0.732 1.028 1.737 19924
0.737 1.036 1.740 20713
0.740 1.039 1.736 20139
0.746 1.047 1.738 17544
0.748 1.051 1.734 16547
0.751 1.055 1.730 19647
0.754 1.058 1.727 21974
0.759 1.066 1.729 26453
0.765 1.074 1.731 27722
0.771 1.082 1.733 16878
0.779 1.094 1.741 12754
0.776 1.090 1.725 16714
0.785 1.102 1.733 18687
0.790 1.110 1.735 19189
0.796 1.118 1.737 13638
0.805 1.130 1.745 13652
0.811 1.138 1.746 22012
0.813 1.142 1.742 24341
0.816 1.146 1.738 16234
0.819 1.150 1.734 13741
0.827 1.162 1.741 22277
0.836 1.175 1.749 30501
0.839 1.178 1.745 24013
0.839 1.178 1.735 13900
0.841 1.182 1.730 12925
0.853 1.199 1.743 14590
0.856 1.202 1.739 13405
0.865 1.215 1.746 12149
0.868 1.219 1.742 15282
0.877 1.232 1.749 24762
0.886 1.244 1.755 38475
0.892 1.253 1.757 39371
0.898 1.261 1.758 24493
0.904 1.269 1.759 11716
0.906 1.273 1.754 9748
0.903 1.268 1.738 9413
0.909 1.276 1.739 21033
0.915 1.285 1.740 28190
0.921 1.293 1.741 19859
0.920 1.292 1.731 14052
0.926 1.300 1.732 9525
0.929 1.304 1.727 12881
0.935 1.313 1.728 14963
0.944 1.326 1.734 11727
0.943 1.325 1.724 9472
0.946 1.329 1.719 8842
0.952 1.337 1.719 18819
0.955 1.341 1.714 24643
0.957 1.344 1.710 16259
0.950 1.334 1.689 13119
0.959 1.347 1.694 16698
0.965 1.355 1.695 19657
0.964 1.354 1.685 12231
0.964 1.353 1.674 10788
0.983 1.381 1.696 15021
0.982 1.380 1.686 17209
0.982 1.379 1.675 15987
1.018 1.430 1.723 18433
1.025 1.439 1.723 18638
0.996 1.399 1.671 16844
1.054 1.481 1.749 17135
1.060 1.489 1.749 29313
1.063 1.493 1.743 32743
1.069 1.502 1.743 27763
1.079 1.515 1.748 27128
1.082 1.519 1.742 21343
1.091 1.533 1.747 13276
1.098 1.542 1.746 9363
1.104 1.550 1.746 10468
1.107 1.554 1.740 11041
1.120 1.573 1.750 8869
1.140 1.602 1.769 15168
1.143 1.605 1.763 19606
1.146 1.609 1.757 17678
1.149 1.613 1.751 11645
1.176 1.652 1.780 13465
1.186 1.666 1.784 17244
1.193 1.675 1.783 16267
1.196 1.679 1.777 13352
1.198 1.683 1.771 11788
1.197 1.682 1.760 9919
1.204 1.691 1.758 6545
1.228 1.725 1.781 5370
1.246 1.750 1.794 7577
1.230 1.728 1.764 10194
1.233 1.732 1.757 11448
1.265 1.777 1.789 8894
1.268 1.781 1.783 11131
1.271 1.785 1.776 11312
1.273 1.789 1.770 9454
1.280 1.798 1.768 10663
1.290 1.812 1.771 13193
1.297 1.821 1.769 14006
1.303 1.830 1.767 13584
1.313 1.844 1.769 12044
1.312 1.843 1.758 12159
1.315 1.847 1.751 12691
1.314 1.845 1.740 9379
1.324 1.860 1.742 6036
1.372 1.927 1.789 6796
1.371 1.926 1.778 8087
1.370 1.924 1.766 7870
1.388 1.950 1.777 6338
1.410 1.980 1.792 5548
1.424 2.000 1.798 5538
1.442 2.026 1.808 7106
1.445 2.030 1.801 8105
1.448 2.034 1.794 7893
1.455 2.043 1.791 7021
1.457 2.047 1.783 7468
1.460 2.051 1.776 6440
1.463 2.055 1.768 5169
1.462 2.053 1.757 5145
1.468 2.062 1.754 6680
1.475 2.071 1.750 7630
1.478 2.075 1.743 6409
1.484 2.085 1.739 5234
1.503 2.110 1.748 5032
1.493 2.098 1.728 4542
1.520 2.134 1.745 5034
1.530 2.149 1.746 7363
1.541 2.164 1.746 7980
1.548 2.174 1.742 10462
1.550 2.177 1.734 11318
1.557 2.187 1.731 13990
1.560 2.190 1.723 17036
1.562 2.194 1.715 15698
1.565 2.198 1.707 14360
1.567 2.202 1.699 10922
1.570 2.205 1.691 7005
1.569 2.203 1.679 6698
1.579 2.218 1.679 7668
1.594 2.239 1.682 9819
1.593 2.237 1.670 9675
1.595 2.240 1.662 9542
1.654 2.323 1.707 9349
1.657 2.327 1.699 11178
1.659 2.331 1.690 10678
1.662 2.334 1.682 10178
1.669 2.344 1.677 10807
1.671 2.347 1.669 11649
1.682 2.362 1.667 16151
1.685 2.366 1.659 21286
1.691 2.375 1.654 19691
1.698 2.385 1.649 18759
1.704 2.394 1.644 13963
1.719 2.415 1.646 11406
1.722 2.418 1.637 9366
1.720 2.416 1.625 7416
1.780 2.501 1.665 7249
1.783 2.504 1.656 7886
1.786 2.508 1.647 6784
1.784 2.506 1.634 5714
1.799 2.526 1.635 6344
1.814 2.548 1.636 7020
1.821 2.557 1.631 6831
1.819 2.555 1.618 7861
1.817 2.552 1.606 8996
1.824 2.562 1.600 7582
1.830 2.571 1.594 6409
1.833 2.574 1.584 6409
1.827 2.566 1.569 6029
1.825 2.563 1.556 5912
1.827 2.567 1.547 2956
0.393 0.549 1.736 3180
0.397 0.555 1.741 4788
0.400 0.559 1.739 6489
0.403 0.563 1.737 6570
0.407 0.569 1.742 8352
0.410 0.573 1.740 9862
0.413 0.577 1.738 12909
0.413 0.578 1.728 16259
0.416 0.582 1.726 17338
0.419 0.586 1.724 18418
0.423 0.592 1.729 15709
0.426 0.596 1.727 13082
0.431 0.602 1.732 12640
0.433 0.606 1.730 8930
0.436 0.610 1.727 5566
0.441 0.616 1.732 3887
0.448 0.626 1.744 2432
0.448 0.627 1.735 2477
0.449 0.628 1.725 2636
0.450 0.629 1.716 3438
0.452 0.632 1.714 4253
0.455 0.636 1.711 5078
0.458 0.640 1.709 5903
0.462 0.646 1.714 6900
0.465 0.650 1.711 7903
0.470 0.657 1.716 8994
0.472 0.661 1.713 10223
0.475 0.664 1.711 12007
0.480 0.671 1.715 13839
0.485 0.678 1.720 17392
0.487 0.682 1.717 21709
0.490 0.685 1.715 23409
0.495 0.692 1.719 22685
0.498 0.696 1.717 20335
0.503 0.703 1.721 16606
0.505 0.706 1.718 13021
0.510 0.713 1.723 15073
0.515 0.720 1.727 17214
0.516 0.721 1.717 16934
0.516 0.721 1.708 17426
0.519 0.725 1.705 17967
0.524 0.732 1.709 19331
0.529 0.739 1.713 20844
0.529 0.739 1.704 17841
0.529 0.740 1.694 14312
0.534 0.747 1.698 13046
0.537 0.750 1.696 13253
0.544 0.761 1.706 13034
0.549 0.768 1.710 13160
0.557 0.778 1.721 11793
0.564 0.789 1.732 9544
0.572 0.800 1.742 8998
0.575 0.803 1.739 13571
0.577 0.807 1.736 16452
0.583 0.814 1.740 19392
0.588 0.822 1.743 25647
0.593 0.829 1.747 32146
0.596 0.833 1.744 36895
0.601 0.840 1.748 36293
0.609 0.851 1.758 28783
0.614 0.859 1.761 25015
0.612 0.855 1.745 23211
0.612 0.855 1.735 19547
0.617 0.863 1.739 15822
0.625 0.874 1.748 14874
0.628 0.878 1.745 12145
0.630 0.881 1.742 8240
0.633 0.885 1.739 8745
0.636 0.889 1.736 10728
0.638 0.893 1.732 10266
0.644 0.900 1.735 10844
0.649 0.908 1.739 13312
0.649 0.908 1.729 17505
0.652 0.911 1.725 22399
0.655 0.915 1.722 24707
0.657 0.919 1.719 23105
0.660 0.923 1.715 20128
0.663 0.926 1.712 18278
0.668 0.934 1.715 16608
0.679 0.949 1.731 13853
0.682 0.953 1.727 12172
0.684 0.957 1.724 15677
0.693 0.968 1.733 23429
0.701 0.980 1.742 27749
0.704 0.984 1.738 21991
0.709 0.991 1.741 14008
0.706 0.987 1.725 13399
0.712 0.995 1.727 18667
0.720 1.007 1.736 19205
0.726 1.015 1.738 14388
0.731 1.022 1.741 14774
0.734 1.026 1.737 18658
0.739 1.034 1.740 17572
0.742 1.038 1.736 16515
0.748 1.046 1.738 14339
0.751 1.049 1.734 15287
0.753 1.053 1.730 20436
0.756 1.057 1.727 21946
0.762 1.065 1.729 25965
0.767 1.073 1.731 28293
0.773 1.081 1.733 17557
0.782 1.093 1.741 13367
0.781 1.092 1.731 17989
0.787 1.100 1.733 19758
0.793 1.108 1.735 18907
0.795 1.112 1.731 13370
0.807 1.129 1.745 13187
0.810 1.132 1.741 22172
0.816 1.140 1.742 25843
0.818 1.144 1.738 17680
0.821 1.148 1.734 14872
0.830 1.160 1.741 22664
0.839 1.173 1.749 28861
0.842 1.177 1.745 22519
0.838 1.172 1.729 15139
0.844 1.180 1.730 15118
0.853 1.192 1.737 16249
0.859 1.201 1.739 13911
0.868 1.213 1.746 11876
0.870 1.217 1.742 15547
0.880 1.230 1.749 25059
0.889 1.242 1.755 38358
0.895 1.251 1.757 38749
0.900 1.259 1.758 24340
0.903 1.263 1.753 13688
0.906 1.267 1.749 13561
0.912 1.275 1.750 10701
0.915 1.279 1.745 21545
0.917 1.283 1.740 27189
0.923 1.291 1.741 16543
0.923 1.290 1.731 12701
0.929 1.299 1.732 9728
0.931 1.302 1.727 13965
0.937 1.311 1.728 15825
0.947 1.324 1.734 13243
0.946 1.323 1.724 9215
0.949 1.327 1.719 8811
0.955 1.335 1.719 20266
0.961 1.343 1.720 24196
0.957 1.338 1.704 15548
0.953 1.332 1.689 14234
0.959 1.340 1.689 17425
0.965 1.349 1.690 18729
0.964 1.348 1.679 12422
0.966 1.351 1.674 12728
0.983 1.374 1.691 16442
0.982 1.373 1.680 19827
0.984 1.376 1.675 19985
1.001 1.399 1.691 18493
0.997 1.393 1.676 21481
0.999 1.397 1.671 22333
1.002 1.401 1.666 20216
1.063 1.487 1.749 30944
1.066 1.491 1.743 33393
1.069 1.495 1.738 26675
1.082 1.513 1.748 24848
1.085 1.517 1.742 20174
1.095 1.530 1.747 12839
1.101 1.539 1.746 8837
1.107 1.548 1.746 10135
1.110 1.552 1.740 10546
1.120 1.565 1.745 8418
1.140 1.594 1.764 14685
1.147 1.603 1.763 19802
1.149 1.607 1.757 17810
1.152 1.611 1.751 12030
1.176 1.645 1.775 14208
1.186 1.659 1.779 15626
1.196 1.673 1.783 13685
1.199 1.677 1.777 13273
1.202 1.680 1.771 14641
1.205 1.684 1.764 12570
1.207 1.688 1.758 9501
1.214 1.697 1.757 7317
1.249 1.747 1.794 7685
1.238 1.730 1.768 9981
1.237 1.729 1.757 11397
1.262 1.764 1.779 7423
1.272 1.778 1.783 9827
1.274 1.782 1.776 10738
1.273 1.781 1.765 9092
1.284 1.795 1.768 10117
1.290 1.804 1.766 12405
1.300 1.818 1.769 13455
1.311 1.833 1.771 14292
1.317 1.842 1.769 12336
1.312 1.835 1.753 11531
1.315 1.839 1.747 11980
1.314 1.837 1.735 9006
1.377 1.926 1.801 5530
1.376 1.924 1.789 7048
1.375 1.923 1.778 9162
1.382 1.932 1.775 9074
1.388 1.941 1.773 7996
1.410 1.972 1.788 6226
1.436 2.008 1.807 5879
1.447 2.023 1.808 8129
1.449 2.027 1.801 9173
1.452 2.031 1.794 9151
1.459 2.040 1.791 8570
1.462 2.044 1.783 8975
1.468 2.053 1.780 8125
1.471 2.057 1.773 6702
1.466 2.050 1.757 6098
1.477 2.065 1.758 7487
1.479 2.068 1.750 8014
1.482 2.072 1.743 6684
1.489 2.081 1.739 5421
1.495 2.091 1.736 4709
1.498 2.094 1.728 4593
1.528 2.137 1.749 5671
1.535 2.146 1.746 8219
1.542 2.155 1.742 8385
1.548 2.165 1.738 9911
1.555 2.174 1.734 10427
1.562 2.183 1.731 13161
1.564 2.187 1.723 16251
1.567 2.191 1.715 15129
1.570 2.195 1.707 14006
1.572 2.198 1.699 10472
1.575 2.202 1.691 6414
1.573 2.200 1.679 5983
1.624 2.271 1.717 7028
1.599 2.235 1.682 8795
1.597 2.233 1.670 8621
1.600 2.237 1.662 8473
1.659 2.320 1.707 7720
1.662 2.323 1.699 9098
1.664 2.327 1.690 8526
1.655 2.314 1.671 8487
1.674 2.340 1.677 9164
1.676 2.344 1.669 10645
1.687 2.359 1.667 14782
1.694 2.368 1.662 19549
1.700 2.377 1.657 18302
1.707 2.387 1.652 17700
1.714 2.396 1.647 13873
1.724 2.411 1.646 12063
1.727 2.415 1.637 9854
1.725 2.412 1.625 7734
1.786 2.497 1.665 6468
1.788 2.500 1.656 6906
1.791 2.504 1.647 6049
1.789 2.502 1.634 5266
1.804 2.523 1.635 5868
1.819 2.544 1.636 6708
1.826 2.553 1.631 6621
1.824 2.551 1.618 7441
1.827 2.554 1.609 8366
1.829 2.558 1.600 7064
1.836 2.567 1.594 5909
1.838 2.570 1.584 5909
1.832 2.562 1.569 5540
1.835 2.565 1.559 5412
1.837 2.569 1.550 2706
0.396 0.551 1.743 2841
0.399 0.555 1.741 4659
0.401 0.558 1.739 6476
0.406 0.565 1.744 6585
0.409 0.568 1.742 8400
0.411 0.572 1.740 9897
0.414 0.576 1.738 12763
0.415 0.577 1.728 15863
0.418 0.581 1.726 17043
0.420 0.585 1.724 18224
0.425 0.591 1.729 15702
0.428 0.595 1.727 13240
0.432 0.601 1.732 12832
0.437 0.608 1.737 9200
0.438 0.609 1.727 5903
0.442 0.615 1.732 3894
0.449 0.625 1.744 1986
0.448 0.623 1.728 1833
0.448 0.624 1.718 1810
0.451 0.627 1.716 2470
0.454 0.631 1.714 3131
0.456 0.635 1.711 3658
0.459 0.639 1.709 4186
0.464 0.645 1.714 5324
0.469 0.652 1.718 6548
0.471 0.656 1.716 8168
0.474 0.659 1.713 9787
0.477 0.663 1.711 11292
0.479 0.667 1.708 12798
0.486 0.677 1.720 15934
0.489 0.680 1.717 19838
0.492 0.684 1.715 21391
0.497 0.691 1.719 20556
0.499 0.695 1.717 18059
0.504 0.702 1.721 14657
0.512 0.712 1.732 11434
0.514 0.715 1.730 13895
0.517 0.719 1.727 16356
0.517 0.720 1.717 15793
0.518 0.720 1.708 15453
0.520 0.724 1.705 15544
0.525 0.731 1.709 16590
0.530 0.738 1.713 17922
0.531 0.738 1.704 15670
0.533 0.742 1.701 13862
0.536 0.745 1.698 14051
0.539 0.749 1.696 13643
0.546 0.760 1.706 12374
0.551 0.767 1.710 12375
0.559 0.777 1.721 11499
0.566 0.788 1.732 9617
0.574 0.798 1.742 8903
0.577 0.802 1.739 13479
0.579 0.806 1.736 16558
0.584 0.813 1.740 19391
0.590 0.820 1.743 24823
0.595 0.828 1.747 30654
0.598 0.831 1.744 35341
0.603 0.839 1.748 35059
0.611 0.850 1.758 27653
0.616 0.857 1.761 23712
0.614 0.854 1.745 22299
0.614 0.854 1.735 19824
0.619 0.861 1.739 16752
0.627 0.872 1.748 15096
0.630 0.876 1.745 11716
0.632 0.880 1.742 8488
0.635 0.884 1.739 10285
0.641 0.891 1.742 11999
0.643 0.895 1.739 11580
0.646 0.899 1.735 12011
0.649 0.902 1.732 14961
0.651 0.906 1.729 19747
0.654 0.910 1.725 23970
0.657 0.914 1.722 25213
0.659 0.917 1.719 23016
0.662 0.921 1.715 19944
0.665 0.925 1.712 18578
0.670 0.932 1.715 17550
0.681 0.948 1.731 14444
0.687 0.955 1.733 11748
0.687 0.955 1.724 15315
0.695 0.967 1.733 24097
0.703 0.978 1.742 28515
0.706 0.982 1.738 21370
0.709 0.986 1.734 12834
0.708 0.986 1.725 13608
0.714 0.993 1.727 19515
0.720 1.001 1.730 19384
0.728 1.013 1.738 13938
0.734 1.021 1.741 14461
0.736 1.024 1.737 17263
0.742 1.032 1.740 14327
0.745 1.036 1.736 12858
0.747 1.040 1.732 11432
0.753 1.048 1.734 14397
0.756 1.051 1.730 21391
0.758 1.055 1.727 21727
0.764 1.063 1.729 25195
0.770 1.071 1.731 28862
0.775 1.079 1.733 18730
0.784 1.091 1.741 14713
0.784 1.090 1.731 19925
0.790 1.098 1.733 21146
0.795 1.106 1.735 18418
0.798 1.110 1.731 12632
0.807 1.122 1.739 12787
0.813 1.130 1.741 22242
0.818 1.138 1.742 27040
0.821 1.142 1.738 19097
0.824 1.146 1.734 16126
0.833 1.158 1.741 22558
0.842 1.171 1.749 26116
0.844 1.175 1.745 20459
0.841 1.170 1.729 16244
0.847 1.178 1.730 16850
0.856 1.190 1.737 17299
0.862 1.199 1.739 13786
0.867 1.207 1.740 11428
0.873 1.215 1.742 15490
0.882 1.228 1.749 24286
0.892 1.240 1.755 35698
0.898 1.249 1.757 35264
0.904 1.257 1.758 22737
0.906 1.261 1.753 15003
0.909 1.265 1.749 17523
0.915 1.273 1.750 15945
0.918 1.277 1.745 24258
0.920 1.280 1.740 26589
0.926 1.289 1.741 15857
0.926 1.288 1.731 13152
0.932 1.296 1.732 10149
0.935 1.300 1.727 15051
0.941 1.308 1.728 17119
0.950 1.321 1.734 14606
0.949 1.320 1.724 8812
0.952 1.324 1.719 9532
0.958 1.333 1.719 22469
0.961 1.336 1.714 23985
0.960 1.335 1.704 15052
0.956 1.330 1.689 15086
0.958 1.333 1.684 18172
0.964 1.342 1.684 18005
0.967 1.345 1.679 12908
0.970 1.349 1.674 14624
0.983 1.367 1.685 17890
0.985 1.370 1.680 22325
0.988 1.374 1.675 24128
0.997 1.387 1.681 23307
1.000 1.391 1.676 27016
1.002 1.395 1.671 27377
1.005 1.398 1.666 24558
1.067 1.484 1.749 31765
1.070 1.488 1.743 33808
1.073 1.492 1.738 25587
1.086 1.510 1.748 21389
1.089 1.514 1.742 18039
1.095 1.523 1.742 11900
1.105 1.537 1.746 8357
1.111 1.545 1.746 10290
1.114 1.549 1.740 10628
1.123 1.563 1.745 8742
1.144 1.591 1.764 14912
1.150 1.600 1.763 19660
1.153 1.604 1.757 17321
1.156 1.608 1.751 12052
1.180 1.642 1.775 14970
1.187 1.651 1.774 14612
1.197 1.665 1.778 12066
1.203 1.674 1.777 14837
1.206 1.678 1.771 18341
1.209 1.681 1.764 15765
1.211 1.685 1.758 12538
1.214 1.689 1.752 10126
1.243 1.729 1.779 7593
1.242 1.727 1.768 9763
1.241 1.726 1.757 11556
1.244 1.730 1.751 7635
1.272 1.770 1.778 8600
1.279 1.779 1.776 10024
1.278 1.778 1.765 8542
1.288 1.792 1.768 9538
1.295 1.801 1.766 11657
1.305 1.815 1.769 12764
1.315 1.829 1.771 14545
1.318 1.833 1.764 12251
1.317 1.832 1.753 10876
1.320 1.836 1.747 11187
1.322 1.839 1.740 8898
1.378 1.917 1.796 6303
1.381 1.921 1.789 7136
1.380 1.920 1.778 10131
1.390 1.934 1.780 10974
1.393 1.938 1.773 10037
1.411 1.963 1.783 7139
1.445 2.010 1.811 6332
1.451 2.019 1.808 8961
1.454 2.023 1.801 10064
1.457 2.027 1.794 10392
1.464 2.036 1.791 10271
1.470 2.046 1.788 10687
1.473 2.049 1.780 10022
1.472 2.048 1.768 8399
1.471 2.046 1.757 7500
1.482 2.061 1.758 8226
1.484 2.065 1.750 8201
1.487 2.069 1.743 6768
1.490 2.072 1.735 5516
1.496 2.082 1.732 4630
1.499 2.085 1.724 4668
1.537 2.139 1.754 6489
1.536 2.137 1.742 9185
1.543 2.146 1.738 8862
1.553 2.161 1.738 9366
1.560 2.170 1.734 9315
1.567 2.180 1.731 12018
1.569 2.183 1.723 15048
1.572 2.187 1.715 14193
1.575 2.191 1.707 13338
1.577 2.194 1.699 9789
1.580 2.198 1.691 5642
1.631 2.269 1.729 5117
1.630 2.267 1.717 6440
1.632 2.271 1.709 7785
1.603 2.229 1.670 7311
1.601 2.227 1.658 7164
1.657 2.304 1.699 6051
1.667 2.319 1.699 6924
1.637 2.278 1.660 7435
1.640 2.281 1.652 8486
1.651 2.296 1.651 7975
1.682 2.340 1.669 9489
1.693 2.355 1.667 13064
1.699 2.364 1.662 17418
1.706 2.373 1.657 16654
1.713 2.383 1.652 16478
1.724 2.398 1.651 13635
1.730 2.407 1.646 12554
1.733 2.410 1.637 10189
1.735 2.414 1.628 7886
1.796 2.498 1.668 5651
1.798 2.502 1.659 5875
1.797 2.500 1.647 5221
1.795 2.497 1.634 4688
1.810 2.518 1.635 5245
1.830 2.545 1.640 6152
1.832 2.549 1.631 6152
1.830 2.546 1.618 6744
1.833 2.550 1.609 7507
1.835 2.553 1.600 6316
1.842 2.562 1.594 5272
1.845 2.566 1.584 5272
1.843 2.563 1.572 4947
1.841 2.561 1.559 4851
1.843 2.564 1.550 2425
0.399 0.553 1.750 2932
0.400 0.554 1.741 4700
0.402 0.557 1.739 6470
0.407 0.564 1.744 6697
0.410 0.568 1.742 8550
0.414 0.574 1.747 10010
0.415 0.575 1.738 12612
0.416 0.576 1.728 15395
0.419 0.580 1.726 16565
0.421 0.584 1.724 17736
0.426 0.590 1.729 15402
0.429 0.594 1.727 13140
0.433 0.600 1.732 12761
0.438 0.607 1.737 9426
0.441 0.611 1.734 6376
0.444 0.615 1.732 4396
0.446 0.618 1.730 2416
0.449 0.622 1.728 2527
0.450 0.623 1.718 2694
0.452 0.627 1.716 2992
0.453 0.627 1.707 3352
0.458 0.634 1.711 3460
0.462 0.641 1.716 3699
0.467 0.647 1.721 4665
0.472 0.654 1.725 5692
0.473 0.655 1.716 7494
0.475 0.658 1.713 9337
0.478 0.662 1.711 10525
0.481 0.666 1.708 11714
0.488 0.676 1.720 14175
0.490 0.679 1.717 17511
0.495 0.686 1.722 19066
0.498 0.690 1.719 18374
0.501 0.694 1.717 15994
0.506 0.701 1.721 12861
0.513 0.711 1.732 9955
0.516 0.714 1.730 12641
0.518 0.718 1.727 15327
0.519 0.719 1.717 14645
0.521 0.722 1.715 13441
0.522 0.723 1.705 12826
0.527 0.730 1.709 13595
0.532 0.737 1.713 14714
0.534 0.740 1.711 14023
0.537 0.744 1.708 14165
0.537 0.744 1.698 15005
0.540 0.748 1.696 14031
0.548 0.758 1.706 11731
0.553 0.766 1.710 11495
0.560 0.776 1.721 11022
0.568 0.787 1.732 9536
0.575 0.797 1.742 8741
0.578 0.801 1.739 13382
0.581 0.805 1.736 16662
0.586 0.812 1.740 19280
0.591 0.819 1.743 23635
0.597 0.826 1.747 28801
0.599 0.830 1.744 33536
0.605 0.838 1.748 33616
0.610 0.845 1.751 26351
0.620 0.859 1.768 22146
0.615 0.852 1.745 21359
0.616 0.853 1.735 20163
0.621 0.860 1.739 17768
0.626 0.867 1.742 15772
0.632 0.875 1.745 11945
0.634 0.879 1.742 9610
0.637 0.882 1.739 12250
0.642 0.890 1.742 13849
0.645 0.894 1.739 13483
0.648 0.897 1.735 13922
0.650 0.901 1.732 17000
0.653 0.905 1.729 21569
0.656 0.909 1.725 24592
0.659 0.912 1.722 24462
0.661 0.916 1.719 21570
0.664 0.920 1.715 18505
0.667 0.923 1.712 17659
0.675 0.935 1.721 17362
0.683 0.946 1.731 14599
0.689 0.954 1.733 11637
0.689 0.954 1.724 14940
0.697 0.965 1.733 24239
0.702 0.973 1.735 29245
0.708 0.981 1.738 21253
0.711 0.984 1.734 11904
0.710 0.984 1.725 13345
0.716 0.992 1.727 19673
0.722 1.000 1.730 18954
0.730 1.011 1.738 13137
0.736 1.019 1.741 14108
0.738 1.023 1.737 16088
0.741 1.027 1.733 11776
0.747 1.034 1.736 9708
0.747 1.034 1.726 9182
0.752 1.042 1.728 13845
0.758 1.050 1.730 22094
0.764 1.058 1.733 21245
0.769 1.066 1.735 24121
0.775 1.073 1.737 29113
0.781 1.081 1.739 19976
0.786 1.089 1.741 16398
0.786 1.089 1.731 21996
0.795 1.101 1.739 22695
0.798 1.105 1.735 17874
0.800 1.109 1.731 11730
0.809 1.121 1.739 12383
0.815 1.129 1.741 21973
0.821 1.137 1.742 27483
0.823 1.141 1.738 20030
0.826 1.144 1.734 17339
0.832 1.152 1.736 22875
0.844 1.169 1.749 22901
0.847 1.173 1.745 18026
0.843 1.168 1.729 16751
0.849 1.176 1.730 17823
0.858 1.189 1.737 17738
0.864 1.197 1.739 13881
0.870 1.205 1.740 11846
0.873 1.209 1.736 15569
0.882 1.221 1.743 22551
0.891 1.234 1.750 30594
0.900 1.247 1.757 28990
0.903 1.251 1.752 19525
0.906 1.254 1.747 14927
0.912 1.263 1.749 19890
0.918 1.271 1.750 21276
0.920 1.275 1.745 26798
0.923 1.279 1.740 27291
0.926 1.282 1.736 18099
0.928 1.286 1.731 14900
0.934 1.294 1.732 10905
0.940 1.303 1.732 15498
0.946 1.311 1.733 17783
0.953 1.319 1.734 15286
0.955 1.323 1.729 9605
0.955 1.322 1.719 11503
0.961 1.331 1.719 24335
0.963 1.334 1.714 23746
0.963 1.333 1.704 14399
0.958 1.328 1.689 15433
0.961 1.331 1.684 18876
0.964 1.335 1.679 17354
0.970 1.343 1.679 13248
0.976 1.352 1.680 15923
0.982 1.360 1.680 18579
0.991 1.373 1.686 24131
0.994 1.377 1.681 27699
1.000 1.385 1.681 28520
1.003 1.389 1.676 32525
1.005 1.393 1.671 31782
1.008 1.396 1.666 28007
1.070 1.482 1.749 31535
1.073 1.486 1.743 33927
1.072 1.485 1.733 24674
1.089 1.508 1.748 17811
1.092 1.512 1.742 15456
1.098 1.521 1.742 10613
1.104 1.529 1.741 7403
1.114 1.543 1.746 10022
1.117 1.547 1.740 10851
1.127 1.561 1.745 9389
1.144 1.584 1.759 15319
1.150 1.593 1.758 19327
1.156 1.602 1.757 16452
1.159 1.606 1.751 11956
1.184 1.640 1.775 15298
1.186 1.643 1.769 14555
1.200 1.662 1.778 11673
1.206 1.671 1.777 16967
1.206 1.670 1.766 21699
1.212 1.679 1.764 18500
1.215 1.683 1.758 15111
1.218 1.687 1.752 12902
1.224 1.695 1.751 8065
1.245 1.725 1.768 9738
1.244 1.724 1.757 11995
1.247 1.727 1.751 8577
1.272 1.762 1.773 7785
1.279 1.771 1.771 9148
1.285 1.780 1.770 7828
1.292 1.789 1.768 9055
1.298 1.798 1.766 11084
1.312 1.818 1.773 12083
1.319 1.827 1.771 14205
1.322 1.831 1.764 11733
1.317 1.824 1.749 10244
1.365 1.891 1.797 10762
1.364 1.889 1.785 10717
1.359 1.883 1.769 7745
1.362 1.887 1.762 7514
1.388 1.922 1.782 10908
1.398 1.937 1.784 12965
1.397 1.935 1.773 12117
1.408 1.950 1.775 8254
1.453 2.012 1.816 6794
1.456 2.016 1.808 9497
1.458 2.020 1.801 10607
1.461 2.024 1.794 11442
1.468 2.033 1.791 11959
1.475 2.043 1.788 12305
1.477 2.046 1.780 11763
1.476 2.045 1.768 9990
1.471 2.038 1.752 8847
1.482 2.053 1.754 8654
1.488 2.062 1.750 8071
1.491 2.066 1.743 6562
1.494 2.069 1.735 5486
1.497 2.073 1.728 4680
1.503 2.082 1.724 4777
1.542 2.135 1.754 7350
1.540 2.134 1.742 10227
1.547 2.143 1.738 9464
1.554 2.152 1.734 8845
1.560 2.162 1.730 8219
1.571 2.176 1.731 10709
1.574 2.180 1.723 13591
1.577 2.184 1.715 13021
1.579 2.188 1.707 12451
1.582 2.191 1.699 8982
1.585 2.195 1.691 4786
1.632 2.260 1.726 4654
1.634 2.264 1.717 5839
1.637 2.268 1.709 7024
1.648 2.282 1.708 5884
1.606 2.224 1.658 5765
1.633 2.262 1.673 6206
1.639 2.271 1.669 7519
1.638 2.269 1.657 8417
1.640 2.272 1.648 9358
1.643 2.276 1.640 8775
1.687 2.336 1.669 8609
1.697 2.351 1.667 11462
1.704 2.361 1.662 15220
1.711 2.370 1.657 14891
1.718 2.379 1.652 15089
1.728 2.394 1.651 13241
1.735 2.403 1.646 12694
1.738 2.407 1.637 10268
1.740 2.410 1.628 7895
1.747 2.420 1.623 5329
1.808 2.504 1.663 4905
1.806 2.502 1.650 4366
1.775 2.459 1.614 4304
1.820 2.520 1.639 4484
1.835 2.541 1.640 5377
1.837 2.545 1.631 5377
1.840 2.548 1.621 5799
1.838 2.546 1.609 6383
1.841 2.550 1.600 5385
1.847 2.559 1.594 4534
1.850 2.562 1.584 4534
1.848 2.560 1.572 4299
1.846 2.557 1.559 4235
1.848 2.561 1.550 2117
0.403 0.554 1.758 3387
0.402 0.552 1.741 4887
0.404 0.556 1.739 6460
0.409 0.563 1.744 6759
0.412 0.566 1.742 8592
0.416 0.573 1.747 9996
0.417 0.574 1.738 12339
0.418 0.575 1.728 14823
0.421 0.579 1.726 15925
0.423 0.582 1.724 17026
0.428 0.589 1.729 14912
0.433 0.595 1.734 12928
0.435 0.599 1.732 12567
0.440 0.606 1.737 9588
0.443 0.609 1.734 6858
0.446 0.613 1.732 4906
0.448 0.617 1.730 2954
0.449 0.618 1.721 3473
0.452 0.621 1.718 4009
0.454 0.625 1.716 4254
0.455 0.626 1.707 4501
0.460 0.632 1.711 4440
0.467 0.642 1.723 4634
0.472 0.649 1.728 4913
0.474 0.652 1.725 5274
0.477 0.656 1.723 7074
0.478 0.657 1.713 8971
0.480 0.661 1.711 9800
0.483 0.664 1.708 10629
0.488 0.671 1.713 12541
0.493 0.678 1.717 15237
0.498 0.685 1.722 16832
0.500 0.688 1.719 16346
0.503 0.692 1.717 14141
0.508 0.699 1.721 11262
0.515 0.709 1.732 8551
0.518 0.713 1.730 11522
0.521 0.716 1.727 14492
0.521 0.717 1.717 13777
0.524 0.721 1.715 11588
0.526 0.724 1.712 10094
0.532 0.731 1.716 10827
0.537 0.738 1.720 11843
0.539 0.742 1.718 12894
0.540 0.742 1.708 14884
0.542 0.746 1.705 15920
0.543 0.746 1.696 14308
0.550 0.757 1.706 11152
0.555 0.764 1.710 10607
0.563 0.774 1.721 10492
0.570 0.785 1.732 9505
0.578 0.795 1.742 8730
0.581 0.799 1.739 13350
0.584 0.803 1.736 16710
0.589 0.810 1.740 19011
0.594 0.817 1.743 22164
0.599 0.824 1.747 26635
0.602 0.828 1.744 31445
0.607 0.836 1.748 31750
0.613 0.843 1.751 24882
0.623 0.857 1.768 20390
0.618 0.850 1.745 20418
0.618 0.851 1.735 20439
0.624 0.858 1.739 18701
0.629 0.865 1.742 16513
0.632 0.869 1.739 12726
0.637 0.876 1.742 10983
0.640 0.880 1.739 13795
0.645 0.888 1.742 15308
0.648 0.891 1.739 15196
0.648 0.891 1.729 15942
0.653 0.899 1.732 19130
0.656 0.903 1.729 22957
0.659 0.906 1.725 24462
0.662 0.910 1.722 22928
0.664 0.914 1.719 19368
0.667 0.918 1.715 16307
0.670 0.921 1.712 15715
0.678 0.933 1.721 15948
0.686 0.944 1.731 14196
0.692 0.952 1.733 11679
0.692 0.951 1.724 14371
0.700 0.963 1.733 23656
0.706 0.971 1.735 29594
0.711 0.978 1.738 21553
0.711 0.978 1.728 11246
0.714 0.982 1.725 12214
0.719 0.989 1.727 18735
0.725 0.997 1.730 17867
0.733 1.009 1.738 12116
0.739 1.017 1.741 13670
0.742 1.020 1.737 15101
0.742 1.020 1.727 10163
0.747 1.028 1.730 7872
0.747 1.028 1.720 8153
0.753 1.035 1.722 13406
0.761 1.047 1.730 22030
0.767 1.055 1.733 20163
0.773 1.063 1.735 22797
0.778 1.071 1.737 29033
0.784 1.079 1.739 21138
0.790 1.087 1.741 18161
0.793 1.090 1.737 24122
0.798 1.098 1.739 24183
0.804 1.106 1.741 17710
0.801 1.102 1.725 11183
0.810 1.114 1.733 12552
0.819 1.126 1.741 21769
0.824 1.134 1.742 27283
0.827 1.138 1.738 20529
0.830 1.142 1.734 18432
0.836 1.150 1.736 23190
0.845 1.162 1.743 20008
0.847 1.166 1.739 15568
0.847 1.165 1.729 16559
0.853 1.173 1.730 17983
0.862 1.186 1.737 17772
0.868 1.194 1.739 14331
0.874 1.202 1.740 13188
0.877 1.206 1.736 16245
0.886 1.218 1.743 20682
0.895 1.231 1.750 24352
0.901 1.239 1.751 21348
0.907 1.248 1.752 15402
0.910 1.251 1.747 13616
0.916 1.260 1.749 20171
0.922 1.268 1.750 24479
0.924 1.272 1.745 28181
0.927 1.275 1.740 27850
0.930 1.279 1.736 20469
0.933 1.283 1.731 16660
0.942 1.296 1.737 11847
0.945 1.300 1.732 15253
0.951 1.308 1.733 17920
0.957 1.316 1.734 15789
0.963 1.325 1.735 10667
0.962 1.324 1.724 13222
0.965 1.327 1.719 24880
0.971 1.336 1.720 22787
0.970 1.335 1.710 13303
0.963 1.324 1.689 14911
0.965 1.328 1.684 19146
0.972 1.336 1.684 16997
0.974 1.340 1.679 13280
0.980 1.348 1.680 16229
0.986 1.357 1.680 18168
0.996 1.370 1.686 25058
0.999 1.374 1.681 30554
1.005 1.382 1.681 32874
1.007 1.386 1.676 37312
1.010 1.389 1.671 35199
1.012 1.393 1.666 29943
1.075 1.479 1.749 30342
1.078 1.483 1.743 33591
1.077 1.481 1.733 24084
1.080 1.485 1.727 14595
1.093 1.504 1.737 12779
1.099 1.512 1.737 9221
1.109 1.526 1.741 6364
1.119 1.539 1.746 9582
1.122 1.543 1.740 11115
1.132 1.557 1.745 10208
1.149 1.580 1.759 15716
1.155 1.589 1.758 18855
1.158 1.593 1.752 15368
1.164 1.602 1.751 11450
1.189 1.636 1.775 15146
1.188 1.634 1.764 14717
1.206 1.658 1.778 12031
1.212 1.667 1.777 18689
1.211 1.666 1.766 23955
1.218 1.675 1.764 20205
1.220 1.679 1.758 16888
1.223 1.683 1.752 15234
1.226 1.686 1.746 9393
1.247 1.716 1.764 9961
1.250 1.719 1.757 12418
1.256 1.728 1.756 9594
1.274 1.753 1.768 7507
1.284 1.767 1.771 8218
1.291 1.776 1.770 6965
1.298 1.785 1.768 8563
1.304 1.794 1.766 10560
1.318 1.813 1.773 11232
1.329 1.828 1.776 13386
1.328 1.826 1.764 10811
1.365 1.877 1.799 10538
1.367 1.881 1.792 12521
1.366 1.880 1.781 12510
1.365 1.878 1.769 9089
1.368 1.882 1.762 8002
1.398 1.923 1.787 11436
1.404 1.932 1.784 14642
1.403 1.931 1.773 13902
1.402 1.929 1.761 9629
1.459 2.007 1.816 7279
1.466 2.017 1.813 9795
1.465 2.015 1.801 10791
1.468 2.019 1.794 12177
1.475 2.028 1.791 13417
1.481 2.038 1.788 13620
1.484 2.042 1.780 13116
1.479 2.035 1.764 11168
1.478 2.033 1.752 9842
1.489 2.048 1.754 8811
1.495 2.057 1.750 7642
1.494 2.055 1.739 6130
1.497 2.059 1.731 5318
1.503 2.068 1.728 4749
1.510 2.077 1.724 4820
1.545 2.125 1.749 8072
1.547 2.129 1.742 11116
1.554 2.138 1.738 9961
1.561 2.147 1.734 8459
1.568 2.156 1.730 7226
1.578 2.171 1.731 9387
1.581 2.175 1.723 12054
1.584 2.179 1.715 11743
1.586 2.182 1.707 11431
1.589 2.186 1.699 8133
1.608 2.212 1.706 4105
1.635 2.249 1.722 4195
1.642 2.258 1.717 5274
1.649 2.268 1.713 6383
1.651 2.271 1.705 5792
1.642 2.258 1.685 5442
1.644 2.262 1.677 7057
1.647 2.265 1.669 8672
1.645 2.263 1.657 9336
1.648 2.267 1.648 10048
1.650 2.270 1.640 9483
1.653 2.274 1.632 8917
1.709 2.351 1.671 9870
1.716 2.361 1.666 12926
1.723 2.370 1.661 13015
1.730 2.379 1.656 13507
1.736 2.388 1.651 12567
1.743 2.398 1.646 12465
1.746 2.401 1.637 9998
1.748 2.405 1.628 7573
1.755 2.414 1.623 5105
1.820 2.504 1.666 4171
1.777 2.444 1.619 3943
1.771 2.436 1.603 4851
1.773 2.439 1.595 4851
1.771 2.437 1.582 4450
1.846 2.539 1.631 4378
1.848 2.542 1.621 4639
1.846 2.540 1.609 5028
1.853 2.549 1.603 4361
1.860 2.558 1.597 3832
1.862 2.562 1.588 3832
1.861 2.559 1.575 3737
1.859 2.557 1.562 3733
1.861 2.560 1.553 1866
0.403 0.553 1.758 3818
0.402 0.552 1.741 5054
0.405 0.556 1.739 6412
0.410 0.562 1.744 6762
0.412 0.566 1.742 8572
0.417 0.572 1.747 9924
0.418 0.573 1.738 12036
0.419 0.574 1.728 14233
0.421 0.578 1.726 15240
0.424 0.582 1.724 16247
0.429 0.588 1.729 14344
0.433 0.595 1.734 12642
0.436 0.599 1.732 12299
0.441 0.605 1.737 9691
0.444 0.609 1.734 7280
0.446 0.613 1.732 5406
0.447 0.613 1.723 3609
0.450 0.617 1.721 4512
0.452 0.621 1.718 5415
0.455 0.625 1.716 5758
0.458 0.628 1.714 6101
0.463 0.635 1.718 5992
0.467 0.641 1.723 6288
0.472 0.648 1.728 5744
0.477 0.655 1.732 5360
0.478 0.656 1.723 7067
0.480 0.659 1.720 8858
0.481 0.660 1.711 9238
0.484 0.664 1.708 9668
0.489 0.670 1.713 10930
0.493 0.677 1.717 12759
0.498 0.684 1.722 14283
0.501 0.688 1.719 13864
0.504 0.691 1.717 11783
0.507 0.695 1.714 9542
0.518 0.711 1.739 7413
0.519 0.712 1.730 10619
0.522 0.716 1.727 13915
0.522 0.716 1.717 13068
0.525 0.720 1.715 9823
0.530 0.727 1.719 7493
0.535 0.734 1.723 8140
0.549 0.754 1.754 9933
0.545 0.748 1.731 12255
0.543 0.745 1.715 15942
0.543 0.745 1.705 16844
0.546 0.749 1.702 14720
0.548 0.753 1.700 10821
0.556 0.763 1.710 9790
0.566 0.777 1.728 9946
0.571 0.784 1.732 9418
0.577 0.791 1.735 8873
0.579 0.795 1.732 13722
0.584 0.802 1.736 17109
0.590 0.809 1.740 18949
0.595 0.817 1.743 20733
0.600 0.824 1.747 24508
0.603 0.828 1.744 29649
0.608 0.835 1.748 30057
0.614 0.842 1.751 23644
0.616 0.846 1.748 18712
0.617 0.846 1.738 20098
0.617 0.846 1.729 21331
0.622 0.854 1.732 20446
0.627 0.861 1.735 18178
0.633 0.868 1.739 14788
0.636 0.872 1.735 13244
0.644 0.883 1.745 15471
0.646 0.887 1.742 16774
0.649 0.891 1.739 17147
0.649 0.891 1.729 18553
0.655 0.898 1.732 21917
0.657 0.902 1.729 24541
0.660 0.906 1.725 24049
0.663 0.909 1.722 20754
0.665 0.913 1.719 16345
0.665 0.913 1.709 13303
0.671 0.920 1.712 12926
0.682 0.936 1.728 13822
0.690 0.947 1.737 13893
0.693 0.951 1.733 12271
0.693 0.951 1.724 14029
0.701 0.962 1.733 22949
0.707 0.970 1.735 30056
0.709 0.974 1.732 22778
0.712 0.977 1.728 11309
0.712 0.977 1.718 10612
0.720 0.989 1.727 16934
0.726 0.996 1.730 16135
0.738 1.012 1.745 10840
0.743 1.020 1.747 13184
0.743 1.020 1.737 13973
0.743 1.019 1.727 9296
0.743 1.019 1.717 7300
0.745 1.023 1.714 8043
0.751 1.030 1.716 13092
0.760 1.042 1.724 20997
0.768 1.054 1.733 18261
0.774 1.062 1.735 20984
0.780 1.070 1.737 28529
0.785 1.078 1.739 22333
0.791 1.086 1.741 20399
0.794 1.090 1.737 26879
0.800 1.097 1.739 25725
0.806 1.105 1.741 17639
0.805 1.105 1.731 10410
0.811 1.113 1.733 12671
0.820 1.125 1.741 21558
0.826 1.133 1.742 26967
0.828 1.137 1.738 21125
0.831 1.141 1.734 19534
0.837 1.149 1.736 23302
0.846 1.161 1.743 17239
0.849 1.165 1.739 12926
0.848 1.164 1.729 15285
0.854 1.172 1.730 17622
0.860 1.180 1.732 18094
0.866 1.189 1.733 15319
0.872 1.197 1.734 15840
0.875 1.200 1.730 17954
0.887 1.217 1.743 18777
0.896 1.230 1.750 16834
0.902 1.238 1.751 12157
0.908 1.247 1.752 10067
0.911 1.250 1.747 10946
0.917 1.259 1.749 18471
0.920 1.262 1.744 25283
0.926 1.271 1.745 28247
0.929 1.274 1.740 27840
0.931 1.278 1.736 22001
0.934 1.282 1.731 18106
0.944 1.295 1.737 13174
0.946 1.299 1.732 14723
0.952 1.307 1.733 17547
0.962 1.320 1.739 16332
0.965 1.324 1.735 11704
0.964 1.323 1.724 14108
0.967 1.326 1.719 24178
0.973 1.335 1.720 21307
0.972 1.334 1.710 11704
0.964 1.323 1.689 13320
0.967 1.327 1.684 18636
0.973 1.335 1.684 16814
0.976 1.339 1.679 12872
0.982 1.347 1.680 15737
0.988 1.356 1.680 17151
0.997 1.369 1.686 25200
1.000 1.372 1.681 32533
1.006 1.381 1.681 36493
1.009 1.384 1.676 41489
1.011 1.388 1.671 37938
1.018 1.396 1.671 30854
1.073 1.473 1.743 28519
1.079 1.481 1.743 32909
1.075 1.475 1.727 23659
1.074 1.474 1.717 13804
1.080 1.483 1.717 10535
1.097 1.506 1.732 7852
1.111 1.524 1.741 5181
1.121 1.538 1.746 8758
1.124 1.542 1.740 11183
1.134 1.555 1.745 11216
1.147 1.574 1.754 16400
1.153 1.583 1.753 18216
1.160 1.592 1.752 13863
1.163 1.595 1.746 10652
1.191 1.634 1.775 14590
1.194 1.638 1.769 14999
1.204 1.652 1.773 13119
1.210 1.661 1.772 19961
1.213 1.665 1.766 25141
1.220 1.673 1.764 21024
1.222 1.677 1.758 17998
1.225 1.681 1.752 17204
1.232 1.690 1.751 11436
1.249 1.714 1.764 10772
1.256 1.723 1.762 12897
1.258 1.727 1.756 10834
1.269 1.741 1.759 7868
1.283 1.760 1.767 7174
1.297 1.780 1.774 6019
1.303 1.789 1.772 8172
1.306 1.792 1.766 10179
1.320 1.812 1.773 10263
1.331 1.826 1.776 12246
1.333 1.830 1.769 9511
1.367 1.876 1.799 10916
1.370 1.879 1.792 13810
1.365 1.873 1.776 14017
1.368 1.877 1.769 10187
1.366 1.875 1.758 8280
1.400 1.921 1.787 12027
1.407 1.930 1.784 16117
1.406 1.929 1.773 15593
1.405 1.927 1.761 11251
1.462 2.006 1.816 7830
1.468 2.015 1.813 9941
1.467 2.014 1.801 10715
1.470 2.018 1.794 12740
1.477 2.027 1.791 14814
1.484 2.036 1.788 14718
1.486 2.040 1.780 14153
1.481 2.033 1.764 12119
1.480 2.031 1.752 10509
1.487 2.040 1.749 8720
1.498 2.055 1.750 6891
1.492 2.048 1.734 5575
1.499 2.057 1.731 5044
1.502 2.061 1.724 4835
1.516 2.081 1.728 4874
1.547 2.123 1.749 8860
1.550 2.127 1.742 12076
1.553 2.131 1.734 10661
1.559 2.140 1.730 8340
1.570 2.155 1.730 6390
1.581 2.169 1.731 8098
1.584 2.173 1.723 10489
1.586 2.177 1.715 10371
1.589 2.180 1.707 10253
1.592 2.184 1.699 7216
1.619 2.221 1.714 4158
1.625 2.230 1.710 4261
1.644 2.257 1.717 4957
1.651 2.266 1.713 6058
1.646 2.258 1.697 6177
1.644 2.256 1.685 6528
1.647 2.260 1.677 8199
1.649 2.264 1.669 9869
1.652 2.267 1.660 10181
1.651 2.265 1.648 10594
1.653 2.269 1.640 10061
1.656 2.272 1.632 9528
1.662 2.281 1.627 8653
1.719 2.359 1.666 10660
1.726 2.368 1.661 11170
1.732 2.377 1.656 12020
1.739 2.386 1.651 11680
1.746 2.396 1.646 11934
1.748 2.399 1.637 9482
1.751 2.403 1.628 7056
1.758 2.412 1.623 4879
1.844 2.530 1.684 3914
1.771 2.430 1.612 4218
1.774 2.434 1.603 5421
1.776 2.437 1.595 5421
1.774 2.435 1.582 4952
1.777 2.438 1.574 4489
1.851 2.540 1.621 3237
1.849 2.538 1.609 3482
1.856 2.547 1.603 3303
1.863 2.556 1.597 3384
1.865 2.560 1.588 3384
1.868 2.563 1.578 3382
1.866 2.561 1.566 3460
1.868 2.564 1.556 1730
0.403 0.549 1.750 4021
0.404 0.551 1.741 5039
0.407 0.554 1.739 6149
0.411 0.561 1.744 6511
0.414 0.564 1.742 8361
0.419 0.571 1.747 9738
0.420 0.572 1.738 11601
0.422 0.576 1.736 13514
0.423 0.577 1.726 14371
0.426 0.580 1.724 15239
0.431 0.587 1.729 13561
0.435 0.593 1.734 12214
0.438 0.597 1.732 11910
0.443 0.604 1.737 9671
0.446 0.607 1.734 7543
0.448 0.611 1.732 5768
0.443 0.603 1.702 4329
0.452 0.616 1.721 5381
0.454 0.619 1.718 6585
0.457 0.623 1.716 7079
0.460 0.627 1.714 7574
0.465 0.633 1.718 7562
0.470 0.640 1.723 8012
0.474 0.647 1.728 6802
0.486 0.662 1.753 6195
0.482 0.657 1.730 7354
0.483 0.658 1.720 8997
0.485 0.661 1.718 8977
0.488 0.665 1.715 8957
0.491 0.669 1.713 9407
0.496 0.676 1.717 10142
0.501 0.682 1.722 11594
0.503 0.686 1.719 11366
0.506 0.690 1.717 9533
0.509 0.693 1.714 8051
0.512 0.697 1.712 6569
0.521 0.710 1.730 9880
0.524 0.714 1.727 13421
0.527 0.718 1.724 12582
0.529 0.721 1.722 8542
0.534 0.728 1.726 5477
0.549 0.748 1.757 7204
0.552 0.752 1.754 9191
0.550 0.749 1.738 12033
0.545 0.743 1.715 16866
0.548 0.747 1.712 17381
0.548 0.747 1.702 14926
0.551 0.751 1.700 10431
0.556 0.758 1.704 8980
0.569 0.775 1.728 9256
0.574 0.782 1.732 9215
0.579 0.789 1.735 9183
0.582 0.793 1.732 14400
0.585 0.797 1.729 17715
0.590 0.804 1.733 18953
0.595 0.811 1.737 19247
0.600 0.818 1.740 22657
0.603 0.822 1.737 27976
0.611 0.833 1.748 28373
0.614 0.837 1.744 22697
0.619 0.844 1.748 18106
0.619 0.844 1.738 20121
0.619 0.844 1.729 22483
0.625 0.852 1.732 22509
0.630 0.859 1.735 20434
0.636 0.866 1.739 17329
0.638 0.870 1.735 15669
0.646 0.881 1.745 16730
0.649 0.885 1.742 17905
0.652 0.889 1.739 18931
0.652 0.889 1.729 21015
0.657 0.896 1.732 24568
0.660 0.900 1.729 25738
0.663 0.903 1.725 23009
0.666 0.907 1.722 17889
0.668 0.911 1.719 12664
0.668 0.911 1.709 9682
0.677 0.922 1.718 9443
0.688 0.937 1.734 11282
0.693 0.945 1.737 13584
0.693 0.945 1.727 13485
0.696 0.948 1.724 14063
0.704 0.960 1.733 22154
0.710 0.967 1.735 30271
0.713 0.971 1.732 24169
0.715 0.975 1.728 12432
0.718 0.979 1.725 9489
0.724 0.986 1.727 14557
0.729 0.994 1.730 14110
0.741 1.010 1.745 9500
0.747 1.017 1.747 12339
0.746 1.017 1.737 12466
0.743 1.013 1.721 8664
0.743 1.012 1.711 7408
0.746 1.016 1.707 8549
0.754 1.028 1.716 12785
0.763 1.040 1.724 18583
0.772 1.052 1.733 15554
0.780 1.064 1.741 19173
0.783 1.067 1.737 27493
0.789 1.075 1.739 23346
0.795 1.083 1.741 22658
0.798 1.087 1.737 29427
0.803 1.095 1.739 27044
0.809 1.103 1.741 17804
0.809 1.102 1.731 10172
0.815 1.110 1.733 12917
0.824 1.122 1.741 21203
0.829 1.130 1.742 26387
0.832 1.134 1.738 21448
0.835 1.138 1.734 20257
0.841 1.146 1.736 23027
0.847 1.154 1.737 15311
0.853 1.162 1.739 10462
0.849 1.157 1.723 13140
0.858 1.170 1.730 17136
0.864 1.178 1.732 18827
0.870 1.186 1.733 16482
0.876 1.194 1.734 18462
0.879 1.198 1.730 19957
0.891 1.215 1.743 17429
0.897 1.223 1.744 11973
0.906 1.235 1.751 4874
0.912 1.244 1.752 5073
0.912 1.243 1.742 8051
0.921 1.256 1.749 15225
0.924 1.259 1.744 23332
0.927 1.263 1.739 26436
0.933 1.271 1.740 26723
0.932 1.271 1.730 22055
0.935 1.274 1.725 18421
0.944 1.287 1.732 14025
0.951 1.295 1.732 13845
0.960 1.308 1.739 16989
0.966 1.317 1.739 16671
0.969 1.320 1.735 12276
0.968 1.319 1.724 13906
0.971 1.323 1.719 22167
0.977 1.332 1.720 19273
0.976 1.331 1.710 9686
0.972 1.325 1.694 11127
0.975 1.329 1.689 17444
0.977 1.332 1.684 16322
0.980 1.336 1.679 11909
0.986 1.344 1.680 14331
0.992 1.352 1.680 15468
1.002 1.366 1.686 24173
1.005 1.369 1.681 32750
1.011 1.378 1.681 37806
1.017 1.386 1.681 43207
1.016 1.385 1.671 38758
1.022 1.393 1.671 30201
1.078 1.469 1.743 25807
1.084 1.478 1.743 31560
1.080 1.472 1.727 23666
1.079 1.471 1.717 13772
1.085 1.479 1.717 10657
1.102 1.502 1.732 7336
1.112 1.516 1.736 5064
1.122 1.529 1.741 7707
1.129 1.538 1.740 10883
1.139 1.552 1.745 12055
1.152 1.570 1.754 16613
1.159 1.579 1.753 17468
1.161 1.583 1.747 12472
1.164 1.587 1.741 10199
1.196 1.630 1.775 13590
1.199 1.634 1.769 15054
1.209 1.648 1.773 14129
1.216 1.657 1.772 19884
1.219 1.661 1.766 24424
1.225 1.669 1.764 20503
1.224 1.668 1.753 18252
1.231 1.677 1.752 18492
1.237 1.686 1.751 13780
1.251 1.705 1.759 11999
1.261 1.719 1.762 13274
1.264 1.723 1.756 11859
1.267 1.727 1.750 8898
1.285 1.751 1.762 6781
1.303 1.775 1.774 5176
1.309 1.784 1.772 7946
1.312 1.788 1.766 9983
1.319 1.797 1.764 9376
1.337 1.822 1.776 10828
1.339 1.825 1.769 8171
1.373 1.871 1.799 10784
1.372 1.870 1.787 14436
1.371 1.868 1.776 14901
1.362 1.856 1.756 11097
1.369 1.865 1.753 8137
1.406 1.917 1.787 12232
1.413 1.926 1.784 16851
1.412 1.924 1.773 16701
1.411 1.923 1.761 12605
1.468 2.001 1.816 8358
1.471 2.005 1.808 9900
1.474 2.009 1.801 10325
1.477 2.013 1.794 12896
1.484 2.022 1.791 15799
1.490 2.031 1.788 15357
1.493 2.035 1.780 14656
1.488 2.028 1.764 12547
1.487 2.026 1.752 10712
1.494 2.036 1.749 8369
1.504 2.050 1.750 5896
1.499 2.043 1.734 4879
1.510 2.058 1.735 4649
1.513 2.061 1.728 4830
1.527 2.081 1.733 5209
1.554 2.118 1.749 9476
1.557 2.122 1.742 12829
1.560 2.125 1.734 11277
1.562 2.129 1.726 8568
1.573 2.144 1.726 6041
1.584 2.159 1.727 7265
1.591 2.168 1.723 9331
1.593 2.172 1.715 9277
1.596 2.175 1.707 9223
1.599 2.179 1.699 6497
1.630 2.221 1.718 4664
1.633 2.225 1.710 4856
1.648 2.246 1.713 5056
1.655 2.255 1.709 6093
1.653 2.253 1.697 6838
1.656 2.256 1.689 7787
1.654 2.254 1.677 9213
1.657 2.258 1.669 10701
1.660 2.262 1.660 10685
1.658 2.260 1.648 10748
1.661 2.263 1.640 10231
1.663 2.267 1.632 9714
1.670 2.276 1.627 8956
1.731 2.359 1.670 8574
1.737 2.368 1.665 9437
1.740 2.371 1.656 10570
1.747 2.381 1.651 10599
1.754 2.390 1.646 11043
1.756 2.393 1.637 8696
1.759 2.397 1.628 6353
1.766 2.406 1.623 4635
1.857 2.530 1.687 4309
1.779 2.424 1.612 4460
1.777 2.422 1.600 5772
1.780 2.426 1.591 5772
1.782 2.429 1.582 5202
1.785 2.432 1.574 4632
1.787 2.436 1.565 2953
1.853 2.526 1.606 2035
1.873 2.553 1.609 2465
1.876 2.556 1.600 3260
1.878 2.559 1.591 3260
1.881 2.563 1.581 3400
1.879 2.560 1.569 3600
1.881 2.564 1.560 1800
0.405 0.548 1.750 4301
0.405 0.549 1.741 5036
0.408 0.553 1.739 5809
0.413 0.560 1.744 6178
0.416 0.563 1.742 8009
0.420 0.570 1.747 9353
0.421 0.571 1.738 10995
0.424 0.575 1.736 12701
0.425 0.576 1.726 13417
0.427 0.579 1.724 14194
0.432 0.586 1.729 12704
0.437 0.592 1.734 11634
0.440 0.596 1.732 11380
0.445 0.602 1.737 9485
0.447 0.606 1.734 7639
0.448 0.607 1.725 5983
0.444 0.602 1.702 4950
0.453 0.614 1.721 6004
0.456 0.618 1.718 7413
0.459 0.622 1.716 8109
0.462 0.625 1.714 8805
0.466 0.632 1.718 8920
0.471 0.639 1.723 9551
0.476 0.645 1.728 7921
0.488 0.661 1.753 7003
0.484 0.656 1.730 7976
0.484 0.656 1.720 9314
0.487 0.660 1.718 9043
0.490 0.664 1.715 8772
0.495 0.671 1.720 8275
0.498 0.674 1.717 7856
0.503 0.681 1.722 9152
0.505 0.685 1.719 9006
0.508 0.688 1.717 7404
0.511 0.692 1.714 6789
0.513 0.696 1.712 6173
0.521 0.706 1.723 9459
0.526 0.713 1.727 13158
0.529 0.716 1.724 12510
0.534 0.723 1.728 8341
0.539 0.730 1.733 5459
0.551 0.747 1.757 7112
0.554 0.751 1.754 8704
0.552 0.748 1.738 12538
0.547 0.742 1.715 17558
0.550 0.745 1.712 17743
0.550 0.746 1.702 14921
0.553 0.749 1.700 10058
0.558 0.756 1.704 8331
0.571 0.773 1.728 8545
0.576 0.781 1.732 8990
0.579 0.784 1.729 9604
0.584 0.791 1.732 15119
0.587 0.795 1.729 18337
0.592 0.802 1.733 18992
0.597 0.809 1.737 18079
0.603 0.817 1.740 21094
0.605 0.820 1.737 27078
0.611 0.828 1.741 27350
0.616 0.835 1.744 22190
0.619 0.839 1.741 17910
0.619 0.839 1.732 20626
0.622 0.843 1.729 23841
0.627 0.850 1.732 24794
0.633 0.857 1.735 22994
0.638 0.865 1.739 20047
0.641 0.868 1.735 18034
0.649 0.879 1.745 17543
0.652 0.883 1.742 18627
0.654 0.887 1.739 20455
0.654 0.887 1.729 23250
0.660 0.894 1.732 27059
0.663 0.898 1.729 26746
0.665 0.902 1.725 21849
0.668 0.905 1.722 15080
0.671 0.909 1.719 9175
0.674 0.913 1.715 6343
0.682 0.924 1.725 6238
0.690 0.935 1.734 9237
0.693 0.939 1.731 13470
0.696 0.943 1.727 14959
0.698 0.946 1.724 14338
0.707 0.958 1.733 21404
0.713 0.966 1.735 30326
0.715 0.969 1.732 25534
0.718 0.973 1.728 14230
0.721 0.977 1.725 9174
0.726 0.984 1.727 12502
0.729 0.988 1.724 12716
0.741 1.004 1.738 8739
0.749 1.015 1.747 11392
0.749 1.015 1.737 10849
0.746 1.011 1.721 8486
0.746 1.010 1.711 7954
0.748 1.014 1.707 9403
0.754 1.022 1.710 13123
0.763 1.034 1.718 15633
0.775 1.050 1.733 13189
0.783 1.062 1.741 18067
0.789 1.069 1.743 26367
0.792 1.073 1.739 23647
0.798 1.081 1.741 24139
0.800 1.085 1.737 31317
0.806 1.093 1.739 28027
0.812 1.101 1.741 17973
0.812 1.100 1.731 10054
0.818 1.108 1.733 12963
0.827 1.120 1.741 20726
0.833 1.128 1.742 25630
0.835 1.132 1.738 21438
0.838 1.136 1.734 20503
0.844 1.144 1.736 22518
0.850 1.152 1.737 14159
0.856 1.160 1.739 8911
0.855 1.159 1.729 11379
0.861 1.167 1.730 17501
0.870 1.180 1.737 20101
0.873 1.183 1.733 17538
0.879 1.191 1.734 20531
0.882 1.195 1.730 21853
0.891 1.208 1.737 16910
0.900 1.220 1.744 13230
0.903 1.224 1.740 8649
0.909 1.232 1.741 5436
0.915 1.240 1.742 6541
0.921 1.249 1.743 12285
0.927 1.257 1.744 19786
0.930 1.261 1.739 23375
0.933 1.264 1.735 24844
0.936 1.268 1.730 21489
0.938 1.272 1.725 17681
0.948 1.285 1.732 13063
0.957 1.297 1.738 11894
0.964 1.306 1.739 16087
0.970 1.314 1.739 16727
0.972 1.318 1.735 12606
0.972 1.317 1.724 13140
0.975 1.321 1.719 19704
0.981 1.329 1.720 17212
0.987 1.337 1.720 8055
0.976 1.322 1.694 8713
0.982 1.331 1.694 15690
0.985 1.334 1.690 15415
0.987 1.338 1.685 10724
0.990 1.341 1.680 12341
0.996 1.350 1.680 13345
1.009 1.368 1.691 22576
1.012 1.371 1.686 31697
1.015 1.375 1.681 37066
1.021 1.383 1.681 42760
1.023 1.387 1.676 38606
1.026 1.390 1.671 28910
1.082 1.466 1.743 22729
1.085 1.470 1.738 30525
1.084 1.469 1.727 23982
1.083 1.468 1.717 14365
1.089 1.476 1.717 11378
1.106 1.499 1.732 7340
1.120 1.518 1.741 5852
1.126 1.526 1.741 7088
1.136 1.540 1.745 10399
1.143 1.549 1.745 12153
1.157 1.567 1.754 15818
1.163 1.576 1.753 16007
1.162 1.575 1.742 11415
1.165 1.578 1.737 10458
1.204 1.632 1.780 12654
1.207 1.636 1.774 15042
1.210 1.640 1.768 14658
1.220 1.653 1.772 18402
1.223 1.657 1.766 22193
1.230 1.666 1.764 19260
1.229 1.665 1.753 18526
1.231 1.669 1.747 19583
1.245 1.688 1.756 16642
1.252 1.696 1.754 13780
1.266 1.716 1.762 13371
1.269 1.719 1.756 12673
1.268 1.718 1.745 10375
