0.007 3.347 1.728 5115
0.007 3.358 1.722 5049
0.007 3.363 1.712 5034
0.007 3.382 1.708 3857
0.008 3.531 1.764 4544
0.008 3.543 1.757 4650
0.008 3.547 1.746 4837
0.008 3.552 1.736 4837
0.008 3.556 1.726 2418
0.003 1.566 0.843 319
0.003 0.666 1.714 19403
0.003 0.670 1.712 21690
0.003 0.678 1.717 24033
0.003 0.682 1.715 21941
0.003 0.690 1.720 20386
0.003 0.695 1.718 20783
0.003 0.696 1.709 20718
0.003 0.701 1.707 21201
0.003 0.705 1.705 22460
0.003 0.713 1.710 23921
0.003 0.718 1.708 21143
0.003 0.726 1.713 18869
0.003 0.730 1.710 16170
0.003 0.745 1.730 13813
0.003 0.750 1.727 13687
0.003 0.754 1.725 13593
0.003 0.759 1.723 13499
0.003 0.767 1.728 11875
0.003 0.775 1.732 10574
0.003 0.776 1.723 11291
0.003 0.774 1.707 12853
0.003 0.778 1.704 11243
0.003 0.783 1.702 9632
0.004 0.787 1.700 8332
0.004 0.792 1.697 7033
0.004 0.789 1.681 6149
0.004 0.793 1.678 5446
0.004 0.824 1.725 8249
0.004 0.829 1.722 11936
0.004 0.833 1.720 14828
0.004 0.842 1.724 16951
0.004 0.850 1.729 15764
0.004 0.859 1.733 13492
0.004 0.863 1.730 12202
0.004 0.868 1.728 9944
0.004 0.869 1.718 7855
0.004 0.877 1.723 9480
0.004 0.882 1.720 11273
0.004 0.886 1.717 13414
0.004 0.895 1.722 14528
0.004 0.903 1.726 13535
0.004 0.908 1.723 14667
0.004 0.913 1.720 15799
0.004 0.917 1.718 17493
0.004 0.922 1.715 18588
0.004 0.926 1.712 17989
0.004 0.939 1.723 24354
0.004 0.948 1.727 30177
0.004 0.957 1.731 31352
0.004 0.961 1.728 27954
0.004 0.966 1.725 19290
0.004 0.979 1.735 16322
0.004 0.984 1.732 16818
0.004 0.988 1.729 17631
0.004 0.997 1.733 20101
0.004 1.002 1.730 21189
0.005 1.019 1.747 14371
0.005 1.041 1.771 11320
0.005 1.050 1.774 16685
0.005 1.055 1.771 22744
0.005 1.055 1.761 26587
0.005 1.060 1.758 22911
0.005 1.069 1.761 13621
0.005 1.074 1.758 8413
0.005 1.065 1.735 11824
0.005 1.070 1.732 16806
0.005 1.084 1.742 20915
0.005 1.088 1.739 18747
0.005 1.093 1.736 12645
0.005 1.097 1.732 9846
0.005 1.107 1.735 9209
0.005 1.125 1.751 10200
0.005 1.134 1.754 12118
0.005 1.139 1.751 10077
0.005 1.134 1.735 7844
0.005 1.130 1.719 11664
0.005 1.144 1.728 16209
0.005 1.153 1.731 22877
0.005 1.162 1.734 26087
0.005 1.172 1.737 21488
0.005 1.172 1.727 13059
0.005 1.181 1.730 8857
0.005 1.195 1.739 12277
0.005 1.200 1.735 15642
0.005 1.200 1.725 16969
0.005 1.209 1.728 16350
0.005 1.219 1.731 13460
0.005 1.223 1.727 12742
0.006 1.233 1.730 16629
0.006 1.237 1.726 15584
0.006 1.252 1.735 12283
0.006 1.271 1.749 21142
0.006 1.276 1.746 25919
0.006 1.286 1.748 18590
0.006 1.291 1.744 14397
0.006 1.300 1.746 17513
0.006 1.315 1.755 19642
0.006 1.325 1.757 21913
0.006 1.324 1.747 21280
0.006 1.329 1.743 14750
0.006 1.334 1.739 12037
0.006 1.349 1.747 14821
0.006 1.358 1.749 18971
0.006 1.363 1.745 17438
0.006 1.368 1.741 10851
0.006 1.399 1.767 5938
0.006 1.403 1.762 8603
0.006 1.397 1.746 8814
0.006 1.397 1.736 9784
0.006 1.407 1.738 11509
0.006 1.417 1.740 15469
0.006 1.421 1.736 18998
0.006 1.431 1.737 14760
0.006 1.441 1.739 9673
0.006 1.446 1.735 8257
0.007 1.461 1.742 7788
0.007 1.477 1.749 6727
0.007 1.476 1.739 6168
0.007 1.464 1.717 6713
0.007 1.485 1.730 8078
0.007 1.523 1.760 11188
0.007 1.533 1.761 19656
0.007 1.532 1.751 31821
0.007 1.542 1.752 45088
0.007 1.547 1.747 50468
0.007 1.557 1.749 45851
0.007 1.562 1.744 24488
0.007 1.561 1.734 27523
0.007 1.566 1.729 44614
0.007 1.570 1.724 40961
0.007 1.581 1.725 39460
0.007 1.591 1.726 24776
0.007 1.612 1.738 19254
0.007 1.628 1.744 19890
0.007 1.639 1.745 26268
0.007 1.638 1.735 28667
0.007 1.642 1.730 23416
0.007 1.653 1.730 30510
0.007 1.657 1.725 32977
0.007 1.668 1.726 15912
0.008 1.690 1.737 4109
0.008 1.694 1.732 5923
0.008 1.705 1.732 9222
0.008 1.715 1.733 12176
0.008 1.714 1.722 12522
0.008 1.724 1.722 7525
0.008 1.759 1.744 9597
0.008 1.763 1.739 11334
0.008 1.786 1.749 17670
0.008 1.796 1.749 32592
0.008 1.801 1.744 38275
0.008 1.800 1.733 35063
0.008 1.810 1.733 24697
0.008 1.827 1.738 14093
0.008 1.843 1.743 12007
0.008 1.854 1.743 13849
0.008 1.865 1.742 15056
0.008 1.869 1.737 10917
0.009 1.905 1.756 8586
0.008 1.897 1.741 7629
0.008 1.889 1.725 6223
0.009 1.925 1.745 6399
0.009 1.929 1.739 5572
0.009 1.946 1.743 6183
0.009 1.951 1.737 9596
0.009 1.956 1.732 11321
0.009 1.966 1.731 10235
0.009 1.971 1.725 9654
0.009 1.969 1.714 11130
0.009 1.974 1.708 10612
0.009 1.978 1.703 7803
0.009 2.008 1.716 11727
0.009 2.000 1.700 19206
0.009 2.005 1.695 23722
0.009 2.015 1.693 22832
0.009 2.020 1.687 21577
0.009 2.024 1.681 20212
0.009 2.029 1.675 16381
0.009 2.033 1.669 10341
0.009 2.038 1.663 5012
0.006 1.429 1.209 3110
0.009 2.059 1.661 2648
0.009 2.070 1.659 2656
0.009 2.087 1.662 2733
0.006 1.454 1.201 3221
0.007 1.457 1.197 3496
0.007 1.460 1.193 3657
0.007 1.456 1.184 3303
0.007 1.459 1.179 2650
0.007 1.462 1.175 2035
0.007 1.459 1.166 1449
0.025 5.653 4.023 729
0.025 5.487 3.887 997
0.025 5.505 3.875 932
0.007 1.642 1.263 836
0.007 1.652 1.263 877
0.007 1.661 1.262 799
0.007 1.665 1.257 844
0.007 1.674 1.257 849
0.007 1.645 1.230 728
0.008 1.681 1.247 685
0.007 1.597 1.186 503
0.007 1.614 1.190 465
0.007 1.624 1.190 384
0.007 1.620 1.181 287
0.007 1.596 1.159 306
0.007 1.582 1.137 353
0.007 1.585 1.132 510
0.007 1.594 1.132 861
0.007 1.604 1.131 1248
0.007 1.600 1.122 1564
0.007 1.603 1.118 1862
0.007 1.612 1.117 1887
0.007 1.615 1.112 1604
0.007 1.618 1.107 998
0.012 2.737 1.750 719
0.012 2.748 1.746 852
0.012 2.760 1.742 1003
0.013 2.813 1.761 1807
0.013 2.810 1.749 2927
0.013 2.815 1.741 3217
0.013 2.806 1.725 2615
0.013 2.811 1.717 2137
0.013 2.891 1.750 3516
0.013 2.896 1.742 5261
0.013 2.901 1.733 5071
0.013 2.926 1.736 4905
0.013 2.917 1.720 4769
0.013 2.921 1.711 4664
0.013 2.926 1.703 4097
0.013 2.931 1.694 3530
0.013 2.942 1.689 3631
0.013 2.954 1.684 3780
0.013 2.958 1.676 3793
0.013 2.962 1.667 3807
0.014 3.108 1.729 3825
0.014 3.113 1.720 5456
0.014 3.125 1.715 5858
0.014 3.136 1.709 6495
0.014 3.141 1.700 4748
0.014 3.224 1.729 4849
0.014 3.242 1.726 4712
0.015 3.254 1.720 4849
0.015 3.337 1.748 4278
0.015 3.342 1.738 5659
0.015 3.347 1.728 5659
0.015 3.351 1.718 5256
0.015 3.363 1.712 4872
0.015 3.382 1.708 3546
0.016 3.531 1.764 4079
0.016 3.535 1.754 4194
0.016 3.547 1.746 4371
0.016 3.552 1.736 4371
0.016 3.556 1.726 2185
0.007 1.566 0.843 296
0.004 0.666 1.714 20112
0.004 0.670 1.712 22209
0.005 0.678 1.717 24322
0.005 0.682 1.715 21942
0.005 0.690 1.720 20146
0.005 0.695 1.718 20572
0.005 0.696 1.709 20350
0.005 0.701 1.707 20738
0.005 0.705 1.705 22157
0.005 0.713 1.710 23677
0.005 0.718 1.708 21037
0.005 0.726 1.713 18945
0.005 0.734 1.718 16332
0.005 0.742 1.723 13879
0.005 0.750 1.727 13520
0.005 0.754 1.725 12964
0.005 0.759 1.723 12407
0.005 0.767 1.728 10729
0.005 0.779 1.739 9306
0.005 0.773 1.716 10541
0.005 0.770 1.700 12843
0.005 0.775 1.697 11341
0.005 0.779 1.695 9838
0.005 0.784 1.693 8460
0.005 0.788 1.690 7081
0.005 0.789 1.681 6590
0.005 0.793 1.678 6109
0.005 0.824 1.725 8782
0.006 0.829 1.722 12566
0.006 0.833 1.720 15249
0.006 0.842 1.724 17045
0.006 0.850 1.729 15494
0.006 0.859 1.733 12852
0.006 0.863 1.730 11410
0.006 0.868 1.728 9151
0.006 0.869 1.718 6912
0.006 0.877 1.723 8847
0.006 0.886 1.727 10832
0.006 0.890 1.724 13158
0.006 0.895 1.722 14639
0.006 0.903 1.726 13913
0.006 0.908 1.723 15096
0.006 0.913 1.720 16279
0.006 0.917 1.718 17674
0.006 0.922 1.715 17615
0.006 0.926 1.712 16161
0.006 0.943 1.730 22766
0.006 0.948 1.727 28713
0.006 0.957 1.731 30185
0.006 0.961 1.728 27243
0.006 0.966 1.725 19269
0.007 0.975 1.729 16848
0.007 0.984 1.732 17330
0.007 0.988 1.729 17879
0.007 0.997 1.733 19633
0.007 1.002 1.730 20293
0.007 1.015 1.740 14341
0.007 1.033 1.757 11724
0.007 1.050 1.774 16670
0.007 1.055 1.771 22964
0.007 1.055 1.761 26752
0.007 1.060 1.758 23838
0.007 1.069 1.761 14553
0.007 1.078 1.765 8456
0.007 1.065 1.735 11026
0.007 1.074 1.739 16150
0.007 1.084 1.742 20876
0.007 1.088 1.739 19081
0.007 1.093 1.736 13228
0.007 1.097 1.732 10407
0.007 1.102 1.729 9476
0.007 1.121 1.745 9629
0.008 1.134 1.754 12484
0.008 1.144 1.758 12514
0.008 1.144 1.748 10108
0.008 1.134 1.725 12109
0.008 1.144 1.728 16190
0.008 1.153 1.731 22930
0.008 1.162 1.734 27408
0.008 1.172 1.737 23427
0.008 1.176 1.733 15237
0.008 1.186 1.736 10743
0.008 1.200 1.745 13577
0.008 1.200 1.735 16217
0.008 1.200 1.725 17653
0.008 1.209 1.728 18513
0.008 1.219 1.731 17612
0.008 1.223 1.727 15450
0.008 1.233 1.730 18103
0.008 1.242 1.732 17525
0.008 1.252 1.735 12689
0.008 1.271 1.749 20501
0.009 1.276 1.746 26249
0.009 1.286 1.748 18943
0.009 1.296 1.750 13894
0.009 1.305 1.753 17486
0.009 1.315 1.755 21789
0.009 1.325 1.757 24716
0.009 1.324 1.747 23225
0.009 1.329 1.743 17618
0.009 1.334 1.739 16097
0.009 1.343 1.741 17783
0.009 1.353 1.743 19429
0.009 1.363 1.745 15228
0.009 1.373 1.747 8227
0.009 1.399 1.767 5274
0.009 1.398 1.757 8117
0.009 1.397 1.746 8021
0.009 1.397 1.736 8086
0.009 1.401 1.732 9952
0.009 1.417 1.740 13976
0.009 1.421 1.736 18386
0.010 1.431 1.737 15027
0.010 1.447 1.745 8499
0.010 1.451 1.740 5051
0.010 1.461 1.742 6445
0.010 1.471 1.743 7722
0.010 1.471 1.733 7483
0.010 1.464 1.717 8021
0.010 1.480 1.724 8214
0.010 1.528 1.766 9736
0.010 1.533 1.761 16502
0.010 1.532 1.751 29528
0.010 1.542 1.752 44893
0.010 1.547 1.747 51557
0.010 1.557 1.749 48307
0.010 1.562 1.744 27504
0.010 1.561 1.734 29300
0.010 1.566 1.729 44170
0.010 1.570 1.724 37803
0.011 1.580 1.725 37400
0.011 1.591 1.726 26236
0.011 1.612 1.738 23299
0.011 1.623 1.739 22907
0.011 1.633 1.739 24743
0.011 1.638 1.735 25427
0.011 1.648 1.735 21083
0.011 1.658 1.736 29704
0.011 1.663 1.731 32820
0.011 1.668 1.726 15701
0.011 1.695 1.742 3886
0.011 1.694 1.732 8576
0.011 1.705 1.732 13410
0.011 1.715 1.733 14943
0.011 1.720 1.728 13514
0.012 1.724 1.722 7488
0.012 1.764 1.749 8849
0.012 1.763 1.739 10406
0.012 1.786 1.749 18293
0.012 1.796 1.749 33868
0.012 1.801 1.744 39197
0.012 1.800 1.733 34966
0.012 1.810 1.733 23971
0.012 1.827 1.738 13901
0.012 1.849 1.748 11604
0.012 1.860 1.748 12323
0.012 1.865 1.742 14235
0.013 1.876 1.742 11266
0.013 1.904 1.756 9088
0.013 1.903 1.746 7859
0.013 1.902 1.735 6541
0.013 1.931 1.750 7173
0.013 1.942 1.749 6664
0.013 1.952 1.748 7563
0.013 1.957 1.742 10966
0.013 1.962 1.737 12951
0.013 1.966 1.731 11781
0.013 1.971 1.725 11011
0.013 1.969 1.714 12186
0.013 1.974 1.708 11200
0.013 1.978 1.703 7824
0.013 2.008 1.716 9920
0.013 2.000 1.700 16789
0.013 2.005 1.695 21789
0.013 2.015 1.693 21425
0.013 2.020 1.687 19746
0.014 2.024 1.681 19037
0.014 2.029 1.675 15718
0.010 1.429 1.222 12553
0.010 1.432 1.218 10402
0.010 1.429 1.209 7409
0.010 1.438 1.209 4246
0.014 2.064 1.655 2664
0.014 2.075 1.653 2511
0.010 1.454 1.201 2457
0.010 1.457 1.197 2747
0.010 1.460 1.193 2953
0.010 1.456 1.184 2739
0.010 1.459 1.179 2331
0.010 1.462 1.175 1871
0.010 1.459 1.166 1426
0.010 1.462 1.162 869
0.037 5.487 3.887 1041
0.037 5.505 3.875 1090
0.037 5.515 3.859 954
0.037 5.513 3.834 813
0.011 1.668 1.267 688
0.011 1.684 1.270 781
0.011 1.694 1.270 833
0.011 1.718 1.278 807
0.011 1.714 1.268 719
0.011 1.591 1.182 501
0.011 1.607 1.186 472
0.011 1.617 1.185 374
0.046 6.895 4.496 295
0.011 1.596 1.159 267
0.011 1.710 1.216 336
0.011 1.706 1.207 488
0.011 1.594 1.132 704
0.011 1.604 1.131 1031
0.011 1.607 1.126 1336
0.011 1.610 1.122 1649
0.011 1.612 1.117 1725
0.011 1.615 1.112 1523
0.011 1.618 1.107 1059
0.011 1.621 1.103 777
0.018 2.748 1.746 672
0.019 2.822 1.778 888
0.019 2.813 1.761 1511
0.019 2.817 1.753 2333
0.019 2.815 1.741 2521
0.019 2.813 1.729 1977
0.019 2.887 1.759 1813
0.019 2.891 1.750 3484
0.019 2.896 1.742 5154
0.019 2.901 1.733 4960
0.019 2.905 1.725 4767
0.019 2.917 1.720 4636
0.019 2.921 1.711 4563
0.020 2.926 1.703 4214
0.020 2.930 1.694 3864
0.020 2.942 1.689 3968
0.020 2.954 1.684 4109
0.020 2.958 1.676 4003
0.020 2.962 1.667 3897
0.021 3.108 1.729 4160
0.021 3.113 1.720 5866
0.021 3.124 1.715 6020
0.021 3.136 1.709 6379
0.021 3.141 1.700 4595
0.022 3.245 1.739 4296
0.022 3.257 1.733 4505
0.022 3.261 1.723 4734
0.022 3.337 1.748 4726
0.022 3.342 1.738 6150
0.022 3.347 1.728 6150
0.022 3.351 1.718 5414
0.022 3.356 1.708 4679
0.023 3.375 1.705 3268
0.024 3.531 1.764 3548
0.024 3.535 1.754 3648
0.024 3.547 1.746 3752
0.024 3.552 1.736 3752
0.024 3.556 1.726 1876
0.010 1.566 0.843 318
0.006 0.665 1.714 20668
0.006 0.670 1.712 22690
0.006 0.675 1.710 24712
0.006 0.682 1.715 22131
0.006 0.690 1.720 20275
0.006 0.695 1.718 20788
0.006 0.696 1.709 20310
0.006 0.701 1.707 20550
0.006 0.705 1.705 21964
0.007 0.710 1.703 23379
0.007 0.718 1.708 20820
0.007 0.726 1.713 18858
0.007 0.734 1.718 16398
0.007 0.742 1.723 14030
0.007 0.746 1.720 13546
0.007 0.754 1.725 12485
0.007 0.759 1.723 11535
0.007 0.767 1.728 9740
0.007 0.772 1.725 8074
0.007 0.769 1.709 9955
0.007 0.767 1.692 13044
0.007 0.771 1.690 11723
0.007 0.776 1.688 10402
0.007 0.780 1.685 8891
0.007 0.784 1.683 7380
0.007 0.789 1.681 7090
0.007 0.793 1.678 6800
0.008 0.824 1.725 9237
0.008 0.829 1.722 13064
0.008 0.833 1.720 15591
0.008 0.842 1.724 17080
0.008 0.850 1.729 15161
0.008 0.859 1.733 12242
0.008 0.867 1.737 10732
0.008 0.868 1.728 8556
0.008 0.872 1.725 6382
0.008 0.881 1.730 8241
0.008 0.886 1.727 10309
0.008 0.890 1.724 12737
0.008 0.895 1.722 14631
0.008 0.903 1.726 14315
0.008 0.908 1.723 15431
0.008 0.909 1.713 16571
0.008 0.917 1.718 17649
0.008 0.922 1.715 16537
0.008 0.926 1.712 14323
0.009 0.943 1.730 21191
0.009 0.952 1.733 27211
0.009 0.957 1.731 28866
0.009 0.961 1.728 26428
0.009 0.966 1.725 19337
0.009 0.975 1.729 17371
0.009 0.984 1.732 17847
0.009 0.992 1.736 18090
0.009 0.997 1.733 18805
0.009 1.002 1.730 19102
0.009 1.015 1.740 14288
0.009 1.028 1.751 12429
0.010 1.050 1.774 16458
0.010 1.055 1.771 22813
0.010 1.055 1.761 26584
0.010 1.060 1.758 24597
0.010 1.069 1.761 15687
0.010 1.074 1.758 8722
0.010 1.065 1.735 10202
0.010 1.074 1.739 15489
0.010 1.084 1.742 20576
0.010 1.088 1.739 19348
0.010 1.093 1.736 13928
0.010 1.097 1.732 10999
0.010 1.102 1.729 9629
0.010 1.121 1.745 9695
0.010 1.134 1.754 14324
0.010 1.144 1.758 15980
0.010 1.144 1.748 13373
0.010 1.139 1.732 13416
0.010 1.144 1.728 16552
0.011 1.158 1.737 23182
0.011 1.162 1.734 28838
0.011 1.172 1.737 25537
0.011 1.176 1.733 17709
0.011 1.191 1.742 13338
0.011 1.200 1.745 15145
0.011 1.200 1.735 16524
0.011 1.200 1.725 18212
0.011 1.209 1.728 20664
0.011 1.219 1.731 21313
0.011 1.228 1.733 17549
0.011 1.233 1.730 18857
0.011 1.242 1.732 18976
0.012 1.257 1.741 12810
0.012 1.271 1.749 19246
0.012 1.276 1.746 25774
0.012 1.281 1.742 19796
0.012 1.295 1.750 13847
0.012 1.305 1.753 17444
0.012 1.315 1.755 23603
0.012 1.320 1.751 27164
0.012 1.324 1.747 25353
0.012 1.329 1.743 20494
0.012 1.339 1.745 19948
0.012 1.343 1.741 21154
0.012 1.353 1.743 20482
0.012 1.363 1.745 13117
0.013 1.378 1.753 6681
0.013 1.393 1.761 6107
0.013 1.398 1.757 8554
0.013 1.403 1.752 7199
0.013 1.392 1.730 6115
0.013 1.396 1.726 8421
0.013 1.411 1.734 12597
0.013 1.421 1.736 17094
0.013 1.431 1.737 14428
0.013 1.447 1.745 7230
0.013 1.457 1.746 3975
0.013 1.461 1.742 6898
0.013 1.466 1.737 9223
0.013 1.465 1.727 8941
0.013 1.464 1.717 9232
0.014 1.474 1.719 8307
0.014 1.539 1.777 7996
0.014 1.527 1.755 12428
0.014 1.527 1.745 25868
0.014 1.537 1.746 43457
0.014 1.547 1.747 51994
0.014 1.557 1.749 49761
0.014 1.562 1.744 29145
0.014 1.561 1.734 28605
0.014 1.566 1.729 41044
0.014 1.570 1.724 33249
0.014 1.580 1.725 34669
0.015 1.596 1.732 27133
0.015 1.612 1.738 27294
0.015 1.617 1.733 25633
0.015 1.633 1.739 21511
0.015 1.638 1.735 21462
0.015 1.648 1.735 20042
0.015 1.658 1.736 29903
0.015 1.663 1.731 32696
0.015 1.668 1.726 16478
0.015 1.690 1.737 6027
0.016 1.694 1.732 13341
0.016 1.699 1.727 18626
0.016 1.715 1.733 18343
0.016 1.720 1.728 14848
0.016 1.736 1.733 7785
0.016 1.764 1.749 8284
0.016 1.769 1.744 9200
0.016 1.786 1.749 17819
0.016 1.796 1.749 32967
0.017 1.801 1.744 37561
0.016 1.800 1.733 32731
0.017 1.810 1.733 22210
0.017 1.833 1.743 13383
0.017 1.849 1.748 11146
0.017 1.860 1.748 10940
0.017 1.865 1.742 13410
0.017 1.875 1.742 12088
0.017 1.904 1.756 9110
0.017 1.897 1.741 8055
0.017 1.902 1.735 7413
0.018 1.931 1.750 8249
0.018 1.948 1.754 8851
0.018 1.952 1.748 10294
0.018 1.957 1.742 13030
0.018 1.962 1.737 14714
0.018 1.966 1.731 13351
0.018 1.971 1.725 12394
0.018 1.969 1.714 12943
0.018 1.974 1.708 11366
0.018 1.978 1.703 7731
0.018 2.008 1.716 8133
0.018 2.000 1.700 14194
0.018 2.004 1.695 19338
0.018 2.015 1.693 19420
0.013 1.419 1.235 19703
0.013 1.422 1.231 21767
0.013 1.426 1.226 22329
0.013 1.429 1.222 21019
0.013 1.432 1.218 17946
0.013 1.435 1.214 13433
0.013 1.438 1.209 8588
0.013 1.441 1.205 4400
0.013 1.438 1.196 2355
0.013 1.447 1.197 1824
0.013 1.457 1.197 1924
0.013 1.460 1.193 2197
0.013 1.456 1.184 2189
0.013 1.459 1.179 2030
0.013 1.462 1.175 1738
0.013 1.459 1.166 1415
0.013 1.462 1.162 1023
0.050 5.494 3.891 965
0.050 5.511 3.879 1004
0.051 5.515 3.859 845
0.051 5.520 3.838 764
0.015 1.681 1.275 658
0.015 1.691 1.275 808
0.016 1.708 1.278 914
0.016 1.717 1.278 884
0.016 1.714 1.268 771
0.016 1.711 1.259 456
0.015 1.607 1.186 385
0.015 1.644 1.202 311
0.067 7.263 4.728 321
0.064 7.001 4.534 280
0.065 7.061 4.543 288
0.016 1.710 1.216 372
0.016 1.706 1.207 535
0.015 1.601 1.136 570
0.015 1.604 1.131 813
0.015 1.607 1.126 1047
0.015 1.610 1.122 1372
0.015 1.612 1.117 1506
0.015 1.622 1.116 1430
0.015 1.625 1.111 1162
0.015 1.628 1.107 946
0.015 1.630 1.102 699
0.026 2.822 1.778 782
0.026 2.813 1.761 1204
0.026 2.817 1.753 1780
0.026 2.822 1.745 1896
0.026 2.847 1.748 1529
0.026 2.887 1.759 1845
0.026 2.891 1.750 3375
0.027 2.896 1.742 4905
0.027 2.894 1.730 4716
0.027 2.898 1.721 4534
0.027 2.917 1.720 4423
0.027 2.928 1.715 4498
0.027 2.933 1.707 4351
0.027 2.937 1.698 4203
0.027 2.942 1.689 4299
0.027 2.953 1.684 4415
0.027 2.958 1.676 4167
0.027 2.969 1.670 3924
0.028 3.108 1.729 4187
0.029 3.113 1.720 5791
0.029 3.124 1.715 5770
0.029 3.136 1.709 5956
0.029 3.141 1.700 4250
0.030 3.259 1.746 4270
0.030 3.271 1.740 4485
0.030 3.275 1.730 4729
0.031 3.337 1.748 5083
0.031 3.342 1.738 6511
0.031 3.347 1.728 6511
0.031 3.351 1.718 5489
0.031 3.356 1.708 4467
0.031 3.360 1.699 3151
0.032 3.523 1.761 2989
0.032 3.535 1.754 3018
0.032 3.540 1.743 3051
0.032 3.544 1.733 3051
0.033 3.549 1.722 1525
0.014 1.566 0.843 278
0.007 0.665 1.714 20973
0.008 0.670 1.712 22939
0.008 0.675 1.710 24905
0.008 0.682 1.715 22207
0.008 0.690 1.720 20376
0.008 0.695 1.718 20974
0.008 0.696 1.709 20197
0.008 0.697 1.700 20373
0.008 0.705 1.705 21554
0.008 0.710 1.703 22859
0.008 0.718 1.708 20296
0.008 0.726 1.713 18464
0.008 0.734 1.718 16232
0.008 0.742 1.723 14031
0.008 0.746 1.720 13527
0.008 0.751 1.718 12091
0.009 0.759 1.723 10866
0.009 0.764 1.721 9111
0.009 0.768 1.718 7355
0.009 0.766 1.702 9628
0.009 0.766 1.692 13332
0.009 0.771 1.690 12130
0.009 0.775 1.688 10929
0.009 0.780 1.685 9293
0.009 0.784 1.683 7658
0.009 0.789 1.681 7480
0.009 0.793 1.678 7302
0.009 0.824 1.725 9471
0.009 0.829 1.722 13242
0.009 0.833 1.720 15656
0.009 0.842 1.724 16941
0.010 0.850 1.729 14724
0.010 0.859 1.733 11546
0.010 0.867 1.737 10078
0.010 0.872 1.735 8228
0.010 0.876 1.732 6185
0.010 0.881 1.730 8025
0.010 0.890 1.734 9871
0.010 0.890 1.724 12355
0.010 0.899 1.728 14723
0.010 0.903 1.726 14777
0.010 0.908 1.723 15628
0.010 0.909 1.713 16564
0.010 0.917 1.718 17359
0.010 0.922 1.715 15514
0.011 0.939 1.732 13039
0.011 0.943 1.730 19714
0.011 0.952 1.733 25635
0.011 0.957 1.731 27426
0.011 0.961 1.728 25527
0.011 0.966 1.725 19307
0.011 0.975 1.729 17609
0.011 0.984 1.732 18020
0.011 0.992 1.736 18008
0.011 0.997 1.733 17726
0.011 0.997 1.724 17786
0.011 1.006 1.727 14248
0.012 1.028 1.751 13082
0.012 1.046 1.767 15918
0.012 1.051 1.764 22135
0.012 1.055 1.761 25934
0.012 1.060 1.758 25008
0.012 1.065 1.755 17075
0.012 1.074 1.758 9309
0.012 1.070 1.742 9631
0.012 1.074 1.739 14702
0.012 1.084 1.742 19898
0.012 1.088 1.739 19267
0.012 1.093 1.736 14350
0.012 1.097 1.732 11312
0.012 1.102 1.729 9515
0.013 1.116 1.739 10115
0.013 1.134 1.754 16708
0.013 1.139 1.751 19393
0.013 1.144 1.748 16506
0.013 1.144 1.738 15181
0.013 1.148 1.734 17082
0.013 1.158 1.737 23344
0.013 1.162 1.734 29904
0.013 1.172 1.737 27177
0.013 1.176 1.733 19764
0.013 1.191 1.742 15944
0.014 1.200 1.745 16427
0.014 1.200 1.735 16365
0.014 1.200 1.725 18362
0.014 1.209 1.728 22208
0.014 1.223 1.737 23823
0.014 1.228 1.733 18659
0.014 1.238 1.736 19151
0.014 1.242 1.732 19795
0.014 1.257 1.741 13027
0.014 1.271 1.749 17750
0.014 1.276 1.746 24566
0.014 1.281 1.742 20633
0.015 1.295 1.750 14126
0.015 1.305 1.753 17203
0.015 1.315 1.755 24400
0.015 1.320 1.751 28629
0.015 1.324 1.747 26846
0.015 1.329 1.743 22658
0.015 1.339 1.745 22927
0.015 1.349 1.747 24036
0.015 1.353 1.743 21738
0.015 1.358 1.739 12035
0.016 1.378 1.753 6424
0.016 1.388 1.755 7969
0.016 1.398 1.757 9372
0.016 1.408 1.758 6817
0.016 1.386 1.725 4334
0.016 1.396 1.726 7238
0.016 1.406 1.728 11430
0.016 1.416 1.730 15182
0.016 1.431 1.737 12959
0.016 1.441 1.739 6771
0.016 1.451 1.740 5393
0.016 1.456 1.736 8714
0.017 1.466 1.737 10537
0.016 1.460 1.722 9932
0.017 1.464 1.717 9962
0.017 1.469 1.713 8281
0.017 1.550 1.789 6883
0.017 1.516 1.744 8953
0.017 1.527 1.745 21923
0.017 1.537 1.746 41361
0.017 1.547 1.747 51478
0.018 1.557 1.749 49310
0.018 1.562 1.744 28568
0.018 1.567 1.739 25150
0.018 1.566 1.729 34265
0.018 1.570 1.724 27278
0.018 1.580 1.725 31920
0.018 1.596 1.732 27086
0.018 1.612 1.738 30007
0.018 1.617 1.733 27395
0.018 1.633 1.739 16713
0.019 1.643 1.740 17350
0.019 1.648 1.735 20207
0.019 1.664 1.741 30737
0.019 1.663 1.731 31309
0.019 1.668 1.726 17322
0.019 1.678 1.726 9143
0.019 1.694 1.732 16883
0.019 1.699 1.727 22404
0.019 1.715 1.733 20863
0.019 1.726 1.733 15894
0.020 1.742 1.738 8334
0.020 1.764 1.749 8906
0.020 1.769 1.744 9681
0.020 1.786 1.749 16375
0.020 1.796 1.749 29896
0.020 1.801 1.744 34556
0.020 1.799 1.733 29930
0.020 1.810 1.733 19987
0.021 1.827 1.738 12631
0.021 1.843 1.743 10642
0.021 1.860 1.748 9701
0.021 1.865 1.742 12581
0.021 1.875 1.742 12881
0.021 1.886 1.741 9315
0.021 1.885 1.731 8590
0.021 1.895 1.730 8431
0.022 1.931 1.750 9234
0.022 1.941 1.749 10774
0.022 1.952 1.748 12855
0.022 1.957 1.742 14982
0.022 1.962 1.737 15981
0.022 1.966 1.731 14476
0.022 1.971 1.725 13414
0.022 1.969 1.714 13082
0.022 1.974 1.708 10984
0.022 1.978 1.703 7559
0.016 1.406 1.252 7880
0.016 1.410 1.247 13223
0.016 1.413 1.243 18185
0.016 1.416 1.239 23310
0.016 1.419 1.235 28105
0.016 1.422 1.231 30911
0.016 1.425 1.226 31728
0.016 1.429 1.222 30072
0.016 1.432 1.218 26045
0.016 1.435 1.214 19994
0.016 1.438 1.209 13407
0.016 1.441 1.205 7591
0.016 1.438 1.196 3939
0.016 1.434 1.187 2366
0.016 1.450 1.192 1658
0.016 1.453 1.188 1527
0.016 1.456 1.184 1651
0.016 1.459 1.179 1728
0.016 1.462 1.175 1604
0.016 1.459 1.166 1428
0.017 1.468 1.166 1217
0.062 5.500 3.895 955
0.062 5.511 3.879 969
0.062 5.522 3.863 780
0.062 5.526 3.843 706
0.062 5.537 3.826 672
0.019 1.691 1.275 789
0.019 1.708 1.278 939
0.019 1.717 1.278 930
0.019 1.721 1.273 816
0.019 1.724 1.268 480
0.018 1.614 1.190 304
0.077 6.862 4.503 329
0.077 6.875 4.483 355
0.078 6.880 4.459 298
0.080 7.068 4.547 291
0.019 1.710 1.216 387
0.019 1.706 1.207 554
0.019 1.723 1.210 565
0.018 1.604 1.131 686
0.018 1.607 1.126 878
0.018 1.609 1.122 1151
0.018 1.612 1.117 1263
0.018 1.622 1.116 1284
0.018 1.625 1.111 1182
0.018 1.628 1.107 1043
0.018 1.630 1.102 777
0.032 2.835 1.786 680
0.032 2.812 1.761 900
0.032 2.817 1.753 1296
0.032 2.829 1.749 1413
0.032 2.861 1.756 1378
0.033 2.887 1.759 1828
0.033 2.891 1.750 3174
0.033 2.889 1.738 4527
0.033 2.894 1.730 4352
0.033 2.898 1.721 4178
0.033 2.917 1.720 4107
0.033 2.935 1.719 4393
0.033 2.933 1.707 4389
0.033 2.937 1.698 4435
0.033 2.942 1.689 4469
0.033 2.953 1.684 4534
0.033 2.958 1.676 4188
0.033 2.969 1.670 3885
0.035 3.108 1.729 4239
0.035 3.113 1.720 5701
0.035 3.124 1.715 5564
0.035 3.136 1.709 5656
0.035 3.141 1.700 4015
0.037 3.266 1.749 4318
0.037 3.271 1.740 4462
0.037 3.282 1.734 4668
0.038 3.330 1.744 5321
0.038 3.342 1.738 6692
0.038 3.346 1.728 6692
0.038 3.351 1.718 5444
0.038 3.348 1.705 4247
0.038 3.346 1.692 3181
0.040 3.523 1.761 2461
0.040 3.528 1.750 2389
0.041 3.634 1.785 2535
0.041 3.638 1.775 2535
0.041 3.643 1.764 1267
0.018 1.566 0.843 284
0.009 0.665 1.714 21162
0.009 0.670 1.712 23104
0.010 0.675 1.710 25046
0.010 0.682 1.715 22243
0.010 0.690 1.720 20478
0.010 0.695 1.718 21177
0.010 0.696 1.709 20032
0.010 0.697 1.700 20107
0.010 0.705 1.705 20966
0.010 0.710 1.703 22086
0.010 0.718 1.708 19504
0.010 0.726 1.713 17799
0.010 0.734 1.718 15891
0.010 0.742 1.723 13932
0.011 0.746 1.720 13457
0.011 0.751 1.718 11954
0.011 0.759 1.723 10456
0.011 0.764 1.721 8769
0.011 0.768 1.718 7082
0.011 0.762 1.695 9668
0.011 0.763 1.685 13730
0.011 0.771 1.690 12531
0.011 0.775 1.688 11473
0.011 0.780 1.685 9663
0.011 0.784 1.683 7853
0.011 0.789 1.681 7756
0.011 0.793 1.678 7660
0.012 0.824 1.725 9584
0.012 0.829 1.722 13249
0.012 0.833 1.720 15595
0.012 0.842 1.724 16758
0.012 0.850 1.729 14323
0.012 0.859 1.733 10913
0.012 0.867 1.737 9468
0.012 0.872 1.735 8132
0.012 0.880 1.739 6680
0.013 0.885 1.736 8259
0.013 0.889 1.734 9837
0.013 0.894 1.731 12226
0.013 0.899 1.728 14957
0.013 0.903 1.726 15301
0.013 0.908 1.723 15710
0.013 0.908 1.713 16299
0.013 0.917 1.718 16853
0.013 0.922 1.715 14606
0.013 0.939 1.732 12128
0.013 0.943 1.730 18424
0.013 0.952 1.733 24084
0.014 0.957 1.731 26075
0.014 0.961 1.728 24787
0.014 0.966 1.725 19385
0.014 0.975 1.729 17709
0.014 0.983 1.732 17910
0.014 0.992 1.736 17681
0.014 0.997 1.733 16493
0.014 0.997 1.724 16506
0.014 1.006 1.727 14067
0.015 1.028 1.751 13421
0.015 1.042 1.761 15428
0.015 1.051 1.764 21299
0.015 1.055 1.761 25020
0.015 1.060 1.758 25188
0.015 1.065 1.755 18591
0.015 1.074 1.758 10082
0.015 1.070 1.742 9303
0.015 1.079 1.745 13968
0.015 1.083 1.742 18943
0.015 1.088 1.739 18880
0.015 1.093 1.736 14510
0.016 1.097 1.732 11405
0.016 1.102 1.729 9351
0.016 1.116 1.739 10807
0.016 1.130 1.748 19120
0.016 1.139 1.751 22571
0.016 1.144 1.748 19310
0.016 1.144 1.738 16869
0.016 1.148 1.734 17476
0.016 1.158 1.737 23267
0.016 1.162 1.734 30600
0.017 1.172 1.737 28453
0.017 1.176 1.733 21559
0.017 1.191 1.742 18394
0.017 1.200 1.745 17445
0.017 1.200 1.735 15898
0.017 1.200 1.725 18074
0.017 1.209 1.728 22968
0.017 1.223 1.737 25206
0.017 1.233 1.740 19042
0.018 1.243 1.742 18974
0.018 1.247 1.738 20194
0.018 1.257 1.741 13359
0.018 1.271 1.749 16163
0.018 1.276 1.746 22774
0.018 1.281 1.742 21186
0.018 1.290 1.744 15027
0.019 1.310 1.759 16840
0.019 1.315 1.755 24076
0.019 1.320 1.751 28750
0.019 1.324 1.747 27637
0.019 1.329 1.743 24283
0.019 1.339 1.745 24923
0.019 1.348 1.747 26568
0.019 1.353 1.743 23400
0.019 1.358 1.739 12290
0.019 1.373 1.747 7010
0.020 1.383 1.749 10009
0.020 1.398 1.757 10082
0.020 1.408 1.758 6943
0.020 1.402 1.742 3721
0.020 1.401 1.732 6880
0.020 1.406 1.728 10834
0.020 1.416 1.730 13266
0.020 1.426 1.731 11132
0.020 1.436 1.733 6743
0.020 1.446 1.735 7421
0.021 1.456 1.736 10292
0.021 1.460 1.732 11416
0.021 1.460 1.722 10468
0.021 1.464 1.717 10360
0.021 1.469 1.713 8011
0.022 1.556 1.794 5821
0.021 1.511 1.738 7314
0.022 1.521 1.740 18805
0.022 1.537 1.746 38801
0.022 1.547 1.747 50423
0.022 1.557 1.749 47876
0.022 1.562 1.744 27958
0.022 1.566 1.739 20528
0.022 1.566 1.729 24875
0.022 1.570 1.724 21489
0.022 1.580 1.725 30156
0.023 1.596 1.732 26366
0.023 1.607 1.732 30894
0.023 1.611 1.728 28888
0.023 1.633 1.739 14811
0.023 1.643 1.740 16559
0.023 1.654 1.741 21892
0.024 1.664 1.741 30931
0.024 1.663 1.731 27967
0.024 1.668 1.726 17806
0.024 1.678 1.726 13451
0.024 1.688 1.727 19600
0.024 1.699 1.727 24453
0.024 1.715 1.733 22099
0.024 1.726 1.733 16183
0.025 1.748 1.744 8641
0.025 1.764 1.749 9051
0.025 1.769 1.744 9524
0.025 1.785 1.749 14493
0.025 1.796 1.749 25769
0.025 1.801 1.744 29989
0.025 1.799 1.733 26473
0.026 1.804 1.728 17865
0.026 1.827 1.738 11410
0.026 1.843 1.743 9888
0.026 1.860 1.748 8463
0.026 1.865 1.742 11748
0.027 1.875 1.742 13502
0.027 1.880 1.736 10218
0.027 1.879 1.726 9365
0.027 1.889 1.725 9277
0.027 1.924 1.745 10045
0.027 1.941 1.749 12209
0.028 1.952 1.748 14873
0.028 1.957 1.742 16553
0.028 1.962 1.737 16817
0.028 1.966 1.731 15296
0.028 1.971 1.725 14139
0.028 1.969 1.714 12590
0.028 1.974 1.708 10004
0.028 1.978 1.703 7142
0.020 1.406 1.252 10748
0.020 1.410 1.247 17548
0.020 1.413 1.243 23715
0.020 1.416 1.239 30152
0.020 1.419 1.235 36238
0.020 1.422 1.231 39781
0.020 1.425 1.226 40881
0.020 1.429 1.222 38919
0.020 1.432 1.218 34015
0.020 1.435 1.214 26507
0.020 1.438 1.209 18241
0.020 1.441 1.205 10899
0.020 1.438 1.196 6107
0.020 1.441 1.192 3895
0.020 1.444 1.188 2175
0.020 1.440 1.179 1105
0.021 1.456 1.184 1226
0.021 1.466 1.184 1539
0.021 1.462 1.175 1532
0.021 1.465 1.171 1448
0.021 1.468 1.166 1312
0.021 1.471 1.162 926
0.078 5.517 3.884 782
0.078 5.522 3.863 632
0.078 5.526 3.843 588
0.078 5.537 3.826 665
0.078 5.547 3.810 759
0.024 1.714 1.283 943
0.024 1.717 1.278 952
0.024 1.721 1.273 819
0.024 1.724 1.268 486
0.102 7.189 4.740 336
0.097 6.862 4.503 382
0.097 6.868 4.479 422
0.097 6.880 4.459 369
0.097 6.893 4.439 316
0.024 1.710 1.216 403
0.024 1.706 1.207 578
0.024 1.716 1.206 586
0.025 1.732 1.209 635
0.023 1.607 1.126 648
0.023 1.609 1.122 894
0.023 1.619 1.121 1018
0.023 1.622 1.116 1145
0.023 1.625 1.111 1192
0.023 1.628 1.107 1111
0.023 1.637 1.106 841
0.040 2.842 1.789 621
0.040 2.812 1.761 650
0.040 2.824 1.757 924
0.040 2.836 1.753 1070
0.041 2.875 1.764 1343
0.041 2.880 1.755 1800
0.041 2.884 1.747 2942
0.041 2.889 1.738 4085
0.041 2.893 1.730 3896
0.041 2.898 1.721 3707
0.041 2.917 1.720 3680
0.042 2.942 1.723 4264
0.042 2.940 1.710 4323
0.042 2.937 1.698 4485
0.042 2.949 1.693 4439
0.042 2.953 1.684 4439
0.042 2.965 1.679 4048
0.042 2.976 1.674 3751
0.044 3.101 1.726 4254
0.044 3.113 1.720 5493
0.044 3.131 1.718 5336
0.044 3.143 1.712 5434
0.045 3.148 1.703 3898
0.046 3.266 1.749 4280
0.046 3.278 1.743 4314
0.047 3.290 1.737 4480
0.047 3.330 1.744 5463
0.047 3.342 1.738 6738
0.047 3.346 1.728 6738
0.047 3.344 1.715 5388
0.047 3.320 1.692 4320
0.047 3.331 1.685 3385
0.047 3.343 1.679 2526
0.047 3.355 1.672 2163
0.051 3.641 1.789 2398
0.052 3.646 1.778 2398
0.052 3.650 1.767 1199
0.022 1.566 0.843 277
0.011 0.662 1.707 21222
0.011 0.670 1.712 23150
0.011 0.675 1.710 25140
0.011 0.682 1.715 22268
0.011 0.690 1.720 20675
0.011 0.695 1.718 21506
0.011 0.696 1.709 20055
0.011 0.697 1.700 20041
0.011 0.705 1.705 20493
0.011 0.710 1.703 21281
0.012 0.718 1.708 18619
0.012 0.726 1.713 16963
0.012 0.734 1.718 15452
0.012 0.742 1.723 13769
0.012 0.746 1.720 13375
0.012 0.751 1.718 11901
0.012 0.755 1.716 10428
0.012 0.760 1.713 8725
0.012 0.768 1.718 7111
0.012 0.755 1.681 10120
0.012 0.763 1.685 14182
0.012 0.767 1.683 13051
0.013 0.775 1.688 12053
0.013 0.780 1.685 9990
0.013 0.784 1.683 7926
0.013 0.789 1.681 7885
0.013 0.793 1.678 7843
0.013 0.824 1.725 9525
0.013 0.829 1.722 13086
0.013 0.833 1.720 15458
0.014 0.842 1.724 16596
0.014 0.850 1.729 13968
0.014 0.859 1.733 10356
0.014 0.867 1.737 8973
0.014 0.876 1.742 8537
0.014 0.880 1.739 7910
0.014 0.885 1.736 8992
0.014 0.889 1.734 10074
0.014 0.894 1.731 12325
0.015 0.899 1.728 15293
0.015 0.903 1.726 16008
0.015 0.908 1.723 15828
0.015 0.908 1.713 15974
0.015 0.917 1.718 16322
0.015 0.930 1.728 14050
0.015 0.939 1.732 11627
0.015 0.943 1.730 17416
0.015 0.952 1.733 22600
0.015 0.957 1.731 24869
0.016 0.961 1.728 24275
0.016 0.966 1.725 19622
0.016 0.975 1.729 17680
0.016 0.983 1.732 17460
0.016 0.992 1.736 17004
0.016 0.997 1.733 15082
0.016 0.997 1.724 15166
0.016 1.006 1.727 13895
0.017 1.024 1.744 13741
0.017 1.037 1.754 15032
0.017 1.046 1.758 20124
0.017 1.051 1.755 23878
0.017 1.056 1.751 25216
0.017 1.060 1.748 20178
0.017 1.069 1.752 11007
0.017 1.074 1.748 9245
0.017 1.079 1.745 13345
0.018 1.083 1.742 17835
0.018 1.088 1.739 18364
0.018 1.093 1.736 14660
0.018 1.097 1.732 11572
0.018 1.102 1.729 9543
0.018 1.120 1.745 11884
0.018 1.130 1.748 21327
0.018 1.139 1.751 25315
0.018 1.144 1.748 21883
0.018 1.144 1.738 18558
0.019 1.148 1.734 17795
0.019 1.158 1.737 22883
0.019 1.162 1.734 30875
0.019 1.172 1.737 29425
0.019 1.181 1.740 23213
0.019 1.190 1.742 20518
0.019 1.195 1.739 18242
0.019 1.200 1.735 15290
0.019 1.204 1.732 17547
0.020 1.209 1.728 23143
0.020 1.223 1.737 25492
0.020 1.233 1.740 19045
0.020 1.243 1.742 19001
0.020 1.247 1.738 20470
0.020 1.257 1.741 13823
0.021 1.271 1.749 14558
0.021 1.276 1.746 20457
0.021 1.281 1.742 21332
0.021 1.290 1.744 16376
0.021 1.305 1.753 16337
0.021 1.315 1.755 22713
0.021 1.320 1.751 27600
0.021 1.324 1.747 27792
0.021 1.329 1.743 25469
0.022 1.339 1.745 25967
0.022 1.348 1.747 28575
0.022 1.353 1.743 25462
0.022 1.353 1.733 13191
0.022 1.368 1.741 7939
0.022 1.383 1.749 11593
0.023 1.398 1.757 10446
0.023 1.413 1.764 7392
0.023 1.412 1.754 4641
0.023 1.407 1.738 7615
0.023 1.411 1.734 10522
0.023 1.416 1.730 11523
0.023 1.426 1.731 9489
0.023 1.436 1.733 6923
0.023 1.446 1.735 9039
0.024 1.456 1.736 11164
0.024 1.460 1.732 11454
0.024 1.460 1.722 10445
0.024 1.464 1.717 10674
0.024 1.474 1.719 7895
0.025 1.556 1.794 4860
0.024 1.505 1.733 8280
0.024 1.515 1.734 17550
0.025 1.537 1.746 36176
0.025 1.547 1.747 49544
0.025 1.557 1.749 46752
0.025 1.567 1.750 29393
0.025 1.566 1.739 16072
0.025 1.571 1.735 14569
0.025 1.576 1.730 18327
0.026 1.586 1.731 30716
0.026 1.596 1.732 25744
0.026 1.607 1.732 30352
0.026 1.611 1.728 30147
0.026 1.627 1.734 17833
0.027 1.643 1.740 19792
0.027 1.654 1.741 24454
0.027 1.664 1.741 30858
0.027 1.669 1.736 24865
0.027 1.667 1.726 18837
0.027 1.678 1.726 18858
0.027 1.688 1.727 22072
0.027 1.699 1.727 24846
0.028 1.715 1.733 22071
0.028 1.726 1.733 15670
0.028 1.748 1.744 8944
0.028 1.764 1.749 10284
0.028 1.763 1.739 10810
0.029 1.779 1.744 12751
0.029 1.796 1.749 21380
0.029 1.801 1.744 24627
0.029 1.799 1.733 21759
0.029 1.804 1.728 15394
0.029 1.821 1.733 10090
0.030 1.837 1.738 9076
0.030 1.854 1.743 7289
0.030 1.865 1.742 10849
0.030 1.869 1.737 13865
0.030 1.880 1.736 11459
0.030 1.879 1.726 10449
0.031 1.889 1.725 10001
0.031 1.924 1.745 10888
0.031 1.941 1.749 13480
0.032 1.952 1.748 16750
0.032 1.957 1.742 18117
0.032 1.961 1.737 17580
0.032 1.966 1.731 16052
0.032 1.971 1.725 14686
0.032 1.975 1.719 11861
0.032 1.980 1.713 8823
0.023 1.403 1.256 7147
0.023 1.406 1.252 13178
0.023 1.409 1.247 21177
0.023 1.413 1.243 28377
0.023 1.416 1.239 36017
0.023 1.419 1.235 43351
0.023 1.422 1.231 47503
0.023 1.425 1.226 48788
0.023 1.429 1.222 47016
0.023 1.432 1.218 41763
0.023 1.435 1.214 32959
0.023 1.438 1.209 23123
0.023 1.441 1.205 14332
0.023 1.444 1.201 8494
0.023 1.447 1.197 5699
0.023 1.450 1.192 3291
0.023 1.447 1.183 1241
0.024 1.463 1.188 1057
0.024 1.466 1.184 1431
0.024 1.462 1.175 1466
0.024 1.465 1.171 1472
0.024 1.468 1.166 1427
0.024 1.471 1.162 1074
0.024 1.474 1.158 641
0.088 5.423 3.797 577
0.034 2.126 1.579 518
0.089 5.536 3.826 582
0.090 5.554 3.814 728
0.028 1.714 1.283 924
0.028 1.717 1.278 950
0.028 1.721 1.273 820
0.028 1.731 1.272 505
0.113 6.976 4.604 325
0.111 6.855 4.499 430
0.111 6.867 4.479 501
0.111 6.880 4.459 425
0.111 6.893 4.439 350
0.028 1.710 1.216 398
0.028 1.706 1.207 563
0.028 1.723 1.210 573
0.028 1.732 1.209 657
0.028 1.735 1.204 684
0.028 1.745 1.203 676
0.028 1.762 1.206 900
0.029 1.765 1.200 1032
0.026 1.625 1.111 1121
0.026 1.627 1.107 1094
0.026 1.637 1.106 820
0.046 2.849 1.793 584
0.046 2.860 1.789 592
0.046 2.851 1.773 745
0.046 2.856 1.764 916
0.046 2.875 1.764 1282
0.047 2.879 1.755 1724
0.047 2.884 1.747 2633
0.047 2.889 1.738 3542
0.047 2.893 1.730 3346
0.047 2.898 1.721 3150
0.047 2.937 1.731 3326
0.048 2.949 1.726 4152
0.048 2.947 1.714 4257
0.048 2.944 1.702 4466
0.048 2.949 1.693 4392
0.050 3.066 1.742 4958
0.049 3.063 1.730 4523
0.049 3.054 1.713 4342
0.050 3.101 1.726 4256
0.050 3.120 1.724 5188
0.051 3.138 1.722 5193
0.051 3.143 1.712 5380
0.051 3.147 1.703 3979
0.053 3.266 1.749 4197
0.053 3.278 1.743 4069
0.053 3.311 1.747 4487
0.054 3.330 1.744 5487
0.054 3.334 1.735 6641
0.054 3.339 1.725 6641
0.054 3.344 1.715 5337
0.054 3.319 1.692 4588
0.054 3.331 1.685 3732
0.054 3.343 1.679 3000
0.054 3.354 1.672 2559
0.056 3.438 1.698 2460
0.056 3.443 1.688 2460
0.056 3.447 1.678 1230
0.025 1.566 0.843 254
0.012 0.662 1.707 21450
0.013 0.670 1.712 23272
0.013 0.675 1.710 25272
0.013 0.682 1.715 22367
0.013 0.690 1.720 20978
0.013 0.695 1.718 21942
0.013 0.699 1.716 20263
0.013 0.697 1.700 20108
0.013 0.705 1.705 20043
0.013 0.710 1.703 20312
0.014 0.718 1.708 17547
0.014 0.726 1.713 15923
0.014 0.734 1.718 14884
0.014 0.738 1.715 13573
0.014 0.743 1.713 13240
0.014 0.751 1.718 11818
0.014 0.755 1.716 10433
0.014 0.760 1.713 8924
0.014 0.764 1.711 7414
0.014 0.755 1.681 10690
0.014 0.763 1.685 14648
0.014 0.767 1.683 13553
0.015 0.775 1.688 12621
0.015 0.780 1.685 10249
0.015 0.806 1.725 8208
0.015 0.789 1.681 7910
0.015 0.793 1.678 7945
0.016 0.824 1.725 9470
0.016 0.829 1.722 12895
0.016 0.833 1.720 15278
0.016 0.842 1.724 16391
0.016 0.850 1.729 13605
0.016 0.858 1.733 9906
0.016 0.871 1.744 8756
0.016 0.875 1.742 9147
0.017 0.876 1.732 9386
0.017 0.885 1.736 10115
0.017 0.889 1.734 10910
0.017 0.894 1.731 12757
0.017 0.903 1.735 15745
0.017 0.907 1.733 16926
0.017 0.908 1.723 16027
0.017 0.908 1.713 15712
0.017 0.917 1.718 15893
0.017 0.926 1.722 13893
0.018 0.938 1.732 11517
0.018 0.943 1.730 16652
0.018 0.952 1.733 21156
0.018 0.961 1.737 23711
0.018 0.961 1.728 23848
0.018 0.966 1.725 19868
0.018 0.975 1.729 17373
0.019 0.983 1.732 16494
0.019 0.997 1.743 15946
0.019 0.997 1.733 13572
0.019 0.997 1.724 13828
0.019 1.006 1.727 13604
0.019 1.024 1.744 13562
0.019 1.028 1.741 14662
0.020 1.046 1.758 19132
0.020 1.051 1.755 23042
0.020 1.056 1.751 25508
0.020 1.060 1.748 22100
0.020 1.069 1.752 12407
0.020 1.079 1.755 9758
0.020 1.079 1.745 12969
0.020 1.083 1.742 16775
0.020 1.088 1.739 17695
0.021 1.093 1.736 14515
0.021 1.097 1.732 11433
0.021 1.107 1.735 9625
0.021 1.120 1.745 12886
0.021 1.130 1.748 23059
0.021 1.139 1.751 27622
0.022 1.144 1.748 24096
0.022 1.144 1.738 19963
0.022 1.148 1.734 18001
0.022 1.158 1.737 22318
0.022 1.162 1.734 30705
0.022 1.172 1.737 29784
0.022 1.181 1.740 24550
0.022 1.190 1.742 22412
0.023 1.195 1.739 19045
0.023 1.200 1.735 14518
0.023 1.204 1.732 16716
0.023 1.209 1.728 22683
0.023 1.223 1.737 24654
0.023 1.238 1.746 18887
0.023 1.247 1.748 19374
0.023 1.247 1.738 20673
0.024 1.257 1.741 14394
0.024 1.271 1.749 12987
0.024 1.276 1.746 18138
0.024 1.281 1.742 21292
0.024 1.290 1.744 17741
0.025 1.305 1.753 15865
0.025 1.315 1.755 20569
0.025 1.319 1.751 25302
0.025 1.324 1.747 27108
0.025 1.329 1.743 25996
0.025 1.339 1.745 26055
0.025 1.348 1.747 29933
0.025 1.353 1.743 27723
0.025 1.353 1.733 14366
0.026 1.362 1.735 8513
0.026 1.383 1.749 12506
0.026 1.403 1.762 10660
0.027 1.418 1.770 7812
0.027 1.418 1.760 5708
0.027 1.412 1.744 8715
0.027 1.416 1.740 10375
0.027 1.416 1.730 9722
0.027 1.420 1.726 8496
0.027 1.436 1.733 7496
0.027 1.440 1.729 9799
0.027 1.456 1.736 10969
0.028 1.460 1.732 10373
0.027 1.460 1.722 9678
0.028 1.470 1.723 10833
0.028 1.480 1.724 8117
0.028 1.495 1.731 4693
0.028 1.511 1.738 9770
0.029 1.515 1.734 17477
0.029 1.537 1.746 33576
0.029 1.552 1.753 48315
0.029 1.557 1.749 45447
0.030 1.567 1.750 31913
0.030 1.572 1.745 12296
0.030 1.577 1.740 8733
0.030 1.581 1.736 20831
0.030 1.586 1.731 32054
0.030 1.596 1.732 25869
0.030 1.606 1.732 29466
0.030 1.611 1.728 30786
0.031 1.627 1.734 22507
0.031 1.643 1.740 23332
0.031 1.654 1.741 26758
0.031 1.664 1.741 31056
0.031 1.669 1.736 22550
0.032 1.673 1.731 20501
0.032 1.678 1.726 24374
0.032 1.688 1.727 23626
0.032 1.699 1.727 23235
0.032 1.715 1.733 20714
0.033 1.731 1.738 14554
0.033 1.754 1.749 9336
0.033 1.758 1.744 11779
0.033 1.763 1.739 13254
0.033 1.773 1.739 11851
0.034 1.796 1.749 16612
0.034 1.801 1.744 19696
0.034 1.799 1.733 17106
0.034 1.798 1.723 12664
0.034 1.808 1.723 8809
0.034 1.825 1.727 8176
0.035 1.854 1.743 6342
0.035 1.865 1.742 10203
0.035 1.863 1.732 14145
0.035 1.874 1.731 12425
0.035 1.878 1.726 11119
0.036 1.889 1.725 10145
0.036 1.924 1.745 10736
0.037 1.941 1.749 13691
0.037 1.952 1.748 17555
0.037 1.957 1.742 18941
0.037 1.961 1.737 18019
0.037 1.966 1.731 16697
0.037 1.971 1.725 15015
0.037 1.981 1.724 11065
0.038 1.992 1.723 8519
0.026 1.403 1.256 8590
0.026 1.406 1.252 15432
0.027 1.409 1.247 24295
0.027 1.413 1.243 32196
0.027 1.416 1.239 40754
0.027 1.419 1.235 48602
0.027 1.422 1.231 51975
0.027 1.425 1.226 52668
0.027 1.428 1.222 51578
0.027 1.432 1.218 47435
0.027 1.435 1.214 38414
0.027 1.438 1.209 27229
0.027 1.441 1.205 17281
0.027 1.444 1.201 10654
0.027 1.447 1.197 7439
0.027 1.450 1.192 4534
0.027 1.453 1.188 1752
0.028 1.463 1.188 1101
0.028 1.466 1.184 1377
0.028 1.462 1.175 1476
0.028 1.465 1.171 1551
0.028 1.468 1.166 1529
0.028 1.471 1.162 1156
0.028 1.474 1.158 714
0.102 5.436 3.806 606
0.042 2.244 1.658 549
0.106 5.615 3.879 524
0.105 5.553 3.814 673
0.032 1.714 1.283 832
0.032 1.717 1.278 858
0.033 1.727 1.277 749
0.033 1.737 1.276 484
0.131 6.975 4.604 416
0.129 6.854 4.499 433
0.129 6.860 4.475 524
0.129 6.873 4.455 435
0.137 7.262 4.668 463
0.032 1.709 1.216 406
0.032 1.713 1.211 547
0.032 1.722 1.210 580
0.033 1.732 1.209 669
0.033 1.735 1.204 687
0.033 1.745 1.203 629
0.033 1.762 1.206 792
0.033 1.765 1.200 915
0.031 1.631 1.115 1109
0.031 1.634 1.111 1140
0.031 1.637 1.106 858
0.031 1.647 1.105 589
0.054 2.881 1.801 635
0.054 2.879 1.788 695
0.054 2.856 1.764 816
0.054 2.875 1.764 1199
0.054 2.879 1.755 1620
0.054 2.884 1.747 2306
0.054 2.889 1.738 2993
0.054 2.893 1.730 2786
0.055 2.898 1.721 2578
0.055 2.944 1.735 3037
0.056 2.949 1.726 3999
0.056 2.954 1.718 4133
0.056 2.951 1.705 4317
0.056 2.956 1.697 4184
0.058 3.066 1.742 5514
0.058 3.063 1.730 5221
0.058 3.061 1.717 5187
0.058 3.101 1.726 4265
0.059 3.119 1.724 4930
0.059 3.145 1.725 5288
0.059 3.150 1.716 5722
0.059 3.147 1.703 4387
0.062 3.266 1.749 4060
0.062 3.285 1.747 3783
0.062 3.318 1.751 4567
0.063 3.322 1.741 5584
0.063 3.334 1.735 6701
0.063 3.339 1.725 6701
0.063 3.336 1.712 5561
0.063 3.326 1.695 5071
0.063 3.331 1.685 4217
0.063 3.343 1.679 3429
0.063 3.354 1.672 2882
0.065 3.438 1.698 2821
0.065 3.443 1.688 2821
0.065 3.447 1.678 1410
0.027 1.450 0.792 337
0.014 0.662 1.707 20597
0.014 0.670 1.712 22560
0.014 0.675 1.710 24546
0.014 0.682 1.715 22322
0.014 0.690 1.720 21609
0.015 0.698 1.726 22664
0.015 0.699 1.716 20733
0.015 0.697 1.700 20281
0.015 0.702 1.698 19570
0.015 0.710 1.703 19150
0.015 0.718 1.708 16211
0.015 0.726 1.713 14463
0.015 0.734 1.718 13796
0.015 0.738 1.715 13142
0.015 0.743 1.713 13094
0.016 0.747 1.711 11933
0.016 0.752 1.709 10772
0.016 0.760 1.713 9375
0.016 0.764 1.711 8128
0.016 0.758 1.688 11283
0.016 0.763 1.685 15002
0.016 0.767 1.683 13912
0.016 0.775 1.688 13029
0.016 0.780 1.685 10325
0.017 0.810 1.732 8704
0.016 0.789 1.681 7697
0.017 0.793 1.678 7775
0.017 0.824 1.725 9306
0.017 0.832 1.729 12556
0.017 0.833 1.720 14920
0.018 0.842 1.724 16056
0.018 0.850 1.729 13230
0.018 0.858 1.733 9704
0.018 0.871 1.744 8719
0.018 0.872 1.735 10049
0.018 0.876 1.732 11302
0.018 0.885 1.736 11698
0.019 0.889 1.734 12471
0.019 0.898 1.738 13626
0.019 0.903 1.735 16464
0.019 0.907 1.733 17891
0.019 0.908 1.723 16100
0.019 0.908 1.713 15294
0.019 0.917 1.718 15298
0.019 0.926 1.722 13795
0.019 0.934 1.726 11665
0.020 0.939 1.723 16066
0.020 0.952 1.733 19699
0.020 0.961 1.737 22624
0.020 0.965 1.734 23607
0.020 0.970 1.732 20322
0.020 0.975 1.729 16857
0.021 0.983 1.732 15105
0.021 0.996 1.743 14816
0.021 1.001 1.740 12442
0.021 1.001 1.730 12740
0.021 1.010 1.734 13384
0.021 1.024 1.744 13116
0.021 1.024 1.734 14363
0.022 1.042 1.751 18283
0.022 1.051 1.755 22213
0.022 1.056 1.751 25545
0.022 1.060 1.748 23584
0.022 1.065 1.745 14000
0.022 1.078 1.755 10719
0.023 1.083 1.752 12928
0.023 1.088 1.748 15734
0.023 1.088 1.739 16674
0.023 1.093 1.736 14030
0.023 1.102 1.739 11180
0.023 1.106 1.735 9679
0.023 1.120 1.745 13593
0.024 1.130 1.748 24126
0.024 1.139 1.751 29240
0.024 1.144 1.748 25741
0.024 1.148 1.744 20833
0.024 1.148 1.734 17753
0.024 1.158 1.737 21140
0.024 1.162 1.734 29645
0.024 1.172 1.737 29308
0.025 1.181 1.740 25248
0.025 1.186 1.736 23889
0.025 1.195 1.739 19557
0.025 1.200 1.735 13788
0.025 1.204 1.732 15902
0.025 1.209 1.728 21800
0.026 1.223 1.737 23018
0.026 1.243 1.752 18841
0.026 1.247 1.748 20156
0.026 1.252 1.745 20817
0.026 1.257 1.741 14537
0.026 1.266 1.743 11439
0.027 1.276 1.746 15927
0.027 1.281 1.742 20591
0.027 1.290 1.744 18371
0.027 1.305 1.753 15037
0.027 1.315 1.755 17807
0.028 1.319 1.751 21921
0.028 1.324 1.747 25220
0.028 1.329 1.743 25424
0.028 1.339 1.745 25022
0.028 1.348 1.747 30104
0.028 1.353 1.743 29244
0.028 1.352 1.733 15251
0.028 1.362 1.735 8601
0.029 1.383 1.749 12831
0.029 1.398 1.757 10765
0.030 1.418 1.770 8081
0.030 1.418 1.760 6350
0.029 1.412 1.744 9252
0.030 1.416 1.740 9905
0.030 1.416 1.730 7956
0.030 1.426 1.731 7813
0.030 1.436 1.733 8345
0.030 1.440 1.729 9701
0.030 1.456 1.736 9722
0.030 1.460 1.732 8374
0.030 1.459 1.722 8389
0.031 1.475 1.729 10857
0.031 1.485 1.730 8934
0.031 1.501 1.737 6151
0.031 1.511 1.738 11584
0.032 1.515 1.734 17602
0.032 1.537 1.746 30381
0.032 1.552 1.753 46191
0.033 1.563 1.754 43951
0.033 1.567 1.750 33844
0.033 1.566 1.739 19645
0.033 1.577 1.740 16960
0.033 1.581 1.736 24543
0.033 1.586 1.731 31297
0.033 1.596 1.732 25530
0.033 1.606 1.732 28093
0.034 1.617 1.733 30987
0.034 1.627 1.734 26266
0.034 1.637 1.735 25763
0.034 1.653 1.741 27999
0.035 1.664 1.741 30821
0.035 1.668 1.736 20444
0.035 1.679 1.737 22057
0.035 1.684 1.732 29066
0.035 1.688 1.727 23750
0.035 1.699 1.727 19746
0.036 1.715 1.733 18469
0.036 1.731 1.738 13304
0.037 1.759 1.754 9018
0.037 1.758 1.744 11191
0.037 1.763 1.739 12938
0.037 1.773 1.739 10131
0.037 1.790 1.744 11811
0.038 1.801 1.744 14448
0.038 1.799 1.733 13394
0.037 1.792 1.717 11179
0.038 1.802 1.717 7944
0.038 1.819 1.722 7069
0.039 1.854 1.743 5544
0.039 1.858 1.737 9727
0.039 1.863 1.732 14057
0.039 1.868 1.726 13102
0.039 1.878 1.726 11344
0.039 1.889 1.725 9804
0.040 1.924 1.745 9580
0.040 1.941 1.749 12910
0.041 1.946 1.743 17304
0.041 1.957 1.742 19066
0.041 1.961 1.737 18347
0.041 1.966 1.731 17394
0.041 1.971 1.725 15228
0.041 1.981 1.724 10553
0.042 1.998 1.728 9104
0.029 1.403 1.256 9930
0.029 1.406 1.252 17184
0.029 1.409 1.247 26210
0.029 1.413 1.243 34128
0.030 1.416 1.239 42877
0.030 1.419 1.235 50656
0.030 1.422 1.231 53618
0.030 1.425 1.226 54151
0.030 1.428 1.222 53245
0.030 1.432 1.218 49806
0.030 1.435 1.214 40921
0.030 1.438 1.209 29178
0.030 1.441 1.205 18906
0.030 1.444 1.201 12016
0.030 1.447 1.197 8605
0.030 1.450 1.192 5360
0.030 1.453 1.188 2084
0.031 1.469 1.193 1176
0.031 1.466 1.184 1327
0.030 1.462 1.175 1451
0.031 1.465 1.171 1568
0.031 1.468 1.166 1589
0.031 1.471 1.162 1200
0.031 1.481 1.162 732
0.113 5.442 3.810 598
0.047 2.244 1.658 612
0.117 5.622 3.883 550
0.033 1.572 1.197 695
0.036 1.714 1.283 750
0.036 1.717 1.278 779
0.036 1.727 1.277 688
0.036 1.737 1.276 482
0.145 6.975 4.604 449
0.036 1.750 1.270 407
0.143 6.853 4.471 511
0.143 6.873 4.455 421
0.144 6.885 4.435 335
0.036 1.709 1.216 403
0.036 1.706 1.207 534
0.036 1.722 1.210 546
0.036 1.732 1.209 612
0.036 1.729 1.200 626
0.036 1.738 1.199 561
0.037 1.769 1.210 706
0.037 1.772 1.204 828
0.034 1.631 1.115 971
0.034 1.641 1.114 1049
0.034 1.644 1.110 805
0.034 1.654 1.109 572
0.060 2.874 1.797 627
0.060 2.879 1.788 672
0.035 1.662 1.094 769
0.060 2.874 1.764 1087
0.060 2.879 1.755 1467
0.060 2.884 1.747 1943
0.060 2.888 1.738 2420
0.060 2.893 1.730 2211
0.060 2.898 1.721 2002
0.062 2.951 1.739 2712
0.062 2.963 1.734 3799
0.062 2.960 1.721 3959
0.062 2.958 1.709 4140
0.064 3.061 1.751 4338
0.064 3.066 1.742 5981
0.064 3.063 1.730 5823
0.064 3.061 1.717 5912
0.064 3.058 1.704 4473
0.065 3.141 1.734 4959
0.066 3.145 1.725 5677
0.066 3.150 1.716 6396
0.066 3.147 1.703 5069
0.066 3.145 1.690 3895
0.069 3.299 1.754 3467
0.069 3.318 1.751 4536
