-8.189 8.663 2.183 1057
-8.633 9.133 2.256 807
-8.193 8.668 2.148 804
-8.958 9.477 2.258 864
-9.374 9.916 2.235 929
-9.356 9.898 2.191 797
-1.580 1.678 1.797 3835
-1.583 1.682 1.791 7671
-1.666 1.770 1.879 1064
-1.587 1.685 1.784 7671
-1.670 1.774 1.872 2129
-1.638 1.740 1.828 7042
-1.555 1.651 1.740 2923
-1.637 1.739 1.817 7726
-1.721 1.828 1.905 1802
-1.649 1.752 1.819 8218
-1.565 1.663 1.732 1826
-1.662 1.765 1.822 9411
-1.746 1.854 1.909 1683
-1.665 1.768 1.815 9411
-1.749 1.858 1.901 2198
-1.664 1.767 1.803 8954
-1.748 1.857 1.890 4740
-1.663 1.766 1.792 8777
-1.747 1.856 1.878 7951
-1.742 1.850 1.861 10301
-1.657 1.760 1.776 5770
-1.745 1.854 1.854 12193
-1.660 1.764 1.769 3295
-1.758 1.867 1.856 10250
-1.668 1.772 1.766 2791
-1.770 1.880 1.857 10375
-1.671 1.775 1.760 2281
-1.773 1.884 1.850 10375
-1.679 1.783 1.757 1717
-1.777 1.887 1.843 8237
-1.691 1.796 1.759 1373
-1.740 1.848 1.796 9669
-1.171 1.244 1.242 1693
-1.743 1.851 1.788 8658
-1.829 1.943 1.871 3035
-1.742 1.850 1.777 7593
-1.828 1.942 1.860 4884
-1.831 1.945 1.852 8457
-1.745 1.854 1.770 5339
-1.835 1.949 1.844 12030
-1.180 1.253 1.223 3639
-1.838 1.952 1.837 12508
-1.182 1.255 1.218 3509
-1.842 1.956 1.829 12985
-1.184 1.257 1.213 3373
-1.845 1.960 1.821 10229
-1.186 1.260 1.208 3039
-1.848 1.963 1.813 7473
-1.935 2.056 1.894 4333
-1.847 1.962 1.802 6768
-1.943 2.064 1.890 5686
-1.952 2.073 1.886 7447
-1.846 1.960 1.790 6405
-1.950 2.072 1.874 8167
-1.854 1.969 1.786 6692
-1.949 2.070 1.862 9148
-1.857 1.972 1.778 7062
-1.953 2.074 1.853 7493
-1.860 1.976 1.771 7126
-1.863 1.979 1.763 7191
-1.961 2.083 1.849 5919
-1.969 2.091 1.845 7005
-1.867 1.983 1.755 6750
-1.972 2.095 1.837 8229
-1.870 1.986 1.747 6310
-1.980 2.103 1.833 9730
-1.873 1.990 1.739 5569
-1.984 2.107 1.825 11448
-2.082 2.211 1.909 7195
-1.992 2.116 1.820 9622
-2.104 2.235 1.917 8967
-2.107 2.238 1.908 11756
-1.995 2.119 1.812 8001
-2.111 2.242 1.899 11785
-1.989 2.113 1.796 6606
-2.100 2.231 1.878 9235
-1.992 2.116 1.787 5334
-2.090 2.220 1.858 7149
-2.000 2.125 1.783 5612
-2.088 2.218 1.845 5470
-1.999 2.123 1.771 4649
-2.167 2.302 1.899 4052
-2.002 2.127 1.762 3796
-2.171 2.306 1.890 4660
-2.005 2.130 1.754 2972
-2.174 2.310 1.881 5268
-2.013 2.138 1.749 1655
-2.183 2.318 1.875 4434
-2.273 2.414 1.948 1570
-2.186 2.322 1.866 3690
-2.276 2.418 1.939 3274
-2.266 2.407 1.918 4827
-2.175 2.311 1.846 3439
-2.274 2.415 1.912 4251
-2.183 2.319 1.840 3248
-2.306 2.450 1.925 3960
-2.211 2.348 1.850 3008
-2.310 2.453 1.915 4483
-2.219 2.357 1.844 3472
-2.313 2.457 1.906 4541
-2.222 2.360 1.835 2704
-2.322 2.466 1.900 4121
-2.230 2.369 1.829 2135
-2.316 2.460 1.883 6780
-2.407 2.557 1.952 2212
-2.314 2.458 1.869 12872
-2.406 2.555 1.939 3380
-2.313 2.457 1.856 16649
-2.404 2.554 1.925 4089
-2.316 2.460 1.846 18195
-2.408 2.558 1.915 5479
-2.325 2.469 1.840 21252
-2.416 2.567 1.908 6627
-2.333 2.478 1.834 22443
-2.425 2.576 1.902 6595
-2.331 2.476 1.821 22760
-2.423 2.574 1.888 7483
-2.335 2.480 1.811 21395
-2.437 2.588 1.885 8711
-2.338 2.483 1.801 16309
-2.445 2.597 1.878 10708
-2.336 2.482 1.788 13473
-2.448 2.601 1.868 13153
-2.462 2.615 1.865 12488
-2.340 2.485 1.778 11250
-2.490 2.644 1.872 11060
-2.348 2.494 1.771 7485
-2.493 2.648 1.861 11627
-2.351 2.497 1.762 4954
-2.496 2.652 1.851 13086
-2.589 2.750 1.915 6310
-2.500 2.655 1.840 15974
-2.593 2.754 1.904 8347
-2.503 2.659 1.830 13250
-2.597 2.758 1.894 5928
-2.507 2.662 1.819 9097
-2.679 2.845 1.936 5065
-2.510 2.666 1.809 6416
-2.682 2.849 1.925 4418
-2.612 2.774 1.864 6504
-2.706 2.874 1.927 3986
-2.714 2.883 1.919 7215
-2.620 2.783 1.856 6685
-2.713 2.881 1.904 9543
-2.599 2.761 1.829 4124
-2.691 2.859 1.876 9061
-2.597 2.759 1.815 3108
-2.695 2.863 1.865 8765
-2.601 2.762 1.804 2163
-2.708 2.877 1.860 11178
-2.614 2.777 1.799 1232
-2.722 2.891 1.855 15407
-2.627 2.791 1.795 1403
-2.730 2.900 1.847 17339
-2.636 2.799 1.787 1245
-2.738 2.909 1.839 16583
-2.928 3.110 1.958 1054
-2.742 2.912 1.827 17098
-2.926 3.108 1.942 1737
-2.745 2.916 1.816 14569
-2.930 3.112 1.930 2702
-2.749 2.919 1.804 15603
-2.939 3.121 1.921 3601
-2.757 2.928 1.795 19543
-2.932 3.115 1.902 4724
-2.765 2.937 1.787 18164
-2.946 3.129 1.896 6672
-2.769 2.941 1.775 11906
-2.949 3.133 1.884 9787
-3.013 3.200 1.907 11573
-2.762 2.933 1.758 9625
-3.022 3.209 1.897 12616
-2.770 2.942 1.749 9101
-2.960 3.144 1.846 8680
-2.773 2.946 1.737 5838
-2.963 3.147 1.834 7435
-3.059 3.249 1.889 3333
-3.027 3.215 1.856 5606
-3.158 3.355 1.931 4203
-3.035 3.224 1.846 6303
-3.162 3.358 1.918 5820
-3.170 3.368 1.908 6712
-3.034 3.222 1.831 5684
-3.169 3.366 1.891 4520
-3.306 3.511 1.968 4475
-3.314 3.521 1.957 5332
-3.167 3.364 1.875 3083
-3.323 3.530 1.946 5906
-3.186 3.384 1.870 3113
-3.327 3.534 1.932 7555
-3.195 3.393 1.860 2127
-3.346 3.554 1.926 8071
-3.234 3.435 1.865 2036
-3.354 3.563 1.915 6581
-3.451 3.666 1.966 2014
-3.358 3.567 1.900 5398
-3.501 3.718 1.976 2348
-3.361 3.570 1.886 5933
-3.504 3.722 1.961 3883
-3.380 3.590 1.880 5141
-3.508 3.726 1.947 4417
-3.511 3.730 1.932 4618
-3.414 3.627 1.882 3679
-3.515 3.734 1.917 5458
-3.418 3.630 1.867 2777
-3.519 3.737 1.902 6594
-3.631 3.857 1.959 1595
-3.517 3.736 1.885 6129
-3.717 3.948 1.985 1730
-3.520 3.739 1.870 4075
-3.726 3.958 1.972 2924
-3.755 3.989 1.969 5003
-3.524 3.743 1.855 3335
-3.733 3.965 1.941 6017
-3.527 3.747 1.840 3018
-3.737 3.969 1.925 4963
-3.871 4.111 1.989 2725
-3.792 4.028 1.934 5196
-3.890 4.132 1.980 2262
-3.796 4.031 1.918 5581
-3.894 4.136 1.964 2467
-3.804 4.041 1.904 4726
-3.902 4.145 1.950 2477
-3.808 4.044 1.888 3534
-3.916 4.160 1.938 2361
-3.811 4.048 1.872 2969
-3.935 4.180 1.929 2666
-4.094 4.349 1.983 2687
-3.955 4.200 1.919 2504
-4.166 4.425 1.996 2245
-4.067 4.320 1.952 2103
-4.190 4.451 1.988 3213
-4.039 4.291 1.921 2508
-4.194 4.454 1.970 4092
-4.048 4.300 1.906 2025
-4.187 4.447 1.948 4290
-4.088 4.342 1.905 2152
-4.180 4.440 1.926 4422
-4.279 4.545 1.968 1637
-4.277 4.543 1.948 3055
-4.178 4.438 1.906 2686
-4.281 4.547 1.930 3279
-4.422 4.697 1.989 1465
-4.279 4.545 1.910 2310
-4.436 4.712 1.975 2003
-4.539 4.821 1.997 2528
-4.267 4.533 1.885 2031
-4.542 4.825 1.978 2540
-4.344 4.614 1.897 1605
-4.834 5.134 2.075 2516
-4.578 4.862 1.971 2355
-4.827 5.127 2.050 2524
-4.586 4.872 1.954 1808
-4.805 5.104 2.019 3654
-4.637 4.925 1.953 1564
-4.814 5.113 2.001 3853
-5.149 5.470 2.132 1327
-4.844 5.145 1.991 4957
-5.153 5.474 2.110 1773
-4.863 5.166 1.976 4990
-5.157 5.478 2.088 1516
-4.867 5.169 1.956 3421
-5.329 5.661 2.130 1545
-5.338 5.670 2.109 2346
-4.876 5.179 1.937 1758
-5.348 5.680 2.088 2870
-4.900 5.205 1.924 1275
-5.251 5.578 2.029 2251
-5.352 5.684 2.066 2013
-5.261 5.588 2.009 2967
-5.429 5.767 2.069 1514
-5.602 5.950 2.106 1742
-5.259 5.586 1.985 1642
-5.949 6.319 2.202 1598
-5.600 5.949 2.081 1168
-5.958 6.329 2.179 1791
-5.536 5.880 2.033 1043
-5.724 6.080 2.073 1690
-5.909 6.277 2.136 1648
-5.913 6.281 2.110 1401
-5.728 6.084 2.048 1314
-6.018 6.392 2.119 1411
-6.140 6.521 2.159 1170
-6.472 6.874 2.240 1261
-6.038 6.413 2.098 1103
-6.423 6.822 2.196 1929
-6.582 6.991 2.247 1713
-6.586 6.996 2.219 2417
-6.432 6.832 2.170 2015
-6.590 7.000 2.191 1791
-6.468 6.870 2.153 1651
-6.446 6.847 2.117 1349
-6.855 7.281 2.243 1272
-7.108 7.550 2.290 1647
-6.444 6.845 2.088 1264
-7.118 7.561 2.262 1429
-6.916 7.346 2.201 1158
-7.149 7.593 2.239 1287
-7.021 7.458 2.202 1015
-7.259 7.711 2.240 1530
-7.733 8.214 2.378 1215
-7.748 8.230 2.348 2505
-7.258 7.710 2.208 1830
-7.747 8.229 2.314 3684
-7.262 7.714 2.177 1295
-7.752 8.234 2.281 3509
-7.266 7.718 2.146 1098
-7.761 8.244 2.249 2361
-7.580 8.051 2.200 994
-7.765 8.248 2.217 1910
-7.664 8.140 2.189 1047
-7.769 8.253 2.184 2084
-8.090 8.593 2.268 887
-7.779 8.263 2.152 1591
-8.164 8.671 2.252 940
-7.810 8.295 2.126 1248
-8.601 9.135 2.328 1096
-8.605 9.140 2.292 1084
-8.172 8.680 2.183 940
-8.615 9.150 2.256 896
-8.935 9.490 2.296 759
-8.939 9.495 2.258 905
-9.359 9.941 2.236 903
-9.331 9.911 2.189 770
-1.570 1.687 1.797 3933
-1.574 1.691 1.791 7866
-1.656 1.780 1.879 1198
-1.577 1.694 1.784 7866
-1.660 1.783 1.872 2396
-1.584 1.703 1.782 7100
-1.667 1.792 1.870 3261
-1.623 1.744 1.812 7298
-1.706 1.833 1.900 2258
-1.635 1.757 1.815 7886
-1.718 1.846 1.902 1887
-1.651 1.774 1.822 9030
-1.735 1.864 1.909 1910
-1.655 1.778 1.815 9030
-1.738 1.868 1.901 2537
-1.649 1.772 1.799 9034
-1.733 1.862 1.885 5388
-1.652 1.776 1.792 9247
-1.737 1.866 1.878 8041
-1.731 1.860 1.861 9876
-1.647 1.770 1.776 6429
-1.735 1.864 1.854 11539
-1.650 1.773 1.769 4003
-1.747 1.877 1.856 9747
-1.662 1.786 1.771 3848
-1.759 1.890 1.857 10343
-1.666 1.790 1.764 3640
-1.763 1.894 1.850 10343
-1.673 1.798 1.761 2733
-1.770 1.902 1.847 8411
-1.685 1.811 1.763 2045
-1.729 1.858 1.796 9565
-1.814 1.949 1.879 1996
-1.732 1.861 1.788 8311
-1.818 1.953 1.871 3407
-1.736 1.865 1.781 7019
-1.821 1.957 1.864 5210
-1.820 1.956 1.852 9085
-1.734 1.864 1.770 4803
-1.819 1.954 1.840 12795
-1.172 1.260 1.223 3703
-1.827 1.963 1.837 12654
-1.174 1.262 1.218 3686
-1.830 1.967 1.829 12533
-1.177 1.264 1.213 3697
-1.838 1.975 1.825 9294
-1.179 1.267 1.208 3476
-1.841 1.979 1.818 6367
-1.928 2.072 1.898 3832
-1.931 2.075 1.890 5624
-1.840 1.977 1.806 5431
-1.940 2.084 1.886 7541
-1.834 1.971 1.790 5041
-1.938 2.083 1.874 7913
-1.842 1.980 1.786 5695
-1.937 2.082 1.862 8435
-1.845 1.983 1.778 6376
-1.945 2.090 1.858 6909
-1.849 1.987 1.771 6726
-1.847 1.985 1.759 7099
-1.949 2.094 1.849 5408
-1.957 2.103 1.845 6929
-1.855 1.993 1.755 6783
-1.960 2.106 1.837 8567
-1.858 1.997 1.747 6491
-1.968 2.115 1.833 9809
-1.862 2.000 1.739 5848
-1.971 2.118 1.825 11184
-2.073 2.228 1.913 6573
-1.979 2.127 1.820 9346
-2.091 2.247 1.917 8612
-2.094 2.251 1.908 11389
-1.983 2.131 1.812 7592
-2.098 2.254 1.899 11284
-1.981 2.129 1.800 5962
-2.087 2.243 1.878 8669
-1.980 2.128 1.787 4162
-2.077 2.232 1.858 6799
-1.988 2.136 1.783 3998
-2.076 2.230 1.845 5376
-1.987 2.135 1.771 3354
-2.159 2.320 1.903 4272
-2.070 2.224 1.829 3786
-2.158 2.318 1.890 4620
-2.068 2.222 1.816 2677
-2.161 2.322 1.881 5045
-2.072 2.226 1.807 1381
-2.164 2.326 1.871 4097
-2.254 2.422 1.944 1600
-2.248 2.416 1.927 3728
-2.158 2.319 1.855 3234
-2.247 2.415 1.914 5256
-2.157 2.318 1.842 3569
-2.246 2.413 1.901 4704
-2.156 2.316 1.829 3044
-2.249 2.417 1.891 4156
-2.159 2.320 1.820 2301
-2.201 2.365 1.841 4035
-2.291 2.462 1.912 3977
-2.304 2.476 1.909 3929
-2.204 2.368 1.831 3073
-2.326 2.500 1.914 3713
-2.236 2.403 1.844 2926
-2.306 2.478 1.886 5556
-2.397 2.576 1.956 2131
-2.295 2.466 1.866 10915
-2.386 2.564 1.935 4659
-2.294 2.465 1.852 14688
-2.385 2.563 1.921 5718
-2.302 2.474 1.846 16005
-2.393 2.572 1.915 6440
-2.310 2.482 1.840 18726
-2.402 2.581 1.908 7521
-2.314 2.486 1.830 19933
-2.405 2.584 1.898 8147
-2.317 2.490 1.821 20655
-2.409 2.588 1.888 8920
-2.320 2.493 1.811 19590
-2.422 2.602 1.885 10494
-2.324 2.497 1.801 14679
-2.430 2.611 1.878 12713
-2.433 2.615 1.868 15485
-2.322 2.495 1.788 11991
-2.442 2.624 1.861 14316
-2.325 2.499 1.778 9809
-2.474 2.659 1.872 11250
-2.333 2.507 1.771 6338
-2.478 2.662 1.861 11749
-2.570 2.762 1.926 4661
-2.481 2.666 1.851 13632
-2.574 2.765 1.915 7198
-2.484 2.670 1.840 16946
-2.577 2.769 1.904 9667
-2.488 2.673 1.830 13984
-2.581 2.773 1.894 7626
-2.491 2.677 1.819 9590
-2.584 2.777 1.883 5653
-2.495 2.680 1.809 6502
-2.588 2.780 1.872 5687
-2.596 2.789 1.864 7835
-2.694 2.895 1.930 4542
-2.702 2.904 1.922 8124
-2.599 2.793 1.853 7832
-2.706 2.908 1.911 10025
-2.588 2.781 1.832 4236
-2.700 2.901 1.893 8355
-2.581 2.774 1.815 3149
-2.698 2.899 1.878 7599
-2.590 2.783 1.807 2351
-2.702 2.903 1.867 10409
-2.608 2.802 1.806 1711
-2.710 2.912 1.858 15756
-2.616 2.811 1.798 1585
-2.713 2.916 1.847 17135
-2.619 2.815 1.787 1118
-2.717 2.919 1.835 14888
-2.915 3.132 1.961 808
-2.725 2.928 1.827 14978
-2.913 3.131 1.945 1301
-2.728 2.932 1.816 12947
-2.912 3.129 1.930 1986
-2.732 2.935 1.804 14394
-2.921 3.138 1.921 2665
-2.745 2.950 1.799 18722
-2.914 3.131 1.902 3458
-2.753 2.958 1.790 17272
-2.928 3.146 1.896 4736
-2.751 2.957 1.775 10468
-2.981 3.203 1.914 7792
-2.995 3.218 1.907 13164
-2.750 2.955 1.761 7518
-3.003 3.227 1.897 14447
-2.753 2.958 1.749 7225
-3.001 3.225 1.882 8728
-2.761 2.967 1.740 4506
-2.945 3.164 1.834 5956
-3.040 3.267 1.889 3121
-3.008 3.233 1.856 5481
-3.139 3.373 1.931 4039
-3.017 3.242 1.846 6552
-3.142 3.377 1.918 6001
-3.146 3.380 1.905 6591
-3.015 3.240 1.831 6246
-3.144 3.379 1.889 4350
-3.285 3.530 1.968 4177
-3.294 3.540 1.957 5306
-3.148 3.383 1.875 2990
-3.303 3.549 1.946 6500
-3.161 3.397 1.868 2953
-3.311 3.558 1.934 7857
-3.170 3.406 1.857 2054
-3.325 3.573 1.926 7764
-3.219 3.459 1.868 1922
-3.334 3.582 1.915 6557
-3.430 3.685 1.966 1602
-3.337 3.586 1.900 5740
-3.474 3.733 1.973 2098
-3.341 3.590 1.886 6644
-3.483 3.742 1.961 3381
-3.359 3.610 1.880 5708
-3.486 3.746 1.947 3955
-3.434 3.690 1.903 4787
-3.337 3.586 1.853 1932
-3.493 3.754 1.917 5093
-3.397 3.650 1.867 3293
-3.492 3.752 1.900 5630
-3.614 3.884 1.962 1666
-3.495 3.756 1.885 4897
-3.684 3.959 1.980 1788
-3.494 3.754 1.867 3614
-3.698 3.974 1.969 2928
-3.742 4.021 1.974 4560
-3.497 3.758 1.853 3401
-3.710 3.987 1.941 5428
-3.506 3.767 1.840 2821
-3.755 4.035 1.945 4901
-3.852 4.139 1.992 2528
-3.763 4.044 1.931 5894
-3.861 4.149 1.978 2500
-3.772 4.053 1.918 6304
-3.875 4.164 1.967 2337
-3.781 4.063 1.904 5334
-3.878 4.167 1.950 2337
-3.784 4.066 1.888 3771
-3.892 4.182 1.938 2373
-3.793 4.076 1.874 2885
-3.906 4.197 1.927 2706
-3.925 4.218 1.917 2501
-4.064 4.367 1.981 2361
-3.934 4.227 1.903 2054
-4.037 4.338 1.949 2005
-4.164 4.475 1.988 2737
-4.020 4.319 1.923 2097
-4.173 4.484 1.972 3435
-4.028 4.329 1.908 1832
-4.161 4.471 1.948 3603
-4.063 4.366 1.905 1973
-4.154 4.464 1.926 3452
-4.263 4.581 1.973 1503
-4.256 4.574 1.950 2930
-4.158 4.468 1.908 1954
-4.255 4.572 1.930 3455
-4.400 4.728 1.991 1448
-4.258 4.576 1.912 2391
-4.409 4.737 1.975 1949
-4.511 4.847 1.997 2726
-4.246 4.563 1.887 1912
-4.520 4.857 1.980 2706
-4.317 4.639 1.897 1633
-4.799 5.157 2.073 2927
-4.544 4.883 1.969 2461
-4.803 5.161 2.052 3569
-4.563 4.904 1.956 1704
-4.791 5.148 2.025 3837
-4.609 4.952 1.953 1557
-4.810 5.169 2.011 5025
-4.612 4.956 1.934 1342
-4.819 5.178 1.993 6468
-5.080 5.459 2.094 1591
-4.828 5.188 1.974 5429
-5.131 5.513 2.090 1602
-4.837 5.197 1.956 3168
-5.286 5.680 2.126 1464
-5.306 5.701 2.109 2294
-4.846 5.207 1.937 1479
-5.315 5.711 2.088 3009
-5.168 5.554 2.034 1142
-5.313 5.709 2.064 1904
-5.214 5.603 2.028 1482
-5.233 5.624 2.011 1903
-5.563 5.978 2.130 1684
-5.562 5.977 2.104 2172
-5.693 6.117 2.151 1207
-5.566 5.981 2.081 1582
-5.692 6.116 2.125 1290
-5.937 6.380 2.184 1405
-5.565 5.979 2.055 1314
-5.689 6.113 2.073 1709
-5.873 6.311 2.136 1618
-5.872 6.309 2.109 1349
-5.693 6.117 2.048 1311
-5.981 6.427 2.119 1263
-6.212 6.675 2.196 1160
-6.243 6.708 2.178 1370
-6.432 6.912 2.240 1365
-6.384 6.859 2.196 1739
-6.542 7.029 2.247 1639
-6.546 7.034 2.219 2372
-6.409 6.886 2.175 1892
-6.550 7.038 2.191 1798
-6.423 6.902 2.151 1776
-6.401 6.878 2.116 1567
-6.965 7.485 2.291 1168
-6.399 6.876 2.087 1573
-7.065 7.591 2.290 1562
-7.074 7.602 2.262 1301
-6.868 7.380 2.200 1195
-7.105 7.634 2.239 1292
-6.978 7.498 2.202 1185
-7.686 8.258 2.378 1529
-6.961 7.480 2.166 1291
-7.701 8.275 2.348 2961
-7.219 7.757 2.209 1521
-7.705 8.279 2.315 4224
-7.228 7.767 2.180 1477
-7.709 8.284 2.282 4131
-7.238 7.777 2.151 1459
-7.713 8.288 2.249 3078
-7.554 8.118 2.206 1035
-7.718 8.293 2.217 2408
-7.558 8.122 2.173 885
-7.722 8.297 2.184 2301
-8.045 8.645 2.270 805
-7.736 8.313 2.153 1955
-8.538 9.175 2.363 913
-7.762 8.340 2.126 1617
-8.548 9.185 2.328 1267
-8.552 9.190 2.292 1278
-7.776 8.356 2.095 1108
-8.556 9.194 2.255 990
-8.884 9.546 2.258 855
-9.249 9.939 2.265 819
-9.259 9.949 2.227 968
-9.263 9.953 2.187 775
-1.571 1.695 1.802 4117
-1.575 1.699 1.795 8235
-1.670 1.802 1.898 1124
-1.578 1.702 1.789 8235
-1.674 1.805 1.891 2249
-1.581 1.706 1.782 7535
-1.664 1.795 1.870 3463
-1.619 1.747 1.812 7557
-1.702 1.836 1.900 2492
-1.627 1.755 1.810 8122
-1.710 1.845 1.898 2347
-1.635 1.763 1.808 9037
-1.718 1.853 1.895 2694
-1.638 1.767 1.801 9037
-1.722 1.857 1.888 3280
-1.641 1.771 1.794 9555
-1.725 1.861 1.880 5787
-1.649 1.779 1.792 10111
-1.733 1.869 1.878 8113
-1.728 1.863 1.861 9406
-1.643 1.773 1.776 6917
-1.731 1.867 1.854 10742
-1.647 1.776 1.769 4073
-1.748 1.885 1.860 9123
-1.654 1.785 1.766 3963
-1.760 1.898 1.862 10057
-1.662 1.793 1.764 3787
-1.763 1.902 1.854 10057
-1.670 1.801 1.761 3033
-1.776 1.915 1.856 8342
-1.691 1.824 1.772 3178
-1.725 1.861 1.796 9576
-1.810 1.953 1.879 2263
-1.729 1.865 1.788 8106
-1.814 1.957 1.871 3621
-1.759 1.897 1.807 6821
-1.166 1.257 1.233 2702
-1.816 1.959 1.852 9299
-1.731 1.867 1.770 4443
-1.815 1.958 1.840 13132
-1.170 1.262 1.223 3616
-1.819 1.962 1.832 12550
-1.172 1.264 1.218 3655
-1.826 1.970 1.829 12061
-1.174 1.267 1.213 3752
-1.834 1.979 1.825 8639
-1.176 1.269 1.208 3612
-1.842 1.987 1.822 5841
-1.929 2.080 1.902 3474
-1.927 2.079 1.890 5487
-1.841 1.986 1.810 4860
-1.936 2.088 1.886 7386
-1.831 1.975 1.790 4590
-1.934 2.087 1.874 7510
-1.838 1.983 1.786 5409
-1.938 2.090 1.866 7771
-1.842 1.987 1.778 6242
-1.840 1.985 1.766 6576
-1.941 2.094 1.858 6415
-1.844 1.989 1.759 6991
-1.945 2.098 1.849 5058
-1.953 2.106 1.845 6739
-1.847 1.992 1.751 6621
-1.956 2.110 1.837 8517
-1.855 2.001 1.747 6316
-1.964 2.119 1.833 9617
-1.858 2.004 1.739 5766
-1.967 2.122 1.825 10767
-2.069 2.232 1.913 6043
-1.975 2.131 1.820 9005
-2.087 2.251 1.917 8183
-2.090 2.255 1.908 10904
-1.979 2.134 1.812 7246
-2.094 2.258 1.899 10635
-1.977 2.133 1.800 5609
-2.083 2.247 1.878 7903
-1.981 2.136 1.791 3485
-2.063 2.226 1.850 6334
-1.975 2.130 1.775 2690
-2.071 2.234 1.845 5208
-2.169 2.340 1.927 3377
-2.159 2.329 1.907 4319
-2.070 2.233 1.832 4023
-2.158 2.328 1.894 4468
-2.069 2.231 1.820 2961
-2.157 2.326 1.881 4746
-2.067 2.230 1.807 1456
-2.160 2.330 1.871 3747
-2.249 2.426 1.944 1525
-2.239 2.415 1.923 3752
-2.149 2.318 1.851 2967
-2.238 2.414 1.910 5499
-2.148 2.317 1.838 3541
-2.241 2.418 1.901 5090
-2.151 2.321 1.829 3510
-2.249 2.426 1.895 4580
-2.159 2.329 1.824 2924
-2.196 2.369 1.841 4390
-2.286 2.466 1.912 3527
-2.309 2.490 1.917 3431
-2.199 2.372 1.831 3347
-2.322 2.504 1.914 3481
-2.231 2.407 1.844 2805
-2.301 2.482 1.886 4746
-2.392 2.580 1.956 2304
-2.286 2.466 1.862 9711
-2.376 2.563 1.931 5776
-2.289 2.469 1.852 13361
-2.380 2.567 1.921 6327
-2.297 2.478 1.846 14220
-2.388 2.576 1.915 7069
-2.305 2.487 1.840 16618
-2.397 2.585 1.908 8127
-2.309 2.491 1.830 17819
-2.400 2.589 1.898 8843
-2.317 2.499 1.824 18669
-2.408 2.598 1.892 9049
-2.320 2.503 1.814 17742
-2.412 2.602 1.881 11405
-2.425 2.616 1.878 13675
-2.319 2.501 1.801 12864
-2.428 2.619 1.868 16546
-2.317 2.500 1.788 10338
-2.432 2.623 1.858 15189
-2.321 2.503 1.778 8346
-2.469 2.663 1.872 11050
-2.329 2.512 1.771 5291
-2.473 2.667 1.861 11432
-2.565 2.767 1.926 4998
-2.481 2.676 1.854 13566
-2.573 2.776 1.919 7140
-2.484 2.680 1.843 17050
-2.577 2.779 1.908 9535
-2.483 2.678 1.830 13962
-2.575 2.778 1.894 8765
-2.486 2.682 1.819 9583
-2.579 2.782 1.883 6900
-2.582 2.785 1.872 6769
-2.489 2.685 1.809 6356
-2.590 2.794 1.864 8877
-2.693 2.905 1.933 4905
-2.594 2.798 1.853 8778
-2.697 2.909 1.922 8676
-2.700 2.913 1.911 10523
-2.583 2.786 1.832 4413
-2.704 2.917 1.899 8810
-2.576 2.779 1.815 3183
-2.702 2.915 1.884 7613
-2.584 2.788 1.807 2492
-2.701 2.913 1.870 10097
-2.602 2.807 1.806 1990
-2.704 2.917 1.858 15630
-2.611 2.816 1.798 1660
-2.708 2.921 1.847 16407
-2.614 2.820 1.787 1038
-2.711 2.924 1.835 13287
-2.714 2.928 1.824 12968
-2.907 3.136 1.945 964
-2.718 2.932 1.812 11423
-2.911 3.140 1.933 1459
-2.726 2.941 1.804 13089
-2.920 3.149 1.924 1988
-2.739 2.955 1.799 17386
-2.963 3.196 1.936 2836
-2.748 2.964 1.790 15846
-2.966 3.200 1.923 4197
-2.751 2.967 1.778 9091
-2.975 3.209 1.914 8146
-2.983 3.218 1.904 13861
-2.749 2.965 1.764 5943
-2.997 3.233 1.897 15315
-2.752 2.969 1.752 5708
-2.995 3.231 1.882 8963
-2.755 2.972 1.740 3483
-2.994 3.229 1.866 5065
-3.134 3.380 1.948 1977
-3.002 3.238 1.856 5175
-3.132 3.379 1.931 3822
-3.006 3.242 1.843 6508
-3.136 3.383 1.918 5862
-3.009 3.246 1.831 6459
-3.139 3.386 1.905 6183
-3.007 3.244 1.815 4289
-3.138 3.385 1.889 4075
-3.287 3.546 1.957 5350
-3.141 3.389 1.875 2850
-3.301 3.561 1.949 6874
-3.155 3.403 1.868 2737
-3.304 3.565 1.934 7778
-3.158 3.407 1.854 1974
-3.313 3.574 1.923 7339
-3.409 3.677 1.975 1668
-3.327 3.589 1.915 6612
-3.423 3.692 1.966 1501
-3.330 3.592 1.900 6171
-3.457 3.729 1.968 1873
-3.334 3.596 1.886 7212
-3.465 3.738 1.956 2959
-3.347 3.611 1.877 6066
-3.469 3.742 1.941 3520
-3.422 3.691 1.900 4887
-3.325 3.587 1.850 1818
-3.486 3.761 1.917 4603
-3.390 3.656 1.867 3593
-3.485 3.759 1.900 4854
-3.388 3.655 1.850 1833
-3.488 3.763 1.885 4043
-3.646 3.933 1.965 2010
-3.486 3.761 1.867 3214
-3.690 3.981 1.969 2765
-3.740 4.034 1.977 4283
-3.490 3.765 1.853 3194
-3.754 4.049 1.966 5569
-3.657 3.944 1.918 2639
-3.752 4.047 1.947 5788
-3.849 4.152 1.994 2141
-3.756 4.051 1.931 6539
-3.853 4.156 1.978 2404
-3.764 4.061 1.918 6151
-3.867 4.171 1.967 2219
-3.773 4.070 1.904 4698
-3.870 4.175 1.950 2083
-3.782 4.079 1.890 2948
-3.889 4.195 1.941 2307
-3.898 4.205 1.927 2770
-3.785 4.083 1.874 2132
-3.912 4.220 1.915 2509
-4.051 4.369 1.978 2044
-3.926 4.235 1.903 2083
-4.028 4.346 1.949 1934
-4.161 4.488 1.990 2403
-4.017 4.333 1.925 1775
-4.170 4.498 1.975 2918
-4.020 4.337 1.908 1762
-4.153 4.479 1.948 3249
-4.055 4.374 1.905 1708
-4.151 4.478 1.928 3201
-4.259 4.595 1.975 1665
-4.253 4.587 1.952 2846
-4.155 4.481 1.910 1675
-4.251 4.586 1.932 3373
-4.396 4.742 1.994 1316
-4.255 4.589 1.914 2358
-4.405 4.751 1.977 1898
-4.502 4.856 1.997 2950
-4.403 4.750 1.956 1921
-4.516 4.871 1.982 2975
-4.417 4.765 1.942 1733
-4.789 5.166 2.073 3167
-4.530 4.886 1.967 2570
-4.793 5.170 2.052 4090
-4.590 4.952 1.971 1722
-4.791 5.168 2.030 4322
-4.594 4.955 1.951 1446
-4.800 5.178 2.011 6180
-5.065 5.464 2.115 1573
-4.809 5.188 1.993 7487
-5.064 5.463 2.092 1767
-4.818 5.197 1.974 5588
-5.068 5.467 2.070 1647
-4.827 5.207 1.956 2878
-5.202 5.612 2.098 1569
-5.300 5.717 2.111 1889
-5.201 5.610 2.074 1332
-5.304 5.721 2.088 2813
-5.137 5.541 2.027 1046
-5.297 5.714 2.062 1970
-5.198 5.607 2.026 1169
-5.547 5.983 2.128 1765
-5.223 5.634 2.011 1753
-5.551 5.987 2.104 2263
-5.676 6.123 2.149 1428
-5.675 6.121 2.123 1761
-5.554 5.992 2.081 1568
-5.674 6.120 2.097 1402
-5.553 5.990 2.055 1395
-5.672 6.119 2.071 1640
-5.861 6.322 2.136 1439
-5.676 6.123 2.047 1258
-5.833 6.292 2.100 1221
-6.205 6.693 2.198 1263
-6.084 6.563 2.157 1145
-6.230 6.720 2.178 1609
-6.419 6.924 2.240 1419
-6.423 6.928 2.213 1582
-6.528 7.042 2.247 1434
-6.532 7.046 2.219 2121
-6.406 6.910 2.179 1818
-6.410 6.914 2.151 1818
-6.536 7.051 2.191 1588
-6.393 6.896 2.117 1451
-6.951 7.498 2.291 1033
-7.055 7.611 2.292 1386
-6.692 7.218 2.180 1258
-6.854 7.393 2.200 1258
-7.060 7.615 2.262 1157
-7.095 7.654 2.241 1251
-6.964 7.512 2.202 1138
-7.670 8.273 2.378 1539
-7.200 7.766 2.240 1201
-7.685 8.289 2.348 2998
-7.204 7.771 2.209 1260
-7.689 8.294 2.315 4296
-7.219 7.787 2.181 1164
-7.693 8.299 2.282 4464
-7.239 7.808 2.155 1195
-7.697 8.303 2.249 3713
-7.549 8.143 2.209 968
-7.702 8.308 2.217 2926
-7.548 8.142 2.175 784
-7.711 8.318 2.185 2627
-7.726 8.334 2.155 2218
-8.520 9.191 2.363 911
-7.746 8.355 2.126 1724
-8.530 9.201 2.328 1362
-8.534 9.206 2.292 1397
-7.760 8.371 2.095 1074
-8.539 9.211 2.255 1022
-8.141 8.781 2.156 757
-8.856 9.553 2.295 771
-8.866 9.563 2.258 890
-9.279 10.009 2.317 779
-9.230 9.957 2.265 864
-9.234 9.961 2.225 974
-9.238 9.965 2.186 781
-1.567 1.699 1.802 4661
-1.570 1.702 1.795 9322
-1.661 1.801 1.893 1387
-1.574 1.706 1.789 9322
-1.665 1.805 1.886 2774
-1.581 1.714 1.787 8646
-1.668 1.809 1.879 3920
-1.606 1.741 1.803 8546
-1.689 1.831 1.891 3850
-1.618 1.754 1.806 8237
-1.701 1.844 1.893 3094
-1.626 1.763 1.803 8612
-1.709 1.853 1.890 3375
-1.629 1.766 1.796 8612
-1.713 1.857 1.883 3971
-1.637 1.775 1.794 9494
-1.720 1.865 1.880 6035
-1.640 1.778 1.787 10442
-1.724 1.869 1.873 8382
-1.727 1.873 1.866 8873
-1.643 1.782 1.780 7510
-1.726 1.872 1.854 9664
-1.638 1.776 1.764 4705
-1.747 1.894 1.865 8415
-1.645 1.784 1.762 3595
-1.760 1.908 1.866 9676
-1.649 1.787 1.755 2499
-1.763 1.911 1.859 9676
-1.652 1.791 1.748 1962
-1.775 1.925 1.860 8394
-1.691 1.833 1.776 3202
-1.721 1.866 1.796 9389
-1.806 1.958 1.879 2662
-1.724 1.869 1.788 7889
-1.809 1.961 1.871 3874
-1.754 1.902 1.807 7343
-1.162 1.260 1.233 2551
-1.807 1.959 1.848 9470
-1.721 1.866 1.765 3814
-1.810 1.963 1.840 13454
-1.162 1.260 1.219 3463
-1.814 1.966 1.832 12566
-1.169 1.267 1.218 3528
-1.817 1.970 1.825 11678
-1.171 1.270 1.213 3704
-1.825 1.978 1.821 7807
-1.173 1.272 1.208 3656
-1.842 1.997 1.826 5401
-1.175 1.274 1.203 3496
-1.922 2.084 1.890 5310
-1.836 1.990 1.810 4169
-1.930 2.093 1.886 7195
-1.826 1.979 1.790 4065
-1.929 2.092 1.874 7004
-1.833 1.988 1.786 5067
-1.933 2.095 1.866 6950
-1.837 1.991 1.778 6073
-1.835 1.990 1.766 6366
-1.936 2.099 1.858 5825
-1.839 1.993 1.759 6711
-1.939 2.103 1.849 4699
-1.947 2.111 1.845 6508
-1.842 1.997 1.751 6339
-1.955 2.120 1.841 8389
-1.849 2.005 1.747 6012
-1.959 2.124 1.833 9297
-1.853 2.009 1.739 5567
-1.962 2.127 1.825 10204
-2.068 2.242 1.917 5318
-1.970 2.136 1.820 8675
-2.081 2.256 1.917 7597
-2.084 2.260 1.908 10240
-1.973 2.139 1.812 7035
-2.088 2.264 1.899 9713
-1.977 2.143 1.804 5415
-2.077 2.252 1.878 6665
-1.975 2.141 1.791 2873
-2.053 2.226 1.846 5685
-2.160 2.342 1.937 2201
-2.066 2.240 1.845 4964
-2.164 2.346 1.927 3547
-2.158 2.339 1.910 4466
-2.069 2.243 1.836 4363
-2.152 2.333 1.894 4396
-2.063 2.237 1.820 3102
-2.151 2.332 1.881 4454
-2.062 2.235 1.807 1632
-2.154 2.335 1.871 3442
-2.243 2.432 1.944 1413
-2.223 2.411 1.916 3779
-2.134 2.314 1.843 2666
-2.227 2.414 1.906 5744
-2.137 2.317 1.834 3593
-2.230 2.418 1.897 5470
-2.141 2.321 1.825 3601
-2.243 2.432 1.895 4978
-2.154 2.335 1.824 3226
-2.190 2.374 1.841 4653
-2.280 2.472 1.912 2825
-2.193 2.378 1.831 3620
-2.307 2.501 1.921 2927
-2.258 2.448 1.870 3991
-2.368 2.567 1.955 2177
-2.257 2.447 1.857 5102
-2.347 2.545 1.927 4180
-2.275 2.466 1.858 8811
-2.365 2.564 1.928 6899
-2.278 2.470 1.849 11834
-2.369 2.568 1.918 7838
-2.286 2.479 1.843 12098
-2.377 2.577 1.911 8780
-2.299 2.493 1.840 13921
-2.390 2.591 1.908 8762
-2.303 2.496 1.830 15060
-2.394 2.595 1.898 9659
-2.311 2.505 1.824 16140
-2.402 2.604 1.892 9874
-2.314 2.509 1.814 15329
-2.405 2.608 1.881 12459
-2.418 2.622 1.878 14798
-2.312 2.507 1.801 10298
-2.422 2.626 1.868 17660
-2.311 2.505 1.788 7958
-2.425 2.629 1.858 16291
-2.314 2.509 1.778 6352
-2.458 2.664 1.868 10516
-2.549 2.764 1.934 4354
-2.466 2.673 1.861 10706
-2.558 2.773 1.926 5424
-2.474 2.682 1.854 13157
-2.566 2.782 1.919 7468
-2.477 2.686 1.843 16752
-2.570 2.786 1.908 10305
-2.481 2.690 1.833 13593
-2.573 2.790 1.897 9795
-2.484 2.693 1.822 9369
-2.577 2.793 1.886 8671
-2.575 2.792 1.872 7994
-2.483 2.692 1.809 6020
-2.583 2.801 1.864 9474
-2.686 2.912 1.933 5229
-2.587 2.805 1.853 9230
-2.689 2.916 1.922 9196
-2.698 2.925 1.914 11142
-2.605 2.824 1.852 4677
-2.701 2.929 1.902 9829
-2.569 2.785 1.815 2830
-2.705 2.932 1.891 8770
-2.577 2.794 1.807 2366
-2.698 2.926 1.873 10279
-2.595 2.814 1.806 2320
-2.702 2.929 1.862 15169
-2.608 2.828 1.801 1799
-2.700 2.928 1.847 15116
-2.607 2.826 1.787 912
-2.704 2.931 1.835 11100
-2.707 2.935 1.824 10253
-2.710 2.938 1.812 9295
-2.957 3.206 1.967 1060
-2.724 2.953 1.807 11169
-2.956 3.205 1.951 2401
-2.732 2.962 1.799 15192
-2.960 3.209 1.939 3484
-2.740 2.971 1.790 13563
-2.963 3.213 1.926 4567
-2.967 3.216 1.914 8369
-2.743 2.974 1.778 7542
-2.975 3.226 1.904 14271
-2.747 2.978 1.767 4369
-2.984 3.235 1.894 15812
-2.750 2.981 1.755 3865
-2.987 3.239 1.882 9078
-2.748 2.979 1.740 2432
-2.986 3.237 1.866 4566
-2.746 2.977 1.726 1565
-2.989 3.241 1.853 4632
-3.124 3.387 1.931 3469
-2.997 3.250 1.843 6230
-3.127 3.391 1.918 5520
-3.001 3.253 1.831 6586
-3.131 3.394 1.905 5570
-2.999 3.251 1.815 4361
-3.290 3.567 1.979 3797
-3.293 3.571 1.965 5655
-3.128 3.391 1.873 2468
-3.292 3.569 1.949 7591
-3.141 3.406 1.865 2287
-3.295 3.573 1.934 7561
-3.145 3.409 1.851 1716
-3.309 3.588 1.926 6568
-3.405 3.691 1.978 1543
-3.318 3.597 1.915 6646
-3.413 3.701 1.966 1530
-3.321 3.601 1.900 6819
-3.417 3.705 1.952 1938
-3.325 3.604 1.886 8047
-3.446 3.736 1.951 2488
-3.338 3.619 1.877 6705
-3.434 3.723 1.928 3295
-3.382 3.667 1.884 5040
-3.478 3.771 1.934 3037
-3.411 3.698 1.883 4343
-3.507 3.802 1.933 1636
-3.475 3.768 1.900 3731
-3.379 3.663 1.850 2302
-3.479 3.771 1.885 3105
-3.631 3.937 1.962 2481
-3.640 3.946 1.949 2879
-3.477 3.770 1.867 2838
-3.735 4.049 1.979 3897
-3.475 3.768 1.850 2920
-3.743 4.058 1.966 5871
-3.647 3.954 1.918 2690
-3.742 4.057 1.947 6826
-3.645 3.952 1.900 2261
-3.745 4.061 1.931 7053
-3.842 4.166 1.978 2124
-3.754 4.070 1.918 5778
-3.856 4.181 1.967 2304
-3.763 4.079 1.904 4472
-3.865 4.190 1.952 2134
-3.766 4.083 1.888 2717
-3.879 4.205 1.941 2439
-3.887 4.215 1.927 3007
-3.775 4.092 1.874 1783
-3.896 4.224 1.912 2620
-4.034 4.374 1.976 1702
-3.915 4.244 1.903 2105
-4.012 4.350 1.947 1970
-4.155 4.504 1.992 1823
-4.016 4.354 1.930 1566
-4.199 4.553 1.993 2270
-4.009 4.347 1.908 1508
-4.141 4.490 1.948 2876
-4.239 4.596 1.991 1464
-4.140 4.488 1.928 3120
-4.248 4.605 1.975 2047
-4.241 4.598 1.952 3003
-4.143 4.492 1.910 1480
-4.239 4.596 1.932 3250
-4.435 4.809 2.016 1264
-4.284 4.645 1.931 2377
-4.480 4.858 2.014 2168
-4.484 4.862 1.995 3241
-4.386 4.755 1.954 2261
-4.503 4.882 1.982 3045
-4.405 4.776 1.942 2151
-4.776 5.178 2.073 3234
-4.512 4.892 1.965 2273
-4.780 5.182 2.052 4340
-4.583 4.969 1.973 1660
-4.783 5.186 2.032 4806
-4.576 4.961 1.949 1318
-4.787 5.190 2.011 7035
-5.052 5.477 2.115 1762
-4.796 5.200 1.993 8155
-5.050 5.475 2.092 1977
-4.805 5.209 1.974 5470
-5.054 5.480 2.070 1673
-4.814 5.219 1.956 2578
-5.183 5.619 2.096 1835
-5.187 5.623 2.074 1809
-5.291 5.736 2.113 1480
-5.295 5.740 2.090 2245
-5.128 5.560 2.028 1683
-5.272 5.716 2.058 1641
-5.475 5.936 2.132 1221
-5.219 5.658 2.015 1705
-5.526 5.991 2.126 1678
-5.535 6.001 2.104 2088
-5.661 6.137 2.149 1530
-5.659 6.136 2.123 2167
-5.545 6.011 2.082 1397
-5.653 6.129 2.095 1731
-5.543 6.010 2.057 1339
-5.651 6.127 2.069 1815
-5.552 6.019 2.035 1308
-5.660 6.137 2.047 1187
-6.184 6.704 2.224 1131
-6.182 6.703 2.196 1613
-6.067 6.578 2.157 1157
-6.202 6.724 2.174 1862
-6.401 6.940 2.240 1451
-6.411 6.950 2.214 1606
-6.211 6.734 2.150 1544
-6.514 7.063 2.219 1659
-6.388 6.926 2.179 1569
-6.398 6.936 2.153 1739
-6.524 7.073 2.193 1288
-6.381 6.918 2.119 1492
-6.659 7.220 2.206 1100
-6.674 7.235 2.180 1557
-6.379 6.916 2.090 1404
-6.683 7.245 2.153 1386
-6.841 7.416 2.201 1336
-7.076 7.672 2.241 1086
-6.850 7.426 2.173 996
-7.649 8.293 2.378 1437
-7.180 7.785 2.240 1027
-7.664 8.309 2.348 2807
-7.184 7.789 2.209 920
-7.668 8.313 2.315 4104
-7.552 8.188 2.282 921
-7.672 8.318 2.282 4631
-7.525 8.158 2.241 890
-7.676 8.323 2.249 4181
-7.523 8.157 2.207 1017
-7.681 8.327 2.217 3163
-7.695 8.343 2.186 2758
-7.710 8.359 2.156 2402
-8.497 9.212 2.363 841
-7.724 8.375 2.126 1727
-8.507 9.223 2.328 1330
-8.511 9.228 2.292 1396
-8.130 8.815 2.195 1238
-8.521 9.238 2.256 967
-8.124 8.808 2.157 879
-7.889 8.554 2.064 855
-7.899 8.563 2.032 924
-8.836 9.580 2.257 839
-9.354 10.142 2.341 842
-7.913 8.579 2.000 773
-9.205 9.980 2.265 893
-9.209 9.984 2.225 983
-1.564 1.702 1.802 5209
-1.567 1.705 1.795 10419
-1.658 1.804 1.893 1591
-1.570 1.709 1.789 10419
-1.661 1.808 1.886 3182
-1.582 1.722 1.791 9812
-1.665 1.812 1.879 4337
-1.599 1.740 1.798 9647
-1.681 1.830 1.886 4662
-1.615 1.758 1.806 8516
-1.698 1.848 1.893 3288
-1.623 1.766 1.803 8099
-1.706 1.856 1.890 3519
-1.626 1.769 1.796 8099
-1.709 1.860 1.883 4142
-1.629 1.773 1.790 8819
-1.717 1.868 1.880 6084
-1.637 1.781 1.787 9634
-1.725 1.877 1.878 8319
-1.724 1.876 1.866 8273
-1.640 1.785 1.780 7164
-1.723 1.875 1.854 8615
-1.630 1.774 1.760 4789
-1.748 1.903 1.869 7803
-1.651 1.797 1.771 4354
-1.756 1.911 1.866 9189
-1.659 1.805 1.768 4131
-1.759 1.915 1.859 9189
-1.666 1.813 1.766 3171
-1.772 1.928 1.860 8282
-1.687 1.836 1.776 4048
-1.717 1.869 1.796 9115
-1.802 1.961 1.879 2987
-1.725 1.877 1.793 7648
-1.810 1.970 1.876 3439
-1.751 1.905 1.807 7649
-1.836 1.998 1.890 2934
-1.803 1.962 1.848 9433
-1.718 1.870 1.765 3544
-1.802 1.961 1.836 13496
-1.160 1.262 1.219 3272
-1.805 1.965 1.828 12414
-1.162 1.265 1.214 3332
-1.813 1.973 1.825 11396
-1.169 1.272 1.213 3520
-1.817 1.977 1.817 7278
-1.171 1.274 1.208 3498
-1.856 2.020 1.843 5574
-1.173 1.276 1.203 3370
-1.918 2.088 1.890 5069
-1.832 1.994 1.810 3527
-1.926 2.096 1.886 6808
-1.822 1.983 1.790 3527
-1.930 2.100 1.878 6492
-1.830 1.991 1.786 4741
-1.929 2.099 1.866 6240
-1.833 1.995 1.778 5962
-1.832 1.993 1.766 6272
-1.932 2.103 1.858 5397
-1.835 1.997 1.759 6601
-1.940 2.111 1.853 4595
-1.948 2.120 1.849 6365
-1.838 2.000 1.751 6216
-1.951 2.124 1.841 8156
-1.846 2.009 1.747 5876
-1.955 2.127 1.833 8922
-1.849 2.012 1.739 5469
-1.958 2.131 1.825 9689
-1.857 2.021 1.736 5133
-1.966 2.139 1.820 8373
-2.077 2.260 1.917 6978
-2.080 2.264 1.908 9499
-1.969 2.143 1.812 6930
-2.084 2.268 1.899 8721
-1.973 2.147 1.804 5444
-2.073 2.256 1.878 5394
-1.976 2.150 1.795 2626
-2.049 2.230 1.846 5052
-2.160 2.351 1.940 2227
-2.061 2.243 1.845 4675
-2.159 2.350 1.927 3468
-2.069 2.252 1.840 4642
-2.158 2.349 1.914 4243
-2.148 2.337 1.894 4062
-2.059 2.241 1.820 3253
-2.151 2.341 1.884 4002
-2.062 2.244 1.811 1963
-2.145 2.334 1.868 3132
-2.234 2.431 1.941 1462
-2.209 2.404 1.908 3876
-2.120 2.307 1.836 2694
-2.218 2.413 1.903 5919
-2.128 2.316 1.830 3509
-2.221 2.417 1.893 5730
-2.132 2.320 1.821 3530
-2.239 2.436 1.895 5250
-2.149 2.339 1.824 3368
-2.185 2.378 1.841 4522
-2.275 2.476 1.912 2156
-2.250 2.449 1.880 3992
-2.340 2.547 1.950 2143
-2.254 2.453 1.870 5023
-2.363 2.571 1.955 2207
-2.252 2.451 1.857 5766
-2.347 2.555 1.930 4077
-2.265 2.465 1.855 8397
-2.356 2.564 1.924 7535
-2.273 2.474 1.849 10693
-2.364 2.573 1.918 8049
-2.282 2.483 1.843 10523
-2.372 2.582 1.911 9057
-2.366 2.575 1.894 13003
-2.275 2.476 1.826 8076
-2.370 2.579 1.884 14189
-2.279 2.480 1.816 6918
-2.306 2.510 1.824 13894
-2.397 2.608 1.892 10182
-2.309 2.513 1.814 13133
-2.400 2.612 1.881 12785
-2.413 2.626 1.878 15104
-2.313 2.517 1.804 8016
-2.412 2.625 1.864 17748
-2.301 2.505 1.784 5738
-2.415 2.629 1.854 16602
-2.309 2.513 1.778 4538
-2.453 2.669 1.868 9759
-2.544 2.769 1.934 4491
-2.466 2.683 1.864 9869
-2.557 2.783 1.930 5379
-2.469 2.687 1.854 12323
-2.561 2.787 1.919 7350
-2.472 2.691 1.843 15684
-2.564 2.791 1.908 10452
-2.476 2.694 1.833 12725
-2.568 2.795 1.897 10695
-2.571 2.798 1.886 9806
-2.479 2.698 1.822 8858
-2.575 2.802 1.875 8619
-2.482 2.702 1.812 5651
-2.578 2.806 1.864 9348
-2.680 2.917 1.933 5231
-2.689 2.926 1.925 9208
-2.586 2.815 1.856 8914
-2.692 2.930 1.914 11154
-2.600 2.829 1.852 5103
-2.696 2.934 1.902 10308
-2.603 2.833 1.841 3289
-2.699 2.938 1.891 9894
-2.606 2.836 1.830 2788
-2.698 2.936 1.876 10980
-2.595 2.824 1.809 2487
-2.701 2.940 1.865 14813
-2.598 2.828 1.798 1967
-2.700 2.938 1.850 14059
-2.606 2.836 1.790 1024
-2.698 2.936 1.835 9118
-2.701 2.940 1.824 7736
-2.705 2.944 1.812 7334
-2.956 3.217 1.970 1214
-2.718 2.958 1.807 9604
-2.955 3.216 1.954 2793
-2.726 2.967 1.799 13118
-2.959 3.220 1.942 4068
-2.734 2.976 1.790 11527
-2.962 3.224 1.929 4854
-2.961 3.222 1.914 8290
-2.743 2.985 1.781 6670
-2.969 3.231 1.904 14100
-2.746 2.988 1.770 3749
-2.978 3.240 1.894 15570
-2.749 2.992 1.758 2716
-2.981 3.244 1.882 9069
-2.742 2.984 1.740 1915
-2.979 3.242 1.866 4381
-2.740 2.982 1.726 1767
-2.988 3.252 1.856 4190
-3.083 3.355 1.911 3397
-2.996 3.261 1.846 5690
-3.121 3.396 1.918 5027
-2.995 3.259 1.831 6336
-3.124 3.400 1.905 4826
-2.998 3.263 1.818 4308
-3.298 3.589 1.988 3839
-3.287 3.577 1.965 5729
-3.191 3.473 1.912 2405
-3.290 3.581 1.951 7731
-3.135 3.412 1.865 1909
-3.294 3.585 1.937 6989
-3.138 3.415 1.851 1539
-3.302 3.594 1.926 6066
-3.398 3.698 1.978 1502
-3.311 3.603 1.915 6748
-3.406 3.707 1.966 1521
-3.314 3.607 1.900 7271
-3.410 3.711 1.952 2152
-3.318 3.611 1.886 8600
-3.414 3.715 1.937 2627
-3.331 3.625 1.877 7146
-3.427 3.730 1.928 3054
-3.375 3.673 1.884 5036
-3.471 3.778 1.934 2151
-3.404 3.704 1.883 4342
-3.500 3.809 1.933 1434
-3.402 3.703 1.866 3950
-3.498 3.807 1.915 2187
-3.406 3.706 1.851 3373
-3.623 3.943 1.962 2668
-3.617 3.936 1.941 3019
-3.470 3.776 1.867 2602
-3.732 4.062 1.982 3443
-3.605 3.924 1.918 2905
-3.741 4.071 1.968 6106
-3.609 3.927 1.903 2762
-3.739 4.069 1.950 7252
-3.643 3.964 1.902 2590
-3.738 4.068 1.931 6883
-3.641 3.963 1.884 2074
-3.746 4.077 1.918 5415
-3.848 4.188 1.967 2396
-3.755 4.087 1.904 4275
-3.857 4.198 1.952 2191
-3.758 4.090 1.888 2552
-3.866 4.207 1.938 2387
-3.879 4.222 1.927 2943
-3.757 4.088 1.870 1338
-3.888 4.231 1.912 2595
-3.985 4.337 1.957 1665
-3.984 4.335 1.938 2304
-3.886 4.230 1.893 1751
-4.054 4.412 1.951 1635
-4.151 4.518 1.995 1412
-4.155 4.522 1.977 1770
-4.021 4.377 1.917 1414
-4.128 4.492 1.945 2506
-4.225 4.598 1.988 1445
-4.131 4.496 1.928 2988
-4.244 4.619 1.977 2323
-4.243 4.617 1.957 3032
-4.145 4.511 1.915 1529
-4.236 4.610 1.934 3021
-4.431 4.823 2.018 1467
-4.466 4.860 2.012 2361
-4.255 4.631 1.923 2329
-4.475 4.870 1.995 3374
-4.377 4.763 1.954 2800
-4.494 4.891 1.982 2985
-4.396 4.784 1.942 2566
-4.766 5.187 2.073 3028
-4.436 4.827 1.938 2348
-4.770 5.191 2.052 4211
-4.460 4.854 1.927 1767
-4.774 5.195 2.032 4786
-4.670 5.083 1.990 1436
-4.783 5.205 2.013 7290
-5.041 5.486 2.115 1785
-4.786 5.209 1.993 8119
-5.040 5.485 2.092 1850
-4.795 5.218 1.974 4852
-5.049 5.495 2.072 1504
-4.804 5.228 1.956 2103
-5.172 5.629 2.096 1989
-5.119 5.571 2.052 2181
-4.802 5.226 1.933 1446
-5.123 5.575 2.030 2523
-5.299 5.767 2.096 1941
-5.126 5.579 2.008 1679
-5.282 5.749 2.066 1407
-5.510 5.996 2.124 1576
-5.354 5.826 2.068 1427
-5.524 6.012 2.104 1815
-5.644 6.142 2.147 1743
-5.648 6.146 2.123 2570
-5.908 6.430 2.215 1242
-5.641 6.139 2.095 2115
-5.928 6.451 2.195 1414
-5.640 6.138 2.069 2079
-5.942 6.467 2.173 1461
-5.941 6.466 2.146 1317
-5.644 6.142 2.045 1258
-6.159 6.703 2.192 1731
-5.950 6.476 2.122 1358
-6.189 6.736 2.174 1957
-6.388 6.952 2.240 1352
-6.199 6.746 2.150 1587
-6.397 6.962 2.214 1508
-6.375 6.938 2.179 1306
-6.506 7.081 2.221 1304
-6.379 6.943 2.151 1637
-6.610 7.193 2.224 1224
-6.347 6.907 2.112 1599
-6.640 7.226 2.204 1345
-6.660 7.248 2.180 1824
-6.351 6.911 2.085 1633
-6.664 7.252 2.152 1455
-6.827 7.429 2.201 1215
-7.093 7.719 2.250 974
-6.836 7.439 2.173 916
-7.633 8.307 2.378 1259
-7.166 7.798 2.240 847
-7.648 8.323 2.348 2529
-7.548 8.215 2.319 858
-7.652 8.328 2.315 3739
-7.552 8.219 2.287 1015
-7.657 8.333 2.282 4546
-7.557 8.224 2.254 881
-7.661 8.337 2.249 4400
-7.476 8.137 2.198 843
-7.670 8.347 2.218 3282
-7.685 8.363 2.188 2895
-7.699 8.379 2.158 2355
-8.475 9.223 2.362 805
-7.714 8.395 2.127 1431
-8.104 8.820 2.228 1273
-8.114 8.830 2.195 1414
-8.494 9.244 2.292 1286
-8.841 9.622 2.341 1037
-8.112 8.829 2.159 1008
-8.840 9.621 2.302 817
-9.336 10.160 2.382 815
-8.818 9.597 2.257 798
-9.335 10.159 2.341 979
-9.186 9.997 2.265 820
-9.340 10.164 2.301 763
-9.185 9.996 2.224 916
-1.560 1.705 1.802 5957
-1.564 1.709 1.795 11914
-1.654 1.807 1.893 1706
-1.567 1.712 1.789 11914
-1.658 1.811 1.886 3413
-1.583 1.730 1.796 11224
-1.666 1.820 1.884 4284
-1.595 1.743 1.798 11015
-1.678 1.833 1.886 4706
-1.611 1.761 1.806 9477
-1.694 1.851 1.893 3370
-1.615 1.764 1.799 8689
-1.698 1.855 1.886 3812
-1.618 1.768 1.792 8689
-1.701 1.859 1.879 4356
-1.626 1.776 1.790 9342
-1.713 1.872 1.880 6182
-1.633 1.785 1.787 10240
-1.721 1.880 1.878 8379
-1.720 1.879 1.866 7753
-1.637 1.788 1.780 7507
-1.719 1.878 1.854 7581
-1.635 1.787 1.769 4556
-1.749 1.911 1.874 7381
-1.647 1.800 1.771 4765
-1.757 1.919 1.871 8816
-1.651 1.803 1.764 4706
-1.760 1.923 1.863 8816
-1.658 1.812 1.761 3956
-1.768 1.932 1.860 8156
-1.684 1.839 1.776 3902
-1.713 1.872 1.796 9123
-1.798 1.964 1.879 3426
-1.721 1.881 1.793 7490
-1.806 1.973 1.876 3699
-1.747 1.909 1.807 7905
-1.832 2.001 1.890 3474
-1.799 1.966 1.848 9384
-1.714 1.873 1.765 3167
-1.798 1.965 1.836 13543
-1.157 1.264 1.219 3013
-1.801 1.968 1.828 12440
-1.159 1.267 1.214 3079
-1.805 1.972 1.820 11338
-1.166 1.274 1.213 3265
-1.808 1.976 1.813 7247
-1.168 1.276 1.208 3262
-1.857 2.028 1.847 6391
-1.170 1.279 1.203 3165
-1.860 2.032 1.839 5488
-1.172 1.281 1.198 2926
-1.922 2.100 1.886 6319
-1.818 1.986 1.790 3161
-1.926 2.104 1.878 5972
-1.821 1.990 1.782 4515
-1.829 1.998 1.778 5873
-1.924 2.103 1.866 5642
-1.828 1.997 1.766 6131
-1.928 2.106 1.858 5231
-1.831 2.000 1.759 6394
-1.931 2.110 1.849 4821
-1.944 2.124 1.849 6234
-1.834 2.004 1.751 5994
-1.952 2.132 1.845 7845
-1.842 2.012 1.747 5655
-1.955 2.136 1.837 8476
-1.845 2.016 1.739 5260
-1.958 2.140 1.829 9108
-1.853 2.024 1.736 4948
-1.962 2.143 1.820 8045
-2.068 2.259 1.913 6487
-2.076 2.268 1.908 8877
-1.970 2.152 1.816 6897
-2.079 2.272 1.899 7830
-1.968 2.151 1.804 5472
-2.069 2.260 1.878 4350
-1.972 2.154 1.795 2619
-2.044 2.234 1.846 4420
-2.156 2.355 1.940 2267
-2.057 2.247 1.845 4524
-2.159 2.359 1.931 3373
-2.065 2.256 1.840 5040
-2.153 2.353 1.914 4041
-2.073 2.265 1.835 4393
-2.162 2.362 1.909 3428
-2.146 2.345 1.884 3645
-2.058 2.248 1.811 2209
-2.117 2.313 1.848 3098
-2.206 2.410 1.921 1573
-2.134 2.332 1.851 3973
-2.223 2.429 1.923 3343
-2.203 2.408 1.895 5969
-2.114 2.310 1.823 3132
-2.212 2.416 1.889 5737
-2.122 2.319 1.818 3469
-2.234 2.441 1.895 5323
-2.145 2.343 1.824 3417
-2.237 2.444 1.885 4452
-2.148 2.347 1.814 2034
-2.245 2.453 1.880 4803
-2.335 2.551 1.950 2003
-2.254 2.462 1.874 6229
-2.353 2.571 1.951 2297
-2.248 2.456 1.857 6495
-2.352 2.569 1.938 4057
-2.256 2.465 1.851 8249
-2.346 2.563 1.920 7651
-2.264 2.473 1.845 9798
-2.354 2.572 1.914 8694
-2.353 2.571 1.900 10316
-2.262 2.472 1.832 8478
-2.361 2.580 1.894 13218
-2.271 2.481 1.826 7077
-2.364 2.583 1.884 14511
-2.274 2.484 1.816 6030
-2.373 2.592 1.877 13595
-2.282 2.493 1.810 7563
-2.395 2.617 1.881 12880
-2.304 2.518 1.814 11123
-2.408 2.631 1.878 15062
-2.317 2.532 1.811 6326
-2.407 2.630 1.864 17306
-2.296 2.509 1.784 3605
-2.405 2.628 1.851 16373
-2.540 2.775 1.948 3354
-2.447 2.674 1.868 8774
-2.543 2.779 1.937 4647
-2.460 2.688 1.864 9005
-2.552 2.788 1.930 5423
-2.464 2.692 1.854 11148
-2.555 2.792 1.919 6962
-2.467 2.695 1.843 14031
-2.559 2.796 1.908 10280
-2.557 2.794 1.894 11519
-2.466 2.694 1.830 11050
-2.566 2.803 1.886 10660
-2.474 2.703 1.822 8047
-2.569 2.807 1.875 8876
-2.477 2.706 1.812 5075
-2.568 2.805 1.861 8656
-2.675 2.922 1.933 5108
-2.683 2.931 1.925 9041
-2.581 2.820 1.856 8054
-2.687 2.935 1.914 10918
-2.594 2.834 1.852 5247
-2.690 2.939 1.902 10626
-2.597 2.838 1.841 3847
-2.693 2.943 1.891 11024
-2.601 2.841 1.830 3254
-2.697 2.947 1.879 12177
-2.594 2.834 1.812 2747
-2.700 2.950 1.868 14981
-2.593 2.833 1.798 2214
-2.699 2.949 1.853 13253
-2.606 2.847 1.793 1103
-2.692 2.942 1.835 7099
-2.864 3.129 1.945 963
-2.686 2.935 1.818 5497
-2.878 3.144 1.939 1013
-2.699 2.949 1.812 5610
-2.950 3.223 1.970 1397
-2.717 2.969 1.810 8626
-2.949 3.222 1.954 3218
-2.725 2.978 1.802 11354
-2.952 3.226 1.942 4666
-2.733 2.987 1.793 9890
-2.956 3.229 1.929 5226
-2.954 3.228 1.914 8167
-2.737 2.990 1.781 6375
-2.963 3.237 1.904 13598
-3.057 3.340 1.961 3862
-2.971 3.246 1.894 14946
-3.065 3.349 1.951 2188
-2.975 3.250 1.882 9099
-2.736 2.990 1.740 1550
-2.978 3.254 1.869 4482
-2.735 2.988 1.726 1843
-3.066 3.350 1.905 4069
-2.971 3.247 1.850 3631
-3.064 3.348 1.889 5366
-2.970 3.245 1.835 4148
-2.988 3.265 1.831 5816
-3.118 3.406 1.905 4038
-2.991 3.268 1.818 4083
-3.291 3.596 1.988 3894
-3.280 3.583 1.965 5570
-3.185 3.479 1.912 2433
-3.283 3.587 1.951 7658
-3.188 3.483 1.898 1595
-3.287 3.591 1.937 6809
-3.126 3.416 1.849 1328
-3.295 3.600 1.926 5843
-3.390 3.704 1.978 1400
-3.309 3.615 1.917 6702
-3.404 3.719 1.969 1307
-3.307 3.613 1.900 7489
-3.403 3.718 1.952 2396
-3.311 3.617 1.886 8961
-3.406 3.722 1.937 3057
-3.324 3.632 1.877 7463
-3.420 3.736 1.928 3046
-3.388 3.702 1.895 4873
-3.292 3.597 1.845 1656
-3.392 3.706 1.880 4324
-3.487 3.810 1.930 1416
-3.395 3.709 1.866 4337
-3.491 3.814 1.915 2160
-3.398 3.713 1.851 3792
-3.611 3.945 1.959 2703
-3.609 3.943 1.941 2998
-3.473 3.794 1.872 2616
-3.729 4.074 1.984 3124
-3.597 3.931 1.918 3035
-3.733 4.078 1.968 5804
-3.601 3.934 1.903 2999
-3.736 4.082 1.952 7239
-3.640 3.977 1.905 2738
-3.735 4.081 1.934 6509
-3.638 3.975 1.887 2424
-3.743 4.090 1.920 4844
-3.637 3.973 1.869 2366
-3.752 4.099 1.906 3754
-3.630 3.966 1.848 2274
-3.852 4.209 1.936 2206
-3.756 4.103 1.890 2064
-3.866 4.224 1.924 2806
-3.963 4.330 1.969 1383
-3.941 4.306 1.941 2484
-3.844 4.200 1.896 1470
-3.970 4.338 1.935 2449
-3.873 4.232 1.891 1604
-4.040 4.414 1.948 1880
-3.938 4.302 1.902 1542
-4.028 4.401 1.924 1933
-4.146 4.530 1.977 1285
-4.114 4.495 1.943 2247
-4.016 4.388 1.900 1422
-4.122 4.504 1.928 2897
-4.240 4.633 1.979 2622
-4.239 4.631 1.959 3279
-4.141 4.525 1.917 1546
-4.237 4.629 1.939 3318
-4.427 4.837 2.020 1560
-4.241 4.633 1.920 2435
-4.457 4.869 2.012 2300
-4.465 4.879 1.995 3285
-4.368 4.772 1.954 3088
-4.423 4.832 1.956 2849
-4.520 4.939 1.997 1712
-4.426 4.836 1.938 2671
-4.761 5.202 2.075 2515
-4.765 5.206 2.054 3583
-4.440 4.851 1.923 2132
-4.763 5.205 2.032 4350
-4.583 5.007 1.959 1807
-4.772 5.214 2.013 6969
-5.031 5.496 2.115 1639
-4.776 5.218 1.993 7419
-5.029 5.495 2.092 1679
-4.785 5.228 1.974 4045
-5.095 5.567 2.094 1867
-5.161 5.639 2.096 1916
-4.794 5.237 1.956 1559
-5.165 5.643 2.074 1836
-4.792 5.236 1.933 1283
-5.106 5.579 2.028 1703
-5.303 5.795 2.102 1598
-5.318 5.810 2.083 1324
-5.468 5.974 2.138 1228
-5.493 6.001 2.122 1662
-5.337 5.831 2.066 1370
-5.507 6.017 2.102 1603
-5.632 6.153 2.147 1597
-5.636 6.157 2.123 2419
-5.901 6.447 2.217 1323
-5.629 6.150 2.095 2187
-5.920 6.469 2.197 1547
-5.628 6.149 2.069 2099
-5.930 6.479 2.173 1736
-5.934 6.483 2.148 1699
-5.626 6.147 2.043 1136
-6.141 6.710 2.191 1958
-5.938 6.487 2.122 1676
-6.171 6.742 2.173 2101
-5.942 6.492 2.097 1557
-6.180 6.752 2.148 1738
-6.389 6.981 2.216 1355
-6.424 7.019 2.199 1035
-6.189 6.762 2.123 952
-6.371 6.961 2.153 1345
-6.596 7.206 2.224 966
-6.375 6.965 2.125 1502
-6.626 7.239 2.204 1351
-6.640 7.255 2.179 1810
-6.374 6.964 2.096 1063
-6.650 7.265 2.152 1504
-6.812 7.443 2.201 966
-7.083 7.739 2.252 1180
-6.638 7.252 2.119 916
-7.564 8.265 2.362 1316
-7.087 7.744 2.221 1024
-7.626 8.332 2.347 2116
-7.527 8.224 2.318 778
-7.631 8.337 2.314 3205
-7.531 8.228 2.285 1107
-7.640 8.348 2.282 4133
-7.540 8.239 2.254 1078
-7.644 8.352 2.249 4243
-7.492 8.186 2.207 797
-7.654 8.362 2.218 3102
-7.679 8.390 2.191 2801
-7.688 8.400 2.159 2291
-8.751 9.561 2.439 764
-8.087 8.836 2.228 1360
-7.692 8.404 2.126 1184
-8.096 8.846 2.195 1583
-8.476 9.260 2.292 1056
-8.822 9.639 2.341 1260
-8.095 8.845 2.159 1116
-8.832 9.650 2.304 924
-9.316 10.179 2.382 911
-7.865 8.594 2.032 779
-9.315 10.178 2.341 1071
-7.869 8.598 1.998 904
-7.878 8.608 1.965 836
-9.320 10.182 2.301 786
-1.557 1.708 1.802 6531
-1.561 1.711 1.795 13062
-1.647 1.806 1.889 1759
-1.564 1.715 1.789 13062
-1.650 1.810 1.882 3519
-1.580 1.733 1.796 12144
-1.662 1.823 1.884 4097
-1.588 1.741 1.794 11853
-1.670 1.831 1.882 4743
-1.604 1.759 1.801 9563
-1.686 1.849 1.888 3627
-1.611 1.767 1.799 8378
-1.694 1.858 1.886 3824
-1.615 1.771 1.792 8378
-1.698 1.862 1.879 4407
-1.622 1.779 1.790 9285
-1.710 1.875 1.880 6231
-1.634 1.792 1.792 10620
-1.717 1.884 1.878 8350
-1.638 1.796 1.785 7768
-1.721 1.887 1.870 7207
-1.711 1.877 1.850 6646
-1.628 1.785 1.764 4339
-1.750 1.919 1.878 7071
-1.644 1.803 1.771 3822
-1.757 1.927 1.875 8429
-1.674 1.836 1.791 2903
-1.761 1.931 1.868 8429
-1.677 1.839 1.784 2848
-1.769 1.940 1.865 7879
-1.685 1.848 1.781 3809
-1.714 1.880 1.800 8454
-1.799 1.973 1.884 3083
-1.722 1.889 1.797 7015
-1.807 1.981 1.880 3432
-1.743 1.912 1.807 7997
-1.828 2.005 1.890 3927
-1.782 1.955 1.835 9279
-1.153 1.264 1.223 2431
-1.794 1.968 1.836 13285
