1.034 7.451 1.995 1362
1.099 7.914 2.086 2537
1.122 8.081 2.128 1975
1.124 8.094 2.106 2356
1.100 7.927 2.065 2064
1.127 8.115 2.086 2226
1.099 7.917 2.038 1206
1.130 8.136 2.066 1993
1.157 8.335 2.113 1236
1.128 8.126 2.039 1741
1.157 8.333 2.087 1612
1.128 8.124 2.013 1620
1.183 8.522 2.105 1428
1.166 8.397 2.050 1179
1.239 8.925 2.171 1072
1.240 8.931 2.145 1662
1.197 8.625 2.076 1255
1.241 8.937 2.119 1435
1.220 8.791 2.086 1366
1.261 9.080 2.123 1762
1.221 8.797 2.061 1412
1.245 8.971 2.071 1903
1.305 9.400 2.164 1606
1.306 9.406 2.137 1535
1.246 8.976 2.045 1422
1.292 9.304 2.087 1052
1.358 9.780 2.187 980
1.358 9.778 2.157 1098
1.282 9.233 2.044 968
1.318 9.492 2.068 1241
1.374 9.900 2.151 1177
1.316 9.482 2.037 1551
1.373 9.890 2.119 1302
1.360 9.796 2.071 1636
1.314 9.465 2.005 1467
1.314 9.462 1.976 1542
1.361 9.801 2.042 1426
1.423 10.253 2.099 1376
1.314 9.468 1.948 1192
1.423 10.251 2.067 1307
1.524 10.976 2.204 1245
1.523 10.974 2.171 1205
1.503 10.828 2.143 1118
1.605 11.559 2.244 1072
1.567 11.288 2.195 997
1.607 11.572 2.212 1113
1.714 12.344 2.351 1018
1.611 11.601 2.182 1512
1.715 12.351 2.314 1251
1.611 11.607 2.148 1365
1.715 12.357 2.278 1197
1.716 12.363 2.242 1135
1.738 12.518 2.268 1098
1.739 12.524 2.231 1286
1.765 12.717 2.264 1246
1.766 12.723 2.227 1241
1.787 12.870 2.251 1024
1.780 12.822 2.204 1304
1.800 12.969 2.228 905
1.778 12.805 2.163 1386
1.800 12.967 2.189 1056
1.778 12.811 2.125 1147
1.800 12.966 2.149 858
0.344 2.474 0.257 752
0.344 2.475 0.250 953
0.343 2.467 0.242 1218
0.343 2.468 0.235 1303
0.343 2.468 0.228 1156
0.344 2.476 0.221 842
0.326 2.308 1.816 10209
0.326 2.312 1.809 20419
0.343 2.433 1.898 936
0.327 2.317 1.803 20419
0.344 2.438 1.891 1872
0.328 2.322 1.796 17047
0.345 2.443 1.884 3384
0.329 2.333 1.794 14039
0.346 2.454 1.882 4467
0.330 2.338 1.787 12235
0.347 2.459 1.875 4865
0.331 2.343 1.780 10431
0.348 2.464 1.867 5262
0.331 2.347 1.774 10431
0.350 2.482 1.869 5447
0.333 2.359 1.771 10308
0.352 2.493 1.867 4155
0.334 2.370 1.769 10489
0.358 2.537 1.887 3378
0.336 2.381 1.767 8229
0.360 2.555 1.888 3148
0.338 2.398 1.769 6450
0.363 2.573 1.890 3312
0.341 2.416 1.771 5275
0.364 2.578 1.883 3954
0.364 2.583 1.875 4595
0.342 2.427 1.768 4371
0.365 2.588 1.868 4595
0.348 2.464 1.784 4019
0.367 2.599 1.865 4586
0.349 2.476 1.781 3467
0.367 2.598 1.853 4581
0.349 2.474 1.769 2657
0.367 2.603 1.845 4451
0.350 2.479 1.762 2693
0.363 2.575 1.816 4646
0.346 2.451 1.733 1218
0.365 2.586 1.813 6833
0.382 2.711 1.895 1855
0.366 2.591 1.805 9075
0.383 2.716 1.887 2933
0.367 2.603 1.802 10034
0.385 2.728 1.884 2933
0.369 2.614 1.799 11430
0.386 2.739 1.880 2734
0.371 2.632 1.800 9360
0.389 2.758 1.881 2331
0.378 2.676 1.818 9242
0.395 2.802 1.898 1918
0.380 2.695 1.818 6326
0.401 2.841 1.911 1690
0.386 2.733 1.832 4476
0.403 2.859 1.911 1884
0.388 2.751 1.832 4212
0.406 2.877 1.911 1878
0.395 2.802 1.853 4887
0.377 2.676 1.774 1530
0.391 2.774 1.824 5325
0.409 2.901 1.903 1802
0.392 2.779 1.816 6006
0.410 2.906 1.895 2079
0.391 2.770 1.800 5452
0.409 2.898 1.878 1847
0.391 2.768 1.788 5139
0.409 2.896 1.866 1984
0.391 2.773 1.780 3466
0.417 2.955 1.890 2604
0.402 2.852 1.816 4025
0.420 2.980 1.893 3161
0.416 2.951 1.864 5503
0.398 2.823 1.788 2596
0.417 2.956 1.856 7236
0.435 3.085 1.932 2361
0.419 2.968 1.851 8026
0.437 3.097 1.927 2245
0.423 3.000 1.859 10940
0.441 3.129 1.934 1894
0.424 3.005 1.850 12002
0.442 3.134 1.925 2073
0.426 3.017 1.845 9332
0.444 3.146 1.920 2011
0.426 3.022 1.836 6725
0.445 3.151 1.910 2045
0.426 3.020 1.824 4686
0.444 3.150 1.897 1956
0.437 3.100 1.857 3886
0.419 2.970 1.784 1533
0.437 3.098 1.845 4481
0.419 2.968 1.772 1258
0.437 3.096 1.832 8325
0.455 3.227 1.904 1113
0.437 3.101 1.823 11559
0.456 3.232 1.895 1492
0.439 3.113 1.818 13271
0.458 3.244 1.889 1102
0.439 3.111 1.805 12415
0.457 3.242 1.876 1174
0.440 3.115 1.796 9881
0.458 3.247 1.867 1179
0.440 3.120 1.787 7972
0.459 3.252 1.857 1265
0.442 3.132 1.781 6680
0.480 3.402 1.926 1588
0.447 3.171 1.791 7863
0.481 3.407 1.916 1979
0.450 3.190 1.789 8463
0.481 3.413 1.906 1951
0.452 3.202 1.783 7551
0.483 3.425 1.899 1535
0.452 3.206 1.774 6240
0.486 3.444 1.897 1500
0.453 3.211 1.765 6366
0.490 3.477 1.901 2217
0.455 3.223 1.759 7727
0.492 3.489 1.895 3294
0.455 3.228 1.749 7626
0.490 3.473 1.874 4540
0.455 3.225 1.737 6702
0.490 3.471 1.860 6079
0.439 3.110 1.667 6925
0.490 3.476 1.850 5058
0.439 3.115 1.658 6897
0.509 3.607 1.903 3740
0.441 3.126 1.653 5517
0.506 3.584 1.878 5010
0.510 3.617 1.882 6628
0.442 3.131 1.644 3649
0.512 3.629 1.875 8844
0.442 3.135 1.635 2145
0.513 3.634 1.864 9475
0.429 3.040 1.578 1888
0.517 3.668 1.867 8532
0.428 3.037 1.566 2042
0.522 3.701 1.870 8503
0.428 3.034 1.554 1881
0.525 3.720 1.866 8731
0.428 3.031 1.541 1868
0.527 3.732 1.858 9449
0.428 3.035 1.533 1465
0.527 3.737 1.848 8508
0.429 3.039 1.524 1108
0.530 3.757 1.843 5369
0.553 3.921 1.919 1398
0.537 3.804 1.852 6009
0.556 3.940 1.914 1680
0.537 3.809 1.841 6453
0.557 3.945 1.902 2226
0.538 3.814 1.830 5485
0.557 3.950 1.891 2636
0.550 3.898 1.854 5206
0.531 3.762 1.793 2844
0.558 3.953 1.865 4785
0.538 3.817 1.804 4427
0.558 3.958 1.853 7254
0.578 4.095 1.913 1970
0.556 3.941 1.832 8948
0.575 4.078 1.892 2775
0.557 3.946 1.821 9198
0.579 4.105 1.889 2526
0.557 3.951 1.809 6963
0.577 4.088 1.868 2635
0.571 4.050 1.838 5422
0.552 3.913 1.779 2546
0.580 4.113 1.850 6408
0.556 3.939 1.777 2260
0.583 4.132 1.844 6588
0.557 3.951 1.769 1570
0.590 4.181 1.850 3791
0.570 4.043 1.793 1742
0.601 4.258 1.868 5046
0.575 4.077 1.793 2906
0.600 4.256 1.853 5946
0.581 4.118 1.796 2223
0.595 4.217 1.823 6036
0.620 4.392 1.893 3638
0.597 4.229 1.813 5303
0.621 4.404 1.883 4543
0.620 4.394 1.865 5429
0.598 4.241 1.804 4327
0.621 4.399 1.852 6710
0.601 4.261 1.797 4251
0.622 4.412 1.842 5835
0.603 4.273 1.788 3225
0.622 4.409 1.826 4969
0.642 4.548 1.880 2757
0.624 4.421 1.816 4376
0.645 4.575 1.875 2561
0.626 4.434 1.806 4876
0.645 4.573 1.859 2944
0.625 4.431 1.790 4916
0.645 4.571 1.843 4558
0.644 4.568 1.827 7542
0.672 4.767 1.901 3570
0.646 4.580 1.816 8438
0.666 4.720 1.868 2821
0.651 4.615 1.814 7983
0.671 4.755 1.865 3762
0.672 4.760 1.851 6219
0.652 4.620 1.800 5715
0.672 4.765 1.838 8520
0.652 4.624 1.787 3012
0.676 4.792 1.832 9555
0.656 4.651 1.781 2138
0.680 4.819 1.825 10203
0.700 4.959 1.875 3252
0.683 4.838 1.817 7542
0.702 4.979 1.866 3338
0.700 4.962 1.844 5644
0.720 5.103 1.892 4509
0.701 4.967 1.829 6076
0.723 5.123 1.883 3346
0.700 4.964 1.812 5029
0.731 5.180 1.885 3295
0.706 5.006 1.810 3970
0.729 5.170 1.865 3892
0.738 5.234 1.870 4012
0.719 5.093 1.823 2617
0.739 5.239 1.855 4770
0.719 5.098 1.808 2640
0.741 5.252 1.842 3358
0.721 5.110 1.796 2097
0.743 5.264 1.829 2441
0.763 5.406 1.875 2313
0.763 5.411 1.859 3185
0.743 5.269 1.814 2344
0.762 5.401 1.839 4645
0.784 5.558 1.889 3316
0.763 5.406 1.823 4409
0.784 5.555 1.870 4038
0.786 5.568 1.856 4405
0.763 5.410 1.807 2977
0.787 5.580 1.842 3296
0.807 5.723 1.886 1993
0.806 5.713 1.865 2448
0.786 5.570 1.821 1615
0.831 5.890 1.900 2464
0.807 5.718 1.848 1703
0.825 5.850 1.869 2942
0.846 5.993 1.912 1597
0.834 5.908 1.868 2088
0.854 6.051 1.910 1623
0.854 6.056 1.892 2534
0.834 5.913 1.851 1129
0.859 6.091 1.883 2501
0.906 6.423 1.979 2311
0.908 6.436 1.963 2942
0.878 6.225 1.902 2520
0.880 6.237 1.886 2375
0.911 6.456 1.948 2029
0.946 6.703 1.997 3053
0.882 6.250 1.870 2291
0.942 6.678 1.969 4841
0.909 6.444 1.904 2018
0.944 6.691 1.951 5250
0.964 6.835 1.990 2069
0.945 6.696 1.932 4916
1.015 7.196 2.066 2413
0.944 6.694 1.910 4246
1.015 7.194 2.043 2345
0.953 6.752 1.904 3161
1.015 7.192 2.020 2545
1.049 7.433 2.060 2423
1.015 7.197 1.999 2339
1.049 7.438 2.039 2024
1.083 7.674 2.099 1563
1.086 7.694 2.081 1852
1.050 7.444 2.017 1491
1.114 7.898 2.108 1787
1.052 7.457 1.997 1668
1.123 7.957 2.098 2527
1.143 8.101 2.134 1522
1.142 8.092 2.106 2204
1.118 7.924 2.065 1974
1.144 8.105 2.084 2065
1.117 7.915 2.038 1169
1.146 8.126 2.064 1605
1.126 7.981 2.030 1211
1.124 7.964 2.001 1398
1.175 8.330 2.087 1381
1.202 8.519 2.105 1486
1.175 8.328 2.061 1223
1.223 8.670 2.113 1160
1.259 8.922 2.171 1140
1.260 8.928 2.145 1782
1.216 8.622 2.076 1280
1.260 8.934 2.119 1529
1.240 8.788 2.086 1151
1.281 9.077 2.123 1662
1.304 9.246 2.160 1329
1.266 8.976 2.073 1871
1.326 9.397 2.164 1631
1.267 8.981 2.047 1538
1.327 9.403 2.137 1445
1.310 9.286 2.083 1162
1.379 9.777 2.187 1053
1.378 9.768 2.155 1103
1.284 9.100 2.016 920
1.396 9.896 2.151 1318
1.339 9.489 2.068 1173
1.335 9.464 2.034 1552
1.395 9.887 2.119 1352
1.334 9.454 2.003 1708
1.382 9.793 2.071 1582
1.335 9.459 1.976 1652
1.382 9.798 2.042 1551
1.446 10.250 2.099 1288
1.335 9.465 1.948 1258
1.465 10.387 2.094 1285
1.445 10.240 2.066 1124
1.527 10.824 2.143 1155
1.550 10.986 2.173 987
1.630 11.555 2.244 1121
1.538 10.899 2.124 997
1.632 11.569 2.212 1167
1.741 12.340 2.351 1045
1.636 11.598 2.182 1508
1.743 12.355 2.316 1274
1.638 11.611 2.149 1384
1.744 12.361 2.279 1224
1.744 12.359 2.242 1239
1.764 12.506 2.267 1087
1.813 12.852 2.287 1291
1.765 12.512 2.230 1239
1.812 12.843 2.247 1348
1.791 12.696 2.223 1031
1.810 12.826 2.205 1305
1.830 12.973 2.229 942
1.807 12.809 2.164 1291
1.829 12.963 2.189 1222
1.808 12.814 2.126 1114
1.829 12.962 2.149 970
0.349 2.474 0.257 864
0.349 2.474 0.250 1101
0.349 2.474 0.243 1346
0.348 2.467 0.235 1375
0.349 2.475 0.228 1164
0.349 2.475 0.221 750
0.331 2.307 1.816 10150
0.331 2.312 1.809 20301
0.349 2.432 1.898 1094
0.332 2.316 1.803 20301
0.349 2.437 1.891 2189
0.333 2.321 1.796 16988
0.350 2.442 1.884 3760
0.334 2.332 1.794 14074
0.352 2.453 1.882 4834
0.335 2.337 1.787 12164
0.352 2.458 1.875 5210
0.336 2.342 1.780 10254
0.353 2.463 1.867 5586
0.336 2.347 1.774 10254
0.355 2.475 1.865 5760
0.338 2.358 1.771 10315
0.356 2.486 1.862 4319
0.340 2.369 1.769 10795
0.360 2.510 1.869 3343
0.341 2.380 1.767 8551
0.367 2.560 1.893 2970
0.344 2.398 1.769 6699
0.369 2.572 1.890 3209
0.345 2.409 1.766 5299
0.369 2.577 1.883 3822
0.370 2.582 1.875 4436
0.347 2.420 1.764 4120
0.371 2.587 1.868 4436
0.348 2.425 1.757 3295
0.372 2.599 1.865 4381
0.355 2.475 1.781 2955
0.360 2.512 1.796 4463
0.378 2.636 1.879 2944
0.373 2.602 1.845 4610
0.355 2.478 1.762 2716
0.371 2.587 1.825 4965
0.353 2.463 1.742 1667
0.371 2.586 1.813 7320
0.388 2.710 1.895 1814
0.371 2.590 1.805 9675
0.389 2.715 1.887 2891
0.372 2.595 1.798 10384
0.390 2.720 1.880 3646
0.374 2.607 1.795 11322
0.392 2.732 1.876 3688
0.377 2.631 1.800 8934
0.395 2.757 1.881 2790
0.384 2.682 1.822 9036
0.402 2.808 1.902 1805
0.387 2.700 1.823 6211
0.406 2.833 1.907 1603
0.391 2.725 1.827 4142
0.409 2.851 1.907 1908
0.393 2.743 1.828 4070
0.411 2.870 1.907 2183
0.397 2.768 1.832 4808
0.415 2.895 1.911 1581
0.397 2.766 1.820 5539
0.415 2.893 1.899 2040
0.397 2.771 1.812 6309
0.416 2.905 1.895 2204
0.397 2.769 1.800 5987
0.416 2.903 1.882 1980
0.397 2.767 1.788 5748
0.415 2.895 1.866 2019
0.402 2.806 1.800 3984
0.423 2.954 1.890 2715
0.407 2.838 1.808 4394
0.425 2.966 1.885 3834
0.423 2.950 1.864 5597
0.405 2.822 1.788 2953
0.424 2.955 1.856 7129
0.442 3.084 1.932 2168
0.425 2.967 1.851 7747
0.444 3.096 1.927 2030
0.430 2.999 1.859 10583
0.448 3.128 1.934 1708
0.431 3.004 1.850 11732
0.449 3.133 1.925 1823
0.432 3.016 1.845 9078
0.451 3.145 1.920 1859
0.433 3.021 1.836 6483
0.452 3.150 1.910 1966
0.437 3.046 1.839 4496
0.418 2.916 1.765 1359
0.439 3.065 1.838 3952
0.458 3.195 1.911 792
0.443 3.090 1.841 4461
0.424 2.960 1.768 968
0.443 3.088 1.828 8518
0.461 3.219 1.900 1187
0.443 3.093 1.819 12036
0.462 3.224 1.891 1592
0.445 3.105 1.814 13741
0.464 3.236 1.886 1153
0.446 3.110 1.805 13184
0.465 3.241 1.876 1048
0.446 3.114 1.796 10877
0.465 3.246 1.867 1047
0.447 3.119 1.787 8747
0.488 3.403 1.939 1166
0.449 3.131 1.781 7418
0.489 3.408 1.929 1629
0.453 3.163 1.787 8518
0.488 3.406 1.916 1921
0.456 3.182 1.785 8782
0.489 3.411 1.906 1837
0.458 3.194 1.780 7545
0.490 3.417 1.896 1456
0.459 3.205 1.774 6032
0.494 3.449 1.900 1763
0.461 3.217 1.768 5842
0.498 3.476 1.901 2742
0.461 3.215 1.755 7387
0.500 3.488 1.895 3938
0.461 3.220 1.746 7676
0.499 3.479 1.877 4931
0.462 3.224 1.737 6813
0.497 3.470 1.860 6303
0.446 3.109 1.667 5792
0.498 3.475 1.850 5261
0.446 3.114 1.658 5830
0.516 3.599 1.899 4251
0.516 3.597 1.885 5548
0.448 3.125 1.653 4849
0.518 3.616 1.882 6787
0.449 3.130 1.644 3267
0.520 3.628 1.875 8231
0.434 3.028 1.583 2104
0.521 3.633 1.864 8755
0.435 3.032 1.575 1827
0.527 3.674 1.871 7657
0.435 3.036 1.566 1935
0.531 3.707 1.873 8275
0.434 3.026 1.550 1963
0.534 3.726 1.869 8781
0.434 3.030 1.541 1972
0.535 3.731 1.858 9555
0.435 3.034 1.533 1382
0.536 3.736 1.848 8830
0.555 3.872 1.910 1383
0.537 3.748 1.840 5714
0.561 3.912 1.915 1403
0.545 3.803 1.852 4826
0.565 3.939 1.914 1693
0.545 3.801 1.838 4948
0.564 3.937 1.899 2589
0.559 3.899 1.868 4951
0.539 3.763 1.807 3337
0.559 3.897 1.854 5456
0.539 3.761 1.793 2982
0.565 3.945 1.862 4563
0.546 3.808 1.801 4304
0.567 3.957 1.853 7213
0.587 4.093 1.913 2065
0.566 3.947 1.835 8869
0.585 4.084 1.895 2922
0.565 3.945 1.821 9034
0.587 4.096 1.886 2794
0.566 3.950 1.809 6713
0.588 4.101 1.874 2833
0.579 4.041 1.835 5813
0.560 3.904 1.776 2239
0.589 4.111 1.850 6330
0.564 3.938 1.777 2524
0.591 4.124 1.841 6259
0.566 3.950 1.769 1561
0.600 4.186 1.853 3481
0.580 4.049 1.796 2039
0.610 4.257 1.868 5502
0.583 4.068 1.790 2997
0.610 4.254 1.853 6692
0.585 4.080 1.782 2122
0.608 4.245 1.834 5911
0.628 4.383 1.890 3980
0.607 4.235 1.816 5440
0.631 4.403 1.883 4907
0.631 4.400 1.868 5811
0.609 4.247 1.807 4822
0.630 4.398 1.852 6945
0.611 4.259 1.797 4917
0.632 4.410 1.842 5684
0.612 4.271 1.788 3511
0.632 4.408 1.826 4679
0.652 4.547 1.880 2701
0.633 4.413 1.813 4540
0.659 4.596 1.884 2771
0.634 4.425 1.803 5325
0.659 4.601 1.870 3127
0.635 4.430 1.790 5241
0.655 4.569 1.843 4542
0.655 4.567 1.827 7319
0.683 4.765 1.901 3613
0.657 4.586 1.819 8222
0.684 4.770 1.887 2612
0.661 4.613 1.814 7492
0.681 4.753 1.865 3454
0.682 4.758 1.851 6203
0.662 4.618 1.800 5250
0.683 4.763 1.838 8757
0.663 4.623 1.787 2990
0.687 4.790 1.832 10128
0.666 4.650 1.781 2259
0.690 4.817 1.825 10252
0.711 4.958 1.875 3338
0.693 4.837 1.817 7182
0.713 4.977 1.866 3383
0.710 4.953 1.841 5533
0.731 5.101 1.892 4494
0.713 4.973 1.832 5578
0.734 5.121 1.883 3320
0.713 4.977 1.817 4517
0.742 5.178 1.885 3743
0.742 5.176 1.868 4818
0.717 5.005 1.810 3905
0.738 5.151 1.843 4149
0.718 5.009 1.796 2409
0.751 5.238 1.855 4241
0.730 5.096 1.808 2864
0.769 5.362 1.879 3004
0.736 5.138 1.805 2943
0.771 5.382 1.868 2785
0.751 5.240 1.822 2285
0.776 5.417 1.862 3065
0.755 5.267 1.814 2142
0.775 5.407 1.841 4498
0.796 5.556 1.889 3128
0.775 5.404 1.823 4176
0.796 5.554 1.870 3853
0.798 5.566 1.856 4357
0.774 5.401 1.805 2773
0.799 5.571 1.840 3284
0.819 5.713 1.884 2062
0.819 5.711 1.865 2551
0.839 5.853 1.908 1820
0.843 5.881 1.898 2677
0.819 5.716 1.848 1903
0.839 5.856 1.872 2942
0.860 5.999 1.914 1484
0.862 6.011 1.899 1877
0.838 5.846 1.850 1765
0.867 6.047 1.890 2293
0.893 6.227 1.943 1052
0.873 6.089 1.883 2456
0.919 6.413 1.977 2166
0.922 6.434 1.963 3012
0.892 6.223 1.902 2753
0.894 6.235 1.886 2700
0.924 6.447 1.946 2170
0.959 6.693 1.994 3185
0.898 6.263 1.874 2437
0.957 6.676 1.969 5378
0.923 6.442 1.904 2164
0.959 6.689 1.951 5909
0.979 6.833 1.990 1884
0.960 6.694 1.932 5812
0.980 6.838 1.970 2004
0.959 6.692 1.910 5063
1.061 7.404 2.100 2206
0.966 6.742 1.902 3258
1.063 7.417 2.080 3102
1.064 7.423 2.058 3160
1.031 7.195 1.999 2444
1.066 7.436 2.039 2474
1.100 7.671 2.099 1481
1.068 7.449 2.019 1800
1.101 7.684 2.079 1663
1.068 7.454 1.997 1999
1.133 7.903 2.110 1464
1.140 7.954 2.098 2523
1.069 7.460 1.975 1777
1.145 7.990 2.082 1949
1.187 8.280 2.153 1009
1.151 8.026 2.066 1895
1.185 8.270 2.125 1268
1.149 8.017 2.039 1434
1.196 8.345 2.117 1033
1.219 8.503 2.128 1468
1.141 7.961 2.001 1465
1.221 8.516 2.105 1543
1.244 8.677 2.142 1122
1.242 8.667 2.113 1431
1.279 8.919 2.171 1147
1.279 8.925 2.145 1849
1.240 8.650 2.083 1307
1.280 8.931 2.119 1612
1.234 8.610 2.047 878
1.299 9.059 2.120 1610
1.325 9.243 2.160 1223
1.286 8.973 2.073 1932
1.307 9.119 2.105 1650
1.288 8.986 2.048 1636
1.349 9.408 2.139 1347
1.332 9.291 2.085 1282
1.401 9.774 2.187 1140
1.351 9.427 2.085 1433
1.400 9.765 2.155 1042
1.352 9.433 2.057 1599
1.418 9.893 2.151 1283
1.353 9.438 2.030 1942
1.418 9.891 2.121 1353
1.355 9.451 2.003 1998
1.494 10.420 2.196 1573
1.355 9.456 1.976 1793
1.404 9.795 2.042 1560
1.486 10.370 2.123 1434
1.357 9.469 1.949 1347
1.488 10.384 2.094 1628
1.551 10.823 2.177 1097
1.551 10.821 2.143 1160
1.488 10.381 2.062 1003
1.563 10.904 2.126 1133
1.656 11.551 2.244 1112
1.658 11.565 2.212 1167
1.563 10.902 2.092 1024
1.662 11.594 2.182 1415
1.771 12.358 2.317 1211
1.664 11.608 2.149 1317
1.772 12.365 2.281 1155
1.772 12.363 2.243 1244
1.839 12.827 2.322 1189
1.841 12.841 2.286 1488
1.793 12.508 2.230 1155
1.841 12.847 2.248 1564
1.820 12.700 2.224 1080
1.840 12.837 2.208 1354
1.784 12.443 2.144 867
1.859 12.967 2.190 1234
1.838 12.820 2.167 1205
1.836 12.810 2.126 1038
1.925 13.430 2.223 961
0.354 2.473 0.264 844
0.354 2.473 0.257 1002
0.355 2.473 0.250 1076
0.355 2.474 0.243 1160
0.355 2.474 0.235 1169
0.355 2.474 0.228 1112
0.355 2.474 0.221 927
0.355 2.475 0.214 800
0.336 2.306 1.816 9918
0.337 2.311 1.809 19837
0.354 2.431 1.898 1299
0.337 2.316 1.803 19837
0.355 2.436 1.891 2599
0.338 2.320 1.796 16733
0.356 2.441 1.884 4238
0.341 2.338 1.798 14111
0.358 2.459 1.886 4594
0.341 2.343 1.792 12061
0.359 2.464 1.879 5211
0.341 2.341 1.780 10022
0.359 2.462 1.867 6099
0.342 2.346 1.774 10022
0.361 2.474 1.865 6246
0.343 2.357 1.771 10244
0.361 2.479 1.858 4735
0.346 2.375 1.774 11084
0.366 2.510 1.869 3397
0.348 2.386 1.771 8802
0.373 2.560 1.893 2875
0.349 2.397 1.769 6914
0.375 2.571 1.890 3176
0.351 2.408 1.766 5299
0.375 2.576 1.883 3818
0.376 2.581 1.875 4460
0.353 2.419 1.764 3886
0.377 2.586 1.868 4460
0.353 2.424 1.757 3071
0.379 2.598 1.865 4375
0.361 2.474 1.781 2474
0.367 2.518 1.800 4661
0.385 2.642 1.884 2530
0.380 2.608 1.850 4740
0.362 2.484 1.767 3185
0.380 2.606 1.838 5098
0.362 2.482 1.755 2797
0.377 2.585 1.813 7292
0.395 2.709 1.895 1684
0.377 2.589 1.805 9849
0.396 2.714 1.887 2701
0.378 2.594 1.798 10467
0.396 2.719 1.880 3669
0.380 2.606 1.795 11098
0.398 2.731 1.876 3957
0.391 2.683 1.834 8343
0.373 2.558 1.753 3490
0.391 2.681 1.822 8777
0.409 2.807 1.902 1890
0.393 2.699 1.823 6084
0.412 2.825 1.903 1601
0.396 2.718 1.823 3783
0.414 2.844 1.903 1873
0.400 2.742 1.828 3822
0.418 2.869 1.907 2081
0.402 2.761 1.828 4961
0.421 2.887 1.907 1822
0.403 2.765 1.820 5723
0.422 2.892 1.899 1984
0.403 2.764 1.808 6565
0.422 2.897 1.891 2145
0.403 2.768 1.800 6420
0.423 2.902 1.882 1989
0.404 2.773 1.792 6276
0.423 2.901 1.870 1885
0.409 2.805 1.800 4559
0.428 2.939 1.882 2852
0.412 2.830 1.804 4686
0.431 2.958 1.881 4135
0.430 2.949 1.864 5491
0.411 2.821 1.788 3277
0.431 2.954 1.856 6681
0.449 3.083 1.932 1925
0.433 2.973 1.855 7138
0.452 3.102 1.931 1508
0.437 2.998 1.859 9805
0.456 3.127 1.934 1447
0.438 3.003 1.850 10979
0.456 3.132 1.925 1510
0.438 3.008 1.841 8360
0.457 3.137 1.916 1685
0.439 3.013 1.832 5742
0.458 3.142 1.907 1816
0.443 3.038 1.835 4124
0.462 3.168 1.909 1530
0.446 3.064 1.838 3999
0.465 3.194 1.911 821
0.447 3.069 1.829 4447
0.466 3.199 1.902 900
0.450 3.087 1.828 8861
0.469 3.218 1.900 1001
0.451 3.092 1.819 12791
0.470 3.223 1.891 1330
0.452 3.104 1.814 14388
0.471 3.235 1.886 971
0.453 3.109 1.805 13761
0.472 3.240 1.876 918
0.454 3.113 1.796 11442
0.473 3.245 1.867 916
0.454 3.118 1.787 9038
0.497 3.409 1.943 1292
0.456 3.130 1.781 7475
0.497 3.407 1.929 1732
0.461 3.162 1.787 8650
0.497 3.412 1.919 1913
0.464 3.181 1.785 8773
0.497 3.410 1.906 1725
0.466 3.200 1.783 7413
0.502 3.443 1.910 1410
0.467 3.204 1.774 6005
0.503 3.448 1.900 1950
0.469 3.216 1.768 5969
0.506 3.474 1.901 3192
0.468 3.214 1.755 7751
0.508 3.486 1.895 4436
0.469 3.218 1.746 8328
0.508 3.484 1.881 5276
0.470 3.223 1.737 7452
0.505 3.468 1.860 6439
0.506 3.473 1.850 5461
0.453 3.108 1.667 4761
0.523 3.591 1.896 5024
0.455 3.120 1.662 4929
0.524 3.596 1.885 6334
0.455 3.124 1.653 4192
0.527 3.615 1.882 6764
0.439 3.016 1.589 2950
0.529 3.627 1.875 7441
0.441 3.027 1.583 2868
0.529 3.632 1.864 7765
0.442 3.031 1.575 2251
0.531 3.644 1.857 6582
0.551 3.779 1.921 2766
0.544 3.734 1.887 7996
0.525 3.599 1.823 2574
0.545 3.739 1.876 8457
0.525 3.604 1.812 1974
0.544 3.730 1.858 9055
0.563 3.865 1.922 1414
0.544 3.735 1.848 8833
0.564 3.870 1.910 1702
0.546 3.747 1.840 6222
0.569 3.904 1.912 1415
0.551 3.780 1.842 4142
0.571 3.916 1.904 2322
0.567 3.893 1.880 4216
0.547 3.757 1.818 2838
0.567 3.890 1.865 5644
0.547 3.754 1.804 2847
0.568 3.895 1.854 6279
0.548 3.759 1.793 2961
0.569 3.908 1.846 4922
0.550 3.771 1.785 2440
0.576 3.956 1.853 7332
0.596 4.092 1.913 2096
0.575 3.946 1.835 9164
0.595 4.083 1.895 3098
0.575 3.944 1.821 9094
0.597 4.095 1.886 3200
0.575 3.949 1.809 6690
0.598 4.100 1.874 3278
0.589 4.040 1.835 5921
0.569 3.903 1.776 2437
0.599 4.110 1.850 6201
0.574 3.936 1.777 2834
0.601 4.122 1.841 5911
0.575 3.948 1.769 1509
0.611 4.192 1.856 3496
0.591 4.055 1.799 2264
0.619 4.248 1.865 6149
0.593 4.067 1.790 2883
0.621 4.260 1.856 7757
0.593 4.071 1.779 2103
0.621 4.258 1.840 6668
0.641 4.396 1.896 3912
0.618 4.241 1.819 5707
0.640 4.394 1.880 5305
0.641 4.399 1.868 6204
0.619 4.246 1.807 5537
0.642 4.404 1.855 6943
0.622 4.265 1.800 5825
0.643 4.409 1.842 5440
0.622 4.270 1.788 3995
0.642 4.406 1.826 4552
0.662 4.545 1.880 2523
0.643 4.411 1.813 4881
0.671 4.602 1.887 2461
0.645 4.423 1.803 5872
0.672 4.614 1.876 2864
0.644 4.421 1.788 5651
0.665 4.560 1.840 4171
0.665 4.565 1.827 6806
0.694 4.764 1.901 3758
0.667 4.577 1.816 7497
0.695 4.769 1.887 2769
0.673 4.619 1.817 6412
0.694 4.759 1.868 3295
0.693 4.757 1.851 6064
0.673 4.616 1.800 4565
0.694 4.761 1.838 8713
0.673 4.621 1.787 2574
0.698 4.788 1.832 10385
0.677 4.648 1.781 1877
0.702 4.816 1.825 10418
0.722 4.956 1.875 3278
0.704 4.828 1.814 6910
0.724 4.968 1.863 3916
0.722 4.951 1.841 5265
0.743 5.099 1.892 4358
0.724 4.971 1.832 4971
0.746 5.119 1.883 3445
0.754 5.176 1.885 4220
0.726 4.983 1.820 4026
0.754 5.174 1.868 5665
0.729 5.003 1.810 3993
0.751 5.156 1.845 4372
0.731 5.015 1.798 2660
0.747 5.124 1.818 4009
0.767 5.266 1.865 2825
0.782 5.367 1.881 3438
0.749 5.136 1.805 2948
0.784 5.380 1.868 3153
0.763 5.238 1.822 2403
0.788 5.407 1.859 3185
0.763 5.236 1.804 2003
0.788 5.405 1.841 4603
0.808 5.547 1.886 2830
0.787 5.402 1.823 4016
0.809 5.552 1.870 3651
0.811 5.564 1.856 4223
0.787 5.399 1.805 2607
0.812 5.569 1.840 3028
0.832 5.711 1.884 2100
0.831 5.701 1.862 2756
0.852 5.844 1.906 1959
0.853 5.857 1.891 2648
0.833 5.714 1.848 2304
0.853 5.854 1.872 3053
0.874 5.997 1.914 1440
0.854 5.859 1.855 1747
0.878 6.024 1.903 1450
0.881 6.045 1.890 1950
0.903 6.195 1.934 840
0.887 6.087 1.883 2162
0.933 6.404 1.975 2136
0.907 6.220 1.902 3082
0.937 6.432 1.963 2965
0.909 6.241 1.888 3027
0.938 6.437 1.944 2296
0.974 6.684 1.992 2793
0.938 6.434 1.923 2516
0.973 6.674 1.969 5284
0.938 6.440 1.904 2522
0.974 6.687 1.951 5849
0.954 6.543 1.912 1982
0.975 6.692 1.932 5914
0.996 6.836 1.970 1891
0.975 6.689 1.910 5186
1.079 7.401 2.100 2491
1.081 7.415 2.080 3643
0.982 6.740 1.902 2973
1.081 7.420 2.058 3888
1.049 7.200 2.001 2284
1.083 7.433 2.039 2876
1.050 7.206 1.980 1504
1.085 7.446 2.019 2078
1.119 7.682 2.079 1535
1.086 7.452 1.997 2356
1.155 7.923 2.115 1225
1.160 7.959 2.100 2530
1.087 7.457 1.975 2157
1.164 7.988 2.082 2000
1.086 7.455 1.951 1067
1.169 8.024 2.066 1999
1.202 8.245 2.119 1249
1.170 8.029 2.042 1641
1.216 8.342 2.117 997
1.238 8.493 2.127 1538
1.161 7.966 2.003 1489
1.238 8.498 2.102 1551
1.264 8.674 2.142 1265
1.264 8.672 2.115 1654
1.301 8.924 2.173 1170
1.300 8.922 2.145 1873
1.263 8.670 2.088 1402
1.301 8.928 2.119 1589
1.267 8.691 2.066 911
1.313 9.010 2.110 1644
1.369 9.393 2.194 1325
1.308 8.978 2.075 2003
1.330 9.123 2.106 1871
1.309 8.983 2.048 1752
1.330 9.129 2.080 1435
1.371 9.410 2.111 1371
1.328 9.111 2.048 1337
1.373 9.424 2.085 2109
1.352 9.278 2.055 1086
1.373 9.422 2.056 2508
1.441 9.890 2.151 1284
1.373 9.419 2.026 2646
1.442 9.896 2.122 1302
1.376 9.440 2.002 2191
1.518 10.417 2.196 1590
1.379 9.461 1.977 1905
1.428 9.799 2.043 1519
1.510 10.359 2.121 1624
1.380 9.466 1.949 1403
1.512 10.372 2.092 1883
1.533 10.519 2.120 1153
1.512 10.378 2.062 1139
1.578 10.825 2.145 1113
1.588 10.900 2.126 1406
1.683 11.547 2.244 1073
1.588 10.898 2.092 1207
1.684 11.553 2.210 1154
1.688 11.583 2.180 1319
1.800 12.354 2.317 1149
1.865 12.800 2.357 1208
1.690 11.596 2.148 1178
1.867 12.815 2.321 1352
1.801 12.359 2.243 1306
1.871 12.836 2.286 1657
1.802 12.365 2.207 1309
1.872 12.842 2.248 1787
1.850 12.696 2.224 974
1.870 12.833 2.208 1523
1.892 12.980 2.232 825
1.870 12.831 2.169 1213
1.891 12.978 2.192 1183
1.867 12.814 2.128 955
1.889 12.961 2.151 929
2.071 14.212 2.260 765
0.360 2.471 0.271 808
0.360 2.472 0.264 888
0.360 2.472 0.257 902
0.360 2.472 0.250 853
0.361 2.481 0.243 757
0.341 2.305 1.816 9460
0.342 2.310 1.809 18921
0.360 2.430 1.898 1496
0.343 2.315 1.803 18921
0.361 2.435 1.891 2992
0.345 2.326 1.801 16269
0.362 2.447 1.889 4109
0.346 2.337 1.798 14053
0.364 2.458 1.886 4947
0.347 2.342 1.792 11810
0.365 2.463 1.879 5581
0.348 2.347 1.785 9566
0.366 2.468 1.872 6431
0.348 2.351 1.778 9566
0.366 2.473 1.865 6647
0.350 2.363 1.776 10052
0.368 2.484 1.862 4980
0.352 2.374 1.774 11220
0.371 2.502 1.864 3441
0.353 2.385 1.771 9039
0.379 2.559 1.893 2786
0.355 2.396 1.769 7212
0.380 2.564 1.886 3135
0.357 2.407 1.766 5361
0.381 2.569 1.878 3827
0.381 2.574 1.871 4520
0.358 2.418 1.764 3743
0.382 2.579 1.863 4520
0.359 2.423 1.757 2880
0.385 2.597 1.865 4390
0.366 2.473 1.781 2137
0.373 2.517 1.800 4921
0.391 2.641 1.884 2559
0.386 2.607 1.850 4939
0.368 2.483 1.767 3274
0.387 2.612 1.842 5457
0.368 2.487 1.759 3456
0.383 2.584 1.813 7250
0.401 2.708 1.895 1485
0.382 2.582 1.801 9971
0.401 2.707 1.883 2721
0.383 2.587 1.794 10348
0.402 2.712 1.875 4061
0.385 2.598 1.790 10794
0.403 2.723 1.872 4749
0.397 2.682 1.834 8213
0.379 2.557 1.753 3880
0.398 2.687 1.826 8544
0.379 2.561 1.746 1842
0.400 2.699 1.823 6066
0.418 2.824 1.903 1540
0.401 2.710 1.819 3815
0.420 2.836 1.899 1748
0.406 2.741 1.828 3932
0.425 2.868 1.907 1896
0.409 2.760 1.828 5249
0.428 2.886 1.907 1700
0.410 2.765 1.820 5962
0.428 2.891 1.899 1870
0.408 2.756 1.804 6851
0.429 2.896 1.891 2040
0.410 2.767 1.800 6871
0.431 2.908 1.886 1998
0.411 2.772 1.792 6896
0.432 2.913 1.878 1974
0.415 2.804 1.800 5256
0.434 2.932 1.877 3230
0.419 2.829 1.804 5249
0.438 2.957 1.881 4297
0.437 2.948 1.864 5559
0.418 2.820 1.788 3716
0.437 2.953 1.856 6457
0.456 3.082 1.932 1494
0.440 2.972 1.855 6658
0.459 3.100 1.931 1123
0.444 2.997 1.859 8789
0.463 3.126 1.934 1103
0.445 3.002 1.850 9861
0.464 3.131 1.925 1136
0.445 3.007 1.841 7396
0.466 3.143 1.920 1344
0.445 3.005 1.829 5009
0.466 3.148 1.910 1535
0.451 3.044 1.839 3915
0.470 3.174 1.913 1196
0.454 3.063 1.838 4339
0.473 3.193 1.911 802
0.454 3.068 1.829 4652
0.474 3.198 1.902 777
0.457 3.086 1.828 9059
0.476 3.216 1.900 789
0.458 3.091 1.819 13156
0.477 3.222 1.891 1018
0.460 3.103 1.814 14728
0.479 3.233 1.886 773
0.460 3.108 1.805 14009
0.480 3.239 1.876 794
0.461 3.112 1.796 11606
0.508 3.430 1.968 969
0.462 3.117 1.787 9013
0.506 3.414 1.947 1384
0.462 3.122 1.778 7328
0.506 3.413 1.933 1652
0.469 3.168 1.791 8666
0.505 3.411 1.919 1747
0.471 3.180 1.785 8874
0.508 3.430 1.917 1603
0.474 3.199 1.783 7542
0.522 3.526 1.954 1574
0.476 3.210 1.777 6166
0.511 3.447 1.900 2147
0.476 3.215 1.768 6071
0.516 3.480 1.905 3483
0.476 3.213 1.755 7907
0.516 3.485 1.895 4786
0.477 3.217 1.746 8654
0.516 3.483 1.881 5338
0.477 3.222 1.737 7732
0.514 3.467 1.860 6115
0.514 3.472 1.850 5317
0.479 3.234 1.731 4909
0.531 3.583 1.892 5917
0.462 3.119 1.662 4083
0.534 3.602 1.889 7048
0.463 3.123 1.653 3444
0.536 3.621 1.885 6417
0.447 3.015 1.589 2883
0.538 3.633 1.878 6135
0.448 3.026 1.583 3105
0.538 3.631 1.864 6348
0.449 3.030 1.575 2348
0.552 3.728 1.898 5811
0.532 3.593 1.833 4208
0.554 3.740 1.890 7871
0.534 3.605 1.826 3236
0.555 3.745 1.879 8139
0.535 3.610 1.816 2825
0.552 3.729 1.858 8465
0.572 3.864 1.922 1458
0.553 3.734 1.848 9345
0.573 3.869 1.910 1845
0.555 3.746 1.840 7323
0.575 3.881 1.902 1534
0.558 3.765 1.836 4186
0.578 3.900 1.898 2720
0.575 3.884 1.876 4802
0.555 3.748 1.815 2794
0.576 3.889 1.865 6371
0.556 3.753 1.804 2776
0.577 3.894 1.854 6942
0.557 3.758 1.793 2785
0.579 3.906 1.846 5779
0.558 3.770 1.785 2315
0.585 3.947 1.850 7830
0.605 4.083 1.910 2358
0.584 3.945 1.835 9876
0.605 4.081 1.895 3304
0.585 3.950 1.824 9530
0.605 4.086 1.883 3403
0.586 3.954 1.812 7060
0.607 4.099 1.874 3320
0.597 4.031 1.832 6677
0.577 3.894 1.773 2230
0.609 4.109 1.850 6033
0.584 3.942 1.780 3286
0.609 4.114 1.838 5745
0.589 3.976 1.781 1741
0.609 4.111 1.823 3782
0.629 4.249 1.880 2588
0.629 4.247 1.865 6348
0.603 4.072 1.793 2787
0.631 4.259 1.856 8026
0.604 4.077 1.782 2190
0.630 4.256 1.840 6800
0.651 4.395 1.896 3846
0.630 4.254 1.825 5965
0.651 4.392 1.880 5394
0.651 4.397 1.868 6288
0.630 4.252 1.810 6193
0.652 4.402 1.855 6636
0.632 4.264 1.800 6488
0.653 4.407 1.842 5096
0.632 4.269 1.788 4212
0.652 4.405 1.826 4607
0.673 4.544 1.880 2511
0.653 4.410 1.813 5275
0.684 4.615 1.892 2382
0.654 4.415 1.801 6156
0.685 4.627 1.882 2868
0.655 4.419 1.788 5829
0.688 4.647 1.874 4265
0.676 4.564 1.827 5769
0.705 4.762 1.901 3796
0.678 4.576 1.816 6225
0.706 4.767 1.887 2743
0.691 4.662 1.833 5718
0.713 4.816 1.890 3062
0.704 4.755 1.851 5403
0.684 4.615 1.800 3008
0.706 4.767 1.840 7906
0.685 4.627 1.790 2387
0.710 4.794 1.834 10156
0.689 4.654 1.784 2073
0.713 4.814 1.825 10058
0.734 4.954 1.875 2852
0.715 4.826 1.814 6506
0.736 4.967 1.863 3639
0.732 4.942 1.838 4997
0.757 5.112 1.898 3929
0.737 4.977 1.834 4236
0.761 5.140 1.890 3426
0.765 5.167 1.883 4517
0.744 5.026 1.835 3611
0.766 5.172 1.868 6065
0.742 5.009 1.813 3680
0.766 5.170 1.850 4389
0.744 5.021 1.801 2433
0.759 5.122 1.818 3801
0.786 5.308 1.879 2504
0.795 5.366 1.881 3637
0.763 5.150 1.810 2723
0.797 5.378 1.868 3334
0.776 5.236 1.822 2475
0.803 5.420 1.864 2926
0.779 5.256 1.811 1696
0.800 5.403 1.841 4049
0.821 5.545 1.886 2088
0.800 5.400 1.823 3677
0.822 5.550 1.870 2992
0.823 5.555 1.854 3876
0.798 5.390 1.802 2396
0.825 5.567 1.840 2784
0.846 5.710 1.884 2384
0.844 5.700 1.862 3151
0.866 5.849 1.908 1869
0.846 5.712 1.848 2639
0.867 5.855 1.891 2533
0.868 5.860 1.874 3148
0.847 5.717 1.831 1369
0.870 5.872 1.859 1772
0.891 6.015 1.901 1214
0.886 5.982 1.873 1800
0.907 6.125 1.914 914
0.945 6.379 1.968 2153
0.918 6.198 1.916 2041
0.921 6.218 1.902 3356
0.948 6.399 1.954 2871
0.925 6.246 1.890 3320
0.948 6.397 1.933 2451
0.953 6.432 1.923 2896
0.985 6.651 1.984 2551
0.987 6.664 1.967 4549
0.955 6.445 1.906 2959
0.990 6.684 1.951 5085
0.969 6.541 1.912 2069
0.991 6.690 1.932 5352
1.012 6.833 1.970 1999
0.991 6.687 1.910 4806
1.096 7.399 2.100 2534
1.098 7.412 2.080 4051
0.996 6.722 1.898 2601
1.099 7.418 2.058 4583
1.067 7.205 2.003 2029
1.101 7.431 2.039 3184
1.057 7.135 1.962 1534
1.103 7.444 2.019 2125
1.138 7.679 2.079 1445
1.103 7.449 1.997 2492
1.125 7.594 2.033 1149
1.104 7.455 1.975 2435
1.179 7.956 2.100 2306
1.184 7.993 2.084 2067
1.104 7.452 1.951 1209
1.188 8.021 2.066 2148
1.220 8.234 2.117 1311
1.191 8.042 2.046 1871
1.242 8.385 2.128 913
1.258 8.490 2.127 1429
1.181 7.971 2.004 1309
1.258 8.495 2.102 1556
1.284 8.671 2.142 1459
1.284 8.669 2.115 1961
1.321 8.921 2.173 1152
1.321 8.919 2.145 1873
1.283 8.659 2.086 1546
1.322 8.925 2.119 1487
1.282 8.657 2.059 899
1.350 9.114 2.133 1622
1.329 8.969 2.101 1497
1.352 9.128 2.108 2180
1.329 8.974 2.075 2070
1.330 8.980 2.048 1826
1.352 9.126 2.080 1519
1.374 9.277 2.083 1479
1.349 9.108 2.048 1399
1.397 9.428 2.087 2731
1.373 9.267 2.053 1554
1.396 9.426 2.057 3497
1.508 10.178 2.211 1236
1.395 9.416 2.026 3253
1.465 9.892 2.122 1217
1.398 9.437 2.002 2293
1.542 10.413 2.196 1487
1.401 9.458 1.977 2051
1.451 9.796 2.043 1345
1.534 10.355 2.121 1637
1.403 9.471 1.951 1477
1.536 10.369 2.092 2008
1.558 10.515 2.120 1278
1.614 10.898 2.159 1173
1.536 10.367 2.060 1162
1.614 10.896 2.126 1603
1.554 10.488 2.051 982
1.614 10.894 2.092 1353
1.712 11.557 2.212 1176
1.715 11.579 2.180 1328
1.631 11.008 2.079 1056
1.895 12.796 2.357 1302
1.838 12.410 2.290 1237
1.898 12.810 2.321 1392
1.831 12.362 2.244 1348
1.901 12.832 2.286 1738
1.832 12.368 2.208 1449
1.902 12.838 2.248 1857
1.842 12.436 2.182 1120
1.900 12.829 2.208 1509
1.922 12.975 2.232 871
1.921 12.966 2.191 1231
1.899 12.819 2.168 1125
1.988 13.421 2.223 1011
1.921 12.972 2.153 960
2.104 14.207 2.260 941
2.107 14.221 2.219 759
0.365 2.463 0.256 792
0.366 2.472 0.250 884
0.366 2.472 0.243 1062
0.366 2.472 0.235 1131
0.366 2.472 0.228 1106
0.366 2.473 0.221 983
0.366 2.473 0.214 885
0.346 2.304 1.816 8808
0.347 2.309 1.809 17616
0.365 2.429 1.898 1614
0.348 2.314 1.803 17616
0.366 2.434 1.891 3228
0.350 2.325 1.801 15463
0.368 2.446 1.889 4334
0.352 2.343 1.803 13688
0.370 2.464 1.891 4269
0.352 2.341 1.792 11407
0.370 2.462 1.879 5799
0.353 2.346 1.785 9138
0.371 2.467 1.872 6689
0.353 2.351 1.778 9138
0.372 2.472 1.865 6907
0.355 2.362 1.776 9838
0.373 2.484 1.862 5156
0.357 2.373 1.774 11179
0.375 2.495 1.860 3464
0.358 2.384 1.771 9161
0.377 2.506 1.857 2956
0.360 2.395 1.769 7488
0.385 2.563 1.886 3030
0.362 2.406 1.766 5449
0.386 2.568 1.878 3768
0.387 2.573 1.871 4507
0.363 2.418 1.764 3700
0.388 2.578 1.863 4507
0.364 2.422 1.757 2760
0.390 2.596 1.865 4389
0.372 2.472 1.781 2153
0.378 2.516 1.800 5185
0.397 2.640 1.884 2647
0.392 2.606 1.850 5100
0.373 2.482 1.767 3381
0.393 2.617 1.846 5730
0.375 2.493 1.764 4245
0.388 2.583 1.813 7142
0.407 2.707 1.895 1315
0.388 2.581 1.801 9920
0.407 2.706 1.883 2450
0.389 2.586 1.794 10218
0.408 2.711 1.875 3891
0.389 2.591 1.786 10517
0.408 2.716 1.867 5333
0.403 2.681 1.834 7903
0.384 2.556 1.753 4083
0.404 2.686 1.826 8148
0.385 2.561 1.746 1922
0.406 2.698 1.823 6117
0.424 2.824 1.903 1428
0.408 2.716 1.823 4211
0.427 2.842 1.903 1511
0.412 2.741 1.828 4448
0.431 2.867 1.907 1745
0.415 2.759 1.828 5728
0.434 2.885 1.907 1618
0.414 2.757 1.816 6286
0.434 2.884 1.895 1990
0.414 2.755 1.804 7088
0.433 2.882 1.882 2124
0.416 2.767 1.800 7142
0.437 2.907 1.886 2119
0.417 2.771 1.792 7248
0.439 2.919 1.882 2270
0.421 2.803 1.800 5676
0.441 2.931 1.877 3599
0.424 2.821 1.800 5503
0.443 2.949 1.877 4865
0.443 2.947 1.864 5560
0.424 2.819 1.788 3932
0.444 2.952 1.856 6092
0.425 2.824 1.780 1512
0.448 2.978 1.859 6191
0.428 2.849 1.784 823
0.450 2.996 1.859 8061
0.470 3.125 1.934 864
0.451 3.001 1.850 8914
0.473 3.144 1.933 872
0.452 3.006 1.841 6460
0.472 3.142 1.920 1115
0.451 2.997 1.825 4299
0.473 3.147 1.910 1349
0.459 3.050 1.843 4289
0.478 3.180 1.917 910
0.461 3.069 1.842 5513
0.462 3.073 1.833 5507
0.464 3.085 1.828 9202
0.465 3.090 1.819 12916
0.442 2.939 1.735 902
0.466 3.102 1.814 14385
0.442 2.937 1.723 817
0.467 3.107 1.805 13578
0.516 3.430 1.981 915
0.468 3.111 1.796 11218
0.514 3.422 1.964 1186
0.468 3.116 1.787 8646
0.513 3.413 1.947 1552
0.469 3.121 1.778 6947
0.513 3.412 1.933 1646
0.476 3.167 1.791 8434
0.514 3.417 1.923 1677
0.478 3.179 1.785 8902
0.516 3.429 1.917 1621
0.480 3.191 1.780 7489
0.530 3.524 1.954 1749
0.482 3.209 1.777 5989
0.518 3.446 1.900 2313
0.483 3.214 1.768 5483
0.522 3.472 1.901 3721
0.483 3.212 1.755 7124
0.524 3.484 1.895 5009
0.484 3.216 1.746 7992
0.524 3.482 1.881 5371
0.484 3.221 1.737 7063
0.521 3.466 1.860 5986
0.536 3.562 1.896 6004
0.486 3.233 1.731 4290
0.538 3.581 1.892 6702
0.469 3.118 1.662 3384
0.541 3.601 1.889 7461
0.470 3.129 1.656 2906
0.544 3.620 1.885 5915
0.453 3.014 1.589 2462
0.553 3.681 1.902 5251
0.532 3.540 1.834 3396
0.545 3.623 1.861 5160
0.565 3.757 1.926 2623
0.560 3.727 1.898 5522
0.540 3.592 1.833 4595
0.562 3.739 1.890 7213
0.542 3.604 1.826 3646
0.563 3.744 1.879 7185
0.543 3.609 1.816 3122
0.560 3.728 1.858 7690
0.581 3.863 1.922 1493
0.561 3.732 1.848 9844
0.581 3.868 1.910 1949
0.563 3.744 1.840 8325
0.583 3.880 1.902 1633
0.565 3.757 1.832 4552
0.585 3.892 1.894 3058
0.583 3.876 1.873 5455
0.562 3.740 1.812 2640
0.583 3.881 1.862 7118
0.563 3.745 1.801 2316
0.585 3.893 1.854 7508
0.565 3.757 1.793 2405
0.587 3.905 1.846 6388
0.567 3.769 1.785 2104
0.593 3.946 1.850 8146
0.614 4.082 1.910 2367
0.593 3.943 1.835 10137
0.613 4.080 1.895 3268
0.594 3.948 1.824 9585
0.614 4.085 1.883 3535
0.594 3.953 1.812 7122
0.616 4.097 1.874 3571
0.605 4.023 1.829 7268
0.625 4.160 1.887 2544
0.617 4.107 1.850 5909
0.594 3.948 1.783 3739
0.618 4.112 1.838 5601
0.598 3.975 1.781 2133
0.618 4.110 1.823 3919
0.639 4.247 1.880 2411
0.638 4.245 1.865 6130
0.614 4.086 1.799 2827
0.640 4.257 1.856 7974
0.614 4.083 1.785 2343
0.640 4.255 1.840 6531
0.660 4.393 1.896 3799
0.639 4.253 1.825 6008
0.660 4.391 1.880 5359
0.640 4.258 1.813 6922
0.661 4.396 1.868 6223
0.641 4.262 1.800 7157
0.662 4.401 1.855 6213
0.662 4.406 1.842 4710
0.642 4.267 1.788 4320
0.662 4.403 1.826 4685
0.683 4.542 1.880 2592
0.663 4.408 1.813 5592
0.695 4.621 1.895 2368
0.663 4.413 1.801 6341
0.698 4.640 1.887 2910
0.664 4.418 1.788 5761
0.699 4.653 1.876 4321
0.700 4.658 1.863 5403
0.665 4.423 1.775 3288
0.701 4.663 1.849 6124
0.680 4.523 1.797 3125
0.702 4.667 1.836 5766
0.723 4.807 1.887 3255
0.702 4.672 1.822 4805
0.726 4.827 1.878 3736
0.716 4.766 1.840 6702
0.695 4.626 1.790 2041
0.721 4.793 1.834 9391
0.699 4.652 1.784 1971
0.724 4.812 1.825 9521
0.745 4.953 1.875 2513
0.724 4.817 1.811 5922
0.745 4.958 1.861 4074
0.742 4.933 1.836 5014
0.769 5.118 1.900 3848
0.759 5.049 1.860 4171
0.738 4.908 1.811 2226
0.775 5.158 1.880 5195
0.754 5.017 1.832 3330
0.777 5.170 1.868 6731
0.756 5.029 1.820 3446
0.778 5.175 1.853 4313
0.756 5.027 1.803 2455
0.770 5.121 1.818 3362
0.801 5.329 1.887 2889
0.805 5.356 1.879 4120
0.773 5.140 1.808 2483
0.807 5.369 1.865 3722
0.786 5.227 1.819 2426
0.815 5.419 1.864 2803
0.790 5.254 1.811 1738
0.813 5.409 1.843 3610
0.851 5.662 1.924 1560
0.813 5.406 1.825 3306
0.834 5.548 1.870 2380
0.836 5.560 1.856 3564
0.857 5.703 1.900 2315
0.855 5.685 1.877 2994
0.876 5.827 1.921 2364
0.857 5.698 1.862 3380
0.886 5.893 1.922 1785
0.858 5.710 1.848 2886
0.881 5.860 1.893 2323
0.881 5.858 1.874 3178
0.859 5.715 1.831 1501
0.885 5.885 1.863 1835
0.862 5.735 1.819 943
0.895 5.950 1.864 1944
0.916 6.093 1.906 1186
0.959 6.377 1.968 2156
0.900 5.985 1.855 2080
0.935 6.216 1.902 3429
0.961 6.390 1.952 2821
0.939 6.244 1.890 3417
0.960 6.387 1.931 2644
0.967 6.430 1.923 2961
0.942 6.264 1.876 2452
1.002 6.662 1.967 3411
0.969 6.443 1.906 3230
1.006 6.690 1.953 4040
1.040 6.916 2.015 2251
1.005 6.687 1.932 4373
1.041 6.922 1.995 2252
1.005 6.685 1.910 3867
1.028 6.836 1.950 2497
1.114 7.410 2.080 4206
1.068 7.107 2.000 2611
1.115 7.415 2.058 5025
1.069 7.112 1.979 2500
1.117 7.428 2.039 3226
1.072 7.132 1.962 1985
1.120 7.449 2.021 2030
1.154 7.677 2.079 1447
1.120 7.447 1.997 2485
1.144 7.606 2.037 1366
1.120 7.452 1.975 2478
1.196 7.954 2.100 1991
1.202 7.998 2.086 1946
1.150 7.648 2.000 1495
1.207 8.026 2.068 2069
1.238 8.232 2.117 1200
1.209 8.039 2.046 1859
1.240 8.245 2.095 935
1.212 8.060 2.026 1350
1.275 8.479 2.125 1239
1.303 8.668 2.142 1845
1.276 8.485 2.100 1528
1.303 8.666 2.115 2245
1.275 8.483 2.073 1435
1.341 8.916 2.145 1769
1.300 8.649 2.085 1660
1.340 8.914 2.117 1385
1.298 8.632 2.054 1059
1.371 9.119 2.135 1802
1.349 8.974 2.103 1413
1.372 9.125 2.108 2485
1.349 8.972 2.075 1999
1.350 8.977 2.048 1795
1.372 9.123 2.080 1574
1.394 9.274 2.083 1522
1.416 9.419 2.114 1345
1.417 9.425 2.087 3110
1.393 9.264 2.053 1828
1.418 9.431 2.059 4213
1.530 10.175 2.211 1292
1.415 9.413 2.026 3543
1.532 10.189 2.183 1211
1.418 9.434 2.002 2185
1.565 10.410 2.196 1425
1.421 9.455 1.977 2083
1.472 9.793 2.043 1168
1.561 10.383 2.127 1494
1.423 9.468 1.951 1483
1.560 10.373 2.094 1900
1.582 10.519 2.121 1346
1.639 10.902 2.161 1387
1.574 10.471 2.080 1205
1.638 10.893 2.126 1713
1.576 10.484 2.051 1124
1.637 10.891 2.092 1427
1.737 11.553 2.212 1185
1.740 11.575 2.180 1336
1.811 12.045 2.264 1060
1.865 12.406 2.290 1346
1.923 12.792 2.357 1273
1.875 12.474 2.264 1432
1.925 12.806 2.321 1340
1.929 12.828 2.286 1691
1.873 12.457 2.224 1569
1.929 12.834 2.248 1737
1.868 12.424 2.181 1241
1.929 12.832 2.209 1340
1.955 13.002 2.237 1052
1.951 12.977 2.194 1244
1.929 12.830 2.170 1057
2.016 13.409 2.222 986
1.951 12.975 2.154 978
2.134 14.196 2.302 803
2.136 14.210 2.261 1025
2.137 14.216 2.219 818
0.349 2.304 1.816 8143
0.350 2.309 1.809 16287
0.368 2.429 1.898 1701
0.351 2.314 1.803 16287
0.369 2.434 1.891 3403
0.352 2.325 1.801 14568
0.371 2.445 1.889 4472
0.355 2.342 1.803 13286
0.373 2.463 1.891 4323
0.355 2.341 1.792 10892
0.373 2.462 1.879 5862
0.356 2.346 1.785 8612
0.374 2.467 1.872 6754
0.356 2.350 1.778 8612
0.375 2.472 1.865 6973
0.358 2.361 1.776 9485
0.376 2.483 1.862 5149
0.360 2.373 1.774 10962
0.378 2.495 1.860 3377
0.361 2.384 1.771 9219
0.380 2.506 1.857 3065
0.363 2.395 1.769 7799
0.388 2.562 1.886 2910
0.365 2.406 1.766 5669
0.389 2.567 1.878 3672
0.390 2.572 1.871 4434
0.366 2.417 1.764 3871
0.391 2.577 1.863 4434
0.368 2.428 1.761 2806
0.382 2.517 1.812 4464
0.400 2.641 1.896 2240
0.380 2.509 1.796 5271
0.399 2.633 1.879 3299
0.395 2.605 1.850 5230
0.376 2.481 1.767 3368
0.397 2.617 1.846 5946
0.378 2.493 1.764 4262
0.393 2.589 1.817 6986
0.374 2.465 1.735 1175
0.391 2.581 1.801 9702
0.410 2.705 1.883 2174
0.392 2.585 1.794 9927
0.411 2.710 1.875 3680
0.393 2.590 1.786 10151
0.412 2.715 1.867 5186
0.406 2.681 1.834 7533
0.387 2.555 1.753 4117
0.408 2.692 1.830 7738
0.389 2.567 1.750 2073
0.409 2.697 1.823 6260
0.428 2.823 1.903 1392
0.413 2.722 1.827 4961
0.432 2.848 1.907 1291
0.415 2.740 1.828 5148
0.435 2.866 1.907 1616
0.418 2.758 1.828 6301
0.437 2.885 1.907 1537
0.418 2.756 1.816 6654
0.437 2.883 1.895 1922
0.418 2.755 1.804 7341
0.437 2.882 1.882 2147
0.419 2.766 1.800 7475
0.441 2.907 1.886 2207
0.421 2.778 1.796 7808
0.442 2.918 1.882 2619
0.425 2.802 1.800 6288
0.444 2.930 1.877 4032
0.428 2.821 1.800 5954
0.447 2.949 1.877 5297
0.447 2.947 1.864 5681
0.427 2.819 1.788 4283
0.448 2.952 1.856 5854
0.428 2.824 1.780 1610
0.451 2.977 1.859 5845
0.432 2.849 1.784 848
0.454 2.996 1.859 7429
0.456 3.007 1.854 8151
0.458 3.019 1.849 5908
0.477 3.148 1.923 927
0.461 3.038 1.848 4014
0.441 2.908 1.774 964
0.465 3.070 1.855 5002
0.446 2.940 1.781 1047
0.465 3.068 1.842 6494
0.445 2.938 1.769 767
0.466 3.073 1.833 6159
0.468 3.085 1.828 9218
0.448 2.954 1.755 766
0.468 3.089 1.819 12559
0.445 2.938 1.735 961
0.470 3.101 1.814 13938
0.445 2.936 1.723 867
0.471 3.106 1.805 13113
0.519 3.423 1.978 1063
0.472 3.111 1.796 10860
0.519 3.421 1.964 1425
0.472 3.116 1.787 8247
0.518 3.420 1.950 1784
0.473 3.120 1.778 6562
0.518 3.418 1.937 1738
0.480 3.167 1.791 8040
0.519 3.423 1.927 1597
0.482 3.178 1.785 8564
0.519 3.421 1.913 1585
0.484 3.190 1.780 7229
0.534 3.524 1.954 1934
0.486 3.209 1.777 5938
0.522 3.445 1.900 2381
0.487 3.213 1.768 5360
0.526 3.471 1.901 3811
0.487 3.211 1.755 6819
0.528 3.483 1.895 5052
0.488 3.216 1.746 7761
0.528 3.481 1.881 5097
0.488 3.220 1.737 6728
0.526 3.472 1.864 5438
0.539 3.555 1.892 6771
0.490 3.232 1.731 3903
0.542 3.574 1.889 7396
0.474 3.124 1.665 2890
0.546 3.600 1.889 7622
0.474 3.128 1.656 2473
0.549 3.619 1.885 4999
0.458 3.020 1.592 1799
0.559 3.687 1.906 4724
0.538 3.546 1.837 2873
0.545 3.594 1.847 4305
0.565 3.728 1.912 3763
0.566 3.733 1.901 5248
0.546 3.599 1.837 5040
0.568 3.745 1.894 6420
0.547 3.611 1.830 4480
0.569 3.750 1.883 6265
0.548 3.615 1.819 3918
0.564 3.720 1.855 7298
0.584 3.855 1.918 1415
0.565 3.725 1.844 10738
0.585 3.860 1.907 1843
0.568 3.744 1.840 9560
0.589 3.886 1.906 1579
0.569 3.756 1.832 5238
0.590 3.891 1.894 3134
0.586 3.868 1.870 6046
0.566 3.732 1.808 2342
0.588 3.880 1.862 7787
0.568 3.744 1.801 2059
0.590 3.892 1.854 7936
0.569 3.756 1.793 1726
0.592 3.904 1.846 7006
0.571 3.768 1.785 1641
0.597 3.938 1.847 8827
0.618 4.074 1.907 2586
0.598 3.943 1.835 10601
0.618 4.079 1.895 3403
0.598 3.948 1.824 9801
0.619 4.084 1.883 3704
0.605 3.988 1.828 7474
0.625 4.125 1.887 2713
0.610 4.022 1.829 8064
0.631 4.159 1.887 2992
0.612 4.034 1.820 5897
0.632 4.172 1.878 3401
0.623 4.111 1.838 5632
0.602 3.974 1.781 2591
0.622 4.102 1.820 4156
0.643 4.239 1.877 2667
0.643 4.244 1.865 5926
0.620 4.092 1.802 2872
0.645 4.257 1.856 7895
0.620 4.090 1.788 2491
0.646 4.262 1.843 6149
0.667 4.400 1.899 3309
0.645 4.252 1.825 5812
0.666 4.390 1.880 5298
0.645 4.257 1.813 7339
0.666 4.395 1.868 6091
0.646 4.262 1.800 7519
0.667 4.400 1.855 5757
0.649 4.281 1.793 4606
0.670 4.420 1.848 4294
0.669 4.410 1.829 4825
0.690 4.549 1.883 2736
0.668 4.407 1.813 5731
0.701 4.627 1.898 2412
0.669 4.412 1.801 6364
0.703 4.639 1.887 2924
0.670 4.417 1.788 5704
0.705 4.652 1.876 4232
0.706 4.657 1.863 5003
0.670 4.422 1.775 3290
0.707 4.662 1.849 5408
0.728 4.801 1.901 2691
0.707 4.667 1.836 5399
0.729 4.806 1.887 3568
0.708 4.671 1.822 4550
0.732 4.826 1.878 3778
0.722 4.765 1.840 5638
0.701 4.625 1.790 1881
0.728 4.799 1.837 8732
0.706 4.659 1.787 1880
0.729 4.811 1.825 8918
0.751 4.952 1.875 2451
0.746 4.920 1.848 5440
0.725 4.779 1.798 3071
0.748 4.932 1.836 4804
0.777 5.125 1.903 3542
0.765 5.048 1.860 4426
0.744 4.907 1.811 2073
0.782 5.157 1.880 5493
0.760 5.016 1.832 3548
0.784 5.169 1.868 7192
0.762 5.028 1.820 3312
0.786 5.182 1.855 4526
0.763 5.033 1.805 2378
0.807 5.321 1.884 2974
0.775 5.112 1.815 2934
0.812 5.355 1.879 3989
0.790 5.214 1.832 2307
0.814 5.368 1.865 3741
0.792 5.226 1.819 2298
0.821 5.418 1.864 2531
0.796 5.253 1.811 1622
0.820 5.408 1.843 2898
0.857 5.654 1.922 1800
0.819 5.405 1.825 2739
0.860 5.674 1.910 2020
0.843 5.559 1.856 3050
0.883 5.821 1.938 2360
0.861 5.677 1.874 3446
0.882 5.819 1.918 2654
0.864 5.697 1.862 4008
0.894 5.899 1.924 1796
0.866 5.709 1.848 3488
0.891 5.874 1.898 2074
0.889 5.864 1.876 3101
0.867 5.721 1.834 1684
0.892 5.884 1.863 1883
0.869 5.734 1.819 936
0.901 5.942 1.862 2058
0.922 6.085 1.903 1079
0.906 5.977 1.853 2192
0.965 6.368 1.966 2118
0.943 6.223 1.904 3298
0.967 6.381 1.950 2724
0.946 6.243 1.890 3252
0.968 6.386 1.931 2631
0.974 6.421 1.921 2596
0.949 6.263 1.876 2363
0.978 6.449 1.908 3268
1.004 6.623 1.956 2864
1.003 6.613 1.933 3919
1.048 6.915 2.015 2937
1.003 6.618 1.913 3540
1.049 6.921 1.995 2940
1.012 6.676 1.908 2813
1.035 6.827 1.948 2730
1.123 7.408 2.080 4114
1.078 7.113 2.002 3191
1.124 7.414 2.058 5233
1.078 7.111 1.979 2991
1.125 7.419 2.037 3226
1.080 7.124 1.961 2218
1.130 7.455 2.023 1877
1.165 7.683 2.081 1504
1.130 7.453 1.999 2304
1.153 7.605 2.037 1565
1.130 7.451 1.975 2393
1.160 7.648 2.024 2179
1.212 7.996 2.086 1946
1.160 7.654 2.002 1770
1.217 8.025 2.068 1959
1.195 7.880 2.033 1224
1.219 8.038 2.046 1789
1.310 8.639 2.190 930
1.263 8.333 2.091 1610
1.313 8.661 2.168 1423
1.314 8.666 2.142 2095
1.265 8.346 2.068 1543
1.315 8.672 2.117 2204
1.285 8.474 2.071 1732
1.353 8.922 2.147 1591
1.316 8.678 2.091 1471
1.351 8.913 2.117 1348
1.309 8.638 2.056 951
1.382 9.117 2.135 1953
1.360 8.972 2.103 1299
1.383 9.123 2.108 2698
1.360 8.970 2.075 1988
1.360 8.968 2.047 1849
1.383 9.121 2.080 1635
1.402 9.249 2.079 1600
1.431 9.441 2.119 1546
1.430 9.431 2.088 3472
1.403 9.255 2.051 2106
1.429 9.429 2.059 4794
1.404 9.260 2.024 1387
1.428 9.419 2.028 3606
1.544 10.187 2.183 1178
1.430 9.432 2.002 2091
1.579 10.415 2.197 1262
1.434 9.461 1.979 2131
1.581 10.429 2.168 1114
1.576 10.396 2.130 1481
1.435 9.466 1.951 1400
1.577 10.402 2.099 1853
1.652 10.894 2.193 918
1.651 10.893 2.159 1474
1.586 10.461 2.079 1309
1.651 10.891 2.126 1713
1.589 10.482 2.051 1269
1.651 10.889 2.092 1410
1.825 12.037 2.299 1364
1.826 12.043 2.264 1439
1.754 11.573 2.180 1279
1.879 12.396 2.289 1396
1.827 12.049 2.228 1180
1.879 12.395 2.251 1481
1.941 12.804 2.321 1270
1.875 12.370 2.209 1614
1.944 12.825 2.286 1574
1.945 12.831 2.248 1549
1.883 12.422 2.181 1263
1.972 13.008 2.238 1296
1.944 12.822 2.208 1141
1.971 12.998 2.197 1310
