0.241 3.838 1.920 1257
0.232 3.700 1.843 6919
0.241 3.836 1.906 1514
0.233 3.705 1.832 7276
0.241 3.841 1.895 2000
0.234 3.731 1.831 8730
0.243 3.868 1.894 1849
0.236 3.758 1.830 8666
0.245 3.894 1.892 4000
0.244 3.878 1.871 6425
0.235 3.741 1.810 4388
0.243 3.875 1.857 7371
0.235 3.739 1.795 3234
0.244 3.880 1.846 7059
0.235 3.743 1.785 2403
0.253 4.032 1.913 1194
0.244 3.885 1.835 6428
0.253 4.023 1.895 1642
0.235 3.748 1.774 1029
0.245 3.905 1.830 5848
0.254 4.042 1.890 2775
0.248 3.946 1.834 5328
0.256 4.084 1.894 4149
0.250 3.980 1.835 6086
0.259 4.118 1.895 3558
0.252 4.007 1.833 8967
0.260 4.145 1.892 2475
0.243 3.869 1.774 1244
0.252 4.019 1.825 10628
0.261 4.157 1.884 1997
0.244 3.881 1.766 1434
0.254 4.046 1.822 9229
0.264 4.206 1.890 1728
0.245 3.907 1.764 1645
0.257 4.087 1.826 6792
0.248 3.948 1.768 2903
0.265 4.225 1.884 1524
0.261 4.150 1.838 9042
0.250 3.982 1.769 2551
0.271 4.318 1.908 1069
0.262 4.177 1.835 8742
0.271 4.316 1.893 1525
0.254 4.038 1.778 1094
0.264 4.204 1.832 4640
0.273 4.343 1.889 1622
0.271 4.311 1.862 3340
0.262 4.165 1.802 1384
0.272 4.338 1.858 3402
0.274 4.358 1.851 4392
0.282 4.498 1.907 1069
0.265 4.219 1.796 1015
0.274 4.363 1.839 4610
0.265 4.223 1.784 1292
0.283 4.503 1.894 1271
0.275 4.383 1.832 5713
0.284 4.523 1.886 1646
0.266 4.243 1.777 1243
0.276 4.388 1.819 7357
0.284 4.528 1.873 2555
0.267 4.248 1.765 1506
0.276 4.393 1.806 5693
0.285 4.533 1.860 2699
0.267 4.252 1.753 1353
0.282 4.486 1.828 6091
0.273 4.346 1.774 3029
0.291 4.626 1.881 2169
0.282 4.491 1.815 4455
0.291 4.631 1.868 2811
0.273 4.350 1.762 1946
0.292 4.644 1.857 3833
0.283 4.503 1.804 2683
0.274 4.363 1.752 1047
0.291 4.641 1.841 4748
0.278 4.426 1.761 1330
0.301 4.790 1.896 1227
0.289 4.594 1.808 5174
0.302 4.810 1.887 1440
0.289 4.607 1.798 5918
0.302 4.807 1.871 1637
0.291 4.626 1.790 3891
0.304 4.842 1.867 2538
0.304 4.847 1.853 4105
0.295 4.691 1.798 4083
0.304 4.837 1.834 3836
0.294 4.681 1.779 2694
0.313 4.979 1.884 1002
0.305 4.857 1.825 3933
0.296 4.715 1.776 1660
0.314 4.999 1.875 1222
0.303 4.824 1.798 4029
0.312 4.966 1.848 2798
0.294 4.683 1.749 1049
0.324 5.153 1.913 1039
0.316 5.031 1.854 3733
0.303 4.822 1.782 3207
0.325 5.173 1.903 2045
0.317 5.051 1.844 4953
0.308 4.909 1.796 3050
0.326 5.193 1.893 2460
0.299 4.767 1.747 1021
0.318 5.056 1.830 5440
0.309 4.914 1.782 3541
0.331 5.273 1.903 2545
0.316 5.038 1.808 4526
0.333 5.301 1.895 3415
0.307 4.896 1.760 1431
0.317 5.043 1.793 3834
0.334 5.313 1.883 2799
0.329 5.243 1.843 4401
0.318 5.063 1.783 3147
0.338 5.386 1.889 2163
0.329 5.233 1.822 5094
0.339 5.406 1.879 2545
0.318 5.068 1.769 1652
0.329 5.238 1.807 3636
0.343 5.464 1.880 3561
0.337 5.371 1.833 3912
0.346 5.514 1.878 2552
0.328 5.228 1.787 1485
0.339 5.391 1.822 4265
0.352 5.609 1.891 2808
0.343 5.456 1.825 4399
0.353 5.622 1.877 2206
0.334 5.313 1.781 1115
0.343 5.468 1.812 2659
0.359 5.710 1.886 2072
0.368 5.861 1.933 1338
0.359 5.723 1.872 3247
0.345 5.496 1.803 1929
0.369 5.874 1.918 1440
0.361 5.743 1.860 2788
0.346 5.508 1.789 1425
0.374 5.962 1.926 1345
0.374 5.960 1.907 1748
0.362 5.763 1.848 1571
0.353 5.619 1.805 1418
0.388 6.172 1.970 1069
0.375 5.972 1.892 3004
0.365 5.813 1.845 1889
0.387 6.170 1.950 1801
0.353 5.616 1.786 1025
0.376 5.985 1.877 3758
0.386 6.152 1.926 2704
0.365 5.818 1.828 1886
0.387 6.157 1.908 4040
0.378 6.013 1.866 2666
0.367 5.838 1.815 1963
0.396 6.301 1.950 1535
0.387 6.162 1.890 3307
0.396 6.307 1.931 2356
0.378 6.018 1.849 2081
0.368 5.858 1.803 1619
0.378 6.023 1.831 2588
0.396 6.304 1.911 2512
0.405 6.449 1.952 1511
0.414 6.593 1.993 1079
0.413 6.583 1.969 3064
0.379 6.035 1.816 2153
0.397 6.317 1.895 1938
0.424 6.751 2.016 1387
0.414 6.589 1.950 5425
0.423 6.741 1.992 1967
0.398 6.345 1.883 1822
0.389 6.193 1.840 1193
0.416 6.617 1.937 7472
0.433 6.899 2.015 1765
0.397 6.319 1.856 1671
0.406 6.472 1.898 1062
0.416 6.630 1.920 7831
0.432 6.874 1.986 3960
0.396 6.309 1.833 1242
0.451 7.179 2.069 1011
0.417 6.635 1.901 7474
0.432 6.879 1.966 4083
0.452 7.192 2.050 1483
0.417 6.640 1.882 6353
0.434 6.907 1.952 2271
0.452 7.205 2.031 2180
0.416 6.630 1.858 3289
0.453 7.211 2.010 2609
0.440 7.004 1.956 2124
0.425 6.775 1.896 1894
0.441 7.017 1.938 2440
0.453 7.216 1.989 2359
0.418 6.650 1.843 2050
0.471 7.507 2.064 1706
0.471 7.497 2.039 1902
0.454 7.237 1.972 1730
0.441 7.015 1.916 1647
0.488 7.765 2.107 1355
0.481 7.656 2.055 1592
0.471 7.495 2.015 1407
0.490 7.801 2.092 1219
0.457 7.273 1.959 1093
0.477 7.600 2.018 2018
0.488 7.769 2.060 1842
0.478 7.605 1.996 2746
0.488 7.767 2.035 1873
0.507 8.074 2.111 1196
0.490 7.803 2.020 1786
0.510 8.118 2.097 1779
0.477 7.603 1.972 1599
0.511 8.131 2.075 2971
0.491 7.816 2.000 2464
0.511 8.137 2.051 2317
0.491 7.821 1.977 1656
0.520 8.283 2.086 1093
0.519 8.265 2.056 1574
0.510 8.119 2.022 1532
0.510 8.125 1.999 1534
0.532 8.471 2.079 1432
0.523 8.325 2.045 1243
0.549 8.746 2.115 1610
0.531 8.461 2.050 1599
0.550 8.760 2.091 1914
0.532 8.467 2.026 1511
0.541 8.613 2.059 1096
0.551 8.773 2.068 1519
0.561 8.927 2.102 1449
0.533 8.480 2.003 1334
0.561 8.941 2.078 1658
0.534 8.501 1.982 1234
0.571 9.088 2.110 1052
0.551 8.779 2.042 1013
0.562 8.946 2.052 1555
0.553 8.800 2.020 1204
0.536 8.529 1.962 1071
0.556 8.859 2.006 1647
0.600 9.547 2.152 1062
0.540 8.596 1.950 1024
0.566 9.006 2.037 1023
0.558 8.888 1.985 2112
0.601 9.568 2.127 1235
0.558 8.893 1.959 1524
0.602 9.582 2.101 1475
0.603 9.595 2.075 1350
0.622 9.897 2.136 1089
0.602 9.593 2.045 1348
0.614 9.771 2.081 1231
0.623 9.919 2.110 1102
0.614 9.769 2.051 1398
0.603 9.607 2.019 1321
0.604 9.612 1.991 1055
0.640 10.192 2.072 1228
0.549 8.740 1.796 1027
0.539 8.585 1.766 1024
0.540 8.597 1.742 1944
0.640 10.189 2.041 1316
0.550 8.753 1.772 1228
0.540 8.602 1.717 3010
0.640 10.187 2.010 1118
0.550 8.757 1.746 1111
0.681 10.848 2.132 1108
0.540 8.607 1.692 3667
0.681 10.846 2.099 1107
0.550 8.754 1.719 1080
0.541 8.611 1.667 3448
0.550 8.759 1.694 1294
0.559 8.907 1.720 1119
0.541 8.616 1.642 2598
0.559 8.903 1.693 1518
0.559 8.908 1.667 1860
0.541 8.620 1.617 1682
0.560 8.912 1.641 1816
0.774 12.332 2.221 1076
0.560 8.917 1.615 1443
0.560 8.921 1.589 1052
0.150 2.313 1.807 3838
0.150 2.318 1.800 7677
0.158 2.439 1.889 3067
0.157 2.418 1.863 8683
0.149 2.297 1.775 6338
0.157 2.423 1.856 8616
0.149 2.302 1.768 5994
0.152 2.345 1.789 9198
0.160 2.467 1.877 4987
0.152 2.350 1.783 8951
0.160 2.472 1.870 5424
0.153 2.354 1.776 8703
0.161 2.477 1.863 5860
0.153 2.359 1.769 8703
0.163 2.508 1.874 6155
0.158 2.442 1.817 7761
0.150 2.319 1.731 3275
0.166 2.564 1.903 2100
0.159 2.446 1.810 8772
0.151 2.323 1.724 2283
0.167 2.570 1.896 1820
0.159 2.451 1.803 8959
0.167 2.575 1.888 2037
0.151 2.328 1.717 1516
0.159 2.450 1.791 9274
0.167 2.573 1.877 2854
0.160 2.461 1.789 7855
0.168 2.585 1.874 3172
0.160 2.472 1.786 6628
0.169 2.603 1.875 4535
0.161 2.484 1.784 6237
0.169 2.608 1.868 4535
0.166 2.561 1.825 6247
0.174 2.685 1.909 1027
0.166 2.565 1.818 7410
0.175 2.690 1.901 1470
0.166 2.557 1.802 7327
0.174 2.682 1.885 1653
0.166 2.562 1.794 7302
0.175 2.694 1.881 1639
0.167 2.573 1.791 5841
0.175 2.699 1.874 3116
0.172 2.658 1.836 6850
0.181 2.784 1.918 1721
0.164 2.532 1.754 1212
0.173 2.663 1.828 8045
0.181 2.789 1.910 1647
0.165 2.537 1.746 1102
0.173 2.668 1.820 9240
0.181 2.794 1.902 1572
0.174 2.679 1.817 8059
0.182 2.806 1.898 1330
0.175 2.697 1.818 7247
0.186 2.864 1.924 1815
0.175 2.702 1.810 7663
0.187 2.876 1.920 2582
0.176 2.707 1.802 8079
0.187 2.888 1.916 3382
0.176 2.712 1.794 6320
0.185 2.860 1.886 3628
0.177 2.723 1.791 4615
0.185 2.858 1.874 4380
0.194 2.986 1.953 1043
0.177 2.735 1.787 4345
0.186 2.863 1.866 3810
0.194 2.991 1.944 1116
0.179 2.760 1.792 4881
0.191 2.942 1.903 3044
0.189 2.907 1.870 5109
0.180 2.772 1.788 4423
0.197 3.035 1.948 1198
0.188 2.905 1.857 7603
0.180 2.776 1.780 3994
0.197 3.034 1.935 2212
0.189 2.910 1.849 8518
0.180 2.781 1.772 3100
0.197 3.039 1.926 2733
0.190 2.922 1.845 9500
0.198 3.051 1.921 2622
0.181 2.793 1.768 2406
0.190 2.933 1.840 6766
0.199 3.063 1.917 2127
0.182 2.804 1.764 1865
0.191 2.952 1.840 4532
0.201 3.095 1.924 2124
0.183 2.823 1.764 1228
0.192 2.964 1.835 4510
0.201 3.094 1.911 2753
0.184 2.834 1.760 1266
0.199 3.071 1.886 4904
0.191 2.941 1.811 2178
0.200 3.076 1.877 5425
0.191 2.946 1.803 1643
0.200 3.081 1.869 5309
0.191 2.951 1.794 1140
0.201 3.093 1.864 5202
0.211 3.252 1.953 1231
0.201 3.092 1.851 3907
0.209 3.222 1.925 2155
0.209 3.228 1.915 2998
0.201 3.096 1.842 2603
0.210 3.240 1.910 4480
0.201 3.101 1.833 2566
0.210 3.245 1.900 6222
0.201 3.106 1.824 2842
0.210 3.243 1.887 6500
0.202 3.111 1.815 3137
0.215 3.317 1.916 6285
0.207 3.186 1.844 3009
0.216 3.330 1.910 7270
0.207 3.197 1.839 4049
0.216 3.335 1.900 6683
0.208 3.202 1.829 3789
0.214 3.298 1.868 6975
0.223 3.431 1.939 2018
0.205 3.165 1.798 1242
0.214 3.303 1.859 8168
0.223 3.436 1.929 2644
0.215 3.322 1.857 8439
0.224 3.455 1.927 2046
0.217 3.348 1.858 7190
0.226 3.481 1.928 1562
0.221 3.402 1.874 6574
0.231 3.557 1.954 1239
0.221 3.407 1.864 9041
0.230 3.541 1.933 2640
0.212 3.274 1.796 1003
0.220 3.391 1.844 9679
0.230 3.539 1.919 4951
0.220 3.389 1.830 8325
0.230 3.544 1.909 5767
0.222 3.422 1.835 6730
0.231 3.556 1.902 4836
0.223 3.441 1.832 8159
0.232 3.576 1.899 5249
0.224 3.453 1.826 8923
0.233 3.588 1.892 7099
0.241 3.722 1.959 1317
0.232 3.579 1.875 9666
0.223 3.444 1.809 6570
0.241 3.713 1.941 2037
0.232 3.577 1.861 11108
0.223 3.442 1.795 4011
0.241 3.711 1.927 3229
0.233 3.589 1.854 10681
0.242 3.724 1.920 2967
0.224 3.454 1.789 2669
0.234 3.601 1.847 11807
0.242 3.736 1.912 3118
0.225 3.465 1.782 2888
0.234 3.613 1.840 10271
0.243 3.748 1.905 3117
0.226 3.477 1.776 2331
0.240 3.703 1.871 7314
0.231 3.568 1.806 2448
0.240 3.701 1.857 6578
0.249 3.837 1.920 1151
0.240 3.699 1.843 6641
0.249 3.835 1.906 1508
0.240 3.704 1.832 6861
0.249 3.840 1.895 2109
0.242 3.731 1.831 8350
0.251 3.867 1.894 1847
0.244 3.757 1.830 8945
0.253 3.894 1.892 4018
0.251 3.870 1.868 7066
0.242 3.733 1.806 4206
0.251 3.875 1.857 8059
0.242 3.738 1.795 3676
0.252 3.880 1.846 7899
0.243 3.743 1.785 2633
0.262 4.039 1.917 1023
0.252 3.878 1.831 6627
0.260 4.015 1.892 1798
0.243 3.740 1.771 1033
0.253 3.904 1.830 5296
0.262 4.042 1.890 3110
0.256 3.945 1.834 5322
0.265 4.083 1.894 4322
0.259 3.994 1.842 6397
0.268 4.132 1.901 2236
0.250 3.856 1.782 1074
0.260 4.006 1.833 9208
0.269 4.144 1.892 2356
0.251 3.868 1.774 1102
0.261 4.026 1.828 10770
0.270 4.164 1.887 1642
0.252 3.887 1.769 1507
0.262 4.045 1.822 9370
0.253 3.907 1.764 1660
0.272 4.198 1.887 1369
0.266 4.094 1.829 7089
0.257 3.955 1.771 3619
0.275 4.232 1.887 1332
0.269 4.150 1.838 8731
0.258 3.982 1.769 2776
0.278 4.288 1.896 1228
0.270 4.169 1.832 8275
0.279 4.308 1.890 1947
0.261 4.030 1.775 1062
0.273 4.203 1.832 4348
0.282 4.342 1.889 1633
0.280 4.311 1.862 4043
0.269 4.150 1.796 1570
0.281 4.338 1.858 3476
0.269 4.147 1.781 1015
0.283 4.358 1.851 4246
0.283 4.370 1.842 4457
0.284 4.382 1.832 5793
0.293 4.522 1.886 1619
0.275 4.242 1.777 1266
0.285 4.387 1.819 7415
0.294 4.527 1.873 2554
0.275 4.247 1.765 1521
0.285 4.392 1.806 5706
0.294 4.532 1.860 2686
0.276 4.252 1.753 1338
0.291 4.493 1.830 5883
0.282 4.352 1.777 3280
0.301 4.633 1.884 2182
0.292 4.498 1.817 4638
0.301 4.638 1.870 2730
0.283 4.357 1.764 2267
0.299 4.606 1.843 4365
0.286 4.414 1.771 2018
0.310 4.784 1.910 1023
0.298 4.596 1.824 5483
0.287 4.426 1.761 1526
0.311 4.796 1.898 1382
0.298 4.594 1.808 5286
0.312 4.809 1.887 1734
0.289 4.453 1.756 1371
0.299 4.606 1.798 5036
0.312 4.814 1.873 1961
0.306 4.715 1.822 3403
0.315 4.856 1.873 2258
0.297 4.574 1.771 1969
0.306 4.720 1.808 4749
0.315 4.861 1.859 3625
0.309 4.769 1.810 4245
0.319 4.918 1.863 2831
0.300 4.628 1.760 1136
0.313 4.826 1.815 3739
0.322 4.968 1.865 1593
0.304 4.685 1.765 1442
0.312 4.816 1.796 4584
0.322 4.958 1.845 2883
0.332 5.115 1.900 1043
0.326 5.030 1.854 3628
0.313 4.821 1.782 3388
0.335 5.172 1.903 1985
0.328 5.058 1.847 4820
0.318 4.908 1.796 2535
0.337 5.200 1.895 2340
0.328 5.063 1.832 5361
0.319 4.920 1.784 3366
0.342 5.272 1.903 2697
0.326 5.030 1.805 4721
0.344 5.307 1.898 3252
0.317 4.888 1.757 1251
0.327 5.035 1.791 4128
0.346 5.327 1.888 2845
0.336 5.177 1.838 1706
0.341 5.250 1.845 3717
0.328 5.055 1.781 3209
0.350 5.393 1.892 2097
0.339 5.232 1.822 4741
0.350 5.390 1.874 2617
0.329 5.067 1.769 1541
0.355 5.470 1.882 3492
0.340 5.237 1.807 3429
0.348 5.370 1.833 4176
0.358 5.513 1.878 3052
0.339 5.227 1.787 1365
0.349 5.383 1.820 4275
0.358 5.526 1.865 2845
0.354 5.455 1.825 3904
0.365 5.621 1.877 2171
0.345 5.312 1.781 1042
0.355 5.475 1.814 2381
0.365 5.634 1.863 1904
0.381 5.875 1.938 1481
0.372 5.737 1.877 2719
0.356 5.495 1.803 2047
0.381 5.881 1.921 1760
0.372 5.742 1.860 2795
0.357 5.508 1.789 1461
0.382 5.886 1.904 1305
0.374 5.762 1.848 1777
0.386 5.951 1.905 1739
0.364 5.618 1.805 1640
0.400 6.171 1.970 1071
0.388 5.979 1.894 3202
0.377 5.813 1.845 1995
0.399 6.154 1.946 1921
0.364 5.608 1.784 1195
0.388 5.984 1.877 3952
0.399 6.151 1.926 3268
0.377 5.818 1.828 1871
0.399 6.156 1.908 4891
0.390 6.012 1.866 2876
0.379 5.838 1.815 1913
0.409 6.301 1.950 1604
0.400 6.161 1.890 4170
0.409 6.306 1.931 2386
0.390 6.017 1.849 2087
0.380 5.858 1.803 1527
0.409 6.303 1.911 2632
0.399 6.159 1.870 2453
0.390 6.015 1.829 2226
0.423 6.516 1.971 1828
0.426 6.575 1.967 2867
0.409 6.309 1.893 2091
0.391 6.035 1.816 1904
0.438 6.757 2.018 1555
0.427 6.588 1.950 4902
0.437 6.740 1.992 2126
0.412 6.352 1.885 1875
0.403 6.207 1.845 1175
0.429 6.616 1.937 6667
0.447 6.898 2.015 1778
0.409 6.311 1.854 1573
0.420 6.471 1.898 1436
0.430 6.629 1.920 7153
0.446 6.873 1.986 3873
0.409 6.308 1.833 1312
0.430 6.634 1.901 7274
0.447 6.886 1.968 4083
0.466 7.183 2.048 1235
0.431 6.639 1.882 6096
0.448 6.906 1.952 2403
0.467 7.197 2.029 2356
0.429 6.621 1.856 3120
0.468 7.210 2.010 2854
0.440 6.789 1.900 2222
0.454 7.003 1.956 1963
0.469 7.230 1.993 2562
0.455 7.016 1.938 2279
0.487 7.513 2.066 2020
0.442 6.810 1.885 1949
0.487 7.504 2.041 2123
0.471 7.259 1.978 1845
0.455 7.014 1.916 1652
0.504 7.764 2.107 1329
0.497 7.655 2.055 1740
0.464 7.149 1.928 1658
0.487 7.502 2.017 1591
0.506 7.800 2.092 1169
0.503 7.760 2.058 1952
0.493 7.599 2.018 1859
0.464 7.154 1.907 1673
0.493 7.597 1.994 2450
0.503 7.758 2.034 1944
0.464 7.152 1.885 1826
0.524 8.072 2.111 1597
0.527 8.124 2.099 1701
0.506 7.802 2.020 1588
0.493 7.602 1.972 1387
0.464 7.157 1.864 1365
0.527 8.130 2.075 2922
0.507 7.815 2.000 2215
0.528 8.136 2.051 2325
0.507 7.820 1.977 1785
0.537 8.282 2.086 1169
0.536 8.256 2.055 1644
0.526 8.110 2.021 1273
0.550 8.478 2.080 1329
0.526 8.116 1.997 1324
0.540 8.331 2.047 1173
0.567 8.745 2.115 1586
0.550 8.476 2.054 1420
0.568 8.759 2.091 1997
0.555 8.558 2.047 1492
0.569 8.780 2.069 1609
0.579 8.926 2.102 1327
0.550 8.487 2.005 1208
0.560 8.633 2.037 1004
0.580 8.940 2.078 1334
0.552 8.507 1.983 1234
0.569 8.778 2.042 1139
0.589 9.086 2.110 1070
0.573 8.837 2.028 1532
0.553 8.528 1.962 1066
0.583 8.984 2.060 1023
0.575 8.858 2.006 1717
0.584 9.005 2.037 1153
0.558 8.603 1.952 1004
0.576 8.887 1.985 1962
0.621 9.567 2.127 1220
0.621 9.573 2.099 1454
0.577 8.892 1.959 1361
0.622 9.586 2.073 1298
0.627 9.662 2.059 1282
0.636 9.809 2.088 1035
0.634 9.776 2.052 1286
0.623 9.605 2.019 1207
0.661 10.198 2.074 1092
0.567 8.739 1.796 1084
0.558 8.596 1.742 1692
0.568 8.752 1.772 1217
0.660 10.180 2.040 1088
0.558 8.601 1.717 2638
0.704 10.846 2.132 1133
0.568 8.756 1.746 1064
0.558 8.605 1.692 3201
0.703 10.844 2.099 1140
0.568 8.753 1.719 1031
0.558 8.610 1.667 2981
0.568 8.758 1.694 1236
0.703 10.834 2.065 1010
0.559 8.614 1.642 2223
0.577 8.902 1.693 1254
0.578 8.907 1.667 1537
0.559 8.619 1.617 1397
0.578 8.911 1.641 1509
0.800 12.331 2.221 1122
0.578 8.916 1.615 1195
0.155 2.312 1.807 3553
0.155 2.317 1.800 7107
0.163 2.438 1.889 3023
0.162 2.418 1.863 8497
0.154 2.297 1.775 5566
0.162 2.423 1.856 8386
0.154 2.301 1.768 5737
0.161 2.409 1.835 8776
0.153 2.287 1.748 2551
0.157 2.343 1.778 8854
0.165 2.465 1.865 5838
0.157 2.348 1.771 9037
0.165 2.470 1.858 6023
0.157 2.352 1.765 9037
0.168 2.507 1.874 6431
0.163 2.441 1.817 7537
0.155 2.318 1.731 3526
0.171 2.564 1.903 2069
0.164 2.446 1.810 8768
0.155 2.323 1.724 2457
0.172 2.569 1.896 1912
0.164 2.451 1.803 8938
0.172 2.574 1.888 2191
0.156 2.328 1.717 1624
0.164 2.449 1.791 9317
0.172 2.573 1.877 3119
0.165 2.461 1.789 7796
0.173 2.585 1.874 3515
0.165 2.472 1.786 6594
0.174 2.603 1.875 4814
0.166 2.483 1.784 6249
0.174 2.608 1.868 4814
0.172 2.567 1.829 7324
0.172 2.565 1.818 8746
0.180 2.690 1.901 1325
0.171 2.563 1.806 8206
0.180 2.689 1.889 1492
0.171 2.562 1.794 7768
0.180 2.694 1.881 1561
0.172 2.573 1.791 6129
0.180 2.699 1.874 2976
0.178 2.657 1.836 6971
0.186 2.783 1.918 1710
0.169 2.532 1.754 1284
0.178 2.662 1.828 8248
0.186 2.788 1.910 1636
0.170 2.536 1.746 1151
0.178 2.667 1.820 9525
0.187 2.793 1.902 1562
0.170 2.541 1.739 1019
0.179 2.679 1.817 8514
0.188 2.805 1.898 1229
0.180 2.697 1.818 8046
0.192 2.864 1.924 1788
0.181 2.702 1.810 8316
0.192 2.876 1.920 2562
0.181 2.707 1.802 8586
0.193 2.888 1.916 3367
0.181 2.712 1.794 6695
0.191 2.859 1.886 3500
0.182 2.716 1.787 4804
0.191 2.857 1.874 4174
0.200 2.985 1.953 1022
0.183 2.735 1.787 4368
0.191 2.863 1.866 3630
0.200 2.990 1.944 1133
0.185 2.760 1.792 4653
0.195 2.908 1.882 2911
0.194 2.906 1.870 4884
0.185 2.771 1.788 4362
0.203 3.035 1.948 1354
0.194 2.905 1.857 7037
0.186 2.776 1.780 4159
0.203 3.033 1.935 2446
0.195 2.916 1.853 8029
0.186 2.788 1.776 3477
0.204 3.045 1.930 2450
0.195 2.921 1.845 9112
0.204 3.050 1.921 2873
0.187 2.792 1.768 2751
0.196 2.933 1.840 6589
0.205 3.062 1.917 2199
0.188 2.804 1.764 2028
0.197 2.952 1.840 4630
0.207 3.095 1.924 1849
0.189 2.822 1.764 1320
0.198 2.963 1.835 4809
0.207 3.093 1.911 2452
0.190 2.834 1.760 1396
0.205 3.064 1.882 4799
0.196 2.934 1.807 1861
0.205 3.069 1.873 5483
0.197 2.939 1.799 1419
0.206 3.081 1.869 5488
0.197 2.951 1.794 1163
0.207 3.093 1.864 5514
0.217 3.251 1.953 1230
0.207 3.098 1.855 4202
0.216 3.229 1.928 2097
0.216 3.227 1.915 3044
0.207 3.096 1.842 2768
0.216 3.232 1.906 4641
0.207 3.101 1.833 2480
0.217 3.237 1.897 6564
0.208 3.106 1.824 2457
0.217 3.243 1.887 6890
0.208 3.111 1.815 2742
0.222 3.317 1.916 6188
0.213 3.185 1.844 2675
0.223 3.329 1.910 7058
0.214 3.197 1.839 3778
0.223 3.334 1.900 6583
0.214 3.202 1.829 3531
0.221 3.298 1.868 6808
0.229 3.430 1.939 2247
0.212 3.165 1.798 1149
0.221 3.303 1.859 7837
0.230 3.435 1.929 2955
0.222 3.322 1.857 8187
0.231 3.454 1.927 2271
0.224 3.348 1.858 7033
0.233 3.481 1.928 1712
0.228 3.409 1.878 6612
0.219 3.275 1.809 1189
0.238 3.556 1.954 1099
0.228 3.414 1.868 9242
0.237 3.547 1.937 2523
0.219 3.280 1.799 1046
0.228 3.412 1.854 9542
0.237 3.545 1.923 4959
0.227 3.389 1.830 7790
0.237 3.544 1.909 5895
0.229 3.429 1.838 6908
0.238 3.563 1.906 4532
0.230 3.441 1.832 7954
0.239 3.575 1.899 4904
0.231 3.453 1.826 8699
0.240 3.587 1.892 6516
0.249 3.722 1.959 1265
0.239 3.578 1.875 9156
0.230 3.443 1.809 6478
0.248 3.713 1.941 1926
0.240 3.583 1.865 10775
0.231 3.448 1.799 4749
0.249 3.718 1.931 2575
0.240 3.588 1.854 10127
0.249 3.723 1.920 2791
0.231 3.453 1.789 2753
0.240 3.593 1.844 10698
0.249 3.728 1.909 2929
0.231 3.458 1.779 2486
0.241 3.605 1.837 9434
0.250 3.741 1.902 3220
0.232 3.470 1.772 2087
0.247 3.696 1.867 7267
0.238 3.560 1.803 2338
0.247 3.694 1.853 6286
0.256 3.830 1.917 1379
0.247 3.699 1.843 6359
0.256 3.835 1.906 1455
0.248 3.704 1.832 6438
0.257 3.840 1.895 2155
0.249 3.730 1.831 7879
0.259 3.866 1.894 1845
0.251 3.757 1.830 9153
0.260 3.893 1.892 3918
0.252 3.769 1.823 7308
0.261 3.905 1.885 5109
0.259 3.874 1.857 8068
0.250 3.738 1.795 4060
0.259 3.872 1.843 8071
0.250 3.735 1.781 2557
0.259 3.877 1.831 6580
0.269 4.014 1.892 1981
0.250 3.740 1.771 1022
0.260 3.889 1.823 4865
0.269 4.027 1.884 3866
0.271 4.046 1.878 5274
0.261 3.909 1.819 3624
0.269 4.015 1.851 6714
0.259 3.877 1.792 1526
0.278 4.153 1.911 1174
0.268 4.013 1.836 9257
0.278 4.151 1.896 1886
0.259 3.875 1.777 1142
0.269 4.025 1.828 10742
0.278 4.163 1.887 1613
0.260 3.887 1.769 1404
0.271 4.045 1.822 9540
0.261 3.906 1.764 1755
0.280 4.183 1.881 1201
0.273 4.086 1.826 7253
0.264 3.947 1.768 3147
0.283 4.232 1.887 1233
0.278 4.149 1.838 7775
0.267 3.989 1.772 2887
0.287 4.288 1.896 1676
0.279 4.169 1.832 7313
0.288 4.308 1.890 2596
0.267 3.993 1.760 1073
0.287 4.291 1.868 4545
0.278 4.152 1.811 3544
0.288 4.303 1.859 4833
0.277 4.142 1.793 1961
0.290 4.330 1.855 3614
0.277 4.139 1.779 1249
0.292 4.364 1.854 4118
0.283 4.225 1.799 1118
0.292 4.369 1.842 4277
0.293 4.382 1.832 5507
0.302 4.521 1.886 1501
0.284 4.242 1.777 1439
0.293 4.387 1.819 7089
0.303 4.526 1.873 2358
0.284 4.247 1.765 1569
0.293 4.384 1.804 5512
0.303 4.524 1.857 2749
0.284 4.244 1.750 1058
0.300 4.485 1.828 5916
0.291 4.345 1.774 3215
0.309 4.625 1.881 2465
0.301 4.497 1.817 4582
0.310 4.638 1.870 2872
0.291 4.357 1.764 2311
0.308 4.606 1.843 4579
0.295 4.406 1.768 2009
0.320 4.783 1.910 1282
0.307 4.596 1.824 5921
0.296 4.425 1.761 1603
0.320 4.788 1.896 1494
0.308 4.601 1.811 5169
0.322 4.808 1.887 1865
0.297 4.445 1.754 1536
0.308 4.598 1.795 4296
0.317 4.739 1.846 2089
0.298 4.457 1.744 1107
0.315 4.714 1.822 4864
0.306 4.573 1.771 2710
0.325 4.856 1.873 2057
0.316 4.727 1.811 5702
0.326 4.868 1.861 2989
0.305 4.563 1.752 2070
0.319 4.769 1.810 4242
0.329 4.918 1.863 2746
0.309 4.627 1.760 1520
0.322 4.818 1.812 4415
0.332 4.960 1.862 1719
0.313 4.677 1.763 1413
0.322 4.816 1.796 5476
0.332 4.957 1.845 2796
0.342 5.114 1.900 1234
0.336 5.022 1.851 3565
0.322 4.820 1.782 3405
0.345 5.164 1.900 2000
0.338 5.050 1.844 4507
0.348 5.199 1.895 2209
0.328 4.907 1.796 2125
0.339 5.062 1.832 4794
0.329 4.920 1.784 3015
0.353 5.272 1.903 2750
0.336 5.022 1.803 4631
0.354 5.299 1.895 3105
0.326 4.880 1.755 1062
0.337 5.034 1.791 4300
0.356 5.327 1.888 3048
0.346 5.177 1.838 1919
0.351 5.249 1.845 3226
0.338 5.047 1.778 3168
0.361 5.392 1.892 2077
0.350 5.232 1.822 4050
0.360 5.389 1.874 2746
0.339 5.074 1.771 1404
0.366 5.470 1.882 3452
0.350 5.237 1.807 2949
0.367 5.490 1.871 4347
0.358 5.347 1.826 3580
0.348 5.204 1.780 1113
0.377 5.633 1.917 1108
0.368 5.495 1.855 4156
0.358 5.352 1.810 3356
0.377 5.638 1.900 1814
0.364 5.447 1.823 3105
0.376 5.620 1.877 2156
0.366 5.475 1.814 1849
0.387 5.792 1.912 1655
0.376 5.618 1.858 1650
0.397 5.935 1.956 1078
0.387 5.789 1.893 2822
0.367 5.494 1.803 2031
0.377 5.638 1.847 1432
0.397 5.933 1.937 1395
0.385 5.749 1.862 2904
0.375 5.605 1.819 1628
0.394 5.893 1.906 1426
0.386 5.769 1.850 2041
0.376 5.625 1.807 1922
0.397 5.943 1.902 1786
0.400 5.978 1.894 3298
0.388 5.804 1.843 2392
0.411 6.145 1.943 1892
0.375 5.607 1.784 1318
0.401 5.991 1.879 4008
0.411 6.150 1.926 3313
0.389 5.817 1.828 1967
0.412 6.156 1.908 5213
0.402 6.011 1.866 3114
0.390 5.837 1.815 1799
0.421 6.300 1.950 1474
0.412 6.161 1.890 4659
0.422 6.305 1.931 2237
0.402 6.016 1.849 2230
0.435 6.502 1.988 1796
0.412 6.166 1.872 3015
0.435 6.508 1.969 2701
0.422 6.310 1.913 2404
0.403 6.021 1.831 2087
0.435 6.505 1.948 3288
0.424 6.346 1.903 1915
0.413 6.178 1.856 1893
0.404 6.034 1.816 1623
0.441 6.587 1.950 4018
0.451 6.739 1.992 2154
0.426 6.366 1.889 1822
0.416 6.221 1.849 1330
0.443 6.623 1.939 5772
0.433 6.478 1.900 2247
0.461 6.897 2.015 1664
0.422 6.303 1.852 1460
0.443 6.628 1.920 6479
0.459 6.864 1.984 3592
0.434 6.483 1.881 1511
0.422 6.308 1.833 1363
0.444 6.641 1.903 6883
0.460 6.885 1.968 3890
0.480 7.175 2.046 1209
0.444 6.646 1.884 5580
0.462 6.905 1.952 2433
0.481 7.196 2.029 2384
0.482 7.201 2.008 2817
0.442 6.613 1.854 2762
0.455 6.796 1.902 2581
0.469 7.010 1.958 1936
0.484 7.237 1.995 2544
0.455 6.809 1.885 2208
0.503 7.520 2.068 2108
0.469 7.015 1.938 2057
0.502 7.510 2.043 2159
0.486 7.265 1.980 2010
0.469 7.013 1.916 1533
0.512 7.656 2.080 1217
0.512 7.661 2.057 1858
0.503 7.516 2.021 1625
0.487 7.286 1.963 1223
0.468 6.995 1.889 1037
0.519 7.759 2.058 2208
0.508 7.590 2.016 1756
0.478 7.153 1.907 1439
0.540 8.073 2.136 1219
0.508 7.596 1.994 2419
0.519 7.765 2.035 2287
0.540 8.071 2.111 2097
0.478 7.151 1.885 1221
0.515 7.701 1.996 1764
0.542 8.108 2.095 1751
0.479 7.156 1.864 1211
0.525 7.847 2.032 1172
0.544 8.129 2.075 2946
0.522 7.806 1.998 2098
0.479 7.169 1.845 1213
0.545 8.142 2.053 2432
0.523 7.819 1.977 1841
0.554 8.288 2.088 1158
0.552 8.248 2.053 1787
0.542 8.102 2.019 1313
0.560 8.369 2.055 1307
0.543 8.115 1.997 1271
0.570 8.515 2.089 1012
0.585 8.744 2.115 1591
0.568 8.498 2.059 1389
0.559 8.351 2.026 1109
0.586 8.765 2.093 2158
0.572 8.549 2.045 1508
0.587 8.779 2.069 1812
0.597 8.925 2.102 1278
0.572 8.555 2.020 1258
0.588 8.792 2.046 1251
0.569 8.506 1.983 1227
0.598 8.938 2.078 1117
0.608 9.085 2.110 1106
0.593 8.859 2.033 1637
0.622 9.307 2.130 1058
0.570 8.519 1.960 1009
0.592 8.857 2.006 1700
0.602 9.004 2.037 1313
0.622 9.305 2.101 1119
0.594 8.878 1.983 1808
0.640 9.574 2.129 1305
0.604 9.025 2.014 1268
0.631 9.427 2.098 1117
0.641 9.579 2.101 1511
0.594 8.875 1.956 1263
0.604 9.038 1.989 1106
0.617 9.231 2.029 1041
0.641 9.577 2.071 1192
0.620 9.275 2.010 1099
0.654 9.784 2.084 1306
0.645 9.637 2.054 1028
0.654 9.774 2.052 1246
0.585 8.746 1.797 1034
0.575 8.595 1.742 1361
0.585 8.750 1.772 1141
0.575 8.600 1.717 2159
0.725 10.845 2.132 1174
0.586 8.755 1.746 1024
0.575 8.604 1.692 2612
0.725 10.843 2.099 1166
0.585 8.752 1.719 1022
0.576 8.609 1.667 2412
0.586 8.757 1.694 1174
0.725 10.841 2.066 1060
0.576 8.613 1.642 1793
0.596 8.906 1.667 1210
0.576 8.618 1.617 1115
0.596 8.910 1.641 1192
0.825 12.337 2.222 1131
0.161 2.312 1.807 3232
0.161 2.317 1.800 6464
0.170 2.438 1.889 2940
0.169 2.424 1.868 8142
0.160 2.303 1.779 5467
0.168 2.423 1.856 8000
0.160 2.301 1.768 5463
0.167 2.402 1.831 8470
0.159 2.280 1.743 2039
0.176 2.524 1.919 1178
0.163 2.343 1.778 8599
0.171 2.465 1.865 5773
0.163 2.347 1.771 9115
0.173 2.483 1.867 6165
0.164 2.352 1.765 9115
0.174 2.507 1.874 6569
0.169 2.434 1.812 7247
0.161 2.311 1.726 2857
0.178 2.557 1.899 2749
0.170 2.446 1.810 8616
0.162 2.323 1.724 2546
0.179 2.569 1.896 2097
0.170 2.451 1.803 8815
0.179 2.574 1.888 2442
0.162 2.327 1.717 1647
0.170 2.449 1.791 9281
0.179 2.572 1.877 3431
0.171 2.460 1.789 7693
0.180 2.584 1.874 3753
0.172 2.472 1.786 6504
0.181 2.602 1.875 4958
0.173 2.483 1.784 6182
0.181 2.607 1.868 4958
0.178 2.566 1.829 7325
0.178 2.565 1.818 8990
0.187 2.689 1.901 1198
0.178 2.563 1.806 8500
0.187 2.688 1.889 1325
0.178 2.561 1.794 8076
0.187 2.693 1.881 1362
0.179 2.573 1.791 6476
0.188 2.698 1.874 2783
0.185 2.657 1.836 6551
0.194 2.783 1.918 1650
0.176 2.531 1.754 1473
0.185 2.662 1.828 7831
0.194 2.788 1.910 1589
0.176 2.536 1.746 1297
0.185 2.667 1.820 9111
0.194 2.793 1.902 1529
0.177 2.540 1.739 1121
0.186 2.678 1.817 8516
0.195 2.805 1.898 1160
0.188 2.696 1.818 8540
0.199 2.863 1.924 1782
0.188 2.701 1.810 8768
0.200 2.875 1.920 2576
0.188 2.706 1.802 8996
0.200 2.880 1.911 3387
0.189 2.711 1.794 6981
0.199 2.859 1.886 3500
0.189 2.716 1.787 4966
0.199 2.857 1.874 4026
0.190 2.727 1.783 4335
0.199 2.862 1.866 3449
0.208 2.990 1.944 1089
0.191 2.752 1.788 4337
0.203 2.914 1.886 3069
0.202 2.906 1.870 4550
0.193 2.771 1.788 4213
0.211 3.034 1.948 1475
0.202 2.897 1.853 6296
0.193 2.769 1.776 4040
0.210 3.026 1.931 3051
0.202 2.909 1.849 7424
0.193 2.780 1.772 3539
0.211 3.038 1.926 3177
0.203 2.921 1.845 8638
0.212 3.050 1.921 3075
0.194 2.792 1.768 3059
0.204 2.939 1.844 6382
0.195 2.810 1.768 2303
0.213 3.069 1.921 1866
0.207 2.978 1.856 4798
0.197 2.835 1.772 1593
0.216 3.108 1.932 1393
0.207 2.970 1.839 5199
0.216 3.099 1.915 2111
0.198 2.840 1.764 1735
0.213 3.064 1.882 4732
0.204 2.934 1.807 1927
0.213 3.069 1.873 5670
0.204 2.938 1.799 1396
0.214 3.081 1.869 5728
0.205 2.950 1.794 1156
0.215 3.092 1.864 5966
0.226 3.251 1.953 1230
0.215 3.097 1.855 4606
0.225 3.228 1.928 2035
0.216 3.109 1.850 3324
0.225 3.240 1.923 2709
0.225 3.232 1.906 4617
0.216 3.100 1.833 2592
0.225 3.237 1.897 6748
0.216 3.105 1.824 2283
0.225 3.242 1.887 7190
0.216 3.110 1.815 2458
0.231 3.316 1.916 6055
0.221 3.185 1.844 2485
0.232 3.329 1.910 6927
0.222 3.196 1.839 3493
0.232 3.334 1.900 6709
0.223 3.201 1.829 3194
0.229 3.297 1.868 7023
0.239 3.429 1.939 2404
0.220 3.164 1.798 1053
0.230 3.302 1.859 7950
0.239 3.435 1.929 3176
0.231 3.321 1.857 8271
0.240 3.454 1.927 2429
0.233 3.347 1.858 7114
0.242 3.480 1.928 1804
0.237 3.408 1.878 7036
0.228 3.275 1.809 1361
0.246 3.541 1.947 1151
0.237 3.413 1.868 9748
0.247 3.547 1.937 2476
0.238 3.418 1.858 9835
0.247 3.552 1.926 4467
0.239 3.430 1.852 7244
0.248 3.564 1.920 4612
0.238 3.428 1.838 6608
0.248 3.562 1.906 4181
0.239 3.440 1.832 7218
0.249 3.574 1.899 4202
0.241 3.459 1.829 8464
0.250 3.594 1.896 5159
0.259 3.728 1.962 1165
0.249 3.577 1.875 8431
0.239 3.443 1.809 6531
0.258 3.712 1.941 1869
0.249 3.583 1.865 10685
0.240 3.448 1.799 4958
0.259 3.717 1.931 2602
0.250 3.588 1.854 9803
0.259 3.723 1.920 2872
0.240 3.452 1.789 2810
0.249 3.585 1.840 9726
0.259 3.721 1.906 3425
0.240 3.450 1.775 1709
0.251 3.612 1.840 8597
0.261 3.747 1.905 2894
0.242 3.476 1.776 2413
0.257 3.688 1.864 7064
0.247 3.552 1.799 2393
0.266 3.824 1.928 1083
0.257 3.693 1.853 5733
0.266 3.829 1.917 1348
0.257 3.691 1.839 5836
0.266 3.827 1.903 2067
0.258 3.703 1.832 5861
0.267 3.839 1.895 2398
0.260 3.737 1.834 7583
0.269 3.873 1.897 1904
0.217 3.119 1.550 1116
0.261 3.756 1.830 9481
0.271 3.892 1.892 3919
0.262 3.768 1.823 7976
0.272 3.905 1.885 5061
0.269 3.874 1.857 7934
0.260 3.737 1.795 4234
0.269 3.872 1.843 8240
0.260 3.734 1.781 2512
0.270 3.876 1.831 6772
0.279 4.014 1.892 2061
0.270 3.881 1.820 4823
0.280 4.019 1.881 4300
0.281 4.038 1.875 5719
0.271 3.901 1.815 3410
0.279 4.014 1.851 6738
0.270 3.877 1.792 1577
0.289 4.152 1.911 1105
0.279 4.012 1.836 8783
0.289 4.150 1.896 1776
0.269 3.874 1.777 1091
0.280 4.024 1.828 10218
0.290 4.162 1.887 1636
0.270 3.886 1.769 1372
0.282 4.051 1.825 9597
0.272 3.913 1.767 2187
0.291 4.189 1.884 1230
0.284 4.085 1.826 7639
0.274 3.947 1.768 3227
0.294 4.224 1.884 1322
0.289 4.148 1.838 7288
0.277 3.988 1.772 3018
0.298 4.287 1.896 2049
0.290 4.168 1.832 6939
0.300 4.307 1.890 3144
0.278 4.000 1.763 1229
0.298 4.290 1.868 5291
0.289 4.151 1.811 3751
0.299 4.302 1.859 5260
0.288 4.141 1.793 2081
0.301 4.322 1.852 3948
0.288 4.139 1.779 1362
0.303 4.364 1.854 4123
0.293 4.217 1.796 1386
0.304 4.369 1.842 4320
0.294 4.229 1.787 1190
0.305 4.381 1.832 5529
0.295 4.241 1.777 1686
0.314 4.521 1.886 1452
0.305 4.386 1.819 7027
0.315 4.526 1.873 2203
0.295 4.246 1.765 1771
0.304 4.376 1.801 5666
0.314 4.516 1.855 2862
0.312 4.484 1.828 5333
0.302 4.344 1.774 3275
0.322 4.624 1.881 2407
0.313 4.496 1.817 4154
0.322 4.637 1.870 3141
0.303 4.356 1.764 2228
0.320 4.605 1.843 4802
0.306 4.398 1.766 1792
0.332 4.775 1.907 1554
0.320 4.602 1.827 5813
0.330 4.743 1.879 1875
0.308 4.425 1.761 1403
0.319 4.592 1.808 4938
0.329 4.733 1.860 2915
0.309 4.444 1.754 1499
0.319 4.590 1.792 4301
0.329 4.731 1.844 3397
0.309 4.449 1.741 1031
0.328 4.713 1.822 5589
0.318 4.572 1.771 3129
0.338 4.855 1.873 1898
0.329 4.726 1.811 6218
0.339 4.867 1.861 2686
0.318 4.577 1.758 2320
0.330 4.746 1.803 4541
0.343 4.932 1.868 2587
0.318 4.574 1.742 1258
0.334 4.803 1.807 4919
0.344 4.944 1.857 1906
0.324 4.661 1.757 1304
0.335 4.815 1.796 5856
0.345 4.957 1.845 2644
0.356 5.113 1.900 1491
0.349 5.021 1.851 3405
0.335 4.820 1.782 3405
0.359 5.163 1.900 2110
0.351 5.049 1.844 4258
0.362 5.198 1.895 2258
0.339 4.869 1.783 1975
0.352 5.061 1.832 4209
0.366 5.263 1.901 2904
0.342 4.919 1.784 2553
0.349 5.014 1.800 4486
0.368 5.291 1.893 3107
0.350 5.033 1.791 4239
0.370 5.326 1.888 3005
0.360 5.176 1.838 2389
0.366 5.263 1.850 3057
0.351 5.046 1.778 2956
0.376 5.406 1.897 1677
0.364 5.231 1.822 3423
0.374 5.373 1.869 2790
0.354 5.088 1.776 1471
0.387 5.569 1.932 1182
0.381 5.476 1.885 3289
0.364 5.228 1.805 2498
0.382 5.489 1.871 4420
0.372 5.346 1.826 3572
0.362 5.203 1.780 1070
0.382 5.494 1.855 4198
0.372 5.351 1.810 3099
0.392 5.637 1.900 1706
0.378 5.431 1.818 2783
0.390 5.612 1.875 2200
0.386 5.549 1.837 1805
0.410 5.889 1.942 1751
0.375 5.398 1.791 1686
0.400 5.745 1.898 1084
0.402 5.781 1.891 3101
0.383 5.501 1.805 2098
0.412 5.924 1.935 1642
0.400 5.755 1.865 2810
0.390 5.612 1.821 1806
0.410 5.899 1.908 1498
0.402 5.776 1.853 2175
0.391 5.624 1.807 2047
0.413 5.934 1.900 1759
0.416 5.977 1.894 3146
0.404 5.803 1.843 2664
0.427 6.136 1.941 1887
0.390 5.614 1.786 1275
0.417 5.990 1.879 3888
0.427 6.142 1.923 3212
0.404 5.816 1.828 2114
0.428 6.154 1.908 5291
0.418 6.010 1.866 3132
0.406 5.836 1.815 1684
0.438 6.299 1.950 1387
0.428 6.160 1.890 4821
0.452 6.494 1.986 2521
0.418 6.015 1.849 2270
0.438 6.304 1.931 2101
0.452 6.499 1.967 3684
0.429 6.165 1.872 3195
0.439 6.309 1.913 2099
0.419 6.020 1.831 1902
0.452 6.497 1.946 4627
0.430 6.185 1.858 2135
0.442 6.352 1.905 1713
0.470 6.763 2.020 1597
0.452 6.502 1.927 4956
0.462 6.647 1.967 2496
0.472 6.791 2.007 1848
0.442 6.357 1.887 1628
0.461 6.629 1.941 5071
0.451 6.484 1.902 3607
0.473 6.797 1.987 1941
0.434 6.233 1.833 1722
0.461 6.634 1.922 5642
0.474 6.810 1.970 3454
0.451 6.489 1.883 2601
0.439 6.306 1.833 1378
0.462 6.639 1.903 6058
0.479 6.891 1.970 3525
0.452 6.494 1.864 1478
0.501 7.204 2.054 1340
0.462 6.645 1.884 4993
0.500 7.194 2.029 2599
0.480 6.904 1.952 2354
0.452 6.499 1.845 1057
0.500 7.192 2.006 2885
0.473 6.795 1.902 2779
0.460 6.619 1.856 2446
0.487 7.009 1.958 1941
0.501 7.198 1.985 2386
0.473 6.808 1.885 2332
0.523 7.519 2.068 2252
0.488 7.014 1.938 1828
0.522 7.509 2.043 2210
0.499 7.172 1.957 2004
0.509 7.318 1.994 1444
0.488 7.012 1.916 1356
0.499 7.170 1.934 1739
0.523 7.515 2.021 1674
0.533 7.660 2.057 1600
0.509 7.315 1.971 1195
0.540 7.758 2.058 2272
0.527 7.581 2.014 1764
0.499 7.167 1.911 1444
0.561 8.064 2.134 1270
0.535 7.694 2.019 2498
0.561 8.070 2.111 2231
0.498 7.157 1.886 1213
0.525 7.548 1.983 1187
0.536 7.700 1.996 1986
0.564 8.106 2.095 1656
0.548 7.876 2.039 1159
0.565 8.127 2.075 2913
0.543 7.812 2.000 1686
0.567 8.148 2.055 2607
0.544 7.818 1.977 1796
0.577 8.294 2.090 1114
0.574 8.246 2.053 1993
0.563 8.100 2.019 1528
0.544 7.815 1.952 1114
0.584 8.392 2.087 1056
0.564 8.105 1.995 1403
0.582 8.375 2.057 1362
0.609 8.750 2.117 1515
0.591 8.504 2.061 1353
0.610 8.764 2.093 2267
0.595 8.548 2.045 1459
0.610 8.777 2.069 1950
0.595 8.553 2.020 1315
0.621 8.923 2.102 1201
0.611 8.790 2.046 1323
0.592 8.512 1.985 1146
0.632 9.083 2.110 1070
0.617 8.865 2.035 1729
0.647 9.305 2.130 1134
0.616 8.855 2.006 1647
0.626 9.002 2.037 1406
0.647 9.303 2.101 1224
0.617 8.876 1.983 1661
0.628 9.031 2.016 1478
0.655 9.417 2.096 1444
0.666 9.572 2.129 1305
0.666 9.578 2.101 1510
0.629 9.044 1.991 1321
0.642 9.230 2.029 1145
0.617 8.866 1.954 1138
0.644 9.266 2.009 1307
0.665 9.568 2.070 1088
0.680 9.783 2.084 1362
0.680 9.780 2.054 1202
0.762 10.961 2.187 1065
0.598 8.594 1.742 1015
0.598 8.598 1.717 1644
0.754 10.843 2.132 1216
0.598 8.603 1.692 2003
0.754 10.841 2.099 1151
0.723 10.390 2.017 1032
0.599 8.607 1.667 1849
0.754 10.847 2.067 1061
0.609 8.755 1.694 1044
0.599 8.612 1.642 1379
0.759 10.907 2.045 1161
0.858 12.335 2.222 1106
0.886 12.740 2.291 1091
0.885 12.730 2.251 1066
0.841 12.091 2.145 1013
0.167 2.312 1.807 2894
0.167 2.316 1.800 5789
0.176 2.438 1.889 2690
0.175 2.423 1.868 7322
0.166 2.302 1.779 4887
0.175 2.422 1.856 7160
0.166 2.301 1.768 5289
0.173 2.395 1.826 8268
0.182 2.517 1.914 1801
0.164 2.273 1.738 1639
0.168 2.336 1.773 8240
0.179 2.477 1.875 6032
0.169 2.347 1.771 9111
0.180 2.495 1.877 7373
0.170 2.352 1.765 9111
0.181 2.506 1.874 7964
0.181 2.511 1.867 7370
0.170 2.356 1.758 6756
0.176 2.445 1.810 8165
0.167 2.322 1.724 2611
0.185 2.568 1.896 2577
0.176 2.444 1.798 8516
0.185 2.567 1.884 3776
0.167 2.320 1.713 1299
0.177 2.448 1.791 9082
0.186 2.572 1.877 4024
0.177 2.453 1.784 7414
0.186 2.577 1.869 4569
0.184 2.556 1.844 6367
0.175 2.432 1.760 2981
0.185 2.561 1.837 6367
0.176 2.437 1.753 2072
0.185 2.566 1.829 8055
0.185 2.571 1.822 9694
0.185 2.562 1.806 8917
0.194 2.688 1.889 1228
0.185 2.567 1.799 8237
0.196 2.712 1.894 1428
0.186 2.572 1.791 6575
0.195 2.698 1.874 2710
0.192 2.663 1.840 6386
0.183 2.537 1.758 1926
0.201 2.789 1.922 1269
0.192 2.661 1.828 7586
0.201 2.787 1.910 1513
0.183 2.535 1.746 1233
0.192 2.666 1.820 8799
0.201 2.792 1.902 1485
0.183 2.540 1.739 1018
0.193 2.678 1.817 8655
0.202 2.804 1.898 1122
0.194 2.696 1.818 9267
0.206 2.863 1.924 1718
0.195 2.701 1.810 9409
0.207 2.875 1.920 2496
0.195 2.706 1.802 9551
0.208 2.880 1.911 3285
0.196 2.711 1.794 7480
0.206 2.858 1.886 3441
0.196 2.715 1.787 5408
0.207 2.863 1.878 3888
0.197 2.727 1.783 4501
0.206 2.861 1.866 3227
0.216 2.989 1.944 1038
0.198 2.752 1.788 4171
0.210 2.914 1.886 3353
0.200 2.770 1.788 4208
0.210 2.912 1.874 4169
0.219 3.040 1.952 1239
0.209 2.897 1.853 5173
0.200 2.768 1.776 4245
0.218 3.025 1.931 3045
0.210 2.915 1.853 6424
0.201 2.786 1.776 4089
0.220 3.044 1.930 2716
0.211 2.920 1.845 7711
0.201 2.791 1.768 3536
0.220 3.049 1.921 3109
0.212 2.939 1.844 5912
0.203 2.810 1.768 2631
0.221 3.068 1.921 1841
0.215 2.985 1.860 5336
0.206 2.855 1.784 1914
0.225 3.114 1.936 1134
0.215 2.983 1.847 5825
0.206 2.853 1.772 2089
0.225 3.113 1.923 1676
0.215 2.981 1.835 5229
0.224 3.111 1.910 2876
0.206 2.851 1.760 1551
0.221 3.061 1.870 5806
0.211 2.931 1.795 1155
0.222 3.080 1.869 5917
0.213 2.950 1.794 1201
0.223 3.092 1.864 6445
0.234 3.250 1.953 1132
0.224 3.104 1.859 5042
0.233 3.235 1.932 1749
0.225 3.116 1.854 3805
0.234 3.247 1.927 2233
0.233 3.231 1.906 4412
0.224 3.100 1.833 2612
0.233 3.236 1.897 6718
0.224 3.105 1.824 1967
0.234 3.241 1.887 7310
0.224 3.110 1.815 1997
0.234 3.239 1.874 6107
0.243 3.371 1.946 1725
0.224 3.108 1.802 1673
0.240 3.328 1.910 6525
0.231 3.196 1.839 3182
0.240 3.333 1.900 6646
0.231 3.201 1.829 2860
0.238 3.296 1.868 7048
0.247 3.429 1.939 2476
0.238 3.301 1.859 7764
0.248 3.434 1.929 3305
0.239 3.313 1.853 7937
0.249 3.446 1.923 3029
0.241 3.346 1.858 6841
0.251 3.479 1.928 1942
0.246 3.414 1.881 7304
0.237 3.281 1.812 1763
0.256 3.548 1.950 1135
0.247 3.420 1.871 9855
0.256 3.553 1.940 2073
0.237 3.286 1.803 1242
0.248 3.432 1.865 9786
0.257 3.565 1.933 2997
0.249 3.458 1.866 7555
0.259 3.592 1.934 1849
0.240 3.324 1.798 1812
0.248 3.435 1.842 6641
0.257 3.569 1.909 3199
0.248 3.439 1.832 6937
0.258 3.574 1.899 3230
0.249 3.459 1.829 7457
0.259 3.593 1.896 3649
0.269 3.727 1.962 1076
0.258 3.577 1.875 7550
0.248 3.442 1.809 5790
0.268 3.711 1.941 1797
0.258 3.582 1.865 10950
0.249 3.447 1.799 4420
0.268 3.717 1.931 2617
0.259 3.594 1.858 9660
0.249 3.459 1.792 3339
0.269 3.729 1.923 2550
0.258 3.578 1.837 8455
0.268 3.713 1.902 4832
0.248 3.442 1.772 1789
0.265 3.668 1.868 8536
0.255 3.533 1.803 4792
0.229 3.169 1.629 1091
0.266 3.687 1.864 7424
0.256 3.552 1.799 2280
0.229 3.174 1.620 1097
0.266 3.692 1.853 5254
0.276 3.828 1.917 1363
0.229 3.171 1.607 1036
0.266 3.690 1.839 5303
0.276 3.826 1.903 2188
0.267 3.702 1.832 5121
0.277 3.838 1.895 2551
0.269 3.736 1.834 7199
0.279 3.872 1.897 1945
0.226 3.133 1.557 1086
0.271 3.755 1.830 9685
0.281 3.892 1.892 3666
0.272 3.767 1.823 8640
0.282 3.904 1.885 4820
0.273 3.779 1.815 7258
0.282 3.916 1.876 4024
0.279 3.871 1.843 7793
0.269 3.734 1.781 2449
0.280 3.876 1.831 6698
0.289 4.013 1.892 2094
0.280 3.881 1.820 4700
0.290 4.018 1.881 4529
0.291 4.038 1.875 6035
0.281 3.900 1.815 3393
0.290 4.014 1.851 6304
0.280 3.876 1.792 1700
0.299 4.151 1.911 1139
0.289 4.004 1.833 7816
0.299 4.142 1.892 2021
0.279 3.866 1.774 1013
0.290 4.024 1.828 9199
0.300 4.162 1.887 1621
0.280 3.885 1.769 1422
0.292 4.050 1.825 9648
0.282 3.912 1.767 2296
0.302 4.189 1.884 1200
0.295 4.084 1.826 8170
0.285 3.946 1.768 3133
0.305 4.223 1.884 1471
0.299 4.140 1.835 6128
0.288 3.987 1.772 3072
0.309 4.279 1.893 2564
0.300 4.160 1.829 5962
0.310 4.299 1.887 4061
0.288 3.999 1.763 1435
0.309 4.282 1.865 5653
0.299 4.143 1.808 4090
0.310 4.301 1.859 5723
0.299 4.148 1.796 2578
0.311 4.314 1.849 4761
0.300 4.152 1.784 1565
0.315 4.363 1.854 4456
0.304 4.209 1.793 1836
0.315 4.368 1.842 4213
0.304 4.213 1.781 1497
0.316 4.380 1.832 4753
0.306 4.240 1.777 1702
0.326 4.520 1.886 1350
0.316 4.378 1.816 6141
0.326 4.517 1.871 2339
0.306 4.238 1.762 1636
0.315 4.360 1.795 5953
0.325 4.500 1.849 3485
0.323 4.483 1.828 5340
0.313 4.343 1.774 3342
0.333 4.623 1.881 2253
0.324 4.495 1.817 4269
0.334 4.636 1.870 3029
0.314 4.355 1.764 2288
0.332 4.604 1.843 5458
0.344 4.767 1.904 1821
0.317 4.389 1.763 1744
0.332 4.609 1.830 5853
0.343 4.750 1.882 2422
0.322 4.468 1.778 1507
0.333 4.614 1.816 4325
0.343 4.755 1.868 3627
0.323 4.473 1.765 1634
0.341 4.723 1.841 4770
0.330 4.582 1.790 3350
0.351 4.864 1.892 1149
0.340 4.713 1.822 5998
0.330 4.571 1.771 2639
0.350 4.854 1.873 1635
0.340 4.717 1.808 6042
0.356 4.941 1.888 2691
0.330 4.576 1.758 1883
0.344 4.774 1.813 4693
0.357 4.953 1.876 2766
0.334 4.633 1.763 2191
0.346 4.802 1.807 5766
0.359 4.980 1.870 2182
0.336 4.660 1.757 1373
0.347 4.814 1.796 6288
0.357 4.956 1.845 2663
0.368 5.105 1.897 1661
0.348 4.819 1.782 3439
0.362 5.020 1.851 3102
0.372 5.162 1.900 2337
0.364 5.040 1.842 3707
0.374 5.182 1.890 2430
0.348 4.831 1.770 2227
0.363 5.038 1.825 3239
0.380 5.262 1.901 2900
0.348 4.828 1.754 1887
0.362 5.013 1.800 3855
0.382 5.290 1.893 3031
0.363 5.032 1.791 3835
0.382 5.295 1.878 2947
0.381 5.277 1.855 3237
0.364 5.052 1.781 2770
0.391 5.420 1.902 1348
0.385 5.342 1.859 2845
0.375 5.200 1.813 2346
0.396 5.485 1.905 1898
0.365 5.057 1.766 1086
0.386 5.347 1.844 3236
0.396 5.490 1.890 2828
0.375 5.205 1.798 1927
0.396 5.495 1.874 4194
0.386 5.352 1.828 3644
0.376 5.209 1.783 1014
0.397 5.508 1.860 4136
0.387 5.365 1.815 3244
0.408 5.651 1.905 1212
0.389 5.400 1.809 2691
0.400 5.543 1.854 2388
0.401 5.563 1.842 2099
0.417 5.782 1.910 1909
0.389 5.397 1.791 1546
0.427 5.925 1.954 1163
0.417 5.780 1.891 3229
0.397 5.508 1.807 2159
0.427 5.923 1.935 1575
0.416 5.769 1.869 2661
0.406 5.626 1.826 2113
0.427 5.913 1.913 1295
0.395 5.482 1.782 1150
0.406 5.631 1.809 2198
0.417 5.774 1.853 2101
0.427 5.926 1.898 1744
0.431 5.976 1.894 2898
0.419 5.802 1.843 2521
0.441 6.120 1.937 2141
0.405 5.620 1.789 1235
0.432 5.989 1.879 3639
0.442 6.133 1.921 3082
0.419 5.807 1.826 2088
0.443 6.146 1.906 4894
0.433 6.002 1.864 2921
0.467 6.479 2.002 1832
0.421 5.835 1.815 1471
0.444 6.151 1.888 4572
0.468 6.485 1.984 3295
0.454 6.295 1.929 2076
0.433 6.007 1.846 2010
0.468 6.490 1.965 4688
0.446 6.179 1.876 3507
0.456 6.323 1.917 1886
0.435 6.034 1.835 1785
0.469 6.496 1.946 5947
0.447 6.191 1.861 2610
0.458 6.351 1.905 1626
0.487 6.754 2.018 1464
0.469 6.501 1.927 6319
0.479 6.645 1.967 2500
0.449 6.219 1.849 1913
0.490 6.790 2.007 1802
0.470 6.514 1.910 6381
0.480 6.658 1.950 4121
0.491 6.803 1.989 2171
0.450 6.232 1.833 2129
0.479 6.641 1.924 4860
0.469 6.496 1.885 4010
0.491 6.801 1.968 3866
0.455 6.305 1.833 1205
0.479 6.646 1.905 5060
0.490 6.798 1.946 3458
0.469 6.501 1.866 2472
0.501 6.943 1.985 1610
0.480 6.651 1.886 4485
0.518 7.185 2.027 2516
0.497 6.888 1.948 2407
0.469 6.506 1.847 2023
0.489 6.786 1.900 2834
0.519 7.191 2.006 2564
0.477 6.618 1.856 2207
0.505 7.007 1.958 1772
0.491 6.806 1.885 2324
0.542 7.510 2.066 2188
0.519 7.189 1.983 2029
0.506 7.013 1.938 1501
0.542 7.515 2.045 2047
0.524 7.263 1.980 2018
0.553 7.661 2.082 1166
0.505 7.003 1.914 1112
0.552 7.659 2.057 1606
0.526 7.299 1.967 1582
0.542 7.513 2.021 1473
0.560 7.764 2.060 2352
0.582 8.063 2.134 1344
0.547 7.580 2.014 1314
0.526 7.289 1.942 1008
0.555 7.693 2.019 2636
0.582 8.068 2.111 2222
0.569 7.884 2.066 1012
0.555 7.698 1.996 2184
0.583 8.082 2.089 1563
0.569 7.882 2.041 1253
0.587 8.134 2.077 2578
0.555 7.696 1.972 1491
0.569 7.888 2.018 1477
0.588 8.147 2.055 2515
0.563 7.809 1.975 1619
0.598 8.293 2.090 1042
0.595 8.245 2.053 1939
0.584 8.099 2.019 1720
0.564 7.814 1.952 1483
0.605 8.391 2.087 1169
0.585 8.104 1.995 1536
0.605 8.381 2.059 1379
0.632 8.756 2.119 1401
0.613 8.502 2.061 1324
0.633 8.770 2.095 2357
0.616 8.546 2.045 1340
0.633 8.775 2.069 2066
0.617 8.552 2.020 1302
0.644 8.922 2.102 1083
0.641 8.881 2.066 1434
0.618 8.573 1.998 1212
0.663 9.190 2.133 1052
0.640 8.871 2.037 1871
0.671 9.296 2.128 1143
0.654 9.064 2.078 1096
0.651 9.024 2.042 1613
0.640 8.877 2.011 1561
0.679 9.418 2.125 1291
0.669 9.271 2.094 1115
0.679 9.416 2.096 1856
0.652 9.037 2.017 1741
0.640 8.875 1.983 1474
0.690 9.570 2.129 1305
0.653 9.050 1.993 1611
0.691 9.576 2.101 1517
0.667 9.243 2.032 1243
0.680 9.429 2.071 1232
0.668 9.264 2.009 1501
0.654 9.063 1.968 1122
0.691 9.574 2.071 1023
0.706 9.781 2.084 1347
0.705 9.779 2.054 1147
0.776 10.761 2.215 1000
0.791 10.969 2.222 1078
0.791 10.967 2.188 1229
0.782 10.841 2.132 1160
0.620 8.601 1.692 1247
0.750 10.396 2.018 1131
0.782 10.839 2.099 1042
0.799 11.072 2.141 1005
0.621 8.606 1.667 1152
0.786 10.891 2.076 1068
0.787 10.905 2.045 1367
0.802 11.122 2.084 1094
0.847 11.737 2.191 1007
0.801 11.105 2.047 1018
0.918 12.730 2.289 1226
0.872 12.083 2.180 1155
0.890 12.332 2.222 1027
0.918 12.728 2.251 1239
0.872 12.089 2.145 1207
0.172 2.324 1.816 2421
0.172 2.329 1.809 4843
0.181 2.450 1.898 1503
0.179 2.423 1.868 6537
0.170 2.302 1.779 3698
0.179 2.422 1.856 6371
0.170 2.300 1.768 4882
0.177 2.395 1.826 8138
0.168 2.273 1.738 1904
0.186 2.516 1.914 1817
0.173 2.335 1.773 7695
0.183 2.477 1.875 5962
0.173 2.340 1.767 8888
0.184 2.488 1.872 7423
0.173 2.345 1.760 8888
0.185 2.500 1.869 7872
0.186 2.511 1.867 7077
0.174 2.356 1.758 6703
0.181 2.445 1.810 7635
0.190 2.568 1.896 2676
0.172 2.322 1.724 2667
0.181 2.443 1.798 8106
0.190 2.567 1.884 3827
0.172 2.320 1.713 1342
0.181 2.442 1.787 8721
0.190 2.565 1.872 4770
0.181 2.453 1.784 7059
0.191 2.577 1.869 4379
0.189 2.556 1.844 6563
0.180 2.432 1.760 2838
0.189 2.561 1.837 6563
0.180 2.436 1.753 2046
0.189 2.559 1.825 8521
0.190 2.564 1.818 10452
0.190 2.562 1.806 9894
0.199 2.687 1.889 1174
0.190 2.567 1.799 9286
0.201 2.712 1.894 1491
0.190 2.572 1.791 7408
0.200 2.697 1.874 2686
0.197 2.663 1.840 6617
0.188 2.537 1.758 2006
0.206 2.788 1.922 1115
0.197 2.661 1.828 7629
0.206 2.787 1.910 1394
0.188 2.535 1.746 1260
0.197 2.666 1.820 8666
0.207 2.792 1.902 1417
0.188 2.540 1.739 1016
0.198 2.677 1.817 8700
0.207 2.804 1.898 1180
0.199 2.696 1.818 9489
0.212 2.862 1.924 1700
0.200 2.700 1.810 9615
0.212 2.868 1.915 2483
0.200 2.705 1.802 9740
0.213 2.873 1.907 3267
0.200 2.710 1.794 7664
0.211 2.858 1.886 3396
0.201 2.715 1.787 5588
0.212 2.863 1.878 3655
0.201 2.720 1.779 4501
0.215 2.908 1.895 3273
0.204 2.751 1.788 3753
0.216 2.920 1.891 3576
0.205 2.770 1.788 3896
0.216 2.918 1.878 3854
0.206 2.781 1.784 4620
0.215 2.910 1.861 4288
0.225 3.038 1.939 2371
0.216 2.915 1.853 5535
0.206 2.786 1.776 4137
0.225 3.044 1.930 2755
0.216 2.920 1.845 6782
0.206 2.791 1.768 3654
0.226 3.049 1.921 3138
0.217 2.938 1.844 5390
0.208 2.809 1.768 2749
0.227 3.068 1.921 1887
0.221 2.984 1.860 5714
0.211 2.855 1.784 2083
0.230 3.114 1.936 1164
0.221 2.982 1.847 6374
0.211 2.853 1.772 2268
0.230 3.112 1.923 1710
0.220 2.981 1.835 5744
0.230 3.110 1.910 2995
0.211 2.851 1.760 1699
0.226 3.054 1.866 5975
0.211 2.855 1.751 1145
0.228 3.080 1.869 6117
0.218 2.949 1.794 1202
0.229 3.091 1.864 6858
0.240 3.243 1.949 1064
0.230 3.103 1.859 5523
0.239 3.234 1.932 1572
0.230 3.115 1.854 4341
0.240 3.246 1.927 1919
0.239 3.231 1.906 4087
0.229 3.099 1.833 2680
0.239 3.229 1.893 6356
0.229 3.097 1.820 1425
0.239 3.234 1.884 6977
0.229 3.102 1.811 1293
0.249 3.366 1.956 1040
0.239 3.232 1.870 5958
0.249 3.364 1.942 2087
0.229 3.100 1.799 1206
0.247 3.334 1.914 6194
0.237 3.202 1.842 3605
0.247 3.333 1.900 6771
0.237 3.200 1.829 2937
0.244 3.296 1.868 7527
0.254 3.428 1.939 2456
0.244 3.301 1.859 8080
0.254 3.434 1.929 3271
0.245 3.313 1.853 8148
0.255 3.446 1.923 3016
0.248 3.346 1.858 6836
0.257 3.479 1.928 1994
0.253 3.414 1.881 7491
0.243 3.281 1.812 1962
0.262 3.547 1.950 1316
0.253 3.419 1.871 9910
0.263 3.553 1.940 1985
0.243 3.286 1.803 1539
0.254 3.431 1.865 9849
0.264 3.565 1.933 2567
0.244 3.297 1.797 1122
