1.562 2.558 1.805 4687
1.486 2.434 1.723 3008
1.543 2.526 1.773 5735
1.474 2.414 1.700 2176
1.541 2.524 1.761 7673
1.473 2.412 1.688 1110
1.547 2.534 1.756 7426
1.616 2.647 1.829 2316
1.546 2.533 1.744 5464
1.615 2.645 1.816 5082
1.610 2.637 1.800 6984
1.541 2.525 1.728 3354
1.609 2.635 1.787 7536
1.540 2.523 1.716 2911
1.597 2.616 1.763 6664
1.666 2.729 1.835 1400
1.589 2.602 1.743 7072
1.658 2.715 1.814 2909
1.595 2.612 1.738 5543
1.664 2.725 1.809 2713
1.612 2.640 1.744 4511
1.681 2.753 1.815 2107
1.618 2.650 1.739 4901
1.687 2.763 1.809 2848
1.690 2.768 1.800 5291
1.617 2.648 1.727 3985
1.692 2.772 1.790 6626
1.623 2.658 1.721 2234
1.695 2.776 1.781 6157
1.625 2.662 1.712 1421
1.708 2.798 1.783 5570
1.639 2.684 1.714 2222
1.718 2.814 1.780 5927
1.648 2.700 1.712 3348
1.724 2.824 1.774 6563
1.651 2.703 1.703 3054
1.731 2.834 1.768 10566
1.660 2.719 1.701 2983
1.733 2.838 1.759 15080
1.803 2.953 1.826 3373
1.736 2.842 1.749 16245
1.806 2.958 1.816 4852
1.742 2.852 1.743 12467
1.812 2.968 1.809 5003
1.766 2.893 1.754 10174
1.837 3.008 1.820 2948
1.754 2.873 1.731 6711
1.825 2.988 1.796 4066
1.805 2.956 1.765 5385
1.734 2.840 1.701 2915
1.807 2.960 1.755 5986
1.736 2.844 1.691 2288
1.851 3.031 1.782 8469
1.780 2.915 1.719 3042
1.861 3.047 1.779 10730
1.786 2.925 1.712 2234
1.871 3.064 1.775 9013
1.800 2.947 1.712 2671
1.881 3.080 1.772 5457
1.809 2.963 1.709 3045
1.898 3.109 1.774 5210
1.827 2.992 1.712 3523
1.901 3.113 1.764 4840
1.972 3.230 1.826 2407
1.899 3.111 1.750 4462
1.971 3.228 1.812 2175
1.902 3.115 1.740 4903
1.973 3.232 1.801 2841
1.908 3.125 1.732 4372
1.987 3.255 1.799 3513
1.937 3.172 1.744 5259
2.009 3.290 1.804 3160
1.939 3.176 1.733 5407
2.019 3.306 1.800 4252
2.055 3.366 1.817 5429
1.945 3.186 1.726 3089
2.058 3.370 1.805 6307
1.261 2.066 1.152 1932
2.064 3.381 1.797 5068
1.263 2.068 1.145 1965
2.071 3.391 1.789 4022
1.264 2.071 1.138 1881
2.062 3.377 1.768 5889
2.134 3.495 1.826 2177
2.102 3.443 1.787 6519
2.175 3.562 1.844 2022
2.101 3.441 1.772 7285
2.173 3.560 1.829 2702
2.096 3.432 1.755 6082
2.168 3.551 1.811 3741
2.140 3.505 1.776 6259
2.213 3.624 1.832 4026
2.139 3.503 1.761 6151
2.212 3.622 1.817 4292
2.141 3.507 1.749 5602
2.214 3.626 1.805 3538
2.190 3.587 1.772 4933
2.117 3.467 1.717 2719
2.200 3.603 1.766 5140
2.127 3.484 1.711 2076
2.206 3.614 1.756 6934
2.279 3.733 1.811 2240
2.213 3.624 1.747 6348
2.286 3.744 1.801 3369
2.246 3.678 1.757 5754
2.319 3.798 1.811 2406
2.264 3.708 1.756 6365
2.349 3.847 1.817 2785
2.270 3.718 1.746 6950
2.351 3.851 1.804 4081
2.273 3.722 1.734 6084
2.354 3.855 1.791 3818
2.279 3.732 1.724 4582
2.418 3.961 1.822 4329
2.363 3.870 1.768 4870
2.436 3.990 1.819 3432
2.361 3.867 1.752 6443
2.447 4.007 1.811 2824
2.364 3.871 1.739 4542
2.476 4.056 1.816 3638
2.417 3.958 1.760 4320
2.491 4.079 1.810 3228
2.423 3.968 1.750 4779
2.497 4.090 1.799 3036
2.492 4.081 1.780 5206
2.578 4.221 1.837 2957
2.498 4.091 1.769 6283
2.576 4.219 1.820 3910
2.497 4.089 1.753 5815
2.571 4.211 1.801 2881
2.499 4.093 1.739 4908
2.593 4.247 1.799 2997
2.639 4.321 1.813 5067
2.505 4.103 1.727 2713
2.637 4.319 1.796 4863
2.712 4.441 1.843 2025
2.655 4.349 1.791 3578
2.730 4.471 1.838 1833
2.658 4.353 1.776 5299
2.807 4.597 1.869 2332
2.664 4.363 1.764 4330
2.802 4.589 1.848 2610
2.710 4.438 1.775 4608
2.800 4.586 1.830 3976
2.720 4.455 1.765 6717
2.807 4.597 1.817 5454
2.817 4.614 1.806 6041
2.731 4.472 1.755 4913
2.828 4.631 1.795 4921
2.745 4.496 1.746 2209
2.818 4.616 1.773 5060
2.739 4.487 1.727 1488
2.825 4.626 1.759 6274
2.959 4.846 1.837 1820
2.831 4.637 1.746 4419
2.974 4.870 1.828 1759
2.830 4.634 1.728 3107
2.984 4.887 1.816 2765
2.987 4.891 1.799 2488
2.832 4.638 1.712 2447
3.064 5.019 1.824 3106
2.977 4.876 1.776 1909
3.079 5.042 1.814 3102
2.992 4.900 1.766 1763
3.125 5.118 1.820 4118
3.050 4.995 1.779 1218
3.120 5.109 1.799 3448
3.195 5.233 1.839 1928
3.198 5.237 1.821 2516
3.122 5.113 1.781 1700
3.160 5.176 1.783 3140
3.272 5.359 1.841 2872
3.262 5.343 1.817 5102
3.187 5.219 1.778 2394
3.269 5.354 1.801 5416
3.393 5.556 1.864 3420
3.287 5.384 1.791 3421
3.383 5.541 1.839 3333
3.438 5.630 1.846 3477
3.362 5.506 1.808 2458
3.432 5.621 1.823 3511
3.552 5.818 1.883 1619
3.431 5.619 1.802 2442
3.611 5.914 1.890 1716
3.473 5.689 1.803 1885
3.569 5.846 1.849 1668
3.480 5.699 1.785 1898
3.592 5.883 1.839 1609
3.599 5.894 1.820 2441
3.703 6.064 1.870 2326
3.597 5.891 1.799 1915
3.773 6.180 1.881 1786
3.884 6.362 1.909 1950
3.808 6.237 1.874 1801
3.883 6.360 1.886 2071
3.975 6.511 1.928 1459
3.950 6.469 1.893 1951
4.079 6.680 1.950 1606
4.073 6.671 1.924 1885
3.933 6.441 1.862 1702
4.072 6.669 1.900 1527
4.338 7.104 2.015 1067
4.220 6.911 1.939 1153
4.091 6.700 1.884 992
4.097 6.711 1.863 1124
4.222 6.915 1.916 945
4.547 7.448 2.027 1169
4.390 7.190 1.961 1009
4.558 7.466 2.005 1652
4.635 7.591 2.037 1139
4.565 7.477 1.981 2009
4.642 7.603 2.012 1974
4.653 7.620 1.990 2253
4.576 7.495 1.959 1723
4.724 7.737 1.991 2095
4.648 7.612 1.961 1639
4.735 7.755 1.968 3210
4.650 7.616 1.935 1953
4.738 7.760 1.941 3876
4.641 7.601 1.904 1686
4.749 7.778 1.918 4383
4.963 8.129 1.999 1733
4.760 7.795 1.895 4192
4.966 8.134 1.971 3654
4.961 8.125 1.941 4961
4.774 7.819 1.872 2650
4.964 8.129 1.913 3926
4.781 7.830 1.847 1835
4.962 8.127 1.884 3550
4.751 7.781 1.809 1836
4.965 8.131 1.856 4277
5.655 9.262 2.096 2099
4.971 8.142 1.830 3203
5.532 9.060 2.021 2384
5.539 9.071 1.992 1851
5.750 9.418 2.063 1790
5.761 9.436 2.034 1917
5.912 9.682 2.083 1509
5.906 9.673 2.048 1919
5.768 9.447 2.003 1231
5.917 9.692 2.017 3385
5.840 9.565 1.993 829
5.928 9.710 1.987 5375
6.006 9.836 2.011 1037
5.935 9.721 1.955 5270
6.013 9.848 1.979 1271
5.942 9.732 1.923 3731
6.020 9.859 1.947 1182
5.941 9.730 1.889 3697
6.202 10.157 1.966 1602
5.943 9.734 1.856 3649
6.771 11.090 2.096 1333
5.942 9.732 1.821 2698
6.464 10.587 1.970 1008
5.940 9.729 1.787 2143
7.304 11.962 2.167 1451
7.303 11.961 2.125 1932
5.939 9.726 1.753 1483
7.310 11.972 2.085 1615
5.945 9.737 1.721 1134
7.317 11.984 2.046 950
5.948 9.741 1.688 814
1.217 1.980 1.811 4570
1.219 1.984 1.805 9141
1.156 1.881 1.716 828
1.222 1.988 1.798 9141
1.285 2.092 1.886 1056
1.234 2.009 1.805 9742
1.170 1.905 1.717 1360
1.240 2.019 1.803 11054
1.304 2.123 1.891 1301
1.246 2.028 1.801 10529
1.310 2.132 1.888 1254
1.252 2.038 1.799 10289
1.316 2.142 1.886 1714
1.254 2.042 1.792 10289
1.319 2.147 1.879 1939
1.284 2.090 1.821 9609
1.220 1.985 1.735 1060
1.290 2.100 1.819 13495
1.226 1.995 1.733 1341
1.293 2.104 1.812 14006
1.228 1.999 1.726 1033
1.295 2.108 1.805 14518
1.360 2.214 1.890 1608
1.298 2.112 1.798 11096
1.363 2.218 1.883 2357
1.300 2.117 1.791 7675
1.365 2.223 1.875 3105
1.303 2.121 1.784 7670
1.368 2.227 1.868 3105
1.305 2.125 1.776 6447
1.371 2.231 1.860 3155
1.339 2.179 1.809 6312
1.404 2.286 1.892 835
1.334 2.172 1.793 6144
1.400 2.279 1.876 1928
1.375 2.238 1.833 6610
1.309 2.131 1.751 3096
1.357 2.209 1.800 8435
1.423 2.316 1.882 1096
1.359 2.213 1.792 11004
1.425 2.320 1.874 1470
1.362 2.217 1.785 10650
1.428 2.324 1.867 2001
1.364 2.221 1.778 10296
1.431 2.329 1.859 2532
1.370 2.231 1.774 7274
1.437 2.339 1.855 2333
1.408 2.292 1.809 7767
1.341 2.183 1.729 1436
1.414 2.302 1.806 7249
1.347 2.193 1.726 1440
1.420 2.311 1.802 7221
1.353 2.203 1.722 1230
1.416 2.304 1.786 6182
1.411 2.297 1.770 5928
1.478 2.406 1.849 1355
1.459 2.375 1.816 5769
1.392 2.266 1.737 3105
1.462 2.380 1.808 6044
1.395 2.270 1.730 3390
1.464 2.384 1.800 7535
1.397 2.274 1.722 2665
1.467 2.388 1.792 9026
1.400 2.278 1.715 1940
1.470 2.392 1.784 9824
1.402 2.282 1.707 1527
1.468 2.390 1.772 10645
1.536 2.500 1.849 1248
1.475 2.400 1.768 10048
1.542 2.511 1.844 1155
1.473 2.398 1.756 8519
1.541 2.509 1.832 1547
1.476 2.402 1.748 7805
1.544 2.513 1.823 1893
1.478 2.406 1.740 5744
1.550 2.523 1.819 3207
1.513 2.463 1.767 4793
1.581 2.574 1.842 1732
1.562 2.543 1.810 4279
1.494 2.432 1.735 3926
1.569 2.553 1.805 4859
1.500 2.442 1.731 3339
1.549 2.522 1.773 5734
1.481 2.410 1.700 2148
1.552 2.526 1.765 7809
1.483 2.414 1.691 1345
1.554 2.530 1.756 7720
1.623 2.642 1.829 2378
1.557 2.534 1.748 5731
1.626 2.646 1.820 5299
1.621 2.639 1.804 7625
1.552 2.526 1.732 3620
1.620 2.637 1.791 7947
1.551 2.524 1.719 3286
1.604 2.611 1.763 6430
1.674 2.724 1.835 1416
1.596 2.598 1.743 6972
1.665 2.711 1.814 2970
1.602 2.607 1.738 5607
1.671 2.721 1.809 2735
1.619 2.635 1.744 4738
1.689 2.749 1.815 2030
1.625 2.645 1.739 5096
1.695 2.759 1.809 2858
1.697 2.763 1.800 5219
1.628 2.649 1.730 4078
1.704 2.773 1.794 6464
1.630 2.653 1.721 2093
1.706 2.777 1.785 5939
1.636 2.663 1.716 1127
1.720 2.799 1.786 6248
1.650 2.685 1.718 2194
1.730 2.815 1.784 7375
1.659 2.701 1.716 3158
1.732 2.819 1.774 7679
1.658 2.699 1.703 3014
1.738 2.830 1.768 11165
1.668 2.715 1.701 3185
1.741 2.834 1.759 15197
1.811 2.948 1.826 2887
1.743 2.838 1.749 16004
1.814 2.953 1.816 4250
1.749 2.848 1.743 12106
1.820 2.963 1.809 4277
1.778 2.894 1.758 10563
1.849 3.009 1.823 2493
1.766 2.874 1.734 6181
1.840 2.995 1.803 3778
1.813 2.951 1.765 5907
1.742 2.835 1.701 2802
1.815 2.955 1.755 6907
1.744 2.839 1.691 2327
1.859 3.026 1.782 8657
1.788 2.910 1.719 2933
1.865 3.036 1.776 11090
1.794 2.920 1.712 2265
1.872 3.046 1.769 9282
1.800 2.930 1.706 2347
1.863 3.032 1.748 4935
1.964 3.198 1.838 2569
1.910 3.110 1.778 4406
1.835 2.987 1.712 3182
1.909 3.108 1.764 4610
1.981 3.224 1.826 2375
1.908 3.105 1.750 4538
1.980 3.222 1.812 1857
1.910 3.109 1.740 4808
1.982 3.227 1.801 2533
1.943 3.163 1.755 4181
2.015 3.280 1.815 2448
1.949 3.173 1.747 5672
2.021 3.290 1.808 3403
1.948 3.171 1.733 5362
2.035 3.313 1.806 4300
2.061 3.354 1.813 5388
1.954 3.181 1.726 3029
2.063 3.359 1.802 6130
1.968 3.203 1.724 1880
2.070 3.369 1.794 4952
1.982 3.226 1.723 1591
2.076 3.379 1.786 3926
1.270 2.067 1.138 1468
2.075 3.377 1.771 5886
2.163 3.520 1.841 1781
2.085 3.394 1.766 7100
2.165 3.524 1.829 2995
2.110 3.435 1.772 7374
2.183 3.554 1.829 2703
2.105 3.427 1.755 5941
2.205 3.589 1.832 3159
2.150 3.499 1.776 5482
2.223 3.618 1.832 3715
2.149 3.497 1.761 5531
2.222 3.616 1.817 4011
2.205 3.589 1.790 5537
2.132 3.470 1.734 4563
2.204 3.587 1.775 5274
2.130 3.468 1.720 3171
2.210 3.597 1.766 5117
2.137 3.478 1.711 2194
2.216 3.607 1.756 6678
2.290 3.727 1.811 2336
2.238 3.643 1.758 6518
2.312 3.763 1.812 2345
2.256 3.672 1.757 5730
2.330 3.792 1.811 2410
2.274 3.701 1.756 6464
2.355 3.834 1.815 3165
2.280 3.712 1.746 7009
2.362 3.844 1.804 5004
2.283 3.716 1.734 5915
2.364 3.849 1.791 4563
2.433 3.960 1.825 4612
2.289 3.726 1.724 4329
2.369 3.857 1.765 5561
2.443 3.977 1.817 3712
2.372 3.861 1.752 7063
2.462 4.007 1.814 2693
2.374 3.865 1.739 4722
2.484 4.043 1.814 3428
2.432 3.958 1.763 4297
2.506 4.079 1.813 2184
2.438 3.968 1.752 4711
2.512 4.089 1.802 2435
2.503 4.074 1.780 5661
2.589 4.214 1.837 3118
2.509 4.085 1.769 6920
2.588 4.212 1.820 4135
2.512 4.089 1.755 6208
2.594 4.223 1.809 3114
2.510 4.086 1.739 5052
2.605 4.240 1.799 2982
2.650 4.314 1.813 5652
2.517 4.097 1.727 2735
2.649 4.312 1.796 5590
2.724 4.434 1.843 1869
2.667 4.342 1.791 3372
2.742 4.463 1.838 1804
2.674 4.352 1.778 4545
2.824 4.596 1.871 2198
2.676 4.356 1.764 3952
2.814 4.581 1.848 2292
2.722 4.431 1.775 4337
2.813 4.579 1.830 3832
2.737 4.454 1.767 7126
2.820 4.589 1.817 5695
2.830 4.606 1.806 6123
2.743 4.465 1.755 4976
2.833 4.611 1.791 4624
2.753 4.482 1.744 1850
2.831 4.608 1.773 4781
2.752 4.479 1.727 1423
2.838 4.619 1.759 6399
2.972 4.838 1.837 1800
2.840 4.623 1.744 4468
2.991 4.868 1.830 1602
3.001 4.885 1.818 2863
2.842 4.627 1.728 2833
3.000 4.883 1.799 2583
3.076 5.006 1.841 2260
3.082 5.017 1.826 3371
2.999 4.881 1.780 2046
3.089 5.027 1.812 3092
3.164 5.151 1.853 1824
3.139 5.109 1.820 4177
3.063 4.986 1.779 1676
3.134 5.101 1.799 3281
3.209 5.224 1.839 1903
3.172 5.163 1.800 2763
3.092 5.033 1.758 2010
3.175 5.167 1.783 3751
3.267 5.317 1.831 2919
3.277 5.334 1.817 4643
3.193 5.197 1.774 2583
3.284 5.345 1.801 5178
3.404 5.540 1.862 3599
3.398 5.532 1.839 3580
3.294 5.362 1.787 3427
3.453 5.621 1.846 3331
3.377 5.497 1.808 2726
3.456 5.625 1.827 3151
3.572 5.814 1.885 1965
3.583 5.832 1.869 2438
3.438 5.596 1.798 1926
3.585 5.836 1.849 2710
3.489 5.679 1.803 2053
3.500 5.696 1.787 2408
3.588 5.840 1.829 1995
3.719 6.054 1.870 2600
3.615 5.884 1.820 2336
3.786 6.163 1.879 2098
3.621 5.894 1.802 1865
3.821 6.220 1.872 1980
3.898 6.345 1.907 1892
3.901 6.349 1.886 2091
3.997 6.507 1.930 1555
3.944 6.419 1.882 2092
4.097 6.669 1.950 1597
4.092 6.660 1.924 1897
3.946 6.423 1.860 1878
4.090 6.658 1.900 1435
4.361 7.099 2.017 1261
4.239 6.899 1.939 1285
4.109 6.689 1.884 993
4.112 6.693 1.861 1309
4.241 6.904 1.916 1101
4.568 7.435 2.027 1104
4.442 7.231 1.975 1071
4.579 7.453 2.005 1631
4.656 7.578 2.037 1149
4.586 7.464 1.981 1965
4.663 7.590 2.012 1954
4.674 7.608 1.990 2352
4.593 7.475 1.957 1654
4.750 7.731 1.993 2250
4.673 7.606 1.962 1804
4.757 7.742 1.968 3559
4.675 7.610 1.936 1757
4.759 7.747 1.941 4174
4.662 7.588 1.904 1499
4.766 7.758 1.916 4200
4.990 8.122 2.000 1574
4.781 7.782 1.895 3930
4.989 8.120 1.971 3480
4.983 8.111 1.941 4780
4.796 7.806 1.872 2531
4.986 8.116 1.913 3788
4.778 7.777 1.839 1774
4.985 8.113 1.884 3310
4.773 7.768 1.809 1930
4.987 8.118 1.856 4025
5.680 9.246 2.096 2164
4.994 8.128 1.830 3096
5.561 9.052 2.023 2663
5.564 9.056 1.992 2098
5.780 9.408 2.064 1803
5.787 9.420 2.034 1915
5.893 9.593 2.069 1589
5.937 9.664 2.049 1638
5.794 9.431 2.003 1198
5.948 9.682 2.019 3217
5.871 9.555 1.994 774
5.959 9.700 1.988 5405
6.225 10.133 2.071 887
5.962 9.704 1.955 5458
6.228 10.137 2.036 1210
5.969 9.716 1.923 3891
6.227 10.135 2.001 1701
5.967 9.713 1.889 3863
6.230 10.140 1.966 2247
5.970 9.718 1.856 3842
6.232 10.144 1.931 1745
5.973 9.722 1.823 2622
6.243 10.162 1.899 1341
5.967 9.713 1.787 1896
6.250 10.173 1.866 1414
7.340 11.947 2.126 1706
5.965 9.710 1.753 1362
7.343 11.952 2.085 1405
5.972 9.721 1.721 1091
7.350 11.964 2.046 811
5.974 9.725 1.688 794
1.223 1.984 1.816 4773
1.225 1.988 1.809 9546
1.162 1.885 1.720 1185
1.228 1.992 1.803 9546
1.164 1.889 1.714 1185
1.237 2.007 1.805 10107
1.173 1.903 1.717 1465
1.243 2.017 1.803 11473
1.307 2.121 1.891 1289
1.249 2.026 1.801 11100
1.313 2.131 1.888 1293
1.255 2.036 1.799 11000
1.319 2.140 1.886 1841
1.257 2.040 1.792 11000
1.322 2.145 1.879 2081
1.287 2.088 1.821 9808
1.222 1.984 1.735 1177
1.293 2.098 1.819 13648
1.228 1.993 1.733 1532
1.296 2.102 1.812 14212
1.231 1.997 1.726 1145
1.298 2.106 1.805 14776
1.363 2.212 1.890 1552
1.301 2.111 1.798 11358
1.366 2.216 1.883 2319
1.303 2.115 1.791 7940
1.369 2.221 1.875 3086
1.306 2.119 1.784 7947
1.371 2.225 1.868 3086
1.308 2.123 1.776 6564
1.374 2.229 1.860 3069
1.338 2.172 1.804 6298
1.404 2.278 1.888 935
1.338 2.170 1.793 5826
1.403 2.277 1.876 1798
1.378 2.236 1.833 6271
1.312 2.129 1.751 2716
1.360 2.207 1.800 8021
1.426 2.314 1.882 1020
1.362 2.211 1.792 10667
1.429 2.318 1.874 1366
1.365 2.215 1.785 10280
1.431 2.322 1.867 1840
1.368 2.219 1.778 9894
1.434 2.327 1.859 2315
1.374 2.229 1.774 7207
1.440 2.337 1.855 2169
1.408 2.284 1.805 7848
1.341 2.176 1.724 946
1.414 2.294 1.802 7137
1.347 2.185 1.721 960
1.427 2.315 1.806 6961
1.360 2.207 1.727 1430
1.419 2.302 1.786 5710
1.414 2.295 1.770 5332
1.481 2.404 1.849 1180
1.463 2.373 1.816 5418
1.395 2.264 1.737 3224
1.465 2.378 1.808 5744
1.398 2.268 1.730 3502
1.468 2.382 1.800 7207
1.400 2.272 1.722 2766
1.470 2.386 1.792 8670
1.403 2.276 1.715 2030
1.473 2.390 1.784 9322
1.405 2.280 1.707 1648
1.475 2.394 1.776 9973
1.408 2.284 1.699 1172
1.478 2.398 1.768 9635
1.546 2.508 1.844 1201
1.477 2.396 1.756 8338
1.545 2.507 1.832 1582
1.479 2.400 1.748 7572
1.547 2.511 1.823 1995
1.482 2.404 1.740 5497
1.554 2.521 1.819 3320
1.520 2.467 1.771 4998
1.589 2.578 1.846 1191
1.562 2.535 1.806 4195
1.494 2.424 1.731 3764
1.569 2.545 1.801 4608
1.500 2.434 1.727 3674
1.557 2.526 1.777 5708
1.488 2.414 1.703 2407
1.555 2.524 1.765 7907
1.487 2.412 1.691 1181
1.558 2.528 1.756 7956
1.627 2.640 1.829 2457
1.622 2.632 1.813 5916
1.553 2.520 1.740 5445
1.625 2.636 1.804 8134
1.556 2.524 1.732 3640
1.624 2.635 1.791 8411
1.554 2.522 1.719 3226
1.626 2.639 1.782 6426
1.557 2.526 1.711 2528
1.599 2.595 1.743 6684
1.669 2.708 1.814 2980
1.606 2.605 1.738 5651
1.675 2.718 1.809 2796
1.619 2.627 1.741 5104
1.689 2.740 1.811 2222
1.629 2.643 1.739 5349
1.699 2.756 1.809 2837
1.701 2.761 1.800 5138
1.631 2.647 1.730 4215
1.708 2.771 1.794 6362
1.634 2.651 1.721 2012
1.710 2.775 1.785 5829
1.636 2.655 1.712 944
1.724 2.797 1.786 6659
1.653 2.683 1.718 2027
1.730 2.807 1.780 8107
1.659 2.693 1.712 2922
1.732 2.811 1.771 7977
1.662 2.697 1.703 3073
1.739 2.821 1.765 11077
1.668 2.706 1.698 3194
1.745 2.831 1.759 15214
1.674 2.716 1.692 3035
1.747 2.835 1.749 16108
1.818 2.950 1.816 3709
1.757 2.851 1.747 12129
1.828 2.966 1.813 3437
1.782 2.892 1.758 10551
1.853 3.007 1.823 2625
1.800 2.920 1.762 6066
1.871 3.035 1.827 1865
1.817 2.948 1.765 6106
1.746 2.833 1.701 2457
1.819 2.952 1.755 7228
1.891 3.068 1.820 2573
1.863 3.023 1.782 8831
1.792 2.908 1.719 2993
1.870 3.034 1.776 11411
1.798 2.918 1.712 2336
1.868 3.032 1.762 9744
1.797 2.915 1.699 2009
1.863 3.023 1.745 5586
1.965 3.189 1.834 2651
1.919 3.113 1.781 4048
1.839 2.984 1.712 3043
1.914 3.105 1.764 4223
1.985 3.222 1.826 2378
1.912 3.103 1.750 4147
1.988 3.226 1.815 1675
1.915 3.107 1.740 4321
1.994 3.236 1.807 2128
1.959 3.179 1.764 4434
2.031 3.296 1.825 2131
1.958 3.176 1.750 5869
2.030 3.294 1.811 3717
1.952 3.168 1.733 5036
2.040 3.310 1.806 4556
2.062 3.345 1.810 5515
1.955 3.172 1.723 2781
2.068 3.356 1.802 6191
1.973 3.201 1.724 1793
2.074 3.366 1.794 5153
1.990 3.229 1.726 1425
2.077 3.370 1.782 4057
1.997 3.240 1.718 1275
2.079 3.374 1.771 5929
2.152 3.492 1.829 1767
2.093 3.397 1.769 7922
2.170 3.521 1.829 3089
2.107 3.420 1.766 7821
2.180 3.538 1.823 3004
2.118 3.436 1.761 6224
2.210 3.586 1.832 2841
2.139 3.471 1.764 4955
2.213 3.590 1.820 4292
2.211 3.588 1.805 5112
2.138 3.469 1.749 4624
2.210 3.586 1.790 5530
2.137 3.467 1.734 4461
2.209 3.584 1.775 5283
2.135 3.465 1.720 3268
2.219 3.600 1.769 5073
2.145 3.481 1.714 2612
2.221 3.604 1.756 6758
2.295 3.724 1.811 2299
2.232 3.621 1.750 6854
2.305 3.741 1.804 2492
2.257 3.663 1.754 5586
2.335 3.789 1.811 2410
2.283 3.705 1.759 6194
2.357 3.824 1.812 3236
2.286 3.709 1.746 6617
2.367 3.841 1.804 4765
2.288 3.713 1.734 5305
2.370 3.845 1.791 4281
2.439 3.957 1.825 4662
2.294 3.723 1.724 3728
2.375 3.853 1.765 6162
2.449 3.974 1.817 3702
2.377 3.857 1.752 7215
2.467 4.003 1.814 2508
2.380 3.861 1.739 4700
2.485 4.033 1.811 3276
2.441 3.961 1.766 3994
2.598 4.215 1.871 1969
2.443 3.965 1.752 4615
2.604 4.226 1.859 2330
2.505 4.064 1.778 6007
2.595 4.211 1.837 3160
2.515 4.081 1.769 7408
2.594 4.209 1.820 4050
2.518 4.085 1.755 6625
2.600 4.219 1.809 3228
2.516 4.083 1.739 5137
2.681 4.351 1.845 3403
2.656 4.310 1.813 6255
2.522 4.093 1.727 2701
2.655 4.308 1.796 6025
2.730 4.430 1.843 2013
2.669 4.331 1.788 3320
2.744 4.453 1.835 1947
2.676 4.342 1.776 4229
2.826 4.586 1.869 1974
2.682 4.352 1.764 3657
2.821 4.577 1.848 1987
2.732 4.433 1.778 4491
2.819 4.575 1.830 3529
2.743 4.450 1.767 7396
2.826 4.585 1.817 5542
2.832 4.596 1.804 5900
2.745 4.454 1.752 4974
2.839 4.607 1.791 4303
2.760 4.478 1.744 1646
2.838 4.604 1.773 4374
2.754 4.469 1.724 1430
2.844 4.615 1.759 6322
2.979 4.834 1.837 1622
2.846 4.619 1.744 4492
3.006 4.877 1.834 1390
3.012 4.888 1.820 2655
2.845 4.616 1.726 2463
3.075 4.989 1.837 2491
2.999 4.866 1.795 2154
3.089 5.012 1.826 3108
3.005 4.877 1.780 2115
3.096 5.023 1.812 2801
3.004 4.874 1.761 1839
3.142 5.099 1.818 3691
3.066 4.975 1.777 1443
3.137 5.090 1.797 3335
3.213 5.213 1.837 1979
3.179 5.159 1.800 2872
3.095 5.022 1.756 2302
3.182 5.163 1.783 3960
3.270 5.306 1.829 2851
3.289 5.336 1.819 3876
3.200 5.193 1.774 2687
3.295 5.347 1.803 4619
3.412 5.536 1.862 3618
3.406 5.527 1.839 3692
3.298 5.351 1.785 3352
3.461 5.616 1.846 3239
3.385 5.492 1.808 2791
3.464 5.620 1.827 3044
3.584 5.816 1.887 2068
3.591 5.827 1.869 2898
3.434 5.572 1.793 2225
3.594 5.831 1.849 3301
3.501 5.681 1.804 2328
3.507 5.691 1.787 2915
3.600 5.842 1.831 2243
3.728 6.049 1.870 2609
3.623 5.879 1.820 2412
3.795 6.158 1.879 2268
3.630 5.889 1.802 1976
3.899 6.326 1.904 1965
3.778 6.129 1.849 1903
3.905 6.337 1.884 1992
4.006 6.501 1.930 1498
3.953 6.414 1.882 2177
4.106 6.663 1.950 1599
3.959 6.424 1.862 1967
4.105 6.661 1.926 1892
4.096 6.646 1.898 1406
4.371 7.092 2.017 1237
4.244 6.887 1.938 1305
4.487 7.281 2.041 1031
4.121 6.687 1.861 1449
4.251 6.898 1.916 1186
4.440 7.205 1.970 1265
4.331 7.027 1.924 1153
4.589 7.447 2.005 1478
4.329 7.025 1.899 1248
4.673 7.583 2.012 1875
4.596 7.458 1.981 1788
4.684 7.601 1.990 2262
4.603 7.469 1.957 1543
4.760 7.724 1.993 2396
4.683 7.599 1.962 1785
4.767 7.736 1.968 3738
4.686 7.603 1.936 1712
4.770 7.740 1.941 4195
4.672 7.581 1.904 1485
4.777 7.751 1.916 3828
5.001 8.115 2.000 1451
4.792 7.775 1.895 3609
5.000 8.113 1.971 3202
4.995 8.104 1.941 4420
4.807 7.800 1.872 2449
4.997 8.109 1.913 3511
4.789 7.771 1.839 1853
4.996 8.106 1.884 2970
4.783 7.762 1.809 1889
4.998 8.111 1.856 3641
5.571 9.039 2.054 2270
5.005 8.122 1.830 2895
5.574 9.044 2.023 2831
5.576 9.048 1.992 2243
5.797 9.407 2.066 1816
5.800 9.412 2.034 2000
5.907 9.584 2.069 1674
5.910 9.589 2.036 1448
5.807 9.423 2.003 1227
5.962 9.674 2.019 2910
5.745 9.321 1.950 1129
5.973 9.691 1.988 5265
5.747 9.326 1.918 1156
5.976 9.696 1.955 5580
6.242 10.129 2.036 1547
5.978 9.701 1.922 4038
6.241 10.127 2.001 2216
5.981 9.705 1.889 3992
6.244 10.131 1.966 2859
5.984 9.709 1.856 4037
6.247 10.136 1.931 2200
5.986 9.713 1.823 2620
6.257 10.153 1.899 1656
6.264 10.164 1.866 1758
5.981 9.704 1.787 1693
7.357 11.937 2.126 1475
6.900 11.196 2.003 1254
7.360 11.942 2.085 1218
5.986 9.712 1.721 1020
1.228 1.981 1.816 4990
1.231 1.985 1.809 9981
1.167 1.882 1.720 1318
1.233 1.989 1.803 9981
1.169 1.885 1.714 1318
1.243 2.004 1.805 10588
1.178 1.900 1.717 1502
1.248 2.013 1.803 12156
1.313 2.117 1.891 1315
1.254 2.023 1.801 11979
1.319 2.127 1.888 1419
1.260 2.033 1.799 12069
1.325 2.137 1.886 2027
1.263 2.037 1.792 12069
1.328 2.141 1.879 2281
1.289 2.079 1.817 10429
1.224 1.975 1.731 986
1.299 2.095 1.819 14155
1.234 1.990 1.733 1861
1.298 2.093 1.807 14724
1.233 1.988 1.722 1049
1.301 2.097 1.800 15323
1.366 2.203 1.886 1744
1.307 2.107 1.798 11978
1.372 2.213 1.883 2259
1.309 2.111 1.791 8666
1.375 2.217 1.875 3033
1.312 2.115 1.784 8667
1.377 2.221 1.868 3033
1.321 2.130 1.785 7197
1.387 2.237 1.869 2514
1.341 2.162 1.800 6760
1.407 2.269 1.884 1030
1.343 2.167 1.793 5741
1.410 2.273 1.876 1632
1.384 2.233 1.833 5845
1.318 2.126 1.751 2056
1.366 2.203 1.800 7893
1.432 2.310 1.882 926
1.369 2.207 1.792 10738
1.435 2.314 1.874 1259
1.375 2.217 1.789 10176
1.441 2.324 1.871 1275
1.377 2.221 1.782 9624
1.444 2.328 1.863 1615
1.380 2.225 1.774 7335
1.446 2.333 1.855 1977
1.414 2.280 1.805 7710
1.347 2.172 1.724 899
1.420 2.290 1.802 6887
1.353 2.182 1.721 951
1.433 2.311 1.806 6562
1.366 2.203 1.727 1490
1.422 2.292 1.782 5483
1.420 2.291 1.770 5086
1.488 2.400 1.849 976
1.469 2.369 1.816 5081
1.402 2.260 1.737 3471
1.472 2.374 1.808 5394
1.404 2.264 1.730 3655
1.474 2.378 1.800 6800
1.407 2.268 1.722 2844
1.473 2.376 1.788 8212
1.405 2.266 1.711 1501
1.479 2.386 1.784 8584
1.411 2.276 1.707 1695
1.482 2.390 1.776 8962
1.414 2.280 1.699 1252
1.484 2.394 1.768 8930
1.553 2.504 1.844 1303
1.483 2.392 1.756 8071
1.552 2.503 1.832 1671
1.486 2.396 1.748 7373
1.558 2.513 1.827 2129
1.492 2.406 1.744 5388
1.561 2.517 1.819 3350
1.527 2.463 1.771 5377
1.596 2.573 1.846 979
1.526 2.461 1.759 4409
1.595 2.572 1.833 1664
1.576 2.541 1.801 4467
1.507 2.430 1.727 3937
1.564 2.521 1.777 5554
1.494 2.410 1.703 2223
1.562 2.520 1.765 7479
1.493 2.408 1.691 981
1.569 2.530 1.760 7800
1.638 2.641 1.833 2256
1.633 2.634 1.816 5949
1.564 2.522 1.744 5474
1.632 2.632 1.804 8312
1.563 2.520 1.732 3491
1.635 2.636 1.795 8543
1.565 2.524 1.723 3408
1.637 2.640 1.786 6838
1.567 2.528 1.715 3009
1.607 2.591 1.743 6565
1.676 2.704 1.814 3216
1.613 2.601 1.738 5826
1.683 2.714 1.809 3045
1.626 2.623 1.741 5609
1.696 2.736 1.811 2265
1.636 2.639 1.739 5689
1.706 2.752 1.809 2848
1.713 2.762 1.803 4923
1.639 2.642 1.730 4303
1.715 2.766 1.794 5987
1.645 2.652 1.725 1989
1.718 2.770 1.785 5614
1.647 2.656 1.716 944
1.731 2.792 1.786 7070
1.661 2.678 1.718 1956
1.738 2.802 1.780 8920
1.667 2.688 1.712 2575
1.740 2.806 1.771 8230
1.669 2.692 1.703 2794
1.750 2.822 1.768 10791
1.679 2.708 1.701 3181
1.756 2.832 1.762 14933
1.685 2.718 1.696 3517
1.759 2.836 1.753 16072
1.688 2.722 1.686 3022
1.769 2.852 1.750 12354
1.840 2.967 1.816 2712
1.790 2.887 1.758 11080
1.861 3.002 1.823 2836
1.808 2.915 1.762 6320
1.879 3.030 1.827 1774
1.825 2.943 1.765 6287
1.754 2.828 1.701 2244
1.828 2.947 1.755 7531
1.899 3.063 1.820 2837
1.872 3.018 1.782 8509
1.800 2.903 1.719 3368
1.874 3.022 1.772 11252
1.802 2.907 1.709 2499
1.877 3.026 1.762 10035
1.805 2.910 1.699 2188
1.872 3.018 1.745 6025
1.955 3.153 1.818 2894
1.958 3.157 1.807 4140
1.870 3.016 1.732 2850
1.918 3.094 1.761 3591
1.994 3.216 1.826 2513
1.913 3.085 1.744 3882
2.012 3.245 1.828 1882
1.916 3.089 1.733 4010
2.015 3.249 1.817 2199
1.971 3.179 1.767 5142
2.044 3.296 1.828 2485
1.974 3.183 1.757 6413
2.047 3.300 1.817 4171
2.049 3.305 1.806 5029
1.973 3.181 1.743 4702
2.075 3.346 1.813 5622
1.975 3.185 1.732 2997
2.077 3.350 1.802 6328
1.981 3.195 1.724 2148
2.084 3.360 1.794 5606
1.999 3.224 1.726 1700
2.082 3.358 1.779 4360
2.155 3.476 1.838 1368
2.089 3.368 1.771 5708
2.162 3.486 1.829 1766
2.103 3.391 1.769 8389
2.176 3.509 1.826 3129
2.109 3.401 1.760 7933
2.182 3.520 1.817 3557
2.123 3.424 1.758 5800
2.220 3.580 1.832 2824
2.130 3.434 1.749 4540
2.222 3.584 1.820 4441
2.221 3.582 1.805 4948
2.140 3.451 1.743 4383
2.216 3.574 1.787 5349
2.142 3.455 1.732 4290
2.222 3.584 1.778 5345
2.149 3.465 1.723 3654
2.229 3.594 1.769 4924
2.155 3.475 1.714 2722
2.231 3.598 1.756 6228
2.305 3.717 1.811 2438
2.249 3.627 1.755 7154
2.366 3.816 1.840 2257
2.263 3.650 1.752 5565
2.349 3.789 1.813 2488
2.293 3.698 1.759 5915
2.367 3.818 1.812 3721
2.300 3.709 1.749 5932
2.378 3.835 1.804 5159
2.380 3.839 1.791 4650
2.302 3.713 1.736 4067
2.387 3.849 1.781 5026
2.461 3.969 1.833 3880
2.385 3.847 1.765 7014
2.460 3.967 1.817 3842
2.384 3.845 1.749 7151
2.482 4.003 1.817 2635
2.390 3.855 1.739 4356
2.493 4.020 1.808 3386
2.495 4.024 1.795 3986
2.420 3.903 1.744 2460
2.458 3.964 1.755 4231
2.616 4.218 1.859 2783
2.516 4.057 1.778 6232
2.607 4.204 1.837 3081
2.522 4.068 1.766 7729
2.605 4.201 1.820 3745
2.529 4.078 1.755 6913
2.604 4.199 1.804 3484
2.527 4.076 1.739 4989
2.693 4.344 1.845 3865
2.668 4.303 1.813 6495
2.534 4.086 1.727 2490
2.667 4.301 1.796 6179
2.742 4.422 1.843 2198
2.729 4.401 1.818 3690
2.642 4.260 1.764 3224
2.688 4.335 1.776 2983
2.763 4.456 1.822 1954
2.694 4.345 1.764 2801
2.770 4.467 1.810 2013
2.745 4.426 1.778 4259
2.832 4.567 1.830 2911
2.755 4.443 1.767 6912
2.839 4.578 1.817 4876
2.845 4.588 1.804 5254
2.757 4.447 1.752 4533
2.852 4.599 1.791 3638
2.760 4.451 1.737 1403
2.850 4.596 1.773 3360
2.926 4.719 1.817 1410
2.853 4.600 1.757 5408
2.988 4.819 1.835 1431
2.855 4.604 1.742 4309
3.083 4.972 1.871 1463
3.026 4.879 1.820 2422
2.858 4.608 1.726 1968
3.084 4.974 1.835 2418
3.008 4.851 1.792 1909
3.103 5.004 1.826 2636
3.019 4.868 1.780 2248
3.114 5.021 1.814 2529
3.021 4.872 1.764 2165
3.148 5.077 1.814 3273
3.072 4.954 1.773 1491
3.151 5.081 1.797 3280
3.074 4.958 1.756 1837
3.194 5.150 1.800 2984
3.109 5.014 1.756 2601
3.196 5.154 1.783 4185
3.281 5.290 1.827 2434
3.315 5.347 1.825 2934
3.215 5.184 1.774 2891
3.423 5.520 1.860 3870
3.318 5.351 1.807 3724
3.425 5.524 1.841 4028
3.312 5.342 1.785 2992
3.476 5.606 1.846 3234
3.400 5.483 1.808 2567
3.479 5.611 1.827 2935
3.600 5.806 1.887 1999
3.607 5.817 1.869 3137
3.445 5.556 1.791 2757
3.606 5.815 1.847 3801
3.521 5.678 1.806 2574
3.523 5.682 1.787 3270
3.612 5.825 1.829 2508
3.744 6.039 1.870 2527
3.526 5.686 1.768 2237
3.804 6.134 1.875 2222
3.650 5.886 1.804 1690
3.794 6.119 1.849 2203
3.912 6.309 1.902 1883
3.923 6.326 1.884 1782
4.016 6.477 1.926 1540
3.970 6.403 1.882 2085
3.881 6.258 1.843 1509
3.973 6.407 1.860 1974
4.119 6.643 1.924 1634
4.106 6.621 1.895 1411
4.395 7.087 2.019 1206
4.263 6.875 1.938 1312
4.507 7.269 2.041 1074
4.140 6.676 1.861 1634
4.270 6.886 1.916 1257
4.456 7.186 1.968 1521
4.350 7.015 1.924 1409
4.345 7.006 1.897 1500
4.610 7.434 2.005 1365
4.698 7.577 2.014 1712
4.613 7.439 1.980 1686
4.705 7.588 1.990 2070
4.787 7.720 2.022 1546
4.786 7.718 1.994 2629
4.708 7.593 1.964 1716
4.789 7.722 1.968 3866
4.678 7.544 1.925 1619
4.787 7.720 1.940 4074
4.689 7.562 1.903 1451
4.798 7.738 1.916 3171
5.023 8.101 2.000 1260
4.813 7.762 1.895 3003
5.022 8.099 1.971 2764
5.017 8.090 1.941 3822
4.824 7.780 1.871 2214
5.015 8.088 1.911 3213
4.810 7.758 1.839 1969
5.018 8.093 1.884 2611
5.281 8.516 1.976 2313
5.021 8.097 1.856 3222
5.284 8.521 1.946 2779
5.598 9.028 2.023 2894
5.286 8.525 1.917 2666
5.289 8.529 1.888 2661
5.601 9.033 1.992 2300
5.296 8.540 1.860 2183
5.826 9.396 2.034 1939
5.932 9.566 2.035 1586
5.771 9.307 1.983 1470
5.992 9.664 2.020 2414
5.766 9.299 1.949 1388
5.999 9.675 1.988 4709
5.773 9.310 1.918 1503
6.002 9.680 1.955 5277
6.270 10.111 2.036 2050
6.005 9.684 1.922 3874
6.265 10.103 1.999 2967
6.008 9.688 1.889 3928
6.272 10.114 1.966 3659
6.010 9.693 1.856 4120
6.274 10.118 1.931 2763
6.013 9.697 1.823 2520
6.285 10.136 1.899 2066
6.292 10.147 1.866 2199
6.924 11.166 2.040 1499
6.931 11.177 2.003 1543
6.295 10.151 1.831 1396
7.392 11.921 2.085 1040
6.934 11.182 1.964 976
1.232 1.978 1.816 5110
1.235 1.982 1.809 10220
1.171 1.879 1.720 1262
1.237 1.986 1.803 10220
1.173 1.883 1.714 1262
1.247 2.001 1.805 11052
1.182 1.898 1.717 1510
1.253 2.011 1.803 12870
1.317 2.114 1.891 1265
1.259 2.020 1.801 12795
1.323 2.124 1.888 1449
1.265 2.030 1.799 12990
1.330 2.134 1.886 2070
1.267 2.034 1.792 12990
1.332 2.138 1.879 2322
1.294 2.077 1.817 10723
1.229 1.972 1.731 1065
1.300 2.086 1.814 14174
1.235 1.982 1.728 1531
1.302 2.090 1.807 14678
1.237 1.986 1.722 1145
1.305 2.095 1.800 15183
1.370 2.200 1.886 1734
1.311 2.104 1.798 11738
1.377 2.210 1.883 2208
1.317 2.114 1.795 8545
1.383 2.219 1.880 2455
1.320 2.118 1.788 8545
1.385 2.224 1.872 2455
1.329 2.133 1.790 7210
1.395 2.239 1.873 2030
1.345 2.160 1.800 7036
1.412 2.266 1.884 946
1.348 2.164 1.793 5604
1.414 2.270 1.876 1467
1.386 2.224 1.829 5463
1.319 2.117 1.746 1344
1.371 2.200 1.800 7872
1.437 2.307 1.882 815
1.377 2.210 1.797 10794
1.443 2.317 1.879 835
1.379 2.214 1.789 10008
1.446 2.321 1.871 1112
1.382 2.218 1.782 9222
1.449 2.325 1.863 1390
1.384 2.222 1.774 7285
1.451 2.330 1.855 1823
1.419 2.277 1.805 7178
1.351 2.169 1.724 1022
1.421 2.281 1.797 6366
1.438 2.308 1.806 6084
1.371 2.200 1.727 1535
1.423 2.284 1.778 5052
1.490 2.392 1.857 851
1.422 2.282 1.766 4777
1.489 2.391 1.845 1411
1.474 2.366 1.816 4887
1.406 2.257 1.737 3794
1.477 2.370 1.808 5336
1.409 2.261 1.730 3845
1.479 2.375 1.800 6532
1.411 2.265 1.722 2924
1.478 2.373 1.788 7824
1.410 2.263 1.711 1479
1.484 2.383 1.784 7881
1.416 2.273 1.707 1683
1.487 2.387 1.776 8035
1.419 2.277 1.699 1259
1.490 2.391 1.768 8401
1.558 2.501 1.844 1280
1.492 2.395 1.760 8023
1.561 2.505 1.836 1436
1.491 2.393 1.748 7331
1.563 2.509 1.827 2093
1.497 2.403 1.744 5467
1.566 2.513 1.819 3175
1.532 2.459 1.771 5457
1.601 2.570 1.846 843
1.531 2.457 1.759 4782
1.600 2.568 1.833 1558
1.523 2.444 1.739 5028
1.592 2.555 1.813 3275
1.569 2.518 1.777 5180
1.499 2.407 1.703 2175
1.571 2.522 1.769 6982
1.502 2.411 1.695 1064
1.578 2.532 1.764 7391
1.647 2.644 1.837 2075
1.639 2.630 1.816 5842
1.569 2.519 1.744 5019
1.638 2.629 1.804 8294
1.568 2.517 1.732 3206
1.640 2.633 1.795 8631
1.570 2.521 1.723 3233
1.646 2.643 1.790 7348
1.576 2.530 1.718 3443
1.656 2.659 1.788 6746
1.586 2.546 1.717 4021
1.666 2.675 1.787 6318
1.596 2.562 1.716 3389
1.632 2.619 1.741 6112
1.702 2.732 1.811 2372
1.638 2.629 1.736 5845
1.708 2.742 1.805 3058
1.718 2.758 1.803 4613
1.644 2.639 1.730 4172
1.725 2.768 1.798 5501
1.654 2.655 1.729 2093
1.701 2.731 1.763 5674
1.772 2.844 1.832 863
1.733 2.782 1.783 7303
1.663 2.669 1.714 1651
1.743 2.799 1.780 9009
1.673 2.685 1.712 2247
1.742 2.797 1.767 7942
1.671 2.682 1.700 2428
1.756 2.819 1.768 10384
1.685 2.704 1.701 2988
1.762 2.829 1.762 14717
1.691 2.714 1.696 3707
1.765 2.833 1.753 15799
1.693 2.718 1.686 3458
1.782 2.861 1.757 12423
1.711 2.746 1.691 3597
1.796 2.883 1.758 10869
1.868 2.998 1.823 2673
1.814 2.911 1.762 6157
1.742 2.796 1.696 1560
1.831 2.939 1.765 6062
1.759 2.824 1.701 1989
1.834 2.943 1.755 7070
1.906 3.059 1.820 3062
1.878 3.014 1.782 8337
1.806 2.899 1.719 3369
1.880 3.018 1.772 10824
1.808 2.903 1.709 2670
1.879 3.016 1.759 9778
1.807 2.900 1.696 2156
1.874 3.008 1.742 6104
1.946 3.124 1.805 3286
1.957 3.141 1.801 4619
1.873 3.006 1.728 2706
1.932 3.102 1.767 3240
2.009 3.224 1.832 2796
1.912 3.069 1.737 3903
2.015 3.235 1.825 2451
1.914 3.073 1.727 4243
2.022 3.245 1.817 2472
1.978 3.175 1.767 5446
1.905 3.058 1.707 2791
1.984 3.185 1.760 6738
2.057 3.302 1.820 3961
2.056 3.300 1.806 5211
1.983 3.183 1.746 4998
2.082 3.341 1.813 5637
1.986 3.187 1.735 3493
2.084 3.346 1.802 6442
1.988 3.191 1.724 2379
2.087 3.350 1.791 5946
1.998 3.207 1.720 1600
2.089 3.354 1.779 4593
2.163 3.471 1.838 1278
2.096 3.364 1.771 5514
2.169 3.482 1.829 1720
2.110 3.387 1.769 8763
2.183 3.505 1.826 2899
2.116 3.397 1.760 8475
2.190 3.515 1.817 3376
2.127 3.413 1.755 5259
2.227 3.575 1.832 2702
2.230 3.579 1.820 4238
2.141 3.436 1.752 4196
2.221 3.565 1.799 4395
2.143 3.440 1.740 4314
2.192 3.519 1.764 5187
2.266 3.638 1.819 2695
2.238 3.592 1.784 5489
2.164 3.473 1.729 4095
2.244 3.602 1.774 4974
2.170 3.483 1.720 2858
2.243 3.600 1.759 5673
2.375 3.813 1.856 2144
2.257 3.623 1.755 7358
2.370 3.805 1.838 2665
2.263 3.633 1.746 5782
2.365 3.796 1.819 2819
2.305 3.700 1.762 5853
2.379 3.819 1.815 3687
2.311 3.710 1.752 5424
2.386 3.830 1.804 4879
2.388 3.834 1.791 4462
2.463 3.953 1.844 3023
2.458 3.945 1.825 5294
2.383 3.825 1.773 4723
2.393 3.842 1.765 7038
2.468 3.962 1.817 4307
2.396 3.846 1.752 6414
2.494 4.004 1.819 2769
2.402 3.856 1.742 3659
2.501 4.014 1.808 3532
2.504 4.019 1.795 4337
2.618 4.202 1.871 2470
2.514 4.035 1.786 4622
2.625 4.213 1.859 2990
2.524 4.052 1.778 6532
2.619 4.204 1.840 2842
2.531 4.062 1.766 7948
2.610 4.190 1.818 3370
2.537 4.073 1.755 7069
2.613 4.194 1.804 3777
2.540 4.077 1.741 4865
2.702 4.338 1.845 3787
2.677 4.297 1.813 6087
2.538 4.074 1.725 2246
2.676 4.295 1.796 5754
2.751 4.416 1.843 2215
2.738 4.395 1.818 4007
2.647 4.248 1.761 3242
2.745 4.406 1.805 2605
2.820 4.527 1.852 1671
2.739 4.397 1.785 2566
2.815 4.518 1.831 1942
2.754 4.420 1.778 4068
2.846 4.567 1.833 2325
2.764 4.437 1.767 6151
2.848 4.572 1.817 4093
2.855 4.582 1.804 4325
2.767 4.441 1.752 3935
2.857 4.586 1.788 2898
2.933 4.708 1.833 1918
2.860 4.590 1.773 2415
2.936 4.712 1.817 2218
2.862 4.594 1.757 4235
2.987 4.794 1.828 1541
2.861 4.592 1.739 3879
2.997 4.811 1.816 1858
3.040 4.879 1.822 2196
2.859 4.589 1.721 1592
3.095 4.967 1.835 2270
3.010 4.832 1.788 1835
3.113 4.997 1.826 2359
3.029 4.862 1.780 2193
3.035 4.872 1.766 2486
3.132 5.027 1.818 2380
3.151 5.057 1.810 3089
3.050 4.896 1.756 1773
3.161 5.074 1.797 3343
3.085 4.952 1.756 2035
3.180 5.104 1.788 2909
3.103 4.981 1.748 2226
3.207 5.147 1.783 4038
3.320 5.329 1.841 1851
3.226 5.177 1.774 2989
3.343 5.366 1.833 2601
3.434 5.513 1.860 3676
3.333 5.350 1.809 3094
3.437 5.517 1.841 4204
3.328 5.341 1.787 2656
3.488 5.599 1.846 3086
3.411 5.475 1.808 2208
3.454 5.545 1.809 3017
3.612 5.798 1.887 1967
3.615 5.803 1.867 3280
3.457 5.549 1.791 3084
3.618 5.807 1.847 4093
3.532 5.670 1.806 2847
3.535 5.674 1.787 3486
3.628 5.824 1.831 2766
3.538 5.678 1.768 2268
3.655 5.868 1.822 2185
3.813 6.120 1.873 2133
3.666 5.885 1.806 1724
3.807 6.111 1.849 2420
3.905 6.268 1.893 1730
3.981 6.390 1.904 1621
3.806 6.109 1.826 1516
3.984 6.394 1.882 1845
3.890 6.244 1.841 1416
3.986 6.399 1.860 1716
4.137 6.641 1.926 1430
4.115 6.606 1.893 1376
4.038 6.481 1.860 1150
4.277 6.866 1.938 1194
4.433 7.115 2.003 1058
4.154 6.667 1.861 1538
4.362 7.002 1.948 1356
4.365 7.006 1.924 1572
4.471 7.177 1.968 1549
4.363 7.004 1.899 1571
4.462 7.162 1.939 1366
4.714 7.567 2.014 1399
4.628 7.429 1.980 1392
4.799 7.703 2.020 1709
4.721 7.578 1.990 1685
4.802 7.708 1.994 2710
4.724 7.583 1.964 1455
4.805 7.712 1.968 3705
4.698 7.541 1.927 1657
4.804 7.710 1.940 3652
4.705 7.552 1.903 1563
4.810 7.721 1.915 2588
4.975 7.985 1.976 1749
4.830 7.752 1.895 2461
5.039 8.089 1.971 2260
5.034 8.080 1.941 3084
4.828 7.750 1.867 2145
5.016 8.051 1.906 3312
4.823 7.741 1.837 2144
5.299 8.505 1.976 3050
5.019 8.056 1.878 2792
5.301 8.509 1.946 3736
4.997 8.020 1.842 3146
5.304 8.514 1.917 3617
5.617 9.017 2.023 2694
5.307 8.518 1.888 3586
5.785 9.286 2.047 2331
5.314 8.529 1.860 3089
5.788 9.291 2.015 2319
5.320 8.540 1.833 2077
5.791 9.295 1.983 1812
6.013 9.651 2.020 1935
5.319 8.538 1.802 1777
6.020 9.662 1.988 4097
5.321 8.542 1.773 1945
6.022 9.667 1.955 4800
6.287 10.092 2.035 2403
6.025 9.671 1.922 3542
6.286 10.090 1.999 3532
6.293 10.101 1.966 4204
6.032 9.682 1.890 3676
6.031 9.680 1.856 3993
6.296 10.105 1.931 3060
6.033 9.684 1.823 2328
6.307 10.123 1.899 2147
6.313 10.134 1.866 2310
6.947 11.151 2.040 1685
6.954 11.163 2.003 1691
6.316 10.138 1.831 1507
6.953 11.161 1.963 1133
7.413 11.899 2.084 856
6.997 11.232 1.936 948
6.325 10.153 1.762 766
6.996 11.229 1.896 837
1.234 1.969 1.811 5214
1.237 1.973 1.805 10428
1.172 1.870 1.716 1111
1.239 1.977 1.798 10428
1.175 1.874 1.709 1111
1.252 1.998 1.805 11278
1.188 1.894 1.717 1572
1.258 2.007 1.803 13286
1.323 2.111 1.891 1184
1.264 2.017 1.801 13361
1.329 2.121 1.888 1456
1.270 2.026 1.799 13715
1.335 2.130 1.886 2095
1.273 2.031 1.792 13715
1.338 2.135 1.879 2343
1.296 2.068 1.812 11154
1.306 2.083 1.814 14352
1.240 1.978 1.728 1678
1.308 2.087 1.807 14705
1.242 1.982 1.722 1271
1.311 2.091 1.800 15058
1.376 2.196 1.886 1615
1.317 2.101 1.798 11545
1.383 2.206 1.883 2045
1.323 2.110 1.795 8509
1.389 2.216 1.880 2245
1.325 2.114 1.788 8509
1.392 2.220 1.872 2245
1.335 2.130 1.790 7215
1.401 2.235 1.873 1763
1.351 2.156 1.800 7062
1.285 2.050 1.717 941
1.350 2.154 1.788 5465
1.417 2.261 1.871 1532
1.371 2.187 1.803 5136
1.377 2.196 1.800 7734
1.383 2.206 1.797 10569
1.450 2.313 1.879 750
1.385 2.210 1.789 9514
1.452 2.317 1.871 966
1.388 2.214 1.782 8458
1.455 2.321 1.863 1182
1.390 2.218 1.774 7046
1.458 2.326 1.855 1645
1.425 2.273 1.805 6401
1.357 2.166 1.724 1061
1.428 2.277 1.797 5821
1.444 2.304 1.806 5613
1.377 2.196 1.727 1676
1.429 2.280 1.778 4682
1.424 2.272 1.762 4383
1.492 2.381 1.841 1753
1.423 2.271 1.750 4589
1.491 2.379 1.829 3130
1.483 2.366 1.808 5014
1.415 2.258 1.730 3952
1.482 2.365 1.796 6233
1.414 2.256 1.718 2414
1.485 2.369 1.788 7617
1.416 2.260 1.711 1473
1.487 2.373 1.780 7324
1.419 2.263 1.703 1181
1.497 2.388 1.780 7226
1.428 2.279 1.703 1713
1.496 2.387 1.768 7499
1.565 2.497 1.844 1191
1.495 2.385 1.756 7265
1.564 2.495 1.832 1520
1.497 2.389 1.748 6677
1.570 2.505 1.827 1983
1.504 2.399 1.744 5229
1.573 2.509 1.819 2907
1.539 2.455 1.771 5681
1.538 2.453 1.759 5293
1.607 2.564 1.833 1414
1.529 2.440 1.739 5770
1.599 2.551 1.813 2819
1.576 2.514 1.777 4859
1.506 2.403 1.703 2230
1.578 2.518 1.769 6564
1.648 2.629 1.842 1136
1.584 2.528 1.764 7181
1.654 2.639 1.837 2005
1.646 2.626 1.816 5374
1.576 2.514 1.744 4701
1.645 2.624 1.804 7766
1.575 2.512 1.732 3053
1.647 2.628 1.795 8074
1.577 2.516 1.723 3069
1.654 2.638 1.790 7336
1.583 2.526 1.718 3381
1.664 2.654 1.788 6985
1.593 2.542 1.717 3894
1.633 2.605 1.746 6626
1.703 2.717 1.816 2337
1.639 2.615 1.741 6491
1.710 2.727 1.811 2404
1.645 2.625 1.736 5842
1.716 2.737 1.805 2895
1.681 2.682 1.760 4899
1.752 2.795 1.829 1873
1.687 2.692 1.754 5316
1.758 2.805 1.823 1957
1.705 2.720 1.759 5972
1.776 2.833 1.828 978
1.741 2.778 1.783 7476
1.670 2.664 1.714 1824
1.751 2.794 1.780 8947
1.680 2.680 1.712 2098
1.750 2.792 1.767 7580
1.679 2.678 1.700 2232
1.768 2.820 1.772 9505
1.696 2.706 1.705 2989
1.774 2.830 1.766 13640
1.702 2.716 1.699 4348
1.776 2.834 1.756 14808
1.705 2.719 1.690 4422
1.794 2.862 1.760 12087
1.722 2.747 1.695 4507
1.808 2.884 1.761 9932
1.880 2.999 1.827 2578
1.825 2.912 1.765 6201
1.753 2.797 1.700 2272
1.839 2.934 1.765 6368
1.767 2.819 1.701 2953
1.846 2.944 1.759 7053
1.918 3.060 1.823 2852
1.886 3.009 1.782 8123
1.814 2.894 1.719 3448
1.893 3.019 1.776 10211
1.820 2.904 1.712 3059
1.887 3.011 1.759 9234
1.815 2.896 1.696 2473
1.882 3.003 1.742 5890
1.955 3.119 1.805 3558
1.961 3.129 1.797 4989
1.877 2.995 1.725 2635
1.964 3.133 1.787 3397
1.891 3.017 1.725 2559
1.917 3.058 1.734 3936
2.020 3.223 1.821 2826
1.919 3.062 1.724 4487
2.027 3.233 1.814 2610
1.991 3.176 1.771 5577
1.918 3.059 1.710 3495
1.997 3.186 1.763 7052
2.070 3.303 1.823 3746
2.003 3.196 1.755 5882
2.077 3.313 1.815 4508
2.087 3.330 1.810 5660
1.994 3.182 1.735 4154
2.093 3.340 1.802 6498
1.997 3.186 1.724 2529
2.096 3.344 1.791 6140
2.003 3.196 1.717 1543
2.099 3.348 1.779 4631
2.172 3.465 1.838 1312
2.105 3.358 1.771 5114
2.179 3.476 1.829 1722
2.119 3.381 1.769 8534
2.193 3.499 1.826 2626
2.122 3.385 1.757 8484
2.196 3.503 1.814 3288
2.132 3.401 1.752 5062
2.237 3.569 1.832 2623
2.154 3.436 1.755 4433
2.240 3.573 1.820 4100
2.153 3.434 1.740 4212
2.231 3.559 1.799 3929
2.202 3.513 1.764 4813
2.276 3.631 1.819 2438
2.251 3.592 1.787 5254
2.177 3.473 1.731 4189
2.262 3.608 1.780 5185
2.180 3.477 1.720 2888
2.264 3.612 1.768 5796
2.386 3.806 1.856 2050
2.267 3.616 1.755 7748
2.381 3.798 1.838 2526
2.269 3.620 1.743 6237
2.379 3.796 1.822 2851
2.319 3.700 1.764 6281
2.394 3.819 1.817 3631
2.325 3.710 1.754 5025
2.400 3.829 1.807 4342
2.399 3.827 1.791 4038
2.474 3.947 1.844 3212
2.469 3.938 1.825 5521
2.394 3.819 1.773 4876
2.404 3.835 1.765 6996
2.479 3.955 1.817 4778
2.407 3.839 1.752 5477
2.505 3.997 1.819 3221
2.516 4.014 1.811 3891
2.417 3.856 1.744 2852
2.519 4.018 1.797 4718
2.626 4.189 1.868 2385
2.525 4.028 1.786 5260
2.632 4.199 1.857 2904
2.536 4.045 1.778 6688
2.635 4.204 1.842 2481
2.542 4.055 1.766 7897
2.669 4.258 1.849 2962
2.549 4.066 1.755 6860
2.624 4.186 1.804 4149
2.551 4.070 1.741 4414
2.627 4.191 1.789 3937
2.689 4.290 1.813 5831
2.550 4.067 1.725 1928
2.692 4.294 1.798 5438
2.768 4.415 1.845 2051
2.750 4.388 1.818 4281
2.658 4.241 1.761 3077
2.761 4.404 1.808 2693
2.837 4.526 1.854 1781
2.803 4.472 1.817 2839
2.727 4.351 1.771 2122
2.770 4.419 1.780 3746
2.846 4.540 1.826 1754
2.772 4.423 1.765 5109
2.861 4.564 1.817 3285
2.863 4.568 1.802 3445
2.775 4.427 1.750 3250
2.942 4.694 1.830 2769
2.834 4.521 1.767 2753
2.945 4.698 1.814 3455
2.852 4.550 1.761 1688
2.871 4.580 1.755 3075
2.947 4.702 1.798 2320
2.869 4.578 1.737 3379
3.006 4.796 1.814 2529
3.013 4.807 1.800 2457
3.098 4.942 1.847 1810
3.104 4.952 1.832 2015
3.016 4.811 1.783 1829
3.046 4.860 1.782 2028
3.127 4.989 1.826 1967
3.057 4.877 1.770 2782
3.154 5.032 1.822 2258
3.165 5.049 1.810 3051
3.064 4.887 1.756 2338
3.175 5.066 1.797 3409
3.098 4.943 1.756 2142
3.194 5.096 1.788 2999
3.117 4.973 1.748 2243
3.229 5.152 1.787 3475
3.152 5.029 1.747 1563
3.244 5.175 1.776 2981
3.357 5.356 1.833 2630
3.352 5.348 1.811 3139
3.454 5.510 1.862 3085
3.456 5.514 1.843 4249
3.350 5.345 1.791 2419
3.471 5.537 1.830 3871
3.548 5.661 1.868 2383
3.474 5.542 1.811 3424
3.551 5.665 1.849 2387
3.627 5.786 1.865 3345
3.476 5.546 1.793 3095
3.634 5.797 1.847 4238
3.552 5.667 1.808 2974
3.551 5.664 1.787 3304
3.644 5.814 1.831 2970
3.672 5.857 1.822 2087
3.553 5.669 1.768 2073
3.825 6.103 1.871 2002
3.691 5.888 1.810 1743
3.824 6.101 1.849 2629
3.918 6.251 1.891 1795
3.823 6.098 1.826 1868
3.998 6.379 1.904 1585
3.948 6.298 1.859 1819
4.050 6.462 1.904 1488
3.914 6.244 1.821 1433
4.004 6.388 1.860 1311
4.134 6.595 1.893 1425
4.056 6.470 1.860 1172
4.456 7.109 2.005 1236
4.140 6.605 1.872 1093
4.381 6.990 1.948 1691
4.172 6.656 1.861 1420
4.491 7.164 1.968 1763
4.384 6.994 1.924 1644
4.383 6.992 1.899 1463
4.485 7.156 1.940 1451
4.587 7.318 1.955 1415
4.813 7.679 2.045 1225
4.820 7.690 2.020 1846
4.742 7.565 1.990 1235
4.823 7.695 1.994 2686
4.708 7.511 1.950 1388
4.826 7.699 1.968 3355
4.715 7.522 1.925 1701
4.825 7.697 1.940 2995
4.998 7.973 2.005 1729
4.997 7.971 1.976 2348
4.827 7.701 1.913 2209
4.999 7.976 1.949 2749
4.843 7.726 1.892 2050
5.015 8.000 1.926 3024
4.841 7.723 1.864 2179
5.038 8.037 1.906 3849
4.840 7.721 1.836 2206
5.322 8.490 1.976 3636
5.037 8.035 1.877 3401
5.325 8.495 1.946 4688
5.019 8.006 1.842 4170
5.328 8.499 1.917 4573
5.025 8.017 1.816 3334
5.330 8.504 1.888 4515
5.811 9.270 2.047 2382
5.337 8.515 1.860 4159
5.814 9.275 2.015 2531
5.340 8.519 1.831 2975
5.821 9.286 1.984 2171
5.342 8.523 1.802 2484
5.807 9.264 1.947 1845
6.046 9.646 1.988 3331
5.345 8.527 1.773 2644
6.049 9.650 1.955 4096
6.311 10.068 2.034 2718
6.309 10.066 1.998 3999
6.056 9.661 1.923 3055
6.321 10.083 1.966 4516
6.059 9.666 1.890 3284
6.057 9.663 1.856 3661
6.323 10.088 1.931 3249
6.334 10.106 1.899 2196
6.060 9.668 1.823 2066
6.341 10.117 1.866 2327
6.982 11.139 2.041 1806
6.985 11.143 2.003 1785
6.344 10.121 1.831 1545
6.984 11.141 1.963 1232
6.351 10.132 1.797 897
7.028 11.212 1.936 1148
6.912 11.026 1.906 878
7.027 11.210 1.896 1027
6.910 11.024 1.867 759
7.029 11.214 1.858 849
1.239 1.966 1.811 5298
1.241 1.970 1.805 10597
1.177 1.868 1.716 1168
1.244 1.975 1.798 10597
1.179 1.872 1.709 1168
1.257 1.995 1.805 11552
1.192 1.892 1.717 1574
1.263 2.004 1.803 14038
1.328 2.108 1.891 1111
1.269 2.014 1.801 14074
1.334 2.118 1.888 1413
1.275 2.024 1.799 14431
1.340 2.127 1.886 2036
1.277 2.028 1.792 14431
1.343 2.132 1.879 2274
1.294 2.054 1.803 11764
1.359 2.158 1.890 1167
1.310 2.080 1.814 14624
1.244 1.975 1.728 1786
1.313 2.084 1.807 14773
1.247 1.979 1.722 1347
1.315 2.088 1.800 14922
1.382 2.193 1.886 1559
1.322 2.098 1.798 11353
1.388 2.203 1.883 1965
1.331 2.113 1.800 8481
1.397 2.218 1.884 1658
1.334 2.117 1.792 8481
1.400 2.222 1.877 1650
1.343 2.132 1.794 7319
1.410 2.238 1.878 1327
1.356 2.153 1.800 7508
1.290 2.047 1.717 1050
1.366 2.168 1.802 5752
1.299 2.062 1.718 845
1.376 2.183 1.803 5328
1.382 2.193 1.800 7771
1.388 2.203 1.797 10448
1.321 2.096 1.715 768
1.390 2.207 1.789 9253
1.458 2.314 1.871 801
1.393 2.211 1.782 8059
1.460 2.318 1.863 951
1.396 2.215 1.774 7015
1.463 2.322 1.855 1490
1.405 2.230 1.775 6095
1.473 2.338 1.856 1298
1.429 2.268 1.793 5030
1.453 2.307 1.811 4986
1.385 2.199 1.731 2192
1.431 2.271 1.774 4123
1.499 2.379 1.853 989
1.426 2.263 1.758 4147
1.494 2.372 1.837 2164
1.429 2.267 1.750 4412
1.497 2.376 1.829 2917
1.489 2.363 1.808 4882
1.420 2.254 1.730 3933
1.488 2.361 1.796 5922
1.419 2.252 1.718 2393
1.490 2.365 1.788 7049
1.422 2.256 1.711 1424
1.493 2.369 1.780 6428
1.424 2.260 1.703 1114
1.503 2.385 1.780 5865
1.434 2.276 1.703 1586
1.498 2.378 1.764 6657
1.567 2.487 1.840 1220
1.500 2.382 1.756 7002
1.570 2.491 1.832 1342
1.503 2.386 1.748 6497
1.572 2.496 1.823 1844
1.509 2.395 1.744 5298
1.579 2.506 1.819 2722
1.545 2.452 1.771 5874
1.543 2.450 1.759 5736
1.613 2.560 1.833 1329
1.535 2.436 1.739 6279
1.605 2.547 1.813 2549
1.582 2.510 1.777 4649
1.512 2.399 1.703 2242
1.588 2.520 1.772 6329
1.518 2.409 1.699 1240
1.594 2.530 1.768 7054
1.664 2.641 1.841 1912
1.596 2.534 1.759 5147
1.667 2.646 1.832 3817
1.651 2.620 1.804 7308
1.580 2.509 1.732 2740
1.650 2.619 1.791 7626
1.579 2.507 1.719 2513
1.656 2.628 1.786 7011
1.585 2.516 1.715 2994
1.670 2.650 1.788 6774
1.599 2.538 1.717 3829
1.639 2.601 1.746 6833
1.710 2.713 1.816 2441
1.645 2.611 1.741 6846
1.716 2.723 1.811 2542
1.651 2.621 1.736 6094
1.722 2.734 1.805 2836
1.687 2.678 1.760 5364
1.758 2.791 1.829 1770
1.694 2.688 1.754 5974
1.765 2.801 1.823 1913
1.711 2.716 1.759 6299
1.782 2.829 1.828 930
1.744 2.768 1.779 7696
1.672 2.654 1.711 1936
1.754 2.784 1.777 8728
1.682 2.670 1.709 1825
1.756 2.788 1.767 6928
1.685 2.674 1.700 2067
1.778 2.822 1.775 8584
