-1.545 5.894 0.695 776
-1.502 5.728 0.662 6694
-1.464 5.583 0.648 967
-1.502 5.729 0.645 5947
-1.464 5.584 0.632 1082
-1.485 5.662 0.621 6857
-1.523 5.807 0.634 890
-1.485 5.664 0.605 6625
-1.485 5.665 0.588 4955
-1.447 5.520 0.576 1525
-1.457 5.559 0.562 3759
-1.502 5.727 0.575 3103
-1.458 5.560 0.546 5021
-1.500 5.721 0.558 2679
-1.460 5.569 0.530 4368
-1.498 5.714 0.540 2588
-1.462 5.578 0.514 2896
-1.500 5.723 0.523 1453
-1.469 5.602 0.498 2194
-1.431 5.457 0.489 790
-1.469 5.603 0.482 2575
-1.431 5.457 0.473 1015
-1.469 5.604 0.465 2468
-1.431 5.458 0.456 1334
-1.441 5.498 0.442 2429
-1.479 5.643 0.450 1305
-1.444 5.506 0.426 2620
-1.482 5.651 0.434 1007
-1.444 5.507 0.410 3709
-1.482 5.652 0.417 903
-1.446 5.515 0.394 4231
-1.408 5.370 0.387 831
-1.448 5.524 0.377 3712
-1.410 5.378 0.371 1175
-1.446 5.517 0.361 2480
-1.408 5.371 0.355 1105
-1.432 5.464 0.342 2774
-1.433 5.464 0.326 2323
-1.394 5.319 0.321 838
-1.411 5.380 0.307 1847
-1.411 5.381 0.291 1896
-1.407 5.366 0.274 1987
-1.401 5.343 0.258 2799
-1.401 5.344 0.242 3315
-1.395 5.321 0.225 3591
-1.393 5.313 0.209 4374
-1.395 5.321 0.194 3735
-1.395 5.321 0.178 3149
-1.395 5.322 0.162 2173
-1.377 5.253 0.146 1758
-1.357 5.176 0.130 1820
-1.357 5.176 0.115 1663
-1.357 5.176 0.099 1507
-1.357 5.176 0.084 2246
-1.361 5.191 0.068 3043
-1.359 5.183 0.053 2971
-1.355 5.167 0.038 2952
-1.349 5.144 0.023 3334
-1.347 5.136 0.007 3941
-1.346 5.136 -0.008 5169
-1.346 5.135 -0.023 6398
-1.344 5.127 -0.038 5341
-1.334 5.088 -0.052 4594
-1.330 5.073 -0.067 3849
-1.328 5.064 -0.082 3353
-1.322 5.041 -0.096 3495
-1.321 5.040 -0.111 3904
-1.319 5.032 -0.125 3730
-1.317 5.023 -0.140 3650
-1.315 5.015 -0.154 2815
-1.315 5.014 -0.169 2031
-1.294 4.937 -0.179 1977
-1.296 4.943 -0.195 2595
-1.298 4.950 -0.210 2819
-1.300 4.957 -0.225 3108
-1.299 4.956 -0.240 3108
-1.299 4.954 -0.255 2303
-1.295 4.938 -0.268 1553
-1.292 4.929 -0.283 1203
-1.280 4.882 -0.293 1115
-1.286 4.904 -0.310 1231
-1.285 4.903 -0.325 1384
-1.285 4.901 -0.339 1384
-1.285 4.900 -0.354 1319
-1.284 4.898 -0.368 1254
-0.583 2.237 1.802 2064
-0.584 2.241 1.795 4129
-0.614 2.359 1.884 1336
-0.585 2.246 1.789 4129
-0.616 2.364 1.877 2672
-0.615 2.362 1.866 3841
-0.585 2.244 1.777 3302
-0.618 2.373 1.863 4923
-0.587 2.255 1.775 2969
-0.611 2.347 1.833 5598
-0.642 2.466 1.921 923
-0.611 2.346 1.822 6963
-0.650 2.496 1.932 1567
-0.612 2.350 1.815 6963
-0.651 2.501 1.924 2371
-0.613 2.355 1.808 5734
-0.644 2.474 1.894 2609
-0.636 2.442 1.860 4848
-0.605 2.322 1.774 1833
-0.637 2.446 1.852 6670
-0.606 2.327 1.767 1482
-0.638 2.451 1.845 8491
-0.670 2.571 1.930 1443
-0.643 2.469 1.847 7375
-0.612 2.349 1.762 1221
-0.646 2.480 1.844 6955
-0.677 2.600 1.929 1876
-0.647 2.485 1.837 6955
-0.679 2.605 1.921 2706
-0.650 2.496 1.834 8063
-0.682 2.617 1.918 2953
-0.651 2.501 1.826 9190
-0.683 2.622 1.910 3212
-0.671 2.576 1.867 9495
-0.639 2.454 1.784 5562
-0.670 2.574 1.855 12062
-0.639 2.452 1.772 3667
-0.673 2.585 1.852 11996
-0.642 2.464 1.770 2919
-0.675 2.590 1.844 12013
-0.643 2.468 1.762 1537
-0.676 2.595 1.837 9225
-0.708 2.717 1.918 1246
-0.674 2.587 1.820 6785
-0.706 2.709 1.902 2603
-0.697 2.676 1.868 9686
-0.665 2.553 1.787 2126
-0.700 2.687 1.864 13398
-0.668 2.564 1.784 2231
-0.703 2.698 1.861 13159
-0.671 2.575 1.780 2437
-0.706 2.710 1.857 13220
-0.674 2.586 1.777 2398
-0.705 2.708 1.845 10657
-0.673 2.584 1.765 1277
-0.703 2.700 1.828 8303
-0.735 2.824 1.907 880
-0.704 2.704 1.820 10115
-0.737 2.829 1.899 1140
-0.706 2.709 1.812 11926
-0.738 2.833 1.891 1400
-0.712 2.734 1.817 14341
-0.744 2.858 1.894 807
-0.713 2.738 1.808 17720
-0.746 2.863 1.886 1036
-0.716 2.750 1.804 13685
-0.749 2.875 1.882 1382
-0.717 2.754 1.796 9691
-0.750 2.879 1.873 2000
-0.722 2.772 1.796 8238
-0.755 2.898 1.872 1984
-0.739 2.836 1.824 8587
-0.706 2.711 1.748 1435
-0.743 2.854 1.823 7956
-0.711 2.728 1.748 1582
-0.745 2.859 1.815 7250
-0.712 2.733 1.740 1308
-0.741 2.844 1.795 8048
-0.744 2.855 1.790 7171
-0.748 2.873 1.790 6943
-0.753 2.891 1.789 6159
-0.756 2.902 1.784 5893
-0.805 3.090 1.892 809
-0.757 2.907 1.775 5900
-0.804 3.088 1.879 1448
-0.760 2.918 1.771 5972
-0.806 3.093 1.870 2430
-0.765 2.936 1.770 6428
-0.809 3.105 1.865 2771
-0.766 2.941 1.761 6297
-0.810 3.109 1.855 3463
-0.771 2.959 1.760 6875
-0.815 3.128 1.854 4509
-0.774 2.970 1.755 7635
-0.819 3.146 1.852 5208
-0.775 2.975 1.746 6971
-0.821 3.151 1.842 4963
-0.778 2.986 1.741 4926
-0.824 3.162 1.837 4772
-0.821 3.154 1.820 3800
-0.779 2.991 1.732 3517
-0.840 3.226 1.847 3735
-0.780 2.995 1.723 3409
-0.840 3.224 1.834 4516
-0.783 3.007 1.718 2646
-0.841 3.229 1.824 4940
-0.782 3.004 1.705 1958
-0.844 3.241 1.818 6834
-0.878 3.370 1.887 2776
-0.845 3.245 1.809 8237
-0.879 3.375 1.877 3646
-0.847 3.250 1.799 8387
-0.880 3.380 1.867 2875
-0.848 3.255 1.790 7939
-0.882 3.385 1.857 2790
-0.847 3.253 1.776 6760
-0.881 3.383 1.843 5801
-0.882 3.388 1.833 8394
-0.848 3.257 1.767 5971
-0.884 3.393 1.823 10688
-0.844 3.241 1.747 4772
-0.885 3.397 1.813 12405
-0.836 3.211 1.720 4456
-0.884 3.395 1.799 12212
-0.850 3.264 1.734 4050
-0.887 3.407 1.793 11053
-0.853 3.275 1.728 3988
-0.887 3.404 1.779 6825
-0.852 3.273 1.715 2769
-0.879 3.374 1.752 4196
-0.980 3.763 1.941 1220
-0.880 3.379 1.742 2996
-0.994 3.816 1.953 2155
-0.992 3.808 1.935 3700
-0.890 3.418 1.749 2150
-0.991 3.806 1.920 4907
-0.891 3.423 1.739 2627
-1.007 3.867 1.935 4245
-0.894 3.434 1.732 3424
-1.008 3.872 1.924 4844
-0.899 3.453 1.728 3473
-1.022 3.926 1.935 5467
-0.904 3.471 1.724 2784
-1.027 3.945 1.930 7273
-0.907 3.483 1.717 2684
-1.029 3.950 1.918 6232
-0.908 3.487 1.707 2500
-1.023 3.927 1.893 6019
-1.057 4.060 1.954 2103
-1.051 4.037 1.929 4969
-1.017 3.903 1.869 4515
-1.056 4.056 1.923 5623
-1.020 3.915 1.861 2659
-1.061 4.075 1.917 4994
-1.019 3.913 1.846 1968
-1.068 4.101 1.914 5370
-1.103 4.235 1.973 2013
-1.057 4.057 1.881 5786
-1.092 4.191 1.939 3455
-1.091 4.189 1.924 5741
-1.054 4.048 1.863 4027
-1.092 4.194 1.911 8433
-1.052 4.038 1.844 2489
-1.092 4.192 1.896 8314
-1.057 4.057 1.838 1672
-1.095 4.204 1.886 5989
-1.130 4.339 1.943 1846
-1.118 4.294 1.909 6297
-1.083 4.159 1.853 2480
-1.122 4.306 1.899 5600
-1.086 4.171 1.843 1429
-1.132 4.347 1.901 7366
-1.167 4.482 1.956 1259
-1.135 4.359 1.891 9749
-1.171 4.494 1.946 1942
-1.140 4.378 1.884 8504
-1.176 4.514 1.938 2017
-1.142 4.383 1.871 5656
-1.177 4.519 1.925 2385
-1.141 4.381 1.855 3757
-1.176 4.517 1.909 3238
-1.176 4.514 1.892 4091
-1.140 4.378 1.839 2007
-1.173 4.505 1.873 3554
-1.216 4.670 1.937 2521
-1.171 4.496 1.854 4850
-1.220 4.682 1.926 4295
-1.176 4.515 1.846 6745
-1.223 4.694 1.915 6135
-1.226 4.707 1.904 5931
-1.181 4.534 1.838 5784
-1.227 4.712 1.890 5970
-1.182 4.539 1.825 2877
-1.251 4.803 1.908 6012
-1.215 4.666 1.857 1918
-1.254 4.815 1.896 6495
-1.290 4.952 1.947 2940
-1.254 4.813 1.879 5020
-1.289 4.950 1.929 4529
-1.274 4.890 1.891 4077
-1.309 5.027 1.941 2439
-1.292 4.960 1.900 5444
-1.256 4.823 1.850 3055
-1.295 4.972 1.887 6711
-1.259 4.835 1.838 4410
-1.298 4.984 1.875 5028
-1.262 4.847 1.827 4119
-1.300 4.989 1.860 4492
-1.335 5.127 1.908 2566
-1.320 5.067 1.870 4690
-1.356 5.205 1.918 1768
-1.317 5.057 1.850 3081
-1.353 5.195 1.897 2936
-1.351 5.186 1.877 3443
-1.387 5.324 1.924 2401
-1.396 5.358 1.918 2593
-1.346 5.169 1.854 1987
-1.397 5.363 1.902 3417
-1.361 5.225 1.856 1497
-1.398 5.368 1.886 3123
-1.362 5.230 1.840 1401
-1.405 5.395 1.877 2856
-1.441 5.534 1.922 1496
-1.445 5.546 1.908 2705
-1.408 5.407 1.863 2369
-1.450 5.566 1.896 3337
-1.413 5.427 1.851 2274
-1.451 5.571 1.879 3971
-1.415 5.432 1.835 2269
-1.450 5.568 1.860 3541
-1.506 5.781 1.926 2032
-1.511 5.801 1.914 2046
-1.444 5.544 1.834 1973
-1.520 5.835 1.905 1995
-1.558 5.982 1.950 1434
-1.584 6.083 1.961 2528
-1.525 5.855 1.892 1896
-1.565 6.007 1.919 2452
-1.611 6.184 1.972 1562
-1.610 6.181 1.951 2137
-1.564 6.005 1.899 1896
-1.613 6.194 1.935 2619
-1.650 6.334 1.975 1813
-1.622 6.228 1.925 3119
-1.659 6.369 1.965 2304
-1.645 6.315 1.929 3781
-1.602 6.152 1.883 2141
-1.646 6.320 1.910 3170
-1.710 6.564 1.979 1948
-1.667 6.399 1.912 3554
-1.713 6.576 1.961 2603
-1.787 6.862 2.019 3234
-1.668 6.404 1.893 3061
-1.785 6.853 1.995 3308
-1.714 6.579 1.920 2928
-1.775 6.814 1.962 3898
-1.811 6.955 2.000 2578
-1.778 6.826 1.944 3252
-1.815 6.967 1.981 1549
-1.802 6.920 1.947 3767
-1.748 6.712 1.892 1983
-1.804 6.925 1.926 4977
-1.752 6.725 1.874 3880
-1.755 6.737 1.856 4212
-1.809 6.945 1.909 3807
-1.758 6.749 1.837 4508
-1.719 6.601 1.800 1444
-1.759 6.754 1.817 3914
-1.720 6.605 1.780 1937
-1.716 6.588 1.755 3900
-1.782 6.841 1.817 3011
-1.719 6.600 1.737 5051
-1.777 6.823 1.791 3156
-1.716 6.589 1.713 4474
-1.771 6.798 1.764 2869
-1.713 6.579 1.690 6030
-1.750 6.720 1.724 2470
-1.718 6.598 1.674 5841
-1.755 6.740 1.707 2013
-1.723 6.617 1.658 4525
-1.673 6.423 1.613 1522
-1.727 6.629 1.639 3894
-1.672 6.419 1.592 2191
-1.673 6.423 1.573 3898
-1.618 6.214 1.525 3505
-1.618 6.210 1.505 4651
-1.676 6.435 1.555 3540
-1.619 6.214 1.487 4308
-1.681 6.454 1.539 2286
-1.680 6.450 1.518 3503
-1.623 6.233 1.471 3291
-1.675 6.432 1.494 5482
-1.624 6.237 1.452 4190
-1.627 6.248 1.435 8730
-1.676 6.436 1.475 5579
-1.628 6.251 1.417 10688
-1.675 6.432 1.454 5137
-1.621 6.225 1.392 9476
-1.676 6.435 1.435 5058
-1.620 6.221 1.372 13354
-1.677 6.439 1.415 3972
-1.617 6.209 1.350 13960
-1.678 6.443 1.396 2485
-1.618 6.213 1.332 10595
-1.679 6.446 1.377 1613
-1.621 6.224 1.314 7223
-1.680 6.450 1.357 1248
-1.624 6.234 1.297 7806
-1.685 6.468 1.341 936
-1.623 6.230 1.277 7865
-1.624 6.233 1.259 10417
-1.626 6.244 1.241 13333
-1.627 6.247 1.223 10667
-1.590 6.104 1.197 1264
-1.626 6.243 1.203 8641
-1.587 6.091 1.177 2051
-1.627 6.246 1.184 7444
-1.585 6.087 1.157 2393
-1.627 6.248 1.165 4919
-1.590 6.105 1.141 3179
-1.589 6.100 1.122 5376
-1.626 6.244 1.145 3163
-1.588 6.095 1.102 7655
-1.625 6.239 1.125 2739
-1.586 6.090 1.083 7273
-1.624 6.234 1.105 2476
-1.589 6.100 1.066 5874
-1.626 6.244 1.088 2274
-1.597 6.133 1.052 5167
-1.560 5.989 1.031 2542
-1.596 6.128 1.033 4112
-1.559 5.984 1.012 2660
-1.553 5.964 0.990 4528
-1.595 6.123 1.013 3208
-1.544 5.928 0.967 5064
-1.582 6.073 0.988 2504
-1.543 5.923 0.948 5044
-1.580 6.067 0.968 2557
-1.537 5.903 0.928 5037
-1.575 6.047 0.947 3700
-1.542 5.920 0.912 5687
-1.580 6.064 0.931 2374
-1.542 5.922 0.894 7426
-1.505 5.778 0.876 1314
-1.543 5.924 0.877 6203
-1.505 5.780 0.858 1681
-1.549 5.949 0.862 2974
-1.510 5.797 0.843 1574
-1.548 5.944 0.843 2455
-1.510 5.799 0.826 1655
-1.545 5.930 0.823 3212
-1.507 5.786 0.807 1811
-1.545 5.932 0.806 3307
-1.501 5.765 0.787 2282
-1.504 5.774 0.770 3318
-1.542 5.919 0.786 2886
-1.506 5.783 0.754 4397
-1.544 5.928 0.769 1862
-1.509 5.793 0.737 3930
-1.497 5.749 0.715 4037
-1.535 5.894 0.730 1285
-1.496 5.743 0.697 5364
-1.533 5.888 0.712 1509
-1.494 5.737 0.680 6083
-1.532 5.882 0.693 1337
-1.491 5.723 0.661 8393
-1.530 5.875 0.675 847
-1.491 5.724 0.644 8087
-1.453 5.579 0.631 832
-1.477 5.672 0.622 7152
-1.476 5.666 0.605 7266
-1.474 5.660 0.587 6759
-1.436 5.514 0.575 1164
-1.476 5.668 0.571 4978
-1.439 5.523 0.560 2184
-1.451 5.570 0.546 4143
-1.489 5.715 0.557 3630
-1.453 5.579 0.530 3892
-1.491 5.724 0.541 2521
-1.469 5.641 0.518 2951
-1.431 5.496 0.508 2236
-1.440 5.528 0.493 3583
-1.478 5.673 0.503 1382
-1.456 5.590 0.481 3549
-1.458 5.598 0.464 3277
-1.420 5.453 0.456 1003
-1.438 5.523 0.443 2992
-1.476 5.668 0.452 1051
-1.441 5.531 0.427 3440
-1.479 5.677 0.435 1022
-1.435 5.509 0.410 4722
-1.473 5.654 0.417 1106
-1.437 5.517 0.394 5470
-1.399 5.372 0.387 1010
-1.437 5.518 0.377 4945
-1.399 5.373 0.371 1361
-1.435 5.511 0.360 3371
-1.398 5.366 0.354 1601
-1.426 5.473 0.342 2577
-1.388 5.328 0.337 1279
-1.402 5.382 0.323 2266
-1.440 5.528 0.328 896
-1.404 5.390 0.307 3191
-1.404 5.391 0.291 3892
-1.402 5.384 0.275 3306
-1.394 5.353 0.258 3797
-1.392 5.346 0.242 4892
-1.388 5.331 0.225 5224
-1.387 5.323 0.209 5674
-1.387 5.324 0.194 4331
-1.387 5.324 0.178 2987
-1.387 5.324 0.162 2655
-1.387 5.324 0.146 1805
-1.349 5.178 0.146 914
-1.389 5.331 0.130 1331
-1.345 5.163 0.130 1082
-1.345 5.163 0.115 1126
-1.389 5.331 0.114 828
-1.369 5.255 0.099 1322
-1.345 5.163 0.084 1931
-1.345 5.162 0.069 2690
-1.357 5.208 0.052 2912
-1.356 5.208 0.037 3245
-1.334 5.123 0.023 2778
-1.372 5.269 0.020 920
-1.332 5.115 0.008 3063
-1.370 5.261 0.004 903
-1.336 5.130 -0.008 3649
-1.340 5.145 -0.023 4726
-1.338 5.137 -0.039 4193
-1.338 5.136 -0.054 3675
-1.300 4.991 -0.048 883
-1.318 5.059 -0.066 3814
-1.312 5.036 -0.080 4616
-1.349 5.181 -0.087 996
-1.311 5.035 -0.095 5149
-1.349 5.181 -0.102 761
-1.309 5.027 -0.110 5701
-1.311 5.034 -0.125 4961
-1.311 5.033 -0.140 4239
-1.309 5.025 -0.155 2667
-1.271 4.879 -0.146 982
-1.279 4.909 -0.163 2040
-1.316 5.054 -0.172 817
-1.282 4.923 -0.178 2452
-1.286 4.938 -0.194 3010
-1.288 4.944 -0.209 3269
-1.290 4.951 -0.225 3554
-1.289 4.950 -0.240 3554
-1.287 4.941 -0.254 2752
-1.285 4.932 -0.268 2031
-1.282 4.924 -0.282 1465
-1.270 4.877 -0.292 1428
-1.272 4.883 -0.308 1236
-1.277 4.905 -0.325 1262
-1.277 4.903 -0.339 1262
-1.275 4.894 -0.353 1413
-1.274 4.893 -0.368 1616
-1.274 4.891 -0.382 808
-0.578 2.238 1.802 2186
-0.580 2.242 1.795 4373
-0.610 2.360 1.884 1581
-0.600 2.321 1.845 4961
-0.570 2.204 1.756 1509
-0.605 2.339 1.847 4615
-0.574 2.221 1.759 1749
-0.614 2.375 1.863 5638
-0.583 2.256 1.775 3322
-0.605 2.342 1.829 5840
-0.636 2.461 1.916 1149
-0.605 2.341 1.817 7431
-0.644 2.491 1.927 1685
-0.606 2.345 1.810 7431
-0.647 2.502 1.924 2533
-0.609 2.356 1.808 6352
-0.646 2.501 1.912 2749
-0.628 2.430 1.851 5490
-0.659 2.550 1.937 1480
-0.631 2.441 1.848 7329
-0.662 2.561 1.934 1521
-0.634 2.452 1.845 9286
-0.665 2.572 1.930 1595
-0.635 2.457 1.838 7692
-0.666 2.577 1.923 1617
-0.641 2.481 1.844 6561
-0.672 2.602 1.929 1997
-0.643 2.486 1.837 6561
-0.674 2.607 1.921 2857
-0.645 2.497 1.834 8041
-0.677 2.618 1.918 2936
-0.647 2.502 1.826 9551
-0.678 2.623 1.910 3034
-0.650 2.513 1.823 9275
-0.681 2.634 1.906 2300
-0.666 2.575 1.855 11266
-0.634 2.454 1.772 3157
-0.669 2.587 1.852 11283
-0.637 2.465 1.770 2523
-0.670 2.591 1.844 11351
-0.638 2.469 1.762 1259
-0.669 2.590 1.832 8678
-0.701 2.712 1.914 1534
-0.669 2.588 1.820 6538
-0.701 2.711 1.902 2575
-0.694 2.683 1.872 8348
-0.662 2.561 1.791 3242
-0.697 2.695 1.869 12243
-0.665 2.572 1.788 3157
-0.698 2.700 1.861 12396
-0.666 2.576 1.780 2532
-0.701 2.711 1.857 12779
-0.669 2.587 1.777 2453
-0.702 2.716 1.849 10326
-0.670 2.592 1.769 1661
-0.702 2.714 1.837 8010
-0.699 2.706 1.820 10275
-0.731 2.830 1.899 1117
-0.701 2.710 1.812 12560
-0.733 2.835 1.891 1366
-0.705 2.728 1.812 14651
-0.737 2.853 1.890 961
-0.708 2.740 1.808 17761
-0.740 2.864 1.886 901
-0.709 2.744 1.800 13512
-0.742 2.869 1.877 1495
-0.711 2.749 1.792 9263
-0.743 2.874 1.869 2090
-0.715 2.767 1.792 7940
-0.748 2.892 1.868 2323
-0.733 2.838 1.824 7380
-0.701 2.712 1.748 1500
-0.738 2.856 1.823 7224
-0.706 2.730 1.748 1490
-0.733 2.834 1.799 7523
-0.734 2.839 1.791 8545
-0.737 2.850 1.786 6957
-0.741 2.868 1.786 5773
-0.746 2.886 1.785 5006
-0.751 2.904 1.784 5274
-0.804 3.111 1.904 985
-0.752 2.909 1.775 6002
-0.800 3.096 1.883 1467
-0.756 2.927 1.774 6289
-0.800 3.094 1.870 2444
-0.759 2.938 1.770 7384
-0.803 3.106 1.865 2846
-0.762 2.949 1.765 6698
-0.804 3.111 1.855 3531
-0.767 2.967 1.763 6594
-0.807 3.122 1.850 4283
-0.770 2.979 1.758 6981
-0.812 3.141 1.848 4425
-0.771 2.983 1.750 6366
-0.815 3.152 1.842 4408
-0.816 3.157 1.833 4483
-0.772 2.988 1.741 4311
-0.814 3.148 1.816 3831
-0.772 2.985 1.728 2874
-0.852 3.296 1.884 3940
-0.775 2.997 1.723 3009
-0.855 3.308 1.878 4297
-0.778 3.008 1.718 2595
-0.835 3.231 1.824 4083
-0.779 3.012 1.709 1939
-0.840 3.249 1.822 6069
-0.873 3.379 1.890 1884
-0.841 3.254 1.812 7890
-0.875 3.384 1.880 2557
-0.842 3.259 1.803 8160
-0.876 3.389 1.870 2118
-0.840 3.250 1.786 6039
-0.874 3.380 1.853 2081
-0.862 3.337 1.819 4769
-0.829 3.206 1.752 2877
-0.876 3.389 1.833 6022
-0.828 3.204 1.739 2926
-0.877 3.394 1.823 8022
-0.827 3.201 1.726 2558
-0.877 3.392 1.809 10112
-0.830 3.213 1.720 1944
-0.878 3.397 1.799 10371
-0.842 3.259 1.731 3022
-0.879 3.401 1.789 9911
-0.842 3.256 1.718 3565
-0.879 3.399 1.776 7340
-0.845 3.268 1.711 2917
-0.876 3.390 1.759 5266
-0.975 3.771 1.944 1573
-0.877 3.394 1.749 3680
-0.976 3.777 1.933 2604
-0.983 3.802 1.932 4304
-0.884 3.420 1.749 2842
-0.984 3.808 1.920 5566
-0.856 3.313 1.686 2804
-0.998 3.861 1.932 4507
-0.857 3.317 1.676 2929
-1.001 3.873 1.924 5107
-0.859 3.322 1.666 2030
-1.015 3.927 1.935 5499
-0.899 3.480 1.727 2816
-1.020 3.946 1.930 7797
-0.901 3.484 1.717 3396
-1.021 3.952 1.918 6745
-0.900 3.482 1.704 3145
-1.017 3.935 1.896 5615
-0.903 3.493 1.696 2273
-1.046 4.046 1.932 4914
-1.011 3.912 1.872 4506
-1.049 4.058 1.923 5727
-1.013 3.917 1.861 2733
-1.054 4.077 1.917 4899
-1.088 4.211 1.976 2247
-1.062 4.110 1.918 4917
-1.097 4.244 1.976 2614
-1.047 4.052 1.878 5415
-1.084 4.193 1.939 4848
-1.083 4.191 1.924 6126
-1.047 4.050 1.863 4005
-1.085 4.196 1.911 7831
-1.044 4.040 1.844 2559
-1.084 4.194 1.896 7426
-1.119 4.329 1.953 1697
-1.111 4.298 1.925 5310
-1.076 4.163 1.868 4212
-1.112 4.303 1.912 6101
-1.077 4.168 1.856 2444
-1.114 4.308 1.899 5220
-1.079 4.173 1.843 1262
-1.126 4.356 1.904 8088
-1.161 4.491 1.959 1287
-1.127 4.361 1.891 10197
-1.162 4.496 1.946 2079
-1.130 4.373 1.881 7779
-1.165 4.509 1.935 1915
-1.135 4.392 1.873 5144
-1.170 4.528 1.928 1625
-1.133 4.383 1.855 3844
-1.168 4.519 1.909 2779
-1.177 4.552 1.906 4040
-1.142 4.416 1.853 2720
-1.165 4.507 1.873 3598
-1.208 4.672 1.937 2010
-1.163 4.498 1.854 5069
-1.211 4.684 1.926 3846
-1.168 4.517 1.846 6927
-1.214 4.697 1.915 5858
-1.217 4.709 1.904 6071
-1.171 4.529 1.836 6047
-1.218 4.714 1.890 6518
-1.174 4.541 1.825 3071
-1.222 4.726 1.878 6753
-1.257 4.863 1.929 2611
-1.245 4.817 1.896 6694
-1.281 4.955 1.947 2961
-1.245 4.815 1.879 4791
-1.280 4.952 1.929 4507
-1.268 4.907 1.896 4293
-1.233 4.769 1.846 2493
-1.283 4.963 1.900 5294
-1.247 4.825 1.850 2781
-1.286 4.975 1.887 7032
-1.250 4.837 1.838 4275
-1.287 4.980 1.872 5130
-1.252 4.842 1.824 4077
-1.290 4.992 1.860 4399
-1.326 5.130 1.908 2544
-1.310 5.069 1.870 5090
-1.275 4.931 1.823 1840
-1.342 5.191 1.895 3735
-1.306 5.052 1.848 3355
-1.345 5.203 1.882 4768
-1.381 5.341 1.929 2510
-1.350 5.222 1.871 2773
-1.388 5.368 1.920 2614
-1.387 5.366 1.902 2891
-1.351 5.227 1.856 1896
-1.367 5.290 1.859 2730
-1.409 5.451 1.912 1994
-1.397 5.405 1.879 2636
-1.361 5.266 1.834 1643
-1.434 5.549 1.908 2378
-1.398 5.410 1.863 2249
-1.415 5.473 1.865 2700
-1.451 5.612 1.910 1817
-1.414 5.471 1.847 3409
-1.452 5.617 1.893 1807
-1.438 5.564 1.858 2763
-1.495 5.784 1.926 1819
-1.434 5.547 1.834 2133
-1.500 5.804 1.914 1827
-1.509 5.838 1.905 1988
-1.564 6.051 1.970 1689
-1.573 6.086 1.961 2427
-1.514 5.858 1.892 1799
-1.552 6.002 1.917 2411
-1.588 6.142 1.958 1481
-1.553 6.007 1.899 2308
-1.600 6.192 1.953 1936
-1.604 6.204 1.937 2982
-1.640 6.344 1.978 1554
-1.609 6.224 1.922 3627
-1.645 6.364 1.963 2152
-1.633 6.318 1.929 3631
-1.593 6.163 1.885 2031
-1.634 6.323 1.910 2926
-1.594 6.167 1.866 1785
-1.655 6.402 1.912 3116
-1.768 6.838 2.034 1733
-1.769 6.844 2.013 3230
-1.656 6.407 1.893 2887
-1.774 6.864 1.997 4496
-1.701 6.582 1.920 2541
-1.762 6.817 1.962 3924
-1.798 6.958 2.000 2298
-1.763 6.822 1.942 4843
-1.800 6.963 1.979 1888
-1.769 6.842 1.925 3365
-1.732 6.701 1.888 2254
-1.747 6.758 1.882 4401
-1.783 6.899 1.918 3100
-1.746 6.755 1.860 6166
-1.792 6.934 1.905 2650
-1.744 6.745 1.836 6371
-1.794 6.939 1.885 1549
-1.743 6.743 1.814 6025
-1.706 6.601 1.778 2842
-1.705 6.598 1.756 5102
-1.744 6.747 1.793 4818
-1.709 6.610 1.739 6161
-1.745 6.752 1.773 3275
-1.712 6.622 1.721 4940
-1.754 6.786 1.760 1760
-1.705 6.597 1.694 5835
-1.659 6.417 1.651 917
-1.704 6.594 1.672 6074
-1.668 6.452 1.639 1119
-1.696 6.560 1.644 4168
-1.659 6.418 1.611 1587
-1.689 6.535 1.617 2567
-1.604 6.205 1.542 2122
-1.607 6.217 1.525 4524
-1.663 6.434 1.574 4087
-1.606 6.213 1.505 4581
-1.664 6.438 1.555 4569
-1.609 6.225 1.488 4833
-1.671 6.465 1.541 4205
-1.612 6.236 1.471 7205
-1.668 6.453 1.518 3731
-1.611 6.232 1.451 7565
-1.665 6.442 1.496 3044
-1.610 6.228 1.431 5164
-1.664 6.439 1.475 3424
-1.663 6.435 1.454 4169
-1.615 6.247 1.415 3350
-1.610 6.228 1.392 4955
-1.664 6.439 1.435 3683
-1.609 6.224 1.372 5904
-1.665 6.442 1.415 2692
-1.610 6.227 1.353 6668
-1.666 6.446 1.396 1735
-1.612 6.238 1.336 9081
-1.667 6.449 1.377 873
-1.613 6.242 1.317 12181
-1.610 6.230 1.296 10873
-1.657 6.411 1.330 773
-1.607 6.218 1.274 7276
-1.644 6.361 1.301 790
-1.600 6.191 1.250 7205
-1.637 6.334 1.276 1334
-1.601 6.194 1.232 9097
-1.638 6.338 1.257 1037
-1.600 6.190 1.212 8100
-1.637 6.333 1.237 1215
-1.601 6.193 1.193 5091
-3.510 13.580 2.461 1164
-1.617 6.256 1.185 5232
-1.578 6.105 1.160 2925
-1.600 6.191 1.155 5091
-1.563 6.047 1.131 1947
-1.572 6.080 1.118 5523
-1.609 6.224 1.142 5360
-1.572 6.083 1.100 6208
-1.610 6.227 1.123 5158
-1.575 6.093 1.083 6332
-1.612 6.237 1.105 4025
-1.572 6.081 1.062 6776
-1.615 6.247 1.088 2008
-1.567 6.061 1.041 5334
-1.614 6.243 1.068 1170
-1.561 6.040 1.019 3615
-1.524 5.896 0.998 967
-1.540 5.959 0.989 4421
-1.578 6.103 1.010 1509
-1.533 5.931 0.967 5775
-1.570 6.076 0.988 2191
-1.532 5.926 0.948 6554
-1.569 6.070 0.968 2246
-1.530 5.921 0.930 6749
-1.568 6.065 0.949 2503
-1.529 5.915 0.911 6460
-1.566 6.060 0.930 2861
-1.530 5.917 0.893 6852
-1.567 6.062 0.912 2373
-1.532 5.927 0.877 5857
-1.569 6.072 0.895 1349
-1.531 5.922 0.858 2874
-1.493 5.777 0.840 1580
-1.515 5.863 0.833 2494
-1.553 6.007 0.850 1322
-1.494 5.781 0.806 3128
-1.532 5.925 0.822 2467
-1.497 5.790 0.789 3534
-1.534 5.935 0.806 2772
-1.495 5.784 0.771 4556
-1.533 5.929 0.787 2233
-1.496 5.786 0.754 4994
-1.533 5.931 0.769 1365
-1.506 5.826 0.740 5453
-1.468 5.681 0.725 1001
-1.493 5.774 0.718 5563
-1.455 5.629 0.703 1131
-1.491 5.768 0.700 5375
-1.454 5.623 0.685 1382
-1.491 5.770 0.682 5753
-1.454 5.625 0.669 1588
-1.486 5.748 0.663 5673
-1.448 5.603 0.650 1268
-1.476 5.712 0.642 6363
-1.439 5.567 0.630 794
-1.477 5.713 0.625 6285
-1.439 5.568 0.613 921
-1.475 5.707 0.608 5010
-1.438 5.562 0.596 1466
-1.475 5.708 0.591 4543
-1.438 5.563 0.579 2370
-1.474 5.702 0.573 4534
-1.432 5.541 0.561 2513
-1.472 5.695 0.555 3922
-1.433 5.542 0.544 2370
-1.457 5.635 0.534 3486
-1.419 5.490 0.524 1480
-1.457 5.636 0.517 3436
-1.419 5.491 0.507 2489
-1.424 5.507 0.492 3514
-1.461 5.653 0.501 1782
-1.426 5.516 0.476 3023
-1.463 5.661 0.485 870
-1.448 5.601 0.464 2439
-1.440 5.571 0.446 2434
-1.402 5.426 0.438 871
-1.436 5.557 0.429 2993
-1.399 5.411 0.421 1200
-1.429 5.527 0.410 3286
-1.391 5.382 0.403 930
-1.407 5.444 0.390 4242
-1.445 5.589 0.397 1379
-1.407 5.444 0.374 5286
-1.449 5.605 0.381 893
-1.407 5.445 0.358 5045
-1.408 5.445 0.341 4803
-1.408 5.446 0.325 3975
-1.402 5.424 0.308 2779
-1.402 5.424 0.292 2130
-1.364 5.278 0.288 1049
-1.404 5.432 0.276 2182
-1.366 5.286 0.272 1323
-1.382 5.348 0.258 2343
-1.420 5.494 0.261 1012
-1.382 5.348 0.242 3560
-1.420 5.494 0.244 819
-1.377 5.326 0.225 4129
-1.414 5.471 0.228 894
-1.375 5.318 0.209 4477
-1.337 5.173 0.207 993
-1.373 5.311 0.193 3563
-1.335 5.165 0.192 942
-1.359 5.257 0.177 3275
-1.359 5.257 0.161 3318
-1.357 5.250 0.146 3153
-1.355 5.242 0.130 3106
-1.353 5.234 0.114 2271
-1.341 5.188 0.099 1663
-1.353 5.234 0.083 2116
-1.353 5.234 0.068 2786
-1.315 5.088 0.070 1043
-1.349 5.218 0.052 3539
-1.311 5.073 0.055 961
-1.349 5.218 0.037 4530
-1.311 5.072 0.040 1262
-1.347 5.210 0.021 3812
-1.309 5.065 0.025 1876
-1.317 5.095 0.009 3624
-1.355 5.240 0.005 2217
-1.315 5.087 -0.006 3791
-1.352 5.232 -0.011 1555
-1.315 5.086 -0.022 4046
-1.313 5.078 -0.036 3493
-1.312 5.078 -0.052 3008
-1.302 5.039 -0.065 3201
-1.298 5.023 -0.080 4456
-1.336 5.168 -0.086 1005
-1.298 5.022 -0.095 4950
-1.336 5.168 -0.101 1010
-1.298 5.022 -0.110 5443
-1.336 5.167 -0.117 1014
-1.300 5.029 -0.125 4347
-1.302 5.035 -0.140 3310
-1.264 4.890 -0.132 1041
-1.299 5.027 -0.155 2794
-1.262 4.882 -0.146 1377
-1.273 4.927 -0.164 2971
-1.311 5.072 -0.173 1413
-1.271 4.918 -0.178 2977
-1.309 5.063 -0.187 1558
-1.271 4.917 -0.193 3009
-1.309 5.062 -0.203 1446
-1.275 4.931 -0.208 2964
-1.276 4.938 -0.224 3160
-1.276 4.937 -0.238 3160
-1.274 4.928 -0.252 2732
-1.272 4.920 -0.267 2441
-1.265 4.896 -0.279 1930
-1.259 4.871 -0.292 1870
-1.261 4.878 -0.307 1685
-1.262 4.884 -0.322 1516
-1.262 4.883 -0.337 1516
-1.262 4.881 -0.351 1790
-1.261 4.880 -0.366 2065
-1.261 4.879 -0.381 1032
-0.576 2.245 1.807 3135
-0.578 2.250 1.800 6270
-0.608 2.367 1.889 1551
-0.596 2.322 1.845 7186
-0.566 2.205 1.756 1614
-0.590 2.296 1.815 6342
-0.620 2.414 1.903 1845
-0.591 2.301 1.808 6326
-0.621 2.419 1.896 2913
-0.600 2.337 1.824 6642
-0.630 2.455 1.911 1311
-0.601 2.342 1.817 8330
-0.640 2.492 1.927 1698
-0.602 2.346 1.810 8330
-0.643 2.503 1.924 2498
-0.605 2.357 1.808 7079
-0.642 2.502 1.912 2743
-0.623 2.425 1.846 7017
-0.653 2.544 1.932 1683
-0.625 2.436 1.843 8263
-0.656 2.556 1.929 1804
-0.628 2.447 1.841 9926
-0.659 2.567 1.926 1933
-0.630 2.452 1.834 8012
-0.660 2.572 1.918 1821
-0.639 2.488 1.849 6248
-0.670 2.609 1.933 1678
-0.640 2.493 1.841 6248
-0.671 2.614 1.925 2422
-0.641 2.498 1.834 7997
-0.672 2.619 1.918 2828
-0.643 2.503 1.826 9767
-0.674 2.624 1.910 2770
-0.645 2.514 1.823 9509
-0.677 2.635 1.906 2138
-0.662 2.576 1.855 10158
-0.630 2.455 1.772 2759
-0.664 2.588 1.852 10232
-0.633 2.466 1.770 2238
-0.667 2.599 1.849 10345
-0.636 2.477 1.767 1135
-0.665 2.591 1.832 7861
-0.697 2.713 1.914 1776
-0.661 2.576 1.812 6152
-0.693 2.699 1.893 3202
-0.691 2.691 1.877 7468
-0.659 2.568 1.796 4221
-0.692 2.696 1.869 11203
-0.661 2.573 1.788 3103
-0.695 2.707 1.865 11453
-0.663 2.584 1.785 3284
-0.696 2.712 1.857 11780
-0.665 2.589 1.777 2455
-0.698 2.717 1.849 9909
-0.666 2.593 1.769 1664
-0.697 2.715 1.837 8078
-0.665 2.591 1.758 777
-0.697 2.713 1.824 10343
-0.729 2.838 1.903 801
-0.696 2.712 1.812 12893
-0.728 2.836 1.891 1328
-0.701 2.729 1.812 14528
-0.733 2.854 1.890 956
-0.704 2.741 1.808 17008
-0.736 2.866 1.886 911
-0.705 2.745 1.800 12867
-0.737 2.871 1.877 1138
-0.706 2.750 1.792 8726
-0.738 2.875 1.869 1365
-0.709 2.761 1.788 7351
-0.741 2.887 1.864 1732
-0.720 2.806 1.804 6899
-0.688 2.680 1.728 803
-0.725 2.824 1.804 6405
-0.691 2.691 1.724 878
-0.730 2.842 1.803 7841
-0.692 2.696 1.716 753
-0.731 2.846 1.795 9158
-0.734 2.858 1.790 7184
-0.735 2.862 1.782 5314
-0.740 2.880 1.781 3696
-0.746 2.905 1.784 3438
-0.799 3.113 1.904 809
-0.747 2.910 1.775 4425
-0.795 3.097 1.883 1322
-0.753 2.934 1.778 4916
-0.795 3.096 1.870 2404
-0.756 2.946 1.773 5903
-0.796 3.101 1.861 2905
-0.759 2.957 1.768 5254
-0.799 3.112 1.855 3710
-0.764 2.975 1.767 6112
-0.802 3.124 1.850 4522
-0.765 2.980 1.758 7183
-0.805 3.135 1.844 4542
-0.766 2.984 1.750 6453
-0.808 3.147 1.839 4384
-0.811 3.158 1.833 4244
-0.769 2.996 1.744 3942
-0.807 3.143 1.813 3915
-0.840 3.272 1.883 2522
-0.827 3.222 1.844 3804
-0.772 3.005 1.727 2206
-0.827 3.220 1.830 4263
-0.774 3.016 1.721 1749
-0.849 3.307 1.864 4078
-0.814 3.171 1.792 4047
-0.829 3.230 1.811 6068
-0.863 3.360 1.880 2227
-0.832 3.241 1.805 8764
-0.866 3.371 1.873 2722
-0.832 3.239 1.792 8466
-0.865 3.370 1.860 2560
-0.849 3.306 1.814 7241
-0.815 3.175 1.747 2483
-0.852 3.317 1.808 5522
-0.818 3.187 1.741 2479
-0.867 3.377 1.826 5503
-0.834 3.246 1.760 3568
-0.872 3.396 1.823 7518
-0.838 3.265 1.757 4111
-0.871 3.393 1.809 10220
-0.838 3.262 1.744 3523
-0.873 3.398 1.799 10992
-0.839 3.267 1.734 3701
-0.874 3.403 1.789 10027
-0.840 3.271 1.724 4496
-0.875 3.408 1.779 6584
-0.841 3.276 1.715 3662
-0.869 3.384 1.756 5216
-0.969 3.773 1.944 2035
-0.868 3.382 1.742 4467
-0.970 3.778 1.933 3191
-0.975 3.797 1.928 4922
-0.878 3.421 1.749 3551
-0.978 3.809 1.920 6123
-0.878 3.419 1.735 3805
-0.981 3.821 1.912 4812
-0.879 3.423 1.725 3778
-0.993 3.868 1.920 5313
-0.880 3.428 1.715 2577
-1.009 3.929 1.935 4656
-0.888 3.460 1.718 1816
-1.014 3.948 1.930 6869
-0.893 3.479 1.714 2036
-1.013 3.946 1.915 6340
-0.893 3.476 1.700 1657
-1.011 3.937 1.896 5661
-1.045 4.071 1.957 2136
-1.039 4.048 1.932 5044
-1.005 3.914 1.872 4638
-1.042 4.060 1.923 5890
-1.077 4.193 1.983 3055
-1.047 4.079 1.917 4780
-1.082 4.213 1.976 2632
-1.058 4.119 1.921 4459
-1.023 3.985 1.862 2664
-1.072 4.174 1.930 5583
-1.037 4.039 1.872 4700
-1.077 4.193 1.924 6330
-1.038 4.044 1.859 3976
-1.078 4.198 1.911 7475
-1.038 4.042 1.844 2650
-1.077 4.196 1.896 6670
-1.112 4.330 1.953 1967
-1.104 4.300 1.925 5870
-1.069 4.165 1.868 3933
-1.105 4.305 1.912 6053
-1.071 4.170 1.856 2440
-1.107 4.310 1.899 4888
-1.141 4.445 1.955 1529
-1.119 4.358 1.904 8161
-1.154 4.493 1.959 1287
-1.120 4.363 1.891 10130
-1.155 4.498 1.946 2184
-1.123 4.375 1.881 7154
-1.158 4.511 1.935 1683
-1.125 4.380 1.868 4671
-1.159 4.516 1.922 1561
-1.126 4.385 1.855 4086
-1.166 4.542 1.917 2483
-1.169 4.554 1.906 3956
-1.133 4.411 1.850 2753
-1.156 4.502 1.870 3650
-1.206 4.696 1.946 1558
-1.155 4.500 1.854 5410
-1.205 4.694 1.929 3306
-1.160 4.519 1.846 7347
-1.208 4.706 1.918 5372
-1.163 4.531 1.836 6301
-1.210 4.711 1.904 5917
-1.211 4.716 1.890 6778
-1.166 4.543 1.825 3326
-1.214 4.728 1.878 7465
-1.249 4.865 1.929 2932
-1.237 4.819 1.896 6487
-1.273 4.957 1.947 2858
-1.233 4.803 1.874 4503
-1.272 4.955 1.929 4276
-1.260 4.909 1.896 4353
-1.225 4.771 1.846 2890
-1.275 4.965 1.900 4979
-1.239 4.827 1.850 2711
-1.278 4.977 1.887 7121
-1.242 4.839 1.838 4167
-1.279 4.982 1.872 4933
-1.244 4.844 1.824 4067
-1.280 4.987 1.858 3980
-1.316 5.125 1.906 2931
-1.300 5.064 1.868 5174
-1.336 5.202 1.915 1752
-1.333 5.193 1.895 4441
-1.298 5.054 1.848 3571
-1.336 5.205 1.882 5969
-1.374 5.351 1.931 2583
-1.341 5.224 1.871 3772
-1.379 5.370 1.920 2601
-1.354 5.273 1.870 2720
-1.390 5.412 1.916 2196
-1.357 5.285 1.857 2738
-1.402 5.461 1.914 1796
-1.360 5.298 1.843 2359
-1.413 5.502 1.910 2005
-1.435 5.588 1.919 2198
-1.388 5.405 1.861 1976
-1.432 5.578 1.898 2516
-1.397 5.439 1.854 2158
-1.405 5.473 1.847 3187
-1.441 5.612 1.891 2192
-1.429 5.566 1.858 2656
-1.486 5.786 1.926 1483
-1.423 5.541 1.832 2020
-1.538 5.990 1.970 1713
-1.500 5.840 1.905 2183
-1.554 6.054 1.970 1710
-1.561 6.081 1.959 2363
-1.507 5.867 1.895 1903
-1.544 6.012 1.919 2595
-1.508 5.872 1.877 1095
-1.543 6.010 1.899 2535
-1.579 6.150 1.940 1438
-1.594 6.207 1.937 2948
-1.630 6.347 1.978 1457
-1.601 6.234 1.925 3885
-1.637 6.374 1.965 2001
-1.611 6.276 1.916 3558
-1.647 6.416 1.956 2005
-1.649 6.421 1.937 2725
-1.613 6.281 1.898 1962
-1.639 6.382 1.906 2717
-1.757 6.841 2.034 2257
-1.758 6.846 2.013 4148
-1.651 6.432 1.899 2697
-1.767 6.881 2.001 5599
-1.651 6.429 1.878 2316
-1.764 6.872 1.976 4846
-1.728 6.731 1.938 2154
-1.752 6.825 1.942 6723
-1.789 6.966 1.979 2488
-1.752 6.823 1.919 6047
-1.788 6.964 1.957 1882
-1.749 6.813 1.895 4996
-1.786 6.954 1.932 1783
-1.737 6.766 1.861 5706
-1.785 6.952 1.909 2308
-1.736 6.763 1.839 6479
-1.784 6.949 1.886 1819
-1.734 6.753 1.815 5667
-1.696 6.604 1.778 3287
-1.697 6.608 1.758 6336
-1.733 6.750 1.793 5683
-1.698 6.613 1.739 9354
-1.734 6.755 1.773 5019
-1.699 6.617 1.719 8888
-1.736 6.759 1.753 2862
-1.696 6.607 1.695 8115
-1.742 6.786 1.738 1318
-1.696 6.604 1.674 7684
-1.659 6.462 1.641 1090
-1.683 6.556 1.642 4372
-1.720 6.698 1.675 2206
-1.675 6.522 1.614 4164
-1.594 6.208 1.542 2909
-1.595 6.212 1.524 3687
-1.674 6.519 1.593 3388
-1.594 6.208 1.503 4366
-1.661 6.471 1.562 3581
-1.597 6.220 1.487 6830
-1.682 6.550 1.559 3496
-1.598 6.223 1.468 8525
-1.654 6.441 1.515 2959
-1.601 6.235 1.451 6346
-1.653 6.437 1.494 3030
-1.600 6.231 1.431 4655
-1.654 6.441 1.475 2661
-1.593 6.204 1.406 6071
-1.653 6.438 1.454 2592
-1.590 6.193 1.384 5315
-1.654 6.441 1.435 2222
-1.591 6.196 1.366 4700
-1.655 6.445 1.415 1576
-1.596 6.215 1.350 6974
-1.656 6.448 1.396 1154
-1.599 6.226 1.333 7897
-1.657 6.452 1.377 913
-1.601 6.237 1.316 9446
-1.602 6.240 1.297 8023
-1.603 6.243 1.279 4987
-3.305 12.871 2.498 825
-1.604 6.246 1.260 5508
-3.320 12.931 2.469 951
-1.607 6.257 1.243 5082
-1.570 6.114 1.217 1637
-1.607 6.260 1.224 4116
-1.571 6.117 1.199 1659
-1.612 6.278 1.208 4203
-1.575 6.135 1.183 2002
-1.609 6.266 1.186 4702
-1.572 6.122 1.162 3481
-1.606 6.254 1.165 5058
-1.569 6.110 1.141 3974
-1.589 6.189 1.135 5221
-1.552 6.045 1.112 2160
-1.566 6.101 1.102 5391
-1.603 6.245 1.125 2818
-1.567 6.103 1.084 5224
-1.604 6.247 1.107 2201
-1.570 6.114 1.067 5098
-1.533 5.969 1.045 2315
-1.576 6.139 1.052 4678
-1.539 5.995 1.031 2228
-1.555 6.058 1.022 3687
-3.501 13.634 2.134 1134
-1.558 6.068 1.005 4765
-1.521 5.924 0.984 2398
-1.559 6.070 0.986 4033
-1.522 5.926 0.966 3079
-1.532 5.966 0.954 3864
-1.569 6.111 0.974 1947
-1.533 5.969 0.936 4509
-1.570 6.113 0.955 1396
-1.547 6.024 0.925 4964
-1.510 5.880 0.906 2680
-1.547 6.026 0.907 5680
-1.510 5.882 0.888 3105
-1.507 5.869 0.869 3620
-1.546 6.021 0.888 3485
-1.503 5.855 0.850 4738
-1.541 6.000 0.867 2048
-1.502 5.850 0.831 5267
-1.539 5.995 0.848 1560
-1.497 5.829 0.811 4612
-1.534 5.974 0.828 1157
-1.495 5.823 0.793 4567
-1.532 5.968 0.809 1019
-1.494 5.817 0.774 4848
-1.531 5.962 0.790 903
-1.494 5.819 0.757 6130
-1.491 5.806 0.738 7570
-1.481 5.769 0.717 8946
-1.444 5.624 0.702 986
-1.478 5.755 0.698 11335
-1.441 5.610 0.684 973
-1.476 5.749 0.680 11650
-1.439 5.604 0.666 843
-1.475 5.743 0.662 9625
-1.437 5.598 0.649 770
-1.469 5.722 0.643 5008
-1.464 5.700 0.624 3743
-1.462 5.694 0.606 3830
-1.425 5.549 0.594 1211
-1.460 5.688 0.589 4728
-1.423 5.542 0.577 2423
-1.451 5.651 0.569 4532
-1.414 5.505 0.558 1622
-1.447 5.636 0.551 4996
-1.410 5.491 0.540 1182
-1.448 5.638 0.534 5523
-1.410 5.492 0.524 1164
-1.446 5.631 0.517 5170
-1.409 5.486 0.507 1817
-1.444 5.624 0.499 3431
-1.407 5.479 0.490 2558
-1.419 5.526 0.476 3982
-1.456 5.671 0.485 868
-1.419 5.527 0.460 3700
-1.456 5.672 0.468 908
-1.431 5.574 0.446 2936
-1.386 5.398 0.436 1406
-1.435 5.590 0.430 3070
-1.384 5.391 0.420 1732
-1.426 5.552 0.412 3599
-1.388 5.407 0.404 1856
-1.400 5.453 0.390 5264
-1.438 5.599 0.397 1607
-1.400 5.454 0.374 6971
-1.438 5.600 0.380 886
-1.399 5.447 0.358 6838
-1.436 5.593 0.363 814
-1.397 5.440 0.341 7092
-1.397 5.441 0.325 6210
-1.360 5.295 0.320 842
-1.383 5.387 0.307 4893
-1.381 5.380 0.290 5015
-1.382 5.381 0.274 4547
-1.382 5.381 0.258 3274
-1.344 5.235 0.255 1070
-1.382 5.381 0.242 2470
-1.344 5.236 0.239 1175
-1.356 5.282 0.225 2047
-1.394 5.428 0.227 1302
-1.358 5.290 0.209 2343
-1.396 5.435 0.211 1114
-1.358 5.290 0.193 2627
-1.396 5.436 0.195 882
-1.343 5.229 0.177 2996
-1.384 5.390 0.178 1184
-1.350 5.260 0.161 3487
-1.347 5.244 0.146 4307
-1.345 5.237 0.130 4657
-1.345 5.237 0.114 3510
-1.323 5.152 0.099 2702
-1.360 5.298 0.098 773
-1.335 5.198 0.084 3047
-1.337 5.205 0.068 3460
-1.338 5.213 0.052 3993
-1.301 5.067 0.055 868
-1.340 5.220 0.037 4652
-1.303 5.075 0.040 1340
-1.338 5.212 0.021 3956
-1.301 5.067 0.025 1880
-1.317 5.128 0.008 3613
-1.354 5.273 0.004 1029
-1.313 5.112 -0.007 4219
-1.350 5.258 -0.011 1235
-1.308 5.096 -0.022 5005
-1.346 5.242 -0.026 816
-1.308 5.096 -0.037 5405
-1.308 5.095 -0.052 5805
-1.306 5.087 -0.067 3972
-1.290 5.025 -0.080 3845
-1.328 5.171 -0.086 1809
-1.288 5.017 -0.094 3565
-1.325 5.162 -0.101 1475
-1.288 5.016 -0.109 3341
-1.325 5.162 -0.116 1106
-1.288 5.015 -0.124 2692
-1.325 5.161 -0.132 813
-1.272 4.953 -0.136 2807
-1.268 4.937 -0.149 3203
-1.305 5.083 -0.158 875
-1.265 4.929 -0.164 3754
-1.303 5.074 -0.173 1366
-1.289 5.020 -0.184 3578
-1.252 4.874 -0.175 1338
-1.287 5.011 -0.199 3607
-1.249 4.866 -0.189 997
-1.263 4.918 -0.207 2742
-1.300 5.064 -0.218 1119
-1.265 4.925 -0.222 2321
-1.264 4.924 -0.237 2321
-1.260 4.907 -0.251 2403
-1.260 4.906 -0.265 2568
-1.256 4.890 -0.279 2345
-1.251 4.873 -0.292 2300
-1.251 4.872 -0.306 2174
-1.251 4.871 -0.321 2048
-1.250 4.870 -0.335 2048
-1.254 4.883 -0.351 2155
-1.255 4.890 -0.367 2325
-1.255 4.888 -0.381 1162
-0.577 2.264 1.821 3282
-0.578 2.269 1.814 6565
-0.608 2.387 1.903 1017
-0.592 2.323 1.845 9534
-0.562 2.206 1.756 1208
-0.589 2.310 1.824 7940
-0.619 2.428 1.912 1555
-0.588 2.308 1.812 7472
-0.618 2.427 1.900 3006
-0.593 2.325 1.815 7728
-0.623 2.444 1.902 2083
-0.595 2.336 1.812 9203
-0.626 2.455 1.900 1836
-0.597 2.341 1.806 9203
-0.638 2.504 1.924 2499
-0.599 2.352 1.803 7744
-0.636 2.497 1.908 2734
-0.617 2.420 1.842 9181
-0.647 2.539 1.928 1984
-0.621 2.437 1.843 9528
-0.652 2.557 1.929 1885
-0.624 2.448 1.841 10563
-0.655 2.568 1.926 2078
-0.625 2.453 1.834 8361
-0.656 2.573 1.918 1894
-0.626 2.458 1.826 6158
-0.659 2.585 1.915 2700
-0.628 2.463 1.819 6158
-0.660 2.590 1.908 3733
-0.637 2.499 1.834 7961
-0.668 2.620 1.918 2827
-0.638 2.504 1.826 10008
-0.669 2.625 1.910 2680
-0.641 2.515 1.823 9757
-0.672 2.637 1.906 2026
-0.645 2.533 1.825 10074
-0.677 2.654 1.907 1303
-0.661 2.595 1.856 8899
-0.630 2.473 1.774 2273
-0.663 2.600 1.849 9078
-0.632 2.478 1.767 1021
-0.661 2.592 1.832 6817
-0.692 2.714 1.914 2055
-0.657 2.577 1.812 5786
-0.688 2.700 1.893 3218
-0.684 2.686 1.872 7394
-0.653 2.563 1.791 3454
-0.687 2.697 1.869 10951
-0.656 2.574 1.788 2995
-0.690 2.708 1.865 10945
-0.659 2.585 1.785 3231
-0.692 2.713 1.857 11058
-0.660 2.590 1.777 2471
-0.693 2.718 1.849 9169
-0.661 2.594 1.769 1694
-0.694 2.723 1.841 7279
-0.662 2.599 1.762 917
-0.690 2.708 1.820 9908
-0.722 2.832 1.899 963
-0.691 2.713 1.812 13227
-0.723 2.837 1.891 1173
-0.694 2.724 1.808 14422
-0.726 2.849 1.886 1265
-0.697 2.735 1.804 16224
-0.729 2.860 1.882 1282
-0.698 2.740 1.796 12132
-0.730 2.865 1.873 1386
-0.698 2.738 1.784 8044
-0.730 2.864 1.861 1597
-0.702 2.756 1.784 6575
-0.734 2.882 1.860 1367
-0.714 2.800 1.800 5996
-0.718 2.818 1.800 5569
-0.721 2.830 1.795 6459
-0.753 2.956 1.870 909
-0.724 2.841 1.791 7840
-0.756 2.967 1.866 921
-0.725 2.846 1.782 6131
-0.758 2.972 1.857 1137
-0.725 2.844 1.770 4562
-0.757 2.970 1.844 1651
-0.726 2.848 1.762 3197
-0.758 2.975 1.835 1784
-0.751 2.947 1.807 2601
-0.719 2.819 1.734 1251
-0.750 2.945 1.795 3135
-0.788 3.092 1.879 1292
-0.752 2.949 1.786 4375
-0.789 3.097 1.870 2424
-0.751 2.947 1.773 5630
-0.792 3.109 1.865 2974
-0.754 2.959 1.768 5096
-0.794 3.114 1.855 3814
-0.759 2.977 1.767 6089
-0.796 3.125 1.850 4544
-0.760 2.981 1.758 7300
-0.799 3.137 1.844 4411
-0.761 2.986 1.750 6715
-0.802 3.148 1.839 4134
-0.764 2.997 1.744 4330
-0.804 3.153 1.829 3913
-0.801 3.144 1.813 3742
-0.834 3.273 1.883 2551
-0.822 3.224 1.844 4357
-0.768 3.013 1.730 2526
-0.821 3.222 1.830 4718
-0.771 3.024 1.725 2184
-0.812 3.186 1.799 4755
-0.845 3.315 1.868 4145
-0.820 3.218 1.804 7544
-0.853 3.348 1.872 2353
-0.823 3.229 1.798 10470
-0.856 3.359 1.866 2504
-0.822 3.227 1.785 10218
-0.856 3.357 1.852 2913
-0.845 3.314 1.818 7773
-0.811 3.184 1.751 4361
-0.848 3.326 1.811 5713
-0.814 3.195 1.745 3923
-0.859 3.372 1.823 5371
-0.821 3.220 1.746 4663
-0.864 3.390 1.819 7421
-0.825 3.239 1.743 5141
-0.865 3.395 1.809 10473
-0.832 3.264 1.744 5606
-0.865 3.393 1.796 11392
-0.831 3.261 1.731 3860
-0.868 3.404 1.789 10450
-0.834 3.273 1.724 5086
-0.869 3.409 1.779 7553
-0.835 3.277 1.715 5509
-0.842 3.303 1.715 7814
-0.875 3.435 1.779 3678
-0.845 3.314 1.709 8314
-0.963 3.780 1.933 3797
-0.846 3.318 1.699 7372
-0.968 3.799 1.928 5528
-0.971 3.811 1.920 6641
-0.845 3.316 1.686 5258
-0.974 3.823 1.912 5268
-0.873 3.425 1.725 3119
-0.984 3.863 1.917 5511
-0.876 3.436 1.718 2873
-0.982 3.854 1.899 4451
-0.882 3.462 1.718 3105
-1.005 3.943 1.926 6247
-0.885 3.473 1.711 3786
-1.006 3.948 1.915 6282
-0.886 3.478 1.700 3346
-1.004 3.939 1.896 5841
-1.038 4.072 1.957 2032
-1.000 3.923 1.875 4621
-1.034 4.056 1.935 4250
-1.033 4.054 1.920 5188
-1.069 4.195 1.983 2824
-1.040 4.081 1.917 4103
-1.074 4.215 1.976 2668
-1.072 4.206 1.958 4846
-1.027 4.029 1.880 3810
-1.070 4.197 1.939 6440
-1.032 4.048 1.875 4315
-1.071 4.202 1.927 6628
-1.031 4.046 1.859 3572
-1.070 4.200 1.911 7467
-1.031 4.044 1.844 2673
-1.070 4.198 1.896 6376
-1.104 4.332 1.953 2330
-1.098 4.309 1.928 6388
-1.064 4.174 1.871 3852
-1.101 4.321 1.918 6028
-1.067 4.186 1.862 2930
-1.108 4.348 1.914 4919
-1.074 4.212 1.858 2043
-1.111 4.360 1.904 8048
-1.146 4.495 1.959 1409
-1.112 4.365 1.891 9806
-1.147 4.500 1.946 2471
-1.114 4.370 1.878 6697
-1.148 4.505 1.933 2244
-1.115 4.375 1.865 4540
-1.150 4.511 1.919 1614
-1.118 4.387 1.855 4381
-1.158 4.544 1.917 2418
-1.163 4.564 1.909 4016
-1.121 4.399 1.844 2854
-1.168 4.583 1.901 3903
-1.133 4.447 1.848 2780
-1.147 4.502 1.854 5525
-1.199 4.703 1.932 2633
-1.152 4.521 1.846 7597
-1.200 4.708 1.918 4615
-1.155 4.533 1.836 6435
-1.201 4.713 1.904 5486
-1.202 4.718 1.890 6897
-1.166 4.574 1.836 3876
-1.206 4.730 1.878 8160
-1.240 4.867 1.929 3212
-1.209 4.742 1.867 6612
-1.262 4.952 1.944 2884
-1.221 4.790 1.868 4339
-1.261 4.950 1.927 4178
-1.254 4.918 1.899 4640
-1.218 4.781 1.849 3458
-1.266 4.967 1.900 4525
-1.223 4.800 1.840 2701
-1.269 4.979 1.887 6240
-1.234 4.841 1.838 3959
-1.239 4.861 1.829 4378
-1.274 4.998 1.878 4094
-1.273 4.996 1.860 3319
-1.309 5.134 1.908 2549
-1.291 5.066 1.868 4748
-1.326 5.205 1.915 1659
-1.324 5.195 1.895 5002
-1.289 5.057 1.848 3483
-1.327 5.207 1.882 6841
-1.364 5.353 1.931 2748
-1.332 5.227 1.871 4534
-1.371 5.380 1.923 2600
-1.345 5.276 1.870 3143
-1.380 5.414 1.916 1993
-1.348 5.288 1.857 3069
-1.398 5.485 1.922 1700
-1.351 5.300 1.843 2757
-1.403 5.505 1.910 2274
-1.423 5.583 1.917 2066
-1.378 5.407 1.861 1927
-1.396 5.478 1.865 2223
-1.432 5.617 1.910 1827
-1.396 5.476 1.847 2565
-1.431 5.615 1.891 2068
-1.408 5.524 1.844 2482
-1.522 5.972 1.984 1409
-1.411 5.537 1.830 2154
-1.527 5.992 1.970 1713
-1.491 5.850 1.908 2367
-1.544 6.056 1.970 1746
-1.549 6.076 1.957 2319
-1.496 5.870 1.895 1987
-1.531 6.008 1.917 2501
-1.567 6.148 1.958 1026
-1.532 6.013 1.899 2704
-1.581 6.204 1.955 1378
-1.584 6.217 1.939 2759
-1.536 6.025 1.883 1715
-1.590 6.237 1.925 4159
-1.625 6.377 1.965 2119
-1.598 6.271 1.914 3989
-1.634 6.412 1.954 2329
-1.613 6.328 1.910 2566
-1.662 6.521 1.964 1981
-1.646 6.459 1.926 2552
-1.752 6.874 2.042 2257
-1.751 6.872 2.019 3788
-1.646 6.457 1.905 2800
-1.756 6.892 2.003 5057
-1.643 6.447 1.882 2178
-1.739 6.823 1.962 5448
-1.675 6.570 1.894 2168
-1.738 6.821 1.940 8832
-1.774 6.962 1.977 2274
-1.740 6.826 1.919 10389
-1.776 6.967 1.957 1664
-1.743 6.838 1.901 9057
-1.707 6.697 1.864 1478
-1.740 6.828 1.877 6337
-1.776 6.970 1.913 1037
-1.740 6.826 1.854 5226
-1.683 6.602 1.798 2033
-1.718 6.741 1.812 3971
-1.682 6.599 1.776 3620
-1.685 6.611 1.758 6916
-1.721 6.753 1.793 4187
-1.686 6.616 1.739 10217
-1.724 6.765 1.775 3126
-1.687 6.620 1.719 9628
-1.723 6.762 1.753 2705
-1.685 6.610 1.695 8333
-1.721 6.752 1.729 3051
-1.688 6.622 1.677 6810
-1.724 6.764 1.711 2077
-1.687 6.619 1.656 4566
-1.723 6.761 1.689 1266
-1.680 6.593 1.629 4199
-1.571 6.166 1.532 2264
-1.571 6.162 1.512 4773
-1.679 6.590 1.608 3291
-1.575 6.181 1.497 5404
-1.669 6.549 1.578 4238
-1.580 6.200 1.482 6391
-1.672 6.560 1.560 3437
-1.579 6.196 1.461 6941
-1.684 6.609 1.550 2567
-1.580 6.200 1.443 8660
-1.682 6.598 1.527 2693
-1.579 6.196 1.423 7835
-1.679 6.587 1.504 1785
-1.578 6.192 1.403 7890
-1.639 6.433 1.452 1141
-1.583 6.211 1.387 10376
-1.640 6.437 1.433 918
-1.586 6.222 1.370 9469
-1.587 6.225 1.352 8318
-1.587 6.229 1.333 7444
-1.588 6.232 1.314 7036
-1.589 6.235 1.296 7210
-2.920 11.459 2.272 756
-1.594 6.254 1.280 6251
-3.282 12.877 2.498 1064
-1.598 6.272 1.264 4167
-3.297 12.937 2.469 1175
-1.601 6.283 1.247 2628
-3.301 12.951 2.431 1268
-1.598 6.271 1.225 2806
-1.562 6.127 1.200 2020
-1.585 6.221 1.197 5786
-3.466 13.599 2.462 1334
-1.586 6.224 1.179 8626
-3.468 13.606 2.422 1877
-1.589 6.234 1.161 6398
-1.552 6.090 1.138 2444
-1.584 6.214 1.139 3396
-1.547 6.070 1.116 2233
-1.552 6.088 1.100 3898
-1.588 6.232 1.123 2602
-1.558 6.114 1.085 5736
-3.470 13.616 2.256 1339
-1.561 6.124 1.068 7047
-1.524 5.980 1.046 2239
-1.563 6.134 1.051 5487
-1.527 5.990 1.029 2069
-1.560 6.121 1.031 3799
-1.521 5.970 1.008 2013
-1.551 6.086 1.007 3689
-1.514 5.942 0.986 2039
-1.544 6.058 0.984 4414
-1.507 5.914 0.964 1442
-1.535 6.022 0.961 3868
-1.498 5.878 0.941 1275
-1.532 6.009 0.941 3465
-1.491 5.850 0.919 1612
-1.534 6.019 0.924 3111
-1.497 5.875 0.905 2729
-1.496 5.869 0.886 5224
-1.533 6.014 0.905 3344
-1.494 5.864 0.868 6186
-1.531 6.008 0.886 3467
-1.493 5.858 0.850 6240
-1.530 6.003 0.867 2056
-1.492 5.852 0.831 6000
-1.528 5.997 0.848 883
-1.490 5.847 0.813 4426
-1.487 5.833 0.794 3652
-1.487 5.835 0.776 5139
-1.490 5.845 0.760 7399
-1.453 5.700 0.744 1218
-1.488 5.839 0.741 6199
-1.451 5.694 0.726 2443
-1.461 5.734 0.713 5764
-1.498 5.879 0.728 1716
-1.464 5.743 0.697 8261
-1.501 5.888 0.711 1468
-1.462 5.737 0.679 8870
-1.499 5.882 0.693 1391
-1.462 5.738 0.662 8556
-1.499 5.883 0.675 868
-1.461 5.732 0.644 6147
-1.424 5.587 0.631 1126
-1.453 5.703 0.624 4885
-1.452 5.697 0.606 4356
-1.442 5.660 0.586 3828
-1.405 5.514 0.575 1032
-1.443 5.661 0.569 3213
-1.406 5.515 0.558 1482
-1.420 5.570 0.546 2922
-1.457 5.716 0.557 1899
-1.420 5.571 0.529 3012
-1.457 5.717 0.539 1689
-1.416 5.557 0.512 4379
-1.453 5.703 0.521 1399
-1.415 5.550 0.494 5739
-1.452 5.696 0.504 856
-1.409 5.528 0.476 6923
-1.446 5.674 0.485 1058
-1.409 5.529 0.460 7520
-1.446 5.675 0.468 1106
-1.415 5.553 0.445 4664
-1.376 5.400 0.436 1429
-1.419 5.569 0.429 3640
-1.375 5.393 0.420 1866
-1.418 5.563 0.412 3677
-1.381 5.417 0.405 2387
-1.391 5.456 0.390 4510
-1.428 5.602 0.397 1623
-1.393 5.464 0.374 5561
-1.389 5.450 0.358 5343
-1.426 5.595 0.363 925
-1.387 5.443 0.341 5565
-1.385 5.435 0.324 5116
-1.376 5.398 0.307 5854
-1.374 5.390 0.291 7240
-1.374 5.391 0.275 6572
-1.370 5.376 0.258 4245
-1.366 5.361 0.242 3477
-1.360 5.338 0.225 3939
-1.355 5.315 0.209 4981
-1.355 5.315 0.193 4595
-1.318 5.170 0.192 783
-1.353 5.308 0.177 4247
-1.316 5.162 0.176 915
-1.353 5.308 0.162 3391
-1.316 5.162 0.161 947
-1.337 5.247 0.146 3621
-1.337 5.247 0.130 3941
-1.300 5.101 0.130 767
-1.335 5.239 0.114 3553
-1.298 5.093 0.115 762
-1.331 5.223 0.099 3360
-1.327 5.208 0.084 4299
-1.325 5.200 0.068 5506
-1.325 5.200 0.053 5020
-1.325 5.200 0.037 4535
-1.288 5.054 0.040 941
-1.327 5.207 0.021 3502
-1.290 5.061 0.025 1158
-1.304 5.115 0.008 3258
-1.341 5.260 0.004 1317
-1.303 5.114 -0.007 3516
-1.341 5.260 -0.011 1073
-1.305 5.121 -0.022 3803
-1.303 5.113 -0.038 4655
-1.301 5.105 -0.052 5550
-1.301 5.105 -0.068 4093
-1.291 5.066 -0.081 3226
-1.281 5.027 -0.095 2684
-1.318 5.172 -0.101 1535
-1.281 5.026 -0.110 2416
-1.318 5.172 -0.117 824
-1.281 5.025 -0.124 3475
-1.281 5.024 -0.139 4534
-1.280 5.024 -0.154 4495
-1.243 4.878 -0.146 1163
-1.280 5.023 -0.169 4413
-1.243 4.877 -0.160 1463
-1.280 5.022 -0.184 4012
-1.243 4.876 -0.175 1447
-1.278 5.013 -0.199 3681
-1.241 4.868 -0.189 1244
-1.275 5.005 -0.213 2605
-1.238 4.859 -0.203 952
-1.248 4.897 -0.220 1785
-1.248 4.895 -0.235 1785
-1.247 4.894 -0.249 2220
-1.245 4.886 -0.263 2706
-1.243 4.877 -0.277 2649
-1.243 4.876 -0.292 2625
-1.240 4.867 -0.306 2745
-1.240 4.865 -0.320 2866
-1.240 4.864 -0.335 2866
-1.245 4.886 -0.351 2525
-1.247 4.892 -0.367 2509
-1.246 4.890 -0.381 1254
-0.573 2.265 1.821 4279
-0.574 2.270 1.814 8558
-0.604 2.388 1.903 1061
-0.587 2.318 1.840 12577
-0.557 2.200 1.751 755
-0.586 2.317 1.828 10371
-0.616 2.435 1.917 1545
-0.584 2.309 1.812 9013
-0.614 2.428 1.900 3459
-0.589 2.326 1.815 9144
-0.619 2.445 1.902 2460
-0.591 2.337 1.812 10045
-0.621 2.456 1.900 2100
-0.593 2.342 1.806 10045
-0.634 2.505 1.924 2428
-0.611 2.416 1.849 9120
-0.581 2.297 1.762 1897
-0.612 2.421 1.842 11062
-0.643 2.540 1.928 1911
-0.615 2.432 1.839 10660
-0.646 2.552 1.925 2277
-0.618 2.443 1.836 10988
-0.648 2.563 1.922 2611
-0.621 2.454 1.834 8427
-0.651 2.575 1.918 1974
-0.622 2.459 1.826 5935
-0.654 2.586 1.915 2771
-0.623 2.464 1.819 5935
-0.655 2.591 1.908 3808
-0.633 2.500 1.834 7805
-0.663 2.621 1.918 2693
-0.634 2.505 1.826 10190
-0.664 2.626 1.910 2432
-0.637 2.516 1.823 9981
-0.667 2.638 1.906 1778
-0.639 2.527 1.820 10211
-0.670 2.649 1.903 1560
-0.657 2.596 1.856 7495
-0.626 2.474 1.774 2103
-0.658 2.601 1.849 7645
-0.627 2.479 1.767 1088
-0.656 2.593 1.832 5910
-0.687 2.716 1.914 2267
-0.651 2.572 1.807 5736
-0.682 2.695 1.889 3342
