-0.553 4.301 1.927 2247
-0.517 4.025 1.811 1391
-0.535 4.161 1.854 9487
-0.552 4.299 1.911 2055
-0.534 4.158 1.838 9325
-0.552 4.296 1.896 1966
-0.536 4.171 1.829 6024
-0.554 4.309 1.886 1938
-0.543 4.226 1.838 7728
-0.564 4.387 1.903 2190
-0.547 4.253 1.834 6978
-0.567 4.414 1.899 3032
-0.551 4.287 1.834 6731
-0.569 4.426 1.889 3321
-0.570 4.438 1.879 5667
-0.552 4.292 1.821 4996
-0.588 4.577 1.934 1217
-0.570 4.436 1.863 7648
-0.552 4.297 1.809 3380
-0.588 4.575 1.918 2046
-0.573 4.456 1.856 7115
-0.591 4.595 1.911 3125
-0.555 4.317 1.802 2167
-0.575 4.475 1.849 6660
-0.593 4.615 1.903 3370
-0.584 4.546 1.861 4628
-0.566 4.407 1.808 3050
-0.605 4.708 1.923 1300
-0.584 4.544 1.845 5314
-0.604 4.698 1.904 2270
-0.566 4.404 1.792 2118
-0.584 4.541 1.829 5666
-0.602 4.681 1.882 2657
-0.620 4.821 1.934 1116
-0.584 4.546 1.816 5238
-0.602 4.686 1.868 2482
-0.620 4.826 1.920 1969
-0.590 4.588 1.816 4567
-0.621 4.831 1.906 3493
-0.621 4.829 1.890 5226
-0.594 4.622 1.814 3181
-0.639 4.969 1.941 1113
-0.621 4.834 1.876 4494
-0.603 4.694 1.825 2750
-0.639 4.974 1.927 1981
-0.638 4.965 1.907 3435
-0.609 4.736 1.824 2995
-0.640 4.977 1.895 4886
-0.615 4.785 1.826 2481
-0.658 5.118 1.945 1082
-0.640 4.982 1.880 6093
-0.622 4.842 1.831 1982
-0.658 5.123 1.930 1379
-0.604 4.701 1.781 1186
-0.640 4.980 1.863 4834
-0.622 4.839 1.814 1987
-0.658 5.121 1.913 1520
-0.655 5.096 1.887 3839
-0.624 4.859 1.805 2005
-0.682 5.304 1.959 1264
-0.656 5.101 1.872 6282
-0.682 5.309 1.944 2402
-0.637 4.960 1.824 1186
-0.653 5.084 1.850 6153
-0.681 5.300 1.923 3179
-0.652 5.074 1.830 4717
-0.674 5.245 1.888 3610
-0.692 5.387 1.936 1565
-0.689 5.362 1.910 3174
-0.665 5.176 1.848 3095
-0.647 5.034 1.801 2152
-0.689 5.360 1.892 4811
-0.665 5.173 1.830 2027
-0.690 5.372 1.879 4493
-0.667 5.193 1.820 1655
-0.691 5.377 1.863 3689
-0.723 5.624 1.943 1652
-0.673 5.235 1.817 1330
-0.689 5.360 1.840 3571
-0.721 5.607 1.919 1802
-0.690 5.372 1.827 2806
-0.709 5.515 1.872 1753
-0.736 5.724 1.938 1168
-0.723 5.625 1.889 2038
-0.694 5.400 1.818 1913
-0.750 5.834 1.955 1654
-0.733 5.705 1.896 2958
-0.751 5.847 1.940 1948
-0.695 5.404 1.802 1205
-0.715 5.562 1.851 1049
-0.732 5.695 1.874 3238
-0.750 5.837 1.918 1872
-0.769 5.980 1.962 1027
-0.725 5.640 1.840 3007
-0.757 5.888 1.915 3004
-0.756 5.885 1.896 4263
-0.735 5.720 1.846 1943
-0.775 6.028 1.939 1200
-0.757 5.890 1.878 4932
-0.736 5.725 1.829 2143
-0.775 6.033 1.921 1379
-0.794 6.176 1.964 1037
-0.758 5.895 1.861 3571
-0.793 6.167 1.941 1722
-0.736 5.729 1.812 1179
-0.757 5.893 1.842 1995
-0.791 6.157 1.919 1827
-0.773 6.018 1.859 2488
-0.792 6.162 1.901 1958
-0.815 6.343 1.953 1449
-0.755 5.875 1.818 1113
-0.776 6.038 1.846 2581
-0.804 6.258 1.909 2159
-0.823 6.401 1.950 1151
-0.806 6.270 1.893 2132
-0.778 6.051 1.831 1821
-0.824 6.414 1.933 1515
-0.843 6.558 1.974 1190
-0.809 6.298 1.881 2434
-0.828 6.442 1.921 2263
-0.850 6.616 1.969 1916
-0.780 6.071 1.817 1110
-0.851 6.621 1.950 3645
-0.811 6.311 1.864 2191
-0.832 6.477 1.910 2014
-0.879 6.841 2.010 1493
-0.854 6.641 1.935 3783
-0.881 6.854 1.992 2259
-0.835 6.497 1.895 1856
-0.813 6.323 1.848 1558
-0.850 6.616 1.907 3256
-0.882 6.859 1.972 2161
-0.832 6.472 1.868 1125
-0.853 6.637 1.892 2515
-0.883 6.872 1.954 1853
-0.834 6.492 1.853 1059
-0.887 6.900 1.940 1499
-0.859 6.687 1.884 1481
-0.933 7.257 2.034 1401
-0.911 7.090 1.990 1118
-0.933 7.263 2.013 2533
-0.897 6.981 1.940 1641
-0.860 6.692 1.865 1166
-0.907 7.055 1.937 2396
-0.933 7.260 1.990 1977
-0.970 7.549 2.064 1364
-0.907 7.060 1.916 3229
-0.931 7.243 1.963 1943
-0.972 7.563 2.044 1884
-1.000 7.781 2.075 1821
-0.932 7.248 1.942 1804
-0.973 7.568 2.022 1717
-0.908 7.065 1.896 1417
-1.001 7.787 2.052 2321
-0.974 7.581 2.002 1582
-0.940 7.314 1.936 1181
-1.003 7.808 2.033 1927
-1.022 7.953 2.069 1153
-0.985 7.663 1.998 1120
-1.005 7.821 2.012 2095
-1.024 7.966 2.047 1801
-1.059 8.241 2.114 1082
-1.025 7.979 2.026 1609
-1.006 7.826 1.990 1571
-1.056 8.216 2.082 1060
-1.031 8.023 2.012 1577
-1.097 8.535 2.132 1174
-1.027 7.990 1.979 1040
-1.146 8.914 2.166 1276
-1.106 8.608 2.096 1037
-1.131 8.797 2.112 1240
-1.149 8.943 2.145 1177
-1.132 8.811 2.088 1251
-1.152 8.964 2.122 1129
-1.099 8.550 2.030 1086
-1.175 9.146 2.135 1516
-1.135 8.832 2.066 1088
-1.157 9.000 2.103 1040
-1.175 9.144 2.106 2434
-1.177 9.158 2.081 1907
-1.209 9.403 2.134 1156
-1.273 9.903 2.240 1141
-1.273 9.909 2.211 1579
-1.293 10.063 2.243 1579
-1.210 9.417 2.108 1281
-1.189 9.255 2.074 1082
-1.295 10.076 2.216 1762
-1.274 9.915 2.182 1416
-1.329 10.338 2.270 1328
-1.225 9.530 2.102 1260
-1.328 10.336 2.238 3010
-1.303 10.136 2.197 2296
-1.278 9.944 2.158 1071
-1.228 9.559 2.079 1045
-1.328 10.335 2.206 4422
-1.304 10.150 2.169 2512
-1.357 10.558 2.251 1447
-1.230 9.572 2.053 1075
-1.329 10.341 2.176 4888
-1.360 10.579 2.223 2431
-1.305 10.156 2.139 2255
-1.330 10.346 2.145 4615
-1.357 10.562 2.188 2411
-1.306 10.161 2.109 1427
-1.330 10.352 2.115 3966
-1.358 10.568 2.157 3308
-1.309 10.182 2.083 1373
-1.361 10.589 2.129 3702
-1.332 10.366 2.086 3153
-1.308 10.180 2.051 1574
-1.364 10.611 2.100 2501
-1.333 10.371 2.056 2419
-1.334 10.377 2.026 1852
-1.366 10.632 2.072 1590
-1.367 10.637 2.041 1928
-1.334 10.382 1.995 1327
-1.553 12.083 2.301 1256
-1.366 10.627 2.007 2462
-1.547 12.035 2.256 1224
-1.365 10.625 1.975 2367
-1.368 10.646 1.946 1412
-1.375 10.697 1.923 1199
-1.376 10.710 1.893 1033
-0.293 2.318 1.821 1595
-0.297 2.349 1.833 3696
-0.281 2.228 1.744 1285
-0.312 2.469 1.922 1078
-0.298 2.360 1.831 4936
-0.313 2.480 1.919 1638
-0.283 2.239 1.742 1430
-0.298 2.358 1.819 4330
-0.313 2.479 1.907 3029
-0.312 2.472 1.891 4450
-0.297 2.350 1.803 4073
-0.310 2.457 1.870 5642
-0.295 2.336 1.783 2631
-0.310 2.456 1.858 7154
-0.295 2.334 1.771 1736
-0.311 2.461 1.851 7154
-0.295 2.339 1.765 1736
-0.312 2.472 1.849 8494
-0.297 2.350 1.762 1300
-0.314 2.484 1.846 10248
-0.315 2.495 1.843 10101
-0.317 2.513 1.845 10505
-0.320 2.531 1.847 10317
-0.321 2.542 1.844 10933
-0.322 2.547 1.837 10933
-0.322 2.546 1.825 11742
-0.337 2.670 1.909 1205
-0.321 2.544 1.813 12642
-0.337 2.668 1.897 1978
-0.322 2.549 1.806 12165
-0.338 2.673 1.889 2545
-0.323 2.560 1.803 11746
-0.339 2.685 1.886 3154
-0.325 2.572 1.800 11473
-0.341 2.697 1.882 4140
-0.327 2.590 1.801 12355
-0.343 2.715 1.883 4191
-0.329 2.601 1.798 10120
-0.344 2.726 1.880 4319
-0.339 2.685 1.842 9252
-0.323 2.560 1.760 4688
-0.340 2.690 1.834 11012
-0.324 2.564 1.753 3228
-0.356 2.816 1.915 1128
-0.340 2.688 1.822 12864
-0.356 2.814 1.902 2003
-0.324 2.562 1.741 1419
-0.341 2.700 1.818 10499
-0.357 2.826 1.899 1595
-0.325 2.574 1.738 1086
-0.342 2.705 1.811 8225
-0.360 2.851 1.903 1726
-0.342 2.709 1.803 6590
-0.361 2.856 1.895 2210
-0.344 2.721 1.799 5021
-0.363 2.875 1.895 2795
-0.346 2.739 1.800 5516
-0.362 2.866 1.878 2840
-0.350 2.771 1.808 7270
-0.366 2.898 1.886 2297
-0.354 2.802 1.817 8527
-0.370 2.930 1.894 2055
-0.356 2.821 1.817 11668
-0.372 2.949 1.894 2088
-0.356 2.819 1.804 10516
-0.372 2.947 1.882 2385
-0.357 2.824 1.796 9419
-0.373 2.952 1.873 2429
-0.357 2.829 1.788 7129
-0.374 2.957 1.864 3528
-0.365 2.887 1.812 7080
-0.381 3.016 1.888 1312
-0.365 2.886 1.800 7059
-0.381 3.015 1.875 2029
-0.365 2.890 1.791 4776
-0.383 3.033 1.874 3876
-0.384 3.038 1.866 5148
-0.367 2.909 1.791 2672
-0.400 3.168 1.940 1703
-0.383 3.030 1.849 6990
-0.401 3.173 1.931 3412
-0.366 2.900 1.774 2072
-0.383 3.034 1.840 8990
-0.401 3.178 1.922 4587
-0.367 2.905 1.766 1663
-0.385 3.046 1.835 8313
-0.403 3.190 1.917 5022
-0.368 2.916 1.762 1514
-0.390 3.085 1.846 8626
-0.406 3.216 1.919 4608
-0.373 2.955 1.772 1879
-0.389 3.077 1.829 7755
-0.405 3.207 1.902 7055
-0.372 2.946 1.756 1567
-0.405 3.205 1.889 10680
-0.388 3.075 1.816 7327
-0.372 2.944 1.744 1287
-0.421 3.336 1.962 1140
-0.406 3.210 1.880 12727
-0.389 3.079 1.808 7450
-0.422 3.341 1.952 1404
-0.372 2.949 1.735 1055
-0.406 3.215 1.870 12021
-0.390 3.084 1.799 5758
-0.423 3.347 1.942 2152
-0.406 3.213 1.857 9516
-0.389 3.082 1.786 5112
-0.423 3.345 1.929 3280
-0.407 3.218 1.848 7864
-0.390 3.087 1.777 5964
-0.423 3.350 1.919 2455
-0.408 3.230 1.842 6113
-0.391 3.099 1.772 5474
-0.425 3.362 1.913 1824
-0.410 3.242 1.837 4813
-0.393 3.110 1.767 3644
-0.426 3.374 1.907 1698
-0.411 3.254 1.831 5250
-0.394 3.122 1.761 2403
-0.428 3.386 1.901 2301
-0.420 3.329 1.858 7312
-0.404 3.196 1.789 1903
-0.442 3.503 1.950 1385
-0.420 3.327 1.845 10633
-0.440 3.480 1.925 1746
-0.403 3.194 1.776 1049
-0.421 3.332 1.835 10809
-0.438 3.464 1.904 2128
-0.421 3.336 1.826 11787
-0.446 3.532 1.926 4810
-0.422 3.341 1.816 12588
-0.446 3.530 1.912 7322
-0.422 3.339 1.803 11797
-0.448 3.543 1.906 10720
-0.448 3.548 1.896 15772
-0.422 3.344 1.793 8437
-0.465 3.681 1.963 1668
-0.450 3.560 1.889 17687
-0.423 3.349 1.783 4106
-0.467 3.694 1.955 2289
-0.450 3.565 1.878 15424
-0.433 3.431 1.812 3244
-0.467 3.699 1.945 2701
-0.452 3.577 1.872 10184
-0.469 3.711 1.937 3125
-0.435 3.443 1.806 2512
-0.452 3.582 1.861 7290
-0.469 3.716 1.927 4564
-0.436 3.448 1.796 1420
-0.454 3.594 1.854 7302
-0.473 3.743 1.926 6435
-0.437 3.460 1.789 1448
-0.455 3.599 1.844 8580
-0.474 3.755 1.919 7433
-0.438 3.464 1.779 1195
-0.454 3.597 1.830 7856
-0.474 3.753 1.904 7079
-0.476 3.765 1.897 7738
-0.454 3.595 1.816 4137
-0.494 3.907 1.964 1284
-0.478 3.785 1.893 10205
-0.461 3.649 1.829 3590
-0.495 3.920 1.956 1992
-0.479 3.790 1.882 10698
-0.462 3.654 1.819 4288
-0.496 3.925 1.945 2519
-0.480 3.802 1.874 9286
-0.463 3.666 1.811 5107
-0.497 3.937 1.937 2900
-0.477 3.778 1.850 7460
-0.502 3.971 1.938 3582
-0.460 3.642 1.787 1897
-0.489 3.869 1.878 5722
-0.506 4.005 1.940 2995
-0.472 3.733 1.816 2058
-0.488 3.860 1.860 5131
-0.505 3.996 1.922 2644
-0.468 3.702 1.789 1499
-0.487 3.857 1.846 4418
-0.505 3.994 1.907 2672
-0.468 3.707 1.778 1307
-0.504 3.992 1.892 4250
-0.487 3.855 1.831 3470
-0.521 4.128 1.953 2086
-0.508 4.018 1.890 6583
-0.489 3.867 1.823 3154
-0.525 4.155 1.950 2061
-0.508 4.023 1.878 10047
-0.489 3.872 1.812 2634
-0.526 4.160 1.938 2449
-0.509 4.028 1.867 9596
-0.526 4.165 1.926 2292
-0.491 3.884 1.804 1687
-0.510 4.033 1.855 7989
-0.527 4.171 1.914 2671
-0.491 3.889 1.793 1069
-0.520 4.118 1.877 6748
-0.503 3.981 1.819 1706
-0.538 4.255 1.936 1301
-0.523 4.137 1.872 7223
-0.505 4.000 1.813 1804
-0.541 4.282 1.933 1560
-0.526 4.164 1.869 9097
-0.543 4.302 1.927 2378
-0.509 4.026 1.811 1398
-0.526 4.162 1.854 10906
-0.545 4.314 1.917 2176
-0.525 4.160 1.838 11282
-0.543 4.298 1.896 1766
-0.527 4.172 1.829 7177
-0.544 4.310 1.886 1979
-0.534 4.228 1.838 8012
-0.556 4.402 1.909 1880
-0.537 4.247 1.832 6540
-0.558 4.415 1.899 2345
-0.542 4.288 1.834 6206
-0.560 4.434 1.892 2783
-0.561 4.440 1.879 5503
-0.542 4.293 1.821 4651
-0.578 4.578 1.934 1146
-0.561 4.445 1.866 7603
-0.544 4.306 1.812 3138
-0.579 4.584 1.921 1781
-0.563 4.457 1.856 7727
-0.581 4.596 1.911 2981
-0.545 4.318 1.802 1933
-0.565 4.469 1.846 7349
-0.582 4.609 1.900 3553
-0.575 4.555 1.864 4845
-0.558 4.415 1.811 3658
-0.595 4.709 1.923 1226
-0.575 4.552 1.848 5635
-0.557 4.413 1.795 2844
-0.595 4.707 1.907 1956
-0.575 4.550 1.832 5882
-0.592 4.690 1.885 2404
-0.557 4.410 1.779 1291
-0.610 4.830 1.937 1091
-0.575 4.555 1.819 5234
-0.597 4.724 1.882 3259
-0.614 4.864 1.934 1161
-0.579 4.582 1.814 4605
-0.598 4.737 1.871 3717
-0.616 4.877 1.923 1618
-0.610 4.830 1.890 4345
-0.584 4.624 1.814 3092
-0.628 4.971 1.941 1100
-0.598 4.732 1.838 4770
-0.615 4.872 1.889 2303
-0.598 4.737 1.824 3678
-0.627 4.966 1.907 3146
-0.629 4.979 1.895 4586
-0.605 4.786 1.826 3203
-0.630 4.984 1.880 5776
-0.612 4.843 1.831 2907
-0.647 5.125 1.930 1092
-0.630 4.989 1.866 4702
-0.612 4.848 1.817 2568
-0.648 5.130 1.915 1143
-0.635 5.023 1.862 3394
-0.615 4.867 1.808 2281
-0.669 5.298 1.957 1405
-0.645 5.103 1.872 5757
-0.670 5.303 1.941 2318
-0.627 4.961 1.824 1428
-0.641 5.078 1.848 6180
-0.670 5.301 1.923 3038
-0.624 4.937 1.799 1051
-0.641 5.075 1.830 4946
-0.663 5.247 1.888 3424
-0.681 5.388 1.936 1580
-0.623 4.934 1.783 1231
-0.679 5.371 1.912 2966
-0.641 5.073 1.813 2867
-0.661 5.229 1.865 2637
-0.678 5.369 1.894 4195
-0.654 5.175 1.830 1545
-0.679 5.374 1.879 4309
-0.657 5.202 1.822 1427
-0.679 5.379 1.863 4074
-0.711 5.626 1.943 1751
-0.662 5.237 1.817 1409
-0.677 5.361 1.840 3924
-0.710 5.623 1.924 1948
-0.679 5.374 1.827 2827
-0.697 5.516 1.872 1953
-0.715 5.658 1.917 1253
-0.695 5.499 1.849 1995
-0.737 5.836 1.955 1867
-0.719 5.694 1.910 1810
-0.677 5.356 1.804 1272
-0.721 5.706 1.896 2884
-0.739 5.849 1.940 2251
-0.696 5.511 1.835 1266
-0.713 5.644 1.858 3334
-0.739 5.854 1.923 2170
-0.744 5.889 1.915 3549
-0.714 5.649 1.842 3065
-0.744 5.887 1.896 4364
-0.723 5.721 1.846 2072
-0.762 6.030 1.939 1157
-0.744 5.892 1.878 4679
-0.723 5.726 1.829 2122
-0.762 6.035 1.921 1625
-0.780 6.178 1.964 1208
-0.745 5.897 1.861 3360
-0.780 6.176 1.943 1769
-0.725 5.739 1.815 1046
-0.746 5.902 1.844 2011
-0.786 6.219 1.936 1987
-0.764 6.045 1.886 1590
-0.760 6.020 1.859 2403
-0.779 6.164 1.901 1912
-0.801 6.337 1.951 1537
-0.742 5.877 1.818 1049
-0.778 6.161 1.881 2418
-0.801 6.342 1.932 2006
-0.760 6.017 1.840 1884
-0.825 6.531 1.986 1109
-0.792 6.272 1.893 2316
-0.765 6.053 1.831 1892
-0.829 6.559 1.974 1322
-0.810 6.416 1.933 1260
-0.796 6.300 1.881 2674
-0.835 6.610 1.967 2153
-0.814 6.444 1.921 2131
-0.765 6.057 1.813 1181
-0.838 6.631 1.952 3870
-0.797 6.312 1.864 2345
-0.818 6.479 1.910 1878
-0.864 6.843 2.010 1443
-0.845 6.689 1.947 4612
-0.827 6.545 1.908 2323
-0.865 6.848 1.990 2059
-0.799 6.325 1.848 1570
-0.846 6.694 1.927 4003
-0.827 6.550 1.889 2262
-0.867 6.861 1.972 1993
-0.886 7.013 2.013 1067
-0.839 6.638 1.892 2936
-0.868 6.874 1.954 1945
-0.888 7.026 1.995 1137
-0.820 6.494 1.853 1045
-0.873 6.909 1.942 1561
-0.895 7.084 1.988 1370
-0.838 6.636 1.870 1316
-0.916 7.251 2.032 1232
-0.917 7.257 2.011 2375
-0.881 6.976 1.938 1641
-0.951 7.531 2.082 1249
-0.847 6.702 1.867 1013
-0.891 7.057 1.937 3143
-0.917 7.262 1.990 1970
-0.953 7.544 2.062 1389
-0.891 7.054 1.915 4477
-0.915 7.245 1.963 2033
-0.956 7.565 2.044 1600
-0.892 7.059 1.894 1991
-0.916 7.250 1.942 1739
-0.956 7.570 2.022 1591
-0.983 7.784 2.075 1545
-0.985 7.797 2.054 2040
-0.957 7.576 2.000 1718
-0.924 7.316 1.936 1072
-0.972 7.695 2.005 1867
-0.993 7.863 2.046 1664
-0.954 7.550 1.970 1020
-1.006 7.961 2.046 1743
-0.987 7.815 2.011 1653
-0.969 7.670 1.976 1275
-1.041 8.243 2.114 1085
-1.014 8.027 2.037 1585
-0.990 7.836 1.991 1319
-1.038 8.218 2.082 1251
-1.014 8.025 2.012 1505
-1.080 8.553 2.136 1158
-1.044 8.268 2.043 1081
-1.087 8.604 2.121 1031
-1.127 8.924 2.168 1229
-1.045 8.273 2.019 1154
-1.088 8.610 2.096 1112
-1.130 8.945 2.145 1192
-1.082 8.562 2.059 1021
-1.133 8.967 2.122 1237
-1.081 8.560 2.032 1140
-1.112 8.805 2.086 1026
-1.156 9.149 2.135 1391
-1.117 8.842 2.067 1057
-1.135 8.988 2.099 1007
-1.155 9.147 2.106 2208
-1.194 9.454 2.173 1163
-1.156 9.152 2.080 1691
-1.251 9.906 2.240 1297
-1.188 9.406 2.134 1250
-1.253 9.919 2.213 1851
-1.271 10.065 2.243 1434
-1.190 9.419 2.108 1333
-1.170 9.258 2.074 1069
-1.279 10.125 2.225 1650
-1.253 9.918 2.182 1565
-1.306 10.341 2.270 1331
-1.204 9.533 2.102 1224
-1.306 10.339 2.238 3163
-1.281 10.139 2.197 2330
-1.220 9.662 2.100 1275
-1.306 10.337 2.206 4537
-1.283 10.153 2.169 2589
-1.335 10.569 2.252 1371
-1.209 9.567 2.051 1030
-1.307 10.343 2.176 4967
-1.336 10.575 2.221 2415
-1.283 10.158 2.139 2264
-1.307 10.349 2.145 4633
-1.335 10.565 2.188 2422
-1.284 10.164 2.109 1427
-1.308 10.355 2.115 3811
-1.335 10.571 2.157 3238
-1.285 10.170 2.080 1328
-1.338 10.592 2.129 3903
-1.310 10.368 2.086 3032
-1.285 10.175 2.050 1533
-1.339 10.598 2.097 2772
-1.310 10.374 2.056 2353
-1.311 10.379 2.026 1801
-1.341 10.619 2.069 1568
-1.345 10.648 2.042 1867
-1.312 10.385 1.995 1270
-1.527 12.086 2.301 1080
-1.343 10.630 2.007 2458
-1.521 12.038 2.256 1214
-1.343 10.628 1.975 2509
-1.353 10.710 1.957 1770
-1.352 10.700 1.923 1400
-1.352 10.705 1.891 1089
-0.288 2.319 1.821 1427
-0.290 2.337 1.823 3036
-0.305 2.457 1.912 1541
-0.301 2.430 1.882 4218
-0.282 2.278 1.770 1922
-0.303 2.442 1.879 4403
-0.288 2.321 1.791 2425
-0.304 2.453 1.877 4660
-0.289 2.332 1.789 3292
-0.303 2.445 1.861 5905
-0.288 2.324 1.773 1943
-0.301 2.425 1.835 7295
-0.301 2.430 1.828 7295
-0.316 2.552 1.915 1260
-0.307 2.473 1.849 8003
-0.292 2.351 1.762 1396
-0.308 2.485 1.846 9230
-0.309 2.496 1.843 9548
-0.312 2.514 1.845 10280
-0.314 2.532 1.847 10467
-0.299 2.408 1.762 1040
-0.315 2.543 1.844 11162
-0.316 2.548 1.837 11162
-0.316 2.546 1.825 12183
-0.331 2.670 1.909 1214
-0.316 2.545 1.813 13141
-0.331 2.669 1.897 1950
-0.316 2.550 1.806 12588
-0.332 2.674 1.889 2479
-0.318 2.561 1.803 12105
-0.333 2.686 1.886 3132
-0.319 2.572 1.800 11868
-0.334 2.697 1.882 4263
-0.320 2.584 1.797 12452
-0.336 2.709 1.879 4956
-0.323 2.602 1.798 10235
-0.338 2.727 1.880 4128
-0.333 2.686 1.842 9631
-0.317 2.560 1.760 4882
-0.334 2.691 1.834 11318
-0.318 2.565 1.753 3264
-0.349 2.817 1.915 1002
-0.333 2.689 1.822 13055
-0.349 2.815 1.902 1804
-0.318 2.563 1.741 1309
-0.335 2.701 1.818 10750
-0.351 2.827 1.899 1550
-0.335 2.705 1.811 8496
-0.354 2.852 1.903 1855
-0.337 2.717 1.807 6880
-0.354 2.857 1.895 2303
-0.337 2.722 1.799 5438
-0.357 2.876 1.895 2857
-0.341 2.747 1.804 6170
-0.356 2.874 1.882 2910
-0.343 2.765 1.804 7794
-0.359 2.892 1.882 2639
-0.348 2.803 1.817 9037
-0.363 2.931 1.894 1903
-0.350 2.822 1.817 12407
-0.366 2.950 1.894 2004
-0.350 2.820 1.804 11149
-0.366 2.948 1.882 2212
-0.350 2.825 1.796 9944
-0.366 2.953 1.873 2254
-0.352 2.836 1.792 7575
-0.368 2.965 1.868 3155
-0.359 2.895 1.816 7386
-0.359 2.893 1.804 7253
-0.375 3.022 1.879 1640
-0.359 2.898 1.795 4823
-0.375 3.027 1.870 3555
-0.392 3.163 1.950 1172
-0.371 2.991 1.838 5054
-0.393 3.169 1.940 2012
-0.355 2.862 1.763 1272
-0.376 3.030 1.849 6880
-0.394 3.174 1.931 3888
-0.360 2.901 1.774 1882
-0.376 3.035 1.840 8873
-0.394 3.179 1.922 5158
-0.360 2.905 1.766 1450
-0.378 3.047 1.835 8196
-0.396 3.191 1.917 5630
-0.362 2.917 1.762 1355
-0.382 3.079 1.842 8065
-0.398 3.210 1.915 5761
-0.366 2.949 1.769 1743
-0.397 3.201 1.898 7671
-0.381 3.071 1.825 6994
-0.365 2.940 1.752 1320
-0.398 3.206 1.889 11204
-0.381 3.075 1.816 6720
-0.414 3.337 1.962 1158
-0.365 2.945 1.744 1140
-0.398 3.211 1.880 13328
-0.382 3.080 1.808 7018
-0.414 3.342 1.952 1423
-0.399 3.216 1.870 12814
-0.383 3.085 1.799 5695
-0.415 3.347 1.942 2203
-0.399 3.214 1.857 10840
-0.382 3.083 1.786 5197
-0.415 3.346 1.929 3333
-0.399 3.219 1.848 9493
-0.383 3.088 1.777 5912
-0.416 3.351 1.919 2504
-0.401 3.231 1.842 7441
-0.384 3.099 1.772 5323
-0.417 3.363 1.913 2225
-0.402 3.243 1.837 5819
-0.386 3.111 1.767 3412
-0.418 3.375 1.907 2414
-0.403 3.248 1.827 5830
-0.419 3.380 1.897 3562
-0.386 3.116 1.758 1821
-0.436 3.512 1.967 1064
-0.415 3.343 1.866 7314
-0.398 3.211 1.796 3301
-0.434 3.504 1.950 1603
-0.413 3.328 1.845 10379
-0.435 3.509 1.939 1772
-0.396 3.195 1.776 1232
-0.413 3.332 1.835 10632
-0.430 3.465 1.904 2407
-0.414 3.337 1.826 11665
-0.437 3.526 1.923 4978
-0.414 3.335 1.812 12449
-0.438 3.532 1.912 7898
-0.414 3.340 1.803 11843
-0.439 3.544 1.906 11118
-0.440 3.549 1.896 16326
-0.415 3.345 1.793 8608
-0.459 3.703 1.973 1634
-0.442 3.561 1.889 18226
-0.415 3.350 1.783 4236
-0.458 3.695 1.955 2244
-0.442 3.566 1.878 15881
-0.426 3.432 1.812 3407
-0.459 3.700 1.945 2609
-0.443 3.571 1.868 9860
-0.459 3.705 1.934 3062
-0.426 3.437 1.802 2381
-0.444 3.583 1.861 6402
-0.462 3.724 1.930 4779
-0.428 3.449 1.796 1234
-0.464 3.744 1.926 6942
-0.445 3.588 1.851 6609
-0.428 3.453 1.786 1048
-0.465 3.749 1.915 8227
-0.446 3.593 1.840 8195
-0.446 3.598 1.830 8230
-0.465 3.754 1.904 8010
-0.467 3.766 1.897 7947
-0.445 3.589 1.813 4824
-0.484 3.901 1.961 1308
-0.469 3.778 1.889 9889
-0.444 3.579 1.796 3474
-0.485 3.914 1.953 1961
-0.470 3.791 1.882 10401
-0.453 3.655 1.819 3438
-0.487 3.926 1.945 2264
-0.471 3.796 1.871 9078
-0.454 3.660 1.808 3564
-0.488 3.938 1.937 2695
-0.469 3.779 1.850 7358
-0.493 3.979 1.942 3664
-0.452 3.643 1.787 1485
-0.480 3.870 1.878 5877
-0.497 4.006 1.940 3208
-0.463 3.734 1.816 1744
-0.479 3.861 1.860 5140
-0.496 3.997 1.922 2799
-0.459 3.703 1.789 1096
-0.478 3.859 1.846 4350
-0.495 3.995 1.907 2733
-0.495 3.993 1.892 4627
-0.478 3.856 1.831 3356
-0.512 4.129 1.953 2111
-0.498 4.012 1.887 6884
-0.480 3.868 1.823 2989
-0.514 4.149 1.947 2611
-0.499 4.025 1.878 10103
-0.480 3.873 1.812 2501
-0.516 4.161 1.938 2246
-0.500 4.030 1.867 9639
-0.517 4.167 1.926 1883
-0.482 3.885 1.804 1749
-0.500 4.035 1.855 8137
-0.517 4.172 1.914 1994
-0.483 3.897 1.796 1264
-0.511 4.119 1.877 6561
-0.494 3.982 1.819 1627
-0.528 4.257 1.936 1100
-0.512 4.131 1.868 7096
-0.531 4.283 1.933 1520
-0.495 3.994 1.810 1378
-0.516 4.165 1.869 9369
-0.534 4.303 1.927 2412
-0.499 4.028 1.811 1420
-0.516 4.163 1.854 11967
-0.534 4.308 1.914 2348
-0.516 4.161 1.838 12701
-0.535 4.313 1.902 1717
-0.517 4.173 1.829 8000
-0.535 4.311 1.886 2123
-0.524 4.229 1.838 7933
-0.548 4.418 1.915 1821
-0.526 4.241 1.829 6046
-0.549 4.431 1.905 1761
-0.532 4.290 1.834 5461
-0.551 4.443 1.895 2394
-0.552 4.448 1.882 5350
-0.531 4.280 1.815 4054
-0.569 4.587 1.937 1015
-0.552 4.453 1.869 7537
-0.534 4.307 1.812 2534
-0.569 4.592 1.924 1564
-0.553 4.458 1.856 8321
-0.570 4.597 1.911 2813
-0.533 4.297 1.793 1685
-0.554 4.470 1.846 8028
-0.572 4.610 1.900 3259
-0.565 4.556 1.864 5017
-0.548 4.417 1.811 4035
-0.584 4.710 1.923 1202
-0.565 4.554 1.848 5892
-0.547 4.414 1.795 3248
-0.584 4.708 1.907 1676
-0.564 4.551 1.832 5953
-0.582 4.691 1.885 2534
-0.547 4.412 1.779 1553
-0.599 4.831 1.937 1080
-0.565 4.556 1.819 5228
-0.586 4.726 1.882 4120
-0.603 4.866 1.934 1137
-0.588 4.738 1.871 4583
-0.567 4.576 1.811 4369
-0.605 4.878 1.923 1474
-0.587 4.736 1.854 4511
-0.570 4.595 1.803 2771
-0.605 4.876 1.906 1932
-0.586 4.726 1.835 5473
-0.603 4.866 1.886 2245
-0.569 4.585 1.784 1057
-0.588 4.738 1.824 4485
-0.616 4.968 1.907 2740
-0.570 4.598 1.774 1032
-0.618 4.980 1.895 4240
-0.595 4.795 1.829 3748
-0.618 4.985 1.880 5490
-0.601 4.844 1.831 4124
-0.619 4.990 1.866 4648
-0.601 4.849 1.817 3361
-0.641 5.168 1.928 1053
-0.623 5.025 1.862 4092
-0.604 4.869 1.808 2672
-0.657 5.300 1.957 1482
-0.629 5.074 1.862 5409
-0.658 5.305 1.941 2127
-0.607 4.896 1.801 1774
-0.629 5.072 1.845 6231
-0.655 5.280 1.916 2745
-0.610 4.923 1.794 1284
-0.629 5.069 1.828 5181
-0.653 5.263 1.893 3154
-0.670 5.405 1.941 1287
-0.611 4.928 1.780 1189
-0.629 5.074 1.813 3110
-0.654 5.276 1.880 2940
-0.672 5.417 1.927 1553
-0.665 5.363 1.892 3656
-0.641 5.169 1.828 1086
-0.667 5.375 1.879 4156
-0.649 5.233 1.832 1242
-0.668 5.388 1.865 4243
-0.698 5.627 1.943 1805
-0.650 5.246 1.819 1458
-0.663 5.348 1.835 4092
-0.698 5.632 1.926 2146
-0.681 5.490 1.881 1666
-0.666 5.368 1.824 2826
-0.683 5.510 1.870 1877
-0.701 5.653 1.915 1436
-0.683 5.508 1.851 2079
-0.724 5.838 1.955 1974
-0.706 5.695 1.910 1772
-0.665 5.365 1.806 1446
-0.708 5.708 1.896 2555
-0.725 5.850 1.940 2520
-0.683 5.505 1.833 1510
-0.700 5.645 1.858 3507
-0.728 5.871 1.928 2723
-0.680 5.487 1.810 1213
-0.730 5.891 1.915 4120
-0.701 5.650 1.842 3045
-0.730 5.889 1.896 4517
-0.710 5.723 1.846 1961
-0.748 6.032 1.939 1001
-0.731 5.894 1.878 4423
-0.711 5.735 1.831 1975
-0.763 6.157 1.957 1553
-0.731 5.899 1.861 3193
-0.749 6.042 1.903 1554
-0.767 6.185 1.946 1516
-0.742 5.987 1.868 2273
-0.772 6.228 1.939 1699
-0.747 6.022 1.859 2316
-0.764 6.165 1.901 1745
-0.787 6.347 1.953 1520
-0.749 6.042 1.846 2257
-0.787 6.344 1.932 1976
-0.767 6.185 1.887 1949
-0.811 6.541 1.988 1079
-0.779 6.281 1.895 2290
-0.751 6.054 1.831 2075
-0.818 6.599 1.984 1292
-0.797 6.425 1.935 1098
-0.781 6.302 1.881 2894
-0.820 6.612 1.967 2427
-0.799 6.445 1.921 1897
-0.752 6.067 1.815 1348
-0.822 6.632 1.952 3747
-0.784 6.322 1.866 2541
-0.805 6.488 1.912 1969
-0.849 6.845 2.010 1323
-0.829 6.683 1.945 4864
-0.849 6.850 1.990 1843
-0.811 6.539 1.906 1807
-0.784 6.319 1.846 1559
-0.829 6.688 1.925 4312
-0.851 6.863 1.972 1824
-0.811 6.544 1.887 1758
-0.871 7.022 2.015 1306
-0.823 6.640 1.892 2986
-0.854 6.883 1.956 1844
-0.872 7.035 1.997 1374
-0.805 6.496 1.853 1180
-0.875 7.056 1.980 1919
-0.857 6.911 1.942 1409
-0.823 6.638 1.870 1317
-0.899 7.254 2.032 1159
-0.875 7.054 1.958 2383
-0.901 7.267 2.013 2286
-0.934 7.533 2.082 1432
-0.874 7.051 1.935 4580
-0.901 7.264 1.990 1744
-0.935 7.538 2.060 1309
-0.875 7.056 1.915 5922
-0.899 7.247 1.963 1687
-0.938 7.567 2.044 1212
-0.876 7.061 1.894 2786
-0.898 7.244 1.940 1527
-0.939 7.572 2.022 1485
-0.966 7.793 2.077 1308
-0.940 7.578 2.000 1862
-0.967 7.799 2.054 1840
-0.908 7.326 1.937 1054
-0.954 7.698 2.005 2284
-0.975 7.866 2.046 1809
-0.936 7.553 1.970 1023
-0.987 7.963 2.046 1685
-0.954 7.695 1.981 1639
-1.021 8.238 2.112 1099
-0.996 8.029 2.037 1622
-1.019 8.221 2.082 1305
-0.975 7.861 1.997 1220
-0.954 7.693 1.957 1029
-0.996 8.035 2.013 1469
-1.024 8.257 2.065 1089
-0.978 7.890 1.979 1060
-1.061 8.555 2.136 1055
-1.026 8.278 2.045 1242
-1.026 8.276 2.019 1309
-1.107 8.927 2.168 1175
-1.069 8.620 2.098 1080
-1.110 8.948 2.145 1129
-1.063 8.572 2.060 1091
-1.113 8.977 2.124 1432
-1.062 8.562 2.032 1123
-1.146 9.245 2.184 1064
-1.134 9.144 2.133 1283
-1.114 8.982 2.098 1196
-1.172 9.451 2.200 1100
-1.134 9.149 2.106 2055
-1.172 9.449 2.171 1330
-1.134 9.147 2.078 1529
-1.230 9.916 2.242 1468
-1.167 9.409 2.134 1330
-1.230 9.922 2.213 2100
-1.179 9.507 2.125 1399
-1.248 10.068 2.243 1293
-1.148 9.261 2.074 1000
-1.230 9.920 2.182 1620
-1.256 10.128 2.225 1546
-1.197 9.651 2.126 1325
-1.283 10.344 2.270 1267
-1.282 10.342 2.238 3178
-1.258 10.142 2.197 2281
-1.198 9.664 2.100 1444
-1.282 10.340 2.206 4426
-1.259 10.155 2.169 2473
-1.311 10.572 2.252 1240
-1.283 10.346 2.176 4749
-1.313 10.585 2.223 2348
-1.260 10.161 2.139 2088
-1.284 10.352 2.145 4409
-1.311 10.576 2.189 2351
-1.260 10.159 2.108 1394
-1.284 10.358 2.115 3427
-1.312 10.582 2.158 3043
-1.261 10.173 2.080 1303
-1.314 10.595 2.129 3945
-1.286 10.371 2.086 2666
-1.262 10.178 2.050 1474
-1.314 10.601 2.097 3104
-1.287 10.377 2.056 2067
-1.315 10.607 2.066 1899
-1.287 10.382 2.026 1536
-1.320 10.643 2.041 1926
-1.288 10.388 1.995 1062
-1.320 10.649 2.010 2467
-1.492 12.034 2.254 1107
-1.318 10.631 1.975 2430
-1.328 10.713 1.957 1967
-1.328 10.711 1.924 1260
-0.283 2.320 1.821 1329
-0.285 2.337 1.823 2713
-0.299 2.458 1.912 1516
-0.296 2.431 1.882 4604
-0.278 2.285 1.775 2166
-0.297 2.436 1.875 4848
-0.282 2.315 1.787 2127
-0.297 2.435 1.863 5113
-0.282 2.313 1.775 1922
-0.295 2.420 1.842 6281
-0.280 2.299 1.755 1045
-0.295 2.419 1.831 7751
-0.309 2.541 1.918 1111
-0.295 2.424 1.824 7751
-0.310 2.546 1.911 1725
-0.299 2.454 1.835 7314
-0.284 2.332 1.749 1153
-0.303 2.485 1.846 8145
-0.304 2.497 1.843 9043
-0.306 2.514 1.845 10144
-0.308 2.532 1.847 10465
-0.293 2.409 1.762 1110
-0.309 2.537 1.840 11046
-0.310 2.542 1.832 11046
-0.310 2.547 1.825 12434
-0.325 2.671 1.909 1185
-0.310 2.545 1.813 13633
-0.325 2.670 1.897 1864
-0.311 2.550 1.806 13113
-0.326 2.675 1.889 2361
-0.312 2.562 1.803 12655
-0.327 2.686 1.886 3036
-0.313 2.573 1.800 12394
-0.329 2.698 1.882 4313
-0.315 2.584 1.797 12877
-0.330 2.710 1.879 5029
-0.317 2.602 1.798 10646
-0.332 2.728 1.880 3928
-0.327 2.687 1.842 9850
-0.312 2.561 1.760 4921
-0.328 2.692 1.834 11416
-0.313 2.566 1.753 3213
-0.328 2.690 1.822 13001
-0.343 2.816 1.902 1599
-0.312 2.564 1.741 1190
-0.329 2.701 1.818 10800
-0.344 2.828 1.899 1486
-0.330 2.706 1.811 8617
-0.347 2.846 1.899 1950
-0.331 2.718 1.807 7101
-0.348 2.858 1.895 2376
-0.332 2.729 1.803 5834
-0.350 2.876 1.895 2897
-0.335 2.747 1.804 6742
-0.350 2.875 1.882 2985
-0.337 2.766 1.804 8316
-0.352 2.893 1.882 2691
-0.342 2.804 1.817 9524
-0.357 2.932 1.894 1731
-0.344 2.822 1.817 12963
-0.359 2.950 1.894 1890
-0.328 2.694 1.739 1047
-0.344 2.820 1.804 11536
-0.359 2.949 1.882 2043
-0.344 2.825 1.796 10132
-0.360 2.954 1.873 2110
-0.346 2.837 1.792 7839
-0.361 2.965 1.868 3068
-0.353 2.896 1.816 7662
-0.353 2.901 1.808 7502
-0.369 3.030 1.883 1099
-0.359 2.946 1.823 5096
-0.375 3.076 1.898 2007
-0.343 2.817 1.748 1129
-0.364 2.992 1.838 4911
-0.386 3.169 1.940 2271
-0.349 2.863 1.763 1240
-0.369 3.031 1.849 6816
-0.387 3.175 1.931 4249
-0.353 2.901 1.774 1728
-0.370 3.036 1.840 8871
-0.387 3.180 1.922 5557
-0.354 2.906 1.766 1244
-0.371 3.048 1.835 8208
-0.389 3.192 1.917 6008
-0.355 2.918 1.762 1224
-0.374 3.067 1.834 7766
-0.389 3.197 1.908 6600
-0.358 2.936 1.761 1421
-0.390 3.202 1.898 7885
-0.374 3.071 1.825 6517
-0.358 2.941 1.752 1288
-0.391 3.207 1.889 11393
-0.375 3.076 1.816 6369
-0.407 3.338 1.962 1149
-0.359 2.945 1.744 1100
-0.391 3.212 1.880 13616
-0.375 3.081 1.808 6967
-0.407 3.343 1.952 1409
-0.392 3.217 1.870 13256
-0.376 3.086 1.799 5998
-0.408 3.348 1.942 2186
-0.392 3.215 1.857 11755
-0.376 3.084 1.786 5251
-0.408 3.347 1.929 3282
-0.392 3.220 1.848 10671
-0.376 3.089 1.777 5459
-0.408 3.352 1.919 2510
-0.394 3.232 1.842 8447
-0.378 3.100 1.772 4735
-0.410 3.364 1.913 2651
-0.395 3.244 1.837 6637
-0.411 3.376 1.907 3172
-0.379 3.112 1.767 2994
-0.396 3.249 1.827 6291
-0.412 3.381 1.897 4367
-0.380 3.117 1.758 1633
-0.428 3.513 1.967 1092
-0.408 3.351 1.869 7396
-0.392 3.219 1.800 4257
-0.427 3.505 1.950 1786
-0.406 3.335 1.849 10037
-0.428 3.510 1.939 1973
-0.390 3.203 1.780 1659
-0.406 3.333 1.835 10339
-0.422 3.466 1.904 2796
-0.407 3.338 1.826 11378
-0.429 3.520 1.919 5094
-0.406 3.336 1.812 12120
-0.430 3.532 1.912 8062
-0.407 3.341 1.803 11540
-0.431 3.538 1.902 11207
-0.432 3.550 1.896 16338
-0.408 3.346 1.793 8322
-0.451 3.704 1.973 1602
-0.433 3.555 1.885 18381
-0.408 3.351 1.783 4088
-0.452 3.710 1.962 2077
-0.434 3.560 1.875 16157
-0.417 3.426 1.809 3213
-0.451 3.701 1.945 2349
-0.435 3.572 1.868 9978
-0.451 3.706 1.934 2701
-0.419 3.438 1.802 2491
-0.436 3.577 1.858 6089
-0.454 3.725 1.930 4893
-0.419 3.442 1.792 1140
-0.455 3.738 1.923 7363
-0.436 3.582 1.847 6203
-0.457 3.750 1.915 8829
-0.438 3.594 1.840 7961
-0.421 3.459 1.776 1016
-0.437 3.592 1.827 8460
-0.457 3.755 1.904 8430
-0.459 3.767 1.897 7472
-0.437 3.589 1.813 5531
-0.475 3.902 1.961 1319
-0.460 3.779 1.889 8800
-0.436 3.580 1.796 4104
-0.477 3.915 1.953 1850
-0.461 3.785 1.878 9441
-0.438 3.592 1.789 3257
-0.477 3.920 1.942 2063
-0.458 3.761 1.854 9019
-0.475 3.897 1.917 2599
-0.442 3.625 1.791 1822
-0.469 3.852 1.883 7226
-0.486 3.988 1.945 3416
-0.453 3.716 1.820 2775
-0.472 3.871 1.878 5860
-0.488 4.007 1.940 3134
-0.455 3.735 1.816 1544
-0.470 3.862 1.860 4910
-0.487 3.998 1.922 2825
-0.470 3.860 1.846 4064
-0.487 3.996 1.907 2770
-0.486 3.994 1.892 4807
-0.470 3.857 1.831 3130
-0.503 4.131 1.953 2031
-0.489 4.013 1.887 6993
-0.471 3.869 1.823 2868
-0.506 4.150 1.947 2472
-0.490 4.026 1.878 9951
-0.472 3.874 1.812 2466
-0.507 4.163 1.938 2014
-0.491 4.031 1.867 9583
-0.473 3.886 1.804 1780
-0.508 4.168 1.926 1608
-0.492 4.036 1.855 8296
-0.508 4.173 1.914 1558
-0.474 3.891 1.793 1296
-0.493 4.048 1.846 6779
-0.510 4.185 1.905 1293
-0.475 3.903 1.785 1051
-0.503 4.132 1.868 7066
-0.521 4.277 1.930 1583
-0.487 3.995 1.810 1347
-0.507 4.166 1.869 9502
-0.524 4.304 1.927 2385
-0.491 4.029 1.811 1751
-0.507 4.164 1.854 12720
-0.525 4.309 1.914 2435
-0.507 4.162 1.838 13537
-0.526 4.315 1.902 1742
-0.508 4.174 1.829 8392
-0.525 4.312 1.886 2408
-0.515 4.230 1.838 7555
-0.537 4.412 1.912 2107
-0.517 4.242 1.829 5689
-0.542 4.454 1.914 1672
-0.523 4.291 1.834 4690
-0.543 4.459 1.901 2457
-0.543 4.457 1.885 5342
-0.521 4.274 1.813 3493
-0.543 4.462 1.872 7360
-0.521 4.279 1.800 2164
-0.560 4.601 1.927 1330
-0.543 4.459 1.856 8578
-0.560 4.599 1.911 2680
-0.523 4.291 1.791 1782
-0.544 4.464 1.843 8485
-0.561 4.604 1.897 3508
-0.523 4.296 1.778 1017
-0.556 4.565 1.867 5029
-0.539 4.425 1.813 4518
-0.573 4.704 1.920 1212
-0.556 4.562 1.851 5745
-0.539 4.423 1.798 3827
-0.573 4.702 1.904 1542
-0.555 4.553 1.832 5571
-0.574 4.715 1.893 2691
-0.537 4.413 1.779 1798
-0.554 4.550 1.816 4983
-0.576 4.727 1.882 4777
-0.593 4.867 1.934 1119
-0.576 4.732 1.868 5180
-0.557 4.570 1.808 4216
-0.593 4.872 1.920 1588
-0.576 4.730 1.852 4667
-0.559 4.589 1.800 2761
-0.593 4.870 1.903 2066
-0.576 4.727 1.835 5741
-0.593 4.868 1.886 2059
-0.559 4.587 1.784 1447
-0.577 4.739 1.824 5123
-0.605 4.969 1.907 2346
-0.560 4.599 1.774 1294
-0.591 4.848 1.847 4201
-0.608 4.989 1.898 3816
-0.573 4.707 1.797 1730
-0.593 4.868 1.838 5688
-0.610 5.009 1.888 4519
-0.608 4.991 1.866 4610
-0.591 4.850 1.817 3828
-0.642 5.274 1.964 1073
-0.612 5.026 1.862 4745
-0.593 4.870 1.808 2739
-0.642 5.271 1.947 1524
-0.616 5.061 1.857 5674
-0.641 5.262 1.926 2173
-0.597 4.897 1.801 1916
-0.618 5.073 1.845 6438
-0.642 5.267 1.911 2597
-0.600 4.924 1.794 1495
-0.618 5.071 1.828 5368
-0.642 5.272 1.895 2897
-0.600 4.929 1.780 1319
-0.619 5.083 1.815 3231
-0.644 5.285 1.883 3159
-0.661 5.426 1.930 1109
-0.645 5.297 1.870 3398
-0.662 5.439 1.916 1207
-0.621 5.095 1.803 1013
-0.654 5.369 1.876 4112
-0.637 5.227 1.830 1184
-0.650 5.337 1.848 4419
-0.687 5.636 1.945 1805
-0.667 5.479 1.894 1695
-0.651 5.342 1.833 4228
-0.686 5.634 1.926 2371
-0.668 5.484 1.878 1648
-0.651 5.347 1.817 2727
-0.687 5.639 1.910 1983
-0.669 5.489 1.862 1773
-0.672 5.517 1.854 2012
-0.712 5.847 1.957 1970
-0.693 5.689 1.908 1812
-0.655 5.374 1.809 1535
-0.714 5.860 1.942 2771
-0.695 5.709 1.896 2431
-0.670 5.499 1.830 1528
-0.688 5.647 1.858 3543
-0.716 5.880 1.930 3311
-0.667 5.474 1.805 1265
-0.718 5.892 1.915 4612
-0.688 5.652 1.842 3018
-0.717 5.890 1.896 4612
-0.697 5.724 1.846 1765
-0.718 5.895 1.878 4226
-0.698 5.729 1.829 1813
-0.751 6.166 1.959 1755
-0.720 5.908 1.863 3171
-0.737 6.051 1.906 1693
-0.754 6.194 1.948 1539
-0.725 5.950 1.857 2646
-0.759 6.230 1.939 1822
-0.735 6.031 1.862 2426
-0.761 6.250 1.925 1612
-0.779 6.394 1.966 1102
-0.717 5.887 1.820 1040
-0.736 6.043 1.846 2216
-0.754 6.187 1.887 1925
-0.774 6.353 1.935 1773
-0.796 6.535 1.986 1161
-0.766 6.291 1.897 2231
-0.738 6.056 1.831 1711
-0.805 6.608 1.986 1441
-0.787 6.465 1.946 1046
-0.769 6.311 1.883 2776
-0.806 6.614 1.967 2556
-0.788 6.470 1.927 1544
-0.739 6.068 1.815 1287
-0.807 6.627 1.950 3302
-0.770 6.323 1.866 2457
-0.790 6.483 1.910 1572
-0.834 6.846 2.010 1178
-0.814 6.685 1.945 4773
-0.769 6.313 1.844 1609
-0.835 6.859 1.992 1565
-0.797 6.541 1.906 1409
-0.815 6.690 1.925 4347
-0.837 6.872 1.974 1635
-0.856 7.024 2.015 1477
-0.797 6.546 1.887 1388
-0.809 6.642 1.892 2897
-0.838 6.878 1.954 1594
-0.857 7.037 1.997 1441
-0.791 6.498 1.853 1040
-0.860 7.058 1.980 2250
-0.809 6.640 1.870 1494
-0.884 7.255 2.032 1047
-0.858 7.048 1.956 3166
-0.884 7.261 2.011 1966
-0.918 7.535 2.082 1529
-0.859 7.053 1.935 5628
-0.884 7.259 1.988 1596
-0.918 7.540 2.060 1249
-0.860 7.058 1.915 7223
-0.883 7.249 1.963 1569
-0.912 7.485 2.023 1121
-0.859 7.056 1.892 3593
-0.914 7.506 2.005 1510
-0.884 7.254 1.942 1255
-0.950 7.796 2.077 1080
-0.922 7.572 1.998 1753
-0.940 7.717 2.034 1632
-0.958 7.862 2.069 1365
-0.859 7.053 1.870 1058
-0.938 7.700 2.005 2368
-0.958 7.868 2.046 1857
-0.862 7.073 1.853 1162
-0.920 7.555 1.970 1019
-0.960 7.881 2.025 1688
-0.938 7.697 1.981 1654
-0.978 8.026 2.060 1276
-1.001 8.217 2.106 1211
-0.978 8.032 2.037 1516
-1.002 8.223 2.082 1431
-0.961 7.886 2.002 1207
-0.979 8.037 2.013 1325
-1.007 8.267 2.067 1299
-0.960 7.884 1.977 1098
-1.040 8.542 2.132 1051
-1.009 8.280 2.045 1382
-1.008 8.278 2.019 1423
-1.088 8.929 2.168 1053
-1.043 8.559 2.057 1162
-1.092 8.966 2.149 1119
-1.009 8.283 1.995 1000
-1.094 8.979 2.124 1583
-1.043 8.565 2.032 1152
-1.126 9.248 2.184 1093
-1.094 8.985 2.098 1335
-1.151 9.446 2.199 1200
-1.125 9.238 2.153 1065
-1.115 9.152 2.106 1692
-1.142 9.375 2.155 1462
-1.208 9.919 2.242 1667
-1.144 9.396 2.130 1450
-1.127 9.250 2.099 1286
-1.109 9.104 2.068 1185
-1.209 9.925 2.213 2400
-1.157 9.502 2.124 1434
-1.228 10.079 2.245 1112
-1.128 9.263 2.074 1023
-1.210 9.931 2.184 1768
-1.176 9.654 2.126 1418
-1.234 10.131 2.225 1302
-1.261 10.354 2.271 1148
-1.261 10.353 2.239 3029
-1.235 10.137 2.195 2008
-1.177 9.667 2.100 1602
-1.261 10.351 2.208 4159
-1.236 10.150 2.167 2191
-1.289 10.582 2.254 1109
-1.261 10.349 2.176 4398
-1.290 10.588 2.223 2246
-1.237 10.156 2.138 1816
-1.261 10.355 2.145 3997
-1.289 10.586 2.191 2330
-1.238 10.162 2.108 1277
-1.262 10.361 2.115 2916
-1.290 10.592 2.160 2916
-1.238 10.168 2.078 1212
-1.292 10.606 2.130 3985
-1.264 10.374 2.086 2186
-1.240 10.181 2.050 1349
-1.292 10.604 2.097 3334
-1.264 10.380 2.056 1637
-1.292 10.609 2.066 2167
-1.265 10.385 2.026 1161
-1.297 10.646 2.041 2063
-1.298 10.659 2.011 2572
-1.305 10.711 1.988 2261
-1.306 10.724 1.958 2063
-1.306 10.722 1.925 1131
-0.277 2.320 1.821 1319
-0.281 2.357 1.837 2791
-0.267 2.236 1.749 1273
-0.290 2.425 1.877 5554
-0.273 2.285 1.775 2444
-0.290 2.430 1.870 5822
-0.276 2.309 1.782 2039
-0.291 2.435 1.863 6091
-0.276 2.314 1.775 1990
-0.289 2.421 1.842 7031
-0.275 2.300 1.755 1177
-0.289 2.420 1.831 8362
-0.303 2.541 1.918 1167
-0.289 2.425 1.824 8362
-0.304 2.547 1.911 1806
-0.292 2.442 1.826 7758
-0.306 2.565 1.912 1335
-0.294 2.460 1.828 7805
-0.298 2.497 1.843 9037
-0.301 2.522 1.850 10476
-0.286 2.399 1.764 1007
-0.302 2.533 1.847 10624
-0.288 2.410 1.762 1163
-0.303 2.538 1.840 10900
-0.304 2.543 1.832 10900
-0.304 2.548 1.825 12375
-0.319 2.672 1.909 1184
-0.305 2.553 1.818 13686
-0.320 2.677 1.901 1481
-0.305 2.551 1.806 13072
-0.319 2.676 1.889 2263
-0.306 2.562 1.803 12492
-0.321 2.687 1.886 2906
-0.307 2.574 1.800 12330
-0.322 2.699 1.882 4345
-0.309 2.592 1.801 12862
-0.324 2.717 1.883 4223
-0.311 2.603 1.798 10777
-0.326 2.729 1.880 3752
-0.321 2.687 1.842 10014
-0.306 2.562 1.760 4792
-0.321 2.692 1.834 11382
-0.306 2.566 1.753 3075
-0.322 2.697 1.826 12750
-0.307 2.571 1.746 1359
-0.337 2.823 1.907 1129
-0.323 2.702 1.818 10685
-0.338 2.828 1.899 1425
-0.323 2.707 1.811 8620
-0.340 2.847 1.899 1978
-0.325 2.718 1.807 7216
-0.341 2.859 1.895 2403
-0.326 2.730 1.803 6133
-0.343 2.870 1.891 2909
-0.329 2.755 1.808 7221
-0.344 2.882 1.886 2958
-0.330 2.766 1.804 8717
-0.346 2.894 1.882 2746
-0.334 2.798 1.812 9871
-0.349 2.926 1.890 1654
-0.336 2.816 1.813 13264
-0.352 2.944 1.890 1802
-0.337 2.821 1.804 11632
-0.352 2.949 1.882 1939
-0.337 2.826 1.796 10000
-0.353 2.955 1.873 2076
-0.339 2.838 1.792 7919
-0.354 2.966 1.868 2958
-0.347 2.903 1.820 7981
-0.331 2.775 1.744 1330
-0.348 2.915 1.815 7920
-0.352 2.947 1.823 5393
-0.367 3.077 1.898 1536
-0.336 2.818 1.748 1209
-0.357 2.993 1.838 4737
-0.378 3.170 1.940 2491
-0.342 2.863 1.763 1212
-0.362 3.032 1.849 6586
-0.379 3.175 1.931 4531
-0.347 2.902 1.774 1585
-0.362 3.030 1.836 8748
-0.380 3.181 1.922 5843
-0.364 3.049 1.835 8112
-0.381 3.193 1.917 6190
-0.348 2.919 1.762 1127
-0.365 3.061 1.830 7625
-0.382 3.198 1.908 6667
-0.350 2.930 1.757 1290
-0.382 3.203 1.898 7783
-0.367 3.072 1.825 6371
-0.351 2.942 1.752 1439
-0.383 3.208 1.889 11199
-0.367 3.077 1.816 6323
-0.352 2.946 1.744 1180
-0.399 3.339 1.962 1111
-0.384 3.213 1.880 13500
-0.368 3.082 1.808 7100
-0.399 3.344 1.952 1356
-0.384 3.218 1.870 13382
-0.369 3.087 1.799 6227
-0.400 3.349 1.942 2097
-0.384 3.216 1.857 12657
-0.368 3.085 1.786 5049
-0.400 3.348 1.929 3117
-0.385 3.221 1.848 12042
-0.369 3.089 1.777 4797
-0.400 3.353 1.919 2448
-0.386 3.233 1.842 9708
-0.370 3.101 1.772 3934
-0.402 3.365 1.913 3106
-0.387 3.245 1.837 7722
-0.403 3.377 1.907 4018
-0.372 3.113 1.767 2259
-0.387 3.243 1.824 6880
-0.403 3.375 1.894 5699
-0.419 3.507 1.963 1159
-0.371 3.111 1.754 1032
-0.402 3.366 1.877 7480
-0.386 3.234 1.807 5600
-0.419 3.506 1.950 1889
-0.398 3.336 1.849 9433
-0.419 3.511 1.939 2118
-0.382 3.204 1.780 1700
-0.398 3.334 1.835 9779
-0.414 3.467 1.904 3211
-0.382 3.201 1.767 1021
-0.399 3.339 1.826 10736
-0.420 3.521 1.919 5195
-0.398 3.337 1.812 11340
-0.421 3.526 1.909 8058
-0.422 3.539 1.902 10997
-0.399 3.342 1.803 10841
-0.424 3.551 1.896 16032
-0.400 3.347 1.793 7738
-0.442 3.705 1.973 1435
-0.425 3.556 1.885 18323
-0.400 3.351 1.783 3795
-0.443 3.711 1.962 1789
-0.425 3.561 1.875 16526
-0.409 3.427 1.809 3216
-0.443 3.709 1.948 1930
-0.426 3.566 1.865 10397
-0.443 3.714 1.937 2321
-0.410 3.432 1.799 2267
-0.427 3.578 1.858 6216
-0.445 3.727 1.930 5088
-0.411 3.443 1.792 1253
-0.446 3.739 1.923 7758
-0.428 3.583 1.847 6152
-0.412 3.448 1.782 1034
-0.447 3.744 1.912 9353
-0.428 3.588 1.837 7918
-0.448 3.756 1.904 8753
-0.429 3.593 1.827 8703
-0.450 3.768 1.897 6905
-0.428 3.583 1.809 6020
-0.466 3.904 1.961 1317
-0.451 3.781 1.889 7645
-0.428 3.581 1.796 4440
-0.468 3.916 1.953 1729
-0.452 3.786 1.878 8440
-0.429 3.593 1.789 3511
-0.468 3.921 1.942 1790
-0.448 3.755 1.851 9274
-0.465 3.891 1.914 2594
-0.430 3.605 1.782 1922
-0.451 3.774 1.847 7122
-0.475 3.982 1.942 3304
-0.462 3.872 1.878 5452
-0.479 4.008 1.940 3001
-0.446 3.736 1.816 1516
-0.461 3.863 1.860 4337
-0.477 3.999 1.922 2907
-0.461 3.861 1.846 3631
-0.477 3.997 1.907 2835
-0.476 3.988 1.889 4692
-0.460 3.851 1.828 2892
-0.492 4.125 1.950 2302
-0.478 4.007 1.884 6851
-0.495 4.144 1.944 2876
-0.462 3.871 1.823 2642
-0.481 4.027 1.878 9607
-0.463 3.875 1.812 2288
-0.497 4.164 1.938 1862
-0.481 4.032 1.867 9175
-0.465 3.895 1.807 1722
-0.498 4.169 1.926 1452
-0.482 4.037 1.855 7985
-0.465 3.892 1.793 1331
-0.498 4.174 1.914 1276
-0.483 4.049 1.846 7017
-0.505 4.230 1.924 1200
-0.466 3.904 1.785 1082
-0.493 4.126 1.865 7284
-0.511 4.279 1.930 1623
-0.476 3.989 1.807 1112
-0.497 4.160 1.866 9192
-0.514 4.305 1.927 2347
-0.480 4.023 1.808 1689
-0.497 4.165 1.854 12582
-0.515 4.311 1.914 2547
-0.497 4.163 1.838 13455
-0.514 4.301 1.896 1988
-0.498 4.175 1.829 8369
-0.515 4.314 1.886 2890
-0.532 4.452 1.943 1118
-0.504 4.224 1.835 7027
-0.527 4.413 1.912 2632
-0.507 4.243 1.829 5317
-0.529 4.433 1.905 2036
-0.512 4.285 1.831 3816
-0.532 4.453 1.898 2753
-0.532 4.458 1.885 5310
-0.510 4.268 1.810 3254
-0.533 4.463 1.872 7171
-0.510 4.273 1.797 2184
-0.549 4.602 1.927 1345
-0.533 4.461 1.856 8770
-0.549 4.600 1.911 2650
-0.512 4.285 1.788 1839
-0.533 4.466 1.843 8711
-0.550 4.605 1.897 3455
-0.512 4.289 1.775 1068
-0.546 4.573 1.870 5065
-0.528 4.426 1.813 4808
-0.563 4.713 1.923 1199
-0.545 4.564 1.851 5700
-0.528 4.424 1.798 4074
-0.562 4.703 1.904 1492
-0.544 4.554 1.832 5131
-0.563 4.716 1.893 2948
-0.527 4.414 1.779 2025
-0.565 4.728 1.882 5250
-0.543 4.551 1.816 4680
-0.581 4.868 1.934 1003
-0.565 4.733 1.868 5520
-0.545 4.564 1.806 4099
-0.582 4.874 1.920 1391
-0.561 4.701 1.841 5224
-0.545 4.561 1.790 2599
-0.578 4.842 1.892 2529
-0.565 4.728 1.835 6294
-0.581 4.869 1.886 1928
-0.548 4.588 1.784 1803
-0.566 4.741 1.824 6061
-0.583 4.881 1.875 2462
-0.549 4.600 1.774 1513
-0.605 5.067 1.941 1219
-0.580 4.857 1.850 4807
-0.597 4.998 1.900 3245
-0.563 4.716 1.800 2200
-0.581 4.869 1.838 6481
-0.598 5.010 1.888 4140
-0.581 4.867 1.822 4618
-0.598 5.008 1.871 4464
-0.629 5.268 1.962 1147
-0.601 5.035 1.864 5214
-0.581 4.864 1.805 2545
-0.628 5.258 1.941 1592
-0.604 5.055 1.855 5942
-0.626 5.241 1.918 2399
-0.586 4.906 1.804 1804
-0.606 5.075 1.845 6489
-0.629 5.268 1.911 2487
-0.589 4.933 1.797 1503
-0.606 5.072 1.828 5445
-0.626 5.244 1.885 2612
-0.643 5.385 1.933 1888
-0.589 4.931 1.780 1312
-0.607 5.085 1.815 3348
-0.631 5.286 1.883 3221
-0.648 5.428 1.930 1003
-0.633 5.299 1.870 3927
-0.650 5.441 1.916 1141
-0.608 5.089 1.801 1077
-0.634 5.311 1.857 3519
-0.651 5.453 1.903 1954
-0.668 5.595 1.949 1027
-0.636 5.331 1.846 4141
-0.672 5.630 1.943 1910
-0.653 5.473 1.892 1789
-0.638 5.343 1.833 4021
-0.673 5.636 1.926 2651
-0.655 5.486 1.878 1145
-0.638 5.341 1.815 2709
-0.673 5.641 1.910 2315
-0.656 5.498 1.865 1317
-0.698 5.848 1.957 2024
-0.679 5.683 1.905 1761
-0.659 5.518 1.854 1741
-0.639 5.353 1.802 1571
-0.700 5.861 1.942 2944
-0.677 5.673 1.884 2195
-0.656 5.493 1.828 1457
-0.702 5.881 1.930 3746
-0.673 5.641 1.856 3578
-0.654 5.475 1.805 1344
-0.704 5.894 1.915 4922
-0.676 5.661 1.844 2971
-0.703 5.892 1.896 4569
-0.683 5.719 1.843 1588
-0.703 5.889 1.876 3894
-0.736 6.168 1.959 1635
-0.684 5.731 1.829 1528
-0.706 5.909 1.863 2916
-0.723 6.053 1.906 1711
-0.740 6.196 1.948 1467
-0.715 5.990 1.868 2971
-0.732 6.133 1.910 1998
-0.749 6.277 1.952 1313
-0.720 6.033 1.862 2450
-0.737 6.176 1.903 1601
-0.755 6.320 1.944 1207
-0.773 6.479 1.990 1070
-0.722 6.045 1.846 2256
-0.739 6.189 1.887 1953
-0.770 6.446 1.960 1380
-0.753 6.308 1.901 1946
-0.724 6.065 1.833 1743
-0.775 6.489 1.952 1553
-0.792 6.633 1.993 1356
-0.754 6.313 1.883 2440
-0.791 6.623 1.969 2330
-0.774 6.479 1.929 1594
-0.726 6.078 1.817 1323
-0.791 6.628 1.950 2587
-0.755 6.325 1.866 2144
-0.774 6.484 1.910 1527
-0.819 6.856 2.012 1065
-0.798 6.687 1.945 4486
-0.753 6.307 1.842 1704
-0.777 6.505 1.895 1585
-0.820 6.869 1.995 1438
-0.799 6.692 1.925 4235
-0.822 6.882 1.977 1613
-0.839 7.026 2.015 1611
-0.777 6.510 1.876 1324
-0.793 6.644 1.892 2368
-0.840 7.039 1.997 1661
-0.822 6.887 1.956 1442
-0.776 6.500 1.853 1054
-0.842 7.052 1.978 2594
-0.793 6.641 1.870 1392
-0.817 6.839 1.922 1050
-0.842 7.050 1.956 3901
-0.900 7.537 2.082 1646
-0.867 7.263 2.011 1419
-0.842 7.055 1.935 6586
-0.869 7.276 1.992 1251
-0.900 7.535 2.058 1175
-0.843 7.060 1.915 8354
-0.866 7.251 1.963 1277
-0.894 7.487 2.023 1198
-0.843 7.058 1.892 4412
-0.896 7.508 2.005 1562
-0.867 7.264 1.944 1085
-0.920 7.704 2.030 1680
-0.902 7.559 1.994 1624
-0.845 7.078 1.875 1318
-0.937 7.849 2.066 1127
-0.919 7.694 2.004 2386
-0.940 7.870 2.046 1964
-0.845 7.075 1.853 1399
-0.941 7.883 2.025 1873
-0.919 7.700 1.981 1710
-0.959 8.028 2.060 1339
-0.980 8.212 2.104 1336
-0.982 8.225 2.082 1471
-0.949 7.950 2.017 1423
-0.987 8.269 2.067 1357
-0.960 8.039 2.013 1168
-0.942 7.886 1.977 1124
-1.019 8.537 2.130 1103
-0.989 8.282 2.045 1430
-1.020 8.543 2.105 1120
-0.989 8.280 2.019 1488
-1.032 8.640 2.101 1006
-1.022 8.562 2.057 1240
-1.072 8.976 2.150 1162
-0.989 8.286 1.995 1045
-1.103 9.237 2.209 1042
-1.072 8.982 2.124 1703
-1.023 8.567 2.032 1178
-1.104 9.250 2.184 1149
-1.073 8.987 2.098 1487
-1.128 9.448 2.199 1366
-1.103 9.241 2.153 1015
-1.120 9.377 2.155 1709
-1.095 9.170 2.110 1264
-1.064 8.909 2.053 1123
-1.185 9.922 2.242 1765
-1.122 9.399 2.130 1617
-1.105 9.252 2.099 1294
-1.087 9.106 2.068 1135
-1.185 9.928 2.213 2494
-1.134 9.497 2.122 1512
-1.106 9.266 2.074 1022
-1.186 9.934 2.184 1782
-1.153 9.656 2.126 1463
-1.204 10.088 2.216 1155
-1.237 10.365 2.273 1098
-1.236 10.355 2.239 2843
-1.154 9.662 2.098 1678
-1.211 10.140 2.195 1664
-1.236 10.354 2.208 3686
-1.212 10.153 2.167 1796
-1.266 10.601 2.257 1070
-1.236 10.352 2.176 3792
-1.264 10.591 2.223 2136
-1.213 10.159 2.138 1500
-1.237 10.358 2.145 3475
-1.265 10.597 2.192 2372
-1.214 10.165 2.108 1144
-1.265 10.595 2.160 2867
-1.237 10.364 2.115 2353
-1.214 10.171 2.078 1070
-1.267 10.609 2.130 3989
-1.239 10.377 2.086 1640
-1.215 10.176 2.048 1131
-1.266 10.607 2.097 3534
-1.240 10.383 2.056 1157
-1.267 10.613 2.066 2429
-1.270 10.641 2.040 2171
-1.273 10.662 2.011 2579
-1.297 10.864 2.047 1028
-1.280 10.722 1.989 2225
-1.281 10.727 1.958 2038
-1.279 10.717 1.924 1302
-0.272 2.321 1.821 1426
-0.277 2.364 1.842 3681
-0.263 2.243 1.753 1548
-0.283 2.413 1.868 6342
-0.268 2.286 1.775 2699
-0.284 2.425 1.866 6489
-0.269 2.297 1.773 2119
-0.285 2.430 1.859 6648
-0.271 2.308 1.771 1796
-0.285 2.428 1.847 7388
-0.271 2.307 1.760 1406
-0.284 2.420 1.831 8511
-0.298 2.542 1.918 1289
-0.284 2.425 1.824 8511
-0.299 2.547 1.911 1984
-0.287 2.443 1.826 7891
-0.301 2.565 1.912 1494
-0.288 2.454 1.823 7660
-0.302 2.577 1.909 1265
-0.289 2.466 1.821 8636
-0.304 2.588 1.907 1427
-0.297 2.529 1.854 10353
-0.282 2.406 1.769 1572
-0.297 2.534 1.847 10691
-0.283 2.410 1.762 1189
-0.298 2.539 1.840 11028
-0.298 2.544 1.832 11028
-0.299 2.548 1.825 12472
-0.313 2.673 1.909 1162
-0.299 2.553 1.818 13781
-0.314 2.678 1.901 1430
-0.299 2.552 1.806 13037
-0.314 2.676 1.889 2148
-0.301 2.563 1.803 12329
-0.315 2.688 1.886 2711
-0.302 2.574 1.800 12344
-0.317 2.699 1.882 4326
-0.304 2.592 1.801 13136
-0.319 2.718 1.883 4297
-0.305 2.604 1.798 11097
-0.320 2.729 1.880 3705
-0.314 2.681 1.837 10055
-0.300 2.556 1.756 3620
-0.316 2.693 1.834 11223
-0.301 2.567 1.753 2909
-0.316 2.698 1.826 12393
-0.302 2.572 1.746 1198
-0.331 2.824 1.907 1068
-0.317 2.703 1.818 10449
-0.332 2.829 1.899 1378
