0.156 2.295 1.763 3871
0.164 2.415 1.840 6349
0.156 2.293 1.752 2364
0.165 2.426 1.838 6503
0.157 2.304 1.750 2855
0.168 2.476 1.863 7971
0.159 2.335 1.762 4355
0.169 2.481 1.856 7971
0.159 2.339 1.755 4355
0.169 2.480 1.844 8735
0.160 2.357 1.758 3768
0.169 2.478 1.833 9595
0.160 2.355 1.747 3213
0.171 2.509 1.843 8746
0.162 2.386 1.758 2780
0.171 2.521 1.841 8841
0.163 2.397 1.755 1673
0.172 2.526 1.834 9498
0.163 2.402 1.749 1300
0.172 2.531 1.826 10155
0.181 2.655 1.911 1350
0.172 2.535 1.819 10155
0.181 2.660 1.903 1601
0.173 2.547 1.816 8289
0.182 2.672 1.900 1559
0.175 2.571 1.822 7356
0.183 2.696 1.905 1169
0.175 2.576 1.815 6077
0.184 2.701 1.898 1353
0.176 2.581 1.807 4796
0.184 2.707 1.890 1628
0.182 2.672 1.856 4747
0.173 2.546 1.774 2500
0.182 2.684 1.853 7185
0.174 2.558 1.771 2686
0.181 2.669 1.832 8468
0.190 2.795 1.914 1927
0.181 2.667 1.820 10139
0.190 2.793 1.902 2468
0.182 2.679 1.817 8785
0.192 2.825 1.911 2835
0.183 2.697 1.818 8146
0.193 2.844 1.911 3608
0.184 2.702 1.810 8013
0.195 2.869 1.915 3848
0.184 2.700 1.798 8051
0.196 2.887 1.916 4858
0.184 2.705 1.790 6644
0.194 2.859 1.886 4755
0.194 2.857 1.874 6062
0.185 2.716 1.787 5337
0.195 2.862 1.866 5505
0.186 2.734 1.787 4296
0.199 2.928 1.895 5342
0.187 2.753 1.788 3952
0.199 2.920 1.878 5233
0.188 2.771 1.788 3895
0.199 2.925 1.870 5208
0.189 2.783 1.784 4041
0.199 2.930 1.861 6826
0.190 2.794 1.780 3118
0.200 2.935 1.853 8444
0.208 3.064 1.930 2471
0.200 2.946 1.848 7836
0.209 3.076 1.925 2096
0.203 2.979 1.856 8829
0.192 2.822 1.764 1630
0.203 2.984 1.847 8947
0.212 3.113 1.923 2332
0.203 2.982 1.835 6700
0.212 3.112 1.910 3997
0.208 3.062 1.870 5482
0.199 2.932 1.795 1735
0.210 3.095 1.876 6557
0.202 2.964 1.802 2618
0.211 3.100 1.868 7832
0.220 3.230 1.942 1791
0.212 3.112 1.862 6089
0.220 3.242 1.936 2328
0.212 3.123 1.857 4561
0.221 3.254 1.931 2860
0.220 3.232 1.906 4925
0.211 3.101 1.833 2441
0.220 3.237 1.897 7642
0.211 3.106 1.824 1597
0.221 3.249 1.891 8467
0.212 3.118 1.819 1654
0.225 3.310 1.912 7799
0.216 3.178 1.840 2269
0.226 3.322 1.906 8801
0.217 3.190 1.835 2819
0.227 3.334 1.900 7282
0.217 3.195 1.826 2691
0.228 3.346 1.895 7414
0.218 3.207 1.820 1683
0.228 3.351 1.885 8661
0.237 3.484 1.955 1426
0.227 3.342 1.868 9579
0.236 3.475 1.938 1549
0.228 3.347 1.858 8668
0.239 3.508 1.942 2002
0.232 3.408 1.878 8532
0.241 3.542 1.947 2428
0.232 3.413 1.868 10142
0.241 3.547 1.937 2891
0.233 3.426 1.862 8765
0.242 3.559 1.930 3003
0.235 3.459 1.866 5899
0.244 3.593 1.934 3441
0.233 3.428 1.838 5584
0.244 3.584 1.916 3801
0.233 3.426 1.825 5830
0.244 3.582 1.903 4448
0.246 3.622 1.910 4921
0.234 3.438 1.819 4471
0.244 3.592 1.882 6312
0.234 3.443 1.809 3029
0.248 3.654 1.899 8447
0.235 3.462 1.806 2363
0.249 3.666 1.892 8294
0.239 3.510 1.816 2943
0.250 3.671 1.882 6422
0.239 3.515 1.806 3238
0.250 3.676 1.871 6277
0.239 3.519 1.796 2675
0.252 3.703 1.871 5775
0.261 3.838 1.935 1420
0.253 3.722 1.867 6775
0.262 3.858 1.931 1555
0.254 3.741 1.863 7689
0.245 3.605 1.799 1047
0.257 3.782 1.868 6869
0.248 3.646 1.805 1615
0.259 3.816 1.871 5738
0.250 3.680 1.808 2347
0.255 3.756 1.830 5747
0.265 3.893 1.892 3695
0.264 3.876 1.871 5507
0.254 3.740 1.810 3812
0.265 3.896 1.867 4885
0.256 3.759 1.805 3946
0.265 3.894 1.852 5261
0.255 3.756 1.791 2442
0.264 3.884 1.835 4959
0.277 4.079 1.921 1981
0.262 3.853 1.808 5237
0.272 4.005 1.874 3878
0.275 4.046 1.878 7879
0.263 3.872 1.803 4072
0.274 4.029 1.857 11038
0.283 4.167 1.917 1783
0.274 4.027 1.843 11671
0.283 4.165 1.902 2437
0.275 4.047 1.837 9848
0.285 4.185 1.896 2476
0.276 4.066 1.832 6989
0.286 4.204 1.890 2466
0.279 4.107 1.835 3961
0.270 3.969 1.777 2087
0.282 4.149 1.838 7140
0.292 4.287 1.896 1483
0.283 4.168 1.832 9141
0.293 4.307 1.890 1905
0.284 4.181 1.823 5611
0.294 4.320 1.880 2878
0.295 4.332 1.871 4741
0.285 4.193 1.814 3090
0.295 4.344 1.861 5517
0.286 4.205 1.805 3451
0.297 4.371 1.857 4677
0.288 4.232 1.802 2973
0.298 4.376 1.844 4711
0.308 4.523 1.902 2014
0.297 4.374 1.829 5869
0.308 4.528 1.889 2130
0.298 4.379 1.816 5780
0.307 4.519 1.871 2802
0.306 4.502 1.849 3714
0.297 4.362 1.795 3450
0.306 4.499 1.833 4578
0.315 4.640 1.887 3323
0.310 4.556 1.840 4473
0.322 4.741 1.909 2077
0.311 4.568 1.829 3552
0.320 4.709 1.882 2289
0.309 4.551 1.808 3276
0.320 4.706 1.865 2674
0.318 4.674 1.838 3711
0.308 4.534 1.786 2855
0.321 4.716 1.838 5439
0.308 4.531 1.771 2336
0.321 4.714 1.822 7317
0.330 4.855 1.873 2425
0.321 4.719 1.808 6691
0.332 4.875 1.864 2409
0.322 4.731 1.797 3982
0.331 4.873 1.847 2749
0.328 4.825 1.815 5292
0.340 4.997 1.875 3036
0.341 5.009 1.863 5026
0.328 4.830 1.801 4444
0.341 5.014 1.849 4753
0.351 5.156 1.898 3063
0.342 5.034 1.839 5086
0.352 5.176 1.888 3524
0.343 5.039 1.825 6419
0.354 5.204 1.880 3301
0.344 5.052 1.813 4984
0.361 5.306 1.898 3400
0.346 5.094 1.810 3227
0.362 5.319 1.885 2919
0.354 5.211 1.833 2542
0.364 5.354 1.879 2275
0.355 5.216 1.818 2879
0.373 5.487 1.905 2347
0.368 5.409 1.863 3510
0.356 5.236 1.807 1943
0.367 5.399 1.842 4025
0.377 5.542 1.888 2305
0.376 5.532 1.867 4198
0.366 5.389 1.822 2156
0.377 5.537 1.851 3172
0.391 5.748 1.917 1581
0.392 5.761 1.903 2164
0.375 5.519 1.828 2162
0.401 5.902 1.928 2323
0.392 5.759 1.884 2185
0.392 5.764 1.867 2341
0.402 5.907 1.910 2169
0.393 5.776 1.853 1968
0.406 5.973 1.911 1953
0.406 5.970 1.892 2588
0.420 6.175 1.952 2009
0.407 5.983 1.877 3244
0.419 6.157 1.928 2426
0.419 6.163 1.910 2874
0.408 6.003 1.864 2563
0.441 6.487 1.984 2784
0.419 6.168 1.892 2570
0.441 6.492 1.965 2941
0.420 6.180 1.876 2898
0.441 6.490 1.944 3531
0.460 6.764 2.020 2611
0.442 6.503 1.927 3756
0.460 6.769 2.001 3127
0.443 6.508 1.908 3128
0.453 6.660 1.950 2771
0.473 6.963 2.011 3932
0.453 6.658 1.928 2730
0.474 6.968 1.991 3970
0.453 6.655 1.907 2240
0.474 6.974 1.971 2248
0.496 7.294 2.055 2229
0.496 7.300 2.034 2586
0.476 6.994 1.954 2174
0.496 7.298 2.011 2908
0.512 7.527 2.070 2143
0.496 7.295 1.988 2490
0.512 7.525 2.046 1955
0.529 7.776 2.086 2209
0.512 7.531 2.025 1612
0.522 7.674 2.037 2037
0.548 8.057 2.132 1815
0.549 8.071 2.111 3135
0.516 7.595 1.994 1790
0.550 8.084 2.089 2227
0.531 7.816 2.024 1538
0.554 8.144 2.079 1671
0.564 8.290 2.114 1016
0.564 8.295 2.090 2106
0.552 8.111 2.046 1599
0.564 8.293 2.064 2509
0.574 8.439 2.098 1657
0.578 8.499 2.086 1662
0.564 8.291 2.038 1363
0.578 8.497 2.059 1950
0.596 8.766 2.120 1360
0.578 8.502 2.034 1514
0.610 8.965 2.138 951
0.613 9.009 2.121 1182
0.586 8.624 2.035 964
0.613 9.007 2.093 1649
0.625 9.192 2.133 1144
0.612 8.997 2.063 1803
0.625 9.191 2.105 1467
0.611 8.988 2.034 1381
0.625 9.196 2.078 1168
0.570 8.382 1.880 1894
0.618 9.086 2.027 952
0.570 8.387 1.856 2129
0.576 8.477 1.848 1835
0.577 8.482 1.824 1635
0.552 8.110 1.749 803
0.571 8.394 1.781 1806
0.556 8.177 1.738 1161
0.572 8.414 1.759 1667
0.556 8.182 1.714 1330
0.560 8.241 1.701 2143
0.574 8.435 1.738 1738
0.559 8.222 1.673 3313
0.569 8.369 1.700 1769
0.559 8.219 1.647 3208
0.570 8.389 1.679 1116
0.559 8.215 1.622 2269
0.777 11.433 2.206 994
0.559 8.219 1.598 1784
0.783 11.509 2.185 1299
0.560 8.231 1.575 1516
0.784 11.522 2.153 1461
0.783 11.513 2.117 1260
0.817 12.011 2.203 1123
0.866 12.733 2.289 1319
0.817 12.009 2.167 1112
0.865 12.724 2.250 1261
0.851 12.521 2.216 868
0.852 12.527 2.179 882
0.565 8.310 1.490 847
0.565 8.306 1.464 964
0.892 13.116 2.197 906
0.567 8.333 1.444 869
0.567 8.345 1.421 1326
0.566 8.325 1.393 1827
0.566 8.321 1.368 1594
0.566 8.317 1.342 1114
0.572 8.406 1.330 1705
0.571 8.394 1.304 1510
0.567 8.342 1.272 1562
0.568 8.354 1.249 1598
0.574 8.443 1.236 1058
0.574 8.438 1.210 923
0.569 8.363 1.176 902
0.569 8.366 1.151 963
0.558 8.211 0.555 900
0.558 8.204 0.531 1004
0.558 8.205 0.507 1000
0.558 8.199 0.483 857
0.164 2.318 1.811 2881
0.164 2.323 1.805 5762
0.173 2.444 1.893 1629
0.170 2.411 1.859 5916
0.162 2.290 1.770 5019
0.170 2.410 1.847 5772
0.162 2.288 1.759 3701
0.170 2.408 1.835 5797
0.162 2.286 1.748 2095
0.171 2.413 1.829 6021
0.162 2.291 1.741 1936
0.175 2.482 1.867 7834
0.165 2.334 1.762 4394
0.176 2.487 1.860 7834
0.165 2.339 1.755 4394
0.176 2.486 1.849 8468
0.167 2.363 1.762 3778
0.176 2.491 1.842 9107
0.167 2.368 1.756 3645
0.177 2.509 1.843 8405
0.169 2.385 1.758 2905
0.178 2.520 1.841 8128
0.169 2.397 1.755 1719
0.178 2.525 1.834 8966
0.170 2.401 1.749 1323
0.179 2.530 1.826 9805
0.188 2.654 1.911 1440
0.179 2.535 1.819 9805
0.188 2.659 1.903 1644
0.180 2.546 1.816 8831
0.189 2.671 1.900 1565
0.181 2.564 1.818 8648
0.190 2.689 1.901 1259
0.182 2.569 1.810 7142
0.190 2.694 1.893 1421
0.182 2.574 1.803 5653
0.191 2.700 1.886 1682
0.187 2.652 1.843 4828
0.179 2.526 1.761 1725
0.189 2.677 1.849 6982
0.180 2.551 1.767 2273
0.189 2.668 1.832 8346
0.197 2.794 1.914 1790
0.189 2.673 1.825 9887
0.198 2.806 1.910 2305
0.189 2.678 1.817 8755
0.199 2.818 1.906 2740
0.191 2.696 1.818 8242
0.201 2.843 1.911 3418
0.191 2.701 1.810 8255
0.203 2.868 1.915 3722
0.191 2.699 1.798 8442
0.204 2.887 1.916 4707
0.191 2.704 1.790 6939
0.204 2.892 1.907 4642
0.202 2.857 1.874 5758
0.192 2.716 1.787 5503
0.202 2.862 1.866 5270
0.193 2.727 1.783 4237
0.207 2.927 1.895 5901
0.194 2.752 1.788 3585
0.207 2.926 1.882 5278
0.197 2.784 1.796 3611
0.207 2.931 1.874 4710
0.197 2.782 1.784 3931
0.207 2.929 1.861 5946
0.197 2.794 1.780 3141
0.207 2.927 1.849 7338
0.216 3.056 1.926 2865
0.208 2.946 1.848 6837
0.217 3.075 1.925 2203
0.211 2.985 1.860 8703
0.199 2.821 1.764 1714
0.211 2.983 1.847 8917
0.220 3.113 1.923 2370
0.211 2.988 1.839 6857
0.220 3.118 1.914 4102
0.219 3.096 1.889 5358
0.210 2.966 1.814 4166
0.219 3.101 1.880 6624
0.210 2.971 1.806 2729
0.219 3.106 1.871 7891
0.229 3.237 1.946 1599
0.220 3.118 1.866 6309
0.230 3.249 1.940 2079
0.221 3.130 1.861 5085
0.230 3.261 1.935 2458
0.228 3.231 1.906 4721
0.219 3.100 1.833 2237
0.229 3.237 1.897 7288
0.219 3.105 1.824 1341
0.230 3.249 1.891 8062
0.220 3.117 1.819 1351
0.234 3.309 1.912 7235
0.225 3.177 1.840 1951
0.235 3.328 1.910 8160
0.226 3.196 1.839 2810
0.236 3.340 1.904 7207
0.226 3.201 1.829 2520
0.236 3.345 1.895 7441
0.227 3.206 1.820 1567
0.237 3.351 1.885 8377
0.246 3.483 1.955 1484
0.236 3.342 1.868 9209
0.246 3.475 1.938 1645
0.236 3.347 1.858 8316
0.248 3.508 1.942 2496
0.241 3.415 1.881 10144
0.251 3.548 1.950 2872
0.242 3.420 1.871 12074
0.251 3.553 1.940 3237
0.242 3.425 1.862 10450
0.251 3.559 1.930 3471
0.243 3.437 1.855 6901
0.253 3.585 1.930 3646
0.242 3.428 1.838 4920
0.252 3.562 1.906 4288
0.253 3.581 1.903 4458
0.242 3.419 1.821 3125
0.256 3.622 1.910 4115
0.246 3.487 1.843 2225
0.254 3.591 1.882 6088
0.244 3.457 1.816 1211
0.255 3.604 1.875 8569
0.264 3.738 1.941 1612
0.259 3.658 1.889 8498
0.249 3.523 1.823 2691
0.259 3.671 1.882 7251
0.248 3.507 1.803 3173
0.261 3.690 1.878 7390
0.249 3.519 1.796 2593
0.262 3.702 1.871 6724
0.271 3.838 1.935 1505
0.263 3.721 1.867 6995
0.273 3.857 1.931 1586
0.264 3.741 1.863 8054
0.255 3.605 1.799 1199
0.267 3.774 1.865 7097
0.257 3.638 1.802 1618
0.270 3.815 1.871 5658
0.260 3.679 1.808 2151
0.265 3.756 1.830 5854
0.275 3.892 1.892 3855
0.274 3.883 1.875 5179
0.265 3.746 1.813 4466
0.276 3.902 1.870 4715
0.266 3.765 1.808 4207
0.276 3.900 1.856 4780
0.266 3.763 1.794 2707
0.274 3.876 1.831 4440
0.284 4.013 1.892 2399
0.272 3.845 1.804 5039
0.283 4.004 1.874 4268
0.285 4.031 1.872 8143
0.273 3.864 1.800 3949
0.285 4.029 1.857 11679
0.294 4.166 1.917 1977
0.285 4.034 1.846 12318
0.295 4.172 1.905 2172
0.286 4.046 1.837 10262
0.296 4.191 1.899 2397
0.287 4.058 1.829 6659
0.298 4.211 1.893 2396
0.291 4.114 1.838 3766
0.281 3.975 1.780 1717
0.293 4.148 1.838 5927
0.303 4.287 1.896 1535
0.294 4.168 1.832 7671
0.304 4.306 1.890 1992
0.295 4.180 1.823 4889
0.305 4.319 1.880 2947
0.306 4.331 1.871 5066
0.296 4.192 1.814 2871
0.307 4.344 1.861 5735
0.297 4.204 1.805 3116
0.309 4.378 1.860 4578
0.300 4.238 1.805 2809
0.310 4.383 1.847 4533
0.320 4.522 1.902 2219
0.309 4.373 1.829 5404
0.320 4.528 1.889 2655
0.309 4.371 1.813 5218
0.319 4.511 1.868 3594
0.319 4.508 1.852 4023
0.309 4.368 1.798 3562
0.322 4.557 1.856 4477
0.312 4.417 1.802 2369
0.322 4.555 1.840 4874
0.335 4.740 1.909 2559
0.323 4.567 1.829 3926
0.333 4.715 1.885 2418
0.326 4.617 1.833 4012
0.316 4.476 1.780 3005
0.330 4.666 1.836 4563
0.320 4.525 1.784 3282
0.333 4.716 1.838 5953
0.321 4.537 1.773 2219
0.333 4.713 1.822 7211
0.343 4.854 1.873 1784
0.333 4.711 1.806 6207
0.351 4.963 1.896 2054
0.341 4.820 1.829 3791
0.331 4.678 1.779 3172
0.341 4.824 1.815 6086
0.353 4.996 1.875 2937
0.341 4.829 1.801 4789
0.353 5.001 1.861 4534
0.354 5.013 1.849 4428
0.364 5.155 1.898 2960
0.355 5.026 1.837 4703
0.365 5.168 1.885 3588
0.355 5.031 1.822 5873
0.368 5.203 1.880 3542
0.357 5.058 1.815 4709
0.368 5.208 1.865 3539
0.360 5.100 1.813 3136
0.375 5.310 1.883 2546
0.378 5.353 1.879 2310
0.368 5.210 1.833 2025
0.388 5.493 1.908 2337
0.376 5.320 1.852 2322
0.382 5.408 1.863 3597
0.370 5.235 1.807 1705
0.381 5.398 1.842 4243
0.392 5.541 1.888 2153
0.391 5.531 1.867 4118
0.381 5.388 1.822 2571
0.391 5.536 1.851 3285
0.407 5.755 1.919 1783
0.407 5.760 1.903 2410
0.390 5.518 1.828 2224
0.407 5.765 1.886 2418
0.418 5.909 1.930 2212
0.407 5.755 1.865 2465
0.417 5.899 1.908 2146
0.421 5.964 1.909 1915
0.408 5.768 1.850 1842
0.422 5.977 1.894 2763
0.436 6.174 1.952 1918
0.423 5.990 1.879 2960
0.435 6.156 1.928 2704
0.435 6.162 1.910 3041
0.457 6.473 2.000 2616
0.458 6.486 1.984 3351
0.435 6.159 1.890 2407
0.459 6.491 1.965 3588
0.437 6.179 1.876 3018
0.459 6.489 1.944 4064
0.438 6.192 1.861 2423
0.459 6.494 1.925 4069
0.446 6.311 1.874 2600
0.460 6.507 1.908 3312
0.471 6.659 1.950 2610
0.492 6.962 2.011 3940
0.470 6.657 1.928 3060
0.492 6.967 1.991 3946
0.471 6.662 1.909 2352
0.515 7.293 2.055 2609
0.484 6.850 1.938 2434
0.515 7.291 2.032 2711
0.485 6.863 1.920 2273
0.515 7.289 2.009 2646
0.495 6.998 1.934 2011
0.515 7.287 1.986 2374
0.532 7.524 2.046 1687
0.542 7.675 2.061 2544
0.515 7.292 1.965 1489
0.542 7.673 2.037 2391
0.569 8.056 2.132 1909
0.570 8.069 2.111 3167
0.543 7.678 2.015 1896
0.571 8.083 2.089 2495
0.554 7.837 2.030 1237
0.574 8.119 2.073 1746
0.584 8.265 2.108 1143
0.585 8.278 2.086 2027
0.573 8.109 2.046 1603
0.585 8.284 2.062 2783
0.596 8.430 2.096 1656
0.586 8.290 2.038 1609
0.600 8.497 2.086 1483
0.619 8.757 2.119 1579
0.600 8.495 2.059 1578
0.636 9.002 2.147 1136
0.601 8.509 2.036 1100
0.637 9.008 2.121 1235
0.621 8.784 2.071 955
0.636 9.006 2.093 1617
0.649 9.191 2.133 1296
0.636 9.004 2.065 1795
0.650 9.197 2.106 1723
0.650 9.195 2.078 1423
0.636 8.994 2.035 1287
0.592 8.381 1.880 1614
0.650 9.200 2.051 977
0.597 8.455 1.870 2260
0.650 9.198 2.023 788
0.598 8.460 1.845 2288
0.599 8.473 1.822 1830
0.582 8.241 1.776 763
0.599 8.478 1.798 1521
0.578 8.176 1.738 1253
0.596 8.436 1.764 1625
0.578 8.180 1.714 1521
0.582 8.239 1.701 1913
0.596 8.441 1.739 1715
0.581 8.220 1.673 2604
0.591 8.368 1.700 1318
0.581 8.217 1.647 2593
0.812 11.487 2.251 808
0.580 8.214 1.622 1663
0.814 11.516 2.222 1049
0.814 11.514 2.187 1361
0.581 8.218 1.598 1301
0.814 11.520 2.153 1385
0.582 8.230 1.575 1377
0.849 12.009 2.203 1198
0.814 11.518 2.118 1115
0.900 12.731 2.289 1331
0.848 12.007 2.167 1069
0.899 12.721 2.250 1278
0.885 12.519 2.216 955
0.885 12.525 2.179 994
0.587 8.308 1.490 949
0.587 8.312 1.466 1026
0.885 12.523 2.142 764
0.588 8.316 1.441 1028
0.927 13.114 2.197 785
0.588 8.328 1.418 1508
0.588 8.324 1.393 1788
0.588 8.327 1.369 1498
0.589 8.331 1.345 1425
0.588 8.319 1.318 1586
0.588 8.322 1.294 1482
0.589 8.341 1.272 1566
0.590 8.344 1.248 1517
0.590 8.355 1.224 813
0.591 8.361 1.176 963
0.591 8.357 1.150 1002
0.168 2.312 1.807 3487
0.168 2.316 1.800 6975
0.177 2.437 1.889 1773
0.169 2.321 1.793 6975
0.177 2.443 1.882 3547
0.168 2.320 1.782 5976
0.177 2.441 1.870 3927
0.174 2.401 1.831 5220
0.183 2.523 1.919 1902
0.175 2.406 1.824 5742
0.184 2.528 1.911 2150
0.180 2.482 1.867 7969
0.169 2.327 1.757 4431
0.181 2.493 1.865 7979
0.169 2.332 1.751 4431
0.181 2.498 1.858 8393
0.173 2.376 1.771 4289
0.182 2.503 1.851 8808
0.173 2.380 1.765 4739
0.182 2.508 1.843 7890
0.173 2.385 1.758 3162
0.183 2.520 1.841 7165
0.174 2.396 1.755 1875
0.183 2.525 1.834 8424
0.174 2.401 1.749 1375
0.184 2.530 1.826 9682
0.193 2.654 1.911 1480
0.184 2.535 1.819 9682
0.193 2.659 1.903 1626
0.185 2.553 1.821 9185
0.194 2.677 1.904 1218
0.186 2.564 1.818 9551
0.195 2.689 1.901 1174
0.187 2.569 1.810 8060
0.196 2.694 1.893 1402
0.187 2.574 1.803 6587
0.196 2.699 1.886 1728
0.187 2.579 1.796 5023
0.196 2.704 1.878 3702
0.194 2.670 1.844 6787
0.185 2.544 1.762 2170
0.194 2.668 1.832 8044
0.203 2.794 1.914 1605
0.194 2.673 1.825 9427
0.204 2.806 1.910 2222
0.194 2.678 1.817 8575
0.204 2.804 1.898 2712
0.196 2.696 1.818 8231
0.206 2.836 1.907 3225
0.196 2.701 1.810 8436
0.208 2.868 1.915 3379
0.196 2.699 1.798 8763
0.210 2.886 1.916 4290
0.196 2.704 1.790 7206
0.210 2.892 1.907 4409
0.197 2.715 1.787 5732
0.207 2.856 1.874 5335
0.212 2.922 1.903 5317
0.198 2.727 1.783 4269
0.213 2.927 1.895 6286
0.200 2.752 1.788 3321
0.213 2.932 1.886 5259
0.202 2.784 1.796 3509
0.213 2.930 1.874 4242
0.202 2.788 1.788 4046
0.213 2.929 1.861 4994
0.203 2.793 1.780 3365
0.213 2.927 1.849 6080
0.222 3.056 1.926 2975
0.216 2.973 1.864 5997
0.204 2.809 1.768 2177
0.217 2.985 1.860 8589
0.205 2.821 1.764 1745
0.217 2.990 1.851 8930
0.227 3.119 1.927 2129
0.217 2.988 1.839 7072
0.226 3.118 1.914 4104
0.225 3.095 1.889 5383
0.215 2.965 1.814 4061
0.225 3.100 1.880 6807
0.216 2.970 1.806 2586
0.226 3.106 1.871 8232
0.235 3.236 1.946 1462
0.226 3.117 1.866 6806
0.236 3.248 1.940 1863
0.228 3.136 1.865 5878
0.237 3.267 1.938 1968
0.229 3.148 1.860 4314
0.238 3.279 1.933 2286
0.235 3.236 1.897 6515
0.225 3.105 1.824 1212
0.236 3.248 1.891 7072
0.226 3.117 1.819 1151
0.240 3.309 1.912 6418
0.231 3.177 1.840 1861
0.242 3.328 1.910 7405
0.232 3.196 1.839 2628
0.243 3.340 1.904 7228
0.232 3.201 1.829 2431
0.243 3.345 1.895 7638
0.233 3.206 1.820 1587
0.244 3.357 1.889 8169
0.253 3.490 1.959 1393
0.243 3.341 1.868 8806
0.252 3.474 1.938 1652
0.243 3.346 1.858 7848
0.253 3.479 1.928 2743
0.248 3.421 1.885 9597
0.258 3.555 1.954 2891
0.249 3.426 1.875 11317
0.259 3.560 1.944 3171
0.249 3.431 1.865 9784
0.259 3.565 1.933 3490
0.250 3.444 1.859 6623
0.260 3.584 1.930 3827
0.258 3.547 1.899 5028
0.248 3.413 1.831 3917
0.257 3.538 1.881 5019
0.247 3.404 1.814 3025
0.257 3.543 1.871 4411
0.267 3.678 1.938 1642
0.261 3.591 1.882 5801
0.271 3.726 1.948 1071
0.261 3.596 1.872 9643
0.271 3.731 1.937 1970
0.266 3.658 1.889 8354
0.256 3.523 1.823 2895
0.267 3.670 1.882 7830
0.257 3.535 1.816 3088
0.268 3.689 1.878 8427
0.258 3.554 1.813 2780
0.269 3.702 1.871 7721
0.279 3.837 1.935 1613
0.271 3.728 1.870 7379
0.230 3.163 1.604 1780
0.272 3.740 1.863 8247
0.231 3.175 1.598 2261
0.274 3.774 1.865 7223
0.231 3.179 1.589 2315
0.274 3.779 1.854 5772
0.230 3.169 1.573 2324
0.273 3.755 1.830 6092
0.283 3.892 1.892 3974
0.274 3.767 1.823 5749
0.283 3.904 1.885 4420
0.274 3.772 1.812 4790
0.284 3.909 1.873 4597
0.283 3.900 1.856 4327
0.273 3.762 1.794 2900
0.279 3.840 1.815 4275
0.289 3.977 1.876 3733
0.279 3.844 1.804 4917
0.292 4.018 1.881 4428
0.293 4.030 1.872 8361
0.280 3.856 1.796 3778
0.293 4.028 1.857 11983
0.303 4.166 1.917 2039
0.293 4.033 1.846 12559
0.303 4.171 1.905 2087
0.294 4.045 1.837 10102
0.307 4.227 1.914 2371
0.295 4.057 1.829 5864
0.306 4.218 1.896 2464
0.298 4.106 1.835 3234
0.288 3.968 1.777 1595
0.304 4.191 1.857 5142
0.294 4.053 1.799 1791
0.303 4.174 1.835 6207
0.313 4.313 1.893 1837
0.303 4.179 1.823 4409
0.314 4.318 1.880 3093
0.314 4.331 1.871 5422
0.304 4.191 1.814 3089
0.315 4.336 1.858 5885
0.305 4.196 1.802 2803
0.319 4.399 1.869 4809
0.308 4.238 1.805 2843
0.320 4.404 1.856 4901
0.310 4.265 1.801 2315
0.318 4.372 1.829 4896
0.329 4.534 1.892 2479
0.317 4.363 1.811 4584
0.328 4.510 1.868 3513
0.327 4.508 1.852 4144
0.317 4.368 1.798 3526
0.330 4.549 1.853 5070
0.320 4.409 1.799 2841
0.331 4.562 1.842 5512
0.344 4.732 1.907 2924
0.332 4.574 1.832 4273
0.343 4.722 1.887 2797
0.335 4.616 1.833 4878
0.345 4.757 1.885 3391
0.337 4.643 1.827 5698
0.347 4.784 1.879 3301
0.343 4.722 1.841 6337
0.328 4.515 1.765 1873
0.343 4.720 1.825 6942
0.359 4.943 1.905 1670
0.342 4.710 1.806 5764
0.361 4.970 1.899 2137
0.348 4.797 1.821 4544
0.338 4.655 1.771 2913
0.350 4.824 1.815 6185
0.362 4.988 1.873 3094
0.351 4.829 1.801 4586
0.363 5.000 1.861 4302
0.363 5.005 1.846 4014
0.374 5.155 1.898 2858
0.365 5.025 1.837 4333
0.375 5.167 1.885 3469
0.365 5.030 1.822 5269
0.377 5.195 1.878 3415
0.370 5.095 1.828 4100
0.380 5.237 1.875 2874
0.370 5.100 1.813 2721
0.381 5.242 1.860 2400
0.385 5.307 1.865 2365
0.367 5.052 1.781 1282
0.386 5.312 1.849 2610
0.399 5.500 1.910 2168
0.393 5.407 1.863 3741
0.405 5.573 1.916 1635
0.391 5.390 1.840 4468
0.402 5.533 1.886 2098
0.401 5.523 1.865 3753
0.391 5.380 1.820 2770
0.402 5.535 1.851 3161
0.418 5.754 1.919 1881
0.419 5.767 1.905 2501
0.401 5.518 1.828 2176
0.419 5.772 1.888 2435
0.407 5.606 1.838 2365
0.418 5.762 1.867 2281
0.429 5.905 1.910 2120
0.433 5.956 1.907 1861
0.418 5.759 1.848 1746
0.434 5.976 1.894 2898
0.448 6.173 1.952 1841
0.435 5.996 1.881 2886
0.447 6.156 1.928 2820
0.447 6.153 1.908 3063
0.471 6.479 2.002 2838
0.471 6.485 1.984 3626
0.447 6.151 1.888 2214
0.471 6.482 1.963 3820
0.449 6.178 1.876 2974
0.471 6.488 1.944 4164
0.450 6.191 1.861 2498
0.472 6.493 1.925 4087
0.458 6.310 1.874 2923
0.472 6.506 1.908 3433
0.483 6.650 1.948 2550
0.505 6.961 2.011 3710
0.483 6.656 1.928 3338
0.506 6.966 1.991 3773
0.484 6.668 1.911 2679
0.497 6.849 1.938 2762
0.530 7.292 2.055 2706
0.498 6.862 1.920 2898
0.529 7.290 2.032 2689
0.529 7.288 2.009 2345
0.499 6.875 1.902 2077
0.529 7.278 1.984 2164
0.557 7.676 2.086 1742
0.557 7.666 2.059 3014
0.529 7.283 1.963 1539
0.557 7.672 2.037 2690
0.585 8.055 2.132 1891
0.585 8.061 2.109 2981
0.557 7.669 2.013 2125
0.587 8.082 2.089 2557
0.574 7.905 2.046 1298
0.588 8.103 2.070 2011
0.599 8.248 2.104 1589
0.600 8.262 2.082 2412
0.588 8.100 2.044 1658
0.601 8.275 2.060 2837
0.612 8.429 2.096 1650
0.601 8.281 2.036 1677
0.636 8.758 2.146 1277
0.636 8.756 2.119 1849
0.617 8.502 2.061 1208
0.636 8.754 2.091 1291
0.654 9.008 2.149 1265
0.654 9.006 2.121 1276
0.637 8.767 2.068 1035
0.653 8.997 2.091 1612
0.667 9.190 2.133 1357
0.668 9.195 2.106 1927
0.654 9.010 2.066 1870
0.668 9.201 2.080 1673
0.655 9.016 2.040 1390
0.610 8.403 1.885 1483
0.668 9.199 2.051 1175
0.613 8.439 1.867 2202
0.695 9.576 2.101 907
0.614 8.451 1.844 2106
0.688 9.473 2.051 817
0.614 8.456 1.819 1903
0.688 9.471 2.022 824
0.614 8.453 1.793 1894
0.599 8.252 1.753 1330
0.600 8.264 1.731 1604
0.613 8.443 1.765 1541
0.600 8.269 1.707 1696
0.613 8.440 1.739 1353
0.597 8.227 1.674 1442
0.608 8.374 1.702 931
0.596 8.208 1.646 1360
0.836 11.514 2.222 1029
0.812 11.180 2.161 830
0.836 11.513 2.187 1399
0.604 8.318 1.616 903
0.836 11.519 2.153 1510
0.603 8.299 1.588 912
0.837 11.524 2.120 1280
0.598 8.241 1.553 1128
0.924 12.729 2.289 1286
0.599 8.245 1.529 1137
0.924 12.720 2.250 1266
0.909 12.517 2.216 1052
0.909 12.523 2.179 1086
0.909 12.521 2.142 833
0.604 8.311 1.466 800
0.603 8.299 1.439 1160
0.602 8.288 1.412 1924
0.602 8.291 1.388 1839
0.603 8.310 1.366 1699
0.604 8.314 1.342 2108
0.603 8.310 1.317 2085
0.604 8.313 1.293 1723
0.605 8.332 1.271 1668
0.605 8.335 1.247 1605
0.607 8.354 1.224 875
0.607 8.365 1.201 768
0.606 8.345 1.174 962
0.606 8.348 1.149 990
0.172 2.311 1.807 4196
0.173 2.316 1.800 8392
0.182 2.437 1.889 1593
0.173 2.321 1.793 8392
0.182 2.442 1.882 3187
0.173 2.319 1.782 7135
0.182 2.441 1.870 3455
0.173 2.324 1.775 5929
0.182 2.446 1.863 3257
0.179 2.406 1.824 5778
0.189 2.528 1.911 2079
0.185 2.482 1.867 7832
0.174 2.327 1.757 4448
0.186 2.493 1.865 7959
0.174 2.332 1.751 4448
0.187 2.505 1.862 8251
0.178 2.382 1.776 4790
0.187 2.510 1.855 8621
0.178 2.386 1.769 5576
0.188 2.515 1.848 7436
0.178 2.391 1.762 3810
0.188 2.520 1.841 6251
0.179 2.396 1.755 2045
0.189 2.531 1.838 7860
0.180 2.407 1.753 1672
0.189 2.536 1.831 9515
0.198 2.660 1.915 1119
0.189 2.541 1.823 9515
0.199 2.665 1.908 1229
0.190 2.552 1.821 9750
0.200 2.677 1.904 1164
0.191 2.564 1.818 10470
0.201 2.689 1.901 1063
0.191 2.562 1.806 8903
0.200 2.687 1.889 1540
0.192 2.573 1.803 7403
0.201 2.699 1.886 1755
0.192 2.572 1.791 5776
0.201 2.697 1.874 3807
0.199 2.669 1.844 6808
0.190 2.543 1.762 2170
0.199 2.667 1.832 8027
0.208 2.793 1.914 1589
0.199 2.672 1.825 9328
0.209 2.805 1.910 2302
0.200 2.677 1.817 8401
0.209 2.804 1.898 2921
0.201 2.695 1.818 7987
0.210 2.822 1.898 3423
0.201 2.700 1.810 8156
0.214 2.874 1.920 3226
0.201 2.699 1.798 8405
0.216 2.893 1.920 4057
0.202 2.703 1.790 6977
0.216 2.898 1.911 4243
0.202 2.715 1.787 5577
0.213 2.863 1.878 4790
0.218 2.922 1.903 5359
0.203 2.720 1.779 3998
0.218 2.927 1.895 6398
0.205 2.751 1.788 2745
0.219 2.939 1.890 5188
0.208 2.783 1.796 3062
0.220 2.950 1.886 4079
0.208 2.788 1.788 3844
0.218 2.928 1.861 4203
0.208 2.793 1.780 3207
0.218 2.920 1.845 5141
0.227 3.049 1.921 3321
0.222 2.979 1.868 5607
0.209 2.809 1.768 2027
0.223 2.991 1.864 8226
0.210 2.821 1.764 1643
0.223 2.989 1.851 8611
0.233 3.119 1.927 2222
0.223 2.987 1.839 6997
0.232 3.117 1.914 4299
0.231 3.102 1.893 5634
0.222 2.972 1.818 4330
0.231 3.100 1.880 6916
0.221 2.970 1.806 2468
0.232 3.105 1.871 8253
0.241 3.236 1.946 1465
0.232 3.117 1.866 6803
0.242 3.248 1.940 1688
0.234 3.136 1.865 5934
0.244 3.267 1.938 1656
0.235 3.148 1.860 4355
0.245 3.279 1.933 1965
0.241 3.236 1.897 5690
0.232 3.104 1.824 1236
0.242 3.241 1.887 6147
0.232 3.109 1.815 1077
0.247 3.315 1.916 5782
0.237 3.183 1.844 2280
0.248 3.327 1.910 6876
0.238 3.195 1.839 2705
0.249 3.332 1.900 7206
0.239 3.200 1.829 2516
0.249 3.345 1.895 7537
0.240 3.212 1.824 1739
0.250 3.357 1.889 7622
0.261 3.496 1.963 1279
0.249 3.341 1.868 8202
0.259 3.474 1.938 1608
0.255 3.423 1.898 7313
0.245 3.290 1.829 3289
0.256 3.428 1.889 9535
0.266 3.561 1.958 2837
0.255 3.426 1.875 10821
0.265 3.559 1.944 3600
0.256 3.431 1.865 9034
0.266 3.565 1.933 3920
0.257 3.443 1.859 5896
0.267 3.577 1.927 4063
0.265 3.547 1.899 5500
0.255 3.413 1.831 3882
0.264 3.545 1.885 5465
0.254 3.411 1.818 3131
0.264 3.543 1.871 4710
0.254 3.408 1.804 1603
0.265 3.555 1.864 6595
0.275 3.690 1.931 2390
0.268 3.588 1.868 11070
0.278 3.723 1.934 2140
0.269 3.600 1.861 9416
0.279 3.735 1.927 2839
0.275 3.691 1.892 8498
0.265 3.556 1.827 3803
0.276 3.696 1.881 9479
0.266 3.561 1.817 2782
0.277 3.708 1.874 8564
0.236 3.166 1.617 1808
0.279 3.735 1.873 7838
0.236 3.163 1.604 2043
0.279 3.740 1.863 8585
0.235 3.153 1.588 1734
0.281 3.773 1.865 7286
0.271 3.637 1.802 2358
0.281 3.771 1.851 5757
0.291 3.907 1.914 1741
0.281 3.762 1.833 6316
0.291 3.898 1.896 3502
0.281 3.767 1.823 6124
0.291 3.903 1.885 4119
0.281 3.772 1.812 5071
0.291 3.908 1.873 4147
0.283 3.791 1.807 4108
0.293 3.928 1.868 3314
0.286 3.832 1.812 4050
0.299 4.012 1.892 3135
0.301 4.032 1.887 4793
0.286 3.837 1.801 4573
0.301 4.030 1.872 8489
0.288 3.856 1.796 3588
0.300 4.027 1.857 11889
0.311 4.165 1.917 2149
0.301 4.032 1.846 12416
0.311 4.170 1.905 1966
0.301 4.037 1.834 9774
0.315 4.226 1.914 2373
0.302 4.050 1.825 5292
0.315 4.224 1.899 2483
0.313 4.193 1.872 4050
0.302 4.047 1.811 2828
0.313 4.191 1.857 5526
0.302 4.052 1.799 2145
0.312 4.181 1.838 5110
0.322 4.320 1.896 1596
0.312 4.179 1.823 4258
0.325 4.361 1.898 3165
0.323 4.330 1.871 5683
0.313 4.191 1.814 3832
0.323 4.328 1.855 6187
0.312 4.188 1.799 2759
0.329 4.406 1.872 5352
0.315 4.230 1.802 2870
0.328 4.404 1.856 5452
0.318 4.264 1.801 2170
0.327 4.387 1.835 4375
0.339 4.541 1.895 2382
0.325 4.355 1.808 4113
0.336 4.502 1.865 2678
0.337 4.522 1.857 3591
0.325 4.360 1.795 3310
0.339 4.549 1.853 5335
0.329 4.409 1.799 3297
0.340 4.554 1.840 5781
0.353 4.731 1.907 3237
0.341 4.566 1.829 4370
0.353 4.729 1.890 3219
0.352 4.726 1.874 4536
0.337 4.519 1.797 4389
0.354 4.746 1.865 5615
0.343 4.606 1.814 4374
0.352 4.722 1.841 6413
0.342 4.581 1.790 1938
0.353 4.734 1.830 6535
0.369 4.942 1.905 1994
0.356 4.769 1.827 5837
0.371 4.969 1.899 2050
0.358 4.796 1.821 5309
0.347 4.654 1.771 2509
0.360 4.831 1.818 6413
0.372 4.987 1.873 3224
0.360 4.828 1.801 4565
0.372 4.992 1.858 4166
0.373 4.997 1.844 3523
0.385 5.161 1.900 2743
0.374 5.017 1.834 3701
0.386 5.174 1.888 3097
0.375 5.029 1.822 4436
0.387 5.194 1.878 3213
0.380 5.102 1.830 3885
0.391 5.244 1.878 2793
0.388 5.204 1.848 2862
0.377 5.062 1.801 2184
0.395 5.299 1.862 2751
0.411 5.509 1.931 1276
0.396 5.311 1.849 2976
0.411 5.507 1.913 2171
0.403 5.399 1.861 3529
0.414 5.557 1.911 1764
0.402 5.389 1.840 4347
0.416 5.585 1.902 2277
0.412 5.522 1.865 3193
0.401 5.379 1.820 2922
0.412 5.527 1.849 2752
0.430 5.761 1.922 2021
0.431 5.773 1.907 2516
0.418 5.600 1.854 2043
0.418 5.605 1.838 2707
0.432 5.794 1.895 2455
0.430 5.761 1.867 2101
0.440 5.904 1.910 1899
0.429 5.758 1.848 1781
0.445 5.963 1.909 1703
0.446 5.983 1.896 2639
0.460 6.172 1.952 1618
0.448 6.003 1.883 2740
0.458 6.147 1.926 2654
0.459 6.152 1.908 2941
0.483 6.478 2.002 2721
0.484 6.484 1.984 3463
0.455 6.104 1.875 2521
0.483 6.481 1.963 3733
0.461 6.178 1.876 2563
0.484 6.487 1.944 3928
0.462 6.190 1.861 2345
0.484 6.492 1.925 3657
0.471 6.309 1.874 3066
0.485 6.497 1.906 3067
0.508 6.817 1.994 2455
0.519 6.960 2.011 3202
0.496 6.655 1.928 3103
0.519 6.965 1.991 3332
0.497 6.660 1.909 2583
0.511 6.848 1.938 3054
0.544 7.299 2.057 2620
0.512 6.869 1.922 3005
0.544 7.289 2.032 2482
0.513 6.874 1.902 2197
0.543 7.279 2.007 1899
0.571 7.659 2.082 1970
0.543 7.277 1.984 1771
0.572 7.665 2.059 3281
0.543 7.282 1.963 1376
0.571 7.663 2.035 2833
0.600 8.046 2.131 1807
0.601 8.059 2.109 2621
0.572 7.668 2.013 2272
0.603 8.088 2.091 2367
0.579 7.766 2.013 1375
0.604 8.094 2.068 2121
0.616 8.255 2.106 2017
0.616 8.261 2.082 2411
0.603 8.092 2.042 1609
0.616 8.266 2.058 2130
0.628 8.420 2.094 1481
0.617 8.280 2.036 1272
0.652 8.749 2.144 1218
0.653 8.755 2.119 1947
0.671 9.001 2.175 1092
0.652 8.745 2.090 1455
0.672 9.007 2.149 1407
0.653 8.758 2.066 1207
0.672 9.013 2.122 1204
0.654 8.764 2.041 1440
0.671 8.995 2.091 1388
0.686 9.194 2.106 2080
0.672 9.009 2.066 1728
0.685 9.192 2.078 1965
0.673 9.022 2.042 1400
0.686 9.198 2.051 1373
0.626 8.394 1.883 1235
0.628 8.422 1.863 1666
0.714 9.574 2.101 1058
0.629 8.435 1.841 1640
0.706 9.464 2.049 959
0.630 8.447 1.818 1999
0.616 8.254 1.779 1141
0.630 8.452 1.793 2211
0.616 8.259 1.755 1713
0.616 8.263 1.731 2084
0.630 8.449 1.767 1378
0.617 8.268 1.707 2175
0.629 8.438 1.739 900
0.616 8.257 1.680 1767
0.613 8.222 1.649 1406
0.815 10.924 2.148 779
0.859 11.513 2.222 980
0.614 8.227 1.625 916
0.858 11.511 2.187 1299
0.615 8.247 1.604 975
0.859 11.517 2.153 1408
0.880 11.805 2.204 1081
0.859 11.515 2.118 1295
0.895 12.005 2.203 1004
0.949 12.727 2.289 1244
0.615 8.244 1.529 1088
0.949 12.726 2.251 1272
0.933 12.515 2.216 1069
0.619 8.306 1.490 1115
0.934 12.521 2.179 1097
0.619 8.294 1.463 938
0.934 12.519 2.142 905
0.617 8.275 1.435 1188
0.617 8.271 1.410 1850
0.617 8.274 1.386 1940
0.619 8.301 1.365 2215
0.619 8.305 1.341 2271
0.619 8.301 1.316 1959
0.620 8.312 1.293 1648
0.621 8.331 1.271 1742
0.622 8.334 1.247 1735
0.621 8.329 1.221 951
0.617 8.278 1.190 972
0.618 8.281 1.166 1100
0.618 8.291 1.143 951
0.177 2.311 1.807 4671
0.177 2.316 1.800 9342
0.186 2.437 1.889 1411
0.178 2.321 1.793 9342
0.187 2.442 1.882 2823
0.177 2.319 1.782 7936
0.187 2.440 1.870 3287
0.178 2.324 1.775 6563
0.187 2.446 1.863 3366
0.184 2.406 1.824 5882
0.193 2.528 1.911 2124
0.190 2.481 1.867 8062
0.178 2.327 1.757 4328
0.191 2.493 1.865 8238
0.178 2.331 1.751 4328
0.192 2.504 1.862 8411
0.182 2.381 1.776 5035
0.193 2.516 1.860 8660
0.183 2.393 1.774 6684
0.192 2.514 1.848 7470
0.183 2.391 1.762 4183
0.193 2.519 1.841 6304
0.183 2.396 1.755 2333
0.194 2.531 1.838 8333
0.184 2.407 1.753 1792
0.194 2.536 1.831 10448
0.204 2.660 1.915 1176
0.194 2.540 1.823 10448
0.204 2.665 1.908 1222
0.195 2.552 1.821 10616
0.205 2.676 1.904 1106
0.196 2.557 1.813 11191
0.205 2.682 1.897 1156
0.196 2.562 1.806 9405
0.206 2.687 1.889 1462
0.197 2.573 1.803 7695
0.207 2.698 1.886 1749
0.197 2.578 1.796 6011
0.207 2.703 1.878 3392
0.204 2.669 1.844 6471
0.195 2.543 1.762 2071
0.204 2.667 1.832 7738
0.214 2.793 1.914 1501
0.204 2.672 1.825 9015
0.215 2.805 1.910 2224
0.205 2.677 1.817 8095
0.215 2.803 1.898 2919
0.206 2.695 1.818 7685
0.216 2.822 1.898 3401
0.207 2.700 1.810 7845
0.216 2.827 1.890 3261
0.206 2.698 1.798 8062
0.221 2.892 1.920 3834
0.207 2.703 1.790 6824
0.222 2.897 1.911 4069
0.208 2.714 1.787 5598
0.219 2.862 1.878 4376
0.224 2.921 1.903 5307
0.208 2.713 1.775 3862
0.224 2.926 1.895 6433
0.211 2.751 1.788 2327
0.225 2.938 1.890 5167
0.213 2.790 1.800 2898
0.226 2.950 1.886 3991
0.213 2.788 1.788 3621
0.226 2.948 1.873 3780
0.214 2.792 1.780 3112
0.223 2.919 1.845 4360
0.233 3.048 1.921 3469
0.228 2.985 1.872 5696
0.215 2.809 1.768 1989
0.229 2.991 1.864 8276
0.240 3.134 1.948 1623
0.229 2.989 1.851 8763
0.239 3.118 1.927 2299
0.229 2.994 1.843 7490
0.239 3.124 1.918 4097
0.237 3.101 1.893 5776
0.227 2.971 1.818 4634
0.238 3.106 1.884 6879
0.228 2.976 1.810 2888
0.238 3.111 1.875 7983
0.248 3.242 1.949 1206
0.239 3.123 1.870 6756
0.249 3.254 1.944 1272
0.240 3.135 1.865 6119
0.253 3.301 1.958 1346
0.241 3.147 1.860 4548
0.251 3.278 1.933 1698
0.248 3.235 1.897 4586
0.238 3.104 1.824 1213
0.252 3.296 1.918 4956
0.242 3.164 1.846 1385
0.254 3.315 1.916 5311
0.244 3.183 1.844 2178
0.255 3.327 1.910 6420
0.245 3.195 1.839 2320
0.255 3.332 1.900 7235
0.244 3.186 1.822 2132
0.255 3.337 1.891 7502
0.241 3.149 1.790 1563
0.257 3.356 1.889 7353
0.268 3.496 1.963 1136
0.256 3.340 1.868 7443
0.266 3.473 1.938 1521
0.262 3.422 1.898 7414
0.252 3.289 1.829 3176
0.263 3.434 1.892 9781
0.273 3.568 1.961 2686
0.262 3.425 1.875 10955
0.272 3.559 1.944 3882
0.263 3.430 1.865 9212
0.273 3.564 1.933 4230
0.263 3.443 1.859 6251
0.274 3.576 1.927 4259
0.272 3.553 1.902 5667
0.262 3.419 1.835 3452
0.271 3.544 1.885 5516
0.261 3.410 1.818 2122
0.271 3.542 1.871 4711
0.242 3.160 1.682 1820
0.272 3.554 1.864 7252
0.282 3.689 1.931 2095
0.275 3.588 1.868 12409
0.264 3.453 1.802 2058
0.276 3.600 1.861 10826
0.286 3.735 1.927 2936
0.282 3.690 1.892 9016
0.272 3.555 1.827 3936
0.283 3.695 1.881 10249
0.272 3.560 1.817 2725
0.284 3.708 1.874 9182
0.294 3.843 1.938 1457
0.286 3.741 1.877 8078
0.276 3.605 1.813 1796
0.286 3.739 1.863 8742
0.242 3.160 1.592 1862
0.288 3.766 1.862 7331
0.278 3.629 1.799 2226
0.289 3.771 1.851 5795
0.299 3.907 1.914 2052
0.288 3.761 1.833 6451
0.298 3.898 1.896 3383
0.288 3.766 1.823 6338
0.299 3.903 1.885 3501
0.289 3.778 1.815 5281
0.300 3.915 1.876 3261
0.290 3.790 1.807 4293
0.306 3.999 1.901 2474
0.293 3.824 1.809 3779
0.308 4.019 1.895 3395
0.309 4.038 1.890 5160
0.294 3.836 1.801 3998
0.309 4.036 1.875 8532
0.295 3.855 1.796 3080
0.308 4.027 1.857 11611
0.319 4.165 1.917 2001
0.309 4.032 1.846 12024
0.319 4.170 1.905 1777
0.309 4.037 1.834 9321
0.324 4.233 1.918 2240
0.310 4.049 1.825 4919
0.321 4.195 1.887 2888
0.320 4.185 1.869 5263
0.310 4.047 1.811 2941
0.321 4.190 1.857 6398
0.310 4.051 1.799 2377
0.321 4.195 1.844 5052
0.310 4.056 1.787 1991
0.320 4.178 1.823 4067
0.334 4.361 1.898 3144
0.331 4.322 1.868 5647
0.320 4.183 1.811 3817
0.331 4.327 1.855 6123
0.321 4.188 1.799 2843
0.337 4.405 1.872 6046
0.324 4.237 1.805 3017
0.338 4.410 1.859 5882
0.327 4.271 1.804 2844
0.337 4.401 1.840 4430
0.347 4.540 1.895 2156
0.333 4.347 1.805 3993
0.344 4.494 1.862 2254
0.347 4.528 1.860 3399
0.336 4.388 1.806 3299
0.348 4.548 1.853 5442
0.337 4.408 1.799 4114
0.349 4.561 1.842 5997
0.362 4.730 1.907 3336
0.350 4.573 1.832 4246
0.362 4.736 1.893 3547
0.363 4.741 1.879 4917
0.345 4.511 1.794 4359
0.363 4.746 1.865 5885
0.352 4.605 1.814 4286
0.362 4.728 1.844 6215
0.351 4.587 1.792 2270
0.363 4.741 1.833 6406
0.378 4.941 1.905 2342
0.365 4.775 1.830 6864
0.355 4.634 1.779 2003
0.366 4.788 1.818 5741
0.356 4.646 1.768 2098
0.370 4.830 1.818 6155
0.382 4.986 1.873 3314
0.370 4.835 1.804 4274
0.382 4.991 1.858 4003
0.382 4.996 1.844 3168
0.395 5.161 1.900 2522
0.383 5.001 1.829 3553
0.394 5.151 1.880 2708
0.384 5.021 1.820 4026
0.397 5.193 1.878 2734
0.390 5.093 1.828 3900
0.401 5.236 1.875 3043
0.398 5.203 1.848 2907
0.387 5.061 1.801 2217
0.405 5.298 1.862 2844
0.385 5.036 1.776 1302
0.406 5.311 1.849 3111
0.422 5.513 1.915 2106
0.413 5.398 1.861 3272
0.424 5.541 1.906 1819
0.412 5.388 1.840 4294
0.427 5.584 1.902 2570
0.413 5.393 1.824 3227
0.427 5.581 1.884 2542
0.422 5.519 1.846 2313
0.442 5.775 1.926 2253
0.443 5.788 1.912 2500
0.429 5.607 1.856 2299
0.429 5.612 1.840 3068
0.443 5.793 1.895 2411
0.441 5.768 1.869 2054
0.430 5.616 1.824 1900
0.457 5.969 1.911 1827
0.441 5.765 1.850 1813
0.458 5.990 1.899 2566
0.444 5.808 1.845 1757
0.459 6.002 1.883 2913
0.470 6.146 1.926 2519
0.470 6.136 1.903 3148
0.496 6.477 2.002 2460
0.496 6.483 1.984 3055
0.467 6.096 1.873 3033
0.496 6.481 1.963 3210
0.466 6.093 1.853 2453
0.496 6.478 1.942 3258
0.475 6.205 1.865 2220
0.497 6.491 1.925 2937
0.483 6.308 1.874 2903
0.497 6.496 1.906 2562
0.526 6.877 2.010 2147
0.526 6.875 1.988 2669
0.509 6.654 1.928 2513
0.527 6.880 1.968 3312
0.510 6.659 1.909 2246
0.526 6.878 1.946 2977
0.559 7.297 2.057 2366
0.526 6.875 1.924 2973
0.558 7.295 2.034 2237
0.525 6.865 1.900 2195
0.556 7.270 2.005 1665
0.586 7.651 2.080 2084
0.557 7.276 1.984 1471
0.586 7.656 2.057 3293
0.597 7.802 2.094 1691
0.586 7.662 2.035 2767
0.615 8.037 2.129 1624
0.586 7.660 2.011 2248
0.616 8.051 2.107 2194
0.619 8.087 2.091 2126
0.595 7.780 2.017 1760
0.619 8.093 2.068 2241
0.632 8.254 2.106 1823
0.632 8.252 2.080 2442
0.620 8.098 2.044 1540
0.632 8.257 2.056 2396
0.644 8.411 2.092 1709
0.633 8.271 2.034 1463
0.669 8.748 2.144 1250
0.670 8.753 2.119 2024
0.689 9.000 2.175 955
0.669 8.744 2.090 1560
0.689 9.006 2.149 1335
0.670 8.757 2.066 1353
0.690 9.011 2.122 1142
0.671 8.763 2.041 1596
0.703 9.187 2.133 1101
0.703 9.185 2.105 2052
0.689 9.007 2.066 1392
0.703 9.191 2.078 1984
0.691 9.028 2.044 1258
0.704 9.204 2.053 1424
0.722 9.428 2.100 1303
0.643 8.405 1.860 1255
0.724 9.457 2.077 1123
0.632 8.263 1.806 1506
0.646 8.441 1.842 1352
0.647 8.454 1.819 2130
0.632 8.260 1.780 1566
0.647 8.459 1.794 2292
0.632 8.257 1.755 1962
0.632 8.262 1.731 2668
0.647 8.456 1.768 1368
0.633 8.267 1.707 2959
0.646 8.437 1.739 844
0.632 8.263 1.681 2335
0.629 8.213 1.647 1749
0.835 10.915 2.146 889
0.629 8.218 1.623 1425
0.864 11.294 2.182 885
0.629 8.222 1.599 1282
0.881 11.517 2.188 1086
0.903 11.803 2.204 1284
0.881 11.515 2.153 1268
0.881 11.513 2.118 1217
0.904 11.809 2.169 1095
0.975 12.733 2.291 1152
0.631 8.242 1.529 1019
0.974 12.724 2.251 1184
0.958 12.514 2.216 1014
0.634 8.289 1.487 1267
0.958 12.520 2.179 1045
0.634 8.278 1.461 1357
0.958 12.518 2.142 952
0.633 8.274 1.435 1084
0.632 8.262 1.409 1014
0.635 8.297 1.389 1330
0.635 8.292 1.364 1965
0.634 8.288 1.339 1867
0.635 8.292 1.315 1346
0.636 8.311 1.293 1206
0.637 8.330 1.271 1584
0.638 8.333 1.247 1588
0.633 8.273 1.214 949
0.633 8.276 1.190 1132
0.634 8.279 1.166 1182
0.634 8.282 1.142 955
0.182 2.304 1.802 5124
0.183 2.309 1.795 10248
0.192 2.430 1.884 1422
0.183 2.314 1.789 10248
0.193 2.435 1.877 2845
0.184 2.318 1.782 8707
0.193 2.440 1.870 3386
0.184 2.323 1.775 7166
0.194 2.445 1.863 3927
0.191 2.411 1.829 6255
0.181 2.289 1.741 2434
0.196 2.481 1.867 8157
0.184 2.326 1.757 4087
0.197 2.492 1.865 8287
0.185 2.331 1.751 4087
0.198 2.504 1.862 8338
0.188 2.381 1.776 5154
0.199 2.515 1.860 8678
0.189 2.392 1.774 6937
0.199 2.520 1.852 7028
0.190 2.397 1.767 4930
0.199 2.519 1.841 5498
0.190 2.395 1.755 2599
0.200 2.530 1.838 7885
0.190 2.406 1.753 1814
0.201 2.535 1.831 10392
0.210 2.659 1.915 1198
0.201 2.540 1.823 10392
0.211 2.664 1.908 1200
0.202 2.551 1.821 11053
0.212 2.676 1.904 1076
0.202 2.556 1.813 11932
0.212 2.681 1.897 1113
0.203 2.561 1.806 10024
0.213 2.686 1.889 1433
0.204 2.573 1.803 8210
0.214 2.698 1.886 1777
0.204 2.577 1.796 6499
0.214 2.703 1.878 3216
0.211 2.662 1.840 6299
0.201 2.536 1.758 1692
0.211 2.667 1.832 7437
0.201 2.541 1.751 1478
0.211 2.671 1.825 8576
0.221 2.798 1.906 2142
0.212 2.676 1.817 7767
0.222 2.803 1.898 2945
0.213 2.695 1.818 7288
0.223 2.821 1.898 3408
0.214 2.699 1.810 7515
0.224 2.826 1.890 3471
0.214 2.698 1.798 7810
0.224 2.825 1.878 3747
0.214 2.702 1.790 6657
0.229 2.897 1.911 3884
0.215 2.714 1.787 5507
0.230 2.902 1.903 4211
0.231 2.921 1.903 5228
0.215 2.712 1.775 3759
0.232 2.926 1.895 6361
0.221 2.798 1.816 2418
0.233 2.937 1.890 4983
0.221 2.789 1.800 2676
0.233 2.943 1.882 3717
0.221 2.787 1.788 3051
0.233 2.948 1.873 3635
0.221 2.792 1.780 2733
0.239 3.021 1.905 4190
0.229 2.892 1.829 3534
0.236 2.985 1.872 5872
0.222 2.808 1.768 1831
0.237 2.990 1.864 8287
0.247 3.126 1.944 1757
0.237 2.995 1.855 8786
0.247 3.125 1.931 2272
0.237 2.993 1.843 7540
0.247 3.123 1.918 4144
0.245 3.101 1.893 5902
0.235 2.971 1.818 4437
0.246 3.106 1.884 6833
0.236 2.975 1.810 2697
0.246 3.111 1.875 7764
0.257 3.241 1.949 1219
0.247 3.123 1.870 6693
0.258 3.253 1.944 1135
0.249 3.142 1.869 6457
0.262 3.314 1.965 1124
0.250 3.153 1.864 4964
0.261 3.298 1.944 1468
0.255 3.221 1.889 3792
0.245 3.089 1.816 976
0.261 3.302 1.922 4479
0.251 3.170 1.849 1690
0.262 3.314 1.916 5263
0.252 3.182 1.844 2152
0.263 3.326 1.910 6446
0.251 3.166 1.824 2248
0.264 3.331 1.900 7361
0.251 3.171 1.814 2227
0.264 3.336 1.891 7436
0.250 3.162 1.798 1969
0.266 3.355 1.889 7079
0.250 3.153 1.781 1774
0.264 3.340 1.868 6897
0.249 3.151 1.769 1683
0.271 3.429 1.902 6662
0.261 3.296 1.833 3774
0.272 3.434 1.892 8757
0.250 3.160 1.750 2943
0.272 3.432 1.879 9710
0.282 3.565 1.947 3558
0.272 3.437 1.869 8212
0.283 3.570 1.937 4253
0.273 3.449 1.862 5723
0.284 3.583 1.930 4232
0.282 3.560 1.906 5701
0.271 3.426 1.838 3458
0.281 3.544 1.885 5087
0.250 3.162 1.694 1983
0.278 3.513 1.857 4267
0.250 3.160 1.682 2091
0.281 3.554 1.864 7552
0.292 3.688 1.931 1905
0.284 3.587 1.868 13454
0.273 3.452 1.802 1855
0.285 3.599 1.861 11875
0.296 3.734 1.927 2937
0.293 3.697 1.895 9685
0.282 3.562 1.830 4749
0.292 3.695 1.881 11049
0.282 3.559 1.817 2805
0.293 3.707 1.874 9867
0.250 3.158 1.613 2434
0.297 3.748 1.880 8326
0.286 3.612 1.816 2122
0.296 3.738 1.863 8732
0.249 3.145 1.585 1902
0.298 3.765 1.862 7264
0.287 3.629 1.799 2134
0.298 3.770 1.851 5730
0.309 3.906 1.914 2135
0.298 3.760 1.833 6690
0.308 3.897 1.896 3227
0.299 3.773 1.826 6643
0.309 3.909 1.888 2786
0.299 3.777 1.815 5582
0.310 3.914 1.876 2882
0.300 3.789 1.807 4448
0.317 4.006 1.904 2697
0.319 4.025 1.899 3658
0.302 3.816 1.806 3631
0.320 4.038 1.890 5665
0.303 3.828 1.798 3491
0.319 4.036 1.875 8746
0.305 3.855 1.796 2643
0.319 4.026 1.857 11326
0.308 3.888 1.798 1903
0.319 4.031 1.846 11653
0.308 3.893 1.787 1556
0.319 4.036 1.834 8693
0.335 4.232 1.918 2112
0.320 4.048 1.825 4439
0.332 4.194 1.887 3276
0.331 4.184 1.869 6171
0.320 4.046 1.811 3010
0.332 4.189 1.857 7408
0.321 4.051 1.799 2496
0.333 4.201 1.847 5509
0.322 4.063 1.790 2092
0.331 4.184 1.826 4231
0.346 4.367 1.901 3003
0.342 4.321 1.868 5679
0.331 4.182 1.811 4268
0.342 4.326 1.855 6104
0.331 4.187 1.799 2987
0.349 4.404 1.872 6353
0.335 4.236 1.805 2909
0.349 4.409 1.859 5951
0.338 4.270 1.804 2754
0.348 4.400 1.840 4671
0.359 4.539 1.895 1787
0.343 4.338 1.802 4036
0.354 4.478 1.856 2412
0.350 4.417 1.818 3299
0.361 4.557 1.872 2473
0.351 4.437 1.811 5009
0.362 4.577 1.864 3086
0.361 4.560 1.842 4593
0.374 4.729 1.907 3494
0.362 4.572 1.832 3815
0.375 4.742 1.896 3782
0.375 4.740 1.879 5259
0.357 4.510 1.794 4075
0.376 4.745 1.865 6015
0.364 4.604 1.814 3641
0.375 4.735 1.846 5961
0.358 4.527 1.771 2159
0.376 4.747 1.835 6445
0.391 4.940 1.905 2573
0.378 4.774 1.830 7351
0.391 4.945 1.891 1676
0.379 4.787 1.818 5984
0.392 4.958 1.879 1795
0.382 4.829 1.818 5818
0.394 4.978 1.870 3799
0.394 4.983 1.855 4420
0.383 4.834 1.804 3913
0.394 4.980 1.838 3200
0.408 5.159 1.900 2297
0.395 4.993 1.827 3316
0.407 5.142 1.878 2352
0.397 5.013 1.817 3623
0.408 5.155 1.865 2526
0.404 5.100 1.830 3422
0.415 5.242 1.878 3073
0.411 5.195 1.845 3027
0.424 5.359 1.900 1949
0.419 5.290 1.860 2855
0.407 5.147 1.813 1421
0.420 5.310 1.849 3001
0.436 5.512 1.915 2099
0.427 5.397 1.861 2720
0.439 5.540 1.906 1863
0.426 5.380 1.838 3890
0.443 5.590 1.905 2769
0.427 5.392 1.824 3402
0.442 5.588 1.886 2639
0.457 5.774 1.926 2385
0.436 5.510 1.844 1844
0.444 5.605 1.856 2477
0.458 5.786 1.912 2397
0.444 5.610 1.840 3306
0.458 5.792 1.895 2263
0.444 5.615 1.824 2056
0.458 5.782 1.874 1917
0.457 5.771 1.853 2087
0.472 5.968 1.911 1977
0.474 5.988 1.899 2542
0.460 5.807 1.845 2254
0.475 6.001 1.883 2887
0.486 6.145 1.926 2303
0.486 6.135 1.903 3457
0.474 5.991 1.862 2661
0.483 6.102 1.875 3160
0.513 6.481 1.984 2313
0.482 6.092 1.853 2505
0.513 6.479 1.963 2474
0.513 6.477 1.942 2379
0.491 6.203 1.865 2078
0.499 6.307 1.874 2463
0.539 6.809 2.013 2304
0.537 6.784 1.985 2069
0.514 6.487 1.904 1797
0.543 6.866 1.986 3119
0.527 6.660 1.930 1879
0.544 6.871 1.966 3749
0.555 7.016 2.005 2020
0.545 6.884 1.948 2846
0.578 7.296 2.057 1956
0.545 6.882 1.926 2401
0.578 7.302 2.036 1943
0.543 6.856 1.898 1936
0.592 7.483 2.060 1682
0.605 7.641 2.078 2165
0.616 7.787 2.115 1536
0.607 7.662 2.059 3376
0.618 7.808 2.096 1578
0.614 7.752 2.058 2823
0.635 8.028 2.127 1462
0.615 7.773 2.039 2336
0.651 8.225 2.151 1914
0.647 8.170 2.112 2303
0.616 7.778 2.017 2247
0.640 8.091 2.068 2009
0.616 7.776 1.992 1671
0.654 8.258 2.082 1979
0.617 7.789 1.971 1373
0.654 8.263 2.058 2420
0.666 8.409 2.092 1475
0.655 8.269 2.034 1446
0.692 8.746 2.144 1175
0.692 8.744 2.117 2074
0.654 8.267 2.008 1098
0.692 8.742 2.090 1763
0.713 9.004 2.149 1161
0.693 8.755 2.066 1514
0.714 9.017 2.124 1072
0.693 8.761 2.041 1688
0.714 9.023 2.098 972
0.727 9.183 2.105 1885
0.695 8.774 2.017 1224
0.727 9.189 2.078 1779
0.745 9.413 2.125 1277
0.746 9.426 2.100 1360
0.729 9.210 2.054 1312
0.653 8.249 1.828 1396
0.746 9.424 2.071 1282
0.653 8.254 1.804 1613
0.748 9.445 2.046 1430
0.670 8.460 1.821 2143
0.654 8.259 1.780 1541
0.669 8.457 1.794 2354
0.653 8.256 1.755 1971
0.654 8.260 1.731 3078
0.669 8.446 1.767 1452
0.654 8.265 1.707 3411
0.667 8.428 1.738 985
0.655 8.269 1.683 2720
0.655 8.274 1.659 2174
0.863 10.905 2.145 919
0.654 8.263 1.632 1851
0.894 11.299 2.184 916
0.654 8.259 1.606 1595
0.911 11.515 2.188 952
0.934 11.801 2.204 1549
0.911 11.513 2.153 1233
0.935 11.807 2.169 1376
0.653 8.244 1.554 1236
0.654 8.256 1.531 1718
1.008 12.731 2.291 1015
0.654 8.260 1.507 1749
1.007 12.721 2.251 1059
0.654 8.264 1.483 1532
0.991 12.517 2.179 972
0.656 8.291 1.463 1487
0.991 12.515 2.142 999
0.657 8.295 1.439 1296
0.991 12.521 2.105 784
0.657 8.299 1.415 1014
0.658 8.311 1.392 836
0.654 8.267 1.361 1072
0.654 8.263 1.335 984
0.655 8.278 1.288 841
0.659 8.328 1.271 1485
0.659 8.323 1.245 1390
0.655 8.272 1.214 976
0.655 8.275 1.190 1204
0.655 8.270 1.165 1215
0.655 8.273 1.141 988
0.189 2.303 1.802 5577
0.190 2.308 1.795 11154
0.200 2.429 1.884 1263
0.190 2.313 1.789 11154
0.200 2.434 1.877 2526
0.190 2.318 1.782 9472
0.200 2.439 1.870 3534
0.191 2.329 1.780 7800
0.201 2.451 1.868 3948
0.199 2.417 1.833 6756
0.189 2.295 1.746 3163
0.199 2.422 1.826 8671
0.189 2.300 1.739 2499
0.199 2.427 1.819 8671
0.189 2.305 1.733 2499
0.198 2.413 1.799 8112
0.208 2.535 1.885 5876
0.207 2.521 1.864 8342
0.197 2.398 1.778 7808
0.207 2.520 1.852 6603
0.197 2.396 1.767 5232
0.207 2.518 1.841 5123
0.197 2.395 1.755 3022
0.208 2.529 1.838 7869
0.198 2.406 1.753 2054
0.208 2.534 1.831 10842
0.218 2.658 1.915 1217
0.209 2.539 1.823 10842
0.219 2.664 1.908 1194
0.209 2.551 1.821 11729
0.220 2.675 1.904 1155
0.210 2.556 1.813 12697
0.220 2.680 1.897 1299
0.210 2.561 1.806 10746
0.221 2.685 1.889 1544
0.211 2.572 1.803 8918
0.222 2.697 1.886 1875
0.212 2.577 1.796 7102
0.222 2.702 1.878 3026
0.218 2.654 1.836 5698
0.208 2.529 1.754 1164
0.219 2.666 1.832 6811
0.209 2.540 1.751 1409
0.219 2.671 1.825 7972
0.230 2.797 1.906 1997
0.220 2.682 1.821 7282
0.231 2.809 1.902 2732
0.221 2.694 1.818 7021
0.232 2.821 1.898 3315
0.222 2.699 1.810 7132
0.232 2.826 1.890 3506
0.221 2.697 1.798 7324
0.232 2.824 1.878 3973
0.222 2.702 1.790 6415
