2.787 2.719 1.835 2341
2.811 2.742 1.836 4216
2.676 2.611 1.754 3807
2.820 2.751 1.828 7154
2.664 2.599 1.733 3064
2.828 2.759 1.820 7764
2.719 2.653 1.754 3215
2.837 2.768 1.811 6792
2.717 2.651 1.740 2678
2.851 2.782 1.806 5332
2.720 2.654 1.729 1772
2.870 2.800 1.804 6620
2.771 2.703 1.746 2360
2.879 2.809 1.795 7494
2.779 2.712 1.738 3669
2.919 2.848 1.805 6175
2.809 2.741 1.741 4435
2.928 2.856 1.796 6025
2.817 2.749 1.733 3610
3.025 2.952 1.838 5439
2.926 2.855 1.782 4012
3.029 2.955 1.826 8208
2.929 2.858 1.770 3234
3.032 2.959 1.814 6329
2.933 2.861 1.758 2870
3.036 2.962 1.802 3340
2.936 2.864 1.746 2059
3.113 3.038 1.830 3413
2.992 2.919 1.763 2419
3.096 3.020 1.806 4477
2.995 2.922 1.751 2049
3.126 3.050 1.808 4359
3.025 2.952 1.753 1281
3.134 3.058 1.798 4896
3.293 3.213 1.883 1048
3.185 3.108 1.811 5913
3.085 3.010 1.757 2190
3.189 3.111 1.798 7156
3.316 3.236 1.865 1915
3.192 3.115 1.785 7653
3.325 3.244 1.854 3062
3.196 3.118 1.772 5231
3.323 3.242 1.838 3899
3.332 3.251 1.827 5451
3.194 3.116 1.756 5184
3.203 3.125 1.746 8139
3.341 3.260 1.817 6565
3.217 3.138 1.739 7255
3.345 3.263 1.803 6123
3.364 3.282 1.798 6943
3.231 3.152 1.731 5181
3.383 3.301 1.792 7667
3.234 3.155 1.718 3252
3.398 3.315 1.784 6010
3.499 3.414 1.833 1932
3.406 3.324 1.772 4867
3.508 3.423 1.822 2481
3.485 3.400 1.795 6474
3.383 3.301 1.746 2520
3.494 3.409 1.783 6409
3.596 3.508 1.832 3063
3.578 3.491 1.807 7774
3.476 3.391 1.759 4228
3.581 3.494 1.793 9523
3.479 3.394 1.745 3595
3.595 3.508 1.783 9823
3.493 3.408 1.736 2203
3.599 3.511 1.769 8372
3.701 3.611 1.815 3400
3.607 3.520 1.756 6897
3.710 3.620 1.803 2995
3.611 3.523 1.742 7224
3.713 3.623 1.788 2307
3.603 3.516 1.723 7365
3.706 3.616 1.768 3027
3.612 3.524 1.710 6898
3.715 3.624 1.756 2505
3.615 3.527 1.696 4059
3.810 3.717 1.781 2383
3.830 3.737 1.772 2583
3.933 3.837 1.816 1735
3.839 3.745 1.759 3061
3.942 3.846 1.803 2746
3.945 3.849 1.787 3199
3.836 3.743 1.741 3127
4.030 3.932 1.805 2888
3.840 3.746 1.726 2242
4.044 3.946 1.793 3796
4.153 4.052 1.838 2248
4.048 3.949 1.777 3731
4.156 4.055 1.821 2242
4.187 4.085 1.815 3209
4.046 3.947 1.758 2740
4.180 4.078 1.794 4352
4.060 3.961 1.746 2168
4.178 4.076 1.775 4808
4.385 4.278 1.857 2942
4.181 4.079 1.758 4244
4.285 4.181 1.799 3275
4.201 4.099 1.748 3191
4.430 4.322 1.836 2885
4.461 4.353 1.829 3384
4.242 4.139 1.745 2595
4.492 4.383 1.821 4553
4.596 4.484 1.860 2503
4.501 4.391 1.805 4134
4.605 4.493 1.844 3375
4.619 4.507 1.829 3461
4.515 4.405 1.791 2158
4.804 4.687 1.876 2313
4.628 4.516 1.812 2198
4.797 4.680 1.853 2300
4.692 4.578 1.815 1588
4.943 4.823 1.884 2497
4.795 4.678 1.832 1959
4.952 4.831 1.866 3548
4.804 4.687 1.814 2161
4.967 4.846 1.850 3029
5.082 4.958 1.890 1719
4.970 4.849 1.830 2177
5.075 4.951 1.866 1900
5.359 5.229 1.940 1848
5.062 4.939 1.840 1469
5.368 5.238 1.920 2515
5.231 5.103 1.874 1610
5.400 5.268 1.908 2058
5.074 4.951 1.800 1522
5.608 5.471 1.952 2406
5.425 5.293 1.893 1481
5.611 5.475 1.930 3955
5.357 5.227 1.848 2080
5.615 5.478 1.907 4706
5.388 5.257 1.835 2033
5.619 5.482 1.884 5567
5.746 5.606 1.924 2374
5.622 5.486 1.861 5467
5.750 5.610 1.901 2328
5.626 5.489 1.838 3964
5.753 5.613 1.877 2313
5.635 5.498 1.817 4305
5.757 5.617 1.854 2103
5.644 5.507 1.796 6758
6.237 6.085 1.971 1687
5.647 5.510 1.773 7777
6.246 6.095 1.948 2422
5.645 5.508 1.749 5453
6.250 6.098 1.922 3077
6.259 6.107 1.899 2922
5.654 5.517 1.727 2344
6.269 6.116 1.875 3471
6.096 5.948 1.827 1570
6.261 6.109 1.846 3514
6.695 6.532 1.965 1409
6.259 6.107 1.819 2428
6.799 6.633 1.965 1409
6.263 6.110 1.794 1537
6.563 6.404 1.874 1376
7.012 6.842 1.964 1924
6.556 6.396 1.844 1470
7.005 6.835 1.933 1849
7.111 6.938 1.960 1424
7.098 6.925 1.927 1610
7.683 7.496 2.075 1439
7.682 7.495 2.042 1595
7.241 7.065 1.933 1395
7.859 7.668 2.053 1306
7.686 7.499 2.011 1227
7.874 7.682 2.024 2376
7.746 7.557 1.993 1261
7.883 7.692 1.994 3299
8.213 8.013 2.071 1384
7.893 7.701 1.963 3092
8.223 8.023 2.039 1726
7.925 7.732 1.937 3021
8.243 8.043 2.010 2174
8.264 8.063 1.980 2518
7.923 7.730 1.904 2383
8.273 8.072 1.948 1951
7.938 7.744 1.874 1409
7.941 7.748 1.842 1233
8.294 8.092 1.918 1099
9.149 8.927 2.064 1027
9.009 8.790 2.034 973
9.159 8.936 2.028 1080
10.286 10.035 2.261 1049
10.296 10.045 2.221 986
9.862 9.622 2.092 917
9.861 9.621 2.051 810
10.314 10.063 2.096 758
10.318 10.067 2.054 849
1.636 1.588 1.778 4994
1.544 1.499 1.684 1139
1.639 1.591 1.772 9988
1.547 1.502 1.678 2278
1.642 1.594 1.765 9988
1.550 1.505 1.672 2278
1.650 1.602 1.763 10044
1.554 1.508 1.666 1527
1.658 1.610 1.762 10161
1.746 1.695 1.849 1629
1.662 1.613 1.755 7555
1.750 1.698 1.842 3747
1.730 1.679 1.812 7929
1.642 1.594 1.725 2706
1.733 1.683 1.806 7929
1.645 1.597 1.719 2706
1.732 1.682 1.794 9701
1.644 1.596 1.708 1956
1.736 1.685 1.787 11538
1.647 1.599 1.701 1843
1.744 1.693 1.785 9001
1.655 1.607 1.699 1720
1.747 1.696 1.778 6569
1.836 1.783 1.863 1918
1.755 1.704 1.775 5350
1.845 1.791 1.860 2186
1.829 1.776 1.835 4440
1.740 1.689 1.751 4029
1.767 1.715 1.766 5389
1.856 1.802 1.850 2150
1.770 1.719 1.759 7518
1.860 1.806 1.843 2102
1.769 1.717 1.747 8499
1.859 1.804 1.831 2189
1.772 1.721 1.740 8520
1.862 1.808 1.823 2072
1.776 1.724 1.733 8485
1.866 1.811 1.816 2091
1.784 1.732 1.731 6523
1.874 1.819 1.813 1909
1.806 1.753 1.741 6201
1.906 1.850 1.831 1479
1.814 1.761 1.738 5688
1.915 1.859 1.828 1476
1.818 1.764 1.731 5236
1.928 1.871 1.829 1591
1.821 1.768 1.723 3751
1.912 1.856 1.804 1743
1.877 1.822 1.763 4446
1.880 1.825 1.755 4910
1.972 1.914 1.835 1767
1.884 1.829 1.748 5374
1.975 1.918 1.827 2797
1.897 1.841 1.748 6483
1.989 1.930 1.828 2624
1.900 1.845 1.741 7661
1.992 1.934 1.820 2878
1.908 1.853 1.737 6324
2.000 1.942 1.816 3066
1.980 1.922 1.788 6221
1.887 1.832 1.709 3485
1.983 1.925 1.780 6152
1.891 1.835 1.702 2755
1.982 1.924 1.768 6106
1.889 1.834 1.690 1719
1.985 1.927 1.760 5924
2.078 2.017 1.837 1516
1.984 1.926 1.748 5759
2.076 2.016 1.825 2692
1.997 1.938 1.748 7074
2.090 2.029 1.824 2178
2.000 1.942 1.740 7227
2.093 2.032 1.816 2536
2.008 1.950 1.736 6084
2.102 2.040 1.812 1834
2.071 2.010 1.775 4963
1.977 1.919 1.700 2112
2.074 2.013 1.767 5721
1.981 1.923 1.692 1402
2.073 2.012 1.755 5412
2.166 2.103 1.829 1540
2.061 2.001 1.735 6190
2.155 2.092 1.809 4214
2.064 2.004 1.727 5871
2.159 2.095 1.800 4702
2.088 2.027 1.734 4985
2.182 2.118 1.807 4597
2.190 2.126 1.802 4703
2.091 2.030 1.726 4549
2.104 2.043 1.725 5001
2.204 2.139 1.801 4371
2.117 2.056 1.724 5953
2.217 2.152 1.800 4311
2.131 2.068 1.723 6014
2.226 2.161 1.795 4461
2.154 2.091 1.730 6840
2.249 2.183 1.801 2713
2.167 2.104 1.728 8391
2.283 2.216 1.814 2342
2.226 2.161 1.761 8327
2.131 2.068 1.690 2911
2.234 2.169 1.755 10549
2.139 2.076 1.685 2784
2.243 2.177 1.750 9735
2.338 2.270 1.820 3410
2.251 2.185 1.745 7483
2.347 2.278 1.814 5289
2.340 2.272 1.798 6751
2.244 2.179 1.729 5970
2.258 2.192 1.727 7961
2.354 2.285 1.796 5463
2.266 2.200 1.721 6623
2.362 2.293 1.790 4468
2.340 2.272 1.762 6004
2.244 2.179 1.694 2542
2.288 2.221 1.714 5110
2.405 2.334 1.796 3456
2.347 2.279 1.744 4165
2.444 2.372 1.811 2493
2.396 2.326 1.766 4944
2.295 2.227 1.696 1870
2.374 2.305 1.739 5388
2.277 2.211 1.672 886
2.408 2.338 1.750 4980
2.577 2.501 1.865 1774
2.437 2.366 1.758 5057
2.575 2.500 1.851 2352
2.415 2.344 1.731 6584
2.579 2.503 1.840 2248
2.418 2.348 1.721 8101
2.598 2.522 1.840 2184
2.422 2.351 1.711 6934
2.612 2.535 1.837 2634
2.615 2.539 1.826 4131
2.425 2.354 1.702 3813
2.619 2.542 1.816 5489
2.495 2.422 1.735 1487
2.627 2.550 1.809 4665
2.498 2.425 1.725 1243
2.688 2.609 1.834 3919
2.589 2.514 1.772 1989
2.696 2.617 1.827 5691
2.598 2.522 1.764 2036
2.710 2.631 1.823 4081
2.612 2.535 1.761 2219
2.657 2.579 1.776 2668
2.755 2.675 1.838 1912
2.717 2.638 1.801 2936
2.619 2.542 1.740 1909
2.705 2.626 1.780 3659
2.804 2.722 1.841 2137
2.823 2.740 1.839 4246
2.682 2.604 1.754 3611
2.826 2.744 1.828 7340
2.665 2.587 1.730 2920
2.835 2.752 1.820 8339
2.726 2.646 1.754 3380
2.839 2.756 1.808 7491
2.938 2.852 1.868 2951
2.853 2.769 1.803 5677
2.952 2.866 1.862 2007
2.872 2.788 1.801 6597
2.767 2.686 1.740 2417
2.886 2.801 1.795 7599
2.786 2.705 1.738 3387
2.921 2.835 1.802 6379
2.816 2.733 1.741 4150
2.935 2.849 1.796 6164
3.045 2.956 1.859 3463
3.033 2.944 1.838 5111
2.933 2.847 1.782 4067
3.036 2.948 1.826 8140
2.936 2.850 1.770 3273
3.040 2.951 1.814 6641
2.940 2.854 1.758 3174
3.043 2.954 1.802 3664
2.943 2.857 1.746 2451
3.121 3.030 1.830 3078
3.010 2.922 1.769 2270
3.098 3.007 1.803 3857
2.997 2.910 1.748 1529
3.101 3.011 1.791 3860
3.202 3.108 1.845 1823
3.190 3.096 1.823 5023
3.089 2.999 1.770 2434
3.193 3.100 1.811 6820
3.092 3.002 1.757 1839
3.197 3.103 1.798 7456
3.330 3.232 1.868 1773
3.195 3.101 1.782 7509
3.339 3.241 1.857 2863
3.198 3.105 1.769 5295
3.337 3.239 1.841 3482
3.340 3.243 1.827 5360
3.202 3.108 1.756 5255
3.205 3.111 1.744 7923
3.349 3.251 1.817 7018
3.219 3.125 1.736 6631
3.353 3.255 1.803 6394
3.372 3.274 1.798 6803
3.239 3.144 1.731 4352
3.397 3.298 1.795 7735
3.242 3.147 1.718 2673
3.411 3.312 1.786 5685
3.578 3.473 1.867 1599
3.474 3.372 1.801 5586
3.576 3.471 1.850 1539
3.493 3.391 1.795 7937
3.391 3.292 1.746 2621
3.502 3.400 1.783 7268
3.604 3.499 1.832 3976
3.586 3.481 1.807 9391
3.484 3.382 1.759 3916
3.595 3.490 1.795 11216
3.493 3.391 1.747 3506
3.604 3.499 1.783 10508
3.502 3.399 1.736 2175
3.602 3.497 1.766 8175
3.705 3.596 1.813 3303
3.611 3.505 1.754 6227
3.714 3.605 1.800 3423
3.614 3.509 1.740 5906
3.717 3.608 1.785 2853
3.612 3.507 1.723 5922
3.715 3.606 1.768 3133
3.621 3.515 1.710 5619
3.724 3.615 1.756 2375
3.624 3.518 1.696 3439
3.792 3.681 1.769 2740
3.828 3.716 1.767 2494
3.948 3.832 1.819 1721
3.957 3.841 1.805 3008
3.848 3.735 1.759 2769
3.960 3.844 1.789 3544
3.851 3.739 1.743 2713
3.964 3.848 1.773 3174
4.165 4.043 1.857 1947
4.049 3.930 1.791 3849
4.169 4.047 1.840 3004
4.058 3.939 1.777 3499
4.167 4.045 1.821 3328
4.197 4.075 1.815 3831
4.056 3.937 1.758 2603
4.190 4.067 1.794 4984
4.075 3.956 1.748 2197
4.188 4.065 1.775 6112
4.396 4.267 1.857 3063
4.191 4.069 1.758 5356
4.295 4.170 1.799 2771
4.211 4.088 1.748 4069
4.496 4.364 1.857 2701
4.215 4.091 1.731 3303
4.483 4.352 1.833 3294
4.498 4.366 1.819 5091
4.602 4.467 1.858 2430
4.507 4.375 1.803 4780
4.611 4.476 1.842 2916
4.625 4.490 1.827 3133
4.521 4.389 1.789 2507
4.634 4.499 1.810 2603
4.832 4.691 1.882 2039
4.830 4.689 1.861 2203
4.704 4.566 1.815 1981
4.817 4.676 1.835 2311
4.961 4.815 1.886 1968
4.964 4.819 1.866 3063
4.821 4.680 1.816 2810
4.979 4.833 1.850 2875
4.824 4.683 1.797 1967
5.071 4.922 1.860 2366
4.966 4.821 1.824 1825
5.378 5.221 1.942 1829
5.080 4.931 1.841 1629
5.382 5.224 1.920 2369
5.089 4.940 1.823 1550
5.419 5.260 1.910 2239
5.081 4.933 1.799 1547
5.621 5.457 1.952 2010
5.439 5.280 1.893 1986
5.625 5.461 1.930 3385
5.370 5.213 1.848 1791
5.629 5.464 1.907 3922
5.402 5.244 1.835 1829
5.633 5.468 1.884 4565
5.760 5.591 1.924 2609
5.636 5.471 1.861 4665
5.764 5.595 1.901 2504
5.640 5.475 1.838 3536
5.767 5.599 1.877 2457
5.649 5.484 1.817 3848
5.771 5.602 1.854 2216
5.658 5.492 1.796 6000
5.786 5.616 1.834 1659
5.661 5.496 1.773 6944
6.262 6.079 1.948 1818
5.659 5.494 1.749 4683
6.266 6.082 1.922 2217
6.281 6.097 1.900 2066
5.668 5.502 1.727 1810
6.279 6.095 1.873 2725
6.117 5.938 1.828 1417
6.277 6.093 1.846 2937
6.706 6.510 1.964 1463
6.275 6.091 1.819 2018
6.816 6.616 1.965 1368
6.808 6.609 1.935 1385
6.278 6.094 1.794 1265
7.024 6.819 1.962 1529
6.790 6.591 1.901 1488
7.017 6.811 1.931 1624
7.123 6.914 1.958 1484
7.115 6.907 1.927 1550
7.244 7.032 1.959 1416
7.701 7.475 2.042 1544
7.259 7.047 1.933 1379
7.884 7.653 2.055 1654
7.358 7.143 1.926 1351
7.888 7.657 2.023 3279
8.229 7.988 2.105 1326
7.903 7.672 1.994 4169
8.233 7.992 2.071 1729
7.918 7.686 1.964 3945
8.243 8.002 2.039 2250
7.939 7.706 1.936 3664
8.264 8.022 2.010 2593
7.931 7.699 1.901 3016
8.284 8.042 1.980 2859
8.283 8.040 1.945 2253
7.935 7.703 1.869 2023
7.950 7.717 1.839 1504
8.275 8.033 1.909 1319
8.313 8.069 1.883 957
9.177 8.909 2.065 955
10.311 10.009 2.261 1050
9.181 8.913 2.028 1002
10.321 10.019 2.221 1045
9.892 9.603 2.093 949
9.891 9.601 2.052 868
10.343 10.041 2.054 845
1.644 1.588 1.783 5279
1.547 1.495 1.684 1119
1.647 1.592 1.777 10558
1.551 1.499 1.678 2238
1.651 1.595 1.770 10558
1.554 1.502 1.672 2238
1.654 1.598 1.763 10579
1.557 1.505 1.666 1530
1.662 1.606 1.762 10710
1.750 1.691 1.849 1534
1.665 1.609 1.755 7972
1.753 1.694 1.842 3705
1.734 1.676 1.812 7806
1.646 1.590 1.725 2847
1.737 1.679 1.806 7806
1.649 1.593 1.719 2847
1.736 1.678 1.794 9549
1.647 1.592 1.708 2140
1.740 1.681 1.787 11296
1.651 1.595 1.701 2074
1.748 1.689 1.785 8750
1.659 1.603 1.699 1859
1.756 1.697 1.782 6418
1.667 1.611 1.697 1597
1.759 1.700 1.775 5371
1.849 1.786 1.860 1958
1.767 1.708 1.773 4428
1.857 1.794 1.857 1995
1.771 1.711 1.766 5614
1.860 1.798 1.850 1995
1.774 1.715 1.759 7809
1.864 1.801 1.843 2182
1.773 1.713 1.747 8787
1.863 1.800 1.831 2465
1.776 1.717 1.740 8863
1.866 1.804 1.823 2213
1.780 1.720 1.733 8909
1.879 1.816 1.825 2232
1.788 1.728 1.731 6765
1.888 1.824 1.822 1950
1.810 1.749 1.741 6064
1.910 1.846 1.831 1930
1.813 1.753 1.733 5546
1.904 1.840 1.815 1816
1.817 1.756 1.726 5027
1.908 1.844 1.807 1852
1.883 1.819 1.774 3809
1.791 1.731 1.693 1663
1.881 1.818 1.763 4349
1.790 1.730 1.682 770
1.889 1.826 1.759 4486
1.981 1.914 1.839 1376
1.898 1.834 1.756 4636
1.989 1.922 1.836 2013
1.901 1.837 1.748 6025
1.993 1.926 1.828 2297
1.904 1.840 1.741 7414
1.996 1.929 1.820 2582
1.913 1.848 1.737 6373
2.005 1.937 1.816 2854
1.930 1.866 1.742 5805
2.023 1.955 1.820 1714
1.987 1.921 1.780 5691
1.895 1.831 1.702 2729
1.981 1.915 1.764 5748
1.888 1.825 1.686 1406
1.984 1.918 1.756 5695
2.077 2.008 1.833 1749
1.988 1.921 1.748 5643
2.081 2.011 1.825 2552
2.001 1.934 1.748 7030
2.094 2.024 1.824 2096
2.004 1.937 1.740 7133
2.098 2.027 1.816 2503
2.008 1.940 1.732 5785
2.101 2.031 1.808 2452
2.075 2.005 1.775 5007
1.982 1.915 1.700 2243
2.079 2.009 1.767 5720
1.985 1.918 1.692 1483
2.072 2.003 1.751 5452
2.166 2.093 1.825 1776
2.066 1.996 1.735 6086
2.160 2.087 1.809 3798
2.069 1.999 1.727 5488
2.163 2.091 1.800 4110
2.047 1.979 1.699 4231
2.177 2.104 1.799 4153
2.195 2.121 1.802 4215
2.095 2.025 1.726 3825
2.109 2.038 1.725 4454
2.218 2.144 1.809 3766
2.117 2.046 1.720 5402
2.232 2.157 1.808 3705
2.135 2.064 1.723 5308
2.230 2.156 1.795 3768
2.164 2.091 1.733 6535
2.259 2.183 1.805 1980
2.172 2.099 1.728 8339
2.298 2.220 1.822 2305
2.231 2.156 1.761 7880
2.135 2.064 1.690 2469
2.239 2.164 1.755 9777
2.335 2.256 1.826 2566
2.248 2.172 1.750 8953
2.343 2.265 1.820 3313
2.256 2.180 1.745 7033
2.352 2.273 1.814 5306
2.345 2.267 1.798 6767
2.249 2.174 1.729 5753
2.263 2.187 1.727 7930
2.359 2.280 1.796 5696
2.337 2.259 1.768 7189
2.241 2.165 1.700 4226
2.346 2.267 1.762 6747
2.249 2.173 1.694 2617
2.288 2.211 1.710 5684
2.385 2.304 1.778 3810
2.352 2.273 1.744 4567
2.449 2.367 1.811 2574
2.381 2.301 1.752 4877
2.284 2.208 1.685 2028
2.379 2.300 1.739 5345
2.558 2.472 1.861 943
2.383 2.303 1.729 4575
2.577 2.491 1.861 1695
2.386 2.306 1.720 5326
2.581 2.494 1.851 2305
2.410 2.329 1.724 6984
2.584 2.498 1.840 2259
2.418 2.337 1.718 8606
2.609 2.521 1.844 2183
2.422 2.340 1.708 7260
2.617 2.529 1.837 2629
2.430 2.349 1.702 3987
2.621 2.533 1.826 3891
2.624 2.536 1.816 5110
2.500 2.417 1.735 1455
2.633 2.545 1.809 4315
2.504 2.420 1.725 1226
2.693 2.603 1.834 3869
2.595 2.508 1.772 1845
2.702 2.611 1.827 5452
2.604 2.516 1.764 1853
2.716 2.625 1.823 4154
2.617 2.530 1.761 1822
2.740 2.648 1.825 2924
2.642 2.553 1.763 2002
2.723 2.632 1.801 3616
2.624 2.536 1.740 1418
2.716 2.625 1.783 4652
2.815 2.721 1.844 2159
2.834 2.739 1.842 4404
2.725 2.633 1.776 3639
2.838 2.743 1.831 7529
2.739 2.647 1.771 2848
2.836 2.741 1.817 8785
2.732 2.640 1.754 3529
2.845 2.749 1.808 7963
2.944 2.845 1.868 3270
2.854 2.758 1.800 5973
2.953 2.854 1.859 2350
2.878 2.781 1.801 6623
2.768 2.675 1.736 2459
2.892 2.795 1.795 7676
2.792 2.698 1.738 2974
2.922 2.824 1.799 6657
2.822 2.727 1.741 3907
2.936 2.837 1.793 6127
3.052 2.949 1.859 3359
3.045 2.943 1.841 4713
2.945 2.846 1.785 4326
3.043 2.941 1.826 7824
2.943 2.844 1.770 3393
3.052 2.949 1.817 6705
2.951 2.852 1.761 3443
3.045 2.943 1.799 3807
2.944 2.845 1.743 2336
3.128 3.023 1.830 2691
3.027 2.925 1.775 2213
3.105 3.000 1.803 3406
3.004 2.903 1.748 1182
3.108 3.004 1.791 3806
3.209 3.101 1.845 2237
3.197 3.089 1.823 5514
3.096 2.992 1.770 2485
3.200 3.093 1.811 7181
3.099 2.995 1.757 1416
3.204 3.096 1.798 7417
3.342 3.230 1.870 1777
3.202 3.094 1.782 7332
3.351 3.239 1.860 2695
3.205 3.098 1.769 5241
3.349 3.237 1.844 3132
3.353 3.240 1.830 5229
3.209 3.101 1.756 5215
3.207 3.099 1.741 7688
3.357 3.244 1.817 7377
3.360 3.247 1.803 6696
3.215 3.107 1.731 6116
3.380 3.266 1.798 6692
3.246 3.137 1.731 3357
3.410 3.295 1.797 7881
3.249 3.140 1.718 1994
3.424 3.309 1.789 5504
3.585 3.465 1.867 2017
3.481 3.364 1.801 6440
3.589 3.468 1.853 2441
3.501 3.383 1.795 8939
3.603 3.482 1.844 2846
3.510 3.392 1.783 8003
3.612 3.491 1.832 5068
3.594 3.473 1.807 10993
3.492 3.374 1.759 3977
3.603 3.482 1.795 12978
3.500 3.383 1.747 3222
3.612 3.491 1.783 11853
3.509 3.391 1.736 2089
3.605 3.483 1.764 8697
3.707 3.583 1.810 3199
3.613 3.492 1.752 5668
3.716 3.591 1.798 3765
3.622 3.500 1.740 4489
3.725 3.600 1.785 2977
3.620 3.498 1.723 4072
3.723 3.598 1.768 3008
3.623 3.502 1.708 4085
3.727 3.601 1.753 2512
3.801 3.673 1.769 2840
3.632 3.510 1.696 2652
3.831 3.703 1.765 2529
3.728 3.603 1.721 1550
3.965 3.832 1.805 3033
3.856 3.727 1.759 2715
3.974 3.841 1.792 3824
3.860 3.730 1.743 2347
3.983 3.849 1.778 3324
4.174 4.034 1.857 2078
4.057 3.921 1.791 3853
4.178 4.037 1.840 3690
4.176 4.035 1.821 4376
4.066 3.930 1.777 3310
4.207 4.065 1.815 4460
4.064 3.928 1.758 2436
4.199 4.058 1.794 5448
4.090 3.952 1.751 2341
4.197 4.056 1.775 7220
4.400 4.252 1.855 2993
4.200 4.059 1.758 6358
4.398 4.250 1.835 2531
4.220 4.079 1.748 4668
4.506 4.354 1.857 2939
4.218 4.077 1.729 3859
4.504 4.352 1.837 3080
4.507 4.356 1.819 5030
4.612 4.457 1.858 2651
4.516 4.365 1.803 4787
4.621 4.466 1.842 2795
4.635 4.480 1.827 3163
4.531 4.379 1.789 2688
4.644 4.488 1.810 3105
4.843 4.680 1.882 2266
4.841 4.678 1.861 3186
4.670 4.513 1.800 2082
4.833 4.671 1.837 3311
4.938 4.772 1.875 1734
4.831 4.669 1.816 3317
4.936 4.771 1.853 2667
4.973 4.806 1.844 2452
4.835 4.673 1.797 2036
5.082 4.911 1.860 2398
4.977 4.809 1.824 1673
5.389 5.209 1.942 1754
5.096 4.925 1.843 1734
5.399 5.218 1.922 2183
5.105 4.934 1.825 1564
5.430 5.248 1.910 2314
5.092 4.921 1.799 1447
5.445 5.262 1.891 2190
5.639 5.450 1.954 1592
5.637 5.448 1.930 2707
5.382 5.201 1.848 1456
5.641 5.452 1.907 3130
5.424 5.242 1.839 1833
5.645 5.455 1.884 3655
5.772 5.579 1.924 2688
5.648 5.459 1.861 3890
5.776 5.582 1.901 2600
5.652 5.462 1.838 3010
5.780 5.586 1.877 2514
5.661 5.471 1.817 3090
5.783 5.589 1.854 2233
5.670 5.480 1.796 4733
6.099 5.894 1.922 1828
5.674 5.483 1.773 5598
5.952 5.752 1.854 1631
5.671 5.481 1.749 3659
5.950 5.750 1.828 1712
6.344 6.131 1.914 1772
6.132 5.926 1.855 1307
6.292 6.081 1.873 2088
6.705 6.480 1.988 1393
6.290 6.079 1.846 2261
6.720 6.495 1.964 1446
6.288 6.077 1.819 1557
6.758 6.531 1.946 1415
6.823 6.594 1.935 1311
6.594 6.372 1.874 1039
6.732 6.506 1.882 1463
6.586 6.365 1.844 1191
7.127 6.888 1.955 1511
6.735 6.509 1.855 1328
7.131 6.891 1.927 1451
7.260 7.016 1.959 1322
7.275 7.030 1.933 1377
7.717 7.458 2.042 1258
7.901 7.636 2.055 2011
7.374 7.126 1.926 1548
7.905 7.639 2.023 3221
8.247 7.970 2.105 1493
7.920 7.654 1.994 3257
8.251 7.974 2.071 1990
7.935 7.669 1.964 3138
8.261 7.983 2.039 2702
7.956 7.689 1.936 2888
8.276 7.998 2.009 2886
8.302 8.024 1.980 2877
7.948 7.681 1.901 2270
8.295 8.016 1.944 2217
7.952 7.685 1.869 1770
7.972 7.705 1.841 1489
8.287 8.009 1.908 1380
8.330 8.051 1.883 1088
9.400 9.084 2.108 910
10.333 9.986 2.261 1067
9.201 8.892 2.028 906
10.343 9.996 2.221 1084
9.914 9.581 2.093 938
9.918 9.585 2.053 835
10.360 10.012 2.053 778
1.647 1.585 1.783 5497
1.551 1.492 1.684 1100
1.650 1.588 1.777 10994
1.554 1.495 1.678 2200
1.654 1.592 1.770 10994
1.557 1.498 1.672 2200
1.662 1.599 1.768 10936
1.560 1.501 1.666 1523
1.665 1.603 1.762 11123
1.753 1.687 1.849 1516
1.673 1.610 1.760 8436
1.762 1.695 1.847 3304
1.733 1.667 1.808 7710
1.644 1.582 1.721 2275
1.736 1.671 1.801 7710
1.648 1.585 1.714 2275
1.740 1.674 1.794 9369
1.651 1.589 1.708 2256
1.743 1.677 1.787 11029
1.654 1.592 1.701 2238
1.751 1.685 1.785 8732
1.662 1.599 1.699 1910
1.759 1.693 1.782 6761
1.670 1.607 1.697 1595
1.763 1.696 1.775 5579
1.852 1.782 1.860 1769
1.771 1.704 1.773 4499
1.861 1.791 1.857 1934
1.756 1.689 1.748 5659
1.845 1.776 1.832 3887
1.773 1.706 1.754 7735
1.863 1.793 1.838 2663
1.777 1.710 1.747 8649
1.867 1.796 1.831 2795
1.780 1.713 1.740 9032
1.870 1.800 1.823 2623
1.783 1.716 1.733 9416
1.883 1.812 1.825 2674
1.791 1.724 1.731 7182
1.892 1.820 1.822 2368
1.814 1.745 1.741 6290
1.909 1.837 1.827 2462
1.817 1.749 1.733 5615
1.908 1.836 1.815 2358
1.821 1.752 1.726 4939
1.912 1.840 1.807 2358
1.886 1.815 1.774 3973
1.795 1.727 1.693 1864
1.890 1.819 1.767 4327
1.798 1.730 1.686 1165
1.893 1.822 1.759 4151
1.985 1.910 1.839 1118
1.901 1.830 1.756 4039
1.993 1.918 1.836 1639
1.905 1.833 1.748 5665
1.997 1.922 1.828 1935
1.908 1.836 1.741 7292
2.000 1.925 1.820 2231
1.916 1.844 1.737 6505
2.009 1.933 1.816 2628
1.934 1.862 1.742 6670
2.027 1.951 1.820 1709
1.943 1.869 1.739 6145
2.035 1.959 1.817 2118
1.961 1.887 1.743 5730
2.054 1.976 1.821 1908
1.984 1.909 1.752 5471
2.077 1.998 1.829 1867
1.992 1.917 1.748 5465
2.085 2.007 1.825 2409
2.005 1.930 1.748 6916
2.099 2.019 1.824 2073
2.009 1.933 1.740 7047
2.102 2.023 1.816 2554
2.012 1.936 1.732 5611
2.106 2.026 1.808 2692
2.079 2.001 1.775 5153
1.986 1.911 1.700 2315
2.083 2.004 1.767 5926
1.989 1.914 1.692 1481
2.071 1.993 1.747 5760
2.166 2.084 1.822 2046
2.070 1.992 1.735 6275
2.164 2.083 1.809 3426
2.068 1.990 1.723 5417
2.163 2.081 1.797 3899
2.052 1.974 1.699 4482
2.181 2.099 1.799 3682
2.060 1.982 1.695 3824
2.200 2.117 1.802 3808
2.113 2.033 1.725 3872
2.233 2.149 1.816 3351
2.121 2.041 1.720 4828
2.242 2.157 1.811 3246
2.140 2.059 1.723 4625
2.235 2.151 1.795 3173
2.173 2.091 1.737 6490
2.294 2.207 1.827 1653
2.182 2.099 1.732 8420
2.302 2.216 1.822 2177
2.240 2.156 1.764 7595
2.145 2.064 1.694 2671
2.249 2.164 1.759 9139
2.153 2.072 1.689 2358
2.252 2.167 1.750 8286
2.348 2.260 1.820 3267
2.261 2.175 1.745 6473
2.357 2.268 1.814 5269
2.350 2.262 1.798 6676
2.254 2.169 1.729 5134
2.272 2.187 1.730 7645
2.369 2.280 1.799 5433
2.342 2.254 1.768 7803
2.245 2.161 1.700 3525
2.350 2.262 1.762 7327
2.254 2.169 1.694 2191
2.354 2.265 1.753 6133
2.451 2.358 1.821 2347
2.352 2.263 1.740 4943
2.449 2.357 1.807 2967
2.381 2.291 1.748 4559
2.284 2.198 1.682 2286
2.379 2.290 1.735 4710
2.282 2.196 1.669 1213
2.388 2.298 1.729 4257
2.577 2.480 1.858 1754
2.396 2.306 1.723 5548
2.586 2.489 1.851 2403
2.410 2.319 1.720 7479
2.585 2.487 1.837 2438
2.423 2.332 1.718 9075
2.593 2.496 1.830 2231
2.427 2.335 1.708 7636
2.623 2.524 1.837 2526
2.430 2.338 1.698 4186
2.626 2.527 1.826 3724
2.630 2.531 1.816 5006
2.444 2.351 1.695 1509
2.633 2.534 1.805 4405
2.509 2.414 1.725 1188
2.699 2.597 1.834 3630
2.600 2.502 1.772 2277
2.708 2.606 1.827 5025
2.609 2.511 1.764 2398
2.722 2.619 1.823 4272
2.623 2.524 1.761 2288
2.725 2.622 1.812 3468
2.626 2.527 1.750 2086
2.734 2.631 1.804 4185
2.635 2.536 1.743 1648
2.727 2.624 1.787 5357
2.826 2.720 1.847 2329
2.736 2.632 1.779 4593
2.840 2.733 1.842 4571
2.844 2.736 1.831 7801
2.744 2.641 1.771 3588
2.842 2.735 1.817 9377
2.737 2.634 1.754 3819
2.846 2.738 1.805 8580
2.945 2.834 1.864 3725
2.854 2.747 1.797 6556
2.954 2.843 1.856 2633
2.879 2.770 1.798 6569
2.774 2.669 1.736 2530
2.898 2.789 1.795 7597
3.003 2.890 1.856 3368
2.923 2.812 1.796 6635
2.822 2.716 1.738 3561
2.942 2.831 1.793 5837
3.058 2.943 1.859 3182
3.051 2.936 1.841 4398
2.951 2.839 1.785 4020
3.055 2.939 1.829 7583
2.954 2.843 1.773 3304
3.058 2.943 1.817 6750
2.958 2.846 1.761 3299
3.046 2.931 1.796 3977
3.146 3.028 1.851 2269
3.049 2.934 1.784 2638
3.150 3.031 1.839 2134
3.111 2.994 1.803 2709
3.212 3.091 1.858 1247
3.109 2.992 1.788 3607
3.210 3.089 1.842 2806
3.209 3.088 1.826 5657
3.107 2.990 1.772 2766
3.212 3.091 1.813 7050
3.111 2.994 1.760 1533
3.210 3.089 1.798 6881
3.360 3.233 1.876 1811
3.208 3.087 1.782 6714
3.358 3.231 1.860 2515
3.212 3.091 1.769 4994
3.367 3.240 1.849 2930
3.360 3.233 1.830 5116
3.215 3.094 1.756 4984
3.363 3.237 1.817 7640
3.213 3.092 1.741 7238
3.367 3.240 1.803 7025
3.217 3.095 1.728 5656
3.381 3.254 1.795 6662
3.483 3.352 1.845 2576
3.422 3.293 1.800 7945
3.524 3.392 1.850 1551
3.431 3.302 1.789 5294
3.593 3.457 1.867 2392
3.489 3.357 1.801 6961
3.596 3.461 1.853 3462
3.508 3.376 1.795 9770
3.611 3.475 1.844 4084
3.517 3.384 1.783 8437
3.620 3.483 1.832 6365
3.607 3.471 1.810 12767
3.504 3.372 1.761 4651
3.610 3.474 1.795 14815
3.508 3.375 1.747 2993
3.614 3.478 1.781 13698
3.511 3.379 1.733 1627
3.612 3.476 1.764 9812
3.715 3.575 1.810 3041
3.615 3.479 1.749 5534
3.718 3.578 1.796 3771
3.717 3.576 1.778 3144
3.613 3.477 1.732 2907
3.709 3.569 1.759 3012
3.606 3.470 1.713 1653
3.707 3.567 1.741 3266
3.810 3.667 1.786 2125
3.803 3.660 1.766 2797
3.699 3.560 1.722 2309
3.828 3.684 1.760 2370
3.725 3.584 1.716 1706
3.979 3.829 1.807 3017
3.864 3.719 1.759 2481
3.982 3.832 1.792 3812
3.868 3.722 1.743 1897
3.975 3.825 1.771 3097
4.183 4.025 1.857 2093
4.186 4.028 1.840 4193
4.066 3.913 1.791 3622
4.190 4.032 1.823 5264
4.075 3.921 1.777 3186
4.215 4.056 1.815 5065
4.073 3.919 1.758 2472
4.208 4.049 1.794 5994
4.104 3.949 1.753 2764
4.200 4.042 1.773 8492
4.409 4.243 1.855 2906
4.209 4.050 1.758 7432
4.407 4.241 1.835 2384
4.235 4.075 1.750 4959
4.570 4.398 1.878 2770
4.227 4.068 1.729 3919
4.497 4.327 1.831 2875
4.511 4.341 1.817 5311
4.616 4.442 1.856 3204
4.526 4.355 1.803 4948
4.630 4.456 1.842 3029
4.639 4.464 1.825 3264
4.535 4.364 1.787 2469
4.665 4.489 1.814 3688
4.853 4.670 1.882 2463
4.851 4.668 1.861 4026
4.674 4.498 1.798 2476
4.849 4.666 1.839 4429
4.954 4.767 1.877 1805
4.847 4.664 1.818 3837
4.952 4.765 1.855 2680
4.967 4.779 1.839 2531
5.072 4.881 1.875 2289
5.092 4.900 1.860 2653
4.987 4.799 1.824 1640
5.107 4.914 1.843 1888
5.406 5.202 1.944 1554
5.415 5.211 1.924 1877
5.116 4.923 1.825 1602
5.441 5.236 1.910 2389
5.192 4.996 1.828 1801
5.451 5.245 1.889 2374
5.201 5.005 1.809 1520
5.649 5.436 1.930 1964
5.449 5.243 1.866 1619
5.653 5.440 1.907 2205
5.441 5.236 1.840 1906
5.784 5.566 1.924 2573
5.656 5.443 1.884 2521
5.660 5.447 1.861 2840
5.788 5.570 1.901 2594
5.792 5.573 1.877 2459
5.664 5.450 1.838 2309
5.667 5.453 1.816 2228
5.790 5.572 1.852 2114
5.676 5.462 1.795 3298
6.112 5.881 1.922 2166
5.685 5.471 1.773 4071
5.959 5.734 1.852 1758
5.683 5.469 1.749 2620
5.962 5.738 1.828 1674
6.352 6.112 1.913 1857
6.162 5.929 1.859 1188
6.714 6.460 1.986 1615
6.305 6.067 1.873 1512
6.303 6.066 1.846 1601
6.729 6.475 1.962 1499
6.772 6.516 1.946 1600
6.385 6.144 1.842 1196
6.781 6.525 1.920 1256
6.394 6.153 1.818 978
6.745 6.491 1.882 1447
7.144 6.874 1.986 1025
7.142 6.873 1.955 1472
6.749 6.495 1.855 1389
7.146 6.876 1.927 1336
7.275 7.000 1.959 1198
7.295 7.020 1.934 1315
7.733 7.442 2.042 1191
7.917 7.619 2.055 1947
7.389 7.110 1.926 1597
7.921 7.622 2.023 3213
8.270 7.958 2.106 1628
7.936 7.637 1.994 3416
8.268 7.956 2.071 2136
8.278 7.966 2.039 3043
7.940 7.641 1.962 2732
8.293 7.980 2.009 3131
7.955 7.655 1.932 2266
8.314 8.000 1.979 2680
7.959 7.659 1.900 1933
8.306 7.993 1.943 2071
7.957 7.657 1.867 1323
8.305 7.991 1.908 1359
7.921 7.622 1.826 962
8.325 8.011 1.878 1100
9.419 9.064 2.108 909
10.355 9.964 2.261 1035
8.323 8.009 1.843 929
10.365 9.974 2.221 1073
10.207 9.822 2.189 757
9.934 9.559 2.093 820
9.753 9.386 2.057 770
9.757 9.389 2.018 855
1.646 1.577 1.778 5760
1.554 1.489 1.684 1088
1.649 1.580 1.772 11520
1.557 1.492 1.678 2177
1.653 1.583 1.765 11520
1.560 1.495 1.672 2177
1.666 1.596 1.768 11418
1.564 1.498 1.666 1512
1.669 1.599 1.762 11618
1.757 1.683 1.849 1459
1.677 1.607 1.760 8910
1.765 1.691 1.847 3174
1.736 1.663 1.808 7359
1.648 1.579 1.721 2623
1.740 1.667 1.801 7359
1.651 1.582 1.714 2623
1.743 1.670 1.794 8808
1.654 1.585 1.708 2591
1.747 1.673 1.787 10258
1.658 1.588 1.701 2558
1.760 1.686 1.789 8330
1.670 1.600 1.704 2174
1.763 1.689 1.782 6806
1.674 1.603 1.697 1467
1.771 1.697 1.780 5649
1.861 1.783 1.865 1329
1.756 1.682 1.755 4599
1.846 1.768 1.840 3904
1.759 1.685 1.748 5659
1.849 1.772 1.832 3904
1.777 1.702 1.754 7482
1.867 1.789 1.838 2835
1.780 1.705 1.747 8231
1.871 1.792 1.831 3135
1.784 1.709 1.740 8725
1.874 1.795 1.823 3082
1.787 1.712 1.733 9263
1.883 1.803 1.820 3104
1.795 1.720 1.731 7077
1.896 1.816 1.822 2822
1.823 1.746 1.745 6445
1.914 1.833 1.827 2870
1.821 1.745 1.733 5509
1.912 1.832 1.815 2890
1.825 1.748 1.726 4715
1.916 1.835 1.807 2938
1.891 1.811 1.774 4391
1.799 1.723 1.693 1948
1.889 1.810 1.763 4629
1.797 1.722 1.682 1040
1.893 1.813 1.755 4076
1.984 1.901 1.835 945
1.906 1.825 1.756 3604
1.998 1.914 1.836 1260
1.909 1.829 1.748 5401
2.001 1.917 1.828 1564
1.912 1.832 1.741 7198
2.005 1.921 1.820 1868
1.926 1.845 1.742 6740
2.018 1.933 1.820 2010
1.944 1.862 1.746 7489
2.036 1.951 1.825 1432
1.947 1.865 1.739 6752
2.040 1.954 1.817 2020
1.955 1.873 1.735 6076
2.048 1.962 1.813 2281
1.988 1.904 1.752 5478
2.081 1.994 1.829 1692
1.991 1.908 1.744 5484
2.085 1.997 1.820 2620
2.005 1.920 1.744 6722
2.098 2.010 1.820 2440
2.008 1.924 1.736 6681
2.102 2.013 1.812 3111
2.011 1.927 1.728 5170
2.105 2.017 1.804 3456
2.084 1.996 1.775 5217
1.990 1.906 1.700 2374
2.082 1.995 1.763 6068
1.988 1.905 1.688 1281
2.071 1.984 1.743 5917
2.165 2.074 1.818 2305
2.074 1.987 1.735 6250
2.169 2.078 1.809 3041
2.073 1.986 1.723 5397
2.167 2.076 1.797 3477
2.061 1.974 1.703 4590
2.176 2.084 1.792 3217
2.064 1.978 1.695 3960
2.204 2.112 1.802 3389
2.118 2.029 1.725 3324
2.238 2.144 1.816 3011
2.121 2.032 1.716 4214
2.251 2.157 1.815 2850
2.195 2.102 1.761 4186
2.099 2.011 1.689 1621
2.188 2.096 1.745 7065
2.289 2.192 1.820 1716
2.186 2.094 1.732 8870
2.307 2.210 1.822 2052
2.195 2.102 1.727 7440
2.316 2.218 1.816 2390
2.254 2.159 1.759 8564
2.350 2.251 1.829 2118
2.257 2.162 1.750 7799
2.353 2.254 1.820 3143
2.266 2.170 1.745 6578
2.362 2.263 1.814 5042
2.355 2.256 1.798 6375
2.259 2.164 1.729 4764
2.288 2.191 1.738 7286
2.384 2.284 1.806 4656
2.347 2.248 1.768 8631
2.250 2.156 1.700 2424
2.356 2.256 1.762 8133
2.259 2.164 1.694 1619
2.359 2.260 1.753 6881
2.456 2.353 1.821 2215
2.357 2.258 1.740 5333
2.454 2.351 1.807 3117
2.386 2.286 1.748 4378
2.289 2.193 1.682 2168
2.384 2.284 1.735 4330
2.482 2.377 1.802 1273
2.388 2.287 1.726 4020
2.578 2.469 1.854 1739
2.401 2.300 1.723 5768
2.587 2.478 1.847 2311
2.415 2.313 1.720 8099
2.590 2.481 1.837 2412
2.429 2.327 1.718 9689
2.594 2.485 1.827 2297
2.432 2.330 1.708 8133
2.608 2.498 1.823 2317
2.435 2.333 1.698 4486
2.632 2.521 1.826 3650
2.630 2.520 1.812 5054
2.449 2.346 1.695 1672
2.634 2.523 1.802 4646
2.514 2.409 1.725 1228
2.637 2.526 1.791 3677
2.736 2.621 1.854 2149
2.719 2.604 1.830 4431
2.620 2.510 1.768 2739
2.733 2.618 1.826 4199
2.634 2.523 1.764 2791
2.736 2.621 1.815 3773
2.637 2.526 1.753 2759
2.740 2.625 1.804 4341
2.641 2.530 1.743 1953
2.733 2.618 1.787 5562
2.832 2.713 1.847 2579
2.757 2.641 1.788 5590
2.857 2.737 1.849 4259
2.845 2.725 1.828 7892
2.745 2.630 1.768 3983
2.843 2.723 1.813 9824
2.743 2.628 1.754 3813
2.852 2.732 1.805 9067
2.952 2.827 1.864 3754
2.855 2.735 1.794 6931
2.955 2.831 1.853 2823
2.885 2.764 1.798 6351
2.780 2.663 1.736 2666
2.904 2.782 1.795 7375
3.010 2.883 1.856 3950
2.929 2.806 1.796 6967
3.029 2.902 1.854 3598
2.948 2.824 1.793 5789
3.059 2.931 1.856 2954
3.058 2.929 1.841 4203
2.957 2.833 1.785 3749
3.061 2.932 1.829 7382
2.961 2.836 1.773 3075
3.065 2.936 1.817 6668
2.964 2.839 1.761 3125
3.052 2.924 1.796 4096
3.153 3.021 1.851 2126
3.056 2.927 1.784 3007
3.157 3.024 1.839 1783
3.107 2.977 1.797 2528
3.208 3.073 1.852 1566
3.116 2.985 1.788 3655
3.217 3.082 1.842 2956
3.216 3.080 1.826 5368
3.114 2.983 1.772 2736
3.219 3.084 1.813 6616
3.118 2.986 1.760 1695
3.217 3.082 1.798 6357
3.372 3.231 1.879 1850
3.210 3.075 1.779 6425
3.371 3.229 1.862 2239
3.219 3.083 1.769 4946
3.390 3.248 1.857 2925
3.373 3.231 1.833 5070
3.228 3.092 1.759 4649
3.371 3.229 1.817 7676
3.215 3.080 1.738 6443
3.374 3.232 1.803 7079
3.224 3.088 1.728 5090
3.383 3.241 1.792 6483
3.485 3.339 1.843 3178
3.430 3.285 1.800 7930
3.532 3.384 1.850 1826
3.439 3.294 1.789 5351
3.601 3.449 1.867 2774
3.496 3.349 1.801 7374
3.604 3.453 1.853 4401
3.516 3.368 1.795 10450
3.619 3.466 1.844 5148
3.611 3.459 1.824 8612
3.508 3.361 1.776 7474
3.615 3.463 1.810 14236
3.512 3.364 1.761 4647
3.618 3.466 1.795 16040
3.515 3.367 1.747 2846
3.622 3.469 1.781 15229
3.519 3.371 1.733 1547
3.620 3.468 1.764 11299
3.723 3.566 1.810 3075
3.618 3.466 1.747 6033
3.721 3.565 1.793 3585
3.725 3.568 1.778 2842
3.621 3.469 1.732 2749
3.717 3.561 1.759 2520
3.826 3.665 1.806 1580
3.715 3.559 1.741 2766
3.819 3.658 1.786 2019
3.806 3.646 1.764 2656
3.702 3.546 1.719 2002
3.842 3.680 1.763 2256
3.738 3.581 1.719 1889
3.988 3.820 1.807 2964
3.867 3.705 1.757 2372
3.991 3.823 1.792 3670
4.111 3.938 1.842 1683
4.038 3.868 1.794 3206
4.192 4.015 1.857 1977
4.195 4.019 1.840 4455
4.069 3.898 1.789 3453
4.199 4.022 1.823 5976
4.095 3.922 1.781 3440
4.219 4.041 1.813 5730
4.115 3.941 1.771 3328
4.217 4.040 1.794 6809
4.112 3.939 1.753 3254
4.209 4.032 1.773 9961
4.418 4.233 1.855 2744
4.218 4.041 1.758 8683
4.417 4.231 1.835 2294
4.244 4.065 1.750 4984
4.580 4.387 1.878 2828
4.231 4.053 1.726 3379
4.501 4.311 1.829 2869
4.515 4.325 1.815 5481
4.620 4.426 1.854 4006
4.530 4.339 1.801 5060
4.635 4.440 1.840 3714
4.638 4.443 1.821 3405
4.743 4.544 1.859 2347
4.675 4.478 1.814 4174
4.858 4.653 1.880 2537
4.861 4.657 1.861 4629
4.684 4.487 1.798 3042
4.865 4.660 1.841 5294
4.970 4.761 1.878 1581
4.857 4.653 1.818 4166
4.963 4.754 1.855 2412
4.922 4.715 1.819 2694
5.083 4.869 1.875 2352
5.103 4.889 1.860 2651
4.914 4.708 1.796 1603
5.118 4.903 1.843 2030
5.424 5.195 1.946 1361
5.199 4.981 1.849 1779
5.438 5.210 1.928 1642
5.208 4.989 1.829 2562
5.459 5.229 1.911 2303
5.463 5.233 1.889 2368
5.218 4.998 1.810 1868
5.461 5.231 1.866 1904
5.667 5.428 1.931 1326
5.459 5.229 1.842 1902
5.659 5.421 1.905 1448
5.797 5.553 1.924 2315
5.663 5.425 1.882 1602
5.801 5.557 1.901 2358
5.672 5.434 1.861 1926
5.804 5.560 1.877 2172
5.682 5.443 1.840 1670
6.121 5.864 1.947 1956
5.802 5.558 1.852 1821
6.125 5.867 1.922 2395
5.694 5.455 1.796 2016
5.698 5.458 1.773 2534
6.123 5.865 1.896 1987
6.216 5.955 1.897 1741
5.976 5.724 1.828 1706
6.366 6.098 1.913 1801
6.259 5.996 1.883 1216
6.728 6.445 1.986 1764
6.386 6.118 1.892 1337
6.743 6.460 1.962 1565
6.401 6.132 1.869 1462
6.786 6.501 1.946 1825
6.399 6.130 1.842 1469
6.790 6.504 1.918 1440
6.408 6.139 1.818 1280
6.760 6.476 1.882 1500
6.434 6.164 1.798 1189
6.764 6.479 1.855 1439
7.157 6.856 1.955 1342
7.156 6.855 1.925 1160
7.291 6.984 1.959 1108
7.807 7.478 2.056 1397
7.306 6.998 1.933 1268
7.940 7.606 2.056 2575
7.405 7.094 1.926 1506
7.938 7.604 2.023 3750
8.288 7.939 2.106 1742
7.942 7.608 1.991 3237
8.292 7.943 2.073 2264
8.302 7.952 2.041 3312
7.952 7.617 1.960 2024
8.311 7.961 2.009 3375
7.967 7.632 1.931 1903
8.326 7.976 1.978 2632
7.965 7.630 1.897 1923
8.330 7.980 1.944 1916
7.963 7.628 1.864 1600
8.323 7.973 1.908 1283
7.905 7.572 1.819 1129
8.343 7.992 1.878 1186
9.440 9.043 2.108 942
8.341 7.990 1.843 1014
10.377 9.941 2.261 952
10.387 9.950 2.221 1041
9.775 9.363 2.057 950
9.779 9.367 2.018 1069
1.649 1.573 1.778 5701
1.557 1.485 1.684 1105
1.653 1.577 1.772 11403
1.560 1.489 1.678 2210
1.656 1.580 1.765 11403
1.563 1.492 1.672 2210
1.669 1.592 1.768 11317
1.567 1.495 1.666 1512
1.677 1.600 1.766 11567
1.765 1.684 1.854 1100
1.680 1.603 1.760 8917
1.769 1.688 1.847 2883
1.740 1.660 1.808 7101
1.651 1.575 1.721 2613
1.743 1.663 1.801 7101
1.654 1.578 1.714 2613
1.747 1.667 1.794 8315
1.658 1.582 1.708 2563
1.750 1.670 1.787 9530
1.661 1.585 1.701 2513
1.763 1.682 1.789 8000
1.674 1.597 1.704 2073
1.771 1.690 1.787 6989
1.682 1.604 1.702 1420
1.775 1.693 1.780 5916
1.865 1.779 1.865 1268
1.759 1.679 1.755 5026
1.849 1.764 1.840 3784
1.763 1.682 1.748 5861
1.853 1.768 1.832 3784
1.780 1.699 1.754 7404
1.871 1.785 1.838 2958
1.784 1.702 1.747 7962
1.874 1.788 1.831 3410
1.782 1.701 1.736 8612
1.873 1.787 1.819 3604
1.791 1.708 1.733 9308
1.881 1.795 1.816 3679
1.799 1.716 1.731 7130
1.890 1.803 1.813 3256
1.831 1.747 1.749 6658
1.922 1.834 1.831 3026
1.839 1.755 1.746 5474
1.931 1.842 1.828 2424
1.886 1.799 1.778 4669
1.794 1.712 1.696 2195
1.885 1.798 1.766 4921
1.793 1.710 1.685 1348
1.883 1.797 1.754 5265
1.975 1.884 1.835 798
1.891 1.804 1.751 4293
1.983 1.892 1.831 823
1.895 1.808 1.743 3348
1.997 1.905 1.832 1068
1.913 1.825 1.748 5058
2.005 1.913 1.828 1303
1.916 1.828 1.741 7005
2.009 1.916 1.820 1597
1.934 1.845 1.746 6938
2.027 1.934 1.824 1603
1.947 1.858 1.746 8024
2.040 1.947 1.825 1605
1.951 1.861 1.739 7092
2.044 1.950 1.817 2020
1.959 1.869 1.735 6233
2.052 1.958 1.813 2110
1.992 1.900 1.752 5562
2.085 1.990 1.829 1545
1.995 1.904 1.744 5589
2.089 1.993 1.820 2415
2.004 1.912 1.740 6633
2.097 2.001 1.816 2679
2.012 1.919 1.736 6363
2.106 2.009 1.812 3090
2.015 1.923 1.728 4805
2.109 2.012 1.804 3636
2.088 1.992 1.775 5335
1.994 1.902 1.700 2418
2.086 1.991 1.763 6298
1.992 1.901 1.688 1254
2.075 1.980 1.743 6084
2.170 2.070 1.818 2094
2.073 1.978 1.731 6202
2.168 2.069 1.805 3174
2.072 1.977 1.719 5321
2.167 2.067 1.793 3413
2.065 1.970 1.703 4579
2.160 2.061 1.776 3152
2.073 1.978 1.699 3969
2.209 2.107 1.802 3086
2.192 2.091 1.778 3094
2.097 2.000 1.706 2646
2.125 2.028 1.716 3637
2.256 2.152 1.815 2609
2.204 2.103 1.765 5104
2.108 2.012 1.693 1771
2.197 2.096 1.748 7708
2.293 2.188 1.820 2090
2.196 2.095 1.736 9052
2.292 2.186 1.807 2353
2.204 2.103 1.731 7474
2.320 2.214 1.816 2243
2.258 2.154 1.759 8253
2.354 2.246 1.829 2074
2.261 2.158 1.750 7680
2.358 2.250 1.820 2947
2.270 2.166 1.745 7184
2.366 2.258 1.814 4627
2.289 2.184 1.747 6817
2.385 2.276 1.816 4757
2.297 2.192 1.741 7518
2.394 2.284 1.810 4266
2.351 2.244 1.768 9098
2.448 2.336 1.836 1601
2.360 2.252 1.762 8439
2.457 2.344 1.830 1472
2.358 2.250 1.749 7095
2.456 2.343 1.817 2298
2.362 2.253 1.740 5461
2.459 2.346 1.807 3140
2.411 2.301 1.762 4472
2.314 2.208 1.696 2564
2.384 2.274 1.732 3976
2.482 2.368 1.798 1728
2.454 2.341 1.767 3905
2.356 2.248 1.701 1911
2.406 2.296 1.723 5884
2.592 2.473 1.847 2311
2.420 2.309 1.720 8270
2.590 2.471 1.834 2554
2.433 2.322 1.718 9862
2.578 2.460 1.813 2670
2.437 2.325 1.708 8296
2.608 2.488 1.820 2467
2.445 2.333 1.702 4644
2.621 2.501 1.816 3566
2.635 2.514 1.812 4851
2.454 2.341 1.695 1793
2.634 2.513 1.799 4736
2.509 2.394 1.719 1566
2.627 2.506 1.782 3777
2.726 2.601 1.844 2583
2.724 2.599 1.830 3904
2.625 2.504 1.768 2850
2.738 2.612 1.826 4149
2.639 2.518 1.764 2942
2.742 2.616 1.815 3995
2.642 2.521 1.753 3222
2.750 2.624 1.807 4302
2.651 2.529 1.746 2623
2.738 2.612 1.787 5331
2.838 2.707 1.847 2821
2.763 2.636 1.788 6215
2.862 2.731 1.849 4282
2.845 2.714 1.825 8092
2.745 2.619 1.765 3986
2.848 2.718 1.813 10190
2.748 2.622 1.754 3749
2.852 2.721 1.802 9412
2.952 2.816 1.861 3837
2.861 2.729 1.794 7008
2.961 2.825 1.853 2921
2.885 2.753 1.795 6003
2.785 2.657 1.736 2689
2.910 2.776 1.795 7096
3.016 2.877 1.856 4002
2.935 2.800 1.796 6973
3.035 2.896 1.854 3736
2.949 2.813 1.790 5528
3.065 2.925 1.856 2843
3.069 2.928 1.844 4145
2.968 2.832 1.788 3380
3.072 2.931 1.832 7165
2.972 2.835 1.776 2779
3.076 2.935 1.820 6351
2.975 2.838 1.764 2893
3.064 2.923 1.799 4012
2.962 2.826 1.743 2010
3.067 2.926 1.787 3319
3.168 3.023 1.842 1523
3.103 2.960 1.792 2975
3.204 3.057 1.846 1755
3.122 2.979 1.788 3625
3.224 3.076 1.842 3074
3.222 3.074 1.826 5161
3.120 2.977 1.772 2736
3.225 3.077 1.813 6078
3.124 2.980 1.760 1964
3.224 3.075 1.798 5655
3.379 3.224 1.879 1750
3.216 3.069 1.779 6101
3.318 3.166 1.832 1998
3.225 3.077 1.769 4948
3.397 3.241 1.857 2955
3.384 3.229 1.836 5068
3.229 3.080 1.756 4131
3.377 3.222 1.817 7451
3.216 3.068 1.735 5557
3.375 3.220 1.800 7335
3.225 3.076 1.725 4532
3.384 3.229 1.790 6949
3.492 3.332 1.843 3469
3.436 3.279 1.800 7544
3.539 3.376 1.850 2086
3.451 3.292 1.791 5163
3.607 3.442 1.867 2930
3.503 3.342 1.801 7472
3.611 3.445 1.853 4940
3.523 3.361 1.795 10405
3.626 3.459 1.844 5889
3.624 3.457 1.827 9368
3.521 3.359 1.778 7970
3.622 3.456 1.810 15004
3.519 3.357 1.761 4677
3.625 3.459 1.795 16354
3.522 3.360 1.747 2881
3.629 3.462 1.781 15826
3.732 3.561 1.828 1725
3.627 3.460 1.764 12154
3.730 3.559 1.810 3100
3.630 3.464 1.749 6490
3.739 3.568 1.798 3407
3.634 3.467 1.735 3600
3.764 3.592 1.793 2769
3.702 3.532 1.749 2321
3.806 3.631 1.794 1829
3.793 3.619 1.772 2764
3.913 3.734 1.824 1876
3.797 3.622 1.757 2680
3.906 3.727 1.804 1635
3.844 3.667 1.760 2131
3.740 3.568 1.716 1756
4.001 3.817 1.810 2955
3.869 3.692 1.754 2165
4.004 3.820 1.794 3488
4.125 3.935 1.844 1653
4.046 3.860 1.794 3319
3.942 3.761 1.751 2096
4.203 4.010 1.840 4546
4.066 3.879 1.784 3539
4.207 4.014 1.823 6310
4.103 3.914 1.781 3676
4.227 4.033 1.813 6077
4.122 3.933 1.771 3885
4.225 4.031 1.794 7483
4.120 3.931 1.753 3448
4.217 4.024 1.773 11158
4.421 4.218 1.853 2535
4.226 4.032 1.758 9748
4.425 4.222 1.835 2134
4.257 4.062 1.752 5104
4.572 4.362 1.872 2734
4.609 4.397 1.866 3066
4.504 4.297 1.827 2892
4.519 4.311 1.813 5400
4.624 4.411 1.852 4709
4.528 4.320 1.797 4861
4.633 4.420 1.836 4611
4.614 4.402 1.809 3913
4.747 4.529 1.857 2722
4.684 4.469 1.814 4298
4.579 4.369 1.776 2526
4.871 4.647 1.861 4637
4.699 4.483 1.800 3466
4.880 4.656 1.843 5530
4.741 4.523 1.794 1504
4.900 4.675 1.830 4248
5.006 4.776 1.866 1966
4.926 4.700 1.818 2758
5.093 4.859 1.875 2311
5.113 4.878 1.860 2491
4.924 4.698 1.796 1585
5.128 4.892 1.843 1951
5.440 5.190 1.948 1201
5.215 4.975 1.850 2258
5.109 4.874 1.815 1391
5.218 4.979 1.829 3087
5.469 5.218 1.911 2065
5.473 5.222 1.889 2215
5.222 4.982 1.809 2102
5.466 5.215 1.864 1828
5.220 4.980 1.786 1193
5.469 5.218 1.842 1750
5.223 4.984 1.765 1156
5.808 5.541 1.924 1944
5.484 5.232 1.824 1548
5.817 5.550 1.902 2157
5.493 5.241 1.803 1501
5.816 5.549 1.877 1892
5.709 5.447 1.845 1249
6.127 5.846 1.945 1995
5.814 5.547 1.852 1484
6.137 5.855 1.922 2543
5.716 5.454 1.799 1210
6.135 5.853 1.896 2187
5.983 5.709 1.852 1533
6.223 5.937 1.895 1647
5.987 5.712 1.828 1500
6.372 6.080 1.911 1662
6.266 5.978 1.881 1271
6.741 6.432 1.986 1892
6.443 6.148 1.904 1477
6.425 6.130 1.872 1679
6.745 6.435 1.959 1673
6.799 6.487 1.946 1903
6.411 6.117 1.842 1577
6.803 6.491 1.918 1595
6.409 6.115 1.815 1223
6.779 6.468 1.884 1417
6.987 6.666 1.938 1164
6.782 6.471 1.857 1394
7.166 6.836 1.954 1169
7.248 6.915 1.945 1203
6.786 6.474 1.829 1063
7.822 7.462 2.056 1497
7.252 6.919 1.916 1268
7.950 7.585 2.055 2143
7.842 7.482 2.029 1376
7.954 7.588 2.023 3274
8.304 7.922 2.106 1750
7.963 7.598 1.992 2954
8.313 7.932 2.074 2277
8.318 7.936 2.041 3324
7.962 7.596 1.959 2537
8.327 7.945 2.009 3469
7.971 7.605 1.928 2407
8.342 7.959 1.978 2718
7.975 7.609 1.896 1590
8.352 7.968 1.945 2065
7.956 7.590 1.859 1234
8.350 7.967 1.911 1379
7.937 7.572 1.823 1290
8.354 7.970 1.877 1305
8.914 8.505 1.994 938
8.357 7.974 1.843 1122
10.397 9.920 2.261 898
10.407 9.929 2.221 991
9.793 9.344 2.057 1138
9.797 9.348 2.018 1269
9.801 9.351 1.978 777
1.652 1.571 1.778 5625
1.555 1.479 1.680 1076
1.655 1.574 1.772 11250
1.558 1.482 1.674 2153
1.658 1.578 1.765 11250
1.561 1.485 1.668 2153
1.671 1.590 1.768 11023
1.569 1.492 1.666 1454
1.679 1.597 1.766 11198
1.768 1.682 1.854 984
1.683 1.601 1.760 8745
1.771 1.685 1.847 2641
1.738 1.653 1.803 7260
1.649 1.568 1.716 2322
1.741 1.656 1.796 7260
1.652 1.571 1.710 2322
1.749 1.664 1.794 8087
1.660 1.579 1.708 2639
1.753 1.667 1.787 9038
1.663 1.582 1.701 2463
1.761 1.675 1.785 7942
1.671 1.590 1.699 1858
1.774 1.687 1.787 7269
1.684 1.602 1.702 1358
1.773 1.686 1.775 6241
1.863 1.772 1.860 1477
1.762 1.676 1.755 5539
1.852 1.762 1.840 3645
1.765 1.679 1.748 5946
1.856 1.765 1.832 3645
1.783 1.696 1.754 7124
1.873 1.782 1.838 3013
1.782 1.695 1.743 7550
1.872 1.781 1.826 3606
1.785 1.698 1.736 8351
1.876 1.784 1.819 3912
1.793 1.706 1.733 9231
1.884 1.792 1.816 4094
1.801 1.713 1.731 7159
1.893 1.800 1.813 3592
1.838 1.749 1.754 7160
1.930 1.836 1.836 2854
1.847 1.756 1.751 5916
1.938 1.844 1.832 2124
1.884 1.792 1.773 5483
1.792 1.705 1.692 1847
1.882 1.791 1.762 5804
1.790 1.703 1.681 1100
1.886 1.794 1.754 6223
1.978 1.881 1.835 920
1.889 1.797 1.747 4700
1.981 1.885 1.827 893
1.897 1.805 1.743 3181
2.000 1.902 1.832 807
1.906 1.813 1.740 4575
1.998 1.901 1.820 1208
1.919 1.825 1.741 6519
2.012 1.913 1.820 1309
1.942 1.847 1.750 6947
2.035 1.935 1.829 1345
1.950 1.855 1.746 8257
2.043 1.943 1.825 1793
1.953 1.858 1.739 7199
2.047 1.947 1.817 2069
1.962 1.866 1.735 6203
2.055 1.955 1.813 2083
1.995 1.897 1.752 5650
2.088 1.986 1.829 1464
1.998 1.901 1.744 5800
2.092 1.990 1.820 2117
2.006 1.909 1.740 6447
2.100 1.998 1.816 2447
2.010 1.912 1.732 5608
2.104 2.001 1.808 3356
2.097 1.995 1.792 4417
2.003 1.905 1.716 3579
2.096 1.994 1.779 5254
2.002 1.904 1.704 2676
2.085 1.983 1.759 6422
1.990 1.893 1.684 1007
2.073 1.972 1.739 6364
2.168 2.062 1.814 2314
2.076 1.975 1.731 6378
2.171 2.065 1.805 2806
2.075 1.973 1.719 5533
2.170 2.064 1.793 3259
2.068 1.967 1.703 4522
2.163 2.058 1.776 3946
2.162 2.056 1.764 4127
2.066 1.965 1.691 3562
2.200 2.093 1.782 3257
2.105 2.002 1.710 2541
2.204 2.096 1.773 3475
2.108 2.005 1.701 2389
2.207 2.099 1.765 5645
2.111 2.008 1.693 1716
2.200 2.093 1.748 8142
2.296 2.184 1.820 2391
2.204 2.096 1.740 8992
2.300 2.188 1.811 2472
2.207 2.100 1.731 7503
2.303 2.191 1.802 2164
2.261 2.151 1.759 8169
2.358 2.243 1.829 2077
2.265 2.154 1.750 7883
2.361 2.246 1.820 2720
2.268 2.157 1.741 7950
2.365 2.249 1.811 4234
2.292 2.180 1.747 6970
2.389 2.272 1.816 4211
2.305 2.193 1.745 7317
2.402 2.285 1.814 3777
2.355 2.240 1.768 9453
2.452 2.332 1.836 1913
2.363 2.248 1.762 8592
2.266 2.156 1.694 1890
2.367 2.251 1.753 7074
2.464 2.344 1.821 2073
2.411 2.294 1.772 5500
2.314 2.201 1.705 4529
2.415 2.297 1.762 4479
2.317 2.204 1.696 2700
2.387 2.271 1.732 3608
2.485 2.364 1.798 1778
2.453 2.333 1.764 4248
2.355 2.240 1.698 1648
2.415 2.297 1.727 5827
2.585 2.459 1.840 2131
2.423 2.305 1.720 8042
2.578 2.452 1.823 2554
2.437 2.318 1.718 9479
2.577 2.451 1.810 3182
2.440 2.321 1.708 7997
2.585 2.459 1.803 3024
2.449 2.329 1.702 4506
2.625 2.497 1.816 3739
2.634 2.505 1.809 4945
2.514 2.392 1.732 1910
2.632 2.504 1.795 5074
2.507 2.385 1.715 2075
2.631 2.502 1.782 4280
2.511 2.388 1.706 2363
2.624 2.496 1.764 3178
2.733 2.600 1.833 3132
2.742 2.608 1.826 3877
2.637 2.509 1.761 3318
2.657 2.527 1.760 4007
2.756 2.622 1.821 3803
2.754 2.620 1.807 4003
2.655 2.525 1.746 3090
2.758 2.623 1.796 4918
2.858 2.718 1.857 2521
2.767 2.632 1.788 6641
2.866 2.727 1.849 4325
2.849 2.710 1.825 8172
2.749 2.615 1.765 4244
2.853 2.713 1.813 10242
2.752 2.618 1.754 3573
2.856 2.717 1.802 9436
2.956 2.812 1.861 3897
2.860 2.720 1.791 6898
2.960 2.815 1.850 3125
2.889 2.748 1.795 5555
2.789 2.653 1.736 2635
2.914 2.772 1.795 6672
3.020 2.873 1.856 4317
2.939 2.795 1.796 6884
3.040 2.891 1.854 4005
2.953 2.809 1.790 5077
3.064 2.915 1.853 2789
3.010 2.863 1.808 4250
3.110 2.959 1.865 1550
3.077 2.927 1.832 6983
2.976 2.831 1.776 2660
3.086 2.935 1.823 5984
2.985 2.839 1.767 2829
3.073 2.923 1.802 3938
2.972 2.827 1.746 1656
3.082 2.932 1.792 3944
3.184 3.028 1.847 1229
3.102 2.950 1.789 4057
3.209 3.052 1.846 1968
3.121 2.969 1.785 3856
3.223 3.066 1.839 3274
3.226 3.069 1.826 4516
3.125 2.972 1.772 3050
3.235 3.077 1.816 4987
3.133 2.981 1.763 2743
3.169 3.014 1.767 5307
3.271 3.111 1.820 2214
3.216 3.059 1.777 5378
3.318 3.156 1.829 2246
3.230 3.072 1.769 4430
3.402 3.236 1.857 2823
3.389 3.224 1.836 5315
3.206 3.050 1.743 3463
