-0.425 5.885 1.923 2567
-0.409 5.674 1.858 2424
-0.398 5.523 1.812 2012
-0.421 5.837 1.890 5122
-0.411 5.694 1.846 2239
-0.432 5.989 1.936 1350
-0.423 5.858 1.877 4467
-0.433 6.001 1.921 1925
-0.412 5.714 1.834 1588
-0.424 5.878 1.865 2601
-0.437 6.060 1.919 2507
-0.414 5.734 1.822 1262
-0.437 6.057 1.899 2101
-0.425 5.890 1.850 1889
-0.451 6.247 1.955 1148
-0.452 6.267 1.941 2326
-0.426 5.911 1.837 1826
-0.437 6.062 1.881 1565
-0.442 6.120 1.879 2627
-0.453 6.280 1.925 2595
-0.428 5.931 1.825 1361
-0.441 6.118 1.859 2977
-0.453 6.285 1.907 1780
-0.476 6.604 1.997 1076
-0.442 6.123 1.841 2015
-0.454 6.298 1.890 1971
-0.475 6.579 1.969 1781
-0.486 6.739 2.014 1733
-0.489 6.775 2.003 2643
-0.475 6.584 1.950 2137
-0.456 6.318 1.876 1846
-0.444 6.151 1.830 1375
-0.483 6.696 1.960 3206
-0.473 6.552 1.921 1484
-0.484 6.709 1.943 5140
-0.474 6.564 1.904 1438
-0.498 6.907 1.997 1321
-0.484 6.714 1.923 5120
-0.499 6.913 1.977 1327
-0.474 6.570 1.885 1304
-0.517 7.172 2.046 1052
-0.485 6.720 1.904 3854
-0.503 6.972 1.971 1631
-0.519 7.201 2.031 1241
-0.474 6.575 1.865 1061
-0.485 6.717 1.882 2575
-0.503 6.977 1.950 2297
-0.520 7.214 2.012 1732
-0.534 7.405 2.062 1433
-0.504 6.982 1.930 2385
-0.535 7.410 2.041 2265
-0.492 6.814 1.887 1910
-0.521 7.219 1.991 1736
-0.549 7.607 2.068 1954
-0.535 7.416 2.019 1883
-0.503 6.980 1.908 1636
-0.521 7.217 1.968 1305
-0.555 7.689 2.065 2265
-0.529 7.329 1.974 1365
-0.504 6.992 1.889 1196
-0.573 7.950 2.131 1120
-0.551 7.641 2.029 1562
-0.562 7.787 2.066 1363
-0.574 7.963 2.110 1219
-0.528 7.319 1.949 1035
-0.562 7.785 2.041 2431
-0.591 8.191 2.141 1460
-0.575 7.969 2.086 1408
-0.551 7.639 2.005 1220
-0.563 7.806 2.022 1978
-0.607 8.412 2.169 1833
-0.596 8.266 2.134 1642
-0.575 7.967 2.061 1356
-0.607 8.418 2.145 2716
-0.597 8.272 2.110 1847
-0.560 7.757 1.987 1156
-0.581 8.049 2.057 1122
-0.599 8.308 2.093 2388
-0.610 8.454 2.128 1657
-0.589 8.162 2.059 1318
-0.629 8.716 2.190 1091
-0.600 8.322 2.071 2687
-0.628 8.706 2.161 1115
-0.601 8.327 2.047 2366
-0.630 8.727 2.139 1277
-0.633 8.772 2.122 1786
-0.600 8.317 2.019 1457
-0.611 8.471 2.054 1260
-0.648 8.980 2.169 1102
-0.633 8.777 2.097 1775
-0.612 8.485 2.031 1384
-0.634 8.791 2.073 1181
-0.668 9.259 2.148 1486
-0.668 9.265 2.121 2163
-0.700 9.705 2.216 1401
-0.688 9.535 2.179 1027
-0.701 9.719 2.189 2072
-0.669 9.279 2.096 1629
-0.689 9.557 2.155 1421
-0.650 9.008 2.039 1059
-0.700 9.709 2.158 2254
-0.690 9.562 2.127 1221
-0.730 10.119 2.243 1020
-0.715 9.918 2.201 1020
-0.706 9.785 2.144 2597
-0.691 9.584 2.102 1241
-0.702 9.736 2.104 2306
-0.691 9.582 2.073 1518
-0.703 9.742 2.076 1588
-0.692 9.595 2.047 1558
-0.693 9.608 2.020 1239
-0.641 8.893 1.852 1003
-0.642 8.898 1.827 1520
-0.793 11.000 2.228 1051
-0.642 8.902 1.801 1559
-0.794 11.014 2.197 1158
-0.840 11.650 2.316 1096
-0.643 8.907 1.775 1285
-0.840 11.649 2.281 1220
-0.804 11.144 2.188 1145
-0.843 11.686 2.253 1195
-0.832 11.538 2.226 1143
-0.804 11.150 2.155 1100
-0.878 12.174 2.305 1331
-0.843 11.692 2.219 1047
-0.868 12.026 2.278 1031
-0.879 12.180 2.269 1939
-0.861 11.931 2.226 1066
-0.879 12.178 2.232 1473
-0.963 13.343 2.353 1222
-0.963 13.350 2.314 1287
-0.164 2.331 1.821 4070
-0.166 2.368 1.837 10074
-0.158 2.247 1.749 2068
-0.175 2.489 1.926 1051
-0.168 2.385 1.840 14945
-0.159 2.264 1.751 2688
-0.176 2.507 1.928 1792
-0.167 2.384 1.828 11048
-0.176 2.506 1.917 2910
-0.159 2.262 1.740 1473
-0.173 2.459 1.872 10925
-0.164 2.338 1.785 3562
-0.173 2.464 1.865 9124
-0.164 2.342 1.778 2600
-0.174 2.482 1.867 7719
-0.166 2.360 1.780 2733
-0.175 2.487 1.860 7719
-0.166 2.365 1.774 2733
-0.183 2.610 1.947 1614
-0.180 2.557 1.899 7631
-0.171 2.434 1.812 4732
-0.180 2.562 1.891 9734
-0.171 2.439 1.805 6029
-0.180 2.567 1.884 8622
-0.172 2.444 1.798 4816
-0.176 2.507 1.832 10339
-0.185 2.631 1.917 2830
-0.167 2.384 1.746 1025
-0.179 2.551 1.851 10536
-0.170 2.427 1.766 1935
-0.180 2.556 1.844 13858
-0.171 2.432 1.760 1758
-0.188 2.680 1.929 1421
-0.180 2.561 1.837 13858
-0.189 2.686 1.921 1964
-0.171 2.437 1.753 1371
-0.181 2.573 1.834 13522
-0.189 2.697 1.918 1502
-0.172 2.448 1.750 1098
-0.181 2.578 1.826 13329
-0.190 2.703 1.910 1265
-0.172 2.453 1.743 1078
-0.182 2.589 1.823 11124
-0.184 2.614 1.829 10430
-0.184 2.619 1.822 10577
-0.193 2.744 1.904 1580
-0.184 2.617 1.810 10883
-0.193 2.743 1.892 2384
-0.186 2.642 1.815 9234
-0.194 2.768 1.897 2477
-0.186 2.653 1.812 8849
-0.195 2.780 1.893 2785
-0.187 2.665 1.808 6677
-0.196 2.791 1.889 3861
-0.197 2.803 1.886 5261
-0.188 2.676 1.805 4854
-0.197 2.808 1.877 5502
-0.188 2.674 1.793 5072
-0.198 2.820 1.874 5830
-0.188 2.673 1.781 5499
-0.198 2.818 1.861 5652
-0.188 2.684 1.778 5198
-0.208 2.959 1.949 1064
-0.197 2.810 1.845 5737
-0.188 2.682 1.766 4746
-0.206 2.937 1.924 1487
-0.200 2.848 1.858 6501
-0.191 2.720 1.779 4030
-0.209 2.976 1.936 1637
-0.201 2.860 1.853 8069
-0.192 2.732 1.775 3661
-0.210 2.988 1.932 2067
-0.200 2.845 1.833 7631
-0.209 2.973 1.911 2630
-0.191 2.716 1.755 1467
-0.200 2.843 1.821 8377
-0.209 2.972 1.898 3593
-0.200 2.855 1.817 7695
-0.209 2.983 1.894 4418
-0.208 2.961 1.869 8311
-0.199 2.832 1.792 4731
-0.208 2.966 1.860 9210
-0.199 2.837 1.784 3536
-0.209 2.971 1.852 10109
-0.200 2.842 1.776 2078
-0.208 2.963 1.835 7502
-0.199 2.833 1.760 1271
-0.209 2.975 1.831 5704
-0.200 2.845 1.756 1196
-0.210 2.993 1.830 6816
-0.219 3.123 1.905 1175
-0.201 2.863 1.755 1121
-0.211 3.005 1.825 7917
-0.202 2.875 1.751 1343
-0.220 3.135 1.900 1020
-0.212 3.017 1.821 9035
-0.203 2.886 1.747 1503
-0.221 3.147 1.895 1040
-0.212 3.022 1.812 7183
-0.221 3.152 1.886 1877
-0.203 2.891 1.738 1171
-0.213 3.033 1.807 5185
-0.222 3.164 1.881 2375
-0.214 3.045 1.802 4988
-0.223 3.176 1.875 2058
-0.215 3.057 1.797 6208
-0.229 3.257 1.908 2823
-0.215 3.062 1.789 7677
-0.229 3.263 1.899 3582
-0.215 3.066 1.780 7062
-0.230 3.275 1.893 4645
-0.231 3.287 1.887 6073
-0.214 3.050 1.760 5414
-0.231 3.292 1.878 6810
-0.214 3.041 1.743 5532
-0.240 3.424 1.949 1017
-0.231 3.297 1.868 7439
-0.214 3.046 1.735 5218
-0.241 3.429 1.939 1782
-0.232 3.309 1.863 7729
-0.213 3.036 1.719 5518
-0.242 3.441 1.933 1945
-0.223 3.176 1.792 1336
-0.233 3.314 1.853 6468
-0.214 3.048 1.713 6017
-0.242 3.447 1.923 2103
-0.223 3.181 1.783 1100
-0.215 3.060 1.708 5407
-0.233 3.312 1.840 4952
-0.242 3.445 1.909 2738
-0.239 3.408 1.878 5471
-0.216 3.071 1.703 3893
-0.230 3.275 1.809 1937
-0.249 3.541 1.947 1161
-0.240 3.420 1.871 7665
-0.216 3.083 1.698 2928
-0.231 3.286 1.803 2077
-0.250 3.553 1.940 1186
-0.241 3.432 1.865 11286
-0.216 3.080 1.685 4190
-0.250 3.566 1.933 2450
-0.232 3.298 1.797 1644
-0.241 3.437 1.855 12376
-0.216 3.071 1.669 5609
-0.251 3.571 1.923 3675
-0.232 3.303 1.787 1433
-0.242 3.442 1.845 11592
-0.215 3.068 1.657 5923
-0.251 3.576 1.913 3928
-0.232 3.308 1.778 1585
-0.243 3.454 1.839 9117
-0.216 3.072 1.648 4667
-0.252 3.588 1.906 4353
-0.233 3.320 1.772 1390
-0.243 3.466 1.833 6774
-0.256 3.643 1.920 5662
-0.216 3.077 1.639 2782
-0.257 3.655 1.913 6848
-0.244 3.471 1.823 6006
-0.215 3.060 1.620 2476
-0.257 3.660 1.903 8284
-0.244 3.476 1.813 4564
-0.216 3.071 1.615 2727
-0.257 3.658 1.889 8445
-0.216 3.076 1.606 2951
-0.247 3.523 1.823 2574
-0.266 3.794 1.954 1080
-0.257 3.664 1.878 8263
-0.248 3.528 1.813 2847
-0.216 3.080 1.597 2321
-0.267 3.799 1.943 1294
-0.252 3.583 1.827 6965
-0.261 3.718 1.891 5022
-0.217 3.084 1.588 1651
-0.261 3.716 1.877 6479
-0.251 3.581 1.813 5574
-0.218 3.103 1.586 1372
-0.270 3.852 1.942 1079
-0.261 3.721 1.867 8345
-0.252 3.586 1.803 2637
-0.271 3.857 1.931 2420
-0.218 3.107 1.577 1374
-0.261 3.719 1.853 8660
-0.271 3.855 1.916 3577
-0.216 3.082 1.555 1770
-0.252 3.583 1.789 1346
-0.261 3.717 1.838 10024
-0.271 3.853 1.902 4924
-0.216 3.079 1.543 2003
-0.251 3.581 1.775 1056
-0.261 3.715 1.824 9093
-0.270 3.851 1.887 5741
-0.216 3.076 1.530 1975
-0.270 3.842 1.870 6049
-0.260 3.705 1.807 4156
-0.216 3.080 1.522 1481
-0.271 3.854 1.862 7462
-0.261 3.717 1.800 2220
-0.271 3.866 1.854 8210
-0.262 3.729 1.792 2826
-0.272 3.879 1.846 6762
-0.263 3.741 1.785 2957
-0.283 4.030 1.913 1727
-0.276 3.934 1.857 8778
-0.266 3.790 1.793 4224
-0.286 4.071 1.918 2081
-0.277 3.946 1.849 9439
-0.287 4.084 1.909 3401
-0.267 3.809 1.788 2654
-0.277 3.951 1.837 6900
-0.287 4.089 1.897 4481
-0.297 4.227 1.957 1318
-0.284 4.043 1.864 6067
-0.294 4.181 1.923 2223
-0.274 3.905 1.804 1914
-0.283 4.026 1.843 6442
-0.292 4.164 1.902 3316
-0.273 3.888 1.783 1070
-0.283 4.024 1.828 6352
-0.292 4.162 1.887 4408
-0.290 4.131 1.859 6605
-0.280 3.993 1.801 4041
-0.300 4.269 1.918 2580
-0.289 4.114 1.838 7382
-0.299 4.253 1.896 5728
-0.279 3.976 1.780 1633
-0.299 4.265 1.887 8396
-0.290 4.126 1.829 5241
-0.280 3.988 1.772 1140
-0.300 4.270 1.874 6993
-0.290 4.131 1.817 2961
-0.300 4.275 1.862 4656
-0.288 4.107 1.793 2777
-0.301 4.280 1.850 5067
-0.289 4.112 1.782 2488
-0.310 4.419 1.906 1188
-0.301 4.285 1.837 6341
-0.315 4.483 1.917 1551
-0.290 4.124 1.773 1141
-0.304 4.327 1.840 5504
-0.314 4.473 1.898 2200
-0.306 4.361 1.839 6479
-0.316 4.501 1.894 1733
-0.307 4.373 1.829 4714
-0.317 4.513 1.884 1948
-0.314 4.467 1.851 4137
-0.326 4.643 1.919 1693
-0.304 4.327 1.796 1567
-0.315 4.479 1.840 4695
-0.327 4.656 1.909 3185
-0.305 4.339 1.787 1375
-0.318 4.528 1.844 5003
-0.328 4.668 1.898 3513
-0.308 4.388 1.791 1763
-0.319 4.540 1.834 4818
-0.329 4.681 1.887 2557
-0.309 4.400 1.781 1004
-0.321 4.575 1.832 3954
-0.331 4.716 1.885 2691
-0.311 4.434 1.779 1246
-0.328 4.676 1.854 4831
-0.318 4.535 1.802 2410
-0.338 4.817 1.907 1360
-0.329 4.681 1.841 5264
-0.339 4.822 1.893 1786
-0.319 4.540 1.789 1379
-0.332 4.731 1.844 4221
-0.322 4.590 1.792 2246
-0.342 4.872 1.895 1535
-0.312 4.449 1.741 1079
-0.333 4.743 1.833 4690
-0.343 4.884 1.884 1957
-0.323 4.602 1.782 1318
-0.341 4.859 1.859 5535
-0.331 4.718 1.808 2439
-0.342 4.864 1.845 4761
-0.332 4.723 1.795 2551
-0.352 5.006 1.895 1186
-0.346 4.922 1.849 3223
-0.336 4.780 1.799 2259
-0.356 5.063 1.899 1255
-0.344 4.904 1.827 3547
-0.354 5.046 1.876 2495
-0.334 4.762 1.778 1058
-0.345 4.916 1.815 4936
-0.358 5.096 1.877 3825
-0.346 4.921 1.801 4043
-0.359 5.108 1.865 3849
-0.371 5.280 1.924 1452
-0.360 5.128 1.855 5948
-0.350 4.986 1.807 3454
-0.371 5.278 1.906 2642
-0.360 5.133 1.840 9092
-0.370 5.275 1.888 3042
-0.350 4.991 1.793 3022
-0.361 5.138 1.825 6682
-0.371 5.288 1.875 3946
-0.350 4.981 1.773 1422
-0.381 5.431 1.922 1053
-0.372 5.301 1.862 4350
-0.361 5.135 1.808 3266
-0.385 5.488 1.924 1542
-0.374 5.321 1.852 3381
-0.360 5.133 1.791 2660
-0.385 5.486 1.905 2193
-0.376 5.356 1.846 3908
-0.361 5.145 1.778 1875
-0.396 5.634 1.936 1491
-0.379 5.391 1.840 2460
-0.397 5.654 1.924 1376
-0.362 5.157 1.766 1036
-0.382 5.433 1.836 2716
-0.399 5.682 1.915 1717
-0.400 5.695 1.901 2269
-0.381 5.423 1.816 2249
-0.388 5.519 1.828 3069
-0.398 5.662 1.872 2037
-0.377 5.375 1.784 1238
-0.413 5.881 1.940 1141
-0.413 5.886 1.923 2565
-0.398 5.675 1.858 2291
-0.388 5.531 1.814 1933
-0.410 5.846 1.892 5380
-0.400 5.702 1.849 2307
-0.421 5.989 1.936 1127
-0.411 5.858 1.877 4780
-0.421 6.002 1.921 1914
-0.401 5.715 1.834 1669
-0.413 5.879 1.865 2658
-0.425 6.053 1.917 2529
-0.403 5.735 1.822 1624
-0.425 6.050 1.897 2049
-0.414 5.891 1.850 1825
-0.439 6.248 1.955 1130
-0.440 6.268 1.941 2134
-0.415 5.911 1.837 1674
-0.425 6.056 1.879 1375
-0.442 6.288 1.927 2535
-0.430 6.121 1.879 2499
-0.417 5.931 1.825 1239
-0.429 6.111 1.857 2799
-0.442 6.294 1.909 1957
-0.443 6.306 1.893 2116
-0.430 6.124 1.841 2112
-0.474 6.747 2.016 1760
-0.462 6.580 1.969 1725
-0.475 6.768 2.001 2842
-0.462 6.585 1.950 2122
-0.446 6.349 1.885 2016
-0.432 6.159 1.832 1679
-0.473 6.743 1.973 2949
-0.463 6.598 1.933 2177
-0.447 6.370 1.870 1323
-0.485 6.903 2.017 1076
-0.471 6.710 1.943 4859
-0.485 6.908 1.997 1633
-0.461 6.565 1.904 1536
-0.472 6.715 1.923 5146
-0.485 6.914 1.977 1791
-0.461 6.570 1.885 1503
-0.504 7.181 2.048 1238
-0.472 6.721 1.904 3485
-0.486 6.927 1.958 1584
-0.505 7.186 2.027 1415
-0.462 6.575 1.865 1213
-0.478 6.810 1.906 2619
-0.490 6.978 1.950 1975
-0.506 7.207 2.010 1823
-0.519 7.398 2.060 1497
-0.520 7.411 2.041 2100
-0.489 6.968 1.926 1961
-0.479 6.815 1.887 1731
-0.506 7.205 1.987 1716
-0.534 7.601 2.066 2269
-0.519 7.394 2.013 1587
-0.506 7.210 1.966 1328
-0.490 6.981 1.908 1318
-0.535 7.621 2.048 2238
-0.545 7.767 2.084 1344
-0.515 7.338 1.976 1138
-0.558 7.951 2.131 1015
-0.545 7.757 2.058 1802
-0.534 7.612 2.022 1495
-0.559 7.964 2.110 1100
-0.547 7.786 2.041 2370
-0.536 7.640 2.005 1469
-0.575 8.192 2.141 1395
-0.560 7.970 2.086 1362
-0.548 7.807 2.022 1943
-0.591 8.413 2.169 1811
-0.581 8.267 2.134 1579
-0.559 7.968 2.061 1541
-0.591 8.419 2.145 2607
-0.576 8.196 2.092 1712
-0.560 7.973 2.038 1312
-0.550 7.827 2.003 1164
-0.583 8.309 2.093 2181
-0.594 8.455 2.128 1604
-0.573 8.163 2.059 1348
-0.612 8.717 2.190 1179
-0.584 8.315 2.069 2294
-0.612 8.715 2.162 1154
-0.574 8.169 2.035 1071
-0.584 8.321 2.045 2020
-0.613 8.729 2.139 1278
-0.617 8.781 2.124 2059
-0.595 8.472 2.054 1387
-0.584 8.318 2.019 1322
-0.631 8.981 2.169 1172
-0.616 8.779 2.097 1904
-0.596 8.486 2.031 1567
-0.630 8.979 2.142 1024
-0.618 8.800 2.075 1197
-0.643 9.162 2.155 1067
-0.643 9.160 2.126 1341
-0.621 8.844 2.057 1144
-0.651 9.274 2.123 2027
-0.682 9.706 2.216 1366
-0.683 9.720 2.189 1977
-0.652 9.288 2.098 1538
-0.671 9.558 2.155 1341
-0.681 9.703 2.156 2274
-0.671 9.556 2.125 1167
-0.697 9.919 2.201 1095
-0.687 9.786 2.144 2580
-0.673 9.585 2.102 1276
-0.703 10.018 2.192 1099
-0.684 9.738 2.104 2281
-0.673 9.583 2.073 1559
-0.704 10.024 2.162 1013
-0.683 9.728 2.073 1590
-0.673 9.581 2.044 1409
-0.675 9.610 2.020 1132
-0.625 8.894 1.852 1021
-0.625 8.899 1.827 1495
-0.773 11.009 2.229 1019
-0.625 8.904 1.801 1569
-0.773 11.007 2.196 1166
-0.818 11.652 2.316 1059
-0.626 8.909 1.775 1287
-0.818 11.650 2.281 1198
-0.783 11.145 2.188 1136
-0.821 11.687 2.253 1095
-0.784 11.159 2.157 1092
-0.810 11.540 2.226 1035
-0.854 12.160 2.302 1522
-0.855 12.174 2.268 2146
-0.855 12.180 2.232 1629
-0.856 12.194 2.198 1065
-0.937 13.345 2.353 1306
-0.857 12.200 2.163 1024
-0.938 13.351 2.314 1365
-0.159 2.331 1.821 3919
-0.162 2.368 1.837 9773
-0.153 2.247 1.749 1877
-0.170 2.489 1.926 1040
-0.163 2.386 1.840 14532
-0.155 2.264 1.751 2408
-0.171 2.507 1.928 1782
-0.163 2.384 1.828 10733
-0.171 2.506 1.917 2735
-0.155 2.263 1.740 1343
-0.168 2.460 1.872 10282
-0.160 2.338 1.785 3232
-0.168 2.465 1.865 9070
-0.160 2.343 1.778 2385
-0.169 2.476 1.863 8160
-0.161 2.354 1.776 2021
-0.177 2.599 1.950 1022
-0.169 2.481 1.856 8160
-0.161 2.359 1.769 2021
-0.178 2.604 1.943 1772
-0.168 2.467 1.835 8561
-0.177 2.590 1.921 4085
-0.168 2.465 1.823 10227
-0.177 2.588 1.909 6314
-0.170 2.483 1.825 10076
-0.178 2.607 1.911 4679
-0.171 2.501 1.827 11578
-0.179 2.625 1.913 3492
-0.173 2.526 1.834 10862
-0.181 2.649 1.918 1738
-0.164 2.402 1.749 1160
-0.175 2.557 1.844 14222
-0.166 2.433 1.760 1545
-0.183 2.681 1.929 1367
-0.175 2.562 1.837 14222
-0.183 2.686 1.921 1900
-0.166 2.437 1.753 1233
-0.176 2.573 1.834 13623
-0.184 2.698 1.918 1514
-0.167 2.448 1.750 1032
-0.176 2.578 1.826 13385
-0.185 2.703 1.910 1337
-0.168 2.453 1.743 1029
-0.177 2.590 1.823 11199
-0.185 2.715 1.906 1160
-0.179 2.614 1.829 10564
-0.187 2.740 1.912 1195
-0.179 2.619 1.822 10453
-0.187 2.745 1.904 1663
-0.179 2.617 1.810 10567
-0.187 2.743 1.892 2212
-0.180 2.642 1.815 8752
-0.189 2.768 1.897 2469
-0.181 2.654 1.812 8441
-0.190 2.780 1.893 2797
-0.182 2.665 1.808 6675
-0.191 2.792 1.889 3959
-0.191 2.797 1.881 5386
-0.182 2.670 1.801 4930
-0.192 2.809 1.877 5391
-0.183 2.682 1.797 5006
-0.193 2.820 1.874 5513
-0.183 2.680 1.785 5003
-0.202 2.954 1.958 1014
-0.193 2.825 1.865 5254
-0.184 2.698 1.786 5095
-0.202 2.953 1.945 1413
-0.187 2.743 1.803 6151
-0.196 2.871 1.882 4186
-0.179 2.615 1.724 1131
-0.189 2.761 1.804 6271
-0.197 2.889 1.882 5125
-0.180 2.633 1.725 1424
-0.196 2.867 1.858 7684
-0.187 2.739 1.779 5191
-0.205 2.995 1.936 2187
-0.194 2.845 1.833 6944
-0.203 2.974 1.911 2680
-0.186 2.717 1.755 1710
-0.194 2.843 1.821 7757
-0.203 2.972 1.898 3541
-0.195 2.855 1.817 7219
-0.204 2.984 1.894 4347
-0.202 2.962 1.869 7786
-0.193 2.833 1.792 4586
-0.203 2.967 1.860 8664
-0.194 2.838 1.784 3259
-0.211 3.096 1.937 1037
-0.203 2.972 1.852 9543
-0.194 2.842 1.776 1732
-0.212 3.101 1.928 1154
-0.202 2.956 1.831 7435
-0.211 3.086 1.907 1079
-0.193 2.827 1.756 1014
-0.202 2.961 1.823 5158
-0.211 3.091 1.898 1444
-0.204 2.994 1.830 4974
-0.213 3.124 1.905 1406
-0.196 2.863 1.755 1100
-0.205 3.005 1.825 5800
-0.196 2.875 1.751 1320
-0.214 3.136 1.900 1116
-0.206 3.017 1.821 6682
-0.197 2.886 1.747 1477
-0.215 3.155 1.899 1027
-0.206 3.022 1.812 5294
-0.215 3.153 1.886 1840
-0.197 2.891 1.738 1126
-0.213 3.116 1.854 4549
-0.204 2.985 1.780 1860
-0.214 3.128 1.848 4468
-0.205 2.997 1.775 2064
-0.223 3.260 1.921 1415
-0.208 3.050 1.794 5573
-0.223 3.258 1.908 2832
-0.209 3.062 1.789 6973
-0.223 3.263 1.899 3552
-0.209 3.067 1.780 6609
-0.224 3.275 1.893 4626
-0.225 3.287 1.887 6017
-0.208 3.051 1.760 5910
-0.225 3.292 1.878 6470
-0.208 3.048 1.747 6289
-0.234 3.424 1.949 1057
-0.225 3.297 1.868 7047
-0.208 3.046 1.735 6023
-0.234 3.430 1.939 1813
-0.226 3.309 1.863 7437
-0.207 3.037 1.719 5370
-0.235 3.442 1.933 1982
-0.217 3.177 1.792 1672
-0.226 3.307 1.849 6355
-0.207 3.034 1.706 5224
-0.235 3.440 1.919 2247
-0.217 3.174 1.780 1261
-0.226 3.312 1.840 4833
-0.208 3.046 1.701 4811
-0.235 3.445 1.909 2867
-0.217 3.179 1.770 1037
-0.233 3.415 1.881 5807
-0.209 3.058 1.696 3810
-0.224 3.282 1.812 2114
-0.234 3.427 1.875 8256
-0.210 3.076 1.694 3169
-0.225 3.294 1.806 2114
-0.234 3.433 1.865 11997
-0.210 3.081 1.685 4064
-0.244 3.566 1.933 2228
-0.225 3.299 1.797 1252
-0.235 3.438 1.855 13000
-0.210 3.071 1.669 4764
-0.244 3.571 1.923 3408
-0.235 3.443 1.845 11861
-0.210 3.068 1.657 4955
-0.244 3.577 1.913 3630
-0.226 3.308 1.778 1116
-0.236 3.455 1.839 8875
-0.248 3.631 1.927 4307
-0.210 3.073 1.648 3481
-0.227 3.320 1.772 1024
-0.236 3.459 1.829 6362
-0.249 3.644 1.920 5201
-0.209 3.056 1.629 2187
-0.250 3.656 1.913 5929
-0.237 3.471 1.823 5681
-0.209 3.053 1.617 2692
-0.250 3.661 1.903 7005
-0.237 3.476 1.813 4320
-0.209 3.065 1.611 3153
-0.250 3.659 1.889 7227
-0.210 3.076 1.606 2695
-0.241 3.524 1.823 2417
-0.259 3.794 1.954 1105
-0.251 3.671 1.882 7167
-0.242 3.536 1.816 3365
-0.211 3.087 1.600 1613
-0.260 3.806 1.947 1118
-0.245 3.584 1.827 7321
-0.254 3.719 1.891 5216
-0.211 3.092 1.592 1194
-0.247 3.617 1.830 6800
-0.256 3.753 1.894 3978
-0.212 3.103 1.586 1295
-0.254 3.722 1.867 6754
-0.245 3.586 1.803 2616
-0.263 3.858 1.931 2125
-0.212 3.107 1.577 1406
-0.254 3.713 1.849 7414
-0.263 3.849 1.913 3436
-0.210 3.076 1.551 1684
-0.254 3.718 1.838 9124
-0.263 3.854 1.902 4443
-0.210 3.080 1.543 1576
-0.254 3.723 1.828 8567
-0.264 3.859 1.891 5327
-0.211 3.084 1.534 1320
-0.262 3.842 1.870 7141
-0.253 3.706 1.807 3925
-0.206 3.016 1.492 1256
-0.263 3.855 1.862 8387
-0.254 3.718 1.800 2377
-0.206 3.013 1.480 1270
-0.264 3.867 1.854 8930
-0.255 3.730 1.792 3134
-0.206 3.017 1.471 1033
-0.265 3.879 1.846 6950
-0.256 3.742 1.785 3058
-0.274 4.016 1.907 1648
-0.269 3.935 1.857 7485
-0.259 3.797 1.796 4057
-0.278 4.072 1.918 1960
-0.270 3.947 1.849 8413
-0.279 4.084 1.909 3401
-0.260 3.809 1.788 2605
-0.270 3.959 1.841 6547
-0.280 4.097 1.901 4204
-0.289 4.234 1.961 1232
-0.261 3.821 1.781 1150
-0.276 4.044 1.864 6338
-0.286 4.182 1.923 2286
-0.267 3.906 1.804 1610
-0.275 4.027 1.843 7184
-0.284 4.165 1.902 3177
-0.275 4.025 1.828 7047
-0.284 4.163 1.887 4405
-0.282 4.131 1.859 7057
-0.273 3.993 1.801 4041
-0.292 4.270 1.918 2459
-0.281 4.115 1.838 8280
-0.290 4.253 1.896 5604
-0.272 3.976 1.780 1541
-0.291 4.265 1.887 8626
-0.281 4.120 1.826 6153
-0.272 3.981 1.769 1053
-0.292 4.271 1.874 7728
-0.282 4.132 1.817 3343
-0.273 3.993 1.760 1035
-0.292 4.268 1.859 5019
-0.281 4.107 1.793 2659
-0.301 4.407 1.916 1304
-0.292 4.281 1.850 5101
-0.281 4.119 1.785 2384
-0.302 4.420 1.906 1520
-0.292 4.278 1.834 6553
-0.302 4.418 1.890 1784
-0.283 4.139 1.779 1206
-0.294 4.298 1.828 5055
-0.303 4.437 1.883 2307
-0.298 4.362 1.839 5826
-0.307 4.501 1.894 1410
-0.288 4.222 1.784 1035
-0.299 4.374 1.829 4734
-0.308 4.514 1.884 1978
-0.305 4.467 1.851 4699
-0.296 4.327 1.796 2096
-0.316 4.629 1.913 1256
-0.306 4.479 1.840 5538
-0.318 4.649 1.906 2403
-0.296 4.339 1.787 1815
-0.308 4.514 1.839 4619
-0.318 4.654 1.892 3288
-0.299 4.374 1.785 1573
-0.312 4.563 1.842 4884
-0.302 4.423 1.789 2265
-0.321 4.704 1.895 1714
-0.313 4.583 1.835 4296
-0.303 4.442 1.782 2690
-0.323 4.724 1.887 2430
-0.319 4.677 1.854 4290
-0.310 4.536 1.802 2324
-0.329 4.817 1.907 1413
-0.320 4.682 1.841 5198
-0.329 4.823 1.893 1603
-0.310 4.541 1.789 1415
-0.323 4.731 1.844 5556
-0.314 4.590 1.792 2400
-0.333 4.872 1.895 1381
-0.325 4.751 1.835 6368
-0.314 4.595 1.779 1389
-0.334 4.892 1.886 1303
-0.325 4.756 1.822 5188
-0.334 4.897 1.872 2510
-0.326 4.768 1.810 4045
-0.335 4.910 1.861 3012
-0.333 4.870 1.831 3313
-0.323 4.728 1.781 1749
-0.342 5.012 1.880 1167
-0.334 4.890 1.822 3725
-0.344 5.032 1.871 2339
-0.336 4.917 1.815 4348
-0.348 5.089 1.874 3218
-0.336 4.922 1.801 3980
-0.348 5.101 1.862 3390
-0.361 5.281 1.924 1531
-0.350 5.121 1.853 5886
-0.340 4.979 1.805 3513
-0.361 5.279 1.906 2735
-0.351 5.134 1.840 9271
-0.341 4.992 1.793 3140
-0.360 5.276 1.888 3106
-0.350 5.131 1.823 7144
-0.361 5.281 1.873 4089
-0.341 4.989 1.776 1381
-0.370 5.424 1.920 1114
-0.362 5.301 1.862 4466
-0.351 5.136 1.808 3609
-0.372 5.451 1.911 1525
-0.363 5.321 1.852 3742
-0.351 5.141 1.793 2381
-0.375 5.487 1.905 2210
-0.365 5.349 1.844 3927
-0.375 5.492 1.890 1573
-0.351 5.146 1.778 1559
-0.385 5.635 1.936 1475
-0.366 5.354 1.828 2319
-0.386 5.655 1.924 1487
-0.375 5.497 1.874 1194
-0.371 5.426 1.834 2877
-0.387 5.668 1.910 1847
-0.385 5.643 1.884 2800
-0.371 5.431 1.818 2433
-0.395 5.786 1.929 1072
-0.377 5.527 1.830 2755
-0.387 5.670 1.875 2254
-0.397 5.814 1.919 1312
-0.368 5.383 1.786 1201
-0.398 5.834 1.907 2869
-0.389 5.690 1.863 1877
-0.378 5.539 1.817 1800
-0.399 5.847 1.892 5652
-0.390 5.703 1.849 2027
-0.400 5.859 1.877 4875
-0.390 5.715 1.834 1692
-0.410 6.003 1.921 1692
-0.401 5.872 1.863 2387
-0.414 6.061 1.919 2334
-0.391 5.728 1.820 1579
-0.416 6.089 1.908 1911
-0.403 5.900 1.852 1687
-0.426 6.241 1.952 1149
-0.393 5.756 1.810 1055
-0.417 6.102 1.892 1979
-0.428 6.261 1.939 1952
-0.404 5.920 1.840 1536
-0.417 6.107 1.875 3216
-0.430 6.289 1.927 2209
-0.406 5.940 1.827 1122
-0.417 6.104 1.855 3151
-0.430 6.294 1.909 1851
-0.418 6.117 1.839 2514
-0.431 6.315 1.895 2365
-0.450 6.589 1.971 1774
-0.461 6.748 2.016 1708
-0.462 6.761 1.999 2886
-0.434 6.350 1.885 2267
-0.450 6.594 1.952 2192
-0.418 6.122 1.821 1942
-0.461 6.751 1.975 3017
-0.450 6.591 1.931 1990
-0.435 6.371 1.870 1632
-0.416 6.089 1.793 1628
-0.459 6.719 1.945 4161
-0.471 6.902 1.995 1766
-0.449 6.574 1.906 1712
-0.417 6.101 1.778 1019
-0.459 6.724 1.925 4691
-0.472 6.915 1.977 1988
-0.449 6.579 1.887 1770
-0.491 7.182 2.048 1583
-0.461 6.752 1.912 3312
-0.451 6.607 1.874 1845
-0.473 6.920 1.956 1760
-0.491 7.187 2.027 1654
-0.465 6.803 1.904 2456
-0.492 7.208 2.010 1734
-0.503 7.369 2.052 1613
-0.475 6.948 1.942 1602
-0.472 6.915 1.912 1940
-0.506 7.405 2.039 1915
-0.519 7.604 2.090 1688
-0.492 7.206 1.987 1517
-0.519 7.602 2.066 2171
-0.505 7.395 2.013 1335
-0.492 7.203 1.964 1333
-0.475 6.959 1.902 1156
-0.528 7.730 2.075 2118
-0.518 7.584 2.038 1983
-0.504 7.377 1.986 1110
-0.492 7.201 1.942 1110
-0.522 7.636 2.028 1884
-0.531 7.781 2.064 1635
-0.512 7.490 1.991 1023
-0.532 7.787 2.041 2262
-0.522 7.641 2.005 1783
-0.544 7.971 2.086 1308
-0.559 8.186 2.139 1295
-0.534 7.823 2.026 1905
-0.566 8.291 2.140 1656
-0.544 7.969 2.061 1585
-0.576 8.437 2.175 1357
-0.575 8.420 2.145 2330
-0.560 8.197 2.092 1585
-0.545 7.974 2.038 1465
-0.534 7.821 2.001 1156
-0.568 8.310 2.093 1895
-0.578 8.457 2.128 1494
-0.558 8.164 2.059 1370
-0.595 8.718 2.190 1226
-0.568 8.316 2.069 1815
-0.558 8.170 2.035 1321
-0.595 8.716 2.162 1149
-0.574 8.406 2.064 1827
-0.561 8.206 2.018 1358
-0.600 8.791 2.153 1247
-0.600 8.789 2.126 2230
-0.579 8.474 2.054 1435
-0.568 8.320 2.019 1166
-0.613 8.982 2.169 1120
-0.600 8.780 2.097 2055
-0.580 8.487 2.031 1668
-0.602 8.809 2.076 1274
-0.626 9.163 2.155 1138
-0.626 9.161 2.126 1472
-0.604 8.837 2.056 1098
-0.640 9.378 2.174 1034
-0.634 9.275 2.123 1692
-0.663 9.708 2.216 1232
-0.663 9.714 2.188 1823
-0.653 9.559 2.155 1349
-0.634 9.289 2.098 1342
-0.663 9.712 2.158 2225
-0.653 9.565 2.127 1331
-0.638 9.341 2.080 1142
-0.680 9.952 2.208 1108
-0.668 9.787 2.144 2398
-0.654 9.579 2.101 1336
-0.684 10.020 2.192 1146
-0.665 9.731 2.103 2139
-0.654 9.576 2.071 1558
-0.684 10.018 2.161 1059
-0.665 9.729 2.073 1505
-0.654 9.582 2.044 1281
-0.608 8.900 1.827 1436
-0.608 8.905 1.801 1527
-0.752 11.009 2.196 1083
-0.609 8.910 1.775 1242
-0.795 11.644 2.280 1114
-0.785 11.496 2.252 1079
-0.761 11.147 2.188 1013
-0.802 11.736 2.261 1011
-0.830 12.154 2.301 1496
-0.832 12.176 2.268 2116
-0.832 12.182 2.232 1643
-0.818 11.979 2.197 1095
-0.833 12.196 2.198 1018
-0.912 13.347 2.353 1227
-0.882 12.911 2.281 1000
-0.913 13.361 2.316 1263
-0.882 12.917 2.243 1004
-0.155 2.332 1.821 3679
-0.158 2.368 1.837 9220
-0.150 2.247 1.749 1710
-0.166 2.489 1.926 1017
-0.159 2.386 1.840 13677
-0.151 2.265 1.751 2136
-0.167 2.507 1.928 1741
-0.159 2.385 1.828 10318
-0.167 2.506 1.917 2555
-0.151 2.263 1.740 1233
-0.164 2.460 1.872 9613
-0.156 2.338 1.785 2898
-0.165 2.472 1.870 9004
-0.157 2.349 1.783 2682
-0.165 2.477 1.863 8678
-0.157 2.354 1.776 1867
-0.165 2.482 1.856 8678
-0.157 2.359 1.769 1867
-0.174 2.604 1.943 1551
-0.164 2.467 1.835 9687
-0.173 2.590 1.921 3563
-0.164 2.466 1.823 11870
-0.172 2.589 1.909 5549
-0.165 2.483 1.825 11575
-0.174 2.607 1.911 4296
-0.167 2.501 1.827 12680
-0.175 2.625 1.913 3396
-0.168 2.526 1.834 11503
-0.177 2.650 1.918 1703
-0.170 2.557 1.844 14416
-0.162 2.433 1.760 1397
-0.179 2.681 1.929 1331
-0.171 2.562 1.837 14416
-0.179 2.686 1.921 1860
-0.162 2.438 1.753 1146
-0.171 2.567 1.829 13616
-0.179 2.691 1.913 2029
-0.172 2.578 1.826 13165
-0.180 2.703 1.910 1477
-0.163 2.453 1.743 1025
-0.173 2.590 1.823 11056
-0.181 2.715 1.906 1404
-0.174 2.614 1.829 10527
-0.183 2.740 1.912 1446
-0.174 2.613 1.817 10201
-0.182 2.738 1.900 1795
-0.174 2.618 1.810 10137
-0.183 2.750 1.896 2010
-0.176 2.636 1.811 8123
-0.184 2.762 1.892 2585
-0.177 2.661 1.816 7989
-0.186 2.787 1.897 2511
-0.178 2.665 1.808 6490
-0.186 2.792 1.889 3956
-0.186 2.797 1.881 5401
-0.178 2.670 1.801 4992
-0.187 2.809 1.877 5229
-0.179 2.682 1.797 4806
-0.188 2.821 1.874 5192
-0.179 2.693 1.794 4601
-0.197 2.955 1.958 1191
-0.181 2.712 1.794 5227
-0.189 2.839 1.874 4663
-0.198 2.967 1.953 1555
-0.183 2.743 1.803 6899
-0.192 2.878 1.886 4464
-0.174 2.616 1.724 1107
-0.184 2.755 1.800 7049
-0.192 2.883 1.878 5657
-0.175 2.627 1.721 1087
-0.201 3.011 1.957 1034
-0.185 2.773 1.800 7587
-0.193 2.901 1.878 6020
-0.191 2.866 1.845 6219
-0.182 2.737 1.767 3502
-0.199 2.994 1.923 2336
-0.189 2.844 1.821 6842
-0.198 2.972 1.898 3684
-0.190 2.855 1.817 6483
-0.199 2.984 1.894 4254
-0.197 2.962 1.869 7082
-0.189 2.833 1.792 4182
-0.206 3.091 1.946 1237
-0.198 2.967 1.860 7996
-0.189 2.838 1.784 2843
-0.206 3.096 1.937 1401
-0.198 2.965 1.848 8974
-0.206 3.095 1.924 1618
-0.189 2.836 1.772 1305
-0.197 2.957 1.831 7483
-0.206 3.086 1.907 1332
-0.197 2.955 1.819 5142
-0.206 3.085 1.894 1974
-0.196 2.946 1.803 4257
-0.205 3.083 1.881 2713
-0.200 3.006 1.825 4259
-0.209 3.136 1.900 1306
-0.192 2.875 1.751 1240
-0.201 3.011 1.817 4847
-0.192 2.880 1.743 1253
-0.211 3.162 1.903 1121
-0.206 3.098 1.855 3966
-0.198 2.967 1.781 1563
-0.208 3.117 1.854 4881
-0.199 2.986 1.780 1617
-0.208 3.129 1.848 4563
-0.200 2.997 1.775 1898
-0.217 3.260 1.921 1354
-0.203 3.051 1.794 4911
-0.217 3.258 1.908 2684
-0.204 3.062 1.789 6253
-0.217 3.263 1.899 3381
-0.204 3.067 1.780 6134
-0.218 3.275 1.893 4492
-0.203 3.051 1.760 6131
-0.219 3.287 1.887 5897
-0.203 3.042 1.743 6756
-0.219 3.293 1.878 6183
-0.228 3.425 1.949 1058
-0.203 3.047 1.735 6720
-0.220 3.298 1.868 6702
-0.229 3.430 1.939 1717
-0.221 3.310 1.863 7136
-0.202 3.037 1.719 5426
-0.212 3.177 1.792 1979
-0.229 3.442 1.933 1880
-0.220 3.308 1.849 6014
-0.202 3.035 1.706 4871
-0.229 3.441 1.919 2155
-0.212 3.175 1.780 1471
-0.203 3.039 1.697 4654
-0.227 3.404 1.887 4641
-0.218 3.271 1.818 1622
-0.228 3.416 1.881 6055
-0.203 3.051 1.692 4215
-0.219 3.282 1.812 1560
-0.228 3.421 1.871 8547
-0.204 3.055 1.683 3915
-0.219 3.287 1.803 1336
-0.229 3.433 1.865 12104
-0.204 3.067 1.678 3740
-0.238 3.567 1.933 2013
-0.220 3.299 1.797 1086
-0.229 3.438 1.855 12924
-0.204 3.064 1.666 3813
-0.238 3.572 1.923 3074
-0.229 3.443 1.845 11543
-0.204 3.062 1.654 4142
-0.238 3.577 1.913 3251
-0.230 3.448 1.835 8377
-0.242 3.632 1.927 4240
-0.203 3.052 1.638 3069
-0.231 3.460 1.829 6143
-0.243 3.644 1.920 4826
-0.202 3.035 1.618 2306
-0.231 3.472 1.823 5657
-0.244 3.656 1.913 5188
-0.203 3.039 1.610 2824
-0.244 3.661 1.903 5958
-0.232 3.477 1.813 4282
-0.203 3.051 1.604 3240
-0.244 3.666 1.892 6352
-0.235 3.531 1.827 3011
-0.204 3.055 1.596 2623
-0.247 3.700 1.895 6917
-0.238 3.565 1.830 6531
-0.203 3.052 1.583 1484
-0.239 3.584 1.827 7633
-0.248 3.719 1.891 6120
-0.202 3.028 1.561 1029
-0.241 3.625 1.833 7263
-0.251 3.760 1.898 3221
-0.207 3.103 1.586 1134
-0.232 3.489 1.769 1072
-0.248 3.730 1.870 6203
-0.239 3.594 1.806 2892
-0.258 3.865 1.934 1525
-0.207 3.108 1.577 1088
-0.248 3.727 1.856 6880
-0.257 3.863 1.919 2364
-0.204 3.054 1.541 1507
-0.249 3.732 1.845 8760
-0.258 3.869 1.908 3000
-0.204 3.058 1.533 1523
-0.249 3.730 1.831 8440
-0.258 3.867 1.894 4787
-0.201 3.012 1.501 1294
-0.256 3.843 1.870 7971
-0.247 3.706 1.807 3791
-0.201 3.016 1.492 1687
-0.257 3.855 1.862 8804
-0.248 3.718 1.800 2622
-0.201 3.020 1.483 2047
-0.258 3.867 1.854 9061
-0.249 3.730 1.792 3522
-0.201 3.017 1.471 1775
-0.267 4.004 1.915 1024
-0.258 3.872 1.843 6853
-0.249 3.735 1.781 2470
-0.267 4.009 1.904 1612
-0.201 3.014 1.460 1356
-0.262 3.935 1.857 6512
-0.253 3.798 1.796 4124
-0.271 4.072 1.918 1781
-0.202 3.025 1.454 1169
-0.263 3.947 1.849 7202
-0.272 4.085 1.909 3322
-0.254 3.810 1.788 2602
-0.264 3.959 1.841 6245
-0.273 4.097 1.901 3983
-0.255 3.822 1.781 1359
-0.282 4.235 1.961 1153
-0.269 4.044 1.864 6448
-0.279 4.182 1.923 2190
-0.260 3.906 1.804 1443
-0.268 4.027 1.843 7690
-0.278 4.165 1.902 2939
-0.268 4.025 1.828 7534
-0.277 4.163 1.887 4209
-0.269 4.037 1.819 7108
-0.278 4.176 1.878 4432
-0.274 4.115 1.838 8470
-0.283 4.254 1.896 5389
-0.265 3.977 1.780 1453
-0.284 4.266 1.887 8449
-0.275 4.120 1.826 6549
-0.284 4.264 1.871 7856
-0.275 4.125 1.814 3502
-0.293 4.403 1.929 1020
-0.282 4.239 1.847 5352
-0.273 4.100 1.790 2594
-0.292 4.379 1.904 1709
-0.285 4.281 1.850 5089
-0.275 4.127 1.788 2500
-0.295 4.420 1.906 1796
-0.285 4.279 1.834 6581
-0.294 4.418 1.890 2261
-0.276 4.139 1.779 1463
-0.286 4.291 1.825 4720
-0.295 4.430 1.880 2874
-0.291 4.369 1.842 4778
-0.282 4.230 1.787 1342
-0.300 4.509 1.897 1130
-0.292 4.382 1.832 4265
-0.301 4.521 1.886 1554
-0.298 4.468 1.851 4653
-0.288 4.328 1.796 2330
-0.307 4.608 1.905 1174
-0.299 4.487 1.843 5320
-0.290 4.347 1.789 2153
-0.310 4.650 1.906 1785
-0.300 4.500 1.833 4412
-0.309 4.640 1.887 3373
-0.290 4.359 1.780 1719
-0.305 4.571 1.845 4937
-0.295 4.431 1.792 3101
-0.314 4.712 1.898 1529
-0.305 4.583 1.835 4591
-0.296 4.443 1.782 3266
-0.316 4.746 1.896 2355
-0.312 4.677 1.854 3696
-0.302 4.537 1.802 2241
-0.321 4.818 1.907 1462
-0.312 4.682 1.841 4780
-0.321 4.823 1.893 1504
-0.303 4.541 1.789 1143
-0.315 4.732 1.844 6155
-0.306 4.591 1.792 2596
-0.325 4.873 1.895 1223
-0.317 4.752 1.835 7111
-0.306 4.595 1.779 1473
-0.326 4.893 1.886 1106
-0.317 4.756 1.822 5802
-0.326 4.898 1.872 1841
-0.307 4.615 1.771 1023
-0.318 4.769 1.810 4495
-0.329 4.940 1.871 2434
-0.324 4.863 1.828 3712
-0.315 4.721 1.778 1674
-0.340 5.109 1.914 1094
-0.325 4.875 1.817 3943
-0.336 5.040 1.874 2128
-0.345 5.181 1.923 1065
-0.327 4.903 1.810 3824
-0.337 5.060 1.864 2989
-0.347 5.202 1.913 1367
-0.327 4.915 1.798 3925
-0.340 5.102 1.862 2994
-0.352 5.281 1.924 1599
-0.341 5.122 1.853 5653
-0.332 4.980 1.805 3564
-0.352 5.279 1.906 2857
-0.342 5.127 1.838 9203
-0.351 5.269 1.885 3282
-0.332 4.985 1.790 3187
-0.342 5.132 1.823 7243
-0.352 5.282 1.873 4080
-0.332 4.989 1.776 1425
-0.354 5.309 1.865 4183
-0.342 5.137 1.808 3537
-0.366 5.490 1.924 1469
-0.355 5.322 1.852 3895
-0.366 5.487 1.905 2324
-0.343 5.142 1.793 1845
-0.356 5.342 1.841 4135
-0.365 5.485 1.887 1765
-0.375 5.628 1.933 1442
-0.343 5.154 1.781 1106
-0.357 5.354 1.828 2548
-0.377 5.656 1.924 1584
-0.366 5.497 1.874 1373
-0.362 5.427 1.834 3299
-0.378 5.668 1.910 2032
-0.376 5.643 1.884 3103
-0.361 5.424 1.816 2764
-0.386 5.786 1.929 1138
-0.376 5.641 1.865 2825
-0.366 5.497 1.821 1843
-0.385 5.784 1.910 1781
-0.389 5.835 1.907 3142
-0.376 5.646 1.849 1872
-0.367 5.502 1.805 1259
-0.390 5.847 1.892 5766
-0.380 5.704 1.849 1863
-0.390 5.852 1.875 4825
-0.380 5.709 1.832 1434
-0.400 5.996 1.918 1380
-0.391 5.865 1.860 2176
-0.404 6.062 1.919 1999
-0.381 5.721 1.818 1355
-0.405 6.082 1.906 2073
-0.393 5.900 1.852 1634
-0.415 6.234 1.950 1121
-0.384 5.756 1.810 1094
-0.407 6.103 1.892 2039
-0.417 6.262 1.939 1732
-0.395 5.936 1.844 1518
-0.407 6.108 1.875 2653
-0.419 6.290 1.927 1791
-0.396 5.948 1.829 1071
-0.407 6.113 1.857 2316
-0.419 6.295 1.909 1720
-0.420 6.308 1.893 2493
-0.408 6.125 1.841 2282
-0.439 6.589 1.971 1717
-0.450 6.749 2.016 1559
-0.451 6.762 1.999 2691
-0.422 6.328 1.878 2382
-0.439 6.595 1.952 2083
-0.410 6.153 1.830 2078
-0.450 6.752 1.975 3113
-0.425 6.371 1.870 1737
-0.439 6.592 1.931 1645
-0.406 6.097 1.795 1259
-0.449 6.742 1.951 3305
-0.459 6.887 1.990 2034
-0.440 6.597 1.912 1810
-0.469 7.032 2.030 1245
-0.449 6.740 1.930 3900
-0.459 6.885 1.968 2237
-0.439 6.595 1.891 1934
-0.478 7.175 2.046 1878
-0.450 6.753 1.912 3349
-0.460 6.898 1.950 1880
-0.479 7.188 2.027 1817
-0.440 6.608 1.874 1648
-0.453 6.796 1.902 2150
-0.491 7.369 2.052 1711
-0.480 7.209 2.010 1520
-0.462 6.941 1.940 1372
-0.460 6.908 1.910 2023
-0.493 7.405 2.039 1820
-0.506 7.597 2.088 1785
-0.480 7.207 1.987 1312
-0.506 7.595 2.064 1987
-0.462 6.929 1.894 1238
-0.478 7.174 1.957 1237
-0.493 7.403 2.015 1235
-0.505 7.577 2.036 1992
-0.516 7.738 2.077 1932
-0.492 7.386 1.988 1218
-0.479 7.194 1.940 1211
-0.509 7.636 2.028 1850
-0.519 7.782 2.064 1564
-0.499 7.491 1.991 1192
-0.539 8.089 2.140 1008
-0.520 7.803 2.045 1999
-0.509 7.642 2.005 1809
-0.541 8.118 2.122 1480
-0.531 7.972 2.086 1238
-0.523 7.847 2.032 1992
-0.552 8.285 2.138 1576
-0.533 7.993 2.067 1417
-0.562 8.430 2.173 1263
-0.561 8.413 2.143 2051
-0.547 8.206 2.093 1571
-0.526 7.891 2.018 1414
-0.535 8.037 2.053 1023
-0.547 8.204 2.068 1662
-0.561 8.419 2.119 1570
-0.581 8.719 2.190 1136
-0.531 7.965 2.011 1100
-0.547 8.209 2.044 1619
-0.559 8.394 2.087 1512
-0.581 8.717 2.162 1031
-0.560 8.407 2.064 1721
-0.546 8.199 2.016 1356
-0.586 8.800 2.155 1288
-0.586 8.790 2.126 2393
-0.565 8.475 2.054 1414
-0.554 8.313 2.017 1078
-0.599 8.991 2.171 1016
-0.586 8.788 2.098 2147
-0.566 8.488 2.031 1654
-0.587 8.810 2.076 1289
-0.611 9.164 2.155 1159
-0.611 9.170 2.128 1455
-0.625 9.379 2.174 1076
-0.588 8.823 2.052 1033
-0.625 9.384 2.146 1464
-0.646 9.701 2.214 1059
-0.647 9.715 2.188 1560
-0.626 9.390 2.119 1513
-0.637 9.560 2.155 1339
-0.647 9.713 2.158 1985
-0.637 9.566 2.127 1421
-0.622 9.342 2.080 1286
-0.664 9.960 2.210 1149
-0.647 9.711 2.128 2131
-0.637 9.564 2.098 1328
-0.667 10.013 2.190 1038
-0.648 9.725 2.101 1902
-0.638 9.578 2.071 1635
-0.648 9.723 2.071 1365
-0.638 9.575 2.042 1228
-0.593 8.901 1.827 1345
-0.593 8.906 1.801 1432
-0.733 11.002 2.194 1112
-0.753 11.297 2.249 1052
-0.594 8.911 1.775 1154
-0.767 11.505 2.254 1103
-0.753 11.296 2.215 1058
-0.776 11.653 2.281 1001
-0.810 12.155 2.301 1310
-0.600 9.006 1.738 1030
-0.811 12.177 2.268 1895
-0.600 9.002 1.711 1304
-0.799 11.990 2.235 1101
-0.787 11.811 2.204 1027
-0.812 12.183 2.232 1532
-0.600 9.007 1.684 1209
-0.798 11.981 2.197 1164
-0.601 9.019 1.660 1019
-0.889 13.348 2.353 1166
-0.860 12.912 2.281 1134
-0.601 9.024 1.633 1120
-0.890 13.363 2.316 1247
-0.861 12.918 2.243 1184
-0.601 9.020 1.606 1035
-0.861 12.924 2.205 1000
-0.151 2.332 1.821 3291
-0.153 2.369 1.837 8446
-0.145 2.248 1.749 1451
-0.154 2.386 1.840 12771
-0.147 2.265 1.751 1688
-0.162 2.508 1.928 1679
-0.154 2.385 1.828 9667
-0.162 2.507 1.917 2368
-0.146 2.263 1.740 1071
-0.159 2.460 1.872 9078
-0.151 2.338 1.785 2500
-0.160 2.472 1.870 9007
-0.152 2.350 1.783 2349
-0.160 2.477 1.863 9220
-0.152 2.354 1.776 1669
-0.161 2.482 1.856 9220
-0.153 2.359 1.769 1669
-0.169 2.605 1.943 1253
-0.160 2.467 1.835 10717
-0.168 2.590 1.921 2892
-0.160 2.466 1.823 13387
-0.168 2.589 1.909 4564
-0.161 2.484 1.825 12950
-0.169 2.607 1.911 3747
-0.161 2.495 1.823 13744
-0.169 2.619 1.908 3775
-0.163 2.526 1.834 12096
-0.171 2.650 1.918 1572
-0.165 2.551 1.840 14783
-0.173 2.675 1.924 1539
-0.157 2.427 1.755 1068
-0.165 2.556 1.832 14783
-0.173 2.680 1.916 2209
-0.166 2.567 1.829 13680
-0.174 2.692 1.913 2098
-0.167 2.579 1.826 12925
-0.175 2.704 1.910 1648
-0.168 2.590 1.823 10803
-0.176 2.715 1.906 1642
-0.169 2.615 1.829 10252
-0.177 2.740 1.912 1658
-0.169 2.613 1.817 9700
-0.177 2.739 1.900 1762
-0.169 2.618 1.810 9427
-0.178 2.757 1.900 1805
-0.170 2.629 1.806 7355
-0.178 2.756 1.888 2417
-0.172 2.661 1.816 7209
-0.180 2.787 1.897 2389
-0.173 2.666 1.808 6081
-0.181 2.792 1.889 3816
-0.181 2.797 1.881 5243
-0.172 2.664 1.797 5078
-0.182 2.809 1.877 4959
-0.173 2.675 1.793 4583
-0.183 2.821 1.874 4801
-0.174 2.694 1.794 4487
-0.191 2.955 1.958 1376
-0.176 2.725 1.803 5604
-0.185 2.853 1.882 3990
-0.193 2.980 1.962 1328
-0.177 2.737 1.799 7540
-0.186 2.878 1.886 4810
-0.178 2.755 1.800 7696
-0.187 2.883 1.878 5944
-0.195 3.011 1.957 1051
-0.170 2.627 1.721 1004
-0.179 2.767 1.796 8217
-0.187 2.895 1.874 6860
-0.196 3.023 1.952 1059
-0.186 2.880 1.853 5644
-0.178 2.751 1.776 5013
-0.195 3.008 1.931 1779
-0.184 2.844 1.821 5543
-0.192 2.973 1.898 3879
-0.176 2.715 1.743 1090
-0.186 2.869 1.825 5441
-0.194 2.998 1.902 2952
-0.177 2.740 1.748 1360
-0.192 2.969 1.873 6325
-0.184 2.840 1.796 4068
-0.201 3.098 1.950 1501
-0.192 2.968 1.860 7281
-0.184 2.838 1.784 2328
-0.200 3.097 1.937 1808
-0.191 2.959 1.844 8512
-0.200 3.088 1.920 2050
-0.191 2.957 1.831 7409
-0.202 3.121 1.927 1637
-0.191 2.948 1.815 5197
-0.199 3.078 1.890 2635
-0.190 2.939 1.799 4367
-0.200 3.083 1.881 3355
-0.199 3.082 1.869 3924
-0.191 2.951 1.794 3075
-0.200 3.087 1.860 4531
-0.189 2.922 1.766 1846
-0.201 3.098 1.855 4700
-0.192 2.968 1.781 1465
-0.201 3.110 1.850 5230
-0.193 2.979 1.776 1082
-0.202 3.122 1.845 4677
-0.211 3.253 1.917 1365
-0.194 2.991 1.772 1303
-0.197 3.051 1.794 4445
-0.206 3.183 1.866 2664
-0.198 3.063 1.789 5534
-0.211 3.264 1.899 3325
-0.198 3.061 1.776 5676
-0.212 3.276 1.893 4436
-0.197 3.045 1.756 6372
-0.213 3.288 1.887 5759
-0.197 3.042 1.743 7213
-0.213 3.286 1.874 5809
-0.221 3.418 1.945 1168
-0.197 3.047 1.735 7397
-0.213 3.298 1.868 5980
-0.222 3.431 1.939 1519
-0.214 3.310 1.863 6399
-0.197 3.045 1.722 5951
-0.206 3.177 1.792 2355
-0.223 3.443 1.933 1658
-0.215 3.315 1.853 5308
-0.196 3.035 1.706 4922
-0.206 3.182 1.783 1976
-0.223 3.448 1.923 1830
-0.197 3.040 1.697 4695
-0.220 3.404 1.887 4666
-0.212 3.271 1.818 1398
-0.221 3.416 1.881 6511
-0.197 3.044 1.689 4370
-0.212 3.283 1.812 1286
-0.221 3.421 1.871 8953
-0.197 3.049 1.680 4272
-0.213 3.288 1.803 1241
-0.222 3.433 1.865 12096
-0.198 3.053 1.671 3607
-0.231 3.567 1.933 1850
-0.214 3.300 1.797 1218
-0.222 3.438 1.855 12603
-0.197 3.044 1.655 3332
-0.231 3.572 1.923 2804
-0.223 3.443 1.845 11030
-0.197 3.048 1.646 3798
-0.234 3.620 1.934 2976
-0.223 3.448 1.835 7830
-0.235 3.632 1.927 4102
-0.197 3.045 1.634 3087
-0.224 3.467 1.833 6010
-0.235 3.637 1.917 4338
-0.196 3.035 1.618 2602
-0.225 3.472 1.823 5665
-0.237 3.657 1.913 4292
-0.197 3.040 1.610 2699
-0.237 3.662 1.903 5069
-0.225 3.477 1.813 4280
-0.197 3.044 1.601 2794
-0.239 3.695 1.906 6500
-0.230 3.560 1.840 4740
-0.197 3.041 1.589 2370
-0.239 3.700 1.895 8170
-0.231 3.565 1.830 6600
-0.197 3.038 1.576 1734
-0.240 3.706 1.885 7824
-0.231 3.570 1.820 7598
-0.196 3.028 1.561 1511
-0.234 3.618 1.830 7171
-0.243 3.754 1.894 3472
-0.196 3.032 1.552 1418
-0.241 3.730 1.870 6215
-0.233 3.594 1.806 3218
-0.196 3.036 1.543 1495
-0.250 3.866 1.934 1251
-0.242 3.742 1.863 7699
-0.233 3.606 1.799 1778
-0.196 3.026 1.528 1619
-0.251 3.878 1.926 1461
-0.242 3.747 1.852 9349
-0.251 3.883 1.915 2030
-0.196 3.023 1.516 1584
-0.234 3.611 1.789 1540
-0.242 3.745 1.838 8481
-0.251 3.881 1.900 3918
-0.198 3.056 1.521 1534
-0.249 3.843 1.870 8725
-0.240 3.707 1.807 3486
-0.195 3.017 1.492 2041
-0.250 3.856 1.862 8999
-0.241 3.719 1.800 2831
-0.195 3.021 1.483 2814
-0.245 3.781 1.815 8809
-0.254 3.918 1.876 6842
-0.195 3.017 1.471 2704
-0.245 3.786 1.804 6847
-0.254 3.923 1.865 6123
-0.196 3.021 1.463 1986
-0.255 3.943 1.860 5944
-0.246 3.798 1.796 4154
-0.264 4.080 1.921 1603
-0.196 3.025 1.454 1371
-0.256 3.955 1.852 6353
-0.265 4.092 1.912 3087
-0.247 3.810 1.788 2523
-0.256 3.960 1.841 5955
-0.265 4.098 1.901 3882
-0.247 3.822 1.781 1532
-0.274 4.235 1.961 1004
-0.262 4.045 1.864 6576
-0.271 4.183 1.923 1944
-0.250 3.856 1.782 1500
-0.261 4.035 1.846 7962
-0.270 4.173 1.905 2423
-0.252 3.897 1.787 1075
-0.261 4.033 1.831 7643
-0.270 4.171 1.890 3605
-0.261 4.038 1.819 7075
-0.270 4.176 1.878 4257
-0.266 4.108 1.835 8857
-0.275 4.254 1.896 4603
-0.257 3.970 1.777 1254
-0.276 4.267 1.887 7380
-0.267 4.121 1.826 6911
-0.276 4.264 1.871 7308
-0.267 4.125 1.814 3763
-0.285 4.403 1.929 1131
-0.274 4.240 1.847 5464
-0.265 4.101 1.790 2458
-0.284 4.386 1.907 1814
-0.277 4.274 1.847 5186
-0.268 4.135 1.791 2494
-0.286 4.421 1.906 2066
-0.276 4.272 1.832 6567
-0.285 4.411 1.887 2863
-0.267 4.133 1.776 1449
-0.284 4.394 1.866 5206
-0.275 4.255 1.810 3991
-0.285 4.399 1.853 4799
-0.276 4.260 1.798 1876
-0.285 4.404 1.840 4073
-0.297 4.596 1.915 1429
-0.290 4.483 1.856 4479
-0.281 4.343 1.802 2787
-0.299 4.623 1.911 1122
-0.290 4.488 1.843 4765
-0.281 4.348 1.789 2659
-0.299 4.628 1.897 1487
-0.299 4.618 1.878 3677
-0.290 4.478 1.825 3407
-0.281 4.338 1.771 1301
-0.296 4.579 1.848 4833
-0.287 4.439 1.795 3717
-0.305 4.720 1.901 1668
-0.296 4.577 1.832 4695
-0.287 4.436 1.779 3245
-0.308 4.754 1.898 2411
-0.297 4.596 1.824 3926
-0.308 4.759 1.885 3851
-0.288 4.456 1.772 1598
-0.299 4.616 1.816 4902
-0.308 4.757 1.868 4305
-0.306 4.732 1.844 6447
-0.297 4.591 1.792 3022
-0.315 4.873 1.895 1194
-0.308 4.752 1.835 7136
-0.298 4.611 1.784 1712
-0.317 4.893 1.886 1110
-0.308 4.757 1.822 5716
-0.317 4.898 1.872 1406
-0.299 4.616 1.771 1243
-0.309 4.769 1.810 4489
-0.320 4.948 1.874 1746
-0.299 4.628 1.760 1192
-0.314 4.856 1.825 4824
-0.305 4.715 1.776 1447
-0.330 5.102 1.912 1164
-0.315 4.869 1.814 4158
-0.327 5.048 1.876 2125
-0.336 5.190 1.926 1064
-0.317 4.896 1.808 3340
-0.327 5.053 1.862 2973
-0.336 5.195 1.911 1561
-0.318 4.908 1.796 3714
-0.330 5.095 1.860 2553
-0.342 5.282 1.924 1727
-0.331 5.115 1.850 5368
-0.322 4.973 1.802 3097
-0.342 5.280 1.906 2911
-0.332 5.128 1.838 8965
-0.341 5.270 1.885 3069
-0.323 4.985 1.790 2829
-0.332 5.133 1.823 7200
-0.341 5.275 1.870 3828
-0.323 4.990 1.776 1242
-0.344 5.318 1.867 3631
-0.333 5.145 1.810 3427
-0.355 5.490 1.924 1348
-0.345 5.330 1.854 3916
-0.355 5.488 1.905 2309
-0.334 5.165 1.800 1484
-0.345 5.335 1.839 4227
-0.355 5.486 1.887 2002
-0.364 5.628 1.933 1547
-0.347 5.355 1.828 2722
-0.365 5.641 1.919 1831
-0.356 5.498 1.874 1516
-0.351 5.420 1.832 3776
-0.362 5.601 1.889 2663
-0.364 5.621 1.877 3712
-0.351 5.425 1.816 3059
-0.373 5.765 1.922 1620
-0.365 5.641 1.865 3157
-0.374 5.785 1.910 2310
-0.356 5.498 1.821 1432
-0.378 5.835 1.907 3412
-0.365 5.639 1.847 1813
-0.356 5.495 1.803 1042
-0.379 5.856 1.894 5675
-0.370 5.712 1.851 1665
-0.379 5.861 1.877 4497
-0.370 5.717 1.834 1569
-0.392 6.065 1.939 1150
-0.372 5.752 1.827 2031
-0.388 5.994 1.899 1838
-0.397 6.138 1.941 1018
-0.387 5.984 1.877 2064
-0.397 6.129 1.919 1597
-0.378 5.840 1.835 1180
-0.395 6.103 1.892 2110
-0.405 6.263 1.939 1616
-0.385 5.952 1.848 1586
-0.396 6.124 1.879 2063
-0.407 6.283 1.925 1273
-0.386 5.972 1.835 1095
-0.398 6.144 1.866 1907
-0.407 6.296 1.909 1235
-0.388 5.999 1.825 1011
-0.408 6.309 1.893 2493
-0.397 6.141 1.846 2456
-0.427 6.598 1.974 1485
-0.436 6.742 2.014 1380
-0.412 6.359 1.887 2950
-0.396 6.116 1.819 2773
-0.437 6.755 1.997 2431
-0.428 6.611 1.956 1831
-0.437 6.753 1.975 3190
-0.412 6.372 1.870 2310
-0.395 6.105 1.797 1758
-0.427 6.593 1.931 1228
-0.439 6.781 1.961 3099
-0.456 7.041 2.032 1426
-0.427 6.606 1.914 1208
-0.414 6.392 1.856 1042
-0.437 6.748 1.932 3479
-0.446 6.893 1.970 2173
-0.464 7.176 2.046 2130
-0.427 6.603 1.893 1434
-0.438 6.761 1.914 3399
-0.465 7.181 2.025 2062
-0.447 6.906 1.952 1814
-0.428 6.608 1.874 1273
-0.438 6.774 1.896 1921
-0.448 6.919 1.934 1795
-0.477 7.370 2.052 1761
-0.466 7.194 2.006 1579
-0.448 6.917 1.912 2051
-0.479 7.406 2.039 1831
-0.491 7.590 2.086 1698
-0.465 7.192 1.983 1420
-0.491 7.580 2.060 1835
-0.448 6.930 1.894 1364
-0.464 7.175 1.957 1324
-0.479 7.404 2.015 1147
-0.489 7.563 2.032 2169
-0.501 7.747 2.079 1979
-0.479 7.394 1.990 1335
-0.466 7.195 1.940 1300
-0.495 7.645 2.029 2027
-0.504 7.791 2.066 1493
-0.480 7.415 1.972 1378
-0.524 8.105 2.144 1080
-0.495 7.651 2.007 2097
-0.506 7.819 2.049 1839
-0.525 8.119 2.122 1717
-0.516 7.973 2.086 1325
-0.509 7.863 2.035 2218
-0.536 8.286 2.138 1577
-0.527 8.140 2.102 1373
-0.495 7.648 1.983 1337
-0.511 7.899 2.020 1905
-0.544 8.407 2.141 1815
-0.532 8.215 2.095 1651
-0.531 8.212 2.070 1785
-0.544 8.412 2.117 1467
-0.515 7.951 2.008 1242
-0.565 8.728 2.191 1013
-0.531 8.203 2.042 1737
-0.543 8.395 2.087 1489
-0.544 8.408 2.064 1476
-0.530 8.193 2.015 1325
-0.570 8.801 2.155 1288
-0.569 8.791 2.126 2361
-0.548 8.476 2.054 1393
-0.569 8.797 2.100 2102
-0.549 8.489 2.031 1536
-0.572 8.834 2.081 1350
-0.593 9.158 2.153 1119
-0.593 9.164 2.126 1397
-0.606 9.372 2.172 1034
-0.571 8.824 2.052 1016
-0.607 9.386 2.146 1537
-0.608 9.391 2.119 1654
-0.618 9.554 2.153 1431
-0.629 9.716 2.188 1262
-0.629 9.714 2.158 1669
-0.618 9.552 2.124 1659
-0.605 9.351 2.082 1395
-0.645 9.962 2.210 1103
-0.629 9.712 2.128 1727
-0.618 9.558 2.096 1472
-0.619 9.571 2.070 1698
-0.629 9.726 2.101 1481
-0.620 9.577 2.042 1158
-0.629 9.724 2.071 1085
-0.569 8.791 1.859 1073
-0.649 10.032 2.103 1048
-0.651 10.061 2.078 1069
-0.576 8.902 1.827 1160
-0.713 11.021 2.231 1134
-0.731 11.299 2.249 1419
-0.712 11.004 2.194 1281
-0.576 8.907 1.801 1186
-0.731 11.297 2.215 1350
-0.712 11.010 2.162 1107
-0.745 11.507 2.254 1065
-0.731 11.295 2.181 1138
-0.715 11.054 2.137 1053
-0.583 9.002 1.764 1016
-0.583 9.007 1.738 1602
-0.786 12.149 2.299 1003
-0.583 9.004 1.711 2011
-0.788 12.171 2.267 1395
-0.776 11.992 2.235 1161
-0.764 11.813 2.204 1094
-0.583 9.008 1.684 1853
-0.776 11.990 2.199 1202
-0.788 12.185 2.232 1188
-0.584 9.020 1.660 1524
-0.584 9.017 1.632 1645
-0.836 12.914 2.281 1103
-0.864 13.350 2.353 1035
-0.584 9.021 1.606 1570
-0.836 12.920 2.243 1226
-0.865 13.364 2.316 1108
-0.815 12.592 2.190 1007
-0.147 2.332 1.821 2930
-0.149 2.369 1.837 7666
-0.142 2.248 1.749 1450
-0.150 2.387 1.840 11701
-0.143 2.265 1.751 1644
-0.158 2.508 1.928 1576
-0.150 2.385 1.828 9034
-0.158 2.507 1.917 2164
-0.143 2.264 1.740 1107
-0.155 2.461 1.872 8373
-0.147 2.339 1.785 2275
-0.155 2.466 1.865 8672
-0.148 2.344 1.778 1758
-0.156 2.477 1.863 9260
-0.148 2.355 1.776 1574
-0.156 2.482 1.856 9260
-0.149 2.359 1.769 1574
-0.155 2.468 1.835 11184
-0.163 2.591 1.921 2269
-0.155 2.466 1.823 14211
-0.163 2.589 1.909 3620
-0.156 2.478 1.821 13746
-0.164 2.601 1.907 3764
-0.157 2.495 1.823 14413
-0.165 2.619 1.908 3368
-0.159 2.520 1.829 12266
-0.167 2.644 1.914 1801
-0.161 2.551 1.840 14582
-0.169 2.675 1.924 1434
-0.161 2.556 1.832 14582
-0.169 2.680 1.916 2077
-0.162 2.567 1.829 13205
-0.170 2.692 1.913 2053
-0.162 2.579 1.826 12168
-0.170 2.704 1.910 1679
-0.163 2.584 1.819 10226
-0.171 2.709 1.902 2017
