2.909 8.630 2.027 5974
2.850 8.453 1.988 5700
2.904 8.613 1.996 6148
2.849 8.451 1.961 3530
2.905 8.618 1.969 5772
2.856 8.471 1.938 3514
2.857 8.476 1.912 3152
2.914 8.645 1.948 3099
2.919 8.657 1.923 2647
2.859 8.481 1.886 2229
3.228 9.575 2.082 2912
2.920 8.662 1.896 2361
3.228 9.573 2.052 3498
3.290 9.758 2.088 1754
3.224 9.564 2.019 3347
3.294 9.770 2.060 2290
3.221 9.554 1.987 3944
3.296 9.776 2.030 2440
3.223 9.559 1.958 4357
3.292 9.766 1.997 1662
3.227 9.572 1.930 2932
3.805 11.285 2.252 1282
3.804 11.284 2.216 1766
3.296 9.776 1.937 1388
3.806 11.289 2.181 2175
3.704 10.986 2.126 1184
3.803 11.280 2.144 1914
3.928 11.650 2.210 868
3.802 11.278 2.108 1641
3.922 11.633 2.170 920
3.804 11.284 2.074 1574
4.071 12.076 2.210 1054
3.806 11.289 2.039 1155
4.063 12.052 2.168 922
4.057 12.035 2.127 890
3.883 11.516 2.041 783
4.572 13.561 2.338 733
4.059 12.041 2.090 623
4.589 13.611 2.303 643
4.379 12.988 2.204 620
4.511 13.380 2.224 609
4.303 12.764 2.128 506
4.508 13.370 2.181 584
0.751 2.213 1.821 3009
0.755 2.223 1.819 6067
0.716 2.108 1.730 1245
0.767 2.258 1.835 7155
0.728 2.143 1.747 4756
0.756 2.227 1.801 6364
0.795 2.342 1.889 1325
0.751 2.213 1.780 7616
0.791 2.329 1.868 3478
0.755 2.223 1.778 7964
0.794 2.339 1.865 2946
0.756 2.228 1.771 8488
0.796 2.344 1.858 3146
0.758 2.233 1.765 8488
0.798 2.349 1.851 3146
0.766 2.255 1.771 8578
0.805 2.372 1.858 4115
0.769 2.266 1.769 10039
0.809 2.383 1.855 5392
0.792 2.332 1.807 10565
0.752 2.215 1.722 1551
0.791 2.331 1.796 12274
0.831 2.448 1.881 2107
0.816 2.403 1.838 10586
0.776 2.286 1.753 4930
0.818 2.408 1.831 13306
0.778 2.290 1.746 2837
0.819 2.413 1.823 13306
0.779 2.295 1.739 2058
0.821 2.417 1.816 12597
0.781 2.299 1.732 1280
0.822 2.422 1.809 11859
0.782 2.303 1.725 1362
0.824 2.426 1.802 13746
0.784 2.308 1.718 1124
0.828 2.437 1.799 16039
0.868 2.556 1.881 855
0.829 2.442 1.791 17243
0.870 2.561 1.874 1668
0.831 2.446 1.784 18448
0.871 2.566 1.866 2481
0.830 2.445 1.772 14094
0.871 2.564 1.854 3988
0.829 2.443 1.760 10639
0.870 2.563 1.842 4946
0.831 2.447 1.753 7498
0.889 2.618 1.868 4814
0.893 2.629 1.864 6841
0.848 2.496 1.775 6531
0.894 2.634 1.856 6909
0.853 2.513 1.776 5855
0.898 2.645 1.853 7106
0.857 2.524 1.773 5631
0.863 2.541 1.774 5650
0.904 2.662 1.853 5452
0.864 2.546 1.766 5391
0.914 2.693 1.862 4638
0.914 2.691 1.849 5425
0.868 2.557 1.762 4243
0.915 2.696 1.841 6278
0.874 2.574 1.763 3343
0.917 2.700 1.833 5312
0.876 2.579 1.755 3332
0.923 2.718 1.833 4502
0.881 2.596 1.755 3748
0.931 2.742 1.837 4469
0.889 2.620 1.760 3111
0.935 2.753 1.833 4713
0.893 2.631 1.756 2503
0.939 2.764 1.828 5371
0.897 2.642 1.752 1848
0.942 2.775 1.824 6373
0.883 2.601 1.716 1015
0.939 2.767 1.808 6051
0.981 2.890 1.883 1812
0.934 2.752 1.787 5811
0.976 2.875 1.863 5149
0.974 2.867 1.846 7114
0.932 2.744 1.771 5939
0.975 2.872 1.837 6874
0.933 2.748 1.763 5675
0.977 2.877 1.829 6634
0.935 2.753 1.754 5411
0.980 2.888 1.824 7342
0.938 2.764 1.750 4473
0.987 2.906 1.823 7509
0.944 2.781 1.749 2368
0.990 2.917 1.818 7219
0.948 2.792 1.745 1315
0.994 2.928 1.813 6064
0.952 2.803 1.740 2029
0.998 2.939 1.808 4728
0.955 2.814 1.735 2697
1.002 2.950 1.802 6581
0.959 2.825 1.731 1997
1.006 2.961 1.797 9194
1.048 3.087 1.869 1631
1.007 2.966 1.788 9681
1.050 3.092 1.859 1512
1.011 2.977 1.783 7094
1.054 3.103 1.854 2128
1.015 2.988 1.778 4533
1.057 3.114 1.848 2753
1.025 3.019 1.783 5610
1.068 3.146 1.853 2179
1.029 3.031 1.778 7333
1.072 3.157 1.847 2040
1.031 3.035 1.769 7574
1.073 3.162 1.838 1931
1.030 3.033 1.756 6365
1.073 3.160 1.824 2088
1.031 3.037 1.747 4657
1.074 3.164 1.815 2734
1.065 3.136 1.787 3780
1.108 3.263 1.855 2437
1.084 3.194 1.806 4827
1.041 3.066 1.739 2956
1.086 3.198 1.797 8656
1.043 3.071 1.729 2572
1.071 3.156 1.762 9688
1.115 3.283 1.829 5229
1.071 3.154 1.749 10842
1.114 3.281 1.816 7630
1.116 3.286 1.806 9899
1.072 3.158 1.740 8151
1.122 3.304 1.803 11498
1.078 3.176 1.737 4087
1.123 3.309 1.792 10682
1.167 3.437 1.858 3418
1.125 3.313 1.782 8636
1.169 3.442 1.847 3899
1.131 3.331 1.779 7971
1.175 3.460 1.843 3501
1.140 3.356 1.779 8330
1.183 3.485 1.843 3734
1.160 3.415 1.796 8176
1.113 3.279 1.729 2644
1.161 3.420 1.785 8067
1.205 3.549 1.848 3003
1.195 3.520 1.821 6582
1.151 3.390 1.758 5876
1.208 3.558 1.827 7276
1.164 3.429 1.764 3308
1.212 3.570 1.819 6280
1.168 3.440 1.757 2653
1.188 3.499 1.773 6078
1.232 3.629 1.834 1813
1.199 3.531 1.775 6031
1.245 3.668 1.839 1961
1.200 3.536 1.764 5753
1.245 3.666 1.825 2626
1.251 3.684 1.820 4655
1.202 3.540 1.754 3395
1.241 3.654 1.793 7231
1.285 3.785 1.853 3543
1.238 3.645 1.776 7960
1.282 3.776 1.835 5481
1.274 3.753 1.811 7529
1.230 3.622 1.752 4043
1.276 3.758 1.800 9291
1.320 3.889 1.859 2970
1.280 3.769 1.792 9965
1.324 3.901 1.850 3201
1.281 3.774 1.780 6891
1.326 3.905 1.838 3011
1.285 3.785 1.772 4853
1.339 3.945 1.841 3682
1.339 3.942 1.826 5271
1.294 3.811 1.769 4063
1.324 3.898 1.793 5473
1.368 4.030 1.850 2398
1.325 3.903 1.782 7778
1.372 4.042 1.841 5369
1.329 3.914 1.773 8185
1.374 4.047 1.829 6086
1.335 3.933 1.767 6399
1.380 4.065 1.822 3627
1.401 4.126 1.833 4390
1.356 3.993 1.778 3588
1.400 4.123 1.817 5640
1.355 3.991 1.763 3933
1.385 4.079 1.785 5842
1.435 4.226 1.845 3337
1.405 4.140 1.795 4603
1.451 4.273 1.849 2926
1.409 4.151 1.785 4788
1.455 4.284 1.839 2901
1.492 4.394 1.868 3864
1.442 4.247 1.809 2490
1.491 4.392 1.851 4909
1.446 4.258 1.799 2952
1.490 4.390 1.835 4571
1.536 4.523 1.887 2875
1.487 4.380 1.816 4477
1.535 4.521 1.871 3510
1.537 4.526 1.857 4148
1.479 4.357 1.792 4106
1.538 4.530 1.843 6594
1.481 4.361 1.779 3762
1.537 4.528 1.827 7465
1.588 4.676 1.883 4400
1.587 4.674 1.866 6619
1.541 4.540 1.816 5312
1.591 4.686 1.854 6565
1.545 4.551 1.804 4259
1.597 4.705 1.845 6174
1.552 4.570 1.796 3787
1.599 4.709 1.831 5397
1.553 4.575 1.782 2408
1.603 4.721 1.819 3652
1.649 4.856 1.867 1377
1.609 4.740 1.810 3271
1.655 4.875 1.858 2168
1.611 4.745 1.795 3331
1.657 4.880 1.843 2053
1.622 4.778 1.791 3490
1.699 5.005 1.870 1989
1.677 4.939 1.830 2888
1.619 4.768 1.771 2406
1.720 5.065 1.857 3811
1.674 4.929 1.810 2541
1.716 5.055 1.836 4602
1.762 5.191 1.882 1961
1.718 5.060 1.821 3291
1.767 5.203 1.869 2636
1.778 5.236 1.862 2769
1.732 5.100 1.817 2011
1.762 5.191 1.830 2605
1.809 5.327 1.875 1901
1.803 5.310 1.851 2602
1.757 5.174 1.807 1918
1.878 5.530 1.904 2401
1.792 5.279 1.824 2210
1.879 5.535 1.888 3589
1.823 5.370 1.835 1473
1.881 5.540 1.871 3086
1.820 5.360 1.814 1874
1.819 5.357 1.795 2599
1.882 5.544 1.854 1893
1.891 5.571 1.843 2503
1.938 5.707 1.886 2034
1.930 5.683 1.859 2634
1.883 5.547 1.818 1969
1.943 5.724 1.853 2029
1.992 5.868 1.896 1875
2.021 5.952 1.902 2270
1.943 5.722 1.833 2056
1.998 5.885 1.863 2197
1.942 5.719 1.814 1610
2.000 5.890 1.845 2201
2.142 6.309 1.967 2082
2.122 6.249 1.929 3695
2.168 6.386 1.969 1733
2.121 6.247 1.908 5246
2.172 6.399 1.951 2953
2.123 6.251 1.889 4581
2.177 6.411 1.934 3852
2.149 6.329 1.890 3977
2.196 6.466 1.928 2031
2.150 6.333 1.870 2624
2.288 6.740 1.982 2533
2.293 6.752 1.964 2913
2.140 6.302 1.841 1887
2.297 6.764 1.945 2946
2.344 6.902 1.982 1780
2.301 6.777 1.926 2562
2.348 6.915 1.963 1920
2.349 6.920 1.942 1863
2.302 6.781 1.905 1394
2.361 6.954 1.928 1783
2.499 7.361 2.034 1356
2.613 7.695 2.095 1979
2.509 7.389 2.017 1533
2.612 7.693 2.070 2148
2.513 7.401 1.996 1583
2.624 7.727 2.053 1586
2.515 7.406 1.973 762
2.628 7.740 2.031 1440
2.757 8.119 2.125 990
2.627 7.738 2.006 1664
2.709 7.979 2.064 1415
2.624 7.728 1.979 1614
2.711 7.984 2.040 1531
2.844 8.377 2.107 2334
2.621 7.718 1.951 1299
2.851 8.397 2.085 4202
2.913 8.580 2.127 1900
2.855 8.410 2.061 5159
2.915 8.585 2.101 2690
2.862 8.430 2.038 5041
2.919 8.598 2.076 4133
2.866 8.442 2.014 7033
2.926 8.618 2.053 6389
2.928 8.623 2.027 6158
2.868 8.447 1.988 5870
2.920 8.599 1.994 6817
2.867 8.445 1.961 3551
2.921 8.604 1.968 6325
2.871 8.457 1.936 3304
2.933 8.639 1.948 2978
2.876 8.470 1.912 2931
2.937 8.651 1.923 2530
2.877 8.474 1.886 2015
3.249 9.569 2.082 2987
2.936 8.649 1.895 2401
3.248 9.566 2.052 3477
3.311 9.751 2.088 1977
3.245 9.557 2.019 2960
3.315 9.763 2.060 2748
3.242 9.547 1.987 3497
3.317 9.769 2.030 3033
3.243 9.552 1.958 4005
3.313 9.759 1.997 2084
3.250 9.572 1.931 2745
3.363 9.904 1.994 1370
3.828 11.275 2.216 1843
3.317 9.769 1.937 1339
3.830 11.281 2.181 2342
3.727 10.978 2.126 1196
3.827 11.272 2.144 2075
3.953 11.642 2.210 973
3.827 11.270 2.108 1625
3.950 11.632 2.172 980
3.828 11.275 2.074 1495
4.097 12.067 2.210 1116
3.830 11.281 2.039 1118
4.089 12.043 2.168 945
4.083 12.027 2.127 911
3.907 11.508 2.041 751
4.601 13.551 2.338 706
4.085 12.032 2.090 673
4.251 12.519 2.130 601
4.407 12.979 2.204 588
4.539 13.370 2.224 663
4.333 12.762 2.129 504
4.534 13.353 2.180 707
0.736 2.151 1.774 3259
0.737 2.155 1.767 6518
0.777 2.270 1.856 3492
0.772 2.257 1.835 7307
0.733 2.141 1.747 5545
0.759 2.219 1.796 6853
0.798 2.334 1.884 1661
0.756 2.211 1.780 8383
0.796 2.327 1.868 3277
0.758 2.216 1.773 8343
0.798 2.331 1.861 3510
0.762 2.226 1.771 8378
0.801 2.342 1.858 3217
0.763 2.231 1.765 8378
0.803 2.347 1.851 3217
0.773 2.260 1.776 8246
0.813 2.376 1.862 3441
0.777 2.270 1.774 9837
0.817 2.387 1.860 4226
0.797 2.330 1.807 9918
0.757 2.213 1.722 1357
0.797 2.329 1.796 11618
0.837 2.446 1.881 1782
0.819 2.395 1.834 9028
0.779 2.278 1.749 3677
0.821 2.400 1.826 11086
0.781 2.282 1.742 1861
0.823 2.405 1.819 11086
0.782 2.287 1.735 1564
0.826 2.415 1.816 10486
0.786 2.297 1.732 1551
0.828 2.420 1.809 9928
0.787 2.302 1.725 1667
0.832 2.431 1.806 12344
0.791 2.312 1.723 1416
0.833 2.435 1.799 15084
0.874 2.554 1.881 905
0.835 2.440 1.791 16105
0.875 2.559 1.874 1853
0.836 2.445 1.784 17126
0.877 2.564 1.866 2800
0.836 2.443 1.772 13006
0.877 2.562 1.854 4399
0.835 2.441 1.760 9800
0.876 2.561 1.842 5401
0.845 2.471 1.770 7104
0.886 2.591 1.851 4716
0.853 2.494 1.775 6585
0.899 2.627 1.864 6380
0.903 2.638 1.861 6535
0.859 2.511 1.776 5973
0.904 2.643 1.853 6844
0.863 2.522 1.773 5851
0.869 2.539 1.774 5826
0.910 2.660 1.853 5404
0.870 2.544 1.766 5491
0.920 2.691 1.862 4719
0.920 2.689 1.849 5626
0.874 2.555 1.762 4126
0.921 2.694 1.841 6673
0.878 2.566 1.759 2892
0.923 2.698 1.833 5723
0.881 2.577 1.755 2957
0.929 2.716 1.833 4981
0.887 2.594 1.755 3474
0.937 2.740 1.837 4703
0.895 2.618 1.760 3062
0.941 2.751 1.833 4865
0.899 2.629 1.756 2491
0.947 2.768 1.832 5157
0.905 2.646 1.756 1942
0.951 2.780 1.828 6004
0.909 2.657 1.752 1215
0.944 2.758 1.804 5951
0.986 2.881 1.879 1827
0.939 2.744 1.783 6473
0.981 2.867 1.859 5220
0.980 2.865 1.846 7169
0.938 2.742 1.771 6856
0.982 2.870 1.837 7053
0.939 2.746 1.763 6407
0.983 2.874 1.829 6938
0.941 2.751 1.754 5959
0.987 2.886 1.824 7708
0.945 2.761 1.750 4807
0.993 2.903 1.823 8059
0.951 2.779 1.749 2554
0.997 2.914 1.818 7619
0.954 2.790 1.745 1687
0.999 2.919 1.809 6163
0.956 2.794 1.736 2087
1.005 2.937 1.808 4719
0.962 2.812 1.735 3197
1.008 2.948 1.802 6945
0.966 2.823 1.731 2341
1.012 2.959 1.797 9805
1.055 3.084 1.869 1748
1.014 2.964 1.788 10260
1.059 3.096 1.863 1652
1.018 2.975 1.783 7495
1.061 3.101 1.854 2247
1.022 2.986 1.778 4829
1.065 3.112 1.848 2828
1.032 3.017 1.783 5727
1.075 3.143 1.853 2174
1.034 3.022 1.774 7510
1.077 3.148 1.844 2043
1.035 3.026 1.765 7802
1.078 3.153 1.834 2062
1.037 3.031 1.756 6568
1.080 3.157 1.824 1909
1.038 3.035 1.747 4616
1.082 3.162 1.815 2881
1.074 3.140 1.791 4029
1.118 3.267 1.859 1871
1.089 3.184 1.803 5060
1.046 3.057 1.735 2803
1.096 3.202 1.800 8972
1.052 3.075 1.733 2606
1.099 3.214 1.794 10226
1.056 3.086 1.727 3140
1.078 3.151 1.749 11003
1.122 3.279 1.816 7308
1.123 3.283 1.806 9616
1.079 3.155 1.740 8590
1.129 3.301 1.803 10957
1.086 3.173 1.737 4879
1.131 3.306 1.792 10046
1.175 3.434 1.858 3892
1.133 3.311 1.782 7993
1.176 3.439 1.847 4354
1.136 3.322 1.776 7352
1.180 3.451 1.840 4159
1.147 3.354 1.779 8141
1.191 3.482 1.843 3855
1.167 3.412 1.796 7054
1.116 3.263 1.722 2872
1.169 3.417 1.785 7060
1.213 3.546 1.848 2992
1.203 3.517 1.821 6754
1.159 3.387 1.758 5728
1.219 3.562 1.830 7065
1.165 3.406 1.755 3161
1.223 3.574 1.823 6156
1.178 3.444 1.761 2449
1.196 3.496 1.773 5877
1.241 3.626 1.834 1664
1.207 3.528 1.775 5629
1.275 3.727 1.868 1363
1.209 3.533 1.764 5039
1.253 3.663 1.825 2207
1.257 3.674 1.817 4799
1.210 3.537 1.754 3135
1.249 3.652 1.793 7863
1.294 3.782 1.853 3174
1.246 3.642 1.776 8328
1.291 3.773 1.835 5253
1.283 3.750 1.811 6839
1.238 3.619 1.752 4090
1.284 3.755 1.800 8744
1.240 3.624 1.741 2686
1.288 3.766 1.792 10061
1.333 3.897 1.850 2976
1.290 3.771 1.780 7320
1.335 3.902 1.838 2880
1.294 3.782 1.772 4593
1.346 3.935 1.838 3175
1.348 3.939 1.826 4716
1.293 3.780 1.757 3055
1.347 3.937 1.811 4969
1.302 3.805 1.755 2320
1.334 3.900 1.782 7222
1.379 4.032 1.838 5245
1.340 3.918 1.776 8437
1.386 4.050 1.832 5098
1.344 3.930 1.767 6371
1.390 4.062 1.822 2899
1.377 4.025 1.792 4463
1.422 4.157 1.847 3651
1.395 4.078 1.800 5426
1.440 4.211 1.855 2660
1.394 4.076 1.785 5766
1.444 4.223 1.845 3357
1.415 4.136 1.795 4013
1.460 4.269 1.849 3426
1.419 4.148 1.785 4080
1.464 4.281 1.839 3856
1.504 4.398 1.870 3725
1.459 4.265 1.817 2665
1.504 4.395 1.854 4820
1.458 4.262 1.802 2548
1.503 4.393 1.838 4435
1.549 4.527 1.890 2750
1.500 4.384 1.819 4465
1.545 4.517 1.871 3696
1.489 4.353 1.792 4569
1.547 4.522 1.857 4064
1.549 4.527 1.843 6381
1.491 4.358 1.779 4079
1.548 4.524 1.827 7121
1.598 4.673 1.883 4220
1.598 4.670 1.866 6589
1.552 4.536 1.816 5072
1.602 4.682 1.854 6786
1.556 4.548 1.804 4158
1.606 4.694 1.842 6063
1.557 4.552 1.791 3882
1.610 4.706 1.831 5139
1.564 4.571 1.782 2746
1.614 4.718 1.819 3487
1.568 4.583 1.770 1655
1.615 4.722 1.805 2903
1.662 4.857 1.853 2404
1.619 4.734 1.793 2905
1.666 4.869 1.840 2134
1.636 4.781 1.793 3443
1.709 4.994 1.868 2012
1.688 4.935 1.830 3070
1.632 4.771 1.774 2603
1.690 4.940 1.815 3572
1.736 5.075 1.862 3220
1.728 5.051 1.836 4022
1.682 4.916 1.790 2378
1.727 5.049 1.818 3157
1.781 5.206 1.871 2261
1.790 5.232 1.862 2899
1.719 5.025 1.794 2131
1.774 5.187 1.830 2299
1.821 5.323 1.875 2263
1.818 5.313 1.854 3041
1.771 5.177 1.809 1832
1.890 5.526 1.904 2226
1.814 5.303 1.833 2160
1.892 5.530 1.888 3362
1.833 5.358 1.833 1490
1.894 5.535 1.871 2756
1.830 5.349 1.812 1985
1.831 5.353 1.795 2624
1.895 5.540 1.854 1763
1.907 5.573 1.846 2457
1.953 5.710 1.888 2120
1.935 5.657 1.853 2468
2.009 5.873 1.919 1357
1.954 5.712 1.851 2270
2.003 5.856 1.894 2045
2.035 5.948 1.902 2784
1.956 5.717 1.833 2586
2.012 5.880 1.863 2554
1.957 5.722 1.816 1809
2.013 5.885 1.845 2360
2.159 6.311 1.969 1739
2.134 6.237 1.927 3947
2.047 5.984 1.854 1708
2.133 6.234 1.906 5570
2.190 6.401 1.953 2781
2.134 6.239 1.887 4994
2.196 6.420 1.938 3904
2.166 6.331 1.892 3750
2.213 6.469 1.930 1984
2.299 6.720 1.978 2380
2.165 6.329 1.870 2185
2.308 6.747 1.964 2549
2.152 6.290 1.839 1822
2.312 6.759 1.945 2840
2.359 6.897 1.982 1668
2.316 6.771 1.926 2680
2.364 6.909 1.963 1636
2.370 6.929 1.945 1676
2.321 6.783 1.907 1589
2.377 6.948 1.928 1757
2.591 7.574 2.090 1435
2.620 7.659 2.087 1864
2.526 7.383 2.017 1402
2.630 7.687 2.070 1894
2.530 7.395 1.996 1351
2.671 7.809 2.075 1660
2.624 7.670 2.040 913
2.646 7.734 2.031 1480
2.706 7.909 2.074 1124
2.727 7.972 2.064 1467
2.672 7.812 2.025 1328
2.699 7.890 2.019 1617
2.857 8.350 2.129 1602
2.861 8.363 2.105 2630
2.813 8.224 2.072 1154
2.868 8.383 2.083 4184
2.933 8.573 2.127 1740
2.872 8.396 2.059 4458
2.932 8.571 2.099 2559
2.884 8.430 2.040 4214
2.939 8.591 2.076 4037
2.886 8.435 2.014 6527
2.946 8.611 2.053 6213
2.945 8.609 2.025 6126
2.887 8.441 1.988 5613
2.939 8.592 1.994 7376
2.882 8.424 1.957 3178
2.939 8.590 1.966 6789
2.891 8.451 1.936 2811
2.940 8.595 1.940 3255
2.893 8.456 1.910 2431
2.957 8.644 1.923 2297
3.249 9.497 2.099 1886
3.268 9.554 2.081 2867
2.956 8.642 1.895 2392
3.268 9.552 2.050 3463
3.333 9.743 2.088 2123
3.337 9.756 2.060 3036
3.267 9.550 2.019 2709
3.339 9.761 2.030 3346
3.264 9.540 1.987 3039
3.265 9.545 1.958 3617
3.336 9.751 1.997 2328
3.272 9.565 1.931 2521
3.386 9.897 1.994 1834
3.854 11.267 2.216 1908
3.736 10.920 2.152 1516
3.856 11.272 2.181 2438
3.753 10.970 2.126 1263
3.853 11.263 2.144 2194
3.977 11.625 2.209 981
3.852 11.261 2.108 1617
4.216 12.325 2.295 1001
3.854 11.267 2.074 1456
4.122 12.050 2.209 1156
3.856 11.272 2.039 1118
4.117 12.034 2.168 967
4.111 12.017 2.127 903
4.225 12.350 2.183 714
4.632 13.540 2.338 754
4.283 12.519 2.171 723
4.279 12.509 2.130 691
4.662 13.628 2.309 601
4.565 13.345 2.222 642
4.664 13.634 2.267 561
4.565 13.343 2.180 698
4.666 13.639 2.225 532
0.741 2.149 1.774 3756
0.743 2.153 1.767 7513
0.782 2.268 1.856 3541
0.744 2.158 1.761 7513
0.784 2.273 1.849 7083
0.754 2.186 1.773 6772
0.794 2.302 1.861 5171
0.762 2.209 1.780 8374
0.802 2.325 1.868 3121
0.764 2.214 1.773 8238
0.804 2.329 1.861 3392
0.765 2.218 1.767 8103
0.805 2.334 1.854 3663
0.767 2.223 1.760 8103
0.807 2.339 1.847 3663
0.779 2.258 1.776 8011
0.819 2.374 1.862 3278
0.783 2.268 1.774 9659
0.823 2.385 1.860 3657
0.799 2.316 1.798 9316
0.839 2.433 1.884 2054
0.803 2.327 1.796 10843
0.843 2.444 1.881 1542
0.806 2.337 1.793 8035
0.847 2.455 1.878 2036
0.827 2.398 1.826 9273
0.787 2.280 1.742 1878
0.829 2.402 1.819 9273
0.788 2.285 1.735 1605
0.833 2.413 1.816 8713
0.792 2.295 1.732 1628
0.834 2.418 1.809 8323
0.793 2.300 1.725 1760
0.838 2.429 1.806 11047
0.797 2.310 1.723 1484
0.842 2.440 1.803 14067
0.794 2.302 1.707 887
0.843 2.444 1.796 14706
0.884 2.563 1.878 1527
0.845 2.449 1.788 15345
0.886 2.568 1.870 2369
0.844 2.447 1.776 11746
0.885 2.566 1.858 4222
0.841 2.439 1.760 8869
0.883 2.558 1.842 5821
0.854 2.475 1.774 6858
0.895 2.595 1.855 4682
0.860 2.492 1.775 6645
0.906 2.625 1.864 6001
0.909 2.636 1.861 6261
0.866 2.509 1.776 6213
0.913 2.647 1.857 6688
0.872 2.526 1.777 6493
0.875 2.537 1.774 6083
0.917 2.658 1.853 5400
0.877 2.542 1.766 5603
0.927 2.688 1.862 4778
0.927 2.687 1.849 5861
0.881 2.553 1.762 3998
0.928 2.691 1.841 7108
0.884 2.563 1.759 2503
0.932 2.702 1.837 6228
0.890 2.581 1.759 2720
0.936 2.713 1.833 5604
0.894 2.592 1.755 3189
0.942 2.731 1.833 5009
0.900 2.609 1.756 2761
0.948 2.748 1.833 4890
0.906 2.626 1.756 2187
0.952 2.760 1.828 4773
0.910 2.637 1.752 1512
0.958 2.777 1.828 5432
0.916 2.654 1.752 1086
0.944 2.737 1.792 6121
0.986 2.859 1.867 2082
0.946 2.741 1.783 7137
0.988 2.864 1.859 4973
0.945 2.739 1.771 7638
0.988 2.862 1.846 7001
0.949 2.750 1.767 7116
0.991 2.874 1.841 6878
0.991 2.872 1.829 7143
0.948 2.748 1.754 6275
0.997 2.889 1.828 8015
0.954 2.766 1.754 5062
1.001 2.901 1.823 8543
0.958 2.777 1.749 2711
1.002 2.905 1.814 7982
0.959 2.781 1.741 1789
1.006 2.916 1.809 6238
0.963 2.792 1.736 2369
1.012 2.934 1.808 4742
0.969 2.809 1.735 3491
1.016 2.945 1.802 7141
0.973 2.820 1.731 2544
1.018 2.950 1.793 9980
1.061 3.075 1.865 1925
1.022 2.961 1.788 10352
1.067 3.093 1.863 1775
1.023 2.966 1.779 7659
1.069 3.098 1.854 2272
1.029 2.983 1.778 5003
1.073 3.109 1.848 2768
1.038 3.008 1.780 5658
1.081 3.134 1.849 2194
1.042 3.019 1.774 7362
1.085 3.145 1.844 1746
1.043 3.023 1.765 7625
1.087 3.150 1.834 1611
1.045 3.028 1.756 6515
1.088 3.154 1.824 1724
1.046 3.032 1.747 4384
1.090 3.159 1.815 3310
1.089 3.157 1.802 4796
1.045 3.030 1.734 2507
1.095 3.175 1.799 5695
1.052 3.048 1.732 2408
1.104 3.200 1.800 9002
1.060 3.072 1.733 2452
1.108 3.211 1.794 10484
1.152 3.338 1.861 2880
1.084 3.142 1.746 10719
1.128 3.269 1.812 7697
1.129 3.274 1.802 9455
1.085 3.146 1.736 8313
1.138 3.299 1.803 10713
1.094 3.171 1.737 5277
1.142 3.310 1.796 9869
1.186 3.438 1.861 3707
1.143 3.314 1.786 7663
1.188 3.443 1.851 4190
1.154 3.346 1.789 7200
1.110 3.217 1.725 2251
1.156 3.351 1.779 8100
1.200 3.479 1.843 3794
1.160 3.362 1.772 6445
1.204 3.491 1.836 5252
1.164 3.373 1.765 6550
1.208 3.502 1.829 6127
1.212 3.514 1.821 6640
1.168 3.384 1.758 5434
1.228 3.559 1.830 6505
1.174 3.402 1.755 2878
1.232 3.571 1.823 5951
1.187 3.441 1.761 2106
1.205 3.493 1.773 5526
1.250 3.623 1.834 1658
1.219 3.532 1.778 4948
1.282 3.717 1.865 1574
1.222 3.543 1.771 4137
1.284 3.721 1.854 2264
1.264 3.664 1.814 5164
1.219 3.534 1.754 2866
1.261 3.655 1.796 8162
1.306 3.786 1.856 2617
1.258 3.646 1.779 8296
1.303 3.777 1.839 4929
1.293 3.747 1.811 6573
1.248 3.616 1.752 4219
1.297 3.758 1.803 8191
1.251 3.627 1.744 3413
1.298 3.763 1.792 9517
1.343 3.894 1.850 2705
1.300 3.767 1.780 7198
1.345 3.899 1.838 2480
1.301 3.772 1.769 4317
1.356 3.931 1.838 2508
1.355 3.929 1.823 3901
1.300 3.770 1.754 2696
1.357 3.933 1.811 4449
1.312 3.802 1.755 2119
1.344 3.896 1.782 6475
1.390 4.028 1.838 4585
1.351 3.915 1.776 8115
1.396 4.047 1.832 4162
1.352 3.919 1.764 6566
1.398 4.051 1.819 2808
1.385 4.014 1.789 5342
1.431 4.147 1.844 3818
1.406 4.075 1.800 5343
1.451 4.207 1.855 2622
1.407 4.079 1.788 5660
1.455 4.219 1.845 3311
1.467 4.251 1.843 4443
1.406 4.077 1.772 3488
1.473 4.270 1.836 4900
1.427 4.137 1.783 3347
1.480 4.289 1.828 3696
1.526 4.422 1.882 2555
1.515 4.392 1.854 4863
1.469 4.258 1.802 1912
1.514 4.389 1.838 4587
1.560 4.523 1.890 2814
1.511 4.380 1.819 4405
1.557 4.513 1.871 3713
1.498 4.342 1.790 4969
1.556 4.511 1.854 3887
1.558 4.516 1.841 6029
1.502 4.354 1.779 4274
1.560 4.520 1.827 6701
1.611 4.668 1.883 3756
1.610 4.666 1.866 6021
1.564 4.532 1.816 4840
1.614 4.678 1.854 6433
1.568 4.544 1.804 4183
1.618 4.690 1.842 5899
1.569 4.548 1.791 4155
1.620 4.694 1.828 5073
1.573 4.560 1.779 2952
1.624 4.706 1.816 3892
1.670 4.841 1.865 2087
1.628 4.718 1.805 3271
1.674 4.853 1.853 2194
1.661 4.815 1.823 3089
1.720 4.985 1.883 1980
1.665 4.826 1.810 3431
1.719 4.983 1.865 2034
1.701 4.931 1.830 3349
1.647 4.774 1.776 2674
1.703 4.935 1.815 4031
1.764 5.113 1.876 3275
1.704 4.940 1.800 3422
1.768 5.125 1.863 3240
1.740 5.044 1.818 2962
1.799 5.215 1.876 2193
1.803 5.227 1.862 3208
1.732 5.020 1.794 2504
1.817 5.268 1.858 2455
1.734 5.025 1.778 1911
1.831 5.308 1.854 3224
1.900 5.509 1.919 1604
1.831 5.306 1.835 2208
1.905 5.521 1.904 1926
1.911 5.540 1.892 2935
1.844 5.346 1.830 1626
1.918 5.559 1.880 2370
1.844 5.344 1.812 2059
1.845 5.348 1.795 2501
1.969 5.707 1.908 1918
1.968 5.705 1.888 2462
1.921 5.568 1.846 2254
1.948 5.645 1.851 2490
2.000 5.796 1.897 1855
1.967 5.700 1.849 2418
2.016 5.844 1.892 2399
2.050 5.942 1.902 3186
1.971 5.712 1.833 3054
2.032 5.890 1.867 2850
1.972 5.717 1.816 1851
2.029 5.880 1.845 2125
2.148 6.226 1.946 1653
2.150 6.231 1.927 4123
2.197 6.368 1.967 1689
2.151 6.236 1.908 5555
2.204 6.388 1.951 2790
2.153 6.241 1.889 4980
2.208 6.400 1.934 3801
2.185 6.333 1.894 3466
2.232 6.470 1.932 1899
2.311 6.699 1.974 2436
2.184 6.330 1.872 1949
2.318 6.719 1.958 2198
2.366 6.857 1.995 1796
2.330 6.753 1.945 2724
2.380 6.898 1.984 1636
2.334 6.765 1.926 2801
2.382 6.903 1.963 1583
2.338 6.777 1.907 1632
2.386 6.915 1.944 1592
2.395 6.942 1.928 1791
2.347 6.804 1.892 1419
2.640 7.653 2.087 1775
2.447 7.092 1.944 1230
2.649 7.680 2.070 1824
2.697 7.818 2.104 1360
2.689 7.794 2.073 1734
2.737 7.933 2.108 1025
2.666 7.727 2.031 1452
2.729 7.909 2.076 1401
2.723 7.892 2.047 1614
2.874 8.330 2.153 1217
2.722 7.890 2.021 1878
2.876 8.335 2.127 1788
2.883 8.356 2.105 2803
2.835 8.217 2.072 1385
2.887 8.368 2.081 4087
2.953 8.558 2.126 1560
2.891 8.381 2.057 3888
2.954 8.564 2.099 2397
2.961 8.584 2.076 3700
2.906 8.423 2.040 3430
2.908 8.428 2.014 5799
2.968 8.604 2.053 5617
2.965 8.594 2.024 5835
2.909 8.433 1.988 5039
2.959 8.577 1.993 7413
2.898 8.401 1.954 2887
2.961 8.582 1.966 6882
2.908 8.428 1.933 2335
2.960 8.580 1.938 3428
3.054 8.852 1.996 2427
3.266 9.466 2.095 2186
2.972 8.614 1.918 1947
3.268 9.472 2.066 3176
2.976 8.627 1.893 2203
3.290 9.536 2.049 3421
3.358 9.734 2.088 2123
3.363 9.747 2.060 3098
3.289 9.534 2.018 2492
3.364 9.752 2.030 3437
3.286 9.524 1.986 2610
3.293 9.544 1.959 3174
3.364 9.750 1.999 2522
3.411 9.888 1.994 2290
3.299 9.564 1.933 2253
3.413 9.893 1.963 1788
3.883 11.257 2.216 1771
3.883 11.255 2.180 2299
3.771 10.930 2.121 1160
3.880 11.246 2.143 2185
4.007 11.615 2.209 1071
3.882 11.251 2.108 1544
4.248 12.314 2.295 1084
3.883 11.257 2.074 1330
4.250 12.320 2.257 1136
3.885 11.262 2.039 1047
4.316 12.511 2.251 1041
4.316 12.509 2.211 893
4.145 12.014 2.128 860
4.672 13.543 2.340 831
4.315 12.507 2.171 824
4.314 12.506 2.131 784
4.685 13.578 2.303 727
4.597 13.325 2.221 822
4.699 13.621 2.267 665
4.597 13.324 2.178 840
4.701 13.627 2.225 615
4.599 13.329 2.137 510
0.743 2.141 1.769 3794
0.744 2.146 1.763 7588
0.784 2.261 1.851 3949
0.746 2.150 1.756 7588
0.786 2.265 1.845 7252
0.756 2.179 1.768 6771
0.796 2.294 1.856 5788
0.766 2.208 1.780 8601
0.806 2.323 1.868 2984
0.767 2.212 1.773 7976
0.808 2.328 1.861 3221
0.769 2.217 1.767 7350
0.809 2.333 1.854 3458
0.771 2.221 1.760 7350
0.811 2.337 1.847 3458
0.785 2.263 1.781 7630
0.825 2.379 1.867 2703
0.789 2.273 1.778 9133
0.829 2.390 1.864 2765
0.801 2.308 1.794 8663
0.841 2.425 1.879 2240
0.807 2.325 1.796 9929
0.847 2.442 1.881 1323
0.810 2.336 1.793 7586
0.851 2.453 1.878 1953
0.829 2.390 1.822 7685
0.788 2.273 1.737 1281
0.831 2.395 1.815 7685
0.790 2.277 1.730 1168
0.839 2.418 1.821 7242
0.798 2.300 1.737 1916
0.840 2.423 1.813 7109
0.799 2.304 1.730 2063
0.844 2.433 1.810 10197
0.803 2.315 1.727 1759
0.846 2.438 1.803 13603
0.805 2.319 1.720 978
0.847 2.443 1.796 13877
0.889 2.562 1.878 1821
0.849 2.447 1.788 14152
0.890 2.566 1.870 2796
0.848 2.445 1.776 10878
0.890 2.565 1.858 4524
0.846 2.437 1.760 8185
0.887 2.557 1.842 6090
0.858 2.473 1.774 6863
0.900 2.593 1.855 4469
0.864 2.491 1.775 6816
0.910 2.623 1.864 5282
0.870 2.508 1.776 6438
0.914 2.634 1.861 5667
0.878 2.531 1.781 6765
0.920 2.652 1.861 6099
0.880 2.536 1.774 6191
0.922 2.656 1.853 5156
0.881 2.540 1.766 5617
0.932 2.687 1.862 4693
0.934 2.691 1.853 5878
0.885 2.551 1.762 3735
0.933 2.690 1.841 7173
0.889 2.562 1.759 1941
0.937 2.701 1.837 6439
0.895 2.579 1.759 2251
0.941 2.712 1.833 5906
0.898 2.590 1.755 2738
0.947 2.729 1.833 5153
0.904 2.607 1.756 2483
0.951 2.740 1.829 4838
0.908 2.618 1.752 1911
0.955 2.752 1.824 4359
0.912 2.629 1.748 1285
0.965 2.782 1.832 4588
0.923 2.659 1.756 1332
0.944 2.722 1.784 6429
0.987 2.845 1.859 1859
0.948 2.733 1.779 7582
0.993 2.862 1.859 4653
0.950 2.737 1.771 8213
0.992 2.861 1.846 6668
0.953 2.748 1.767 7447
0.996 2.872 1.841 6737
0.996 2.870 1.829 7199
0.953 2.746 1.754 6418
1.002 2.888 1.828 8004
0.957 2.757 1.750 5059
1.006 2.899 1.823 8632
0.963 2.775 1.749 2863
1.007 2.904 1.814 8061
0.964 2.779 1.741 2214
1.011 2.915 1.809 6248
0.968 2.790 1.736 2701
1.029 2.965 1.827 4878
0.983 2.834 1.751 4862
1.021 2.944 1.802 7282
0.978 2.819 1.731 2761
1.023 2.948 1.793 10172
1.066 3.073 1.865 1897
1.024 2.953 1.785 10462
1.068 3.078 1.856 1818
1.028 2.964 1.779 7813
1.074 3.096 1.854 2142
1.032 2.975 1.774 5222
1.080 3.114 1.852 2534
1.040 2.999 1.776 5772
1.084 3.125 1.846 2093
1.044 3.011 1.770 7456
1.088 3.137 1.840 1582
1.046 3.015 1.761 7571
1.090 3.141 1.830 1475
1.050 3.026 1.756 6351
1.094 3.153 1.824 1661
1.084 3.124 1.797 4795
1.040 2.997 1.729 2123
1.095 3.155 1.802 5642
1.051 3.028 1.734 2142
1.098 3.166 1.796 6317
1.054 3.039 1.728 2051
1.107 3.191 1.797 8845
1.153 3.325 1.867 2200
1.090 3.142 1.759 10434
1.134 3.269 1.826 4759
1.089 3.140 1.746 10264
1.133 3.267 1.812 7008
1.135 3.272 1.802 8820
1.091 3.144 1.736 8146
1.144 3.297 1.803 10248
1.099 3.169 1.737 5556
1.148 3.308 1.796 9656
1.192 3.436 1.861 3959
1.149 3.312 1.786 7349
1.194 3.441 1.851 4507
1.160 3.344 1.789 7141
1.115 3.216 1.725 2598
1.159 3.342 1.776 8162
1.204 3.470 1.840 4085
1.163 3.353 1.769 6308
1.208 3.482 1.832 5284
1.169 3.371 1.765 6158
1.214 3.500 1.829 6032
1.218 3.512 1.821 6555
1.173 3.382 1.758 5105
1.234 3.557 1.830 6045
1.180 3.400 1.755 2739
1.238 3.568 1.823 5862
1.193 3.439 1.761 1838
1.211 3.491 1.773 5122
1.256 3.621 1.834 1909
1.227 3.537 1.781 4233
1.289 3.714 1.865 1687
1.231 3.548 1.774 3810
1.288 3.712 1.851 2372
1.270 3.662 1.814 5437
1.225 3.532 1.754 2988
1.267 3.653 1.796 8403
1.312 3.783 1.856 2619
1.264 3.644 1.779 8248
1.309 3.774 1.839 5164
1.299 3.745 1.811 6606
1.254 3.614 1.752 4131
1.305 3.763 1.806 7968
1.260 3.632 1.748 3626
1.307 3.768 1.795 8878
1.352 3.899 1.853 2369
1.309 3.772 1.783 6694
1.354 3.903 1.841 1879
1.308 3.770 1.769 3932
1.353 3.901 1.826 2011
1.362 3.926 1.823 3128
1.302 3.753 1.748 2602
1.364 3.931 1.811 3969
1.313 3.786 1.749 2177
1.353 3.901 1.785 5462
1.399 4.033 1.841 3803
1.357 3.912 1.776 7398
1.403 4.044 1.832 3593
1.359 3.917 1.764 6385
1.405 4.049 1.819 2794
1.392 4.012 1.789 6088
1.438 4.144 1.844 3882
1.393 4.016 1.777 5316
1.439 4.149 1.832 4549
1.414 4.077 1.788 5565
1.463 4.216 1.845 3266
1.476 4.256 1.846 4603
1.409 4.060 1.767 3265
1.480 4.268 1.836 5466
1.434 4.135 1.783 2554
1.484 4.279 1.826 4753
1.531 4.412 1.879 2858
1.523 4.389 1.854 4907
1.476 4.256 1.802 2059
1.522 4.387 1.838 4708
1.568 4.520 1.890 2737
1.553 4.476 1.857 4859
1.497 4.314 1.795 3665
1.503 4.333 1.787 5185
1.552 4.473 1.841 4425
1.566 4.513 1.841 5426
1.514 4.365 1.784 4490
1.567 4.518 1.827 5645
1.619 4.666 1.883 3133
1.618 4.663 1.866 5136
1.571 4.529 1.816 4087
1.622 4.675 1.854 5908
1.575 4.541 1.804 4006
1.626 4.687 1.842 5536
1.577 4.546 1.791 4410
1.628 4.692 1.828 4927
1.581 4.557 1.779 3105
1.624 4.682 1.809 4432
1.671 4.817 1.857 3025
1.633 4.708 1.802 3676
1.680 4.843 1.850 1874
1.669 4.812 1.823 3383
1.726 4.975 1.880 2008
1.673 4.824 1.810 3791
1.720 4.959 1.858 2449
1.712 4.935 1.833 3695
1.665 4.800 1.786 2837
1.711 4.932 1.815 4239
1.773 5.110 1.876 3680
1.777 5.122 1.863 3855
1.713 4.937 1.800 3451
1.776 5.120 1.845 2933
1.712 4.934 1.783 2291
1.810 5.217 1.860 3327
1.741 5.017 1.794 2948
1.824 5.258 1.856 2607
1.772 5.108 1.806 2186
1.843 5.312 1.856 3280
1.771 5.105 1.788 1562
1.847 5.324 1.842 2257
1.934 5.575 1.923 1750
1.931 5.565 1.901 2855
1.854 5.343 1.830 1845
1.932 5.570 1.884 2502
1.855 5.348 1.814 2218
1.981 5.711 1.910 2507
1.852 5.338 1.793 2385
1.978 5.702 1.888 2917
1.931 5.565 1.846 2040
2.009 5.793 1.897 2810
1.955 5.635 1.848 2640
2.009 5.790 1.877 2706
2.056 5.927 1.918 2128
1.980 5.709 1.833 3399
2.060 5.939 1.902 3375
2.064 5.951 1.886 2907
1.984 5.721 1.818 1915
2.036 5.869 1.843 1924
2.141 6.172 1.931 1766
2.160 6.227 1.927 4087
2.038 5.874 1.825 1672
2.162 6.232 1.908 5656
2.212 6.377 1.949 2521
2.164 6.237 1.889 5178
2.216 6.389 1.932 3474
2.165 6.242 1.870 3452
2.213 6.379 1.908 2798
2.320 6.688 1.972 2699
2.227 6.420 1.898 1837
2.365 6.816 1.985 2329
2.317 6.679 1.948 1801
2.344 6.756 1.947 2484
2.392 6.894 1.984 1644
2.345 6.761 1.926 2664
2.393 6.899 1.963 1681
2.390 6.890 1.938 1799
2.544 7.332 2.054 1429
2.407 6.938 1.928 1656
2.545 7.338 2.032 1504
2.653 7.648 2.087 1621
2.456 7.081 1.942 1497
2.663 7.675 2.070 1692
2.710 7.813 2.104 1304
2.702 7.790 2.073 1758
2.750 7.928 2.108 1303
2.742 7.904 2.076 1670
2.679 7.722 2.031 1416
2.736 7.888 2.047 1777
2.802 8.077 2.093 1383
2.736 7.886 2.021 2086
2.890 8.331 2.127 1846
2.894 8.343 2.104 2773
2.747 7.920 2.003 1534
2.899 8.356 2.080 3921
2.967 8.553 2.126 1264
2.901 8.361 2.054 3534
2.961 8.537 2.094 2091
2.973 8.571 2.075 3147
2.892 8.337 2.022 3059
2.980 8.591 2.052 4737
2.922 8.423 2.014 4671
2.977 8.582 2.022 5421
2.911 8.391 1.980 4421
2.974 8.572 1.993 7139
2.910 8.389 1.953 2510
2.973 8.570 1.965 6678
3.067 8.841 2.023 3032
2.972 8.568 1.937 3531
3.069 8.847 1.996 3152
3.282 9.461 2.095 2634
2.982 8.595 1.915 2038
3.284 9.466 2.066 3911
2.986 8.607 1.890 2026
3.286 9.471 2.037 3776
3.375 9.729 2.088 2086
3.379 9.741 2.060 2986
3.287 9.477 2.008 2343
3.381 9.746 2.030 3272
3.297 9.504 1.983 2305
3.424 9.869 2.023 2731
3.309 9.538 1.959 2717
3.428 9.882 1.994 2687
3.318 9.565 1.934 2017
3.430 9.887 1.963 2053
3.903 11.250 2.216 1615
3.899 11.241 2.179 2121
3.787 10.917 2.120 1144
3.899 11.239 2.143 2117
3.950 11.387 2.169 1105
3.901 11.245 2.108 1427
4.269 12.307 2.295 1116
4.271 12.313 2.257 1207
3.905 11.257 2.075 1205
4.337 12.503 2.251 1331
4.273 12.319 2.219 998
4.337 12.502 2.211 1065
4.278 12.332 2.183 841
4.695 13.535 2.340 887
4.336 12.500 2.171 884
4.338 12.506 2.133 825
4.710 13.578 2.304 824
4.620 13.317 2.221 959
4.720 13.606 2.266 666
4.619 13.316 2.178 886
4.725 13.619 2.225 593
0.752 2.152 1.778 2876
0.753 2.156 1.772 5752
0.793 2.271 1.861 3292
0.789 2.258 1.840 7271
0.749 2.143 1.751 4473
0.790 2.262 1.833 6795
0.750 2.147 1.745 3801
0.771 2.206 1.780 8995
0.811 2.321 1.868 2775
0.772 2.211 1.773 8078
0.813 2.326 1.861 2991
0.797 2.282 1.817 7584
0.757 2.166 1.730 1611
0.799 2.287 1.810 7584
0.758 2.171 1.723 1611
0.799 2.285 1.799 7609
0.839 2.402 1.885 1598
0.794 2.271 1.778 8718
0.834 2.388 1.864 2382
0.804 2.301 1.789 8267
0.845 2.417 1.875 2246
0.810 2.317 1.791 9290
0.851 2.434 1.877 1609
0.816 2.334 1.793 7432
0.857 2.451 1.878 1845
0.832 2.382 1.817 6505
0.791 2.265 1.733 903
0.834 2.387 1.810 6505
0.793 2.269 1.726 880
0.844 2.416 1.821 6083
0.803 2.298 1.737 2091
0.846 2.421 1.813 6304
0.805 2.303 1.730 2273
0.850 2.432 1.810 9886
0.808 2.313 1.727 1984
0.851 2.436 1.803 13672
0.810 2.318 1.720 1094
0.853 2.441 1.796 13661
0.894 2.560 1.878 2050
0.854 2.445 1.788 13650
0.896 2.564 1.870 3092
0.856 2.450 1.781 10516
0.898 2.569 1.862 3957
0.853 2.442 1.765 7886
0.895 2.561 1.846 5893
0.864 2.471 1.774 6733
0.905 2.591 1.855 4331
0.867 2.482 1.771 6798
0.909 2.602 1.852 4940
0.873 2.499 1.772 6479
0.920 2.632 1.861 5147
0.897 2.567 1.806 6872
0.939 2.688 1.886 2362
0.883 2.527 1.769 6196
0.927 2.654 1.853 4824
0.887 2.538 1.766 5578
0.938 2.685 1.862 4367
0.940 2.689 1.853 5519
0.888 2.543 1.758 3579
0.939 2.688 1.841 6726
0.894 2.560 1.759 1699
0.943 2.699 1.837 6234
0.900 2.577 1.759 2035
0.947 2.710 1.833 5853
0.904 2.588 1.755 2461
0.953 2.727 1.833 5118
0.910 2.605 1.756 2246
0.957 2.738 1.829 4841
0.914 2.616 1.752 1677
0.958 2.743 1.820 4358
0.911 2.608 1.736 1193
0.947 2.709 1.788 5088
0.989 2.831 1.864 1294
0.950 2.720 1.784 6941
0.993 2.843 1.859 1682
0.954 2.731 1.779 7969
0.999 2.860 1.859 4511
0.956 2.735 1.771 8674
0.999 2.859 1.846 6673
0.960 2.746 1.767 7754
1.003 2.870 1.841 6892
1.002 2.868 1.829 7639
0.959 2.744 1.754 6739
1.008 2.886 1.828 7971
0.963 2.755 1.750 5268
1.012 2.897 1.823 8305
0.969 2.773 1.749 2963
1.014 2.901 1.814 7503
0.970 2.777 1.741 2359
1.018 2.912 1.809 5743
0.974 2.788 1.736 2751
1.038 2.970 1.830 5045
0.989 2.832 1.751 4768
1.028 2.941 1.802 7152
0.984 2.817 1.731 2778
1.029 2.946 1.793 10029
1.073 3.071 1.865 1767
1.031 2.950 1.785 10257
1.077 3.082 1.859 1763
1.035 2.962 1.779 7767
1.081 3.094 1.854 1912
1.039 2.973 1.774 5416
1.087 3.111 1.852 2190
1.043 2.984 1.769 5987
1.091 3.123 1.846 1841
1.051 3.008 1.770 7592
1.095 3.134 1.840 1605
1.053 3.013 1.761 7686
1.097 3.139 1.830 1624
1.054 3.017 1.752 6254
1.098 3.143 1.821 2252
1.091 3.121 1.797 5324
1.046 2.995 1.729 2171
1.099 3.146 1.798 6452
1.055 3.019 1.730 1502
1.106 3.164 1.796 6905
1.061 3.037 1.728 1716
1.093 3.128 1.765 8679
1.137 3.255 1.832 2524
1.097 3.139 1.759 10212
1.141 3.267 1.826 4238
1.096 3.137 1.746 9592
1.141 3.265 1.812 6239
1.109 3.175 1.754 8653
1.154 3.303 1.819 5963
1.151 3.294 1.803 10153
1.106 3.166 1.737 5649
1.155 3.305 1.796 9793
1.200 3.433 1.861 4011
1.154 3.303 1.782 7268
1.199 3.431 1.847 5292
1.168 3.341 1.789 7049
1.123 3.213 1.725 2804
1.167 3.339 1.776 8144
1.212 3.468 1.840 4188
1.168 3.344 1.766 6190
1.213 3.472 1.829 5349
1.220 3.491 1.825 6146
1.175 3.362 1.762 5724
1.224 3.502 1.818 6540
1.179 3.373 1.755 4740
1.242 3.554 1.830 5561
1.190 3.405 1.758 2750
1.246 3.566 1.823 5833
1.201 3.436 1.761 1879
1.248 3.570 1.812 4989
1.202 3.441 1.750 1777
1.247 3.568 1.798 4145
1.297 3.711 1.865 1796
1.241 3.552 1.777 4003
1.294 3.703 1.847 2508
1.279 3.659 1.814 5556
1.233 3.529 1.754 3276
1.275 3.650 1.796 8292
1.321 3.780 1.856 2637
1.275 3.648 1.782 7931
1.320 3.778 1.842 4728
1.307 3.742 1.811 7145
1.262 3.611 1.752 4130
1.314 3.760 1.806 8033
1.268 3.629 1.748 3798
1.315 3.765 1.795 8300
1.270 3.634 1.736 2534
1.317 3.769 1.783 6093
1.363 3.900 1.841 1474
1.316 3.767 1.769 3590
1.362 3.898 1.826 1714
1.342 3.840 1.787 3126
1.388 3.972 1.844 2247
1.375 3.935 1.814 3662
1.322 3.783 1.749 2217
1.372 3.926 1.796 4652
1.418 4.057 1.853 2414
1.366 3.909 1.776 6368
1.412 4.041 1.832 3617
1.397 3.997 1.799 5721
1.351 3.865 1.743 2539
1.398 4.002 1.787 6688
1.444 4.134 1.842 4114
1.395 3.992 1.769 5772
1.441 4.125 1.823 4897
1.423 4.074 1.788 5273
1.472 4.213 1.845 3383
1.486 4.253 1.846 4798
1.420 4.064 1.770 3347
1.490 4.264 1.836 6076
1.444 4.131 1.783 2289
1.494 4.276 1.826 5887
1.540 4.409 1.879 2833
1.530 4.379 1.851 4982
1.483 4.246 1.799 2667
1.532 4.383 1.838 4706
1.578 4.516 1.890 2596
1.560 4.465 1.855 5708
1.506 4.311 1.795 4303
1.510 4.322 1.784 5528
1.562 4.470 1.841 5019
1.566 4.481 1.830 4818
1.519 4.348 1.779 4385
1.577 4.514 1.827 5178
1.531 4.381 1.776 3196
1.628 4.660 1.866 4211
1.581 4.526 1.816 3723
1.632 4.672 1.854 5047
1.585 4.538 1.804 3730
1.636 4.683 1.842 4950
1.587 4.542 1.791 4380
1.638 4.688 1.828 4779
1.591 4.554 1.779 3014
1.635 4.679 1.809 4706
1.682 4.813 1.857 2832
1.644 4.704 1.802 3896
1.691 4.839 1.850 1624
1.680 4.808 1.823 3470
1.735 4.964 1.878 2033
1.687 4.827 1.813 4034
1.734 4.962 1.860 2897
1.723 4.931 1.833 3899
1.676 4.796 1.786 2985
1.722 4.929 1.815 4124
1.784 5.106 1.876 3813
1.786 5.111 1.861 4166
1.724 4.933 1.800 3234
1.788 5.116 1.845 3001
1.740 4.980 1.799 2194
1.752 5.014 1.794 3392
1.822 5.213 1.860 3309
1.833 5.246 1.854 2594
1.783 5.104 1.806 2518
1.857 5.315 1.858 3176
1.782 5.101 1.788 1776
1.859 5.320 1.842 2215
1.946 5.570 1.923 1945
1.946 5.568 1.904 2958
1.866 5.339 1.830 1952
1.947 5.573 1.887 2522
1.867 5.344 1.814 2433
1.994 5.707 1.910 2909
1.866 5.341 1.795 2462
1.991 5.697 1.888 3283
1.943 5.561 1.846 1873
2.020 5.781 1.895 3512
1.965 5.623 1.846 2747
2.019 5.779 1.875 3328
2.069 5.922 1.918 2266
1.993 5.704 1.833 3512
2.074 5.934 1.902 3408
2.078 5.946 1.886 2990
1.997 5.716 1.818 1851
2.049 5.865 1.843 1882
2.152 6.160 1.929 1807
2.174 6.223 1.927 4048
2.114 6.050 1.877 1712
2.178 6.235 1.910 5609
2.226 6.372 1.949 2706
2.180 6.240 1.891 5208
2.228 6.377 1.930 3370
2.182 6.244 1.872 3580
2.230 6.382 1.910 2566
2.335 6.683 1.972 2867
2.242 6.415 1.898 1908
2.380 6.811 1.985 2615
2.332 6.674 1.948 1819
2.369 6.780 1.955 2399
2.417 6.918 1.992 1497
2.361 6.756 1.926 2511
2.409 6.894 1.963 1872
2.405 6.884 1.938 1949
2.557 7.319 2.052 1489
2.427 6.947 1.932 1579
2.562 7.332 2.032 1406
2.472 7.076 1.942 1698
2.670 7.642 2.087 1410
2.680 7.669 2.070 1540
2.751 7.873 2.121 1235
2.717 7.776 2.071 1903
2.765 7.915 2.106 1528
2.760 7.898 2.076 1773
2.709 7.753 2.040 1471
2.754 7.882 2.047 1906
2.820 8.071 2.093 1548
2.756 7.887 2.022 2243
2.819 8.069 2.066 1901
2.913 8.337 2.104 2640
2.765 7.914 2.003 1746
2.917 8.349 2.080 3680
2.836 8.116 2.025 1220
2.914 8.340 2.051 3463
2.978 8.523 2.093 1912
2.908 8.324 2.020 3366
2.982 8.535 2.068 2813
2.925 8.373 2.004 3859
2.997 8.577 2.050 3795
2.994 8.568 2.020 4864
2.927 8.378 1.978 4052
2.993 8.566 1.993 6606
2.926 8.375 1.951 2558
2.992 8.563 1.965 6354
3.087 8.834 2.023 3686
3.089 8.840 1.996 3789
2.991 8.561 1.937 3521
3.301 9.446 2.093 3051
3.001 8.588 1.915 2061
3.305 9.459 2.066 4485
3.238 9.268 2.027 2046
3.307 9.464 2.037 4320
3.391 9.706 2.086 1958
3.401 9.734 2.060 2754
3.309 9.469 2.008 2706
3.403 9.739 2.030 3042
3.452 9.879 2.057 2448
3.446 9.862 2.023 3111
3.317 9.494 1.952 2555
3.450 9.874 1.994 2961
3.340 9.558 1.934 1797
3.452 9.879 1.963 2229
3.809 10.903 2.153 1495
3.922 11.225 2.177 1893
3.974 11.372 2.204 1377
3.921 11.223 2.141 2001
3.976 11.378 2.169 1408
3.923 11.228 2.107 1306
4.297 12.297 2.295 1101
4.363 12.488 2.289 1255
4.299 12.303 2.257 1219
4.365 12.494 2.251 1575
4.301 12.309 2.219 1040
4.365 12.492 2.211 1282
4.306 12.322 2.183 877
4.364 12.490 2.171 1016
4.728 13.532 2.341 958
4.738 13.560 2.303 912
4.366 12.496 2.133 890
4.647 13.300 2.219 1108
4.745 13.581 2.264 678
4.649 13.305 2.178 965
4.755 13.609 2.225 627
4.648 13.304 2.136 543
0.758 2.150 1.778 3101
0.760 2.154 1.772 6202
0.800 2.269 1.861 3046
0.795 2.255 1.840 6752
0.755 2.140 1.751 5000
0.769 2.181 1.773 6864
0.810 2.296 1.861 4550
0.777 2.204 1.780 9231
0.818 2.319 1.868 2528
0.779 2.208 1.773 7825
0.820 2.324 1.861 2628
0.802 2.274 1.812 8116
0.761 2.158 1.725 1336
0.804 2.278 1.806 8116
0.844 2.394 1.892 1435
0.803 2.277 1.794 7871
0.844 2.393 1.880 1588
0.802 2.275 1.783 8129
0.843 2.392 1.869 1776
0.811 2.298 1.789 7707
0.852 2.415 1.875 1989
0.816 2.315 1.791 8327
0.858 2.432 1.877 1433
0.822 2.332 1.793 7168
0.864 2.449 1.878 1802
0.826 2.343 1.791 6244
0.868 2.460 1.875 2414
0.830 2.353 1.788 6219
0.871 2.471 1.872 1964
0.836 2.370 1.790 6083
0.877 2.488 1.873 1946
0.853 2.418 1.813 6296
0.811 2.300 1.730 2188
0.857 2.429 1.810 9892
0.815 2.311 1.727 2044
0.858 2.434 1.803 13669
0.900 2.552 1.886 1201
0.860 2.438 1.796 13355
0.902 2.557 1.878 2351
0.862 2.443 1.788 13041
0.903 2.562 1.870 3502
0.861 2.441 1.776 10280
0.903 2.560 1.858 4937
0.860 2.439 1.765 7916
0.902 2.559 1.846 5956
0.871 2.469 1.774 6751
0.913 2.589 1.855 4034
0.875 2.480 1.771 6777
0.917 2.600 1.852 4479
0.905 2.566 1.818 6601
0.863 2.446 1.738 2290
0.907 2.571 1.811 6950
0.949 2.691 1.890 1630
0.890 2.525 1.769 6194
0.935 2.652 1.853 4532
0.892 2.529 1.762 5499
0.946 2.682 1.862 4114
0.947 2.686 1.853 5211
0.896 2.540 1.758 3360
0.947 2.685 1.841 6311
0.900 2.551 1.755 1361
0.951 2.696 1.837 6071
0.908 2.575 1.759 1662
0.955 2.707 1.833 5874
0.912 2.585 1.755 2127
0.959 2.718 1.829 5081
0.916 2.596 1.752 1917
0.965 2.735 1.829 4747
0.915 2.594 1.740 1543
0.966 2.740 1.820 4288
0.916 2.599 1.732 1157
0.954 2.706 1.788 5224
0.998 2.829 1.864 1275
0.958 2.717 1.784 6904
1.002 2.840 1.859 1589
0.962 2.728 1.779 7981
1.005 2.851 1.855 4391
0.964 2.733 1.771 8830
1.007 2.856 1.846 6635
0.965 2.737 1.763 7873
1.009 2.860 1.837 7204
1.008 2.858 1.825 7856
0.965 2.735 1.751 6399
1.017 2.883 1.828 7670
0.971 2.752 1.750 5427
1.021 2.894 1.823 7732
0.977 2.770 1.749 3210
1.022 2.898 1.814 6722
0.978 2.774 1.741 2672
1.026 2.910 1.809 5015
0.982 2.785 1.736 2860
1.049 2.973 1.834 5029
0.998 2.829 1.751 4743
1.036 2.938 1.802 6696
0.992 2.814 1.731 2766
1.038 2.943 1.793 9628
1.082 3.068 1.865 1587
1.040 2.947 1.785 9926
1.084 3.072 1.856 1676
1.041 2.952 1.776 7732
1.085 3.077 1.846 1698
1.045 2.963 1.770 5868
1.099 3.115 1.855 1798
1.049 2.974 1.765 6442
1.100 3.120 1.846 1778
1.058 2.998 1.767 7834
1.102 3.124 1.836 2032
1.059 3.003 1.758 7796
1.104 3.129 1.827 2306
1.063 3.014 1.752 6187
1.107 3.140 1.821 2902
1.100 3.118 1.797 6301
1.055 2.992 1.729 2296
1.101 3.123 1.787 7678
1.146 3.249 1.855 1187
1.112 3.154 1.792 7573
1.068 3.027 1.725 1214
1.102 3.125 1.765 8922
1.147 3.252 1.832 2334
1.106 3.136 1.759 9640
1.151 3.263 1.826 3597
1.112 3.154 1.756 8684
1.157 3.281 1.823 2686
1.121 3.179 1.757 8538
1.166 3.306 1.823 5049
1.161 3.291 1.803 10104
1.116 3.163 1.737 5600
1.165 3.302 1.796 10122
1.210 3.430 1.861 3720
1.164 3.300 1.782 7394
1.209 3.428 1.847 5120
1.180 3.345 1.793 7307
1.132 3.210 1.725 3022
1.176 3.336 1.776 8128
1.222 3.464 1.840 4148
1.178 3.340 1.766 5929
1.223 3.469 1.829 5277
1.230 3.487 1.825 6151
1.184 3.358 1.762 5200
1.234 3.498 1.818 6411
1.188 3.370 1.755 4249
1.252 3.551 1.830 4939
1.200 3.401 1.758 2753
1.256 3.562 1.823 5720
1.211 3.433 1.761 2124
1.255 3.560 1.808 5290
1.306 3.703 1.876 1581
1.257 3.564 1.798 4905
1.308 3.708 1.865 1904
1.254 3.555 1.780 5135
1.300 3.685 1.841 2773
1.292 3.662 1.817 5541
1.246 3.532 1.757 4203
1.286 3.646 1.796 7848
1.332 3.777 1.856 2763
1.285 3.644 1.782 7438
1.331 3.774 1.842 4826
1.318 3.738 1.811 7793
1.272 3.607 1.752 4110
1.325 3.756 1.806 7841
1.279 3.626 1.748 4041
1.329 3.768 1.798 7436
1.280 3.630 1.736 2849
1.328 3.765 1.783 5237
1.374 3.896 1.841 1594
1.327 3.763 1.769 3364
1.373 3.894 1.826 1731
1.351 3.830 1.784 3020
1.397 3.961 1.841 1926
1.389 3.938 1.817 3258
1.342 3.806 1.761 2239
1.388 3.936 1.802 4759
1.339 3.797 1.743 2049
1.377 3.905 1.776 5282
1.424 4.037 1.832 3901
1.408 3.993 1.799 5821
1.362 3.861 1.743 2613
1.410 3.998 1.787 7581
1.456 4.130 1.842 4321
1.409 3.995 1.771 6564
1.461 4.141 1.832 5131
1.435 4.069 1.788 4690
1.482 4.202 1.842 3433
1.498 4.248 1.846 4681
1.434 4.067 1.772 3326
1.502 4.260 1.836 6223
1.456 4.127 1.783 2793
1.506 4.272 1.826 6503
1.553 4.404 1.879 2732
1.506 4.269 1.810 4779
1.553 4.402 1.862 3620
1.576 4.470 1.874 4586
1.529 4.337 1.822 3317
1.573 4.461 1.855 6559
1.519 4.306 1.795 4447
1.523 4.318 1.784 5727
1.575 4.465 1.841 5711
1.542 4.372 1.790 4947
1.589 4.505 1.841 4224
1.588 4.503 1.824 4506
1.541 4.369 1.774 3302
1.595 4.521 1.816 3287
1.642 4.655 1.866 3051
1.601 4.540 1.807 3831
1.648 4.674 1.857 3664
1.603 4.545 1.793 4485
1.650 4.679 1.842 4041
1.649 4.676 1.826 4304
1.602 4.542 1.777 2887
1.651 4.681 1.811 4773
1.698 4.815 1.860 2345
1.657 4.700 1.802 4280
1.705 4.834 1.850 1991
1.697 4.810 1.825 3559
1.649 4.676 1.778 2232
1.703 4.829 1.815 4187
1.751 4.964 1.863 3340
1.740 4.933 1.835 4207
1.692 4.798 1.788 3112
1.739 4.931 1.818 3910
1.799 5.101 1.876 3723
1.801 5.106 1.861 4228
1.741 4.935 1.802 2835
1.802 5.111 1.845 3071
1.755 4.975 1.799 2433
1.766 5.008 1.794 3776
1.837 5.208 1.860 3080
1.801 5.106 1.809 2774
1.884 5.341 1.886 2463
1.873 5.310 1.858 3149
1.797 5.096 1.788 1887
1.877 5.322 1.844 2354
1.963 5.565 1.923 2162
1.964 5.569 1.906 3214
1.881 5.334 1.830 2086
1.966 5.574 1.889 2745
1.883 5.338 1.814 2563
2.013 5.708 1.912 3266
1.882 5.336 1.795 2532
2.010 5.699 1.890 3625
1.962 5.562 1.848 1825
2.037 5.775 1.895 4197
1.979 5.610 1.844 2638
2.036 5.773 1.875 3700
2.087 5.916 1.918 2466
2.093 5.935 1.904 3426
2.010 5.698 1.833 3259
2.095 5.940 1.886 2857
2.047 5.804 1.846 1750
2.069 5.866 1.845 2019
2.168 6.147 1.927 1641
2.195 6.223 1.929 3476
2.078 5.892 1.833 1975
2.197 6.228 1.910 5263
2.245 6.365 1.949 2866
2.198 6.233 1.891 4994
2.247 6.370 1.930 3264
2.203 6.245 1.874 3277
2.251 6.382 1.912 2260
2.355 6.676 1.972 3055
2.306 6.539 1.934 1959
2.400 6.804 1.985 2822
2.346 6.652 1.944 1951
2.391 6.780 1.957 2551
2.455 6.961 2.005 1773
2.383 6.756 1.928 2218
2.431 6.894 1.965 2046
2.428 6.884 1.940 1989
2.581 7.319 2.054 1488
2.481 7.034 1.956 1714
2.422 6.868 1.913 1376
2.493 7.068 1.942 1797
2.421 6.865 1.890 1186
2.738 7.763 2.095 1635
2.658 7.538 2.038 1302
2.737 7.761 2.070 2038
2.786 7.899 2.104 1729
2.783 7.890 2.076 1843
2.734 7.752 2.042 1701
2.777 7.874 2.047 2046
2.841 8.055 2.091 1612
2.779 7.879 2.022 2310
2.843 8.061 2.066 2075
2.937 8.328 2.104 2231
2.786 7.898 2.002 1855
2.939 8.334 2.078 3283
2.795 7.925 1.982 1221
2.938 8.332 2.051 3414
2.998 8.499 2.089 1851
2.933 8.315 2.020 3592
3.005 8.519 2.066 2638
2.937 8.327 1.996 3716
3.014 8.547 2.045 3010
3.016 8.552 2.019 4141
2.949 8.362 1.977 3890
3.015 8.550 1.991 5768
2.948 8.359 1.950 2792
3.017 8.555 1.965 5662
3.113 8.825 2.023 4204
3.114 8.831 1.996 4328
3.016 8.552 1.937 3306
3.328 9.436 2.093 3386
3.263 9.253 2.055 2407
3.333 9.449 2.066 4874
3.265 9.258 2.027 2633
3.334 9.454 2.037 4619
3.412 9.674 2.081 1911
3.336 9.460 2.008 2876
3.403 9.650 2.045 2532
3.473 9.846 2.053 3042
3.400 9.641 2.013 2602
3.474 9.852 2.023 3105
3.342 9.477 1.951 2603
3.476 9.857 1.992 3061
3.411 9.673 1.958 1936
3.481 9.869 1.963 2475
4.005 11.355 2.239 1472
3.952 11.206 2.176 1682
4.007 11.360 2.204 1617
3.951 11.204 2.140 1882
4.006 11.359 2.168 1691
3.953 11.210 2.106 1159
4.011 11.372 2.134 1102
4.400 12.475 2.289 1331
4.332 12.283 2.256 1224
4.399 12.473 2.249 1752
4.334 12.289 2.218 1051
4.401 12.479 2.211 1400
4.289 12.162 2.158 908
4.401 12.478 2.171 1073
4.770 13.525 2.342 956
4.780 13.553 2.304 972
4.403 12.483 2.133 939
4.686 13.286 2.219 1249
4.587 13.005 2.175 732
4.688 13.292 2.178 1009
4.795 13.595 2.225 600
4.684 13.283 2.135 569
0.760 2.142 1.774 4233
0.762 2.147 1.767 8466
0.803 2.261 1.856 3017
0.764 2.151 1.761 8466
0.804 2.266 1.849 6034
0.772 2.174 1.768 7563
0.812 2.288 1.856 4924
0.782 2.202 1.780 9792
0.823 2.317 1.868 2287
0.783 2.207 1.773 7957
0.824 2.322 1.861 2310
0.806 2.272 1.812 8270
0.848 2.388 1.900 1085
0.808 2.277 1.806 8270
