0.423 2.289 1.793 19404
0.401 2.169 1.705 1159
0.424 2.293 1.787 16095
0.426 2.304 1.785 12825
0.427 2.309 1.778 9607
0.449 2.429 1.865 2534
0.430 2.326 1.780 6621
0.452 2.447 1.867 3452
0.431 2.331 1.774 6621
0.453 2.452 1.860 3452
0.452 2.444 1.844 8056
0.429 2.323 1.758 5991
0.454 2.456 1.842 12012
0.431 2.334 1.756 6173
0.456 2.467 1.839 13186
0.433 2.345 1.753 4916
0.457 2.472 1.832 14774
0.433 2.343 1.742 3315
0.457 2.477 1.825 11333
0.434 2.348 1.735 2187
0.456 2.468 1.808 8010
0.431 2.333 1.715 1245
0.482 2.610 1.906 1075
0.457 2.473 1.801 8010
0.484 2.622 1.903 1399
0.459 2.484 1.799 7381
0.482 2.607 1.882 2432
0.460 2.489 1.791 6767
0.483 2.612 1.875 3647
0.470 2.546 1.819 6797
0.493 2.669 1.902 1313
0.448 2.423 1.736 1243
0.472 2.557 1.816 9459
0.450 2.434 1.733 1698
0.495 2.681 1.899 1025
0.473 2.562 1.809 8457
0.496 2.686 1.891 1527
0.450 2.438 1.726 1290
0.479 2.593 1.818 7663
0.456 2.469 1.736 1508
0.469 2.539 1.772 6046
0.492 2.663 1.854 3421
0.469 2.537 1.760 4853
0.492 2.661 1.842 4254
0.497 2.693 1.851 6309
0.470 2.542 1.753 3757
0.498 2.697 1.843 9566
0.475 2.573 1.763 2806
0.502 2.716 1.844 11730
0.477 2.584 1.759 2578
0.525 2.841 1.924 1330
0.504 2.727 1.840 14355
0.478 2.588 1.752 2350
0.527 2.852 1.920 1566
0.503 2.725 1.828 13293
0.527 2.851 1.907 2117
0.480 2.600 1.748 1898
0.504 2.730 1.820 12265
0.528 2.856 1.899 2396
0.481 2.604 1.741 1489
0.505 2.735 1.812 9154
0.529 2.861 1.891 2353
0.482 2.609 1.733 1107
0.513 2.780 1.829 6263
0.490 2.653 1.750 2079
0.513 2.778 1.817 8032
0.537 2.904 1.894 2161
0.490 2.651 1.739 1155
0.514 2.783 1.808 9840
0.537 2.909 1.886 2990
0.515 2.787 1.800 8825
0.538 2.914 1.877 2830
0.517 2.799 1.796 7848
0.541 2.926 1.873 2392
0.520 2.817 1.796 6618
0.544 2.944 1.872 2325
0.532 2.882 1.824 5426
0.556 3.010 1.900 1246
0.533 2.887 1.815 4633
0.557 3.015 1.891 1762
0.548 2.966 1.851 3578
0.572 3.094 1.926 1901
0.523 2.831 1.771 1540
0.549 2.971 1.842 4706
0.573 3.099 1.917 2446
0.548 2.969 1.829 5595
0.572 3.097 1.904 3537
0.548 2.967 1.817 6626
0.572 3.096 1.891 4580
0.550 2.979 1.812 7373
0.574 3.108 1.886 5273
0.567 3.072 1.854 7639
0.544 2.943 1.780 2085
0.591 3.201 1.927 1551
0.568 3.077 1.845 7620
0.592 3.206 1.917 1768
0.544 2.947 1.772 1370
0.567 3.068 1.828 6686
0.591 3.197 1.900 2107
0.568 3.073 1.819 5953
0.604 3.271 1.929 2339
0.574 3.105 1.825 7782
0.605 3.276 1.920 4564
0.550 2.975 1.753 1966
0.573 3.103 1.812 8433
0.606 3.281 1.910 6788
0.607 3.286 1.900 7404
0.573 3.101 1.799 6736
0.631 3.417 1.971 1015
0.608 3.291 1.891 7063
0.575 3.112 1.794 5105
0.632 3.422 1.961 1106
0.610 3.303 1.885 6247
0.576 3.117 1.785 3496
0.611 3.308 1.875 5139
0.578 3.129 1.780 4156
0.635 3.439 1.945 1312
0.611 3.306 1.862 3968
0.581 3.147 1.778 3931
0.635 3.437 1.931 2716
0.631 3.415 1.907 4556
0.587 3.180 1.783 4200
0.632 3.420 1.897 4706
0.607 3.288 1.828 3890
0.583 3.157 1.759 2593
0.631 3.418 1.883 6302
0.607 3.286 1.815 3874
0.580 3.140 1.739 1984
0.656 3.550 1.951 1197
0.632 3.423 1.873 7695
0.608 3.291 1.805 3504
0.584 3.159 1.737 1802
0.657 3.555 1.941 1698
0.633 3.428 1.863 6654
0.609 3.296 1.796 3333
0.584 3.164 1.728 2003
0.658 3.560 1.931 1895
0.637 3.447 1.860 6385
0.612 3.314 1.793 3456
0.588 3.182 1.726 2097
0.661 3.579 1.927 1932
0.651 3.521 1.885 7762
0.626 3.389 1.819 3177
0.596 3.228 1.738 2497
0.649 3.512 1.868 10215
0.596 3.226 1.725 2188
0.624 3.380 1.802 1628
0.650 3.517 1.858 9905
0.598 3.238 1.719 1621
0.625 3.384 1.792 1210
0.652 3.529 1.851 5664
0.679 3.677 1.923 1630
0.655 3.548 1.847 4710
0.680 3.682 1.912 2289
0.667 3.609 1.864 5314
0.642 3.476 1.799 1692
0.668 3.614 1.854 8520
0.692 3.748 1.918 1100
0.670 3.626 1.846 7646
0.695 3.760 1.910 1760
0.677 3.666 1.853 6933
0.653 3.532 1.789 1791
0.681 3.685 1.848 6683
0.656 3.551 1.785 1843
0.683 3.697 1.841 5574
0.708 3.832 1.904 1432
0.693 3.752 1.853 6301
0.668 3.617 1.791 1679
0.694 3.757 1.842 5185
0.719 3.892 1.904 1295
0.669 3.622 1.780 1287
0.696 3.769 1.834 3895
0.671 3.634 1.773 1301
0.721 3.904 1.896 1007
0.697 3.774 1.823 4300
0.722 3.909 1.884 1031
0.695 3.764 1.806 4815
0.720 3.900 1.867 1790
0.695 3.762 1.792 4642
0.720 3.897 1.852 2302
0.717 3.881 1.831 4538
0.692 3.745 1.771 2610
0.742 4.016 1.891 1225
0.719 3.893 1.823 6060
0.694 3.757 1.763 1464
0.744 4.029 1.882 1361
0.721 3.905 1.815 6343
0.749 4.055 1.880 1634
0.724 3.917 1.806 6335
0.749 4.053 1.865 2038
0.740 4.008 1.832 6276
0.715 3.871 1.773 3421
0.766 4.144 1.890 1933
0.743 4.020 1.823 7953
0.717 3.883 1.765 2960
0.768 4.156 1.881 2798
0.743 4.024 1.811 7293
0.769 4.161 1.869 3217
0.758 4.101 1.829 6163
0.732 3.964 1.772 1759
0.783 4.238 1.887 1420
0.760 4.113 1.820 6725
0.785 4.250 1.877 2518
0.735 3.976 1.764 1468
0.766 4.147 1.820 6293
0.791 4.284 1.876 2751
0.741 4.010 1.764 2018
0.770 4.166 1.814 7518
0.795 4.304 1.870 2146
0.744 4.029 1.758 1627
0.771 4.171 1.802 6872
0.796 4.309 1.857 1983
0.786 4.255 1.821 6603
0.761 4.118 1.766 1398
0.822 4.451 1.900 1182
0.787 4.260 1.809 7775
0.822 4.449 1.884 1474
0.762 4.122 1.754 1116
0.792 4.287 1.805 4815
0.817 4.425 1.859 2087
0.766 4.149 1.751 1085
0.829 4.488 1.869 3607
0.795 4.306 1.798 2840
0.770 4.168 1.744 1556
0.831 4.500 1.858 5358
0.799 4.325 1.791 2694
0.774 4.187 1.738 1173
0.827 4.476 1.834 6639
0.801 4.337 1.781 2404
0.871 4.716 1.926 1251
0.830 4.495 1.826 7797
0.805 4.357 1.774 2230
0.870 4.707 1.907 1739
0.839 4.544 1.830 8781
0.869 4.705 1.890 3159
0.806 4.361 1.761 1770
0.843 4.563 1.822 6568
0.871 4.717 1.879 5631
0.817 4.425 1.770 1799
0.874 4.729 1.868 7292
0.845 4.576 1.811 4657
0.820 4.437 1.760 1559
0.899 4.868 1.919 1255
0.877 4.749 1.859 7767
0.843 4.566 1.792 3933
0.903 4.888 1.910 1303
0.878 4.754 1.845 8182
0.843 4.563 1.776 2745
0.904 4.893 1.896 1354
0.876 4.744 1.826 6772
0.902 4.883 1.876 2391
0.845 4.575 1.766 1566
0.898 4.859 1.852 6269
0.872 4.719 1.802 2040
0.897 4.856 1.835 6019
0.924 5.004 1.887 1799
0.928 5.023 1.877 3812
0.897 4.854 1.818 3126
0.933 5.050 1.870 6402
0.907 4.910 1.821 3484
0.959 5.190 1.918 1522
0.881 4.770 1.773 1293
0.935 5.063 1.858 7121
0.909 4.923 1.810 3583
0.961 5.203 1.906 2101
0.932 5.045 1.835 6447
0.958 5.186 1.883 2948
0.906 4.905 1.788 2383
0.934 5.058 1.823 6020
0.960 5.198 1.870 3807
0.906 4.902 1.771 1820
0.938 5.077 1.813 5050
0.964 5.218 1.860 3668
0.909 4.922 1.761 1387
0.129 0.697 0.354 1024
0.936 5.067 1.793 3798
0.962 5.208 1.840 3472
0.988 5.349 1.886 1303
0.129 0.698 0.352 1003
0.962 5.205 1.822 3836
0.936 5.065 1.776 2730
0.988 5.346 1.868 1652
0.965 5.225 1.811 2813
1.006 5.448 1.883 2028
0.936 5.069 1.761 1527
0.987 5.341 1.832 3400
1.013 5.482 1.877 2189
0.961 5.200 1.786 1470
0.992 5.368 1.823 3479
1.025 5.547 1.879 1558
0.966 5.227 1.778 1296
0.995 5.388 1.812 3375
1.026 5.552 1.863 1711
0.998 5.400 1.798 2611
1.033 5.594 1.858 2253
1.062 5.750 1.907 1319
1.051 5.688 1.869 2347
1.010 5.465 1.801 2006
1.077 5.830 1.913 1672
1.071 5.798 1.884 2855
1.012 5.477 1.787 2205
1.045 5.656 1.841 2157
1.097 5.939 1.927 1192
1.065 5.765 1.856 3420
1.091 5.907 1.899 2282
1.039 5.623 1.813 1571
1.013 5.482 1.771 1293
1.067 5.778 1.841 2995
1.094 5.920 1.883 1994
1.041 5.636 1.799 1423
1.120 6.062 1.926 1047
1.117 6.044 1.901 2990
1.079 5.842 1.842 2836
1.047 5.670 1.791 1505
1.147 6.209 1.950 1298
1.119 6.057 1.886 3179
1.080 5.847 1.825 1893
1.162 6.289 1.953 1337
0.838 4.537 1.444 1032
1.117 6.047 1.863 3424
1.163 6.294 1.935 1486
0.839 4.541 1.430 1098
1.115 6.037 1.841 3175
1.161 6.284 1.912 1908
1.204 6.517 1.978 1614
0.840 4.545 1.417 1013
1.160 6.282 1.891 2327
1.201 6.499 1.952 2040
1.129 6.109 1.843 1603
1.102 5.967 1.802 1497
1.178 6.377 1.898 2922
1.210 6.549 1.946 2856
1.152 6.234 1.858 1618
1.125 6.091 1.818 1331
1.212 6.562 1.928 3685
1.179 6.382 1.879 3069
1.255 6.795 1.992 1719
1.129 6.111 1.805 1060
1.213 6.567 1.909 4390
1.180 6.387 1.860 2630
1.256 6.800 1.972 2226
1.288 6.973 2.019 1897
1.288 6.971 1.997 4184
1.214 6.572 1.890 3571
1.253 6.783 1.946 2114
1.181 6.392 1.841 2044
1.290 6.984 1.978 4590
1.239 6.705 1.904 2877
1.212 6.562 1.866 1707
1.180 6.389 1.820 1349
1.294 7.004 1.962 3793
1.251 6.771 1.900 2903
1.320 7.148 1.999 1543
1.216 6.582 1.851 1378
1.255 6.791 1.884 2870
1.296 7.017 1.943 2609
1.323 7.160 1.980 1558
1.228 6.647 1.847 1229
1.299 7.030 1.924 2535
1.257 6.803 1.866 2025
1.342 7.264 1.984 1518
1.381 7.475 2.038 1213
1.314 7.111 1.923 1865
1.395 7.549 2.033 1357
1.340 7.254 1.959 1222
1.287 6.967 1.886 1032
1.391 7.531 2.005 1747
1.314 7.116 1.902 1647
1.418 7.675 2.041 1513
1.348 7.297 1.947 1085
1.417 7.673 2.017 1798
1.391 7.529 1.981 1277
1.444 7.817 2.052 1266
1.445 7.822 2.029 1980
1.418 7.678 1.994 1449
1.472 7.966 2.064 1339
1.374 7.436 1.935 1126
1.481 8.017 2.051 2101
1.445 7.820 2.004 1706
1.418 7.676 1.970 1016
1.478 8.000 2.022 2722
1.516 8.204 2.071 1359
1.549 8.386 2.114 1143
1.477 7.997 1.997 2532
1.517 8.210 2.047 1591
1.550 8.392 2.089 1143
1.513 8.193 2.017 1496
1.581 8.557 2.101 1345
1.478 8.003 1.973 1138
1.585 8.578 2.079 1974
1.513 8.190 1.991 1426
1.590 8.606 2.059 1471
1.596 8.642 2.041 1355
1.678 9.081 2.110 2046
1.597 8.647 2.015 1463
1.680 9.095 2.084 2184
1.607 8.698 1.999 1645
1.606 8.696 1.972 2301
1.684 9.115 2.061 1318
1.725 9.336 2.108 1191
1.607 8.701 1.946 2314
1.724 9.334 2.079 1757
1.665 9.014 2.012 1241
1.758 9.515 2.087 1534
1.725 9.340 2.051 1477
1.699 9.195 2.021 1246
1.608 8.707 1.921 1193
1.757 9.513 2.057 2057
1.698 9.193 1.992 1900
1.728 9.353 2.025 1403
1.763 9.542 2.034 2383
1.732 9.374 2.000 2041
1.699 9.198 1.965 1507
1.795 9.717 2.069 1473
1.731 9.371 1.971 3627
1.764 9.547 2.006 2686
1.795 9.715 2.039 1883
1.732 9.376 1.943 5488
1.763 9.545 1.976 3014
1.799 9.736 2.013 1874
1.735 9.389 1.917 5208
1.800 9.741 1.984 3797
1.767 9.565 1.951 2682
1.801 9.747 1.955 5567
1.734 9.387 1.888 3303
1.769 9.578 1.924 2218
1.801 9.752 1.927 5093
1.769 9.576 1.894 2652
1.735 9.392 1.860 2144
1.802 9.757 1.898 3907
1.770 9.581 1.866 3019
1.737 9.404 1.834 1363
1.802 9.754 1.868 3072
1.774 9.601 1.840 2306
2.092 11.326 2.148 1208
1.803 9.759 1.839 1942
1.776 9.613 1.813 1699
2.095 11.339 2.116 1199
2.227 12.053 2.240 1058
2.201 11.913 2.180 1403
2.116 11.453 2.101 1211
2.257 12.220 2.233 1198
1.805 9.772 1.811 1132
2.115 11.450 2.065 1335
2.256 12.211 2.194 1174
2.200 11.911 2.143 1156
2.116 11.456 2.032 1004
2.380 12.883 2.229 1163
2.422 13.111 2.187 1114
0.426 2.278 1.807 9832
0.427 2.283 1.800 19664
0.405 2.164 1.711 1170
0.428 2.288 1.793 19664
0.406 2.168 1.705 1170
0.430 2.299 1.791 16279
0.431 2.303 1.785 12958
0.454 2.423 1.872 1257
0.432 2.308 1.778 9892
0.455 2.428 1.865 2868
0.434 2.319 1.776 6909
0.457 2.440 1.863 4158
0.435 2.324 1.769 6909
0.458 2.445 1.856 4158
0.457 2.443 1.844 8437
0.435 2.322 1.758 6183
0.459 2.454 1.842 12396
0.437 2.333 1.756 6063
0.460 2.459 1.834 13715
0.438 2.338 1.749 4608
0.462 2.471 1.832 15434
0.438 2.342 1.742 3153
0.463 2.475 1.825 11898
0.439 2.347 1.735 2107
0.462 2.467 1.808 8595
0.488 2.609 1.906 1277
0.438 2.339 1.719 1190
0.463 2.472 1.801 8595
0.489 2.614 1.899 1535
0.465 2.483 1.799 7688
0.488 2.606 1.882 2603
0.466 2.488 1.791 6796
0.489 2.611 1.875 3729
0.476 2.545 1.819 6697
0.453 2.421 1.736 1371
0.499 2.668 1.902 1344
0.478 2.556 1.816 9338
0.455 2.433 1.733 1786
0.502 2.680 1.899 1143
0.479 2.561 1.809 8390
0.502 2.685 1.891 1826
0.456 2.437 1.726 1377
0.481 2.572 1.805 7444
0.505 2.696 1.887 2147
0.458 2.448 1.723 1082
0.475 2.538 1.772 5688
0.498 2.662 1.854 3605
0.497 2.654 1.837 4358
0.473 2.529 1.756 4194
0.504 2.691 1.851 6464
0.475 2.540 1.753 3376
0.505 2.696 1.843 9515
0.481 2.571 1.763 2822
0.528 2.821 1.924 1089
0.508 2.714 1.844 11570
0.483 2.583 1.759 2629
0.531 2.839 1.924 1522
0.509 2.719 1.836 14180
0.484 2.587 1.752 2410
0.532 2.845 1.916 2125
0.510 2.724 1.828 13099
0.533 2.850 1.907 2358
0.486 2.598 1.748 1956
0.511 2.729 1.820 12018
0.534 2.855 1.899 2590
0.487 2.603 1.741 1550
0.512 2.734 1.812 8749
0.535 2.860 1.891 2422
0.488 2.608 1.733 1137
0.520 2.778 1.829 5676
0.496 2.652 1.750 1972
0.521 2.783 1.821 7315
0.545 2.910 1.899 1583
0.497 2.657 1.743 1271
0.521 2.781 1.808 9093
0.544 2.908 1.886 2556
0.523 2.793 1.804 8498
0.546 2.920 1.882 2152
0.524 2.798 1.796 8043
0.547 2.925 1.873 2081
0.527 2.816 1.796 7230
0.551 2.943 1.872 2353
0.532 2.841 1.800 5408
0.556 2.968 1.876 2657
0.579 3.096 1.952 1039
0.540 2.886 1.815 4054
0.564 3.014 1.891 1830
0.556 2.971 1.855 4133
0.530 2.830 1.771 1938
0.580 3.099 1.930 1860
0.557 2.976 1.846 5345
0.581 3.105 1.921 2429
0.533 2.848 1.771 1080
0.555 2.968 1.829 5761
0.579 3.096 1.904 3928
0.555 2.966 1.817 6455
0.579 3.094 1.891 4996
0.557 2.977 1.812 6964
0.581 3.106 1.886 5702
0.576 3.077 1.857 6945
0.552 2.948 1.784 2661
0.600 3.206 1.931 1650
0.581 3.103 1.860 7077
0.556 2.973 1.787 4007
0.605 3.232 1.933 1128
0.574 3.067 1.828 6244
0.598 3.196 1.900 2432
0.575 3.071 1.819 5612
0.611 3.263 1.925 2046
0.581 3.104 1.825 6988
0.613 3.275 1.920 4380
0.557 2.974 1.753 2162
0.581 3.102 1.812 7544
0.614 3.280 1.910 6740
0.615 3.285 1.900 7646
0.580 3.099 1.799 6008
0.616 3.290 1.891 7717
0.582 3.111 1.794 4415
0.640 3.420 1.961 1003
0.618 3.302 1.885 6973
0.583 3.116 1.785 2864
0.619 3.307 1.875 5488
0.585 3.127 1.780 3631
0.643 3.438 1.945 1200
0.590 3.153 1.781 3843
0.619 3.305 1.862 3703
0.643 3.436 1.931 2498
0.639 3.413 1.907 4128
0.594 3.171 1.780 3890
0.641 3.425 1.900 4622
0.616 3.294 1.832 4020
0.592 3.162 1.763 2628
0.639 3.416 1.883 6375
0.615 3.285 1.815 3852
0.589 3.146 1.743 1784
0.640 3.421 1.873 7720
0.616 3.290 1.805 3663
0.591 3.158 1.737 1786
0.665 3.553 1.941 1440
0.641 3.426 1.863 6728
0.617 3.294 1.796 3491
0.592 3.162 1.728 2013
0.666 3.559 1.931 1582
0.645 3.445 1.860 6832
0.620 3.313 1.793 3480
0.595 3.181 1.726 1837
0.670 3.578 1.927 1636
0.652 3.485 1.868 8479
0.627 3.353 1.801 2849
0.603 3.220 1.734 1801
0.677 3.618 1.934 1246
0.656 3.504 1.864 10825
0.624 3.336 1.781 1805
0.600 3.204 1.714 1476
0.681 3.637 1.931 1000
0.658 3.516 1.858 10134
0.633 3.383 1.792 1403
0.604 3.229 1.715 1196
0.683 3.649 1.924 1175
0.660 3.528 1.851 5587
0.685 3.661 1.916 1858
0.656 3.505 1.827 4221
0.681 3.638 1.892 2936
0.677 3.615 1.868 5259
0.652 3.481 1.803 2373
0.677 3.620 1.857 8529
0.652 3.486 1.793 1235
0.678 3.625 1.846 7630
0.703 3.759 1.910 1603
0.687 3.672 1.856 6610
0.662 3.538 1.792 2235
0.688 3.677 1.845 6934
0.663 3.543 1.782 1725
0.686 3.668 1.828 6580
0.712 3.802 1.891 2293
0.702 3.750 1.853 6111
0.677 3.616 1.791 1806
0.703 3.755 1.842 5207
0.678 3.620 1.780 1423
0.728 3.890 1.904 1103
0.705 3.767 1.834 3987
0.680 3.632 1.773 1400
0.707 3.779 1.827 4667
0.682 3.644 1.765 1128
0.706 3.770 1.809 5183
0.731 3.905 1.870 1613
0.704 3.760 1.792 4656
0.729 3.896 1.852 2267
0.726 3.879 1.831 4197
0.701 3.744 1.771 2682
0.751 4.015 1.891 1142
0.728 3.891 1.823 5613
0.703 3.755 1.763 1711
0.758 4.048 1.892 1426
0.731 3.903 1.815 5794
0.759 4.053 1.880 1993
0.733 3.915 1.806 5945
0.758 4.051 1.865 2220
0.750 4.006 1.832 6202
0.724 3.870 1.773 3364
0.775 4.142 1.890 2001
0.752 4.018 1.823 8603
0.726 3.881 1.765 2961
0.778 4.154 1.881 2535
0.753 4.023 1.811 7920
0.778 4.159 1.869 2828
0.727 3.886 1.754 1176
0.767 4.099 1.829 6980
0.742 3.963 1.772 1704
0.793 4.236 1.887 1567
0.768 4.104 1.817 7680
0.794 4.241 1.874 3120
0.776 4.145 1.820 6306
0.801 4.282 1.876 2978
0.750 4.008 1.764 2221
0.779 4.164 1.814 7322
0.805 4.302 1.870 2035
0.754 4.027 1.758 1976
0.780 4.169 1.802 6910
0.806 4.307 1.857 1770
0.796 4.254 1.821 7071
0.770 4.116 1.766 1559
0.837 4.471 1.908 1038
0.797 4.258 1.809 8008
0.832 4.447 1.884 1450
0.771 4.121 1.754 1298
0.802 4.285 1.805 4867
0.828 4.423 1.859 2206
0.776 4.147 1.751 1203
0.841 4.493 1.872 3920
0.806 4.304 1.798 2907
0.780 4.166 1.744 1641
0.843 4.505 1.861 6124
0.808 4.316 1.788 2938
0.837 4.474 1.834 7290
0.811 4.336 1.781 2575
0.884 4.722 1.929 1306
0.840 4.486 1.824 8672
0.814 4.348 1.771 2233
0.881 4.705 1.907 1903
0.850 4.542 1.830 9008
0.880 4.703 1.890 3542
0.816 4.360 1.761 1820
0.854 4.561 1.822 7125
0.882 4.715 1.879 6121
0.828 4.423 1.770 1771
0.885 4.727 1.868 7793
0.856 4.574 1.811 5261
0.830 4.435 1.760 1644
0.911 4.866 1.919 1088
0.890 4.754 1.862 8455
0.856 4.571 1.795 4349
0.889 4.752 1.845 8894
0.854 4.561 1.776 2882
0.915 4.891 1.896 1025
0.889 4.749 1.829 6965
0.855 4.566 1.763 1601
0.915 4.889 1.879 1592
0.908 4.849 1.849 5911
0.882 4.710 1.799 1787
0.909 4.854 1.835 6096
0.936 5.001 1.887 1843
0.882 4.715 1.785 1000
0.940 5.021 1.877 3386
0.909 4.859 1.820 3383
0.945 5.048 1.870 5853
0.919 4.908 1.821 3607
0.971 5.188 1.918 1493
0.892 4.768 1.773 1041
0.947 5.060 1.858 6591
0.921 4.920 1.810 3328
0.973 5.201 1.906 1843
0.943 5.036 1.833 6309
0.969 5.176 1.880 2498
0.916 4.896 1.785 1602
0.943 5.041 1.818 6091
0.971 5.188 1.868 3300
0.916 4.893 1.768 1336
0.950 5.075 1.813 4635
0.979 5.230 1.865 3577
0.922 4.927 1.764 1094
0.976 5.213 1.842 3252
0.948 5.065 1.793 3242
1.002 5.354 1.888 1174
0.975 5.211 1.824 2936
0.949 5.070 1.778 2321
1.002 5.351 1.870 1629
0.980 5.238 1.816 2675
1.018 5.438 1.881 1824
0.948 5.067 1.761 1324
0.999 5.339 1.832 3121
1.026 5.480 1.877 1914
0.973 5.198 1.786 1452
1.007 5.381 1.828 3638
1.038 5.544 1.879 1801
0.981 5.240 1.783 1568
1.008 5.386 1.812 3458
1.040 5.557 1.865 1899
1.047 5.591 1.858 2538
1.012 5.405 1.801 2495
1.073 5.733 1.902 1422
1.066 5.693 1.872 2463
1.021 5.455 1.798 2209
1.092 5.835 1.915 1279
1.082 5.780 1.880 2633
1.025 5.474 1.787 2183
1.055 5.638 1.837 1860
1.108 5.922 1.923 1419
1.077 5.755 1.854 3449
1.105 5.905 1.899 2058
1.028 5.494 1.775 1359
1.077 5.753 1.835 2878
1.103 5.895 1.877 1854
1.130 6.037 1.919 1424
1.050 5.611 1.792 1034
1.094 5.847 1.844 3369
1.129 6.034 1.899 3077
1.062 5.675 1.793 1549
1.160 6.199 1.947 1199
1.130 6.039 1.881 3269
1.095 5.852 1.827 2372
1.174 6.271 1.949 1397
0.849 4.535 1.444 1144
1.123 5.999 1.850 4097
1.176 6.284 1.932 1550
0.851 4.547 1.433 1323
1.149 6.141 1.891 1189
1.128 6.027 1.839 3682
1.176 6.281 1.912 2070
1.218 6.506 1.976 1625
0.852 4.550 1.419 1175
1.177 6.286 1.893 2642
1.216 6.496 1.952 2330
1.127 6.024 1.819 1666
1.247 6.661 1.999 1237
1.225 6.547 1.946 2786
1.192 6.366 1.896 2520
1.144 6.111 1.825 1449
1.252 6.689 1.985 1156
1.226 6.552 1.926 4074
1.194 6.379 1.879 2746
1.268 6.777 1.988 2023
1.167 6.236 1.840 1192
1.227 6.557 1.907 4838
1.271 6.790 1.970 2594
1.196 6.391 1.862 2358
1.305 6.970 2.019 1734
1.304 6.968 1.997 3737
1.228 6.562 1.888 3439
1.269 6.780 1.946 2640
1.194 6.381 1.839 1825
1.308 6.989 1.980 4294
1.269 6.778 1.924 3096
1.228 6.559 1.866 1664
1.195 6.386 1.820 1294
1.312 7.009 1.964 3984
1.268 6.775 1.902 3568
1.230 6.572 1.849 1499
1.339 7.152 2.001 1234
1.270 6.788 1.884 3409
1.313 7.014 1.943 2645
1.340 7.157 1.980 1417
1.244 6.645 1.847 1331
1.273 6.800 1.866 2443
1.317 7.034 1.926 2404
1.359 7.261 1.984 1229
1.415 7.563 2.061 1214
1.329 7.100 1.921 2239
1.416 7.568 2.039 1500
1.274 6.805 1.846 1176
1.357 7.251 1.959 1060
1.328 7.097 1.898 2096
1.434 7.664 2.039 1889
1.408 7.521 2.003 1447
1.435 7.670 2.017 1665
1.462 7.813 2.052 1318
1.404 7.503 1.976 1252
1.328 7.095 1.875 1135
1.462 7.811 2.027 2059
1.497 8.000 2.073 1253
1.390 7.425 1.933 1202
1.434 7.660 1.990 1042
1.500 8.013 2.051 2190
1.462 7.809 2.002 1678
1.435 7.665 1.968 1118
1.499 8.011 2.026 2691
1.535 8.201 2.071 1209
1.569 8.383 2.114 1177
1.438 7.685 1.949 1143
1.498 8.002 1.999 2294
1.536 8.206 2.047 1525
1.570 8.388 2.089 1098
1.602 8.561 2.103 1445
1.533 8.189 2.017 1442
1.605 8.574 2.079 2097
1.531 8.179 1.990 1307
1.607 8.587 2.056 1640
1.611 8.608 2.034 1473
1.699 9.077 2.110 2046
1.611 8.606 2.007 1438
1.701 9.091 2.084 2553
1.629 8.702 2.001 1491
1.628 8.700 1.974 2115
1.705 9.111 2.061 1746
1.748 9.340 2.109 1069
1.628 8.698 1.946 2096
1.748 9.338 2.080 1547
1.781 9.513 2.117 1166
1.779 9.504 2.086 1757
1.729 9.237 2.031 1619
1.630 8.710 1.922 1076
1.780 9.509 2.057 2490
1.720 9.189 1.992 1816
1.784 9.530 2.032 2941
1.754 9.370 2.000 1648
1.721 9.194 1.965 1417
1.818 9.713 2.069 1310
1.755 9.375 1.973 3043
1.786 9.543 2.006 2744
1.818 9.711 2.039 1695
1.754 9.372 1.943 4533
1.787 9.548 1.978 2481
1.821 9.732 2.013 1713
1.757 9.385 1.917 4304
1.822 9.737 1.984 3482
1.788 9.553 1.949 2255
1.823 9.742 1.955 5133
1.756 9.383 1.888 2623
1.788 9.551 1.920 2028
1.824 9.747 1.927 4778
1.789 9.556 1.891 2581
1.757 9.388 1.860 1603
1.882 10.054 1.983 1287
1.825 9.753 1.898 3719
1.792 9.576 1.866 2824
1.886 10.074 1.956 1163
2.029 10.840 2.095 1089
1.825 9.750 1.868 2845
1.796 9.597 1.840 2214
2.119 11.321 2.148 1115
1.826 9.755 1.839 1761
1.798 9.609 1.813 1568
2.121 11.335 2.116 1125
2.286 12.216 2.270 1059
2.227 11.900 2.178 1430
2.143 11.448 2.101 1246
2.286 12.215 2.233 1206
1.828 9.767 1.811 1047
2.142 11.445 2.065 1380
2.226 11.891 2.141 1224
2.286 12.213 2.195 1154
2.386 12.749 2.247 1014
2.143 11.451 2.032 1011
2.410 12.878 2.229 1351
2.410 12.876 2.190 1123
2.455 13.114 2.228 1107
2.453 13.105 2.187 1299
0.432 2.283 1.811 10125
0.433 2.288 1.805 20250
0.411 2.169 1.716 1199
0.434 2.293 1.798 20250
0.412 2.173 1.709 1199
0.435 2.298 1.791 16661
0.458 2.417 1.879 1142
0.436 2.302 1.785 13072
0.459 2.422 1.872 1786
0.437 2.307 1.778 10062
0.460 2.427 1.865 3260
0.439 2.318 1.776 7098
0.462 2.439 1.863 4421
0.440 2.323 1.769 7098
0.463 2.444 1.856 4421
0.462 2.442 1.844 8624
0.440 2.321 1.758 6156
0.463 2.447 1.837 12514
0.440 2.326 1.751 5260
0.466 2.458 1.834 14048
0.443 2.337 1.749 4259
0.468 2.470 1.832 15950
0.443 2.341 1.742 2794
0.469 2.474 1.825 12389
0.444 2.346 1.735 1881
0.492 2.596 1.909 1061
0.467 2.466 1.808 9119
0.490 2.589 1.893 1516
0.441 2.331 1.715 1057
0.468 2.471 1.801 9119
0.492 2.600 1.890 1688
0.470 2.482 1.799 7915
0.493 2.605 1.882 2687
0.470 2.481 1.787 6729
0.493 2.604 1.870 3700
0.482 2.544 1.819 6526
0.458 2.421 1.736 1467
0.505 2.667 1.902 1349
0.483 2.549 1.812 9163
0.506 2.672 1.894 1625
0.459 2.425 1.729 1456
0.484 2.553 1.804 8259
0.507 2.677 1.887 2480
0.460 2.430 1.722 1186
0.484 2.558 1.797 7355
0.508 2.682 1.879 3335
0.480 2.537 1.772 5444
0.504 2.661 1.854 3883
0.504 2.659 1.842 4486
0.480 2.535 1.760 3805
0.509 2.690 1.851 6696
0.482 2.546 1.757 3055
0.510 2.695 1.843 9579
0.487 2.570 1.763 2786
0.534 2.820 1.924 1168
0.513 2.707 1.839 11477
0.489 2.582 1.759 2611
0.536 2.832 1.920 1880
0.515 2.718 1.836 13951
0.538 2.843 1.916 2374
0.490 2.586 1.752 2372
0.516 2.723 1.828 12817
0.539 2.849 1.907 2603
0.492 2.597 1.748 1984
0.515 2.721 1.816 11691
0.539 2.847 1.895 3319
0.491 2.595 1.737 1425
0.516 2.726 1.808 8427
0.540 2.852 1.886 2946
0.492 2.600 1.729 1051
0.532 2.810 1.849 5274
0.508 2.684 1.771 4356
0.527 2.782 1.821 6634
0.551 2.909 1.899 1417
0.503 2.656 1.743 1211
0.526 2.780 1.808 8237
0.550 2.907 1.886 2228
0.529 2.792 1.804 8053
0.553 2.919 1.882 2078
0.531 2.803 1.800 8172
0.555 2.930 1.877 2076
0.533 2.815 1.796 7662
0.557 2.942 1.872 2749
0.536 2.833 1.796 5683
0.561 2.960 1.872 3464
0.585 3.088 1.948 1258
0.562 2.965 1.863 3516
0.536 2.831 1.784 3435
0.586 3.093 1.939 1343
0.562 2.970 1.855 4861
0.537 2.835 1.775 2356
0.587 3.098 1.930 2047
0.563 2.975 1.846 6155
0.588 3.103 1.921 2713
0.539 2.847 1.771 1634
0.563 2.973 1.833 6118
0.587 3.102 1.908 4028
0.539 2.845 1.759 1454
0.563 2.971 1.821 6428
0.587 3.100 1.895 5217
0.538 2.843 1.747 1113
0.564 2.976 1.812 6649
0.588 3.105 1.886 6019
0.590 3.117 1.881 6840
0.566 2.988 1.807 6144
0.615 3.246 1.954 1002
0.594 3.135 1.879 7210
0.568 2.999 1.802 5496
0.570 3.011 1.797 5904
0.595 3.140 1.870 5405
0.619 3.270 1.942 1252
0.571 3.016 1.789 6162
0.596 3.145 1.861 3197
0.620 3.275 1.933 1647
0.586 3.095 1.821 6397
0.619 3.266 1.916 4192
0.562 2.966 1.750 1706
0.587 3.100 1.812 6775
0.621 3.278 1.910 6612
0.622 3.283 1.900 7786
0.587 3.098 1.799 5332
0.623 3.288 1.891 8336
0.588 3.103 1.790 3732
0.625 3.300 1.885 7746
0.590 3.115 1.785 2179
0.626 3.305 1.875 6000
0.592 3.126 1.780 2946
0.651 3.436 1.945 1142
0.626 3.303 1.862 3613
0.597 3.152 1.781 3391
0.650 3.434 1.931 2394
0.647 3.419 1.910 3926
0.600 3.170 1.780 3305
0.650 3.431 1.904 4732
0.625 3.299 1.835 3996
0.600 3.168 1.767 2300
0.648 3.422 1.887 6368
0.623 3.290 1.818 4349
0.596 3.145 1.743 1659
0.648 3.420 1.873 7500
0.623 3.288 1.805 3785
0.598 3.156 1.737 1764
0.673 3.552 1.941 1237
0.650 3.432 1.867 6672
0.625 3.300 1.799 4314
0.600 3.168 1.732 1911
0.675 3.564 1.934 1277
0.653 3.451 1.864 7314
0.628 3.319 1.797 3898
0.603 3.186 1.729 1662
0.679 3.583 1.931 1341
0.660 3.484 1.868 8970
0.635 3.351 1.801 2662
0.685 3.616 1.934 1282
0.608 3.212 1.731 1257
0.662 3.496 1.861 11069
0.637 3.363 1.795 1788
0.687 3.628 1.927 1239
0.609 3.216 1.721 1134
0.664 3.507 1.854 10017
0.689 3.640 1.920 1633
0.639 3.375 1.788 1517
0.669 3.533 1.854 5416
0.694 3.666 1.920 2052
0.644 3.400 1.789 1033
0.662 3.496 1.823 4589
0.687 3.629 1.888 3766
0.683 3.606 1.864 5947
0.658 3.473 1.799 2458
0.684 3.611 1.854 8627
0.659 3.478 1.789 1209
0.686 3.623 1.846 7518
0.711 3.757 1.910 1313
0.690 3.642 1.843 5863
0.715 3.776 1.906 1145
0.695 3.668 1.842 6547
0.669 3.534 1.779 1518
0.720 3.802 1.905 1054
0.694 3.666 1.828 7217
0.720 3.800 1.891 2206
0.710 3.749 1.853 6106
0.684 3.614 1.791 1908
0.711 3.754 1.842 5307
0.685 3.619 1.780 1546
0.713 3.766 1.834 3992
0.688 3.631 1.773 1469
0.714 3.770 1.823 4763
0.740 3.906 1.884 1177
0.688 3.635 1.762 1047
0.712 3.761 1.806 5563
0.738 3.896 1.867 2210
0.712 3.759 1.792 4943
0.743 3.923 1.865 2637
0.734 3.878 1.831 4116
0.709 3.742 1.771 2755
0.760 4.013 1.891 1140
0.737 3.890 1.823 5633
0.711 3.754 1.763 1856
0.765 4.040 1.889 1603
0.739 3.902 1.815 5813
0.767 4.052 1.880 2255
0.713 3.766 1.755 1086
0.741 3.913 1.806 5847
0.767 4.050 1.865 2390
0.715 3.777 1.748 1058
0.758 4.004 1.832 5924
0.732 3.868 1.773 2868
0.784 4.140 1.890 2048
0.761 4.016 1.823 8943
0.735 3.880 1.765 2720
0.786 4.153 1.881 2347
0.761 4.021 1.811 8185
0.787 4.158 1.869 2562
0.736 3.885 1.754 1552
0.776 4.098 1.829 7667
0.750 3.961 1.772 2269
0.802 4.235 1.887 1641
0.777 4.103 1.817 8635
0.803 4.240 1.874 3380
0.751 3.966 1.761 1143
0.783 4.136 1.817 6547
0.809 4.273 1.873 3718
0.757 3.999 1.761 2196
0.788 4.163 1.814 7397
0.762 4.026 1.758 2278
0.814 4.300 1.870 1890
0.789 4.168 1.802 7115
0.815 4.305 1.857 1503
0.804 4.245 1.818 7255
0.778 4.107 1.763 1380
0.830 4.382 1.873 1107
0.806 4.257 1.809 8125
0.840 4.438 1.881 1729
0.780 4.119 1.754 1475
0.811 4.283 1.805 5007
0.837 4.421 1.859 2698
0.785 4.145 1.751 1253
0.852 4.499 1.874 4217
0.815 4.303 1.798 2971
0.789 4.165 1.744 1517
0.853 4.504 1.861 6651
0.817 4.315 1.788 3107
0.847 4.472 1.834 7300
0.819 4.327 1.778 2652
0.894 4.720 1.929 1187
0.849 4.484 1.824 8822
0.823 4.346 1.771 2312
0.889 4.696 1.904 2091
0.858 4.533 1.827 8807
0.890 4.701 1.890 3997
0.825 4.358 1.761 1797
0.863 4.560 1.822 6869
0.891 4.706 1.876 6553
0.837 4.421 1.770 1564
0.893 4.718 1.865 7996
0.866 4.572 1.811 5080
0.839 4.433 1.760 1668
0.920 4.857 1.917 1087
0.900 4.752 1.862 8792
0.865 4.569 1.795 4451
0.899 4.750 1.845 9378
0.865 4.567 1.779 3017
0.899 4.747 1.829 7101
0.870 4.593 1.773 1629
0.925 4.887 1.879 1484
0.918 4.848 1.849 5444
0.892 4.708 1.799 1774
0.944 4.987 1.899 1240
0.917 4.845 1.832 5965
0.945 4.992 1.884 1939
0.920 4.857 1.820 3613
0.955 5.041 1.885 2939
0.956 5.046 1.870 5034
0.929 4.906 1.821 3560
0.982 5.186 1.918 1501
0.958 5.058 1.858 5685
0.931 4.918 1.810 2915
0.984 5.198 1.906 1675
0.946 4.997 1.820 6651
0.973 5.137 1.868 2449
0.999 5.277 1.915 1011
0.953 5.031 1.815 6263
0.992 5.238 1.885 2739
0.926 4.891 1.768 1022
0.961 5.073 1.813 4153
0.991 5.236 1.867 3773
0.988 5.218 1.844 3513
0.960 5.070 1.796 2661
1.015 5.359 1.891 1043
0.988 5.216 1.827 2580
0.960 5.068 1.778 1835
1.014 5.357 1.873 1650
0.993 5.243 1.818 2706
1.029 5.436 1.881 1744
0.959 5.065 1.761 1003
0.995 5.255 1.805 3373
1.029 5.433 1.862 2392
1.019 5.379 1.828 3845
1.049 5.542 1.879 2175
0.992 5.238 1.783 1788
1.019 5.384 1.812 3375
1.052 5.554 1.865 2092
1.058 5.589 1.858 2724
1.026 5.418 1.805 2310
1.085 5.731 1.902 1427
1.061 5.602 1.844 2642
1.033 5.453 1.798 2224
1.088 5.743 1.888 1666
1.093 5.770 1.877 2585
1.036 5.472 1.787 1968
1.066 5.629 1.834 1909
1.120 5.912 1.921 1486
1.089 5.753 1.854 3247
1.116 5.895 1.896 1948
1.063 5.611 1.811 1271
1.036 5.469 1.768 1158
1.086 5.735 1.830 2827
1.113 5.877 1.872 1949
1.140 6.019 1.915 1446
1.059 5.594 1.788 1032
1.108 5.852 1.846 3712
1.142 6.032 1.899 2752
1.076 5.680 1.796 1632
1.173 6.196 1.947 1025
1.128 5.954 1.857 3512
1.101 5.812 1.816 1748
1.154 6.097 1.899 1686
1.186 6.261 1.947 1471
1.136 5.997 1.850 4835
1.185 6.259 1.926 1750
0.859 4.537 1.430 1266
1.109 5.855 1.810 1239
1.141 6.024 1.839 3897
1.189 6.279 1.912 2257
1.227 6.481 1.969 1614
0.861 4.548 1.419 1181
1.190 6.284 1.893 2743
1.230 6.494 1.952 2535
1.140 6.021 1.819 1619
1.260 6.651 1.997 1200
1.232 6.506 1.935 2641
1.205 6.364 1.896 2101
1.178 6.221 1.856 1420
1.280 6.762 2.006 1241
1.240 6.549 1.926 4449
1.209 6.384 1.881 2371
1.281 6.767 1.986 2285
1.182 6.241 1.842 1474
1.241 6.554 1.907 5176
1.284 6.780 1.968 2911
1.193 6.299 1.838 2146
1.321 6.975 2.021 1424
1.242 6.559 1.888 3173
1.320 6.973 1.999 3132
1.283 6.777 1.946 3116
1.206 6.371 1.837 1618
1.324 6.993 1.982 4083
1.284 6.783 1.926 3804
1.257 6.640 1.888 1840
1.202 6.346 1.810 1384
1.282 6.773 1.902 4136
1.327 7.006 1.964 4019
1.244 6.569 1.849 1484
1.285 6.785 1.884 3854
1.328 7.011 1.943 2542
1.248 6.589 1.834 1224
1.355 7.155 1.980 1194
1.287 6.798 1.866 2854
1.336 7.054 1.932 2364
1.432 7.560 2.061 1404
1.399 7.386 2.017 1199
1.344 7.097 1.921 2425
1.433 7.565 2.039 1781
1.288 6.803 1.846 1453
1.315 6.946 1.882 1162
1.343 7.095 1.898 2268
1.451 7.661 2.039 2071
1.424 7.518 2.003 1351
1.452 7.667 2.017 1594
1.343 7.092 1.875 1340
1.420 7.500 1.976 1314
1.479 7.810 2.052 1266
1.477 7.800 2.025 1958
1.403 7.407 1.930 1341
1.516 8.005 2.075 1339
1.518 8.018 2.053 2196
1.477 7.798 2.000 1506
1.449 7.654 1.966 1222
1.518 8.016 2.028 2538
1.453 7.675 1.947 1392
1.588 8.387 2.116 1139
1.552 8.198 2.071 1059
1.515 7.998 1.999 2016
1.553 8.203 2.047 1405
1.605 8.476 2.110 1120
1.622 8.565 2.105 1585
1.552 8.193 2.019 1386
1.623 8.571 2.079 2241
1.548 8.176 1.990 1214
1.624 8.576 2.054 1942
1.628 8.597 2.032 1669
1.718 9.074 2.110 2087
1.629 8.602 2.007 1466
1.721 9.087 2.084 2845
1.649 8.706 2.003 1240
1.725 9.108 2.061 2066
1.647 8.697 1.974 1783
1.646 8.694 1.946 1758
1.801 9.509 2.117 1321
1.769 9.342 2.082 1314
1.723 9.098 2.031 1042
1.799 9.500 2.086 1890
1.747 9.225 2.029 1708
1.801 9.513 2.059 2822
1.741 9.193 1.994 1807
1.770 9.345 2.025 1212
1.804 9.526 2.032 3450
1.774 9.366 2.000 1682
1.740 9.190 1.965 1311
1.839 9.709 2.069 1083
1.806 9.539 2.006 2690
1.775 9.371 1.973 2501
1.840 9.715 2.040 1353
1.774 9.369 1.943 3606
1.809 9.552 1.979 1962
1.842 9.728 2.013 1449
1.777 9.381 1.917 3414
1.843 9.733 1.984 3005
1.810 9.557 1.951 2019
1.900 10.031 2.041 1062
1.844 9.738 1.955 4488
1.806 9.539 1.918 2177
1.777 9.386 1.890 1952
1.901 10.037 2.011 1292
1.845 9.744 1.927 4247
1.807 9.545 1.890 2568
1.905 10.057 1.985 1678
1.948 10.287 2.027 1144
1.846 9.749 1.898 3284
1.813 9.572 1.866 2616
1.907 10.070 1.956 1556
2.053 10.844 2.096 1091
1.846 9.746 1.868 2441
1.817 9.593 1.840 2058
1.846 9.751 1.839 1489
1.819 9.605 1.813 1415
2.311 12.204 2.269 1015
2.146 11.330 2.116 1013
2.253 11.896 2.178 1403
2.167 11.443 2.101 1235
2.312 12.210 2.233 1129
2.167 11.441 2.065 1333
2.251 11.886 2.141 1256
2.312 12.208 2.195 1084
2.415 12.751 2.248 1025
2.438 12.873 2.229 1405
2.484 13.117 2.229 1210
2.437 12.871 2.190 1158
2.481 13.100 2.187 1392
0.439 2.282 1.811 10381
0.440 2.287 1.805 20762
0.417 2.168 1.716 1238
0.441 2.292 1.798 20762
0.418 2.172 1.709 1238
0.442 2.296 1.791 16925
0.465 2.416 1.879 1462
0.443 2.301 1.785 13089
0.466 2.421 1.872 2326
0.444 2.306 1.778 10217
0.467 2.426 1.865 3789
0.446 2.317 1.776 7399
0.469 2.437 1.863 4954
0.447 2.322 1.769 7399
0.470 2.442 1.856 4954
0.470 2.441 1.844 9025
0.447 2.320 1.758 6236
0.471 2.446 1.837 12798
0.448 2.324 1.751 5126
0.473 2.457 1.834 14382
0.450 2.335 1.749 4080
0.475 2.468 1.832 16321
0.451 2.340 1.742 2626
0.499 2.590 1.917 1026
0.476 2.473 1.825 12784
0.453 2.351 1.740 1794
0.500 2.595 1.909 1305
0.475 2.465 1.808 9585
0.498 2.587 1.893 1918
0.476 2.470 1.801 9585
0.499 2.592 1.885 2085
0.478 2.481 1.799 8137
0.501 2.604 1.882 2739
0.477 2.479 1.787 6698
0.501 2.602 1.870 3456
0.488 2.536 1.815 6271
0.512 2.659 1.898 1630
0.465 2.413 1.732 1353
0.490 2.547 1.812 8865
0.514 2.670 1.894 1700
0.467 2.424 1.729 1585
0.491 2.552 1.804 7996
0.515 2.675 1.887 2747
0.468 2.428 1.722 1310
0.492 2.557 1.797 7128
0.516 2.680 1.879 3794
0.468 2.433 1.715 1035
0.488 2.535 1.772 5080
0.515 2.672 1.862 4116
0.513 2.664 1.846 4321
0.488 2.533 1.760 3300
0.518 2.689 1.851 6664
0.494 2.564 1.770 2749
0.519 2.694 1.843 9262
0.495 2.569 1.763 2650
0.543 2.818 1.924 1246
0.521 2.705 1.839 11034
0.497 2.580 1.759 2519
0.545 2.830 1.920 2067
0.523 2.717 1.836 13253
0.547 2.842 1.916 2627
0.498 2.585 1.752 2291
0.524 2.721 1.828 12151
0.548 2.847 1.907 2826
0.500 2.596 1.748 1967
0.524 2.720 1.816 11080
0.548 2.845 1.895 3541
0.499 2.594 1.737 1473
0.525 2.724 1.808 8113
0.549 2.850 1.886 3021
0.500 2.598 1.729 1093
0.541 2.809 1.849 5433
0.517 2.683 1.771 3990
0.535 2.780 1.821 6196
0.560 2.907 1.899 1241
0.511 2.654 1.743 1045
0.535 2.779 1.808 7605
0.559 2.905 1.886 1901
0.538 2.797 1.808 7674
0.563 2.924 1.886 1835
0.541 2.808 1.804 8283
0.565 2.935 1.881 2194
0.542 2.813 1.796 7997
0.567 2.947 1.877 3032
0.592 3.074 1.953 1017
0.544 2.824 1.792 5960
0.571 2.965 1.876 3993
0.595 3.093 1.952 1322
0.572 2.970 1.867 4316
0.545 2.829 1.784 3876
0.596 3.098 1.943 1381
0.573 2.975 1.859 5814
0.546 2.834 1.775 2833
0.597 3.103 1.934 2010
0.574 2.980 1.850 6988
0.598 3.108 1.925 2672
0.549 2.852 1.775 2433
0.572 2.971 1.833 6612
0.597 3.100 1.908 4430
0.547 2.843 1.759 1853
0.572 2.970 1.821 6532
0.596 3.098 1.895 5660
0.547 2.841 1.747 1402
0.597 3.103 1.886 6270
0.573 2.974 1.812 6123
0.602 3.128 1.888 7210
0.576 2.993 1.811 5231
0.605 3.140 1.883 7604
0.577 2.998 1.802 4657
0.606 3.145 1.874 5703
0.579 3.009 1.797 5598
0.630 3.275 1.946 1097
0.580 3.014 1.789 6422
0.605 3.143 1.861 3504
0.630 3.273 1.933 1341
0.581 3.019 1.780 6378
0.606 3.148 1.852 4152
0.631 3.278 1.923 3788
0.631 3.276 1.910 6431
0.597 3.098 1.812 6127
0.630 3.275 1.897 7841
0.596 3.096 1.799 4750
0.633 3.286 1.891 8876
0.598 3.108 1.794 3294
0.634 3.291 1.881 8522
0.601 3.120 1.789 1911
0.635 3.296 1.872 6572
0.603 3.131 1.783 2491
0.660 3.427 1.941 1167
0.636 3.301 1.862 3687
0.606 3.150 1.781 2813
0.661 3.432 1.931 2376
0.659 3.424 1.914 3862
0.617 3.203 1.798 2889
0.660 3.429 1.904 4996
0.635 3.297 1.835 3612
0.608 3.159 1.763 1845
0.660 3.427 1.890 6695
0.634 3.295 1.822 4712
0.605 3.143 1.743 1494
0.659 3.425 1.877 7499
0.634 3.293 1.809 4515
0.609 3.161 1.741 1536
0.660 3.430 1.867 6967
0.635 3.298 1.799 4292
0.610 3.166 1.732 1428
0.686 3.562 1.934 1171
0.664 3.449 1.864 7697
0.639 3.317 1.797 3655
0.689 3.581 1.931 1439
0.610 3.171 1.722 1306
0.670 3.482 1.868 8961
0.645 3.349 1.801 2455
0.696 3.614 1.934 1402
0.671 3.487 1.857 10851
0.646 3.354 1.791 1859
0.697 3.619 1.924 1541
0.675 3.505 1.854 9684
0.700 3.638 1.920 1934
0.649 3.373 1.788 1771
0.688 3.573 1.875 6372
0.662 3.440 1.809 2540
0.714 3.706 1.940 1052
0.690 3.585 1.868 6166
0.665 3.452 1.803 3514
0.694 3.604 1.864 6854
0.668 3.471 1.799 3049
0.695 3.609 1.854 8825
0.669 3.476 1.789 1502
0.696 3.614 1.843 7462
0.722 3.748 1.907 1101
0.670 3.480 1.779 1048
0.694 3.605 1.826 5275
0.720 3.739 1.889 1099
0.703 3.652 1.835 6200
0.729 3.786 1.898 1076
0.705 3.664 1.828 7640
0.731 3.798 1.891 1988
0.721 3.747 1.853 6036
0.695 3.612 1.791 1935
0.722 3.751 1.842 5161
0.696 3.617 1.780 1629
0.725 3.763 1.834 3753
0.699 3.629 1.773 1525
0.726 3.768 1.823 4490
0.752 3.903 1.884 1535
0.700 3.633 1.762 1110
0.724 3.759 1.806 5368
0.750 3.894 1.867 3006
0.722 3.749 1.788 4926
0.755 3.920 1.865 3081
0.746 3.875 1.831 3542
0.720 3.740 1.771 2819
0.772 4.011 1.891 1068
0.748 3.887 1.823 5106
0.722 3.752 1.763 1873
0.777 4.037 1.889 1667
0.749 3.892 1.811 5548
0.780 4.049 1.880 2340
0.754 3.918 1.809 5577
0.781 4.054 1.868 2359
0.728 3.782 1.751 1289
0.757 3.930 1.801 5654
0.794 4.124 1.884 2071
0.731 3.794 1.743 1349
0.773 4.014 1.823 9079
0.747 3.878 1.765 2374
0.799 4.150 1.881 2104
0.774 4.019 1.811 7997
0.800 4.155 1.869 2237
0.747 3.882 1.754 2027
0.789 4.095 1.829 8034
0.762 3.959 1.772 2455
0.815 4.232 1.887 1637
0.789 4.100 1.817 8961
0.816 4.237 1.874 3542
0.763 3.963 1.761 1296
0.796 4.134 1.817 6555
0.822 4.271 1.873 3788
0.770 3.997 1.761 2602
0.801 4.160 1.814 7119
0.775 4.023 1.758 2640
0.827 4.297 1.870 1833
0.802 4.165 1.802 6738
0.828 4.302 1.857 1479
0.817 4.242 1.818 7320
0.790 4.105 1.763 1438
0.853 4.430 1.894 1198
0.819 4.254 1.809 8002
0.853 4.428 1.878 1998
0.793 4.117 1.754 1396
0.823 4.274 1.802 5082
0.851 4.419 1.859 3031
0.867 4.503 1.877 4575
0.828 4.300 1.798 2987
0.801 4.162 1.744 1335
0.868 4.508 1.864 7017
0.829 4.305 1.785 3328
0.861 4.470 1.834 6752
0.828 4.302 1.770 2905
0.908 4.717 1.929 1156
0.863 4.482 1.824 8250
0.836 4.343 1.771 2257
0.904 4.693 1.904 2219
0.872 4.530 1.827 7998
0.905 4.698 1.890 4217
0.839 4.355 1.761 1800
0.905 4.703 1.876 6714
0.876 4.550 1.819 6293
0.849 4.411 1.767 1489
0.908 4.715 1.865 7828
0.878 4.562 1.808 4543
0.852 4.423 1.757 1532
0.914 4.749 1.862 8885
0.879 4.566 1.795 4261
0.914 4.747 1.845 9748
0.879 4.564 1.779 3132
0.913 4.744 1.829 7072
0.882 4.583 1.771 1845
0.940 4.884 1.879 1450
0.931 4.837 1.846 4789
0.958 4.977 1.896 1703
0.905 4.698 1.797 1451
0.932 4.842 1.832 5621
0.961 4.989 1.884 2027
0.936 4.862 1.823 4019
0.970 5.038 1.885 2503
0.972 5.051 1.872 4168
0.938 4.874 1.811 3749
0.999 5.190 1.921 1274
0.975 5.063 1.860 4688
0.948 4.923 1.812 2780
1.002 5.203 1.908 1427
0.962 4.994 1.820 6973
0.988 5.134 1.868 2043
0.968 5.028 1.815 6402
1.008 5.235 1.885 2646
1.007 5.233 1.867 3723
0.975 5.063 1.810 3714
1.004 5.215 1.844 3658
0.974 5.060 1.793 2063
1.031 5.356 1.891 1090
1.004 5.213 1.827 2347
1.031 5.353 1.873 1779
0.975 5.065 1.778 1290
1.012 5.255 1.823 2803
1.046 5.432 1.881 1534
1.010 5.245 1.803 3740
1.037 5.386 1.848 2088
1.067 5.541 1.898 1331
1.036 5.383 1.830 3679
1.066 5.539 1.879 2228
1.009 5.242 1.785 2180
1.037 5.388 1.814 2987
1.067 5.544 1.863 2014
1.095 5.685 1.907 1241
1.050 5.452 1.817 2469
1.077 5.593 1.861 2362
1.104 5.735 1.904 1177
1.078 5.598 1.844 2561
1.048 5.442 1.796 2267
1.111 5.769 1.897 1625
1.110 5.767 1.877 2413
1.083 5.625 1.834 1877
1.052 5.462 1.785 1784
1.138 5.909 1.921 1287
1.107 5.750 1.854 2805
1.134 5.891 1.896 1705
1.055 5.481 1.773 1171
0.844 4.385 1.443 1109
1.124 5.837 1.861 2728
1.096 5.695 1.819 2449
1.155 6.001 1.910 1402
1.126 5.849 1.846 4044
1.159 6.021 1.897 2380
1.093 5.677 1.796 1628
1.147 5.958 1.859 3757
1.120 5.816 1.818 2107
1.203 6.250 1.944 1535
1.175 6.100 1.901 1049
1.154 5.993 1.850 5091
1.204 6.255 1.926 1982
1.127 5.851 1.810 1531
0.873 4.535 1.430 1113
1.158 6.013 1.837 3942
1.208 6.275 1.912 2124
1.246 6.470 1.967 1649
1.248 6.483 1.950 2838
1.209 6.280 1.893 2605
1.162 6.033 1.824 1642
1.278 6.640 1.994 1178
1.252 6.503 1.935 2976
1.207 6.270 1.870 2130
1.301 6.758 2.006 1333
1.152 5.985 1.791 1071
1.260 6.545 1.926 4969
1.302 6.763 1.986 2547
1.228 6.380 1.881 2249
1.201 6.238 1.842 1460
1.261 6.550 1.907 5346
1.303 6.768 1.966 3306
1.212 6.295 1.838 2020
1.344 6.979 2.023 1062
1.304 6.773 1.946 3561
1.262 6.555 1.888 2687
1.343 6.976 2.001 2433
1.226 6.368 1.837 1477
1.305 6.779 1.926 4343
1.347 6.997 1.984 3822
1.278 6.636 1.888 2110
1.250 6.493 1.850 1540
1.305 6.776 1.904 4574
1.348 7.002 1.964 3784
1.277 6.633 1.867 1574
1.306 6.781 1.884 4182
1.355 7.037 1.951 2364
1.268 6.585 1.834 1119
1.308 6.794 1.866 3159
1.359 7.058 1.934 2622
1.455 7.555 2.061 1422
1.423 7.389 2.019 1226
1.364 7.085 1.919 2484
1.456 7.561 2.039 1779
1.332 6.919 1.877 1691
1.305 6.776 1.840 1460
1.473 7.649 2.037 2178
1.365 7.090 1.898 2102
1.332 6.917 1.854 1633
1.445 7.506 2.002 1052
1.474 7.655 2.015 1481
1.365 7.088 1.875 1414
1.443 7.496 1.976 1302
1.501 7.798 2.050 1177
1.500 7.788 2.023 1779
1.542 8.008 2.077 1495
1.425 7.403 1.930 1385
1.363 7.078 1.850 1172
1.543 8.013 2.053 2176
1.473 7.650 1.966 1457
1.501 7.794 2.000 1360
1.544 8.019 2.030 2443
1.477 7.670 1.947 1632
1.541 8.001 2.001 1727
1.631 8.471 2.110 1293
1.578 8.198 2.047 1211
1.647 8.552 2.103 1834
1.578 8.196 2.021 1358
1.648 8.558 2.078 2441
1.573 8.171 1.990 1086
1.650 8.571 2.054 2169
1.653 8.584 2.030 1818
1.746 9.068 2.110 1922
1.655 8.597 2.007 1446
1.749 9.082 2.084 2788
1.678 8.717 2.006 1044
1.753 9.102 2.061 2117
1.673 8.691 1.974 1481
1.829 9.498 2.145 1083
1.828 9.496 2.115 1519
1.673 8.689 1.946 1338
1.751 9.093 2.031 1237
1.798 9.336 2.082 1079
1.828 9.494 2.086 1973
1.775 9.220 2.029 1695
1.831 9.507 2.059 3057
1.772 9.202 1.997 1822
1.800 9.347 2.026 1606
1.833 9.520 2.032 3897
1.802 9.360 2.000 1769
1.771 9.200 1.968 1223
1.836 9.534 2.006 2685
1.803 9.366 1.973 1931
1.925 9.999 2.097 1211
1.803 9.363 1.943 2632
1.840 9.554 1.980 1612
1.928 10.012 2.069 1247
1.872 9.722 2.013 1103
1.805 9.376 1.917 2506
1.873 9.727 1.984 2351
1.839 9.552 1.951 1901
1.930 10.025 2.041 1437
1.874 9.733 1.955 3552
1.836 9.534 1.918 2363
1.931 10.031 2.011 1591
1.808 9.389 1.891 1338
1.875 9.738 1.927 3423
1.837 9.539 1.890 2518
1.937 10.059 1.986 1955
1.981 10.289 2.028 1353
1.876 9.743 1.898 2650
1.840 9.559 1.865 2288
1.938 10.064 1.956 1910
1.985 10.309 2.001 1167
1.875 9.740 1.868 1883
1.846 9.587 1.840 1725
1.939 10.070 1.926 1111
2.027 10.529 2.008 1067
1.848 9.600 1.813 1130
1.876 9.745 1.839 1111
2.287 11.881 2.177 1328
2.200 11.429 2.099 1156
2.349 12.203 2.233 1055
2.284 11.864 2.138 1232
2.200 11.427 2.064 1225
2.336 12.132 2.183 1038
2.478 12.873 2.230 1414
2.525 13.117 2.230 1326
2.477 12.863 2.190 1178
2.521 13.092 2.187 1526
2.522 13.098 2.148 1137
0.446 2.287 1.816 10478
0.447 2.292 1.809 20957
0.423 2.173 1.720 1228
0.447 2.297 1.803 20957
0.424 2.178 1.714 1228
0.447 2.295 1.791 16968
0.471 2.415 1.879 1787
0.448 2.300 1.785 12979
0.471 2.420 1.872 2851
0.449 2.305 1.778 10193
0.472 2.425 1.865 4228
0.451 2.316 1.776 7463
0.475 2.436 1.863 5361
0.452 2.321 1.769 7463
0.476 2.441 1.856 5361
0.475 2.440 1.844 9072
0.452 2.319 1.758 6067
0.476 2.445 1.837 12539
0.453 2.323 1.751 4727
0.478 2.456 1.834 14165
0.455 2.334 1.749 3696
0.502 2.577 1.920 1022
0.481 2.467 1.832 16128
0.457 2.345 1.746 2286
0.504 2.589 1.917 1176
0.482 2.472 1.825 12718
0.458 2.350 1.740 1625
0.505 2.594 1.909 1496
0.480 2.464 1.808 9566
0.504 2.586 1.893 2292
0.481 2.469 1.801 9566
0.505 2.591 1.885 2477
0.483 2.480 1.799 7983
0.507 2.602 1.882 2805
0.483 2.478 1.787 6344
0.508 2.607 1.875 3250
0.494 2.535 1.815 5908
0.518 2.658 1.898 1544
0.470 2.412 1.732 1439
0.496 2.546 1.812 8366
0.472 2.423 1.729 1700
0.520 2.669 1.894 1679
0.497 2.551 1.804 7518
0.521 2.674 1.887 2839
0.473 2.427 1.722 1400
0.497 2.549 1.792 6678
0.521 2.673 1.874 4230
0.472 2.425 1.710 1000
0.494 2.534 1.772 4687
0.520 2.671 1.862 4259
0.521 2.676 1.855 4165
0.493 2.532 1.760 2874
0.524 2.688 1.851 6537
0.499 2.563 1.770 2560
0.525 2.692 1.843 8920
0.500 2.568 1.763 2544
0.549 2.817 1.924 1243
0.527 2.704 1.839 10495
0.502 2.579 1.759 2423
0.551 2.829 1.920 2118
0.529 2.715 1.836 12421
0.553 2.841 1.916 2708
0.503 2.584 1.752 2159
0.530 2.720 1.828 11338
0.554 2.846 1.907 2896
0.506 2.595 1.748 1918
0.530 2.718 1.816 10269
0.554 2.844 1.895 3596
0.505 2.593 1.737 1492
0.531 2.723 1.808 7744
0.555 2.849 1.886 2980
0.506 2.597 1.729 1112
0.547 2.808 1.849 5288
0.522 2.682 1.771 3709
0.541 2.779 1.821 5829
0.566 2.906 1.899 1093
0.541 2.777 1.808 7080
0.566 2.904 1.886 1669
0.545 2.796 1.808 7360
0.569 2.922 1.886 1827
0.547 2.807 1.804 8295
0.572 2.934 1.881 2334
0.548 2.812 1.796 8050
0.575 2.952 1.881 3225
0.600 3.080 1.957 1030
0.550 2.823 1.792 6008
0.577 2.964 1.876 4440
0.602 3.091 1.952 1416
0.580 2.976 1.871 5110
0.551 2.828 1.784 4078
0.605 3.103 1.947 1354
0.579 2.974 1.859 6706
0.553 2.839 1.779 3203
0.604 3.102 1.934 2246
0.580 2.979 1.850 7689
0.605 3.107 1.925 3024
0.555 2.851 1.775 2890
0.580 2.977 1.837 7056
0.605 3.105 1.912 4571
0.555 2.849 1.763 2486
0.580 2.975 1.825 6714
0.605 3.104 1.899 5969
0.555 2.847 1.751 1993
0.606 3.109 1.890 6473
0.581 2.980 1.816 5688
0.555 2.851 1.742 1233
0.611 3.134 1.892 7329
0.583 2.991 1.811 4039
0.612 3.139 1.883 7679
0.584 2.996 1.802 3537
0.613 3.144 1.874 5798
0.586 3.008 1.797 4953
0.638 3.273 1.946 1023
0.587 3.013 1.789 6336
0.612 3.142 1.861 3688
0.637 3.272 1.933 1144
0.588 3.017 1.780 6372
0.613 3.147 1.852 4318
0.638 3.277 1.923 3552
0.638 3.275 1.910 6170
0.603 3.097 1.812 5601
0.638 3.273 1.897 7781
0.590 3.027 1.762 4057
0.640 3.285 1.891 9278
0.608 3.120 1.802 3054
0.583 2.990 1.731 1252
0.641 3.290 1.881 9224
0.610 3.132 1.796 2167
0.666 3.421 1.951 1049
0.642 3.295 1.872 7234
0.612 3.144 1.791 2308
0.667 3.426 1.941 1144
0.643 3.300 1.862 4076
0.668 3.431 1.931 2359
0.617 3.169 1.792 2207
0.667 3.422 1.914 3934
0.625 3.208 1.801 2600
0.666 3.420 1.900 5323
0.641 3.289 1.832 3075
0.611 3.137 1.752 1384
0.666 3.419 1.887 7150
0.640 3.287 1.818 4056
0.612 3.142 1.743 1400
0.667 3.424 1.877 7700
0.641 3.292 1.809 4500
0.614 3.153 1.737 1415
0.668 3.429 1.867 7391
0.642 3.297 1.799 4152
0.614 3.151 1.725 1211
0.694 3.560 1.934 1032
0.672 3.447 1.864 8346
0.646 3.315 1.797 3249
0.697 3.579 1.931 1441
0.616 3.162 1.719 1154
0.677 3.473 1.864 8967
0.651 3.341 1.797 2093
0.702 3.605 1.931 1504
0.679 3.485 1.857 10576
0.653 3.353 1.791 2137
0.705 3.618 1.924 1592
0.681 3.497 1.851 9312
0.707 3.630 1.917 2611
0.655 3.364 1.785 1914
0.697 3.579 1.878 7427
0.671 3.446 1.813 3627
0.698 3.584 1.868 7364
0.672 3.451 1.803 4231
0.701 3.596 1.861 7677
0.675 3.462 1.796 3377
0.703 3.608 1.854 8978
0.677 3.474 1.789 1852
0.702 3.606 1.840 7310
0.676 3.472 1.776 1098
0.701 3.596 1.822 5218
0.710 3.643 1.832 6231
0.714 3.662 1.828 8260
0.740 3.797 1.891 1572
0.716 3.674 1.820 6415
0.742 3.809 1.883 1561
0.729 3.743 1.839 5208
0.703 3.608 1.777 1401
0.732 3.755 1.831 3645
0.705 3.620 1.770 1381
0.734 3.767 1.823 4153
0.760 3.902 1.884 1687
0.708 3.632 1.762 1153
0.729 3.743 1.799 5173
0.756 3.878 1.860 3499
0.729 3.741 1.785 5280
0.763 3.919 1.865 3313
0.756 3.881 1.834 3394
0.730 3.745 1.774 3135
0.757 3.886 1.823 5145
0.731 3.750 1.763 1672
0.785 4.028 1.886 1631
0.758 3.890 1.811 5924
0.787 4.040 1.877 2261
0.731 3.755 1.752 1000
0.762 3.910 1.806 5881
0.788 4.045 1.865 2369
0.735 3.774 1.748 1060
0.765 3.929 1.801 5972
0.792 4.065 1.859 1928
0.739 3.793 1.743 1294
0.782 4.012 1.823 9160
0.755 3.876 1.765 2097
0.808 4.148 1.881 1868
0.783 4.017 1.811 7978
0.756 3.881 1.754 2556
0.809 4.153 1.869 1969
0.798 4.094 1.829 7722
0.771 3.957 1.772 2400
0.824 4.230 1.887 1569
0.798 4.099 1.817 8806
0.825 4.235 1.874 3528
0.772 3.962 1.761 1404
0.805 4.132 1.817 6388
0.832 4.269 1.873 3698
0.778 3.995 1.761 2710
0.810 4.159 1.814 6770
0.783 4.021 1.758 2758
0.837 4.296 1.870 1817
0.811 4.163 1.802 6459
0.838 4.301 1.857 1519
0.826 4.240 1.818 7157
0.799 4.103 1.763 1459
0.863 4.428 1.894 1160
0.828 4.252 1.809 7758
0.862 4.426 1.878 2070
0.802 4.115 1.754 1303
0.832 4.272 1.802 5198
0.860 4.417 1.859 3476
0.887 4.554 1.913 1077
0.878 4.509 1.880 4613
0.839 4.305 1.801 3192
0.812 4.168 1.747 1369
0.878 4.506 1.864 6785
0.837 4.296 1.783 3439
0.869 4.460 1.831 6315
0.836 4.293 1.767 3126
0.916 4.700 1.923 1101
0.871 4.472 1.821 7725
0.912 4.684 1.901 2465
0.843 4.327 1.766 2207
0.882 4.528 1.827 6978
0.915 4.696 1.890 4670
0.848 4.353 1.761 1687
0.916 4.701 1.876 6881
0.886 4.548 1.819 5446
0.859 4.409 1.767 1849
0.918 4.713 1.865 7333
0.874 4.487 1.781 4385
0.925 4.747 1.862 8513
0.889 4.565 1.795 3780
0.924 4.745 1.845 9664
0.889 4.562 1.779 2957
0.925 4.750 1.832 6862
0.891 4.574 1.768 1883
0.955 4.904 1.887 1570
0.941 4.828 1.844 4353
0.968 4.967 1.893 2171
0.913 4.689 1.794 1235
0.943 4.840 1.832 5237
0.970 4.980 1.881 2059
0.916 4.701 1.783 1045
