-0.724 5.337 1.920 2484
-0.698 5.149 1.840 4187
-0.729 5.372 1.915 3459
-0.701 5.169 1.830 4267
-0.728 5.370 1.897 4020
-0.730 5.382 1.883 3707
-0.700 5.158 1.810 1919
-0.734 5.410 1.875 3283
-0.765 5.641 1.950 1574
-0.729 5.377 1.847 3939
-0.768 5.661 1.938 1794
-0.731 5.390 1.834 3383
-0.769 5.667 1.922 2361
-0.767 5.657 1.901 2519
-0.733 5.402 1.821 1951
-0.766 5.647 1.879 2865
-0.785 5.789 1.924 1471
-0.766 5.644 1.861 2479
-0.808 5.960 1.958 1647
-0.779 5.739 1.872 1996
-0.798 5.882 1.915 1682
-0.797 5.872 1.893 2400
-0.777 5.729 1.850 1627
-0.800 5.900 1.883 3072
-0.820 6.043 1.926 1848
-0.801 5.905 1.866 2173
-0.820 6.048 1.908 2080
-0.864 6.370 1.983 1829
-0.793 5.850 1.831 1761
-0.858 6.322 1.949 1801
-0.794 5.854 1.814 1561
-0.859 6.335 1.932 1812
-0.824 6.078 1.859 1340
-0.861 6.348 1.916 1753
-0.902 6.650 2.001 1686
-0.898 6.617 1.971 2931
-0.873 6.436 1.921 2576
-0.895 6.600 1.946 2906
-0.875 6.449 1.904 2163
-0.907 6.688 1.949 2177
-0.937 6.908 2.009 1730
-0.900 6.633 1.913 2073
-0.939 6.921 1.991 1869
-0.898 6.623 1.890 2366
-0.951 7.010 1.993 1435
-0.952 7.015 1.972 2385
-0.903 6.658 1.878 1983
-0.953 7.028 1.954 2644
-0.978 7.210 2.001 1733
-0.955 7.041 1.935 2089
-0.986 7.269 1.994 1921
-1.027 7.571 2.048 2877
-0.997 7.350 1.992 1989
-1.028 7.576 2.026 2177
-1.058 7.797 2.081 1593
-1.061 7.826 2.064 1463
-1.041 7.673 2.026 1382
-1.057 7.793 2.032 2122
-1.084 7.991 2.080 1469
-1.058 7.798 2.009 1964
-1.121 8.264 2.121 1635
-1.122 8.270 2.097 1903
-1.142 8.422 2.133 1443
-1.143 8.428 2.109 2495
-1.121 8.268 2.071 1705
-1.145 8.441 2.086 1641
-1.121 8.265 2.045 1048
-1.150 8.477 2.068 1125
-1.196 8.814 2.145 1046
-1.150 8.475 2.041 878
-1.175 8.659 2.083 823
-0.996 7.344 1.741 996
-0.997 7.349 1.719 1082
-1.295 9.550 2.196 763
-1.297 9.564 2.170 863
-0.998 7.361 1.699 781
-1.319 9.723 2.174 1006
-1.397 10.299 2.295 854
-1.401 10.328 2.270 1614
-1.377 10.152 2.233 1203
-1.402 10.334 2.239 2520
-1.379 10.165 2.205 1804
-1.402 10.333 2.208 3306
-1.432 10.556 2.252 2178
-1.435 10.577 2.225 3474
-1.401 10.331 2.176 3341
-1.436 10.583 2.194 2510
-1.402 10.337 2.145 2081
-1.433 10.566 2.158 1940
-1.402 10.335 2.114 988
-1.439 10.610 2.134 1708
-1.427 10.524 2.086 1450
-1.447 10.670 2.113 1057
-1.441 10.622 2.072 1574
-1.441 10.627 2.041 1598
-1.659 12.234 2.330 912
-1.677 12.364 2.316 975
-1.438 10.602 2.004 927
-1.696 12.501 2.302 1391
-1.743 12.849 2.363 1056
-1.744 12.856 2.325 1364
-1.697 12.508 2.266 1143
-1.770 13.048 2.318 1628
-1.745 12.862 2.287 1303
-1.773 13.069 2.283 1524
-1.745 12.868 2.249 852
-1.775 13.083 2.246 1093
-1.913 14.106 2.411 976
-1.914 14.112 2.369 1129
-1.774 13.082 2.206 952
-1.774 13.080 2.166 989
-1.914 14.111 2.327 898
-0.355 2.617 0.029 820
-0.355 2.617 0.022 1124
-0.355 2.616 0.014 1285
-0.355 2.616 0.007 1540
-0.355 2.616 -0.001 1734
-0.355 2.615 -0.008 1875
-0.355 2.615 -0.016 2017
-0.355 2.614 -0.024 1883
-0.356 2.622 -0.032 1759
-0.356 2.621 -0.039 1526
-0.355 2.621 -0.047 1294
-0.355 2.620 -0.054 1069
-0.354 2.612 -0.061 853
-0.303 2.272 1.788 1371
-0.316 2.365 1.847 4915
-0.300 2.245 1.758 1576
-0.317 2.377 1.845 9045
-0.301 2.256 1.756 1916
-0.319 2.388 1.842 7854
-0.303 2.267 1.754 1761
-0.320 2.399 1.840 6805
-0.304 2.278 1.752 1412
-0.328 2.455 1.870 6510
-0.312 2.334 1.783 2060
-0.329 2.467 1.867 6517
-0.313 2.345 1.780 2438
-0.330 2.472 1.860 6517
-0.314 2.350 1.774 2438
-0.331 2.477 1.853 8410
-0.314 2.354 1.767 1983
-0.331 2.482 1.846 10304
-0.315 2.359 1.760 1528
-0.333 2.493 1.843 9242
-0.317 2.370 1.758 1124
-0.335 2.511 1.845 9053
-0.319 2.388 1.760 758
-0.337 2.522 1.842 7238
-0.342 2.560 1.857 5844
-0.325 2.436 1.773 1347
-0.343 2.564 1.850 5844
-0.326 2.441 1.766 1217
-0.342 2.563 1.838 6496
-0.326 2.439 1.754 801
-0.342 2.561 1.826 7182
-0.343 2.566 1.819 6811
-0.359 2.690 1.902 1237
-0.344 2.578 1.816 6553
-0.361 2.702 1.899 1586
-0.346 2.589 1.813 6671
-0.362 2.714 1.895 2567
-0.346 2.594 1.805 6851
-0.363 2.719 1.887 3889
-0.348 2.605 1.802 5297
-0.365 2.730 1.884 3435
-0.359 2.689 1.846 5155
-0.342 2.564 1.765 2502
-0.358 2.681 1.830 7124
-0.341 2.555 1.749 1679
-0.358 2.679 1.818 9994
-0.375 2.805 1.898 1881
-0.358 2.684 1.810 10602
-0.375 2.810 1.890 2111
-0.360 2.696 1.806 11461
-0.377 2.822 1.886 1667
-0.361 2.700 1.799 8028
-0.378 2.827 1.878 1998
-0.363 2.718 1.799 4656
-0.380 2.845 1.878 1613
-0.370 2.770 1.820 3865
-0.387 2.897 1.899 1802
-0.371 2.775 1.812 3279
-0.388 2.902 1.891 2393
-0.372 2.786 1.808 4618
-0.389 2.914 1.886 3302
-0.375 2.805 1.808 6441
-0.392 2.933 1.886 3551
-0.376 2.816 1.804 5749
-0.393 2.944 1.882 3107
-0.378 2.828 1.800 5263
-0.395 2.956 1.877 2695
-0.378 2.833 1.792 3861
-0.395 2.961 1.868 3005
-0.395 2.959 1.856 3339
-0.378 2.831 1.780 2429
-0.397 2.971 1.851 3540
-0.380 2.842 1.776 2619
-0.405 3.030 1.874 5521
-0.387 2.901 1.799 4482
-0.409 3.063 1.881 6878
-0.388 2.906 1.791 5108
-0.404 3.027 1.849 8551
-0.387 2.897 1.774 3812
-0.405 3.032 1.840 10351
-0.424 3.175 1.922 3244
-0.406 3.043 1.835 9084
-0.426 3.187 1.917 3446
-0.412 3.083 1.846 9872
-0.429 3.213 1.919 3317
-0.412 3.087 1.837 8083
-0.430 3.218 1.910 4680
-0.428 3.202 1.889 6914
-0.410 3.072 1.816 4966
-0.428 3.207 1.880 7049
-0.411 3.077 1.808 4414
-0.429 3.212 1.870 6771
-0.412 3.081 1.799 3999
-0.430 3.217 1.861 6448
-0.412 3.086 1.790 4969
-0.430 3.222 1.852 6403
-0.413 3.091 1.781 6352
-0.443 3.317 1.891 6596
-0.414 3.103 1.776 5466
-0.444 3.322 1.881 7649
-0.417 3.121 1.774 3418
-0.443 3.321 1.868 7531
-0.417 3.126 1.765 2126
-0.441 3.305 1.847 8036
-0.466 3.493 1.946 3243
-0.443 3.317 1.841 7634
-0.467 3.498 1.936 4416
-0.444 3.321 1.832 7662
-0.469 3.510 1.929 7079
-0.470 3.522 1.923 10335
-0.444 3.326 1.822 7746
-0.471 3.527 1.912 11062
-0.446 3.338 1.816 7853
-0.472 3.532 1.902 8576
-0.446 3.343 1.806 7211
-0.477 3.573 1.910 6614
-0.447 3.348 1.797 4761
-0.483 3.613 1.917 7989
-0.465 3.479 1.850 4504
-0.480 3.597 1.896 8778
-0.463 3.463 1.830 2851
-0.480 3.595 1.882 9557
-0.462 3.461 1.816 1882
-0.482 3.607 1.875 7737
-0.505 3.784 1.961 3592
-0.488 3.654 1.885 7017
-0.506 3.789 1.950 5358
-0.489 3.659 1.874 10060
-0.507 3.794 1.939 6340
-0.491 3.679 1.871 11974
-0.509 3.813 1.935 7245
-0.492 3.684 1.860 9805
-0.510 3.819 1.924 9281
-0.509 3.809 1.906 11820
-0.491 3.674 1.843 8522
-0.509 3.815 1.895 10805
-0.491 3.679 1.832 9415
-0.493 3.691 1.824 8528
-0.511 3.827 1.887 7158
-0.493 3.689 1.810 5527
-0.514 3.846 1.883 4736
-0.517 3.873 1.881 5290
-0.493 3.694 1.800 3471
-0.518 3.878 1.870 5269
-0.495 3.706 1.792 2692
-0.519 3.883 1.859 4343
-0.537 4.019 1.920 3502
-0.536 4.010 1.902 4889
-0.517 3.873 1.841 2561
-0.537 4.022 1.893 6540
-0.516 3.864 1.823 1793
-0.537 4.020 1.878 9528
-0.555 4.156 1.938 2812
-0.538 4.025 1.867 8008
-0.556 4.162 1.926 3466
-0.552 4.131 1.899 8101
-0.533 3.994 1.840 3012
-0.553 4.143 1.890 8458
-0.535 4.006 1.831 3166
-0.554 4.148 1.878 5725
-0.572 4.285 1.936 2458
-0.555 4.153 1.866 4943
-0.573 4.291 1.924 2820
-0.567 4.245 1.890 6071
-0.549 4.107 1.832 2066
-0.568 4.250 1.877 7554
-0.586 4.388 1.935 1843
-0.568 4.255 1.865 5465
-0.587 4.393 1.922 2962
-0.587 4.398 1.909 3896
-0.569 4.260 1.853 3815
-0.572 4.280 1.846 5534
-0.590 4.418 1.902 3762
-0.573 4.292 1.837 5862
-0.605 4.532 1.933 3131
-0.606 4.538 1.920 4390
-0.588 4.399 1.865 3815
-0.593 4.440 1.866 5249
-0.612 4.579 1.921 2579
-0.601 4.497 1.873 4142
-0.619 4.636 1.928 2502
-0.621 4.648 1.917 3966
-0.602 4.509 1.863 3822
-0.625 4.683 1.915 6236
-0.604 4.521 1.853 5373
-0.626 4.688 1.901 7474
-0.605 4.534 1.842 6327
-0.626 4.686 1.885 6656
-0.607 4.546 1.832 4415
-0.626 4.691 1.871 5779
-0.608 4.551 1.819 2723
-0.626 4.688 1.855 5642
-0.645 4.828 1.906 3493
-0.643 4.811 1.884 6561
-0.624 4.671 1.833 3523
-0.643 4.816 1.870 5730
-0.624 4.676 1.819 2885
-0.657 4.917 1.891 5699
-0.627 4.695 1.811 2793
-0.661 4.952 1.887 7167
-0.643 4.811 1.837 3559
-0.663 4.964 1.875 6454
-0.644 4.824 1.825 2875
-0.664 4.969 1.861 5865
-0.645 4.828 1.811 2155
-0.663 4.967 1.844 4486
-0.684 5.123 1.898 2828
-0.687 5.143 1.888 3416
-0.667 4.994 1.837 1951
-0.687 5.140 1.870 3314
-0.706 5.289 1.921 1766
-0.687 5.145 1.855 3332
-0.707 5.294 1.905 2383
-0.688 5.150 1.840 3893
-0.715 5.351 1.907 3334
-0.717 5.371 1.897 4294
-0.690 5.170 1.830 3799
-0.718 5.376 1.881 3690
-0.694 5.197 1.822 1639
-0.718 5.374 1.863 3090
-0.756 5.658 1.955 1704
-0.718 5.379 1.847 4182
-0.757 5.671 1.941 1891
-0.720 5.391 1.834 3798
-0.757 5.668 1.922 2159
-0.722 5.404 1.821 2167
-0.757 5.666 1.903 2167
-0.754 5.648 1.879 2710
-0.780 5.843 1.940 1616
-0.754 5.646 1.861 2576
-0.797 5.969 1.960 1765
-0.767 5.741 1.872 2293
-0.786 5.884 1.915 2028
-0.784 5.874 1.893 2600
-0.765 5.731 1.850 1793
-0.787 5.894 1.881 3169
-0.807 6.044 1.926 1814
-0.788 5.899 1.863 2414
-0.808 6.050 1.908 1988
-0.851 6.371 1.983 2024
-0.810 6.062 1.892 1730
-0.845 6.324 1.949 2066
-0.865 6.475 1.992 1506
-0.845 6.329 1.930 2102
-0.865 6.480 1.973 1434
-0.848 6.349 1.916 2046
-0.888 6.652 2.001 1475
-0.848 6.347 1.895 2510
-0.884 6.619 1.971 2484
-0.897 6.715 1.977 2486
-0.878 6.571 1.937 2083
-0.894 6.690 1.949 2572
-0.923 6.910 2.009 2005
-0.894 6.695 1.930 2429
-0.925 6.923 1.991 2091
-0.894 6.693 1.908 2144
-0.967 7.239 2.053 1492
-0.936 7.009 1.970 2403
-0.967 7.237 2.030 1919
-0.937 7.015 1.950 2661
-0.966 7.235 2.007 2100
-0.970 7.263 1.992 2144
-0.941 7.043 1.935 2009
-1.011 7.573 2.048 2877
-0.983 7.360 1.994 2090
-1.012 7.578 2.026 2231
-1.043 7.807 2.083 1680
-1.025 7.675 2.026 1679
-1.046 7.835 2.066 1599
-1.040 7.787 2.030 2332
-1.099 8.230 2.138 1349
-1.041 7.793 2.007 2253
-1.099 8.228 2.112 1560
-1.104 8.264 2.095 1898
-1.045 7.821 1.990 1419
-1.125 8.423 2.107 2072
-1.104 8.270 2.071 1769
-1.125 8.421 2.080 1386
-1.104 8.268 2.045 1065
-1.176 8.809 2.143 990
-1.133 8.480 2.068 924
-1.176 8.807 2.116 811
-0.981 7.346 1.741 901
-0.982 7.351 1.719 955
-1.350 10.111 2.286 990
-1.256 9.405 2.135 762
-1.350 10.110 2.255 1065
-1.378 10.317 2.298 972
-1.380 10.331 2.270 1893
-1.355 10.147 2.231 1385
-1.381 10.337 2.239 2840
-1.358 10.168 2.205 2043
-1.380 10.336 2.208 3745
-1.407 10.536 2.248 2475
-1.380 10.334 2.176 3802
-1.412 10.573 2.223 3477
-1.413 10.578 2.192 2377
-1.381 10.340 2.145 2327
-1.411 10.561 2.157 2221
-1.381 10.338 2.114 1147
-1.416 10.606 2.133 1967
-1.385 10.367 2.088 797
-1.418 10.619 2.103 1667
-1.386 10.380 2.059 798
-1.420 10.632 2.073 2099
-1.386 10.378 2.027 805
-1.421 10.638 2.042 2057
-1.651 12.361 2.352 836
-1.420 10.636 2.010 995
-1.652 12.367 2.316 946
-1.670 12.505 2.302 1332
-1.650 12.358 2.277 991
-1.671 12.511 2.266 1078
-1.717 12.859 2.325 1032
-1.744 13.059 2.320 1319
-1.718 12.865 2.287 1041
-1.746 13.073 2.283 1285
-1.748 13.087 2.246 883
-1.887 14.132 2.372 1064
-1.887 14.130 2.329 1159
-1.747 13.083 2.166 853
-1.888 14.137 2.288 1086
-1.890 14.150 2.247 1138
-1.891 14.157 2.206 778
-0.298 2.279 1.792 1309
-0.310 2.373 1.851 4569
-0.295 2.252 1.763 1855
-0.312 2.384 1.849 8611
-0.296 2.263 1.761 2169
-0.312 2.389 1.842 7418
-0.297 2.268 1.754 1668
-0.315 2.406 1.845 6480
-0.299 2.285 1.757 1500
-0.322 2.462 1.875 6450
-0.306 2.341 1.787 2220
-0.324 2.474 1.872 6576
-0.308 2.352 1.785 2802
-0.324 2.479 1.865 6578
-0.308 2.357 1.778 2802
-0.324 2.477 1.853 8347
-0.308 2.355 1.767 1917
-0.324 2.476 1.842 10199
-0.308 2.354 1.756 1209
-0.326 2.494 1.843 9456
-0.310 2.371 1.758 1053
-0.328 2.512 1.845 9563
-0.312 2.389 1.760 752
-0.330 2.523 1.842 7589
-0.334 2.554 1.853 5983
-0.318 2.431 1.768 1178
-0.335 2.559 1.846 5983
-0.318 2.435 1.761 1009
-0.333 2.544 1.825 6810
-0.349 2.668 1.909 991
-0.333 2.549 1.818 7722
-0.350 2.673 1.901 1176
-0.334 2.554 1.810 7601
-0.350 2.678 1.893 1688
-0.335 2.565 1.807 7491
-0.352 2.690 1.890 2088
-0.337 2.577 1.804 6880
-0.353 2.702 1.887 2992
-0.338 2.588 1.801 6468
-0.355 2.713 1.883 3847
-0.351 2.685 1.854 5456
-0.335 2.560 1.772 3799
-0.352 2.690 1.846 5889
-0.335 2.565 1.765 3182
-0.351 2.682 1.830 7825
-0.334 2.556 1.749 1912
-0.350 2.680 1.818 10736
-0.367 2.806 1.898 2231
-0.352 2.692 1.814 11028
-0.368 2.818 1.894 1567
-0.353 2.696 1.806 11588
-0.369 2.823 1.886 1358
-0.354 2.708 1.803 8116
-0.371 2.835 1.882 1315
-0.356 2.726 1.803 4866
-0.379 2.900 1.911 1293
-0.358 2.738 1.800 3888
-0.377 2.885 1.891 1909
-0.361 2.763 1.804 3648
-0.378 2.890 1.882 2632
-0.365 2.787 1.808 5005
-0.381 2.915 1.886 3153
-0.367 2.806 1.808 7259
-0.384 2.934 1.886 3403
-0.368 2.817 1.804 6806
-0.385 2.945 1.882 2973
-0.370 2.829 1.800 6529
-0.387 2.957 1.877 2614
-0.371 2.834 1.792 4535
-0.387 2.962 1.868 3197
-0.387 2.960 1.856 3855
-0.370 2.832 1.780 2506
-0.389 2.972 1.851 4010
-0.372 2.843 1.776 2819
-0.395 3.018 1.866 5286
-0.378 2.889 1.791 3510
-0.395 3.023 1.858 6431
-0.378 2.893 1.783 3982
-0.396 3.028 1.849 8141
-0.379 2.898 1.774 3283
-0.396 3.026 1.836 9871
-0.416 3.183 1.926 4054
-0.398 3.044 1.835 8535
-0.418 3.195 1.921 4536
-0.403 3.084 1.846 9154
-0.420 3.214 1.919 4716
-0.404 3.089 1.837 7699
-0.421 3.219 1.910 5718
-0.419 3.204 1.889 8702
-0.402 3.073 1.816 5164
-0.420 3.209 1.880 9425
-0.402 3.078 1.808 4675
-0.420 3.214 1.870 8391
-0.403 3.083 1.799 3938
-0.421 3.219 1.861 6531
-0.404 3.087 1.790 4700
-0.405 3.099 1.785 6233
-0.433 3.314 1.900 5482
-0.434 3.319 1.891 6480
-0.406 3.104 1.776 5415
-0.435 3.324 1.881 7176
-0.408 3.122 1.774 3432
-0.434 3.322 1.868 7438
-0.410 3.134 1.769 2048
-0.432 3.306 1.847 8006
-0.450 3.438 1.917 3172
-0.434 3.318 1.841 7440
-0.457 3.492 1.932 3949
-0.434 3.316 1.828 8250
-0.458 3.504 1.926 6530
-0.460 3.516 1.919 9835
-0.435 3.328 1.822 9110
-0.461 3.529 1.912 10719
-0.437 3.339 1.816 9491
-0.437 3.344 1.806 8352
-0.462 3.534 1.902 8332
-0.467 3.574 1.910 6061
-0.438 3.349 1.797 5459
-0.473 3.614 1.917 7320
-0.455 3.480 1.850 4673
-0.471 3.598 1.896 7948
-0.453 3.464 1.830 2966
-0.470 3.596 1.882 8619
-0.489 3.737 1.951 2008
-0.471 3.601 1.872 6997
-0.494 3.778 1.958 3714
-0.468 3.578 1.847 5995
-0.495 3.783 1.947 5336
-0.479 3.661 1.874 8458
-0.496 3.795 1.939 6322
-0.481 3.680 1.871 10630
-0.499 3.815 1.935 6914
-0.498 3.806 1.917 9206
-0.480 3.671 1.853 8340
-0.498 3.811 1.906 11542
-0.481 3.676 1.843 7756
-0.498 3.809 1.892 10992
-0.480 3.673 1.829 7810
-0.499 3.814 1.881 7832
-0.481 3.678 1.818 6965
-0.502 3.840 1.879 4700
-0.483 3.690 1.810 4689
-0.506 3.867 1.878 4174
-0.523 4.003 1.940 2935
-0.506 3.872 1.867 4274
-0.524 4.008 1.928 2468
-0.522 3.992 1.907 3804
-0.504 3.855 1.846 3303
-0.525 4.011 1.902 4839
-0.506 3.867 1.838 2643
-0.526 4.023 1.893 6526
-0.506 3.872 1.827 2026
-0.526 4.021 1.878 9299
-0.544 4.158 1.938 3325
-0.526 4.026 1.867 8288
-0.544 4.163 1.926 3748
-0.539 4.125 1.896 8459
-0.521 3.988 1.836 2446
-0.541 4.137 1.887 8585
-0.523 4.000 1.828 2815
-0.541 4.135 1.872 6108
-0.559 4.273 1.930 2820
-0.543 4.155 1.866 5129
-0.561 4.292 1.924 3013
-0.544 4.160 1.854 5367
-0.562 4.297 1.911 2790
-0.556 4.252 1.877 6460
-0.538 4.114 1.820 1974
-0.558 4.264 1.868 5476
-0.576 4.402 1.925 2491
-0.553 4.225 1.838 4124
-0.575 4.400 1.909 3373
-0.562 4.296 1.852 5838
-0.580 4.434 1.908 2844
-0.561 4.293 1.837 6498
-0.593 4.534 1.933 2925
-0.593 4.532 1.917 4174
-0.574 4.393 1.862 3755
-0.581 4.442 1.866 5377
-0.599 4.581 1.921 2344
-0.588 4.498 1.873 4317
-0.606 4.637 1.928 2594
-0.610 4.665 1.923 4355
-0.591 4.518 1.866 4130
-0.613 4.684 1.915 6698
-0.591 4.523 1.853 5624
-0.613 4.689 1.901 7949
-0.592 4.528 1.840 6424
-0.613 4.687 1.885 7214
-0.595 4.547 1.832 4539
-0.614 4.692 1.871 6155
-0.595 4.552 1.819 2969
-0.613 4.690 1.855 5757
-0.632 4.830 1.906 3332
-0.628 4.805 1.881 6245
-0.610 4.665 1.830 3127
-0.631 4.825 1.873 5491
-0.613 4.685 1.822 2873
-0.643 4.919 1.891 4462
-0.617 4.719 1.819 3236
-0.649 4.961 1.890 6835
-0.630 4.820 1.839 3360
-0.650 4.973 1.878 6534
-0.632 4.833 1.828 2480
-0.651 4.979 1.863 5634
-0.633 4.838 1.814 2158
-0.652 4.983 1.849 3612
-0.670 5.125 1.898 3379
-0.671 5.130 1.883 4544
-0.698 5.338 1.954 1755
-0.671 5.135 1.868 4081
-0.691 5.283 1.918 1998
-0.673 5.147 1.855 3206
-0.693 5.296 1.905 2358
-0.675 5.159 1.843 3356
-0.700 5.353 1.907 3314
-0.702 5.366 1.894 4866
-0.678 5.187 1.835 3238
-0.702 5.371 1.879 4096
-0.740 5.662 1.974 1637
-0.703 5.376 1.863 3257
-0.740 5.660 1.955 1912
-0.704 5.381 1.847 4361
-0.741 5.665 1.938 1989
-0.705 5.393 1.834 4129
-0.742 5.678 1.924 1865
-0.707 5.406 1.821 2350
-0.741 5.668 1.903 1660
-0.739 5.650 1.879 2476
-0.764 5.846 1.940 1803
-0.739 5.648 1.861 2810
-0.781 5.971 1.960 1920
-0.780 5.961 1.938 2456
-0.751 5.743 1.872 2435
-0.768 5.876 1.893 2612
-0.750 5.733 1.850 1845
-0.771 5.896 1.881 3323
-0.792 6.054 1.928 1784
-0.773 5.909 1.866 2699
-0.791 6.052 1.908 2078
-0.793 6.064 1.892 2162
-0.834 6.381 1.985 2141
-0.827 6.326 1.949 2169
-0.848 6.485 1.994 1667
-0.828 6.331 1.930 2092
-0.808 6.180 1.887 1744
-0.831 6.352 1.916 2192
-0.796 6.087 1.841 1573
-0.831 6.357 1.897 2826
-0.871 6.659 1.982 2363
-0.877 6.710 1.975 2924
-0.828 6.331 1.870 1949
-0.876 6.700 1.951 3001
-0.901 6.890 2.003 2086
-0.876 6.698 1.930 2921
-0.905 6.918 1.989 2176
-0.880 6.726 1.916 2567
-0.946 7.234 2.051 1863
-0.947 7.240 2.030 2311
-0.906 6.928 1.948 2241
-0.917 7.010 1.948 2655
-0.946 7.238 2.007 2536
-0.949 7.258 1.990 2517
-0.920 7.038 1.933 2039
-0.990 7.568 2.046 2870
-0.963 7.363 1.994 2161
-0.990 7.574 2.024 2215
-1.022 7.817 2.085 1839
-1.025 7.838 2.066 1810
-1.003 7.670 2.024 1642
-1.019 7.790 2.030 2442
-1.075 8.218 2.134 1358
-1.019 7.796 2.007 2367
-1.075 8.223 2.110 1659
-1.078 8.244 2.090 1928
-1.023 7.824 1.990 1497
-1.082 8.273 2.071 1693
-1.101 8.418 2.105 1542
-1.101 8.416 2.079 1097
-1.082 8.271 2.045 1001
-1.151 8.804 2.141 778
-1.323 10.116 2.317 870
-0.962 7.353 1.719 792
-1.323 10.115 2.286 1159
-1.230 9.408 2.135 788
-1.324 10.121 2.256 1195
-1.350 10.321 2.298 1010
-1.351 10.335 2.270 2046
-1.327 10.150 2.231 1607
-1.352 10.341 2.239 3026
-1.329 10.164 2.203 2333
-1.352 10.339 2.208 4002
-1.378 10.539 2.248 2718
-1.352 10.338 2.176 4076
-1.382 10.569 2.221 3641
-1.383 10.575 2.191 2477
-1.353 10.343 2.145 2462
-1.383 10.573 2.158 2385
-1.352 10.341 2.114 1275
-1.386 10.602 2.131 2237
-1.355 10.363 2.086 874
-1.389 10.623 2.103 1966
-1.358 10.384 2.059 825
-1.391 10.636 2.073 2659
-1.358 10.381 2.027 879
-1.392 10.642 2.042 2533
-1.616 12.357 2.351 771
-1.392 10.647 2.011 1292
-1.573 12.031 2.256 914
-1.637 12.517 2.304 1178
-1.572 12.022 2.218 855
-1.637 12.516 2.266 961
-1.706 13.050 2.357 781
-1.708 13.064 2.320 1218
-1.683 12.870 2.287 797
-1.709 13.070 2.281 1088
-1.847 14.124 2.455 882
-1.847 14.122 2.412 1175
-1.847 14.121 2.369 1121
-1.849 14.143 2.330 873
-1.852 14.165 2.291 804
-1.853 14.171 2.250 939
-1.854 14.177 2.208 911
-0.341 2.610 -0.000 846
-0.341 2.609 -0.008 866
-0.341 2.609 -0.015 887
-0.341 2.608 -0.023 815
-0.293 2.280 1.792 1248
-0.305 2.373 1.851 4303
-0.290 2.253 1.763 1875
-0.307 2.385 1.849 8163
-0.291 2.264 1.761 2150
-0.308 2.396 1.847 7025
-0.292 2.275 1.759 1816
-0.310 2.414 1.849 6263
-0.295 2.292 1.762 1629
-0.317 2.463 1.875 6295
-0.301 2.342 1.787 2151
-0.319 2.481 1.877 6495
-0.303 2.359 1.790 2903
-0.320 2.486 1.869 6570
-0.304 2.364 1.783 2903
-0.318 2.472 1.849 8131
-0.302 2.350 1.762 1546
-0.318 2.477 1.842 9955
-0.303 2.354 1.756 1115
-0.321 2.494 1.843 9553
-0.305 2.372 1.758 951
-0.322 2.506 1.841 10045
-0.338 2.629 1.926 1048
-0.324 2.524 1.842 8027
-0.326 2.535 1.840 6340
-0.327 2.540 1.832 6340
-0.327 2.545 1.825 7455
-0.343 2.669 1.909 1098
-0.328 2.550 1.818 8568
-0.344 2.674 1.901 1334
-0.328 2.555 1.810 8577
-0.344 2.679 1.893 1668
-0.330 2.566 1.807 8647
-0.346 2.691 1.890 1909
-0.331 2.571 1.800 7471
-0.347 2.696 1.882 3068
-0.332 2.582 1.797 6380
-0.348 2.707 1.879 3828
-0.345 2.686 1.854 5729
-0.329 2.561 1.772 4273
-0.346 2.691 1.846 6469
-0.330 2.565 1.765 3687
-0.345 2.683 1.830 8371
-0.329 2.557 1.749 2089
-0.345 2.681 1.818 11261
-0.361 2.807 1.898 2436
-0.346 2.692 1.814 11298
-0.362 2.819 1.894 1556
-0.347 2.697 1.806 11586
-0.363 2.824 1.886 1177
-0.348 2.709 1.803 8120
-0.371 2.889 1.916 1147
-0.351 2.727 1.803 5091
-0.373 2.901 1.911 1379
-0.352 2.738 1.800 4393
-0.372 2.892 1.895 1882
-0.354 2.757 1.800 4222
-0.372 2.891 1.882 2500
-0.359 2.795 1.812 5422
-0.376 2.923 1.890 2721
-0.361 2.807 1.808 7975
-0.377 2.934 1.886 3195
-0.362 2.818 1.804 7709
-0.379 2.946 1.882 2807
-0.364 2.830 1.800 7630
-0.380 2.958 1.877 2510
-0.365 2.841 1.796 5255
-0.382 2.970 1.872 3014
-0.380 2.954 1.852 4304
-0.363 2.826 1.776 2317
-0.381 2.966 1.847 4428
-0.365 2.837 1.772 2687
-0.386 2.998 1.855 5158
-0.369 2.869 1.779 3051
-0.389 3.024 1.858 6022
-0.372 2.894 1.783 3537
-0.389 3.022 1.845 7753
-0.409 3.179 1.935 3257
-0.389 3.027 1.836 9528
-0.409 3.184 1.926 4613
-0.392 3.045 1.835 8152
-0.411 3.196 1.921 5491
-0.397 3.085 1.846 8702
-0.413 3.215 1.919 6010
-0.411 3.199 1.898 7579
-0.395 3.069 1.825 6525
-0.412 3.204 1.889 9636
-0.395 3.074 1.816 5398
-0.413 3.209 1.880 10434
-0.396 3.079 1.808 5187
-0.413 3.214 1.870 9657
-0.396 3.083 1.799 4211
-0.414 3.219 1.861 7410
-0.431 3.351 1.933 4724
-0.414 3.218 1.848 6255
-0.397 3.086 1.777 5167
-0.427 3.320 1.891 6307
-0.399 3.105 1.776 4615
-0.427 3.325 1.881 6731
-0.402 3.123 1.774 2651
-0.426 3.316 1.864 7378
-0.443 3.448 1.934 2006
-0.426 3.314 1.851 7797
-0.443 3.446 1.920 3003
-0.427 3.319 1.841 7038
-0.444 3.451 1.910 3762
-0.426 3.317 1.828 8463
-0.451 3.505 1.926 5847
-0.428 3.328 1.822 10226
-0.452 3.517 1.919 8977
-0.429 3.340 1.816 10903
-0.454 3.530 1.912 9917
-0.429 3.338 1.803 9418
-0.454 3.535 1.902 7842
-0.430 3.343 1.793 5823
-0.460 3.575 1.910 5631
-0.463 3.601 1.910 6875
-0.446 3.467 1.843 4256
-0.463 3.599 1.896 7162
-0.446 3.465 1.830 3006
-0.462 3.597 1.882 7472
-0.481 3.738 1.951 2114
-0.462 3.595 1.868 6177
-0.484 3.765 1.951 3699
-0.460 3.579 1.847 5588
-0.486 3.777 1.943 5136
-0.472 3.669 1.878 6937
-0.489 3.804 1.943 5804
-0.473 3.681 1.871 9235
-0.491 3.816 1.935 6417
-0.489 3.807 1.917 8701
-0.472 3.672 1.853 7337
-0.489 3.805 1.903 11135
-0.472 3.670 1.839 6600
-0.489 3.803 1.888 10937
-0.472 3.667 1.825 5971
-0.490 3.815 1.881 8069
-0.473 3.679 1.818 5443
-0.494 3.841 1.879 4870
-0.475 3.691 1.810 3693
-0.496 3.861 1.875 3952
-0.514 3.997 1.937 3125
-0.497 3.866 1.864 4274
-0.515 4.002 1.925 2424
-0.498 3.871 1.852 3817
-0.515 4.007 1.913 3149
-0.516 4.012 1.902 4627
-0.498 3.876 1.841 2882
-0.517 4.024 1.893 6469
-0.498 3.873 1.827 2198
-0.518 4.029 1.882 9181
-0.536 4.166 1.942 3013
-0.518 4.027 1.867 8506
-0.535 4.164 1.926 3763
-0.531 4.126 1.896 8338
-0.513 3.989 1.836 2624
-0.531 4.131 1.884 8779
-0.514 3.994 1.825 2242
-0.530 4.122 1.865 7117
-0.548 4.259 1.924 2799
-0.533 4.148 1.863 6077
-0.551 4.286 1.920 3213
-0.535 4.161 1.854 6470
-0.553 4.299 1.911 2726
-0.536 4.166 1.841 6289
-0.553 4.304 1.899 2875
-0.548 4.265 1.868 5400
-0.566 4.403 1.925 2469
-0.543 4.226 1.838 4827
-0.566 4.401 1.909 2812
-0.554 4.312 1.858 6029
-0.572 4.450 1.914 1982
-0.552 4.295 1.837 6566
-0.583 4.535 1.933 2769
-0.571 4.438 1.879 4108
-0.553 4.299 1.824 3813
-0.572 4.451 1.869 5740
-0.553 4.304 1.812 2072
-0.573 4.456 1.856 4815
-0.597 4.646 1.931 2743
-0.601 4.673 1.926 4663
-0.581 4.519 1.866 4208
-0.602 4.686 1.915 6971
-0.582 4.524 1.853 5533
-0.603 4.691 1.901 8349
-0.582 4.529 1.840 6194
-0.603 4.689 1.885 7885
-0.585 4.549 1.832 4529
-0.604 4.701 1.874 6617
-0.586 4.561 1.822 3398
-0.605 4.706 1.860 5754
-0.587 4.566 1.808 2882
-0.615 4.785 1.873 5763
-0.597 4.644 1.822 2029
-0.621 4.827 1.873 4760
-0.603 4.686 1.822 2802
-0.638 4.965 1.907 3848
-0.608 4.728 1.822 3594
-0.639 4.970 1.892 6474
-0.621 4.829 1.842 2945
-0.641 4.982 1.880 6529
-0.622 4.841 1.831 2287
-0.640 4.980 1.863 5592
-0.622 4.839 1.814 2071
-0.657 5.111 1.892 4457
-0.639 4.970 1.844 2858
-0.659 5.124 1.880 6111
-0.677 5.265 1.929 2234
-0.660 5.136 1.868 5378
-0.679 5.277 1.916 2194
-0.661 5.141 1.853 3490
-0.681 5.297 1.905 1981
-0.690 5.370 1.912 3110
-0.663 5.153 1.840 2852
-0.690 5.367 1.894 4787
-0.668 5.196 1.838 2673
-0.691 5.372 1.879 4168
-0.728 5.664 1.974 1635
-0.690 5.370 1.861 3368
-0.725 5.639 1.948 2165
-0.692 5.382 1.847 4441
-0.726 5.644 1.931 2379
-0.694 5.395 1.834 4246
-0.725 5.642 1.912 1847
-0.695 5.407 1.821 2433
-0.751 5.842 1.957 1692
-0.739 5.750 1.910 2289
-0.721 5.607 1.865 1507
-0.726 5.650 1.861 2752
-0.768 5.973 1.960 1901
-0.766 5.955 1.936 2672
-0.739 5.745 1.872 2196
-0.756 5.878 1.893 2778
-0.737 5.735 1.850 1711
-0.758 5.898 1.881 3391
-0.780 6.063 1.930 1462
-0.760 5.910 1.866 2985
-0.778 6.054 1.908 1554
-0.821 6.383 1.985 2031
-0.779 6.059 1.890 2020
-0.813 6.320 1.947 2082
-0.834 6.486 1.994 1914
-0.813 6.326 1.928 2046
-0.782 6.084 1.859 1910
-0.817 6.353 1.916 2143
-0.855 6.648 1.999 1900
-0.818 6.358 1.897 2815
-0.856 6.661 1.982 2439
-0.863 6.712 1.975 3163
-0.814 6.333 1.870 2025
-0.862 6.702 1.951 3219
-0.884 6.876 1.999 1985
-0.862 6.707 1.932 3244
-0.890 6.920 1.989 2063
-0.865 6.728 1.916 2961
-0.930 7.236 2.051 2047
-0.891 6.930 1.948 2613
-0.931 7.242 2.030 2466
-0.932 7.247 2.009 2728
-0.895 6.958 1.934 2666
-0.933 7.260 1.990 2754
-0.906 7.047 1.935 2246
-0.973 7.570 2.046 2691
-0.948 7.372 1.996 2213
-0.974 7.576 2.024 2140
-1.005 7.820 2.085 1879
-1.009 7.848 2.068 1817
-0.986 7.665 2.022 1654
-1.001 7.785 2.028 2377
-1.056 8.212 2.132 1386
-1.003 7.798 2.007 2323
-1.057 8.218 2.108 1746
-1.060 8.247 2.090 1778
-1.006 7.826 1.990 1459
-1.064 8.275 2.071 1486
-1.083 8.420 2.105 1165
-1.064 8.273 2.045 935
-1.082 8.418 2.079 875
-1.188 9.238 2.155 854
-1.209 9.405 2.163 990
-1.301 10.119 2.317 959
-1.301 10.118 2.286 1234
-1.210 9.411 2.135 927
-1.302 10.124 2.256 1247
-1.328 10.332 2.300 953
-1.329 10.338 2.270 2052
-1.305 10.153 2.231 1752
-1.330 10.344 2.239 3051
-1.307 10.167 2.203 2448
-1.330 10.342 2.208 4046
-1.355 10.542 2.248 2602
-1.330 10.340 2.176 4101
-1.358 10.564 2.220 3367
-1.359 10.570 2.189 2492
-1.329 10.339 2.144 2450
-1.360 10.576 2.158 2844
-1.330 10.344 2.114 1350
-1.361 10.582 2.127 2958
-1.332 10.358 2.085 947
-1.365 10.618 2.102 2291
-1.335 10.387 2.059 815
-1.368 10.639 2.073 2959
-1.335 10.384 2.027 857
-1.370 10.653 2.044 2717
-1.370 10.658 2.012 1515
-1.546 12.027 2.254 962
-1.610 12.521 2.304 1017
-1.546 12.025 2.218 902
-1.610 12.519 2.266 811
-1.680 13.067 2.320 897
-1.814 14.105 2.494 763
-1.682 13.081 2.283 836
-1.814 14.112 2.452 764
-1.816 14.126 2.412 950
-1.817 14.133 2.371 1009
-1.819 14.147 2.330 1054
-1.821 14.161 2.290 1053
-0.293 2.318 1.821 1287
-0.299 2.368 1.847 4095
-0.284 2.247 1.758 1510
-0.301 2.385 1.849 7700
-0.286 2.265 1.761 2032
-0.303 2.396 1.847 6795
-0.287 2.276 1.759 1719
-0.305 2.414 1.849 6305
-0.290 2.293 1.762 1548
-0.311 2.464 1.875 6038
-0.296 2.342 1.787 2186
-0.314 2.482 1.877 6240
-0.298 2.360 1.790 2717
-0.315 2.493 1.874 6383
-0.300 2.371 1.787 2861
-0.312 2.472 1.849 7712
-0.297 2.350 1.762 1484
-0.313 2.477 1.842 9439
-0.298 2.355 1.756 1020
-0.314 2.489 1.839 9463
-0.330 2.611 1.925 1100
-0.317 2.507 1.841 10317
-0.332 2.630 1.926 1078
-0.319 2.524 1.842 8409
-0.303 2.401 1.758 756
-0.320 2.536 1.840 6794
-0.321 2.541 1.832 6794
-0.322 2.546 1.825 8033
-0.337 2.670 1.909 1235
-0.322 2.551 1.818 9222
-0.338 2.675 1.901 1541
-0.323 2.555 1.810 9405
-0.339 2.680 1.893 1737
-0.324 2.567 1.807 9767
-0.340 2.691 1.890 1859
-0.325 2.572 1.800 8292
-0.341 2.697 1.882 2933
-0.325 2.576 1.792 6816
-0.341 2.702 1.874 4008
-0.339 2.687 1.854 6184
-0.324 2.561 1.772 4955
-0.340 2.692 1.846 7129
-0.324 2.566 1.765 4308
-0.339 2.683 1.830 8920
-0.323 2.558 1.749 2284
-0.339 2.682 1.818 11718
-0.355 2.808 1.898 2536
-0.340 2.693 1.814 11493
-0.356 2.819 1.894 1614
-0.341 2.698 1.806 11503
-0.357 2.825 1.886 1238
-0.342 2.709 1.803 8080
-0.365 2.890 1.916 1220
-0.345 2.728 1.803 5316
-0.367 2.901 1.911 1504
-0.346 2.739 1.800 4879
-0.366 2.893 1.895 1898
-0.348 2.757 1.800 4865
-0.366 2.898 1.886 2385
-0.353 2.796 1.812 5878
-0.369 2.923 1.890 2555
-0.355 2.807 1.808 8652
-0.371 2.935 1.886 2919
-0.356 2.819 1.804 8560
-0.372 2.947 1.882 2608
-0.358 2.830 1.800 8687
-0.374 2.959 1.877 2412
-0.359 2.842 1.796 6102
-0.375 2.971 1.872 3090
-0.372 2.948 1.848 4686
-0.356 2.820 1.772 2111
-0.375 2.967 1.847 4786
-0.359 2.838 1.772 2839
-0.378 2.992 1.851 5359
-0.362 2.863 1.775 3150
-0.380 3.004 1.846 5848
-0.363 2.875 1.771 2839
-0.382 3.023 1.845 7446
-0.401 3.173 1.931 3752
-0.382 3.028 1.836 9103
-0.401 3.178 1.922 5210
-0.385 3.046 1.835 7765
-0.403 3.190 1.917 6110
-0.390 3.085 1.846 8203
-0.406 3.216 1.919 6396
-0.404 3.200 1.898 8462
-0.388 3.070 1.825 5951
-0.405 3.205 1.889 10743
-0.388 3.075 1.816 4940
-0.406 3.210 1.880 11597
-0.389 3.079 1.808 4903
-0.406 3.215 1.870 10339
-0.390 3.084 1.799 3860
-0.407 3.220 1.861 8048
-0.423 3.352 1.933 4672
-0.407 3.218 1.848 7275
-0.423 3.350 1.919 4784
-0.409 3.237 1.846 6694
-0.391 3.099 1.772 3943
-0.410 3.249 1.841 6786
-0.394 3.117 1.770 2740
-0.420 3.324 1.868 7173
-0.440 3.484 1.952 2049
-0.419 3.315 1.851 7651
-0.435 3.447 1.920 3087
-0.419 3.313 1.838 7147
-0.435 3.445 1.907 4622
-0.419 3.318 1.828 8916
-0.443 3.506 1.926 5027
-0.421 3.329 1.822 10764
-0.444 3.518 1.919 7750
-0.422 3.341 1.816 11266
-0.446 3.530 1.912 8645
-0.422 3.339 1.803 9770
-0.447 3.536 1.902 7009
-0.422 3.344 1.793 6492
-0.451 3.569 1.906 5344
-0.454 3.595 1.906 6610
-0.437 3.461 1.840 4147
-0.455 3.600 1.896 6505
-0.438 3.466 1.830 3110
-0.455 3.598 1.882 6367
-0.473 3.746 1.955 2115
-0.453 3.582 1.861 5649
-0.476 3.766 1.951 3881
-0.452 3.580 1.847 5480
-0.476 3.771 1.940 5324
-0.477 3.776 1.929 6338
-0.460 3.642 1.864 5024
-0.465 3.682 1.871 8217
-0.482 3.817 1.935 5942
-0.480 3.801 1.914 8296
-0.463 3.666 1.850 6312
-0.481 3.806 1.903 10528
-0.464 3.671 1.839 5601
-0.481 3.804 1.888 10650
-0.463 3.668 1.825 4743
-0.480 3.802 1.874 8134
-0.502 3.973 1.953 3139
-0.477 3.778 1.850 5483
-0.504 3.985 1.945 3635
-0.487 3.855 1.871 4209
-0.505 3.998 1.937 3251
-0.488 3.860 1.860 4662
-0.508 4.017 1.932 2306
-0.489 3.872 1.852 4087
-0.506 4.008 1.913 2698
-0.506 4.006 1.899 4588
-0.489 3.870 1.838 2923
-0.509 4.026 1.893 6601
-0.489 3.874 1.827 2245
-0.509 4.031 1.882 9098
-0.527 4.167 1.942 3003
-0.509 4.028 1.867 8423
-0.526 4.165 1.926 3670
-0.521 4.127 1.896 7968
-0.504 3.990 1.836 2576
-0.520 4.118 1.877 8958
-0.539 4.263 1.939 1660
-0.521 4.123 1.865 8408
-0.538 4.260 1.924 2688
-0.524 4.150 1.863 6827
-0.542 4.287 1.920 3208
-0.527 4.169 1.857 7237
-0.544 4.307 1.914 2600
-0.526 4.167 1.841 7881
-0.544 4.305 1.899 3032
-0.528 4.179 1.832 5552
-0.553 4.375 1.913 3190
-0.534 4.228 1.838 5397
-0.555 4.395 1.906 2378
-0.546 4.320 1.861 6030
-0.563 4.459 1.917 2190
-0.543 4.296 1.837 6101
-0.573 4.537 1.933 2548
-0.553 4.381 1.856 4525
-0.573 4.535 1.917 3743
-0.563 4.459 1.872 6096
-0.546 4.320 1.817 1787
-0.565 4.472 1.862 5574
-0.587 4.647 1.931 2822
-0.591 4.674 1.926 4709
-0.567 4.491 1.855 4336
-0.592 4.687 1.915 6909
-0.572 4.525 1.853 5316
-0.593 4.692 1.901 8352
-0.572 4.530 1.840 5873
-0.592 4.690 1.885 8153
-0.575 4.550 1.832 4368
-0.594 4.702 1.874 6914
-0.576 4.562 1.822 3448
-0.596 4.715 1.863 5771
-0.578 4.575 1.811 3112
-0.603 4.771 1.868 5622
-0.620 4.912 1.919 1924
-0.604 4.784 1.857 4362
-0.622 4.924 1.908 1576
-0.597 4.729 1.822 4075
-0.628 4.974 1.909 3753
-0.629 4.979 1.895 6246
-0.597 4.727 1.805 3186
-0.631 4.991 1.883 6639
-0.613 4.850 1.833 2609
-0.631 4.996 1.868 5755
-0.613 4.855 1.819 2305
-0.646 5.113 1.892 5087
-0.628 4.971 1.844 2410
-0.647 5.125 1.880 6900
-0.665 5.266 1.929 2951
-0.648 5.130 1.865 6231
-0.666 5.271 1.913 2516
-0.649 5.135 1.850 3915
-0.631 4.993 1.803 2033
-0.679 5.371 1.912 3023
-0.650 5.147 1.838 2433
-0.678 5.369 1.894 4788
-0.660 5.227 1.847 2285
-0.679 5.374 1.879 4237
-0.716 5.665 1.974 1555
-0.679 5.371 1.861 3475
-0.713 5.641 1.948 2497
-0.680 5.384 1.847 4374
-0.712 5.638 1.929 2802
-0.682 5.396 1.834 4043
-0.707 5.599 1.898 2595
-0.683 5.409 1.821 2174
-0.707 5.596 1.879 2079
-0.726 5.744 1.907 2435
-0.744 5.886 1.952 1563
-0.714 5.651 1.861 2677
-0.742 5.877 1.930 2320
-0.744 5.889 1.915 2987
-0.726 5.746 1.872 1891
-0.744 5.887 1.896 2820
-0.762 6.030 1.939 1919
-0.744 5.892 1.878 3374
-0.764 6.050 1.926 1675
-0.748 5.920 1.868 3230
-0.766 6.063 1.910 1284
-0.751 5.947 1.857 2127
-0.807 6.385 1.985 1870
-0.820 6.488 1.994 2035
-0.796 6.299 1.940 1914
-0.780 6.176 1.885 2091
-0.798 6.320 1.926 1848
-0.839 6.643 1.997 2382
-0.803 6.355 1.916 2195
-0.804 6.360 1.897 2861
-0.843 6.671 1.984 2694
-0.848 6.714 1.975 3285
-0.800 6.335 1.870 2064
-0.847 6.704 1.951 3383
-0.868 6.871 1.997 1896
-0.848 6.709 1.932 3486
-0.870 6.884 1.979 1935
-0.850 6.730 1.916 3224
-0.873 6.912 1.964 2047
-0.876 6.932 1.948 2581
-0.915 7.244 2.030 2400
-0.916 7.249 2.009 2694
-0.879 6.960 1.934 2563
-0.917 7.262 1.990 2793
-0.892 7.057 1.937 2696
-0.957 7.572 2.046 2226
-0.932 7.374 1.996 2177
-0.957 7.578 2.024 2036
-0.988 7.822 2.085 1692
-0.955 7.560 1.996 1817
-0.986 7.804 2.056 1725
-0.984 7.787 2.028 2156
-1.037 8.207 2.130 1422
-0.986 7.808 2.009 2059
-1.038 8.213 2.106 1867
-1.041 8.241 2.088 1560
-0.990 7.836 1.991 1354
-1.046 8.277 2.071 1132
-0.991 7.841 1.968 1034
-1.110 8.788 2.164 899
-1.045 8.275 2.045 807
-1.083 8.572 2.087 809
-1.167 9.235 2.182 822
-1.167 9.241 2.155 1088
-1.193 9.440 2.199 888
-1.190 9.416 2.164 1272
-1.265 10.015 2.294 986
-1.279 10.121 2.286 1207
-1.189 9.414 2.135 1090
-1.281 10.142 2.260 1253
-1.256 9.942 2.218 888
-1.283 10.156 2.231 1872
-1.306 10.341 2.270 1824
-1.307 10.347 2.239 2806
-1.285 10.170 2.203 2571
-1.307 10.345 2.208 3832
-1.332 10.545 2.248 2286
-1.307 10.343 2.176 3890
-1.335 10.567 2.220 2802
-1.306 10.341 2.144 2351
-1.336 10.573 2.189 2192
-1.336 10.579 2.158 2841
-1.307 10.347 2.114 1409
-1.337 10.585 2.127 3001
-1.309 10.361 2.085 1015
-1.342 10.621 2.102 2563
-1.312 10.382 2.057 767
-1.344 10.635 2.072 3220
-1.312 10.387 2.027 833
-1.346 10.656 2.044 2919
-1.348 10.669 2.014 1764
-1.519 12.023 2.253 927
-1.349 10.674 1.983 941
-1.581 12.516 2.302 894
-1.357 10.741 1.962 842
-1.358 10.747 1.930 887
-1.782 14.102 2.492 786
-1.785 14.129 2.369 936
-1.787 14.143 2.329 1053
-1.611 12.753 -0.670 810
-1.611 12.750 -0.707 892
-1.611 12.748 -0.744 975
-1.610 12.745 -0.782 975
-1.610 12.743 -0.819 1058
-1.609 12.740 -0.856 1142
-1.609 12.737 -0.894 1051
-1.609 12.734 -0.931 961
-1.608 12.731 -0.968 829
-0.288 2.319 1.821 1381
-0.294 2.368 1.847 4038
-0.279 2.248 1.758 1445
-0.296 2.386 1.849 7361
-0.281 2.265 1.761 1913
-0.297 2.397 1.847 6676
-0.282 2.276 1.759 1627
-0.300 2.415 1.849 6471
-0.285 2.294 1.762 1443
-0.306 2.465 1.875 5821
-0.291 2.343 1.787 2339
-0.308 2.482 1.877 5963
-0.293 2.361 1.790 2790
-0.309 2.494 1.874 6323
-0.294 2.372 1.787 3028
-0.307 2.473 1.849 7167
-0.292 2.351 1.762 1428
-0.307 2.478 1.842 8711
-0.292 2.356 1.756 923
-0.309 2.489 1.839 9141
-0.324 2.612 1.925 1068
-0.312 2.514 1.845 10298
-0.327 2.637 1.930 853
-0.313 2.525 1.842 8629
-0.298 2.402 1.758 774
-0.315 2.537 1.840 7195
-0.315 2.542 1.832 7195
-0.331 2.665 1.916 792
-0.316 2.546 1.825 8534
-0.331 2.670 1.909 1350
-0.317 2.551 1.818 9815
-0.332 2.675 1.901 1722
-0.317 2.556 1.810 10099
-0.333 2.681 1.893 1847
-0.319 2.568 1.807 10606
-0.334 2.692 1.890 1906
-0.319 2.572 1.800 8972
-0.335 2.697 1.882 2857
-0.320 2.577 1.792 7337
-0.335 2.702 1.874 3808
-0.333 2.688 1.854 6520
-0.318 2.562 1.772 5410
-0.335 2.699 1.850 7605
-0.319 2.573 1.769 4966
-0.333 2.684 1.830 9278
-0.317 2.558 1.749 2377
-0.333 2.682 1.818 11929
-0.348 2.809 1.898 2512
-0.334 2.694 1.814 11493
-0.350 2.820 1.894 1668
-0.335 2.699 1.806 11262
-0.350 2.825 1.886 1402
-0.337 2.717 1.807 7928
-0.359 2.890 1.916 1340
-0.339 2.735 1.807 5562
-0.359 2.896 1.907 1725
-0.341 2.747 1.804 5314
-0.359 2.894 1.895 2053
-0.342 2.758 1.800 5373
-0.360 2.899 1.886 2427
-0.346 2.790 1.808 6295
-0.362 2.918 1.886 2588
-0.349 2.815 1.813 9260
-0.365 2.943 1.890 2435
-0.351 2.826 1.808 9300
-0.367 2.955 1.886 2271
-0.352 2.838 1.804 9530
-0.368 2.966 1.881 2167
-0.354 2.850 1.800 6925
-0.369 2.978 1.877 2858
-0.365 2.943 1.844 5152
-0.349 2.814 1.768 1938
-0.367 2.961 1.843 5181
-0.351 2.832 1.768 2393
-0.371 2.993 1.851 5284
-0.355 2.864 1.775 3475
-0.372 2.998 1.842 5422
-0.356 2.869 1.767 2612
-0.374 3.017 1.841 6576
-0.394 3.174 1.931 4285
-0.376 3.028 1.836 7920
-0.394 3.179 1.922 5895
-0.396 3.191 1.917 6891
-0.378 3.047 1.835 6590
-0.397 3.203 1.911 8118
-0.381 3.073 1.838 6915
-0.397 3.201 1.898 9252
-0.381 3.071 1.825 5882
-0.398 3.206 1.889 11253
-0.382 3.075 1.816 5627
-0.398 3.211 1.880 11992
-0.382 3.080 1.808 5747
-0.399 3.216 1.870 10828
-0.383 3.085 1.799 4113
-0.399 3.214 1.857 8742
-0.417 3.360 1.936 4528
-0.399 3.219 1.848 8112
-0.416 3.351 1.919 4659
-0.401 3.231 1.842 7313
-0.417 3.363 1.913 4024
-0.402 3.243 1.837 7202
-0.419 3.375 1.907 2607
-0.413 3.331 1.872 7034
-0.397 3.199 1.802 2308
-0.412 3.323 1.855 7379
-0.429 3.455 1.924 2768
-0.411 3.314 1.838 7209
-0.428 3.446 1.907 4911
-0.412 3.318 1.828 9233
-0.428 3.451 1.897 5160
-0.413 3.330 1.822 11133
-0.437 3.519 1.919 6620
-0.415 3.342 1.816 11359
-0.438 3.531 1.912 7443
-0.414 3.340 1.803 9774
-0.439 3.537 1.902 6268
-0.415 3.345 1.793 6588
-0.442 3.563 1.903 5109
-0.445 3.589 1.903 6300
-0.429 3.455 1.836 3982
-0.447 3.601 1.896 5914
-0.430 3.467 1.830 3122
-0.446 3.599 1.882 5599
-0.430 3.465 1.816 2159
-0.444 3.583 1.861 5278
-0.466 3.760 1.947 3935
-0.443 3.574 1.844 5565
-0.467 3.765 1.936 5518
-0.468 3.770 1.926 6620
-0.445 3.586 1.837 4529
-0.457 3.683 1.871 7612
-0.474 3.818 1.935 5400
-0.472 3.802 1.914 7608
-0.455 3.667 1.850 5698
-0.471 3.800 1.899 9596
-0.446 3.593 1.802 4731
-0.471 3.798 1.885 9977
-0.454 3.662 1.822 3399
-0.467 3.767 1.857 8356
-0.484 3.903 1.920 3138
-0.469 3.779 1.850 6203
-0.495 3.987 1.945 3550
-0.478 3.856 1.871 4775
-0.495 3.992 1.933 3275
-0.479 3.861 1.860 5221
-0.499 4.018 1.932 2328
-0.480 3.866 1.849 4394
-0.503 4.052 1.933 2773
-0.497 4.007 1.899 4560
-0.480 3.871 1.838 2892
-0.508 4.099 1.925 7014
-0.491 3.962 1.865 2557
-0.500 4.032 1.882 8774
-0.517 4.169 1.942 2819
-0.500 4.030 1.867 8161
-0.517 4.167 1.926 3444
-0.511 4.121 1.892 7682
-0.494 3.984 1.833 2054
-0.511 4.119 1.877 9544
-0.528 4.256 1.936 1360
-0.512 4.124 1.865 9615
-0.529 4.262 1.924 2567
-0.514 4.144 1.859 7583
-0.531 4.281 1.917 3346
-0.517 4.170 1.857 7672
-0.534 4.308 1.914 2548
-0.517 4.168 1.841 8855
-0.534 4.306 1.899 2865
-0.519 4.180 1.832 6390
-0.544 4.384 1.916 3057
-0.525 4.229 1.838 5895
-0.542 4.367 1.894 2508
-0.536 4.321 1.861 5920
-0.553 4.460 1.917 2727
-0.533 4.297 1.837 5578
-0.553 4.458 1.901 3398
-0.543 4.375 1.853 4883
-0.563 4.536 1.917 3326
-0.553 4.460 1.872 6318
-0.536 4.321 1.817 1709
-0.554 4.465 1.859 6188
-0.577 4.649 1.931 2678
-0.553 4.456 1.840 4651
-0.580 4.676 1.926 4318
-0.582 4.688 1.915 6405
-0.562 4.534 1.856 4651
-0.581 4.686 1.898 8033
-0.563 4.539 1.842 5235
-0.582 4.691 1.885 8170
-0.565 4.551 1.832 3905
-0.584 4.711 1.876 7053
-0.567 4.571 1.824 3246
-0.586 4.723 1.865 5701
-0.568 4.576 1.811 2897
-0.591 4.765 1.865 4960
-0.609 4.906 1.917 2036
-0.588 4.741 1.841 4180
-0.606 4.881 1.892 1959
-0.587 4.731 1.822 4149
-0.617 4.975 1.909 3539
-0.619 4.987 1.898 5975
-0.587 4.728 1.805 3279
-0.619 4.993 1.883 6768
-0.602 4.852 1.833 2989
-0.621 5.005 1.871 6177
-0.603 4.864 1.822 2400
-0.624 5.032 1.864 5571
-0.650 5.240 1.936 3000
-0.636 5.126 1.880 6668
-0.653 5.268 1.929 3570
-0.637 5.131 1.865 6141
-0.654 5.273 1.913 2881
-0.636 5.129 1.848 3961
-0.619 4.987 1.800 1976
-0.667 5.380 1.915 2764
-0.650 5.238 1.868 2595
-0.666 5.370 1.894 3839
-0.649 5.228 1.847 2022
-0.666 5.368 1.876 3792
-0.684 5.510 1.923 1670
-0.667 5.373 1.861 3478
-0.699 5.635 1.945 2756
-0.668 5.385 1.847 4301
-0.699 5.632 1.926 3207
-0.670 5.398 1.834 3978
-0.695 5.600 1.898 3235
-0.694 5.598 1.879 2628
-0.671 5.410 1.821 2192
-0.713 5.745 1.907 2577
-0.730 5.888 1.952 1793
-0.729 5.878 1.930 2831
-0.701 5.653 1.861 2535
-0.732 5.898 1.917 3396
-0.713 5.748 1.872 1430
-0.730 5.888 1.896 2868
-0.748 6.031 1.939 1743
-0.731 5.894 1.878 3226
-0.750 6.044 1.923 1530
-0.735 5.921 1.868 3331
-0.764 6.155 1.937 1463
-0.737 5.941 1.855 2258
-0.764 6.160 1.919 1710
-0.805 6.490 1.994 2131
-0.781 6.294 1.938 2036
-0.766 6.178 1.885 2252
-0.806 6.495 1.975 1806
-0.824 6.644 1.997 2838
-0.789 6.357 1.916 2179
-0.828 6.673 1.984 3138
-0.788 6.354 1.895 2712
-0.833 6.716 1.975 3325
-0.785 6.329 1.868 2112
-0.833 6.713 1.953 3397
-0.851 6.858 1.992 2060
-0.833 6.711 1.932 3504
-0.853 6.878 1.977 2001
-0.835 6.731 1.916 3371
-0.857 6.906 1.962 1864
-0.833 6.714 1.890 2304
-0.860 6.934 1.948 2195
-0.875 7.054 1.958 3097
-0.900 7.251 2.009 2346
-0.876 7.059 1.937 3614
-0.900 7.257 1.988 2656
-0.876 7.064 1.916 2318
-0.916 7.384 1.998 1896
-0.939 7.572 2.022 1903
-0.918 7.397 1.978 1517
-0.937 7.555 1.994 1935
-0.968 7.807 2.056 1487
-0.967 7.797 2.030 1734
-1.018 8.209 2.130 1454
-1.019 8.215 2.106 1990
-0.969 7.810 2.009 1718
-1.021 8.228 2.084 1334
-0.972 7.838 1.991 1217
-1.060 8.548 2.134 1013
-0.973 7.844 1.968 866
-1.064 8.576 2.114 922
-1.091 8.798 2.165 903
-1.064 8.574 2.087 1093
-1.095 8.827 2.145 821
-1.063 8.572 2.060 1007
-1.097 8.841 2.121 900
-1.146 9.238 2.182 1021
-1.165 9.391 2.216 830
-1.147 9.243 2.155 1259
-1.171 9.435 2.197 1063
-1.169 9.426 2.166 1582
-1.120 9.026 2.080 1099
-1.169 9.424 2.137 1258
-1.256 10.124 2.286 1076
-1.260 10.153 2.261 1180
-1.233 9.937 2.216 1081
-1.260 10.159 2.231 1923
-1.234 9.943 2.187 1491
-1.261 10.165 2.202 2647
-1.284 10.350 2.239 2412
-1.284 10.348 2.208 3390
-1.309 10.548 2.248 1896
-1.284 10.346 2.176 3366
-1.310 10.562 2.218 2366
-1.312 10.576 2.189 2094
-1.283 10.344 2.144 2056
-1.313 10.582 2.158 2714
-1.284 10.350 2.114 1408
-1.313 10.588 2.127 2863
-1.286 10.364 2.085 1040
-1.317 10.616 2.100 2662
-1.320 10.638 2.072 3488
-1.322 10.659 2.044 3186
-1.324 10.672 2.014 1924
-1.492 12.026 2.253 867
-1.318 10.623 1.973 1144
-1.492 12.024 2.216 792
-1.332 10.737 1.961 839
-1.724 13.897 2.499 832
-1.332 10.734 1.928 922
-1.752 14.120 2.452 1093
-1.330 10.724 1.894 814
-1.752 14.119 2.410 1242
-1.752 14.125 2.368 1221
-1.753 14.132 2.327 1025
-0.282 2.320 1.821 1520
-0.287 2.363 1.842 4244
-0.273 2.242 1.753 1115
-0.289 2.380 1.845 7278
-0.275 2.259 1.756 1619
-0.291 2.398 1.847 6770
-0.277 2.277 1.759 1553
-0.294 2.416 1.849 6796
-0.279 2.294 1.762 1372
-0.294 2.421 1.842 5943
-0.279 2.299 1.755 904
-0.303 2.490 1.881 5856
-0.288 2.368 1.794 3429
-0.303 2.495 1.874 6321
-0.288 2.373 1.787 3429
-0.301 2.474 1.849 6878
-0.286 2.352 1.762 1454
-0.301 2.472 1.837 8329
-0.286 2.350 1.751 776
-0.302 2.484 1.834 8923
-0.317 2.606 1.920 1153
-0.306 2.515 1.845 10248
-0.321 2.638 1.930 878
-0.308 2.532 1.847 8877
-0.293 2.409 1.762 985
-0.308 2.537 1.840 7634
-0.309 2.542 1.832 7634
-0.324 2.666 1.916 867
-0.310 2.547 1.825 8974
-0.325 2.671 1.909 1490
-0.310 2.552 1.818 10270
-0.325 2.676 1.901 1926
-0.311 2.557 1.810 10466
-0.326 2.681 1.893 2018
-0.312 2.568 1.807 10832
-0.327 2.693 1.890 2043
-0.313 2.573 1.800 9365
-0.328 2.698 1.882 2877
-0.313 2.571 1.788 7930
-0.328 2.697 1.870 4385
-0.326 2.682 1.849 6873
-0.311 2.556 1.768 4995
-0.327 2.693 1.846 7937
-0.312 2.568 1.765 4821
-0.326 2.685 1.830 9453
-0.311 2.559 1.749 2378
-0.326 2.683 1.818 11842
-0.341 2.809 1.898 2374
-0.328 2.695 1.814 11249
-0.343 2.821 1.894 1678
-0.328 2.700 1.806 10824
-0.344 2.826 1.886 1586
-0.330 2.718 1.807 7670
-0.351 2.885 1.911 1493
-0.333 2.736 1.807 5692
-0.351 2.890 1.903 2009
-0.334 2.747 1.804 5597
-0.352 2.895 1.895 2319
-0.335 2.759 1.800 5673
-0.352 2.900 1.886 2629
-0.339 2.791 1.808 6618
-0.355 2.918 1.886 2458
-0.342 2.816 1.813 9745
-0.358 2.944 1.890 2189
-0.344 2.827 1.808 9855
-0.359 2.955 1.886 2179
-0.345 2.839 1.804 10177
-0.361 2.967 1.881 2244
-0.346 2.850 1.800 7714
-0.362 2.979 1.877 2831
-0.350 2.882 1.808 6214
-0.366 3.011 1.884 2160
-0.350 2.880 1.796 5867
-0.366 3.010 1.871 3143
-0.363 2.987 1.847 5205
-0.347 2.858 1.771 3462
-0.365 3.006 1.846 5332
-0.350 2.876 1.771 3051
-0.367 3.018 1.841 6379
-0.386 3.175 1.931 4591
-0.367 3.023 1.832 7549
-0.387 3.180 1.922 6245
-0.388 3.192 1.917 7325
-0.370 3.048 1.835 5840
-0.389 3.204 1.911 8719
-0.374 3.073 1.838 6224
-0.389 3.202 1.898 9640
-0.373 3.072 1.825 6236
-0.390 3.207 1.889 11144
-0.374 3.076 1.816 6708
-0.390 3.212 1.880 11606
-0.375 3.081 1.808 7008
-0.391 3.217 1.870 10874
-0.375 3.086 1.799 5093
-0.391 3.215 1.857 9573
-0.408 3.361 1.936 4127
-0.391 3.220 1.848 9249
-0.407 3.352 1.919 4259
-0.393 3.232 1.842 8306
-0.409 3.364 1.913 3858
-0.394 3.244 1.837 8133
-0.410 3.376 1.907 2506
-0.405 3.332 1.872 6753
-0.389 3.200 1.802 2534
-0.406 3.337 1.862 6936
-0.424 3.491 1.942 2685
-0.402 3.308 1.834 6737
-0.418 3.440 1.903 5731
-0.403 3.319 1.828 8933
-0.420 3.452 1.897 5287
-0.405 3.331 1.822 10796
-0.429 3.527 1.923 5429
-0.406 3.343 1.816 10783
-0.429 3.533 1.912 6070
-0.406 3.341 1.803 9391
-0.430 3.538 1.902 5389
-0.407 3.346 1.793 6443
-0.433 3.564 1.903 4967
-0.436 3.583 1.899 6041
-0.419 3.449 1.833 4142
-0.436 3.588 1.889 5432
-0.418 3.440 1.816 3367
-0.437 3.593 1.878 5041
-0.420 3.452 1.809 2330
-0.436 3.584 1.861 5077
-0.457 3.761 1.947 3831
-0.435 3.575 1.844 5635
-0.457 3.759 1.933 5592
-0.458 3.764 1.922 6876
-0.437 3.594 1.840 4493
-0.456 3.748 1.901 7628
-0.439 3.613 1.837 4735
-0.458 3.767 1.897 7211
-0.437 3.597 1.816 5137
-0.461 3.794 1.896 8758
-0.437 3.594 1.802 4809
-0.461 3.792 1.882 9299
-0.437 3.599 1.792 3347
-0.458 3.768 1.857 8897
-0.475 3.904 1.920 3128
-0.459 3.773 1.847 6882
-0.485 3.988 1.945 3456
-0.469 3.857 1.871 5288
-0.485 3.993 1.933 3303
-0.469 3.862 1.860 5497
-0.487 4.005 1.925 2715
-0.470 3.867 1.849 4365
-0.492 4.046 1.930 3042
-0.486 4.001 1.895 4675
-0.503 4.138 1.956 2330
-0.498 4.100 1.925 7141
-0.482 3.963 1.865 3049
-0.490 4.033 1.882 8320
-0.507 4.170 1.942 2510
-0.490 4.031 1.867 7437
-0.507 4.168 1.926 3018
-0.500 4.115 1.889 7021
-0.484 3.978 1.830 1915
-0.501 4.120 1.877 9956
-0.484 3.983 1.819 1449
-0.501 4.125 1.865 10801
-0.518 4.263 1.924 2449
-0.504 4.145 1.859 8260
-0.521 4.283 1.917 3229
-0.507 4.172 1.857 7879
-0.524 4.310 1.914 2385
-0.507 4.169 1.841 9309
-0.524 4.307 1.899 2795
-0.509 4.189 1.835 6732
-0.526 4.327 1.892 2910
-0.513 4.223 1.835 6025
-0.530 4.361 1.891 3074
-0.525 4.315 1.858 5579
-0.541 4.454 1.914 3354
-0.522 4.291 1.834 6246
-0.541 4.452 1.898 4457
-0.533 4.384 1.856 5422
-0.552 4.537 1.917 2736
-0.542 4.462 1.872 6603
-0.523 4.301 1.809 2085
-0.543 4.467 1.859 6759
-0.565 4.650 1.931 2486
-0.542 4.457 1.840 5018
-0.567 4.663 1.920 3825
-0.570 4.690 1.915 5651
-0.551 4.535 1.856 3887
-0.570 4.688 1.898 7268
-0.553 4.548 1.845 4447
-0.570 4.693 1.885 7562
-0.553 4.553 1.832 3437
-0.573 4.712 1.876 6813
-0.556 4.572 1.824 3018
-0.574 4.725 1.865 5285
-0.556 4.577 1.811 2596
-0.579 4.767 1.865 4289
-0.596 4.907 1.917 2119
-0.576 4.742 1.841 3920
-0.601 4.942 1.913 2390
-0.575 4.732 1.822 4367
-0.605 4.976 1.909 3448
-0.607 4.996 1.900 5598
-0.590 4.856 1.850 3468
-0.607 4.994 1.883 6761
-0.590 4.853 1.833 3608
-0.609 5.006 1.871 6688
-0.591 4.865 1.822 2448
-0.612 5.034 1.864 6702
-0.637 5.242 1.936 3438
-0.623 5.128 1.880 6366
-0.641 5.269 1.929 4037
-0.624 5.133 1.865 5984
-0.641 5.275 1.913 3175
-0.624 5.131 1.848 4212
-0.606 4.989 1.800 2061
-0.639 5.255 1.873 3074
-0.656 5.397 1.920 2494
-0.654 5.379 1.897 3265
-0.637 5.237 1.850 2202
-0.652 5.362 1.874 3389
-0.669 5.504 1.920 1914
-0.653 5.375 1.861 3335
-0.685 5.636 1.945 2885
-0.655 5.387 1.847 4057
-0.685 5.634 1.926 3422
-0.682 5.609 1.900 3648
-0.656 5.399 1.834 3534
-0.682 5.607 1.882 3039
-0.699 5.749 1.926 1960
-0.713 5.867 1.945 2501
-0.686 5.642 1.875 2216
-0.716 5.887 1.932 3300
-0.687 5.654 1.861 2597
-0.717 5.900 1.917 3596
-0.687 5.652 1.842 1491
-0.716 5.890 1.896 2830
-0.733 6.033 1.939 1785
-0.717 5.895 1.878 3017
-0.734 6.039 1.921 2056
-0.719 5.915 1.866 3387
-0.749 6.164 1.939 1672
-0.721 5.935 1.853 2456
-0.749 6.162 1.919 2265
-0.765 6.296 1.938 2230
-0.789 6.492 1.994 2111
-0.767 6.308 1.922 2127
-0.738 6.074 1.855 1953
-0.807 6.639 1.995 3162
-0.773 6.359 1.916 2131
-0.811 6.675 1.984 3559
-0.769 6.326 1.887 2672
