-0.938 5.483 1.837 1023
-0.958 5.600 1.856 2526
-1.001 5.853 1.935 2500
-1.001 5.851 1.915 4405
-0.961 5.619 1.844 1603
-1.002 5.856 1.898 4358
-0.967 5.654 1.837 1161
-1.027 6.006 1.943 1158
-1.004 5.869 1.883 3296
-1.036 6.056 1.939 1865
-1.039 6.076 1.926 2634
-1.007 5.889 1.870 2051
-1.041 6.088 1.910 3440
-1.070 6.253 1.958 1427
-1.016 5.939 1.866 1140
-1.045 6.109 1.896 3182
-1.069 6.251 1.938 1418
-1.014 5.929 1.844 1299
-1.119 6.544 2.023 1169
-1.048 6.129 1.883 2470
-1.122 6.557 2.006 2429
-1.024 5.986 1.842 1233
-1.097 6.414 1.965 1015
-1.050 6.141 1.867 2456
-1.124 6.569 1.988 2291
-1.075 6.284 1.907 2036
-1.099 6.427 1.948 1934
-1.074 6.281 1.887 3315
-1.122 6.560 1.965 2701
-1.050 6.139 1.847 2147
-1.123 6.565 1.946 4186
-1.077 6.294 1.870 2189
-1.052 6.151 1.831 1337
-1.123 6.563 1.924 3543
-1.098 6.419 1.885 1162
-1.123 6.568 1.905 3366
-1.205 7.043 2.034 1326
-1.180 6.899 1.995 1052
-1.127 6.588 1.890 4234
-1.164 6.807 1.948 1320
-1.204 7.041 2.011 1031
-1.133 6.623 1.878 3783
-1.228 7.182 2.026 1789
-1.165 6.812 1.928 1607
-1.204 7.038 1.988 1243
-1.134 6.628 1.859 2474
-1.206 7.051 1.970 2114
-1.231 7.195 2.007 1915
-1.167 6.824 1.910 1445
-1.208 7.064 1.951 2775
-1.132 6.618 1.835 1551
-1.259 7.359 2.027 1492
-1.169 6.837 1.892 1205
-1.213 7.092 1.936 2635
-1.256 7.342 1.999 1207
-1.187 6.941 1.897 1093
-1.218 7.120 1.921 1634
-1.257 7.347 1.978 1597
-1.303 7.620 2.047 1333
-1.303 7.617 2.022 2374
-1.263 7.382 1.964 2200
-1.238 7.239 1.928 1072
-1.341 7.837 2.077 1030
-1.304 7.623 2.000 1892
-1.341 7.843 2.054 1887
-1.262 7.380 1.940 1666
-1.342 7.848 2.031 1952
-1.390 8.129 2.099 1632
-1.263 7.385 1.919 1014
-1.390 8.127 2.073 1602
-1.356 7.930 2.026 1071
-1.391 8.133 2.049 1592
-1.474 8.619 2.164 1401
-1.393 8.146 2.027 1521
-1.475 8.625 2.139 1390
-1.475 8.623 2.112 1248
-1.544 9.026 2.205 1069
-1.558 9.108 2.195 1586
-1.476 8.629 2.086 1530
-1.569 9.175 2.182 2162
-1.545 9.030 2.150 1365
-1.594 9.320 2.214 1255
-1.485 8.680 2.071 1131
-1.572 9.189 2.157 2722
-1.596 9.333 2.189 1786
-1.547 9.044 2.125 1445
-1.490 8.708 2.051 1115
-1.587 9.278 2.148 2509
-1.560 9.118 2.113 2123
-1.584 9.261 2.116 2069
-1.559 9.116 2.084 1476
-1.609 9.406 2.147 1263
-1.651 9.650 2.199 1109
-1.653 9.664 2.172 1761
-1.582 9.251 2.085 1666
-1.624 9.496 2.137 1442
-1.716 10.031 2.250 1205
-1.654 9.670 2.144 1987
-1.623 9.486 2.106 1519
-1.583 9.257 2.058 1273
-1.715 10.029 2.219 1008
-1.655 9.676 2.115 2049
-1.620 9.469 2.073 1558
-1.718 10.043 2.191 1154
-1.657 9.689 2.088 1630
-1.723 10.071 2.166 1478
-1.772 10.362 2.225 1300
-1.619 9.467 2.044 1154
-1.725 10.085 2.138 1307
-1.772 10.361 2.193 1274
-1.673 9.779 2.077 1204
-1.810 10.583 2.237 1063
-1.807 10.566 2.201 1441
-1.894 11.071 2.300 1359
-1.754 10.251 2.139 1320
-1.717 10.037 2.097 1076
-1.895 11.077 2.268 1744
-1.808 10.572 2.170 1309
-1.896 11.084 2.235 2202
-1.870 10.930 2.206 1251
-1.811 10.585 2.140 1076
-1.897 11.090 2.202 2118
-1.871 10.936 2.173 1608
-1.810 10.583 2.108 1243
-1.846 10.790 2.146 1194
-1.845 10.788 2.113 1360
-1.810 10.581 2.075 1353
-1.873 10.950 2.143 1329
-1.898 11.095 2.169 1275
-1.899 11.101 2.137 1870
-1.809 10.579 2.042 1315
-1.845 10.786 2.080 1009
-1.900 11.107 2.104 2743
-1.852 10.830 2.055 1005
-1.902 11.120 2.073 2180
-1.903 11.126 2.040 1564
-2.133 12.472 2.271 1232
-2.133 12.471 2.233 1419
-1.903 11.123 2.006 1030
-2.130 12.453 2.192 1572
-2.131 12.459 2.155 1566
-2.136 12.488 2.122 1533
-2.161 12.635 2.146 1011
-2.137 12.494 2.085 1254
-0.384 2.273 1.797 1158
-0.401 2.378 1.865 3778
-0.381 2.259 1.777 1865
-0.402 2.383 1.859 7557
-0.382 2.263 1.770 1865
-0.403 2.388 1.852 6686
-0.383 2.268 1.763 1491
-0.406 2.406 1.854 6073
-0.386 2.285 1.766 1267
-0.406 2.404 1.842 6683
-0.406 2.403 1.831 7426
-0.426 2.524 1.918 1467
-0.406 2.408 1.824 7426
-0.427 2.529 1.911 1963
-0.408 2.419 1.821 7355
-0.429 2.540 1.908 2963
-0.409 2.424 1.814 7333
-0.430 2.545 1.900 4354
-0.429 2.544 1.888 6039
-0.409 2.422 1.803 5399
-0.430 2.549 1.881 7284
-0.410 2.427 1.796 3530
-0.432 2.561 1.878 7420
-0.412 2.438 1.793 3123
-0.433 2.566 1.871 7627
-0.412 2.443 1.786 2394
-0.434 2.571 1.863 7627
-0.413 2.448 1.779 2343
-0.435 2.576 1.856 7045
-0.414 2.452 1.772 1609
-0.433 2.567 1.840 6607
-0.435 2.579 1.837 7629
-0.437 2.590 1.833 8976
-0.438 2.595 1.826 9503
-0.459 2.719 1.908 1431
-0.438 2.593 1.814 10174
-0.460 2.724 1.900 2447
-0.440 2.605 1.811 8663
-0.462 2.736 1.897 3857
-0.447 2.649 1.829 9591
-0.468 2.774 1.910 2937
-0.447 2.647 1.817 10347
-0.468 2.772 1.898 4635
-0.448 2.652 1.809 11450
-0.469 2.777 1.890 5621
-0.448 2.657 1.802 10099
-0.470 2.782 1.882 5573
-0.450 2.668 1.798 9027
-0.472 2.794 1.878 5117
-0.466 2.759 1.845 7514
-0.444 2.633 1.765 3951
-0.465 2.757 1.832 10323
-0.444 2.631 1.753 2123
-0.467 2.769 1.829 9998
-0.446 2.643 1.750 2404
-0.489 2.895 1.907 1059
-0.470 2.787 1.829 10038
-0.449 2.661 1.750 3366
-0.492 2.914 1.907 1312
-0.470 2.785 1.817 9393
-0.449 2.658 1.739 1852
-0.492 2.912 1.894 1832
-0.470 2.783 1.804 8883
-0.491 2.911 1.882 2446
-0.472 2.795 1.800 7934
-0.493 2.922 1.877 2258
-0.473 2.800 1.792 7044
-0.494 2.927 1.869 2238
-0.486 2.878 1.828 8818
-0.464 2.751 1.752 1609
-0.487 2.883 1.820 10697
-0.465 2.755 1.744 1391
-0.488 2.888 1.812 10859
-0.466 2.760 1.736 1424
-0.489 2.900 1.807 11630
-0.511 3.028 1.882 1545
-0.468 2.771 1.732 1354
-0.491 2.911 1.803 12692
-0.513 3.040 1.877 1741
-0.492 2.916 1.794 10172
-0.514 3.045 1.869 2600
-0.492 2.914 1.782 7711
-0.514 3.043 1.856 3469
-0.504 2.987 1.812 6791
-0.526 3.116 1.886 3108
-0.482 2.857 1.738 1901
-0.506 2.998 1.807 9620
-0.528 3.128 1.881 4137
-0.484 2.869 1.734 1549
-0.553 3.278 1.965 1144
-0.506 2.996 1.795 10845
-0.528 3.126 1.868 4333
-0.555 3.290 1.960 1446
-0.507 3.001 1.786 10756
-0.529 3.131 1.858 4191
-0.556 3.295 1.950 2058
-0.507 3.006 1.777 10666
-0.529 3.136 1.849 4128
-0.556 3.293 1.937 2361
-0.509 3.017 1.772 8582
-0.531 3.148 1.844 3790
-0.557 3.299 1.927 3322
-0.525 3.111 1.812 5369
-0.558 3.304 1.918 4282
-0.503 2.981 1.741 2005
-0.560 3.316 1.912 6445
-0.525 3.109 1.799 5634
-0.503 2.979 1.728 1187
-0.562 3.328 1.906 8244
-0.527 3.121 1.794 4787
-0.505 2.990 1.724 1068
-0.584 3.459 1.976 1018
-0.564 3.340 1.900 7896
-0.529 3.133 1.789 4594
-0.586 3.471 1.970 1127
-0.563 3.338 1.886 6041
-0.528 3.130 1.776 4758
-0.586 3.469 1.956 1067
-0.527 3.121 1.760 4434
-0.563 3.336 1.873 3991
-0.585 3.467 1.942 1313
-0.526 3.119 1.747 5132
-0.564 3.341 1.863 3774
-0.586 3.473 1.932 1605
-0.526 3.117 1.734 5468
-0.568 3.367 1.864 3791
-0.591 3.499 1.933 1502
-0.529 3.135 1.732 6470
-0.570 3.379 1.858 3865
-0.593 3.511 1.926 2431
-0.531 3.147 1.727 7183
-0.571 3.384 1.848 3386
-0.593 3.516 1.916 3147
-0.532 3.151 1.717 6183
-0.572 3.388 1.838 4055
-0.596 3.528 1.909 3397
-0.530 3.142 1.701 6482
-0.572 3.386 1.825 5398
-0.599 3.547 1.906 4230
-0.621 3.680 1.973 1164
-0.530 3.139 1.689 6798
-0.572 3.391 1.815 4857
-0.600 3.552 1.896 4687
-0.622 3.685 1.962 1537
-0.531 3.144 1.679 6530
-0.553 3.277 1.746 5284
-0.595 3.522 1.868 4704
-0.623 3.690 1.952 2331
-0.531 3.148 1.670 6381
-0.592 3.506 1.847 5632
-0.554 3.281 1.736 4467
-0.614 3.639 1.913 3271
-0.531 3.146 1.658 7039
-0.610 3.616 1.889 4917
-0.554 3.279 1.723 3928
-0.588 3.483 1.823 3387
-0.531 3.143 1.645 5943
-0.616 3.649 1.892 4293
-0.593 3.516 1.827 3555
-0.557 3.298 1.720 3354
-0.628 3.718 1.912 4857
-0.530 3.140 1.632 3954
-0.559 3.309 1.714 2931
-0.595 3.528 1.820 2882
-0.626 3.709 1.894 8931
-0.530 3.137 1.620 2855
-0.558 3.307 1.701 2133
-0.600 3.554 1.820 1886
-0.626 3.707 1.880 12857
-0.648 3.841 1.944 2205
-0.528 3.127 1.604 2115
-0.554 3.283 1.678 1512
-0.625 3.705 1.866 14004
-0.653 3.868 1.943 2791
-0.531 3.146 1.602 1625
-0.556 3.294 1.672 1212
-0.626 3.710 1.855 11251
-0.654 3.873 1.932 3803
-0.558 3.306 1.666 1165
-0.533 3.157 1.596 1015
-0.626 3.708 1.841 6087
-0.655 3.878 1.920 5008
-0.677 4.013 1.983 1023
-0.649 3.847 1.892 5597
-0.627 3.712 1.830 3587
-0.672 3.982 1.955 1861
-0.648 3.838 1.875 4766
-0.625 3.703 1.813 2220
-0.672 3.980 1.940 1856
-0.646 3.829 1.857 4543
-0.669 3.964 1.919 1819
-0.623 3.694 1.795 1127
-0.692 4.100 1.980 1022
-0.671 3.977 1.910 3909
-0.647 3.834 1.846 3453
-0.694 4.112 1.971 1973
-0.624 3.698 1.785 1004
-0.673 3.989 1.902 7778
-0.696 4.124 1.963 3426
-0.650 3.853 1.841 3021
-0.677 4.008 1.896 8098
-0.699 4.144 1.957 4991
-0.654 3.872 1.836 3758
-0.685 4.056 1.904 6306
-0.662 3.920 1.844 5752
-0.708 4.192 1.964 2214
-0.686 4.061 1.892 8061
-0.663 3.925 1.832 3766
-0.709 4.197 1.951 2628
-0.683 4.045 1.871 9266
-0.706 4.181 1.930 3942
-0.660 3.908 1.811 2241
-0.685 4.057 1.862 8016
-0.708 4.193 1.921 4968
-0.662 3.920 1.803 1784
-0.739 4.380 2.001 1430
-0.703 4.162 1.893 5579
-0.680 4.026 1.835 2659
-0.739 4.378 1.985 2464
-0.705 4.175 1.884 5764
-0.728 4.312 1.942 3946
-0.682 4.038 1.826 1810
-0.707 4.187 1.875 5711
-0.730 4.324 1.932 5300
-0.684 4.050 1.817 1505
-0.731 4.329 1.920 4574
-0.708 4.192 1.862 4434
-0.684 4.055 1.805 1061
-0.716 4.240 1.868 4545
-0.741 4.392 1.931 4434
-0.745 4.412 1.924 4881
-0.719 4.260 1.862 3492
-0.747 4.424 1.914 3840
-0.724 4.286 1.858 2206
-0.746 4.422 1.898 3740
-0.723 4.284 1.843 1368
-0.753 4.463 1.900 5290
-0.730 4.325 1.844 2646
-0.755 4.476 1.889 7500
-0.732 4.337 1.835 2248
-0.756 4.481 1.876 6406
-0.733 4.342 1.822 1524
-0.780 4.619 1.931 1347
-0.757 4.486 1.863 4902
-0.781 4.624 1.917 1768
-0.758 4.491 1.850 4055
-0.781 4.629 1.903 3043
-0.779 4.612 1.882 5060
-0.755 4.474 1.828 3267
-0.802 4.751 1.935 1091
-0.779 4.617 1.868 5198
-0.756 4.478 1.815 2175
-0.803 4.756 1.921 1354
-0.791 4.688 1.879 5121
-0.768 4.549 1.827 1615
-0.792 4.693 1.865 5703
-0.822 4.869 1.931 1872
-0.769 4.554 1.814 1611
-0.783 4.639 1.830 5754
-0.820 4.859 1.911 3296
-0.784 4.644 1.817 4958
-0.822 4.872 1.900 4646
-0.805 4.767 1.845 6014
-0.828 4.906 1.896 3789
-0.781 4.627 1.795 1942
-0.805 4.772 1.832 6631
-0.829 4.911 1.882 2757
-0.806 4.776 1.818 6152
-0.830 4.916 1.867 4955
-0.855 5.064 1.920 1089
-0.828 4.907 1.848 6458
-0.805 4.766 1.798 3442
-0.852 5.047 1.897 1400
-0.827 4.897 1.828 4561
-0.850 5.037 1.877 2681
-0.878 5.199 1.934 1317
-0.847 5.020 1.855 3380
-0.824 4.879 1.806 2468
-0.871 5.160 1.903 2168
-0.847 5.017 1.837 3778
-0.873 5.173 1.891 3117
-0.913 5.409 1.971 1282
-0.710 4.204 1.559 1278
-0.873 5.170 1.873 4652
-0.846 5.015 1.820 4557
-0.913 5.407 1.953 1734
-0.710 4.208 1.547 1327
-0.872 5.168 1.855 4055
-0.846 5.012 1.803 3220
-0.915 5.420 1.940 2113
-0.887 5.254 1.867 2998
-0.917 5.432 1.926 2371
-0.844 5.002 1.783 1336
-0.888 5.259 1.852 2497
-0.915 5.423 1.905 2387
-0.939 5.564 1.952 1953
-0.916 5.428 1.890 2964
-0.940 5.569 1.936 2674
-0.887 5.257 1.834 2212
-0.918 5.440 1.876 3260
-0.950 5.626 1.936 2063
-0.887 5.254 1.816 1565
-0.919 5.445 1.860 2886
-0.954 5.654 1.927 1972
-0.888 5.259 1.801 1076
-0.954 5.651 1.908 3196
-0.922 5.465 1.849 1958
-0.956 5.664 1.893 3295
-0.988 5.850 1.952 1477
-0.932 5.522 1.849 1105
-0.946 5.602 1.856 2735
-0.981 5.811 1.921 2464
-0.988 5.853 1.915 4190
-0.953 5.644 1.851 1610
-0.989 5.858 1.898 4534
-0.955 5.656 1.837 1235
-1.027 6.083 1.966 1078
-0.990 5.863 1.881 3934
-1.024 6.065 1.941 1774
-1.026 6.078 1.926 2787
-0.992 5.876 1.866 2406
-1.028 6.091 1.910 3872
-1.055 6.248 1.956 1576
-0.999 5.918 1.859 1239
-1.032 6.111 1.896 4024
-1.056 6.253 1.938 1658
-1.002 5.938 1.846 1495
-1.105 6.546 2.023 1451
-1.034 6.123 1.881 2935
-1.107 6.559 2.006 2697
-1.010 5.981 1.840 1355
-1.083 6.416 1.965 1322
-1.086 6.437 1.950 2513
-1.111 6.579 1.991 2513
-1.060 6.279 1.905 2231
-1.036 6.136 1.865 2172
-1.061 6.284 1.887 3665
-1.087 6.442 1.931 3276
-1.112 6.585 1.971 2192
-1.037 6.141 1.847 1792
-1.109 6.567 1.946 3857
-1.063 6.296 1.870 2473
-1.039 6.153 1.831 1136
-1.109 6.573 1.926 3760
-1.085 6.429 1.887 1604
-1.188 7.040 2.054 1087
-1.061 6.286 1.848 1055
-1.112 6.585 1.909 3343
-1.087 6.442 1.870 1590
-1.189 7.045 2.034 1461
-1.165 6.902 1.995 1260
-1.112 6.590 1.890 3434
-1.151 6.817 1.950 1314
-1.088 6.447 1.851 1091
-1.118 6.626 1.878 3352
-1.149 6.807 1.926 1798
-1.214 7.192 2.028 1385
-1.190 7.049 1.990 1094
-1.118 6.623 1.857 2741
-1.191 7.054 1.970 1856
-1.150 6.812 1.906 1605
-1.225 7.258 2.023 1462
-1.194 7.074 1.953 2775
-1.116 6.613 1.834 2089
-1.255 7.437 2.046 1420
-1.226 7.263 2.002 1282
-1.198 7.095 1.936 3090
-1.256 7.443 2.025 1296
-1.202 7.122 1.921 1770
-1.255 7.433 1.999 1325
-1.285 7.615 2.045 1191
-1.286 7.620 2.022 2036
-1.247 7.385 1.964 1914
-1.323 7.840 2.077 1128
-1.324 7.846 2.054 2110
-1.246 7.383 1.940 1681
-1.287 7.626 2.000 1675
-1.325 7.851 2.031 2092
-1.373 8.132 2.099 1592
-1.262 7.479 1.941 1256
-1.289 7.639 1.979 1000
-1.372 8.130 2.073 1524
-1.339 7.933 2.026 1075
-1.368 8.105 2.042 1523
-1.455 8.622 2.164 1362
-1.375 8.149 2.027 1383
-1.456 8.628 2.139 1261
-1.345 7.966 1.985 1190
-1.456 8.626 2.112 1173
-1.397 8.276 2.031 1092
-1.524 9.030 2.205 1026
-1.537 9.104 2.193 1674
-1.454 8.616 2.083 1590
-1.551 9.186 2.184 2057
-1.526 9.041 2.151 1359
-1.454 8.614 2.056 1204
-1.575 9.331 2.216 1089
-1.552 9.192 2.157 2616
-1.576 9.337 2.189 1649
-1.470 8.711 2.051 1373
-1.527 9.047 2.125 1349
-1.565 9.274 2.146 2340
-1.541 9.129 2.115 2153
-1.471 8.717 2.025 1028
-1.563 9.257 2.114 2045
-1.587 9.402 2.145 1481
-1.538 9.112 2.083 1374
-1.630 9.654 2.199 1019
-1.562 9.255 2.085 1952
-1.632 9.668 2.172 1726
-1.605 9.507 2.138 1341
-1.693 10.027 2.248 1175
-1.633 9.673 2.144 2128
-1.563 9.260 2.058 1527
-1.604 9.505 2.109 1418
-1.634 9.679 2.115 2264
-1.599 9.473 2.073 1483
-1.635 9.685 2.087 1661
-1.701 10.075 2.166 1472
-1.750 10.366 2.225 1239
-1.599 9.470 2.044 1226
-1.703 10.089 2.138 1457
-1.734 10.272 2.174 1321
-1.786 10.579 2.235 1209
-1.650 9.775 2.075 1099
-1.784 10.570 2.201 1484
-1.734 10.271 2.142 1332
-1.637 9.696 2.030 1021
-1.785 10.575 2.170 1316
-1.871 11.082 2.268 1252
-1.638 9.701 2.001 1006
-1.872 11.088 2.235 1611
-1.828 10.827 2.185 1159
-1.789 10.597 2.142 1020
-1.848 10.948 2.175 1499
-1.873 11.094 2.202 1488
-1.823 10.802 2.148 1189
-1.788 10.595 2.109 1189
-1.787 10.585 2.075 1410
-1.849 10.954 2.143 1266
-1.820 10.785 2.112 1241
-1.786 10.583 2.042 1402
-1.875 11.105 2.137 1398
-1.976 11.705 2.245 1005
-1.876 11.111 2.104 2090
-1.878 11.124 2.073 1635
-2.106 12.477 2.271 1238
-1.879 11.130 2.040 1120
-2.067 12.246 2.231 1069
-2.106 12.475 2.233 1445
-2.071 12.267 2.198 1161
-2.103 12.458 2.192 1624
-2.103 12.456 2.154 1600
-2.109 12.493 2.122 1463
-2.110 12.498 2.085 1172
-0.378 2.274 1.797 1006
-0.395 2.373 1.861 3436
-0.375 2.253 1.772 1595
-0.396 2.378 1.854 6873
-0.376 2.258 1.765 1595
-0.398 2.389 1.852 6050
-0.378 2.269 1.763 1457
-0.402 2.413 1.859 5526
-0.382 2.293 1.771 1249
-0.400 2.405 1.842 6417
-0.400 2.404 1.831 7495
-0.420 2.525 1.918 1619
-0.401 2.409 1.824 7495
-0.421 2.530 1.911 2051
-0.402 2.414 1.817 7255
-0.422 2.535 1.903 3466
-0.402 2.418 1.810 7014
-0.423 2.540 1.896 4880
-0.422 2.539 1.884 6056
-0.402 2.417 1.798 5075
-0.424 2.550 1.881 7228
-0.404 2.428 1.796 3725
-0.425 2.555 1.874 7509
-0.405 2.433 1.789 2987
-0.426 2.560 1.866 7790
-0.406 2.437 1.782 2250
-0.427 2.565 1.859 7790
-0.406 2.442 1.775 2179
-0.428 2.570 1.851 7454
-0.407 2.447 1.768 1427
-0.425 2.555 1.831 7423
-0.429 2.580 1.837 8697
-0.431 2.591 1.833 10674
-0.431 2.590 1.822 10962
-0.452 2.714 1.904 1483
-0.432 2.594 1.814 11353
-0.454 2.725 1.900 2543
-0.434 2.606 1.811 9562
-0.455 2.737 1.897 3991
-0.441 2.650 1.829 9331
-0.462 2.775 1.910 3111
-0.441 2.648 1.817 10400
-0.462 2.773 1.898 4898
-0.442 2.653 1.809 11750
-0.462 2.778 1.890 5939
-0.443 2.665 1.806 10413
-0.464 2.790 1.886 5125
-0.445 2.676 1.802 9502
-0.466 2.802 1.882 4587
-0.447 2.687 1.799 7465
-0.468 2.813 1.878 3506
-0.459 2.759 1.832 9397
-0.438 2.632 1.753 2229
-0.480 2.885 1.911 1012
-0.461 2.770 1.829 9164
-0.440 2.644 1.750 2514
-0.482 2.897 1.907 1152
-0.464 2.788 1.829 9311
-0.443 2.662 1.750 3369
-0.485 2.915 1.907 1291
-0.464 2.786 1.817 9361
-0.485 2.913 1.894 1938
-0.443 2.660 1.739 1884
-0.463 2.785 1.804 9613
-0.485 2.912 1.882 2699
-0.465 2.796 1.800 8817
-0.487 2.923 1.877 2496
-0.467 2.808 1.796 8219
-0.488 2.935 1.873 2143
-0.479 2.880 1.828 9827
-0.458 2.752 1.752 1716
-0.480 2.884 1.820 12224
-0.459 2.756 1.744 1377
-0.481 2.889 1.812 12442
-0.459 2.761 1.736 1442
-0.482 2.894 1.803 12881
-0.503 3.023 1.878 1858
-0.460 2.766 1.728 1156
-0.484 2.906 1.799 13366
-0.505 3.034 1.873 2185
-0.484 2.910 1.790 10941
-0.506 3.039 1.865 2949
-0.484 2.908 1.778 8523
-0.505 3.037 1.852 3724
-0.485 2.913 1.769 7048
-0.511 3.070 1.859 4557
-0.499 3.000 1.807 8416
-0.521 3.129 1.881 3918
-0.478 2.870 1.734 1603
-0.546 3.279 1.965 1175
-0.499 2.998 1.795 9899
-0.520 3.127 1.868 4067
-0.548 3.291 1.960 1483
-0.500 3.002 1.786 9635
-0.521 3.132 1.858 3908
-0.549 3.296 1.950 2018
-0.500 3.007 1.777 9372
-0.522 3.137 1.849 3883
-0.548 3.295 1.937 2234
-0.502 3.019 1.772 7427
-0.524 3.149 1.844 3731
-0.549 3.300 1.927 3202
-0.520 3.126 1.820 4902
-0.549 3.298 1.914 4181
-0.499 2.996 1.748 2368
-0.552 3.317 1.912 6473
-0.518 3.111 1.799 4841
-0.554 3.329 1.906 8613
-0.523 3.143 1.805 4427
-0.501 3.012 1.735 1253
-0.576 3.460 1.976 1110
-0.555 3.334 1.896 8396
-0.524 3.148 1.796 4500
-0.577 3.465 1.966 1469
-0.556 3.339 1.886 6462
-0.521 3.132 1.776 4604
-0.578 3.471 1.956 1180
-0.520 3.123 1.760 3986
-0.555 3.337 1.873 3972
-0.577 3.469 1.942 1613
-0.518 3.113 1.743 4054
-0.570 3.425 1.907 3678
-0.548 3.294 1.838 2072
-0.519 3.118 1.734 4335
-0.560 3.368 1.864 3819
-0.582 3.500 1.933 1829
-0.520 3.122 1.725 4438
-0.562 3.380 1.858 4032
-0.584 3.512 1.926 2921
-0.522 3.134 1.719 4722
-0.585 3.517 1.916 3850
-0.563 3.385 1.848 3590
-0.521 3.132 1.707 4631
-0.563 3.383 1.835 4163
-0.587 3.529 1.909 4016
-0.521 3.129 1.694 5489
-0.564 3.388 1.825 5417
-0.589 3.541 1.903 4885
-0.611 3.674 1.970 1235
-0.523 3.141 1.689 6221
-0.589 3.539 1.889 5464
-0.565 3.392 1.815 5027
-0.611 3.672 1.955 1731
-0.525 3.152 1.683 6171
-0.588 3.530 1.871 5430
-0.547 3.285 1.749 4674
-0.612 3.678 1.945 2464
-0.598 3.592 1.889 6023
-0.524 3.149 1.670 5946
-0.546 3.283 1.736 4049
-0.575 3.458 1.823 2776
-0.524 3.147 1.658 6720
-0.602 3.618 1.889 5740
-0.580 3.484 1.823 3688
-0.546 3.280 1.723 3591
-0.523 3.144 1.645 5919
-0.606 3.644 1.888 4821
-0.584 3.510 1.823 3850
-0.547 3.285 1.714 3047
-0.605 3.635 1.871 4997
-0.524 3.148 1.636 4091
-0.551 3.311 1.714 2555
-0.583 3.501 1.806 2267
-0.617 3.710 1.894 8585
-0.521 3.132 1.617 2852
-0.595 3.576 1.830 1948
-0.550 3.308 1.701 1856
-0.617 3.708 1.880 12629
-0.519 3.122 1.601 2191
-0.639 3.843 1.944 2078
-0.595 3.574 1.816 1335
-0.617 3.706 1.866 13692
-0.644 3.869 1.943 2809
-0.524 3.147 1.602 1628
-0.547 3.289 1.669 1009
-0.618 3.711 1.855 10965
-0.645 3.874 1.932 4052
-0.617 3.709 1.841 6122
-0.646 3.879 1.920 5477
-0.668 4.014 1.983 1049
-0.642 3.856 1.896 5747
-0.618 3.714 1.830 3905
-0.665 3.998 1.961 1469
-0.640 3.847 1.878 4640
-0.618 3.712 1.816 2696
-0.665 3.996 1.946 1285
-0.637 3.830 1.857 3968
-0.673 4.044 1.954 1592
-0.615 3.695 1.795 1186
-0.663 3.985 1.913 3895
-0.638 3.835 1.846 2992
-0.686 4.121 1.975 1906
-0.616 3.700 1.785 1049
-0.665 3.997 1.905 8033
-0.688 4.133 1.966 3298
-0.643 3.862 1.844 3024
-0.667 4.010 1.896 8841
-0.690 4.146 1.957 5083
-0.645 3.874 1.836 3656
-0.668 4.015 1.885 6514
-0.691 4.151 1.945 5554
-0.645 3.879 1.825 2502
-0.676 4.063 1.892 8186
-0.653 3.926 1.832 3307
-0.699 4.199 1.951 1977
-0.673 4.046 1.871 9586
-0.696 4.183 1.930 3573
-0.651 3.910 1.811 2074
-0.675 4.058 1.862 8126
-0.698 4.195 1.921 4474
-0.653 3.922 1.803 1662
-0.728 4.375 1.998 1242
-0.694 4.171 1.896 5475
-0.671 4.035 1.838 3194
-0.729 4.380 1.985 2138
-0.695 4.176 1.884 6116
-0.718 4.313 1.942 3627
-0.672 4.039 1.826 1739
-0.697 4.189 1.875 6547
-0.720 4.326 1.932 4521
-0.674 4.051 1.817 1346
-0.699 4.201 1.865 4867
-0.723 4.345 1.926 3943
-0.706 4.242 1.868 4745
-0.731 4.394 1.931 4425
-0.736 4.421 1.927 4701
-0.709 4.261 1.862 3595
-0.741 4.455 1.926 4571
-0.718 4.317 1.870 3554
-0.695 4.179 1.814 1333
-0.724 4.351 1.869 4253
-0.747 4.489 1.924 2975
-0.743 4.465 1.900 5326
-0.720 4.327 1.844 3144
-0.744 4.470 1.886 7347
-0.721 4.332 1.832 2703
-0.767 4.608 1.941 1351
-0.746 4.482 1.876 6690
-0.723 4.344 1.822 2101
-0.769 4.621 1.931 1596
-0.747 4.487 1.863 5685
-0.770 4.626 1.917 1893
-0.724 4.349 1.809 1261
-0.748 4.492 1.850 4547
-0.771 4.631 1.903 3149
-0.767 4.607 1.879 4869
-0.744 4.468 1.826 3224
-0.790 4.746 1.932 1205
-0.767 4.612 1.865 4819
-0.744 4.473 1.813 2165
-0.791 4.751 1.918 1516
-0.780 4.690 1.879 5121
-0.757 4.551 1.827 2153
-0.781 4.695 1.865 5752
-0.758 4.556 1.814 2090
-0.813 4.886 1.936 1232
-0.772 4.641 1.830 6312
-0.808 4.854 1.909 2442
-0.773 4.646 1.817 5235
-0.812 4.881 1.902 3636
-0.794 4.769 1.845 6534
-0.817 4.908 1.896 3494
-0.770 4.629 1.795 1849
-0.794 4.773 1.832 7048
-0.818 4.913 1.882 2493
-0.795 4.778 1.818 6177
-0.818 4.918 1.867 4732
-0.843 5.066 1.920 1166
-0.817 4.909 1.848 5956
-0.794 4.768 1.798 3450
-0.840 5.049 1.897 1242
-0.815 4.899 1.828 4654
-0.839 5.039 1.877 2384
-0.863 5.187 1.929 1214
-0.820 4.926 1.821 3377
-0.852 5.118 1.888 2431
-0.825 4.960 1.817 3616
-0.860 5.167 1.888 3076
-0.901 5.411 1.971 1238
-0.861 5.172 1.873 5196
-0.835 5.017 1.820 3943
-0.900 5.409 1.953 1561
-0.860 5.170 1.855 4532
-0.833 5.007 1.801 3068
-0.904 5.429 1.942 1730
-0.875 5.256 1.867 3063
-0.907 5.449 1.931 1842
-0.832 4.997 1.781 1330
-0.898 5.395 1.896 2317
-0.874 5.254 1.849 2175
-0.924 5.551 1.947 1834
-0.902 5.422 1.887 3223
-0.927 5.571 1.936 2513
-0.876 5.266 1.836 1879
-0.904 5.435 1.874 3527
-0.935 5.621 1.934 2081
-0.875 5.256 1.816 1490
-0.907 5.447 1.860 3387
-0.930 5.589 1.905 1445
-0.876 5.261 1.801 1199
-0.941 5.654 1.908 2862
-0.909 5.460 1.846 2375
-0.943 5.666 1.893 3636
-0.967 5.808 1.938 1622
-0.912 5.479 1.835 1050
-0.945 5.679 1.879 2755
-0.969 5.820 1.923 2711
-0.973 5.848 1.913 4203
-0.942 5.661 1.856 2223
-0.975 5.861 1.898 4641
-0.942 5.659 1.837 1540
-1.013 6.085 1.966 1226
-0.976 5.866 1.881 4276
-1.014 6.090 1.948 1966
-1.012 6.081 1.926 2686
-0.977 5.871 1.863 2659
-1.014 6.093 1.910 3630
-1.040 6.251 1.956 1528
-0.984 5.913 1.857 1208
-1.017 6.113 1.896 4371
-1.041 6.256 1.938 1879
-1.089 6.541 2.021 1574
-0.990 5.948 1.849 1539
-1.019 6.126 1.881 3261
-1.091 6.554 2.003 2808
-1.067 6.411 1.963 1578
-0.996 5.983 1.840 1459
-1.072 6.439 1.950 2900
-1.045 6.281 1.905 2721
-1.095 6.582 1.991 2544
-1.020 6.131 1.863 2010
-1.046 6.286 1.887 3896
-1.072 6.444 1.931 3617
-1.096 6.587 1.971 1871
-1.022 6.143 1.847 1422
-1.075 6.457 1.914 3978
-1.049 6.306 1.873 2692
-1.098 6.600 1.954 2521
-1.095 6.583 1.928 4004
-1.072 6.439 1.889 2321
-1.048 6.296 1.850 1297
-1.173 7.050 2.056 1199
-1.079 6.482 1.880 3249
-1.103 6.626 1.919 2636
-1.173 7.048 2.034 1617
-1.149 6.905 1.995 1303
-1.096 6.585 1.888 2683
-1.136 6.827 1.952 1370
-1.174 7.053 2.013 1129
-1.072 6.442 1.849 1079
-1.103 6.628 1.878 2881
-1.132 6.802 1.924 2187
-1.156 6.945 1.962 1226
-1.214 7.293 2.054 1085
-1.103 6.626 1.857 2982
-1.134 6.815 1.906 1677
-1.212 7.283 2.029 1625
-1.174 7.057 1.970 1504
-1.179 7.084 1.955 2640
-1.100 6.608 1.832 2417
-1.238 7.440 2.046 1663
-1.209 7.266 2.002 1449
-1.182 7.105 1.938 3496
-1.240 7.453 2.027 1491
-1.103 6.628 1.816 1041
-1.184 7.118 1.919 1885
-1.239 7.443 2.001 1425
-1.268 7.618 2.045 1082
-1.269 7.623 2.022 1854
-1.229 7.388 1.964 1422
-1.305 7.843 2.077 1231
-1.306 7.849 2.054 2238
-1.271 7.636 2.002 1611
-1.229 7.386 1.940 1483
-1.307 7.854 2.031 2111
-1.355 8.143 2.101 1603
-1.245 7.482 1.941 1564
-1.273 7.649 1.981 1034
-1.353 8.133 2.073 1406
-1.304 7.837 2.002 1127
-1.246 7.487 1.919 1080
-1.348 8.101 2.040 1638
-1.435 8.626 2.164 1444
-1.324 7.956 2.006 1005
-1.327 7.977 1.986 1586
-1.352 8.121 2.020 1261
-1.436 8.631 2.139 1206
-1.377 8.274 2.055 1166
-1.379 8.287 2.033 1251
-1.435 8.622 2.110 1098
-1.323 7.952 1.956 1047
-1.516 9.108 2.193 1694
-1.433 8.612 2.081 1680
-1.529 9.190 2.184 1840
-1.434 8.618 2.056 1346
-1.505 9.045 2.151 1162
-1.386 8.328 1.991 1020
-1.530 9.196 2.157 2461
-1.554 9.341 2.189 1473
-1.450 8.715 2.051 1416
-1.506 9.051 2.125 1113
-1.520 9.133 2.115 2263
-1.544 9.278 2.146 2000
-1.451 8.720 2.025 1220
-1.541 9.260 2.114 1933
-1.565 9.406 2.145 1572
-1.517 9.115 2.083 1383
-1.453 8.733 2.001 1026
-1.541 9.258 2.085 2112
-1.609 9.671 2.172 1648
-1.565 9.404 2.116 1380
-1.669 10.031 2.248 1065
-1.610 9.677 2.144 2204
-1.542 9.264 2.058 1704
-1.585 9.524 2.112 1418
-1.611 9.683 2.115 2480
-1.576 9.469 2.071 1413
-1.612 9.689 2.087 1779
-1.676 10.071 2.164 1397
-1.577 9.474 2.044 1222
-1.710 10.278 2.206 1093
-1.711 10.284 2.176 1537
-1.680 10.093 2.138 1482
-1.761 10.583 2.235 1201
-1.615 9.702 2.060 1170
-1.712 10.290 2.145 1573
-1.760 10.574 2.201 1426
-1.615 9.707 2.031 1236
-1.715 10.303 2.117 1187
-1.615 9.705 2.001 1173
-1.761 10.580 2.170 1163
-1.616 9.710 1.973 1102
-1.802 10.831 2.185 1095
-1.846 11.092 2.235 1058
-1.772 10.647 2.150 1043
-1.824 10.960 2.176 1303
-1.800 10.814 2.149 1193
-1.765 10.606 2.110 1136
-1.762 10.589 2.075 1309
-1.825 10.966 2.144 1167
-1.795 10.789 2.112 1158
-1.948 11.703 2.280 1122
-1.761 10.579 2.041 1329
-1.946 11.694 2.242 1113
-1.849 11.110 2.137 1053
-1.850 11.115 2.104 1466
-1.852 11.129 2.073 1134
-2.078 12.489 2.272 1316
-2.039 12.251 2.231 1161
-2.078 12.488 2.234 1561
-2.042 12.272 2.198 1225
-2.074 12.463 2.192 1690
-2.074 12.461 2.154 1599
-2.080 12.498 2.122 1304
-2.081 12.503 2.085 1006
-0.387 2.361 1.851 3095
-0.367 2.241 1.763 1364
-0.390 2.379 1.854 6137
-0.370 2.259 1.765 1639
-0.392 2.390 1.852 5319
-0.372 2.270 1.763 1483
-0.412 2.510 1.940 1047
-0.396 2.414 1.859 5069
-0.374 2.281 1.762 1247
-0.393 2.400 1.838 5996
-0.413 2.521 1.925 1413
-0.394 2.405 1.831 7333
-0.414 2.526 1.918 1846
-0.395 2.410 1.824 7333
-0.415 2.531 1.911 2278
-0.396 2.414 1.817 7230
-0.416 2.536 1.903 3595
-0.397 2.419 1.810 7128
-0.417 2.541 1.896 4912
-0.416 2.540 1.884 5784
-0.396 2.418 1.798 5411
-0.418 2.551 1.881 6625
-0.398 2.429 1.796 4250
-0.419 2.556 1.874 7367
-0.399 2.434 1.789 3383
-0.420 2.561 1.866 8109
-0.400 2.438 1.782 2516
-0.421 2.566 1.859 8109
-0.401 2.443 1.775 2449
-0.420 2.565 1.847 8250
-0.400 2.441 1.763 1375
-0.419 2.556 1.831 8668
-0.422 2.574 1.832 10162
-0.424 2.586 1.829 12582
-0.425 2.591 1.822 12660
-0.446 2.721 1.908 1569
-0.425 2.595 1.814 12738
-0.447 2.726 1.900 2684
-0.427 2.607 1.811 10592
-0.449 2.738 1.897 4105
-0.435 2.651 1.829 8857
-0.455 2.776 1.910 3185
-0.434 2.649 1.817 10207
-0.455 2.775 1.898 5070
-0.435 2.654 1.809 11731
-0.456 2.780 1.890 6175
-0.437 2.666 1.806 10477
-0.458 2.791 1.886 5211
-0.439 2.677 1.802 9727
-0.459 2.803 1.882 4582
-0.441 2.688 1.799 7554
-0.461 2.814 1.878 3394
-0.451 2.753 1.828 8117
-0.431 2.627 1.749 1774
-0.472 2.879 1.907 1512
-0.453 2.765 1.824 8067
-0.432 2.638 1.746 2025
-0.474 2.891 1.903 1430
-0.457 2.789 1.829 8355
-0.437 2.663 1.750 3347
-0.478 2.916 1.907 1258
-0.456 2.781 1.812 9232
-0.477 2.908 1.890 2216
-0.435 2.654 1.735 1578
-0.457 2.786 1.804 10286
-0.478 2.913 1.882 2945
-0.459 2.797 1.800 9679
-0.479 2.925 1.877 2721
-0.460 2.809 1.796 9404
-0.481 2.936 1.873 2321
-0.472 2.881 1.828 10806
-0.451 2.753 1.752 1825
-0.473 2.886 1.820 13683
-0.452 2.757 1.744 1378
-0.474 2.890 1.812 13910
-0.453 2.762 1.736 1477
-0.475 2.895 1.803 14086
-0.496 3.024 1.878 2043
-0.454 2.767 1.728 1195
-0.477 2.907 1.799 14019
-0.498 3.036 1.873 2517
-0.477 2.912 1.790 11631
-0.498 3.041 1.865 3210
-0.477 2.909 1.778 9301
-0.498 3.039 1.852 3940
-0.478 2.914 1.769 7629
-0.502 3.064 1.855 4677
-0.491 2.994 1.803 6942
-0.512 3.124 1.877 3818
-0.470 2.864 1.730 1115
-0.538 3.280 1.965 1067
-0.490 2.992 1.791 8557
-0.512 3.122 1.864 3855
-0.540 3.292 1.960 1445
-0.492 3.003 1.786 8195
-0.514 3.133 1.858 4186
-0.541 3.298 1.950 1937
-0.493 3.008 1.777 7841
-0.515 3.138 1.849 4759
-0.540 3.296 1.937 2064
-0.496 3.027 1.776 5985
-0.518 3.157 1.848 4574
-0.540 3.294 1.923 3026
-0.515 3.141 1.827 5268
-0.541 3.299 1.914 4032
-0.494 3.011 1.756 2381
-0.544 3.318 1.912 6295
-0.516 3.146 1.818 5092
-0.494 3.015 1.747 1515
-0.546 3.330 1.906 8831
-0.517 3.151 1.809 4862
-0.567 3.461 1.976 1157
-0.495 3.020 1.738 1023
-0.547 3.335 1.896 8864
-0.517 3.156 1.800 4633
-0.568 3.467 1.966 1550
-0.548 3.340 1.886 6900
-0.512 3.126 1.772 4614
-0.569 3.472 1.956 1241
-0.512 3.124 1.760 4069
-0.548 3.345 1.877 3947
-0.570 3.477 1.946 1560
-0.562 3.427 1.907 4028
-0.513 3.128 1.750 3544
-0.538 3.281 1.830 1935
-0.564 3.439 1.900 4321
-0.525 3.203 1.777 3420
-0.565 3.444 1.890 4054
-0.514 3.138 1.732 3292
-0.536 3.270 1.800 2396
-0.586 3.576 1.959 1048
-0.577 3.519 1.916 4484
-0.514 3.135 1.719 4128
-0.555 3.386 1.848 3436
-0.579 3.531 1.909 4751
-0.514 3.133 1.707 4446
-0.555 3.384 1.835 4162
-0.580 3.536 1.899 5816
-0.556 3.389 1.825 5452
-0.514 3.137 1.698 4635
-0.601 3.669 1.966 1380
-0.580 3.541 1.889 6581
-0.556 3.394 1.815 5081
-0.535 3.261 1.748 4491
-0.513 3.128 1.682 4387
-0.580 3.539 1.875 6373
-0.535 3.265 1.739 5272
-0.557 3.399 1.805 4188
-0.513 3.132 1.672 4004
-0.588 3.586 1.885 6470
-0.515 3.144 1.667 4425
-0.537 3.277 1.733 4083
-0.559 3.410 1.799 2897
-0.593 3.619 1.889 6476
-0.516 3.148 1.658 5964
-0.571 3.486 1.823 3951
-0.538 3.282 1.723 3079
-0.598 3.645 1.888 5555
-0.516 3.145 1.645 5491
-0.576 3.512 1.823 4370
-0.539 3.286 1.714 2642
-0.597 3.643 1.874 6031
-0.515 3.143 1.632 3996
-0.575 3.509 1.810 2401
-0.542 3.305 1.711 2189
-0.607 3.705 1.891 7775
-0.514 3.133 1.617 2906
-0.585 3.571 1.827 2286
-0.543 3.309 1.701 1593
-0.607 3.703 1.877 12042
-0.629 3.837 1.941 2273
-0.512 3.123 1.601 2269
-0.585 3.568 1.813 1280
-0.608 3.708 1.866 12848
-0.630 3.842 1.929 3297
-0.514 3.134 1.595 1621
-0.652 3.977 1.993 1011
-0.609 3.713 1.855 10235
-0.633 3.862 1.925 4588
-0.607 3.703 1.838 6075
-0.635 3.874 1.917 6070
-0.657 4.009 1.980 1252
-0.634 3.865 1.899 5858
-0.609 3.715 1.830 4177
-0.656 4.000 1.961 1598
-0.633 3.863 1.885 4550
-0.611 3.727 1.823 3164
-0.657 4.005 1.950 1617
-0.629 3.839 1.860 3057
-0.652 3.975 1.922 1972
-0.607 3.704 1.799 1508
-0.515 3.141 1.543 1245
-0.654 3.987 1.913 4380
-0.631 3.851 1.852 2343
-0.676 4.122 1.975 2008
-0.609 3.716 1.791 1535
-0.654 3.992 1.902 8472
-0.677 4.128 1.963 3755
-0.632 3.856 1.841 2483
-0.516 3.149 1.524 1012
-0.656 4.004 1.893 9550
-0.679 4.140 1.954 5691
-0.634 3.868 1.833 3189
-0.658 4.016 1.885 7152
-0.681 4.152 1.945 5701
-0.636 3.880 1.825 2324
-0.666 4.064 1.892 8052
-0.644 3.928 1.832 2775
-0.689 4.201 1.951 1396
-0.662 4.041 1.868 9871
-0.685 4.177 1.927 3789
-0.640 3.904 1.808 1525
-0.664 4.053 1.859 8152
-0.687 4.189 1.918 4406
-0.642 3.916 1.800 1211
-0.684 4.173 1.896 5455
-0.662 4.036 1.838 3133
-0.718 4.382 1.985 1677
-0.685 4.178 1.884 6556
-0.707 4.315 1.942 3118
-0.662 4.041 1.826 1399
-0.687 4.190 1.875 7481
-0.709 4.327 1.932 3633
-0.689 4.202 1.865 5787
-0.715 4.361 1.932 4002
-0.696 4.244 1.868 5379
-0.721 4.396 1.931 4343
-0.730 4.451 1.939 4579
-0.697 4.249 1.856 3773
-0.731 4.457 1.926 5367
-0.708 4.319 1.870 3942
-0.685 4.181 1.814 1277
-0.714 4.353 1.869 5174
-0.736 4.491 1.924 3556
-0.733 4.474 1.902 4964
-0.711 4.336 1.847 3661
-0.733 4.472 1.886 6560
-0.710 4.334 1.832 3081
-0.756 4.610 1.941 1568
-0.735 4.484 1.876 6728
-0.712 4.346 1.822 2650
-0.758 4.623 1.931 1942
-0.736 4.489 1.863 6603
-0.759 4.628 1.917 2379
-0.713 4.351 1.809 1574
-0.738 4.501 1.853 5179
-0.761 4.640 1.906 2951
-0.756 4.609 1.879 4835
-0.733 4.470 1.826 3108
-0.778 4.748 1.932 1144
-0.754 4.599 1.860 4696
-0.777 4.738 1.912 2129
-0.731 4.460 1.807 1666
-0.769 4.692 1.879 5110
-0.746 4.553 1.827 2962
-0.766 4.675 1.857 5536
-0.789 4.814 1.909 1933
-0.744 4.535 1.806 1745
-0.761 4.643 1.830 6743
-0.784 4.783 1.881 2572
-0.807 4.922 1.933 1237
-0.775 4.729 1.846 5458
-0.804 4.905 1.910 2545
-0.752 4.589 1.795 1302
-0.781 4.763 1.843 7205
-0.807 4.925 1.901 3114
-0.758 4.623 1.792 1316
-0.784 4.783 1.834 7502
-0.812 4.952 1.895 2743
-0.784 4.780 1.818 5879
-0.808 4.928 1.870 4431
-0.832 5.075 1.922 1085
-0.805 4.910 1.848 5114
-0.782 4.770 1.798 3326
-0.829 5.058 1.900 1152
-0.803 4.901 1.828 4455
-0.826 5.041 1.877 2344
-0.849 5.181 1.926 1163
-0.809 4.935 1.824 4195
-0.832 5.076 1.872 2381
-0.855 5.216 1.921 1051
-0.811 4.947 1.812 4060
-0.845 5.155 1.883 2888
-0.888 5.414 1.971 1079
-0.848 5.174 1.873 5238
-0.819 4.997 1.813 3323
-0.888 5.419 1.956 1352
-0.848 5.172 1.855 4965
-0.820 5.001 1.798 2807
-0.893 5.446 1.947 1642
-0.862 5.259 1.867 2874
-0.839 5.117 1.820 2050
-0.894 5.452 1.931 1617
-0.816 4.976 1.774 1075
-0.885 5.397 1.896 2690
-0.862 5.256 1.849 1730
-0.910 5.553 1.947 1598
-0.839 5.115 1.803 1047
-0.888 5.417 1.885 3876
-0.920 5.611 1.948 2584
-0.864 5.268 1.836 1488
-0.891 5.437 1.874 3705
-0.922 5.623 1.934 2288
-0.862 5.258 1.816 1369
-0.893 5.449 1.860 3416
-0.917 5.591 1.905 2011
-0.863 5.263 1.801 1270
-0.925 5.641 1.903 2850
-0.894 5.454 1.844 2531
-0.948 5.783 1.948 1018
-0.929 5.668 1.893 3983
-0.957 5.840 1.947 1681
-0.906 5.526 1.849 1241
-0.931 5.681 1.879 3634
-0.955 5.823 1.923 2933
-0.958 5.843 1.910 3998
-0.928 5.663 1.856 3001
-0.961 5.863 1.898 4417
-0.928 5.661 1.837 2074
-0.998 6.087 1.966 1218
-0.962 5.868 1.881 4363
-0.999 6.093 1.948 1979
-0.962 5.865 1.861 2707
-0.997 6.083 1.926 2414
-0.999 6.096 1.910 3352
-1.026 6.261 1.958 1670
-0.975 5.945 1.866 1192
-1.003 6.116 1.896 4454
-1.026 6.258 1.938 2175
-1.073 6.544 2.021 1518
-0.979 5.973 1.855 1514
-1.003 6.121 1.878 3642
-1.075 6.557 2.003 2674
-1.051 6.414 1.963 1968
-1.028 6.271 1.922 1921
-1.030 6.284 1.905 3211
-1.056 6.442 1.950 3117
-1.079 6.585 1.991 2435
-1.004 6.126 1.861 2061
-1.031 6.289 1.887 4011
-1.057 6.447 1.931 3613
-1.082 6.597 1.973 1785
-1.006 6.138 1.845 1218
-1.059 6.460 1.914 4115
-1.034 6.309 1.873 2843
-1.082 6.603 1.954 2595
-1.106 6.746 1.994 1004
-1.081 6.593 1.930 4619
-1.057 6.450 1.891 3288
-1.034 6.306 1.852 1523
-1.132 6.902 2.015 1346
-1.063 6.485 1.880 3672
-1.087 6.628 1.919 3109
-1.132 6.907 1.995 1600
-1.156 7.051 2.034 1511
-1.064 6.490 1.861 2274
-1.095 6.679 1.912 1885
-1.130 6.890 1.969 1539
-1.158 7.064 2.015 1174
-1.088 6.638 1.880 2514
-1.114 6.797 1.922 2455
-1.138 6.941 1.960 1480
-1.196 7.296 2.054 1088
-1.085 6.621 1.855 2880
-1.193 7.279 2.027 1836
-1.118 6.817 1.906 1738
-1.141 6.961 1.944 1292
-1.084 6.610 1.832 2598
-1.162 7.087 1.955 2253
-1.220 7.443 2.046 1775
-1.189 7.254 1.998 1541
-1.165 7.108 1.938 3533
-1.220 7.441 2.023 1543
-1.086 6.623 1.814 1066
-1.167 7.120 1.919 1810
-1.221 7.446 2.001 1614
-1.223 7.459 1.981 1790
-1.250 7.626 2.022 1547
-1.286 7.846 2.077 1425
-1.188 7.247 1.928 1004
-1.287 7.852 2.054 2339
-1.225 7.472 1.961 1815
-1.251 7.632 2.000 1548
-1.284 7.835 2.025 2160
-1.226 7.477 1.939 1831
-1.335 8.146 2.101 1473
-1.253 7.645 1.979 1069
-1.227 7.483 1.917 1297
-1.285 7.840 2.002 1253
-1.334 8.136 2.073 1160
-1.309 7.984 2.037 1014
-1.327 8.096 2.039 1514
-1.415 8.629 2.164 1411
-1.304 7.952 2.004 1108
-1.308 7.980 1.986 1678
-1.358 8.285 2.057 1237
-1.416 8.635 2.139 1143
-1.332 8.125 2.020 1126
-1.360 8.298 2.035 1526
-1.305 7.962 1.958 1058
-1.414 8.625 2.110 1037
-1.410 8.600 2.078 1891
-1.494 9.111 2.193 1543
-1.361 8.303 2.010 1087
-1.412 8.614 2.054 1568
-1.508 9.201 2.185 1436
-1.366 8.331 1.991 1073
-1.509 9.207 2.158 2208
-1.429 8.718 2.051 1472
-1.533 9.352 2.190 1201
-1.498 9.136 2.115 2275
-1.522 9.281 2.146 1655
-1.430 8.724 2.025 1395
-1.518 9.257 2.112 1878
-1.541 9.402 2.143 1598
-1.494 9.111 2.081 1204
-1.434 8.744 2.003 1184
-1.517 9.255 2.083 2117
-1.541 9.400 2.114 1596
-1.586 9.675 2.172 1469
-1.587 9.681 2.144 2170
-1.519 9.268 2.058 1696
-1.563 9.536 2.114 1520
-1.587 9.679 2.114 2692
-1.553 9.472 2.071 1367
-1.589 9.692 2.087 1969
-1.652 10.075 2.164 1348
-1.554 9.478 2.044 1263
-1.688 10.296 2.177 1502
-1.655 10.097 2.138 1465
-1.591 9.706 2.060 1310
-1.736 10.587 2.235 1061
-1.690 10.309 2.148 1609
-1.592 9.711 2.031 1419
-1.734 10.578 2.201 1297
-1.592 9.709 2.001 1309
-1.691 10.315 2.118 1291
-1.739 10.607 2.174 1079
-1.593 9.714 1.973 1174
-1.746 10.651 2.150 1145
-1.689 10.305 2.085 1067
-1.776 10.833 2.152 1080
-1.800 10.979 2.179 1004
-1.918 11.700 2.278 1188
-1.738 10.601 2.076 1097
-1.776 10.832 2.119 1000
-1.917 11.691 2.241 1181
-1.735 10.583 2.041 1142
-2.009 12.256 2.231 1194
-2.048 12.494 2.272 1180
-2.048 12.493 2.234 1572
-2.013 12.277 2.198 1282
-1.942 11.845 2.125 1000
-2.044 12.468 2.192 1717
-2.042 12.458 2.153 1511
-2.103 12.829 2.213 1010
-2.050 12.503 2.122 1103
-2.205 13.449 2.192 1012
-0.379 2.356 1.847 2899
-0.360 2.236 1.758 1290
-0.381 2.367 1.845 5261
-0.362 2.247 1.756 1378
-0.384 2.385 1.847 4452
-0.364 2.265 1.759 1360
-0.403 2.505 1.935 1340
-0.390 2.422 1.863 4701
-0.366 2.276 1.757 1246
-0.386 2.401 1.838 5618
-0.406 2.522 1.925 1673
-0.386 2.400 1.826 7203
-0.405 2.521 1.913 2495
-0.387 2.404 1.819 7203
-0.406 2.526 1.906 3094
-0.388 2.409 1.812 7585
-0.407 2.531 1.899 4120
-0.389 2.420 1.810 8010
-0.409 2.542 1.896 4771
-0.391 2.432 1.807 6835
-0.411 2.554 1.893 5029
-0.393 2.443 1.805 6194
-0.413 2.565 1.890 5500
-0.410 2.551 1.869 7116
-0.391 2.428 1.784 3579
-0.411 2.556 1.862 8563
-0.391 2.433 1.777 2501
-0.412 2.561 1.854 8563
-0.392 2.438 1.770 2408
-0.412 2.559 1.843 9329
-0.392 2.436 1.759 1446
-0.411 2.558 1.831 10151
-0.414 2.576 1.832 11960
-0.416 2.587 1.829 14890
-0.417 2.592 1.822 14623
-0.438 2.723 1.908 1648
-0.419 2.603 1.818 14442
-0.440 2.734 1.905 2794
-0.420 2.608 1.811 11782
-0.441 2.739 1.897 4127
-0.419 2.606 1.799 9130
-0.442 2.744 1.889 5460
-0.426 2.651 1.817 9552
-0.447 2.776 1.898 5068
-0.427 2.655 1.809 11136
-0.447 2.781 1.890 6238
-0.429 2.667 1.806 10032
-0.449 2.793 1.886 5097
-0.431 2.678 1.802 9488
-0.451 2.804 1.882 4307
-0.433 2.690 1.799 7360
-0.453 2.816 1.878 3112
-0.441 2.741 1.820 6626
-0.461 2.867 1.899 2227
-0.421 2.615 1.741 1192
-0.445 2.766 1.824 6641
-0.425 2.639 1.746 2220
-0.465 2.892 1.903 1513
-0.449 2.791 1.829 7303
-0.429 2.664 1.750 3336
-0.469 2.918 1.907 1191
-0.449 2.789 1.817 8942
-0.469 2.916 1.894 2087
-0.428 2.662 1.739 2018
-0.448 2.787 1.804 10755
-0.469 2.914 1.882 3130
-0.428 2.660 1.727 1080
-0.450 2.799 1.800 10397
-0.471 2.926 1.877 2890
-0.452 2.810 1.796 10454
-0.473 2.938 1.873 2446
-0.464 2.882 1.828 11477
-0.443 2.754 1.752 1902
-0.464 2.887 1.820 14752
-0.444 2.759 1.744 1352
-0.465 2.892 1.812 14907
-0.445 2.763 1.736 1481
-0.466 2.897 1.803 14990
-0.487 3.025 1.878 2277
-0.445 2.768 1.728 1205
-0.467 2.901 1.795 14625
-0.487 3.030 1.870 3354
-0.468 2.906 1.786 12330
-0.488 3.035 1.861 3853
-0.468 2.911 1.778 10034
-0.489 3.040 1.852 4352
-0.469 2.916 1.769 7971
-0.493 3.066 1.855 4654
-0.495 3.077 1.850 5559
-0.472 2.934 1.769 4770
-0.482 2.993 1.791 6637
-0.502 3.123 1.864 3413
-0.530 3.294 1.960 1331
-0.482 2.998 1.782 6021
-0.503 3.128 1.855 4012
-0.531 3.299 1.950 1709
-0.499 3.099 1.827 6348
-0.478 2.969 1.754 2962
-0.519 3.229 1.899 2704
-0.499 3.104 1.818 5328
-0.521 3.241 1.893 3027
-0.478 2.973 1.746 2144
-0.504 3.136 1.824 4734
-0.529 3.287 1.906 3886
-0.483 3.005 1.752 1377
-0.534 3.320 1.912 5696
-0.505 3.141 1.814 4554
-0.484 3.010 1.743 1047
-0.536 3.332 1.906 8417
-0.506 3.146 1.805 4835
-0.557 3.463 1.976 1178
-0.537 3.337 1.896 8743
-0.506 3.144 1.792 5320
-0.558 3.468 1.966 1593
-0.538 3.342 1.886 7089
-0.504 3.134 1.776 5104
-0.559 3.474 1.956 1280
-0.538 3.347 1.877 4066
-0.504 3.132 1.763 3874
-0.560 3.479 1.946 1723
-0.552 3.428 1.907 4282
-0.521 3.241 1.809 3351
-0.500 3.109 1.740 1762
-0.553 3.441 1.900 4781
-0.521 3.239 1.796 3427
-0.500 3.107 1.727 1246
-0.555 3.453 1.894 4446
-0.521 3.237 1.783 2969
-0.499 3.104 1.714 1561
-0.577 3.585 1.962 1235
-0.567 3.527 1.920 5099
-0.506 3.144 1.723 3438
-0.544 3.381 1.845 3254
-0.568 3.532 1.909 5612
-0.545 3.386 1.835 4045
-0.505 3.141 1.710 3355
-0.569 3.538 1.899 6933
-0.545 3.391 1.825 4988
-0.505 3.139 1.698 3292
-0.590 3.670 1.966 1418
-0.570 3.543 1.889 7741
-0.546 3.395 1.815 4334
-0.505 3.136 1.685 3289
-0.591 3.676 1.955 2000
-0.571 3.548 1.878 7685
-0.529 3.288 1.749 3872
-0.504 3.134 1.672 3135
-0.592 3.681 1.945 2779
-0.576 3.581 1.882 7441
-0.530 3.293 1.740 3493
-0.506 3.145 1.667 3454
-0.555 3.447 1.816 2171
-0.582 3.621 1.889 7238
-0.507 3.150 1.658 4611
-0.561 3.487 1.823 3949
-0.530 3.297 1.730 2399
-0.569 3.534 1.834 6110
-0.505 3.140 1.642 4404
-0.590 3.668 1.899 4081
-0.528 3.281 1.710 1691
-0.586 3.645 1.874 7074
-0.505 3.137 1.629 3433
-0.565 3.511 1.810 2400
-0.617 3.836 1.966 1881
-0.588 3.657 1.867 8166
-0.503 3.127 1.613 2681
-0.617 3.834 1.952 2121
-0.546 3.396 1.742 1195
-0.596 3.705 1.877 10959
-0.618 3.839 1.941 3154
-0.503 3.124 1.601 2317
-0.574 3.570 1.813 1585
-0.597 3.709 1.866 11435
-0.618 3.844 1.929 4216
-0.503 3.129 1.592 1752
-0.596 3.707 1.852 9116
-0.620 3.856 1.922 5591
-0.642 3.991 1.985 1022
-0.623 3.876 1.917 7040
-0.595 3.698 1.834 6040
-0.645 4.011 1.980 1145
-0.624 3.881 1.906 6530
-0.597 3.710 1.827 4663
-0.646 4.016 1.968 1650
-0.624 3.879 1.891 5272
-0.600 3.729 1.823 3577
-0.646 4.014 1.953 2035
-0.505 3.138 1.552 1069
-0.625 3.884 1.880 3698
-0.603 3.748 1.818 2475
-0.647 4.019 1.941 2016
-0.505 3.142 1.543 1489
-0.642 3.989 1.913 4085
-0.620 3.853 1.852 2294
-0.663 4.124 1.975 1980
-0.598 3.717 1.791 1663
-0.642 3.994 1.902 7800
-0.664 4.130 1.963 3694
-0.621 3.858 1.841 2655
-0.507 3.150 1.524 1179
-0.644 4.006 1.893 8977
-0.666 4.142 1.954 5528
-0.623 3.870 1.833 3095
-0.509 3.161 1.518 1001
-0.646 4.018 1.885 6910
-0.668 4.154 1.945 5818
-0.625 3.882 1.825 2006
-0.653 4.059 1.889 7859
-0.675 4.196 1.948 2001
-0.631 3.923 1.829 1940
-0.650 4.043 1.868 9580
-0.672 4.179 1.927 4027
-0.628 3.906 1.808 1214
-0.652 4.055 1.859 7699
-0.674 4.191 1.918 4181
-0.630 3.918 1.800 1000
-0.673 4.182 1.899 5582
-0.651 4.045 1.841 3246
-0.695 4.319 1.957 1073
-0.674 4.187 1.887 7375
-0.696 4.324 1.945 1929
-0.652 4.050 1.829 1147
-0.674 4.192 1.875 8426
-0.696 4.329 1.932 2445
-0.676 4.204 1.865 6115
-0.703 4.371 1.935 3802
-0.682 4.238 1.865 5126
-0.706 4.390 1.928 4094
-0.718 4.461 1.942 4740
-0.683 4.243 1.853 3590
-0.718 4.466 1.929 6061
-0.696 4.328 1.873 4087
-0.674 4.190 1.817 1160
-0.701 4.355 1.869 6011
-0.723 4.493 1.924 4529
-0.703 4.367 1.859 4914
-0.725 4.505 1.914 4719
-0.721 4.481 1.889 4829
-0.699 4.343 1.835 3644
-0.743 4.620 1.944 1331
-0.722 4.486 1.876 6135
-0.699 4.348 1.822 3378
-0.744 4.625 1.931 2160
-0.724 4.499 1.866 7249
-0.746 4.637 1.920 2519
-0.701 4.360 1.812 2061
-0.724 4.504 1.853 5596
-0.747 4.642 1.906 3317
-0.730 4.538 1.851 5133
-0.754 4.684 1.907 2912
-0.756 4.696 1.896 4722
-0.731 4.543 1.838 4564
-0.737 4.584 1.838 5388
-0.760 4.723 1.890 4022
-0.739 4.596 1.827 5792
-0.762 4.736 1.879 3176
-0.784 4.875 1.931 1302
-0.747 4.645 1.830 6936
-0.770 4.785 1.881 2980
-0.792 4.924 1.933 1277
-0.761 4.731 1.846 5765
-0.791 4.915 1.913 2396
-0.739 4.591 1.795 1227
-0.765 4.758 1.840 7397
-0.794 4.935 1.904 3389
-0.770 4.785 1.834 7569
-0.795 4.940 1.890 3415
-0.771 4.790 1.820 5354
-0.795 4.945 1.875 4603
-0.818 5.085 1.925 1028
-0.790 4.913 1.848 4454
-0.768 4.773 1.798 2897
-0.824 5.120 1.920 1195
-0.790 4.910 1.831 4154
-0.813 5.051 1.880 2456
-0.794 4.937 1.824 4752
-0.817 5.078 1.872 3090
-0.796 4.950 1.812 4354
-0.828 5.150 1.880 2902
-0.832 5.169 1.870 5341
-0.798 4.962 1.800 3023
-0.872 5.422 1.956 1063
-0.831 5.167 1.853 5496
-0.805 5.004 1.798 2632
-0.879 5.464 1.952 1436
-0.854 5.308 1.900 1083
-0.830 5.157 1.833 3810
-0.863 5.365 1.902 2406
-0.806 5.009 1.783 1266
-0.867 5.392 1.893 3764
-0.830 5.162 1.818 2095
-0.902 5.608 1.964 1275
-0.872 5.420 1.885 4663
-0.905 5.628 1.952 2407
-0.849 5.278 1.839 1092
-0.875 5.440 1.874 3895
-0.904 5.618 1.931 2232
-0.848 5.268 1.818 1140
-0.877 5.452 1.860 3568
-0.901 5.601 1.908 2573
-0.847 5.266 1.801 1188
-0.933 5.803 1.972 1119
-0.879 5.465 1.846 2926
-0.903 5.614 1.894 2794
-0.933 5.800 1.952 1292
-0.912 5.671 1.893 3741
-0.889 5.529 1.849 1966
-0.938 5.828 1.942 1841
-0.914 5.684 1.879 4197
-0.938 5.833 1.925 3030
-0.891 5.542 1.835 1222
-0.915 5.689 1.862 3914
-0.939 5.838 1.908 3760
-0.942 5.858 1.896 4382
-0.911 5.664 1.837 2565
-0.965 6.001 1.939 1265
-0.943 5.863 1.878 4704
-0.982 6.103 1.950 1611
-0.909 5.653 1.816 1096
-0.944 5.868 1.861 2719
-0.978 6.078 1.923 2078
-0.981 6.099 1.910 3099
-1.009 6.271 1.961 1920
-0.958 5.956 1.868 1307
-0.984 6.119 1.896 4102
-1.008 6.269 1.940 2491
-0.961 5.976 1.855 1777
-1.035 6.434 1.988 1494
-0.985 6.124 1.878 3556
-1.036 6.440 1.969 2627
-1.009 6.274 1.922 2319
-0.962 5.981 1.838 1655
-1.011 6.287 1.905 3460
-1.037 6.445 1.950 2955
-0.986 6.129 1.861 2034
-1.060 6.588 1.991 1945
-1.013 6.299 1.889 3868
-1.039 6.458 1.933 3136
-1.062 6.601 1.973 1936
-0.987 6.134 1.843 1038
-1.040 6.463 1.914 3751
-1.015 6.312 1.873 2781
-1.063 6.606 1.954 2744
-1.062 6.604 1.933 5097
-1.039 6.460 1.893 3675
-1.016 6.317 1.854 1743
-1.111 6.905 2.015 1652
-1.063 6.609 1.913 4508
-1.040 6.465 1.874 2955
-1.112 6.911 1.995 1966
-1.136 7.062 2.036 1341
-1.063 6.606 1.892 2472
-1.110 6.901 1.971 1749
-1.040 6.463 1.853 1662
-1.138 7.075 2.017 1314
-1.068 6.642 1.880 2231
-1.112 6.914 1.952 2121
-1.161 7.216 2.032 1201
-1.138 7.073 1.994 1058
-1.066 6.624 1.855 2365
-1.113 6.919 1.932 1891
-1.168 7.260 2.021 1843
-1.197 7.441 2.068 1395
-1.064 6.614 1.832 2242
-1.197 7.439 2.045 1913
-1.142 7.098 1.957 1890
-1.165 7.242 1.994 1790
-1.144 7.111 1.938 2952
-1.195 7.429 2.019 1627
-1.167 7.255 1.974 1050
-1.197 7.442 1.999 1771
-1.145 7.116 1.917 1605
-1.201 7.463 1.981 2188
-1.264 7.858 2.079 1652
-1.227 7.630 2.022 1371
-1.169 7.266 1.932 1314
-1.263 7.848 2.052 2331
-1.203 7.476 1.961 2204
-1.230 7.643 2.002 1392
-1.202 7.473 1.937 2177
-1.261 7.838 2.025 2051
-1.310 8.142 2.099 1149
-1.232 7.656 1.981 1033
-1.269 7.889 2.013 1579
-1.204 7.486 1.917 1557
-1.389 8.633 2.164 1379
-1.269 7.887 1.988 1329
-1.303 8.100 2.039 1147
-1.283 7.976 1.985 1388
-1.335 8.296 2.059 1130
-1.390 8.639 2.139 1050
-1.306 8.121 2.018 1045
-1.335 8.302 2.035 1498
-1.382 8.591 2.101 1043
-1.383 8.597 2.076 2116
-1.465 9.108 2.192 1213
-1.338 8.315 2.012 1104
-1.386 8.618 2.054 1740
-1.466 9.114 2.165 1175
-1.483 9.219 2.160 2081
-1.397 8.684 2.042 1430
-1.520 9.448 2.211 1048
-1.470 9.141 2.115 2231
-1.413 8.781 2.037 1643
-1.499 9.316 2.153 1425
-1.507 9.368 2.135 1765
-1.484 9.223 2.104 1472
-1.409 8.756 2.004 1408
-1.510 9.389 2.111 1980
-1.487 9.244 2.080 1766
-1.535 9.542 2.143 1423
-1.558 9.688 2.174 1149
-1.557 9.678 2.142 2132
-1.492 9.272 2.058 1613
-1.534 9.533 2.112 1331
-1.558 9.684 2.114 2827
-1.512 9.400 2.056 1221
-1.560 9.697 2.087 2117
-1.622 10.080 2.164 1256
-1.525 9.482 2.044 1173
-1.658 10.309 2.179 1406
-1.562 9.710 2.060 1350
-1.623 10.086 2.135 1348
-1.661 10.322 2.150 1594
-1.563 9.716 2.031 1356
-1.702 10.583 2.201 1243
-1.563 9.714 2.001 1276
-1.660 10.320 2.118 1255
-1.705 10.597 2.171 1123
-1.563 9.719 1.973 1171
-1.713 10.648 2.149 1152
-1.659 10.310 2.085 1095
-1.882 11.698 2.277 1221
-1.880 11.689 2.240 1225
-1.853 11.520 2.209 1015
-1.871 11.633 2.194 1297
-1.975 12.277 2.234 1255
-1.907 11.853 2.161 1032
-2.012 12.506 2.235 1369
-1.977 12.291 2.199 1287
-2.096 13.031 2.324 1116
-1.906 11.851 2.125 1116
-2.005 12.466 2.191 1539
-2.096 13.029 2.284 1034
-2.005 12.464 2.153 1291
-2.065 12.835 2.213 1233
-2.155 13.398 2.304 1134
-2.063 12.825 2.173 1247
-2.156 13.404 2.265 1117
-2.161 13.434 2.229 1026
-2.165 13.455 2.192 1203
-0.376 2.357 1.847 2873
-0.357 2.237 1.758 1320
-0.378 2.368 1.845 4964
-0.359 2.248 1.756 1357
-0.381 2.385 1.847 4146
-0.400 2.506 1.935 1399
-0.362 2.265 1.759 1297
-0.388 2.428 1.868 4652
-0.363 2.276 1.757 1260
-0.383 2.401 1.838 5538
-0.403 2.522 1.925 1775
-0.383 2.400 1.826 7194
-0.403 2.521 1.913 2616
-0.384 2.405 1.819 7194
-0.403 2.526 1.906 3237
-0.385 2.410 1.812 7755
-0.404 2.531 1.899 4056
-0.387 2.421 1.810 8380
-0.406 2.543 1.896 4464
-0.388 2.432 1.807 7284
-0.408 2.554 1.893 4546
-0.390 2.443 1.805 6703
-0.410 2.566 1.890 4909
-0.406 2.545 1.865 7002
-0.387 2.422 1.780 3276
-0.407 2.550 1.857 8720
-0.388 2.427 1.773 2278
