-0.179 3.344 1.818 3002
-0.186 3.483 1.877 7212
-0.179 3.349 1.809 2907
-0.187 3.495 1.870 7151
-0.179 3.361 1.803 2101
-0.188 3.521 1.871 10916
-0.196 3.677 1.949 3662
-0.188 3.526 1.861 13072
-0.197 3.682 1.938 4512
-0.188 3.524 1.847 10463
-0.197 3.695 1.931 4506
-0.193 3.614 1.878 6479
-0.186 3.479 1.813 4150
-0.196 3.662 1.889 9007
-0.160 3.000 1.568 3274
-0.197 3.689 1.888 11186
-0.160 3.005 1.559 3109
-0.198 3.708 1.885 9966
-0.160 3.002 1.547 3658
-0.198 3.713 1.874 9443
-0.191 3.577 1.810 5605
-0.198 3.711 1.860 10125
-0.191 3.575 1.796 4971
-0.199 3.723 1.853 10557
-0.190 3.566 1.779 3496
-0.199 3.735 1.845 9321
-0.192 3.599 1.782 2776
-0.200 3.755 1.841 8615
-0.208 3.891 1.904 5377
-0.203 3.803 1.850 6967
-0.210 3.939 1.912 2857
-0.204 3.815 1.842 5865
-0.211 3.952 1.904 2127
-0.202 3.791 1.818 5004
-0.214 4.000 1.912 2658
-0.207 3.875 1.843 5856
-0.215 4.020 1.907 3631
-0.208 3.888 1.835 5638
-0.216 4.039 1.902 5111
-0.215 4.023 1.881 4927
-0.207 3.885 1.820 3775
-0.213 3.999 1.856 4535
-0.221 4.137 1.916 2986
-0.217 4.062 1.870 5803
-0.210 3.924 1.810 3496
-0.217 4.067 1.858 6381
-0.210 3.929 1.799 2595
-0.217 4.072 1.846 5564
-0.225 4.210 1.905 3409
-0.215 4.026 1.813 5519
-0.225 4.208 1.890 4673
-0.218 4.082 1.823 4502
-0.226 4.228 1.884 4105
-0.218 4.087 1.811 3985
-0.227 4.247 1.878 3511
-0.228 4.274 1.874 5221
-0.218 4.084 1.796 3402
-0.230 4.301 1.871 7114
-0.222 4.162 1.814 2984
-0.230 4.314 1.862 7430
-0.223 4.175 1.805 2710
-0.232 4.348 1.861 5186
-0.225 4.209 1.805 2311
-0.234 4.375 1.857 5146
-0.226 4.236 1.802 1874
-0.237 4.439 1.868 5254
-0.230 4.299 1.813 2388
-0.241 4.518 1.884 7325
-0.233 4.363 1.823 4240
-0.241 4.508 1.865 8795
-0.233 4.368 1.811 3305
-0.241 4.513 1.852 6258
-0.233 4.373 1.798 1781
-0.246 4.614 1.875 4969
-0.237 4.437 1.808 2834
-0.246 4.612 1.859 7235
-0.236 4.427 1.789 2539
-0.247 4.624 1.849 6335
-0.254 4.765 1.901 2319
-0.249 4.666 1.849 5801
-0.242 4.525 1.797 2197
-0.250 4.686 1.841 7007
-0.259 4.849 1.901 2897
-0.251 4.698 1.830 6273
-0.259 4.854 1.887 3247
-0.254 4.755 1.835 4498
-0.246 4.607 1.782 2659
-0.255 4.768 1.824 4464
-0.262 4.909 1.875 2091
-0.259 4.855 1.839 3869
-0.271 5.078 1.919 1908
-0.260 4.867 1.828 6241
-0.268 5.016 1.880 1782
-0.261 4.879 1.817 4153
-0.272 5.088 1.889 2741
-0.273 5.108 1.880 6825
-0.262 4.914 1.813 2047
-0.273 5.114 1.865 9082
-0.263 4.926 1.801 2294
-0.273 5.119 1.850 6619
-0.282 5.283 1.906 2175
-0.273 5.109 1.830 4432
-0.280 5.251 1.878 2396
-0.280 5.249 1.860 4414
-0.273 5.106 1.813 3263
-0.280 5.238 1.840 6045
-0.292 5.464 1.914 2100
-0.280 5.243 1.825 4574
-0.292 5.477 1.901 4362
-0.286 5.354 1.844 4565
-0.293 5.497 1.890 3989
-0.288 5.389 1.838 3268
-0.299 5.592 1.902 2810
-0.299 5.597 1.886 4233
-0.290 5.439 1.836 2847
-0.300 5.610 1.872 4709
-0.291 5.444 1.821 2364
-0.299 5.607 1.854 2652
-0.307 5.758 1.900 1727
-0.314 5.885 1.921 2638
-0.307 5.741 1.877 1647
-0.309 5.791 1.874 4776
-0.317 5.935 1.917 1889
-0.309 5.796 1.857 4222
-0.317 5.940 1.900 2067
-0.327 6.120 1.934 2868
-0.317 5.930 1.878 2662
-0.327 6.133 1.919 2568
-0.316 5.928 1.859 1752
-0.333 6.229 1.928 3260
-0.325 6.085 1.886 1547
-0.333 6.242 1.912 2140
-0.341 6.386 1.953 1473
-0.339 6.346 1.922 2704
-0.327 6.133 1.861 1861
-0.339 6.343 1.901 3160
-0.362 6.777 2.023 1442
-0.339 6.341 1.881 3323
-0.365 6.836 2.018 1843
-0.339 6.353 1.864 3021
-0.365 6.841 1.998 2579
-0.366 6.847 1.978 3619
-0.339 6.358 1.846 1834
-0.366 6.860 1.960 3742
-0.375 7.028 2.005 2049
-0.367 6.873 1.942 2835
-0.376 7.041 1.987 2004
-0.371 6.954 1.942 3708
-0.389 7.291 2.030 2513
-0.377 7.059 1.948 3037
-0.389 7.289 2.007 3011
-0.389 7.294 1.986 2081
-0.418 7.838 2.125 2035
-0.419 7.844 2.102 3124
-0.409 7.660 2.055 1922
-0.420 7.857 2.081 2268
-0.410 7.673 2.035 1252
-0.424 7.940 2.077 3049
-0.432 8.086 2.113 1818
-0.423 7.930 2.050 2569
-0.440 8.237 2.125 2038
-0.440 8.243 2.101 2049
-0.423 7.928 2.025 1845
-0.440 8.249 2.077 1574
-0.450 8.433 2.120 1392
-0.435 8.139 2.026 1200
-0.469 8.786 2.177 959
-0.470 8.799 2.153 1408
-0.446 8.360 2.052 1033
-0.470 8.797 2.126 1920
-0.446 8.350 2.024 1286
-0.471 8.826 2.105 1624
-0.479 8.973 2.138 1538
-0.480 8.986 2.114 2042
-0.472 8.840 2.081 1196
-0.480 9.000 2.089 2069
-0.499 9.347 2.165 1272
-0.500 9.361 2.140 1701
-0.482 9.021 2.066 1243
-0.515 9.653 2.173 1596
-0.494 9.251 2.088 1424
-0.516 9.659 2.145 2865
-0.531 9.945 2.205 1063
-0.516 9.665 2.117 2972
-0.528 9.897 2.165 1119
-0.516 9.670 2.089 2124
-0.529 9.903 2.136 1172
-0.571 10.699 2.265 1351
-0.517 9.676 2.061 1313
-0.572 10.706 2.234 1899
-0.563 10.550 2.203 1337
-0.588 11.022 2.263 1702
-0.572 10.712 2.203 1565
-0.588 11.020 2.229 1809
-0.602 11.284 2.279 1471
-0.604 11.314 2.251 1941
-0.588 11.011 2.194 1591
-0.605 11.328 2.219 2082
-0.589 11.032 2.165 1336
-0.631 11.816 2.274 1700
-0.589 11.038 2.133 1310
-0.640 11.978 2.267 1239
-0.632 11.830 2.241 1115
-0.640 11.984 2.232 1123
-0.648 12.132 2.258 903
-0.690 12.933 2.360 900
-0.734 13.757 2.420 1118
-0.722 13.521 2.340 1062
-0.734 13.755 2.378 1039
-0.741 13.887 2.358 954
-0.721 13.512 2.298 903
-0.741 13.878 2.315 810
-0.733 13.721 2.291 760
-0.747 13.985 2.291 822
-0.119 2.302 1.797 989
-0.126 2.428 1.879 3318
-0.119 2.307 1.791 1978
-0.126 2.433 1.872 6636
-0.120 2.311 1.784 1978
-0.127 2.444 1.870 8089
-0.120 2.316 1.777 1549
-0.127 2.456 1.868 9896
-0.120 2.321 1.771 1119
-0.128 2.474 1.870 11080
-0.122 2.351 1.783 1717
-0.129 2.485 1.867 13457
-0.122 2.363 1.780 2350
-0.129 2.490 1.860 13457
-0.123 2.367 1.774 2350
-0.128 2.469 1.835 13435
-0.134 2.592 1.921 1786
-0.128 2.468 1.823 17002
-0.134 2.591 1.909 3135
-0.128 2.479 1.821 16230
-0.135 2.603 1.907 3178
-0.129 2.491 1.818 16305
-0.135 2.614 1.904 3580
-0.130 2.502 1.816 12776
-0.136 2.626 1.901 3398
-0.131 2.520 1.817 10519
-0.137 2.644 1.902 2919
-0.131 2.525 1.810 10519
-0.137 2.649 1.894 3033
-0.131 2.530 1.803 7030
-0.137 2.654 1.887 2675
-0.135 2.613 1.848 4983
-0.129 2.488 1.765 2108
-0.134 2.585 1.819 4697
-0.140 2.711 1.902 1112
-0.134 2.590 1.812 5076
-0.141 2.716 1.894 1466
-0.136 2.622 1.822 7286
-0.143 2.761 1.913 1423
-0.136 2.633 1.818 10388
-0.145 2.792 1.922 1817
-0.137 2.638 1.811 10846
-0.144 2.771 1.897 2765
-0.137 2.650 1.807 11362
-0.144 2.776 1.889 3750
-0.138 2.661 1.804 8256
-0.144 2.788 1.885 3915
-0.140 2.706 1.822 8663
-0.147 2.833 1.902 2400
-0.140 2.711 1.814 8937
-0.148 2.858 1.907 3043
-0.141 2.723 1.811 9241
-0.148 2.863 1.899 3967
-0.141 2.721 1.799 8033
-0.149 2.868 1.891 4130
-0.141 2.719 1.787 6925
-0.147 2.847 1.866 4539
-0.141 2.724 1.779 5087
-0.148 2.852 1.858 3720
-0.145 2.796 1.812 3452
-0.151 2.924 1.891 2636
-0.152 2.936 1.886 4964
-0.142 2.733 1.763 3003
-0.152 2.941 1.878 7387
-0.142 2.745 1.759 2783
-0.153 2.946 1.869 8582
-0.146 2.817 1.792 2549
-0.153 2.951 1.861 9777
-0.146 2.822 1.784 2784
-0.153 2.956 1.852 8908
-0.160 3.092 1.933 2478
-0.153 2.954 1.840 8072
-0.161 3.104 1.928 3220
-0.154 2.966 1.835 6685
-0.161 3.116 1.923 2896
-0.155 2.985 1.835 4204
-0.163 3.142 1.926 3842
-0.163 3.147 1.917 5057
-0.156 3.017 1.842 4488
-0.163 3.146 1.904 5253
-0.156 3.015 1.829 3746
-0.163 3.144 1.891 5641
-0.155 2.999 1.809 3452
-0.158 3.046 1.824 5371
-0.165 3.177 1.897 3962
-0.158 3.057 1.819 5805
-0.165 3.189 1.892 2970
-0.163 3.152 1.860 5283
-0.156 3.021 1.787 2962
-0.164 3.164 1.855 4898
-0.171 3.296 1.927 3193
-0.169 3.259 1.895 6544
-0.162 3.127 1.823 3076
-0.169 3.271 1.889 7071
-0.163 3.139 1.818 3618
-0.171 3.304 1.895 8058
-0.164 3.172 1.824 4498
-0.172 3.316 1.889 6591
-0.158 3.045 1.743 5617
-0.158 3.049 1.735 6320
-0.172 3.321 1.880 3788
-0.158 3.054 1.726 6439
-0.167 3.215 1.811 3405
-0.158 3.058 1.717 5854
-0.173 3.332 1.861 3369
-0.174 3.358 1.862 5168
-0.159 3.063 1.708 4419
-0.174 3.363 1.852 5884
-0.181 3.496 1.921 4714
-0.177 3.417 1.868 6635
-0.184 3.550 1.937 2658
-0.178 3.429 1.862 6736
-0.185 3.563 1.930 1889
-0.180 3.476 1.873 7664
-0.173 3.342 1.805 3165
-0.181 3.495 1.870 7314
-0.174 3.354 1.799 2277
-0.182 3.522 1.871 10657
-0.190 3.677 1.949 3433
-0.183 3.527 1.861 12830
-0.191 3.683 1.938 4445
-0.183 3.532 1.850 10029
-0.191 3.688 1.927 4592
-0.187 3.615 1.878 7026
-0.180 3.480 1.813 3987
-0.190 3.663 1.889 8359
-0.155 3.001 1.568 3701
-0.191 3.689 1.888 10647
-0.155 2.998 1.556 3546
-0.192 3.708 1.885 9393
-0.155 3.002 1.547 4004
-0.193 3.721 1.877 9264
-0.186 3.585 1.813 5615
-0.193 3.718 1.863 9855
-0.186 3.583 1.799 4739
-0.193 3.716 1.849 10094
-0.156 3.014 1.521 3102
-0.194 3.736 1.845 8542
-0.186 3.599 1.782 2585
-0.195 3.755 1.841 8296
-0.202 3.891 1.904 5896
-0.201 3.889 1.889 6924
-0.194 3.753 1.827 6192
-0.197 3.808 1.839 5282
-0.204 3.945 1.901 2752
-0.201 3.878 1.857 4724
-0.194 3.741 1.795 2762
-0.201 3.883 1.846 5491
-0.208 4.020 1.907 3732
-0.209 4.040 1.902 5322
-0.202 3.895 1.838 5133
-0.209 4.030 1.884 5042
-0.202 3.893 1.823 3929
-0.207 3.999 1.856 4583
-0.214 4.137 1.916 2853
-0.210 4.062 1.870 5711
-0.203 3.924 1.810 3566
-0.211 4.067 1.858 6240
-0.204 3.929 1.799 2673
-0.211 4.065 1.843 5297
-0.218 4.203 1.902 2966
-0.209 4.026 1.813 5012
-0.219 4.223 1.896 4484
-0.219 4.235 1.887 4845
-0.211 4.075 1.820 4369
-0.220 4.248 1.878 4388
-0.211 4.080 1.808 4018
-0.221 4.267 1.871 5733
-0.212 4.085 1.796 3698
-0.223 4.302 1.871 7844
-0.214 4.133 1.802 2966
-0.223 4.314 1.862 7663
-0.216 4.175 1.805 2825
-0.225 4.349 1.861 5861
-0.218 4.209 1.805 2036
-0.226 4.368 1.854 5727
-0.234 4.508 1.910 1326
-0.230 4.439 1.868 5206
-0.223 4.300 1.813 2416
-0.234 4.525 1.886 7473
-0.226 4.363 1.823 4387
-0.234 4.508 1.865 9070
-0.226 4.368 1.811 3270
-0.234 4.513 1.852 6840
-0.227 4.373 1.798 1937
-0.239 4.614 1.875 5126
-0.232 4.474 1.822 2729
-0.239 4.612 1.859 7985
-0.230 4.435 1.792 2455
-0.240 4.625 1.849 6827
-0.247 4.765 1.901 2267
-0.242 4.674 1.852 7072
-0.235 4.533 1.800 2389
-0.243 4.686 1.841 7696
-0.251 4.842 1.898 3369
-0.243 4.699 1.830 5984
-0.251 4.847 1.884 4041
-0.247 4.763 1.838 4336
-0.239 4.607 1.782 2193
-0.247 4.768 1.824 4522
-0.254 4.910 1.875 1960
-0.251 4.855 1.839 4038
-0.259 4.997 1.890 1906
-0.252 4.867 1.828 6688
-0.260 5.024 1.883 1928
-0.253 4.880 1.817 4452
-0.264 5.089 1.889 2948
-0.265 5.109 1.880 6648
-0.257 4.967 1.831 1933
-0.265 5.114 1.865 8169
-0.255 4.927 1.801 1916
-0.265 5.119 1.850 5758
-0.255 4.932 1.787 1991
-0.264 5.101 1.828 3855
-0.272 5.244 1.875 2788
-0.272 5.249 1.860 4531
-0.265 5.106 1.813 3004
-0.271 5.239 1.840 5934
-0.283 5.457 1.911 1880
-0.272 5.244 1.825 4582
-0.284 5.477 1.901 4018
-0.278 5.362 1.846 4558
-0.285 5.505 1.892 3366
-0.279 5.389 1.838 3534
-0.290 5.593 1.902 2675
-0.290 5.598 1.886 3967
-0.282 5.439 1.836 2821
-0.291 5.610 1.872 4155
-0.282 5.437 1.818 2201
-0.290 5.608 1.854 2288
-0.298 5.751 1.898 2276
-0.305 5.885 1.921 2675
-0.297 5.741 1.877 2154
-0.300 5.792 1.874 4769
-0.307 5.936 1.917 1799
-0.300 5.797 1.857 4388
-0.308 5.941 1.900 1809
-0.317 6.128 1.937 2599
-0.300 5.787 1.836 2398
-0.318 6.133 1.919 2404
-0.328 6.323 1.974 1853
-0.323 6.229 1.928 2864
-0.330 6.374 1.969 1283
-0.323 6.242 1.912 1939
-0.331 6.387 1.953 1765
-0.329 6.354 1.924 3298
-0.318 6.133 1.861 1865
-0.329 6.344 1.901 3322
-0.350 6.763 2.018 1599
-0.328 6.341 1.881 3351
-0.354 6.829 2.016 1808
-0.329 6.354 1.864 3100
-0.353 6.819 1.992 2624
-0.353 6.817 1.970 3308
-0.363 7.015 2.023 1813
-0.355 6.860 1.960 3414
-0.364 7.028 2.005 2215
-0.356 6.866 1.940 2647
-0.365 7.041 1.987 2160
-0.360 6.955 1.942 3939
-0.378 7.292 2.030 2412
-0.366 7.060 1.948 3237
-0.377 7.282 2.005 2846
-0.377 7.287 1.984 2056
-0.406 7.847 2.127 1835
-0.407 7.852 2.104 3069
-0.397 7.668 2.057 1743
-0.407 7.858 2.081 2353
-0.390 7.528 1.999 1300
-0.411 7.940 2.077 3241
-0.426 8.232 2.149 1753
-0.411 7.938 2.052 2887
-0.427 8.238 2.125 2102
-0.427 8.244 2.101 1964
-0.411 7.936 2.027 1860
-0.427 8.249 2.077 1604
-0.437 8.434 2.120 1378
-0.422 8.147 2.028 1349
-0.456 8.794 2.179 1041
-0.455 8.792 2.151 1412
-0.432 8.345 2.048 1005
-0.456 8.798 2.126 1806
-0.433 8.351 2.024 1260
-0.457 8.827 2.105 1630
-0.465 8.974 2.138 1508
-0.466 8.987 2.114 2106
-0.458 8.840 2.081 1153
-0.466 9.001 2.089 2204
-0.485 9.356 2.167 1283
-0.485 9.362 2.140 1769
-0.467 9.014 2.065 1372
-0.500 9.646 2.171 1692
-0.479 9.252 2.088 1314
-0.500 9.660 2.145 3129
-0.515 9.946 2.205 985
-0.501 9.665 2.117 3150
-0.534 10.316 2.251 1145
-0.501 9.671 2.089 2199
-0.513 9.904 2.136 1119
-0.501 9.677 2.061 1327
-0.555 10.708 2.266 1250
-0.555 10.706 2.234 1772
-0.547 10.551 2.203 1365
-0.571 11.023 2.263 1675
-0.555 10.712 2.203 1556
-0.571 11.021 2.229 1730
-0.585 11.285 2.279 1465
-0.586 11.315 2.251 1985
-0.571 11.027 2.197 1489
-0.586 11.321 2.218 2059
-0.572 11.041 2.166 1420
-0.612 11.817 2.274 1464
-0.572 11.039 2.133 1419
-0.621 11.987 2.269 1082
-0.572 11.045 2.101 1016
-0.621 11.993 2.234 921
-0.629 12.141 2.260 881
-0.670 12.934 2.360 871
-0.664 12.816 2.301 799
-0.713 13.758 2.420 1132
-0.724 13.984 2.457 774
-0.719 13.874 2.397 989
-0.701 13.538 2.343 978
-0.719 13.888 2.358 1041
-0.709 13.685 2.326 930
-0.725 13.988 2.332 881
-0.710 13.715 2.289 857
-0.725 13.987 2.291 838
-0.117 2.334 1.821 1210
-0.122 2.428 1.879 3062
-0.115 2.300 1.786 1850
-0.122 2.433 1.872 6124
-0.116 2.305 1.779 1850
-0.123 2.445 1.870 7879
-0.116 2.310 1.773 1467
-0.123 2.456 1.868 9916
-0.116 2.315 1.766 1084
-0.124 2.474 1.870 11014
-0.118 2.352 1.783 1783
-0.125 2.485 1.867 13170
-0.119 2.363 1.780 2428
-0.125 2.490 1.860 13170
-0.119 2.368 1.774 2428
-0.125 2.489 1.849 12675
-0.119 2.366 1.762 1573
-0.124 2.468 1.823 15742
-0.130 2.591 1.909 2886
-0.124 2.479 1.821 15309
-0.131 2.603 1.907 2949
-0.125 2.491 1.818 15527
-0.131 2.615 1.904 3390
-0.126 2.502 1.816 12214
-0.132 2.626 1.901 3335
-0.126 2.520 1.817 9925
-0.133 2.644 1.902 2899
-0.127 2.525 1.810 9925
-0.133 2.650 1.894 3061
-0.127 2.530 1.803 6617
-0.133 2.655 1.887 2371
-0.131 2.614 1.848 4838
-0.125 2.489 1.765 2043
-0.130 2.586 1.819 4811
-0.136 2.711 1.902 1028
-0.130 2.591 1.812 5305
-0.136 2.716 1.894 1247
-0.132 2.622 1.822 7004
-0.138 2.754 1.908 1208
-0.132 2.627 1.814 9671
-0.140 2.793 1.922 1651
-0.132 2.638 1.811 10253
-0.139 2.765 1.892 2633
-0.133 2.643 1.803 10883
-0.139 2.770 1.884 3765
-0.134 2.661 1.804 8010
-0.140 2.788 1.885 3911
-0.136 2.706 1.822 8214
-0.142 2.833 1.902 2383
-0.136 2.711 1.814 8746
-0.143 2.852 1.903 3148
-0.136 2.716 1.806 9277
-0.144 2.864 1.899 4236
-0.137 2.721 1.799 8121
-0.144 2.869 1.891 4324
-0.136 2.719 1.787 7004
-0.143 2.847 1.866 4557
-0.137 2.724 1.779 5173
-0.143 2.852 1.858 3755
-0.140 2.796 1.812 3634
-0.147 2.924 1.891 2845
-0.147 2.936 1.886 5237
-0.137 2.733 1.763 3028
-0.148 2.941 1.878 7680
-0.138 2.745 1.759 2762
-0.148 2.946 1.869 9100
-0.141 2.817 1.792 2517
-0.148 2.951 1.861 10520
-0.142 2.822 1.784 2738
-0.148 2.956 1.852 9438
-0.155 3.093 1.933 2573
-0.148 2.955 1.840 8365
-0.156 3.105 1.928 3256
-0.149 2.966 1.835 6870
-0.156 3.117 1.923 2910
-0.150 2.985 1.835 4319
-0.158 3.142 1.926 3906
-0.158 3.148 1.917 5089
-0.151 3.017 1.842 4454
-0.158 3.153 1.908 5349
-0.152 3.022 1.833 3828
-0.158 3.151 1.895 5785
-0.151 3.000 1.809 3245
-0.158 3.149 1.882 5214
-0.151 3.018 1.808 3985
-0.154 3.065 1.823 5161
-0.160 3.196 1.896 2828
-0.159 3.159 1.864 4888
-0.152 3.028 1.791 2963
-0.163 3.254 1.904 5175
-0.157 3.123 1.832 3171
-0.164 3.260 1.895 6956
-0.157 3.128 1.823 2282
-0.164 3.272 1.889 7508
-0.158 3.140 1.818 2821
-0.166 3.305 1.895 8462
-0.159 3.172 1.824 4066
-0.167 3.324 1.893 6934
-0.153 3.045 1.743 4803
-0.153 3.049 1.735 5413
-0.167 3.322 1.880 3980
-0.153 3.054 1.726 5555
-0.161 3.215 1.811 3422
-0.153 3.059 1.717 5088
-0.167 3.332 1.861 3608
-0.168 3.358 1.862 5762
-0.154 3.070 1.712 3787
-0.169 3.363 1.852 6824
-0.175 3.496 1.921 4605
-0.171 3.410 1.864 7264
-0.178 3.544 1.933 2992
-0.172 3.429 1.862 7170
-0.179 3.563 1.930 1806
-0.174 3.476 1.873 7867
-0.168 3.342 1.805 3432
-0.175 3.489 1.867 7308
-0.168 3.354 1.799 2477
-0.177 3.522 1.871 10136
-0.185 3.678 1.949 3071
-0.177 3.527 1.861 12169
-0.185 3.683 1.938 4194
-0.177 3.532 1.850 9354
-0.185 3.688 1.927 4501
-0.181 3.615 1.878 7340
-0.150 2.997 1.577 3971
-0.184 3.663 1.889 7863
-0.151 3.001 1.568 3841
-0.185 3.689 1.888 9853
-0.150 2.998 1.556 3621
-0.185 3.694 1.878 8556
-0.151 3.002 1.547 4032
-0.187 3.728 1.881 8942
-0.180 3.592 1.816 6006
-0.187 3.719 1.863 9573
-0.180 3.583 1.799 4862
-0.186 3.717 1.849 9522
-0.151 3.014 1.521 3246
-0.187 3.736 1.845 7787
-0.195 3.879 1.912 2656
-0.188 3.755 1.841 7740
-0.195 3.892 1.904 6222
-0.196 3.897 1.892 7202
-0.189 3.760 1.830 6637
-0.196 3.909 1.885 5152
-0.189 3.772 1.823 4927
-0.195 3.878 1.857 4562
-0.188 3.741 1.795 2835
-0.195 3.890 1.849 5132
-0.202 4.028 1.910 3443
-0.202 4.033 1.899 5253
-0.195 3.895 1.838 4724
-0.202 4.031 1.884 4971
-0.195 3.893 1.823 3749
-0.197 3.934 1.828 4483
-0.204 4.072 1.888 3779
-0.204 4.063 1.870 5445
-0.197 3.925 1.810 3721
-0.204 4.068 1.858 5839
-0.197 3.930 1.799 2917
-0.204 4.065 1.843 4839
-0.211 4.204 1.902 2307
-0.202 4.019 1.810 4858
-0.209 4.158 1.868 4302
-0.213 4.236 1.887 5318
-0.204 4.075 1.820 4090
-0.213 4.248 1.878 4887
-0.205 4.087 1.811 3680
-0.214 4.268 1.871 5883
-0.205 4.092 1.799 3402
-0.216 4.309 1.874 7836
-0.209 4.170 1.817 2880
-0.217 4.322 1.865 7382
-0.210 4.183 1.808 3083
-0.218 4.349 1.861 6065
-0.211 4.209 1.805 1977
-0.219 4.361 1.851 5853
-0.226 4.501 1.907 1850
-0.224 4.454 1.873 5231
-0.216 4.315 1.818 3032
-0.227 4.526 1.886 7559
-0.219 4.364 1.823 4433
-0.226 4.509 1.865 9520
-0.219 4.369 1.811 3132
-0.226 4.506 1.849 7545
-0.233 4.647 1.903 1795
-0.231 4.600 1.870 5368
-0.224 4.460 1.816 2777
-0.231 4.612 1.859 8739
-0.223 4.435 1.792 2535
-0.232 4.625 1.849 7196
-0.239 4.766 1.901 2239
-0.235 4.674 1.852 7901
-0.227 4.533 1.800 2282
-0.235 4.687 1.841 8189
-0.243 4.843 1.898 3653
-0.236 4.699 1.830 5826
-0.243 4.848 1.884 4482
-0.239 4.756 1.835 4153
-0.246 4.897 1.886 2106
-0.239 4.761 1.822 4507
-0.246 4.903 1.872 1987
-0.244 4.863 1.842 3700
-0.251 5.004 1.892 1894
-0.244 4.868 1.828 6447
-0.252 5.024 1.883 1894
-0.245 4.880 1.817 4373
-0.255 5.089 1.889 3040
-0.256 5.102 1.877 6351
-0.249 4.960 1.828 1581
-0.257 5.114 1.865 7296
-0.248 4.935 1.804 1658
-0.257 5.119 1.850 5149
-0.247 4.932 1.787 2130
-0.256 5.102 1.828 3556
-0.263 5.244 1.875 2684
-0.263 5.249 1.860 4318
-0.256 5.107 1.813 2799
-0.263 5.239 1.840 5517
-0.270 5.382 1.887 2149
-0.263 5.244 1.825 4333
-0.275 5.477 1.901 3763
-0.269 5.370 1.848 4566
-0.277 5.513 1.894 2784
-0.270 5.390 1.838 3747
-0.281 5.593 1.902 2637
-0.281 5.598 1.886 3793
-0.273 5.440 1.836 2782
-0.282 5.611 1.872 3459
-0.273 5.437 1.818 1963
-0.289 5.752 1.898 2788
-0.281 5.608 1.854 1825
-0.289 5.765 1.884 3143
-0.296 5.908 1.928 2331
-0.291 5.792 1.874 4707
-0.298 5.936 1.917 1788
-0.291 5.797 1.857 4365
-0.298 5.941 1.900 1709
-0.290 5.787 1.836 2536
-0.308 6.128 1.937 2410
-0.309 6.149 1.923 2114
-0.318 6.331 1.977 1903
-0.313 6.230 1.928 2632
-0.320 6.374 1.969 1419
-0.313 6.243 1.912 2084
-0.320 6.387 1.953 1990
-0.320 6.377 1.930 3598
-0.308 6.141 1.863 1884
-0.319 6.360 1.905 3266
-0.339 6.748 2.014 1861
-0.319 6.349 1.883 3066
-0.338 6.738 1.990 2452
-0.319 6.354 1.864 2875
-0.342 6.820 1.992 2597
-0.342 6.817 1.970 3230
-0.352 7.016 2.023 1870
-0.343 6.830 1.952 3036
-0.353 7.029 2.005 2312
-0.348 6.935 1.958 2644
-0.365 7.271 2.047 1835
-0.349 6.948 1.940 4039
-0.366 7.285 2.028 2450
-0.349 6.961 1.922 3162
-0.365 7.282 2.005 2681
-0.366 7.288 1.984 2010
-0.395 7.862 2.130 1702
-0.395 7.868 2.108 2964
-0.385 7.677 2.059 1728
-0.394 7.859 2.081 2270
-0.378 7.529 1.999 1369
-0.398 7.941 2.077 3171
-0.413 8.233 2.149 1815
-0.398 7.939 2.052 2860
-0.413 8.239 2.125 2059
-0.414 8.252 2.103 1890
-0.399 7.945 2.029 1694
-0.409 8.142 2.051 1697
-0.423 8.435 2.120 1369
-0.409 8.148 2.028 1565
-0.416 8.294 2.062 1043
-0.441 8.785 2.150 1355
-0.419 8.346 2.048 1007
-0.441 8.799 2.126 1725
-0.419 8.344 2.022 1206
-0.443 8.828 2.105 1634
-0.451 8.982 2.140 1537
-0.451 8.996 2.115 2128
-0.459 9.142 2.148 1186
-0.452 9.001 2.089 2171
-0.465 9.272 2.148 1405
-0.470 9.370 2.141 1795
-0.452 9.015 2.065 1312
-0.484 9.647 2.171 1696
-0.470 9.368 2.112 1328
-0.485 9.660 2.145 3203
-0.499 9.947 2.205 990
-0.485 9.666 2.117 3170
-0.518 10.317 2.251 1216
-0.485 9.672 2.089 2161
-0.508 10.121 2.180 1230
-0.486 9.678 2.061 1251
-0.538 10.717 2.268 1195
-0.537 10.707 2.234 1587
-0.553 11.025 2.296 1488
-0.553 11.024 2.263 1707
-0.538 10.713 2.203 1448
-0.553 11.022 2.229 1691
-0.566 11.286 2.279 1385
-0.568 11.316 2.251 1942
-0.553 11.028 2.197 1437
-0.568 11.330 2.219 2083
-0.554 11.042 2.166 1459
-0.554 11.040 2.133 1515
-0.568 11.320 2.184 1267
-0.554 11.046 2.101 1073
-0.580 11.552 2.191 997
-0.586 11.682 2.179 903
-0.609 12.134 2.258 860
-0.642 12.803 2.337 882
-0.643 12.809 2.300 963
-0.691 13.775 2.422 1076
-0.696 13.867 2.396 966
-0.679 13.539 2.343 852
-0.697 13.889 2.358 970
-0.687 13.686 2.326 940
-0.688 13.716 2.289 917
-0.703 14.005 2.335 890
-0.703 14.003 2.293 825
-0.689 13.722 2.249 752
-0.113 2.334 1.821 1559
-0.115 2.364 1.833 3636
-0.109 2.243 1.744 991
-0.118 2.440 1.877 5867
-0.111 2.293 1.770 2004
-0.119 2.445 1.870 8019
-0.112 2.297 1.763 1529
-0.119 2.456 1.868 10427
-0.112 2.309 1.762 1067
-0.120 2.474 1.870 11311
-0.114 2.352 1.783 1874
-0.121 2.486 1.867 13189
-0.115 2.363 1.780 2535
-0.121 2.491 1.860 13189
-0.115 2.368 1.774 2535
-0.121 2.489 1.849 12283
-0.115 2.366 1.762 1639
-0.120 2.468 1.823 14203
-0.126 2.591 1.909 2634
-0.120 2.480 1.821 14203
-0.126 2.603 1.907 2781
-0.121 2.491 1.818 14669
-0.127 2.615 1.904 3354
-0.121 2.502 1.816 11645
-0.128 2.626 1.901 3481
-0.122 2.514 1.813 9432
-0.128 2.638 1.897 3530
-0.122 2.519 1.806 9432
-0.128 2.643 1.890 3739
-0.123 2.530 1.803 6284
-0.129 2.655 1.887 2354
-0.127 2.607 1.844 4821
-0.121 2.482 1.761 1638
-0.126 2.592 1.823 5209
-0.132 2.718 1.906 1109
-0.126 2.597 1.816 5902
-0.132 2.723 1.899 1182
-0.127 2.615 1.817 7327
-0.133 2.741 1.900 1202
-0.128 2.627 1.814 9479
-0.136 2.793 1.922 1456
-0.128 2.639 1.811 10099
-0.134 2.765 1.892 2659
-0.128 2.643 1.803 10948
-0.134 2.770 1.884 3925
-0.129 2.655 1.800 8153
-0.135 2.782 1.881 4360
-0.131 2.706 1.822 7708
-0.138 2.833 1.902 2453
-0.132 2.711 1.814 8532
-0.138 2.852 1.903 3400
-0.132 2.716 1.806 9357
-0.139 2.857 1.895 4800
-0.132 2.721 1.799 8255
-0.139 2.862 1.886 4861
-0.132 2.719 1.787 7173
-0.138 2.847 1.866 5107
-0.132 2.724 1.779 5294
-0.138 2.852 1.858 4316
-0.138 2.844 1.841 3991
-0.132 2.715 1.763 3519
-0.143 2.936 1.886 5630
-0.133 2.740 1.767 3049
-0.143 2.942 1.878 8077
-0.134 2.752 1.764 2723
-0.143 2.947 1.869 9732
-0.137 2.818 1.792 2493
-0.143 2.945 1.857 11453
-0.137 2.816 1.780 2340
-0.143 2.950 1.848 10251
-0.150 3.100 1.937 2699
-0.143 2.955 1.840 9048
-0.151 3.105 1.928 3312
-0.144 2.967 1.835 7204
-0.152 3.124 1.927 2952
-0.145 2.985 1.835 4359
-0.153 3.143 1.926 3974
-0.153 3.148 1.917 5105
-0.147 3.018 1.842 4289
-0.153 3.153 1.908 5629
-0.147 3.023 1.833 3623
-0.153 3.144 1.891 6397
-0.145 2.993 1.805 3017
-0.153 3.150 1.882 5584
-0.147 3.019 1.808 3493
-0.152 3.134 1.861 5133
-0.146 3.003 1.788 2351
-0.154 3.173 1.871 5250
-0.148 3.042 1.798 3006
-0.155 3.192 1.870 5876
-0.162 3.331 1.946 2791
-0.158 3.253 1.891 7277
-0.164 3.385 1.963 2483
-0.159 3.272 1.889 8012
-0.152 3.140 1.818 2082
-0.160 3.305 1.895 8997
-0.154 3.173 1.824 3764
-0.161 3.324 1.893 7469
-0.148 3.045 1.743 3790
-0.148 3.043 1.731 4375
-0.161 3.322 1.880 4275
-0.148 3.047 1.722 4541
-0.156 3.222 1.815 3766
-0.149 3.059 1.717 4142
-0.161 3.325 1.857 3960
-0.163 3.351 1.858 6528
-0.149 3.071 1.712 3060
-0.163 3.363 1.852 7973
-0.170 3.504 1.925 4507
-0.166 3.410 1.864 8002
-0.172 3.544 1.933 2859
-0.167 3.429 1.862 7678
-0.160 3.296 1.793 1766
-0.169 3.477 1.873 7930
-0.162 3.343 1.805 3566
-0.169 3.489 1.867 7176
-0.163 3.355 1.799 2567
-0.171 3.522 1.871 9446
-0.178 3.671 1.945 2667
-0.171 3.527 1.861 11287
-0.179 3.683 1.938 3878
-0.172 3.539 1.854 8679
-0.179 3.681 1.924 4422
-0.176 3.615 1.878 7931
-0.146 2.997 1.577 4016
-0.178 3.663 1.889 7598
-0.146 3.001 1.568 3826
-0.179 3.682 1.885 9145
-0.146 2.998 1.556 3563
-0.179 3.688 1.874 8028
-0.146 3.002 1.547 4013
-0.181 3.728 1.881 8734
-0.174 3.593 1.816 5760
-0.181 3.726 1.867 9303
-0.174 3.590 1.803 4436
-0.180 3.717 1.849 8875
-0.146 3.015 1.521 3326
-0.181 3.736 1.845 6828
-0.147 3.019 1.513 2837
-0.182 3.756 1.841 6684
-0.189 3.892 1.904 6481
-0.189 3.897 1.892 7441
-0.183 3.761 1.830 6528
-0.190 3.910 1.885 5566
-0.183 3.773 1.823 4884
-0.190 3.915 1.873 4405
-0.183 3.778 1.812 4190
-0.190 3.912 1.859 5087
-0.183 3.775 1.798 3373
-0.196 4.033 1.899 4988
-0.189 3.896 1.838 4285
-0.196 4.038 1.887 4705
-0.189 3.901 1.827 3725
-0.191 3.927 1.825 4352
-0.197 4.065 1.885 3873
-0.197 4.056 1.867 5259
-0.190 3.918 1.807 3408
-0.197 4.061 1.855 5581
-0.190 3.923 1.796 2692
-0.197 4.066 1.843 4321
-0.191 3.927 1.785 2140
-0.202 4.151 1.865 4635
-0.195 4.012 1.807 3906
-0.206 4.243 1.890 5735
-0.198 4.083 1.823 3886
-0.207 4.256 1.881 5431
-0.198 4.088 1.811 3307
-0.208 4.275 1.874 6257
-0.199 4.100 1.802 2973
-0.209 4.310 1.874 8055
-0.202 4.171 1.817 2870
-0.210 4.322 1.865 7366
-0.203 4.183 1.808 3257
-0.211 4.349 1.861 5970
-0.204 4.195 1.799 2008
-0.211 4.354 1.848 5781
-0.218 4.494 1.904 2673
-0.216 4.455 1.873 5737
-0.210 4.315 1.818 2582
-0.220 4.534 1.889 7338
-0.212 4.371 1.826 3691
-0.219 4.502 1.862 9754
-0.212 4.362 1.808 2714
-0.219 4.507 1.849 8174
-0.212 4.366 1.795 1989
-0.223 4.593 1.867 5985
-0.215 4.423 1.802 2281
-0.224 4.613 1.859 9580
-0.215 4.435 1.792 2599
-0.225 4.625 1.849 7706
-0.231 4.766 1.901 2375
-0.227 4.675 1.852 8644
-0.234 4.816 1.904 2406
-0.228 4.687 1.841 8484
-0.235 4.843 1.898 3909
-0.228 4.699 1.830 5536
-0.235 4.841 1.881 4965
-0.235 4.846 1.867 4433
-0.228 4.704 1.817 3134
-0.231 4.761 1.822 4485
-0.241 4.955 1.891 1839
-0.234 4.826 1.829 3339
-0.242 4.975 1.882 2050
-0.236 4.868 1.828 6110
-0.244 5.017 1.880 1884
-0.237 4.881 1.817 4582
-0.247 5.090 1.889 3092
-0.248 5.110 1.880 6095
-0.241 4.968 1.831 1630
-0.248 5.115 1.865 6452
-0.237 4.875 1.783 1667
-0.249 5.120 1.850 4612
-0.239 4.917 1.782 2219
-0.248 5.110 1.830 3358
-0.255 5.252 1.878 2192
-0.255 5.250 1.860 3948
-0.248 5.107 1.813 2621
-0.254 5.240 1.840 5105
-0.261 5.383 1.887 2366
-0.255 5.245 1.825 4188
-0.266 5.478 1.901 3270
-0.261 5.370 1.848 4112
-0.268 5.513 1.894 2412
-0.262 5.390 1.838 3623
-0.272 5.594 1.902 2636
-0.272 5.599 1.886 3724
-0.265 5.455 1.841 2971
-0.272 5.604 1.870 3125
-0.265 5.460 1.825 2010
-0.279 5.752 1.898 2770
-0.272 5.609 1.854 1562
-0.280 5.757 1.881 3350
-0.287 5.901 1.925 2713
-0.281 5.793 1.874 4691
-0.288 5.937 1.917 1746
-0.282 5.798 1.857 4302
-0.288 5.942 1.900 1696
-0.281 5.780 1.834 2554
-0.298 6.136 1.939 2002
-0.308 6.339 1.979 1832
-0.301 6.195 1.937 1765
-0.302 6.223 1.925 2515
-0.309 6.367 1.967 1638
-0.303 6.243 1.912 2251
-0.310 6.388 1.953 2170
-0.310 6.393 1.935 3861
-0.299 6.149 1.866 2253
-0.310 6.391 1.914 3465
-0.327 6.741 2.012 2059
-0.327 6.739 1.990 3082
-0.308 6.350 1.883 2683
-0.329 6.767 1.977 2600
-0.309 6.355 1.864 2456
-0.335 6.910 1.995 3603
-0.328 6.765 1.955 2151
-0.336 6.915 1.974 3702
-0.343 7.060 2.013 1968
-0.337 6.936 1.958 3308
-0.353 7.264 2.045 2334
-0.337 6.949 1.940 4321
-0.353 7.278 2.026 2485
-0.338 6.961 1.922 3203
-0.354 7.283 2.005 2582
-0.354 7.288 1.984 2006
-0.382 7.871 2.132 1784
-0.382 7.869 2.108 2847
-0.373 7.685 2.061 1986
-0.382 7.859 2.081 2181
-0.365 7.522 1.997 1538
-0.386 7.942 2.077 3065
-0.400 8.234 2.149 1833
-0.385 7.940 2.052 2646
-0.400 8.239 2.125 1919
-0.401 8.253 2.103 1712
-0.387 7.961 2.033 1531
-0.395 8.135 2.050 1751
-0.409 8.428 2.119 1437
-0.395 8.141 2.026 1768
-0.409 8.434 2.094 1128
-0.426 8.778 2.148 1350
-0.396 8.146 2.002 1070
-0.427 8.800 2.126 1601
-0.405 8.345 2.022 1166
-0.429 8.828 2.105 1743
-0.437 8.990 2.142 1494
-0.437 8.996 2.115 2050
-0.444 9.143 2.148 1345
-0.437 9.002 2.089 2045
-0.450 9.265 2.147 1621
-0.455 9.371 2.141 1708
-0.438 9.015 2.065 1264
-0.468 9.648 2.171 1677
-0.455 9.369 2.112 1274
-0.469 9.661 2.145 3294
-0.483 9.948 2.205 1004
-0.469 9.667 2.117 3157
-0.491 10.116 2.209 1315
-0.470 9.680 2.090 2092
-0.491 10.114 2.178 1354
-0.470 9.686 2.062 1212
-0.521 10.733 2.271 1190
-0.535 11.026 2.296 1567
-0.521 10.731 2.238 1426
-0.535 11.025 2.263 1709
-0.520 10.714 2.203 1327
-0.535 11.023 2.229 1648
-0.548 11.287 2.279 1134
-0.549 11.317 2.251 1777
-0.536 11.037 2.198 1429
-0.550 11.331 2.219 2036
-0.537 11.051 2.168 1521
-0.536 11.041 2.133 1586
-0.550 11.321 2.184 1265
-0.536 11.047 2.101 1075
-0.582 11.997 2.270 906
-0.568 11.691 2.180 907
-0.584 12.018 2.238 828
-0.622 12.811 2.339 895
-0.622 12.818 2.301 970
-0.669 13.776 2.422 971
-0.674 13.876 2.397 1031
-0.665 13.689 2.367 896
-0.665 13.687 2.326 1064
-0.674 13.890 2.358 1010
-0.666 13.709 2.288 976
-0.673 13.858 2.312 909
-0.680 14.012 2.294 865
-0.667 13.731 2.251 779
-0.106 2.334 1.821 1871
-0.107 2.365 1.833 4840
-0.102 2.244 1.744 975
-0.108 2.376 1.831 6564
-0.114 2.504 1.924 1388
-0.111 2.445 1.870 8171
-0.104 2.298 1.763 1651
-0.112 2.457 1.868 10765
-0.105 2.302 1.757 1104
-0.112 2.474 1.870 11415
-0.107 2.352 1.783 1906
-0.113 2.486 1.867 12944
-0.107 2.363 1.780 2551
-0.113 2.491 1.860 12944
-0.108 2.368 1.774 2551
-0.113 2.490 1.849 11631
-0.107 2.366 1.762 1664
-0.112 2.469 1.823 12424
-0.118 2.592 1.909 2317
-0.113 2.480 1.821 12862
-0.118 2.603 1.907 2579
-0.113 2.491 1.818 13593
-0.119 2.622 1.908 3283
-0.113 2.496 1.811 10983
-0.119 2.620 1.896 3841
-0.114 2.514 1.813 8978
-0.120 2.638 1.897 3870
-0.114 2.519 1.806 8978
-0.120 2.644 1.890 4167
-0.115 2.524 1.799 5916
-0.120 2.649 1.882 2986
-0.118 2.608 1.844 4883
-0.113 2.483 1.761 1629
-0.118 2.599 1.828 5393
-0.124 2.725 1.911 1454
-0.118 2.598 1.816 6217
-0.124 2.723 1.899 1623
-0.119 2.609 1.813 7428
-0.124 2.735 1.895 1712
-0.119 2.621 1.810 9006
-0.125 2.747 1.892 1817
-0.120 2.632 1.806 9687
-0.125 2.758 1.888 3135
-0.120 2.644 1.803 10704
-0.126 2.770 1.884 4257
-0.121 2.655 1.800 8231
-0.126 2.782 1.881 4549
-0.123 2.707 1.822 7138
-0.129 2.834 1.902 2381
-0.123 2.712 1.814 8304
-0.129 2.846 1.899 3349
-0.123 2.710 1.802 9489
-0.130 2.857 1.895 4800
-0.124 2.721 1.799 8441
-0.130 2.863 1.886 4856
-0.124 2.726 1.791 7412
-0.130 2.868 1.878 4911
-0.124 2.731 1.783 5382
-0.130 2.859 1.862 3923
-0.127 2.790 1.808 3679
-0.133 2.932 1.895 3449
-0.133 2.937 1.886 5773
-0.125 2.747 1.771 3033
-0.134 2.942 1.878 8097
-0.125 2.752 1.764 2727
-0.134 2.940 1.865 9995
-0.128 2.811 1.788 2155
-0.134 2.945 1.857 12014
-0.140 3.088 1.942 2343
-0.134 2.950 1.848 10793
-0.141 3.100 1.937 2800
-0.134 2.955 1.840 9572
-0.141 3.112 1.932 3353
-0.135 2.967 1.835 7332
-0.142 3.124 1.927 2989
-0.136 2.986 1.835 4202
-0.143 3.143 1.926 4055
-0.143 3.148 1.917 5189
-0.137 3.018 1.842 4023
-0.143 3.147 1.904 6057
-0.137 3.016 1.829 3182
-0.143 3.145 1.891 7169
-0.136 2.993 1.805 2723
-0.143 3.150 1.882 6185
-0.137 3.019 1.808 3033
-0.142 3.134 1.861 5527
-0.136 3.003 1.788 1963
-0.144 3.174 1.871 5965
-0.138 3.043 1.798 2733
-0.145 3.186 1.866 6932
-0.151 3.331 1.946 2877
-0.148 3.253 1.891 7766
-0.154 3.385 1.963 2400
-0.148 3.265 1.886 8329
-0.154 3.397 1.957 2165
-0.150 3.305 1.895 8960
-0.144 3.173 1.824 3597
-0.151 3.324 1.893 7443
-0.145 3.185 1.818 3495
-0.151 3.322 1.880 4343
-0.138 3.043 1.731 3397
-0.146 3.223 1.815 3928
-0.138 3.048 1.722 3567
-0.151 3.326 1.857 4267
-0.139 3.059 1.717 3200
-0.152 3.352 1.858 7168
-0.159 3.492 1.931 2856
-0.153 3.364 1.852 8894
-0.159 3.504 1.925 4105
-0.155 3.404 1.861 8286
-0.161 3.537 1.929 3052
-0.156 3.430 1.862 7624
-0.150 3.296 1.793 1753
-0.158 3.470 1.870 7624
-0.152 3.336 1.802 3368
-0.158 3.482 1.863 6690
-0.152 3.348 1.796 2423
-0.160 3.530 1.874 8502
-0.166 3.664 1.941 2407
-0.161 3.535 1.864 10121
-0.167 3.677 1.934 3702
-0.161 3.547 1.857 7845
-0.167 3.682 1.924 4379
-0.165 3.623 1.882 8185
-0.158 3.488 1.816 4325
-0.166 3.657 1.885 7309
-0.136 3.002 1.568 3757
-0.167 3.676 1.882 8442
-0.136 2.999 1.556 3388
-0.167 3.681 1.871 7658
-0.136 2.996 1.544 3846
-0.170 3.736 1.884 8709
-0.164 3.600 1.820 5763
-0.170 3.734 1.870 9159
-0.163 3.598 1.806 4080
-0.169 3.725 1.853 7994
-0.137 3.015 1.521 3340
-0.169 3.730 1.842 6009
-0.137 3.012 1.509 3242
-0.176 3.886 1.900 6650
-0.170 3.749 1.838 5711
-0.177 3.898 1.892 7311
-0.171 3.754 1.827 6400
-0.178 3.917 1.888 5789
-0.171 3.773 1.823 4752
-0.178 3.922 1.876 4814
-0.172 3.785 1.815 3912
-0.178 3.920 1.862 5401
-0.172 3.783 1.801 3356
-0.178 3.918 1.847 4787
-0.184 4.055 1.908 4048
-0.184 4.046 1.890 4458
-0.178 3.908 1.830 3666
-0.178 3.928 1.825 4132
-0.185 4.066 1.885 3509
-0.180 3.955 1.823 4894
-0.186 4.093 1.882 3130
-0.184 4.061 1.855 5208
-0.178 3.923 1.796 2967
-0.181 3.986 1.809 4088
-0.189 4.154 1.880 3209
-0.189 4.151 1.865 4809
-0.181 3.991 1.798 3351
-0.193 4.244 1.890 6101
-0.185 4.083 1.823 3443
-0.193 4.256 1.881 5933
-0.186 4.088 1.811 2877
-0.194 4.276 1.874 6635
-0.187 4.108 1.805 2697
-0.196 4.318 1.877 8394
-0.190 4.179 1.820 3411
-0.197 4.330 1.868 8002
-0.190 4.191 1.811 3618
-0.197 4.343 1.858 6215
-0.191 4.196 1.799 2135
-0.198 4.355 1.848 5317
-0.204 4.495 1.904 2885
-0.202 4.455 1.873 5751
-0.196 4.316 1.818 2026
-0.206 4.534 1.889 6880
-0.199 4.372 1.826 3285
-0.204 4.495 1.859 9470
-0.198 4.355 1.805 2610
-0.205 4.507 1.849 8422
-0.198 4.367 1.795 1900
-0.208 4.586 1.864 6521
-0.201 4.416 1.799 2015
-0.209 4.606 1.856 10246
-0.203 4.466 1.803 2200
-0.210 4.633 1.851 8272
-0.217 4.774 1.904 2315
-0.212 4.675 1.852 9242
-0.219 4.816 1.904 2466
-0.213 4.688 1.841 8814
-0.220 4.836 1.895 4148
-0.213 4.700 1.830 5460
-0.220 4.841 1.881 5417
-0.220 4.846 1.867 4776
-0.214 4.705 1.817 3164
-0.216 4.762 1.822 4550
-0.225 4.963 1.893 1561
-0.221 4.864 1.842 3205
-0.214 4.722 1.792 1919
-0.221 4.869 1.828 5865
-0.228 5.026 1.883 1857
-0.222 4.881 1.817 4584
-0.231 5.090 1.889 3013
-0.232 5.110 1.880 5637
-0.221 4.864 1.795 1778
-0.232 5.116 1.865 5706
-0.221 4.876 1.783 1951
-0.233 5.121 1.850 4443
-0.223 4.918 1.782 2693
-0.232 5.118 1.833 3378
-0.240 5.291 1.890 2226
-0.238 5.251 1.860 3477
-0.245 5.393 1.907 2556
-0.238 5.241 1.840 4263
-0.245 5.383 1.887 2996
-0.244 5.366 1.864 3720
-0.237 5.223 1.818 3159
-0.244 5.371 1.848 3760
-0.250 5.514 1.894 2317
-0.245 5.398 1.840 3221
-0.254 5.594 1.902 2762
-0.254 5.599 1.886 3557
-0.246 5.411 1.827 2769
-0.255 5.605 1.870 2905
-0.248 5.461 1.825 1925
-0.261 5.753 1.898 2669
-0.250 5.511 1.823 1560
-0.267 5.879 1.918 3216
-0.261 5.736 1.874 2547
-0.263 5.794 1.874 4307
-0.270 5.937 1.917 1666
-0.263 5.799 1.857 4104
-0.270 5.943 1.900 1807
-0.268 5.902 1.869 2702
-0.262 5.758 1.827 1921
-0.282 6.211 1.941 1734
-0.289 6.355 1.983 1655
-0.283 6.224 1.925 2426
-0.289 6.368 1.967 1679
-0.289 6.373 1.949 2331
-0.283 6.229 1.907 2316
-0.290 6.386 1.932 3923
-0.280 6.158 1.868 2536
-0.290 6.384 1.912 3554
-0.280 6.163 1.850 2164
-0.306 6.747 1.992 3309
-0.289 6.366 1.887 2473
-0.307 6.768 1.977 2999
-0.314 6.913 2.017 2710
-0.314 6.911 1.995 4029
-0.307 6.766 1.955 2344
-0.314 6.916 1.974 4463
-0.308 6.771 1.936 2058
-0.315 6.929 1.956 3881
-0.330 7.258 2.043 2575
-0.316 6.950 1.940 4383
-0.331 7.279 2.026 2614
-0.316 6.955 1.920 3081
-0.331 7.284 2.005 2559
-0.331 7.289 1.984 2000
-0.349 7.688 2.086 1921
-0.358 7.878 2.110 2700
-0.349 7.694 2.063 2307
-0.357 7.860 2.081 2004
-0.341 7.507 1.993 1593
-0.361 7.943 2.077 2849
-0.374 8.235 2.149 1723
-0.361 7.941 2.052 2241
-0.374 8.241 2.125 1768
-0.375 8.254 2.103 1553
-0.362 7.962 2.033 1374
-0.370 8.137 2.050 1783
-0.383 8.429 2.119 1353
-0.370 8.142 2.026 1896
-0.382 8.412 2.089 1244
-0.398 8.772 2.146 1359
-0.370 8.148 2.002 1122
-0.400 8.809 2.127 1483
-0.379 8.346 2.022 1081
-0.401 8.837 2.107 1747
-0.409 8.999 2.143 1460
-0.409 8.998 2.115 2000
-0.415 9.144 2.148 1417
-0.409 9.003 2.089 2001
-0.421 9.266 2.147 1789
-0.421 9.272 2.120 1611
-0.410 9.017 2.065 1214
-0.438 9.649 2.171 1618
-0.426 9.378 2.114 1272
-0.439 9.663 2.145 3261
-0.452 9.949 2.205 999
-0.439 9.668 2.117 3026
-0.460 10.118 2.209 1309
-0.440 9.682 2.090 1927
-0.459 10.116 2.178 1377
-0.488 10.742 2.273 1193
-0.470 10.355 2.195 1162
-0.501 11.020 2.295 1653
-0.471 10.361 2.165 1433
-0.501 11.026 2.263 1745
-0.469 10.328 2.127 1241
-0.501 11.033 2.231 1665
-0.492 10.838 2.194 1050
-0.514 11.318 2.251 1524
-0.501 11.039 2.198 1398
-0.515 11.332 2.219 1861
-0.502 11.052 2.168 1446
-0.502 11.043 2.133 1508
-0.514 11.323 2.184 1218
-0.502 11.048 2.101 1047
-0.566 12.458 2.352 941
-0.531 11.701 2.182 901
-0.547 12.036 2.241 821
-0.582 12.813 2.339 1019
-0.582 12.820 2.301 1130
-0.626 13.785 2.423 905
-0.583 12.834 2.265 799
-0.630 13.878 2.397 993
-0.622 13.691 2.367 858
-0.622 13.689 2.326 1003
-0.631 13.892 2.358 951
-0.629 13.844 2.309 1026
-0.622 13.696 2.286 890
-0.637 14.014 2.294 874
-0.629 13.850 2.269 806
-0.102 2.335 1.821 2208
-0.103 2.365 1.833 6079
-0.098 2.244 1.744 1011
-0.104 2.376 1.831 8407
-0.098 2.255 1.742 1311
-0.107 2.452 1.875 8588
-0.100 2.291 1.759 1813
-0.107 2.457 1.868 11469
-0.100 2.296 1.752 1190
-0.108 2.468 1.865 11856
-0.102 2.346 1.778 1398
-0.108 2.480 1.863 12928
-0.103 2.357 1.776 1944
-0.108 2.485 1.856 12928
-0.103 2.362 1.769 1944
-0.109 2.490 1.849 11108
-0.103 2.367 1.762 1669
-0.108 2.469 1.823 10587
-0.113 2.592 1.909 2031
-0.108 2.480 1.821 11452
-0.114 2.604 1.907 2457
-0.109 2.492 1.818 12491
-0.114 2.622 1.908 3359
-0.109 2.496 1.811 10355
-0.114 2.620 1.896 4154
-0.110 2.508 1.808 8557
-0.115 2.632 1.893 4788
-0.110 2.519 1.806 8557
-0.115 2.644 1.890 4716
-0.110 2.524 1.799 5708
-0.116 2.649 1.882 3415
-0.114 2.608 1.844 5486
-0.108 2.483 1.761 1633
-0.114 2.600 1.828 6021
-0.119 2.725 1.911 1913
-0.113 2.598 1.816 6850
-0.119 2.723 1.899 2170
-0.114 2.609 1.813 7913
-0.119 2.735 1.895 2199
-0.114 2.621 1.810 9082
-0.120 2.747 1.892 2236
-0.115 2.632 1.806 9668
-0.120 2.759 1.888 3492
-0.115 2.644 1.803 10655
-0.121 2.770 1.884 4506
-0.116 2.655 1.800 8398
-0.121 2.782 1.881 4701
-0.117 2.687 1.809 7223
-0.123 2.814 1.890 3572
-0.118 2.705 1.810 8308
-0.124 2.846 1.899 3417
-0.118 2.710 1.802 9542
-0.125 2.858 1.895 4900
-0.119 2.715 1.794 8402
-0.125 2.863 1.886 4920
-0.119 2.727 1.791 7371
-0.126 2.875 1.882 5013
-0.119 2.731 1.783 5357
-0.127 2.913 1.895 3894
-0.128 2.932 1.895 3733
-0.122 2.783 1.804 3691
-0.128 2.937 1.886 5825
-0.120 2.754 1.776 3153
-0.128 2.942 1.878 7917
-0.120 2.759 1.768 2899
-0.128 2.940 1.865 10145
-0.123 2.811 1.788 2248
-0.128 2.939 1.853 12456
-0.135 3.088 1.942 2460
-0.129 2.950 1.848 11315
-0.135 3.100 1.937 2832
-0.129 2.955 1.840 10198
-0.136 3.112 1.932 3302
-0.130 2.967 1.835 7556
-0.136 3.124 1.927 2932
-0.137 3.143 1.926 4164
-0.130 2.986 1.835 4081
-0.137 3.149 1.917 5491
-0.132 3.018 1.842 3784
-0.137 3.147 1.904 6686
-0.132 3.016 1.829 2969
-0.137 3.145 1.891 8116
-0.131 2.994 1.805 2340
-0.138 3.150 1.882 7066
-0.132 3.019 1.808 2553
-0.137 3.135 1.861 6215
-0.131 3.003 1.788 1569
-0.138 3.167 1.868 6919
-0.133 3.036 1.795 2223
-0.139 3.186 1.866 8152
-0.145 3.332 1.946 2975
-0.140 3.198 1.861 8272
-0.146 3.344 1.941 4506
-0.143 3.266 1.886 8621
-0.148 3.398 1.957 2029
-0.144 3.306 1.895 8929
-0.139 3.173 1.824 3735
-0.145 3.332 1.897 7535
-0.139 3.192 1.822 3892
-0.145 3.330 1.883 4463
-0.140 3.197 1.813 3580
-0.141 3.223 1.815 4328
-0.149 3.405 1.911 3228
-0.145 3.326 1.857 4516
-0.134 3.060 1.717 2339
-0.146 3.352 1.858 7797
-0.141 3.219 1.789 2593
-0.147 3.364 1.852 9669
-0.153 3.504 1.925 3581
-0.147 3.369 1.843 8673
-0.153 3.510 1.915 3743
-0.150 3.430 1.862 7662
-0.144 3.296 1.793 1680
-0.152 3.470 1.870 7610
-0.146 3.336 1.802 3203
-0.152 3.483 1.863 6389
-0.146 3.348 1.796 2251
-0.154 3.537 1.878 7817
-0.160 3.672 1.945 2167
-0.155 3.542 1.868 9121
-0.161 3.677 1.934 3491
-0.155 3.547 1.857 7164
-0.161 3.682 1.924 4197
-0.158 3.623 1.882 7749
-0.152 3.488 1.816 4191
-0.159 3.635 1.875 7131
-0.131 3.002 1.568 3765
-0.161 3.676 1.882 7850
-0.131 2.992 1.552 3313
-0.161 3.681 1.871 7603
-0.131 2.989 1.540 3531
-0.163 3.736 1.884 9001
-0.157 3.600 1.820 6315
-0.163 3.741 1.873 9118
-0.157 3.605 1.809 3942
-0.163 3.725 1.853 7224
-0.131 3.008 1.518 3167
-0.163 3.730 1.842 5475
-0.132 3.012 1.509 3291
-0.169 3.879 1.897 6448
-0.163 3.742 1.834 5204
-0.170 3.898 1.892 6889
-0.164 3.754 1.827 6412
-0.171 3.918 1.888 5777
-0.164 3.766 1.819 4758
-0.172 3.930 1.880 4958
-0.165 3.778 1.812 3730
-0.171 3.921 1.862 5584
-0.165 3.783 1.801 3269
-0.171 3.926 1.851 5106
-0.177 4.063 1.911 3277
-0.177 4.046 1.890 4091
-0.171 3.909 1.830 3483
-0.177 4.052 1.878 3559
-0.171 3.914 1.819 3236
-0.173 3.955 1.823 4573
-0.179 4.093 1.882 2654
-0.176 4.033 1.843 5410
-0.182 4.171 1.902 2123
-0.175 4.016 1.822 4240
-0.181 4.154 1.880 3435
-0.181 4.152 1.865 4850
-0.174 3.991 1.798 3053
-0.185 4.244 1.890 6360
-0.178 4.084 1.823 3351
-0.187 4.271 1.887 6296
-0.179 4.089 1.811 2726
-0.187 4.284 1.877 6592
-0.179 4.108 1.805 2447
-0.189 4.325 1.880 8518
-0.183 4.186 1.823 4309
-0.189 4.330 1.868 8348
-0.183 4.191 1.811 3919
-0.190 4.343 1.858 6233
-0.184 4.203 1.802 2242
-0.190 4.348 1.845 4780
-0.196 4.488 1.901 3449
-0.195 4.456 1.873 6132
-0.188 4.316 1.818 2396
-0.195 4.468 1.863 6933
-0.201 4.608 1.918 2280
-0.196 4.495 1.859 8996
-0.190 4.355 1.805 2065
-0.197 4.500 1.846 8094
-0.203 4.641 1.900 1868
-0.201 4.594 1.867 6844
-0.194 4.454 1.813 1934
-0.201 4.606 1.856 10751
-0.195 4.466 1.803 2385
-0.202 4.634 1.851 8912
-0.208 4.774 1.904 2343
-0.204 4.676 1.852 9430
-0.210 4.817 1.904 2412
-0.204 4.681 1.838 8644
-0.211 4.837 1.895 4304
-0.211 4.834 1.879 5827
-0.205 4.693 1.827 5386
-0.211 4.839 1.865 5182
-0.205 4.698 1.814 3215
-0.208 4.755 1.819 4470
-0.214 4.897 1.869 1547
-0.209 4.782 1.813 3010
-0.219 5.006 1.892 1718
-0.213 4.877 1.831 5448
-0.219 5.026 1.883 1892
-0.213 4.889 1.819 4643
-0.223 5.098 1.892 2879
-0.223 5.111 1.880 5066
-0.213 4.872 1.797 2205
-0.223 5.116 1.865 4952
-0.213 4.876 1.783 2370
-0.224 5.121 1.850 4220
-0.214 4.911 1.779 3275
-0.223 5.118 1.833 3489
-0.235 5.388 1.923 2301
-0.230 5.274 1.868 3071
-0.224 5.131 1.820 2778
-0.229 5.241 1.840 3790
-0.235 5.384 1.887 3157
-0.234 5.366 1.864 3801
-0.228 5.223 1.818 3029
-0.234 5.364 1.846 3298
-0.240 5.507 1.892 2486
-0.244 5.595 1.902 2902
-0.236 5.399 1.840 2849
-0.245 5.600 1.886 3441
-0.236 5.411 1.827 2704
-0.245 5.605 1.870 2642
-0.238 5.462 1.825 1947
-0.251 5.754 1.898 2306
-0.241 5.512 1.823 1631
-0.257 5.880 1.918 3485
-0.250 5.736 1.874 2364
-0.257 5.885 1.901 3951
-0.251 5.741 1.858 1602
-0.257 5.882 1.882 4238
-0.268 6.140 1.959 1781
-0.258 5.903 1.869 3298
-0.251 5.759 1.827 1775
-0.271 6.211 1.941 1714
-0.258 5.915 1.855 1621
-0.272 6.224 1.925 2313
-0.278 6.369 1.967 1808
-0.272 6.229 1.907 2410
-0.278 6.374 1.949 2353
-0.279 6.387 1.932 3636
-0.269 6.166 1.870 2924
-0.279 6.384 1.912 3313
-0.269 6.171 1.852 2433
-0.295 6.748 1.992 3631
-0.302 6.915 2.039 2598
-0.296 6.768 1.977 3418
-0.302 6.913 2.017 2816
-0.302 6.919 1.997 4273
-0.296 6.774 1.957 2780
-0.302 6.924 1.977 4924
-0.296 6.779 1.938 2438
-0.303 6.930 1.956 4247
-0.317 7.258 2.043 2846
-0.303 6.950 1.940 4428
-0.318 7.272 2.024 2657
-0.304 6.955 1.920 2879
-0.318 7.285 2.005 2437
-0.335 7.681 2.084 2357
-0.319 7.298 1.986 1809
-0.336 7.694 2.063 2871
-0.344 7.878 2.110 2458
-0.347 7.945 2.102 1780
-0.336 7.700 2.041 1750
-0.347 7.943 2.077 2473
-0.360 8.243 2.151 1482
-0.347 7.949 2.054 1750
-0.360 8.249 2.127 1554
-0.361 8.262 2.104 1393
-0.348 7.970 2.035 1257
-0.355 8.129 2.048 1758
-0.368 8.430 2.119 1197
-0.356 8.143 2.026 1909
-0.385 8.828 2.186 1308
-0.383 8.765 2.144 1386
-0.356 8.148 2.002 1158
-0.385 8.817 2.129 1541
-0.393 9.002 2.171 1214
-0.386 8.838 2.107 1910
-0.393 9.000 2.143 1526
-0.393 9.006 2.117 1988
-0.387 8.859 2.085 1421
-0.393 9.004 2.089 1878
-0.405 9.267 2.147 1757
-0.409 9.373 2.141 1561
-0.403 9.226 2.110 1157
-0.421 9.650 2.171 1525
-0.410 9.379 2.114 1352
-0.422 9.663 2.145 3104
-0.434 9.950 2.205 1086
-0.422 9.669 2.117 2770
-0.442 10.119 2.209 1300
-0.423 9.683 2.090 1728
-0.442 10.117 2.178 1404
-0.453 10.363 2.197 1184
-0.424 9.704 2.065 1183
-0.481 11.021 2.295 1566
-0.452 10.361 2.165 1429
-0.482 11.027 2.263 1625
-0.451 10.328 2.127 1224
-0.481 11.026 2.229 1601
-0.473 10.831 2.192 1054
-0.482 11.047 2.200 1380
-0.495 11.327 2.252 1311
-0.495 11.333 2.219 1779
-0.484 11.092 2.175 1423
-0.482 11.043 2.133 1445
-0.494 11.324 2.184 1263
-0.544 12.459 2.352 1037
-0.482 11.049 2.101 994
-0.511 11.702 2.182 892
-0.545 12.473 2.317 831
-0.559 12.806 2.337 1010
-0.526 12.050 2.207 782
-0.560 12.821 2.301 1151
-0.544 12.454 2.239 889
-0.602 13.787 2.423 920
-0.569 13.022 2.296 856
-0.606 13.879 2.397 976
-0.598 13.692 2.367 756
-0.604 13.831 2.348 1030
-0.597 13.682 2.324 836
-0.604 13.837 2.308 1050
-0.598 13.689 2.285 757
-0.612 14.023 2.295 831
-0.605 13.851 2.269 825
-0.098 2.335 1.821 2522
-0.099 2.365 1.833 7158
-0.094 2.244 1.744 897
-0.100 2.376 1.831 10038
-0.095 2.255 1.742 1197
-0.103 2.452 1.875 9177
-0.097 2.298 1.763 1842
-0.103 2.457 1.868 12259
-0.098 2.335 1.780 1218
-0.104 2.468 1.865 12542
-0.099 2.346 1.778 1499
-0.104 2.480 1.863 13321
-0.099 2.357 1.776 1852
-0.104 2.485 1.856 13321
-0.099 2.362 1.769 1852
-0.105 2.490 1.849 10830
-0.100 2.367 1.762 1635
-0.104 2.469 1.823 9019
-0.109 2.592 1.909 1769
-0.104 2.480 1.821 10119
-0.109 2.604 1.907 2351
-0.105 2.492 1.818 11261
-0.110 2.622 1.908 3316
-0.105 2.497 1.811 9494
-0.110 2.621 1.896 4268
-0.105 2.508 1.808 7893
-0.111 2.632 1.893 5048
-0.106 2.513 1.801 7893
-0.111 2.637 1.885 5363
-0.110 2.610 1.856 5902
-0.104 2.485 1.772 3208
-0.110 2.608 1.844 6005
-0.115 2.733 1.927 1794
-0.110 2.606 1.832 6408
-0.115 2.732 1.915 2218
-0.109 2.598 1.816 7085
-0.115 2.724 1.899 2775
-0.110 2.610 1.813 8147
-0.115 2.735 1.895 2714
-0.110 2.615 1.805 9234
-0.115 2.741 1.887 2752
-0.111 2.633 1.806 9757
-0.116 2.759 1.888 3794
-0.111 2.644 1.803 10748
-0.116 2.771 1.884 4619
-0.112 2.656 1.800 8488
-0.117 2.782 1.881 4703
-0.113 2.687 1.809 7217
-0.118 2.814 1.890 3591
-0.114 2.705 1.810 7994
-0.120 2.846 1.899 3361
-0.114 2.710 1.802 8961
-0.120 2.858 1.895 4808
-0.114 2.715 1.794 7761
-0.121 2.870 1.891 4801
-0.115 2.727 1.791 6752
-0.121 2.882 1.886 4972
-0.115 2.738 1.787 5014
-0.122 2.907 1.891 4100
-0.123 2.925 1.891 4107
-0.117 2.784 1.804 3693
-0.123 2.931 1.882 5759
-0.116 2.755 1.776 3200
-0.124 2.942 1.878 7427
-0.116 2.759 1.768 3003
-0.123 2.934 1.861 9830
-0.118 2.805 1.784 2018
-0.124 2.939 1.853 12424
-0.130 3.089 1.942 2519
-0.124 2.944 1.844 11339
-0.130 3.101 1.937 2781
-0.124 2.956 1.840 10315
-0.131 3.113 1.932 3132
-0.124 2.961 1.831 7509
-0.131 3.125 1.927 2784
-0.132 3.144 1.926 4377
-0.125 2.979 1.831 3896
-0.132 3.142 1.913 6113
-0.127 3.012 1.838 3290
-0.132 3.140 1.900 7544
-0.127 3.010 1.825 2614
-0.132 3.145 1.891 9179
-0.127 3.015 1.817 2081
-0.132 3.150 1.882 8071
-0.127 3.019 1.808 2222
-0.132 3.142 1.865 7107
-0.127 3.010 1.792 1522
-0.133 3.167 1.868 7949
-0.139 3.299 1.941 2123
-0.134 3.179 1.862 9220
-0.139 3.311 1.935 3192
-0.134 3.191 1.857 9259
-0.141 3.344 1.941 4535
-0.137 3.266 1.886 8622
-0.143 3.398 1.957 1870
-0.138 3.285 1.884 8637
-0.133 3.153 1.812 2331
-0.140 3.332 1.897 7240
-0.135 3.199 1.826 4532
-0.140 3.337 1.887 4536
-0.135 3.204 1.816 4311
-0.136 3.230 1.818 4790
-0.143 3.398 1.907 3514
-0.140 3.326 1.857 4883
-0.134 3.193 1.787 2223
-0.141 3.352 1.858 8103
-0.135 3.219 1.789 2899
-0.141 3.364 1.852 10037
-0.148 3.512 1.929 3110
-0.142 3.369 1.843 8991
-0.148 3.510 1.915 3168
-0.144 3.430 1.862 7028
-0.139 3.297 1.793 1558
-0.146 3.471 1.870 6890
-0.140 3.337 1.802 2940
-0.146 3.476 1.860 5816
-0.140 3.341 1.792 1940
-0.149 3.544 1.881 6880
-0.155 3.679 1.949 1758
-0.149 3.550 1.871 7851
-0.155 3.684 1.938 2856
-0.151 3.583 1.875 6503
-0.145 3.448 1.809 3266
-0.152 3.609 1.875 6651
-0.126 2.998 1.577 3645
-0.153 3.636 1.875 6651
-0.147 3.500 1.809 3721
-0.155 3.676 1.882 7370
-0.126 2.992 1.552 3228
-0.155 3.682 1.871 7393
-0.126 2.989 1.540 3254
-0.157 3.744 1.888 9139
-0.152 3.608 1.823 6877
