0.480 3.844 1.800 3623
0.514 4.118 1.919 1055
0.498 3.993 1.851 9364
0.481 3.856 1.792 2828
0.515 4.130 1.911 1239
0.499 3.998 1.840 8857
0.482 3.861 1.780 1831
0.516 4.135 1.899 1483
0.499 4.003 1.828 6662
0.517 4.140 1.887 2334
0.482 3.866 1.769 1136
0.514 4.124 1.865 4304
0.497 3.986 1.807 3796
0.522 4.187 1.878 4465
0.505 4.049 1.820 3035
0.524 4.199 1.869 6291
0.507 4.061 1.811 3423
0.524 4.197 1.853 6208
0.506 4.059 1.796 3305
0.541 4.335 1.911 1284
0.513 4.114 1.805 5656
0.531 4.253 1.862 4436
0.534 4.279 1.859 6848
0.515 4.126 1.796 4323
0.536 4.299 1.852 8662
0.519 4.160 1.796 3460
0.554 4.438 1.908 1122
0.542 4.340 1.854 7061
0.523 4.194 1.796 4449
0.560 4.486 1.913 1453
0.546 4.375 1.853 4395
0.525 4.206 1.787 3392
0.563 4.514 1.908 1704
0.564 4.519 1.895 3047
0.546 4.380 1.840 2197
0.524 4.204 1.771 1385
0.567 4.546 1.891 3897
0.546 4.377 1.825 2594
0.548 4.389 1.815 3599
0.571 4.573 1.886 3204
0.551 4.416 1.811 5708
0.572 4.585 1.875 4400
0.534 4.277 1.757 1044
0.552 4.421 1.798 7069
0.569 4.561 1.851 5415
0.586 4.700 1.904 1235
0.552 4.426 1.785 6280
0.575 4.610 1.854 4783
0.576 4.615 1.841 5538
0.553 4.431 1.772 4480
0.596 4.777 1.901 2174
0.577 4.627 1.830 6136
0.598 4.789 1.890 2882
0.553 4.435 1.759 2294
0.580 4.647 1.822 7768
0.604 4.839 1.892 2397
0.562 4.506 1.771 1786
0.583 4.674 1.817 7896
0.611 4.895 1.897 2750
0.566 4.533 1.766 2095
0.586 4.693 1.808 5163
0.614 4.923 1.891 3725
0.568 4.553 1.758 1789
0.615 4.928 1.876 4421
0.586 4.698 1.795 3549
0.613 4.911 1.854 4206
0.587 4.703 1.781 2451
0.630 5.051 1.904 1720
0.609 4.878 1.827 2982
0.630 5.049 1.887 2908
0.591 4.737 1.778 2190
0.636 5.099 1.887 3646
0.608 4.876 1.810 3554
0.591 4.735 1.761 1261
0.637 5.104 1.872 4487
0.610 4.888 1.798 3613
0.654 5.245 1.921 1204
0.636 5.094 1.853 3756
0.618 4.952 1.805 3163
0.653 5.235 1.901 2021
0.632 5.069 1.828 4140
0.650 5.211 1.875 3465
0.615 4.927 1.780 1392
0.647 5.186 1.850 5433
0.629 5.044 1.803 2458
0.672 5.387 1.917 1344
0.646 5.176 1.830 6629
0.672 5.385 1.899 1576
0.649 5.203 1.822 4054
0.667 5.345 1.869 1954
0.653 5.238 1.817 3172
0.671 5.380 1.863 1844
0.656 5.258 1.806 3025
0.688 5.512 1.888 1305
0.698 5.592 1.896 2279
0.655 5.247 1.786 2261
0.677 5.427 1.843 1928
0.699 5.605 1.882 3340
0.676 5.417 1.823 2634
0.700 5.610 1.865 4289
0.675 5.407 1.802 1801
0.727 5.827 1.933 1486
0.701 5.615 1.849 4229
0.729 5.840 1.918 2273
0.671 5.382 1.777 1529
0.730 5.853 1.904 2756
0.702 5.627 1.835 2395
0.730 5.850 1.884 2434
0.707 5.670 1.830 1632
0.748 5.993 1.927 1043
0.749 6.006 1.912 2135
0.728 5.833 1.860 1770
0.706 5.659 1.809 1451
0.746 5.981 1.886 2977
0.727 5.830 1.841 1294
0.764 6.124 1.928 1169
0.746 5.978 1.866 3616
0.771 6.182 1.925 1800
0.747 5.991 1.851 2958
0.772 6.187 1.907 2535
0.803 6.437 1.979 1364
0.747 5.988 1.831 2597
0.772 6.185 1.887 2285
0.804 6.442 1.960 1374
0.822 6.591 1.982 2634
0.769 6.167 1.863 1564
0.804 6.447 1.942 1538
0.748 5.993 1.814 1403
0.809 6.483 1.931 3845
0.827 6.627 1.971 2743
0.767 6.149 1.838 1428
0.845 6.770 2.011 1200
0.825 6.609 1.946 3752
0.807 6.465 1.906 2748
0.843 6.753 1.985 2405
0.768 6.154 1.820 1225
0.837 6.705 1.951 5269
0.816 6.538 1.906 2846
0.855 6.857 1.992 1931
0.782 6.265 1.831 1661
0.838 6.718 1.934 5137
0.820 6.574 1.895 2668
0.856 6.862 1.972 1854
0.890 7.136 2.046 1461
0.841 6.738 1.918 4191
0.823 6.594 1.880 2232
0.892 7.149 2.027 1676
0.866 6.944 1.973 1197
0.839 6.728 1.894 2466
0.890 7.131 2.000 1855
0.863 6.918 1.944 1796
0.908 7.276 2.038 1675
0.864 6.924 1.924 1879
0.828 6.635 1.849 1682
0.905 7.251 2.009 1589
0.887 7.106 1.972 1465
0.913 7.317 2.003 2661
0.895 7.172 1.966 1319
0.945 7.576 2.070 1217
0.864 6.929 1.904 1054
0.914 7.322 1.982 4244
0.945 7.574 2.046 2062
0.966 7.741 2.088 1408
0.895 7.178 1.945 1000
0.917 7.351 1.966 3120
0.946 7.579 2.024 2803
0.965 7.732 2.062 2645
0.964 7.730 2.037 3348
0.946 7.585 2.002 3120
0.919 7.363 1.947 2027
0.947 7.590 1.979 3009
0.966 7.743 2.017 2792
0.919 7.369 1.925 1489
0.948 7.595 1.957 2872
0.967 7.748 1.994 2700
0.988 7.916 2.035 1238
1.022 8.191 2.101 1175
0.967 7.753 1.971 2843
1.018 8.159 2.068 1907
0.947 7.593 1.933 1552
0.989 7.929 2.013 1199
0.968 7.759 1.949 2673
1.016 8.141 2.039 2342
1.048 8.401 2.100 1151
0.969 7.764 1.926 2013
1.015 8.131 2.011 1467
1.057 8.476 2.091 1373
1.059 8.489 2.068 1956
0.970 7.777 1.905 1042
1.063 8.518 2.048 1435
1.108 8.878 2.130 1250
1.108 8.884 2.104 1300
1.065 8.539 2.027 1159
1.121 8.982 2.098 2065
1.123 9.003 2.075 2667
1.095 8.780 2.027 1011
1.124 9.008 2.048 2220
1.177 9.431 2.139 1294
1.155 9.254 2.101 1264
1.098 8.801 2.004 1034
1.157 9.275 2.077 1757
1.125 9.014 2.022 1450
1.208 9.683 2.163 1434
1.177 9.437 2.111 1217
1.200 9.619 2.120 1928
1.140 9.135 2.020 1367
1.179 9.450 2.085 1272
1.160 9.296 2.053 1201
1.200 9.617 2.090 2503
1.180 9.456 2.057 1552
1.226 9.825 2.133 1339
1.140 9.140 1.993 1120
1.211 9.708 2.079 2289
1.179 9.453 2.028 1707
1.232 9.877 2.113 1427
1.232 9.875 2.083 1877
1.210 9.698 2.048 1728
1.250 10.022 2.112 1096
1.180 9.459 2.000 1009
1.231 9.865 2.051 2142
1.276 10.228 2.121 1658
1.249 10.012 2.079 1141
1.349 10.812 2.202 1627
1.278 10.241 2.093 1574
1.231 9.863 2.020 1500
1.251 10.025 2.052 1183
1.350 10.818 2.171 1706
1.298 10.401 2.092 1473
1.279 10.255 2.064 1283
1.232 9.876 1.993 1006
1.369 10.971 2.166 1424
1.293 10.361 2.053 1412
1.369 10.977 2.134 2240
1.425 11.425 2.216 1419
1.282 10.273 2.006 1129
1.371 10.990 2.103 1597
1.425 11.423 2.181 1321
1.459 11.694 2.230 1291
1.300 10.418 2.001 1092
1.460 11.700 2.196 1436
1.425 11.421 2.146 1397
1.407 11.274 2.120 1217
1.425 11.419 2.112 1212
1.452 11.636 2.149 1166
1.405 11.265 2.085 1116
1.452 11.642 2.115 1067
1.505 12.066 2.151 1126
1.431 11.469 2.051 1100
1.455 11.663 2.084 1089
1.624 13.018 2.271 1050
1.505 12.064 2.114 1049
1.704 13.659 2.294 1021
1.769 14.176 2.291 1041
0.212 1.700 0.020 1199
0.212 1.699 0.016 1698
0.212 1.699 0.011 2197
0.212 1.699 0.006 2779
0.212 1.698 0.001 3361
0.212 1.698 -0.004 3962
0.212 1.697 -0.009 4563
0.212 1.697 -0.013 4497
0.213 1.704 -0.019 4449
0.213 1.704 -0.024 4449
0.212 1.696 -0.028 3865
0.211 1.695 -0.033 3298
0.211 1.695 -0.038 2714
0.211 1.694 -0.042 2731
0.295 2.318 1.821 5011
0.295 2.323 1.814 10022
0.296 2.328 1.807 10022
0.311 2.448 1.896 1108
0.297 2.339 1.805 8685
0.313 2.460 1.893 1292
0.299 2.350 1.803 7790
0.314 2.471 1.891 1532
0.299 2.355 1.796 7313
0.315 2.476 1.884 2624
0.300 2.360 1.790 6837
0.315 2.481 1.877 4066
0.300 2.365 1.783 6837
0.319 2.512 1.888 4782
0.300 2.363 1.771 6974
0.321 2.530 1.890 4703
0.301 2.368 1.765 7223
0.323 2.542 1.887 5016
0.314 2.469 1.825 6019
0.298 2.346 1.740 3463
0.329 2.592 1.911 1961
0.314 2.474 1.818 8138
0.330 2.597 1.904 2088
0.299 2.351 1.733 1242
0.315 2.479 1.811 9346
0.331 2.602 1.896 4238
0.316 2.484 1.804 10553
0.331 2.607 1.889 6708
0.316 2.489 1.797 10553
0.332 2.612 1.881 7028
0.329 2.591 1.856 9025
0.313 2.467 1.772 5728
0.330 2.596 1.848 8918
0.314 2.472 1.765 3858
0.330 2.594 1.837 6795
0.314 2.470 1.753 2970
0.324 2.553 1.799 5909
0.340 2.678 1.881 4331
0.331 2.604 1.822 7434
0.315 2.479 1.739 1687
0.347 2.729 1.904 1491
0.332 2.616 1.818 10394
0.348 2.741 1.900 1772
0.333 2.621 1.811 11035
0.349 2.746 1.892 1697
0.334 2.625 1.803 11675
0.350 2.758 1.889 1665
0.335 2.637 1.800 9998
0.351 2.763 1.881 1785
0.336 2.648 1.797 8827
0.352 2.774 1.877 1634
0.338 2.660 1.793 6852
0.354 2.786 1.873 2935
0.344 2.704 1.811 6876
0.360 2.831 1.890 2146
0.345 2.716 1.807 5734
0.361 2.843 1.886 1695
0.353 2.781 1.837 6131
0.337 2.654 1.758 1023
0.354 2.786 1.829 5913
0.370 2.913 1.907 1257
0.355 2.791 1.820 5694
0.371 2.918 1.899 1649
0.353 2.782 1.804 4461
0.370 2.910 1.882 1553
0.351 2.760 1.780 3867
0.367 2.888 1.857 2693
0.383 3.016 1.935 1030
0.351 2.765 1.772 3235
0.368 2.893 1.849 2422
0.384 3.021 1.926 1307
0.381 2.999 1.901 2636
0.351 2.763 1.760 2634
0.378 2.977 1.877 3656
0.352 2.774 1.756 1976
0.377 2.969 1.860 5697
0.357 2.813 1.768 1378
0.382 3.007 1.871 7209
0.361 2.838 1.772 1724
0.384 3.026 1.870 8704
0.368 2.897 1.795 2187
0.386 3.038 1.866 7800
0.370 2.908 1.791 2263
0.388 3.057 1.865 6835
0.372 2.927 1.790 2740
0.390 3.068 1.860 6149
0.373 2.938 1.786 2349
0.390 3.066 1.847 5940
0.373 2.936 1.773 1473
0.406 3.197 1.921 1116
0.387 3.044 1.823 6602
0.403 3.174 1.896 3573
0.387 3.049 1.814 6886
0.404 3.179 1.887 3303
0.395 3.109 1.836 5447
0.412 3.239 1.908 1713
0.396 3.121 1.830 5511
0.413 3.251 1.903 2146
0.399 3.139 1.829 5486
0.415 3.270 1.901 1939
0.402 3.165 1.831 8332
0.419 3.296 1.902 1689
0.403 3.170 1.822 9612
0.419 3.301 1.893 1390
0.403 3.175 1.813 7470
0.420 3.306 1.883 1766
0.405 3.186 1.807 5422
0.422 3.318 1.877 2412
0.388 3.054 1.737 1159
0.401 3.156 1.780 5624
0.422 3.323 1.868 2601
0.405 3.189 1.785 4476
0.425 3.342 1.866 2185
0.388 3.057 1.716 1177
0.410 3.229 1.794 3740
0.392 3.089 1.721 2029
0.435 3.424 1.896 1633
0.409 3.219 1.777 3734
0.392 3.087 1.709 2414
0.435 3.422 1.882 2084
0.392 3.084 1.696 3407
0.410 3.231 1.772 3039
0.438 3.448 1.883 2912
0.375 2.951 1.628 1116
0.392 3.089 1.687 5678
0.441 3.474 1.884 4339
0.412 3.243 1.766 2089
0.375 2.956 1.619 1459
0.393 3.093 1.678 6925
0.444 3.493 1.881 4952
0.410 3.227 1.746 1884
0.376 2.960 1.611 1490
0.394 3.098 1.669 8051
0.451 3.547 1.896 7574
0.434 3.414 1.828 1950
0.410 3.231 1.737 1480
0.452 3.560 1.889 9517
0.394 3.102 1.660 9306
0.377 2.968 1.594 1600
0.435 3.426 1.822 1338
0.453 3.565 1.878 9939
0.395 3.106 1.651 9435
0.378 2.972 1.585 1684
0.454 3.577 1.872 9204
0.396 3.118 1.646 8716
0.379 2.984 1.580 1738
0.471 3.711 1.937 1361
0.460 3.624 1.882 7114
0.398 3.129 1.640 6351
0.443 3.490 1.816 2649
0.380 2.995 1.575 2417
0.463 3.643 1.878 9392
0.384 3.020 1.576 3399
0.401 3.155 1.642 2497
0.444 3.495 1.806 2291
0.465 3.662 1.874 14977
0.384 3.024 1.568 3069
0.448 3.528 1.810 2054
0.401 3.159 1.632 1218
0.468 3.682 1.871 21185
0.385 3.029 1.559 2797
0.451 3.547 1.806 1696
0.485 3.817 1.935 1450
0.469 3.694 1.863 14387
0.385 3.033 1.550 2325
0.486 3.829 1.927 1612
0.452 3.559 1.799 1407
0.473 3.720 1.863 8545
0.455 3.585 1.799 1844
0.386 3.037 1.541 1414
0.490 3.855 1.926 1046
0.473 3.725 1.852 7236
0.456 3.590 1.789 1129
0.490 3.861 1.915 1114
0.475 3.737 1.844 6499
0.492 3.873 1.907 1517
0.475 3.742 1.833 6103
0.493 3.878 1.896 2682
0.485 3.819 1.855 7134
0.502 3.955 1.917 1838
0.468 3.683 1.793 1503
0.486 3.823 1.844 6448
0.503 3.960 1.906 2180
0.468 3.687 1.783 1041
0.486 3.828 1.833 4631
0.504 3.965 1.894 3031
0.504 3.970 1.883 4112
0.487 3.833 1.822 4038
0.489 3.845 1.814 4940
0.506 3.982 1.874 4794
0.506 3.980 1.860 7199
0.488 3.843 1.800 3669
0.523 4.117 1.919 1383
0.507 3.992 1.851 9036
0.490 3.855 1.792 2564
0.525 4.129 1.911 1583
0.508 3.997 1.840 8538
0.525 4.134 1.899 1661
0.490 3.860 1.780 1626
0.508 4.002 1.828 6774
0.526 4.139 1.887 2276
0.524 4.123 1.865 4357
0.506 3.985 1.807 4200
0.532 4.186 1.878 4799
0.508 3.997 1.799 2777
0.533 4.198 1.869 6247
0.516 4.060 1.811 2958
0.533 4.196 1.853 5742
0.515 4.057 1.796 2991
0.551 4.334 1.911 1404
0.524 4.128 1.811 5729
0.542 4.266 1.868 3960
0.544 4.278 1.859 7164
0.526 4.140 1.802 4562
0.545 4.290 1.849 9035
0.527 4.152 1.793 3574
0.571 4.495 1.932 1090
0.549 4.325 1.848 6734
0.532 4.186 1.793 4480
0.572 4.500 1.918 1527
0.555 4.366 1.850 3745
0.537 4.227 1.795 3271
0.572 4.505 1.905 1787
0.576 4.532 1.901 2964
0.558 4.393 1.846 2388
0.540 4.254 1.792 1552
0.578 4.552 1.893 4195
0.557 4.383 1.828 3028
0.560 4.410 1.823 4220
0.581 4.571 1.886 3602
0.543 4.271 1.770 1252
0.561 4.415 1.811 5719
0.582 4.584 1.875 4427
0.543 4.275 1.757 1183
0.562 4.420 1.798 6543
0.580 4.567 1.854 5222
0.562 4.425 1.785 5686
0.585 4.608 1.854 5071
0.606 4.770 1.915 1195
0.586 4.613 1.841 6266
0.563 4.429 1.772 3828
0.607 4.775 1.901 2402
0.588 4.626 1.830 6464
0.607 4.781 1.887 2952
0.563 4.434 1.759 1829
0.590 4.645 1.822 7457
0.608 4.786 1.873 2332
0.572 4.505 1.771 1584
0.594 4.672 1.817 7095
0.622 4.894 1.897 2713
0.576 4.532 1.766 1874
0.596 4.692 1.808 4751
0.625 4.921 1.891 3642
0.578 4.551 1.758 1503
0.626 4.926 1.876 4305
0.597 4.697 1.795 3804
0.624 4.909 1.854 4084
0.598 4.709 1.784 2682
0.642 5.050 1.904 1717
0.620 4.877 1.827 2944
0.641 5.048 1.887 2905
0.602 4.736 1.778 1792
0.647 5.090 1.885 3716
0.619 4.874 1.810 3622
0.601 4.733 1.761 1090
0.648 5.102 1.872 4366
0.621 4.887 1.798 3666
0.635 4.996 1.820 4130
0.653 5.137 1.868 2557
0.617 4.854 1.772 1251
0.671 5.278 1.916 1236
0.644 5.068 1.828 4144
0.662 5.209 1.875 3577
0.626 4.926 1.780 1435
0.659 5.184 1.850 4714
0.641 5.043 1.803 2321
0.683 5.378 1.915 1227
0.657 5.174 1.830 5454
0.675 5.316 1.877 1744
0.662 5.209 1.825 3702
0.680 5.351 1.871 2030
0.666 5.244 1.819 3281
0.684 5.386 1.865 1750
0.670 5.271 1.811 3021
0.688 5.413 1.857 1342
0.711 5.593 1.914 1306
0.710 5.591 1.896 2351
0.674 5.306 1.805 2208
0.692 5.448 1.851 1758
0.712 5.603 1.882 3532
0.688 5.416 1.823 2028
0.712 5.608 1.865 4548
0.740 5.826 1.933 1617
0.687 5.405 1.802 1461
0.713 5.613 1.849 4205
0.742 5.838 1.918 2415
0.684 5.380 1.777 1142
0.743 5.851 1.904 2814
0.717 5.641 1.840 2421
0.744 5.856 1.887 2341
0.720 5.668 1.830 1573
0.762 5.999 1.930 1015
0.763 6.004 1.912 1987
0.744 5.854 1.867 1595
0.715 5.628 1.800 1170
0.760 5.979 1.886 2845
0.741 5.836 1.843 1379
0.778 6.123 1.928 1120
0.715 5.625 1.781 1013
0.760 5.984 1.868 3687
0.786 6.188 1.928 1655
0.742 5.841 1.826 1137
0.818 6.437 2.000 1049
0.761 5.989 1.851 3006
0.786 6.186 1.907 2230
0.817 6.427 1.977 1494
0.760 5.979 1.829 2964
0.797 6.274 1.913 2038
0.816 6.425 1.956 1383
0.779 6.130 1.872 1255
0.837 6.589 1.982 3089
0.761 5.992 1.814 1683
0.797 6.271 1.893 1614
0.819 6.445 1.942 1593
0.823 6.481 1.931 4096
0.842 6.625 1.971 2914
0.781 6.148 1.838 1602
0.799 6.292 1.878 1263
0.839 6.607 1.946 4140
0.821 6.463 1.906 3379
0.858 6.751 1.985 2074
0.794 6.251 1.848 1406
0.852 6.703 1.951 4995
0.830 6.537 1.906 2912
0.870 6.847 1.990 1835
0.796 6.264 1.831 1679
0.853 6.716 1.934 5108
0.832 6.549 1.889 2545
0.872 6.860 1.972 1843
0.912 7.179 2.058 1551
0.856 6.737 1.918 3864
0.837 6.592 1.880 2458
0.912 7.177 2.035 1853
0.882 6.942 1.973 1203
0.842 6.628 1.868 3028
0.860 6.772 1.906 2013
0.906 7.129 2.000 1916
0.924 7.274 2.038 1825
0.843 6.633 1.849 2137
0.924 7.271 2.015 1945
0.879 6.922 1.924 1739
0.905 7.127 1.977 1703
0.928 7.307 2.002 2821
0.910 7.163 1.964 1258
0.961 7.566 2.068 1222
0.881 6.934 1.906 1158
0.930 7.320 1.982 4276
0.962 7.572 2.046 2099
0.983 7.739 2.088 1267
0.912 7.176 1.945 1056
0.963 7.577 2.024 2926
0.933 7.341 1.965 2725
0.981 7.722 2.060 2242
0.963 7.583 2.002 3207
0.982 7.727 2.037 2830
0.937 7.377 1.951 1831
1.005 7.911 2.083 1238
0.964 7.588 1.979 3048
0.982 7.733 2.015 2485
0.936 7.367 1.925 1365
1.005 7.908 2.058 1361
0.965 7.593 1.957 2888
0.984 7.746 1.994 2539
1.006 7.922 2.036 1979
1.041 8.197 2.103 1170
0.985 7.751 1.971 2709
1.034 8.141 2.064 1921
1.007 7.927 2.013 1689
0.964 7.591 1.933 1610
0.985 7.757 1.949 2511
1.034 8.139 2.039 2411
1.068 8.407 2.101 1178
1.010 7.948 1.994 1042
0.986 7.762 1.926 1773
1.033 8.129 2.011 1527
1.077 8.474 2.091 1306
1.112 8.749 2.155 1001
1.078 8.487 2.068 1875
1.082 8.515 2.048 1308
1.129 8.883 2.131 1205
1.131 8.904 2.109 1376
1.087 8.559 2.032 1159
1.143 8.994 2.101 2367
1.144 9.008 2.076 2865
1.144 9.006 2.048 2155
1.198 9.428 2.139 1318
1.119 8.806 2.006 1172
1.175 9.252 2.101 1151
1.177 9.265 2.075 1612
1.198 9.426 2.109 1395
1.145 9.011 2.022 1346
1.230 9.680 2.163 1236
1.222 9.617 2.120 1961
1.199 9.440 2.083 1498
1.160 9.132 2.020 1338
1.180 9.286 2.051 1085
1.221 9.615 2.090 2668
1.201 9.453 2.057 1766
1.161 9.137 1.993 1125
1.240 9.761 2.120 1065
1.233 9.705 2.079 2294
1.201 9.451 2.028 2040
1.255 9.882 2.115 1229
1.274 10.028 2.144 1000
1.254 9.872 2.083 1788
1.231 9.687 2.046 1655
1.201 9.456 2.000 1311
1.253 9.863 2.051 2114
1.299 10.225 2.121 1580
1.272 10.009 2.079 1052
1.254 9.868 2.022 1593
1.301 10.238 2.093 1540
1.373 10.809 2.202 1393
1.320 10.393 2.123 1196
1.321 10.398 2.092 1517
1.374 10.815 2.171 1505
1.260 9.920 2.002 1301
1.302 10.252 2.064 1288
1.393 10.968 2.166 1644
1.316 10.358 2.053 1433
1.256 9.886 1.966 1092
1.395 10.981 2.136 2550
1.451 11.422 2.216 1359
1.306 10.278 2.007 1158
1.334 10.502 2.048 1082
1.397 10.995 2.105 1909
1.485 11.691 2.230 1352
1.451 11.420 2.181 1325
1.323 10.415 2.001 1128
1.464 11.526 2.165 1553
1.485 11.689 2.194 1514
1.433 11.279 2.122 1184
1.398 11.000 2.073 1039
1.478 11.633 2.149 1610
1.450 11.416 2.112 1189
1.431 11.261 2.085 1132
1.479 11.639 2.115 1351
1.481 11.660 2.084 1304
1.457 11.466 2.051 1147
1.654 13.022 2.272 1002
1.800 14.172 2.291 1215
0.215 1.691 0.016 1250
0.216 1.699 0.011 1517
0.215 1.690 0.007 1823
0.215 1.690 0.002 2132
0.215 1.690 -0.003 2539
0.215 1.689 -0.008 2946
0.216 1.697 -0.013 3091
0.215 1.696 -0.018 3246
0.215 1.696 -0.023 3246
0.215 1.695 -0.028 3014
0.215 1.695 -0.033 2783
0.215 1.694 -0.038 2409
0.215 1.694 -0.042 2643
0.300 2.317 1.821 5473
0.301 2.322 1.814 10946
0.302 2.333 1.812 11039
0.304 2.345 1.810 9792
0.319 2.466 1.898 1113
0.304 2.349 1.803 8790
0.321 2.477 1.896 1450
0.305 2.354 1.796 7836
0.320 2.476 1.884 2483
0.305 2.359 1.790 6881
0.321 2.481 1.877 3869
0.306 2.364 1.783 6881
0.325 2.511 1.888 4743
0.306 2.362 1.771 7295
0.326 2.516 1.880 4589
0.306 2.367 1.765 7751
0.329 2.541 1.887 4832
0.309 2.384 1.767 5790
0.325 2.507 1.852 4863
0.320 2.473 1.818 7472
0.337 2.603 1.908 1963
0.304 2.350 1.733 1399
0.321 2.478 1.811 8524
0.337 2.601 1.896 3940
0.321 2.483 1.804 9577
0.337 2.606 1.889 6210
0.322 2.488 1.797 9577
0.338 2.611 1.881 6496
0.335 2.590 1.856 8372
0.319 2.466 1.772 5278
0.336 2.595 1.848 8190
0.320 2.471 1.765 3600
0.335 2.587 1.832 6445
0.319 2.463 1.749 2413
0.330 2.553 1.799 6607
0.347 2.677 1.881 3692
0.337 2.603 1.822 7403
0.321 2.479 1.739 1726
0.353 2.728 1.904 1362
0.339 2.615 1.818 10464
0.355 2.740 1.900 1618
0.322 2.490 1.736 1125
0.339 2.620 1.811 11050
0.355 2.745 1.892 1477
0.340 2.625 1.803 11637
0.356 2.750 1.884 1336
0.341 2.636 1.800 9765
0.358 2.762 1.881 1598
0.343 2.647 1.797 8525
0.359 2.773 1.877 1628
0.344 2.659 1.793 6589
0.361 2.785 1.873 3060
0.350 2.704 1.811 6775
0.366 2.830 1.890 2183
0.351 2.715 1.807 5556
0.368 2.842 1.886 1580
0.361 2.787 1.841 5785
0.344 2.660 1.762 1388
0.361 2.785 1.829 5655
0.377 2.912 1.907 1304
0.344 2.658 1.750 1082
0.360 2.783 1.816 5570
0.377 2.911 1.895 1802
0.359 2.775 1.800 4697
0.376 2.902 1.878 1892
0.358 2.766 1.784 4196
0.375 2.894 1.861 2584
0.358 2.764 1.772 3340
0.374 2.892 1.849 2755
0.391 3.020 1.926 1104
0.387 2.991 1.897 2707
0.358 2.762 1.760 2571
0.385 2.976 1.877 3983
0.359 2.773 1.756 1835
0.384 2.968 1.860 6001
0.365 2.819 1.772 1439
0.389 3.007 1.871 7809
0.366 2.830 1.768 1734
0.392 3.025 1.870 9470
0.375 2.896 1.795 2058
0.393 3.037 1.866 8454
0.376 2.908 1.791 2306
0.395 3.049 1.861 7223
0.378 2.919 1.786 2547
0.411 3.178 1.935 1030
0.396 3.061 1.856 6356
0.379 2.931 1.782 2533
0.413 3.190 1.930 1001
0.397 3.066 1.847 6514
0.380 2.936 1.773 1689
0.414 3.196 1.921 1030
0.394 3.043 1.823 7415
0.411 3.173 1.896 3355
0.395 3.048 1.814 7563
0.411 3.178 1.887 3397
0.402 3.108 1.836 6824
0.419 3.238 1.908 1446
0.403 3.113 1.827 6948
0.420 3.244 1.899 2062
0.405 3.131 1.825 6298
0.422 3.262 1.897 1740
0.410 3.164 1.831 8577
0.427 3.295 1.902 1304
0.410 3.169 1.822 9602
0.427 3.300 1.893 1086
0.411 3.174 1.813 7581
0.428 3.305 1.883 1469
0.412 3.185 1.807 5654
0.429 3.317 1.877 2067
0.408 3.155 1.780 6230
0.431 3.329 1.872 2244
0.414 3.195 1.789 5181
0.433 3.341 1.866 1892
0.396 3.063 1.719 1248
0.418 3.228 1.794 4215
0.401 3.095 1.725 1645
0.442 3.416 1.892 1542
0.417 3.218 1.777 4052
0.443 3.421 1.882 1845
0.399 3.086 1.709 1485
0.417 3.223 1.768 3217
0.400 3.090 1.700 2793
0.445 3.440 1.880 2462
0.400 3.088 1.687 5779
0.451 3.480 1.887 3764
0.417 3.221 1.755 2435
0.400 3.092 1.678 7542
0.453 3.499 1.884 4535
0.418 3.226 1.746 2395
0.401 3.097 1.669 8911
0.459 3.546 1.896 6650
0.418 3.230 1.737 2098
0.442 3.413 1.828 1895
0.401 3.101 1.660 10161
0.461 3.558 1.889 8484
0.384 2.967 1.594 1932
0.419 3.235 1.727 1637
0.402 3.105 1.651 10042
0.461 3.563 1.878 9125
0.419 3.239 1.718 1471
0.385 2.972 1.585 1379
0.403 3.117 1.646 9194
0.463 3.576 1.872 8852
0.480 3.710 1.937 1400
0.421 3.251 1.712 1066
0.405 3.128 1.640 6503
0.469 3.623 1.882 6347
0.452 3.489 1.816 1879
0.388 2.994 1.575 1792
0.471 3.635 1.875 8728
0.406 3.133 1.631 2927
0.388 2.998 1.566 2157
0.451 3.486 1.803 1479
0.474 3.661 1.874 13737
0.392 3.031 1.571 2971
0.457 3.527 1.810 1680
0.410 3.165 1.636 1262
0.476 3.681 1.871 20201
0.392 3.028 1.559 3072
0.459 3.546 1.806 1532
0.494 3.815 1.935 1519
0.478 3.693 1.863 13957
0.392 3.032 1.550 3026
0.496 3.828 1.927 1419
0.461 3.558 1.799 1325
0.481 3.719 1.863 8459
0.393 3.036 1.541 2303
0.464 3.584 1.799 1772
0.483 3.731 1.855 7011
0.465 3.596 1.792 1355
0.393 3.033 1.529 1233
0.485 3.743 1.848 6867
0.502 3.879 1.910 1139
0.493 3.805 1.863 7031
0.475 3.670 1.801 1761
0.510 3.941 1.925 1680
0.494 3.817 1.855 8424
0.512 3.953 1.917 2190
0.477 3.681 1.793 1692
0.495 3.822 1.844 7644
0.512 3.958 1.906 2543
0.477 3.686 1.783 1297
0.495 3.827 1.833 5284
0.513 3.964 1.894 3476
0.514 3.969 1.883 4554
0.496 3.832 1.822 4153
0.515 3.981 1.874 5114
0.498 3.844 1.814 5109
0.515 3.979 1.860 7110
0.497 3.842 1.800 3635
0.533 4.115 1.919 1697
0.516 3.984 1.848 8678
0.533 4.121 1.908 2107
0.498 3.847 1.788 1918
0.515 3.981 1.833 8327
0.533 4.118 1.892 2200
0.517 3.993 1.825 6912
0.535 4.131 1.884 2452
0.517 3.991 1.810 4578
0.534 4.129 1.868 3916
0.542 4.184 1.878 5092
0.524 4.047 1.820 2850
0.543 4.197 1.869 6308
0.525 4.059 1.811 2683
0.543 4.194 1.853 5428
0.525 4.056 1.796 2600
0.561 4.332 1.911 1590
0.535 4.134 1.814 5581
0.553 4.272 1.871 3833
0.553 4.270 1.856 7532
0.535 4.131 1.799 4281
0.571 4.408 1.912 1039
0.555 4.289 1.849 8973
0.537 4.151 1.793 3416
0.581 4.486 1.929 1121
0.558 4.309 1.843 6644
0.540 4.170 1.787 3707
0.583 4.506 1.921 1607
0.550 4.248 1.804 3879
0.568 4.387 1.859 3063
0.586 4.525 1.914 1733
0.587 4.531 1.901 2960
0.569 4.392 1.846 2426
0.551 4.253 1.792 1936
0.589 4.550 1.893 4400
0.566 4.375 1.825 3614
0.548 4.235 1.771 1228
0.569 4.394 1.818 4641
0.591 4.563 1.883 3844
0.551 4.255 1.764 1280
0.571 4.414 1.811 5356
0.593 4.582 1.875 4355
0.553 4.274 1.757 1282
0.572 4.418 1.798 5853
0.591 4.565 1.854 4983
0.573 4.423 1.785 5138
0.597 4.614 1.857 4968
0.617 4.769 1.915 1744
0.597 4.612 1.841 6620
0.573 4.428 1.772 3201
0.618 4.774 1.901 2797
0.599 4.624 1.830 7092
0.617 4.764 1.882 3293
0.574 4.433 1.759 1341
0.601 4.644 1.822 7132
0.619 4.784 1.873 2692
0.583 4.504 1.771 1225
0.604 4.664 1.814 6137
0.633 4.893 1.897 2712
0.586 4.523 1.763 1538
0.606 4.683 1.806 4255
0.637 4.920 1.891 3441
0.588 4.543 1.755 1281
0.637 4.917 1.874 3988
0.608 4.695 1.795 3772
0.634 4.900 1.852 4018
0.608 4.700 1.781 2727
0.653 5.041 1.901 1861
0.642 4.957 1.855 3427
0.623 4.816 1.806 2081
0.660 5.098 1.905 1983
0.643 4.969 1.844 4010
0.662 5.111 1.892 3074
0.625 4.828 1.795 2012
0.644 4.974 1.829 4555
0.662 5.116 1.878 3990
0.626 4.833 1.781 1453
0.646 4.987 1.817 4576
0.664 5.128 1.865 3520
0.682 5.269 1.913 1080
0.656 5.066 1.828 3699
0.674 5.207 1.875 3607
0.638 4.925 1.780 1540
0.670 5.175 1.848 4348
0.652 5.034 1.801 1902
0.695 5.369 1.912 1141
0.669 5.165 1.828 4764
0.687 5.307 1.875 2400
0.686 5.297 1.854 3597
0.667 5.155 1.808 2441
0.705 5.446 1.903 1008
0.679 5.242 1.819 3222
0.697 5.384 1.865 1644
0.683 5.277 1.814 3056
0.703 5.427 1.862 1687
0.724 5.591 1.914 1374
0.686 5.297 1.803 2484
0.724 5.596 1.898 2337
0.704 5.439 1.848 1955
0.725 5.601 1.882 3290
0.704 5.436 1.830 1520
0.726 5.606 1.865 4409
0.755 5.832 1.935 1727
0.726 5.611 1.849 4310
0.756 5.837 1.918 2511
0.757 5.849 1.904 2770
0.730 5.639 1.840 2627
0.759 5.862 1.889 2099
0.734 5.666 1.830 1441
0.777 6.003 1.912 1748
0.759 5.859 1.869 1519
0.740 5.716 1.827 1039
0.774 5.977 1.886 2776
0.755 5.834 1.843 1562
0.792 6.121 1.928 1176
0.774 5.982 1.868 3809
0.793 6.126 1.910 1848
0.756 5.839 1.826 1291
0.832 6.427 1.998 1121
0.775 5.987 1.851 3046
0.810 6.259 1.929 2527
0.833 6.433 1.979 1488
0.774 5.977 1.829 3246
0.812 6.272 1.913 2641
0.832 6.431 1.958 1318
0.851 6.574 1.999 1222
0.852 6.579 1.980 3240
0.813 6.277 1.895 2054
0.774 5.982 1.811 1982
0.794 6.133 1.854 1532
0.852 6.585 1.961 4101
0.834 6.441 1.921 2706
0.796 6.146 1.838 1822
0.814 6.290 1.878 1616
0.839 6.484 1.912 4273
0.858 6.628 1.952 3274
0.810 6.257 1.850 1662
0.880 6.795 1.998 1385
0.868 6.701 1.951 4473
0.845 6.527 1.904 3001
0.886 6.845 1.990 1625
0.812 6.269 1.833 1592
0.869 6.714 1.934 4869
0.848 6.547 1.889 2379
0.931 7.192 2.062 2032
0.888 6.858 1.972 1735
0.857 6.621 1.888 3422
0.876 6.765 1.926 2624
0.931 7.190 2.039 2451
0.838 6.476 1.849 1687
0.857 6.618 1.866 3305
0.933 7.211 2.022 2031
0.895 6.914 1.944 1828
0.875 6.762 1.904 1727
0.940 7.262 2.013 2327
0.857 6.623 1.847 2274
0.897 6.927 1.926 1713
0.921 7.117 1.975 1626
0.945 7.297 2.000 2898
0.979 7.564 2.068 1257
0.926 7.153 1.962 1197
0.898 6.940 1.908 1114
0.946 7.310 1.980 4315
0.980 7.569 2.046 2087
0.928 7.166 1.943 1141
1.001 7.729 2.086 1116
0.980 7.567 2.022 2976
0.946 7.308 1.957 2682
0.999 7.720 2.060 1877
1.024 7.910 2.108 1147
0.981 7.580 2.002 3192
1.000 7.725 2.037 2342
0.956 7.382 1.953 1652
1.024 7.908 2.083 1510
0.982 7.586 1.979 2948
1.001 7.731 2.015 2079
1.024 7.914 2.060 1847
0.946 7.311 1.912 1418
0.983 7.591 1.957 2766
1.025 7.919 2.036 2715
1.002 7.744 1.994 2150
1.061 8.194 2.103 1209
1.003 7.749 1.971 2324
1.026 7.925 2.013 2056
1.054 8.139 2.064 1934
0.982 7.588 1.933 1569
1.053 8.137 2.039 2409
1.004 7.754 1.949 2143
1.088 8.404 2.101 1239
1.029 7.945 1.994 1048
1.052 8.127 2.011 1559
1.005 7.759 1.926 1463
1.097 8.471 2.091 1166
1.098 8.484 2.068 1755
1.102 8.513 2.048 1227
1.152 8.896 2.135 1163
1.153 8.909 2.110 1452
1.109 8.564 2.034 1145
1.165 8.999 2.103 2598
1.141 8.815 2.062 1052
1.166 9.005 2.076 2861
1.166 9.011 2.050 1985
1.219 9.418 2.137 1472
1.140 8.803 2.006 1212
1.197 9.249 2.101 1141
1.220 9.423 2.109 1694
1.199 9.262 2.075 1637
1.180 9.116 2.045 1238
1.161 8.970 2.014 1181
1.245 9.614 2.120 1830
1.222 9.437 2.083 1740
1.183 9.137 2.021 1243
1.202 9.283 2.051 1128
1.244 9.612 2.090 2661
1.223 9.450 2.057 2045
1.183 9.135 1.993 1076
1.263 9.758 2.120 1050
1.224 9.456 2.030 2413
1.245 9.617 2.062 2352
1.280 9.887 2.116 1169
1.279 9.877 2.084 1807
1.225 9.461 2.002 1616
1.254 9.684 2.046 1531
1.277 9.867 2.052 1982
1.323 10.222 2.121 1345
1.282 9.904 2.029 1693
1.312 10.135 2.074 1401
1.345 10.389 2.123 1147
1.399 10.806 2.202 1119
1.346 10.395 2.092 1487
1.284 9.917 2.002 1425
1.327 10.249 2.064 1270
1.399 10.804 2.169 1253
1.420 10.972 2.168 1830
1.328 10.262 2.036 1369
1.279 9.883 1.966 1163
1.347 10.409 2.063 1044
1.421 10.978 2.136 2725
1.334 10.306 2.013 1217
1.478 11.418 2.216 1181
1.359 10.499 2.048 1101
1.423 10.991 2.105 2155
1.491 11.517 2.199 1373
1.513 11.687 2.230 1333
1.348 10.412 2.001 1193
1.506 11.631 2.185 1685
1.476 11.399 2.144 1427
1.424 10.997 2.073 1138
1.505 11.629 2.149 1951
1.477 11.413 2.112 1110
1.507 11.643 2.116 1665
1.510 11.664 2.085 1626
1.485 11.470 2.052 1141
1.511 11.670 2.051 1167
1.767 13.651 2.294 1023
1.833 14.160 2.290 1299
1.835 14.174 2.250 1033
0.219 1.692 0.035 1103
0.220 1.699 0.030 1312
0.220 1.699 0.025 1883
0.220 1.699 0.020 2356
0.220 1.698 0.016 2986
0.220 1.698 0.011 3617
0.220 1.698 0.006 4102
0.220 1.697 0.001 4588
0.220 1.697 -0.004 4900
0.220 1.696 -0.009 5212
0.220 1.696 -0.013 4725
0.221 1.703 -0.019 4247
0.220 1.703 -0.024 4247
0.219 1.695 -0.028 3351
0.219 1.694 -0.033 2464
0.219 1.694 -0.038 1804
0.220 1.701 -0.043 1399
0.305 2.317 1.821 6095
0.306 2.322 1.814 12190
0.307 2.333 1.812 12458
0.309 2.344 1.810 10976
0.326 2.471 1.903 1038
0.310 2.355 1.808 9686
0.327 2.483 1.900 1510
0.310 2.354 1.796 8242
0.326 2.475 1.884 2416
0.311 2.358 1.790 6818
0.328 2.486 1.881 3764
0.311 2.363 1.783 6818
0.331 2.511 1.888 4668
0.311 2.361 1.771 7394
0.331 2.509 1.876 4452
0.312 2.366 1.765 8022
0.335 2.547 1.891 4502
0.314 2.384 1.767 6072
0.330 2.506 1.852 4780
0.326 2.473 1.818 7005
0.343 2.602 1.908 1842
0.310 2.350 1.733 1501
0.326 2.477 1.811 7787
0.343 2.600 1.896 3537
0.326 2.476 1.800 8621
0.342 2.599 1.884 6298
0.327 2.481 1.792 8621
0.343 2.604 1.877 6435
0.341 2.590 1.856 7436
0.325 2.466 1.772 4798
0.342 2.595 1.848 7308
0.325 2.470 1.765 3257
0.336 2.547 1.806 6108
0.352 2.671 1.889 2637
0.336 2.552 1.799 6811
0.353 2.676 1.881 3178
0.342 2.596 1.817 7339
0.358 2.721 1.900 1657
0.326 2.471 1.735 1570
0.344 2.614 1.818 10486
0.361 2.739 1.900 1541
0.328 2.489 1.736 1286
0.345 2.619 1.811 11195
0.362 2.744 1.892 1367
0.346 2.624 1.803 11904
0.362 2.749 1.884 1194
0.347 2.635 1.800 9798
0.364 2.761 1.881 1528
0.349 2.647 1.797 8258
0.365 2.773 1.877 1674
0.358 2.718 1.831 6653
0.357 2.709 1.815 7094
0.374 2.836 1.895 1666
0.358 2.714 1.807 5770
0.374 2.841 1.886 1409
0.367 2.786 1.841 5432
0.350 2.659 1.762 1464
0.367 2.784 1.829 5410
0.384 2.911 1.907 1389
0.350 2.657 1.750 1111
0.366 2.776 1.812 5517
0.382 2.903 1.891 2006
0.365 2.774 1.800 4868
0.382 2.901 1.878 2017
0.364 2.765 1.784 4435
0.381 2.893 1.861 2740
0.364 2.763 1.772 3374
0.381 2.891 1.849 3060
0.398 3.019 1.926 1009
0.382 2.903 1.845 3086
0.364 2.761 1.760 2457
0.391 2.969 1.872 4208
0.364 2.766 1.752 1694
0.391 2.967 1.860 6070
0.372 2.825 1.776 1532
0.396 3.006 1.871 8099
0.373 2.829 1.768 1769
0.398 3.017 1.866 9851
0.381 2.888 1.791 1611
0.415 3.147 1.942 1030
0.399 3.029 1.862 8706
0.382 2.900 1.787 2016
0.402 3.048 1.861 7675
0.384 2.918 1.786 2788
0.403 3.060 1.856 7028
0.386 2.930 1.782 2858
0.403 3.058 1.843 7373
0.386 2.928 1.769 1690
0.420 3.188 1.917 1250
0.401 3.042 1.823 8072
0.418 3.172 1.896 3096
0.402 3.054 1.818 7997
0.419 3.184 1.891 2949
0.409 3.107 1.836 8162
0.427 3.237 1.908 1269
0.392 2.976 1.763 1095
0.410 3.112 1.827 8544
0.427 3.243 1.899 1807
0.412 3.130 1.825 7407
0.430 3.261 1.897 1424
0.417 3.163 1.831 8780
0.417 3.168 1.822 9390
0.419 3.180 1.816 7428
0.436 3.311 1.887 1101
0.420 3.184 1.807 5582
0.437 3.316 1.877 1671
0.402 3.053 1.737 1098
0.420 3.189 1.798 6399
0.438 3.328 1.872 1841
0.403 3.057 1.728 1277
0.422 3.201 1.792 5956
0.441 3.347 1.869 1604
0.404 3.069 1.723 1544
0.424 3.220 1.790 5231
0.407 3.087 1.721 1805
0.449 3.408 1.889 1531
0.425 3.224 1.781 4694
0.406 3.085 1.709 1649
0.451 3.420 1.882 1638
0.424 3.222 1.768 3408
0.407 3.089 1.700 3032
0.457 3.467 1.894 2230
0.408 3.094 1.691 6378
0.458 3.479 1.887 3619
0.425 3.227 1.759 2404
0.407 3.091 1.678 8341
0.461 3.498 1.884 4470
0.425 3.225 1.746 2501
0.409 3.103 1.673 9834
0.466 3.538 1.892 5482
0.426 3.236 1.740 2340
0.449 3.405 1.825 1750
0.408 3.100 1.660 10406
0.469 3.557 1.889 7072
0.428 3.248 1.734 2255
0.391 2.967 1.594 1180
0.409 3.105 1.651 9806
0.469 3.562 1.878 7873
0.427 3.238 1.718 2052
0.487 3.696 1.945 1035
0.410 3.109 1.642 8784
0.471 3.575 1.872 7976
0.489 3.709 1.937 1521
0.427 3.243 1.708 1452
0.412 3.127 1.640 5945
0.472 3.587 1.865 5591
0.490 3.721 1.930 2370
0.394 2.993 1.575 1765
0.479 3.634 1.875 8161
0.398 3.019 1.576 2756
0.415 3.153 1.642 2465
0.461 3.500 1.810 1058
0.482 3.660 1.874 12578
0.398 3.023 1.568 3427
0.464 3.526 1.810 1517
0.416 3.157 1.632 1468
0.486 3.687 1.874 18858
0.398 3.020 1.556 3869
0.468 3.552 1.810 1736
0.503 3.821 1.938 1468
0.487 3.699 1.867 13275
0.398 3.024 1.547 4043
0.469 3.564 1.803 1683
0.505 3.834 1.931 1041
0.491 3.725 1.866 8226
0.400 3.035 1.541 3531
0.473 3.590 1.802 2074
0.492 3.737 1.858 6783
0.400 3.039 1.533 1950
0.474 3.602 1.795 1638
0.493 3.742 1.848 6831
0.400 3.036 1.521 1118
0.511 3.878 1.910 1082
0.501 3.804 1.863 7666
0.483 3.668 1.801 1860
0.519 3.940 1.925 1860
0.503 3.816 1.855 9428
0.521 3.952 1.917 2408
0.485 3.680 1.793 1918
0.504 3.828 1.847 8699
0.522 3.964 1.909 2508
0.486 3.692 1.786 2031
0.504 3.826 1.833 5961
0.522 3.962 1.894 3872
0.486 3.690 1.772 1051
0.523 3.967 1.883 4919
0.505 3.831 1.822 4366
0.524 3.980 1.874 5273
0.506 3.843 1.814 5188
0.542 4.116 1.935 1049
0.523 3.970 1.856 6732
0.505 3.833 1.796 3355
0.541 4.107 1.916 2156
0.521 3.954 1.835 8165
0.539 4.091 1.895 3064
0.503 3.817 1.776 1139
0.521 3.958 1.824 8177
0.541 4.110 1.889 2453
0.525 3.985 1.822 7064
0.543 4.122 1.880 2506
0.530 4.026 1.825 5129
0.548 4.164 1.884 2805
0.551 4.183 1.878 5347
0.533 4.045 1.820 3021
0.552 4.188 1.866 6285
0.534 4.050 1.808 2452
0.551 4.186 1.850 5228
0.533 4.048 1.793 2164
0.570 4.324 1.908 1830
0.558 4.234 1.856 5081
0.540 4.096 1.799 3800
0.576 4.372 1.913 1468
0.561 4.261 1.853 7598
0.543 4.123 1.796 3734
0.580 4.399 1.909 1120
0.565 4.288 1.849 8583
0.547 4.149 1.793 3290
0.583 4.426 1.905 1151
0.567 4.307 1.843 6397
0.549 4.169 1.787 3554
0.593 4.504 1.921 1592
0.559 4.247 1.804 4171
0.578 4.385 1.859 2605
0.596 4.524 1.914 1731
0.598 4.537 1.904 2859
0.576 4.376 1.840 2606
0.558 4.237 1.786 1863
0.599 4.549 1.893 4204
0.576 4.373 1.825 4103
0.558 4.234 1.771 1503
0.579 4.393 1.818 4901
0.601 4.561 1.883 3696
0.560 4.254 1.764 1540
0.581 4.412 1.811 4823
0.603 4.574 1.873 3878
0.563 4.273 1.757 1455
0.583 4.424 1.801 5139
0.601 4.564 1.854 4200
0.625 4.748 1.923 1065
0.584 4.429 1.788 4756
0.608 4.613 1.857 4615
0.628 4.768 1.915 2276
0.607 4.611 1.841 6861
0.629 4.773 1.901 3341
0.584 4.434 1.775 2751
0.609 4.623 1.830 7611
0.627 4.763 1.882 3936
0.611 4.635 1.819 6770
0.629 4.775 1.871 3496
0.614 4.662 1.814 4957
0.643 4.884 1.894 2455
0.596 4.522 1.763 1317
0.616 4.674 1.803 3623
0.648 4.918 1.891 3146
0.597 4.534 1.752 1126
0.648 4.916 1.874 3732
0.617 4.687 1.792 3559
0.645 4.899 1.852 3875
0.619 4.699 1.781 2644
0.664 5.040 1.901 1881
0.652 4.948 1.853 3839
0.670 5.089 1.902 2275
0.632 4.800 1.801 2265
0.654 4.961 1.841 4524
0.672 5.102 1.890 3376
0.635 4.820 1.792 2022
0.654 4.965 1.827 5193
0.673 5.107 1.875 4357
0.636 4.824 1.778 1363
0.657 4.985 1.817 5066
0.675 5.127 1.865 4231
0.638 4.844 1.769 1127
0.694 5.268 1.913 1083
0.682 5.176 1.865 3728
0.661 5.020 1.813 3336
0.681 5.166 1.845 4192
0.662 5.025 1.798 1503
0.699 5.308 1.892 1492
0.680 5.164 1.828 4216
0.699 5.305 1.875 2859
0.697 5.288 1.852 4037
0.678 5.146 1.805 2585
0.691 5.248 1.822 3638
0.710 5.390 1.868 1567
0.695 5.275 1.814 3233
0.715 5.425 1.862 2047
0.735 5.582 1.912 1541
0.698 5.295 1.803 2860
0.736 5.587 1.896 2680
0.716 5.437 1.848 2048
0.738 5.600 1.882 3367
0.718 5.450 1.835 1436
0.699 5.307 1.790 1334
0.738 5.605 1.865 4039
0.767 5.822 1.933 1662
0.739 5.610 1.849 3670
0.768 5.827 1.916 2338
0.744 5.645 1.842 2496
0.770 5.848 1.904 2410
0.775 5.883 1.896 1936
0.756 5.740 1.853 1483
0.735 5.582 1.805 1350
0.778 5.903 1.883 1573
0.758 5.752 1.838 1461
0.796 6.046 1.926 1137
0.737 5.594 1.791 1020
0.787 5.976 1.886 2698
0.768 5.833 1.843 1607
0.806 6.119 1.928 1196
0.788 5.981 1.868 3828
0.807 6.124 1.910 2079
0.769 5.837 1.826 1368
0.826 6.267 1.952 1206
0.789 5.986 1.851 2930
0.824 6.257 1.929 2897
0.847 6.431 1.979 1485
0.788 5.983 1.831 3075
0.826 6.270 1.913 2889
0.847 6.429 1.958 1483
0.866 6.572 1.999 1316
0.867 6.578 1.980 3248
0.827 6.275 1.895 2567
0.789 5.988 1.814 2030
0.848 6.434 1.939 1620
0.867 6.583 1.961 4106
0.848 6.439 1.921 2458
0.826 6.273 1.874 2299
0.807 6.129 1.834 1912
0.853 6.475 1.910 4236
0.872 6.618 1.950 3217
0.824 6.255 1.850 1874
0.891 6.762 1.989 1381
0.871 6.608 1.926 3767
0.890 6.752 1.966 2230
0.852 6.464 1.887 1880
0.948 7.199 2.087 1341
0.884 6.712 1.934 4100
0.865 6.568 1.895 2390
0.948 7.197 2.064 2332
0.905 6.871 1.977 1484
0.871 6.611 1.886 3388
0.948 7.195 2.041 2933
0.890 6.755 1.924 2474
0.852 6.467 1.847 1743
0.872 6.616 1.866 3201
0.950 7.209 2.022 2565
0.911 6.912 1.944 1726
0.891 6.760 1.904 1702
0.955 7.252 2.011 2647
0.872 6.621 1.847 2252
0.912 6.925 1.926 1502
0.936 7.108 1.973 1369
0.960 7.288 1.998 2970
0.996 7.562 2.068 1386
0.941 7.143 1.961 1097
0.914 6.938 1.908 1033
0.962 7.301 1.978 4287
0.996 7.559 2.044 2184
1.017 7.719 2.084 1230
0.943 7.156 1.942 1177
0.997 7.565 2.022 2851
0.961 7.298 1.955 2752
1.017 7.717 2.060 1752
1.042 7.908 2.108 1352
0.998 7.578 2.002 2840
1.017 7.723 2.037 1975
1.041 7.906 2.083 1717
0.962 7.304 1.934 1571
0.999 7.583 1.979 2573
1.043 7.919 2.061 2194
0.963 7.309 1.912 1555
1.018 7.728 2.015 1534
1.044 7.925 2.038 3129
1.000 7.589 1.957 2468
1.019 7.734 1.992 1534
1.079 8.192 2.103 1128
1.044 7.922 2.013 2234
1.071 8.129 2.062 1917
1.021 7.747 1.971 1791
0.999 7.586 1.933 1394
1.072 8.134 2.039 2332
1.022 7.760 1.950 1747
1.107 8.402 2.101 1127
1.046 7.943 1.994 1052
1.071 8.132 2.013 1492
1.022 7.757 1.926 1155
1.049 7.964 1.974 1138
1.105 8.384 2.071 1067
1.117 8.482 2.068 1589
1.121 8.510 2.048 1119
1.173 8.901 2.136 1098
1.173 8.907 2.110 1446
1.128 8.562 2.034 1142
1.185 8.997 2.103 2712
1.162 8.820 2.064 1366
1.186 9.002 2.076 2854
1.160 8.803 2.033 1092
1.241 9.417 2.166 1058
1.186 9.000 2.048 1889
1.241 9.423 2.139 1592
1.218 9.246 2.101 1122
1.159 8.801 2.006 1109
1.241 9.421 2.109 1873
1.219 9.252 2.074 1506
1.183 8.983 2.017 1153
1.243 9.434 2.083 1983
1.266 9.611 2.120 1681
1.204 9.142 2.023 1156
1.224 9.288 2.053 1082
1.266 9.609 2.090 2526
1.245 9.447 2.057 2326
1.224 9.293 2.026 1087
1.285 9.755 2.120 1076
1.245 9.453 2.030 2810
1.267 9.614 2.062 2297
1.286 9.761 2.091 1260
1.305 9.907 2.121 1117
1.246 9.458 2.002 2019
1.302 9.882 2.086 1922
1.274 9.674 2.045 1444
1.302 9.880 2.055 1983
1.346 10.219 2.121 1124
1.366 10.365 2.150 1023
1.247 9.464 1.974 1021
1.304 9.901 2.029 1791
1.335 10.132 2.074 1366
1.369 10.394 2.124 1117
1.370 10.400 2.094 1491
1.306 9.914 2.002 1423
1.350 10.246 2.064 1204
1.423 10.801 2.169 1017
1.445 10.969 2.168 1844
1.351 10.259 2.036 1378
1.371 10.405 2.063 1116
1.302 9.881 1.966 1085
1.446 10.975 2.136 2723
1.356 10.295 2.011 1245
1.383 10.496 2.048 1098
1.503 11.407 2.215 1044
1.448 10.988 2.105 2254
1.517 11.514 2.199 1413
1.538 11.676 2.228 1234
1.371 10.409 2.001 1227
1.531 11.620 2.183 1930
1.500 11.388 2.142 1630
1.450 11.009 2.075 1130
1.532 11.626 2.149 2305
1.502 11.402 2.110 1156
1.533 11.639 2.116 1942
1.536 11.661 2.085 1884
1.587 12.048 2.150 1195
1.537 11.666 2.051 1333
1.865 14.155 2.290 1348
1.867 14.169 2.250 1073
0.224 1.698 0.020 1199
0.224 1.698 0.016 1305
0.224 1.698 0.011 1411
0.224 1.697 0.006 1238
0.224 1.697 0.001 1065
0.224 1.703 -0.014 1018
0.224 1.703 -0.019 1356
0.224 1.702 -0.024 1356
0.224 1.702 -0.029 1485
0.224 1.701 -0.034 1614
0.224 1.701 -0.038 1464
0.224 1.700 -0.043 1723
0.310 2.316 1.821 6521
0.311 2.321 1.814 13042
0.312 2.332 1.812 13522
0.314 2.343 1.810 11874
0.330 2.464 1.898 1061
0.315 2.354 1.808 10387
0.332 2.476 1.896 1635
0.315 2.353 1.796 8474
0.331 2.474 1.884 2434
0.316 2.358 1.790 6670
0.334 2.492 1.886 3669
0.317 2.362 1.783 6670
0.336 2.510 1.888 4515
0.316 2.361 1.771 7442
0.336 2.509 1.876 4259
0.317 2.365 1.765 8258
0.335 2.501 1.860 4160
0.319 2.383 1.767 6345
0.336 2.506 1.852 4590
0.331 2.472 1.818 6376
0.348 2.595 1.904 1699
0.315 2.349 1.733 1634
0.332 2.477 1.811 6986
0.348 2.600 1.896 3033
0.332 2.475 1.800 7697
0.348 2.598 1.884 5203
0.332 2.480 1.792 7697
0.349 2.603 1.877 5313
0.335 2.504 1.799 6433
0.352 2.628 1.882 3550
0.337 2.515 1.796 6639
0.354 2.639 1.879 2862
0.340 2.540 1.802 6183
0.357 2.664 1.885 2477
0.342 2.551 1.799 6952
0.358 2.676 1.881 2621
0.348 2.595 1.817 7382
0.331 2.471 1.735 1633
0.364 2.720 1.900 1593
0.349 2.607 1.814 10496
0.366 2.732 1.896 1917
0.333 2.482 1.732 1359
0.351 2.618 1.811 11094
0.368 2.743 1.892 1374
0.351 2.623 1.803 11751
0.368 2.749 1.884 1181
0.353 2.634 1.800 9428
0.370 2.760 1.881 1527
0.354 2.646 1.797 7678
0.371 2.772 1.877 1780
0.364 2.717 1.831 6828
0.381 2.843 1.911 1031
0.364 2.715 1.819 7190
0.381 2.842 1.899 1423
0.364 2.720 1.811 5800
0.381 2.847 1.891 1130
0.374 2.792 1.845 4940
0.357 2.665 1.766 1747
0.372 2.777 1.824 4950
0.389 2.904 1.903 1507
0.372 2.775 1.812 5181
0.389 2.902 1.891 1979
0.372 2.773 1.800 4794
0.389 2.900 1.878 2033
0.371 2.771 1.788 4502
0.388 2.899 1.866 2371
0.370 2.762 1.772 3305
0.387 2.890 1.849 3133
0.389 2.902 1.845 3293
0.369 2.753 1.756 2329
0.398 2.968 1.872 4304
0.380 2.839 1.796 1822
0.397 2.966 1.860 5842
0.379 2.830 1.780 1725
0.415 3.095 1.936 1007
0.403 3.005 1.871 8026
0.379 2.828 1.768 1844
0.404 3.017 1.866 9806
0.387 2.888 1.791 1652
0.406 3.028 1.862 8637
0.388 2.899 1.787 2194
0.407 3.040 1.857 7926
0.390 2.911 1.782 2538
0.425 3.170 1.931 1036
0.409 3.052 1.852 7599
0.392 2.922 1.778 2760
0.426 3.182 1.926 1007
0.410 3.057 1.843 7839
0.392 2.927 1.769 1825
0.427 3.187 1.917 1098
0.407 3.041 1.823 8140
0.425 3.171 1.896 2878
0.415 3.094 1.841 8114
0.397 2.964 1.768 1227
0.416 3.106 1.836 9525
0.434 3.237 1.908 1181
0.399 2.975 1.763 1123
0.417 3.111 1.827 10241
0.434 3.242 1.899 1641
0.418 3.123 1.821 8761
0.436 3.254 1.893 1354
0.424 3.162 1.831 8529
0.424 3.167 1.822 8627
0.426 3.179 1.816 7032
0.427 3.183 1.807 5441
0.409 3.052 1.737 1343
0.444 3.315 1.877 1269
0.427 3.188 1.798 6517
0.409 3.056 1.728 1466
0.446 3.327 1.872 1395
0.429 3.200 1.792 6432
0.411 3.068 1.723 1582
0.456 3.402 1.898 1516
0.431 3.219 1.790 5952
0.414 3.086 1.721 1964
0.456 3.407 1.889 1435
0.474 3.539 1.958 1030
0.432 3.224 1.781 5321
0.413 3.084 1.709 2076
0.473 3.531 1.940 1509
0.455 3.398 1.871 1229
0.432 3.221 1.768 3777
0.414 3.088 1.700 3345
0.471 3.515 1.919 2543
0.453 3.382 1.851 1139
0.414 3.093 1.691 6678
0.469 3.499 1.898 3845
0.432 3.226 1.759 2348
0.415 3.097 1.682 8740
0.469 3.497 1.884 4631
0.433 3.231 1.749 1983
0.416 3.102 1.673 10085
0.471 3.516 1.881 4900
0.433 3.235 1.740 2306
0.453 3.383 1.814 1137
0.416 3.106 1.664 10043
0.476 3.556 1.889 5745
0.435 3.247 1.734 2477
0.398 2.973 1.597 1363
0.416 3.104 1.651 8931
0.477 3.561 1.878 6583
0.435 3.244 1.721 2232
0.398 2.970 1.585 1421
0.416 3.108 1.642 7890
0.478 3.566 1.868 7095
0.496 3.700 1.934 1915
0.434 3.242 1.708 1625
0.479 3.578 1.861 5358
0.419 3.126 1.640 5131
0.497 3.713 1.927 2924
0.401 2.992 1.575 2040
0.487 3.633 1.875 7557
0.404 3.018 1.576 3081
0.422 3.152 1.642 2239
0.489 3.652 1.871 11461
0.404 3.015 1.564 3836
0.422 3.149 1.629 1557
0.471 3.518 1.806 1289
0.494 3.685 1.874 17283
0.404 3.019 1.556 4086
0.476 3.551 1.810 1740
0.512 3.820 1.938 1513
0.496 3.705 1.870 12104
0.405 3.023 1.547 4110
0.478 3.570 1.806 2108
0.499 3.724 1.866 7703
0.407 3.034 1.541 3737
0.481 3.589 1.802 2019
0.502 3.750 1.865 6619
0.408 3.045 1.536 2545
0.484 3.615 1.802 1980
0.504 3.762 1.857 6584
0.408 3.042 1.524 1599
0.522 3.898 1.920 1055
0.486 3.627 1.795 1026
0.510 3.803 1.863 8246
0.528 3.939 1.925 1933
0.491 3.667 1.801 1889
0.408 3.046 1.515 1083
0.511 3.815 1.855 10297
0.529 3.951 1.917 2487
0.493 3.679 1.793 1982
0.513 3.827 1.847 9512
0.531 3.963 1.909 2650
0.495 3.691 1.786 2100
0.513 3.832 1.836 6524
0.532 3.968 1.897 3711
0.495 3.696 1.775 1393
0.531 3.966 1.883 5107
0.513 3.830 1.822 4545
0.533 3.978 1.874 5367
0.515 3.842 1.814 5109
0.551 4.115 1.935 1145
0.523 3.904 1.828 6509
0.544 4.063 1.897 3839
0.529 3.945 1.832 8352
0.547 4.082 1.892 3654
0.529 3.950 1.821 8578
0.548 4.087 1.880 2721
0.534 3.984 1.822 7259
0.552 4.121 1.880 2572
0.539 4.025 1.825 5861
0.558 4.162 1.884 2828
0.521 3.887 1.767 1018
0.560 4.182 1.878 5520
0.542 4.044 1.820 3345
0.560 4.180 1.863 6263
0.542 4.042 1.805 2614
0.578 4.317 1.920 1002
0.558 4.163 1.841 5387
0.576 4.301 1.899 1975
0.539 4.025 1.784 1532
0.567 4.233 1.856 4970
0.549 4.095 1.799 3428
0.586 4.371 1.913 1442
0.571 4.260 1.853 7218
0.552 4.122 1.796 3592
0.589 4.398 1.909 1102
0.574 4.287 1.849 7603
0.556 4.148 1.793 3167
0.593 4.425 1.905 1181
0.565 4.219 1.807 5823
0.584 4.357 1.863 2587
0.603 4.503 1.921 1578
0.568 4.238 1.801 4176
0.589 4.399 1.865 2607
0.608 4.537 1.920 1528
0.586 4.374 1.840 2665
0.608 4.535 1.904 2630
0.567 4.236 1.786 2119
0.586 4.372 1.825 4155
0.609 4.548 1.893 3876
0.567 4.233 1.771 1866
0.587 4.384 1.815 4735
0.611 4.560 1.883 3562
0.569 4.245 1.761 1613
0.592 4.418 1.813 4312
0.613 4.572 1.873 3406
0.573 4.279 1.760 1747
0.593 4.423 1.801 5028
0.611 4.563 1.854 3270
0.636 4.746 1.923 1448
0.593 4.428 1.788 4581
0.619 4.619 1.860 4236
0.639 4.766 1.915 2894
0.617 4.602 1.838 6864
0.639 4.771 1.901 3814
0.594 4.433 1.775 2347
0.619 4.622 1.830 7869
0.638 4.762 1.882 4265
0.620 4.626 1.817 6687
0.639 4.767 1.868 4228
0.657 4.907 1.919 1318
0.621 4.639 1.806 4305
0.640 4.779 1.857 3429
0.659 4.919 1.908 1681
0.603 4.498 1.755 1106
0.642 4.791 1.845 3427
0.623 4.651 1.795 3086
0.661 4.932 1.896 2454
0.645 4.811 1.837 4013
0.626 4.670 1.787 3052
0.663 4.952 1.887 2521
0.656 4.897 1.852 3596
0.629 4.697 1.781 2379
0.675 5.038 1.901 1848
0.663 4.947 1.853 4276
0.682 5.088 1.902 2222
0.643 4.799 1.801 2086
0.663 4.952 1.838 4953
0.682 5.093 1.887 3424
0.645 4.811 1.790 2131
0.665 4.964 1.827 5686
0.684 5.105 1.875 4335
0.646 4.823 1.778 1714
0.667 4.976 1.815 5209
0.687 5.125 1.865 4560
0.706 5.266 1.913 1359
0.648 4.835 1.767 1205
0.691 5.160 1.860 4031
0.672 5.018 1.813 2914
0.653 4.877 1.765 1087
0.690 5.150 1.840 4070
0.709 5.291 1.888 2034
0.707 5.274 1.865 3826
0.688 5.132 1.818 3407
0.707 5.279 1.849 4366
0.688 5.137 1.803 2662
0.745 5.563 1.942 1077
0.702 5.239 1.819 4096
0.721 5.381 1.865 1943
0.748 5.583 1.931 1093
0.704 5.251 1.806 3374
0.727 5.423 1.862 2295
0.748 5.580 1.912 1789
0.748 5.586 1.896 2983
0.709 5.294 1.803 2892
0.729 5.443 1.851 2050
0.749 5.591 1.879 3233
0.711 5.306 1.790 1610
0.730 5.448 1.835 1462
0.751 5.603 1.865 3540
0.780 5.821 1.933 1500
0.751 5.608 1.849 3275
0.781 5.826 1.916 2029
0.756 5.643 1.842 2230
0.783 5.846 1.904 2098
0.790 5.896 1.900 2057
0.769 5.738 1.853 1742
0.749 5.588 1.807 1672
0.794 5.924 1.890 1802
0.770 5.751 1.838 1617
0.749 5.593 1.791 1245
0.800 5.974 1.886 2553
0.781 5.831 1.843 1612
0.820 6.117 1.928 1236
0.802 5.987 1.870 3851
0.821 6.130 1.912 2042
0.783 5.843 1.829 1669
0.840 6.273 1.954 1362
0.838 6.256 1.929 2964
0.803 5.992 1.853 2921
0.861 6.429 1.979 1479
0.839 6.261 1.911 3072
0.801 5.981 1.831 2979
0.862 6.434 1.960 1652
0.881 6.578 2.001 1347
0.841 6.273 1.895 2952
0.881 6.576 1.980 2937
0.802 5.986 1.814 2088
0.862 6.432 1.939 1648
0.882 6.581 1.961 3462
0.840 6.271 1.874 2534
0.862 6.437 1.921 2162
0.821 6.127 1.834 1945
0.867 6.473 1.910 3828
0.886 6.616 1.950 2627
0.839 6.261 1.852 2031
0.906 6.760 1.989 1337
0.883 6.591 1.922 3435
0.902 6.735 1.961 2474
0.864 6.447 1.883 1492
0.964 7.197 2.087 1360
0.885 6.604 1.905 3430
0.904 6.748 1.944 2593
0.964 7.195 2.064 2556
0.925 6.907 1.987 1450
0.964 7.193 2.041 3304
0.885 6.609 1.886 3180
0.905 6.753 1.924 2031
0.866 6.465 1.847 1645
0.966 7.206 2.022 3008
0.886 6.614 1.866 2801
0.907 6.766 1.906 1748
0.926 6.910 1.944 1706
0.970 7.242 2.009 2892
0.887 6.619 1.847 2068
0.927 6.915 1.924 1398
0.995 7.425 2.056 1389
0.975 7.278 1.996 2979
1.013 7.559 2.068 1564
0.956 7.134 1.959 1167
0.915 6.829 1.880 1050
0.977 7.291 1.976 4140
1.013 7.557 2.044 2369
1.033 7.709 2.083 1425
0.957 7.146 1.940 1182
0.978 7.296 1.955 2694
1.013 7.563 2.022 2671
1.034 7.715 2.060 1736
1.059 7.905 2.108 1509
1.015 7.576 2.002 2374
1.058 7.896 2.081 1958
1.034 7.721 2.037 1776
0.978 7.301 1.934 1539
1.061 7.917 2.061 2500
1.017 7.589 1.981 2157
0.979 7.307 1.912 1530
1.036 7.734 2.017 1156
1.061 7.922 2.038 3444
1.016 7.586 1.957 2149
1.081 8.067 2.073 1126
1.036 7.731 1.992 1091
1.061 7.920 2.013 2270
1.089 8.126 2.062 1938
1.038 7.744 1.971 1356
1.016 7.584 1.933 1193
1.088 8.124 2.037 2302
1.039 7.757 1.950 1333
1.124 8.392 2.100 1056
1.156 8.628 2.155 1012
1.089 8.130 2.013 1527
1.068 7.969 1.976 1309
1.124 8.390 2.073 1002
1.136 8.479 2.068 1293
1.205 8.996 2.131 1566
1.181 8.812 2.090 1399
1.147 8.559 2.034 1043
1.206 9.002 2.104 2725
1.181 8.818 2.064 1469
1.207 9.007 2.078 2550
1.261 9.414 2.166 1160
1.179 8.800 2.033 1064
1.262 9.420 2.139 1753
1.207 9.005 2.050 1511
1.239 9.251 2.103 1137
1.263 9.426 2.111 2093
1.239 9.249 2.074 1402
1.264 9.431 2.083 2201
1.286 9.600 2.118 1448
1.244 9.285 2.053 1112
1.309 9.769 2.153 1082
1.265 9.445 2.057 2484
1.287 9.606 2.090 2341
1.245 9.291 2.026 1170
1.266 9.450 2.030 3042
1.288 9.612 2.062 2226
