4.046 13.384 2.287 793
4.045 13.382 2.245 755
0.669 2.199 1.792 2877
0.670 2.204 1.786 5754
0.705 2.320 1.875 1195
0.671 2.208 1.779 5754
0.707 2.325 1.868 2390
0.678 2.231 1.787 7947
0.714 2.348 1.875 1459
0.680 2.236 1.780 10709
0.715 2.353 1.868 1685
0.685 2.253 1.783 10424
0.720 2.370 1.870 2011
0.690 2.270 1.785 11562
0.726 2.387 1.872 1985
0.691 2.274 1.778 11562
0.727 2.392 1.865 2020
0.706 2.322 1.803 9443
0.670 2.204 1.717 1286
0.707 2.327 1.796 10428
0.743 2.445 1.882 1194
0.711 2.338 1.794 8422
0.747 2.456 1.879 1004
0.727 2.392 1.823 9661
0.691 2.274 1.738 2785
0.732 2.410 1.825 8993
0.696 2.291 1.740 2884
0.736 2.420 1.822 8984
0.700 2.301 1.737 2150
0.737 2.425 1.815 8984
0.701 2.306 1.730 1443
0.741 2.436 1.812 8753
0.777 2.556 1.896 1018
0.750 2.466 1.822 10594
0.713 2.346 1.739 1468
0.751 2.471 1.815 11856
0.715 2.351 1.732 1311
0.754 2.482 1.812 13344
0.791 2.602 1.894 1189
0.762 2.505 1.817 9826
0.725 2.385 1.735 1403
0.771 2.535 1.827 7918
0.734 2.415 1.745 2165
0.768 2.527 1.811 7219
0.805 2.648 1.892 1611
0.770 2.532 1.803 6622
0.808 2.660 1.889 1665
0.769 2.530 1.791 5303
0.806 2.652 1.872 2744
0.800 2.631 1.847 5257
0.757 2.490 1.754 2668
0.797 2.623 1.831 7376
0.760 2.501 1.751 2170
0.799 2.628 1.823 9660
0.762 2.506 1.743 1701
0.794 2.613 1.803 8375
0.831 2.735 1.882 2597
0.786 2.585 1.774 7818
0.823 2.708 1.853 6242
0.825 2.713 1.845 6918
0.787 2.590 1.766 5369
0.826 2.717 1.837 7593
0.789 2.594 1.759 2919
0.827 2.722 1.829 6685
0.790 2.599 1.751 2854
0.829 2.727 1.821 5776
0.791 2.603 1.743 2790
0.832 2.738 1.817 4734
0.795 2.614 1.739 2916
0.850 2.795 1.841 6744
0.802 2.638 1.744 3361
0.849 2.793 1.828 6685
0.805 2.649 1.740 2437
0.845 2.778 1.808 7046
0.882 2.902 1.884 2322
0.842 2.770 1.792 7820
0.880 2.894 1.867 3113
0.845 2.781 1.787 8511
0.883 2.905 1.863 2469
0.849 2.792 1.783 9720
0.897 2.950 1.877 2953
0.862 2.836 1.798 7698
0.900 2.961 1.872 2800
0.866 2.847 1.793 9000
0.904 2.972 1.868 2707
0.871 2.865 1.793 7320
0.913 3.004 1.874 3462
0.882 2.903 1.803 7178
0.921 3.028 1.877 3597
0.890 2.927 1.806 8403
0.928 3.053 1.879 2160
0.893 2.939 1.801 6894
0.932 3.065 1.874 1932
0.913 3.003 1.827 5865
0.874 2.877 1.754 1494
0.914 3.008 1.818 5538
0.876 2.881 1.746 1548
0.916 3.012 1.809 4468
0.954 3.139 1.880 2112
0.919 3.024 1.803 3731
0.958 3.151 1.874 2349
0.955 3.142 1.857 4144
0.917 3.015 1.787 2167
0.957 3.147 1.848 5292
0.908 2.986 1.759 968
0.960 3.158 1.842 4627
0.909 2.991 1.750 1347
0.957 3.150 1.825 4487
0.996 3.277 1.895 1523
0.955 3.141 1.809 5489
0.994 3.269 1.878 3104
0.954 3.139 1.796 6756
0.993 3.267 1.864 3152
0.956 3.143 1.786 6186
0.995 3.272 1.854 3392
0.961 3.161 1.784 4407
1.000 3.290 1.852 3454
0.997 3.281 1.835 3976
0.958 3.152 1.767 2575
0.995 3.272 1.818 5055
0.956 3.143 1.751 1234
0.996 3.277 1.808 7673
1.035 3.406 1.875 1351
0.998 3.282 1.798 9040
1.037 3.411 1.864 1813
1.001 3.293 1.792 7298
1.040 3.422 1.858 2805
1.015 3.338 1.803 4928
0.975 3.209 1.737 2545
1.029 3.384 1.813 3979
0.989 3.254 1.748 2592
1.030 3.389 1.803 4257
1.070 3.519 1.868 2373
1.036 3.407 1.799 5379
1.088 3.578 1.884 2206
1.041 3.425 1.796 6176
1.093 3.597 1.880 2351
1.055 3.471 1.806 5750
1.016 3.341 1.742 3106
1.055 3.469 1.792 7377
1.096 3.606 1.858 2777
1.054 3.467 1.778 8366
1.096 3.604 1.844 3655
1.078 3.547 1.804 5845
1.118 3.678 1.866 2433
1.080 3.552 1.793 6973
1.120 3.683 1.855 3498
1.083 3.563 1.786 7061
1.123 3.695 1.847 4318
1.085 3.568 1.775 5048
1.129 3.713 1.843 4705
1.132 3.725 1.835 7003
1.084 3.565 1.761 3018
1.136 3.736 1.827 6109
1.087 3.577 1.754 2825
1.167 3.838 1.860 6019
1.108 3.644 1.771 4349
1.170 3.850 1.851 7902
1.111 3.655 1.763 4510
1.172 3.855 1.840 7977
1.132 3.723 1.780 5075
1.169 3.846 1.822 6788
1.129 3.713 1.763 3783
1.173 3.857 1.813 8132
1.132 3.725 1.755 3102
1.176 3.869 1.805 9989
1.225 4.030 1.875 2309
1.180 3.881 1.796 7390
1.229 4.042 1.866 3912
1.230 4.046 1.853 6885
1.187 3.906 1.793 4651
1.234 4.058 1.844 9468
1.193 3.925 1.788 3188
1.239 4.077 1.838 8059
1.195 3.929 1.776 2610
1.243 4.089 1.829 5217
1.187 3.906 1.752 2294
1.225 4.030 1.790 4523
1.266 4.164 1.845 3501
1.231 4.049 1.784 4229
1.282 4.218 1.853 4069
1.292 4.251 1.852 6114
1.239 4.075 1.780 2625
1.294 4.256 1.839 6354
1.253 4.121 1.785 3255
1.295 4.260 1.826 5905
1.336 4.395 1.880 2602
1.301 4.279 1.819 6652
1.342 4.414 1.873 2413
1.300 4.277 1.803 5178
1.341 4.412 1.856 2941
1.332 4.381 1.829 3818
1.291 4.246 1.777 1914
1.335 4.393 1.819 3200
1.394 4.584 1.893 2177
1.348 4.433 1.819 3260
1.402 4.611 1.887 2239
1.330 4.373 1.781 2761
1.377 4.530 1.841 2663
1.407 4.627 1.862 4721
1.335 4.392 1.774 3228
1.406 4.625 1.845 8028
1.343 4.418 1.768 2871
1.407 4.630 1.832 7325
1.353 4.451 1.766 2337
1.411 4.642 1.820 6198
1.452 4.778 1.870 3041
1.415 4.654 1.809 5046
1.458 4.797 1.861 3448
1.464 4.816 1.851 4986
1.423 4.680 1.802 2839
1.470 4.835 1.842 7042
1.511 4.971 1.890 3163
1.502 4.940 1.863 6132
1.460 4.804 1.815 3159
1.505 4.952 1.850 4746
1.464 4.816 1.803 1649
1.535 5.050 1.868 3634
1.494 4.914 1.820 3044
1.535 5.048 1.850 5043
1.493 4.911 1.803 2044
1.547 5.089 1.847 3170
1.488 4.894 1.781 1770
1.553 5.108 1.836 2877
1.597 5.252 1.885 2007
1.609 5.293 1.881 2605
1.559 5.127 1.826 2122
1.613 5.305 1.867 3398
1.562 5.139 1.813 1551
1.621 5.332 1.858 2539
1.557 5.122 1.790 1629
1.620 5.329 1.840 2417
1.664 5.474 1.886 1532
1.621 5.334 1.824 2648
1.699 5.587 1.904 1306
1.654 5.440 1.840 2734
1.729 5.687 1.917 1925
1.660 5.459 1.828 2668
1.706 5.612 1.875 2178
1.745 5.740 1.896 2411
1.659 5.457 1.809 1438
1.742 5.730 1.875 3047
1.799 5.919 1.932 1387
1.741 5.728 1.855 2810
1.810 5.954 1.923 2362
1.811 5.958 1.905 3165
1.871 6.155 1.964 2537
1.882 6.189 1.954 3198
1.780 5.854 1.855 3139
1.885 6.202 1.937 3453
1.777 5.844 1.833 2229
1.891 6.221 1.923 3051
1.971 6.484 1.999 1933
1.922 6.321 1.931 2447
1.966 6.467 1.973 2209
1.921 6.319 1.910 2822
1.963 6.458 1.949 2525
2.007 6.602 1.968 2376
1.925 6.331 1.893 2306
2.008 6.607 1.948 2928
2.077 6.834 2.011 2328
2.077 6.832 1.988 2937
2.010 6.612 1.928 2443
2.078 6.837 1.968 2458
2.143 7.050 2.025 1512
2.145 7.055 2.003 1812
2.082 6.849 1.949 1810
2.164 7.119 1.998 2092
2.086 6.862 1.930 1990
2.161 7.109 1.972 1843
2.244 7.381 2.043 1837
2.248 7.394 2.022 2020
2.143 7.048 1.934 1373
2.274 7.480 2.020 1795
2.361 7.767 2.093 1275
2.334 7.677 2.046 1990
2.376 7.817 2.081 1422
2.373 7.808 2.053 2129
2.331 7.667 2.019 1952
2.375 7.813 2.030 2333
2.427 7.983 2.071 1772
2.377 7.818 2.006 1540
2.433 8.003 2.050 1329
2.446 8.045 2.035 1765
2.524 8.303 2.096 1404
2.537 8.346 2.079 1719
2.449 8.058 2.012 1716
2.545 8.373 2.059 2099
2.674 8.795 2.156 1704
2.678 8.808 2.131 2586
2.552 8.394 2.037 2208
2.677 8.806 2.103 2759
2.555 8.406 2.013 1674
2.679 8.812 2.076 2004
2.803 9.219 2.166 1449
2.680 8.817 2.050 1710
2.804 9.225 2.138 1306
2.680 8.815 2.021 1690
2.781 9.149 2.093 1238
2.832 9.317 2.100 1827
2.905 9.555 2.150 1740
2.906 9.561 2.121 2034
2.834 9.323 2.071 1815
3.134 10.309 2.244 1584
2.940 9.670 2.113 1450
3.136 10.315 2.213 2038
2.948 9.698 2.088 1253
3.137 10.321 2.182 3075
2.918 9.599 2.038 1340
3.139 10.327 2.150 4008
3.010 9.902 2.067 1417
3.141 10.332 2.119 4136
3.188 10.489 2.149 1565
3.143 10.338 2.088 3533
3.188 10.487 2.116 2190
3.144 10.343 2.056 2699
3.226 10.611 2.106 1921
3.148 10.356 2.026 1754
3.486 11.467 2.230 1441
3.506 11.533 2.206 1334
3.676 12.093 2.306 1088
3.510 11.546 2.172 1358
3.653 12.017 2.255 999
3.655 12.023 2.218 1106
3.514 11.559 2.138 979
3.972 13.067 2.359 1019
3.652 12.013 2.179 980
3.974 13.074 2.319 1102
4.127 13.575 2.403 1022
4.126 13.573 2.361 916
4.176 13.738 2.388 824
4.176 13.737 2.345 864
4.133 13.595 2.322 755
4.025 13.241 2.224 757
0.666 2.187 1.783 2922
0.667 2.191 1.777 5845
0.703 2.307 1.865 1554
0.669 2.196 1.770 5845
0.704 2.312 1.859 3109
0.678 2.225 1.782 7329
0.713 2.341 1.870 1724
0.681 2.236 1.780 9989
0.716 2.352 1.868 1509
0.686 2.252 1.783 9746
0.722 2.370 1.870 1760
0.691 2.269 1.785 10990
0.727 2.387 1.872 1839
0.693 2.274 1.778 10990
0.728 2.392 1.865 1901
0.707 2.322 1.803 9595
0.671 2.204 1.717 1413
0.710 2.333 1.801 10781
0.675 2.215 1.715 1491
0.712 2.337 1.794 8837
0.748 2.456 1.879 1315
0.730 2.398 1.827 10030
0.694 2.280 1.742 3080
0.736 2.415 1.829 9468
0.699 2.297 1.744 2943
0.737 2.420 1.822 9438
0.701 2.301 1.737 1799
0.738 2.425 1.815 9438
0.702 2.306 1.730 1179
0.742 2.436 1.812 9787
0.778 2.555 1.896 977
0.749 2.459 1.818 11480
0.713 2.340 1.734 1153
0.750 2.464 1.810 12428
0.714 2.344 1.727 1237
0.754 2.475 1.807 13416
0.717 2.355 1.725 1269
0.763 2.505 1.817 9545
0.726 2.385 1.735 1521
0.772 2.535 1.827 8111
0.735 2.414 1.745 2501
0.772 2.533 1.815 7054
0.808 2.654 1.897 1758
0.771 2.532 1.803 6259
0.810 2.659 1.889 1830
0.771 2.530 1.791 5037
0.807 2.651 1.872 2784
0.801 2.630 1.847 5305
0.758 2.490 1.754 3610
0.801 2.629 1.835 7445
0.760 2.494 1.747 2689
0.798 2.621 1.819 9836
0.761 2.499 1.739 1769
0.796 2.613 1.803 8596
0.833 2.735 1.882 2381
0.787 2.585 1.774 7936
0.825 2.707 1.853 5899
0.826 2.712 1.845 6716
0.789 2.590 1.766 5398
0.827 2.717 1.837 7534
0.790 2.594 1.759 2860
0.829 2.722 1.829 6640
0.791 2.599 1.751 2751
0.830 2.726 1.821 5746
0.793 2.603 1.743 2643
0.832 2.731 1.812 4679
0.794 2.608 1.735 2287
0.851 2.794 1.841 6776
0.803 2.638 1.744 3125
0.850 2.793 1.828 6984
0.807 2.649 1.740 2278
0.846 2.778 1.808 7569
0.884 2.902 1.884 2345
0.841 2.763 1.788 7978
0.879 2.887 1.863 3708
0.847 2.780 1.787 8385
0.885 2.905 1.863 2554
0.850 2.792 1.783 9490
0.898 2.949 1.877 3085
0.864 2.836 1.798 7556
0.902 2.961 1.872 2793
0.867 2.847 1.793 8771
0.905 2.972 1.868 2525
0.872 2.865 1.793 7151
0.915 3.003 1.874 3028
0.886 2.909 1.807 7765
0.924 3.035 1.881 2735
0.891 2.927 1.806 9299
0.930 3.053 1.879 1979
0.893 2.931 1.797 7739
0.931 3.057 1.870 2452
0.894 2.936 1.789 6023
0.933 3.062 1.861 2891
0.916 3.007 1.818 5405
0.877 2.881 1.746 1635
0.915 3.005 1.805 4670
0.954 3.132 1.876 2133
0.921 3.023 1.803 3926
0.959 3.150 1.874 2276
0.957 3.141 1.857 4062
0.918 3.014 1.787 2265
0.960 3.153 1.852 5201
0.905 2.972 1.752 1052
0.960 3.151 1.838 4879
0.913 2.997 1.754 1415
0.957 3.142 1.822 4796
0.996 3.270 1.891 1729
0.956 3.140 1.809 5457
0.995 3.268 1.878 2763
0.954 3.131 1.792 6580
0.993 3.259 1.861 2958
0.955 3.136 1.783 6078
0.994 3.264 1.851 3618
0.989 3.249 1.830 4706
0.950 3.120 1.762 2116
0.995 3.267 1.828 4402
0.956 3.138 1.760 1788
0.996 3.272 1.818 5506
0.957 3.143 1.751 1363
0.998 3.276 1.808 8504
0.959 3.147 1.741 1558
0.999 3.281 1.798 10181
1.039 3.410 1.864 1766
1.003 3.292 1.792 8290
1.042 3.422 1.858 2878
1.017 3.338 1.803 6097
0.977 3.208 1.737 2515
1.030 3.384 1.813 4754
0.991 3.254 1.748 2481
1.019 3.347 1.782 5226
1.059 3.477 1.847 3045
1.037 3.407 1.799 5181
1.090 3.578 1.884 2022
1.043 3.425 1.796 6112
1.095 3.596 1.880 2171
1.055 3.464 1.802 5696
1.015 3.333 1.739 2811
1.056 3.468 1.792 7620
1.098 3.606 1.858 3052
1.056 3.466 1.778 9192
1.100 3.611 1.848 4414
1.057 3.471 1.768 5909
1.097 3.602 1.830 4137
1.084 3.558 1.796 7197
1.124 3.689 1.858 2908
1.085 3.563 1.786 7725
1.125 3.694 1.847 3648
1.089 3.574 1.778 5831
1.133 3.719 1.846 4162
1.134 3.724 1.835 6421
1.086 3.565 1.761 3483
1.136 3.729 1.823 5771
1.085 3.562 1.747 3160
1.169 3.838 1.860 5256
1.114 3.657 1.777 4647
1.172 3.850 1.851 6962
1.115 3.662 1.766 4934
1.174 3.854 1.840 7157
1.134 3.722 1.780 5168
1.173 3.852 1.825 6325
1.133 3.720 1.766 4155
1.175 3.857 1.813 8345
1.134 3.724 1.755 3129
1.178 3.868 1.805 10475
1.138 3.736 1.747 2282
1.180 3.873 1.793 7836
1.231 4.041 1.866 3645
1.234 4.053 1.856 6731
1.179 3.871 1.778 5123
1.236 4.058 1.844 9837
1.178 3.868 1.764 3223
1.241 4.076 1.838 8679
1.201 3.943 1.782 2623
1.245 4.088 1.829 5413
1.200 3.940 1.767 2203
1.253 4.114 1.825 4430
1.212 3.980 1.770 3189
1.231 4.041 1.781 4224
1.282 4.210 1.850 3840
1.294 4.250 1.852 5899
1.254 4.116 1.797 2551
1.296 4.255 1.839 5905
1.255 4.121 1.785 3045
1.297 4.260 1.826 5642
1.338 4.394 1.880 2448
1.301 4.272 1.816 6417
1.342 4.406 1.870 2642
1.328 4.361 1.837 5545
1.287 4.227 1.784 3062
1.332 4.373 1.826 4146
1.265 4.153 1.741 1760
1.338 4.392 1.819 3181
1.407 4.619 1.907 2038
1.350 4.432 1.819 3364
1.391 4.567 1.871 2113
1.379 4.529 1.841 3760
1.332 4.373 1.781 2558
1.409 4.627 1.862 4748
1.335 4.384 1.771 3361
1.408 4.624 1.845 7831
1.345 4.418 1.768 2787
1.410 4.629 1.832 7145
1.355 4.451 1.766 2360
1.413 4.641 1.820 6245
1.455 4.777 1.870 3001
1.417 4.653 1.809 4993
1.461 4.796 1.861 3578
1.440 4.729 1.820 5032
1.488 4.887 1.877 4056
1.472 4.834 1.842 6186
1.514 4.970 1.890 3040
1.504 4.939 1.863 5857
1.450 4.760 1.799 3412
1.506 4.944 1.848 4450
1.453 4.772 1.788 1503
1.514 4.970 1.840 3317
1.573 5.165 1.907 1734
1.537 5.047 1.850 4564
1.579 5.184 1.897 2134
1.550 5.088 1.847 3152
1.602 5.261 1.905 1703
1.555 5.107 1.836 2783
1.599 5.251 1.885 2052
1.610 5.285 1.878 2601
1.561 5.126 1.826 1897
1.618 5.312 1.870 3525
1.527 5.015 1.772 1398
1.624 5.331 1.858 2830
1.557 5.114 1.788 1156
1.643 5.393 1.861 2821
1.601 5.256 1.816 1647
1.646 5.406 1.847 2706
1.604 5.268 1.803 1123
1.657 5.439 1.840 2571
1.732 5.686 1.917 1912
1.662 5.458 1.828 2621
1.711 5.618 1.877 2081
1.746 5.732 1.894 2355
1.662 5.456 1.809 1461
1.745 5.730 1.875 2834
1.800 5.911 1.930 1528
1.749 5.742 1.859 2508
1.813 5.953 1.923 2504
1.814 5.958 1.905 3333
1.877 6.161 1.966 2322
1.783 5.853 1.855 3490
1.885 6.188 1.954 3365
1.888 6.201 1.937 3616
1.780 5.843 1.833 2429
1.894 6.220 1.923 3105
1.974 6.483 1.999 1898
1.898 6.233 1.906 2412
1.969 6.466 1.973 2239
1.924 6.318 1.910 2888
1.966 6.457 1.949 2617
2.010 6.601 1.968 2679
1.926 6.323 1.891 2422
2.010 6.599 1.946 3297
2.052 6.738 1.985 2347
2.013 6.611 1.928 2674
2.078 6.823 1.986 2627
2.082 6.836 1.968 2096
2.147 7.049 2.025 2044
2.148 7.054 2.003 1957
2.086 6.848 1.949 1712
2.246 7.375 2.065 2168
2.166 7.110 1.996 2119
2.248 7.380 2.043 2060
2.160 7.094 1.968 1891
2.249 7.385 2.020 2158
2.151 7.062 1.937 1524
2.249 7.383 1.996 2049
2.365 7.766 2.093 1371
2.369 7.779 2.071 1968
2.248 7.381 1.972 1616
2.380 7.814 2.055 2336
2.335 7.666 2.019 1968
2.381 7.819 2.031 2483
2.458 8.070 2.092 1817
2.381 7.817 2.006 1828
2.453 8.053 2.063 1796
2.452 8.051 2.036 2065
2.513 8.250 2.084 1575
2.454 8.056 2.012 1955
2.544 8.352 2.081 1784
2.552 8.379 2.061 2344
2.678 8.794 2.156 1818
2.680 8.799 2.130 2666
2.558 8.400 2.039 2532
2.679 8.797 2.101 2912
2.560 8.405 2.013 2038
2.681 8.803 2.075 2235
2.552 8.380 1.981 1806
2.685 8.816 2.050 1982
2.558 8.400 1.959 1392
2.684 8.813 2.021 1916
2.903 9.533 2.176 1342
2.910 9.553 2.150 1854
2.835 9.309 2.098 1795
2.911 9.559 2.121 2202
2.837 9.314 2.070 1731
3.139 10.308 2.244 2041
2.947 9.676 2.115 1373
3.141 10.314 2.213 2630
3.220 10.574 2.266 1420
3.143 10.319 2.182 3898
3.011 9.888 2.096 1588
3.145 10.325 2.150 4973
3.015 9.901 2.067 1859
3.146 10.331 2.119 5121
3.332 10.941 2.237 1574
3.148 10.336 2.088 4443
3.230 10.604 2.138 2126
3.150 10.341 2.056 3416
3.231 10.610 2.106 2260
3.151 10.347 2.025 2158
3.231 10.608 2.073 1545
3.512 11.531 2.206 1343
3.230 10.606 2.039 1099
3.516 11.544 2.172 1295
3.659 12.015 2.255 878
3.659 12.013 2.217 985
3.531 11.595 2.145 904
3.979 13.065 2.359 1112
3.658 12.011 2.179 936
3.981 13.071 2.319 1206
4.136 13.580 2.404 999
4.138 13.586 2.363 937
4.181 13.728 2.387 792
4.144 13.607 2.324 871
4.188 13.750 2.347 761
4.030 13.232 2.223 750
4.139 13.589 2.237 755
0.669 2.186 1.783 3224
0.671 2.190 1.777 6449
0.706 2.306 1.865 1525
0.672 2.195 1.770 6449
0.708 2.311 1.859 3051
0.681 2.224 1.782 7276
0.717 2.340 1.870 1678
0.684 2.234 1.780 9614
0.720 2.351 1.868 1384
0.690 2.251 1.783 9249
0.725 2.368 1.870 1881
0.695 2.268 1.785 10461
0.731 2.386 1.872 2341
0.696 2.273 1.778 10461
0.732 2.390 1.865 2433
0.713 2.327 1.808 9789
0.677 2.209 1.721 1595
0.714 2.332 1.801 11288
0.750 2.450 1.887 1672
0.716 2.336 1.794 9215
0.752 2.455 1.879 1707
0.736 2.403 1.832 10668
0.700 2.285 1.746 3138
0.740 2.414 1.829 10287
0.703 2.295 1.744 2526
0.743 2.425 1.826 10254
0.706 2.306 1.742 1585
0.744 2.430 1.819 10254
0.708 2.311 1.735 1020
0.748 2.441 1.816 11330
0.784 2.560 1.900 824
0.751 2.452 1.813 12865
0.788 2.571 1.897 986
0.751 2.450 1.802 13741
0.787 2.570 1.885 1091
0.752 2.455 1.794 14553
0.715 2.335 1.711 1188
0.751 2.453 1.783 10927
0.788 2.573 1.865 1752
0.776 2.534 1.827 8448
0.739 2.413 1.745 2978
0.776 2.532 1.815 7165
0.813 2.653 1.897 1820
0.756 2.467 1.760 6919
0.793 2.588 1.842 2291
0.757 2.471 1.753 5925
0.804 2.624 1.855 3482
0.805 2.629 1.847 5113
0.760 2.482 1.750 5047
0.805 2.628 1.835 7181
0.762 2.487 1.742 3644
0.802 2.619 1.819 9586
0.759 2.478 1.727 2305
0.802 2.618 1.807 8411
0.839 2.740 1.886 1750
0.791 2.584 1.774 7692
0.829 2.706 1.853 5596
0.830 2.711 1.845 6647
0.793 2.588 1.766 5193
0.832 2.716 1.837 7699
0.794 2.593 1.759 2694
0.833 2.720 1.829 6629
0.796 2.597 1.751 2499
0.833 2.719 1.817 5573
0.795 2.595 1.739 1953
0.852 2.782 1.845 4788
0.808 2.639 1.756 3175
0.856 2.793 1.841 6638
0.810 2.643 1.748 2684
0.855 2.791 1.828 7085
0.811 2.648 1.740 1994
0.850 2.776 1.808 8001
0.888 2.900 1.884 2367
0.846 2.761 1.788 8025
0.884 2.886 1.863 3765
0.851 2.779 1.787 7936
0.889 2.904 1.863 2613
0.855 2.790 1.783 8742
0.901 2.941 1.873 3154
0.868 2.834 1.798 6805
0.906 2.959 1.872 2772
0.872 2.845 1.793 7912
0.910 2.971 1.868 2398
0.877 2.863 1.793 6615
0.915 2.989 1.866 2657
0.891 2.907 1.807 8119
0.929 3.033 1.881 2275
0.896 2.925 1.806 9814
0.935 3.051 1.879 1819
0.898 2.930 1.797 8271
0.936 3.056 1.870 2578
0.899 2.935 1.789 6597
0.938 3.061 1.861 3155
0.911 2.972 1.799 5324
0.949 3.099 1.870 1897
0.920 3.004 1.805 4744
0.959 3.130 1.876 1899
0.926 3.022 1.803 4072
0.964 3.148 1.874 2117
0.962 3.140 1.857 4000
0.923 3.013 1.787 2636
0.963 3.145 1.848 5288
0.924 3.018 1.778 1606
0.965 3.149 1.838 5276
0.920 3.002 1.758 1663
0.962 3.141 1.822 5122
0.923 3.013 1.752 1736
0.959 3.132 1.805 5395
0.999 3.260 1.874 2567
0.959 3.130 1.792 6589
0.998 3.258 1.861 2503
0.960 3.135 1.783 6462
0.999 3.263 1.851 3692
0.991 3.234 1.823 5784
0.951 3.105 1.755 1776
0.996 3.252 1.821 5072
0.957 3.123 1.753 1803
1.002 3.270 1.818 6154
0.962 3.141 1.751 2033
1.003 3.275 1.808 9516
0.964 3.146 1.741 1981
1.005 3.279 1.798 11391
0.965 3.150 1.732 2125
1.008 3.291 1.792 9244
1.048 3.420 1.858 2905
1.022 3.336 1.803 7248
0.982 3.207 1.737 2221
1.023 3.341 1.792 6012
1.063 3.471 1.858 2475
1.025 3.346 1.782 6452
1.065 3.475 1.847 2507
1.043 3.405 1.799 5144
1.097 3.583 1.888 1783
1.049 3.423 1.796 5973
1.099 3.588 1.877 2172
1.060 3.462 1.802 5958
1.021 3.332 1.739 2958
1.062 3.467 1.792 8264
1.102 3.597 1.855 3612
1.061 3.464 1.778 10360
1.105 3.609 1.848 5186
1.063 3.469 1.768 6939
1.103 3.600 1.830 4784
1.091 3.563 1.800 7337
1.132 3.694 1.862 2218
1.093 3.568 1.789 7970
1.133 3.699 1.851 2718
1.096 3.579 1.781 6236
1.141 3.725 1.849 3661
1.140 3.722 1.835 5487
1.098 3.584 1.771 3612
1.140 3.720 1.820 5132
1.091 3.561 1.747 2903
1.122 3.662 1.781 5615
1.173 3.829 1.856 4362
1.179 3.848 1.851 5871
1.123 3.667 1.770 5750
1.180 3.852 1.840 6314
1.140 3.720 1.780 5317
1.179 3.850 1.825 5765
1.139 3.718 1.766 4252
1.183 3.862 1.816 8157
1.142 3.729 1.758 3290
1.184 3.866 1.805 10357
1.144 3.734 1.747 2187
1.184 3.864 1.790 8426
1.229 4.011 1.854 3240
1.241 4.051 1.856 6020
1.185 3.869 1.778 5887
1.242 4.056 1.844 9584
1.184 3.866 1.764 3417
1.248 4.074 1.838 9099
1.207 3.941 1.782 2326
1.252 4.086 1.829 5734
1.211 3.953 1.773 2609
1.238 4.042 1.796 4500
1.279 4.175 1.851 3307
1.231 4.018 1.772 4175
1.308 4.272 1.876 3863
1.303 4.255 1.855 5604
1.262 4.121 1.800 2635
1.303 4.253 1.839 5444
1.262 4.119 1.785 3143
1.304 4.258 1.826 5496
1.263 4.123 1.772 2320
1.306 4.262 1.813 6322
1.347 4.397 1.867 2772
1.335 4.359 1.837 5805
1.294 4.225 1.784 3410
1.339 4.371 1.826 4289
1.298 4.236 1.774 2271
1.342 4.383 1.816 3095
1.395 4.553 1.882 1778
1.359 4.437 1.822 3749
1.401 4.572 1.874 1893
1.387 4.527 1.841 4673
1.345 4.392 1.790 2360
1.417 4.624 1.862 4296
1.375 4.489 1.811 3523
1.416 4.622 1.845 6957
1.353 4.415 1.768 2884
1.417 4.627 1.832 6366
1.365 4.456 1.768 2603
1.421 4.639 1.820 5660
1.467 4.789 1.875 2958
1.425 4.651 1.809 4522
1.468 4.794 1.861 3605
1.450 4.734 1.823 5610
1.496 4.884 1.877 3995
1.454 4.746 1.811 6506
1.506 4.918 1.872 4847
1.512 4.937 1.863 5405
1.457 4.758 1.799 4135
1.514 4.942 1.848 4121
1.461 4.769 1.788 1884
1.522 4.968 1.840 3131
1.588 5.184 1.915 1750
1.547 5.052 1.852 4265
1.589 5.189 1.899 1952
1.558 5.085 1.847 3399
1.611 5.258 1.905 1520
1.564 5.105 1.836 2839
1.606 5.242 1.882 1840
1.603 5.232 1.862 2639
1.647 5.376 1.910 1511
1.620 5.287 1.862 3292
1.536 5.013 1.772 1294
1.619 5.285 1.844 2867
1.661 5.422 1.889 1586
1.651 5.391 1.861 3353
1.609 5.253 1.816 1750
1.655 5.403 1.847 2974
1.741 5.685 1.937 1072
1.663 5.429 1.837 2246
1.739 5.676 1.915 1970
1.669 5.449 1.825 2379
1.722 5.623 1.880 2000
1.755 5.729 1.894 2454
1.668 5.446 1.807 1459
1.754 5.727 1.875 2748
1.810 5.908 1.930 1557
1.822 5.950 1.923 2497
1.760 5.746 1.862 2320
1.826 5.962 1.907 3293
1.784 5.824 1.866 2718
1.792 5.850 1.855 3638
1.895 6.185 1.954 3102
1.896 6.190 1.935 3537
1.789 5.840 1.833 2440
1.896 6.188 1.914 3004
1.987 6.487 2.001 2096
1.931 6.303 1.927 2478
1.980 6.463 1.973 2214
1.932 6.307 1.908 3241
1.979 6.461 1.951 2730
2.021 6.598 1.968 3120
1.934 6.312 1.889 2822
2.020 6.595 1.946 3411
2.063 6.734 1.985 2261
2.022 6.600 1.926 2676
2.089 6.820 1.986 2349
2.156 7.038 2.023 2589
2.068 6.752 1.946 1793
2.160 7.050 2.003 2219
2.070 6.757 1.925 1630
2.258 7.371 2.065 2227
2.177 7.107 1.996 2173
2.260 7.377 2.043 2176
2.167 7.075 1.965 2059
2.261 7.382 2.020 2297
2.164 7.066 1.939 1765
2.258 7.372 1.994 2295
2.378 7.762 2.093 1394
2.382 7.775 2.071 2074
2.260 7.377 1.972 2006
2.390 7.802 2.053 2572
2.345 7.655 2.017 1771
2.392 7.808 2.030 2659
2.468 8.058 2.091 2163
2.466 8.049 2.063 2349
2.393 7.813 2.006 1996
2.465 8.047 2.036 2522
2.524 8.239 2.082 1932
2.467 8.052 2.012 2256
2.555 8.340 2.079 1801
2.566 8.375 2.061 2296
2.692 8.789 2.156 1818
2.694 8.795 2.130 2623
2.572 8.395 2.039 2564
2.693 8.793 2.101 2924
2.576 8.408 2.015 2244
2.695 8.798 2.075 2393
2.568 8.384 1.983 2294
2.697 8.804 2.048 2147
2.572 8.396 1.959 1819
2.698 8.809 2.021 2020
2.916 9.521 2.174 1340
2.705 8.829 1.998 1729
2.923 9.541 2.148 1721
2.927 9.554 2.121 2123
2.847 9.295 2.067 1589
3.156 10.303 2.244 2407
2.990 9.760 2.133 1418
3.155 10.301 2.212 3155
3.023 9.870 2.124 1707
3.159 10.314 2.182 4576
3.025 9.875 2.094 2042
3.161 10.320 2.150 5715
3.031 9.896 2.067 2172
3.163 10.325 2.119 5899
3.348 10.928 2.235 1648
3.165 10.331 2.088 5217
3.247 10.599 2.138 2333
3.166 10.336 2.056 4064
3.248 10.605 2.106 2525
3.168 10.342 2.025 2539
3.248 10.603 2.073 1709
3.530 11.525 2.206 1365
3.169 10.347 1.993 1267
3.534 11.539 2.172 1242
3.578 11.680 2.197 876
3.550 11.589 2.145 940
3.678 12.007 2.217 864
4.000 13.059 2.359 1185
3.678 12.006 2.179 869
4.002 13.065 2.319 1265
4.155 13.566 2.403 968
4.157 13.572 2.362 912
4.166 13.601 2.324 838
4.158 13.575 2.236 771
0.673 2.184 1.783 3713
0.674 2.189 1.777 7427
0.710 2.305 1.865 1485
0.676 2.194 1.770 7427
0.711 2.310 1.859 2970
0.681 2.210 1.773 7479
0.717 2.327 1.861 2425
0.688 2.233 1.780 9445
0.724 2.350 1.868 1371
0.693 2.250 1.783 8933
0.729 2.367 1.870 2156
0.698 2.267 1.785 10118
0.734 2.384 1.872 3043
0.700 2.272 1.778 10118
0.736 2.389 1.865 3169
0.716 2.326 1.808 10186
0.753 2.444 1.894 1695
0.718 2.331 1.801 11708
0.754 2.448 1.887 2129
0.719 2.335 1.794 9543
0.756 2.453 1.879 2152
0.742 2.408 1.836 11650
0.705 2.290 1.751 3310
0.743 2.413 1.829 11530
0.707 2.294 1.744 2227
0.747 2.424 1.826 11855
0.710 2.305 1.742 1368
0.748 2.429 1.819 11855
0.711 2.310 1.735 972
0.751 2.440 1.816 13133
0.753 2.444 1.809 14450
0.790 2.564 1.892 990
0.752 2.443 1.797 15369
0.789 2.563 1.880 1182
0.754 2.447 1.790 16239
0.791 2.567 1.873 1313
0.753 2.446 1.778 12845
0.790 2.566 1.861 2271
0.755 2.450 1.771 9599
0.792 2.571 1.853 2792
0.756 2.455 1.764 9185
0.793 2.575 1.845 2983
0.757 2.459 1.756 8772
0.795 2.580 1.837 3175
0.761 2.470 1.753 7655
0.808 2.623 1.855 3603
0.764 2.481 1.750 6628
0.809 2.628 1.847 5078
0.807 2.620 1.831 7157
0.764 2.479 1.738 4793
0.806 2.618 1.819 9656
0.763 2.477 1.727 3014
0.806 2.616 1.807 8437
0.766 2.488 1.723 1976
0.795 2.582 1.774 7665
0.833 2.705 1.853 4904
0.835 2.710 1.845 6109
0.797 2.587 1.766 5208
0.836 2.714 1.837 7314
0.798 2.592 1.759 2751
0.835 2.713 1.825 6275
0.798 2.590 1.747 2150
0.837 2.717 1.817 5285
0.799 2.594 1.739 1664
0.858 2.787 1.849 4893
0.812 2.637 1.756 2741
0.860 2.792 1.841 6443
0.814 2.642 1.748 2287
0.859 2.790 1.828 6934
0.815 2.646 1.740 1730
0.853 2.768 1.804 8041
0.891 2.892 1.880 2891
0.848 2.753 1.784 8066
0.886 2.878 1.859 4047
0.854 2.771 1.783 7580
0.892 2.896 1.859 2895
0.857 2.782 1.779 8085
0.905 2.940 1.873 3253
0.875 2.839 1.802 6038
0.913 2.964 1.876 2625
0.876 2.844 1.793 6958
0.915 2.969 1.868 2433
0.881 2.862 1.793 5980
0.920 2.987 1.866 2397
0.897 2.913 1.811 8273
0.936 3.038 1.884 1625
0.901 2.924 1.806 10076
0.939 3.050 1.879 1690
0.902 2.929 1.797 8654
0.941 3.055 1.870 2702
0.903 2.933 1.789 7126
0.942 3.059 1.861 3394
0.905 2.938 1.780 5526
0.944 3.064 1.852 3546
0.925 3.002 1.805 4922
0.964 3.129 1.876 1788
0.930 3.020 1.803 4419
0.969 3.147 1.874 1940
0.967 3.138 1.857 3932
0.928 3.012 1.787 3087
0.968 3.143 1.848 5433
0.929 3.016 1.778 2042
0.968 3.141 1.835 5546
0.928 3.014 1.765 1707
0.967 3.139 1.822 5034
0.928 3.012 1.752 1739
0.964 3.131 1.805 4754
1.004 3.258 1.874 2048
0.962 3.122 1.788 5998
1.003 3.256 1.861 2029
0.965 3.133 1.783 6341
1.004 3.261 1.851 3737
0.993 3.225 1.820 6772
0.954 3.097 1.752 1671
0.995 3.230 1.810 5934
0.955 3.102 1.742 1101
1.007 3.269 1.818 6710
0.967 3.140 1.751 2271
1.008 3.273 1.808 10373
0.968 3.144 1.741 2069
1.010 3.278 1.798 12481
0.970 3.149 1.732 2151
1.013 3.289 1.792 10154
1.053 3.418 1.858 2995
1.027 3.335 1.803 8083
1.067 3.464 1.868 2125
1.029 3.339 1.792 6845
1.068 3.469 1.858 2522
1.030 3.344 1.782 7371
1.070 3.474 1.847 2273
1.027 3.335 1.766 5672
1.067 3.465 1.830 2184
1.056 3.428 1.799 5422
1.016 3.298 1.735 2192
1.066 3.460 1.802 6191
1.106 3.591 1.866 2677
1.065 3.458 1.789 8793
1.107 3.596 1.855 3874
1.067 3.463 1.778 11096
1.111 3.607 1.848 5639
1.068 3.467 1.768 7473
1.108 3.598 1.830 5491
1.099 3.568 1.803 7642
1.059 3.437 1.741 2300
1.098 3.566 1.789 8086
1.139 3.697 1.851 2324
1.102 3.578 1.781 6643
1.149 3.730 1.852 3377
1.148 3.728 1.838 4489
1.105 3.589 1.774 4137
1.143 3.711 1.817 4449
1.096 3.559 1.747 2846
1.127 3.661 1.781 6313
1.179 3.827 1.856 3609
1.129 3.665 1.770 6467
1.182 3.839 1.848 4746
1.184 3.844 1.836 5319
1.143 3.711 1.777 4641
1.185 3.848 1.825 5190
1.145 3.716 1.766 3574
1.189 3.860 1.816 8173
1.148 3.727 1.758 2840
1.190 3.865 1.805 10370
1.149 3.732 1.747 2054
1.190 3.862 1.790 8595
1.233 4.002 1.850 3230
1.193 3.874 1.781 6128
1.247 4.049 1.856 5622
1.249 4.054 1.844 9417
1.208 3.920 1.788 3735
1.254 4.072 1.838 9094
1.213 3.939 1.782 2702
1.256 4.077 1.826 6024
1.215 3.944 1.770 2853
1.259 4.089 1.816 4961
1.218 3.955 1.761 3269
1.235 4.009 1.769 4296
1.315 4.270 1.876 3874
1.310 4.253 1.855 5121
1.264 4.105 1.794 2766
1.309 4.251 1.839 5088
1.268 4.117 1.785 3233
1.311 4.256 1.826 5448
1.269 4.121 1.772 2426
1.314 4.267 1.816 6114
1.356 4.402 1.870 2338
1.342 4.357 1.837 5732
1.301 4.223 1.784 3630
1.348 4.376 1.829 4044
1.306 4.241 1.777 3170
1.336 4.338 1.800 3046
1.378 4.473 1.852 1752
1.366 4.435 1.822 4099
1.408 4.570 1.874 1848
1.394 4.525 1.841 5168
1.352 4.390 1.790 2174
1.397 4.537 1.830 4559
1.351 4.387 1.774 2649
1.423 4.620 1.845 6273
1.359 4.413 1.768 2695
1.424 4.625 1.832 5875
1.372 4.453 1.768 2469
1.430 4.644 1.823 5430
1.474 4.786 1.875 3057
1.432 4.648 1.809 4360
1.476 4.791 1.861 3392
1.457 4.732 1.823 6031
1.506 4.889 1.880 4000
1.461 4.744 1.811 6684
1.510 4.901 1.867 4327
1.518 4.927 1.860 4818
1.465 4.755 1.799 4415
1.524 4.947 1.850 3938
1.468 4.767 1.788 2089
1.529 4.966 1.840 2957
1.596 5.181 1.915 1740
1.555 5.049 1.852 3535
1.597 5.186 1.899 2045
1.568 5.090 1.849 3097
1.621 5.263 1.908 1614
1.574 5.109 1.839 3051
1.616 5.246 1.885 1816
1.611 5.229 1.862 2630
1.569 5.092 1.816 1727
1.626 5.278 1.860 3152
1.668 5.415 1.905 1155
1.625 5.275 1.842 2876
1.667 5.412 1.886 1670
1.657 5.381 1.858 3502
1.615 5.244 1.814 1652
1.663 5.400 1.847 2874
1.770 5.748 1.958 1138
1.747 5.673 1.915 1991
1.671 5.427 1.837 1947
1.733 5.627 1.882 2192
1.675 5.439 1.823 2100
1.764 5.726 1.894 2137
1.721 5.589 1.851 1839
1.765 5.731 1.877 2320
1.723 5.593 1.835 1701
1.856 6.027 1.947 2406
1.773 5.758 1.866 2097
1.835 5.959 1.907 3081
1.793 5.821 1.866 2855
1.801 5.848 1.855 3581
1.904 6.182 1.954 2602
1.906 6.187 1.935 3413
1.796 5.830 1.831 2213
1.903 6.178 1.912 3217
1.999 6.491 2.003 2122
1.940 6.300 1.927 2400
1.990 6.460 1.973 2110
1.940 6.297 1.906 3267
1.989 6.458 1.951 2597
2.031 6.594 1.968 3142
1.941 6.302 1.887 2973
2.028 6.585 1.944 3133
1.985 6.446 1.906 2059
2.007 6.517 1.904 2544
2.075 6.736 1.964 2049
2.167 7.034 2.023 2527
2.079 6.749 1.946 2157
2.168 7.040 2.002 2062
2.080 6.754 1.925 1600
2.269 7.368 2.065 2129
2.188 7.104 1.996 2093
2.273 7.380 2.045 2238
2.178 7.072 1.965 1980
2.273 7.378 2.020 2412
2.175 7.062 1.939 1669
2.270 7.369 1.994 2430
2.390 7.759 2.093 1397
2.271 7.374 1.972 2232
2.396 7.779 2.073 1999
2.402 7.799 2.053 2516
2.475 8.034 2.111 1868
2.404 7.804 2.030 2558
2.476 8.040 2.087 2395
2.478 8.045 2.063 2782
2.403 7.802 2.004 2025
2.477 8.043 2.036 2938
2.534 8.228 2.080 2149
2.479 8.048 2.012 2435
2.536 8.233 2.055 1761
2.581 8.379 2.063 2009
2.483 8.061 1.989 1747
2.587 8.399 2.041 2488
2.708 8.791 2.130 2438
2.707 8.789 2.101 2797
2.584 8.389 2.012 2506
2.581 8.380 1.983 2843
2.709 8.794 2.075 2395
2.585 8.392 1.959 2253
2.710 8.800 2.048 2153
2.712 8.805 2.021 2052
2.931 9.516 2.174 1379
2.716 8.818 1.996 1749
2.935 9.529 2.147 1670
2.939 9.542 2.119 1928
3.170 10.292 2.276 1620
3.172 10.298 2.244 2697
3.003 9.748 2.132 1691
3.171 10.296 2.212 3494
3.041 9.873 2.126 1972
3.175 10.309 2.182 4918
3.040 9.871 2.094 2502
3.177 10.315 2.150 6117
3.047 9.891 2.067 2575
3.179 10.321 2.119 6360
3.364 10.923 2.235 1810
3.180 10.326 2.088 5667
3.263 10.594 2.138 2420
3.182 10.331 2.056 4384
3.265 10.600 2.106 2658
3.184 10.337 2.025 2666
3.264 10.598 2.073 1811
3.551 11.527 2.207 1458
3.185 10.342 1.993 1301
3.552 11.533 2.172 1232
3.596 11.675 2.197 862
3.570 11.591 2.146 1039
3.513 11.404 2.113 762
4.020 13.053 2.359 1185
3.567 11.582 2.108 858
4.022 13.059 2.319 1244
4.176 13.559 2.403 861
4.181 13.573 2.363 855
4.224 13.715 2.387 846
4.224 13.714 2.344 923
4.180 13.572 2.321 775
4.025 13.069 2.199 818
4.179 13.569 2.236 803
0.674 2.177 1.778 4198
0.676 2.182 1.772 8397
0.712 2.298 1.861 1662
0.677 2.186 1.765 8397
0.713 2.303 1.854 3325
0.682 2.203 1.768 7868
0.719 2.320 1.856 2916
0.691 2.232 1.780 9154
0.728 2.349 1.868 1566
0.695 2.243 1.778 8593
0.731 2.360 1.865 2911
0.702 2.266 1.785 9601
0.738 2.383 1.872 3991
0.703 2.271 1.778 9601
0.742 2.394 1.869 4164
0.720 2.325 1.808 10024
0.757 2.442 1.894 2112
0.722 2.329 1.801 11447
0.758 2.447 1.887 2636
0.746 2.409 1.848 10516
0.710 2.290 1.762 4785
0.746 2.407 1.836 12760
0.709 2.289 1.751 3412
0.749 2.418 1.834 13037
0.712 2.300 1.749 2662
0.752 2.429 1.831 13682
0.716 2.310 1.746 1621
0.754 2.434 1.823 13682
0.717 2.315 1.739 1308
0.755 2.438 1.816 15067
0.718 2.319 1.732 995
0.755 2.437 1.804 16332
0.792 2.556 1.888 964
0.756 2.441 1.797 17528
0.719 2.322 1.714 1132
0.758 2.446 1.790 18605
0.721 2.326 1.707 1269
0.757 2.444 1.778 15281
0.794 2.565 1.861 2229
0.759 2.449 1.771 11993
0.796 2.569 1.853 2759
0.760 2.453 1.764 11209
0.797 2.574 1.845 3272
0.761 2.458 1.756 10425
0.799 2.579 1.837 3785
0.765 2.469 1.753 9198
0.804 2.596 1.838 3876
0.766 2.473 1.746 8170
0.814 2.627 1.847 4964
0.809 2.612 1.827 7160
0.768 2.478 1.738 6042
0.809 2.610 1.815 9781
0.769 2.482 1.731 3914
0.810 2.615 1.807 8529
0.770 2.487 1.723 2566
0.800 2.581 1.774 7761
0.837 2.703 1.853 4339
0.839 2.708 1.845 5681
0.801 2.586 1.766 5299
0.838 2.707 1.833 7025
0.800 2.584 1.755 2760
0.840 2.711 1.825 6007
0.802 2.588 1.747 2091
0.841 2.716 1.817 4988
0.803 2.593 1.739 1422
0.863 2.785 1.849 4834
0.817 2.636 1.756 2299
0.864 2.790 1.841 6061
0.820 2.647 1.752 1962
0.864 2.788 1.828 6706
0.819 2.645 1.740 1435
0.855 2.761 1.800 8486
0.894 2.885 1.876 3238
0.853 2.752 1.784 8399
0.891 2.876 1.859 3935
0.856 2.763 1.779 7327
0.894 2.888 1.855 3284
0.861 2.781 1.779 7370
0.910 2.938 1.873 3250
0.881 2.845 1.806 5531
0.920 2.969 1.880 2315
0.881 2.843 1.793 6176
0.919 2.968 1.868 2547
0.892 2.880 1.804 5443
0.931 3.005 1.878 1617
0.902 2.911 1.811 8430
0.941 3.037 1.884 1267
0.905 2.922 1.806 10325
0.944 3.048 1.879 1555
0.907 2.927 1.797 9032
0.946 3.053 1.870 2827
0.908 2.932 1.789 7650
0.947 3.058 1.861 3602
0.912 2.943 1.784 5786
0.951 3.069 1.855 3421
0.927 2.994 1.801 5022
0.967 3.121 1.872 1895
0.937 3.025 1.807 4662
0.976 3.152 1.878 1551
0.947 3.057 1.813 4913
0.986 3.184 1.883 1819
0.952 3.075 1.811 5618
0.992 3.202 1.881 1615
0.973 3.140 1.835 5542
0.933 3.012 1.765 2170
0.970 3.131 1.818 4796
0.930 3.004 1.749 1801
0.969 3.129 1.805 4281
1.009 3.257 1.874 1666
0.967 3.120 1.788 5637
1.006 3.248 1.857 1795
0.970 3.131 1.783 6445
1.010 3.259 1.851 3869
0.997 3.217 1.816 7908
0.957 3.089 1.748 1611
0.998 3.222 1.806 7045
0.958 3.093 1.739 1274
1.012 3.267 1.818 7153
0.972 3.138 1.751 2836
1.013 3.272 1.808 11000
0.974 3.143 1.741 2622
1.015 3.276 1.798 13294
0.975 3.147 1.732 2697
1.018 3.288 1.792 10848
1.058 3.417 1.858 2835
1.032 3.333 1.803 8833
1.073 3.462 1.868 2058
1.023 3.304 1.775 7705
1.068 3.447 1.847 2789
1.033 3.335 1.779 8362
1.073 3.465 1.844 2217
1.033 3.333 1.766 6362
1.073 3.463 1.830 1750
1.061 3.427 1.799 4703
1.021 3.297 1.735 2273
1.069 3.452 1.799 6112
1.110 3.582 1.863 2838
1.071 3.456 1.789 9108
1.113 3.594 1.855 3942
1.072 3.461 1.778 11682
1.117 3.605 1.848 5852
1.076 3.472 1.771 7821
1.116 3.603 1.833 5789
1.107 3.574 1.806 7162
1.066 3.443 1.744 2495
1.104 3.564 1.789 7278
1.151 3.716 1.860 2562
1.110 3.583 1.785 6372
1.157 3.735 1.856 3480
1.122 3.622 1.790 4394
1.163 3.753 1.851 3789
1.134 3.661 1.795 4432
1.177 3.800 1.858 2665
1.133 3.659 1.781 7107
1.183 3.818 1.853 2890
1.137 3.670 1.773 7150
1.191 3.844 1.851 3372
1.149 3.710 1.777 4457
1.192 3.849 1.840 4024
1.198 3.867 1.834 4685
1.157 3.735 1.775 3659
1.197 3.865 1.819 8263
1.156 3.733 1.761 2913
1.197 3.863 1.805 10177
1.155 3.730 1.747 2154
1.196 3.860 1.790 8818
1.239 4.000 1.850 3552
1.202 3.879 1.784 6696
1.243 4.012 1.841 5162
1.255 4.052 1.844 9131
1.214 3.919 1.788 4234
1.261 4.070 1.838 9161
1.220 3.937 1.782 3239
1.262 4.075 1.826 6304
1.221 3.942 1.770 3372
1.266 4.087 1.816 5438
1.225 3.953 1.761 3762
1.267 4.091 1.804 4504
1.322 4.267 1.876 3417
1.317 4.251 1.855 4351
1.271 4.103 1.794 3207
1.314 4.242 1.836 4684
1.272 4.108 1.782 3048
1.318 4.254 1.826 5173
1.276 4.119 1.772 2281
1.319 4.258 1.813 5835
1.361 4.393 1.867 2607
1.349 4.355 1.837 5905
1.307 4.220 1.784 4017
1.322 4.267 1.788 4135
1.368 4.416 1.846 3293
1.341 4.329 1.797 3496
1.383 4.464 1.849 2664
1.375 4.440 1.825 4842
1.334 4.305 1.773 2033
1.401 4.523 1.841 5455
1.359 4.388 1.790 2595
1.405 4.535 1.830 4723
1.363 4.399 1.779 2679
1.430 4.618 1.845 5441
1.371 4.425 1.774 2782
1.432 4.622 1.832 5194
1.379 4.451 1.768 2630
1.438 4.641 1.823 5260
1.482 4.784 1.875 3215
1.439 4.646 1.809 4526
1.486 4.796 1.863 3064
1.465 4.729 1.823 6134
1.514 4.887 1.880 3956
1.469 4.741 1.811 6747
1.517 4.899 1.867 4042
1.472 4.753 1.799 4738
1.526 4.925 1.860 4086
1.534 4.951 1.853 3463
1.478 4.772 1.790 2513
1.537 4.963 1.840 2495
1.600 5.164 1.910 1647
1.563 5.047 1.852 3216
1.606 5.184 1.899 2087
1.576 5.088 1.849 3467
1.629 5.260 1.908 1463
1.582 5.107 1.839 3045
1.540 4.970 1.793 1702
1.619 5.227 1.862 2378
1.577 5.090 1.816 1853
1.630 5.260 1.855 2977
1.672 5.398 1.900 1477
1.660 5.359 1.870 2974
1.618 5.222 1.825 1956
1.666 5.378 1.858 3695
1.624 5.241 1.814 1786
1.668 5.383 1.842 2963
1.710 5.521 1.886 1345
1.754 5.663 1.913 2024
1.678 5.417 1.835 1907
1.742 5.624 1.882 2111
1.682 5.429 1.821 1920
1.730 5.586 1.851 2033
1.773 5.724 1.894 1950
1.774 5.728 1.877 1957
1.732 5.590 1.835 1904
1.866 6.024 1.947 2468
1.787 5.770 1.870 1853
1.807 5.833 1.870 2924
1.850 5.971 1.912 2858
1.810 5.845 1.855 3269
1.912 6.172 1.952 2176
1.911 6.170 1.931 3096
1.807 5.835 1.833 1800
1.910 6.167 1.910 3214
2.010 6.488 2.003 2101
1.953 6.304 1.929 2228
1.910 6.165 1.889 1799
1.952 6.301 1.908 3095
1.999 6.455 1.951 2134
1.953 6.306 1.889 2948
2.042 6.591 1.968 2811
2.037 6.574 1.942 2634
1.993 6.435 1.904 1851
2.020 6.521 1.906 2742
2.086 6.733 1.964 2108
2.178 7.031 2.023 2593
2.090 6.745 1.946 2391
2.175 7.022 1.998 2205
2.093 6.758 1.927 1510
2.199 7.100 1.996 2082
2.281 7.364 2.065 1915
2.287 7.384 2.047 2290
2.190 7.068 1.965 2118
2.287 7.382 2.022 2541
2.189 7.066 1.941 1528
2.284 7.373 1.996 2309
2.402 7.755 2.093 1418
2.283 7.370 1.972 2166
2.406 7.767 2.071 2039
2.415 7.795 2.053 2725
2.488 8.030 2.111 1988
2.416 7.800 2.030 3217
2.489 8.036 2.087 2464
2.491 8.041 2.063 3072
2.413 7.791 2.002 2651
2.490 8.039 2.036 3309
2.547 8.224 2.080 2245
2.492 8.045 2.012 2538
2.549 8.229 2.055 1946
2.599 8.389 2.066 1823
2.496 8.057 1.989 1810
2.598 8.387 2.039 2419
2.722 8.786 2.130 2220
2.593 8.370 2.008 2955
2.721 8.784 2.101 2628
2.594 8.376 1.983 3485
2.723 8.790 2.075 2371
2.598 8.388 1.959 2786
2.724 8.795 2.048 2097
2.726 8.801 2.021 2017
2.889 9.326 2.134 1432
2.948 9.517 2.145 1721
2.730 8.813 1.996 1695
2.952 9.530 2.118 1888
3.187 10.287 2.276 1645
3.188 10.293 2.244 2729
3.016 9.736 2.130 1942
3.188 10.291 2.212 3498
3.054 9.860 2.124 2278
3.192 10.304 2.182 4915
3.056 9.866 2.094 2664
3.194 10.310 2.150 6197
3.062 9.886 2.067 2706
3.195 10.315 2.119 6558
3.382 10.918 2.235 2007
3.197 10.321 2.088 5888
3.280 10.589 2.138 2502
3.199 10.326 2.056 4531
3.282 10.594 2.106 2691
3.200 10.332 2.025 2674
3.281 10.592 2.073 1805
3.571 11.529 2.208 1441
3.202 10.337 1.993 1268
3.573 11.535 2.173 1164
3.529 11.393 2.148 979
3.589 11.585 2.146 1047
3.531 11.399 2.113 792
4.041 13.046 2.359 1216
3.586 11.576 2.108 906
4.043 13.052 2.319 1287
3.911 12.627 2.248 760
4.205 13.574 2.364 797
4.103 13.245 2.310 769
4.246 13.707 2.344 833
4.040 13.042 2.236 788
4.046 13.063 2.199 944
4.199 13.555 2.235 819
0.678 2.176 1.778 4347
0.679 2.181 1.772 8694
0.715 2.297 1.861 1656
0.681 2.185 1.765 8694
0.717 2.301 1.854 3312
0.686 2.202 1.768 7819
0.722 2.318 1.856 3102
0.693 2.225 1.775 8436
0.729 2.342 1.863 2385
0.698 2.242 1.778 7904
0.735 2.359 1.865 3407
0.706 2.265 1.785 8886
0.742 2.382 1.872 5018
0.707 2.270 1.778 8886
0.746 2.393 1.869 5293
0.724 2.324 1.808 10077
0.761 2.441 1.894 2445
0.725 2.328 1.801 11429
0.762 2.446 1.887 3031
0.750 2.407 1.848 11557
0.713 2.289 1.762 4641
0.750 2.406 1.836 13442
0.713 2.288 1.751 3294
0.753 2.417 1.834 14166
0.716 2.298 1.749 2612
0.756 2.428 1.831 15206
0.719 2.309 1.746 1690
0.758 2.433 1.823 15206
0.721 2.314 1.739 1480
0.759 2.437 1.816 16537
0.722 2.318 1.732 1270
0.759 2.436 1.804 17836
0.722 2.316 1.721 1134
0.758 2.434 1.793 19282
0.796 2.554 1.876 1302
0.760 2.439 1.785 20761
0.797 2.559 1.868 1685
0.761 2.443 1.778 17737
0.799 2.563 1.861 2194
0.765 2.454 1.775 14801
0.818 2.625 1.892 2325
0.764 2.452 1.764 13297
0.802 2.573 1.845 3445
0.765 2.457 1.756 11881
0.803 2.578 1.837 4186
0.767 2.461 1.749 10566
0.808 2.595 1.838 3982
0.770 2.472 1.746 9514
0.818 2.625 1.847 4410
0.772 2.477 1.738 7116
0.811 2.605 1.823 6639
0.811 2.603 1.811 9152
0.773 2.481 1.731 4718
0.804 2.582 1.786 8088
0.842 2.704 1.865 2626
0.804 2.580 1.774 7440
0.842 2.702 1.853 3791
0.805 2.584 1.766 5114
0.843 2.707 1.845 5095
0.845 2.712 1.837 6398
0.807 2.589 1.759 2788
0.846 2.716 1.829 5412
0.808 2.593 1.751 1925
0.846 2.715 1.817 4434
0.807 2.591 1.739 954
0.865 2.778 1.845 4868
0.823 2.641 1.760 1702
0.869 2.789 1.841 5882
0.826 2.652 1.756 1528
0.866 2.781 1.824 6761
0.826 2.650 1.744 1165
0.860 2.759 1.800 8980
0.898 2.883 1.876 2965
0.857 2.751 1.784 8533
0.896 2.875 1.859 3705
0.858 2.755 1.775 7069
0.897 2.880 1.851 3554
0.864 2.773 1.775 6446
0.915 2.937 1.873 3062
0.886 2.843 1.806 4889
0.925 2.968 1.880 2255
0.885 2.841 1.793 5224
0.924 2.966 1.868 2655
0.901 2.892 1.812 5051
0.862 2.767 1.738 1562
0.909 2.916 1.815 8561
0.869 2.791 1.742 1252
0.910 2.921 1.806 10406
0.949 3.047 1.879 1495
0.911 2.926 1.797 9274
0.951 3.051 1.870 2875
0.913 2.930 1.789 8078
0.952 3.056 1.861 3706
0.916 2.942 1.784 6107
0.956 3.068 1.855 3510
0.932 2.993 1.801 5281
0.972 3.119 1.872 1888
0.948 3.044 1.818 5338
0.909 2.917 1.747 1586
0.952 3.055 1.813 6172
0.991 3.182 1.883 1712
0.959 3.080 1.815 7454
0.999 3.207 1.885 1340
0.969 3.111 1.820 6182
0.930 2.984 1.750 1493
0.975 3.129 1.818 4543
0.935 3.002 1.749 1943
0.951 3.054 1.765 3698
0.991 3.181 1.834 2063
0.972 3.119 1.788 4638
1.011 3.246 1.857 1592
0.998 3.204 1.822 6338
0.958 3.076 1.754 2773
1.000 3.209 1.812 8940
0.960 3.081 1.745 1502
1.003 3.220 1.806 8040
0.963 3.092 1.739 1437
1.017 3.265 1.818 7674
0.977 3.137 1.751 2877
1.019 3.270 1.808 11781
0.979 3.141 1.741 2876
1.020 3.275 1.798 14139
0.980 3.146 1.732 2955
1.024 3.286 1.792 11499
1.064 3.415 1.858 2403
1.038 3.331 1.803 9256
1.078 3.461 1.868 2065
1.029 3.302 1.775 8713
1.075 3.452 1.851 2883
1.030 3.307 1.765 8903
1.075 3.450 1.837 2326
1.038 3.332 1.766 6708
1.078 3.461 1.830 1667
1.073 3.445 1.809 3976
1.033 3.316 1.745 3095
1.075 3.450 1.799 5842
1.115 3.580 1.863 2841
1.076 3.455 1.789 9297
1.119 3.592 1.855 3970
1.080 3.466 1.782 12287
1.123 3.604 1.848 5951
1.081 3.471 1.771 8342
1.122 3.601 1.833 5980
1.115 3.579 1.810 6792
1.074 3.448 1.748 3207
1.112 3.569 1.792 6407
1.155 3.707 1.857 3064
1.118 3.588 1.788 5998
1.165 3.740 1.859 3502
1.128 3.620 1.790 4573
1.169 3.751 1.851 3551
1.140 3.659 1.795 4693
1.187 3.812 1.865 2236
1.139 3.657 1.781 7858
1.195 3.837 1.863 2606
1.141 3.662 1.770 7829
1.210 3.884 1.870 3014
1.149 3.687 1.768 4166
1.209 3.881 1.855 3366
1.202 3.858 1.831 4548
1.161 3.726 1.772 2942
1.203 3.863 1.819 8486
1.162 3.731 1.761 2610
1.203 3.861 1.805 9783
1.244 3.993 1.863 2157
1.204 3.865 1.793 8553
1.246 3.998 1.850 3639
1.208 3.877 1.784 6755
1.249 4.010 1.841 4968
1.264 4.057 1.847 8543
1.222 3.924 1.790 4766
1.267 4.068 1.838 9241
1.226 3.935 1.782 3791
1.269 4.073 1.826 6584
1.227 3.940 1.770 3693
1.270 4.078 1.813 5573
1.229 3.944 1.758 3666
1.272 4.082 1.801 4643
1.331 4.272 1.879 3374
1.291 4.143 1.812 3605
1.332 4.277 1.866 3205
1.290 4.141 1.796 4824
1.332 4.275 1.851 3366
1.331 4.273 1.835 4549
1.289 4.138 1.781 4020
1.326 4.256 1.813 5050
1.368 4.390 1.867 2387
1.356 4.353 1.837 5792
1.314 4.218 1.784 4040
1.327 4.258 1.785 4467
1.377 4.421 1.849 3786
1.383 4.440 1.841 4150
1.341 4.305 1.789 3455
1.382 4.438 1.825 5599
1.340 4.303 1.773 2343
1.384 4.442 1.811 5330
1.426 4.577 1.863 2218
1.412 4.532 1.830 4684
1.370 4.397 1.779 2661
1.438 4.615 1.845 4695
1.385 4.444 1.782 2486
1.437 4.613 1.829 4726
1.479 4.748 1.879 2880
1.445 4.639 1.823 4938
1.487 4.775 1.873 3386
1.449 4.651 1.811 4717
1.493 4.794 1.863 2914
1.473 4.727 1.823 6079
1.524 4.891 1.882 3434
1.476 4.739 1.811 6336
1.525 4.896 1.867 3538
1.482 4.758 1.802 4629
1.534 4.922 1.860 3680
1.542 4.949 1.853 3307
1.486 4.770 1.790 2834
1.545 4.961 1.840 2435
1.501 4.817 1.791 1733
1.576 5.059 1.857 2652
1.504 4.829 1.778 1815
1.584 5.085 1.849 3702
1.542 4.949 1.803 1732
1.592 5.111 1.841 3262
1.550 4.975 1.795 2182
1.594 5.116 1.826 2381
1.641 5.267 1.876 2015
1.636 5.251 1.853 2812
1.678 5.388 1.898 1620
1.671 5.364 1.872 2986
1.628 5.227 1.828 2396
1.675 5.376 1.858 3387
1.632 5.238 1.814 1678
1.674 5.373 1.840 2623
1.717 5.511 1.884 1415
1.761 5.653 1.910 2013
1.707 5.479 1.856 1574
1.756 5.636 1.887 2092
1.713 5.498 1.843 1517
1.737 5.576 1.849 2194
1.782 5.721 1.894 1466
1.743 5.595 1.837 2028
1.786 5.733 1.879 1471
1.876 6.021 1.947 2410
1.808 5.803 1.881 1872
1.816 5.830 1.870 3031
1.879 6.033 1.931 2775
1.820 5.842 1.855 3002
1.886 6.053 1.917 2189
1.919 6.159 1.929 2490
1.876 6.021 1.888 1921
1.916 6.150 1.906 3238
1.984 6.368 1.969 2415
1.965 6.308 1.931 2352
1.917 6.155 1.887 2050
1.964 6.306 1.910 2937
2.010 6.451 1.951 1835
1.964 6.303 1.889 2879
2.048 6.573 1.964 2214
2.043 6.556 1.938 2268
1.967 6.315 1.872 1899
2.033 6.525 1.908 3029
2.096 6.730 1.964 2308
2.194 7.042 2.027 2702
2.100 6.742 1.946 2451
2.186 7.018 1.998 2153
2.109 6.769 1.931 1417
2.211 7.096 1.996 2124
2.293 7.360 2.065 1681
2.299 7.380 2.047 2227
2.203 7.072 1.966 2133
2.301 7.386 2.024 2575
2.203 7.070 1.943 1346
2.296 7.369 1.996 2171
2.415 7.751 2.093 1668
2.419 7.764 2.071 2361
2.295 7.367 1.972 2027
2.423 7.776 2.050 2646
2.500 8.026 2.111 1899
2.427 7.789 2.028 3237
2.500 8.025 2.085 2323
2.426 7.787 2.002 3409
2.504 8.037 2.063 3149
2.503 8.035 2.036 3486
2.427 7.792 1.979 2227
2.505 8.040 2.012 2514
2.562 8.225 2.055 1996
2.509 8.053 1.989 1808
2.610 8.378 2.064 1779
2.609 8.376 2.037 2623
2.738 8.789 2.131 1841
2.604 8.359 2.007 3417
2.735 8.780 2.101 2328
2.608 8.371 1.983 3993
2.737 8.786 2.075 2175
2.612 8.384 1.959 3216
2.739 8.791 2.048 1875
2.740 8.796 2.021 1871
2.904 9.322 2.134 1712
2.961 9.505 2.144 1618
2.742 8.801 1.994 1558
2.963 9.511 2.115 1720
3.203 10.282 2.276 1577
3.205 10.287 2.244 2644
3.032 9.731 2.130 2196
3.204 10.286 2.212 3295
3.070 9.855 2.124 2464
3.208 10.299 2.182 4602
3.072 9.861 2.094 2595
3.210 10.305 2.150 5890
3.078 9.881 2.067 2635
3.212 10.310 2.119 6320
3.400 10.912 2.235 2165
3.214 10.316 2.088 5715
3.404 10.926 2.203 2394
3.215 10.321 2.056 4383
3.299 10.589 2.106 2525
3.217 10.326 2.025 2511
3.298 10.587 2.073 1676
3.592 11.531 2.210 1392
3.219 10.332 1.993 1134
3.596 11.544 2.176 1197
3.548 11.388 2.148 1006
3.607 11.580 2.146 1212
3.547 11.386 2.112 780
4.062 13.040 2.359 1095
3.602 11.563 2.107 1094
4.067 13.053 2.321 1168
3.999 12.837 2.284 788
4.127 13.246 2.312 839
4.065 13.049 2.198 883
4.218 13.540 2.233 779
0.681 2.175 1.778 3978
0.683 2.180 1.772 7957
0.719 2.296 1.861 1637
0.684 2.184 1.765 7957
0.720 2.300 1.854 3275
0.691 2.207 1.773 7322
0.728 2.324 1.861 2835
0.698 2.230 1.780 8341
0.735 2.347 1.868 2036
0.702 2.241 1.778 7815
0.738 2.358 1.865 3823
0.726 2.319 1.826 8671
0.690 2.202 1.739 1732
0.728 2.324 1.819 8671
0.691 2.207 1.733 1732
0.729 2.329 1.812 10042
0.766 2.446 1.899 1828
0.731 2.333 1.805 11412
0.768 2.451 1.891 2224
0.754 2.406 1.848 12526
0.717 2.288 1.762 4540
0.755 2.411 1.841 14316
0.718 2.293 1.755 3822
0.757 2.416 1.834 15028
0.719 2.297 1.749 2762
0.760 2.427 1.831 16129
0.723 2.308 1.746 2090
0.761 2.431 1.823 16129
0.724 2.312 1.739 1798
0.763 2.436 1.816 17404
0.726 2.317 1.732 1506
0.762 2.435 1.804 18766
0.725 2.315 1.721 1356
0.762 2.433 1.793 20722
0.799 2.552 1.876 1350
0.763 2.437 1.785 22591
0.801 2.557 1.868 1810
0.767 2.448 1.783 19712
0.820 2.619 1.900 1694
0.768 2.453 1.775 17007
0.822 2.624 1.892 2452
0.768 2.451 1.764 15175
0.805 2.572 1.845 3498
0.769 2.456 1.756 13538
0.807 2.576 1.837 4419
0.770 2.460 1.749 11973
0.812 2.594 1.838 4161
0.774 2.471 1.746 10634
0.816 2.605 1.835 4294
0.775 2.475 1.738 7997
0.815 2.603 1.823 6549
0.813 2.595 1.806 8981
0.775 2.473 1.727 5247
0.810 2.587 1.790 7952
0.772 2.465 1.711 2934
0.808 2.579 1.774 7351
0.846 2.701 1.853 3100
0.809 2.583 1.766 5122
0.847 2.706 1.845 4493
0.847 2.704 1.833 5889
0.808 2.581 1.755 2837
0.850 2.715 1.829 4985
0.812 2.592 1.751 1784
0.854 2.726 1.825 4112
0.815 2.603 1.747 786
0.869 2.776 1.845 4787
0.831 2.653 1.768 1503
0.873 2.788 1.841 5608
0.834 2.664 1.764 1420
0.870 2.779 1.824 6927
0.832 2.656 1.748 1044
0.864 2.758 1.800 9311
0.902 2.882 1.876 2709
0.861 2.749 1.784 8484
0.900 2.874 1.859 3452
0.862 2.754 1.775 6724
0.901 2.878 1.851 3461
0.868 2.772 1.775 5468
0.919 2.935 1.873 3024
0.896 2.862 1.818 4618
0.857 2.737 1.743 2247
0.898 2.866 1.809 4471
0.858 2.741 1.735 1440
0.916 2.924 1.831 5150
0.876 2.798 1.758 2197
