1.355 2.894 1.787 8208
1.298 2.774 1.717 1978
1.360 2.905 1.781 6935
1.416 3.026 1.851 2597
1.395 2.979 1.812 7889
1.338 2.858 1.743 4620
1.394 2.978 1.799 7397
1.337 2.856 1.730 4405
1.390 2.969 1.783 5699
1.450 3.097 1.854 5157
1.374 2.935 1.752 7936
1.449 3.095 1.841 6563
1.379 2.946 1.746 9432
1.436 3.067 1.813 7435
1.453 3.104 1.821 8960
1.384 2.956 1.740 7522
1.455 3.108 1.811 10751
1.392 2.973 1.738 3804
1.457 3.113 1.802 10306
1.391 2.971 1.725 1431
1.462 3.124 1.795 9837
1.405 3.001 1.729 1626
1.476 3.154 1.799 9980
1.419 3.031 1.734 1991
1.478 3.158 1.789 9904
1.536 3.281 1.854 2002
1.517 3.240 1.820 7658
1.459 3.117 1.755 4052
1.522 3.251 1.813 9955
1.464 3.128 1.749 5653
1.484 3.171 1.759 9580
1.542 3.294 1.823 4494
1.492 3.188 1.756 7664
1.550 3.312 1.819 3459
1.507 3.219 1.759 6952
1.564 3.342 1.822 2624
1.509 3.223 1.748 8487
1.591 3.399 1.838 3367
1.520 3.247 1.748 8679
1.599 3.416 1.833 4676
1.528 3.264 1.744 7202
1.601 3.421 1.823 4200
1.548 3.308 1.753 5804
1.612 3.445 1.821 3328
1.575 3.364 1.769 5836
1.645 3.515 1.843 2414
1.577 3.369 1.758 5149
1.650 3.526 1.835 2705
1.613 3.445 1.782 4236
1.554 3.320 1.722 2303
1.624 3.469 1.781 4207
1.565 3.344 1.721 2527
1.576 3.368 1.719 3585
1.700 3.631 1.845 3333
1.702 3.636 1.833 5155
1.615 3.451 1.746 2614
1.707 3.647 1.825 6250
1.614 3.449 1.732 2638
1.691 3.612 1.795 6731
1.632 3.486 1.736 2900
1.693 3.616 1.783 6430
1.634 3.490 1.725 2935
1.657 3.541 1.735 4087
1.716 3.667 1.793 3772
1.737 3.711 1.799 4595
1.666 3.558 1.730 2076
1.748 3.735 1.796 4782
1.807 3.861 1.853 1760
1.757 3.753 1.791 5419
1.822 3.893 1.853 2084
1.759 3.757 1.779 5646
1.843 3.937 1.858 3553
1.758 3.755 1.764 4597
1.845 3.942 1.845 4225
1.844 3.939 1.830 4408
1.760 3.759 1.752 2911
1.843 3.937 1.815 5077
1.762 3.764 1.740 1295
1.823 3.895 1.782 4697
1.904 4.069 1.856 1789
1.819 3.886 1.764 4878
1.928 4.120 1.863 3245
1.931 4.125 1.850 4588
1.815 3.877 1.746 3637
1.930 4.122 1.834 6083
1.857 3.968 1.770 3866
1.935 4.134 1.824 7044
1.859 3.972 1.757 2617
1.946 4.158 1.819 4857
1.886 4.030 1.767 2091
1.967 4.203 1.822 4184
2.027 4.331 1.874 1854
2.001 4.275 1.836 5427
1.941 4.147 1.784 4444
2.003 4.279 1.822 4905
1.943 4.151 1.771 4148
2.043 4.365 1.840 4574
1.961 4.189 1.771 3903
2.045 4.369 1.826 4436
1.960 4.187 1.755 3015
2.047 4.374 1.812 3890
1.987 4.245 1.763 2057
2.046 4.371 1.796 3017
2.128 4.547 1.863 2206
2.131 4.552 1.849 4370
2.042 4.362 1.777 2305
2.123 4.536 1.827 4669
2.037 4.353 1.758 1802
2.106 4.500 1.797 4544
2.167 4.629 1.845 3448
2.166 4.627 1.828 3503
2.105 4.497 1.780 3227
2.129 4.549 1.783 2950
2.190 4.679 1.830 2062
2.131 4.554 1.769 2889
2.195 4.690 1.818 2176
2.197 4.694 1.803 2623
2.258 4.824 1.849 1572
2.234 4.774 1.815 2554
2.174 4.644 1.769 1746
2.240 4.785 1.802 2480
2.380 5.086 1.907 1652
2.277 4.865 1.813 2287
2.383 5.090 1.891 2034
2.289 4.890 1.804 3570
2.391 5.109 1.879 2241
2.300 4.915 1.795 3614
2.390 5.106 1.861 1713
2.309 4.933 1.784 2887
2.447 5.228 1.884 2457
2.443 5.218 1.862 3735
2.381 5.088 1.819 3005
2.438 5.209 1.841 3389
2.499 5.340 1.884 2586
2.501 5.344 1.867 3107
2.434 5.200 1.820 1751
2.475 5.287 1.830 2357
2.542 5.431 1.877 1982
2.454 5.243 1.798 2446
2.541 5.429 1.857 2177
2.543 5.434 1.840 2931
2.634 5.627 1.901 2032
2.545 5.438 1.822 3261
2.697 5.762 1.924 2699
2.683 5.733 1.895 2450
2.577 5.505 1.824 2346
2.676 5.716 1.870 3278
2.753 5.882 1.921 2041
2.781 5.942 1.919 3108
2.675 5.714 1.850 2279
2.787 5.954 1.902 3940
2.725 5.822 1.862 2591
2.789 5.959 1.883 4348
2.727 5.827 1.844 2657
2.788 5.956 1.861 3574
2.895 6.185 1.928 2580
2.894 6.183 1.906 2180
3.043 6.502 1.998 2056
3.046 6.507 1.977 2470
2.890 6.173 1.883 2371
3.041 6.498 1.953 2570
2.892 6.178 1.863 2022
3.040 6.496 1.930 3099
3.102 6.628 1.967 1764
3.039 6.493 1.907 1593
3.124 6.674 1.957 1532
3.253 6.951 2.009 1964
3.100 6.623 1.920 1533
3.252 6.948 1.985 1952
3.190 6.816 1.950 1823
3.199 6.835 1.931 2244
3.310 7.072 1.994 1760
3.479 7.433 2.064 1936
3.388 7.237 2.013 1840
3.488 7.452 2.044 3056
3.400 7.263 1.995 1975
3.497 7.471 2.024 3144
3.402 7.268 1.972 1853
3.499 7.476 2.000 2621
3.571 7.629 2.038 1332
3.498 7.474 1.974 2053
3.678 7.858 2.069 1236
3.789 8.094 2.100 1808
3.671 7.842 2.039 1655
3.794 8.107 2.076 2453
3.676 7.854 2.015 1864
3.810 8.140 2.057 2698
3.935 8.406 2.120 2425
3.802 8.124 2.026 3424
3.937 8.411 2.093 2979
3.801 8.122 1.998 3792
3.943 8.423 2.067 3297
3.945 8.429 2.040 3492
3.807 8.134 1.973 2897
3.947 8.434 2.013 3413
4.010 8.567 2.043 3024
4.006 8.558 2.013 4534
4.137 8.839 2.074 3351
4.067 8.690 2.013 4083
4.005 8.556 1.984 4019
4.073 8.702 1.986 3872
4.145 8.856 2.019 3572
4.144 8.854 1.989 3911
4.428 9.460 2.117 3006
4.150 8.866 1.962 3549
4.430 9.465 2.086 2518
4.152 8.871 1.934 2868
4.769 10.190 2.202 1668
4.154 8.876 1.906 2116
4.772 10.195 2.169 1847
4.778 10.207 2.138 1361
4.157 8.880 1.877 1350
4.903 10.474 2.156 1311
4.830 10.319 2.126 1124
4.915 10.500 2.126 1774
4.783 10.218 2.073 1441
4.921 10.513 2.094 1454
4.785 10.223 2.040 1102
5.310 11.345 2.212 1131
5.214 11.140 2.174 987
5.313 11.351 2.176 1306
5.621 12.009 2.294 1131
5.617 12.000 2.253 1992
5.319 11.363 2.140 1660
5.620 12.006 2.214 3207
5.321 11.368 2.104 1810
5.622 12.011 2.176 2918
5.901 12.607 2.277 1360
5.628 12.024 2.139 1918
5.903 12.612 2.237 1816
5.906 12.618 2.196 1887
5.634 12.036 2.101 1380
5.912 12.630 2.157 1414
5.636 12.041 2.062 1102
5.638 12.046 2.024 1231
5.921 12.650 2.118 1099
5.641 12.051 1.985 1141
5.643 12.056 1.946 903
0.995 2.114 1.821 3493
1.006 2.136 1.828 8182
0.954 2.026 1.739 803
1.010 2.146 1.826 9964
0.959 2.036 1.737 1242
1.012 2.151 1.819 11314
0.961 2.040 1.731 867
1.017 2.161 1.817 12674
0.965 2.050 1.729 793
1.019 2.165 1.810 11136
1.071 2.276 1.898 1057
1.024 2.176 1.808 9919
1.076 2.287 1.895 1186
1.026 2.180 1.801 9919
1.079 2.291 1.888 1305
1.028 2.184 1.794 6878
1.081 2.296 1.880 1321
1.058 2.247 1.833 6360
1.005 2.136 1.747 1979
1.060 2.252 1.825 6032
1.007 2.140 1.740 1596
1.062 2.256 1.818 5705
1.009 2.144 1.733 1214
1.067 2.267 1.816 5219
1.014 2.154 1.731 1427
1.069 2.271 1.808 4775
1.016 2.159 1.724 1213
1.071 2.276 1.801 4775
1.124 2.388 1.885 947
1.079 2.292 1.803 5362
1.132 2.405 1.887 1285
1.084 2.302 1.800 6484
1.137 2.415 1.884 1356
1.091 2.318 1.802 9801
1.145 2.432 1.885 822
1.093 2.323 1.794 13466
1.147 2.437 1.877 899
1.098 2.333 1.791 13174
1.152 2.447 1.874 830
1.103 2.344 1.788 13175
1.157 2.458 1.870 823
1.105 2.348 1.781 10270
1.159 2.462 1.862 1998
1.104 2.346 1.769 7440
1.158 2.461 1.850 3551
1.109 2.357 1.766 5158
1.163 2.471 1.847 4511
1.163 2.470 1.835 5966
1.109 2.355 1.754 2624
1.165 2.474 1.827 6933
1.111 2.359 1.747 1985
1.170 2.485 1.823 7936
1.115 2.369 1.743 1697
1.172 2.489 1.815 6375
1.117 2.374 1.736 2014
1.182 2.512 1.820 5555
1.128 2.396 1.741 3611
1.173 2.492 1.795 6279
1.118 2.376 1.717 1529
1.175 2.496 1.788 7755
1.120 2.380 1.709 1277
1.171 2.488 1.771 7088
1.226 2.605 1.849 2280
1.171 2.486 1.759 6907
1.225 2.603 1.837 2831
1.170 2.485 1.748 5452
1.225 2.601 1.825 3501
1.172 2.489 1.740 4081
1.230 2.612 1.820 3909
1.214 2.579 1.788 3544
1.159 2.462 1.712 1456
1.222 2.596 1.788 4374
1.167 2.479 1.712 1428
1.227 2.607 1.784 5543
1.172 2.489 1.708 1642
1.229 2.611 1.775 6671
1.285 2.729 1.851 2120
1.234 2.622 1.771 7768
1.290 2.740 1.846 2369
1.236 2.626 1.763 6958
1.292 2.744 1.837 3824
1.279 2.717 1.809 6466
1.223 2.599 1.735 4420
1.243 2.641 1.750 6164
1.302 2.766 1.828 5719
1.304 2.770 1.819 6484
1.248 2.651 1.745 6194
1.294 2.749 1.795 6353
1.238 2.630 1.722 3708
1.314 2.791 1.809 8337
1.255 2.666 1.732 5006
1.316 2.796 1.800 10263
1.254 2.664 1.720 3725
1.321 2.806 1.795 8311
1.259 2.674 1.716 2599
1.326 2.817 1.790 4574
1.383 2.937 1.861 1421
1.352 2.872 1.811 4057
1.295 2.752 1.740 2751
1.354 2.876 1.802 6000
1.297 2.756 1.731 2115
1.356 2.881 1.792 7827
1.299 2.760 1.722 1647
1.361 2.891 1.787 8080
1.304 2.771 1.717 2047
1.393 2.959 1.814 6632
1.336 2.839 1.745 4324
1.398 2.970 1.809 8182
1.341 2.849 1.740 4296
1.400 2.974 1.799 7491
1.343 2.853 1.730 4247
1.396 2.966 1.783 5444
1.459 3.100 1.858 4848
1.383 2.938 1.755 8039
1.458 3.098 1.845 5999
1.385 2.943 1.746 9688
1.443 3.064 1.813 7195
1.457 3.094 1.818 9205
1.390 2.953 1.740 7542
1.462 3.105 1.811 11126
1.401 2.977 1.741 3660
1.464 3.110 1.802 10517
1.406 2.987 1.735 1374
1.469 3.120 1.795 9617
1.411 2.998 1.729 1345
1.483 3.151 1.799 8636
1.541 3.273 1.865 1765
1.485 3.155 1.789 8212
1.543 3.278 1.854 2130
1.524 3.237 1.820 7844
1.466 3.114 1.755 3613
1.532 3.254 1.816 9923
1.474 3.131 1.752 5823
1.491 3.168 1.759 9853
1.549 3.291 1.823 4442
1.496 3.179 1.752 7612
1.554 3.302 1.816 3012
1.504 3.196 1.749 6901
1.563 3.319 1.812 3715
1.516 3.220 1.748 8414
1.574 3.343 1.811 3698
1.527 3.243 1.748 8302
1.604 3.406 1.830 3622
1.535 3.261 1.744 7258
1.593 3.385 1.806 3414
1.555 3.304 1.753 5436
1.620 3.441 1.821 2183
1.582 3.361 1.769 5553
1.653 3.511 1.843 2631
1.587 3.372 1.761 4723
1.658 3.522 1.835 3214
1.617 3.435 1.779 4407
1.558 3.310 1.719 2323
1.625 3.452 1.774 4489
1.566 3.328 1.714 2032
1.587 3.371 1.723 3859
1.708 3.628 1.845 3287
1.710 3.632 1.833 5158
1.623 3.448 1.746 2891
1.715 3.643 1.825 6114
1.625 3.452 1.735 2949
1.730 3.674 1.825 7057
1.671 3.549 1.767 3792
1.697 3.606 1.780 6106
1.638 3.480 1.722 2405
1.675 3.557 1.745 4348
1.734 3.683 1.802 3623
1.751 3.720 1.805 4298
1.680 3.568 1.736 2489
1.757 3.731 1.796 3948
1.697 3.605 1.740 2121
1.777 3.776 1.802 3947
1.718 3.649 1.746 2595
1.767 3.753 1.779 4534
1.851 3.933 1.858 3210
1.854 3.938 1.845 3927
1.769 3.758 1.767 3811
1.849 3.929 1.827 4339
1.768 3.755 1.752 2103
1.852 3.933 1.815 5005
1.914 4.067 1.872 1263
1.835 3.897 1.785 4717
1.910 4.058 1.853 1914
1.830 3.888 1.767 4637
1.938 4.116 1.863 3691
1.940 4.120 1.850 5094
1.861 3.953 1.780 4120
1.939 4.118 1.834 6242
1.866 3.964 1.770 4733
1.944 4.129 1.824 7032
1.871 3.975 1.760 3319
1.955 4.154 1.819 5320
1.895 4.026 1.767 2942
1.977 4.199 1.822 4253
2.037 4.326 1.874 2470
2.013 4.277 1.838 4938
1.950 4.142 1.784 4681
1.965 4.174 1.782 5343
2.050 4.356 1.854 4686
2.053 4.360 1.840 5448
1.973 4.192 1.774 3910
2.055 4.365 1.826 4763
1.969 4.182 1.755 2485
2.057 4.369 1.812 3987
1.996 4.241 1.763 1750
2.049 4.353 1.791 2839
2.110 4.482 1.840 2055
2.141 4.547 1.849 3914
2.048 4.351 1.774 2054
2.133 4.531 1.827 4593
2.047 4.348 1.758 1581
2.113 4.488 1.794 4044
2.177 4.624 1.845 3076
2.179 4.629 1.830 3510
2.118 4.499 1.783 2908
2.146 4.558 1.788 3721
2.207 4.687 1.835 1823
2.145 4.556 1.771 3204
2.209 4.692 1.820 1852
2.208 4.689 1.803 1980
2.304 4.894 1.876 1597
2.248 4.776 1.817 2478
2.184 4.639 1.769 1740
2.250 4.780 1.802 2403
2.392 5.080 1.907 1397
2.294 4.873 1.817 2869
2.394 5.085 1.891 1945
2.299 4.885 1.804 3891
2.402 5.103 1.879 2078
2.308 4.903 1.793 3636
2.411 5.122 1.868 1711
2.320 4.928 1.784 2656
2.471 5.250 1.893 2425
2.451 5.206 1.860 3555
2.389 5.076 1.817 2628
2.446 5.197 1.839 3611
2.514 5.341 1.887 2154
2.516 5.346 1.869 2656
2.445 5.195 1.820 1933
2.551 5.419 1.875 3454
2.451 5.206 1.806 2176
2.553 5.423 1.857 3512
2.466 5.238 1.798 2977
2.555 5.428 1.840 4121
2.468 5.242 1.781 2003
2.554 5.426 1.820 4779
2.655 5.639 1.887 2429
2.556 5.430 1.803 2610
2.696 5.727 1.895 2395
2.691 5.717 1.872 3082
2.630 5.586 1.832 2434
2.788 5.922 1.914 3043
2.687 5.708 1.850 2165
2.800 5.948 1.902 3443
2.738 5.816 1.862 2412
2.802 5.952 1.883 3747
2.740 5.821 1.844 2567
2.798 5.943 1.859 3228
2.909 6.179 1.928 2884
2.914 6.190 1.910 2403
3.054 6.488 1.996 2163
3.060 6.500 1.977 2393
2.903 6.167 1.883 2168
3.059 6.498 1.955 2416
2.905 6.172 1.863 1854
3.055 6.489 1.930 2669
3.120 6.628 1.969 1983
3.139 6.667 1.957 1619
3.263 6.931 2.029 1360
3.269 6.943 2.009 2007
3.154 6.700 1.943 1516
3.268 6.941 1.985 1860
3.205 6.809 1.950 1629
3.326 7.065 1.994 2084
3.214 6.828 1.931 1991
3.495 7.425 2.064 1999
3.328 7.069 1.971 1675
3.508 7.451 2.046 3365
3.412 7.249 1.994 1627
3.513 7.463 2.024 3326
3.418 7.261 1.972 1533
3.516 7.468 2.000 2513
3.585 7.615 2.036 1866
3.515 7.466 1.974 2064
3.587 7.620 2.012 1402
3.688 7.834 2.039 1741
3.807 8.086 2.100 1622
3.812 8.098 2.076 2085
3.690 7.839 2.014 2019
3.828 8.131 2.057 2484
3.953 8.397 2.120 2453
3.956 8.403 2.093 3107
3.824 8.122 2.027 3009
3.961 8.415 2.067 3490
3.823 8.120 1.999 3373
3.964 8.420 2.040 3801
4.026 8.553 2.071 3199
3.966 8.425 2.013 3806
4.029 8.558 2.043 3418
4.025 8.549 2.013 4821
4.157 8.830 2.074 2828
4.027 8.554 1.985 4310
4.090 8.688 2.014 3734
4.089 8.686 1.985 3528
4.165 8.847 2.019 2955
4.164 8.845 1.989 3094
4.449 9.450 2.117 2752
4.169 8.857 1.962 2783
4.451 9.455 2.086 2199
4.172 8.862 1.934 2243
4.517 9.594 2.083 1697
4.794 10.184 2.169 1886
4.174 8.867 1.906 1646
4.800 10.197 2.138 1492
4.913 10.437 2.185 1190
4.919 10.449 2.153 1276
4.803 10.202 2.105 1201
4.938 10.490 2.126 1592
4.805 10.207 2.073 1529
4.944 10.502 2.094 1336
4.811 10.219 2.041 1281
5.332 11.327 2.211 1114
5.239 11.129 2.174 1085
5.647 11.997 2.294 1265
5.338 11.339 2.176 1230
5.643 11.988 2.253 2181
5.344 11.352 2.140 1382
5.646 11.994 2.214 3477
5.346 11.357 2.104 1435
5.649 11.999 2.176 3184
5.929 12.594 2.277 1282
5.654 12.011 2.139 2070
5.931 12.599 2.237 1743
5.934 12.605 2.196 1779
5.660 12.024 2.101 1397
5.940 12.617 2.157 1306
5.666 12.036 2.064 1211
5.665 12.034 2.024 1445
5.949 12.637 2.118 1032
5.667 12.039 1.985 1344
5.670 12.044 1.946 1084
5.672 12.048 1.908 784
0.999 2.112 1.821 3817
1.010 2.134 1.828 8708
0.958 2.024 1.739 860
1.015 2.144 1.826 10623
0.962 2.034 1.737 1321
1.017 2.149 1.819 11884
0.964 2.039 1.731 906
1.021 2.159 1.817 13305
0.969 2.049 1.729 791
1.024 2.163 1.810 11748
1.076 2.274 1.898 1148
1.028 2.174 1.808 10489
1.081 2.284 1.895 1273
1.030 2.178 1.801 10489
1.083 2.289 1.888 1397
1.033 2.182 1.794 7381
1.085 2.294 1.880 1423
1.062 2.245 1.833 6358
1.010 2.134 1.747 2155
1.064 2.250 1.825 5836
1.012 2.138 1.740 1652
1.067 2.254 1.818 5315
1.014 2.142 1.733 1149
1.071 2.265 1.816 4881
1.018 2.152 1.731 1301
1.076 2.275 1.813 4549
1.023 2.163 1.728 1335
1.078 2.279 1.806 4549
1.025 2.167 1.722 970
1.083 2.290 1.803 5374
1.137 2.403 1.887 1283
1.085 2.294 1.796 6328
1.139 2.407 1.879 1641
1.096 2.316 1.802 9604
1.150 2.430 1.885 841
1.098 2.321 1.794 13298
1.152 2.434 1.877 903
1.103 2.331 1.791 13274
1.157 2.445 1.874 874
1.108 2.341 1.788 13587
1.162 2.455 1.870 880
1.110 2.346 1.781 10670
1.164 2.460 1.862 1937
1.109 2.344 1.769 7823
1.163 2.458 1.850 3408
1.114 2.354 1.766 5435
1.168 2.469 1.847 4050
1.136 2.401 1.788 5396
1.190 2.516 1.869 799
1.170 2.472 1.827 6060
1.115 2.357 1.747 1955
1.175 2.482 1.823 6996
1.120 2.367 1.743 1472
1.177 2.487 1.815 5694
1.122 2.371 1.736 1816
1.187 2.510 1.820 5131
1.133 2.394 1.741 3265
1.175 2.483 1.791 6062
1.120 2.368 1.713 1116
1.177 2.488 1.783 7721
1.232 2.604 1.862 1635
1.173 2.480 1.767 7010
1.228 2.596 1.845 2736
1.172 2.478 1.755 6686
1.228 2.595 1.833 3171
1.174 2.482 1.748 5421
1.230 2.599 1.825 3323
1.176 2.487 1.740 4156
1.238 2.616 1.825 3864
1.219 2.577 1.788 3555
1.164 2.460 1.712 1291
1.227 2.594 1.788 4454
1.283 2.711 1.864 1374
1.235 2.610 1.788 5640
1.180 2.493 1.712 1716
1.234 2.609 1.775 6569
1.290 2.726 1.851 1999
1.236 2.613 1.767 7421
1.292 2.731 1.842 2715
1.241 2.623 1.763 6617
1.297 2.742 1.837 3878
1.285 2.715 1.809 6472
1.229 2.597 1.735 4102
1.307 2.763 1.828 6188
1.248 2.638 1.750 5650
1.309 2.767 1.819 7072
1.253 2.649 1.745 5656
1.300 2.747 1.795 7085
1.243 2.628 1.722 3623
1.319 2.789 1.809 8812
1.257 2.657 1.729 4821
1.325 2.799 1.804 10924
1.259 2.661 1.720 3807
1.330 2.810 1.799 9113
1.264 2.672 1.716 2671
1.332 2.814 1.790 5210
1.275 2.695 1.718 1563
1.361 2.876 1.814 3886
1.304 2.756 1.743 2965
1.360 2.874 1.802 5671
1.303 2.754 1.731 2141
1.362 2.878 1.792 7428
1.305 2.758 1.722 1632
1.367 2.889 1.787 7654
1.310 2.768 1.717 2058
1.396 2.950 1.811 6767
1.339 2.830 1.741 4422
1.404 2.967 1.809 8216
1.347 2.847 1.740 4645
1.406 2.972 1.799 7453
1.349 2.851 1.730 4535
1.402 2.963 1.783 5422
1.465 3.097 1.858 4509
1.389 2.936 1.755 7779
1.468 3.102 1.848 5370
1.394 2.946 1.749 9411
1.452 3.068 1.817 6792
1.463 3.091 1.818 9602
1.399 2.957 1.744 7355
1.468 3.102 1.811 11657
1.410 2.980 1.745 3640
1.470 3.107 1.802 11033
1.412 2.985 1.735 1606
1.475 3.118 1.795 9756
1.533 3.240 1.861 1283
1.486 3.141 1.796 7413
1.544 3.264 1.861 2046
1.491 3.152 1.789 6543
1.549 3.275 1.854 2155
1.530 3.234 1.820 7803
1.472 3.111 1.755 3076
1.538 3.251 1.816 9746
1.480 3.128 1.752 5235
1.497 3.165 1.759 10187
1.556 3.288 1.823 4434
1.503 3.176 1.752 7927
1.561 3.299 1.816 2576
1.511 3.193 1.749 7145
1.569 3.316 1.812 3620
1.522 3.217 1.748 8643
1.580 3.340 1.811 4275
1.530 3.234 1.745 7945
1.589 3.358 1.807 3715
1.541 3.258 1.744 7003
1.600 3.382 1.806 3425
1.587 3.353 1.779 5371
1.528 3.229 1.718 2940
1.592 3.364 1.772 5509
1.660 3.508 1.843 2699
1.597 3.375 1.764 4445
1.662 3.513 1.831 3571
1.624 3.432 1.779 3695
1.565 3.307 1.719 2409
1.638 3.462 1.781 4286
1.579 3.338 1.721 2526
1.590 3.362 1.719 3845
1.718 3.631 1.848 3051
1.717 3.629 1.833 5004
1.630 3.445 1.746 2938
1.722 3.640 1.825 6041
1.632 3.449 1.735 3000
1.734 3.664 1.822 7191
1.674 3.539 1.764 3381
1.708 3.609 1.783 6882
1.648 3.484 1.725 2705
1.685 3.561 1.748 4520
1.744 3.686 1.805 3792
1.762 3.724 1.808 4572
1.687 3.565 1.736 2842
1.764 3.728 1.796 3831
1.704 3.602 1.740 2639
1.788 3.779 1.805 3508
1.722 3.639 1.743 3169
1.774 3.750 1.779 4070
1.859 3.929 1.858 2879
1.814 3.834 1.802 3982
1.874 3.961 1.857 3309
1.860 3.932 1.830 4301
1.800 3.805 1.775 2484
1.859 3.930 1.815 4791
1.922 4.063 1.872 1410
1.839 3.887 1.782 4669
1.909 4.034 1.845 2097
1.841 3.892 1.770 4392
1.949 4.119 1.866 3664
1.869 3.949 1.780 4886
1.948 4.117 1.850 4872
1.950 4.121 1.837 5711
1.874 3.960 1.770 5607
1.952 4.125 1.824 6244
1.876 3.965 1.757 3718
1.964 4.150 1.819 4684
1.903 4.023 1.767 3088
2.032 4.296 1.863 4000
1.972 4.168 1.811 3701
1.961 4.145 1.787 4776
2.025 4.280 1.841 4306
1.973 4.170 1.782 5007
2.059 4.352 1.854 4873
2.061 4.356 1.840 5680
1.978 4.181 1.771 3439
2.063 4.361 1.826 4904
1.974 4.172 1.752 2031
2.068 4.372 1.815 4009
2.008 4.244 1.765 1970
2.093 4.424 1.819 2694
2.010 4.248 1.752 1799
2.149 4.543 1.849 3593
2.053 4.340 1.772 1877
2.145 4.534 1.829 4392
2.084 4.405 1.781 1624
2.122 4.484 1.794 3624
2.186 4.620 1.845 2860
2.188 4.624 1.830 3459
2.127 4.495 1.783 2708
2.155 4.554 1.788 4376
2.216 4.683 1.835 1708
2.153 4.552 1.771 3385
2.295 4.851 1.879 1694
2.175 4.597 1.771 1693
2.262 4.780 1.837 1618
2.261 4.778 1.819 2290
2.325 4.914 1.868 1728
2.263 4.783 1.804 2370
2.327 4.919 1.852 1362
2.304 4.869 1.817 3291
2.404 5.080 1.891 1794
2.309 4.880 1.804 4039
2.370 5.010 1.849 1873
2.317 4.898 1.793 3576
2.486 5.254 1.914 1507
2.326 4.916 1.782 2653
2.485 5.252 1.895 2464
2.458 5.194 1.858 3326
2.396 5.064 1.814 2203
2.457 5.192 1.839 3507
2.395 5.062 1.796 2010
2.566 5.423 1.896 3297
2.485 5.252 1.840 2122
2.562 5.414 1.875 5271
2.461 5.201 1.806 2331
2.564 5.419 1.857 5314
2.476 5.233 1.798 2885
2.569 5.430 1.842 6146
2.478 5.237 1.781 1954
2.568 5.427 1.822 7275
2.669 5.641 1.889 2382
2.570 5.432 1.805 4058
2.707 5.721 1.895 2327
2.644 5.588 1.834 3109
2.706 5.719 1.874 2698
2.796 5.910 1.912 3060
2.587 5.468 1.779 2502
2.808 5.935 1.900 3018
2.740 5.790 1.856 2374
2.814 5.947 1.883 3236
2.748 5.809 1.842 2506
2.806 5.931 1.857 3146
2.924 6.180 1.930 3035
2.929 6.191 1.912 2499
2.792 5.901 1.828 2117
3.073 6.494 1.977 2292
2.912 6.155 1.881 2006
3.075 6.499 1.957 2340
3.006 6.353 1.916 1625
3.071 6.490 1.932 2306
3.133 6.622 1.969 2117
3.152 6.661 1.957 1662
3.276 6.925 2.029 1360
3.279 6.930 2.007 1838
3.167 6.694 1.943 1610
3.281 6.935 1.985 1734
3.396 7.178 2.050 1401
3.336 7.051 1.992 2348
3.402 7.190 2.029 1745
3.513 7.425 2.066 1960
3.338 7.056 1.970 1872
3.522 7.444 2.046 3300
3.426 7.242 1.994 1329
3.528 7.456 2.024 3198
3.597 7.603 2.061 1562
3.530 7.461 2.000 2350
3.599 7.608 2.036 2347
3.526 7.452 1.972 1996
3.598 7.606 2.010 1751
3.703 7.827 2.039 1785
3.525 7.450 1.947 1439
3.709 7.839 2.015 2031
3.967 8.384 2.147 1776
3.969 8.390 2.120 2345
3.711 7.844 1.990 2332
3.972 8.395 2.093 3004
3.839 8.115 2.027 2712
3.978 8.407 2.067 3466
4.041 8.540 2.098 3018
3.980 8.412 2.040 3922
4.043 8.545 2.071 3382
3.982 8.417 2.013 3918
4.045 8.550 2.043 3613
4.041 8.541 2.013 4895
3.978 8.408 1.983 2751
4.044 8.546 1.985 4333
4.107 8.680 2.014 3251
4.106 8.678 1.985 3056
4.042 8.544 1.956 2936
4.467 9.442 2.117 2525
4.181 8.837 1.989 2414
4.187 8.849 1.962 2155
4.470 9.447 2.086 1884
4.529 9.572 2.080 1720
4.189 8.854 1.934 1712
4.814 10.175 2.169 1906
4.691 9.915 2.117 1388
4.820 10.187 2.138 1589
4.933 10.427 2.185 1160
4.819 10.186 2.104 1260
4.939 10.439 2.153 1259
4.825 10.198 2.073 1482
4.955 10.473 2.125 1402
4.831 10.210 2.041 1312
4.964 10.492 2.094 1187
5.665 11.973 2.331 1138
5.261 11.119 2.174 1099
5.671 11.986 2.294 1329
5.360 11.329 2.176 1164
5.667 11.977 2.253 2277
5.366 11.341 2.140 1141
5.669 11.983 2.214 3589
5.368 11.346 2.104 1128
5.672 11.988 2.176 3262
6.084 12.858 2.324 1235
5.678 12.000 2.139 2091
5.956 12.588 2.237 1646
5.958 12.593 2.196 1638
6.086 12.862 2.240 1406
5.689 12.025 2.064 1274
5.964 12.606 2.157 1184
5.688 12.023 2.024 1521
5.973 12.625 2.118 923
5.691 12.028 1.985 1419
5.693 12.033 1.946 1160
5.695 12.037 1.908 829
1.004 2.110 1.821 4204
1.015 2.132 1.828 9337
0.962 2.022 1.739 875
1.019 2.142 1.826 11407
0.967 2.032 1.737 1342
1.022 2.146 1.819 12573
0.969 2.036 1.731 914
1.026 2.157 1.817 14064
0.974 2.046 1.729 796
1.028 2.161 1.810 12528
1.081 2.272 1.898 1287
1.033 2.171 1.808 11277
1.086 2.282 1.895 1445
1.035 2.176 1.801 11277
1.088 2.287 1.888 1594
1.038 2.180 1.794 8126
1.090 2.291 1.880 1628
1.070 2.249 1.837 6536
1.017 2.137 1.751 3013
1.072 2.253 1.830 5773
1.019 2.142 1.744 2234
1.072 2.252 1.818 5034
1.018 2.140 1.733 1116
1.079 2.268 1.820 4878
1.026 2.156 1.735 1432
1.087 2.284 1.822 5080
1.034 2.172 1.737 1603
1.089 2.289 1.815 5080
1.036 2.176 1.730 1058
1.091 2.293 1.807 5761
1.145 2.406 1.891 1075
1.091 2.292 1.796 6445
1.144 2.405 1.879 1569
1.101 2.314 1.802 9564
1.155 2.427 1.885 794
1.103 2.318 1.794 13200
1.157 2.432 1.877 839
1.108 2.329 1.791 13539
1.162 2.442 1.874 895
1.113 2.339 1.788 14251
1.167 2.453 1.870 968
1.115 2.343 1.781 11257
1.170 2.457 1.862 1896
1.114 2.342 1.769 8361
1.169 2.456 1.850 3253
1.119 2.352 1.766 5780
1.174 2.466 1.847 3614
1.141 2.398 1.788 5403
1.178 2.475 1.831 5247
1.123 2.360 1.751 2290
1.180 2.480 1.823 6090
1.125 2.365 1.743 1284
1.182 2.484 1.815 5099
1.127 2.369 1.736 1766
1.196 2.513 1.824 4892
1.141 2.397 1.745 3338
1.178 2.475 1.787 6307
1.233 2.590 1.866 1437
1.180 2.479 1.779 8204
1.235 2.595 1.858 2184
1.179 2.477 1.767 7538
1.234 2.593 1.845 2814
1.178 2.475 1.755 7133
1.234 2.592 1.833 3111
1.180 2.480 1.748 5787
1.239 2.602 1.829 3334
1.185 2.490 1.744 4548
1.244 2.613 1.825 3933
1.222 2.568 1.784 4011
1.278 2.685 1.860 1306
1.233 2.591 1.788 5155
1.289 2.708 1.864 1506
1.241 2.608 1.788 6158
1.185 2.490 1.712 1659
1.240 2.606 1.775 6519
1.296 2.723 1.851 1900
1.242 2.610 1.767 6804
1.298 2.728 1.842 2498
1.247 2.621 1.763 6090
1.303 2.739 1.837 3876
1.291 2.712 1.809 6442
1.234 2.594 1.735 3846
1.314 2.760 1.828 6626
1.254 2.635 1.750 5062
1.316 2.764 1.819 7734
1.259 2.646 1.745 5100
1.306 2.744 1.795 7945
1.249 2.625 1.722 3399
1.326 2.786 1.809 9267
1.263 2.654 1.729 4820
1.331 2.796 1.804 11553
1.265 2.658 1.720 4154
1.336 2.807 1.799 9955
1.273 2.675 1.719 2968
1.338 2.811 1.790 6059
1.281 2.692 1.718 1749
1.331 2.797 1.770 4109
1.388 2.917 1.841 1914
1.366 2.871 1.802 5232
1.309 2.751 1.731 2134
1.365 2.869 1.789 6949
1.308 2.749 1.719 1423
1.376 2.892 1.791 7173
1.319 2.772 1.721 2232
1.400 2.941 1.807 6936
1.342 2.820 1.738 4053
1.411 2.964 1.809 8049
1.353 2.843 1.740 4995
1.413 2.968 1.799 7081
1.355 2.848 1.730 4969
1.412 2.966 1.786 4953
1.472 3.094 1.858 3889
1.396 2.933 1.755 7347
1.478 3.105 1.852 4434
1.401 2.943 1.749 8814
1.459 3.065 1.817 6096
1.470 3.088 1.818 9203
1.406 2.954 1.744 6815
1.475 3.099 1.811 11288
1.417 2.977 1.745 3516
1.477 3.103 1.802 10800
1.419 2.981 1.735 1872
1.482 3.114 1.795 9622
1.424 2.992 1.729 1466
1.490 3.131 1.792 6597
1.549 3.254 1.858 2304
1.532 3.219 1.827 6061
1.474 3.097 1.762 2918
1.537 3.230 1.820 7789
1.479 3.108 1.755 3064
1.546 3.248 1.816 9651
1.487 3.125 1.752 5192
1.505 3.162 1.759 10221
1.563 3.284 1.823 4633
1.510 3.172 1.752 7942
1.568 3.295 1.816 2339
1.518 3.189 1.749 7210
1.577 3.313 1.812 3725
1.529 3.213 1.748 8766
1.588 3.337 1.811 5012
1.534 3.224 1.742 7526
1.593 3.348 1.804 4689
1.549 3.254 1.744 6452
1.608 3.378 1.806 3276
1.594 3.350 1.779 5153
1.535 3.226 1.718 2813
1.599 3.361 1.772 5289
1.665 3.498 1.839 2840
1.605 3.371 1.764 4304
1.670 3.509 1.831 3938
1.666 3.500 1.814 4133
1.607 3.376 1.754 3225
1.649 3.465 1.784 4766
1.590 3.341 1.724 2804
1.598 3.358 1.719 3950
1.723 3.620 1.845 2988
1.725 3.625 1.833 4852
1.638 3.441 1.746 3190
1.730 3.636 1.825 5831
1.643 3.452 1.738 3209
1.742 3.660 1.822 7289
1.682 3.535 1.764 3441
1.713 3.599 1.780 6831
1.653 3.473 1.722 2300
1.699 3.570 1.754 4949
1.768 3.715 1.820 3765
1.773 3.726 1.811 4894
1.710 3.594 1.751 3298
1.772 3.724 1.796 3980
1.713 3.598 1.740 2968
1.730 3.636 1.743 3228
1.800 3.781 1.808 3210
1.814 3.812 1.808 3990
1.874 3.938 1.864 2538
1.820 3.823 1.799 4582
1.880 3.950 1.854 3635
1.831 3.848 1.795 4772
1.891 3.974 1.850 3397
1.846 3.879 1.794 5076
1.906 4.005 1.849 2718
1.848 3.883 1.782 4731
1.908 4.010 1.836 2977
1.853 3.894 1.772 4359
1.958 4.114 1.866 3488
1.878 3.945 1.780 5513
1.960 4.119 1.853 4566
1.883 3.956 1.770 6190
1.959 4.117 1.837 4874
1.968 4.134 1.829 5147
1.885 3.960 1.757 4151
1.976 4.152 1.822 4629
1.916 4.025 1.769 3410
2.042 4.291 1.863 4588
1.982 4.163 1.811 4366
1.971 4.141 1.787 5368
2.044 4.295 1.849 4084
1.979 4.159 1.779 5362
2.066 4.340 1.851 5109
2.071 4.351 1.840 5813
1.988 4.176 1.771 3120
2.073 4.356 1.826 4922
2.012 4.228 1.776 1419
2.078 4.367 1.815 3960
2.017 4.239 1.765 1718
2.100 4.412 1.817 2835
2.016 4.236 1.749 1636
2.160 4.538 1.849 2984
2.099 4.410 1.800 2077
2.152 4.522 1.827 4080
2.214 4.651 1.875 2006
2.132 4.479 1.794 3676
2.200 4.622 1.848 2928
2.163 4.545 1.803 4378
2.276 4.782 1.890 1742
2.165 4.549 1.788 5002
2.226 4.678 1.835 1699
2.167 4.553 1.774 3488
2.229 4.682 1.820 1728
2.185 4.592 1.771 1932
2.334 4.904 1.883 1583
2.275 4.780 1.822 1969
2.197 4.616 1.764 1912
2.290 4.811 1.816 2364
2.352 4.941 1.862 1281
2.311 4.857 1.815 3801
2.415 5.075 1.891 1626
2.317 4.868 1.802 4074
2.382 5.004 1.849 1924
2.329 4.893 1.793 3244
2.390 5.023 1.837 1546
2.500 5.253 1.898 2502
2.340 4.918 1.784 2283
2.473 5.196 1.860 3025
2.411 5.066 1.817 2072
2.468 5.187 1.839 3146
2.573 5.406 1.911 2870
2.578 5.417 1.896 5053
2.474 5.198 1.825 2053
2.574 5.408 1.875 7627
2.473 5.195 1.806 2401
2.579 5.419 1.859 7841
2.485 5.220 1.796 2723
2.581 5.424 1.842 9106
2.693 5.658 1.916 2076
2.580 5.422 1.822 10648
2.695 5.662 1.898 2259
2.582 5.426 1.805 6845
2.723 5.722 1.897 2442
2.588 5.437 1.790 4191
2.657 5.582 1.834 3714
2.590 5.442 1.772 3752
2.810 5.904 1.912 3293
2.812 5.908 1.893 3139
2.750 5.777 1.854 2649
2.814 5.913 1.874 3272
2.752 5.782 1.836 2688
2.816 5.917 1.855 3383
2.938 6.173 1.930 3284
2.940 6.178 1.910 2600
2.805 5.894 1.828 2598
3.087 6.487 1.977 2386
2.913 6.120 1.873 2083
3.090 6.492 1.957 2389
3.020 6.346 1.916 1731
3.145 6.608 1.967 2353
3.082 6.476 1.930 1846
3.167 6.654 1.957 1626
3.292 6.918 2.029 1409
3.295 6.923 2.007 1821
3.179 6.680 1.941 1680
3.297 6.927 1.985 1754
3.416 7.178 2.052 1397
3.352 7.043 1.992 2397
3.418 7.183 2.029 1766
3.527 7.410 2.064 1869
3.358 7.055 1.971 1863
3.539 7.436 2.046 3034
3.344 7.025 1.940 1244
3.545 7.448 2.024 2862
3.614 7.594 2.061 1870
3.617 7.599 2.036 2887
3.547 7.453 2.000 2052
3.616 7.597 2.010 2268
3.539 7.437 1.970 1881
3.718 7.812 2.037 1761
3.542 7.442 1.947 1377
3.727 7.831 2.015 1950
3.820 8.026 2.062 1536
3.729 7.835 1.990 2230
3.989 8.381 2.120 2053
3.991 8.386 2.093 2658
3.851 8.092 2.024 2368
4.054 8.517 2.095 3346
3.990 8.384 2.064 2957
3.999 8.403 2.040 3761
4.063 8.536 2.071 3395
4.002 8.408 2.013 3855
4.065 8.541 2.043 3541
4.061 8.532 2.013 4650
3.997 8.399 1.983 2665
4.063 8.537 1.985 4106
4.126 8.670 2.014 2626
4.062 8.535 1.956 2870
4.125 8.668 1.985 2458
4.064 8.540 1.929 2321
4.492 9.438 2.118 2216
4.541 9.542 2.108 1952
4.073 8.558 1.904 1698
4.547 9.554 2.079 1818
4.835 10.159 2.202 1599
4.841 10.171 2.171 1972
4.546 9.552 2.047 1854
4.843 10.176 2.138 1726
4.545 9.550 2.015 1399
4.842 10.175 2.104 1394
4.963 10.428 2.153 1178
4.848 10.187 2.073 1504
5.153 10.828 2.195 1307
4.851 10.192 2.040 1366
5.223 10.974 2.186 1123
5.692 11.960 2.331 1164
5.222 10.973 2.150 1140
5.702 11.980 2.295 1346
5.383 11.309 2.174 1106
5.694 11.964 2.253 2267
5.335 11.209 2.119 1173
5.697 11.970 2.214 3532
5.593 11.751 2.176 1138
5.699 11.975 2.176 3197
6.113 12.844 2.324 1263
5.705 11.987 2.139 2064
6.112 12.843 2.282 1587
6.115 12.848 2.240 1500
5.987 12.579 2.196 1435
5.717 12.012 2.064 1271
6.121 12.861 2.200 1148
5.716 12.010 2.024 1551
6.123 12.866 2.159 818
5.718 12.015 1.985 1453
5.721 12.020 1.946 1201
5.723 12.024 1.908 861
1.009 2.108 1.821 4341
1.019 2.130 1.828 9458
0.967 2.020 1.739 933
1.024 2.140 1.826 11569
0.971 2.030 1.737 1415
1.029 2.150 1.824 12721
0.976 2.040 1.736 1396
1.031 2.154 1.817 14234
0.978 2.044 1.729 817
1.033 2.159 1.810 12682
1.086 2.269 1.898 1353
1.038 2.169 1.808 11398
1.091 2.280 1.895 1551
1.040 2.173 1.801 11398
1.093 2.284 1.888 1721
1.039 2.172 1.790 8362
1.093 2.283 1.876 2389
1.075 2.247 1.837 6633
1.022 2.135 1.751 3126
1.077 2.251 1.830 5685
1.024 2.139 1.744 2234
1.077 2.250 1.818 4833
1.023 2.138 1.733 1049
1.087 2.272 1.825 5023
1.033 2.160 1.740 1426
1.095 2.288 1.826 5745
1.041 2.176 1.742 1620
1.097 2.292 1.819 5745
1.043 2.180 1.735 1067
1.096 2.291 1.807 6019
1.150 2.404 1.891 961
1.096 2.289 1.796 6422
1.150 2.402 1.879 1414
1.106 2.312 1.802 9274
1.052 2.198 1.718 804
1.108 2.316 1.794 12722
1.162 2.429 1.877 758
1.113 2.326 1.791 13306
1.168 2.440 1.874 898
1.118 2.337 1.788 14353
1.173 2.450 1.870 1024
1.120 2.341 1.781 11336
1.175 2.455 1.862 1848
1.119 2.339 1.769 8330
1.174 2.453 1.850 3115
1.139 2.380 1.787 6216
1.193 2.494 1.868 1066
1.147 2.396 1.788 5728
1.149 2.400 1.780 5280
1.204 2.515 1.861 1693
1.151 2.405 1.773 4832
1.206 2.520 1.853 2689
1.161 2.427 1.778 4814
1.217 2.542 1.857 2109
1.169 2.444 1.778 5683
1.225 2.559 1.857 2083
1.177 2.460 1.779 7143
1.233 2.576 1.858 2277
1.182 2.470 1.775 9029
1.238 2.586 1.853 2741
1.181 2.469 1.763 8216
1.237 2.585 1.841 3194
1.183 2.473 1.755 7526
1.239 2.589 1.833 3047
1.185 2.477 1.748 6144
1.247 2.606 1.833 3458
1.193 2.494 1.748 4971
1.249 2.610 1.825 4076
1.231 2.572 1.788 4389
1.175 2.455 1.712 1285
1.239 2.588 1.788 5611
1.295 2.705 1.864 1578
1.247 2.605 1.788 6472
1.190 2.488 1.712 1634
1.246 2.603 1.775 6412
1.302 2.721 1.851 1771
1.248 2.607 1.767 6293
1.304 2.725 1.842 2185
1.253 2.618 1.763 5824
1.309 2.736 1.837 3751
1.279 2.672 1.786 6422
1.335 2.790 1.860 2026
1.319 2.757 1.828 6893
1.263 2.639 1.754 4872
1.322 2.762 1.819 7999
1.265 2.643 1.745 4721
1.312 2.741 1.795 8059
1.255 2.622 1.722 3261
1.332 2.783 1.809 8960
1.269 2.652 1.729 4751
1.340 2.800 1.808 11072
1.271 2.656 1.720 4308
1.342 2.804 1.799 9661
1.279 2.672 1.719 3063
1.344 2.809 1.790 6125
1.287 2.689 1.718 1768
1.340 2.800 1.773 4405
1.397 2.920 1.844 1504
1.372 2.868 1.802 4912
1.315 2.748 1.731 2049
1.371 2.866 1.789 6539
1.314 2.746 1.719 1203
1.373 2.870 1.780 6673
1.316 2.750 1.710 1258
1.409 2.944 1.811 6994
1.351 2.824 1.741 4390
1.414 2.955 1.805 8126
1.356 2.834 1.736 4874
1.416 2.959 1.796 7043
1.358 2.838 1.727 4928
1.415 2.957 1.783 4981
1.479 3.091 1.858 3518
1.405 2.936 1.759 7300
1.484 3.102 1.852 3878
1.407 2.940 1.749 8751
1.465 3.061 1.817 5043
1.476 3.085 1.818 8747
1.415 2.957 1.747 6877
1.481 3.096 1.811 10962
1.423 2.974 1.745 3623
1.484 3.100 1.802 10648
1.425 2.978 1.735 2119
1.489 3.111 1.795 9465
1.430 2.989 1.729 1670
1.497 3.128 1.792 6170
1.555 3.250 1.858 2199
1.539 3.216 1.827 5670
1.481 3.094 1.762 3269
1.544 3.227 1.820 7533
1.486 3.105 1.755 3467
1.556 3.251 1.820 9381
1.497 3.128 1.755 6421
1.511 3.158 1.759 9961
1.570 3.281 1.823 4941
1.517 3.169 1.752 7825
1.582 3.305 1.822 2528
1.525 3.186 1.749 6831
1.584 3.309 1.812 4028
1.536 3.210 1.748 8321
1.595 3.333 1.811 5592
1.541 3.221 1.742 6970
1.600 3.344 1.804 5092
1.556 3.251 1.744 5709
1.615 3.375 1.806 3091
1.601 3.346 1.779 4990
1.542 3.223 1.718 2706
1.603 3.351 1.769 5025
1.669 3.488 1.836 3001
1.674 3.499 1.828 4272
1.612 3.368 1.764 4227
1.673 3.497 1.814 4585
1.614 3.372 1.754 3421
1.663 3.475 1.790 4829
1.603 3.350 1.730 3110
1.608 3.361 1.723 3786
1.677 3.505 1.792 3295
1.733 3.621 1.833 4629
1.645 3.437 1.746 3209
1.738 3.632 1.825 5613
1.650 3.448 1.738 3434
1.750 3.656 1.822 7224
1.690 3.531 1.764 3565
1.720 3.595 1.780 6900
1.660 3.470 1.722 2467
1.703 3.560 1.751 5242
1.776 3.711 1.820 4536
1.781 3.722 1.811 5823
1.702 3.557 1.736 3362
1.783 3.727 1.799 4832
1.723 3.601 1.743 2904
1.738 3.632 1.743 3203
1.808 3.778 1.808 2718
1.826 3.815 1.811 4106
1.886 3.941 1.867 2226
1.828 3.819 1.799 5282
1.888 3.946 1.854 3694
1.839 3.844 1.795 5332
1.900 3.970 1.850 3853
1.845 3.855 1.786 5367
1.905 3.981 1.840 4345
1.856 3.879 1.782 4688
1.917 4.006 1.836 3857
1.865 3.897 1.775 4221
1.929 4.030 1.832 3720
1.886 3.941 1.780 5869
1.969 4.115 1.853 3994
1.891 3.952 1.770 6455
1.971 4.119 1.840 3908
1.890 3.950 1.754 4314
1.976 4.130 1.829 4249
1.988 4.155 1.824 4470
2.049 4.282 1.876 3565
2.051 4.287 1.863 4886
1.990 4.159 1.811 4678
1.983 4.143 1.790 5789
2.066 4.318 1.860 4331
1.988 4.154 1.779 5192
2.075 4.336 1.851 5013
2.080 4.347 1.840 5432
1.997 4.172 1.771 2818
2.082 4.352 1.826 4662
2.021 4.224 1.776 1017
2.094 4.376 1.820 3975
2.033 4.248 1.770 1772
2.109 4.408 1.817 3325
2.028 4.239 1.752 1559
2.173 4.540 1.851 2764
2.108 4.405 1.800 2447
2.168 4.531 1.832 3752
2.230 4.660 1.880 1911
2.171 4.536 1.817 3930
2.109 4.407 1.769 1816
2.173 4.540 1.803 5333
2.289 4.784 1.893 1833
2.175 4.544 1.788 5374
2.236 4.673 1.835 1858
2.180 4.556 1.776 3578
2.300 4.807 1.867 1783
2.192 4.580 1.769 2125
2.299 4.804 1.849 1479
2.295 4.795 1.829 1956
2.204 4.605 1.761 1873
2.303 4.813 1.818 2674
2.228 4.657 1.763 1322
2.319 4.845 1.813 3869
2.380 4.974 1.858 1428
2.327 4.863 1.802 3794
2.396 5.006 1.851 1743
2.342 4.895 1.795 2836
2.404 5.024 1.840 1565
2.511 5.247 1.898 2478
2.341 4.892 1.777 2008
2.490 5.204 1.865 2950
2.579 5.389 1.926 2388
2.584 5.400 1.911 3981
2.486 5.195 1.843 2881
2.590 5.412 1.896 6766
2.439 5.097 1.793 2112
2.589 5.409 1.877 9790
2.480 5.183 1.803 2465
2.591 5.414 1.859 10484
2.489 5.201 1.791 2557
2.593 5.419 1.842 12177
2.708 5.659 1.918 2178
2.592 5.416 1.822 13935
2.710 5.663 1.900 2320
2.594 5.421 1.805 9865
2.735 5.716 1.897 2435
2.599 5.432 1.790 6661
2.668 5.576 1.834 3806
2.601 5.436 1.772 5541
2.819 5.891 1.910 3450
2.818 5.888 1.889 3637
2.755 5.757 1.850 2385
2.820 5.893 1.870 3853
2.952 6.169 1.952 2630
2.826 5.904 1.853 3826
2.951 6.167 1.930 3251
2.818 5.888 1.828 2706
2.950 6.165 1.908 2497
3.101 6.480 1.977 2276
2.926 6.114 1.873 2210
3.107 6.492 1.959 2293
3.034 6.340 1.916 1619
3.159 6.601 1.967 2416
3.096 6.469 1.930 1451
3.178 6.640 1.955 1594
3.307 6.911 2.029 1369
3.309 6.916 2.007 1736
3.193 6.673 1.941 1580
3.312 6.920 1.985 1796
3.192 6.671 1.918 1294
3.367 7.036 1.992 2380
3.434 7.175 2.029 1650
3.373 7.048 1.971 1879
3.542 7.403 2.064 1710
3.555 7.429 2.046 2520
3.378 7.060 1.950 1201
3.561 7.440 2.024 2336
3.630 7.587 2.061 2041
3.633 7.592 2.036 3212
3.563 7.445 2.000 1732
3.632 7.590 2.010 2613
3.552 7.422 1.969 1803
3.734 7.804 2.037 1644
3.634 7.595 1.986 1348
3.740 7.816 2.014 1710
3.837 8.018 2.062 1466
3.746 7.828 1.990 1924
3.846 8.037 2.040 1769
4.006 8.370 2.091 2203
3.862 8.070 2.021 2033
4.072 8.508 2.095 3074
4.008 8.375 2.064 2433
4.074 8.513 2.067 3305
4.010 8.381 2.037 2973
4.076 8.518 2.040 3432
4.013 8.385 2.010 3096
4.079 8.523 2.013 4179
4.015 8.390 1.983 2295
4.081 8.528 1.985 3686
3.981 8.318 1.939 2248
4.080 8.526 1.956 2597
4.513 9.431 2.150 1994
4.562 9.534 2.140 2286
4.082 8.531 1.929 2109
4.562 9.532 2.108 2055
4.091 8.550 1.904 1562
4.564 9.537 2.077 2007
4.856 10.148 2.202 1467
4.566 9.542 2.047 2524
4.862 10.161 2.171 1844
4.569 9.547 2.016 2034
4.865 10.166 2.138 1727
4.864 10.164 2.104 1409
5.234 10.938 2.254 1202
4.870 10.177 2.073 1383
5.173 10.810 2.193 1297
4.876 10.189 2.041 1309
5.246 10.963 2.186 1249
5.245 10.961 2.150 1287
5.717 11.948 2.331 1090
5.727 11.967 2.295 1222
5.248 10.967 2.114 1085
5.719 11.952 2.253 2125
5.358 11.197 2.119 1183
5.722 11.957 2.214 3333
5.617 11.739 2.176 1088
5.725 11.963 2.176 3012
6.140 12.831 2.324 1201
5.731 11.975 2.139 1950
6.139 12.830 2.282 1592
6.142 12.835 2.240 1521
6.014 12.567 2.196 1235
5.746 12.007 2.065 1188
6.148 12.848 2.200 1146
5.741 11.998 2.024 1449
6.151 12.853 2.159 802
5.744 12.003 1.985 1374
5.746 12.007 1.946 1163
5.748 12.012 1.908 830
1.014 2.105 1.821 4469
1.024 2.127 1.828 9617
0.972 2.018 1.739 894
1.029 2.137 1.826 11769
0.977 2.028 1.737 1359
1.034 2.147 1.824 12910
0.981 2.038 1.736 1354
1.036 2.152 1.817 14403
0.983 2.042 1.729 807
1.041 2.162 1.815 12698
1.094 2.272 1.902 1041
1.043 2.166 1.808 11207
1.097 2.277 1.895 1657
1.045 2.171 1.801 11207
1.099 2.282 1.888 1865
1.045 2.169 1.790 8324
1.098 2.280 1.876 2629
1.081 2.244 1.837 6612
1.027 2.133 1.751 3156
1.083 2.248 1.830 5546
1.029 2.137 1.744 2181
1.082 2.247 1.818 4634
1.028 2.135 1.733 966
1.096 2.275 1.829 5354
1.042 2.163 1.744 1277
1.103 2.291 1.831 6554
1.049 2.179 1.746 1591
1.106 2.296 1.823 6554
1.051 2.183 1.739 1134
1.102 2.288 1.807 6467
1.156 2.401 1.891 832
1.101 2.287 1.796 6643
1.156 2.399 1.879 1219
1.109 2.303 1.797 9350
1.163 2.416 1.880 881
1.114 2.313 1.794 12564
1.119 2.323 1.791 13321
1.174 2.437 1.874 896
1.124 2.334 1.788 14685
1.179 2.447 1.870 1112
1.126 2.338 1.781 11640
1.181 2.452 1.862 1878
1.128 2.342 1.773 8596
1.183 2.456 1.855 2644
1.145 2.377 1.787 6586
1.200 2.491 1.868 1024
1.153 2.393 1.788 5724
1.208 2.508 1.869 750
1.155 2.397 1.780 5390
1.210 2.512 1.861 1702
1.160 2.408 1.777 5139
1.215 2.523 1.857 2100
1.170 2.430 1.782 5407
1.226 2.545 1.861 1703
1.178 2.447 1.783 6782
1.234 2.562 1.862 1574
1.183 2.457 1.779 8185
1.239 2.573 1.858 2224
1.188 2.467 1.775 9859
1.244 2.583 1.853 2688
1.187 2.466 1.763 8971
1.243 2.582 1.841 3085
1.187 2.464 1.751 8168
1.248 2.592 1.837 2946
1.192 2.474 1.748 6670
1.254 2.603 1.833 3594
1.200 2.491 1.748 5735
1.256 2.607 1.825 4259
1.237 2.569 1.788 5266
1.181 2.452 1.712 1404
1.245 2.585 1.788 6183
1.301 2.702 1.864 1605
1.250 2.596 1.784 6636
1.194 2.479 1.708 1484
1.255 2.606 1.779 6165
1.312 2.724 1.855 1472
1.254 2.604 1.767 5642
1.311 2.722 1.842 2097
1.271 2.640 1.778 5779
1.328 2.757 1.853 2794
1.282 2.663 1.782 6944
1.339 2.780 1.856 2624
1.326 2.754 1.828 7408
1.269 2.636 1.754 4777
1.328 2.758 1.819 8536
1.271 2.640 1.745 4315
1.319 2.738 1.795 8453
1.261 2.619 1.722 3109
1.339 2.780 1.809 8742
1.275 2.648 1.729 4725
1.347 2.796 1.808 10493
1.277 2.653 1.720 4537
1.349 2.801 1.799 9127
1.286 2.669 1.719 3269
1.351 2.805 1.790 5754
1.294 2.686 1.718 1939
1.386 2.879 1.822 4121
1.323 2.747 1.743 3177
1.376 2.858 1.798 4699
1.319 2.738 1.727 1953
1.375 2.856 1.785 6143
1.433 2.976 1.855 1142
1.374 2.854 1.772 6379
1.432 2.974 1.842 1701
1.413 2.934 1.807 6702
1.355 2.814 1.738 3748
1.421 2.951 1.805 7894
1.363 2.831 1.736 4685
1.423 2.956 1.796 6770
1.365 2.835 1.727 4847
1.422 2.954 1.783 4838
1.364 2.833 1.714 3407
1.412 2.932 1.759 6858
1.492 3.098 1.852 3290
1.414 2.937 1.749 8071
1.473 3.058 1.817 4061
1.484 3.081 1.818 8377
1.422 2.954 1.747 6357
1.489 3.092 1.811 10395
1.431 2.971 1.745 3470
1.494 3.103 1.805 10384
1.436 2.981 1.739 2644
1.496 3.107 1.795 9631
1.438 2.985 1.729 1891
1.502 3.118 1.789 7018
1.560 3.240 1.854 2247
1.507 3.129 1.782 5311
1.566 3.251 1.847 2718
1.555 3.230 1.823 7188
1.497 3.107 1.759 4997
1.564 3.247 1.820 9134
1.505 3.125 1.755 6918
1.519 3.155 1.759 9331
1.578 3.277 1.823 5394
1.528 3.172 1.756 7730
1.587 3.295 1.819 3089
1.545 3.208 1.762 6693
1.604 3.331 1.825 3049
1.591 3.303 1.798 7918
1.532 3.180 1.735 6024
1.596 3.314 1.791 7617
1.537 3.191 1.728 4571
1.601 3.325 1.783 5430
1.542 3.202 1.721 2426
1.591 3.303 1.760 5024
1.650 3.427 1.821 1941
1.612 3.347 1.769 4700
1.678 3.483 1.836 3246
1.680 3.488 1.825 4690
1.620 3.364 1.764 4119
1.679 3.486 1.811 5097
1.619 3.362 1.750 3203
1.675 3.477 1.793 5395
1.615 3.353 1.733 2749
1.686 3.501 1.792 3838
1.617 3.357 1.723 3359
1.742 3.617 1.833 4091
1.653 3.433 1.746 3249
1.747 3.628 1.825 5101
1.659 3.444 1.738 3618
1.756 3.645 1.819 6663
1.696 3.521 1.761 3534
1.726 3.584 1.777 6564
1.786 3.709 1.835 2864
1.719 3.569 1.757 5566
1.788 3.714 1.823 5279
1.794 3.725 1.814 6578
1.727 3.586 1.751 3538
1.793 3.722 1.799 5620
1.732 3.597 1.743 3139
1.785 3.707 1.779 3999
1.725 3.581 1.722 2062
1.838 3.817 1.814 4244
1.778 3.691 1.758 2347
1.840 3.822 1.802 5639
1.901 3.947 1.857 3473
1.846 3.833 1.792 5755
1.906 3.959 1.847 4723
1.854 3.850 1.786 5600
1.915 3.976 1.840 5098
1.917 3.981 1.828 4746
1.856 3.854 1.773 4146
1.894 3.932 1.792 4173
1.955 4.059 1.846 2829
1.896 3.936 1.780 5967
1.979 4.110 1.853 3382
1.901 3.947 1.770 6441
1.985 4.121 1.842 3335
1.900 3.945 1.754 4380
1.990 4.132 1.832 3736
1.995 4.143 1.822 4384
2.060 4.277 1.876 3721
1.994 4.141 1.806 4997
2.065 4.288 1.865 4816
1.993 4.138 1.790 5799
2.074 4.306 1.857 4885
2.079 4.317 1.846 4901
1.998 4.150 1.779 4637
2.081 4.322 1.832 4802
2.007 4.167 1.771 2346
2.067 4.293 1.805 4662
2.129 4.420 1.855 2704
2.115 4.391 1.828 3935
2.053 4.263 1.778 2495
2.140 4.443 1.832 3448
2.078 4.315 1.783 2585
2.187 4.542 1.854 3051
2.122 4.407 1.802 2432
2.186 4.539 1.837 3511
2.124 4.411 1.788 1981
2.185 4.537 1.820 4191
2.123 4.409 1.772 2167
2.184 4.535 1.803 5868
2.298 4.771 1.890 1963
2.186 4.539 1.788 5364
2.248 4.668 1.835 2109
2.195 4.557 1.778 3383
2.312 4.801 1.867 2115
2.233 4.636 1.791 2543
2.314 4.805 1.852 1797
2.313 4.803 1.834 2403
2.235 4.640 1.776 1795
2.319 4.814 1.821 3000
2.207 4.583 1.739 1315
2.331 4.839 1.813 3852
2.393 4.968 1.858 1504
2.336 4.850 1.799 3425
2.408 5.000 1.851 1575
2.338 4.855 1.784 2483
2.433 5.052 1.851 1706
2.524 5.241 1.898 2373
2.442 5.071 1.840 2287
2.592 5.382 1.926 2980
2.507 5.205 1.867 2751
2.598 5.394 1.911 4983
2.443 5.073 1.805 2699
2.603 5.405 1.896 8201
2.455 5.097 1.795 2843
2.602 5.403 1.877 11513
2.493 5.177 1.803 2153
2.604 5.408 1.859 12718
2.499 5.188 1.789 2045
2.606 5.412 1.842 14871
2.722 5.652 1.918 2303
2.609 5.417 1.825 16921
2.751 5.712 1.917 2317
2.611 5.421 1.807 12879
2.753 5.716 1.899 2418
2.613 5.425 1.790 9125
2.682 5.570 1.834 3856
2.615 5.430 1.772 7384
2.834 5.884 1.910 3406
2.826 5.868 1.885 4095
2.617 5.434 1.755 3098
2.835 5.886 1.870 4305
2.967 6.162 1.952 2905
2.840 5.897 1.853 4144
2.966 6.160 1.930 3079
2.832 5.881 1.828 2683
2.942 6.109 1.894 2500
2.941 6.107 1.873 2318
3.077 6.390 1.954 2124
3.166 6.574 1.984 2139
3.053 6.339 1.918 1527
3.172 6.586 1.965 2292
2.952 6.130 1.837 1202
3.194 6.632 1.955 1479
3.258 6.764 1.991 1379
3.327 6.907 2.007 1742
3.206 6.658 1.939 1356
3.332 6.919 1.987 1840
3.242 6.732 1.937 1398
3.385 7.028 1.992 2149
3.452 7.167 2.029 1527
3.394 7.047 1.973 1698
3.558 7.387 2.062 1478
3.563 7.399 2.040 1946
3.403 7.065 1.954 1264
3.649 7.578 2.061 2124
3.579 7.432 2.024 1691
3.652 7.583 2.036 3348
3.514 7.297 1.965 1501
3.651 7.581 2.010 2819
3.564 7.400 1.965 1720
3.754 7.794 2.037 1570
3.657 7.592 1.988 1507
3.756 7.799 2.012 1555
3.847 7.988 2.057 1422
3.762 7.811 1.988 1651
3.957 8.216 2.085 1557
4.010 8.325 2.083 1860
3.865 8.025 2.012 1827
4.093 8.498 2.095 2630
3.931 8.163 2.017 2134
4.095 8.503 2.067 2790
4.031 8.370 2.037 2442
4.098 8.508 2.040 2889
4.034 8.375 2.010 2568
4.100 8.513 2.013 3440
3.999 8.303 1.966 2783
4.433 9.204 2.135 3098
4.102 8.518 1.985 3012
4.435 9.209 2.105 2646
4.101 8.516 1.956 2170
4.586 9.523 2.140 2472
4.434 9.207 2.074 1821
4.592 9.535 2.111 2069
4.113 8.539 1.904 1290
4.588 9.526 2.077 2113
4.443 9.224 2.016 1699
4.590 9.531 2.047 3100
4.445 9.229 1.986 2188
4.593 9.536 2.016 2634
4.447 9.234 1.956 1805
4.598 9.548 1.987 1318
4.893 10.159 2.105 1316
5.190 10.776 2.189 1354
4.895 10.164 2.073 1257
5.189 10.774 2.153 1338
5.274 10.950 2.186 1310
5.273 10.948 2.150 1388
5.191 10.779 2.119 981
5.275 10.954 2.114 1128
5.757 11.953 2.295 1042
5.749 11.938 2.253 1898
5.386 11.184 2.119 1149
5.752 11.943 2.214 2979
5.385 11.182 2.082 1029
5.754 11.949 2.176 2692
6.172 12.816 2.324 1078
5.760 11.961 2.139 1737
6.171 12.814 2.282 1477
6.174 12.820 2.240 1425
5.777 11.994 2.105 1074
6.180 12.832 2.200 1089
5.779 11.999 2.066 1085
5.771 11.983 2.024 1253
6.183 12.838 2.159 777
5.774 11.988 1.985 1180
5.776 11.993 1.946 1011
1.018 2.103 1.821 4587
1.029 2.125 1.828 9705
0.976 2.016 1.739 877
1.034 2.135 1.826 11919
0.981 2.026 1.737 1324
1.039 2.145 1.824 12907
0.986 2.035 1.736 1315
1.041 2.150 1.817 14225
0.988 2.040 1.729 779
1.046 2.160 1.815 12480
1.099 2.270 1.902 1094
1.048 2.164 1.808 10848
1.101 2.275 1.895 1793
1.050 2.169 1.801 10848
1.104 2.279 1.888 2037
1.049 2.167 1.790 8346
1.103 2.278 1.876 2928
1.088 2.247 1.842 6711
1.035 2.136 1.756 4083
1.090 2.252 1.834 5582
1.037 2.141 1.749 2651
1.095 2.262 1.832 4614
1.041 2.151 1.746 1266
1.103 2.278 1.834 5736
1.049 2.167 1.749 1286
1.108 2.289 1.831 7289
1.054 2.177 1.746 1175
1.110 2.293 1.823 7289
1.056 2.181 1.739 990
1.113 2.298 1.816 6977
1.058 2.185 1.732 805
1.106 2.284 1.796 6903
1.161 2.397 1.879 994
1.114 2.300 1.797 9470
1.169 2.413 1.880 780
1.116 2.305 1.790 12275
1.171 2.418 1.873 886
1.124 2.321 1.791 13155
1.179 2.434 1.874 919
1.129 2.331 1.788 14876
1.184 2.445 1.870 1193
1.131 2.336 1.781 11837
1.186 2.449 1.862 1926
1.139 2.352 1.782 9050
1.194 2.466 1.863 1778
1.153 2.380 1.791 7299
1.097 2.266 1.711 1150
1.158 2.391 1.788 6095
1.213 2.505 1.869 823
1.160 2.395 1.780 5638
1.215 2.509 1.861 1736
1.165 2.405 1.777 5406
1.220 2.520 1.857 2151
1.176 2.428 1.782 6132
1.231 2.543 1.861 1678
1.184 2.444 1.783 8081
1.239 2.559 1.862 1490
1.189 2.455 1.779 9412
1.245 2.570 1.858 2154
1.191 2.459 1.771 10985
1.247 2.574 1.849 3172
1.193 2.463 1.763 9855
1.249 2.579 1.841 3017
1.192 2.461 1.751 8817
1.257 2.596 1.841 3030
1.197 2.472 1.748 7141
1.259 2.600 1.833 3599
1.208 2.494 1.752 6411
1.264 2.611 1.829 4102
1.240 2.560 1.784 5516
1.296 2.676 1.860 1195
1.251 2.583 1.788 6396
1.307 2.699 1.864 1564
1.253 2.587 1.780 6788
1.309 2.704 1.855 1560
1.264 2.610 1.783 6072
1.207 2.492 1.708 1394
1.272 2.626 1.783 5596
1.329 2.744 1.858 1543
1.277 2.637 1.778 6103
1.334 2.754 1.853 3052
1.288 2.660 1.782 7344
1.345 2.778 1.856 2626
1.332 2.751 1.828 7518
1.275 2.633 1.754 4838
1.331 2.749 1.815 8630
1.274 2.631 1.742 4059
1.324 2.735 1.795 8680
1.267 2.617 1.722 3050
1.345 2.777 1.809 8444
1.281 2.646 1.729 4816
1.353 2.794 1.808 10037
1.283 2.650 1.720 4758
1.355 2.798 1.799 8785
1.291 2.666 1.719 3421
1.357 2.802 1.790 5818
1.299 2.683 1.718 2018
1.393 2.876 1.822 4537
1.329 2.744 1.743 3112
1.376 2.842 1.790 4677
1.319 2.723 1.720 1629
1.379 2.847 1.781 5786
1.437 2.966 1.852 1659
1.378 2.845 1.769 6010
1.436 2.965 1.838 2164
1.419 2.931 1.807 6457
1.361 2.811 1.738 3464
1.428 2.948 1.805 7418
1.369 2.828 1.736 4528
1.427 2.946 1.792 6527
1.368 2.826 1.723 4422
1.429 2.951 1.783 5097
1.370 2.830 1.714 3551
1.419 2.929 1.759 6338
1.499 3.095 1.852 2667
1.421 2.934 1.749 7178
1.495 3.086 1.835 3523
1.491 3.078 1.818 7580
1.429 2.951 1.747 5653
1.499 3.095 1.815 9572
1.440 2.974 1.748 3812
1.504 3.106 1.809 9807
1.445 2.985 1.742 3897
1.506 3.110 1.799 9306
1.447 2.989 1.733 2759
1.508 3.115 1.789 7658
1.567 3.237 1.854 2007
1.510 3.119 1.779 6510
1.570 3.241 1.844 2873
1.516 3.130 1.772 8018
1.575 3.252 1.837 5592
1.574 3.250 1.823 8852
1.515 3.128 1.759 8211
1.529 3.158 1.762 8617
