-0.638 4.814 1.901 4925
-0.619 4.674 1.849 2841
-0.600 4.534 1.797 1866
-0.638 4.819 1.887 7005
-0.620 4.679 1.836 2218
-0.657 4.959 1.938 1146
-0.640 4.832 1.876 5172
-0.616 4.654 1.811 1962
-0.658 4.972 1.927 1234
-0.641 4.837 1.861 3471
-0.659 4.977 1.912 2660
-0.616 4.652 1.795 1842
-0.658 4.967 1.892 4973
-0.639 4.827 1.842 4940
-0.619 4.671 1.787 1259
-0.676 5.108 1.942 1158
-0.659 4.972 1.878 6732
-0.640 4.832 1.828 5020
-0.677 5.113 1.927 1795
-0.659 4.977 1.863 5570
-0.641 4.837 1.814 3469
-0.678 5.118 1.913 2780
-0.676 5.101 1.890 5887
-0.657 4.960 1.841 2408
-0.638 4.819 1.792 1316
-0.707 5.339 1.972 1046
-0.676 5.106 1.875 7679
-0.708 5.344 1.957 1892
-0.658 4.965 1.827 1258
-0.676 5.104 1.858 7015
-0.703 5.305 1.926 1950
-0.657 4.962 1.810 1394
-0.677 5.109 1.843 6059
-0.695 5.250 1.890 2635
-0.658 4.967 1.795 2027
-0.714 5.392 1.938 1781
-0.678 5.121 1.830 5123
-0.712 5.374 1.915 2631
-0.659 4.980 1.783 1544
-0.687 5.186 1.835 3356
-0.708 5.350 1.889 2975
-0.668 5.044 1.788 1032
-0.713 5.385 1.883 2243
-0.687 5.191 1.820 2127
-0.742 5.601 1.954 1233
-0.743 5.614 1.940 1894
-0.710 5.360 1.858 1811
-0.680 5.136 1.785 1260
-0.721 5.447 1.869 2347
-0.741 5.597 1.917 2178
-0.724 5.467 1.858 3546
-0.743 5.609 1.903 2673
-0.744 5.614 1.886 2933
-0.725 5.472 1.842 2854
-0.774 5.847 1.959 1027
-0.744 5.619 1.870 2911
-0.725 5.477 1.826 1762
-0.763 5.762 1.914 1436
-0.746 5.632 1.856 3064
-0.767 5.789 1.904 1483
-0.727 5.489 1.812 1167
-0.788 5.947 1.953 1015
-0.746 5.637 1.840 2378
-0.776 5.862 1.908 1933
-0.778 5.875 1.893 3641
-0.757 5.717 1.846 2200
-0.797 6.018 1.936 1298
-0.780 5.887 1.878 5406
-0.754 5.692 1.820 2281
-0.799 6.030 1.921 1813
-0.818 6.173 1.964 1002
-0.780 5.892 1.861 4005
-0.799 6.035 1.903 2325
-0.753 5.689 1.801 1424
-0.818 6.179 1.946 1270
-0.803 6.063 1.892 3023
-0.779 5.882 1.840 1602
-0.822 6.206 1.934 1077
-0.802 6.053 1.870 3388
-0.828 6.249 1.927 1877
-0.849 6.408 1.973 1127
-0.783 5.910 1.829 1023
-0.802 6.058 1.853 2568
-0.852 6.436 1.960 1984
-0.825 6.232 1.902 1918
-0.854 6.448 1.944 2974
-0.807 6.093 1.843 1608
-0.826 6.237 1.884 1215
-0.878 6.630 1.995 1102
-0.854 6.446 1.923 3035
-0.877 6.620 1.971 1596
-0.819 6.181 1.849 1396
-0.854 6.451 1.904 1805
-0.891 6.731 1.981 1559
-0.833 6.292 1.860 1402
-0.911 6.875 2.021 1116
-0.909 6.865 1.997 2480
-0.890 6.721 1.957 2093
-0.866 6.540 1.908 1504
-0.834 6.297 1.842 1113
-0.910 6.871 1.977 2575
-0.889 6.712 1.934 2001
-0.929 7.015 2.015 1421
-0.867 6.545 1.889 1332
-0.909 6.861 1.952 1780
-0.929 7.013 1.993 1396
-0.881 6.656 1.898 1315
-0.906 6.843 1.926 1882
-0.928 7.010 1.970 1821
-0.881 6.653 1.876 1251
-0.928 7.008 1.948 1920
-0.947 7.152 1.985 1375
-0.906 6.841 1.904 1232
-0.972 7.342 2.035 1011
-0.933 7.044 1.935 1897
-0.975 7.363 2.017 1622
-0.999 7.546 2.064 1115
-0.976 7.369 1.996 1966
-0.934 7.049 1.915 1774
-1.001 7.559 2.044 1712
-0.958 7.237 1.940 1510
-1.030 7.778 2.075 1451
-0.987 7.450 1.993 1365
-1.006 7.595 2.029 1000
-0.987 7.455 1.971 1954
-1.031 7.783 2.052 1904
-0.957 7.227 1.915 1496
-1.031 7.789 2.030 1971
-1.052 7.941 2.067 1720
-1.005 7.590 1.981 1479
-0.986 7.445 1.946 1283
-1.053 7.954 2.046 2335
-1.032 7.794 2.007 2249
-1.007 7.603 1.961 1472
-1.055 7.967 2.024 2003
-1.035 7.815 1.988 1538
-1.058 7.988 2.004 1909
-1.120 8.454 2.114 1404
-1.037 7.828 1.967 1068
-1.056 7.971 1.976 1556
-1.121 8.468 2.091 1163
-1.035 7.818 1.940 1151
-1.165 8.795 2.140 1108
-1.208 9.122 2.187 1282
-1.164 8.793 2.112 1219
-1.211 9.143 2.163 1643
-1.125 8.492 2.018 1159
-1.167 8.814 2.090 1121
-1.187 8.960 2.122 1010
-1.212 9.149 2.136 1972
-1.170 8.835 2.067 1139
-1.125 8.497 1.993 1087
-1.212 9.155 2.110 1704
-1.258 9.500 2.184 1414
-1.259 9.506 2.157 1759
-1.288 9.729 2.204 1203
-1.240 9.360 2.125 1125
-1.262 9.527 2.132 1527
-1.335 10.081 2.248 1104
-1.242 9.381 2.101 1086
-1.365 10.303 2.295 1069
-1.337 10.094 2.220 1780
-1.366 10.317 2.267 1677
-1.266 9.556 2.109 1369
-1.339 10.108 2.192 2427
-1.368 10.331 2.238 2054
-1.319 9.962 2.162 1297
-1.265 9.554 2.079 1171
-1.369 10.337 2.208 2335
-1.347 10.168 2.174 2201
-1.322 9.983 2.136 1420
-1.371 10.351 2.179 2273
-1.347 10.174 2.144 2200
-1.401 10.582 2.225 1961
-1.323 9.989 2.107 1094
-1.403 10.595 2.195 2314
-1.373 10.364 2.150 1557
-1.348 10.179 2.114 1371
-1.404 10.601 2.164 2336
-1.351 10.200 2.087 1330
-1.385 10.455 2.136 1180
-1.407 10.623 2.136 3137
-1.374 10.376 2.089 1480
-1.351 10.198 2.056 1272
-1.409 10.636 2.106 3180
-1.375 10.381 2.059 2376
-1.374 10.371 2.026 2079
-1.410 10.649 2.076 1780
-1.407 10.624 2.040 2378
-1.619 12.223 2.327 1219
-1.375 10.385 1.996 1085
-1.408 10.630 2.008 2452
-1.620 12.230 2.291 1252
-1.408 10.635 1.977 1235
-1.636 12.352 2.275 1123
-1.655 12.499 2.301 1060
-1.621 12.242 2.219 1070
-1.641 12.389 2.244 1019
-1.724 13.014 2.312 1064
-1.736 13.106 2.288 1167
-1.710 12.912 2.256 1119
-1.729 13.058 2.241 1388
-1.709 12.903 2.215 1386
-1.730 13.064 2.202 1697
-1.709 12.901 2.176 1161
-1.732 13.077 2.165 1275
-0.302 2.317 1.821 2121
-0.306 2.347 1.833 5212
-0.290 2.227 1.744 1713
-0.307 2.359 1.831 6938
-0.292 2.238 1.742 1879
-0.323 2.479 1.919 1498
-0.307 2.357 1.819 5225
-0.323 2.478 1.907 2595
-0.292 2.236 1.731 1045
-0.321 2.464 1.886 4279
-0.305 2.343 1.798 3612
-0.321 2.463 1.875 6442
-0.305 2.341 1.787 2535
-0.322 2.468 1.867 8688
-0.306 2.346 1.780 1748
-0.322 2.473 1.860 8688
-0.306 2.351 1.774 1748
-0.324 2.484 1.858 11596
-0.308 2.362 1.771 1384
-0.324 2.489 1.851 14798
-0.326 2.500 1.848 13286
-0.327 2.512 1.845 12428
-0.329 2.523 1.842 10426
-0.331 2.541 1.844 9444
-0.332 2.546 1.837 9444
-0.333 2.551 1.829 8688
-0.349 2.675 1.913 1050
-0.332 2.549 1.818 8011
-0.348 2.673 1.901 1827
-0.333 2.554 1.810 7741
-0.349 2.678 1.893 2190
-0.335 2.572 1.812 7761
-0.352 2.697 1.894 2068
-0.338 2.590 1.813 9765
-0.354 2.715 1.895 2236
-0.340 2.608 1.814 12852
-0.356 2.733 1.896 2405
-0.341 2.613 1.806 10669
-0.357 2.738 1.888 3717
-0.350 2.684 1.842 9761
-0.333 2.558 1.760 3571
-0.350 2.689 1.834 11507
-0.334 2.563 1.753 2660
-0.367 2.814 1.915 1425
-0.350 2.687 1.822 13475
-0.367 2.813 1.902 2414
-0.334 2.561 1.741 1482
-0.351 2.692 1.814 10895
-0.367 2.818 1.894 2076
-0.352 2.703 1.811 8512
-0.369 2.830 1.890 1190
-0.353 2.708 1.803 6336
-0.370 2.835 1.882 1717
-0.363 2.786 1.841 5066
-0.347 2.659 1.762 2712
-0.363 2.785 1.829 5695
-0.346 2.657 1.750 1722
-0.380 2.912 1.907 1079
-0.363 2.783 1.816 6577
-0.379 2.910 1.895 1357
-0.346 2.655 1.738 1020
-0.365 2.801 1.817 7508
-0.382 2.929 1.894 1942
-0.368 2.819 1.817 9480
-0.384 2.947 1.894 1893
-0.351 2.692 1.739 1021
-0.368 2.824 1.808 8383
-0.385 2.952 1.886 2076
-0.373 2.863 1.820 7591
-0.356 2.735 1.744 1423
-0.392 3.005 1.905 1143
-0.369 2.827 1.788 5890
-0.385 2.956 1.864 2833
-0.375 2.879 1.808 4745
-0.392 3.008 1.884 1583
-0.375 2.877 1.796 6570
-0.395 3.033 1.887 2306
-0.377 2.896 1.795 6500
-0.398 3.052 1.886 5073
-0.398 3.057 1.877 6844
-0.381 2.921 1.799 6324
-0.396 3.035 1.853 8190
-0.379 2.905 1.778 4054
-0.412 3.164 1.927 1935
-0.396 3.040 1.844 10474
-0.413 3.170 1.918 2769
-0.378 2.903 1.766 2386
-0.397 3.045 1.835 10627
-0.415 3.182 1.913 2892
-0.380 2.915 1.762 2271
-0.402 3.084 1.846 11030
-0.419 3.214 1.919 2663
-0.385 2.954 1.772 2440
-0.403 3.089 1.837 8861
-0.420 3.219 1.910 3821
-0.384 2.945 1.756 2364
-0.401 3.080 1.820 7227
-0.419 3.211 1.893 6819
-0.384 2.949 1.748 1787
-0.418 3.209 1.880 8339
-0.401 3.078 1.808 7201
-0.384 2.947 1.735 1128
-0.435 3.340 1.952 1032
-0.419 3.214 1.870 7494
-0.402 3.083 1.799 6235
-0.436 3.345 1.942 1679
-0.402 3.087 1.790 7078
-0.420 3.219 1.861 4900
-0.437 3.350 1.933 2327
-0.403 3.092 1.781 8887
-0.421 3.231 1.856 3176
-0.438 3.362 1.927 1838
-0.405 3.104 1.776 7922
-0.423 3.243 1.850 3103
-0.440 3.374 1.921 1437
-0.407 3.123 1.774 5739
-0.434 3.331 1.885 3572
-0.451 3.463 1.955 1124
-0.428 3.280 1.846 4973
-0.408 3.127 1.765 3908
-0.448 3.433 1.927 2152
-0.430 3.299 1.844 7843
-0.447 3.431 1.913 2827
-0.407 3.125 1.752 2328
-0.433 3.325 1.845 10504
-0.451 3.457 1.914 1873
-0.434 3.330 1.835 10648
-0.451 3.463 1.904 1797
-0.435 3.335 1.826 10561
-0.459 3.524 1.923 3432
-0.435 3.340 1.816 10330
-0.460 3.529 1.912 5204
-0.436 3.344 1.806 9421
-0.462 3.548 1.909 8629
-0.464 3.560 1.903 15240
-0.436 3.342 1.793 6404
-0.481 3.693 1.970 1410
-0.465 3.565 1.892 17711
-0.436 3.347 1.783 2776
-0.482 3.699 1.959 1904
-0.465 3.570 1.882 16348
-0.483 3.704 1.948 2208
-0.448 3.436 1.816 1587
-0.465 3.568 1.868 12688
-0.483 3.702 1.934 3839
-0.448 3.434 1.802 1498
-0.475 3.644 1.892 15538
-0.492 3.778 1.958 2785
-0.457 3.510 1.827 2500
-0.475 3.642 1.878 18458
-0.492 3.776 1.943 4781
-0.454 3.486 1.803 1902
-0.475 3.647 1.868 16153
-0.493 3.781 1.932 5544
-0.458 3.512 1.803 1258
-0.477 3.659 1.860 8354
-0.496 3.808 1.932 6681
-0.497 3.813 1.920 9216
-0.479 3.678 1.857 3155
-0.462 3.543 1.793 1310
-0.497 3.811 1.906 11339
-0.472 3.619 1.816 2760
-0.514 3.946 1.970 1594
-0.497 3.816 1.895 10566
-0.480 3.681 1.832 2718
-0.515 3.952 1.958 2255
-0.498 3.821 1.884 8760
-0.480 3.679 1.818 4785
-0.516 3.957 1.947 2915
-0.502 3.848 1.883 8102
-0.480 3.683 1.807 6154
-0.519 3.983 1.945 2969
-0.503 3.860 1.875 8319
-0.481 3.688 1.796 4756
-0.521 3.996 1.937 2459
-0.503 3.858 1.860 7963
-0.480 3.686 1.783 3283
-0.521 3.994 1.922 2615
-0.504 3.870 1.852 6075
-0.522 4.006 1.913 3064
-0.482 3.698 1.775 2546
-0.520 3.990 1.892 4434
-0.502 3.853 1.831 2676
-0.538 4.126 1.953 1685
-0.483 3.702 1.764 1347
-0.523 4.009 1.887 6362
-0.540 4.146 1.947 1985
-0.505 3.873 1.827 1737
-0.523 4.014 1.875 9967
-0.541 4.151 1.935 3453
-0.505 3.877 1.815 1801
-0.524 4.019 1.864 9108
-0.542 4.156 1.923 4440
-0.506 3.882 1.804 1020
-0.539 4.132 1.899 7744
-0.521 3.995 1.840 4619
-0.539 4.138 1.887 9109
-0.521 4.000 1.828 3323
-0.557 4.275 1.945 1711
-0.541 4.150 1.878 6932
-0.523 4.012 1.819 2182
-0.559 4.287 1.936 1836
-0.543 4.162 1.869 6662
-0.560 4.300 1.927 1930
-0.525 4.024 1.811 1883
-0.542 4.160 1.854 6509
-0.560 4.298 1.911 2582
-0.554 4.252 1.877 5443
-0.536 4.114 1.820 2874
-0.572 4.390 1.935 1230
-0.555 4.257 1.865 4332
-0.537 4.119 1.808 1936
-0.573 4.395 1.922 1402
-0.552 4.233 1.841 5779
-0.572 4.386 1.903 2726
-0.555 4.260 1.837 7351
-0.575 4.413 1.899 4655
-0.559 4.286 1.834 6006
-0.577 4.425 1.889 5137
-0.595 4.564 1.945 1181
-0.577 4.423 1.873 6916
-0.558 4.284 1.818 3707
-0.595 4.561 1.929 2417
-0.577 4.428 1.861 7777
-0.595 4.567 1.915 2446
-0.559 4.289 1.806 2373
-0.581 4.455 1.856 5727
-0.600 4.601 1.913 3370
-0.563 4.315 1.802 1574
-0.585 4.489 1.855 5455
-0.603 4.628 1.909 3253
-0.600 4.604 1.884 4684
-0.582 4.464 1.830 2883
-0.618 4.743 1.937 1014
-0.602 4.616 1.873 6661
-0.579 4.440 1.806 1550
-0.620 4.756 1.926 1521
-0.602 4.621 1.860 6915
-0.621 4.761 1.912 2401
-0.602 4.619 1.844 4253
-0.620 4.759 1.896 3040
-0.628 4.815 1.901 4646
-0.599 4.594 1.819 3207
-0.646 4.955 1.953 1023
-0.628 4.820 1.887 6770
-0.601 4.614 1.811 2106
-0.647 4.961 1.938 1418
-0.630 4.833 1.876 5183
-0.612 4.693 1.825 1871
-0.648 4.973 1.927 1582
-0.647 4.964 1.907 3120
-0.629 4.823 1.856 3104
-0.610 4.683 1.806 1433
-0.648 4.969 1.892 4857
-0.628 4.821 1.839 4115
-0.666 5.109 1.942 1255
-0.610 4.680 1.789 1110
-0.649 4.981 1.880 6439
-0.630 4.833 1.828 4060
-0.668 5.122 1.930 1656
-0.649 4.979 1.863 5005
-0.631 4.838 1.814 3087
-0.667 5.120 1.913 2604
-0.665 5.103 1.890 5459
-0.633 4.858 1.805 2388
-0.696 5.340 1.972 1097
-0.666 5.108 1.875 7662
-0.694 5.323 1.949 2074
-0.647 4.966 1.827 1072
-0.665 5.105 1.858 6974
-0.692 5.306 1.926 2556
-0.647 4.964 1.810 1551
-0.667 5.118 1.845 5442
-0.649 4.976 1.798 2630
-0.686 5.259 1.893 2443
-0.704 5.400 1.941 1342
-0.668 5.122 1.830 4313
-0.697 5.346 1.905 2745
-0.649 4.981 1.783 1568
-0.699 5.359 1.892 3739
-0.677 5.194 1.838 3023
-0.659 5.053 1.791 1021
-0.699 5.364 1.876 2862
-0.677 5.192 1.820 2051
-0.729 5.595 1.952 1270
-0.698 5.354 1.856 2114
-0.732 5.615 1.940 1904
-0.670 5.137 1.785 1344
-0.711 5.456 1.871 2293
-0.730 5.598 1.917 2214
-0.693 5.314 1.826 1035
-0.713 5.468 1.858 3823
-0.731 5.611 1.903 2674
-0.732 5.616 1.886 2987
-0.713 5.473 1.842 2884
-0.762 5.848 1.959 1141
-0.733 5.621 1.870 3286
-0.714 5.478 1.826 1567
-0.751 5.763 1.914 1301
-0.734 5.633 1.856 3712
-0.757 5.806 1.909 1526
-0.775 5.949 1.953 1026
-0.735 5.638 1.840 2927
-0.763 5.856 1.906 1932
-0.782 5.999 1.949 1032
-0.766 5.876 1.893 3660
-0.745 5.718 1.846 2361
-0.785 6.019 1.936 1378
-0.768 5.889 1.878 5552
-0.744 5.708 1.825 2203
-0.786 6.032 1.921 1651
-0.768 5.894 1.861 4149
-0.787 6.037 1.903 2045
-0.744 5.706 1.806 1249
-0.806 6.180 1.946 1196
-0.791 6.065 1.892 2693
-0.768 5.891 1.842 1732
-0.809 6.208 1.934 1017
-0.789 6.055 1.870 2801
-0.813 6.236 1.923 1726
-0.771 5.911 1.829 1134
-0.834 6.394 1.968 1123
-0.789 6.052 1.850 2510
-0.813 6.233 1.902 1775
-0.840 6.445 1.963 1649
-0.840 6.443 1.942 2365
-0.793 6.080 1.839 1583
-0.813 6.239 1.884 1201
-0.864 6.632 1.995 1189
-0.841 6.448 1.923 2495
-0.862 6.614 1.969 1718
-0.815 6.251 1.868 1184
-0.863 6.620 1.950 1881
-0.820 6.294 1.860 1669
-0.893 6.847 2.012 1599
-0.843 6.468 1.908 1579
-0.894 6.860 1.995 2752
-0.874 6.708 1.953 2128
-0.854 6.549 1.910 1653
-0.821 6.299 1.842 1183
-0.895 6.865 1.974 2778
-0.875 6.713 1.934 2074
-0.854 6.554 1.891 1612
-0.914 7.009 2.013 1279
-0.895 6.863 1.952 2082
-0.913 7.007 1.991 1438
-0.876 6.719 1.914 1357
-0.914 7.012 1.970 2028
-0.894 6.860 1.930 1835
-0.868 6.655 1.876 1416
-0.946 7.255 2.034 1148
-0.914 7.010 1.948 2290
-0.946 7.261 2.013 1664
-0.895 6.866 1.910 1111
-0.869 6.668 1.859 1097
-0.916 7.030 1.931 1954
-0.948 7.274 1.994 1936
-0.985 7.555 2.066 1252
-0.987 7.568 2.046 2195
-0.961 7.371 1.996 2058
-0.918 7.043 1.913 1551
-0.942 7.226 1.959 1118
-0.945 7.246 1.942 1614
-0.986 7.566 2.022 1514
-1.015 7.787 2.077 1510
-0.967 7.422 1.986 1178
-0.972 7.457 1.971 2126
-1.015 7.785 2.052 2100
-0.941 7.221 1.913 1338
-0.991 7.602 2.007 1054
-1.016 7.791 2.030 2136
-1.035 7.943 2.067 1764
-0.990 7.592 1.981 1578
-0.971 7.447 1.946 1272
-1.037 7.957 2.046 2312
-1.016 7.796 2.007 2295
-0.991 7.605 1.961 1434
-1.039 7.970 2.024 1946
-1.018 7.809 1.986 1507
-1.043 7.998 2.006 1894
-1.101 8.449 2.112 1287
-1.039 7.973 1.976 1473
-1.104 8.470 2.091 1120
-1.006 7.720 1.917 1034
-1.146 8.790 2.138 1072
-1.189 9.119 2.213 1032
-1.190 9.132 2.188 1331
-1.147 8.795 2.112 1210
-1.109 8.504 2.047 1113
-1.192 9.146 2.163 1637
-1.108 8.502 2.020 1259
-1.148 8.809 2.088 1151
-1.167 8.954 2.121 1024
-1.194 9.159 2.138 2010
-1.151 8.830 2.066 1168
-1.170 8.975 2.098 1066
-1.109 8.507 1.995 1039
-1.194 9.157 2.110 1848
-1.239 9.503 2.184 1147
-1.240 9.509 2.157 1564
-1.220 9.363 2.125 1182
-1.269 9.732 2.204 1167
-1.318 10.108 2.284 1116
-1.242 9.530 2.132 1539
-1.317 10.106 2.253 1404
-1.344 10.314 2.297 1171
-1.269 9.737 2.176 1036
-1.318 10.112 2.224 2136
-1.345 10.320 2.267 1946
-1.244 9.543 2.106 1389
-1.298 9.959 2.192 1076
-1.319 10.118 2.194 2864
-1.347 10.334 2.238 2460
-1.300 9.972 2.164 1344
-1.246 9.557 2.079 1236
-1.348 10.340 2.208 2648
-1.325 10.163 2.172 2496
-1.302 9.986 2.136 1486
-1.378 10.571 2.254 1026
-1.327 10.176 2.144 2527
-1.350 10.354 2.179 2308
-1.379 10.577 2.223 2133
-1.301 9.984 2.106 1141
-1.381 10.591 2.194 2450
-1.327 10.182 2.114 1618
-1.350 10.359 2.148 1454
-1.382 10.604 2.164 2553
-1.329 10.195 2.086 1517
-1.363 10.458 2.136 1189
-1.383 10.610 2.133 3402
-1.353 10.379 2.089 1779
-1.329 10.193 2.054 1464
-1.386 10.631 2.105 3073
-1.354 10.384 2.059 2664
-1.352 10.374 2.026 2311
-1.389 10.652 2.076 1754
-1.385 10.627 2.040 2658
-1.354 10.387 1.996 1234
-1.594 12.227 2.327 1112
-1.386 10.632 2.008 2698
-1.594 12.225 2.290 1166
-1.386 10.630 1.976 1360
-1.610 12.348 2.274 1113
-1.610 12.354 2.238 1010
-1.707 13.094 2.285 1142
-1.684 12.916 2.256 1026
-1.704 13.069 2.242 1237
-1.682 12.906 2.215 1223
-1.703 13.067 2.202 1437
-1.682 12.904 2.176 1005
-1.704 13.073 2.164 1065
-0.296 2.318 1.821 1974
-0.299 2.342 1.828 4355
-0.315 2.462 1.917 1253
-0.301 2.353 1.826 5655
-0.316 2.474 1.914 1976
-0.301 2.358 1.819 4660
-0.317 2.479 1.907 2717
-0.315 2.465 1.886 4364
-0.300 2.344 1.798 4021
-0.315 2.463 1.875 6296
-0.299 2.342 1.787 2773
-0.315 2.462 1.863 8430
-0.299 2.340 1.776 1570
-0.315 2.467 1.856 8430
-0.300 2.345 1.769 1570
-0.317 2.478 1.853 11061
-0.301 2.356 1.767 1222
-0.318 2.490 1.851 14041
-0.320 2.501 1.848 12821
-0.321 2.513 1.845 12109
-0.323 2.524 1.842 10302
-0.325 2.542 1.844 9698
-0.326 2.547 1.837 9698
-0.325 2.545 1.825 9396
-0.341 2.669 1.909 1225
-0.326 2.550 1.818 9229
-0.342 2.674 1.901 1802
-0.327 2.555 1.810 8879
-0.342 2.679 1.893 2255
-0.327 2.560 1.803 8666
-0.343 2.684 1.886 2856
-0.330 2.584 1.809 9902
-0.346 2.709 1.891 2730
-0.333 2.602 1.810 12463
-0.349 2.727 1.892 2637
-0.333 2.607 1.802 10486
-0.349 2.732 1.884 3974
-0.343 2.685 1.842 10454
-0.327 2.559 1.760 4012
-0.344 2.690 1.834 12487
-0.328 2.564 1.753 2944
-0.360 2.815 1.915 1359
-0.344 2.688 1.822 14654
-0.360 2.814 1.902 2348
-0.327 2.562 1.741 1556
-0.345 2.699 1.818 11902
-0.361 2.826 1.899 1560
-0.329 2.573 1.738 1218
-0.346 2.704 1.811 9285
-0.362 2.831 1.890 1226
-0.346 2.709 1.803 7116
-0.365 2.856 1.895 1757
-0.347 2.714 1.795 4947
-0.365 2.854 1.882 2357
-0.355 2.779 1.824 5097
-0.339 2.652 1.746 1350
-0.371 2.906 1.903 1350
-0.356 2.784 1.816 6506
-0.372 2.911 1.895 1292
-0.358 2.802 1.817 7813
-0.374 2.930 1.894 1858
-0.361 2.820 1.817 10537
-0.377 2.948 1.894 1844
-0.361 2.825 1.808 9473
-0.377 2.953 1.886 2054
-0.361 2.823 1.796 8534
-0.377 2.952 1.873 2647
-0.361 2.828 1.788 6584
-0.378 2.957 1.864 3070
-0.364 2.846 1.788 4841
-0.380 2.975 1.864 3232
-0.368 2.878 1.796 6394
-0.384 3.007 1.871 2093
-0.370 2.897 1.795 6056
-0.390 3.053 1.886 4450
-0.392 3.065 1.881 5952
-0.373 2.922 1.799 5944
-0.388 3.036 1.853 7520
-0.371 2.906 1.778 3715
-0.405 3.172 1.931 2360
-0.388 3.034 1.840 9830
-0.405 3.171 1.918 3306
-0.371 2.904 1.766 2236
-0.390 3.052 1.839 10011
-0.408 3.189 1.917 3589
-0.373 2.916 1.762 2009
-0.394 3.085 1.846 10906
-0.411 3.215 1.919 3465
-0.378 2.955 1.772 2389
-0.395 3.090 1.837 9096
-0.412 3.220 1.910 4748
-0.377 2.946 1.756 2180
-0.410 3.205 1.889 8327
-0.393 3.074 1.816 7306
-0.376 2.943 1.744 1582
-0.410 3.210 1.880 9880
-0.394 3.079 1.808 7377
-0.427 3.341 1.952 1150
-0.377 2.948 1.735 1035
-0.411 3.215 1.870 9029
-0.394 3.084 1.799 6201
-0.428 3.346 1.942 1901
-0.395 3.088 1.790 6886
-0.412 3.220 1.861 6415
-0.428 3.351 1.933 2652
-0.395 3.093 1.781 8748
-0.412 3.225 1.852 4652
-0.429 3.356 1.923 2203
-0.397 3.105 1.776 7835
-0.414 3.237 1.846 4219
-0.431 3.368 1.917 1480
-0.399 3.124 1.774 5583
-0.416 3.255 1.844 3964
-0.439 3.436 1.940 1339
-0.419 3.281 1.846 5036
-0.400 3.128 1.765 3640
-0.440 3.441 1.930 1953
-0.423 3.307 1.847 8037
-0.440 3.439 1.917 2465
-0.400 3.133 1.756 2084
-0.425 3.326 1.845 11009
-0.442 3.458 1.914 1762
-0.426 3.331 1.835 11340
-0.443 3.464 1.904 1795
-0.426 3.336 1.826 11695
-0.451 3.525 1.923 4257
-0.427 3.341 1.816 11721
-0.451 3.530 1.912 6485
-0.428 3.345 1.806 10694
-0.454 3.549 1.909 9999
-0.455 3.561 1.903 16876
-0.427 3.343 1.793 7458
-0.472 3.695 1.970 1617
-0.456 3.566 1.892 19755
-0.428 3.348 1.783 3385
-0.473 3.700 1.959 2204
-0.456 3.571 1.882 17874
-0.474 3.705 1.948 2475
-0.439 3.437 1.816 1843
-0.456 3.569 1.868 12499
-0.473 3.703 1.934 3870
-0.439 3.435 1.802 1516
-0.466 3.645 1.892 13278
-0.449 3.511 1.827 3247
-0.483 3.779 1.958 2785
-0.466 3.643 1.878 15883
-0.483 3.777 1.943 5044
-0.447 3.494 1.806 2333
-0.466 3.648 1.868 13828
-0.484 3.783 1.932 5927
-0.449 3.513 1.803 1605
-0.464 3.632 1.847 7127
-0.486 3.802 1.928 6381
-0.487 3.807 1.917 8482
-0.460 3.601 1.820 3406
-0.486 3.805 1.903 10682
-0.469 3.670 1.839 2754
-0.504 3.940 1.966 1685
-0.487 3.810 1.892 10397
-0.470 3.675 1.829 2696
-0.504 3.946 1.955 2448
-0.489 3.822 1.884 8824
-0.470 3.680 1.818 3859
-0.506 3.958 1.947 3005
-0.492 3.849 1.883 7875
-0.471 3.685 1.807 5064
-0.509 3.985 1.945 3444
-0.494 3.861 1.875 7643
-0.472 3.689 1.796 3744
-0.511 3.997 1.937 3029
-0.493 3.859 1.860 7180
-0.511 3.995 1.922 2845
-0.471 3.687 1.783 2449
-0.494 3.864 1.849 5656
-0.511 4.000 1.910 3467
-0.472 3.692 1.772 1842
-0.510 3.991 1.892 4720
-0.493 3.854 1.831 3000
-0.528 4.127 1.953 1772
-0.513 4.010 1.887 6820
-0.494 3.867 1.823 2267
-0.530 4.147 1.947 2230
-0.513 4.015 1.875 10636
-0.531 4.152 1.935 3397
-0.495 3.871 1.812 2037
-0.514 4.020 1.864 10067
-0.531 4.157 1.923 3943
-0.496 3.883 1.804 1151
-0.515 4.033 1.855 8256
-0.533 4.170 1.914 4724
-0.529 4.139 1.887 8652
-0.511 4.001 1.828 3641
-0.547 4.276 1.945 1495
-0.530 4.144 1.875 7123
-0.512 4.006 1.816 2245
-0.548 4.289 1.936 1730
-0.532 4.163 1.869 8049
-0.550 4.301 1.927 2053
-0.515 4.026 1.811 1676
-0.532 4.161 1.854 8729
-0.550 4.299 1.911 2394
-0.532 4.159 1.838 7547
-0.549 4.297 1.896 2408
-0.540 4.222 1.850 4624
-0.558 4.367 1.910 1866
-0.522 4.084 1.793 1254
-0.540 4.227 1.838 6712
-0.561 4.387 1.903 2572
-0.544 4.254 1.834 6831
-0.564 4.414 1.899 3978
-0.548 4.288 1.834 6076
-0.566 4.426 1.889 4410
-0.566 4.431 1.876 6555
-0.549 4.293 1.821 4319
-0.584 4.570 1.931 1821
-0.567 4.436 1.863 7838
-0.549 4.297 1.809 2777
-0.585 4.575 1.918 2148
-0.571 4.463 1.859 6548
-0.588 4.603 1.913 3089
-0.553 4.324 1.805 1568
-0.573 4.483 1.852 6223
-0.591 4.622 1.906 3158
-0.580 4.539 1.858 4480
-0.562 4.400 1.805 2064
-0.598 4.679 1.912 1540
-0.591 4.625 1.876 5581
-0.568 4.441 1.806 1999
-0.609 4.765 1.929 1450
-0.591 4.623 1.860 6009
-0.609 4.763 1.912 2503
-0.568 4.446 1.793 1232
-0.582 4.554 1.819 4120
-0.608 4.753 1.893 3394
-0.626 4.900 1.948 1112
-0.617 4.824 1.904 4113
-0.587 4.588 1.816 3651
-0.635 4.964 1.955 1016
-0.616 4.822 1.887 6135
-0.590 4.615 1.811 2357
-0.634 4.962 1.938 1668
-0.618 4.834 1.876 4955
-0.600 4.694 1.825 2248
-0.636 4.975 1.927 1916
-0.635 4.965 1.907 3281
-0.609 4.766 1.835 2889
-0.636 4.978 1.895 4887
-0.616 4.822 1.839 3325
-0.654 5.118 1.945 1163
-0.637 4.983 1.880 6287
-0.618 4.835 1.828 3124
-0.655 5.124 1.930 1667
-0.637 4.980 1.863 4702
-0.619 4.839 1.814 2911
-0.655 5.121 1.913 2336
-0.652 5.104 1.890 5025
-0.622 4.867 1.808 2880
-0.679 5.312 1.962 1172
-0.653 5.109 1.875 7717
-0.680 5.317 1.946 2384
-0.635 4.968 1.827 1161
-0.653 5.107 1.858 6977
-0.678 5.308 1.926 3158
-0.635 4.965 1.810 1773
-0.655 5.127 1.848 4564
-0.637 4.985 1.800 3070
-0.674 5.276 1.898 2489
-0.658 5.146 1.838 3301
-0.685 5.355 1.907 2820
-0.639 4.997 1.788 1715
-0.685 5.360 1.892 4648
-0.664 5.196 1.838 2550
-0.686 5.365 1.876 3875
-0.658 5.149 1.805 1821
-0.715 5.597 1.952 1202
-0.686 5.370 1.861 2915
-0.718 5.617 1.940 1975
-0.657 5.139 1.785 1339
-0.685 5.360 1.840 2714
-0.716 5.600 1.917 2124
-0.699 5.470 1.858 3646
-0.717 5.612 1.903 2403
-0.681 5.328 1.813 1126
-0.718 5.618 1.886 2754
-0.700 5.475 1.842 2492
-0.747 5.842 1.957 1227
-0.719 5.623 1.870 3397
-0.746 5.833 1.935 1369
-0.700 5.480 1.826 1164
-0.720 5.635 1.856 3988
-0.742 5.808 1.909 1593
-0.763 5.966 1.958 1059
-0.721 5.640 1.840 3164
-0.748 5.851 1.904 2042
-0.767 6.001 1.949 1222
-0.751 5.878 1.893 3840
-0.731 5.720 1.846 2281
-0.770 6.021 1.936 1537
-0.753 5.891 1.878 5694
-0.731 5.718 1.827 1797
-0.771 6.034 1.921 1637
-0.754 5.896 1.861 4287
-0.772 6.039 1.903 1484
-0.790 6.182 1.946 1229
-0.786 6.150 1.917 2012
-0.753 5.893 1.842 1967
-0.814 6.368 1.980 1071
-0.773 6.049 1.868 2119
-0.796 6.230 1.920 1638
-0.755 5.906 1.827 1240
-0.815 6.374 1.962 1101
-0.774 6.054 1.850 2330
-0.809 6.326 1.928 1690
-0.832 6.507 1.980 1272
-0.823 6.437 1.939 1995
-0.775 6.067 1.835 1590
-0.847 6.626 1.993 1245
-0.797 6.233 1.882 1149
-0.823 6.442 1.921 2134
-0.846 6.616 1.969 1963
-0.803 6.283 1.876 1511
-0.879 6.874 2.041 1239
-0.848 6.637 1.954 2658
-0.805 6.296 1.860 2033
-0.875 6.849 2.012 1781
-0.828 6.478 1.910 1469
-0.850 6.650 1.937 2964
-0.876 6.854 1.992 2926
-0.806 6.309 1.844 1370
-0.832 6.506 1.897 1226
-0.877 6.860 1.972 2977
-0.858 6.716 1.934 2550
-0.840 6.571 1.895 1573
-0.895 7.004 2.011 1013
-0.878 6.873 1.954 2475
-0.860 6.728 1.916 1833
-0.897 7.017 1.993 1361
-0.897 7.015 1.970 2160
-0.878 6.870 1.932 2078
-0.928 7.258 2.034 1447
-0.851 6.657 1.876 1407
-0.896 7.012 1.948 2550
-0.927 7.256 2.011 2256
-0.878 6.868 1.910 1169
-0.853 6.670 1.859 1081
-0.929 7.269 1.992 2455
-0.898 7.025 1.929 2105
-0.948 7.413 2.029 1490
-0.966 7.558 2.066 1437
-0.968 7.571 2.046 2539
-0.942 7.373 1.996 2221
-0.924 7.228 1.959 1429
-0.901 7.045 1.913 1268
-0.966 7.561 2.020 1783
-0.927 7.249 1.942 1710
-0.997 7.797 2.079 1422
-0.945 7.393 1.978 1321
-0.954 7.460 1.971 2021
-0.996 7.795 2.054 1988
-0.923 7.223 1.913 1226
-0.972 7.605 2.007 1066
-0.995 7.786 2.028 2081
-1.016 7.946 2.067 1611
-0.971 7.595 1.981 1386
-0.952 7.450 1.946 1183
-0.998 7.806 2.009 2237
-1.017 7.959 2.046 2219
-0.975 7.631 1.966 1326
-1.019 7.972 2.024 1848
-1.000 7.819 1.988 1384
-0.978 7.651 1.948 1148
-1.024 8.008 2.008 1811
-1.080 8.452 2.112 1064
-1.019 7.975 1.976 1319
-1.124 8.792 2.138 1086
-1.167 9.129 2.215 1056
-1.099 8.601 2.094 1043
-1.168 9.135 2.188 1353
-1.125 8.798 2.112 1226
-1.087 8.507 2.047 1223
-1.170 9.157 2.165 1579
-1.087 8.505 2.020 1209
-1.126 8.811 2.088 1090
-1.145 8.957 2.121 1057
-1.171 9.162 2.138 1999
-1.146 8.963 2.094 1190
-1.127 8.817 2.062 1057
-1.171 9.160 2.110 1953
-1.200 9.391 2.159 1224
-1.200 9.389 2.130 1567
-1.292 10.111 2.284 1445
-1.219 9.535 2.161 1195
-1.265 9.896 2.238 1086
-1.292 10.110 2.253 1846
-1.218 9.525 2.130 1491
-1.319 10.317 2.297 1266
-1.265 9.894 2.208 1062
-1.293 10.116 2.224 2540
-1.320 10.323 2.267 2150
-1.218 9.531 2.102 1386
-1.272 9.954 2.190 1214
-1.294 10.122 2.194 3330
-1.321 10.337 2.238 2842
-1.275 9.975 2.164 1422
-1.222 9.560 2.079 1175
-1.298 10.151 2.169 2955
-1.322 10.343 2.208 2927
-1.277 9.989 2.136 1557
-1.351 10.567 2.252 1050
-1.300 10.172 2.142 2806
-1.323 10.349 2.177 2221
-1.352 10.580 2.223 2148
-1.278 9.995 2.107 1166
-1.354 10.594 2.194 2399
-1.301 10.178 2.112 1874
-1.325 10.363 2.148 1326
-1.355 10.600 2.162 2681
-1.303 10.191 2.084 1706
-1.336 10.453 2.134 1262
-1.356 10.606 2.131 3829
-1.327 10.382 2.089 2082
-1.302 10.189 2.053 1685
-1.353 10.588 2.096 3389
-1.328 10.387 2.059 2887
-1.302 10.187 2.021 1083
-1.327 10.385 2.027 2503
-1.351 10.571 2.061 1993
-1.359 10.630 2.040 2831
-1.328 10.391 1.996 1394
-1.360 10.636 2.008 2802
-1.358 10.626 1.975 1460
-1.362 10.654 1.947 1113
-1.673 13.090 2.284 1136
-1.671 13.073 2.242 1199
-1.650 12.910 2.215 1027
-1.671 13.072 2.202 1284
-0.291 2.319 1.821 1870
-0.294 2.342 1.828 3982
-0.309 2.463 1.917 1249
-0.296 2.354 1.826 5100
-0.311 2.474 1.914 1975
-0.295 2.352 1.815 4486
-0.311 2.473 1.903 3276
-0.310 2.465 1.886 4396
-0.294 2.344 1.798 4217
-0.309 2.458 1.870 6224
-0.293 2.336 1.783 2530
-0.309 2.463 1.863 8220
-0.294 2.341 1.776 1670
-0.310 2.468 1.856 8220
-0.295 2.346 1.769 1670
-0.311 2.479 1.853 10369
-0.296 2.357 1.767 1301
-0.313 2.490 1.851 12860
-0.314 2.502 1.848 11986
-0.316 2.513 1.845 11599
-0.317 2.525 1.842 10334
-0.319 2.543 1.844 10215
-0.320 2.548 1.837 10215
-0.320 2.546 1.825 10156
-0.335 2.670 1.909 1209
-0.320 2.551 1.818 10199
-0.336 2.675 1.901 1728
-0.320 2.549 1.806 9737
-0.336 2.674 1.889 2468
-0.322 2.560 1.803 9424
-0.337 2.685 1.886 2886
-0.324 2.578 1.804 10004
-0.339 2.703 1.887 3258
-0.326 2.596 1.805 11921
-0.342 2.722 1.887 3036
-0.327 2.608 1.802 10077
-0.343 2.733 1.884 3894
-0.337 2.685 1.842 10873
-0.321 2.560 1.760 4253
-0.338 2.690 1.834 13103
-0.322 2.564 1.753 3067
-0.354 2.816 1.915 1298
-0.338 2.689 1.822 15374
-0.353 2.815 1.902 2260
-0.322 2.562 1.741 1536
-0.339 2.700 1.818 12543
-0.355 2.826 1.899 1564
-0.323 2.574 1.738 1191
-0.340 2.705 1.811 9753
-0.356 2.831 1.890 1317
-0.340 2.710 1.803 7578
-0.359 2.857 1.895 1815
-0.341 2.715 1.795 5403
-0.359 2.862 1.886 2340
-0.342 2.726 1.791 4942
-0.358 2.853 1.870 2860
-0.350 2.784 1.816 6567
-0.366 2.912 1.895 1223
-0.352 2.803 1.817 8191
-0.368 2.930 1.894 1729
-0.354 2.821 1.817 11335
-0.370 2.949 1.894 1744
-0.355 2.826 1.808 10316
-0.371 2.954 1.886 1959
-0.355 2.824 1.796 9461
-0.371 2.952 1.873 2504
-0.355 2.829 1.788 7107
-0.371 2.957 1.864 3220
-0.358 2.847 1.788 4856
-0.374 2.976 1.864 3403
-0.362 2.879 1.796 6040
-0.378 3.008 1.871 1991
-0.363 2.891 1.791 5439
-0.383 3.054 1.886 3762
-0.368 2.929 1.803 5442
-0.385 3.066 1.881 4978
-0.381 3.037 1.853 6782
-0.365 2.907 1.778 3385
-0.398 3.173 1.931 2784
-0.381 3.035 1.840 9054
-0.399 3.178 1.922 3862
-0.365 2.905 1.766 2131
-0.383 3.053 1.839 9049
-0.401 3.190 1.917 4289
-0.367 2.923 1.765 1881
-0.387 3.086 1.846 9977
-0.404 3.216 1.919 4134
-0.371 2.955 1.772 2280
-0.388 3.091 1.837 8464
-0.404 3.221 1.910 5489
-0.371 2.953 1.760 1951
-0.403 3.206 1.889 9419
-0.386 3.075 1.816 7478
-0.370 2.944 1.744 1423
-0.403 3.211 1.880 11064
-0.387 3.080 1.808 7698
-0.420 3.342 1.952 1204
-0.404 3.216 1.870 10300
-0.387 3.085 1.799 6254
-0.420 3.347 1.942 2002
-0.404 3.214 1.857 7964
-0.387 3.082 1.786 6351
-0.420 3.345 1.929 3082
-0.389 3.094 1.781 7881
-0.405 3.226 1.852 6307
-0.422 3.357 1.923 2307
-0.390 3.106 1.776 7107
-0.407 3.238 1.846 5486
-0.423 3.369 1.917 1593
-0.392 3.124 1.774 5101
-0.409 3.256 1.844 4797
-0.410 3.261 1.835 5176
-0.393 3.129 1.765 3307
-0.437 3.477 1.949 1442
-0.416 3.315 1.851 8074
-0.394 3.134 1.756 1897
-0.438 3.489 1.942 1776
-0.418 3.327 1.845 11348
-0.439 3.494 1.932 1626
-0.418 3.332 1.835 11775
-0.440 3.507 1.926 2190
-0.419 3.337 1.826 12419
-0.443 3.526 1.923 4844
-0.420 3.342 1.816 12637
-0.444 3.538 1.916 7179
-0.420 3.346 1.806 11592
-0.445 3.543 1.906 10794
-0.447 3.562 1.903 17533
-0.420 3.344 1.793 8238
-0.464 3.696 1.970 1731
-0.448 3.567 1.892 20653
-0.421 3.349 1.783 3898
-0.465 3.701 1.959 2342
-0.449 3.572 1.882 18412
-0.465 3.706 1.948 2572
-0.432 3.438 1.816 2210
-0.448 3.570 1.868 11899
-0.465 3.704 1.934 3810
-0.431 3.436 1.802 1684
-0.458 3.646 1.892 10964
-0.441 3.512 1.827 3110
-0.475 3.780 1.958 2716
-0.458 3.644 1.878 13109
-0.474 3.778 1.943 5067
-0.439 3.495 1.806 1902
-0.457 3.642 1.864 11315
-0.474 3.777 1.929 6337
-0.439 3.500 1.796 1472
-0.452 3.597 1.830 7297
-0.478 3.803 1.928 6101
-0.478 3.808 1.917 7807
-0.451 3.595 1.816 4031
-0.478 3.806 1.903 9902
-0.461 3.671 1.839 3838
-0.495 3.941 1.966 1562
-0.478 3.804 1.888 9828
-0.461 3.669 1.825 2889
-0.495 3.940 1.952 2523
-0.480 3.824 1.884 8703
-0.463 3.688 1.821 3258
-0.497 3.959 1.947 2948
-0.483 3.850 1.883 7693
-0.463 3.686 1.807 4015
-0.500 3.986 1.945 3668
-0.485 3.862 1.875 7026
-0.502 3.998 1.937 3380
-0.463 3.690 1.796 2806
-0.485 3.860 1.860 6496
-0.502 3.996 1.922 2862
-0.463 3.688 1.783 1731
-0.485 3.865 1.849 5215
-0.502 4.001 1.910 3196
-0.464 3.693 1.772 1250
-0.502 3.999 1.895 4776
-0.485 3.863 1.835 3408
-0.519 4.136 1.956 1524
-0.504 4.012 1.887 7025
-0.486 3.868 1.823 2816
-0.521 4.148 1.947 2335
-0.504 4.017 1.875 10891
-0.522 4.153 1.935 3164
-0.486 3.873 1.812 2393
-0.505 4.022 1.864 10562
-0.522 4.159 1.923 3364
-0.487 3.877 1.801 1377
-0.507 4.034 1.855 8863
-0.524 4.171 1.914 3971
-0.519 4.133 1.884 8222
-0.502 3.995 1.825 3105
-0.536 4.270 1.942 1269
-0.520 4.145 1.875 7470
-0.503 4.007 1.816 2391
-0.539 4.290 1.936 1613
-0.523 4.165 1.869 9361
-0.540 4.302 1.927 2193
-0.506 4.027 1.811 1485
-0.523 4.162 1.854 10793
-0.540 4.300 1.911 2309
-0.522 4.160 1.838 9837
-0.540 4.298 1.896 2104
-0.524 4.172 1.829 5968
-0.549 4.376 1.913 1838
-0.531 4.228 1.838 7352
-0.552 4.396 1.906 2448
-0.533 4.247 1.832 6300
-0.554 4.415 1.899 3214
-0.539 4.289 1.834 5779
-0.556 4.428 1.889 3695
-0.558 4.440 1.879 6244
-0.539 4.294 1.821 4347
-0.575 4.579 1.934 1334
-0.558 4.445 1.866 7859
-0.541 4.306 1.812 2851
-0.576 4.584 1.921 1908
-0.561 4.465 1.859 7393
-0.578 4.604 1.913 2743
-0.542 4.318 1.802 1526
-0.563 4.484 1.852 6915
-0.581 4.624 1.906 2735
-0.566 4.504 1.844 4587
-0.583 4.643 1.898 2330
-0.548 4.364 1.791 1094
-0.571 4.546 1.845 4595
-0.588 4.685 1.898 2558
-0.553 4.406 1.792 1722
-0.582 4.631 1.862 5135
-0.599 4.771 1.915 2281
-0.564 4.492 1.810 1685
-0.572 4.555 1.819 4365
-0.596 4.747 1.890 3638
-0.614 4.887 1.942 1102
-0.576 4.590 1.816 4013
-0.595 4.737 1.871 3812
-0.612 4.877 1.923 1926
-0.607 4.831 1.890 5027
-0.579 4.609 1.808 2407
-0.624 4.971 1.941 1659
-0.596 4.747 1.843 5107
-0.624 4.969 1.924 2181
-0.599 4.767 1.835 3438
-0.625 4.974 1.909 3281
-0.625 4.979 1.895 4806
-0.602 4.794 1.829 3569
-0.643 5.120 1.945 1120
-0.626 4.984 1.880 6068
-0.604 4.806 1.818 2394
-0.644 5.125 1.930 1537
-0.626 4.989 1.866 4513
-0.609 4.848 1.817 2717
-0.644 5.130 1.915 1751
-0.641 5.106 1.890 4735
-0.612 4.875 1.810 3111
-0.666 5.306 1.959 1258
-0.641 5.103 1.872 7769
-0.667 5.311 1.944 2424
-0.614 4.888 1.798 1334
-0.641 5.108 1.858 7031
-0.667 5.309 1.926 3357
-0.624 4.967 1.810 2103
-0.644 5.128 1.848 3882
-0.626 4.987 1.800 3339
-0.667 5.314 1.910 2666
-0.652 5.193 1.853 3047
-0.673 5.357 1.907 2941
-0.634 5.051 1.805 1955
-0.673 5.362 1.892 4932
-0.653 5.198 1.838 2024
-0.674 5.367 1.876 4555
-0.646 5.143 1.803 1540
-0.704 5.606 1.954 1049
-0.675 5.379 1.863 3719
-0.706 5.619 1.940 1994
-0.658 5.237 1.817 1173
-0.673 5.362 1.840 3313
-0.704 5.609 1.919 1891
-0.687 5.472 1.858 3432
-0.705 5.614 1.903 1684
-0.669 5.329 1.813 1420
-0.689 5.484 1.844 2333
-0.716 5.702 1.912 2317
-0.734 5.844 1.957 1319
-0.717 5.707 1.896 3303
-0.734 5.849 1.940 1571
-0.699 5.564 1.851 1469
-0.679 5.406 1.802 1096
-0.708 5.637 1.856 4072
-0.731 5.825 1.914 1666
-0.750 5.975 1.960 1079
-0.690 5.494 1.812 1027
-0.708 5.642 1.840 3328
-0.736 5.860 1.906 2348
-0.754 6.003 1.949 1273
-0.738 5.880 1.893 4031
-0.718 5.722 1.846 2728
-0.756 6.023 1.936 1462
-0.740 5.892 1.878 5396
-0.719 5.727 1.829 2090
-0.758 6.036 1.921 1528
-0.741 5.897 1.861 4093
-0.759 6.041 1.903 1424
-0.776 6.184 1.946 1150
-0.740 5.895 1.842 2222
-0.765 6.091 1.899 1832
-0.800 6.370 1.980 1237
-0.758 6.036 1.864 2352
-0.783 6.240 1.923 1575
-0.802 6.391 1.966 1280
-0.740 5.892 1.822 1275
-0.759 6.041 1.846 2779
-0.795 6.328 1.928 1609
-0.820 6.532 1.986 1321
-0.777 6.184 1.887 1057
-0.760 6.053 1.831 2092
-0.808 6.431 1.937 1555
-0.832 6.628 1.993 1208
-0.782 6.227 1.880 1065
-0.832 6.626 1.971 1976
-0.808 6.437 1.919 1720
-0.790 6.293 1.878 1551
-0.864 6.883 2.043 1244
-0.834 6.639 1.954 3305
-0.791 6.298 1.860 2136
-0.860 6.851 2.012 1758
-0.814 6.480 1.910 1459
-0.836 6.659 1.939 3906
-0.861 6.856 1.992 2786
-0.793 6.318 1.846 1530
-0.818 6.515 1.900 1219
-0.843 6.710 1.932 3463
-0.862 6.862 1.972 2904
-0.824 6.566 1.893 1562
-0.884 7.036 2.019 1070
-0.863 6.874 1.954 2580
-0.836 6.654 1.896 2299
-0.882 7.026 1.995 1480
-0.909 7.239 2.051 1004
-0.881 7.017 1.970 2123
-0.863 6.872 1.932 1888
-0.912 7.260 2.034 1590
-0.837 6.667 1.878 1488
-0.882 7.022 1.950 2645
-0.911 7.258 2.011 2631
-0.840 6.687 1.863 1205
-0.864 6.877 1.912 1185
-0.913 7.271 1.992 2912
-0.882 7.027 1.929 2169
-0.931 7.415 2.029 1692
-0.949 7.560 2.066 1575
-0.950 7.565 2.044 2539
-0.914 7.276 1.971 2327
-0.932 7.421 2.007 1435
-0.887 7.063 1.916 1139
-0.950 7.563 2.020 1907
-0.910 7.251 1.942 1717
-0.932 7.418 1.984 1267
-0.980 7.807 2.081 1234
-0.936 7.454 1.969 1842
-0.979 7.798 2.054 1782
-0.954 7.599 2.005 1259
-0.978 7.788 2.028 1937
-0.953 7.589 1.979 1453
-0.998 7.948 2.067 1400
-0.935 7.444 1.944 1117
-0.980 7.809 2.009 2149
-1.000 7.961 2.046 2075
-0.958 7.633 1.966 1113
-1.002 7.982 2.026 1656
-0.981 7.814 1.986 1271
-0.961 7.653 1.948 1088
-1.008 8.026 2.012 1727
-0.965 7.682 1.931 1025
-1.007 8.016 1.985 1112
-1.080 8.603 2.094 1162
-1.104 8.795 2.138 1157
-1.147 9.132 2.215 1033
-1.147 9.138 2.188 1277
-1.068 8.509 2.047 1227
-1.104 8.793 2.111 1191
-1.150 9.159 2.165 1413
-1.072 8.538 2.027 1180
-1.126 8.967 2.122 1157
-1.152 9.173 2.140 1795
-1.127 8.973 2.096 1255
-1.150 9.155 2.108 1872
-1.180 9.401 2.161 1312
-1.270 10.114 2.284 1568
-1.180 9.399 2.132 1564
-1.244 9.906 2.240 1182
-1.151 9.169 2.083 1064
-1.270 10.112 2.253 1968
-1.196 9.528 2.130 1415
-1.296 10.320 2.297 1177
-1.247 9.928 2.214 1176
-1.272 10.126 2.225 2606
-1.297 10.326 2.267 2135
-1.197 9.534 2.102 1407
-1.250 9.957 2.190 1226
-1.272 10.132 2.195 3460
-1.298 10.340 2.238 3025
-1.253 9.978 2.164 1325
-1.201 9.562 2.079 1150
-1.277 10.169 2.172 3258
-1.299 10.346 2.208 3028
-1.255 9.992 2.136 1570
-1.327 10.569 2.252 1025
-1.278 10.175 2.142 3007
-1.329 10.583 2.223 2053
-1.300 10.352 2.177 2020
-1.255 9.997 2.107 1201
-1.331 10.597 2.194 2343
-1.276 10.165 2.109 2093
-1.301 10.358 2.147 1187
-1.331 10.603 2.162 2778
-1.280 10.194 2.084 1848
-1.313 10.456 2.134 1304
-1.332 10.609 2.131 3993
-1.304 10.385 2.089 2116
-1.280 10.192 2.053 1822
-1.329 10.584 2.095 3796
-1.305 10.390 2.059 2857
-1.279 10.190 2.021 1210
-1.304 10.388 2.027 2482
-1.328 10.574 2.061 2180
-1.335 10.633 2.040 2912
-1.305 10.394 1.996 1400
-1.335 10.631 2.007 2805
-1.334 10.621 1.973 1548
-1.631 12.990 2.384 1030
-1.340 10.673 1.950 1238
-1.631 12.988 2.345 1033
-1.343 10.693 1.921 1095
-0.285 2.319 1.821 1688
-0.287 2.337 1.823 3470
-0.302 2.457 1.912 1512
-0.290 2.354 1.826 4324
-0.304 2.475 1.914 2020
-0.300 2.442 1.879 4345
-0.285 2.321 1.791 2653
-0.303 2.466 1.886 4715
-0.288 2.345 1.798 4407
-0.302 2.452 1.865 6353
-0.287 2.331 1.778 2242
-0.302 2.457 1.858 8078
-0.287 2.335 1.771 1632
-0.303 2.462 1.851 8078
-0.288 2.340 1.765 1632
-0.305 2.480 1.853 9682
-0.290 2.358 1.767 1368
-0.306 2.485 1.846 11675
-0.307 2.496 1.843 11404
-0.308 2.508 1.841 11428
-0.311 2.526 1.842 10254
-0.313 2.543 1.844 10147
-0.298 2.420 1.760 1041
-0.313 2.548 1.837 10147
-0.313 2.547 1.825 10622
-0.328 2.671 1.909 1205
-0.314 2.552 1.818 11140
-0.329 2.676 1.901 1647
-0.314 2.556 1.810 10752
-0.330 2.681 1.893 2134
-0.315 2.561 1.803 10519
-0.330 2.686 1.886 2784
-0.317 2.579 1.804 10746
-0.333 2.704 1.887 3145
-0.319 2.591 1.801 12104
-0.334 2.716 1.883 3394
-0.321 2.609 1.802 10216
-0.336 2.734 1.884 3607
-0.330 2.686 1.842 11197
-0.315 2.561 1.760 4480
-0.331 2.691 1.834 13480
-0.315 2.565 1.753 3115
-0.346 2.817 1.915 1166
-0.332 2.696 1.826 15763
-0.316 2.570 1.746 1751
-0.347 2.822 1.907 1624
-0.332 2.701 1.818 12774
-0.348 2.827 1.899 1515
-0.317 2.575 1.738 1068
-0.333 2.706 1.811 9785
-0.348 2.832 1.890 1406
-0.333 2.711 1.803 7648
-0.351 2.857 1.895 1830
-0.335 2.722 1.799 5597
-0.352 2.863 1.886 2295
-0.336 2.734 1.795 5223
-0.352 2.861 1.874 2674
-0.342 2.779 1.812 6823
-0.357 2.906 1.891 1506
-0.345 2.804 1.817 8611
-0.360 2.931 1.894 1604
-0.347 2.822 1.817 12031
-0.363 2.950 1.894 1663
-0.348 2.827 1.808 11020
-0.363 2.955 1.886 1858
-0.347 2.825 1.796 10157
-0.363 2.953 1.873 2331
-0.348 2.830 1.788 7543
-0.364 2.958 1.864 3343
-0.362 2.943 1.844 4919
-0.346 2.814 1.768 3692
-0.353 2.873 1.792 5609
-0.369 3.002 1.867 2034
-0.355 2.885 1.787 4685
-0.373 3.034 1.874 3140
-0.363 2.951 1.814 4880
-0.379 3.080 1.889 3854
-0.373 3.031 1.849 6345
-0.390 3.174 1.931 3301
-0.357 2.901 1.774 2814
-0.373 3.036 1.840 8606
-0.391 3.179 1.922 4513
-0.357 2.906 1.766 2034
-0.375 3.047 1.835 8486
-0.392 3.191 1.917 5030
-0.359 2.917 1.762 1693
-0.380 3.087 1.846 9062
-0.396 3.217 1.919 4737
-0.364 2.956 1.772 2178
-0.378 3.071 1.825 8070
-0.394 3.202 1.898 7117
-0.362 2.940 1.752 1626
-0.394 3.207 1.889 10300
-0.378 3.076 1.816 8089
-0.362 2.945 1.744 1257
-0.395 3.212 1.880 12107
-0.379 3.081 1.808 8663
-0.411 3.343 1.952 1290
-0.396 3.217 1.870 11566
-0.379 3.086 1.799 6744
-0.412 3.348 1.942 2117
-0.395 3.215 1.857 9766
-0.379 3.083 1.786 5562
-0.411 3.346 1.929 3232
-0.396 3.220 1.848 8745
-0.380 3.088 1.777 6242
-0.412 3.351 1.919 2537
-0.397 3.232 1.842 7268
-0.381 3.100 1.772 5728
-0.414 3.363 1.913 2182
-0.399 3.244 1.837 6417
-0.383 3.111 1.767 3909
-0.415 3.376 1.907 2126
-0.400 3.255 1.831 5704
-0.384 3.123 1.761 2708
-0.417 3.388 1.901 2208
-0.433 3.520 1.971 1131
-0.409 3.323 1.855 8054
-0.430 3.497 1.946 1744
-0.385 3.128 1.752 1653
-0.409 3.328 1.845 11665
-0.432 3.509 1.939 1538
-0.410 3.333 1.835 12175
-0.431 3.508 1.926 2326
-0.410 3.338 1.826 12959
-0.434 3.527 1.923 5406
-0.411 3.343 1.816 13233
-0.434 3.532 1.912 8026
-0.411 3.340 1.803 12124
-0.436 3.544 1.906 11501
-0.437 3.556 1.899 18014
-0.411 3.345 1.793 8691
-0.455 3.697 1.970 1825
-0.439 3.568 1.892 21062
-0.412 3.350 1.783 4331
-0.455 3.702 1.959 2446
-0.439 3.566 1.878 18465
-0.422 3.432 1.812 2952
-0.455 3.700 1.945 2715
-0.439 3.571 1.868 11209
-0.456 3.706 1.934 3593
-0.423 3.437 1.802 2155
-0.448 3.640 1.889 8732
-0.431 3.506 1.823 3452
-0.464 3.774 1.954 2938
-0.448 3.645 1.878 10266
-0.465 3.780 1.943 5102
-0.432 3.511 1.813 2435
-0.448 3.643 1.864 8733
-0.465 3.778 1.929 6644
-0.431 3.508 1.799 1872
-0.442 3.591 1.827 8143
-0.463 3.762 1.908 6829
-0.463 3.767 1.897 6687
-0.441 3.589 1.813 5055
-0.481 3.909 1.964 1115
-0.466 3.793 1.896 8744
-0.450 3.658 1.832 3810
-0.483 3.928 1.960 1663
-0.467 3.798 1.885 8879
-0.450 3.663 1.822 2905
-0.484 3.934 1.948 2478
-0.470 3.825 1.884 8038
-0.487 3.960 1.947 2916
-0.454 3.689 1.821 2916
-0.474 3.851 1.883 7306
-0.490 3.987 1.945 3891
-0.453 3.687 1.807 2830
-0.475 3.863 1.875 6302
-0.492 3.999 1.937 3726
-0.454 3.692 1.796 1760
-0.474 3.854 1.857 5540
-0.491 3.990 1.919 3269
-0.475 3.859 1.846 4512
-0.491 3.995 1.907 3182
-0.492 4.001 1.895 4701
-0.475 3.864 1.835 3203
-0.509 4.137 1.956 1554
-0.493 4.013 1.887 7001
-0.476 3.869 1.823 2959
-0.510 4.150 1.947 2431
-0.494 4.018 1.875 10530
-0.511 4.155 1.935 2952
-0.476 3.874 1.812 2596
-0.495 4.023 1.864 10501
-0.512 4.160 1.923 2823
-0.477 3.879 1.801 1528
-0.496 4.035 1.855 9065
-0.513 4.172 1.914 3071
-0.508 4.134 1.884 7306
-0.491 3.997 1.825 3128
-0.510 4.146 1.875 7346
-0.493 4.009 1.816 2366
-0.528 4.291 1.936 1530
-0.512 4.166 1.869 10353
-0.529 4.304 1.927 2401
-0.495 4.028 1.811 1402
-0.512 4.164 1.854 12735
-0.529 4.302 1.911 2330
-0.512 4.161 1.838 12126
-0.529 4.299 1.896 1963
-0.513 4.173 1.829 7356
-0.539 4.385 1.916 2224
-0.520 4.229 1.838 7644
-0.542 4.404 1.909 2360
-0.522 4.242 1.829 5959
-0.545 4.431 1.905 2410
-0.528 4.290 1.834 5118
-0.546 4.436 1.892 3038
-0.546 4.441 1.879 6025
-0.527 4.288 1.818 3954
-0.563 4.580 1.934 1290
-0.548 4.454 1.869 8054
-0.530 4.307 1.812 2558
-0.565 4.593 1.924 1685
-0.549 4.466 1.859 8476
-0.566 4.605 1.913 2538
-0.529 4.305 1.796 1477
-0.551 4.478 1.849 7836
-0.568 4.618 1.903 2744
-0.553 4.498 1.842 4600
-0.570 4.638 1.895 2011
-0.536 4.358 1.788 1014
-0.559 4.547 1.845 4322
-0.576 4.687 1.898 2318
-0.542 4.407 1.792 1950
-0.560 4.552 1.832 4498
-0.581 4.721 1.896 2807
-0.560 4.557 1.819 4644
-0.582 4.734 1.885 4268
-0.599 4.874 1.937 1226
-0.583 4.739 1.871 4423
-0.564 4.584 1.814 4227
-0.605 4.923 1.939 1847
-0.583 4.744 1.857 4808
-0.566 4.603 1.806 2417
-0.610 4.958 1.936 1919
-0.582 4.734 1.838 5465
-0.611 4.970 1.924 2304
-0.583 4.739 1.824 4078
-0.612 4.976 1.909 3036
-0.612 4.981 1.895 4536
-0.589 4.788 1.826 3527
-0.613 4.986 1.880 5827
-0.596 4.845 1.831 2492
-0.630 5.127 1.930 1284
-0.614 4.991 1.866 4528
-0.596 4.850 1.817 2782
-0.631 5.132 1.915 1543
-0.628 5.107 1.890 4605
-0.600 4.877 1.810 3364
-0.653 5.308 1.959 1270
-0.628 5.105 1.872 7680
-0.653 5.313 1.944 2310
-0.601 4.889 1.798 1693
-0.628 5.110 1.858 6914
-0.653 5.311 1.926 3339
-0.611 4.968 1.810 2259
-0.623 5.070 1.828 4084
-0.654 5.316 1.910 2791
-0.660 5.366 1.910 3006
-0.639 5.194 1.853 2815
-0.621 5.053 1.805 2189
-0.660 5.364 1.892 4634
-0.638 5.192 1.835 1452
-0.660 5.369 1.876 4703
-0.634 5.152 1.805 1126
-0.662 5.381 1.863 4195
-0.692 5.628 1.943 2056
-0.644 5.239 1.817 1266
-0.660 5.364 1.840 3752
-0.693 5.633 1.926 1852
-0.673 5.473 1.858 3306
-0.656 5.331 1.813 1811
-0.699 5.683 1.924 1408
-0.701 5.703 1.912 2481
-0.676 5.493 1.846 2275
-0.719 5.846 1.957 1357
-0.702 5.709 1.896 3249
-0.720 5.851 1.940 1855
-0.684 5.566 1.851 1553
-0.667 5.423 1.807 1033
-0.693 5.638 1.856 3991
-0.720 5.856 1.923 1922
-0.676 5.496 1.812 1223
-0.694 5.643 1.840 3180
-0.723 5.877 1.910 2832
-0.724 5.889 1.896 4165
-0.704 5.724 1.846 3074
-0.742 6.032 1.939 1386
-0.725 5.894 1.878 4925
-0.704 5.729 1.829 2711
-0.742 6.037 1.921 1870
-0.725 5.899 1.861 3779
-0.743 6.043 1.903 1569
-0.705 5.733 1.812 1221
-0.761 6.186 1.946 1031
-0.726 5.904 1.844 2234
-0.750 6.101 1.901 1462
-0.768 6.244 1.943 1173
-0.785 6.387 1.985 1109
-0.740 6.015 1.857 2299
-0.770 6.264 1.929 1417
-0.788 6.408 1.970 1206
-0.743 6.043 1.846 2371
-0.780 6.345 1.932 1530
-0.804 6.534 1.986 1403
-0.761 6.186 1.887 1076
-0.745 6.055 1.831 1967
-0.791 6.433 1.937 1380
-0.816 6.638 1.995 1045
-0.762 6.199 1.871 1025
-0.814 6.620 1.969 1945
-0.774 6.295 1.878 1767
-0.792 6.439 1.919 1576
-0.848 6.893 2.045 1038
-0.817 6.641 1.954 3375
-0.775 6.300 1.860 2553
-0.843 6.853 2.012 1646
-0.796 6.474 1.908 1233
-0.820 6.669 1.941 4368
-0.842 6.851 1.990 2487
-0.777 6.320 1.846 1836
-0.802 6.525 1.902 1143
-0.820 6.666 1.919 4040
-0.843 6.856 1.970 2536
-0.866 7.046 2.021 1292
-0.802 6.522 1.880 1054
-0.819 6.656 1.896 2658
-0.847 6.884 1.956 2428
-0.865 7.036 1.997 1361
-0.851 6.920 1.944 1986
-0.892 7.254 2.032 1625
-0.829 6.745 1.898 1581
-0.869 7.064 1.982 1577
-0.893 7.260 2.011 2832
-0.864 7.024 1.950 2613
-0.926 7.534 2.082 1496
-0.824 6.704 1.867 1148
-0.893 7.265 1.990 2983
-0.864 7.029 1.929 2284
-0.911 7.410 2.027 1749
-0.929 7.555 2.064 1569
-0.892 7.255 1.965 2412
-0.932 7.575 2.046 2255
-0.910 7.400 2.001 1689
-0.870 7.072 1.918 1688
-0.931 7.573 2.022 1964
-0.892 7.253 1.942 1782
-0.912 7.413 1.982 1408
-0.870 7.078 1.898 1125
-0.932 7.579 2.000 1787
-0.914 7.434 1.964 1608
-0.960 7.808 2.056 1539
-0.957 7.783 2.026 1747
-0.933 7.584 1.978 1486
-0.980 7.966 2.071 1177
-0.915 7.439 1.942 1072
-0.979 7.964 2.046 1879
-0.960 7.803 2.007 1797
-0.940 7.643 1.968 1046
-0.983 7.992 2.028 1532
-0.941 7.656 1.948 1096
-0.961 7.816 1.986 1038
-0.987 8.028 2.012 1597
-0.944 7.676 1.929 1084
-1.059 8.608 2.121 1009
-0.986 8.018 1.985 1004
-1.059 8.614 2.096 1284
-1.084 8.813 2.141 1093
-1.124 9.141 2.188 1111
-1.057 8.596 2.066 1109
-1.129 9.177 2.168 1120
-1.052 8.556 2.030 1116
-1.104 8.978 2.124 1114
-1.130 9.191 2.143 1451
-1.104 8.976 2.096 1228
-1.126 9.158 2.108 1686
-1.156 9.404 2.161 1509
-1.219 9.911 2.271 1016
-1.156 9.402 2.132 1593
-1.244 10.117 2.284 1554
-1.220 9.917 2.242 1444
-1.127 9.164 2.081 1017
-1.244 10.116 2.253 1945
-1.221 9.931 2.214 1581
-1.171 9.523 2.129 1276
-1.141 9.277 2.077 1101
-1.246 10.129 2.225 2568
-1.270 10.330 2.267 1980
-1.172 9.529 2.101 1387
-1.223 9.945 2.187 1318
-1.247 10.143 2.197 3414
-1.272 10.343 2.238 3040
-1.228 9.989 2.166 1231
-1.176 9.566 2.079 1095
-1.251 10.172 2.172 3446
-1.273 10.349 2.208 2939
-1.229 9.995 2.136 1543
-1.252 10.178 2.142 3067
-1.302 10.587 2.223 1874
-1.273 10.355 2.177 1633
-1.230 10.001 2.107 1186
-1.303 10.593 2.192 2258
-1.250 10.168 2.109 2242
-1.273 10.353 2.145 1058
-1.304 10.606 2.162 2812
-1.253 10.189 2.083 1903
-1.275 10.367 2.117 1363
-1.305 10.612 2.131 4093
-1.277 10.388 2.089 2046
-1.254 10.195 2.053 1857
-1.302 10.587 2.095 4261
-1.278 10.394 2.059 2663
-1.253 10.193 2.021 1285
-1.303 10.593 2.064 2459
-1.278 10.391 2.027 2311
-1.309 10.644 2.041 3098
-1.279 10.397 1.996 1297
-1.309 10.642 2.008 2770
-1.316 10.702 1.987 1785
-1.318 10.715 1.957 1452
-1.316 10.705 1.923 1276
-1.318 10.717 1.893 1130
-0.280 2.320 1.821 2001
-0.283 2.344 1.828 4497
-0.298 2.464 1.917 1236
-0.268 2.223 1.739 1049
-0.284 2.355 1.826 5686
-0.299 2.476 1.914 1957
-0.270 2.234 1.737 1228
-0.284 2.354 1.815 5302
-0.299 2.475 1.903 3518
-0.295 2.441 1.868 5140
-0.280 2.320 1.780 2030
-0.295 2.446 1.861 6511
-0.281 2.325 1.773 1775
-0.297 2.458 1.858 7904
-0.282 2.336 1.771 1775
-0.297 2.463 1.851 7904
-0.283 2.341 1.765 1775
-0.299 2.474 1.849 9009
-0.284 2.352 1.762 1333
-0.300 2.485 1.846 10660
-0.301 2.497 1.843 10872
-0.303 2.508 1.841 11356
-0.305 2.526 1.842 10446
-0.307 2.544 1.844 10357
-0.292 2.421 1.760 1152
-0.308 2.549 1.837 10357
-0.308 2.547 1.825 11144
-0.323 2.671 1.909 1239
-0.308 2.552 1.818 11868
-0.323 2.677 1.901 1685
-0.309 2.557 1.810 11461
-0.324 2.682 1.893 2253
-0.309 2.562 1.803 11217
-0.324 2.687 1.886 2984
-0.311 2.573 1.800 11273
-0.326 2.698 1.882 3838
-0.313 2.591 1.801 12322
-0.328 2.717 1.883 3275
