2.962 8.014 2.118 1355
2.832 7.665 2.006 2063
2.972 8.041 2.098 1856
2.984 8.075 2.080 2235
2.888 7.815 2.017 1022
3.000 8.117 2.064 2159
2.898 7.842 1.998 1196
3.004 8.129 2.040 1933
3.082 8.340 2.090 1766
3.081 8.338 2.062 2241
3.154 8.534 2.108 2166
3.156 8.539 2.081 2444
3.091 8.365 2.042 2074
3.160 8.552 2.057 3680
3.093 8.370 2.016 3012
3.165 8.564 2.032 4445
3.090 8.360 1.987 2586
3.167 8.569 2.005 4774
3.056 8.271 1.940 1352
3.169 8.574 1.979 4326
3.395 9.186 2.111 1669
3.168 8.572 1.951 2642
3.405 9.213 2.087 2322
3.401 9.204 2.055 2264
3.889 10.522 2.331 1530
3.888 10.521 2.297 2598
3.414 9.238 2.033 1591
3.890 10.527 2.265 2869
3.418 9.250 2.006 1737
3.892 10.533 2.232 3142
3.415 9.241 1.974 1543
3.894 10.538 2.199 3179
3.449 9.333 1.963 1803
3.899 10.551 2.168 3957
3.451 9.338 1.934 1335
3.907 10.571 2.138 5052
3.628 9.818 1.995 1018
3.914 10.592 2.108 4978
4.003 10.833 2.153 815
3.913 10.590 2.074 3816
4.195 11.351 2.214 1188
3.915 10.595 2.041 2568
4.197 11.356 2.178 1280
3.920 10.607 2.010 1335
4.201 11.369 2.145 993
4.206 11.382 2.111 1142
4.450 12.042 2.225 870
4.205 11.380 2.074 1022
4.298 11.629 2.117 908
4.440 12.016 2.144 796
4.294 11.620 2.078 790
4.863 13.159 2.294 803
4.920 13.313 2.319 802
4.922 13.319 2.278 1211
4.870 13.180 2.256 846
4.962 13.428 2.253 1062
4.962 13.426 2.210 1045
4.958 13.417 2.166 820
0.803 2.160 1.797 3776
0.805 2.165 1.791 7553
0.807 2.169 1.784 7553
0.849 2.283 1.872 1340
0.811 2.180 1.782 7856
0.853 2.294 1.870 1851
0.812 2.184 1.775 8345
0.855 2.299 1.863 2714
0.816 2.195 1.773 6122
0.859 2.310 1.861 2519
0.834 2.242 1.799 4628
0.876 2.357 1.886 1690
0.835 2.246 1.792 4628
0.878 2.361 1.879 1893
0.839 2.257 1.790 4969
0.882 2.372 1.876 1754
0.861 2.316 1.823 5607
0.818 2.200 1.737 1616
0.868 2.333 1.825 6570
0.824 2.217 1.740 2274
0.872 2.344 1.823 7821
0.828 2.227 1.738 2562
0.873 2.348 1.816 6852
0.830 2.232 1.731 1891
0.884 2.377 1.826 6163
0.841 2.261 1.742 2194
0.886 2.382 1.819 6163
0.842 2.265 1.735 1563
0.881 2.368 1.799 8022
0.924 2.485 1.882 970
0.882 2.373 1.791 10174
0.926 2.490 1.875 1342
0.891 2.396 1.797 12084
0.935 2.513 1.880 1868
0.895 2.406 1.794 15155
0.939 2.524 1.877 2463
0.899 2.417 1.791 13205
0.943 2.535 1.874 2999
0.903 2.428 1.788 11470
0.947 2.546 1.870 3290
0.902 2.426 1.776 11708
0.946 2.545 1.858 3780
0.904 2.431 1.769 12074
0.948 2.549 1.850 3519
0.910 2.448 1.770 9666
0.954 2.566 1.851 3487
0.916 2.465 1.771 8441
0.961 2.584 1.852 3839
0.918 2.469 1.764 5690
0.963 2.588 1.844 4396
0.967 2.599 1.840 5131
0.922 2.480 1.760 3121
0.971 2.610 1.836 5241
0.926 2.490 1.757 3001
0.975 2.621 1.832 5436
0.930 2.501 1.753 3055
0.948 2.550 1.775 4857
0.993 2.670 1.853 1960
0.950 2.554 1.767 5158
0.995 2.675 1.845 2173
0.982 2.641 1.812 4216
0.937 2.521 1.735 2270
0.986 2.652 1.808 4352
0.939 2.525 1.727 1710
0.971 2.612 1.772 3837
1.016 2.733 1.849 2841
1.016 2.731 1.837 4174
0.971 2.610 1.760 3958
1.015 2.730 1.824 5900
0.970 2.608 1.748 3619
1.014 2.728 1.812 7875
0.969 2.606 1.736 2676
0.985 2.649 1.752 7227
1.030 2.771 1.827 4124
1.018 2.737 1.795 5777
1.063 2.859 1.870 2346
1.020 2.742 1.787 5749
1.065 2.864 1.862 3593
1.057 2.843 1.837 4833
1.012 2.720 1.763 4185
1.059 2.847 1.829 5291
1.013 2.725 1.754 3872
1.061 2.852 1.820 4613
1.015 2.729 1.746 3232
1.065 2.863 1.815 3835
1.019 2.740 1.742 2867
1.033 2.777 1.752 4896
1.091 2.933 1.845 2524
1.061 2.853 1.786 5128
1.107 2.976 1.858 2751
1.063 2.857 1.777 6553
1.109 2.981 1.849 3283
1.064 2.862 1.768 6662
1.110 2.986 1.840 3845
1.066 2.866 1.760 4814
1.112 2.990 1.831 4082
1.111 2.988 1.818 3872
1.065 2.864 1.747 2914
1.111 2.986 1.805 4423
1.064 2.862 1.735 2083
1.110 2.984 1.792 5144
1.161 3.122 1.870 1245
1.111 2.989 1.783 4726
1.158 3.114 1.853 1734
1.142 3.072 1.818 6410
1.096 2.947 1.749 2625
1.144 3.077 1.809 7578
1.098 2.952 1.740 2248
1.146 3.081 1.799 6881
1.099 2.956 1.730 2149
1.145 3.079 1.786 8635
1.192 3.205 1.854 3371
1.149 3.090 1.780 10202
1.196 3.216 1.848 3764
1.153 3.102 1.774 8791
1.200 3.228 1.842 3545
1.170 3.146 1.786 6611
1.229 3.305 1.871 2600
1.194 3.210 1.808 6752
1.241 3.337 1.875 2561
1.193 3.208 1.795 8541
1.240 3.335 1.861 3257
1.192 3.206 1.781 9837
1.239 3.333 1.847 5367
1.189 3.197 1.765 9950
1.249 3.357 1.847 6985
1.253 3.369 1.840 7188
1.188 3.195 1.751 5802
1.254 3.373 1.830 8132
1.207 3.246 1.765 4104
1.234 3.318 1.789 13783
1.281 3.445 1.854 3730
1.235 3.322 1.779 13889
1.283 3.450 1.843 3912
1.252 3.367 1.789 9027
1.300 3.495 1.853 1988
1.261 3.392 1.789 7682
1.309 3.520 1.852 1361
1.268 3.410 1.785 8264
1.220 3.281 1.722 1427
1.270 3.414 1.774 7498
1.317 3.542 1.837 1417
1.271 3.419 1.764 4911
1.319 3.547 1.826 2722
1.303 3.504 1.792 5394
1.361 3.660 1.867 2243
1.305 3.509 1.781 4805
1.353 3.638 1.843 2601
1.342 3.608 1.815 6676
1.390 3.737 1.876 2274
1.344 3.613 1.804 6212
1.392 3.742 1.865 3918
1.373 3.692 1.828 6135
1.325 3.563 1.768 2873
1.375 3.697 1.817 7000
1.327 3.567 1.757 2167
1.376 3.701 1.805 6772
1.328 3.572 1.746 2020
1.378 3.706 1.794 5313
1.426 3.836 1.853 2258
1.410 3.792 1.819 5619
1.352 3.635 1.749 4445
1.422 3.824 1.820 5494
1.374 3.694 1.762 3234
1.432 3.850 1.817 7544
1.383 3.719 1.760 4173
1.441 3.875 1.814 6931
1.392 3.744 1.757 3348
1.461 3.927 1.823 7859
1.412 3.797 1.767 6158
1.462 3.932 1.811 9525
1.414 3.801 1.755 5014
1.464 3.937 1.799 6841
1.415 3.806 1.743 3479
1.460 3.927 1.781 5033
1.517 4.079 1.845 3711
1.521 4.091 1.836 5300
1.465 3.939 1.772 4757
1.543 4.151 1.846 5369
1.472 3.957 1.766 3423
1.543 4.148 1.831 5026
1.483 3.989 1.765 2836
1.521 4.091 1.792 4763
1.573 4.229 1.849 3956
1.554 4.178 1.813 4135
1.505 4.046 1.760 3000
1.556 4.183 1.801 4953
1.638 4.405 1.890 3984
1.555 4.180 1.785 5355
1.640 4.410 1.876 4311
1.559 4.192 1.775 3975
1.644 4.422 1.865 3869
1.654 4.447 1.860 4861
1.561 4.196 1.762 2928
1.656 4.452 1.846 8018
1.598 4.298 1.787 2425
1.652 4.442 1.827 8837
1.701 4.575 1.878 2778
1.654 4.447 1.814 6843
1.703 4.580 1.864 3317
1.684 4.529 1.829 6163
1.734 4.662 1.879 2710
1.681 4.519 1.810 6480
1.730 4.652 1.859 3198
1.682 4.524 1.796 3880
1.763 4.741 1.876 2749
1.765 4.746 1.862 2930
1.715 4.612 1.813 1624
1.733 4.659 1.814 4093
1.795 4.828 1.875 2795
1.797 4.832 1.860 4616
1.734 4.664 1.799 4010
1.791 4.816 1.838 5729
1.736 4.668 1.785 2776
1.790 4.814 1.820 3572
1.740 4.680 1.773 2009
1.828 4.917 1.840 2575
1.755 4.720 1.771 2452
1.828 4.915 1.822 2235
1.877 5.049 1.869 1979
1.874 5.039 1.848 3530
1.819 4.891 1.798 2572
1.878 5.051 1.835 4171
1.820 4.895 1.783 2318
1.888 5.077 1.827 2497
1.998 5.374 1.927 1629
1.908 5.131 1.828 2759
2.000 5.379 1.910 2082
1.965 5.285 1.861 2812
1.905 5.121 1.807 2081
1.964 5.282 1.842 4175
2.028 5.452 1.898 2235
1.963 5.280 1.824 3302
2.037 5.479 1.888 2447
2.034 5.469 1.866 2451
1.968 5.291 1.809 1916
2.067 5.559 1.876 2687
2.006 5.395 1.825 2141
2.117 5.692 1.899 2379
2.066 5.557 1.857 2342
2.119 5.697 1.881 3116
2.068 5.561 1.840 1918
2.120 5.702 1.864 2286
2.181 5.866 1.914 1666
2.127 5.721 1.850 2077
2.183 5.871 1.896 1780
2.209 5.940 1.897 2731
2.297 6.175 1.967 2728
2.298 6.180 1.948 3385
2.213 5.952 1.881 3256
2.308 6.207 1.935 4119
2.250 6.049 1.889 2903
2.337 6.283 1.937 5711
2.286 6.147 1.897 2091
2.341 6.295 1.919 5849
2.290 6.159 1.880 2767
2.343 6.300 1.900 3962
2.431 6.537 1.967 2610
2.433 6.542 1.946 2880
2.305 6.197 1.850 2878
2.515 6.762 1.985 2805
2.435 6.547 1.926 2498
2.570 6.911 2.003 2328
2.514 6.760 1.962 2051
2.580 6.938 1.988 3386
2.644 7.111 2.034 1372
2.585 6.950 1.968 2630
2.646 7.116 2.012 1675
2.552 6.861 1.922 1744
2.605 7.006 1.960 1703
2.548 6.852 1.897 1302
2.755 7.407 2.041 1273
2.850 7.665 2.082 1703
2.762 7.427 2.022 1299
2.850 7.663 2.057 2137
2.777 7.468 2.008 1334
2.846 7.654 2.030 2299
2.975 8.001 2.116 1416
2.983 8.021 2.095 1920
2.848 7.659 2.006 1819
3.006 8.084 2.084 2529
2.907 7.816 2.019 1000
3.016 8.111 2.064 2300
2.911 7.828 1.996 1256
3.021 8.123 2.040 2007
3.099 8.333 2.090 1663
3.171 8.527 2.108 2280
3.098 8.331 2.062 2099
3.173 8.532 2.081 2369
3.108 8.358 2.042 2312
3.110 8.364 2.016 3474
3.178 8.545 2.057 3449
3.182 8.558 2.032 4221
3.109 8.361 1.988 2620
3.184 8.563 2.005 4628
3.406 9.159 2.136 1229
3.186 8.568 1.979 4449
3.408 9.164 2.108 1503
3.185 8.565 1.951 2731
3.418 9.191 2.084 1658
3.420 9.197 2.055 2029
3.910 10.514 2.331 1581
3.910 10.513 2.297 2594
3.425 9.209 2.028 1804
3.912 10.519 2.265 2725
3.435 9.236 2.004 1733
3.914 10.525 2.232 3089
3.472 9.336 1.994 1696
3.916 10.530 2.199 3252
3.471 9.334 1.964 2218
3.921 10.543 2.168 3742
3.470 9.331 1.934 1714
3.928 10.563 2.138 4984
4.056 10.907 2.203 1107
3.936 10.583 2.108 5200
4.025 10.825 2.153 895
3.935 10.582 2.074 3955
4.221 11.349 2.215 984
3.937 10.587 2.041 2680
4.223 11.355 2.180 1103
3.942 10.599 2.010 1433
4.230 11.375 2.147 984
4.232 11.381 2.112 1146
4.475 12.032 2.225 840
4.231 11.379 2.075 1008
4.319 11.613 2.115 875
4.462 12.000 2.143 926
4.972 13.370 2.373 778
4.459 11.990 2.104 911
4.890 13.149 2.294 769
4.949 13.309 2.278 1104
4.987 13.410 2.252 1025
4.989 13.416 2.210 950
0.811 2.158 1.797 3443
0.812 2.162 1.791 6886
0.814 2.167 1.784 6886
0.857 2.281 1.872 1167
0.818 2.177 1.782 7040
0.861 2.291 1.870 1686
0.820 2.182 1.775 7288
0.862 2.296 1.863 2457
0.823 2.192 1.773 5329
0.867 2.307 1.861 2275
0.843 2.245 1.803 4834
0.886 2.360 1.890 1543
0.845 2.249 1.796 4834
0.888 2.365 1.883 1738
0.847 2.254 1.790 5286
0.890 2.369 1.876 1753
0.871 2.319 1.828 6035
0.828 2.204 1.742 1936
0.875 2.330 1.825 7080
0.832 2.214 1.740 2310
0.879 2.341 1.823 8441
0.836 2.225 1.738 2590
0.881 2.345 1.816 7225
0.837 2.229 1.731 1926
0.892 2.374 1.826 6137
0.848 2.258 1.742 2481
0.894 2.379 1.819 6137
0.850 2.262 1.735 1796
0.893 2.377 1.807 8213
0.849 2.261 1.724 895
0.892 2.376 1.796 10373
0.936 2.493 1.879 1179
0.899 2.393 1.797 12722
0.943 2.510 1.880 1754
0.903 2.403 1.794 15854
0.947 2.521 1.877 2337
0.907 2.414 1.791 13384
0.951 2.532 1.874 2813
0.911 2.425 1.788 11366
0.955 2.543 1.870 3091
0.913 2.429 1.781 11304
0.957 2.548 1.862 3116
0.912 2.428 1.769 11503
0.956 2.546 1.850 3337
0.918 2.445 1.770 9111
0.963 2.563 1.851 3762
0.925 2.461 1.771 7925
0.969 2.580 1.852 4346
0.926 2.466 1.764 5182
0.971 2.585 1.844 4775
0.975 2.596 1.840 5337
0.930 2.477 1.760 2575
0.979 2.607 1.836 5107
0.934 2.487 1.757 2550
0.953 2.536 1.778 5074
0.998 2.656 1.857 1995
0.957 2.547 1.775 5001
1.002 2.667 1.853 1778
0.958 2.551 1.767 4996
1.004 2.671 1.845 1982
0.962 2.562 1.763 4105
1.008 2.682 1.841 2143
0.971 2.585 1.768 3625
1.017 2.706 1.845 1851
0.973 2.590 1.760 3630
1.023 2.723 1.845 2961
1.027 2.734 1.841 4301
0.979 2.607 1.760 3647
1.027 2.733 1.828 6005
0.981 2.611 1.752 3949
1.026 2.731 1.816 8011
0.980 2.609 1.740 3458
0.994 2.646 1.752 7034
1.040 2.768 1.827 4568
1.027 2.734 1.795 6033
1.073 2.856 1.870 2110
1.029 2.738 1.787 6180
1.074 2.860 1.862 3166
1.028 2.736 1.774 4853
1.074 2.859 1.849 3664
1.068 2.844 1.829 4356
1.022 2.721 1.754 3977
1.072 2.855 1.824 4001
1.026 2.732 1.750 3382
1.038 2.762 1.757 3892
1.084 2.885 1.830 2488
1.042 2.773 1.752 5067
1.100 2.929 1.845 2106
1.073 2.856 1.790 5085
1.119 2.979 1.862 2063
1.072 2.854 1.777 6945
1.118 2.977 1.849 2879
1.074 2.858 1.768 7055
1.120 2.982 1.840 3617
1.075 2.863 1.760 5121
1.122 2.986 1.831 4119
1.121 2.985 1.818 3925
1.075 2.860 1.747 3136
1.123 2.989 1.809 4440
1.076 2.865 1.738 2168
1.120 2.981 1.792 5022
1.169 3.112 1.866 1450
1.126 2.998 1.791 4874
1.173 3.123 1.861 1778
1.153 3.068 1.818 5920
1.106 2.944 1.749 2209
1.149 3.060 1.801 7600
1.196 3.185 1.870 1951
1.151 3.064 1.792 7067
1.198 3.190 1.861 2400
1.155 3.075 1.786 8480
1.202 3.201 1.854 3138
1.159 3.087 1.780 9643
1.207 3.212 1.848 3368
1.164 3.098 1.774 8541
1.211 3.224 1.842 3584
1.183 3.149 1.790 7620
1.240 3.301 1.871 2920
1.202 3.200 1.804 7211
1.249 3.326 1.871 3280
1.204 3.204 1.795 8838
1.251 3.330 1.861 3619
1.203 3.202 1.781 10230
1.250 3.329 1.847 6014
1.199 3.193 1.765 10578
1.260 3.353 1.847 7755
1.261 3.358 1.837 7849
1.201 3.198 1.755 6434
1.266 3.369 1.830 8718
1.218 3.242 1.765 4243
1.247 3.320 1.793 14211
1.295 3.447 1.857 2870
1.249 3.325 1.782 14053
1.297 3.452 1.846 2353
1.263 3.363 1.789 9712
1.321 3.517 1.866 1633
1.267 3.374 1.782 7956
1.326 3.529 1.858 1384
1.279 3.405 1.785 8244
1.231 3.277 1.722 1613
1.281 3.410 1.774 7803
1.329 3.538 1.837 1439
1.283 3.414 1.764 5331
1.331 3.543 1.826 2823
1.317 3.507 1.795 5222
1.366 3.635 1.857 2130
1.322 3.518 1.788 4481
1.370 3.647 1.849 2326
1.354 3.604 1.815 7425
1.402 3.733 1.876 2245
1.363 3.629 1.814 7363
1.412 3.758 1.874 2193
1.385 3.688 1.828 5734
1.337 3.558 1.768 2680
1.387 3.692 1.817 6307
1.338 3.563 1.757 2372
1.391 3.704 1.808 6620
1.343 3.574 1.749 2405
1.393 3.708 1.797 5652
1.344 3.579 1.738 2638
1.423 3.788 1.819 5452
1.366 3.638 1.752 5037
1.437 3.827 1.823 5620
1.389 3.697 1.765 3403
1.444 3.845 1.817 7181
1.395 3.715 1.760 3887
1.477 3.932 1.841 6943
1.425 3.795 1.781 5561
1.476 3.929 1.826 8289
1.427 3.799 1.770 6421
1.478 3.934 1.814 9789
1.429 3.803 1.758 5293
1.480 3.939 1.802 6863
1.430 3.808 1.746 3998
1.479 3.936 1.787 4554
1.528 4.067 1.843 3831
1.532 4.079 1.833 5077
1.480 3.941 1.775 3832
1.560 4.152 1.849 5164
1.503 4.000 1.786 3407
1.564 4.164 1.839 4973
1.499 3.991 1.768 2862
1.569 4.175 1.829 4698
1.519 4.044 1.775 3133
1.568 4.173 1.813 4956
1.518 4.041 1.760 2641
1.569 4.178 1.801 5827
1.655 4.407 1.893 3610
1.568 4.175 1.785 5643
1.654 4.404 1.876 4038
1.659 4.416 1.865 4221
1.575 4.194 1.778 3923
1.666 4.435 1.857 5288
1.577 4.198 1.765 2897
1.670 4.446 1.846 8315
1.613 4.293 1.787 2608
1.672 4.451 1.833 8470
1.730 4.604 1.892 2459
1.697 4.518 1.843 6164
1.648 4.386 1.792 2196
1.699 4.523 1.829 6529
1.649 4.390 1.779 2550
1.698 4.521 1.812 6899
1.748 4.654 1.862 2964
1.697 4.518 1.796 3872
1.779 4.735 1.876 2580
1.746 4.649 1.828 3116
1.796 4.782 1.877 1832
1.745 4.646 1.811 4670
1.811 4.822 1.875 2473
1.747 4.651 1.797 4740
1.810 4.819 1.858 4466
1.807 4.810 1.838 6085
1.751 4.662 1.785 3041
1.806 4.808 1.820 3913
1.756 4.674 1.773 1927
1.845 4.911 1.840 2660
1.771 4.714 1.771 2268
1.847 4.916 1.825 2247
1.897 5.049 1.871 1678
1.888 5.026 1.846 3811
1.832 4.878 1.795 2525
1.895 5.045 1.835 4081
1.837 4.889 1.783 2294
1.905 5.071 1.827 2236
2.016 5.367 1.927 1638
1.925 5.125 1.828 2019
2.018 5.372 1.910 1871
1.983 5.278 1.861 2754
1.903 5.065 1.791 1847
1.982 5.276 1.842 4059
2.046 5.446 1.898 2437
1.981 5.273 1.824 3113
2.055 5.472 1.888 2315
2.057 5.477 1.871 2274
1.988 5.292 1.812 1805
2.086 5.552 1.876 2792
2.027 5.396 1.827 2061
2.085 5.550 1.857 2487
2.138 5.692 1.901 2226
2.137 5.690 1.881 3316
2.087 5.555 1.840 2073
2.142 5.702 1.866 2737
2.091 5.566 1.825 1713
2.146 5.714 1.850 2602
2.235 5.949 1.922 2191
2.231 5.939 1.899 2738
2.317 6.168 1.967 2526
2.319 6.173 1.948 3360
2.236 5.951 1.883 3128
2.329 6.199 1.935 4400
2.270 6.042 1.889 2442
2.357 6.276 1.937 6055
2.306 6.140 1.897 1974
2.359 6.280 1.917 6261
2.443 6.502 1.981 2354
2.329 6.199 1.874 4259
2.380 6.335 1.912 2545
2.457 6.541 1.948 3132
2.325 6.190 1.850 3094
2.540 6.761 1.987 2805
2.456 6.539 1.926 2522
2.593 6.903 2.003 2176
2.539 6.759 1.964 1955
2.606 6.937 1.990 3168
2.671 7.109 2.036 1189
2.610 6.949 1.970 2627
2.670 7.107 2.012 1650
2.574 6.853 1.922 1931
2.628 6.997 1.960 1569
2.571 6.843 1.897 1356
2.782 7.405 2.043 1317
2.784 7.410 2.020 1377
2.876 7.655 2.082 1377
2.875 7.654 2.057 1917
2.929 7.798 2.093 1523
2.872 7.644 2.030 2027
3.002 7.991 2.116 1469
3.006 8.003 2.093 2006
2.874 7.649 2.006 1481
3.036 8.081 2.085 2704
2.932 7.806 2.019 925
3.040 8.093 2.062 2273
2.937 7.819 1.996 1208
3.048 8.113 2.040 2048
3.127 8.323 2.090 1568
3.197 8.509 2.106 2171
3.129 8.328 2.064 1992
3.136 8.348 2.042 2393
3.201 8.522 2.081 2148
3.138 8.353 2.016 3517
3.206 8.534 2.057 3101
3.211 8.547 2.032 3754
3.137 8.351 1.988 2642
3.213 8.552 2.005 4150
3.133 8.342 1.959 1326
3.214 8.557 1.979 4294
3.422 9.109 2.098 1410
3.214 8.555 1.951 2779
3.492 9.296 2.109 1689
3.450 9.185 2.055 1827
3.945 10.501 2.331 1506
3.944 10.500 2.297 2400
3.455 9.198 2.028 1959
3.947 10.506 2.265 2430
3.462 9.217 2.003 1670
3.949 10.512 2.232 2797
3.503 9.324 1.994 2135
3.951 10.517 2.199 3089
3.502 9.322 1.964 2549
3.956 10.530 2.168 3413
3.501 9.320 1.934 1989
3.963 10.550 2.138 4654
4.087 10.879 2.201 1228
3.971 10.570 2.108 5058
4.116 10.957 2.180 1023
3.970 10.568 2.074 3852
4.115 10.956 2.145 1014
3.972 10.574 2.041 2635
4.397 11.706 2.246 919
3.977 10.586 2.010 1419
4.400 11.712 2.209 937
4.273 11.374 2.113 1050
4.432 11.798 2.187 831
4.505 11.994 2.183 940
4.272 11.372 2.077 905
4.502 11.985 2.143 1045
5.016 13.354 2.373 792
4.499 11.976 2.104 943
4.933 13.133 2.294 784
4.991 13.285 2.277 960
4.933 13.131 2.252 755
5.031 13.394 2.252 1002
5.031 13.392 2.209 880
0.822 2.174 1.811 2983
0.824 2.178 1.805 5967
0.781 2.065 1.716 771
0.826 2.183 1.798 5967
0.869 2.296 1.886 892
0.823 2.175 1.782 5950
0.866 2.289 1.870 1598
0.825 2.180 1.775 5938
0.868 2.294 1.863 2264
0.849 2.244 1.815 4963
0.806 2.130 1.727 904
0.851 2.249 1.808 5001
0.894 2.364 1.895 1322
0.853 2.254 1.801 5001
0.896 2.368 1.888 1535
0.854 2.258 1.794 5621
0.898 2.373 1.880 1524
0.877 2.317 1.828 6547
0.833 2.202 1.742 1997
0.881 2.328 1.825 7711
0.837 2.212 1.740 2385
0.885 2.339 1.823 9244
0.841 2.223 1.738 2639
0.887 2.343 1.816 7785
0.843 2.227 1.731 1963
0.872 2.305 1.777 6435
0.916 2.421 1.862 1847
0.888 2.346 1.797 6435
0.932 2.463 1.881 1021
0.899 2.375 1.807 8418
0.855 2.258 1.724 956
0.898 2.374 1.796 10738
0.942 2.491 1.879 1226
0.904 2.391 1.797 13163
0.949 2.508 1.880 1662
0.909 2.401 1.794 16224
0.953 2.519 1.877 2200
0.910 2.406 1.787 13227
0.955 2.523 1.869 3051
0.917 2.423 1.788 10929
0.961 2.541 1.870 2826
0.918 2.427 1.781 10958
0.963 2.545 1.862 2945
0.918 2.425 1.769 11139
0.962 2.544 1.850 3219
0.924 2.442 1.770 8880
0.969 2.561 1.851 4127
0.930 2.459 1.771 7656
0.975 2.578 1.852 4873
0.977 2.583 1.844 5007
0.932 2.464 1.764 4849
0.981 2.594 1.840 5276
0.936 2.474 1.760 2115
0.957 2.529 1.786 4843
1.002 2.649 1.865 1211
0.961 2.540 1.783 5523
1.006 2.660 1.862 1350
0.963 2.544 1.775 5002
1.008 2.664 1.853 1554
0.964 2.549 1.767 4482
1.010 2.669 1.845 1759
0.968 2.560 1.763 3810
1.014 2.680 1.841 1950
0.977 2.583 1.768 3683
1.023 2.704 1.845 1774
0.979 2.588 1.760 3612
1.030 2.721 1.845 3017
1.034 2.732 1.841 4465
0.978 2.586 1.748 3580
1.033 2.730 1.828 6192
0.987 2.609 1.752 3442
1.032 2.729 1.816 8190
0.986 2.607 1.740 3144
1.034 2.733 1.808 7085
0.988 2.611 1.732 3182
1.031 2.725 1.791 6192
1.077 2.847 1.866 2036
1.033 2.729 1.783 6568
1.079 2.851 1.858 3052
1.032 2.727 1.771 5318
1.078 2.850 1.845 3564
1.031 2.725 1.758 4315
1.077 2.848 1.832 3942
1.077 2.846 1.820 3961
1.030 2.723 1.746 3558
1.044 2.760 1.757 4104
1.091 2.883 1.830 2338
1.046 2.764 1.749 5206
1.105 2.920 1.841 1831
1.050 2.775 1.744 4999
1.097 2.898 1.816 2686
1.081 2.858 1.781 7034
1.128 2.981 1.853 2328
1.080 2.856 1.768 7037
1.127 2.979 1.840 3419
1.082 2.860 1.760 5013
1.129 2.984 1.831 4248
1.131 2.988 1.822 4108
1.081 2.858 1.747 3005
1.130 2.986 1.809 4428
1.083 2.862 1.738 2059
1.132 2.991 1.800 4770
1.179 3.115 1.870 1574
1.136 3.002 1.794 5157
1.183 3.127 1.864 1819
1.148 3.033 1.800 6002
1.195 3.158 1.869 2019
1.154 3.051 1.798 7730
1.201 3.176 1.867 2385
1.156 3.055 1.788 7195
1.203 3.180 1.857 2552
1.163 3.073 1.786 8003
1.210 3.198 1.854 2647
1.167 3.084 1.780 8731
1.214 3.209 1.848 2709
1.171 3.095 1.774 7881
1.219 3.221 1.842 3501
1.190 3.146 1.790 8495
1.248 3.298 1.871 3079
1.197 3.164 1.787 7838
1.250 3.303 1.861 4124
1.211 3.201 1.795 9053
1.259 3.327 1.861 3875
1.210 3.199 1.781 10400
1.258 3.326 1.847 6702
1.207 3.190 1.765 10699
1.268 3.350 1.847 8635
1.269 3.355 1.837 8683
1.211 3.201 1.758 6700
1.271 3.359 1.827 9386
1.223 3.232 1.762 3912
1.258 3.324 1.796 14343
1.306 3.451 1.860 2655
1.264 3.342 1.793 14119
1.323 3.496 1.870 1681
1.271 3.360 1.789 10083
1.332 3.521 1.869 1905
1.273 3.364 1.779 8098
1.339 3.539 1.865 1577
1.287 3.402 1.785 7826
1.239 3.274 1.722 1710
1.289 3.407 1.774 7342
1.337 3.535 1.837 1416
1.291 3.411 1.764 5294
1.339 3.539 1.826 2699
1.328 3.510 1.799 4787
1.280 3.382 1.737 1987
1.358 3.589 1.823 4439
1.299 3.434 1.749 2914
1.362 3.601 1.815 7488
1.411 3.729 1.876 2192
1.372 3.625 1.814 8009
1.420 3.754 1.874 2015
1.371 3.623 1.800 5862
1.420 3.752 1.860 2497
1.365 3.607 1.779 5367
1.424 3.764 1.851 3309
1.403 3.707 1.811 5923
1.354 3.578 1.752 2914
1.371 3.623 1.760 5963
1.430 3.780 1.831 4731
1.375 3.634 1.752 5592
1.432 3.784 1.819 5148
1.447 3.823 1.823 6187
1.397 3.693 1.765 3808
1.451 3.835 1.814 7545
1.402 3.705 1.757 3868
1.486 3.928 1.841 7380
1.434 3.791 1.781 5482
1.488 3.933 1.829 8501
1.439 3.803 1.773 5876
1.490 3.937 1.817 9640
1.440 3.807 1.761 4847
1.494 3.949 1.808 7226
1.445 3.818 1.752 4633
1.498 3.960 1.799 5020
1.449 3.830 1.743 3722
1.542 4.075 1.833 4879
1.492 3.944 1.778 3326
1.572 4.156 1.852 5334
1.512 3.997 1.786 3197
1.577 4.167 1.842 5094
1.527 4.036 1.788 2352
1.576 4.165 1.826 4846
1.526 4.033 1.772 2364
1.575 4.162 1.811 5419
1.525 4.031 1.757 2305
1.577 4.167 1.798 6395
1.666 4.403 1.893 2864
1.578 4.172 1.785 5780
1.660 4.387 1.871 3403
1.667 4.405 1.863 4185
1.585 4.190 1.778 3906
1.676 4.431 1.857 5466
1.590 4.201 1.767 3000
1.683 4.449 1.849 8350
1.623 4.289 1.787 2837
1.685 4.454 1.835 8375
1.741 4.600 1.892 2630
1.708 4.514 1.843 6010
1.658 4.382 1.792 2175
1.710 4.519 1.829 6128
1.760 4.652 1.879 2321
1.709 4.517 1.812 6428
1.759 4.649 1.862 3404
1.756 4.640 1.842 3535
1.705 4.507 1.793 3474
1.757 4.645 1.828 3795
1.808 4.778 1.877 1801
1.756 4.642 1.811 5268
1.828 4.832 1.880 2233
1.758 4.647 1.797 5269
1.822 4.815 1.858 4454
1.821 4.813 1.840 6664
1.760 4.651 1.783 3257
1.820 4.810 1.823 4686
1.887 4.986 1.885 2164
1.856 4.906 1.840 2763
1.782 4.709 1.771 1987
1.893 5.003 1.857 2501
1.834 4.848 1.803 2435
1.897 5.014 1.844 3936
1.841 4.866 1.793 2578
1.904 5.033 1.833 3943
1.846 4.878 1.780 2240
1.906 5.038 1.817 2109
1.957 5.172 1.862 1756
2.028 5.360 1.908 1582
1.905 5.035 1.799 1558
1.995 5.273 1.861 2727
2.051 5.422 1.910 1905
1.994 5.271 1.842 3887
2.056 5.434 1.895 2832
1.996 5.275 1.826 2646
2.066 5.460 1.885 2089
2.078 5.493 1.877 2087
2.027 5.358 1.834 1549
2.096 5.540 1.874 2718
2.045 5.405 1.831 1752
2.098 5.545 1.857 2402
2.152 5.687 1.901 2065
2.151 5.685 1.881 2967
2.100 5.550 1.840 2062
2.155 5.697 1.866 2834
2.247 5.939 1.940 2101
2.249 5.944 1.922 2795
2.160 5.708 1.850 2661
2.245 5.934 1.899 2764
2.162 5.713 1.833 2296
2.339 6.182 1.952 3235
2.250 5.946 1.883 2855
2.341 6.186 1.933 4518
2.284 6.036 1.889 2217
2.372 6.270 1.937 5938
2.321 6.134 1.897 2057
2.374 6.275 1.917 6422
2.453 6.482 1.977 2164
2.346 6.201 1.876 4443
2.398 6.337 1.914 2447
2.475 6.542 1.950 3257
2.343 6.191 1.852 2949
2.556 6.755 1.987 2968
2.475 6.540 1.928 2447
2.623 6.932 2.013 2227
2.558 6.760 1.966 1864
2.628 6.945 1.994 3221
2.576 6.808 1.957 1192
2.629 6.950 1.972 2517
2.681 7.086 2.008 1717
2.591 6.847 1.922 2047
2.678 7.077 1.983 1840
2.587 6.837 1.897 1411
2.799 7.399 2.043 1392
2.774 7.332 2.001 1438
2.946 7.785 2.117 1339
2.948 7.791 2.093 1900
2.890 7.640 2.055 1593
2.890 7.637 2.030 1755
3.018 7.976 2.114 1663
3.023 7.989 2.091 2210
2.892 7.643 2.006 1172
3.055 8.074 2.085 2685
3.003 7.937 2.052 1021
3.057 8.079 2.060 2038
3.005 7.942 2.028 1070
3.067 8.106 2.040 2047
3.146 8.316 2.090 1493
3.066 8.104 2.014 2133
3.217 8.502 2.106 2004
3.156 8.341 2.042 2386
3.219 8.507 2.080 1858
3.158 8.346 2.016 3400
3.226 8.527 2.057 2624
3.231 8.539 2.032 3115
3.160 8.351 1.990 2610
3.233 8.544 2.005 3434
3.151 8.327 1.957 1469
3.235 8.549 1.979 3872
3.518 9.297 2.140 1519
3.237 8.554 1.952 2753
3.514 9.288 2.109 1717
3.475 9.184 2.057 1529
3.239 8.559 1.926 1369
3.969 10.491 2.297 2032
3.477 9.189 2.028 1912
3.974 10.504 2.266 2051
3.517 9.296 2.020 1717
3.525 9.316 1.994 2458
3.976 10.510 2.233 2443
3.976 10.508 2.199 2801
3.524 9.314 1.964 2761
3.981 10.521 2.168 2975
3.526 9.319 1.935 2162
3.988 10.541 2.138 4107
4.110 10.862 2.199 1410
3.996 10.561 2.108 4637
4.139 10.940 2.179 1124
3.995 10.559 2.074 3509
4.141 10.946 2.145 1094
3.997 10.564 2.041 2395
4.425 11.696 2.246 996
4.002 10.577 2.010 1312
4.458 11.782 2.224 1107
4.457 11.780 2.186 1098
4.302 11.371 2.114 1023
4.531 11.976 2.182 1041
4.299 11.362 2.077 833
4.530 11.974 2.143 1144
5.048 13.342 2.373 780
4.527 11.965 2.104 947
5.022 13.273 2.277 802
5.063 13.382 2.252 872
5.062 13.380 2.209 751
0.829 2.178 1.816 2532
0.831 2.183 1.809 5065
0.787 2.069 1.720 968
0.832 2.187 1.803 5065
0.789 2.073 1.714 968
0.850 2.234 1.828 4751
0.807 2.120 1.740 2189
0.854 2.244 1.826 4808
0.811 2.130 1.738 1519
0.856 2.249 1.819 5016
0.812 2.134 1.732 978
0.855 2.247 1.808 5223
0.899 2.362 1.895 1250
0.857 2.252 1.801 5223
0.901 2.367 1.888 1429
0.861 2.262 1.799 5878
0.905 2.378 1.885 1135
0.881 2.316 1.828 6644
0.837 2.200 1.742 2099
0.885 2.326 1.825 7977
0.841 2.211 1.740 2485
0.889 2.337 1.823 9668
0.845 2.221 1.738 2699
0.889 2.335 1.811 8082
0.845 2.219 1.726 1730
0.877 2.303 1.777 7120
0.921 2.419 1.862 1965
0.890 2.338 1.792 6807
0.934 2.455 1.877 1436
0.903 2.374 1.807 8582
0.859 2.257 1.724 1008
0.905 2.378 1.800 11189
0.861 2.261 1.717 1163
0.909 2.389 1.797 13848
0.954 2.506 1.880 1498
0.911 2.393 1.790 16931
0.956 2.511 1.873 2300
0.915 2.404 1.787 13410
0.960 2.522 1.869 2700
0.924 2.427 1.792 10746
0.969 2.545 1.874 2128
0.923 2.425 1.781 10262
0.968 2.543 1.862 2862
0.922 2.424 1.769 10072
0.967 2.542 1.850 3290
0.931 2.447 1.774 7984
0.976 2.565 1.855 4275
0.935 2.457 1.771 6818
0.980 2.576 1.852 5254
0.970 2.550 1.823 5333
0.925 2.431 1.742 3222
0.986 2.592 1.840 5250
0.931 2.448 1.743 1743
0.964 2.534 1.790 5336
0.919 2.414 1.711 968
0.966 2.538 1.783 6040
1.011 2.658 1.862 1064
0.968 2.543 1.775 5109
1.013 2.662 1.853 1281
0.969 2.547 1.767 4178
1.015 2.667 1.845 1498
0.973 2.558 1.763 3719
1.019 2.678 1.841 1712
0.985 2.588 1.772 3954
1.031 2.708 1.849 1611
0.984 2.586 1.760 3822
1.035 2.719 1.845 3018
1.039 2.730 1.841 4533
0.986 2.590 1.752 3718
1.038 2.728 1.828 6221
0.992 2.607 1.752 3509
1.038 2.726 1.816 8102
0.991 2.605 1.740 3166
1.039 2.731 1.808 7020
0.993 2.610 1.732 3267
1.036 2.723 1.791 6215
1.083 2.845 1.866 1809
1.035 2.721 1.779 7004
1.082 2.843 1.854 3008
1.037 2.725 1.771 5875
1.084 2.847 1.845 3171
1.036 2.723 1.758 4914
1.083 2.846 1.832 3389
1.038 2.728 1.750 4072
1.085 2.850 1.824 3596
1.050 2.758 1.757 4398
1.096 2.881 1.830 2195
1.051 2.762 1.749 5465
1.098 2.885 1.822 1769
1.083 2.845 1.786 5139
1.036 2.721 1.713 1817
1.087 2.855 1.781 7472
1.040 2.732 1.709 1955
1.086 2.853 1.768 7424
1.133 2.977 1.840 2928
1.088 2.858 1.760 5281
1.135 2.982 1.831 3998
1.136 2.986 1.822 4064
1.087 2.856 1.747 3224
1.138 2.991 1.813 4465
1.091 2.867 1.742 2130
1.137 2.989 1.800 4950
1.185 3.113 1.870 1711
1.142 3.000 1.794 5653
1.189 3.124 1.864 1987
1.146 3.011 1.789 6462
1.193 3.136 1.858 2344
1.158 3.042 1.794 7622
1.205 3.167 1.863 2602
1.159 3.046 1.785 7100
1.207 3.171 1.853 2652
1.166 3.064 1.783 7631
1.214 3.189 1.851 2579
1.170 3.075 1.777 8087
1.218 3.200 1.845 2415
1.182 3.106 1.781 7494
1.230 3.231 1.849 2913
1.199 3.150 1.793 9023
1.254 3.296 1.871 3100
1.203 3.161 1.787 8078
1.256 3.300 1.861 4129
1.217 3.199 1.795 8979
1.265 3.325 1.861 3951
1.217 3.197 1.781 10328
1.265 3.323 1.847 6890
1.216 3.195 1.768 10485
1.274 3.348 1.847 8790
1.276 3.352 1.837 8816
1.228 3.226 1.772 7155
1.278 3.357 1.827 9680
1.229 3.230 1.762 3956
1.264 3.321 1.796 14565
1.312 3.448 1.860 3097
1.271 3.339 1.793 14635
1.319 3.467 1.857 2219
1.275 3.351 1.786 10555
1.336 3.511 1.866 2237
1.279 3.362 1.779 8247
1.343 3.530 1.862 1773
1.296 3.407 1.788 7279
1.248 3.279 1.725 2022
1.296 3.404 1.774 6697
1.344 3.532 1.837 1418
1.297 3.409 1.764 5257
1.346 3.537 1.826 2575
1.304 3.427 1.760 4517
1.363 3.582 1.834 3441
1.368 3.593 1.827 4742
1.306 3.431 1.749 3320
1.372 3.605 1.819 7767
1.310 3.442 1.742 1728
1.376 3.616 1.811 8414
1.425 3.745 1.871 2242
1.373 3.607 1.793 5984
1.422 3.736 1.853 3118
1.369 3.598 1.776 5267
1.418 3.727 1.835 4328
1.412 3.711 1.815 6159
1.363 3.582 1.755 3593
1.378 3.620 1.760 5683
1.435 3.770 1.828 4900
1.382 3.632 1.752 5459
1.437 3.775 1.816 4788
1.454 3.820 1.823 6690
1.405 3.691 1.765 3579
1.458 3.832 1.814 8116
1.409 3.702 1.757 3702
1.494 3.925 1.841 7102
1.442 3.788 1.781 6377
1.496 3.930 1.829 8125
1.443 3.793 1.770 5957
1.500 3.941 1.820 8974
1.450 3.811 1.764 4877
1.504 3.953 1.811 7532
1.455 3.822 1.755 4915
1.506 3.957 1.799 5833
1.456 3.827 1.743 3799
1.544 4.058 1.827 4523
1.495 3.927 1.772 2379
1.580 4.152 1.852 5132
1.520 3.994 1.786 3355
1.585 4.164 1.842 4826
1.535 4.033 1.788 2095
1.584 4.162 1.826 4734
1.534 4.030 1.772 2029
1.580 4.152 1.808 5589
1.530 4.021 1.754 1986
1.582 4.157 1.795 6381
1.632 4.289 1.848 2660
1.584 4.162 1.782 5362
1.668 4.383 1.871 3233
1.675 4.402 1.863 4279
1.593 4.187 1.778 3567
1.685 4.427 1.857 5959
1.600 4.205 1.770 2989
1.692 4.446 1.849 8921
1.629 4.279 1.784 2647
1.694 4.451 1.835 8970
1.749 4.597 1.892 2725
1.717 4.511 1.843 5847
1.666 4.379 1.792 2409
1.721 4.523 1.832 5555
1.671 4.390 1.781 2701
1.718 4.513 1.812 5799
1.768 4.646 1.862 3915
1.765 4.637 1.842 3902
1.714 4.504 1.793 3179
1.766 4.641 1.828 3754
1.817 4.774 1.877 2101
1.765 4.639 1.811 5152
1.816 4.772 1.860 2038
1.767 4.643 1.797 5281
1.831 4.812 1.858 4136
1.830 4.809 1.840 6657
1.769 4.648 1.783 3346
1.827 4.800 1.820 5008
1.894 4.975 1.883 2423
1.879 4.938 1.852 3009
1.828 4.804 1.806 2207
1.881 4.943 1.837 2753
1.830 4.809 1.791 2166
1.910 5.018 1.846 3732
1.845 4.849 1.788 2798
1.914 5.029 1.833 3714
1.855 4.874 1.780 2138
1.913 5.027 1.815 2152
1.964 5.161 1.860 1790
1.912 5.024 1.797 1465
1.966 5.166 1.844 1440
2.005 5.269 1.861 2991
2.065 5.425 1.912 1952
2.007 5.274 1.844 3963
2.066 5.430 1.895 2873
2.009 5.279 1.828 2331
2.071 5.442 1.881 2020
2.102 5.524 1.889 2044
2.051 5.390 1.846 1892
2.110 5.543 1.876 2488
2.058 5.408 1.834 1567
2.109 5.541 1.857 2157
2.160 5.676 1.899 1994
2.159 5.673 1.879 2905
2.108 5.538 1.837 1923
2.164 5.685 1.864 3078
2.256 5.927 1.938 2201
2.171 5.704 1.850 2816
2.260 5.939 1.922 2791
2.259 5.937 1.901 2680
2.170 5.702 1.831 2412
2.348 6.170 1.950 2968
2.261 5.942 1.883 2674
2.350 6.175 1.931 4219
2.298 6.039 1.891 2201
2.382 6.258 1.935 5325
2.330 6.123 1.895 2001
2.386 6.270 1.917 5997
2.462 6.470 1.974 2189
2.358 6.196 1.876 4335
2.410 6.332 1.914 2710
2.491 6.545 1.952 3303
2.401 6.308 1.886 2837
2.569 6.750 1.987 2882
2.487 6.535 1.928 2476
2.639 6.935 2.015 2542
2.571 6.755 1.966 1795
2.644 6.947 1.996 3475
2.592 6.810 1.959 1497
2.646 6.952 1.974 2420
2.698 7.088 2.010 1689
2.691 7.072 1.983 2067
2.601 6.835 1.920 2023
2.600 6.832 1.897 1407
2.805 7.372 2.037 1350
2.788 7.326 2.001 1580
2.958 7.773 2.116 1293
2.963 7.785 2.093 2118
2.796 7.346 1.982 1370
2.965 7.790 2.069 1912
3.031 7.963 2.112 1770
3.035 7.976 2.089 2412
3.088 8.113 2.123 1303
3.035 7.974 2.063 2476
3.087 8.111 2.096 1925
3.037 7.979 2.038 2254
3.089 8.116 2.071 1235
3.083 8.100 2.040 2123
3.030 7.963 2.008 1531
3.082 8.098 2.014 2717
3.164 8.315 2.064 1779
3.175 8.342 2.043 2236
3.084 8.103 1.988 1942
3.174 8.340 2.016 2987
3.243 8.521 2.057 2103
3.247 8.533 2.032 2458
3.176 8.345 1.990 2439
3.249 8.538 2.005 2714
3.368 8.850 2.074 1720
3.251 8.543 1.979 3303
3.536 9.290 2.140 1542
3.253 8.548 1.952 2584
3.535 9.288 2.110 1649
3.493 9.177 2.057 1301
3.255 8.553 1.926 1292
3.495 9.183 2.028 1735
3.990 10.483 2.297 1615
3.538 9.297 2.022 1815
3.995 10.496 2.266 1600
3.543 9.309 1.994 2549
3.997 10.502 2.233 1967
3.545 9.314 1.966 2788
3.996 10.500 2.199 2378
4.001 10.513 2.168 2480
3.544 9.312 1.935 2170
4.011 10.540 2.140 3468
4.128 10.846 2.198 1575
4.016 10.553 2.108 4029
4.161 10.932 2.179 1196
4.018 10.559 2.075 3034
4.163 10.938 2.145 1101
4.018 10.556 2.041 2050
4.448 11.687 2.246 983
4.481 11.773 2.224 1322
4.022 10.569 2.010 1112
4.480 11.772 2.186 1321
4.327 11.370 2.116 884
4.554 11.967 2.182 1022
4.485 11.784 2.150 819
4.554 11.965 2.143 1136
4.550 11.956 2.104 908
4.987 13.103 2.251 822
0.836 2.182 1.821 2241
0.838 2.187 1.814 4483
0.794 2.073 1.725 1187
0.849 2.215 1.826 4578
0.805 2.102 1.737 2457
0.855 2.232 1.828 4395
0.811 2.118 1.740 1800
0.859 2.242 1.826 4687
0.815 2.128 1.738 1238
0.861 2.247 1.819 5091
0.817 2.133 1.732 832
0.862 2.252 1.812 5495
0.906 2.366 1.900 881
0.864 2.256 1.806 5495
0.908 2.371 1.892 1051
0.868 2.267 1.803 6081
0.912 2.382 1.890 783
0.870 2.271 1.796 6726
0.914 2.386 1.882 805
0.890 2.324 1.825 8260
0.846 2.209 1.740 2411
0.894 2.335 1.823 10141
0.850 2.219 1.738 2618
0.894 2.333 1.811 8519
0.849 2.218 1.726 1715
0.882 2.301 1.777 7949
0.926 2.418 1.862 2065
0.883 2.306 1.770 7391
0.928 2.422 1.854 2065
0.908 2.372 1.807 8661
0.864 2.255 1.724 1124
0.910 2.376 1.800 11312
0.865 2.259 1.717 1312
0.914 2.387 1.797 14220
0.959 2.504 1.880 1334
0.916 2.391 1.790 17518
0.961 2.509 1.873 2037
0.920 2.402 1.787 13781
0.965 2.520 1.869 2343
0.929 2.425 1.792 10709
0.974 2.543 1.874 1933
0.928 2.423 1.781 10128
0.973 2.541 1.862 2726
0.928 2.422 1.769 9726
0.973 2.540 1.850 3353
0.936 2.445 1.774 7767
0.982 2.563 1.855 4331
0.972 2.537 1.826 6638
0.926 2.418 1.746 4232
0.973 2.541 1.818 5787
0.928 2.422 1.738 3132
0.966 2.521 1.794 5201
0.920 2.402 1.714 1219
0.967 2.525 1.786 5752
0.922 2.406 1.707 954
0.971 2.536 1.783 6434
0.926 2.416 1.703 821
0.973 2.540 1.775 5219
1.019 2.660 1.853 1050
0.975 2.545 1.767 4005
1.021 2.665 1.845 1305
0.981 2.562 1.767 3687
1.027 2.682 1.845 1458
0.990 2.585 1.772 4253
1.036 2.706 1.849 1502
0.994 2.596 1.768 4229
1.043 2.723 1.849 2977
1.045 2.728 1.841 4534
0.999 2.607 1.764 4267
1.044 2.726 1.828 6137
0.998 2.605 1.752 3802
1.046 2.731 1.820 7873
1.000 2.609 1.744 3625
1.048 2.735 1.812 6838
1.001 2.614 1.736 3863
1.035 2.701 1.779 6149
1.081 2.823 1.855 2262
1.041 2.719 1.779 7339
1.088 2.840 1.854 2607
1.041 2.717 1.767 6403
1.087 2.839 1.841 3100
1.042 2.721 1.758 5543
1.089 2.843 1.832 3245
1.044 2.725 1.750 4466
1.091 2.848 1.824 3673
1.056 2.756 1.757 4485
1.103 2.878 1.830 2207
1.057 2.760 1.749 5453
1.104 2.883 1.822 1873
1.089 2.842 1.786 5141
1.042 2.719 1.713 1921
1.093 2.853 1.781 7495
1.046 2.730 1.709 1939
1.095 2.858 1.772 7230
1.142 2.981 1.844 2413
1.094 2.856 1.760 4987
1.141 2.979 1.831 3870
1.145 2.990 1.826 4255
1.093 2.853 1.747 3000
1.145 2.988 1.813 4433
1.097 2.864 1.742 1990
1.144 2.986 1.800 4743
1.191 3.111 1.870 1789
1.148 2.997 1.794 5735
1.196 3.122 1.864 2063
1.152 3.008 1.789 6774
1.200 3.133 1.858 2593
1.162 3.033 1.790 7525
1.209 3.157 1.859 2825
1.166 3.044 1.785 6913
1.214 3.169 1.853 2766
1.173 3.061 1.783 7052
1.221 3.187 1.851 2342
1.177 3.072 1.777 7119
1.225 3.198 1.845 2037
1.191 3.110 1.785 7242
1.239 3.235 1.852 2607
1.206 3.147 1.793 9151
1.261 3.293 1.871 3061
1.220 3.185 1.801 7738
1.268 3.311 1.868 3636
1.224 3.196 1.795 8486
1.273 3.322 1.861 3831
1.223 3.194 1.781 9996
1.272 3.320 1.847 6928
1.223 3.192 1.768 10202
1.279 3.338 1.844 8873
1.240 3.236 1.779 8811
1.288 3.363 1.844 7436
1.285 3.354 1.827 9580
1.236 3.227 1.762 4423
1.274 3.325 1.799 14341
1.322 3.452 1.864 3008
1.278 3.337 1.793 14315
1.327 3.464 1.857 2995
1.282 3.348 1.786 10368
1.331 3.475 1.849 2872
1.287 3.359 1.779 8147
1.335 3.486 1.842 2075
1.306 3.410 1.791 6909
1.257 3.283 1.729 2391
1.308 3.415 1.781 6264
1.375 3.590 1.866 1532
1.310 3.419 1.770 5580
1.372 3.581 1.849 2615
1.311 3.424 1.760 5316
1.371 3.579 1.834 3761
1.375 3.590 1.827 4571
1.313 3.428 1.749 3880
1.380 3.602 1.819 7329
1.317 3.439 1.742 2021
1.387 3.620 1.814 8678
1.436 3.748 1.874 1590
1.386 3.618 1.800 6182
1.435 3.746 1.860 2756
1.377 3.595 1.776 5255
1.426 3.724 1.835 5047
1.431 3.735 1.827 6399
1.381 3.606 1.768 4783
1.438 3.754 1.822 5316
1.386 3.617 1.760 5187
1.390 3.629 1.752 5091
1.442 3.765 1.813 4543
1.460 3.810 1.820 6787
1.410 3.681 1.762 3347
1.464 3.822 1.811 8263
1.514 3.952 1.869 3346
1.447 3.778 1.778 7309
1.502 3.922 1.841 6733
1.507 3.934 1.832 7466
1.452 3.790 1.770 5971
1.508 3.938 1.820 8279
1.459 3.808 1.764 4509
1.513 3.950 1.811 7852
1.463 3.819 1.755 4725
1.515 3.954 1.799 6167
1.465 3.824 1.743 3859
1.587 4.144 1.865 4658
1.537 4.014 1.810 3619
1.592 4.156 1.855 4965
1.529 3.991 1.786 2654
1.594 4.161 1.842 4433
1.544 4.030 1.788 1801
1.614 4.214 1.849 4441
1.558 4.069 1.789 3355
1.587 4.142 1.805 5430
1.637 4.273 1.858 2360
1.591 4.154 1.795 6045
1.641 4.285 1.848 2766
1.593 4.158 1.782 4692
1.664 4.345 1.857 3355
1.658 4.329 1.835 4051
1.602 4.183 1.778 3254
1.697 4.431 1.860 5638
1.609 4.202 1.770 2960
1.702 4.442 1.849 8434
1.632 4.262 1.779 2672
1.706 4.454 1.838 8751
1.759 4.593 1.892 2572
1.724 4.500 1.840 5539
1.673 4.368 1.790 2158
1.728 4.512 1.829 5232
1.779 4.644 1.879 2734
1.773 4.628 1.857 5582
1.722 4.496 1.807 5369
1.775 4.633 1.842 4830
1.724 4.500 1.793 3033
1.776 4.637 1.828 3991
1.827 4.770 1.877 2524
1.773 4.628 1.809 5003
1.824 4.761 1.857 2727
1.774 4.633 1.794 5237
1.842 4.808 1.858 4128
1.841 4.805 1.840 6605
1.779 4.644 1.783 3392
1.840 4.803 1.823 5090
1.902 4.964 1.880 2712
1.893 4.941 1.855 3509
1.839 4.800 1.806 2455
1.894 4.946 1.840 3227
1.843 4.812 1.793 2524
1.920 5.014 1.846 3833
1.856 4.845 1.788 2843
1.925 5.025 1.833 3535
1.866 4.870 1.780 1991
1.924 5.023 1.815 2153
1.975 5.157 1.860 1817
1.980 5.169 1.846 1806
1.918 5.006 1.792 1550
2.017 5.265 1.861 2925
2.076 5.420 1.912 2034
2.019 5.270 1.844 3684
2.078 5.425 1.895 2763
2.042 5.331 1.846 2126
2.099 5.480 1.894 1815
2.114 5.520 1.889 2149
2.063 5.385 1.846 1624
2.138 5.581 1.890 2292
2.081 5.432 1.843 1538
2.153 5.621 1.883 2159
2.096 5.472 1.837 1469
2.163 5.647 1.873 3368
2.112 5.513 1.831 1486
2.170 5.666 1.859 3275
2.271 5.929 1.940 2225
2.276 5.941 1.924 2894
2.180 5.692 1.848 2776
2.272 5.932 1.901 2724
2.180 5.690 1.829 2593
2.356 6.151 1.946 2686
2.274 5.937 1.883 2419
2.361 6.163 1.929 3854
2.412 6.298 1.969 2271
2.395 6.253 1.935 4730
2.343 6.117 1.895 2315
2.400 6.265 1.917 5546
2.348 6.129 1.878 2353
2.372 6.191 1.876 4033
2.424 6.327 1.914 2923
2.505 6.539 1.952 3264
2.417 6.310 1.888 2998
2.584 6.745 1.987 2660
2.501 6.530 1.928 2340
2.657 6.936 2.017 2614
2.588 6.757 1.968 1750
2.659 6.941 1.996 3529
2.607 6.805 1.959 1681
2.661 6.946 1.974 2275
2.713 7.082 2.010 1700
2.707 7.066 1.983 2064
2.616 6.829 1.920 1905
2.821 7.366 2.037 1313
2.615 6.827 1.897 1297
2.804 7.320 2.001 1693
2.969 7.752 2.112 1198
2.977 7.772 2.091 2207
2.811 7.340 1.982 1683
2.979 7.777 2.067 2101
3.048 7.957 2.112 1810
3.053 7.969 2.089 2503
3.105 8.106 2.123 1375
3.052 7.967 2.063 2683
3.104 8.104 2.096 1811
3.051 7.965 2.036 2672
3.104 8.102 2.069 1278
3.097 8.086 2.039 2791
3.045 7.949 2.006 1626
3.099 8.091 2.014 3564
3.185 8.315 2.066 1634
3.098 8.089 1.987 2878
3.193 8.335 2.043 2032
3.106 8.109 1.965 2674
3.192 8.333 2.016 2572
3.385 8.837 2.101 2446
3.194 8.338 1.990 2242
3.387 8.842 2.074 1987
3.268 8.531 2.005 1879
3.270 8.536 1.979 2503
3.556 9.282 2.140 1533
3.272 8.541 1.952 2216
3.555 9.281 2.110 1574
3.551 9.271 2.078 1238
3.276 8.553 1.927 1178
3.512 9.168 2.027 1516
4.012 10.474 2.297 1133
3.558 9.289 2.022 1878
4.017 10.487 2.266 1145
3.563 9.302 1.994 2491
4.022 10.501 2.235 1475
3.565 9.307 1.966 2660
4.022 10.499 2.201 1853
3.564 9.304 1.935 2048
4.146 10.825 2.230 1969
4.034 10.532 2.140 2799
4.148 10.830 2.196 1723
4.039 10.544 2.108 3347
4.184 10.923 2.179 1189
4.041 10.550 2.075 2497
4.186 10.929 2.145 1020
4.040 10.548 2.041 1663
4.504 11.758 2.260 946
4.506 11.764 2.224 1424
4.358 11.377 2.155 1006
4.505 11.762 2.186 1427
4.357 11.375 2.118 796
4.580 11.957 2.182 983
4.507 11.767 2.149 836
4.582 11.963 2.144 1120
4.576 11.946 2.104 809
5.012 13.085 2.250 840
0.842 2.180 1.821 1988
0.844 2.184 1.814 3976
0.800 2.071 1.725 1009
0.850 2.201 1.817 4016
0.806 2.087 1.728 1509
0.861 2.229 1.828 3569
0.817 2.116 1.740 1369
0.868 2.246 1.831 4366
0.824 2.132 1.743 1281
0.869 2.251 1.824 4954
0.825 2.136 1.737 851
0.871 2.255 1.817 5541
0.873 2.260 1.810 5541
0.877 2.270 1.808 6238
0.879 2.275 1.801 6959
0.897 2.322 1.825 8420
0.852 2.206 1.740 2356
0.901 2.332 1.823 10406
0.856 2.217 1.738 2468
0.900 2.331 1.811 8791
0.856 2.215 1.726 1680
0.888 2.299 1.777 8405
0.933 2.415 1.862 2194
0.890 2.303 1.770 7794
0.935 2.420 1.854 2194
0.915 2.369 1.807 8837
0.870 2.253 1.724 1193
0.917 2.374 1.800 11621
0.872 2.257 1.717 1407
0.919 2.378 1.793 14763
0.964 2.495 1.876 1378
0.923 2.389 1.790 18181
0.968 2.506 1.873 1766
0.924 2.393 1.783 14283
0.970 2.511 1.865 2133
0.936 2.422 1.792 10674
0.981 2.540 1.874 1700
0.935 2.421 1.781 9772
0.981 2.539 1.862 2535
0.934 2.419 1.769 8956
0.980 2.537 1.850 3394
0.943 2.442 1.774 7218
0.989 2.560 1.855 4344
0.979 2.534 1.826 7336
0.933 2.415 1.746 4122
0.981 2.538 1.818 6222
0.935 2.420 1.738 3244
0.997 2.581 1.836 5307
0.941 2.437 1.739 2519
0.974 2.522 1.786 5926
0.928 2.403 1.707 1039
0.979 2.533 1.783 6686
0.932 2.414 1.703 896
0.980 2.538 1.775 5231
1.026 2.657 1.853 929
0.982 2.542 1.767 3775
1.028 2.662 1.845 1291
0.991 2.566 1.771 3604
1.037 2.686 1.849 1298
1.000 2.589 1.776 4641
1.054 2.728 1.866 1358
1.007 2.606 1.776 4944
1.053 2.727 1.853 2844
1.013 2.623 1.776 5567
1.060 2.744 1.853 3977
1.054 2.729 1.832 5925
1.008 2.609 1.756 4247
1.054 2.728 1.820 7530
1.007 2.607 1.744 3090
1.055 2.732 1.812 6563
1.009 2.611 1.736 3279
1.069 2.769 1.823 6068
1.023 2.647 1.748 4010
1.047 2.709 1.775 7123
1.094 2.831 1.850 2600
1.048 2.714 1.767 6591
1.095 2.836 1.841 2789
1.047 2.712 1.754 6111
1.095 2.834 1.829 3147
1.052 2.723 1.750 4768
1.099 2.845 1.824 3635
1.066 2.759 1.761 4472
1.113 2.882 1.834 1974
1.065 2.757 1.749 5380
1.112 2.880 1.822 2077
1.097 2.839 1.786 5389
1.049 2.716 1.713 2011
1.101 2.850 1.781 7720
1.053 2.727 1.709 1906
1.103 2.855 1.772 7226
1.150 2.978 1.844 2230
1.102 2.852 1.760 4707
1.152 2.982 1.835 3936
1.156 2.994 1.829 4616
1.103 2.857 1.751 2696
1.153 2.985 1.813 4772
1.105 2.861 1.742 1770
1.152 2.983 1.800 5202
1.200 3.107 1.870 1902
1.157 2.994 1.794 6215
1.205 3.118 1.864 2129
1.161 3.005 1.789 7291
1.209 3.130 1.858 2897
1.168 3.023 1.787 7681
1.216 3.147 1.856 3179
1.172 3.034 1.781 6803
1.220 3.159 1.850 3150
1.181 3.058 1.783 6580
1.230 3.183 1.851 2324
1.185 3.069 1.777 6241
1.234 3.194 1.845 2010
1.203 3.113 1.789 7248
1.251 3.239 1.856 2312
1.212 3.137 1.790 8768
1.260 3.263 1.857 2860
1.232 3.188 1.804 7446
1.280 3.314 1.871 3003
1.233 3.193 1.795 8796
1.282 3.319 1.861 3563
1.232 3.191 1.781 9963
1.281 3.317 1.847 6674
1.234 3.195 1.771 9916
1.288 3.335 1.844 8143
1.249 3.233 1.779 9373
1.298 3.359 1.844 6369
1.292 3.344 1.823 8854
1.243 3.217 1.759 4727
1.286 3.328 1.803 13453
1.335 3.455 1.867 2751
1.290 3.340 1.796 13661
1.339 3.467 1.860 3161
1.292 3.344 1.786 10006
1.341 3.471 1.849 3422
1.296 3.355 1.779 7641
1.345 3.483 1.842 2453
1.321 3.420 1.798 6830
1.272 3.293 1.735 3081
1.323 3.425 1.787 6485
1.385 3.586 1.866 1685
1.322 3.422 1.774 6251
1.379 3.570 1.845 2999
1.324 3.427 1.763 5992
1.381 3.575 1.834 4204
1.383 3.580 1.823 4553
1.325 3.431 1.753 4471
1.392 3.605 1.822 7183
1.327 3.436 1.742 2367
1.394 3.609 1.811 8763
1.444 3.738 1.871 1674
1.396 3.614 1.800 6197
1.446 3.742 1.860 2865
1.439 3.727 1.839 5533
1.387 3.591 1.776 5278
1.441 3.731 1.827 6764
1.391 3.602 1.768 4817
1.446 3.743 1.819 5341
1.396 3.613 1.760 4933
1.397 3.618 1.749 4840
1.453 3.761 1.813 4148
1.470 3.806 1.820 6916
1.402 3.629 1.741 3085
1.451 3.756 1.784 9054
1.509 3.906 1.850 5285
1.461 3.781 1.781 8194
1.513 3.918 1.841 6061
1.518 3.929 1.832 6620
1.465 3.793 1.773 6440
1.522 3.941 1.823 7331
1.472 3.811 1.767 5015
1.527 3.952 1.814 7552
1.476 3.822 1.758 5144
1.526 3.950 1.799 5947
1.475 3.819 1.743 3966
1.599 4.140 1.865 4358
1.527 3.954 1.787 3198
1.604 4.151 1.855 4402
1.553 4.021 1.800 2196
1.603 4.149 1.839 3944
1.552 4.018 1.785 1858
1.594 4.126 1.815 4494
1.666 4.312 1.891 1851
1.596 4.131 1.802 5393
1.646 4.262 1.856 2480
1.600 4.142 1.792 5601
1.651 4.274 1.845 2735
1.604 4.154 1.782 3745
1.677 4.340 1.857 3319
1.684 4.359 1.849 4066
1.614 4.179 1.778 2644
1.707 4.419 1.857 5514
1.624 4.204 1.773 2793
1.717 4.445 1.852 7806
1.636 4.236 1.771 2762
1.721 4.456 1.841 8742
1.772 4.588 1.892 2370
1.728 4.475 1.832 6344
1.779 4.607 1.883 3127
1.727 4.472 1.816 5893
1.779 4.605 1.866 4828
1.786 4.623 1.857 6151
1.735 4.491 1.807 5257
1.788 4.628 1.842 5241
1.736 4.495 1.793 2766
1.830 4.737 1.867 4189
1.779 4.605 1.818 3636
1.818 4.707 1.839 4417
1.767 4.574 1.791 2016
1.787 4.628 1.794 4519
1.855 4.803 1.858 4258
1.857 4.807 1.843 6789
1.792 4.639 1.783 3242
1.853 4.798 1.823 5412
1.913 4.952 1.878 2887
1.909 4.943 1.857 3892
1.852 4.795 1.806 2884
1.911 4.947 1.842 3589
1.859 4.814 1.796 3146
1.934 5.008 1.846 3898
1.872 4.846 1.790 3220
1.936 5.013 1.830 3343
1.876 4.858 1.778 1793
1.938 5.017 1.815 2160
1.990 5.151 1.860 1802
1.992 5.156 1.844 1975
1.929 4.994 1.790 1638
2.034 5.266 1.863 2997
2.089 5.408 1.910 1854
2.036 5.271 1.847 3699
2.091 5.412 1.893 2272
2.046 5.297 1.837 2125
2.098 5.431 1.881 1912
2.122 5.493 1.882 2207
2.174 5.627 1.925 1298
2.162 5.596 1.896 2518
2.110 5.462 1.854 1415
2.169 5.615 1.883 2490
2.112 5.467 1.837 1750
2.176 5.634 1.870 4038
2.102 5.443 1.811 1422
2.184 5.653 1.857 3523
2.291 5.930 1.942 1924
2.196 5.686 1.848 2710
2.295 5.942 1.926 2468
2.198 5.691 1.831 2976
2.289 5.926 1.901 2360
2.365 6.123 1.940 2918
2.200 5.695 1.813 2825
2.372 6.142 1.925 3493
2.425 6.277 1.964 2213
2.415 6.253 1.937 3706
2.363 6.118 1.897 2459
2.417 6.258 1.917 4427
2.365 6.123 1.878 2425
2.386 6.177 1.874 3749
2.439 6.313 1.912 3255
2.520 6.525 1.950 2791
2.435 6.304 1.888 2744
2.602 6.737 1.987 2212
2.544 6.587 1.946 2079
2.676 6.929 2.017 2471
2.557 6.621 1.933 1735
2.678 6.934 1.996 3229
2.626 6.798 1.959 1688
2.680 6.939 1.974 2032
2.733 7.075 2.010 1793
2.726 7.058 1.983 1961
2.635 6.822 1.920 1761
2.823 7.307 2.024 1256
2.634 6.819 1.897 1175
2.825 7.312 2.001 1751
2.985 7.729 2.108 1240
2.999 7.763 2.091 2341
2.832 7.332 1.982 1941
3.001 7.768 2.067 2373
3.070 7.948 2.112 1890
3.072 7.954 2.087 2522
3.125 8.090 2.121 1490
3.071 7.952 2.061 2714
3.127 8.096 2.096 1834
3.076 7.964 2.038 2908
3.129 8.101 2.071 1805
3.120 8.077 2.039 3845
3.067 7.940 2.006 1772
3.122 8.082 2.014 4466
3.208 8.306 2.066 1524
3.121 8.080 1.987 4038
3.213 8.319 2.042 1714
3.129 8.100 1.965 3960
3.215 8.324 2.016 1991
3.133 8.112 1.941 3009
3.410 8.828 2.101 2633
3.412 8.833 2.074 2153
3.211 8.312 1.959 1791
3.296 8.534 1.980 1735
3.408 8.824 2.043 1552
3.296 8.532 1.952 1714
3.581 9.271 2.110 1449
3.577 9.261 2.078 1205
3.300 8.544 1.927 1011
3.579 9.267 2.049 1152
3.526 9.129 2.021 982
3.584 9.279 2.022 1765
3.665 9.490 2.065 866
3.589 9.292 1.994 2222
4.052 10.489 2.235 953
3.591 9.297 1.966 2343
3.672 9.507 2.007 1448
4.179 10.820 2.232 1945
4.104 10.624 2.193 1810
4.069 10.535 2.142 2126
4.179 10.819 2.196 1784
4.071 10.540 2.109 2553
4.144 10.730 2.145 1342
4.071 10.538 2.075 1881
4.225 10.939 2.149 1129
4.070 10.536 2.041 1212
4.537 11.745 2.260 990
4.539 11.751 2.224 1506
4.393 11.372 2.156 922
4.538 11.749 2.186 1524
4.616 11.952 2.183 888
4.540 11.755 2.149 852
4.616 11.950 2.144 987
4.714 12.205 2.187 818
5.049 13.070 2.250 859
0.849 2.177 1.821 1557
0.851 2.182 1.814 3114
0.857 2.198 1.817 3239
0.813 2.085 1.728 982
0.873 2.238 1.838 3127
0.829 2.125 1.750 1391
0.877 2.249 1.835 4332
0.833 2.135 1.748 1455
0.879 2.254 1.829 4897
0.835 2.140 1.741 987
0.883 2.264 1.826 5527
0.885 2.269 1.819 5527
0.884 2.267 1.808 6062
0.886 2.272 1.801 6663
0.907 2.325 1.830 7932
0.862 2.210 1.744 2386
0.909 2.329 1.823 9920
0.864 2.214 1.738 2056
0.908 2.328 1.811 8523
0.863 2.212 1.726 1490
0.893 2.290 1.773 9023
0.938 2.406 1.857 2214
0.897 2.300 1.770 8193
0.943 2.416 1.854 2193
0.923 2.366 1.807 8588
0.878 2.250 1.724 1240
0.925 2.371 1.800 11376
0.879 2.254 1.717 1486
0.926 2.375 1.793 14650
0.972 2.492 1.876 1205
0.931 2.386 1.790 18212
0.976 2.503 1.873 1519
0.932 2.390 1.783 14518
0.978 2.507 1.865 1737
0.937 2.401 1.779 10866
0.982 2.518 1.861 1955
0.941 2.411 1.776 9712
