-1.341 7.855 2.106 2410
-1.285 7.529 2.024 1864
-1.342 7.860 2.083 3326
-1.286 7.534 2.002 1463
-1.342 7.858 2.058 2664
-1.383 8.101 2.117 1477
-1.350 7.909 2.046 2278
-1.387 8.122 2.097 1782
-1.351 7.915 2.022 1465
-1.391 8.150 2.079 1432
-1.390 8.141 2.051 1304
-1.423 8.338 2.098 1262
-1.478 8.656 2.146 1369
-1.424 8.344 2.073 1094
-1.471 8.616 2.110 1800
-1.501 8.791 2.150 1204
-1.472 8.621 2.085 1632
-1.502 8.797 2.124 1243
-1.478 8.657 2.066 1206
-1.602 9.381 2.228 1077
-1.610 9.433 2.211 1265
-1.647 9.647 2.258 1061
-1.650 9.668 2.233 1619
-1.594 9.340 2.161 1299
-1.714 10.040 2.283 1949
-1.650 9.666 2.202 1572
-1.714 10.039 2.252 2303
-1.651 9.672 2.174 1621
-1.652 9.678 2.145 1584
-1.724 10.098 2.233 1442
-1.746 10.227 2.228 1894
-1.795 10.517 2.288 1485
-1.748 10.240 2.200 1784
-1.723 10.095 2.170 1516
-1.724 10.101 2.141 1400
-1.795 10.514 2.223 1268
-1.808 10.589 2.206 1387
-1.969 11.532 2.390 1333
-1.807 10.587 2.173 1868
-1.968 11.530 2.355 1663
-1.969 11.537 2.321 1549
-1.806 10.578 2.139 1511
-2.011 11.781 2.331 1389
-1.892 11.082 2.201 1368
-2.011 11.779 2.295 1265
-1.986 11.634 2.268 1109
-2.015 11.801 2.263 918
-1.990 11.655 2.237 795
-2.142 12.545 2.359 838
-2.128 12.467 2.308 1236
-2.103 12.321 2.282 774
-2.128 12.465 2.270 1213
-2.286 13.389 2.428 931
-2.289 13.410 2.391 1074
-2.122 12.433 2.226 1071
-0.384 2.279 1.802 1496
-0.398 2.359 1.851 3997
-0.377 2.240 1.763 1299
-0.401 2.377 1.854 7864
-0.380 2.257 1.765 1722
-0.402 2.388 1.852 7661
-0.382 2.268 1.763 1349
-0.405 2.406 1.854 7946
-0.426 2.526 1.942 1087
-0.406 2.411 1.847 6425
-0.427 2.532 1.934 1087
-0.403 2.390 1.822 5360
-0.423 2.511 1.909 3875
-0.421 2.497 1.888 6364
-0.400 2.376 1.801 4242
-0.421 2.496 1.876 7425
-0.400 2.374 1.790 3184
-0.421 2.501 1.869 8602
-0.401 2.379 1.783 2535
-0.427 2.531 1.879 8505
-0.406 2.409 1.794 4514
-0.429 2.543 1.877 10466
-0.408 2.421 1.791 3914
-0.430 2.554 1.874 12984
-0.410 2.432 1.789 3175
-0.432 2.566 1.871 15880
-0.412 2.443 1.786 1993
-0.433 2.571 1.863 15880
-0.412 2.448 1.779 1972
-0.434 2.576 1.856 16495
-0.413 2.452 1.772 1791
-0.434 2.574 1.844 17197
-0.413 2.451 1.761 1539
-0.434 2.572 1.832 13885
-0.454 2.696 1.915 1651
-0.432 2.564 1.816 11140
-0.453 2.688 1.899 3181
-0.437 2.595 1.826 11118
-0.458 2.719 1.908 3935
-0.438 2.600 1.818 12207
-0.459 2.724 1.900 6315
-0.440 2.611 1.815 11587
-0.461 2.736 1.897 5976
-0.444 2.636 1.820 11976
-0.465 2.761 1.902 5081
-0.446 2.647 1.817 11655
-0.467 2.772 1.898 4091
-0.449 2.665 1.818 12137
-0.470 2.791 1.898 2558
-0.449 2.664 1.806 9086
-0.470 2.789 1.886 3848
-0.449 2.662 1.794 6051
-0.470 2.788 1.874 4647
-0.452 2.680 1.794 5886
-0.473 2.806 1.874 4804
-0.456 2.704 1.799 6945
-0.477 2.831 1.878 4041
-0.459 2.723 1.800 8377
-0.480 2.849 1.878 3257
-0.461 2.734 1.796 10099
-0.482 2.861 1.874 3225
-0.467 2.772 1.808 7555
-0.489 2.899 1.886 3279
-0.472 2.804 1.817 5983
-0.494 2.931 1.894 2987
-0.485 2.876 1.849 7051
-0.463 2.748 1.772 2987
-0.485 2.880 1.841 9705
-0.464 2.753 1.764 1598
-0.484 2.872 1.824 10682
-0.462 2.744 1.748 1124
-0.485 2.877 1.816 11687
-0.463 2.749 1.740 993
-0.487 2.888 1.812 10953
-0.465 2.760 1.736 1358
-0.489 2.900 1.807 10939
-0.513 3.042 1.890 2276
-0.488 2.898 1.795 11226
-0.512 3.040 1.877 2968
-0.496 2.943 1.810 10723
-0.518 3.072 1.884 3130
-0.499 2.962 1.809 12067
-0.521 3.091 1.883 3092
-0.503 2.987 1.812 11078
-0.525 3.116 1.886 2059
-0.505 2.999 1.807 10278
-0.527 3.128 1.881 1847
-0.506 3.003 1.798 8455
-0.528 3.133 1.871 2105
-0.505 2.994 1.782 7474
-0.527 3.124 1.855 3973
-0.505 2.999 1.773 6871
-0.527 3.129 1.846 5112
-0.506 3.004 1.765 5500
-0.528 3.134 1.836 5232
-0.528 3.132 1.824 3945
-0.557 3.304 1.918 2969
-0.522 3.096 1.792 4082
-0.556 3.302 1.904 3319
-0.524 3.107 1.787 3705
-0.558 3.314 1.898 2978
-0.531 3.153 1.800 4104
-0.579 3.436 1.951 3608
-0.532 3.158 1.791 3342
-0.581 3.449 1.945 3024
-0.582 3.454 1.935 3698
-0.551 3.267 1.836 3338
-0.583 3.459 1.925 4861
-0.554 3.286 1.834 3218
-0.585 3.471 1.918 6743
-0.559 3.318 1.839 2979
-0.587 3.483 1.912 9666
-0.565 3.351 1.844 4726
-0.589 3.495 1.905 11063
-0.566 3.356 1.834 5528
-0.590 3.500 1.895 9094
-0.565 3.354 1.821 4488
-0.592 3.512 1.888 7274
-0.553 3.282 1.772 3511
-0.593 3.517 1.878 7517
-0.524 3.111 1.675 3425
-0.595 3.529 1.871 6900
-0.525 3.116 1.665 4657
-0.610 3.618 1.903 7010
-0.527 3.127 1.660 4583
-0.609 3.616 1.889 7263
-0.527 3.125 1.647 3845
-0.623 3.699 1.916 6045
-0.594 3.523 1.830 4239
-0.625 3.711 1.909 7587
-0.526 3.119 1.622 3296
-0.627 3.723 1.901 7791
-0.525 3.116 1.610 2661
-0.624 3.700 1.877 5746
-0.651 3.862 1.954 2488
-0.623 3.698 1.863 6131
-0.651 3.861 1.940 2949
-0.623 3.696 1.848 5288
-0.648 3.845 1.918 3285
-0.650 3.857 1.910 4491
-0.627 3.722 1.848 3846
-0.654 3.883 1.909 5566
-0.632 3.748 1.847 4858
-0.656 3.895 1.901 4915
-0.634 3.760 1.839 4025
-0.646 3.836 1.860 4566
-0.682 4.050 1.957 3417
-0.647 3.841 1.849 4495
-0.683 4.055 1.946 3419
-0.672 3.989 1.902 5131
-0.648 3.846 1.838 3267
-0.675 4.008 1.896 4529
-0.698 4.144 1.957 2813
-0.700 4.157 1.948 3305
-0.678 4.020 1.888 2739
-0.705 4.183 1.945 3755
-0.682 4.047 1.886 3564
-0.706 4.188 1.933 5588
-0.683 4.052 1.874 4788
-0.705 4.186 1.918 7450
-0.682 4.050 1.859 4435
-0.697 4.134 1.881 5506
-0.738 4.379 1.985 2627
-0.700 4.153 1.875 5760
-0.724 4.297 1.936 3912
-0.702 4.165 1.866 6015
-0.725 4.303 1.923 5472
-0.722 4.286 1.902 4915
-0.699 4.149 1.844 3328
-0.721 4.277 1.883 4391
-0.751 4.457 1.958 2054
-0.722 4.282 1.871 4368
-0.753 4.470 1.948 3397
-0.741 4.395 1.902 6456
-0.717 4.258 1.846 2193
-0.743 4.408 1.892 7910
-0.766 4.545 1.948 1644
-0.747 4.434 1.888 6938
-0.771 4.572 1.943 1687
-0.754 4.476 1.889 7002
-0.778 4.614 1.944 874
-0.753 4.466 1.871 5800
-0.778 4.619 1.931 2123
-0.752 4.464 1.855 3669
-0.779 4.624 1.917 2713
-0.770 4.571 1.881 4040
-0.747 4.432 1.828 2118
-0.779 4.620 1.884 4456
-0.751 4.459 1.823 2142
-0.794 4.713 1.904 4202
-0.771 4.574 1.851 2958
-0.801 4.754 1.904 4975
-0.774 4.593 1.844 3811
-0.788 4.679 1.860 5486
-0.822 4.877 1.934 1789
-0.781 4.632 1.827 4659
-0.804 4.772 1.879 3016
-0.799 4.740 1.851 3767
-0.826 4.902 1.910 2254
-0.803 4.767 1.845 6101
-0.827 4.907 1.896 2938
-0.805 4.779 1.834 6461
-0.829 4.919 1.884 3590
-0.830 4.924 1.870 4999
-0.806 4.784 1.820 4585
-0.834 4.951 1.863 5235
-0.858 5.091 1.913 3493
-0.856 5.082 1.892 5318
-0.833 4.941 1.844 3116
-0.858 5.094 1.880 3737
-0.882 5.234 1.929 1932
-0.884 5.247 1.916 2837
-0.847 5.025 1.840 2571
-0.899 5.333 1.928 3163
-0.849 5.037 1.828 2836
-0.898 5.331 1.910 3812
-0.871 5.168 1.855 2279
-0.899 5.336 1.894 3383
-0.876 5.195 1.847 3083
-0.876 5.200 1.832 3073
-0.920 5.460 1.918 2452
-0.875 5.190 1.812 2546
-0.900 5.339 1.861 1712
-0.949 5.634 1.938 1447
-0.874 5.187 1.794 1409
-0.952 5.646 1.924 1548
-0.920 5.460 1.865 1518
-0.937 5.562 1.879 1969
-0.961 5.704 1.924 1193
-0.953 5.657 1.891 1829
-0.982 5.828 1.945 1566
-0.983 5.833 1.928 3351
-0.954 5.662 1.874 1641
-0.985 5.846 1.913 4562
-0.957 5.682 1.862 1656
-0.987 5.859 1.898 3319
-1.011 6.001 1.941 1860
-1.002 5.946 1.905 2536
-1.026 6.088 1.948 1677
-0.998 5.921 1.879 2871
-1.024 6.078 1.926 2359
-1.024 6.076 1.906 2257
-1.000 5.934 1.864 1964
-1.084 6.434 1.990 2390
-1.031 6.119 1.899 2018
-1.085 6.439 1.971 3039
-1.028 6.101 1.874 2227
-1.085 6.437 1.950 2466
-1.111 6.595 1.995 2041
-1.084 6.435 1.929 2775
-1.116 6.623 1.982 2422
-1.085 6.440 1.910 2724
-1.114 6.613 1.958 2556
-1.117 6.626 1.941 4414
-1.141 6.769 1.980 2424
-1.117 6.631 1.921 4698
-1.153 6.842 1.979 3270
-1.153 6.840 1.956 3433
-1.118 6.636 1.902 3230
-1.119 6.641 1.882 2649
-1.146 6.800 1.924 2018
-1.227 7.281 2.029 3174
-1.255 7.447 2.072 1831
-1.227 7.279 2.005 2190
-1.255 7.445 2.048 1773
-1.285 7.625 2.071 2203
-1.319 7.829 2.123 1693
-1.324 7.858 2.106 2502
-1.283 7.615 2.045 1675
-1.325 7.863 2.083 3483
-1.254 7.439 1.977 1558
-1.326 7.869 2.060 2732
-1.367 8.112 2.119 1423
-1.335 7.920 2.047 2183
-1.369 8.125 2.097 1867
-1.374 8.153 2.079 1466
-1.337 7.933 2.026 1445
-1.372 8.144 2.051 1473
-1.404 8.334 2.096 1416
-1.459 8.659 2.146 1412
-1.407 8.347 2.073 1180
-1.452 8.619 2.110 1777
-1.481 8.786 2.148 965
-1.452 8.617 2.083 1550
-1.536 9.112 2.195 975
-1.593 9.453 2.243 1192
-1.459 8.661 2.066 1035
-1.593 9.452 2.214 2115
-1.552 9.208 2.160 1191
-1.595 9.465 2.188 2122
-1.630 9.671 2.233 1614
-1.624 9.639 2.196 1950
-1.599 9.486 2.163 1680
-1.694 10.050 2.253 2078
-1.628 9.660 2.171 2000
-1.630 9.674 2.144 1630
-1.702 10.102 2.233 1372
-1.724 10.230 2.228 1822
-1.773 10.521 2.288 1468
-1.729 10.259 2.203 1767
-1.703 10.106 2.172 1510
-1.703 10.104 2.141 1440
-1.735 10.296 2.179 1358
-1.788 10.608 2.209 1471
-1.944 11.536 2.390 1248
-1.785 10.591 2.173 1828
-1.944 11.535 2.355 1422
-1.783 10.582 2.139 1624
-1.945 11.541 2.321 1351
-1.827 10.841 2.155 1464
-1.986 11.785 2.331 1455
-1.986 11.784 2.295 1404
-1.959 11.622 2.265 975
-1.989 11.805 2.263 1138
-2.026 12.020 2.302 884
-1.992 11.819 2.230 820
-2.099 12.457 2.343 768
-2.102 12.471 2.308 1196
-2.101 12.470 2.270 1214
-2.257 13.393 2.428 1098
-2.259 13.408 2.390 1243
-2.096 12.437 2.226 952
-2.259 13.406 2.349 834
-0.380 2.280 1.802 1489
-0.392 2.354 1.847 4071
-0.372 2.234 1.758 1364
-0.395 2.372 1.849 7710
-0.375 2.252 1.761 1712
-0.397 2.383 1.847 7326
-0.417 2.503 1.935 1652
-0.400 2.400 1.849 7374
-0.420 2.521 1.937 1479
-0.401 2.412 1.847 6085
-0.422 2.532 1.934 1176
-0.412 2.474 1.881 5700
-0.392 2.353 1.794 2994
-0.415 2.492 1.883 6518
-0.395 2.370 1.796 3767
-0.416 2.497 1.876 7781
-0.395 2.375 1.790 3099
-0.416 2.502 1.869 9044
-0.396 2.380 1.783 2431
-0.422 2.532 1.879 8314
-0.401 2.410 1.794 4563
-0.423 2.544 1.877 9951
-0.403 2.421 1.791 4144
-0.425 2.555 1.874 12650
-0.405 2.433 1.789 3351
-0.427 2.567 1.871 15595
-0.407 2.444 1.786 2107
-0.428 2.572 1.863 15595
-0.408 2.449 1.779 2086
-0.428 2.570 1.851 16545
-0.407 2.447 1.768 1543
-0.428 2.568 1.840 17456
-0.407 2.445 1.756 1266
-0.427 2.567 1.828 15008
-0.448 2.691 1.911 1966
-0.427 2.565 1.816 12823
-0.448 2.689 1.899 3108
-0.431 2.590 1.822 12243
-0.452 2.714 1.904 4384
-0.433 2.601 1.818 13044
-0.454 2.725 1.900 6470
-0.435 2.612 1.815 11677
-0.456 2.737 1.897 6146
-0.438 2.630 1.816 11174
-0.459 2.755 1.897 5669
-0.441 2.648 1.817 11092
-0.462 2.773 1.898 4177
-0.443 2.660 1.813 11701
-0.464 2.785 1.894 3219
-0.444 2.665 1.806 8915
-0.464 2.790 1.886 3703
-0.443 2.663 1.794 6146
-0.464 2.788 1.874 4357
-0.446 2.681 1.794 6059
-0.467 2.807 1.874 4240
-0.450 2.705 1.799 7251
-0.471 2.832 1.878 3717
-0.453 2.723 1.800 8534
-0.474 2.850 1.878 3075
-0.456 2.742 1.800 10392
-0.477 2.868 1.878 2910
-0.462 2.773 1.808 8033
-0.483 2.900 1.886 3214
-0.467 2.805 1.817 6748
-0.488 2.932 1.894 2859
-0.479 2.876 1.849 7396
-0.458 2.749 1.772 2893
-0.480 2.881 1.841 10308
-0.458 2.754 1.764 1487
-0.478 2.873 1.824 11688
-0.457 2.745 1.748 1057
-0.479 2.878 1.816 12835
-0.458 2.750 1.740 1043
-0.481 2.889 1.812 12087
-0.460 2.761 1.736 1372
-0.482 2.894 1.803 11745
-0.508 3.050 1.894 2307
-0.483 2.899 1.795 11785
-0.504 3.028 1.870 3018
-0.483 2.904 1.786 10333
-0.505 3.032 1.861 3991
-0.493 2.963 1.809 11138
-0.515 3.092 1.883 3133
-0.497 2.988 1.812 10435
-0.519 3.117 1.886 2177
-0.499 3.000 1.807 9859
-0.521 3.129 1.881 1926
-0.500 3.004 1.798 8261
-0.522 3.134 1.871 1996
-0.499 2.995 1.782 6993
-0.520 3.125 1.855 4016
-0.499 3.000 1.773 6049
-0.521 3.130 1.846 5428
-0.522 3.135 1.836 5601
-0.500 3.005 1.765 4617
-0.522 3.133 1.824 4314
-0.548 3.291 1.910 2910
-0.515 3.097 1.792 4141
-0.549 3.296 1.900 3160
-0.522 3.136 1.802 3989
-0.570 3.426 1.958 2945
-0.524 3.148 1.796 4591
-0.572 3.438 1.951 3702
-0.526 3.159 1.791 3635
-0.574 3.450 1.945 3071
-0.575 3.455 1.935 3571
-0.543 3.261 1.833 3348
-0.576 3.460 1.925 4616
-0.548 3.294 1.838 3380
-0.578 3.472 1.918 6952
-0.554 3.326 1.843 3363
-0.580 3.484 1.912 10562
-0.558 3.352 1.844 4755
-0.582 3.496 1.905 12144
-0.559 3.357 1.834 5588
-0.583 3.501 1.895 9819
-0.558 3.355 1.821 4538
-0.585 3.513 1.888 7516
-0.548 3.290 1.775 3545
-0.587 3.525 1.882 7645
-0.518 3.113 1.675 3100
-0.588 3.530 1.871 7090
-0.519 3.117 1.665 4294
-0.603 3.620 1.903 7351
-0.521 3.128 1.660 4245
-0.602 3.618 1.889 7495
-0.520 3.126 1.647 3571
-0.603 3.623 1.878 6057
-0.581 3.489 1.813 3334
-0.617 3.705 1.905 6914
-0.519 3.120 1.622 3304
-0.620 3.724 1.901 6805
-0.519 3.117 1.610 2636
-0.616 3.701 1.877 5222
-0.642 3.857 1.951 2788
-0.616 3.699 1.863 5579
-0.643 3.862 1.940 3401
-0.615 3.697 1.848 4870
-0.641 3.853 1.922 3974
-0.642 3.858 1.910 5418
-0.620 3.723 1.848 3889
-0.647 3.884 1.909 5884
-0.624 3.749 1.847 4733
-0.647 3.889 1.898 5169
-0.625 3.754 1.836 3551
-0.639 3.838 1.860 4822
-0.674 4.051 1.957 3184
-0.640 3.842 1.849 4531
-0.678 4.071 1.952 3469
-0.664 3.990 1.902 4666
-0.640 3.847 1.838 3094
-0.666 4.002 1.893 4255
-0.689 4.138 1.954 3122
-0.692 4.158 1.948 3552
-0.669 4.022 1.888 2386
-0.697 4.185 1.945 3775
-0.674 4.048 1.886 2761
-0.697 4.190 1.933 5473
-0.675 4.053 1.874 3964
-0.697 4.188 1.918 7190
-0.674 4.051 1.859 3853
-0.688 4.135 1.881 5549
-0.711 4.272 1.939 2629
-0.693 4.162 1.878 6240
-0.716 4.299 1.936 4009
-0.695 4.174 1.869 6439
-0.718 4.311 1.926 5202
-0.715 4.295 1.905 4612
-0.692 4.157 1.847 3414
-0.712 4.278 1.883 4434
-0.743 4.466 1.961 2325
-0.714 4.290 1.873 4694
-0.743 4.464 1.945 3917
-0.733 4.404 1.905 6330
-0.710 4.266 1.849 2424
-0.734 4.409 1.892 7685
-0.757 4.547 1.948 1627
-0.737 4.429 1.885 6200
-0.760 4.567 1.940 1873
-0.745 4.477 1.889 6066
-0.722 4.339 1.835 1121
-0.744 4.468 1.871 4946
-0.767 4.606 1.925 2203
-0.749 4.502 1.869 3605
-0.772 4.640 1.923 2309
-0.762 4.580 1.884 4049
-0.739 4.441 1.830 2460
-0.769 4.621 1.884 4728
-0.743 4.461 1.823 2130
-0.769 4.619 1.868 4031
-0.792 4.758 1.921 2440
-0.790 4.749 1.901 4867
-0.764 4.587 1.841 3723
-0.778 4.673 1.857 5681
-0.801 4.812 1.909 2415
-0.771 4.634 1.827 5256
-0.796 4.781 1.881 3061
-0.789 4.742 1.851 3816
-0.766 4.602 1.800 2397
-0.793 4.761 1.843 6252
-0.816 4.901 1.893 2897
-0.796 4.781 1.834 6437
-0.819 4.921 1.884 3195
-0.798 4.793 1.823 4597
-0.821 4.933 1.873 4502
-0.824 4.953 1.863 5386
-0.848 5.093 1.913 3272
-0.845 5.076 1.890 5104
-0.822 4.936 1.841 2982
-0.846 5.081 1.875 3822
-0.869 5.221 1.924 1868
-0.839 5.041 1.845 2711
-0.874 5.249 1.916 2709
-0.887 5.328 1.926 2936
-0.838 5.032 1.825 2582
-0.888 5.333 1.910 3333
-0.862 5.177 1.858 2431
-0.868 5.212 1.852 3148
-0.907 5.449 1.931 2710
-0.868 5.217 1.837 2771
-0.907 5.447 1.913 2021
-0.877 5.266 1.836 2595
-0.927 5.571 1.936 1406
-0.879 5.279 1.823 1449
-0.965 5.800 1.991 1159
-0.925 5.559 1.896 1461
-0.966 5.805 1.974 1277
-0.926 5.564 1.879 2009
-0.903 5.422 1.835 1291
-0.942 5.659 1.891 1782
-0.969 5.823 1.942 1646
-0.971 5.835 1.928 3400
-0.945 5.679 1.879 1518
-0.973 5.848 1.913 4676
-0.947 5.691 1.865 1520
-0.976 5.861 1.898 3411
-0.999 6.003 1.941 1789
-0.986 5.926 1.899 2767
-1.013 6.083 1.946 1676
-0.987 5.931 1.881 3093
-1.011 6.073 1.923 2046
-1.010 6.071 1.903 2132
-0.987 5.928 1.862 1935
-1.071 6.436 1.990 2406
-1.013 6.083 1.888 1892
-1.072 6.441 1.971 2968
-1.042 6.261 1.919 2375
-1.072 6.439 1.950 2373
-1.043 6.266 1.901 1938
-1.071 6.437 1.929 2713
-1.104 6.632 1.984 1914
-1.072 6.442 1.910 2767
-1.127 6.773 2.002 2372
-1.103 6.628 1.941 4094
-1.127 6.771 1.980 2755
-1.105 6.641 1.923 4345
-1.138 6.837 1.977 3329
-1.138 6.834 1.954 3328
-1.105 6.638 1.902 2624
-1.105 6.636 1.880 2073
-1.132 6.802 1.924 2054
-1.212 7.283 2.029 3234
-1.240 7.450 2.072 1941
-1.212 7.281 2.005 2243
-1.240 7.448 2.048 1979
-1.271 7.635 2.073 1883
-1.238 7.438 2.023 1868
-1.308 7.860 2.106 2519
-1.239 7.443 2.001 1857
-1.311 7.873 2.085 3605
-1.240 7.449 1.979 1810
-1.312 7.879 2.061 2674
-1.241 7.454 1.957 1447
-1.317 7.915 2.046 2262
-1.353 8.128 2.097 1606
-1.316 7.905 2.019 1565
-1.353 8.126 2.071 1475
-1.388 8.336 2.096 1645
-1.355 8.139 2.049 1565
-1.439 8.646 2.142 1488
-1.390 8.350 2.073 1283
-1.435 8.622 2.110 1739
-1.518 9.117 2.224 1120
-1.434 8.612 2.081 1530
-1.520 9.130 2.199 1116
-1.574 9.457 2.243 1188
-1.528 9.182 2.182 1040
-1.573 9.447 2.212 1729
-1.540 9.249 2.168 1095
-1.552 9.323 2.156 1654
-1.610 9.675 2.233 1635
-1.605 9.642 2.196 2328
-1.553 9.329 2.129 1558
-1.609 9.664 2.171 2328
-1.675 10.061 2.255 1809
-1.610 9.669 2.142 1641
-1.680 10.090 2.230 1271
-1.700 10.211 2.224 1718
-1.753 10.532 2.290 1370
-1.712 10.286 2.208 1760
-1.682 10.102 2.170 1530
-1.683 10.108 2.141 1503
-1.714 10.299 2.179 1390
-1.766 10.612 2.209 1596
-1.921 11.540 2.390 1162
-1.764 10.595 2.173 1741
-1.919 11.531 2.353 1274
-1.762 10.585 2.139 1685
-1.961 11.783 2.366 1444
-1.804 10.837 2.153 1755
-1.961 11.781 2.330 1650
-1.963 11.795 2.296 1578
-1.806 10.850 2.123 1085
-1.964 11.801 2.262 1307
-2.002 12.024 2.302 968
-1.967 11.815 2.228 925
-2.004 12.038 2.268 810
-2.078 12.483 2.309 1150
-2.230 13.398 2.428 1256
-2.076 12.474 2.270 1130
-2.233 13.412 2.390 1402
-2.071 12.441 2.226 1063
-2.232 13.411 2.349 938
-2.230 13.394 2.306 774
-2.231 13.400 2.266 861
-0.377 2.306 1.821 1551
-0.385 2.355 1.847 4463
-0.366 2.235 1.758 1545
-0.387 2.366 1.845 7984
-0.368 2.246 1.756 1695
-0.390 2.384 1.847 7346
-0.410 2.504 1.935 1707
-0.393 2.401 1.849 7125
-0.413 2.522 1.937 1574
-0.392 2.394 1.833 6027
-0.411 2.514 1.921 2306
-0.405 2.475 1.881 6181
-0.385 2.354 1.794 2993
-0.407 2.486 1.879 6916
-0.387 2.365 1.792 3441
-0.408 2.491 1.871 8233
-0.388 2.370 1.785 2564
-0.408 2.496 1.864 9550
-0.389 2.375 1.778 1686
-0.413 2.527 1.875 8115
-0.393 2.405 1.789 3950
-0.416 2.545 1.877 9034
-0.396 2.423 1.791 4478
-0.418 2.556 1.874 11931
-0.398 2.434 1.789 3620
-0.419 2.561 1.866 14968
-0.399 2.439 1.782 1963
-0.420 2.566 1.859 14968
-0.400 2.443 1.775 1921
-0.421 2.571 1.851 16350
-0.401 2.448 1.768 1582
-0.420 2.570 1.840 17731
-0.400 2.446 1.756 1192
-0.420 2.568 1.828 16238
-0.440 2.692 1.911 1918
-0.421 2.573 1.820 14747
-0.441 2.697 1.903 2644
-0.424 2.591 1.822 13589
-0.444 2.715 1.904 4379
-0.426 2.602 1.818 13874
-0.446 2.727 1.900 6487
-0.427 2.607 1.811 11720
-0.447 2.732 1.892 6704
-0.431 2.631 1.816 10120
-0.451 2.756 1.897 5759
-0.432 2.643 1.813 10322
-0.453 2.768 1.894 4731
-0.435 2.661 1.813 11037
-0.456 2.786 1.894 3212
-0.436 2.666 1.806 8580
-0.457 2.791 1.886 3480
-0.436 2.664 1.794 6142
-0.456 2.790 1.874 4004
-0.440 2.689 1.799 6192
-0.461 2.815 1.878 3513
-0.442 2.700 1.795 7526
-0.462 2.826 1.874 3437
-0.447 2.731 1.804 8578
-0.468 2.858 1.882 2879
-0.450 2.749 1.804 10510
-0.471 2.876 1.882 2866
-0.454 2.774 1.808 8449
-0.475 2.901 1.886 3202
-0.458 2.799 1.813 7518
-0.479 2.926 1.890 3199
-0.471 2.878 1.849 7644
-0.450 2.750 1.772 2714
-0.471 2.876 1.837 10877
-0.450 2.748 1.760 1072
-0.470 2.874 1.824 12516
-0.449 2.746 1.748 1021
-0.471 2.879 1.816 13773
-0.450 2.751 1.740 1117
-0.473 2.891 1.812 13029
-0.452 2.762 1.736 1367
-0.474 2.895 1.803 12428
-0.499 3.051 1.894 2378
-0.475 2.900 1.795 12255
-0.496 3.029 1.870 3262
-0.475 2.905 1.786 10747
-0.496 3.034 1.861 4353
-0.484 2.957 1.805 10080
-0.505 3.086 1.879 3215
-0.490 2.996 1.816 9816
-0.469 2.867 1.742 2580
-0.492 3.008 1.811 9334
-0.513 3.137 1.884 1877
-0.492 3.006 1.798 7936
-0.513 3.136 1.871 1975
-0.490 2.997 1.782 6412
-0.512 3.127 1.855 3955
-0.508 3.104 1.830 6310
-0.487 2.974 1.758 3628
-0.512 3.130 1.833 5940
-0.491 2.999 1.761 3584
-0.513 3.135 1.824 4815
-0.538 3.286 1.906 2689
-0.507 3.098 1.792 4443
-0.528 3.229 1.863 2977
-0.513 3.137 1.802 4624
-0.561 3.427 1.958 2913
-0.515 3.149 1.796 5227
-0.563 3.439 1.951 3676
-0.515 3.147 1.783 4129
-0.565 3.451 1.945 3051
-0.566 3.457 1.935 3306
-0.535 3.269 1.836 3288
-0.566 3.462 1.925 4128
-0.541 3.309 1.845 3609
-0.568 3.474 1.918 6820
-0.544 3.328 1.843 3732
-0.570 3.486 1.912 11055
-0.549 3.354 1.844 4568
-0.572 3.498 1.905 12851
-0.549 3.358 1.834 5314
-0.573 3.503 1.895 10234
-0.549 3.356 1.821 4323
-0.576 3.522 1.892 7412
-0.544 3.326 1.793 3750
-0.577 3.527 1.882 7266
-0.509 3.114 1.675 2646
-0.578 3.532 1.871 6788
-0.600 3.665 1.938 3904
-0.592 3.621 1.903 7616
-0.571 3.488 1.837 3806
-0.592 3.619 1.889 7826
-0.570 3.486 1.823 3681
-0.593 3.624 1.878 6421
-0.571 3.491 1.813 3804
-0.605 3.700 1.902 5711
-0.627 3.834 1.966 3684
-0.606 3.705 1.891 5474
-0.628 3.839 1.955 3642
-0.606 3.703 1.877 4634
-0.629 3.844 1.944 3364
-0.606 3.701 1.863 5049
-0.631 3.857 1.936 3870
-0.631 3.855 1.922 4682
-0.605 3.699 1.848 4260
-0.632 3.860 1.910 5954
-0.609 3.725 1.848 3471
-0.635 3.879 1.906 5912
-0.613 3.744 1.843 4128
-0.637 3.891 1.898 5106
-0.615 3.756 1.836 3078
-0.629 3.846 1.864 5013
-0.664 4.060 1.961 2867
-0.630 3.851 1.852 4629
-0.666 4.073 1.952 3497
-0.654 3.999 1.905 4410
-0.631 3.856 1.841 3056
-0.656 4.011 1.896 4052
-0.679 4.147 1.957 3283
-0.679 4.153 1.945 4001
-0.648 3.959 1.860 2378
-0.681 4.165 1.936 4103
-0.658 4.022 1.873 1798
-0.685 4.185 1.930 5422
-0.662 4.048 1.871 2964
-0.687 4.197 1.921 6867
-0.664 4.060 1.862 3621
-0.689 4.209 1.911 5346
-0.666 4.072 1.853 3267
-0.681 4.164 1.878 6674
-0.704 4.301 1.936 3920
-0.684 4.183 1.872 6833
-0.707 4.320 1.929 4510
-0.704 4.304 1.908 4347
-0.682 4.167 1.850 3685
-0.701 4.287 1.886 4530
-0.731 4.468 1.961 2577
-0.702 4.292 1.873 4974
-0.731 4.466 1.945 4346
-0.727 4.442 1.920 6234
-0.704 4.304 1.864 3265
-0.722 4.411 1.892 6849
-0.744 4.549 1.948 1636
-0.723 4.416 1.879 5271
-0.746 4.562 1.937 1923
-0.733 4.479 1.889 4816
-0.710 4.341 1.835 1403
-0.735 4.492 1.879 3957
-0.758 4.630 1.933 1898
-0.738 4.511 1.872 3886
-0.761 4.650 1.926 1873
-0.751 4.589 1.887 4037
-0.728 4.450 1.833 2555
-0.756 4.623 1.884 4795
-0.730 4.463 1.823 2013
-0.757 4.628 1.871 3946
-0.780 4.768 1.923 1868
-0.777 4.751 1.901 4691
-0.750 4.582 1.838 3768
-0.764 4.668 1.855 5965
-0.787 4.807 1.906 3047
-0.757 4.629 1.825 5801
-0.784 4.790 1.884 3534
-0.777 4.751 1.854 4279
-0.754 4.611 1.803 3013
-0.779 4.763 1.843 6550
-0.805 4.918 1.899 2690
-0.783 4.783 1.834 6460
-0.805 4.923 1.884 2698
-0.785 4.795 1.823 4644
-0.809 4.943 1.875 4149
-0.811 4.955 1.863 5788
-0.834 5.095 1.913 3074
-0.831 5.078 1.890 4825
-0.808 4.938 1.841 3663
-0.830 5.076 1.872 4206
-0.807 4.935 1.824 1890
-0.825 5.044 1.845 3047
-0.859 5.251 1.916 2430
-0.872 5.330 1.926 2542
-0.824 5.034 1.825 2263
-0.847 5.180 1.858 2761
-0.873 5.335 1.910 2620
-0.853 5.214 1.852 3201
-0.892 5.452 1.931 1924
-0.855 5.227 1.840 2611
-0.888 5.427 1.905 1636
-0.862 5.269 1.836 2570
-0.888 5.425 1.887 1424
-0.863 5.274 1.821 1445
-0.949 5.802 1.991 1325
-0.950 5.807 1.974 1706
-0.914 5.584 1.903 1580
-0.928 5.671 1.912 1781
-0.890 5.440 1.839 1685
-0.925 5.654 1.889 1895
-0.952 5.818 1.940 1723
-0.955 5.838 1.928 3074
-0.932 5.696 1.884 1660
-0.957 5.851 1.913 4115
-0.933 5.701 1.867 1611
-0.961 5.871 1.900 2914
-0.984 6.013 1.943 1619
-0.970 5.928 1.899 2967
-0.996 6.086 1.946 1718
-0.971 5.933 1.881 3190
-0.994 6.076 1.923 1820
-0.973 5.946 1.866 2074
-0.996 6.088 1.908 1759
-1.052 6.431 1.988 2305
-1.028 6.281 1.944 2139
-1.026 6.271 1.922 2811
-1.054 6.444 1.971 2745
-1.054 6.442 1.950 2116
-1.026 6.269 1.901 2082
-1.052 6.432 1.927 2504
-1.028 6.282 1.885 1940
-1.053 6.437 1.908 2557
-1.109 6.776 2.002 2490
-1.103 6.744 1.972 3464
-1.080 6.601 1.933 3092
-1.118 6.832 1.974 3521
-1.087 6.644 1.923 3465
-1.117 6.830 1.952 3457
-1.088 6.649 1.904 1738
-1.115 6.813 1.926 2148
-1.178 7.198 2.028 1986
-1.192 7.287 2.029 3054
-1.219 7.453 2.072 1959
-1.218 7.444 2.046 2248
-1.193 7.292 2.007 2088
-1.219 7.449 2.025 2210
-1.158 7.078 1.930 1542
-1.287 7.864 2.106 2551
-1.218 7.447 2.001 2138
-1.289 7.877 2.085 3631
-1.219 7.452 1.979 1997
-1.291 7.890 2.063 2546
-1.220 7.457 1.957 1467
-1.297 7.926 2.047 2182
-1.332 8.139 2.099 1224
-1.293 7.901 2.017 1751
-1.329 8.122 2.070 1333
-1.363 8.333 2.094 1789
-1.131 6.910 1.758 1537
-1.131 6.914 1.738 1943
-1.414 8.643 2.141 1483
-1.132 6.919 1.718 2089
-1.415 8.649 2.115 1721
-1.133 6.924 1.697 1987
-1.410 8.616 2.081 1559
-1.134 6.928 1.677 1761
-1.501 9.171 2.179 1041
-1.135 6.940 1.658 1553
-1.539 9.406 2.202 1086
-1.576 9.633 2.223 1703
-1.527 9.335 2.158 1697
-1.578 9.647 2.196 2639
-1.527 9.333 2.129 1535
-1.582 9.668 2.171 2638
-1.647 10.066 2.255 1483
-1.582 9.666 2.141 1653
-1.650 10.087 2.228 1135
-1.669 10.200 2.221 1838
-1.693 10.346 2.250 1222
-1.669 10.199 2.189 1846
-1.692 10.344 2.218 1193
-1.668 10.197 2.157 1402
-1.734 10.595 2.237 1357
-1.737 10.617 2.209 1556
-1.889 11.545 2.390 994
-1.734 10.600 2.173 1561
-1.929 11.789 2.402 1148
-1.733 10.590 2.139 1633
-1.769 10.813 2.181 1584
-1.774 10.842 2.153 1941
-1.928 11.787 2.330 1796
-1.930 11.793 2.295 1684
-1.775 10.847 2.121 1210
-1.931 11.799 2.260 1389
-1.968 12.030 2.302 988
-1.933 11.813 2.227 992
-1.971 12.044 2.268 861
-2.043 12.489 2.309 1206
-1.970 12.042 2.231 790
-2.193 13.404 2.428 1381
-2.041 12.472 2.268 1165
-2.195 13.418 2.390 1520
-2.037 12.447 2.226 968
-2.195 13.417 2.349 1016
-2.192 13.400 2.306 823
-2.146 13.115 2.259 778
-2.193 13.406 2.266 910
-0.372 2.307 1.821 1565
-0.380 2.356 1.847 4794
-0.361 2.236 1.758 1739
-0.382 2.367 1.845 8331
-0.362 2.247 1.756 1877
-0.384 2.378 1.842 7503
-0.403 2.499 1.930 1866
-0.385 2.390 1.840 7048
-0.405 2.510 1.928 2301
-0.386 2.395 1.833 5951
-0.406 2.515 1.921 2301
-0.399 2.476 1.881 6413
-0.380 2.355 1.794 2890
-0.400 2.481 1.874 7097
-0.380 2.360 1.787 2890
-0.402 2.492 1.871 8421
-0.382 2.371 1.785 2506
-0.403 2.497 1.864 9818
-0.383 2.375 1.778 1662
-0.407 2.522 1.870 7922
-0.387 2.399 1.785 3220
-0.411 2.546 1.877 7890
-0.391 2.423 1.791 4756
-0.412 2.557 1.874 10769
-0.393 2.435 1.789 3861
-0.413 2.562 1.866 13816
-0.393 2.439 1.782 2140
-0.414 2.567 1.859 13816
-0.394 2.444 1.775 2098
-0.415 2.572 1.851 15628
-0.395 2.449 1.768 1649
-0.415 2.571 1.840 17542
-0.395 2.447 1.756 1157
-0.414 2.569 1.828 16834
-0.434 2.693 1.911 1853
-0.415 2.574 1.820 16024
-0.435 2.698 1.903 2519
-0.418 2.592 1.822 14402
-0.438 2.716 1.904 4310
-0.420 2.603 1.818 14250
-0.440 2.728 1.900 6409
-0.421 2.608 1.811 11594
-0.441 2.733 1.892 6736
-0.422 2.619 1.807 8970
-0.443 2.744 1.889 6654
-0.426 2.644 1.813 9366
-0.447 2.769 1.894 4723
-0.428 2.655 1.809 10102
-0.448 2.781 1.890 3754
-0.429 2.660 1.802 8017
-0.449 2.786 1.882 3720
-0.443 2.744 1.844 6540
-0.422 2.619 1.764 2858
-0.436 2.703 1.807 6215
-0.456 2.829 1.886 2984
-0.436 2.701 1.795 7561
-0.460 2.854 1.891 3282
-0.442 2.739 1.808 8501
-0.462 2.866 1.886 3084
-0.445 2.757 1.808 10628
-0.465 2.884 1.886 3006
-0.449 2.782 1.812 8906
-0.469 2.909 1.890 2926
-0.452 2.800 1.813 8162
-0.472 2.928 1.890 3080
-0.453 2.812 1.808 7972
-0.474 2.939 1.886 2990
-0.464 2.877 1.837 11239
-0.443 2.749 1.760 1112
-0.464 2.875 1.824 12977
-0.443 2.747 1.748 1097
-0.466 2.887 1.820 14333
-0.445 2.759 1.744 1238
-0.466 2.892 1.812 13456
-0.492 3.054 1.907 1445
-0.467 2.896 1.803 12706
-0.488 3.025 1.878 2571
-0.467 2.894 1.791 12604
-0.488 3.023 1.866 3843
-0.469 2.906 1.786 11019
-0.489 3.035 1.861 4793
-0.469 2.911 1.778 9535
-0.490 3.040 1.852 5940
-0.484 3.004 1.820 9259
-0.464 2.875 1.746 3549
-0.486 3.016 1.815 8734
-0.465 2.886 1.742 2091
-0.485 3.007 1.798 7346
-0.506 3.137 1.871 1953
-0.485 3.005 1.786 5736
-0.505 3.135 1.858 3370
-0.501 3.105 1.830 6572
-0.522 3.236 1.903 3630
-0.505 3.131 1.833 6129
-0.533 3.303 1.927 3069
-0.506 3.136 1.824 5251
-0.533 3.308 1.918 2658
-0.501 3.106 1.796 4841
-0.522 3.237 1.867 3124
-0.506 3.139 1.802 5175
-0.553 3.428 1.958 2854
-0.507 3.143 1.792 5711
-0.555 3.441 1.951 3604
-0.508 3.148 1.783 4563
-0.557 3.453 1.945 3035
-0.544 3.375 1.891 3498
-0.521 3.229 1.814 3252
-0.520 3.227 1.801 4014
-0.543 3.366 1.874 3666
-0.560 3.475 1.918 6392
-0.537 3.329 1.843 4204
-0.562 3.487 1.912 10921
-0.541 3.355 1.844 4528
-0.564 3.499 1.905 12853
-0.543 3.367 1.837 5170
-0.566 3.511 1.899 10090
-0.543 3.365 1.824 4129
-0.573 3.551 1.906 7037
-0.537 3.327 1.793 4047
-0.571 3.542 1.889 6452
-0.536 3.325 1.780 2727
-0.573 3.554 1.882 6109
-0.503 3.120 1.665 3180
-0.585 3.630 1.906 7871
-0.564 3.496 1.840 3535
-0.584 3.621 1.889 8088
-0.562 3.487 1.823 3820
-0.585 3.626 1.878 6749
-0.563 3.492 1.813 4140
-0.589 3.652 1.878 5764
-0.617 3.828 1.963 4204
-0.591 3.664 1.871 4998
-0.618 3.833 1.952 4515
-0.597 3.704 1.877 4242
-0.619 3.839 1.941 4164
-0.598 3.709 1.866 4672
-0.621 3.851 1.933 4560
-0.622 3.856 1.922 5518
-0.599 3.714 1.855 3834
-0.624 3.868 1.914 6759
-0.602 3.733 1.851 3368
-0.626 3.881 1.906 6412
-0.604 3.745 1.843 3706
-0.628 3.893 1.898 5521
-0.606 3.757 1.836 2707
-0.620 3.848 1.864 5248
-0.655 4.062 1.961 2435
-0.621 3.853 1.852 4685
-0.657 4.074 1.952 3388
-0.645 4.001 1.905 3834
-0.622 3.858 1.841 3018
-0.666 4.128 1.947 3827
-0.644 3.991 1.887 3310
-0.670 4.154 1.945 4476
-0.638 3.953 1.856 2530
-0.671 4.159 1.933 4613
-0.637 3.951 1.842 1618
-0.674 4.179 1.927 5350
-0.652 4.042 1.868 2165
-0.677 4.198 1.921 6539
-0.655 4.062 1.862 2981
-0.679 4.211 1.911 5598
-0.657 4.074 1.853 2934
-0.672 4.165 1.878 7028
-0.694 4.302 1.936 3820
-0.675 4.185 1.872 7213
-0.697 4.322 1.929 4289
-0.679 4.211 1.868 4836
-0.704 4.363 1.932 3154
-0.692 4.289 1.886 4619
-0.721 4.470 1.961 2751
-0.692 4.294 1.873 4980
-0.719 4.461 1.942 4671
-0.718 4.451 1.923 6676
-0.694 4.306 1.864 3267
-0.716 4.442 1.904 5877
-0.694 4.304 1.848 2005
-0.724 4.490 1.908 4809
-0.702 4.352 1.853 1747
-0.724 4.488 1.892 3749
-0.701 4.350 1.838 1720
-0.727 4.508 1.885 3569
-0.703 4.362 1.828 1530
-0.729 4.520 1.874 4071
-0.751 4.659 1.928 1427
-0.741 4.598 1.889 3887
-0.719 4.459 1.836 2191
-0.746 4.625 1.884 4802
-0.720 4.464 1.823 1743
-0.747 4.630 1.871 3819
-0.769 4.769 1.923 1649
-0.753 4.672 1.871 4752
-0.776 4.811 1.923 1638
-0.753 4.669 1.855 6048
-0.775 4.809 1.906 3076
-0.747 4.630 1.825 6140
-0.773 4.792 1.884 4072
-0.768 4.760 1.857 4616
-0.745 4.620 1.806 3416
-0.768 4.765 1.843 6545
-0.794 4.927 1.901 2545
-0.773 4.792 1.837 6182
-0.795 4.932 1.887 2276
-0.774 4.797 1.823 4576
-0.799 4.952 1.878 4112
-0.799 4.957 1.863 6081
-0.822 5.097 1.913 3031
-0.800 4.962 1.849 4804
-0.823 5.102 1.898 3575
-0.818 5.070 1.870 4601
-0.795 4.930 1.821 2080
-0.816 5.060 1.850 3359
-0.847 5.253 1.916 2087
-0.857 5.317 1.920 2254
-0.832 5.162 1.868 2174
-0.836 5.182 1.858 2746
-0.858 5.323 1.905 2112
-0.841 5.216 1.852 3027
-0.881 5.461 1.934 1507
-0.843 5.229 1.840 2497
-0.874 5.422 1.903 1898
-0.850 5.271 1.836 2531
-0.894 5.546 1.926 1719
-0.874 5.417 1.866 1768
-0.896 5.559 1.912 1570
-0.876 5.429 1.853 2087
-0.937 5.810 1.974 2075
-0.876 5.434 1.837 2201
-0.911 5.651 1.905 1995
-0.918 5.693 1.900 2154
-0.941 5.835 1.945 1791
-0.941 5.833 1.925 2950
-0.918 5.691 1.881 1999
-0.943 5.845 1.910 3602
-0.920 5.703 1.867 1957
-0.949 5.888 1.905 2454
-0.975 6.045 1.952 1716
-0.956 5.930 1.899 2820
-0.979 6.073 1.941 1743
-0.958 5.943 1.883 2981
-0.981 6.086 1.926 1557
-0.960 5.955 1.868 1967
-1.032 6.398 1.998 1635
-1.013 6.284 1.944 2526
-1.037 6.434 1.988 2159
-1.013 6.281 1.924 3186
-1.041 6.454 1.973 2488
-1.011 6.271 1.901 2201
-0.986 6.113 1.856 1926
-1.036 6.427 1.925 2230
-1.013 6.284 1.885 1958
-1.096 6.794 2.006 2449
-1.038 6.440 1.908 2279
-1.089 6.754 1.974 2937
-1.066 6.611 1.935 2817
-1.100 6.820 1.970 3526
-1.072 6.646 1.923 2827
-1.099 6.817 1.948 3513
-1.076 6.674 1.910 1497
-1.099 6.815 1.926 2070
-1.160 7.193 2.026 1942
-1.175 7.289 2.029 2814
-1.144 7.093 1.977 2461
-1.201 7.446 2.046 2369
-1.143 7.090 1.955 2008
-1.202 7.452 2.025 2326
-1.142 7.080 1.930 1629
-1.269 7.867 2.106 2357
-1.201 7.450 2.001 2190
-1.271 7.880 2.085 3309
-1.202 7.455 1.979 2056
-1.272 7.886 2.061 2307
-1.203 7.460 1.957 1420
-1.275 7.906 2.042 2183
-1.379 8.552 2.198 1190
-1.273 7.897 2.015 1925
-1.342 8.322 2.117 1408
-1.344 8.336 2.094 1883
-1.312 8.138 2.047 1298
-1.115 6.917 1.738 1560
-1.394 8.646 2.141 1543
-1.395 8.652 2.115 1641
-1.116 6.922 1.718 1614
-1.389 8.612 2.079 1533
-1.117 6.926 1.697 1489
-1.118 6.931 1.677 1244
-1.479 9.174 2.179 1046
-1.554 9.638 2.253 1136
-1.528 9.478 2.217 1118
-1.554 9.637 2.223 1666
-1.529 9.484 2.189 1634
-1.556 9.650 2.196 2618
-1.533 9.505 2.165 1527
-1.560 9.672 2.171 2775
-1.534 9.511 2.137 1169
-1.559 9.670 2.141 1659
-1.641 10.175 2.246 1304
-1.643 10.189 2.217 2021
-1.666 10.334 2.247 1431
-1.644 10.195 2.187 2064
-1.572 9.750 2.098 1401
-1.645 10.201 2.157 1607
-1.708 10.592 2.235 1374
-1.713 10.621 2.209 1438
-1.642 10.183 2.123 1115
-1.710 10.604 2.173 1454
-1.901 11.786 2.401 1158
-1.900 11.785 2.365 1561
-1.744 10.817 2.181 1553
-1.749 10.846 2.153 1941
-1.901 11.791 2.330 1778
-1.904 11.805 2.296 1674
-1.865 11.567 2.253 1252
-1.903 11.804 2.260 1401
-1.941 12.034 2.302 995
-1.904 11.810 2.226 1029
-1.943 12.048 2.268 911
-2.015 12.493 2.309 1129
-1.943 12.047 2.231 832
-2.162 13.409 2.428 1394
-2.012 12.477 2.268 1015
-2.165 13.423 2.390 1490
-2.008 12.452 2.226 900
-2.164 13.422 2.349 990
-2.115 13.113 2.298 851
-2.116 13.120 2.259 921
-2.162 13.405 2.306 843
-2.163 13.411 2.266 944
-2.165 13.425 2.228 769
-0.367 2.308 1.821 1626
-0.374 2.350 1.842 5387
-0.355 2.231 1.753 1784
-0.375 2.362 1.840 9184
-0.356 2.242 1.751 1913
-0.377 2.373 1.838 8108
-0.396 2.493 1.926 1903
-0.380 2.391 1.840 7395
-0.399 2.511 1.928 2241
-0.380 2.389 1.829 6071
-0.399 2.510 1.916 2485
-0.393 2.470 1.877 6477
-0.373 2.349 1.790 2360
-0.394 2.482 1.874 7113
-0.375 2.360 1.787 2893
-0.395 2.487 1.867 8527
-0.376 2.365 1.781 1995
-0.397 2.498 1.864 10044
-0.378 2.376 1.778 1683
-0.400 2.516 1.866 7875
-0.380 2.394 1.780 2466
-0.403 2.534 1.868 7113
-0.383 2.411 1.782 3110
-0.406 2.552 1.869 9655
-0.386 2.429 1.784 3451
-0.407 2.563 1.866 12619
-0.388 2.440 1.782 2343
-0.408 2.568 1.859 12619
-0.389 2.445 1.775 2313
-0.408 2.567 1.847 15028
-0.388 2.443 1.763 1478
-0.408 2.565 1.835 17364
-0.427 2.689 1.919 1242
-0.408 2.570 1.828 17250
-0.428 2.694 1.911 1771
-0.409 2.575 1.820 16971
-0.429 2.699 1.903 2373
-0.412 2.593 1.822 14862
-0.432 2.717 1.904 4176
-0.414 2.604 1.818 14260
-0.434 2.729 1.900 6221
-0.415 2.609 1.811 11184
-0.434 2.734 1.892 6652
-0.415 2.614 1.803 8108
-0.435 2.739 1.884 7084
-0.420 2.645 1.813 8337
-0.440 2.770 1.894 4675
-0.422 2.656 1.809 9172
-0.442 2.782 1.890 3710
-0.423 2.661 1.802 7416
-0.443 2.787 1.882 3570
-0.436 2.745 1.844 7023
-0.416 2.619 1.764 3083
-0.435 2.737 1.828 6304
-0.455 2.863 1.907 2606
-0.429 2.702 1.795 7467
-0.454 2.855 1.891 3545
-0.435 2.740 1.808 8374
-0.456 2.867 1.886 3344
-0.439 2.765 1.812 10773
-0.460 2.892 1.891 2943
-0.442 2.783 1.812 9340
-0.463 2.910 1.890 2991
-0.445 2.801 1.813 8675
-0.465 2.929 1.890 2988
-0.447 2.813 1.808 8190
-0.467 2.940 1.886 2897
-0.457 2.878 1.837 11503
-0.437 2.750 1.760 1286
-0.458 2.883 1.828 13291
-0.438 2.755 1.752 1303
-0.459 2.888 1.820 14738
-0.439 2.760 1.744 1273
-0.460 2.893 1.812 13705
-0.484 3.048 1.903 1569
-0.461 2.898 1.803 12772
-0.481 3.026 1.878 2940
-0.460 2.896 1.791 12759
-0.481 3.024 1.866 4311
-0.461 2.900 1.782 11147
-0.481 3.029 1.857 5695
-0.463 2.912 1.778 9670
-0.483 3.041 1.852 6431
-0.479 3.012 1.824 8861
-0.458 2.882 1.750 4586
-0.479 3.017 1.815 8172
-0.500 3.146 1.888 2435
-0.478 3.008 1.798 6668
-0.499 3.138 1.871 2101
-0.478 3.006 1.786 5108
-0.498 3.136 1.858 3410
-0.494 3.107 1.830 6900
-0.514 3.237 1.903 3740
-0.497 3.125 1.829 6406
-0.517 3.256 1.901 2968
-0.499 3.137 1.824 5648
-0.537 3.378 1.955 2595
-0.494 3.107 1.796 5284
-0.515 3.238 1.867 3513
-0.498 3.133 1.798 5584
-0.545 3.430 1.958 2688
-0.500 3.144 1.792 5909
-0.548 3.449 1.955 3425
-0.499 3.142 1.780 4736
-0.536 3.371 1.901 3520
-0.535 3.369 1.887 3911
-0.500 3.147 1.770 3337
-0.512 3.221 1.798 4057
-0.534 3.360 1.870 4053
-0.553 3.476 1.918 5760
-0.529 3.330 1.843 4208
-0.556 3.495 1.916 10422
-0.530 3.335 1.833 4012
-0.556 3.500 1.905 12291
-0.535 3.368 1.837 4548
-0.558 3.513 1.899 9714
-0.529 3.331 1.806 3770
-0.565 3.553 1.906 7082
-0.529 3.329 1.793 4154
-0.564 3.551 1.892 6158
-0.530 3.333 1.783 3066
-0.565 3.556 1.882 5754
-0.496 3.121 1.665 2625
-0.577 3.631 1.906 8242
-0.553 3.476 1.830 3164
-0.576 3.622 1.889 8406
-0.554 3.488 1.823 3791
-0.576 3.627 1.878 7111
-0.555 3.493 1.813 4226
-0.580 3.646 1.874 6205
-0.609 3.830 1.963 4359
-0.581 3.658 1.867 5743
-0.608 3.828 1.948 5034
-0.610 3.840 1.941 4962
-0.582 3.663 1.857 3807
-0.611 3.845 1.929 5233
-0.590 3.711 1.866 4105
-0.613 3.857 1.922 6152
-0.592 3.723 1.858 3577
-0.615 3.870 1.914 7374
-0.594 3.735 1.851 3015
-0.617 3.882 1.906 6741
-0.595 3.747 1.843 3084
-0.618 3.887 1.894 5754
-0.596 3.752 1.832 2224
-0.613 3.856 1.867 5535
-0.634 3.992 1.928 2388
-0.613 3.854 1.852 4806
-0.648 4.076 1.952 3289
-0.651 4.095 1.947 3943
-0.614 3.866 1.844 3103
-0.655 4.122 1.944 4205
-0.633 3.986 1.884 2799
-0.659 4.149 1.942 4971
-0.627 3.948 1.853 2634
-0.661 4.161 1.933 5196
-0.626 3.938 1.835 1693
-0.663 4.173 1.924 5341
-0.624 3.929 1.818 1463
-0.668 4.200 1.921 6202
-0.646 4.063 1.862 2255
-0.669 4.212 1.911 5916
-0.648 4.075 1.853 2327
-0.663 4.174 1.881 7348
-0.685 4.311 1.939 3232
-0.669 4.208 1.881 7680
-0.698 4.389 1.956 3263
-0.670 4.213 1.868 5770
-0.694 4.365 1.932 3751
-0.670 4.218 1.856 5093
-0.692 4.356 1.913 3080
-0.672 4.230 1.847 5142
-0.709 4.462 1.942 4926
-0.708 4.453 1.923 6813
-0.683 4.300 1.861 3162
-0.709 4.458 1.910 5666
-0.685 4.313 1.851 2160
-0.714 4.492 1.908 4454
-0.692 4.354 1.853 1898
-0.719 4.526 1.907 2983
-0.696 4.381 1.849 1959
-0.719 4.524 1.891 3443
-0.694 4.364 1.828 1627
-0.720 4.529 1.877 4046
-0.697 4.383 1.821 1056
-0.732 4.607 1.892 3805
-0.710 4.468 1.839 1644
-0.735 4.627 1.884 4787
-0.710 4.466 1.823 1509
-0.736 4.632 1.871 4045
-0.758 4.771 1.923 1635
-0.743 4.674 1.871 5010
-0.721 4.534 1.819 1746
-0.742 4.671 1.855 5999
-0.765 4.811 1.906 3200
-0.736 4.632 1.825 6399
-0.762 4.794 1.884 4574
-0.760 4.784 1.865 4897
-0.738 4.644 1.814 3786
-0.758 4.767 1.843 6501
-0.787 4.951 1.909 2554
-0.761 4.786 1.834 5922
-0.783 4.927 1.884 2459
-0.764 4.806 1.825 4410
-0.787 4.954 1.878 4223
-0.787 4.951 1.861 6425
-0.809 5.092 1.910 3127
-0.789 4.964 1.849 5463
-0.811 5.104 1.898 3156
-0.806 5.072 1.870 4873
-0.784 4.932 1.821 2212
-0.806 5.070 1.853 3788
-0.828 5.210 1.901 1996
-0.818 5.149 1.863 2355
-0.791 4.978 1.805 2021
-0.823 5.176 1.855 2782
-0.845 5.317 1.902 1877
-0.829 5.218 1.852 2759
-0.807 5.077 1.806 1642
-0.834 5.245 1.844 2367
-0.863 5.431 1.905 1683
-0.838 5.273 1.836 2329
-0.882 5.548 1.926 1885
-0.862 5.426 1.869 2293
-0.886 5.575 1.917 1787
-0.863 5.431 1.853 2712
-0.924 5.812 1.974 2185
-0.864 5.436 1.837 2386
-0.897 5.645 1.903 2121
-0.905 5.695 1.900 2141
-0.928 5.837 1.945 1636
-0.940 5.917 1.951 2555
-0.907 5.708 1.886 2128
-0.929 5.847 1.910 2910
-0.907 5.705 1.867 2008
-0.940 5.912 1.911 2176
-0.962 6.055 1.954 1759
-0.943 5.933 1.899 2539
-0.966 6.075 1.941 1683
-0.945 5.945 1.883 2640
-0.968 6.088 1.926 1497
-1.016 6.393 1.996 1851
-0.948 5.965 1.870 1780
-1.000 6.293 1.947 2620
-1.023 6.436 1.988 1942
-0.999 6.283 1.924 3149
-1.026 6.457 1.973 2110
-0.972 6.115 1.856 2091
-0.997 6.274 1.901 2052
-1.077 6.776 2.022 2056
-0.974 6.128 1.840 1824
-1.080 6.796 2.006 2245
-1.023 6.434 1.906 1921
-1.053 6.628 1.939 2907
-1.082 6.809 1.988 2524
-1.084 6.822 1.970 3571
-1.057 6.648 1.923 2599
-1.084 6.820 1.948 3426
-1.061 6.676 1.910 1414
-1.084 6.818 1.926 2120
-1.127 7.090 1.998 1815
-1.128 7.095 1.977 2613
-1.159 7.292 2.029 2288
-1.184 7.449 2.046 2225
-1.127 7.093 1.955 2116
-1.185 7.454 2.025 2170
-1.126 7.083 1.930 1616
-1.250 7.862 2.104 2353
-1.184 7.452 2.001 2048
-1.253 7.883 2.085 3030
-1.184 7.450 1.977 1991
-1.254 7.888 2.061 1998
-1.186 7.463 1.957 1268
-1.256 7.902 2.040 1974
-1.360 8.555 2.198 1217
-1.256 7.899 2.015 1942
-1.322 8.318 2.115 1649
-1.324 8.331 2.092 1891
-1.347 8.476 2.127 1444
-1.373 8.642 2.139 1550
-1.326 8.344 2.070 1297
-1.366 8.594 2.101 1705
-1.389 8.739 2.134 906
-1.364 8.584 2.072 1683
-1.414 8.897 2.143 1111
-1.366 8.597 2.049 916
-1.530 9.628 2.279 872
-1.507 9.481 2.217 1405
-1.531 9.634 2.251 1167
-1.508 9.487 2.189 1700
-1.531 9.633 2.221 1534
-1.534 9.654 2.196 2487
-1.511 9.509 2.165 1501
-1.537 9.667 2.169 2800
-1.513 9.522 2.138 1101
-1.537 9.673 2.141 1569
-1.619 10.186 2.247 1494
-1.620 10.192 2.217 2174
-1.643 10.338 2.247 1314
-1.621 10.198 2.187 2275
-1.551 9.761 2.099 1113
-1.622 10.204 2.157 1778
-1.684 10.596 2.235 1280
-1.689 10.625 2.209 1211
-1.623 10.210 2.127 1157
-1.685 10.600 2.171 1237
-1.874 11.790 2.401 1117
-1.720 10.821 2.181 1546
-1.874 11.789 2.365 1493
-1.724 10.850 2.153 1886
-1.875 11.795 2.330 1736
-1.877 11.809 2.296 1630
-1.838 11.563 2.251 1333
-1.877 11.808 2.260 1403
-1.913 12.039 2.302 985
-1.876 11.806 2.224 1074
-1.916 12.053 2.268 904
-1.985 12.490 2.308 1105
-1.917 12.059 2.232 846
-2.131 13.406 2.427 1315
-1.982 12.473 2.267 1027
-2.134 13.428 2.390 1428
-2.018 12.695 2.266 1109
-2.083 13.103 2.295 1026
-2.134 13.427 2.349 987
-2.085 13.117 2.258 1080
-2.133 13.418 2.307 842
-2.132 13.416 2.266 909
-2.086 13.123 2.219 834
-0.362 2.309 1.821 1688
-0.368 2.351 1.842 5802
-0.350 2.231 1.753 1972
-0.370 2.363 1.840 9676
-0.351 2.242 1.751 2081
-0.372 2.374 1.838 8320
-0.391 2.494 1.926 1749
-0.374 2.385 1.835 7373
-0.393 2.506 1.923 2312
-0.374 2.390 1.829 5992
-0.393 2.511 1.916 2312
-0.387 2.471 1.877 6329
-0.368 2.350 1.790 2149
-0.389 2.483 1.874 6912
-0.370 2.361 1.787 2659
-0.390 2.488 1.867 8550
-0.371 2.366 1.781 1865
-0.392 2.499 1.864 10246
-0.372 2.377 1.778 1656
-0.394 2.517 1.866 8178
-0.375 2.395 1.780 2477
-0.383 2.445 1.805 7238
-0.402 2.567 1.890 4284
-0.399 2.546 1.865 8509
-0.380 2.423 1.780 2909
-0.401 2.558 1.862 10916
-0.381 2.435 1.777 2120
-0.401 2.563 1.854 10916
-0.382 2.439 1.770 2108
-0.402 2.567 1.847 13847
-0.383 2.444 1.763 1676
-0.402 2.566 1.835 16636
-0.421 2.690 1.919 1172
-0.403 2.571 1.828 17137
-0.422 2.695 1.911 1660
-0.404 2.576 1.820 17496
-0.423 2.700 1.903 2210
-0.406 2.594 1.822 15155
-0.426 2.718 1.904 4005
-0.408 2.605 1.818 14148
-0.428 2.730 1.900 5968
-0.409 2.610 1.811 10570
-0.428 2.735 1.892 6532
-0.426 2.720 1.872 7740
-0.407 2.595 1.790 6291
-0.427 2.725 1.864 7194
-0.407 2.600 1.783 5560
-0.415 2.651 1.805 7970
-0.435 2.776 1.886 4112
-0.429 2.741 1.852 6974
-0.410 2.616 1.772 4412
-0.430 2.746 1.844 7327
-0.411 2.620 1.764 3250
-0.430 2.745 1.832 6370
-0.450 2.871 1.911 2252
-0.423 2.703 1.795 7048
-0.446 2.849 1.886 3895
-0.430 2.748 1.812 8064
-0.450 2.874 1.891 3435
-0.434 2.773 1.816 10790
-0.454 2.899 1.895 2717
-0.436 2.784 1.812 9600
-0.456 2.911 1.890 3090
-0.439 2.802 1.813 8978
-0.459 2.930 1.890 2932
-0.442 2.821 1.812 8170
-0.462 2.948 1.890 2370
-0.451 2.879 1.837 11688
-0.431 2.751 1.760 1527
-0.452 2.884 1.828 13352
-0.432 2.756 1.752 1504
-0.453 2.889 1.820 14694
-0.473 3.017 1.896 1516
-0.454 2.900 1.815 13540
-0.475 3.029 1.891 1806
-0.454 2.899 1.803 12487
-0.474 3.027 1.878 3482
-0.454 2.897 1.791 12637
-0.474 3.025 1.866 4994
-0.455 2.901 1.782 11069
-0.475 3.030 1.857 6427
-0.456 2.913 1.778 9591
-0.477 3.042 1.852 7059
-0.474 3.027 1.831 8691
-0.454 2.897 1.758 6116
-0.475 3.031 1.823 7633
-0.455 2.902 1.749 2700
-0.471 3.009 1.798 5706
-0.492 3.139 1.871 2410
-0.485 3.096 1.836 5261
-0.505 3.226 1.908 2930
-0.487 3.108 1.830 7168
-0.507 3.238 1.903 3840
-0.490 3.126 1.829 6705
-0.510 3.257 1.901 2964
-0.491 3.131 1.820 5982
-0.529 3.379 1.955 2859
-0.488 3.115 1.799 5881
-0.509 3.246 1.870 3201
-0.490 3.127 1.794 5840
-0.510 3.258 1.865 2791
-0.492 3.139 1.789 5806
-0.526 3.360 1.907 3382
-0.492 3.143 1.780 4594
-0.528 3.372 1.901 3936
-0.528 3.370 1.887 4228
-0.494 3.155 1.774 3366
-0.526 3.354 1.867 4536
-0.498 3.181 1.776 3382
-0.545 3.478 1.918 5003
-0.522 3.331 1.843 4407
-0.548 3.497 1.916 9353
-0.522 3.329 1.829 3878
-0.550 3.509 1.909 11129
-0.529 3.376 1.841 3902
-0.552 3.521 1.902 9127
-0.531 3.388 1.835 3544
-0.556 3.547 1.903 7182
-0.522 3.330 1.793 4173
-0.558 3.559 1.896 5873
-0.522 3.335 1.783 3484
-0.569 3.634 1.920 5490
-0.542 3.459 1.833 3083
-0.569 3.632 1.906 8543
-0.543 3.464 1.823 2881
-0.569 3.630 1.892 8947
-0.548 3.497 1.827 3748
-0.568 3.628 1.878 7836
-0.547 3.494 1.813 4051
-0.570 3.640 1.871 7105
-0.600 3.831 1.963 4472
-0.572 3.652 1.864 7144
-0.600 3.829 1.948 5591
-0.600 3.827 1.934 6022
-0.573 3.657 1.853 5503
-0.602 3.840 1.926 6114
-0.575 3.669 1.846 3594
-0.605 3.859 1.922 6702
-0.583 3.724 1.858 3420
-0.606 3.871 1.914 7766
-0.585 3.736 1.851 2869
-0.608 3.883 1.906 6940
-0.587 3.748 1.843 2742
-0.609 3.888 1.894 5965
-0.588 3.753 1.832 1989
-0.604 3.858 1.867 5776
-0.626 3.993 1.928 2865
-0.605 3.863 1.856 4927
-0.639 4.077 1.952 3250
-0.642 4.097 1.947 4301
-0.606 3.868 1.844 3314
-0.645 4.116 1.941 4568
-0.619 3.951 1.868 2832
-0.649 4.143 1.938 5394
-0.620 3.956 1.856 2837
-0.651 4.155 1.929 5818
-0.616 3.933 1.832 1754
-0.653 4.168 1.920 5424
-0.616 3.930 1.818 1535
-0.659 4.209 1.924 5791
-0.638 4.072 1.865 2585
-0.660 4.214 1.911 6264
-0.639 4.077 1.853 1856
-0.655 4.183 1.884 7817
-0.677 4.320 1.942 2475
-0.661 4.217 1.884 8579
-0.687 4.383 1.953 3085
-0.660 4.214 1.868 7050
-0.684 4.366 1.932 4327
-0.660 4.212 1.853 6124
-0.684 4.364 1.916 4002
-0.663 4.232 1.847 5758
-0.700 4.471 1.945 4918
-0.698 4.454 1.923 6264
-0.665 4.244 1.837 3177
-0.701 4.474 1.916 5295
-0.676 4.314 1.851 2024
-0.703 4.486 1.905 3935
-0.681 4.348 1.850 1777
-0.715 4.564 1.921 2894
-0.684 4.368 1.843 1849
-0.708 4.518 1.888 3595
-0.684 4.365 1.828 1596
-0.710 4.531 1.877 3918
-0.688 4.392 1.823 1184
-0.723 4.616 1.895 3243
-0.701 4.477 1.842 1199
-0.724 4.621 1.882 4409
-0.702 4.482 1.828 1463
-0.726 4.634 1.871 4373
-0.748 4.773 1.923 1580
-0.732 4.675 1.871 5070
-0.711 4.536 1.819 1878
-0.721 4.599 1.827 6350
-0.750 4.790 1.898 3800
-0.725 4.626 1.822 6153
-0.751 4.795 1.884 4893
-0.751 4.793 1.867 4983
-0.728 4.646 1.814 3402
-0.747 4.768 1.843 6326
-0.776 4.953 1.909 2661
-0.750 4.788 1.834 5648
-0.772 4.928 1.884 2877
-0.776 4.955 1.878 4393
-0.753 4.808 1.825 4204
-0.776 4.953 1.861 6848
-0.798 5.093 1.910 2666
-0.778 4.965 1.849 6335
-0.800 5.106 1.898 2878
-0.796 5.081 1.872 5144
-0.774 4.941 1.824 2494
-0.795 5.071 1.853 4292
-0.817 5.212 1.901 1890
-0.780 4.980 1.805 2187
-0.806 5.143 1.860 2158
-0.846 5.401 1.930 2691
-0.811 5.178 1.855 2466
-0.818 5.220 1.852 2481
-0.847 5.406 1.914 2311
-0.826 5.269 1.852 2289
-0.864 5.515 1.932 1992
-0.826 5.274 1.836 2045
-0.868 5.542 1.923 2030
-0.850 5.428 1.869 2868
-0.873 5.570 1.914 1925
-0.851 5.433 1.853 3419
-0.878 5.605 1.908 2299
-0.853 5.446 1.839 2579
-0.884 5.640 1.901 2255
-0.894 5.705 1.903 2189
-0.925 5.906 1.966 1750
-0.927 5.919 1.951 2566
-0.896 5.717 1.888 2228
-0.916 5.850 1.910 2409
-0.894 5.707 1.867 1858
-0.944 6.027 1.945 2022
-0.922 5.885 1.902 1623
-0.943 6.017 1.923 2364
-0.905 5.777 1.851 1033
-0.932 5.947 1.883 1880
-0.954 6.090 1.926 1680
-0.955 6.095 1.908 2077
-1.002 6.396 1.996 1732
-0.985 6.288 1.944 2550
-1.008 6.431 1.986 1827
-0.985 6.286 1.924 3206
-1.007 6.429 1.965 1888
-0.958 6.118 1.856 2133
-0.983 6.276 1.901 2005
-1.057 6.748 2.013 2063
-0.960 6.130 1.840 2046
-1.043 6.655 1.967 1945
-1.065 6.799 2.006 1911
-1.044 6.661 1.947 3138
-1.068 6.819 1.990 2542
-1.068 6.817 1.968 3391
-1.046 6.673 1.930 3022
-1.068 6.815 1.946 2957
-1.045 6.671 1.908 1707
-1.110 7.085 1.996 2102
-1.162 7.418 2.084 1785
-1.111 7.090 1.975 2860
-1.143 7.295 2.029 1812
-1.112 7.095 1.955 2047
-1.166 7.444 2.045 1973
-1.167 7.449 2.023 1793
-1.111 7.093 1.932 1325
-1.232 7.865 2.104 1923
-1.168 7.455 2.001 1721
-1.234 7.878 2.083 2359
-1.168 7.453 1.977 1783
-1.236 7.891 2.061 1499
-1.301 8.302 2.162 1382
-1.238 7.904 2.040 1611
-1.300 8.300 2.136 1300
-1.302 8.313 2.113 1696
-1.238 7.902 2.015 1673
-1.325 8.456 2.121 1866
-1.302 8.311 2.087 1495
-1.356 8.652 2.141 1433
-1.308 8.347 2.070 1179
-1.344 8.582 2.098 1687
-1.396 8.910 2.173 1093
-1.345 8.587 2.072 1706
-1.394 8.900 2.143 1482
-1.414 9.028 2.144 1015
-1.347 8.600 2.049 874
-1.488 9.500 2.221 1149
-1.511 9.645 2.253 1018
-1.488 9.498 2.191 1419
-1.465 9.353 2.159 1325
-1.514 9.665 2.198 2187
-1.491 9.520 2.166 1401
-1.516 9.679 2.171 2679
-1.594 10.176 2.276 1337
-1.595 10.182 2.246 1642
-1.515 9.669 2.139 1426
-1.596 10.188 2.216 2186
-1.649 10.526 2.285 1410
-1.598 10.202 2.187 2355
