1.371 2.326 1.762 9250
1.436 2.437 1.841 2287
1.377 2.336 1.759 7685
1.442 2.447 1.837 2044
1.424 2.416 1.804 6155
1.359 2.305 1.726 2545
1.430 2.426 1.800 7775
1.364 2.315 1.723 1206
1.422 2.413 1.780 9267
1.488 2.524 1.857 1080
1.421 2.411 1.768 11237
1.487 2.522 1.845 1819
1.427 2.421 1.764 9477
1.493 2.533 1.840 2054
1.433 2.431 1.760 6220
1.499 2.543 1.836 2260
1.435 2.435 1.752 4323
1.501 2.547 1.827 1899
1.441 2.445 1.748 4361
1.521 2.581 1.839 3140
1.527 2.591 1.834 4761
1.443 2.449 1.740 4418
1.526 2.589 1.822 6089
1.446 2.453 1.731 3554
1.525 2.587 1.809 7626
1.441 2.445 1.715 2746
1.524 2.586 1.797 6522
1.447 2.455 1.711 2588
1.505 2.554 1.765 4982
1.439 2.441 1.691 1266
1.529 2.594 1.779 3661
1.462 2.481 1.706 1620
1.538 2.610 1.778 4573
1.605 2.724 1.851 2134
1.544 2.620 1.773 5793
1.611 2.734 1.846 2334
1.575 2.672 1.795 6029
1.508 2.558 1.723 2231
1.581 2.682 1.790 8528
1.514 2.568 1.718 2361
1.583 2.687 1.781 8472
1.516 2.572 1.710 1800
1.582 2.685 1.768 8472
1.515 2.570 1.697 1094
1.581 2.683 1.755 8177
1.649 2.797 1.826 1710
1.580 2.681 1.743 7515
1.648 2.795 1.813 2400
1.586 2.691 1.738 5159
1.654 2.806 1.807 3574
1.653 2.804 1.794 4983
1.585 2.689 1.725 2231
1.655 2.808 1.785 5079
1.587 2.693 1.716 1733
1.657 2.812 1.775 6002
1.725 2.928 1.844 1744
1.649 2.798 1.755 7182
1.735 2.944 1.841 2536
1.651 2.802 1.746 7452
1.734 2.942 1.828 3939
1.657 2.812 1.740 7334
1.740 2.952 1.821 5227
1.696 2.877 1.766 9057
1.764 2.993 1.833 5996
1.691 2.869 1.749 11293
1.760 2.985 1.816 8045
1.697 2.879 1.743 9104
1.766 2.996 1.809 7288
1.699 2.883 1.734 6117
1.768 3.000 1.799 6017
1.749 2.967 1.768 5479
1.818 3.084 1.834 3487
1.751 2.971 1.759 5423
1.820 3.088 1.823 4145
1.768 3.000 1.762 5374
1.837 3.117 1.827 3550
1.821 3.090 1.799 7493
1.741 2.955 1.725 3412
1.824 3.095 1.789 10076
1.740 2.952 1.712 2383
1.826 3.099 1.779 10166
1.746 2.963 1.706 2565
1.832 3.109 1.772 10568
1.752 2.973 1.699 1985
1.839 3.119 1.764 11125
1.908 3.237 1.827 2185
1.841 3.123 1.754 7804
1.911 3.242 1.816 2616
1.880 3.190 1.776 5432
1.810 3.072 1.714 1873
1.879 3.188 1.762 4508
1.949 3.306 1.823 1630
1.881 3.192 1.752 3640
1.955 3.316 1.815 2061
1.931 3.277 1.782 4133
1.861 3.158 1.722 1607
1.937 3.287 1.774 5539
2.015 3.419 1.841 2971
1.962 3.329 1.782 5868
2.032 3.448 1.842 3307
2.016 3.421 1.815 5711
1.946 3.302 1.755 4447
2.019 3.425 1.803 5527
1.948 3.306 1.744 4898
2.025 3.436 1.795 4411
1.951 3.310 1.733 4080
2.024 3.433 1.780 4551
1.953 3.314 1.722 2800
2.033 3.450 1.775 7375
2.115 3.589 1.841 3145
2.040 3.461 1.766 9250
2.110 3.580 1.823 3536
2.042 3.465 1.755 6301
2.113 3.585 1.811 5198
2.104 3.570 1.791 5832
2.033 3.450 1.734 2800
2.080 3.530 1.758 6638
2.159 3.663 1.820 3797
2.072 3.515 1.737 5579
2.142 3.635 1.793 4380
2.089 3.544 1.737 3758
2.160 3.665 1.792 2665
2.140 3.631 1.763 3447
2.222 3.770 1.826 1836
2.150 3.647 1.756 4026
2.225 3.775 1.813 2360
2.182 3.702 1.767 3934
2.253 3.823 1.821 1900
2.226 3.777 1.785 4863
2.331 3.955 1.864 2068
2.228 3.781 1.773 5210
2.326 3.947 1.845 3933
2.329 3.951 1.832 5447
2.246 3.810 1.771 3613
2.327 3.949 1.816 5583
2.256 3.827 1.764 2219
2.322 3.940 1.797 5817
2.405 4.081 1.857 2162
2.325 3.944 1.784 4866
2.397 4.066 1.836 2207
2.327 3.949 1.771 2903
2.452 4.160 1.859 2484
2.326 3.946 1.755 3102
2.477 4.203 1.861 2512
2.381 4.040 1.779 3691
2.495 4.233 1.858 3208
2.425 4.115 1.794 4806
2.505 4.250 1.849 3337
2.439 4.139 1.788 4863
2.515 4.268 1.840 3110
2.556 4.336 1.851 3859
2.449 4.156 1.779 3727
2.562 4.347 1.839 3956
2.436 4.134 1.755 2771
2.553 4.332 1.817 4936
2.481 4.209 1.769 3312
2.556 4.336 1.803 6899
2.483 4.213 1.755 2113
2.566 4.353 1.793 5244
2.638 4.476 1.840 1700
2.576 4.370 1.783 4128
2.648 4.493 1.830 2329
2.582 4.381 1.771 4148
2.655 4.504 1.818 2094
2.611 4.430 1.773 2611
2.688 4.560 1.822 1652
2.625 4.454 1.766 3208
2.763 4.688 1.852 2608
2.762 4.686 1.834 3744
2.639 4.478 1.758 2258
2.764 4.690 1.818 3433
2.645 4.488 1.745 1518
2.813 4.772 1.830 3431
2.740 4.649 1.786 1718
2.831 4.803 1.824 4062
2.758 4.679 1.780 1796
2.829 4.800 1.805 3230
2.902 4.925 1.849 2053
2.828 4.798 1.787 2927
2.901 4.922 1.830 2618
2.919 4.953 1.822 2559
2.834 4.809 1.773 2510
2.879 4.885 1.781 3043
2.972 5.042 1.835 2298
2.881 4.889 1.765 2860
2.974 5.046 1.818 1423
3.066 5.201 1.851 1947
2.907 4.932 1.761 1473
3.068 5.206 1.833 3755
2.995 5.081 1.792 2093
3.071 5.210 1.816 2999
3.144 5.335 1.856 1950
3.135 5.319 1.832 2433
3.007 5.102 1.762 1895
3.231 5.481 1.864 2330
3.157 5.356 1.825 2119
3.241 5.499 1.850 4434
3.163 5.367 1.809 2693
3.247 5.510 1.833 4230
3.333 5.655 1.878 2618
3.405 5.778 1.896 3046
3.324 5.639 1.853 2917
3.404 5.775 1.874 3478
3.318 5.630 1.830 3132
3.414 5.793 1.859 3129
3.309 5.615 1.806 2197
3.421 5.804 1.841 3065
3.503 5.943 1.882 2768
3.509 5.954 1.864 2748
3.349 5.682 1.785 1931
3.508 5.951 1.842 2049
3.687 6.256 1.930 1753
3.635 6.168 1.883 1954
3.506 5.949 1.820 1605
3.587 6.086 1.838 1703
3.685 6.251 1.884 1689
3.683 6.249 1.861 1876
3.863 6.554 1.946 1619
4.038 6.851 2.004 2065
3.877 6.579 1.930 1799
4.037 6.849 1.979 3225
3.829 6.497 1.884 1765
4.035 6.847 1.954 2761
3.902 6.621 1.894 1874
4.038 6.851 1.931 1658
3.897 6.612 1.868 1341
4.260 7.229 2.005 1397
3.986 6.763 1.884 1301
4.271 7.247 1.984 1644
4.185 7.100 1.947 1393
4.557 7.731 2.081 1488
4.266 7.238 1.956 1396
4.559 7.736 2.055 2247
4.485 7.609 2.023 1634
4.519 7.667 2.011 2543
4.594 7.794 2.042 1748
4.526 7.679 1.987 2108
4.600 7.805 2.017 1645
4.654 7.897 2.012 2379
4.757 8.071 2.053 1863
4.657 7.902 1.985 2773
4.756 8.069 2.024 2227
4.660 7.906 1.958 3040
4.762 8.080 1.999 2285
4.832 8.199 1.997 3438
4.663 7.911 1.932 2397
4.835 8.203 1.970 3231
4.760 8.076 1.941 1961
4.834 8.201 1.941 2295
5.051 8.570 2.022 1855
5.054 8.574 1.993 1689
4.777 8.105 1.891 1575
5.060 8.586 1.966 1375
5.554 9.424 2.145 1325
5.431 9.214 2.068 1762
5.549 9.416 2.110 1621
5.754 9.763 2.149 2018
5.663 9.609 2.117 1519
5.765 9.781 2.119 2208
5.840 9.909 2.145 1970
5.839 9.907 2.110 2831
5.764 9.780 2.085 1901
5.838 9.906 2.075 3654
5.763 9.778 2.050 2720
5.778 9.803 2.021 4146
5.853 9.931 2.046 2894
5.780 9.807 1.988 3127
5.856 9.935 2.012 2689
5.855 9.933 1.978 3573
5.779 9.805 1.954 1961
5.857 9.938 1.944 3202
5.782 9.810 1.921 1675
5.860 9.942 1.911 1814
6.710 11.385 2.169 1146
5.862 9.947 1.877 1375
6.296 10.682 2.006 1199
5.869 9.958 1.845 1250
7.114 12.070 2.208 1210
7.133 12.102 2.172 1389
6.715 11.393 2.052 1003
7.132 12.100 2.130 1348
6.722 11.405 2.015 946
7.119 12.078 2.084 1042
6.724 11.409 1.976 830
1.181 1.994 1.807 2899
1.183 1.998 1.800 5798
1.122 1.894 1.711 772
1.186 2.002 1.793 5798
0.866 1.463 1.337 891
1.218 2.056 1.828 7466
1.156 1.951 1.740 3432
1.217 2.055 1.817 9592
1.155 1.950 1.729 2538
1.220 2.059 1.810 7626
1.157 1.954 1.723 1729
1.252 2.113 1.845 6521
0.873 1.475 1.318 1647
1.254 2.118 1.838 6521
0.868 1.466 1.304 1459
1.260 2.128 1.835 7124
1.197 2.022 1.749 1526
1.266 2.137 1.833 8287
1.203 2.031 1.747 1954
1.268 2.142 1.825 7917
1.205 2.035 1.740 1559
1.271 2.146 1.818 7547
1.208 2.039 1.733 1164
1.270 2.144 1.807 5552
1.333 2.251 1.892 1074
1.299 2.194 1.835 4260
1.236 2.087 1.751 1304
1.302 2.198 1.828 4260
1.238 2.091 1.744 1163
1.304 2.202 1.821 5508
1.241 2.095 1.737 1023
1.307 2.206 1.813 6765
1.243 2.099 1.730 1181
1.306 2.205 1.802 8201
1.242 2.097 1.718 1080
1.305 2.203 1.790 9704
1.369 2.311 1.873 1482
1.307 2.207 1.783 10390
1.371 2.316 1.865 2390
1.313 2.217 1.779 11125
1.377 2.326 1.861 3039
1.319 2.227 1.776 10962
1.383 2.336 1.858 3400
1.321 2.231 1.769 10940
1.386 2.340 1.850 4101
1.327 2.241 1.766 7884
1.392 2.350 1.847 3895
1.371 2.314 1.809 5749
1.306 2.205 1.729 2199
1.373 2.318 1.802 6777
1.308 2.209 1.721 1627
1.375 2.323 1.794 7806
1.440 2.432 1.874 1193
1.371 2.315 1.778 8545
1.436 2.425 1.857 2255
1.370 2.313 1.766 10135
1.435 2.424 1.845 3017
1.376 2.323 1.762 8484
1.441 2.434 1.841 2389
1.382 2.333 1.759 7058
1.447 2.444 1.837 2084
1.429 2.413 1.804 6513
1.364 2.302 1.726 2225
1.435 2.423 1.800 8114
1.369 2.312 1.723 1151
1.427 2.410 1.780 9664
1.493 2.521 1.857 1095
1.430 2.414 1.772 11679
1.495 2.525 1.849 1410
1.432 2.418 1.764 10047
1.498 2.529 1.840 1929
1.438 2.428 1.760 6673
1.504 2.539 1.836 2046
1.430 2.414 1.740 4813
1.496 2.526 1.815 2458
1.443 2.436 1.744 4330
1.526 2.577 1.839 2828
1.529 2.582 1.830 4458
1.445 2.440 1.736 4107
1.528 2.580 1.818 5789
1.447 2.444 1.727 3510
1.527 2.578 1.805 7250
1.450 2.448 1.719 2913
1.526 2.577 1.793 6318
1.456 2.458 1.715 2776
1.511 2.551 1.765 5349
1.444 2.438 1.691 1330
1.513 2.555 1.756 3849
1.591 2.686 1.841 1107
1.544 2.607 1.778 4361
1.611 2.720 1.851 2046
1.550 2.617 1.773 5406
1.617 2.730 1.846 2131
1.570 2.651 1.784 5671
1.503 2.537 1.712 2148
1.583 2.673 1.786 7409
1.516 2.559 1.715 2042
1.589 2.683 1.781 6984
1.521 2.569 1.710 1814
1.588 2.681 1.768 6955
1.520 2.567 1.697 1115
1.587 2.679 1.755 7031
1.655 2.794 1.826 1585
1.586 2.677 1.743 6801
1.653 2.792 1.813 2375
1.588 2.681 1.734 4613
1.656 2.796 1.803 3884
1.658 2.800 1.794 4981
1.590 2.685 1.725 1968
1.661 2.804 1.785 4817
1.593 2.689 1.716 1511
1.656 2.796 1.768 5261
1.735 2.930 1.847 1679
1.655 2.794 1.755 6632
1.745 2.946 1.845 2539
1.657 2.798 1.746 7020
1.740 2.938 1.828 3852
1.663 2.809 1.740 7091
1.746 2.949 1.821 5216
1.698 2.868 1.762 9615
1.767 2.984 1.829 6612
1.697 2.866 1.749 12552
1.766 2.982 1.816 8048
1.699 2.870 1.740 9984
1.768 2.986 1.806 7271
1.709 2.886 1.737 6791
1.778 3.002 1.803 5687
1.748 2.951 1.762 5714
1.817 3.068 1.827 3625
1.754 2.961 1.755 5502
1.823 3.078 1.820 3697
1.756 2.965 1.745 5215
1.826 3.082 1.810 4364
1.824 3.080 1.796 7681
1.748 2.951 1.725 3502
1.830 3.091 1.789 10470
1.746 2.949 1.712 2289
1.833 3.095 1.779 10309
1.756 2.965 1.709 2491
1.839 3.105 1.772 10213
1.758 2.969 1.699 2010
1.849 3.122 1.768 10433
1.919 3.239 1.830 2350
1.848 3.120 1.754 7240
1.917 3.238 1.816 2609
1.883 3.180 1.773 5314
1.813 3.061 1.711 1471
1.882 3.177 1.759 4236
1.952 3.296 1.820 1501
1.892 3.194 1.755 3449
1.962 3.312 1.815 1909
1.942 3.279 1.785 4070
2.012 3.398 1.846 1432
1.967 3.321 1.793 5686
2.037 3.439 1.853 2750
1.973 3.331 1.785 6313
2.043 3.450 1.845 2804
2.023 3.417 1.815 6009
1.953 3.298 1.755 3934
2.026 3.421 1.803 5743
1.955 3.302 1.744 4072
2.032 3.431 1.795 4414
1.958 3.306 1.733 3613
2.064 3.486 1.808 4316
1.956 3.303 1.719 2495
2.048 3.458 1.781 6966
2.123 3.584 1.841 2820
2.047 3.456 1.766 8918
2.118 3.576 1.823 3203
2.049 3.460 1.755 6205
2.120 3.580 1.811 4988
2.104 3.553 1.785 6082
2.175 3.673 1.841 2693
2.092 3.532 1.761 6900
2.163 3.652 1.817 4079
2.086 3.523 1.743 5521
2.158 3.643 1.799 4512
2.096 3.540 1.737 3844
2.168 3.660 1.792 3028
2.148 3.626 1.763 3766
2.241 3.785 1.835 1841
2.157 3.643 1.756 5358
2.233 3.770 1.813 2409
2.186 3.692 1.764 4696
2.258 3.812 1.818 2128
2.230 3.766 1.783 4995
2.302 3.887 1.836 2089
2.233 3.770 1.770 4990
2.334 3.942 1.845 3759
2.337 3.946 1.832 5535
2.250 3.799 1.768 3261
2.343 3.957 1.822 5803
2.268 3.829 1.767 2031
2.331 3.935 1.797 5564
2.410 4.070 1.855 2263
2.329 3.933 1.781 4894
2.401 4.055 1.833 2874
2.332 3.937 1.768 3372
2.461 4.155 1.859 2285
2.334 3.941 1.755 3610
2.460 4.153 1.843 2107
2.390 4.035 1.779 3340
2.462 4.157 1.829 2547
2.434 4.110 1.794 4181
2.510 4.239 1.846 2778
2.452 4.140 1.791 4356
2.524 4.262 1.840 2450
2.454 4.144 1.777 3618
2.569 4.337 1.854 3582
2.571 4.342 1.839 3874
2.449 4.135 1.758 3206
2.562 4.326 1.817 5049
2.448 4.133 1.741 3048
2.565 4.331 1.803 6950
2.492 4.208 1.755 1783
2.571 4.341 1.791 5281
2.648 4.471 1.840 1709
2.585 4.365 1.783 3948
2.658 4.488 1.830 1984
2.595 4.382 1.774 4319
2.680 4.524 1.827 2011
2.617 4.418 1.771 2798
2.690 4.542 1.817 1757
2.635 4.448 1.766 3451
2.773 4.682 1.852 2490
2.768 4.673 1.832 3714
2.652 4.479 1.760 2650
2.770 4.678 1.816 3807
2.655 4.483 1.745 1724
2.773 4.682 1.800 3373
2.846 4.806 1.844 2401
2.841 4.797 1.824 3808
2.768 4.673 1.780 2682
2.836 4.788 1.803 3095
2.762 4.664 1.759 2104
2.838 4.792 1.787 2557
2.923 4.936 1.837 1914
2.933 4.953 1.825 2337
3.015 5.090 1.872 2217
2.886 4.872 1.779 2946
2.971 5.016 1.828 2271
2.888 4.876 1.763 2675
2.981 5.033 1.815 1714
3.077 5.195 1.851 2022
3.003 5.070 1.809 1569
3.083 5.206 1.835 3630
3.009 5.081 1.794 2227
3.085 5.210 1.818 2717
3.012 5.085 1.777 1861
3.146 5.313 1.832 2557
3.014 5.089 1.760 2072
3.238 5.468 1.862 2768
3.149 5.317 1.814 2340
3.252 5.492 1.850 4655
3.175 5.360 1.809 2810
3.255 5.496 1.831 4423
3.349 5.654 1.880 2523
3.417 5.770 1.896 3073
3.336 5.632 1.853 2847
3.420 5.775 1.876 3527
3.330 5.623 1.830 3179
3.427 5.786 1.859 3155
3.317 5.601 1.804 2238
3.519 5.942 1.884 2970
3.433 5.797 1.841 2871
3.522 5.946 1.864 3129
3.361 5.675 1.785 2019
3.524 5.951 1.844 2301
3.700 6.248 1.930 1716
3.695 6.239 1.905 1922
3.515 5.935 1.819 1835
3.702 6.250 1.886 1890
3.823 6.456 1.944 1738
3.696 6.241 1.861 1913
3.975 6.712 1.992 1508
4.052 6.842 2.004 1893
3.891 6.571 1.930 1624
4.055 6.847 1.981 2846
3.910 6.602 1.915 1642
4.054 6.845 1.956 2356
3.916 6.613 1.894 1839
4.049 6.836 1.930 1533
4.269 7.208 2.028 1452
4.276 7.220 2.005 1427
4.000 6.754 1.884 1200
4.282 7.231 1.982 1684
4.192 7.078 1.943 1274
4.281 7.229 1.956 1471
4.573 7.721 2.081 1409
4.576 7.726 2.055 1996
4.501 7.600 2.023 1591
4.535 7.658 2.011 2440
4.610 7.784 2.042 1679
4.601 7.769 2.011 1963
4.526 7.642 1.980 1555
4.671 7.887 2.012 2519
4.774 8.061 2.053 1835
4.674 7.892 1.985 3040
4.777 8.065 2.026 2255
4.677 7.896 1.958 3296
4.779 8.070 1.999 2413
4.849 8.188 1.997 3783
4.679 7.901 1.932 2700
4.852 8.193 1.970 3549
4.678 7.899 1.904 2173
4.851 8.191 1.941 2406
4.776 8.064 1.912 1793
4.794 8.095 1.891 1604
5.072 8.564 1.993 1401
5.574 9.412 2.145 1450
5.376 9.077 2.073 1415
5.450 9.203 2.068 1744
5.569 9.404 2.110 1569
5.775 9.751 2.149 2367
5.453 9.208 2.037 1437
5.786 9.769 2.119 2463
5.861 9.897 2.145 1725
5.856 9.888 2.109 2539
5.781 9.761 2.083 1860
5.795 9.786 2.054 3361
5.871 9.913 2.079 3000
5.798 9.791 2.021 4644
5.874 9.918 2.046 2727
5.801 9.795 1.988 3542
5.877 9.923 2.012 2563
5.875 9.921 1.978 3327
5.800 9.793 1.954 2232
5.878 9.925 1.944 2888
5.802 9.798 1.921 1858
5.881 9.930 1.911 1641
5.801 9.795 1.886 1321
5.883 9.934 1.877 1329
6.318 10.669 2.006 1198
5.890 9.945 1.845 1249
7.139 12.054 2.208 1169
7.154 12.080 2.170 1259
7.230 12.208 2.192 917
7.153 12.078 2.129 1212
7.148 12.070 2.085 958
1.187 1.991 1.807 2945
0.870 1.460 1.351 1093
1.189 1.995 1.800 5891
0.872 1.463 1.346 1093
1.192 1.999 1.793 5891
1.254 2.104 1.882 917
1.224 2.053 1.828 7262
1.161 1.948 1.740 3360
1.223 2.052 1.817 9299
1.160 1.947 1.729 2561
1.222 2.050 1.806 7453
1.159 1.945 1.718 1485
1.258 2.110 1.845 6686
1.178 1.977 1.735 1415
1.260 2.114 1.838 6686
1.181 1.981 1.728 1415
1.266 2.124 1.835 7761
1.203 2.018 1.749 1582
1.272 2.134 1.833 9361
1.209 2.028 1.747 2017
1.274 2.138 1.825 8975
1.211 2.032 1.740 1593
1.274 2.137 1.814 8691
1.337 2.243 1.899 1084
1.273 2.135 1.802 6470
1.336 2.242 1.887 1673
1.265 2.122 1.782 4917
1.329 2.229 1.866 3478
1.268 2.127 1.775 4765
1.331 2.234 1.859 3478
1.310 2.198 1.821 5512
1.246 2.091 1.737 1037
1.313 2.203 1.813 6727
1.249 2.095 1.730 1203
1.312 2.201 1.802 7951
1.248 2.093 1.718 1063
1.315 2.205 1.794 9158
1.379 2.313 1.877 1424
1.317 2.209 1.787 10110
1.381 2.318 1.869 2383
1.323 2.219 1.784 11065
1.387 2.328 1.866 2956
1.325 2.223 1.776 11039
1.390 2.332 1.858 3806
1.331 2.233 1.773 11016
1.396 2.342 1.855 4292
1.334 2.237 1.766 8086
1.399 2.346 1.847 4303
1.377 2.310 1.809 6552
1.309 2.195 1.724 1948
1.380 2.314 1.802 7119
1.314 2.205 1.721 1475
1.386 2.324 1.798 7794
1.320 2.215 1.718 1314
1.378 2.311 1.778 7826
1.443 2.421 1.857 2361
1.377 2.310 1.766 8955
1.442 2.420 1.845 3178
1.383 2.319 1.762 7472
1.448 2.430 1.841 2428
1.385 2.323 1.755 6108
1.451 2.434 1.833 2559
1.436 2.409 1.804 6988
1.370 2.298 1.726 1935
1.442 2.419 1.800 8521
1.376 2.308 1.723 1158
1.434 2.406 1.780 10150
1.500 2.517 1.857 1189
1.436 2.410 1.772 12238
1.503 2.521 1.849 1510
1.442 2.420 1.768 10693
1.509 2.531 1.844 1547
1.445 2.424 1.760 7229
1.511 2.535 1.836 1946
1.437 2.410 1.740 5497
1.503 2.522 1.815 2390
1.442 2.420 1.736 4387
1.534 2.573 1.839 2530
1.536 2.577 1.830 4160
1.452 2.436 1.736 3570
1.535 2.576 1.818 5490
1.458 2.446 1.731 3275
1.534 2.574 1.805 7001
1.464 2.456 1.727 3014
1.516 2.543 1.773 6704
1.448 2.430 1.700 2140
1.518 2.547 1.765 5833
1.451 2.434 1.691 1365
1.520 2.551 1.756 4247
1.588 2.664 1.829 1461
1.551 2.602 1.778 3947
1.619 2.716 1.851 1954
1.561 2.618 1.777 4842
1.493 2.505 1.705 2682
1.577 2.646 1.784 5649
1.510 2.533 1.712 2457
1.583 2.657 1.778 6393
1.516 2.543 1.707 1716
1.582 2.655 1.766 5451
1.650 2.769 1.837 1329
1.588 2.665 1.761 5674
1.656 2.779 1.831 1452
1.591 2.669 1.752 6025
1.659 2.783 1.822 1813
1.590 2.667 1.739 6147
1.658 2.781 1.809 2916
1.649 2.767 1.789 4703
1.581 2.653 1.719 4068
1.666 2.796 1.794 5319
1.598 2.681 1.725 1716
1.669 2.800 1.785 4815
1.600 2.685 1.716 1246
1.650 2.767 1.754 4608
1.747 2.931 1.851 1729
1.659 2.784 1.752 5680
1.753 2.941 1.845 2629
1.665 2.794 1.746 5920
1.752 2.940 1.831 3722
1.671 2.804 1.740 6171
1.758 2.950 1.825 5011
1.703 2.857 1.759 9825
1.772 2.972 1.826 6746
1.702 2.855 1.746 12943
1.771 2.971 1.812 7755
1.704 2.859 1.736 10236
1.773 2.975 1.802 6611
1.717 2.881 1.737 6802
1.787 2.997 1.803 5327
1.756 2.946 1.762 6013
1.826 3.063 1.827 3127
1.762 2.956 1.755 5842
1.832 3.073 1.820 3033
1.765 2.960 1.745 5591
1.834 3.077 1.810 3974
1.829 3.069 1.793 8160
1.760 2.952 1.729 3797
1.839 3.086 1.789 10990
1.758 2.950 1.715 2532
1.842 3.090 1.779 10470
1.764 2.960 1.709 2780
1.851 3.106 1.775 10038
1.774 2.976 1.706 2372
1.858 3.116 1.768 9821
1.928 3.234 1.830 2641
1.860 3.121 1.757 6810
1.930 3.238 1.819 2473
1.885 3.162 1.766 5061
1.955 3.280 1.828 1506
1.887 3.166 1.756 4003
2.006 3.365 1.859 1176
1.904 3.195 1.758 3134
2.008 3.369 1.847 1493
1.914 3.211 1.754 3369
1.985 3.330 1.814 2514
1.980 3.321 1.796 5865
2.050 3.440 1.856 2370
1.986 3.332 1.788 7257
2.057 3.450 1.848 2206
2.029 3.405 1.811 6110
1.959 3.286 1.752 3158
2.036 3.415 1.803 5666
1.965 3.296 1.744 3270
2.038 3.419 1.792 4366
1.967 3.300 1.733 3139
2.074 3.480 1.808 4848
1.969 3.304 1.722 2310
2.062 3.459 1.784 6891
2.137 3.585 1.844 2056
2.060 3.457 1.769 8787
2.165 3.633 1.853 2816
2.059 3.454 1.755 6066
2.130 3.574 1.811 5107
2.118 3.553 1.788 5907
2.189 3.673 1.844 2393
2.098 3.519 1.758 6761
2.169 3.639 1.814 4585
2.096 3.517 1.743 5598
2.168 3.637 1.799 4352
2.136 3.584 1.760 4359
2.246 3.768 1.844 1571
2.158 3.620 1.763 4318
2.252 3.778 1.835 2030
2.168 3.637 1.756 6083
2.240 3.757 1.811 2695
2.200 3.692 1.767 5246
2.272 3.812 1.821 2075
2.210 3.708 1.760 5544
2.290 3.842 1.819 2846
2.236 3.751 1.764 4715
2.346 3.935 1.845 3289
2.348 3.939 1.832 5205
2.230 3.742 1.746 2903
2.354 3.950 1.822 6019
2.233 3.746 1.734 2017
2.342 3.929 1.797 5037
2.414 4.050 1.849 2530
2.340 3.926 1.781 4363
2.413 4.048 1.833 3225
2.343 3.931 1.768 3398
2.415 4.052 1.819 2181
2.349 3.941 1.758 3986
2.475 4.152 1.845 1932
2.359 3.958 1.750 4029
2.478 4.157 1.832 2629
2.488 4.174 1.823 3229
2.404 4.033 1.765 3126
2.460 4.127 1.788 4325
2.578 4.326 1.868 2024
2.462 4.131 1.774 4449
2.585 4.336 1.856 3476
2.587 4.341 1.842 3901
2.465 4.135 1.760 3799
2.578 4.326 1.820 5064
2.467 4.139 1.746 3956
2.585 4.336 1.808 7124
2.473 4.149 1.735 2616
2.587 4.340 1.793 5509
2.660 4.463 1.840 1700
2.597 4.358 1.783 3839
2.671 4.480 1.830 1443
2.611 4.381 1.776 4880
2.692 4.517 1.827 1680
2.629 4.411 1.771 3310
2.703 4.534 1.817 1869
2.655 4.454 1.771 3803
2.786 4.674 1.852 2458
2.777 4.659 1.829 3832
2.669 4.478 1.763 3235
2.780 4.663 1.813 4327
2.675 4.488 1.750 2236
2.782 4.668 1.798 4506
2.879 4.830 1.856 2397
2.781 4.665 1.780 4329
2.854 4.789 1.824 3143
2.779 4.663 1.762 3652
2.853 4.786 1.805 2836
2.778 4.660 1.744 3054
2.852 4.784 1.787 2374
3.029 5.082 1.872 2436
2.947 4.945 1.825 2172
2.899 4.864 1.779 2909
2.985 5.008 1.828 2067
2.898 4.862 1.760 2544
2.991 5.018 1.813 1966
3.091 5.186 1.851 2120
3.017 5.062 1.809 1641
3.098 5.197 1.835 3526
3.024 5.073 1.794 1812
3.104 5.208 1.820 2631
3.030 5.083 1.780 1990
3.161 5.304 1.832 3035
3.025 5.074 1.758 2227
3.246 5.446 1.858 3520
3.164 5.308 1.814 2897
3.264 5.476 1.848 4797
3.190 5.351 1.809 3415
3.267 5.480 1.829 4791
3.192 5.356 1.791 2945
3.257 5.465 1.805 3348
3.434 5.761 1.896 2987
3.440 5.772 1.878 3593
3.350 5.620 1.832 2859
3.443 5.776 1.859 3184
3.337 5.598 1.806 2063
3.540 5.938 1.886 3130
3.320 5.569 1.777 2636
3.542 5.943 1.866 3473
3.373 5.659 1.783 2041
3.541 5.941 1.844 2466
3.714 6.231 1.928 1619
3.713 6.229 1.905 2236
3.532 5.925 1.819 2050
3.719 6.240 1.886 2094
3.838 6.438 1.942 1804
3.722 6.244 1.865 1969
3.990 6.694 1.990 1413
3.713 6.229 1.839 1551
4.076 6.837 2.006 1509
4.074 6.836 1.981 2193
3.932 6.597 1.916 1361
4.073 6.833 1.956 1793
3.935 6.602 1.894 1662
4.289 7.196 2.028 1503
3.930 6.593 1.868 1329
4.296 7.207 2.005 1336
4.015 6.736 1.882 1150
4.303 7.219 1.982 1599
4.418 7.411 2.032 1287
4.302 7.217 1.956 1565
4.420 7.416 2.007 1366
4.594 7.707 2.053 1666
4.312 7.235 1.935 1316
4.557 7.645 2.011 2214
4.632 7.771 2.042 1603
4.623 7.756 2.011 1944
4.698 7.882 2.041 1568
4.693 7.874 2.012 2624
4.797 8.047 2.053 1759
4.692 7.872 1.983 3376
4.799 8.052 2.026 2266
4.695 7.877 1.957 3667
4.802 8.057 1.999 2491
4.873 8.175 1.997 4147
4.698 7.881 1.930 3053
4.875 8.179 1.970 3811
4.700 7.885 1.904 2527
4.874 8.177 1.941 2426
4.703 7.890 1.877 1756
4.817 8.081 1.891 1628
5.395 9.051 2.102 1317
5.402 9.062 2.073 1574
5.605 9.403 2.146 1513
5.795 9.723 2.181 1677
5.476 9.187 2.068 1573
5.802 9.734 2.149 2809
5.643 9.467 2.094 1480
5.813 9.753 2.119 2962
5.642 9.465 2.060 1375
5.824 9.771 2.089 2825
5.900 9.899 2.114 1781
5.823 9.769 2.054 3989
5.899 9.897 2.079 2678
5.826 9.774 2.021 5343
5.902 9.902 2.046 2539
5.825 9.772 1.987 4134
5.901 9.900 2.011 2320
5.904 9.904 1.978 2875
5.828 9.777 1.954 2419
5.906 9.909 1.944 2629
5.826 9.774 1.920 1836
5.829 9.779 1.886 1512
5.909 9.913 1.911 1507
5.831 9.783 1.853 1467
6.348 10.651 2.006 1179
7.173 12.034 2.208 1293
7.249 12.162 2.230 1076
7.180 12.046 2.168 1585
7.260 12.181 2.191 923
7.183 12.051 2.127 1474
7.182 12.049 2.085 1084
1.191 1.988 1.807 2628
0.860 1.436 1.332 788
1.193 1.993 1.800 5257
1.131 1.888 1.711 1014
1.196 1.997 1.793 5257
1.133 1.892 1.705 1014
1.228 2.050 1.828 6786
1.165 1.946 1.740 3098
1.227 2.049 1.817 8585
1.164 1.944 1.729 2368
1.226 2.048 1.806 7057
1.163 1.943 1.718 1376
1.262 2.107 1.845 6361
1.199 2.002 1.757 1446
1.264 2.112 1.838 6361
1.201 2.006 1.751 1446
1.270 2.121 1.835 7930
1.207 2.016 1.749 1760
1.276 2.131 1.833 9922
1.213 2.025 1.747 2116
1.279 2.135 1.825 9657
1.215 2.029 1.740 1587
1.278 2.134 1.814 9548
1.341 2.240 1.899 1197
1.277 2.133 1.802 7188
1.341 2.239 1.887 1813
1.269 2.120 1.782 5352
1.333 2.227 1.866 3599
1.272 2.124 1.775 5225
1.336 2.231 1.859 3599
1.315 2.196 1.821 5628
1.251 2.089 1.737 942
1.317 2.200 1.813 6881
1.253 2.093 1.730 1104
1.316 2.199 1.802 7928
1.381 2.306 1.885 1108
1.319 2.203 1.794 8897
1.383 2.311 1.877 1515
1.325 2.213 1.791 9999
1.389 2.321 1.874 2088
1.327 2.217 1.784 11139
1.392 2.325 1.866 2985
1.333 2.226 1.781 11029
1.398 2.335 1.862 3464
1.336 2.231 1.773 10991
1.401 2.339 1.855 4406
1.345 2.246 1.774 7921
1.410 2.355 1.855 3442
1.382 2.308 1.809 7045
1.313 2.193 1.724 1743
1.388 2.318 1.806 7348
1.322 2.208 1.726 1605
1.394 2.327 1.802 7782
1.328 2.218 1.722 1653
1.424 2.378 1.828 7477
1.358 2.268 1.748 4191
1.381 2.307 1.766 7905
1.447 2.417 1.845 3128
1.387 2.317 1.762 6674
1.453 2.427 1.841 2325
1.435 2.396 1.808 5758
1.369 2.286 1.730 1977
1.437 2.400 1.800 7060
1.371 2.290 1.722 1393
1.443 2.410 1.796 8495
1.377 2.300 1.719 1083
1.439 2.403 1.780 10274
1.505 2.514 1.857 1157
1.441 2.407 1.772 12434
1.508 2.518 1.849 1466
1.447 2.417 1.768 11020
1.514 2.528 1.844 1433
1.449 2.421 1.760 7606
1.516 2.532 1.836 1751
1.441 2.407 1.740 5951
1.508 2.519 1.815 2264
1.447 2.417 1.736 4560
1.539 2.570 1.839 2406
1.541 2.574 1.830 3947
1.460 2.439 1.740 3358
1.540 2.573 1.818 5210
1.463 2.443 1.731 3315
1.539 2.571 1.805 6598
1.469 2.453 1.727 3304
1.521 2.540 1.773 6817
1.453 2.427 1.700 2268
1.523 2.544 1.765 6135
1.456 2.431 1.691 1504
1.525 2.548 1.756 4565
1.593 2.661 1.829 1854
1.567 2.617 1.790 3566
1.499 2.504 1.717 2692
1.573 2.627 1.785 4676
1.505 2.514 1.713 2984
1.579 2.637 1.780 5629
1.511 2.524 1.708 2407
1.582 2.641 1.771 6027
1.514 2.528 1.700 1268
1.580 2.640 1.758 5458
1.649 2.753 1.829 1373
1.586 2.650 1.753 5170
1.655 2.764 1.824 1725
1.592 2.660 1.748 5395
1.661 2.774 1.818 1978
1.591 2.658 1.736 5727
1.660 2.772 1.805 3328
1.655 2.764 1.789 4988
1.586 2.650 1.719 4156
1.672 2.792 1.794 5347
1.592 2.660 1.714 1850
1.674 2.796 1.785 4606
1.606 2.682 1.716 1322
1.655 2.764 1.754 4419
1.753 2.928 1.851 1556
1.661 2.774 1.748 4750
1.759 2.938 1.845 2340
1.671 2.790 1.746 5029
1.758 2.936 1.831 3197
1.691 2.825 1.754 5753
1.764 2.946 1.825 4466
1.705 2.847 1.755 10942
1.774 2.963 1.822 6760
1.707 2.851 1.746 14217
1.777 2.967 1.812 7918
1.710 2.855 1.736 11349
1.779 2.971 1.802 6605
1.723 2.878 1.737 7837
1.792 2.994 1.803 4612
1.762 2.943 1.762 6076
1.832 3.059 1.827 2564
1.768 2.953 1.755 6000
1.838 3.069 1.820 2387
1.770 2.957 1.745 5833
1.840 3.074 1.810 3601
1.832 3.059 1.789 8384
1.762 2.943 1.725 3749
1.845 3.082 1.789 10861
1.768 2.953 1.719 2525
1.848 3.086 1.779 10104
1.770 2.957 1.709 2802
1.858 3.103 1.775 9519
1.784 2.979 1.709 2532
1.864 3.113 1.768 9032
1.934 3.230 1.830 2766
1.866 3.117 1.757 6300
1.937 3.234 1.819 2351
1.891 3.158 1.766 4634
1.961 3.276 1.828 1260
1.875 3.131 1.740 4288
1.945 3.249 1.801 1473
1.881 3.141 1.732 3517
1.952 3.259 1.793 1739
1.917 3.201 1.750 3219
1.988 3.319 1.811 2747
1.986 3.317 1.796 6018
2.057 3.436 1.856 2252
1.993 3.328 1.788 7438
2.063 3.446 1.848 2130
2.036 3.401 1.811 6149
1.965 3.282 1.752 2705
2.039 3.405 1.800 5553
1.967 3.286 1.741 2597
2.045 3.415 1.792 4097
1.974 3.296 1.733 2733
2.081 3.476 1.808 5051
2.010 3.357 1.750 2497
2.072 3.461 1.787 7002
1.982 3.310 1.714 1782
2.071 3.459 1.772 8650
2.173 3.629 1.853 2789
2.122 3.545 1.799 5700
2.051 3.425 1.743 3596
2.121 3.543 1.785 6305
2.193 3.662 1.841 2886
2.108 3.521 1.761 6858
2.180 3.641 1.817 4639
2.107 3.519 1.746 5618
2.179 3.639 1.802 4433
2.117 3.536 1.740 4216
2.189 3.656 1.795 2277
2.169 3.622 1.766 4286
2.256 3.768 1.832 1939
2.175 3.633 1.756 6305
2.247 3.753 1.811 2923
2.227 3.719 1.781 5611
2.155 3.599 1.727 2664
2.218 3.704 1.760 5535
2.298 3.837 1.819 2789
2.239 3.740 1.762 4481
2.312 3.861 1.815 2928
2.356 3.935 1.832 4721
2.234 3.731 1.743 3034
2.362 3.945 1.822 5665
2.240 3.742 1.734 2455
2.372 3.962 1.814 4676
2.250 3.758 1.726 2855
2.406 4.018 1.822 4279
2.299 3.839 1.746 3084
2.335 3.900 1.758 3669
2.408 4.022 1.808 3288
2.357 3.936 1.758 4196
2.491 4.160 1.851 1658
2.371 3.960 1.752 4455
2.482 4.145 1.829 2509
2.392 3.996 1.752 3203
2.492 4.162 1.820 2798
2.472 4.128 1.791 3891
2.587 4.321 1.868 1791
2.470 4.126 1.774 4113
2.593 4.331 1.856 3119
2.469 4.123 1.758 4242
2.596 4.336 1.842 3611
2.479 4.140 1.749 4898
2.591 4.327 1.822 4873
2.593 4.331 1.808 7011
2.481 4.144 1.735 2941
2.596 4.335 1.793 5452
2.669 4.458 1.840 1636
2.614 4.365 1.788 3890
2.772 4.630 1.889 1387
2.620 4.376 1.776 5295
2.697 4.505 1.825 1657
2.634 4.399 1.769 3538
2.708 4.522 1.815 1946
2.664 4.449 1.771 3718
2.753 4.598 1.826 2438
2.782 4.647 1.827 4088
2.682 4.479 1.765 3632
2.789 4.658 1.813 5019
2.688 4.489 1.752 2592
2.787 4.656 1.795 5328
2.892 4.831 1.858 2355
2.790 4.660 1.780 5329
2.891 4.829 1.840 2672
2.785 4.651 1.759 4515
2.859 4.774 1.803 2514
2.787 4.655 1.744 3899
2.861 4.778 1.787 2095
2.789 4.659 1.728 2728
3.039 5.076 1.872 2423
2.909 4.858 1.779 2670
3.053 5.100 1.861 2046
3.068 5.123 1.851 2313
2.907 4.856 1.760 2286
3.101 5.180 1.851 2558
3.027 5.056 1.809 1664
3.112 5.197 1.838 3671
3.037 5.073 1.797 1681
3.114 5.201 1.820 2673
3.208 5.358 1.871 2046
3.168 5.291 1.830 2972
3.035 5.068 1.758 2227
3.257 5.439 1.858 3924
3.163 5.282 1.808 2995
3.271 5.463 1.846 4822
3.196 5.339 1.807 3669
3.274 5.467 1.827 5021
3.199 5.343 1.789 3201
3.264 5.452 1.803 3955
3.445 5.754 1.896 2797
3.452 5.765 1.878 3400
3.365 5.620 1.834 2493
3.454 5.769 1.859 2999
3.545 5.920 1.904 2007
3.555 5.938 1.888 3129
3.386 5.655 1.804 2388
3.566 5.956 1.872 3593
3.384 5.653 1.783 2126
3.576 5.973 1.856 2573
3.722 6.217 1.926 1661
3.725 6.221 1.905 2324
3.543 5.918 1.819 2119
3.732 6.232 1.886 2041
3.850 6.430 1.942 1756
3.742 6.250 1.869 1858
3.999 6.679 1.988 1393
4.002 6.684 1.966 1421
3.725 6.221 1.839 1365
4.088 6.827 1.981 1732
3.874 6.470 1.884 1298
3.948 6.594 1.894 1417
4.087 6.825 1.956 1370
4.304 7.188 2.028 1450
4.010 6.697 1.898 1382
4.310 7.199 2.005 1169
4.433 7.404 2.059 1071
4.317 7.210 1.982 1459
4.432 7.403 2.032 1443
4.316 7.208 1.956 1566
4.447 7.427 2.012 1473
4.490 7.498 2.003 1518
4.331 7.233 1.937 1459
4.572 7.636 2.011 2031
4.496 7.510 1.980 1632
4.702 7.853 2.037 1922
4.626 7.727 2.006 1737
4.705 7.858 2.010 2733
4.812 8.038 2.053 1655
4.708 7.863 1.983 3582
4.815 8.042 2.026 2117
4.710 7.867 1.957 3826
4.882 8.154 2.023 2513
4.889 8.165 1.997 4245
4.713 7.872 1.930 3165
4.892 8.170 1.970 3877
4.716 7.876 1.904 2669
4.890 8.167 1.941 2309
4.675 7.807 1.861 2046
4.833 8.072 1.891 1486
5.413 9.040 2.102 1397
5.420 9.051 2.073 1671
5.623 9.392 2.146 1440
5.815 9.711 2.181 1778
5.494 9.177 2.068 1492
5.822 9.723 2.149 2908
5.665 9.462 2.095 1670
5.833 9.741 2.119 3175
5.672 9.474 2.064 1448
5.844 9.760 2.089 3157
5.920 9.887 2.114 1376
5.842 9.758 2.054 4208
5.919 9.885 2.079 2164
5.845 9.763 2.021 5614
5.922 9.890 2.046 2101
5.844 9.761 1.987 4408
5.920 9.888 2.011 1984
5.923 9.893 1.978 2560
5.847 9.765 1.954 2475
5.926 9.897 1.944 2364
5.841 9.756 1.918 1804
5.844 9.761 1.885 1592
5.933 9.908 1.912 1328
5.851 9.772 1.853 1602
6.369 10.638 2.006 1093
7.197 12.020 2.208 1594
5.857 9.783 1.821 1191
7.200 12.025 2.167 1995
7.023 11.729 2.117 974
7.203 12.030 2.126 1681
7.206 12.035 2.085 934
1.198 1.991 1.811 2837
1.201 1.995 1.805 5674
1.138 1.891 1.716 1267
1.203 2.000 1.798 5674
1.141 1.895 1.709 1267
1.222 2.031 1.815 6437
1.160 1.927 1.726 2238
1.228 2.041 1.812 8138
1.165 1.936 1.725 1964
1.227 2.039 1.801 7268
1.291 2.144 1.888 1380
1.227 2.038 1.790 6416
1.290 2.143 1.877 2366
1.229 2.042 1.783 6416
1.293 2.148 1.869 2506
1.275 2.119 1.835 7967
1.212 2.013 1.749 2047
1.281 2.128 1.833 10454
1.217 2.023 1.747 2280
1.280 2.127 1.821 10394
1.216 2.021 1.735 1343
1.279 2.126 1.809 10517
1.343 2.232 1.895 1621
1.282 2.130 1.802 8191
1.346 2.236 1.887 2030
1.278 2.123 1.786 6286
1.342 2.229 1.871 3353
1.280 2.127 1.779 6170
1.344 2.234 1.863 3353
1.320 2.193 1.821 5336
1.255 2.086 1.737 822
1.319 2.191 1.809 6631
1.383 2.299 1.892 802
1.321 2.196 1.802 7161
1.386 2.303 1.885 1186
1.327 2.205 1.799 7778
1.392 2.313 1.881 1291
1.333 2.215 1.796 9013
1.398 2.323 1.878 1801
1.336 2.219 1.788 10284
1.401 2.327 1.870 2618
1.338 2.223 1.781 10258
1.403 2.332 1.862 3628
1.344 2.233 1.778 10294
1.409 2.342 1.859 4074
1.350 2.243 1.774 7416
1.415 2.352 1.855 3564
1.387 2.304 1.809 7463
1.321 2.196 1.729 1346
1.393 2.314 1.806 7507
1.327 2.205 1.726 1336
1.402 2.330 1.806 7867
1.337 2.221 1.727 1809
1.429 2.374 1.828 7759
1.363 2.265 1.748 3485
1.432 2.379 1.820 7797
1.366 2.269 1.741 3182
1.434 2.383 1.812 6844
1.368 2.273 1.733 2325
1.440 2.393 1.808 5923
1.374 2.283 1.730 2012
1.443 2.397 1.800 7322
1.376 2.287 1.722 1495
1.449 2.407 1.796 8778
1.382 2.297 1.719 1285
1.448 2.405 1.784 10605
1.514 2.516 1.861 966
1.447 2.404 1.772 12713
1.513 2.514 1.849 1541
1.453 2.413 1.768 11464
1.519 2.524 1.844 1434
1.452 2.412 1.756 8258
1.518 2.523 1.832 2034
1.450 2.410 1.744 6821
1.517 2.521 1.819 2157
1.453 2.414 1.736 4971
1.527 2.537 1.819 2845
1.544 2.565 1.826 3974
1.466 2.435 1.740 3487
1.543 2.563 1.814 5233
1.472 2.445 1.735 3436
1.542 2.562 1.801 6540
1.474 2.449 1.727 3400
1.526 2.536 1.773 7317
1.459 2.424 1.700 2293
1.529 2.540 1.765 6831
1.461 2.428 1.691 1516
1.535 2.550 1.760 5254
1.603 2.663 1.833 2251
1.598 2.655 1.816 4450
1.523 2.530 1.736 3582
1.601 2.659 1.808 5237
1.511 2.511 1.713 3237
1.585 2.634 1.780 5638
1.517 2.520 1.708 2520
1.580 2.626 1.763 6248
1.649 2.739 1.835 1135
1.579 2.624 1.751 6609
1.648 2.738 1.822 1514
1.585 2.634 1.746 5478
1.654 2.748 1.816 1783
1.595 2.650 1.744 5077
1.664 2.764 1.815 2096
1.594 2.648 1.732 5419
1.662 2.762 1.802 3800
1.661 2.760 1.789 5486
1.592 2.646 1.719 4007
1.675 2.782 1.790 5703
1.602 2.662 1.718 1842
1.681 2.793 1.785 4752
1.612 2.678 1.716 1206
1.661 2.760 1.754 4374
1.760 2.924 1.851 1458
1.704 2.831 1.784 4541
1.635 2.716 1.716 2289
1.706 2.835 1.774 5212
1.637 2.720 1.707 2362
1.709 2.839 1.765 7754
1.778 2.955 1.832 3625
1.711 2.843 1.755 12951
1.781 2.959 1.822 6133
1.714 2.847 1.746 16130
1.783 2.963 1.812 7590
1.716 2.851 1.736 12685
1.786 2.967 1.802 6673
1.759 2.922 1.765 8691
1.689 2.806 1.699 2473
1.769 2.939 1.762 7035
1.839 3.055 1.827 2104
1.775 2.949 1.755 6779
1.705 2.833 1.690 2071
1.777 2.953 1.745 6501
1.847 3.069 1.810 3014
1.839 3.055 1.789 8179
1.769 2.939 1.725 4031
1.849 3.072 1.786 10357
1.778 2.955 1.722 2654
1.855 3.082 1.779 9332
1.777 2.953 1.709 2606
1.865 3.098 1.775 8318
1.794 2.981 1.712 2590
1.871 3.108 1.768 7767
1.941 3.226 1.830 3022
1.877 3.119 1.761 5876
1.948 3.236 1.823 2252
1.879 3.123 1.750 4540
1.958 3.253 1.818 1361
1.882 3.127 1.740 5057
1.953 3.245 1.801 1697
1.888 3.137 1.732 4328
1.959 3.255 1.793 2154
1.909 3.172 1.738 3449
1.999 3.321 1.814 2932
2.001 3.325 1.803 6107
1.930 3.207 1.743 2245
2.004 3.329 1.792 7442
1.933 3.211 1.732 1970
2.018 3.352 1.790 5824
1.946 3.234 1.731 2043
2.028 3.369 1.785 5183
1.949 3.238 1.720 1563
2.034 3.379 1.776 4202
2.105 3.498 1.835 2383
2.089 3.471 1.808 5059
2.017 3.352 1.750 3363
2.080 3.456 1.787 7119
2.009 3.337 1.729 2486
2.079 3.454 1.772 8261
2.185 3.630 1.856 2736
2.127 3.534 1.796 5407
2.199 3.653 1.853 3041
2.129 3.538 1.785 6138
2.201 3.657 1.841 3016
2.117 3.517 1.761 6349
2.189 3.636 1.817 4882
2.172 3.609 1.790 5831
2.100 3.489 1.734 4761
2.125 3.531 1.740 4598
2.197 3.651 1.795 2106
2.177 3.617 1.766 3818
2.257 3.750 1.826 2088
2.183 3.628 1.756 5826
2.256 3.748 1.811 3121
2.235 3.714 1.781 6082
2.163 3.594 1.727 2439
2.238 3.718 1.768 5533
2.310 3.838 1.822 3075
2.240 3.722 1.756 4564
2.317 3.849 1.812 3063
2.361 3.923 1.829 4219
2.243 3.726 1.743 4000
2.371 3.940 1.822 5360
2.249 3.736 1.734 3756
2.393 3.976 1.822 4425
2.259 3.753 1.726 3511
2.415 4.012 1.822 4418
2.311 3.840 1.749 2934
2.344 3.895 1.758 4127
2.417 4.016 1.808 3540
2.385 3.963 1.771 4647
2.504 4.161 1.853 1702
2.391 3.973 1.760 4587
2.503 4.159 1.837 2042
2.398 3.984 1.750 3393
2.486 4.131 1.810 2263
2.466 4.097 1.780 3606
2.539 4.219 1.830 2128
2.472 4.107 1.769 5028
2.545 4.229 1.818 3331
2.478 4.118 1.758 4828
2.602 4.323 1.839 3660
2.601 4.321 1.822 4992
2.485 4.128 1.746 3677
2.603 4.325 1.808 7084
2.491 4.139 1.735 2494
2.610 4.336 1.796 5633
2.683 4.458 1.843 1805
2.628 4.366 1.791 4157
2.783 4.624 1.889 1617
2.630 4.370 1.776 5774
2.704 4.492 1.822 1893
2.644 4.393 1.769 3931
2.718 4.516 1.815 1910
2.678 4.449 1.773 3908
2.767 4.598 1.828 2873
2.793 4.641 1.827 4786
2.692 4.473 1.765 4498
2.796 4.645 1.811 5938
2.698 4.483 1.752 3204
2.798 4.649 1.795 6126
2.903 4.824 1.858 2257
2.797 4.647 1.777 6051
2.914 4.841 1.847 2690
2.795 4.644 1.759 5281
2.920 4.852 1.833 2259
2.798 4.648 1.744 4920
2.923 4.856 1.816 1920
2.800 4.652 1.728 3671
2.945 4.893 1.811 2709
2.944 4.891 1.792 2357
2.802 4.656 1.712 2151
3.083 5.123 1.853 2599
3.009 4.999 1.811 2081
3.109 5.166 1.849 3185
2.968 4.932 1.770 1578
3.120 5.184 1.835 3689
3.198 5.314 1.878 1556
3.126 5.194 1.820 2687
3.221 5.351 1.871 2411
3.219 5.349 1.851 2890
3.054 5.074 1.762 2001
3.265 5.425 1.856 4386
3.175 5.275 1.808 3016
3.220 5.351 1.813 4940
3.295 5.475 1.852 4374
3.282 5.453 1.825 5259
3.207 5.329 1.787 3041
3.277 5.444 1.803 4549
3.462 5.753 1.898 2463
3.473 5.770 1.882 3073
3.394 5.639 1.842 2114
3.468 5.761 1.859 2377
3.558 5.912 1.904 2039
3.573 5.936 1.890 3123
3.399 5.647 1.804 2599
3.583 5.954 1.874 3748
3.397 5.645 1.783 2166
3.590 5.965 1.856 2802
3.733 6.202 1.924 1863
3.735 6.206 1.903 2337
3.553 5.903 1.817 2099
3.750 6.230 1.888 1895
3.865 6.422 1.942 1687
3.772 6.268 1.876 1974
3.864 6.420 1.919 1433
4.017 6.675 1.966 1618
3.767 6.259 1.851 1217
4.024 6.686 1.945 1492
4.104 6.818 1.981 1199
4.019 6.677 1.919 1506
4.178 6.942 1.990 1049
4.320 7.178 2.028 1405
4.025 6.688 1.898 1389
4.179 6.944 1.941 1079
4.450 7.394 2.059 1063
4.449 7.392 2.032 1406
4.330 7.194 1.981 1211
4.332 7.198 1.956 1479
4.476 7.437 2.017 1387
4.507 7.488 2.003 1867
4.347 7.223 1.937 1583
4.522 7.512 1.983 2218
4.597 7.639 2.014 1773
4.660 7.743 2.012 2094
4.536 7.537 1.962 1905
4.723 7.847 2.010 2777
4.619 7.674 1.969 1866
4.722 7.845 1.982 3682
4.838 8.038 2.027 1688
4.724 7.850 1.955 3825
4.897 8.136 2.022 2469
4.903 8.147 1.996 4137
4.731 7.861 1.930 3135
4.910 8.158 1.970 3699
4.690 7.792 1.887 3281
4.692 7.796 1.861 2712
4.909 8.156 1.941 1958
4.695 7.801 1.834 1917
5.437 9.034 2.104 1372
5.440 9.039 2.073 1718
5.649 9.386 2.148 1381
5.837 9.698 2.181 1698
5.676 9.431 2.124 1299
5.848 9.716 2.151 2856
5.687 9.449 2.095 1881
5.859 9.735 2.120 3530
5.698 9.467 2.066 1667
5.866 9.746 2.089 3649
5.745 9.546 2.048 1266
5.865 9.744 2.054 4359
5.941 9.871 2.079 1623
5.868 9.749 2.021 5642
5.944 9.876 2.046 1583
5.866 9.747 1.987 4551
5.943 9.874 2.011 1552
5.869 9.752 1.954 2560
5.946 9.879 1.978 1936
5.864 9.743 1.918 1862
5.953 9.890 1.945 1664
5.862 9.740 1.884 1601
6.907 11.477 2.196 1298
5.873 9.758 1.853 1539
7.221 11.998 2.249 1010
7.224 12.003 2.208 1481
5.880 9.769 1.821 1196
7.224 12.002 2.166 1746
7.050 11.713 2.117 1052
7.227 12.007 2.125 1483
7.230 12.012 2.084 912
1.203 1.989 1.811 2786
0.896 1.481 1.375 792
1.205 1.993 1.805 5573
1.142 1.889 1.716 1324
1.208 1.997 1.798 5573
1.145 1.893 1.709 1324
1.227 2.028 1.815 6364
1.164 1.924 1.726 2109
1.229 2.033 1.808 7848
1.166 1.928 1.720 1498
1.232 2.037 1.801 7236
1.295 2.142 1.888 1424
1.231 2.035 1.790 6699
1.295 2.140 1.877 2377
1.234 2.040 1.783 6699
1.297 2.145 1.869 2536
1.280 2.116 1.835 8045
1.216 2.010 1.749 2277
1.286 2.126 1.833 10865
1.222 2.020 1.747 2452
1.285 2.124 1.821 11064
1.221 2.018 1.735 1416
1.284 2.123 1.809 11459
1.348 2.229 1.895 1598
1.283 2.121 1.798 9377
1.347 2.228 1.883 2401
1.286 2.126 1.791 7437
1.350 2.232 1.875 2927
1.288 2.130 1.784 7363
1.353 2.236 1.868 2927
1.294 2.139 1.781 5884
1.359 2.246 1.865 2685
1.320 2.183 1.804 6586
1.385 2.290 1.888 908
1.323 2.187 1.797 6577
1.388 2.294 1.880 1466
1.336 2.208 1.803 6882
1.401 2.316 1.886 1001
1.338 2.212 1.796 8521
1.403 2.320 1.878 1800
1.341 2.216 1.788 10159
1.406 2.324 1.870 2600
1.346 2.226 1.785 10204
1.412 2.334 1.867 3058
1.349 2.230 1.778 10276
1.414 2.339 1.859 4010
1.355 2.240 1.774 7363
1.420 2.349 1.855 3512
1.395 2.307 1.813 7713
1.330 2.198 1.733 1474
1.398 2.311 1.806 7436
1.332 2.202 1.726 1242
1.428 2.361 1.832 7876
1.362 2.252 1.752 3804
1.434 2.371 1.828 7741
1.368 2.262 1.748 3116
1.437 2.376 1.820 7781
1.371 2.266 1.741 2598
1.439 2.380 1.812 6921
1.373 2.270 1.733 2133
1.445 2.390 1.808 6092
1.379 2.280 1.730 2176
1.448 2.394 1.800 7508
1.381 2.284 1.722 1664
1.450 2.398 1.792 8923
1.384 2.288 1.715 1152
1.453 2.402 1.784 10769
1.520 2.513 1.861 980
1.452 2.400 1.772 12797
1.519 2.511 1.849 1606
1.458 2.410 1.768 11551
1.525 2.521 1.844 1489
1.457 2.409 1.756 8422
1.524 2.520 1.832 2064
1.456 2.407 1.744 7052
1.523 2.518 1.819 2381
1.458 2.411 1.736 5024
1.533 2.534 1.819 3244
1.539 2.544 1.814 4006
1.471 2.432 1.740 3488
1.541 2.548 1.806 5197
1.474 2.436 1.731 3487
1.540 2.546 1.793 6403
1.472 2.434 1.719 3356
1.535 2.539 1.777 7297
1.468 2.427 1.703 2691
1.534 2.537 1.765 6976
1.466 2.424 1.691 1540
1.544 2.553 1.764 5608
1.612 2.665 1.837 2216
1.604 2.652 1.816 4979
1.532 2.533 1.740 3771
1.606 2.656 1.808 5943
1.516 2.507 1.713 3134
1.594 2.636 1.784 5588
1.526 2.523 1.712 2515
1.586 2.622 1.763 6460
1.655 2.736 1.835 1153
1.581 2.615 1.747 7120
1.650 2.728 1.818 1968
1.587 2.625 1.742 5988
1.656 2.738 1.813 2001
1.597 2.641 1.741 5263
1.666 2.754 1.811 2313
1.599 2.645 1.732 5444
1.668 2.759 1.802 3981
1.667 2.757 1.789 5776
1.598 2.642 1.719 4063
1.681 2.779 1.790 5904
1.608 2.658 1.718 1948
1.669 2.759 1.767 4962
1.738 2.873 1.835 818
1.708 2.823 1.793 5240
1.638 2.709 1.725 2697
1.710 2.827 1.784 6313
1.641 2.713 1.716 2452
1.712 2.831 1.774 6519
1.643 2.716 1.707 2536
1.715 2.836 1.765 8949
1.785 2.951 1.832 2975
1.717 2.840 1.755 13878
1.787 2.955 1.822 5496
1.720 2.844 1.746 16683
1.790 2.959 1.812 7066
1.722 2.848 1.736 12756
1.792 2.963 1.802 6578
1.765 2.919 1.765 10351
1.695 2.803 1.699 2495
1.775 2.935 1.762 8000
1.845 3.051 1.827 2130
1.781 2.945 1.755 7475
1.711 2.829 1.690 2034
1.784 2.949 1.745 6891
1.854 3.065 1.810 2690
1.845 3.051 1.789 8330
1.775 2.935 1.725 3975
1.855 3.068 1.786 10368
1.785 2.951 1.722 2723
1.861 3.078 1.779 8995
1.783 2.949 1.709 2333
1.871 3.094 1.775 7663
1.801 2.977 1.712 2534
1.878 3.104 1.768 7191
1.948 3.222 1.830 3081
1.884 3.115 1.761 5685
1.955 3.232 1.823 2134
1.886 3.119 1.750 4769
1.983 3.279 1.834 1333
1.892 3.129 1.743 5319
1.964 3.246 1.804 1675
1.899 3.139 1.736 4659
1.970 3.257 1.796 2138
1.916 3.168 1.738 3944
2.010 3.323 1.817 3156
2.009 3.321 1.803 6209
1.937 3.203 1.743 2521
2.011 3.325 1.792 7251
1.940 3.207 1.732 1963
2.029 3.354 1.793 5856
1.957 3.236 1.734 1919
2.035 3.365 1.785 5128
2.107 3.483 1.843 1474
2.041 3.375 1.776 4207
2.113 3.493 1.835 2183
2.047 3.385 1.768 5174
2.119 3.504 1.826 2694
2.088 3.452 1.787 6457
2.016 3.333 1.729 2703
2.090 3.456 1.775 7241
2.193 3.625 1.856 2495
2.134 3.529 1.796 5167
2.206 3.648 1.853 3006
2.133 3.527 1.782 5903
2.205 3.646 1.838 3383
2.124 3.512 1.761 5981
2.196 3.632 1.817 4680
2.180 3.604 1.790 5642
2.108 3.485 1.734 4480
2.129 3.520 1.737 4886
2.201 3.640 1.792 2368
2.185 3.612 1.766 3894
2.257 3.732 1.820 2135
2.191 3.623 1.756 5892
2.264 3.743 1.811 3282
2.243 3.709 1.781 6824
2.171 3.589 1.727 2481
2.238 3.700 1.763 5796
2.315 3.827 1.819 3085
2.248 3.717 1.756 4848
2.321 3.838 1.809 3089
2.251 3.721 1.743 4732
2.370 3.918 1.829 3688
2.380 3.935 1.822 4845
2.257 3.732 1.734 4415
2.402 3.971 1.822 4508
2.267 3.748 1.726 3683
2.423 4.007 1.822 4805
2.350 3.886 1.771 3344
2.349 3.884 1.755 4846
2.422 4.005 1.806 3840
2.398 3.964 1.774 5004
2.525 4.175 1.861 1860
2.404 3.975 1.763 4617
2.508 4.147 1.834 2250
2.406 3.979 1.750 3433
2.511 4.151 1.820 2565
2.475 4.091 1.780 3078
2.556 4.226 1.835 2131
2.481 4.102 1.769 4156
2.558 4.230 1.820 3492
2.483 4.106 1.755 4447
2.611 4.318 1.839 3324
2.490 4.116 1.744 4629
2.610 4.315 1.822 4484
2.616 4.326 1.810 6872
2.492 4.120 1.730 2695
2.619 4.330 1.796 5693
2.693 4.452 1.843 2054
2.637 4.360 1.791 4375
2.789 4.611 1.887 1720
2.639 4.364 1.776 6079
2.714 4.487 1.822 2125
2.650 4.381 1.766 4198
2.724 4.504 1.812 1913
2.687 4.443 1.773 4039
2.781 4.598 1.830 3117
2.799 4.628 1.824 5434
2.702 4.467 1.765 4945
2.806 4.639 1.811 6581
2.708 4.477 1.752 3565
2.808 4.643 1.795 6435
2.918 4.824 1.861 1967
2.807 4.641 1.777 6187
2.924 4.835 1.847 2567
2.805 4.638 1.759 5301
2.931 4.846 1.833 2490
2.808 4.642 1.744 5211
2.933 4.850 1.816 2414
2.810 4.646 1.728 4154
2.952 4.880 1.809 3119
2.958 4.891 1.795 2683
2.813 4.650 1.712 2524
3.094 5.116 1.853 2720
3.020 4.993 1.811 1709
3.117 5.153 1.846 3454
2.979 4.925 1.770 1739
3.127 5.170 1.833 3586
3.214 5.314 1.881 1504
3.236 5.351 1.873 2717
3.134 5.181 1.818 2599
3.239 5.355 1.855 3475
3.136 5.185 1.800 1966
3.273 5.412 1.854 4375
3.186 5.268 1.808 2811
3.232 5.344 1.813 4687
3.307 5.468 1.852 3772
3.290 5.440 1.823 5289
3.215 5.315 1.784 2507
3.285 5.431 1.801 4864
3.360 5.555 1.839 2512
3.493 5.776 1.886 2753
3.418 5.651 1.848 2475
3.413 5.642 1.825 2218
3.571 5.905 1.904 2090
3.590 5.935 1.892 2926
3.407 5.633 1.802 2632
3.596 5.946 1.874 3463
3.414 5.644 1.785 2125
3.603 5.957 1.856 2741
3.742 6.187 1.923 2035
3.749 6.198 1.903 2232
3.578 5.915 1.822 2030
3.779 6.249 1.896 1803
3.568 5.900 1.797 1714
3.786 6.260 1.876 2111
3.878 6.411 1.919 1568
4.040 6.679 1.970 1587
3.880 6.416 1.897 1360
4.042 6.684 1.947 1659
3.899 6.446 1.882 1218
4.037 6.675 1.921 1629
3.901 6.451 1.860 1210
4.040 6.680 1.898 1343
4.336 7.168 2.028 1285
4.194 6.935 1.941 1209
4.466 7.385 2.059 881
4.465 7.383 2.032 1301
4.341 7.178 1.979 938
4.492 7.427 2.017 1467
4.348 7.189 1.956 1327
4.523 7.478 2.003 2065
4.363 7.213 1.937 1631
4.534 7.496 1.981 2465
4.610 7.622 2.012 1768
4.677 7.733 2.012 2204
4.549 7.521 1.961 2069
4.740 7.837 2.010 2645
4.636 7.664 1.969 1899
4.739 7.835 1.982 3592
4.618 7.636 1.935 1692
4.741 7.840 1.955 3667
4.914 8.125 2.022 2328
4.704 7.778 1.913 3783
4.921 8.136 1.996 3767
4.707 7.782 1.887 4138
4.928 8.148 1.970 3353
4.705 7.780 1.859 3313
4.923 8.139 1.939 1683
4.712 7.791 1.834 2400
4.913 8.123 1.907 1242
4.714 7.795 1.808 1706
5.464 9.034 2.075 1544
5.858 9.685 2.181 1544
5.696 9.419 2.124 1344
5.869 9.704 2.151 2659
5.708 9.437 2.095 1949
5.884 9.729 2.122 3526
5.723 9.462 2.067 1829
5.887 9.734 2.089 3756
5.810 9.607 2.063 1372
5.886 9.732 2.054 4176
5.765 9.531 2.015 1247
5.885 9.730 2.020 5308
5.961 9.857 2.045 1206
5.887 9.734 1.987 4421
5.964 9.861 2.011 1160
5.890 9.739 1.954 2481
5.967 9.866 1.978 1405
5.881 9.723 1.917 1760
6.929 11.457 2.235 1332
5.879 9.721 1.883 1440
6.932 11.462 2.196 1303
5.890 9.739 1.852 1277
7.247 11.983 2.249 963
7.246 11.981 2.207 1499
5.901 9.756 1.821 1007
7.249 11.986 2.166 1970
7.075 11.698 2.117 1056
7.252 11.991 2.125 1544
7.078 11.703 2.077 757
7.239 11.969 2.080 760
1.207 1.986 1.811 3068
1.209 1.990 1.805 6137
1.146 1.886 1.716 1395
1.212 1.994 1.798 6137
1.149 1.890 1.709 1395
1.231 2.026 1.815 6913
1.168 1.922 1.726 2047
1.234 2.030 1.808 8317
1.170 1.926 1.720 1408
1.233 2.029 1.796 7869
1.296 2.133 1.884 1872
1.235 2.033 1.790 7515
1.299 2.138 1.877 2466
1.238 2.037 1.783 7515
1.302 2.142 1.869 2646
1.284 2.113 1.835 7778
1.220 2.008 1.749 2662
1.287 2.117 1.828 11053
1.223 2.012 1.742 2169
1.289 2.121 1.821 11496
1.225 2.016 1.735 1513
1.288 2.120 1.809 12139
1.353 2.226 1.895 1621
1.288 2.119 1.798 9995
1.352 2.225 1.883 2456
1.290 2.123 1.791 7975
1.355 2.229 1.875 3014
1.293 2.127 1.784 7935
1.357 2.233 1.868 3014
1.302 2.142 1.785 6495
1.367 2.249 1.869 2564
1.321 2.174 1.800 6964
1.386 2.281 1.884 1061
1.327 2.184 1.797 6458
1.392 2.291 1.880 1463
1.337 2.200 1.799 6434
1.402 2.307 1.881 1303
1.343 2.209 1.796 8343
1.408 2.317 1.878 1805
1.349 2.219 1.792 10353
1.414 2.327 1.874 2111
1.351 2.223 1.785 10318
1.417 2.331 1.867 3043
1.354 2.227 1.778 10283
1.419 2.336 1.859 3976
1.356 2.232 1.770 7375
1.422 2.340 1.851 4095
1.400 2.304 1.813 7931
1.334 2.196 1.733 1410
1.406 2.314 1.810 7450
1.340 2.205 1.730 1560
1.416 2.330 1.811 7742
1.350 2.221 1.731 1758
1.439 2.368 1.828 7435
1.373 2.259 1.748 2860
1.442 2.373 1.820 7456
1.375 2.263 1.741 2320
1.444 2.377 1.812 6740
1.378 2.267 1.733 2191
1.450 2.387 1.808 6059
1.384 2.277 1.730 2582
1.453 2.391 1.800 7397
1.386 2.281 1.722 1983
1.455 2.395 1.792 8735
1.388 2.285 1.715 1383
1.458 2.399 1.784 10436
1.391 2.289 1.707 1141
1.457 2.397 1.772 12190
1.524 2.508 1.849 1660
1.463 2.407 1.768 11276
1.530 2.518 1.844 1533
1.462 2.405 1.756 8615
1.529 2.516 1.832 2063
1.461 2.404 1.744 7339
1.528 2.515 1.819 2612
1.467 2.413 1.740 5084
1.538 2.531 1.819 3700
1.537 2.529 1.807 4422
1.469 2.417 1.732 2889
1.539 2.533 1.798 5391
1.472 2.421 1.724 2908
1.542 2.537 1.790 6360
1.474 2.425 1.715 2928
1.541 2.535 1.777 7379
1.473 2.423 1.703 2475
1.543 2.540 1.769 7276
1.475 2.427 1.695 1741
1.553 2.555 1.768 6263
1.621 2.668 1.841 2308
1.609 2.648 1.816 5629
1.541 2.536 1.744 3983
1.612 2.653 1.808 6872
1.536 2.528 1.728 2609
1.604 2.639 1.787 6016
1.535 2.526 1.716 2297
1.588 2.613 1.760 6712
1.657 2.726 1.831 1642
1.590 2.617 1.751 7564
1.659 2.731 1.822 1981
