-1.740 6.478 1.345 3514
-1.777 6.616 1.351 4470
-1.735 6.458 1.322 3013
-1.736 6.462 1.302 4635
-1.778 6.620 1.331 4632
-1.739 6.473 1.284 7467
-1.777 6.616 1.310 3528
-1.742 6.483 1.266 8862
-1.697 6.317 1.237 5090
-1.742 6.486 1.247 8553
-1.696 6.313 1.217 5134
-1.743 6.489 1.227 7095
-1.697 6.316 1.198 4839
-1.695 6.311 1.178 6190
-1.744 6.493 1.208 5414
-1.696 6.314 1.159 7094
-1.745 6.496 1.188 4025
-1.695 6.310 1.139 5727
-1.748 6.506 1.170 3215
-1.694 6.305 1.118 6637
-1.749 6.509 1.150 2342
-1.692 6.300 1.098 8703
-1.747 6.504 1.130 1284
-1.693 6.303 1.080 7193
-1.692 6.298 1.060 4667
-1.695 6.308 1.042 3847
-1.697 6.318 1.024 3564
-1.692 6.298 1.002 2467
-1.686 6.277 0.980 2337
-1.685 6.272 0.960 2369
-1.686 6.274 0.941 2008
-1.686 6.277 0.922 1662
-1.687 6.279 0.904 1375
-1.687 6.281 0.885 890
-1.643 6.116 0.846 837
-1.641 6.110 0.827 976
-1.640 6.104 0.808 898
-1.610 5.991 0.705 817
-1.604 5.970 0.685 903
-1.596 5.941 0.664 1017
-1.587 5.909 0.590 809
-1.588 5.910 0.572 977
-1.588 5.911 0.555 877
-1.507 5.609 0.297 813
-1.509 5.617 0.281 757
-0.596 2.240 1.807 1708
-0.597 2.244 1.800 3417
-0.629 2.362 1.889 2611
-0.628 2.360 1.877 5229
-0.597 2.243 1.789 3377
-0.631 2.371 1.875 6451
-0.600 2.254 1.787 2498
-0.634 2.383 1.872 7879
-0.603 2.265 1.785 1708
-0.637 2.394 1.870 8752
-0.606 2.275 1.783 1682
-0.640 2.405 1.867 10038
-0.609 2.286 1.780 1680
-0.645 2.422 1.869 10453
-0.613 2.303 1.783 1911
-0.644 2.421 1.858 12926
-0.613 2.302 1.771 1480
-0.644 2.419 1.846 15613
-0.676 2.539 1.932 1483
-0.647 2.430 1.843 12968
-0.679 2.550 1.929 2341
-0.648 2.435 1.836 10419
-0.680 2.555 1.922 3450
-0.649 2.440 1.829 11658
-0.681 2.560 1.914 3479
-0.652 2.451 1.826 13041
-0.684 2.571 1.911 4045
-0.654 2.456 1.819 13041
-0.686 2.576 1.903 4879
-0.655 2.461 1.812 11533
-0.687 2.581 1.896 5960
-0.658 2.472 1.809 10268
-0.690 2.593 1.892 6671
-0.686 2.578 1.871 10479
-0.654 2.457 1.788 6527
-0.688 2.583 1.864 14000
-0.655 2.462 1.781 3579
-0.689 2.588 1.856 13394
-0.657 2.466 1.774 3576
-0.688 2.587 1.844 12811
-0.656 2.465 1.762 3470
-0.691 2.598 1.841 8407
-0.659 2.476 1.759 3129
-0.708 2.660 1.872 8067
-0.664 2.493 1.760 2871
-0.711 2.672 1.868 10133
-0.679 2.549 1.787 2742
-0.712 2.677 1.860 12269
-0.680 2.554 1.780 3179
-0.717 2.694 1.861 11328
-0.684 2.571 1.780 4285
-0.720 2.706 1.857 11554
-0.687 2.583 1.777 5118
-0.722 2.711 1.849 10342
-0.689 2.587 1.769 3957
-0.723 2.715 1.841 9129
-0.690 2.592 1.762 2796
-0.719 2.701 1.820 10407
-0.752 2.825 1.899 1202
-0.718 2.699 1.808 12939
-0.751 2.823 1.886 1908
-0.725 2.723 1.812 16447
-0.758 2.848 1.890 962
-0.728 2.734 1.808 21968
-0.679 2.551 1.694 834
-0.729 2.739 1.800 18457
-0.762 2.864 1.877 1247
-0.732 2.750 1.796 15018
-0.765 2.875 1.873 1284
-0.733 2.755 1.788 9621
-0.767 2.880 1.864 2353
-0.757 2.846 1.832 7143
-0.724 2.720 1.756 2533
-0.757 2.844 1.819 7514
-0.723 2.718 1.744 1395
-0.756 2.842 1.807 8908
-0.723 2.716 1.732 906
-0.758 2.846 1.799 9480
-0.761 2.858 1.794 8505
-0.762 2.862 1.786 7587
-0.770 2.894 1.793 8244
-0.804 3.020 1.866 998
-0.773 2.905 1.788 10754
-0.807 3.032 1.861 1417
-0.776 2.916 1.783 11320
-0.830 3.117 1.898 1463
-0.776 2.914 1.771 10059
-0.831 3.122 1.889 2287
-0.775 2.912 1.758 9149
-0.834 3.134 1.884 2985
-0.776 2.917 1.750 8604
-0.837 3.145 1.878 3992
-0.779 2.928 1.745 7589
-0.837 3.143 1.865 5085
-0.777 2.919 1.728 7027
-0.831 3.121 1.841 5481
-0.841 3.160 1.850 6963
-0.782 2.937 1.727 6316
-0.842 3.165 1.841 8590
-0.783 2.942 1.719 3928
-0.842 3.163 1.827 6987
-0.779 2.926 1.699 2387
-0.841 3.161 1.814 4260
-0.807 3.032 1.745 2792
-0.805 3.023 1.729 3599
-0.841 3.159 1.801 2991
-0.855 3.211 1.817 3992
-0.802 3.014 1.712 3732
-0.856 3.216 1.808 8264
-0.890 3.345 1.876 4560
-0.855 3.214 1.795 11150
-0.892 3.350 1.866 5307
-0.853 3.205 1.778 10485
-0.893 3.355 1.856 4396
-0.849 3.189 1.758 8829
-0.894 3.360 1.846 5790
-0.896 3.365 1.836 12031
-0.848 3.186 1.745 6875
-0.897 3.369 1.826 15967
-0.853 3.205 1.742 6197
-0.900 3.381 1.819 15170
-0.852 3.202 1.729 5699
-0.903 3.393 1.813 11442
-0.855 3.214 1.723 4996
-0.904 3.397 1.803 8100
-0.857 3.218 1.714 4369
-0.907 3.409 1.796 8085
-0.858 3.222 1.704 3799
-0.909 3.414 1.786 7390
-0.859 3.227 1.694 3183
-0.908 3.411 1.772 7085
-0.860 3.231 1.685 1924
-0.909 3.416 1.762 6044
-1.014 3.811 1.953 1755
-0.916 3.441 1.762 4931
-1.019 3.830 1.948 2296
-0.921 3.460 1.758 4351
-1.021 3.835 1.937 2947
-0.924 3.471 1.751 2797
-1.020 3.833 1.922 2433
-1.016 3.817 1.901 2642
-0.921 3.462 1.735 2602
-0.917 3.445 1.714 4311
-1.017 3.822 1.889 3406
-0.916 3.443 1.701 4888
-1.028 3.862 1.894 4046
-1.035 3.888 1.892 4618
-0.918 3.447 1.691 4079
-1.064 3.998 1.928 4162
-1.023 3.844 1.858 3015
-1.073 4.031 1.929 4978
-1.024 3.849 1.847 2823
-1.076 4.043 1.920 4568
-1.041 3.910 1.861 2790
-1.049 3.943 1.861 4797
-1.085 4.076 1.920 3641
-1.085 4.074 1.905 5027
-1.049 3.941 1.846 4635
-1.088 4.086 1.896 5521
-0.962 3.614 1.690 4581
-1.119 4.204 1.933 6447
-0.965 3.625 1.683 3674
-1.117 4.195 1.914 5858
-0.968 3.637 1.675 2151
-1.112 4.179 1.893 5164
-1.148 4.313 1.950 2525
-1.129 4.241 1.904 6163
-0.968 3.638 1.650 2168
-1.132 4.253 1.894 6599
-1.170 4.394 1.953 2598
-1.147 4.307 1.902 5725
-1.111 4.172 1.846 2146
-1.150 4.319 1.892 5096
-1.186 4.454 1.948 1275
-1.155 4.338 1.885 6177
-1.193 4.481 1.943 1429
-1.162 4.365 1.881 8030
-1.198 4.500 1.935 1548
-1.161 4.363 1.865 6045
-1.197 4.498 1.919 1950
-1.185 4.453 1.886 4524
-1.149 4.317 1.832 2783
-1.198 4.501 1.889 4796
-1.162 4.365 1.836 2607
-1.201 4.513 1.879 3598
-1.165 4.377 1.826 1689
-1.197 4.496 1.857 3189
-1.233 4.633 1.910 2591
-1.202 4.516 1.849 4136
-1.238 4.652 1.901 2903
-1.238 4.650 1.885 4088
-1.201 4.513 1.833 2620
-1.243 4.669 1.876 3536
-1.279 4.806 1.927 1961
-1.273 4.782 1.902 2824
-1.219 4.580 1.827 1636
-1.270 4.772 1.883 3281
-1.314 4.938 1.944 1582
-1.264 4.748 1.858 2491
-1.312 4.929 1.924 2052
-1.296 4.869 1.886 3167
-1.259 4.732 1.836 1823
-1.291 4.852 1.863 3730
-1.332 5.004 1.918 3444
-1.339 5.030 1.911 3966
-1.293 4.857 1.849 3099
-1.344 5.050 1.901 4172
-1.298 4.876 1.839 2021
-1.344 5.048 1.883 3991
-1.382 5.193 1.934 2530
-1.345 5.052 1.868 3666
-1.387 5.212 1.923 2194
-1.346 5.057 1.853 4404
-1.391 5.224 1.910 2127
-1.353 5.084 1.845 3567
-1.400 5.258 1.904 2929
-1.422 5.343 1.915 2467
-1.362 5.118 1.840 1766
-1.426 5.356 1.902 3034
-1.364 5.123 1.824 1813
-1.425 5.353 1.883 2771
-1.462 5.492 1.929 1692
-1.428 5.366 1.870 2556
-1.471 5.526 1.922 2078
-1.459 5.480 1.889 2147
-1.422 5.341 1.844 1745
-1.468 5.514 1.882 2319
-1.431 5.375 1.837 1228
-1.471 5.526 1.868 2353
-1.537 5.775 1.946 1366
-1.535 5.766 1.924 2025
-1.470 5.524 1.849 1612
-1.524 5.727 1.893 2242
-1.597 5.998 1.977 1897
-1.588 5.966 1.948 2300
-1.524 5.724 1.874 1860
-1.615 6.067 1.959 2712
-1.578 5.927 1.917 1761
-1.616 6.072 1.941 3138
-1.579 5.932 1.899 1759
-1.596 5.996 1.899 2555
-1.645 6.180 1.953 2382
-1.642 6.170 1.930 2856
-1.603 6.023 1.887 2548
-1.646 6.183 1.914 2651
-1.567 5.888 1.829 1643
-1.676 6.298 1.927 3543
-1.639 6.158 1.887 2206
-1.680 6.311 1.910 4892
-1.572 5.905 1.795 3277
-1.571 5.902 1.776 5599
-1.681 6.316 1.891 2827
-1.572 5.907 1.758 6861
-1.739 6.535 1.932 2427
-1.573 5.911 1.740 4031
-1.684 6.325 1.853 2227
-1.882 7.071 2.034 2715
-1.744 6.552 1.894 2511
-1.883 7.076 2.013 2654
-1.576 5.920 1.705 2094
-1.883 7.074 1.990 2295
-1.946 7.311 2.052 1643
-1.947 7.316 2.030 2095
-1.886 7.086 1.971 1873
-2.141 8.042 2.194 1759
-2.028 7.619 2.085 1627
-1.849 6.948 1.890 2483
-2.144 8.055 2.171 2130
-1.853 6.960 1.871 2113
-2.150 8.076 2.151 1859
-2.169 8.148 2.143 1980
-1.852 6.958 1.849 1940
-1.845 6.933 1.820 2762
-2.162 8.124 2.111 1500
-1.843 6.923 1.796 3080
-2.225 8.361 2.143 2077
-1.842 6.920 1.773 3647
-2.227 8.366 2.118 1935
-1.847 6.939 1.756 4142
-2.232 8.387 2.096 990
-1.848 6.944 1.735 4369
-1.851 6.956 1.716 4588
-1.857 6.975 1.699 5488
-1.854 6.964 1.675 5329
-1.774 6.665 1.608 2107
-1.855 6.969 1.654 4783
-1.777 6.677 1.590 4392
-1.776 6.673 1.568 5801
-1.858 6.980 1.634 3974
-1.777 6.677 1.548 6199
-1.825 6.857 1.586 3378
-1.784 6.704 1.533 7599
-1.826 6.861 1.566 3750
-1.785 6.708 1.513 9250
-1.827 6.865 1.545 2840
-1.785 6.704 1.491 6742
-1.747 6.561 1.462 2496
-1.776 6.670 1.463 3849
-1.716 6.445 1.418 2965
-1.716 6.449 1.399 5771
-1.775 6.667 1.442 4070
-1.717 6.452 1.380 6705
-1.769 6.648 1.418 4157
-1.766 6.636 1.395 4829
-1.720 6.463 1.362 4799
-1.677 6.301 1.311 4523
-1.725 6.482 1.345 3783
-1.724 6.477 1.324 4932
-1.678 6.304 1.292 4302
-1.727 6.488 1.306 5561
-1.765 6.631 1.332 4003
-1.726 6.484 1.286 4607
-1.678 6.303 1.253 4187
-1.727 6.487 1.266 6234
-1.681 6.314 1.236 5273
-1.728 6.490 1.247 9195
-1.685 6.332 1.219 5249
-1.728 6.493 1.227 9641
-1.684 6.327 1.199 6248
-1.681 6.315 1.178 8584
-1.729 6.497 1.208 7442
-1.682 6.318 1.159 8502
-1.730 6.499 1.188 5210
-1.681 6.313 1.139 6451
-1.731 6.502 1.169 4021
-1.677 6.301 1.117 7204
-1.732 6.505 1.149 2908
-1.676 6.296 1.097 8226
-1.732 6.508 1.130 1642
-1.679 6.306 1.080 5933
-1.733 6.511 1.110 784
-1.679 6.309 1.061 2942
-1.672 6.281 1.037 2139
-1.710 6.425 1.058 958
-1.671 6.276 1.017 2372
-1.669 6.271 0.998 2936
-1.670 6.274 0.979 3368
-1.671 6.276 0.960 3299
-1.671 6.278 0.941 2936
-1.672 6.280 0.922 2651
-1.633 6.136 0.904 818
-1.672 6.283 0.904 2151
-1.634 6.138 0.886 774
-1.673 6.285 0.885 1226
-1.632 6.133 0.867 818
-1.631 6.127 0.847 1302
-1.629 6.122 0.828 1271
-1.626 6.108 0.808 1074
-1.612 6.057 0.784 1052
-1.607 6.036 0.763 1052
-1.601 6.015 0.743 1004
-1.599 6.009 0.724 1232
-1.596 5.995 0.705 1391
-1.584 5.951 0.683 1400
-1.580 5.937 0.664 1728
-1.579 5.931 0.645 1222
-1.567 5.887 0.624 1075
-1.567 5.888 0.606 1159
-1.572 5.905 0.589 1506
-1.572 5.906 0.572 1763
-1.572 5.907 0.554 1586
-1.544 5.801 0.529 930
-1.532 5.757 0.509 950
-1.535 5.765 0.492 1064
-1.539 5.781 0.476 803
-1.519 5.708 0.403 872
-1.518 5.701 0.385 991
-1.518 5.702 0.368 840
-1.490 5.596 0.330 803
-1.490 5.597 0.314 1165
-1.492 5.605 0.297 1357
-1.494 5.613 0.281 1186
-1.494 5.613 0.264 824
-1.468 5.514 0.245 870
-1.468 5.515 0.229 877
-1.468 5.515 0.212 883
-1.468 5.515 0.196 794
-1.446 5.431 0.130 832
-1.444 5.423 0.113 771
-1.435 5.392 0.033 753
-1.394 5.237 -0.042 762
-1.394 5.236 -0.058 899
-0.590 2.228 1.797 1809
-0.591 2.233 1.791 3619
-0.625 2.363 1.889 2656
-0.617 2.330 1.854 5352
-0.586 2.213 1.765 2995
-0.628 2.372 1.875 6410
-0.595 2.248 1.782 2816
-0.631 2.383 1.872 7655
-0.600 2.265 1.785 2128
-0.634 2.395 1.870 8560
-0.602 2.276 1.783 1984
-0.637 2.406 1.867 9943
-0.605 2.287 1.780 2025
-0.641 2.423 1.869 10512
-0.610 2.304 1.783 2119
-0.641 2.422 1.858 13244
-0.609 2.303 1.771 1781
-0.642 2.426 1.851 16197
-0.611 2.307 1.765 1454
-0.644 2.431 1.843 13510
-0.675 2.551 1.929 2219
-0.645 2.436 1.836 10824
-0.676 2.556 1.922 3230
-0.648 2.447 1.834 11877
-0.679 2.567 1.918 2917
-0.649 2.452 1.826 13000
-0.681 2.572 1.911 3936
-0.650 2.457 1.819 13000
-0.682 2.577 1.903 4806
-0.653 2.468 1.816 11901
-0.685 2.589 1.900 5921
-0.654 2.473 1.809 10958
-0.686 2.594 1.892 7219
-0.683 2.579 1.871 10978
-0.651 2.458 1.788 6958
-0.684 2.584 1.864 14280
-0.652 2.463 1.781 3742
-0.685 2.589 1.856 13638
-0.653 2.467 1.774 3598
-0.687 2.594 1.849 12995
-0.654 2.472 1.767 3454
-0.688 2.599 1.841 8690
-0.655 2.477 1.759 3058
-0.704 2.661 1.872 8295
-0.662 2.500 1.765 2944
-0.707 2.673 1.868 10645
-0.675 2.550 1.787 2568
-0.709 2.678 1.860 13093
-0.676 2.555 1.780 2981
-0.713 2.695 1.861 12076
-0.681 2.572 1.780 4189
-0.716 2.707 1.857 12059
-0.684 2.584 1.777 5076
-0.716 2.705 1.845 10370
-0.683 2.582 1.765 3245
-0.717 2.710 1.837 8795
-0.685 2.586 1.758 2289
-0.715 2.702 1.820 10318
-0.748 2.826 1.899 1275
-0.715 2.700 1.808 12641
-0.747 2.824 1.886 2052
-0.721 2.724 1.812 16157
-0.754 2.849 1.890 1048
-0.724 2.735 1.808 21370
-0.757 2.860 1.886 891
-0.725 2.740 1.800 17732
-0.758 2.865 1.877 1230
-0.728 2.751 1.796 14115
-0.761 2.876 1.873 1139
-0.729 2.756 1.788 9109
-0.763 2.881 1.864 2167
-0.753 2.847 1.832 6595
-0.720 2.721 1.756 2514
-0.751 2.838 1.815 6757
-0.718 2.712 1.740 1043
-0.752 2.843 1.807 8274
-0.719 2.717 1.732 866
-0.755 2.854 1.803 9162
-0.722 2.728 1.728 867
-0.757 2.859 1.794 8407
-0.758 2.864 1.786 7653
-0.766 2.895 1.793 7826
-0.824 3.115 1.921 923
-0.769 2.906 1.788 10165
-0.803 3.033 1.861 1273
-0.772 2.917 1.783 10717
-0.825 3.118 1.898 1295
-0.772 2.915 1.771 9496
-0.827 3.123 1.889 2143
-0.771 2.913 1.758 8702
-0.828 3.128 1.880 2911
-0.772 2.918 1.750 8092
-0.831 3.140 1.874 3864
-0.775 2.929 1.745 7160
-0.831 3.138 1.861 4981
-0.775 2.927 1.732 6782
-0.826 3.123 1.841 5453
-0.835 3.154 1.846 6527
-0.778 2.938 1.727 5827
-0.836 3.159 1.837 7842
-0.781 2.949 1.722 3195
-0.836 3.157 1.824 6372
-0.802 3.028 1.754 2289
-0.833 3.148 1.807 3909
-0.799 3.019 1.738 3031
-0.800 3.024 1.729 3807
-0.835 3.153 1.798 2632
-0.852 3.219 1.821 3844
-0.800 3.022 1.716 3612
-0.851 3.217 1.808 7560
-0.886 3.346 1.876 4524
-0.851 3.215 1.795 9689
-0.885 3.344 1.862 5363
-0.848 3.206 1.778 8789
-0.886 3.349 1.852 4322
-0.842 3.183 1.754 7838
-0.890 3.361 1.846 5414
-0.891 3.366 1.836 11438
-0.844 3.187 1.745 6846
-0.892 3.371 1.826 15333
-0.847 3.199 1.739 6544
-0.895 3.382 1.819 14742
-0.848 3.203 1.729 5943
-0.898 3.394 1.813 11085
-0.849 3.208 1.720 4824
-0.900 3.399 1.803 7824
-0.852 3.219 1.714 3579
-0.901 3.403 1.793 8034
-0.855 3.231 1.707 2866
-0.904 3.415 1.786 7504
-0.854 3.228 1.694 2288
-0.903 3.412 1.772 7541
-0.997 3.766 1.944 1935
-0.904 3.417 1.762 6829
-0.996 3.764 1.929 1828
-0.911 3.442 1.762 5830
-1.012 3.825 1.945 2104
-0.914 3.454 1.755 4505
-1.017 3.844 1.940 2644
-0.921 3.479 1.755 2741
-1.015 3.835 1.922 2468
-1.011 3.819 1.901 3087
-0.920 3.477 1.741 2766
-0.912 3.447 1.714 4079
-1.014 3.831 1.893 3847
-0.913 3.451 1.704 4454
-1.047 3.954 1.936 4216
-1.046 3.953 1.921 4629
-0.913 3.448 1.691 3739
-1.059 4.000 1.928 4419
-1.018 3.845 1.858 3391
-1.069 4.040 1.932 5580
-1.019 3.850 1.847 2921
-1.071 4.045 1.920 5535
-1.035 3.911 1.861 2493
-1.074 4.057 1.911 5207
-1.038 3.923 1.852 3577
-1.079 4.076 1.905 5160
-1.043 3.942 1.846 4036
-1.082 4.088 1.896 5461
-1.117 4.222 1.954 4245
-1.113 4.206 1.933 6792
-1.066 4.029 1.856 3745
-1.109 4.190 1.911 6556
-0.911 3.440 1.590 1884
-1.106 4.181 1.893 6077
-1.142 4.315 1.950 2547
-1.123 4.242 1.904 6304
-1.158 4.377 1.961 1693
-1.126 4.254 1.894 7297
-1.164 4.396 1.953 2630
-1.139 4.302 1.899 6186
-1.103 4.167 1.843 2060
-1.144 4.321 1.892 5579
-1.179 4.456 1.948 1268
-1.149 4.340 1.885 7074
-1.186 4.483 1.943 1416
-1.156 4.366 1.881 9011
-1.192 4.502 1.935 1740
-1.155 4.364 1.865 6510
-1.191 4.500 1.919 2213
-1.179 4.455 1.886 5034
-1.143 4.319 1.832 2631
-1.192 4.503 1.889 5406
-1.156 4.367 1.836 2455
-1.189 4.493 1.870 4302
-1.225 4.629 1.923 1865
-1.191 4.498 1.857 4149
-1.227 4.634 1.910 2569
-1.194 4.510 1.846 5367
-1.230 4.646 1.898 3016
-1.229 4.644 1.882 3810
-1.193 4.508 1.830 3676
-1.236 4.671 1.876 3318
-1.200 4.534 1.825 2015
-1.262 4.769 1.897 2811
-1.213 4.582 1.827 1893
-1.264 4.774 1.883 3534
-1.307 4.940 1.944 1629
-1.267 4.786 1.871 2756
-1.307 4.938 1.927 2200
-1.287 4.863 1.883 3258
-1.324 5.001 1.933 1656
-1.287 4.861 1.866 3840
-1.325 5.006 1.918 3504
-1.332 5.032 1.911 4228
-1.286 4.859 1.849 3168
-1.335 5.045 1.898 4336
-1.372 5.182 1.946 1879
-1.335 5.042 1.880 3538
-1.375 5.195 1.934 2332
-1.336 5.047 1.865 2734
-1.380 5.214 1.923 2169
-1.339 5.059 1.853 3928
-1.389 5.248 1.917 2362
-1.348 5.093 1.847 3551
-1.396 5.275 1.909 2969
-1.415 5.345 1.915 2567
-1.351 5.105 1.835 1699
-1.416 5.350 1.899 3413
-1.356 5.125 1.824 1666
-1.419 5.363 1.886 3140
-1.456 5.501 1.931 1543
-1.423 5.375 1.872 2925
-1.459 5.514 1.917 1686
-1.426 5.387 1.858 2569
-1.482 5.599 1.926 1723
-1.462 5.524 1.884 2333
-1.425 5.385 1.840 1363
-1.465 5.536 1.870 2308
-1.527 5.770 1.944 1390
-1.527 5.768 1.924 1986
-1.476 5.577 1.865 1636
-1.518 5.736 1.896 1967
-1.588 6.000 1.977 1792
-1.580 5.969 1.948 1928
-1.518 5.734 1.876 1574
-1.606 6.069 1.959 2938
-1.569 5.930 1.917 1564
-1.608 6.074 1.941 3434
-1.571 5.935 1.899 1496
-1.611 6.087 1.925 2481
-1.574 5.947 1.883 1306
-1.597 6.033 1.889 2201
-1.636 6.180 1.932 2124
-1.561 5.898 1.831 3302
-1.660 6.274 1.939 2523
-1.562 5.902 1.813 6067
-1.668 6.301 1.927 4141
-1.563 5.907 1.795 7479
-1.671 6.313 1.910 5461
-1.565 5.912 1.778 7163
-1.672 6.318 1.891 2998
-1.566 5.916 1.760 7728
-1.728 6.530 1.930 2032
-1.567 5.921 1.742 8219
-1.675 6.328 1.853 2322
-1.568 5.925 1.724 5958
-1.737 6.562 1.896 2585
-1.569 5.930 1.707 2895
-1.740 6.575 1.879 1703
-1.900 7.180 2.017 1629
-1.950 7.366 2.066 1503
-1.945 7.349 2.038 1801
-1.902 7.185 1.996 1332
-1.838 6.946 1.911 2036
-2.017 7.621 2.085 1493
-1.840 6.951 1.890 3408
-2.133 8.058 2.171 1891
-1.843 6.963 1.871 2713
-2.138 8.079 2.151 1664
-1.834 6.931 1.841 2102
-2.155 8.144 2.141 1788
-1.834 6.928 1.819 3614
-2.153 8.134 2.113 1433
-1.833 6.925 1.796 4017
-2.212 8.356 2.141 1780
-1.832 6.922 1.773 4548
-2.215 8.369 2.118 1515
-1.837 6.942 1.756 4507
-1.800 6.800 1.723 863
-1.839 6.946 1.735 3860
-1.801 6.804 1.703 1330
-1.844 6.966 1.718 4302
-1.806 6.824 1.686 1249
-1.845 6.970 1.697 5071
-1.778 6.716 1.640 1335
-1.844 6.967 1.675 3909
-1.777 6.713 1.618 2488
-1.772 6.694 1.593 5189
-1.843 6.964 1.652 2905
-1.771 6.691 1.571 7011
-1.844 6.968 1.631 2595
-1.768 6.680 1.548 6496
-1.816 6.860 1.586 2869
-1.773 6.699 1.531 6024
-1.817 6.864 1.566 2847
-1.776 6.710 1.513 7013
-1.738 6.568 1.483 3314
-1.775 6.707 1.491 6778
-1.737 6.564 1.462 2968
-1.764 6.665 1.462 6376
-1.706 6.447 1.418 2744
-1.765 6.669 1.442 6119
-1.707 6.451 1.399 5263
-1.710 6.462 1.381 6137
-1.756 6.635 1.415 4954
-1.755 6.631 1.393 4333
-1.713 6.473 1.363 4220
-1.710 6.461 1.341 4225
-1.754 6.627 1.372 2785
-1.713 6.472 1.323 8628
-1.755 6.631 1.352 2538
-1.716 6.483 1.305 10971
-1.754 6.626 1.331 2817
-1.717 6.486 1.286 9000
-1.755 6.630 1.311 2744
-1.720 6.497 1.267 8680
-1.678 6.339 1.240 2589
-1.720 6.500 1.248 9954
-1.679 6.342 1.221 5746
-1.719 6.496 1.227 9984
-1.675 6.330 1.199 8024
-1.674 6.325 1.179 8332
-1.720 6.499 1.208 7853
-1.675 6.328 1.160 6832
-1.721 6.502 1.188 5439
-1.672 6.316 1.139 6001
-1.722 6.505 1.169 4083
-1.670 6.311 1.118 6059
-1.722 6.508 1.149 2940
-1.671 6.314 1.100 4045
-1.723 6.511 1.130 1623
-1.684 6.362 1.087 3599
-1.726 6.521 1.111 786
-1.662 6.281 1.056 3393
-1.701 6.425 1.077 884
-1.665 6.291 1.038 3570
-1.664 6.286 1.019 3329
-1.660 6.273 0.998 4115
-1.661 6.276 0.979 4306
-1.662 6.278 0.960 4026
-1.662 6.281 0.941 3756
-1.624 6.136 0.923 873
-1.663 6.283 0.922 3398
-1.625 6.138 0.904 1186
-1.663 6.285 0.904 2600
-1.625 6.141 0.886 1020
-1.636 6.181 0.872 1487
-1.674 6.325 0.889 927
-1.622 6.129 0.847 1733
-1.621 6.124 0.828 1675
-1.583 5.979 0.812 757
-1.615 6.103 0.807 1371
-1.604 6.059 0.784 1553
-1.598 6.038 0.763 1778
-1.593 6.017 0.743 1567
-1.591 6.011 0.724 1875
-1.589 6.005 0.706 2156
-1.572 5.938 0.681 1958
-1.610 6.083 0.695 1033
-1.570 5.932 0.663 2613
-1.608 6.077 0.676 907
-1.568 5.926 0.644 1929
-1.559 5.889 0.624 1765
-1.557 5.883 0.605 1915
-1.563 5.907 0.589 2267
-1.564 5.908 0.572 2556
-1.525 5.763 0.561 880
-1.564 5.909 0.554 2359
-1.526 5.764 0.544 1022
-1.532 5.788 0.528 1519
-1.570 5.933 0.538 1025
-1.526 5.766 0.509 1564
-1.524 5.760 0.492 1651
-1.531 5.784 0.476 1208
-1.533 5.792 0.459 907
-1.533 5.793 0.441 937
-1.511 5.711 0.403 1210
-1.512 5.711 0.386 1383
-1.512 5.712 0.369 1283
-1.514 5.720 0.352 1180
-1.482 5.598 0.330 1236
-1.520 5.744 0.335 858
-1.480 5.591 0.313 1733
-1.482 5.599 0.297 1933
-1.486 5.615 0.281 1593
-1.462 5.524 0.262 1282
-1.460 5.516 0.245 1518
-1.460 5.517 0.229 1471
-1.460 5.517 0.212 1424
-1.460 5.517 0.196 1257
-1.462 5.525 0.179 1095
-1.460 5.517 0.163 784
-1.436 5.425 0.146 856
-1.438 5.433 0.130 1017
-1.436 5.425 0.113 937
-1.434 5.418 0.097 882
-1.420 5.364 0.066 762
-1.426 5.386 0.049 825
-1.428 5.394 0.033 972
-1.428 5.394 0.017 806
-1.387 5.239 -0.027 944
-1.387 5.239 -0.042 1196
-1.386 5.238 -0.058 1448
-1.386 5.238 -0.074 1172
-1.386 5.237 -0.089 897
-0.586 2.229 1.797 1947
-0.587 2.234 1.791 3894
-0.621 2.364 1.889 2653
-0.612 2.331 1.854 5496
-0.581 2.214 1.765 2976
-0.623 2.374 1.875 6264
-0.591 2.249 1.782 3239
-0.626 2.385 1.872 7321
-0.594 2.260 1.780 2655
-0.629 2.396 1.870 8259
-0.598 2.277 1.783 2284
-0.635 2.419 1.877 9863
-0.603 2.294 1.785 2395
-0.637 2.424 1.869 10484
-0.604 2.299 1.778 2395
-0.636 2.423 1.858 13287
-0.605 2.304 1.771 2042
-0.638 2.428 1.851 16407
-0.606 2.308 1.765 1688
-0.639 2.433 1.843 13631
-0.670 2.552 1.929 2133
-0.642 2.444 1.841 10984
-0.673 2.563 1.926 2613
-0.643 2.448 1.834 11871
-0.675 2.569 1.918 2771
-0.644 2.453 1.826 12757
-0.676 2.574 1.911 3842
-0.646 2.458 1.819 12757
-0.677 2.579 1.903 4757
-0.648 2.469 1.816 12032
-0.680 2.590 1.900 6129
-0.650 2.474 1.809 11391
-0.682 2.595 1.892 7634
-0.678 2.581 1.871 11244
-0.646 2.459 1.788 7216
-0.679 2.585 1.864 14283
-0.647 2.464 1.781 3823
-0.680 2.590 1.856 13646
-0.648 2.469 1.774 3555
-0.682 2.595 1.849 13008
-0.650 2.473 1.767 3287
-0.683 2.600 1.841 8810
-0.651 2.478 1.759 2955
-0.699 2.663 1.872 8304
-0.657 2.502 1.765 3009
-0.702 2.674 1.868 10915
-0.670 2.551 1.787 2446
-0.704 2.679 1.860 13664
-0.671 2.556 1.780 2809
-0.708 2.697 1.861 12652
-0.676 2.574 1.780 4043
-0.711 2.708 1.857 12524
-0.679 2.585 1.777 4935
-0.711 2.706 1.845 10465
-0.678 2.583 1.765 3101
-0.712 2.711 1.837 8519
-0.680 2.587 1.758 2139
-0.710 2.703 1.820 10166
-0.743 2.827 1.899 1334
-0.709 2.701 1.808 12199
-0.742 2.825 1.886 2170
-0.716 2.726 1.812 15655
-0.749 2.850 1.890 1111
-0.719 2.737 1.808 20498
-0.752 2.862 1.886 949
-0.720 2.742 1.800 16751
-0.753 2.866 1.877 1199
-0.723 2.753 1.796 13044
-0.756 2.878 1.873 1003
-0.724 2.757 1.788 8568
-0.757 2.883 1.864 1912
-0.748 2.848 1.832 5889
-0.715 2.722 1.756 2432
-0.746 2.840 1.815 6059
-0.713 2.714 1.740 995
-0.747 2.844 1.807 7461
-0.714 2.718 1.732 835
-0.750 2.856 1.803 8449
-0.717 2.729 1.728 865
-0.751 2.860 1.794 7541
-0.751 2.858 1.782 6708
-0.761 2.896 1.793 6290
-0.819 3.117 1.921 859
-0.765 2.914 1.792 8704
-0.820 3.122 1.911 1129
-0.767 2.919 1.783 9343
-0.819 3.120 1.898 1135
-0.766 2.917 1.771 8363
-0.819 3.118 1.885 2017
-0.764 2.908 1.754 7846
-0.822 3.130 1.880 2863
-0.767 2.919 1.750 7105
-0.825 3.141 1.874 3756
-0.770 2.931 1.745 6336
-0.825 3.140 1.861 4851
-0.769 2.928 1.732 6105
-0.822 3.131 1.844 5258
-0.827 3.149 1.842 6201
-0.772 2.940 1.727 5160
-0.828 3.154 1.833 7309
-0.795 3.025 1.763 3169
-0.828 3.152 1.820 6309
-0.794 3.023 1.750 2531
-0.826 3.143 1.803 4497
-0.792 3.014 1.734 3223
-0.796 3.032 1.732 4054
-0.830 3.161 1.801 2809
-0.826 3.146 1.781 3633
-0.860 3.275 1.850 3462
-0.845 3.218 1.808 6677
-0.879 3.348 1.876 4450
-0.845 3.216 1.795 8293
-0.879 3.346 1.862 5362
-0.841 3.200 1.774 7479
-0.880 3.351 1.852 4288
-0.836 3.185 1.754 7271
-0.883 3.363 1.846 5195
-0.884 3.367 1.836 10958
-0.838 3.189 1.745 6891
-0.886 3.372 1.826 14600
-0.841 3.200 1.739 6796
-0.889 3.384 1.819 14137
-0.842 3.205 1.729 6091
-0.892 3.396 1.813 10377
-0.843 3.209 1.720 4792
-0.893 3.400 1.803 7115
-0.846 3.221 1.714 3235
-0.894 3.405 1.793 7726
-0.849 3.232 1.707 2401
-0.896 3.410 1.783 7600
-0.850 3.237 1.698 1826
-0.897 3.414 1.772 7687
-0.988 3.761 1.941 1860
-0.898 3.419 1.762 7141
-0.989 3.766 1.929 1807
-0.905 3.444 1.762 6465
-1.005 3.826 1.945 1894
-0.908 3.456 1.755 5004
-1.010 3.845 1.940 2419
-0.912 3.474 1.751 2836
-1.009 3.844 1.925 2596
-1.005 3.828 1.904 3435
-0.912 3.472 1.738 2924
-1.007 3.833 1.893 4157
-0.908 3.455 1.718 3666
-1.039 3.956 1.936 5086
-0.907 3.453 1.704 3961
-1.040 3.962 1.924 5560
-0.906 3.450 1.691 3282
-1.051 4.002 1.928 4742
-1.010 3.847 1.858 3737
-1.062 4.042 1.932 6117
-1.012 3.852 1.847 3005
-1.063 4.047 1.920 6401
-1.028 3.913 1.861 1993
-1.066 4.059 1.911 6050
-1.031 3.925 1.852 2686
-1.069 4.071 1.902 5406
-1.034 3.937 1.843 2878
-1.074 4.090 1.896 5180
-1.109 4.224 1.954 4144
-1.103 4.201 1.930 6888
-1.061 4.038 1.859 4440
-1.101 4.192 1.911 7352
-1.062 4.043 1.847 2396
-1.099 4.183 1.893 6812
-1.134 4.317 1.950 2359
-1.115 4.244 1.904 6085
-1.150 4.379 1.961 1502
-1.120 4.263 1.897 7688
-1.155 4.398 1.953 2411
-1.130 4.304 1.899 6517
-1.095 4.169 1.843 2165
-1.135 4.323 1.892 6011
-1.171 4.458 1.948 1287
-1.140 4.342 1.885 7776
-1.178 4.485 1.943 1497
-1.146 4.361 1.878 9494
-1.181 4.497 1.933 2006
-1.147 4.366 1.865 6866
-1.182 4.502 1.919 2385
-1.171 4.457 1.886 5347
-1.135 4.321 1.832 2499
-1.181 4.498 1.887 5737
-1.146 4.362 1.833 2279
-1.181 4.495 1.870 4793
-1.216 4.632 1.923 1786
-1.182 4.500 1.857 4814
-1.218 4.637 1.910 2558
-1.185 4.512 1.846 6274
-1.221 4.649 1.898 2761
-1.188 4.524 1.836 4778
-1.224 4.661 1.887 3230
-1.231 4.687 1.881 3410
-1.193 4.543 1.827 2840
-1.251 4.764 1.894 2791
-1.204 4.584 1.827 2173
-1.255 4.776 1.883 3444
-1.211 4.611 1.822 1765
-1.260 4.796 1.874 3030
-1.298 4.940 1.927 2431
-1.278 4.866 1.883 3201
-1.314 5.003 1.933 1624
-1.279 4.871 1.868 3748
-1.315 5.008 1.918 3517
-1.322 5.035 1.911 4261
-1.279 4.868 1.851 2976
-1.326 5.047 1.898 4229
-1.289 4.909 1.850 1925
-1.323 5.037 1.878 3263
-1.363 5.190 1.931 2035
-1.273 4.846 1.795 2146
-1.324 5.042 1.863 2141
-1.337 5.091 1.863 3552
-1.383 5.265 1.922 2642
-1.338 5.096 1.847 3386
-1.388 5.285 1.911 3144
-1.407 5.355 1.918 2565
-1.349 5.137 1.844 1649
-1.408 5.360 1.902 3468
-1.343 5.113 1.819 1607
-1.409 5.365 1.886 3494
-1.446 5.504 1.931 1593
-1.412 5.378 1.872 3499
-1.449 5.516 1.917 1591
-1.416 5.390 1.858 2657
-1.452 5.529 1.903 1645
-1.451 5.526 1.884 2351
-1.503 5.724 1.947 1421
-1.455 5.539 1.870 2353
-1.516 5.773 1.944 1501
-1.516 5.771 1.924 2075
-1.456 5.543 1.853 1657
-1.507 5.739 1.896 1798
-1.465 5.578 1.846 1661
-1.568 5.972 1.948 1619
-1.509 5.744 1.878 1288
-1.597 6.080 1.961 3184
-1.560 5.940 1.919 1529
-1.596 6.077 1.941 3686
-1.559 5.938 1.899 1474
-1.599 6.090 1.925 2498
-1.563 5.950 1.883 1387
-1.587 6.043 1.891 2201
-1.649 6.279 1.960 2185
-1.649 6.277 1.939 2515
-1.550 5.901 1.831 2129
-1.656 6.304 1.927 4087
-1.549 5.898 1.811 3257
-1.659 6.316 1.910 5512
-1.550 5.903 1.793 3757
-1.552 5.907 1.776 9547
-1.658 6.314 1.889 2950
-1.555 5.919 1.760 11649
-1.662 6.326 1.872 1949
-1.556 5.924 1.742 6416
-1.663 6.331 1.853 2444
-1.555 5.921 1.722 3792
-1.724 6.566 1.896 2725
-1.556 5.925 1.705 2208
-1.889 7.193 2.043 1731
-1.928 7.340 2.058 1840
-1.889 7.191 2.019 1808
-1.931 7.352 2.038 2002
-1.888 7.189 1.996 1536
-1.825 6.949 1.911 2547
-2.005 7.633 2.087 1650
-1.826 6.954 1.890 3852
-2.004 7.631 2.062 1773
-1.830 6.966 1.871 2722
-2.123 8.083 2.151 1344
-1.813 6.904 1.834 2794
-2.140 8.148 2.141 1321
-1.820 6.931 1.819 4055
-2.143 8.161 2.119 1243
-1.822 6.936 1.798 4538
-2.196 8.360 2.141 1114
-1.821 6.933 1.775 4975
-2.197 8.366 2.116 871
-1.824 6.945 1.756 4232
-1.787 6.803 1.723 1402
-1.823 6.942 1.734 3027
-1.786 6.800 1.701 1674
-1.828 6.962 1.716 3547
-1.791 6.820 1.684 1615
-1.832 6.974 1.697 4033
-1.761 6.704 1.636 2610
-1.764 6.716 1.618 3846
-1.817 6.918 1.663 2349
-1.763 6.713 1.596 5062
-1.818 6.922 1.642 2445
-1.762 6.709 1.575 6195
-1.827 6.957 1.628 2514
-1.759 6.698 1.551 7400
-1.803 6.863 1.586 1892
-1.762 6.710 1.533 7141
-1.725 6.567 1.503 1844
-1.761 6.706 1.511 6240
-1.702 6.481 1.465 2894
-1.758 6.695 1.488 7617
-1.703 6.485 1.445 2771
-1.755 6.684 1.465 6531
-1.718 6.541 1.436 2722
-1.745 6.642 1.436 4283
-1.695 6.454 1.399 4134
-1.738 6.616 1.410 6827
-1.696 6.458 1.380 5227
-1.739 6.619 1.390 6498
-1.699 6.469 1.362 4934
-1.700 6.472 1.342 7672
-1.652 6.291 1.309 3458
-1.701 6.476 1.323 12962
-1.655 6.302 1.291 3336
-1.702 6.479 1.304 14450
-1.654 6.298 1.271 4208
-1.703 6.482 1.284 12168
-1.657 6.309 1.253 4317
-1.707 6.500 1.267 11103
-1.666 6.342 1.240 3955
-1.708 6.504 1.248 11210
-1.666 6.345 1.221 6555
-1.707 6.499 1.227 10669
-1.665 6.340 1.200 7039
-1.710 6.510 1.209 8048
-1.666 6.343 1.181 6154
-1.667 6.346 1.162 6252
-1.709 6.505 1.188 5325
-1.662 6.326 1.140 7081
-1.709 6.508 1.169 3825
-1.660 6.322 1.120 9663
-1.710 6.511 1.149 2597
-1.661 6.324 1.101 10452
-1.711 6.514 1.130 1321
-1.660 6.320 1.081 7724
-1.659 6.315 1.061 4736
-1.657 6.310 1.041 3892
-1.656 6.305 1.021 3610
-1.618 6.160 1.000 993
-1.651 6.284 0.999 4477
-1.651 6.287 0.980 4989
-1.613 6.142 0.960 859
-1.652 6.289 0.961 4593
-1.614 6.145 0.942 919
-1.650 6.284 0.941 4088
-1.612 6.139 0.923 1160
-1.649 6.278 0.921 3469
-1.611 6.134 0.903 1505
-1.626 6.189 0.891 2749
-1.664 6.334 0.909 1195
-1.624 6.184 0.872 2054
-1.586 6.039 0.855 1391
-1.611 6.133 0.847 2349
-1.573 5.988 0.830 1026
-1.609 6.127 0.828 2149
-1.571 5.982 0.812 1185
-1.606 6.114 0.808 1607
-1.568 5.969 0.792 1187
-1.592 6.062 0.784 1771
-1.585 6.033 0.763 2501
-1.623 6.178 0.778 788
-1.581 6.020 0.743 2153
-1.580 6.014 0.724 2388
-1.578 6.008 0.706 2838
-1.570 5.979 0.685 2613
-1.559 5.935 0.663 3451
-1.597 6.080 0.676 1178
-1.555 5.921 0.644 2666
-1.593 6.066 0.656 951
-1.547 5.892 0.624 2503
-1.586 6.037 0.636 1036
-1.538 5.855 0.603 2881
-1.576 6.000 0.614 821
-1.532 5.833 0.584 3462
-1.570 5.978 0.595 984
-1.530 5.827 0.566 3339
-1.569 5.972 0.576 988
-1.551 5.905 0.554 3062
-1.513 5.759 0.543 1067
-1.521 5.791 0.528 2295
-1.559 5.936 0.538 1262
-1.515 5.769 0.509 2288
-1.516 5.770 0.492 2351
-1.518 5.779 0.475 1735
-1.522 5.795 0.459 1214
-1.522 5.796 0.441 1163
-1.520 5.789 0.424 971
-1.503 5.721 0.403 1407
-1.501 5.714 0.386 1600
-1.501 5.715 0.369 1668
-1.501 5.715 0.352 1713
-1.463 5.570 0.346 773
-1.473 5.609 0.331 1615
-1.511 5.754 0.336 988
-1.469 5.594 0.313 2220
-1.507 5.739 0.318 837
-1.469 5.595 0.297 2349
-1.472 5.603 0.280 1905
-1.451 5.526 0.262 1658
-1.450 5.519 0.245 2130
-1.450 5.519 0.229 2113
-1.450 5.520 0.212 2097
-1.450 5.520 0.196 1811
-1.452 5.528 0.179 1538
-1.450 5.520 0.163 1150
-1.422 5.413 0.146 1112
-1.428 5.436 0.130 1186
-1.426 5.428 0.113 1046
-1.424 5.420 0.097 921
-1.412 5.374 0.082 884
-1.409 5.366 0.066 1194
-1.411 5.374 0.049 1171
-1.413 5.381 0.033 1222
-1.415 5.389 0.017 1038
-1.417 5.396 0.001 866
-1.405 5.349 -0.014 998
-1.403 5.341 -0.030 1220
-1.365 5.196 -0.025 767
-1.375 5.234 -0.042 1570
-1.374 5.233 -0.058 1958
-1.376 5.240 -0.074 1625
-1.376 5.240 -0.089 1306
-1.368 5.208 -0.104 1174
-1.366 5.200 -0.119 1221
-1.366 5.199 -0.134 1071
-1.371 5.221 -0.151 961
-1.371 5.221 -0.167 852
-1.351 5.143 -0.178 985
-1.355 5.158 -0.194 919
-1.356 5.164 -0.210 911
-1.350 5.140 -0.224 882
-1.348 5.132 -0.238 944
-1.348 5.131 -0.254 944
-0.579 2.231 1.797 2128
-0.581 2.236 1.791 4256
-0.614 2.365 1.889 2632
-0.606 2.333 1.854 5496
-0.575 2.215 1.765 3098
-0.617 2.375 1.875 6060
-0.585 2.251 1.782 3717
-0.620 2.386 1.872 6914
-0.587 2.262 1.780 3285
-0.623 2.397 1.870 7874
-0.590 2.273 1.778 2678
-0.629 2.421 1.877 9755
-0.596 2.296 1.785 2634
-0.630 2.426 1.869 10393
-0.597 2.301 1.778 2634
-0.631 2.431 1.862 13206
-0.600 2.312 1.776 2433
-0.631 2.429 1.851 16202
-0.600 2.310 1.765 1922
-0.634 2.441 1.848 13422
-0.603 2.321 1.762 1922
-0.635 2.445 1.841 10824
-0.666 2.565 1.926 2474
-0.636 2.450 1.834 11611
-0.668 2.570 1.918 2637
-0.638 2.455 1.826 12399
-0.669 2.575 1.911 3756
-0.639 2.460 1.819 12399
-0.670 2.580 1.903 4711
-0.642 2.471 1.816 12066
-0.673 2.592 1.900 6269
-0.643 2.476 1.809 11759
-0.674 2.597 1.892 7914
-0.672 2.589 1.876 11344
-0.641 2.467 1.793 7942
-0.674 2.594 1.868 14126
-0.642 2.472 1.785 4306
-0.673 2.592 1.856 13444
-0.642 2.470 1.774 3457
-0.674 2.597 1.849 12864
-0.643 2.475 1.767 3085
-0.676 2.602 1.841 8794
-0.644 2.480 1.759 2803
-0.692 2.665 1.872 8076
-0.652 2.510 1.769 2999
-0.695 2.676 1.868 10945
-0.663 2.553 1.787 2392
-0.696 2.681 1.860 14005
-0.664 2.558 1.780 2750
-0.701 2.699 1.861 13128
-0.669 2.576 1.780 4002
-0.704 2.710 1.857 13007
-0.672 2.587 1.777 4851
-0.703 2.708 1.845 10603
-0.671 2.585 1.765 2998
-0.703 2.707 1.832 8405
-0.671 2.583 1.753 1505
-0.702 2.705 1.820 10092
-0.735 2.829 1.899 1383
-0.704 2.710 1.812 11903
-0.736 2.834 1.891 1671
-0.710 2.734 1.817 15249
-0.678 2.610 1.739 881
-0.711 2.739 1.808 19714
-0.744 2.864 1.886 1000
-0.712 2.744 1.800 15860
-0.745 2.869 1.877 1171
-0.715 2.755 1.796 12074
-0.748 2.880 1.873 893
-0.717 2.759 1.788 8032
-0.749 2.885 1.864 1592
-0.740 2.850 1.832 4891
-0.708 2.724 1.756 2369
-0.738 2.842 1.815 5393
-0.705 2.716 1.740 1002
-0.741 2.853 1.811 7135
-0.708 2.727 1.736 1145
-0.742 2.858 1.803 8427
-0.709 2.731 1.728 918
-0.742 2.856 1.790 6921
-0.743 2.860 1.782 5675
-0.753 2.898 1.793 4575
-0.810 3.119 1.921 792
-0.757 2.916 1.792 6681
-0.811 3.124 1.911 1024
-0.759 2.921 1.783 7480
-0.811 3.122 1.898 997
-0.756 2.912 1.767 6927
-0.810 3.120 1.885 1904
-0.756 2.910 1.754 6651
-0.813 3.132 1.880 2794
-0.759 2.921 1.750 5984
-0.815 3.137 1.870 3641
-0.763 2.939 1.748 5585
-0.816 3.142 1.861 4736
-0.763 2.937 1.736 5583
-0.814 3.133 1.844 5208
-0.817 3.145 1.839 6119
-0.766 2.948 1.731 4726
-0.820 3.156 1.833 7170
-0.786 3.028 1.763 3455
-0.819 3.154 1.820 6749
-0.786 3.025 1.750 2851
-0.817 3.145 1.803 5518
-0.783 3.016 1.734 3472
-0.818 3.150 1.794 4547
-0.784 3.021 1.725 3881
-0.819 3.155 1.785 4227
-0.853 3.284 1.853 3516
-0.835 3.214 1.804 5801
-0.868 3.344 1.872 4281
-0.836 3.219 1.795 6947
-0.870 3.349 1.862 5098
-0.830 3.196 1.771 6437
-0.869 3.347 1.849 4106
-0.828 3.187 1.754 6670
-0.876 3.372 1.850 4883
-0.877 3.377 1.840 10294
-0.829 3.191 1.745 6747
-0.878 3.382 1.830 13532
-0.832 3.203 1.739 6834
-0.879 3.386 1.819 13046
-0.833 3.207 1.729 6129
-0.881 3.391 1.809 9191
-0.834 3.212 1.720 4813
-0.885 3.410 1.806 6138
-0.837 3.223 1.714 3184
-0.885 3.407 1.793 7161
-0.840 3.234 1.707 2277
-0.886 3.412 1.783 7609
-0.841 3.239 1.698 1745
-0.887 3.417 1.772 7549
-0.977 3.763 1.941 1668
-0.888 3.421 1.762 7043
-0.979 3.769 1.929 1620
-0.895 3.447 1.762 6589
-1.000 3.850 1.955 1724
-0.898 3.458 1.755 5268
-1.001 3.855 1.943 2298
-0.999 3.846 1.925 2895
-0.899 3.463 1.745 2850
-0.997 3.837 1.907 3966
-0.899 3.460 1.731 2612
-0.998 3.842 1.896 4507
-0.898 3.458 1.718 3109
-1.026 3.952 1.933 5897
-0.899 3.462 1.707 3460
-1.030 3.964 1.924 6538
-0.995 3.831 1.863 3462
-1.038 3.997 1.925 5172
-1.000 3.850 1.858 4184
-1.049 4.038 1.929 6394
-1.001 3.855 1.847 3120
-1.052 4.050 1.920 6993
-1.017 3.916 1.861 1803
-1.055 4.062 1.911 6586
-1.020 3.928 1.852 2127
-1.058 4.074 1.902 5398
-1.023 3.940 1.843 2260
-1.045 4.022 1.865 5027
-1.094 4.213 1.948 4244
-1.092 4.204 1.930 6888
-1.049 4.041 1.859 4803
-1.089 4.195 1.911 8086
-1.051 4.046 1.847 3301
-1.087 4.186 1.893 7644
-1.122 4.320 1.950 2124
-1.090 4.198 1.883 6246
-1.125 4.332 1.940 2148
-1.108 4.267 1.897 8027
-1.143 4.402 1.953 2037
-1.119 4.307 1.899 6794
-1.083 4.172 1.843 2195
-1.123 4.326 1.892 6286
-1.159 4.462 1.948 1210
-1.128 4.345 1.885 8170
-1.164 4.481 1.940 1495
-1.133 4.365 1.878 9731
-1.169 4.500 1.933 2057
-1.135 4.370 1.865 7103
-1.170 4.505 1.919 2348
-1.156 4.453 1.883 5562
-1.121 4.317 1.829 1918
-1.169 4.501 1.887 5894
-1.134 4.365 1.833 2007
-1.168 4.499 1.870 5190
-1.204 4.635 1.923 1541
-1.170 4.504 1.857 5390
-1.205 4.640 1.910 2348
-1.173 4.516 1.846 7123
-1.208 4.652 1.898 2530
-1.176 4.528 1.836 5860
-1.215 4.679 1.893 3223
-1.220 4.698 1.884 3985
-1.179 4.540 1.825 3586
-1.231 4.739 1.884 3794
-1.191 4.588 1.827 2461
-1.241 4.780 1.883 3708
-1.198 4.614 1.822 2005
-1.250 4.814 1.879 3919
-1.286 4.951 1.929 2490
-1.257 4.840 1.873 3482
-1.293 4.978 1.922 2452
-1.288 4.961 1.900 3695
-1.253 4.824 1.850 2261
-1.288 4.959 1.882 4515
-1.252 4.821 1.833 2028
-1.310 5.043 1.895 4095
-1.274 4.906 1.847 2082
-1.307 5.034 1.875 3348
-1.256 4.838 1.807 1856
-1.259 4.850 1.795 2147
-1.358 5.228 1.926 2025
-1.325 5.102 1.865 3036
-1.372 5.284 1.927 2872
-1.373 5.289 1.911 3388
-1.315 5.063 1.835 3057
-1.377 5.301 1.898 2745
-1.314 5.060 1.818 1723
-1.393 5.364 1.902 3622
-1.349 5.196 1.846 1808
-1.394 5.369 1.886 3653
-1.355 5.216 1.835 1619
-1.398 5.381 1.872 3607
-1.434 5.520 1.917 1330
-1.401 5.394 1.858 2538
-1.437 5.533 1.903 1719
-1.436 5.530 1.884 2360
-1.488 5.728 1.947 1595
-1.439 5.543 1.870 2238
-1.500 5.777 1.944 1709
-1.500 5.775 1.924 2206
-1.441 5.547 1.853 1934
-1.448 5.574 1.843 2114
-1.501 5.780 1.907 1744
-1.451 5.586 1.829 1600
-1.579 6.079 1.979 1520
-1.580 6.084 1.961 3230
-1.544 5.944 1.919 1598
-1.581 6.089 1.943 3639
-1.545 5.949 1.901 1688
-1.583 6.094 1.925 2603
-1.546 5.954 1.883 1545
-1.574 6.062 1.896 2183
-1.632 6.283 1.960 1975
-1.533 5.905 1.831 2970
-1.635 6.296 1.944 2489
-1.535 5.910 1.813 5908
-1.638 6.308 1.927 4184
-1.536 5.914 1.795 8199
-1.641 6.321 1.910 5429
-1.537 5.919 1.778 10358
-1.643 6.326 1.891 2984
-1.538 5.924 1.760 11503
-1.663 6.405 1.893 2279
-1.539 5.928 1.742 10812
-1.645 6.336 1.853 2297
-1.541 5.933 1.724 8507
-1.706 6.570 1.896 2607
-1.542 5.937 1.707 4691
-1.902 7.325 2.076 2054
-1.543 5.941 1.689 2153
-1.905 7.337 2.056 2103
-1.808 6.964 1.936 2278
-1.911 7.358 2.038 1889
-1.808 6.961 1.913 2712
-1.912 7.363 2.016 1400
-1.809 6.966 1.892 3481
-2.093 8.060 2.169 1630
-1.812 6.979 1.873 3088
-2.099 8.081 2.149 1140
-1.794 6.909 1.834 3139
-2.123 8.176 2.147 862
-1.797 6.921 1.815 3635
-2.125 8.182 2.122 792
-1.801 6.934 1.796 4098
-1.764 6.792 1.762 1091
-1.800 6.931 1.773 4923
-1.763 6.789 1.740 1559
-1.799 6.928 1.751 3935
-1.762 6.786 1.718 1641
-1.773 6.828 1.706 2741
-1.810 6.970 1.739 2172
-1.809 6.967 1.716 3273
-1.765 6.795 1.677 2217
-1.740 6.702 1.635 3524
-1.810 6.971 1.695 3203
-1.745 6.721 1.618 3574
-1.792 6.901 1.658 2361
-1.750 6.740 1.601 3770
-1.795 6.912 1.639 2181
-1.738 6.692 1.570 4808
-1.806 6.954 1.626 2090
-1.739 6.696 1.550 8068
-1.684 6.485 1.505 1025
-1.736 6.685 1.526 6268
-1.685 6.489 1.486 1880
-1.729 6.658 1.500 6356
-1.684 6.486 1.465 2798
-1.738 6.692 1.486 6057
-1.687 6.497 1.447 2791
-1.721 6.628 1.453 4534
-1.684 6.485 1.424 1499
-1.720 6.624 1.432 5720
-1.675 6.451 1.398 1482
-1.721 6.628 1.412 6680
-1.680 6.470 1.381 3360
-1.681 6.473 1.362 6906
-1.720 6.624 1.390 6245
-1.682 6.477 1.342 12894
-1.633 6.288 1.307 7649
-1.683 6.480 1.323 16899
-1.634 6.292 1.288 7491
-1.684 6.484 1.304 14176
-1.635 6.295 1.269 5221
-1.687 6.494 1.286 11205
-1.630 6.275 1.247 3334
-1.689 6.505 1.267 11689
-1.636 6.301 1.232 3652
-1.688 6.501 1.247 11807
-1.647 6.342 1.219 6808
-1.689 6.504 1.227 11008
-1.646 6.337 1.199 7348
-1.643 6.325 1.178 8295
-1.692 6.514 1.209 8181
-1.643 6.328 1.159 7260
-1.691 6.510 1.188 5100
-1.642 6.323 1.139 7915
-1.691 6.513 1.169 3436
-1.641 6.319 1.118 12707
-1.692 6.516 1.149 2190
-1.642 6.321 1.100 14253
-1.695 6.526 1.131 1042
-1.642 6.324 1.081 9673
-1.647 6.342 1.064 5934
-1.642 6.322 1.042 5194
-1.604 6.178 1.021 984
-1.631 6.279 1.016 6905
-1.668 6.423 1.037 844
-1.631 6.281 0.998 5474
-1.594 6.137 0.978 1229
-1.632 6.284 0.979 3390
-1.594 6.139 0.959 1681
-1.634 6.294 0.961 3244
-1.597 6.149 0.942 1612
-1.631 6.281 0.940 3422
-1.594 6.136 0.922 1642
-1.606 6.184 0.909 3180
-1.643 6.328 0.927 1716
-1.606 6.186 0.890 3600
-1.569 6.042 0.873 1714
-1.607 6.188 0.872 2673
-1.569 6.044 0.855 2129
-1.604 6.175 0.852 2209
-1.566 6.030 0.835 1531
-1.592 6.131 0.828 2264
-1.555 5.987 0.812 1485
-1.591 6.126 0.809 2198
-1.553 5.981 0.793 1772
-1.591 6.127 0.791 2403
-1.554 5.983 0.775 1855
-1.568 6.038 0.763 3282
-1.606 6.183 0.778 961
-1.564 6.024 0.743 2742
-1.561 6.011 0.724 2857
-1.561 6.012 0.706 3560
-1.554 5.983 0.685 3396
-1.516 5.838 0.671 1081
-1.542 5.939 0.663 4052
-1.580 6.084 0.676 1131
-1.539 5.925 0.644 3376
-1.576 6.070 0.656 1008
-1.533 5.904 0.624 3188
-1.571 6.049 0.636 1285
-1.522 5.859 0.603 3782
-1.559 6.004 0.614 1074
-1.518 5.845 0.584 4864
-1.556 5.990 0.595 925
-1.516 5.839 0.566 4820
-1.554 5.984 0.577 894
-1.513 5.825 0.548 3953
-1.550 5.970 0.558 1411
-1.505 5.795 0.528 3151
-1.543 5.941 0.538 1449
-1.499 5.773 0.509 2965
-1.537 5.919 0.519 850
-1.498 5.767 0.492 3028
-1.500 5.775 0.475 2360
-1.504 5.792 0.458 1447
-1.466 5.646 0.450 777
-1.472 5.670 0.435 1396
-1.510 5.815 0.442 1045
-1.471 5.663 0.417 1308
-1.508 5.809 0.424 976
-1.489 5.733 0.404 1497
-1.487 5.726 0.386 1732
-1.485 5.719 0.369 2008
-1.447 5.573 0.363 851
-1.485 5.720 0.352 2289
-1.448 5.574 0.346 1091
-1.483 5.712 0.334 2063
-1.446 5.567 0.329 1419
-1.454 5.598 0.313 2553
-1.492 5.744 0.318 993
-1.452 5.591 0.297 2594
-1.452 5.591 0.280 2159
-1.436 5.530 0.262 1821
-1.474 5.676 0.265 767
-1.434 5.523 0.245 2518
-1.434 5.523 0.229 2654
-1.434 5.524 0.212 2790
-1.434 5.524 0.196 2366
-1.437 5.532 0.179 1964
-1.435 5.524 0.163 1506
-1.397 5.378 0.162 760
-1.407 5.417 0.146 1464
-1.413 5.440 0.130 1438
-1.411 5.432 0.113 1240
-1.411 5.432 0.097 1044
-1.395 5.370 0.082 1175
-1.393 5.363 0.066 1633
-1.395 5.370 0.050 1576
-1.398 5.385 0.033 1616
-1.398 5.385 0.017 1382
-1.400 5.392 0.001 1160
-1.390 5.353 -0.014 1316
-1.388 5.345 -0.030 1624
-1.350 5.200 -0.025 913
-1.360 5.238 -0.042 1800
-1.398 5.383 -0.047 836
-1.360 5.237 -0.058 2315
-1.362 5.244 -0.074 1993
-1.362 5.243 -0.089 1714
-1.354 5.212 -0.104 1707
-1.351 5.204 -0.119 1895
-1.351 5.203 -0.134 1713
-1.351 5.202 -0.150 1531
-1.353 5.209 -0.166 1225
-1.333 5.132 -0.177 1319
-1.336 5.146 -0.193 1246
-1.342 5.168 -0.210 1309
-1.336 5.144 -0.224 1318
-1.334 5.135 -0.238 1472
-1.333 5.134 -0.254 1472
-1.329 5.118 -0.268 1121
-1.323 5.094 -0.281 962
-1.321 5.085 -0.296 768
-1.296 4.992 -0.303 786
-1.294 4.983 -0.317 836
-1.294 4.982 -0.332 896
-1.293 4.981 -0.347 896
-0.575 2.239 1.802 2420
-0.576 2.243 1.795 4840
-0.608 2.367 1.889 2613
-0.600 2.335 1.854 5541
-0.570 2.217 1.765 3086
-0.611 2.377 1.875 5811
-0.579 2.253 1.782 4369
-0.614 2.388 1.872 6427
-0.582 2.263 1.780 4054
-0.616 2.399 1.870 7404
-0.586 2.281 1.783 3234
-0.623 2.423 1.877 9552
-0.592 2.304 1.790 2840
-0.624 2.428 1.869 10201
-0.593 2.309 1.783 2840
-0.625 2.432 1.862 12879
-0.594 2.313 1.776 2674
-0.625 2.431 1.851 15571
-0.594 2.312 1.765 2082
-0.628 2.442 1.848 12905
-0.597 2.322 1.762 2062
-0.629 2.447 1.841 10254
-0.660 2.567 1.926 2431
-0.630 2.452 1.834 11008
-0.661 2.572 1.918 2601
-0.631 2.457 1.826 11762
-0.662 2.577 1.911 3786
-0.633 2.461 1.819 11762
-0.664 2.582 1.903 4801
-0.635 2.472 1.816 11789
-0.666 2.593 1.900 6428
-0.637 2.477 1.809 11785
-0.668 2.598 1.892 8112
-0.666 2.591 1.876 11252
-0.635 2.469 1.793 7905
-0.667 2.595 1.868 13718
-0.636 2.474 1.785 4214
-0.668 2.600 1.861 12984
-0.637 2.478 1.778 3573
-0.668 2.599 1.849 12448
-0.636 2.477 1.767 2765
-0.669 2.604 1.841 8533
-0.638 2.481 1.759 2554
-0.685 2.666 1.872 7723
-0.645 2.512 1.769 2937
-0.688 2.678 1.868 10804
-0.657 2.555 1.787 2408
-0.691 2.689 1.864 14188
-0.659 2.566 1.784 3336
-0.694 2.701 1.861 13404
-0.662 2.577 1.780 3934
-0.697 2.712 1.857 13339
-0.665 2.588 1.777 4691
-0.696 2.710 1.845 10700
-0.665 2.586 1.765 2844
-0.696 2.709 1.832 8484
-0.664 2.585 1.753 1401
-0.696 2.707 1.820 10134
-0.727 2.831 1.899 1437
-0.697 2.711 1.812 11796
-0.729 2.836 1.891 1751
-0.703 2.736 1.817 14830
-0.735 2.861 1.894 956
-0.704 2.741 1.808 18686
-0.736 2.865 1.886 1105
-0.705 2.745 1.800 14703
-0.738 2.870 1.877 1099
-0.708 2.757 1.796 10819
-0.710 2.761 1.788 7289
-0.742 2.887 1.864 1342
-0.729 2.839 1.824 3888
-0.697 2.713 1.748 1372
-0.731 2.843 1.815 4580
-0.698 2.718 1.740 1010
-0.734 2.855 1.811 6484
-0.701 2.729 1.736 1156
-0.737 2.866 1.807 7819
-0.704 2.740 1.732 1196
-0.734 2.858 1.790 5994
-0.734 2.856 1.778 4698
-0.749 2.914 1.800 3393
-0.716 2.787 1.727 903
-0.752 2.925 1.796 4495
-0.805 3.133 1.915 950
-0.753 2.930 1.787 4848
-0.806 3.138 1.906 908
-0.751 2.921 1.771 4953
-0.802 3.122 1.885 1803
-0.750 2.919 1.758 5178
-0.805 3.134 1.880 2701
-0.755 2.937 1.757 4952
-0.807 3.139 1.870 3523
-0.756 2.941 1.748 5096
-0.806 3.137 1.857 4554
-0.757 2.946 1.740 5371
-0.806 3.135 1.844 5010
-0.809 3.147 1.839 5999
-0.758 2.950 1.731 4508
-0.810 3.152 1.829 7089
-0.777 3.023 1.759 3506
-0.809 3.150 1.816 7323
-0.776 3.021 1.747 2829
-0.811 3.154 1.807 6536
-0.777 3.025 1.738 3787
-0.812 3.159 1.798 5411
-0.779 3.030 1.729 4073
-0.813 3.164 1.788 4681
-0.846 3.293 1.857 3512
-0.826 3.216 1.804 4689
-0.860 3.346 1.872 3879
-0.828 3.221 1.795 5405
-0.861 3.351 1.862 4745
-0.818 3.184 1.764 5687
-0.859 3.342 1.845 3935
-0.818 3.182 1.751 6209
-0.869 3.381 1.853 4628
-0.868 3.379 1.840 9748
-0.821 3.193 1.745 6444
-0.870 3.384 1.830 12503
-0.824 3.205 1.739 6529
-0.871 3.389 1.819 11883
-0.825 3.209 1.729 5837
-0.872 3.393 1.809 8051
-0.826 3.214 1.720 4577
-0.871 3.391 1.796 5263
-0.829 3.225 1.714 3086
-0.878 3.417 1.796 6418
-0.830 3.230 1.704 2232
-0.877 3.414 1.783 7185
-0.833 3.241 1.698 1842
-0.879 3.419 1.772 7112
-0.968 3.766 1.941 1426
-0.880 3.424 1.762 6650
-0.969 3.771 1.929 1450
-0.886 3.449 1.762 6073
-0.994 3.867 1.961 1598
-0.889 3.461 1.755 5019
-0.998 3.886 1.957 2323
-0.991 3.856 1.929 3287
-0.883 3.437 1.732 2791
-0.989 3.847 1.911 4441
-0.884 3.442 1.721 2235
-0.988 3.845 1.896 4864
-1.022 3.978 1.957 2163
-1.016 3.955 1.933 6389
-0.982 3.822 1.872 3093
-1.019 3.967 1.924 6966
-0.985 3.834 1.863 3586
-1.028 4.000 1.925 5355
-0.990 3.853 1.858 4454
-1.038 4.040 1.929 6518
-0.993 3.864 1.850 3300
-1.041 4.052 1.920 7361
-1.007 3.919 1.861 1943
-1.044 4.064 1.911 7169
-1.079 4.198 1.970 2006
-1.046 4.069 1.899 5591
-1.080 4.204 1.958 2520
-1.032 4.018 1.862 5896
-1.085 4.223 1.951 4097
-1.079 4.200 1.927 6761
-1.037 4.037 1.856 4677
-1.077 4.190 1.908 8673
-1.040 4.049 1.847 3377
-1.076 4.188 1.893 8173
-1.042 4.054 1.835 2259
-1.081 4.208 1.886 6761
-1.116 4.342 1.943 1695
-1.097 4.269 1.897 8206
-1.132 4.404 1.953 1598
-1.106 4.303 1.896 7002
-1.071 4.167 1.840 2002
-1.114 4.336 1.895 6512
-1.149 4.472 1.951 1036
-1.117 4.348 1.885 8475
-1.152 4.484 1.940 1591
-1.122 4.367 1.878 9659
-1.157 4.503 1.933 2057
-1.125 4.380 1.868 6909
-1.160 4.515 1.922 1889
-1.145 4.456 1.883 5697
-1.110 4.320 1.829 1687
-1.157 4.504 1.887 5779
-1.122 4.368 1.833 1677
-1.157 4.502 1.870 5256
-1.192 4.638 1.923 1379
-1.158 4.507 1.857 5815
-1.193 4.643 1.910 2109
-1.161 4.519 1.846 7944
-1.209 4.706 1.918 2563
-1.164 4.531 1.836 6815
-1.205 4.689 1.895 3309
-1.208 4.701 1.884 4251
-1.167 4.543 1.825 4077
-1.219 4.742 1.884 4559
-1.182 4.598 1.830 2606
-1.231 4.790 1.885 3612
-1.188 4.624 1.824 2173
-1.238 4.817 1.879 4171
-1.273 4.954 1.929 2781
-1.247 4.851 1.875 3735
-1.282 4.988 1.925 2387
-1.276 4.964 1.900 4145
-1.240 4.827 1.850 2311
-1.275 4.962 1.882 5155
-1.240 4.824 1.833 2715
-1.276 4.967 1.867 4406
-1.241 4.829 1.819 2474
-1.294 5.037 1.875 2760
-1.246 4.848 1.810 2070
-1.249 4.860 1.798 2026
-1.344 5.231 1.926 1909
-1.359 5.287 1.927 3302
-1.304 5.076 1.855 2676
-1.362 5.299 1.914 3729
-1.300 5.059 1.833 2889
-1.363 5.304 1.898 3058
-1.301 5.064 1.818 1846
-1.378 5.361 1.899 3629
-1.338 5.207 1.848 2325
-1.381 5.373 1.886 3565
-1.339 5.212 1.833 2040
-1.384 5.385 1.872 3550
-1.420 5.524 1.917 1400
-1.385 5.390 1.856 2423
-1.421 5.529 1.901 1997
-1.420 5.527 1.882 2318
-1.473 5.732 1.947 1696
-1.429 5.561 1.874 2088
-1.484 5.774 1.941 1941
-1.430 5.566 1.858 2348
-1.485 5.779 1.924 2294
-1.433 5.578 1.843 2615
-1.486 5.784 1.907 1629
-1.437 5.590 1.829 1968
-1.567 6.097 1.984 1520
-1.566 6.095 1.963 3437
-1.530 5.955 1.921 1670
-1.566 6.093 1.943 3907
-1.528 5.946 1.899 1732
-1.565 6.091 1.923 2607
-1.529 5.951 1.881 1645
-1.561 6.074 1.898 2336
-1.616 6.288 1.960 1979
-1.621 6.307 1.946 2382
-1.560 6.071 1.878 2252
-1.520 5.913 1.813 3710
-1.622 6.313 1.927 3610
-1.521 5.918 1.795 4877
-1.623 6.318 1.908 4516
-1.522 5.923 1.778 5785
-1.646 6.404 1.912 3583
-1.523 5.927 1.760 6064
-1.647 6.409 1.893 3075
-1.524 5.932 1.742 5432
-1.627 6.332 1.851 1922
-1.526 5.937 1.724 3945
-1.689 6.575 1.896 2224
-1.849 7.196 2.041 2187
-1.885 7.337 2.078 2057
-1.789 6.963 1.957 2279
-1.887 7.342 2.056 2002
-1.793 6.976 1.938 3533
-1.888 7.348 2.034 1793
-1.792 6.974 1.915 3142
-1.851 7.204 1.974 1516
-1.791 6.971 1.892 3345
-2.073 8.066 2.169 1498
-1.793 6.976 1.871 3748
-1.756 6.834 1.836 1205
-1.775 6.906 1.832 3074
-1.782 6.933 1.817 2838
-1.745 6.792 1.782 790
-1.783 6.938 1.796 3941
-1.746 6.796 1.762 1259
-1.782 6.935 1.773 5404
-1.746 6.793 1.740 1787
-1.778 6.917 1.747 3613
-1.741 6.775 1.714 1425
