-0.687 3.263 1.740 3142
-0.691 3.282 1.737 6032
-0.719 3.414 1.803 4641
-0.698 3.314 1.741 9005
-0.726 3.447 1.806 2431
-0.701 3.326 1.735 10279
-0.729 3.459 1.799 2162
-0.702 3.330 1.725 9611
-0.730 3.464 1.789 3014
-0.803 3.814 1.959 1812
-0.722 3.426 1.759 8356
-0.806 3.826 1.951 3851
-0.694 3.293 1.695 2944
-0.721 3.424 1.746 8360
-0.806 3.824 1.936 5074
-0.693 3.290 1.682 1669
-0.721 3.421 1.732 8290
-0.808 3.836 1.928 5881
-0.693 3.288 1.669 1075
-0.725 3.440 1.729 8041
-0.809 3.841 1.917 5857
-0.696 3.306 1.666 1705
-0.730 3.466 1.728 8147
-0.810 3.846 1.906 6600
-0.702 3.332 1.666 2324
-0.813 3.858 1.898 8140
-0.731 3.470 1.718 5930
-0.703 3.336 1.656 1535
-0.814 3.863 1.886 7184
-0.735 3.489 1.714 3932
-0.847 4.019 1.957 1140
-0.816 3.875 1.878 5765
-0.737 3.500 1.707 3771
-0.845 4.010 1.939 2565
-0.816 3.873 1.863 6255
-0.844 4.008 1.924 4672
-0.738 3.505 1.697 3023
-0.817 3.878 1.852 7951
-0.845 4.013 1.912 5858
-0.736 3.495 1.680 2393
-0.840 3.990 1.888 7651
-0.812 3.855 1.828 4444
-0.736 3.492 1.667 2208
-0.869 4.125 1.948 1728
-0.841 3.995 1.876 5836
-0.877 4.165 1.951 2126
-0.813 3.859 1.817 2091
-0.738 3.504 1.660 1282
-0.838 3.978 1.855 4730
-0.877 4.163 1.936 3109
-0.906 4.299 1.995 1131
-0.841 3.990 1.846 4466
-0.881 4.183 1.930 4345
-0.910 4.318 1.989 1543
-0.887 4.209 1.927 6936
-0.858 4.074 1.868 3784
-0.830 3.938 1.810 1016
-0.889 4.222 1.917 7525
-0.861 4.086 1.859 5278
-0.869 4.126 1.863 5252
-0.898 4.262 1.920 3361
-0.913 4.332 1.935 7341
-0.873 4.146 1.856 3614
-0.903 4.287 1.901 8956
-0.874 4.150 1.844 2041
-0.932 4.423 1.958 1490
-0.907 4.306 1.894 9897
-0.936 4.443 1.951 1775
-0.878 4.170 1.838 1305
-0.911 4.326 1.887 8676
-0.940 4.462 1.943 2017
-0.882 4.189 1.832 1243
-0.914 4.338 1.878 5075
-0.943 4.475 1.933 3566
-0.935 4.436 1.902 6003
-0.904 4.292 1.844 2630
-0.937 4.449 1.892 5051
-0.908 4.312 1.838 1649
-0.932 4.425 1.868 3789
-0.961 4.562 1.922 2440
-0.953 4.524 1.891 4090
-0.924 4.386 1.838 1931
-0.942 4.471 1.856 4410
-0.971 4.608 1.909 3689
-0.944 4.483 1.845 4867
-0.973 4.621 1.898 3473
-0.956 4.539 1.851 6657
-0.988 4.691 1.910 1267
-0.959 4.551 1.841 8986
-0.988 4.689 1.893 1478
-1.020 4.841 1.951 1180
-0.963 4.570 1.833 7519
-1.003 4.759 1.904 2649
-1.002 4.757 1.887 6825
-0.970 4.604 1.830 4924
-1.003 4.762 1.873 9357
-0.972 4.616 1.819 3584
-1.032 4.900 1.924 1336
-1.006 4.774 1.861 9641
-0.976 4.635 1.811 1967
-1.035 4.913 1.912 1926
-1.007 4.779 1.847 9154
-1.036 4.918 1.898 2593
-0.977 4.640 1.797 1348
-1.008 4.784 1.833 6427
-1.037 4.923 1.883 2552
-1.066 5.062 1.933 1311
-0.978 4.645 1.784 1215
-1.015 4.818 1.830 3700
-1.058 5.023 1.902 2410
-1.058 5.021 1.885 2729
-1.013 4.808 1.810 1915
-1.052 4.996 1.860 3059
-1.023 4.857 1.811 1867
-1.082 5.136 1.908 1498
-1.055 5.008 1.848 3680
-1.084 5.148 1.896 2943
-1.026 4.869 1.799 1679
-1.082 5.138 1.875 5089
-1.053 4.999 1.828 2370
-1.112 5.278 1.923 1444
-1.024 4.859 1.780 1036
-1.083 5.143 1.860 4475
-1.113 5.283 1.907 2591
-1.035 4.915 1.783 1587
-1.115 5.295 1.894 4833
-1.083 5.141 1.843 3102
-1.053 5.001 1.796 1008
-1.121 5.322 1.886 6109
-1.085 5.153 1.830 3079
-1.155 5.484 1.940 1545
-1.121 5.320 1.868 5331
-1.088 5.165 1.817 2872
-1.158 5.497 1.926 2659
-1.123 5.332 1.854 3509
-1.157 5.495 1.907 3038
-1.086 5.155 1.797 1765
-1.129 5.359 1.846 2735
-1.160 5.507 1.893 2709
-1.092 5.182 1.789 1002
-1.130 5.364 1.830 3911
-1.166 5.534 1.884 2464
-1.208 5.734 1.948 1188
-1.131 5.369 1.814 3492
-1.168 5.547 1.870 3371
-1.212 5.754 1.935 1717
-1.173 5.566 1.858 3646
-1.135 5.389 1.803 2351
-1.215 5.766 1.921 1869
-1.175 5.579 1.844 2921
-1.208 5.734 1.892 2168
-1.136 5.393 1.787 1163
-1.204 5.717 1.868 2375
-1.175 5.576 1.825 1815
-1.218 5.781 1.869 3252
-1.188 5.640 1.827 2368
-1.248 5.923 1.912 1217
-1.217 5.779 1.850 2897
-1.247 5.920 1.892 2439
-1.188 5.638 1.808 2015
-1.278 6.069 1.937 1148
-1.245 5.910 1.870 3375
-1.275 6.052 1.912 2583
-1.215 5.769 1.829 1270
-1.305 6.193 1.954 1091
-1.277 6.064 1.896 3115
-1.246 5.915 1.853 2254
-1.307 6.206 1.938 1828
-1.311 6.226 1.924 2131
-1.280 6.077 1.881 1956
-1.244 5.905 1.831 1055
-1.343 6.375 1.967 1017
-1.328 6.305 1.927 3101
-1.361 6.462 1.971 2139
-1.295 6.149 1.882 1525
-1.334 6.333 1.914 4402
-1.364 6.475 1.954 3626
-1.296 6.154 1.864 1885
-1.363 6.472 1.933 4321
-1.333 6.330 1.893 2684
-1.304 6.188 1.854 2132
-1.364 6.478 1.914 4733
-1.335 6.335 1.875 1682
-1.305 6.193 1.835 1341
-1.431 6.792 2.001 1169
-1.366 6.483 1.895 4531
-1.432 6.797 1.981 2092
-1.518 7.209 2.093 1890
-1.336 6.340 1.856 1275
-1.367 6.488 1.876 3933
-1.434 6.810 1.962 2727
-1.515 7.192 2.066 2472
-1.397 6.630 1.914 1657
-1.369 6.500 1.858 2952
-1.436 6.815 1.942 2649
-1.339 6.358 1.820 2154
-1.399 6.642 1.896 1989
-1.522 7.225 2.029 1859
-1.392 6.610 1.867 1720
-1.437 6.820 1.922 1277
-1.362 6.467 1.829 1268
-1.523 7.230 2.007 2286
-1.564 7.426 2.058 1348
-1.527 7.251 1.990 2499
-1.561 7.408 2.030 1713
-1.486 7.055 1.940 1066
-1.530 7.263 1.970 1884
-1.487 7.061 1.919 1661
-1.562 7.414 2.008 1408
-1.474 6.998 1.881 3008
-1.560 7.404 1.983 1284
-1.474 6.995 1.858 3803
-1.567 7.439 1.968 1555
-1.471 6.985 1.834 4420
-1.570 7.452 1.948 1287
-1.471 6.982 1.811 6001
-1.473 6.995 1.792 6025
-1.443 6.851 1.758 1669
-1.476 7.007 1.773 5735
-1.446 6.863 1.740 2615
-1.475 7.004 1.751 4281
-1.445 6.860 1.718 2156
-1.460 6.933 1.713 4403
-1.424 6.759 1.673 1435
-1.466 6.960 1.698 5001
-1.425 6.763 1.653 2275
-1.450 6.881 1.658 4439
-1.419 6.737 1.626 3273
-1.480 7.025 1.690 2000
-1.417 6.727 1.603 5566
-1.454 6.901 1.641 4023
-1.419 6.738 1.585 8207
-1.456 6.913 1.622 2957
-1.422 6.750 1.566 9408
-1.462 6.940 1.607 1657
-1.424 6.762 1.548 9500
-1.455 6.906 1.578 1705
-1.425 6.766 1.528 8600
-1.456 6.910 1.558 2211
-1.316 6.249 1.421 1146
-1.424 6.762 1.506 5752
-1.316 6.245 1.401 1934
-1.455 6.906 1.536 1578
-1.378 6.542 1.462 1167
-1.419 6.735 1.480 4564
-1.318 6.256 1.384 2548
-1.380 6.553 1.444 1740
-1.449 6.880 1.509 1480
-1.412 6.701 1.453 4711
-1.335 6.336 1.381 3714
-1.381 6.557 1.424 1973
-1.442 6.846 1.481 1390
-1.334 6.332 1.361 5200
-1.409 6.690 1.430 5109
-1.379 6.545 1.402 2069
-1.440 6.834 1.458 1207
-1.328 6.305 1.336 7202
-1.405 6.670 1.406 4715
-1.375 6.526 1.378 1694
-1.436 6.815 1.434 1288
-1.332 6.324 1.320 10911
-1.412 6.705 1.392 3455
-1.382 6.560 1.365 2296
-1.333 6.327 1.301 15569
-1.381 6.556 1.344 2336
-1.411 6.700 1.371 1973
-1.332 6.323 1.281 12932
-1.382 6.559 1.324 3168
-1.323 6.280 1.254 8167
-1.382 6.562 1.305 2813
-1.324 6.283 1.236 9119
-1.381 6.558 1.284 2622
-1.327 6.302 1.220 11161
-1.382 6.561 1.265 2837
-1.330 6.312 1.203 11767
-1.381 6.557 1.244 2700
-1.332 6.323 1.185 8503
-1.382 6.560 1.225 2524
-1.337 6.349 1.170 6920
-1.384 6.571 1.206 1835
-1.336 6.344 1.150 7564
-1.385 6.574 1.187 1301
-1.337 6.347 1.131 13605
-1.338 6.350 1.113 19127
-2.933 13.925 2.283 1124
-1.338 6.353 1.094 14835
-2.935 13.931 2.241 1082
-1.339 6.355 1.075 8837
-2.936 13.937 2.200 1027
-1.339 6.358 1.056 7180
-1.309 6.212 1.035 1453
-2.937 13.943 2.159 1043
-1.340 6.360 1.037 6170
-1.309 6.215 1.017 1776
-1.327 6.302 1.010 6774
-1.297 6.156 0.990 1465
-1.358 6.447 1.030 1371
-1.326 6.296 0.990 6885
-1.296 6.151 0.970 1294
-1.357 6.442 1.010 1107
-1.311 6.222 0.961 6512
-1.341 6.368 0.981 3902
-1.311 6.224 0.943 6136
-1.342 6.370 0.962 3412
-1.310 6.219 0.924 4955
-1.341 6.365 0.942 2538
-1.309 6.213 0.904 3844
-1.340 6.360 0.922 1698
-1.311 6.223 0.887 2683
-1.280 6.077 0.869 1528
-1.342 6.369 0.904 1310
-1.297 6.156 0.860 1826
-1.304 6.189 0.846 2395
-1.271 6.035 0.828 1181
-1.299 6.168 0.825 2542
-1.268 6.022 0.808 1332
-1.292 6.131 0.802 2550
-1.261 5.985 0.786 1140
-1.276 6.056 0.776 2698
-1.307 6.202 0.791 1030
-1.286 6.104 0.763 2796
-1.255 5.958 0.748 1282
-1.280 6.075 0.742 3476
-1.246 5.913 0.725 1167
-1.277 6.061 0.722 4153
-1.246 5.915 0.708 1380
-1.279 6.071 0.705 3492
-1.248 5.924 0.691 1651
-1.251 5.941 0.675 2971
-1.282 6.088 0.688 2472
-1.252 5.943 0.657 4634
-1.284 6.097 0.671 1533
-1.221 5.796 0.645 1366
-1.249 5.929 0.639 5500
-1.218 5.782 0.626 1645
-1.248 5.922 0.620 5778
-1.217 5.776 0.608 1625
-1.243 5.900 0.601 5144
-1.212 5.754 0.589 1579
-1.242 5.894 0.583 3991
-1.211 5.747 0.572 2284
-1.240 5.888 0.565 2857
-1.208 5.733 0.554 2540
-1.214 5.765 0.539 2771
-1.245 5.912 0.549 2270
-1.220 5.789 0.523 3105
-1.250 5.936 0.533 1976
-1.225 5.814 0.508 3266
-1.226 5.822 0.491 3255
-1.207 5.731 0.468 2977
-1.238 5.877 0.477 1372
-1.204 5.716 0.451 3468
-1.204 5.717 0.434 3560
-1.204 5.718 0.417 2705
-1.214 5.765 0.402 1489
-1.215 5.766 0.385 1214
-1.213 5.759 0.368 1210
-1.210 5.744 0.350 1300
-1.181 5.605 0.328 1828
-1.212 5.752 0.333 1129
-1.182 5.613 0.312 3243
-1.182 5.614 0.295 3776
-1.151 5.466 0.291 1139
-1.183 5.614 0.279 3402
-1.152 5.467 0.275 1298
-1.181 5.607 0.262 2066
-1.166 5.537 0.244 1476
-1.170 5.553 0.228 1443
-1.171 5.561 0.212 1489
-1.173 5.569 0.195 1668
-1.173 5.569 0.179 1868
-1.173 5.569 0.162 1384
-1.142 5.422 0.146 1393
-1.142 5.422 0.130 1477
-1.144 5.430 0.114 1501
-1.144 5.430 0.098 1540
-1.144 5.429 0.082 1586
-1.142 5.422 0.066 1661
-1.140 5.414 0.050 1240
-1.131 5.367 0.035 1135
-1.130 5.366 0.019 1089
-1.108 5.258 0.006 1043
-1.117 5.303 -0.042 1211
-1.117 5.302 -0.058 1484
-1.112 5.278 -0.073 1212
-1.110 5.270 -0.088 1114
-0.477 2.288 1.821 4531
-0.486 2.330 1.842 9372
-0.511 2.449 1.931 1346
-0.488 2.341 1.840 15799
-0.513 2.460 1.928 1981
-0.489 2.346 1.833 15648
-0.514 2.465 1.921 2526
-0.490 2.351 1.826 15496
-0.515 2.470 1.914 3071
-0.490 2.349 1.815 15302
-0.515 2.469 1.902 3872
-0.491 2.354 1.808 15172
-0.516 2.474 1.895 4618
-0.492 2.359 1.801 15172
-0.517 2.479 1.888 5347
-0.493 2.363 1.794 12041
-0.518 2.484 1.880 4264
-0.507 2.432 1.833 11944
-0.532 2.553 1.918 2018
-0.482 2.311 1.747 1067
-0.510 2.443 1.830 11166
-0.535 2.564 1.916 2903
-0.512 2.454 1.827 10968
-0.537 2.575 1.913 3803
-0.512 2.453 1.816 9595
-0.538 2.580 1.905 3103
-0.513 2.457 1.808 8307
-0.545 2.611 1.915 2725
-0.514 2.462 1.801 8307
-0.546 2.616 1.908 2930
-0.524 2.512 1.825 8215
-0.549 2.634 1.909 1943
-0.526 2.523 1.822 10763
-0.552 2.646 1.905 1085
-0.527 2.528 1.815 9956
-0.553 2.651 1.898 1154
-0.530 2.539 1.812 9306
-0.555 2.662 1.894 1138
-0.532 2.550 1.809 7852
-0.558 2.674 1.891 2240
-0.551 2.640 1.857 7020
-0.525 2.516 1.775 4018
-0.549 2.632 1.841 7952
-0.523 2.508 1.759 2400
-0.575 2.755 1.922 1150
-0.549 2.630 1.829 9793
-0.574 2.754 1.910 1800
-0.523 2.506 1.748 1641
-0.551 2.641 1.825 8580
-0.577 2.765 1.906 1947
-0.525 2.517 1.745 1349
-0.553 2.653 1.822 7724
-0.579 2.777 1.902 2015
-0.554 2.657 1.814 6467
-0.580 2.782 1.894 2132
-0.554 2.656 1.802 5274
-0.580 2.780 1.882 2437
-0.566 2.713 1.828 4661
-0.566 2.711 1.816 4385
-0.572 2.742 1.824 7153
-0.573 2.747 1.816 9935
-0.574 2.752 1.808 10961
-0.576 2.763 1.804 11993
-0.575 2.755 1.788 9638
-0.601 2.881 1.865 1446
-0.585 2.806 1.808 7590
-0.589 2.824 1.808 7805
-0.616 2.951 1.885 1444
-0.591 2.836 1.804 8303
-0.618 2.963 1.880 1940
-0.594 2.847 1.800 9234
-0.620 2.974 1.875 1872
-0.596 2.859 1.795 10549
-0.623 2.986 1.870 1969
-0.599 2.870 1.791 11551
-0.625 2.998 1.866 1819
-0.601 2.882 1.786 8804
-0.628 3.009 1.861 1275
-0.609 2.920 1.797 6392
-0.577 2.765 1.708 1007
-0.614 2.945 1.800 4781
-0.587 2.817 1.727 1101
-0.619 2.970 1.803 4711
-0.593 2.841 1.730 2341
-0.619 2.968 1.791 5231
-0.592 2.839 1.718 1601
-0.620 2.973 1.782 5001
-0.647 3.102 1.855 1468
-0.593 2.844 1.710 1311
-0.620 2.971 1.770 4808
-0.647 3.100 1.842 1941
-0.625 2.996 1.772 3354
-0.660 3.166 1.867 2825
-0.661 3.171 1.857 4497
-0.630 3.021 1.775 2695
-0.664 3.183 1.852 5268
-0.637 3.053 1.781 2863
-0.646 3.098 1.794 4404
-0.673 3.228 1.865 3171
-0.619 2.968 1.724 1935
-0.644 3.089 1.778 4934
-0.674 3.233 1.855 2894
-0.617 2.959 1.707 1194
-0.643 3.080 1.761 6019
-0.677 3.245 1.849 2506
-0.639 3.064 1.741 5173
-0.678 3.250 1.840 2584
-0.637 3.055 1.725 3962
-0.679 3.255 1.830 2993
-0.706 3.386 1.899 1050
-0.648 3.108 1.741 3556
-0.676 3.239 1.810 2895
-0.703 3.370 1.879 1452
-0.621 2.977 1.673 1231
-0.694 3.327 1.844 4301
-0.648 3.106 1.729 3258
-0.696 3.338 1.837 6329
-0.652 3.124 1.727 2978
-0.696 3.336 1.824 6130
-0.655 3.142 1.725 2926
-0.700 3.355 1.821 5203
-0.672 3.223 1.754 3137
-0.639 3.064 1.673 1612
-0.702 3.367 1.815 4542
-0.675 3.235 1.748 2590
-0.706 3.385 1.812 4531
-0.674 3.232 1.735 1696
-0.709 3.397 1.806 4566
-0.681 3.265 1.740 2965
-0.686 3.290 1.740 6495
-0.714 3.423 1.806 4067
-0.690 3.309 1.738 8296
-0.718 3.441 1.803 2833
-0.694 3.327 1.735 8678
-0.722 3.460 1.799 1930
-0.695 3.332 1.725 8835
-0.723 3.465 1.789 2213
-0.797 3.822 1.962 1689
-0.715 3.428 1.759 7624
-0.798 3.827 1.951 3679
-0.687 3.294 1.695 3446
-0.714 3.425 1.746 8890
-0.799 3.833 1.940 4854
-0.687 3.292 1.682 1868
-0.715 3.430 1.735 9208
-0.800 3.838 1.928 5459
-0.688 3.296 1.672 1237
-0.716 3.434 1.725 8594
-0.802 3.843 1.917 5479
-0.688 3.300 1.663 1198
-0.722 3.460 1.725 7891
-0.803 3.848 1.906 6951
-0.694 3.326 1.663 1460
-0.805 3.860 1.898 9003
-0.724 3.472 1.718 6291
-0.805 3.858 1.883 8202
-0.725 3.476 1.708 4484
-0.833 3.992 1.945 1076
-0.806 3.863 1.872 6315
-0.727 3.488 1.701 3980
-0.834 3.997 1.933 2821
-0.808 3.875 1.863 6259
-0.836 4.010 1.924 4753
-0.727 3.485 1.688 3411
-0.809 3.880 1.852 7741
-0.837 4.015 1.912 6171
-0.728 3.489 1.677 2080
-0.833 3.991 1.888 8375
-0.804 3.856 1.828 4668
-0.861 4.126 1.948 1849
-0.729 3.494 1.667 1415
-0.834 3.996 1.876 6811
-0.805 3.861 1.817 2306
-0.871 4.174 1.955 2159
-0.730 3.498 1.657 1437
-0.832 3.987 1.858 5412
-0.860 4.122 1.917 3309
-0.891 4.272 1.983 1743
-0.731 3.502 1.647 1040
-0.834 3.999 1.850 4933
-0.873 4.184 1.930 4230
-0.901 4.320 1.989 1641
-0.878 4.211 1.927 6949
-0.850 4.075 1.868 4442
-0.907 4.347 1.985 1109
-0.822 3.940 1.810 1030
-0.881 4.223 1.917 7546
-0.853 4.087 1.859 5756
-0.909 4.359 1.975 1209
-0.858 4.114 1.857 4550
-0.886 4.250 1.914 3908
-0.915 4.386 1.972 1443
-0.904 4.334 1.935 7855
-0.865 4.147 1.856 2793
-0.895 4.289 1.901 9840
-0.866 4.152 1.844 1735
-0.923 4.425 1.958 1337
-0.897 4.301 1.891 10387
-0.926 4.437 1.948 1830
-0.869 4.164 1.835 1104
-0.903 4.327 1.887 8534
-0.931 4.464 1.943 1993
-0.874 4.191 1.832 1294
-0.907 4.347 1.880 5064
-0.935 4.484 1.936 3190
-0.927 4.445 1.905 5547
-0.896 4.294 1.844 2148
-0.928 4.450 1.892 4839
-0.900 4.313 1.838 1268
-0.922 4.419 1.865 3880
-0.950 4.557 1.919 2295
-0.944 4.526 1.891 3676
-0.915 4.388 1.838 1699
-0.934 4.480 1.858 4036
-0.963 4.617 1.912 3265
-0.935 4.485 1.845 4828
-0.964 4.623 1.898 3140
-0.947 4.540 1.851 6475
-0.976 4.678 1.904 1815
-0.950 4.553 1.841 8495
-0.978 4.691 1.893 1625
-1.007 4.829 1.945 1038
-0.954 4.572 1.833 7258
-0.993 4.761 1.904 2444
-0.993 4.759 1.887 6410
-0.958 4.591 1.825 4838
-0.994 4.764 1.873 8509
-0.960 4.603 1.814 3436
-0.996 4.776 1.861 8840
-0.960 4.601 1.798 1798
-1.027 4.922 1.915 1702
-0.997 4.781 1.847 8917
-1.026 4.920 1.898 2576
-0.968 4.642 1.797 1383
-0.998 4.786 1.833 6767
-1.027 4.925 1.883 3013
-1.056 5.064 1.933 1328
-0.969 4.647 1.784 1261
-1.002 4.805 1.824 4025
-1.048 5.025 1.902 2563
-1.049 5.030 1.887 3111
-1.003 4.810 1.810 1923
-1.043 4.998 1.860 2943
-1.013 4.859 1.811 1379
-1.072 5.138 1.908 1311
-1.044 5.003 1.845 3488
-1.073 5.143 1.893 2901
-1.014 4.864 1.797 1417
-1.072 5.140 1.875 4584
-1.043 5.001 1.828 2577
-1.101 5.280 1.923 1755
-1.014 4.861 1.780 1040
-1.073 5.145 1.860 3927
-1.102 5.285 1.907 2486
-1.026 4.917 1.783 1740
-1.106 5.305 1.897 4253
-1.073 5.143 1.843 2576
-1.111 5.325 1.886 5647
-1.075 5.155 1.830 2760
-1.146 5.494 1.942 1778
-1.107 5.307 1.863 5018
-1.147 5.499 1.926 3005
-1.078 5.167 1.817 2857
-1.110 5.320 1.850 3273
-1.147 5.497 1.907 3187
-1.077 5.165 1.799 1724
-1.146 5.495 1.889 2766
-1.117 5.354 1.843 2378
-1.119 5.366 1.830 3111
-1.153 5.529 1.882 2525
-1.196 5.736 1.948 1114
-1.157 5.549 1.870 3477
-1.120 5.371 1.814 2919
-1.199 5.749 1.933 1697
-1.162 5.569 1.858 3641
-1.126 5.398 1.805 2112
-1.203 5.769 1.921 1887
-1.164 5.581 1.844 2923
-1.195 5.729 1.890 2776
-1.125 5.395 1.787 1105
-1.191 5.712 1.866 2795
-1.162 5.571 1.823 1832
-1.188 5.695 1.843 3130
-1.217 5.836 1.885 1644
-1.158 5.553 1.800 1211
-1.187 5.692 1.823 2675
-1.232 5.908 1.888 2495
-1.262 6.049 1.930 1068
-1.233 5.913 1.870 3511
-1.263 6.054 1.912 2516
-1.185 5.682 1.802 1397
-1.265 6.067 1.896 2746
-1.234 5.918 1.853 2191
-1.295 6.208 1.938 1566
-1.293 6.198 1.915 1966
-1.263 6.057 1.874 1471
-1.329 6.370 1.965 1104
-1.232 5.908 1.831 1084
-1.314 6.301 1.925 2668
-1.350 6.472 1.974 2280
-1.281 6.144 1.880 1359
-1.320 6.328 1.912 3682
-1.351 6.477 1.954 3527
-1.286 6.164 1.866 1877
-1.352 6.483 1.935 4453
-1.323 6.341 1.896 2973
-1.291 6.191 1.854 2204
-1.353 6.488 1.916 4743
-1.324 6.346 1.877 2210
-1.294 6.203 1.838 1364
-1.383 6.630 1.955 1117
-1.354 6.493 1.897 4760
-1.420 6.807 1.983 1594
-1.503 7.204 2.091 1540
-1.325 6.350 1.858 1535
-1.355 6.498 1.878 4305
-1.423 6.820 1.964 2406
-1.501 7.195 2.066 2055
-1.385 6.640 1.916 1492
-1.356 6.503 1.858 2998
-1.422 6.818 1.942 2560
-1.503 7.208 2.046 2213
-1.386 6.645 1.896 1790
-1.506 7.221 2.027 2721
-1.357 6.508 1.839 1789
-1.423 6.823 1.922 1348
-1.387 6.650 1.877 1093
-1.509 7.233 2.007 2361
-1.539 7.376 2.045 1214
-1.516 7.269 1.994 2204
-1.555 7.457 2.042 1604
-1.601 7.675 2.098 1103
-1.552 7.439 2.014 1828
-1.517 7.274 1.972 1666
-1.473 7.063 1.919 1176
-1.459 6.993 1.879 2764
-1.545 7.407 1.983 1410
-1.458 6.991 1.856 4077
-1.552 7.443 1.968 1331
-1.459 6.996 1.836 4944
-1.637 7.847 2.044 1051
-1.459 6.993 1.813 5776
-1.429 6.849 1.779 1019
-1.298 6.223 1.628 1004
-1.460 6.998 1.792 5458
-1.430 6.854 1.758 1797
-1.299 6.228 1.609 1006
-1.461 7.002 1.772 5550
-1.431 6.859 1.738 2407
-1.462 7.007 1.751 4596
-1.432 6.863 1.718 2104
-1.445 6.928 1.711 3905
-1.303 6.248 1.556 1447
-1.410 6.762 1.673 1202
-1.444 6.925 1.689 4430
-1.304 6.252 1.537 2902
-1.408 6.751 1.650 1881
-1.474 7.069 1.721 1051
-1.437 6.892 1.660 4235
-1.305 6.256 1.519 3225
-1.406 6.740 1.626 3093
-1.467 7.036 1.692 1748
-1.402 6.722 1.601 5575
-1.438 6.896 1.640 3772
-1.304 6.252 1.498 2351
-1.404 6.733 1.583 8288
-1.441 6.908 1.621 2795
-1.303 6.248 1.478 1564
-1.408 6.753 1.566 9496
-1.450 6.950 1.608 1741
-1.302 6.244 1.458 1180
-1.409 6.757 1.546 9543
-1.439 6.901 1.577 1649
-1.410 6.761 1.526 9108
-1.440 6.905 1.556 2139
-1.306 6.259 1.423 1372
-1.409 6.757 1.505 6652
-1.306 6.263 1.404 2446
-1.440 6.902 1.534 1836
-1.405 6.738 1.480 5458
-1.309 6.274 1.387 3643
-1.436 6.883 1.509 1856
-1.366 6.548 1.442 1216
-1.403 6.727 1.457 4453
-1.313 6.293 1.372 4443
-1.433 6.871 1.486 1828
-1.370 6.567 1.426 1405
-1.320 6.327 1.359 4727
-1.394 6.685 1.429 4540
-1.426 6.837 1.458 1665
-1.364 6.540 1.400 1518
-1.316 6.308 1.336 5909
-1.392 6.673 1.406 4188
-1.422 6.818 1.434 1409
-1.362 6.528 1.378 1191
-1.318 6.319 1.319 9581
-1.399 6.707 1.392 2517
-1.369 6.562 1.365 1773
-1.320 6.330 1.301 13105
-1.370 6.566 1.345 2126
-1.400 6.711 1.372 1119
-1.316 6.310 1.279 11601
-1.370 6.569 1.326 1925
-1.310 6.283 1.254 11232
-1.341 6.428 1.280 1346
-1.371 6.573 1.306 1161
-1.313 6.293 1.237 12108
-1.343 6.439 1.263 1292
-1.315 6.304 1.220 11759
-1.369 6.564 1.265 1118
-1.316 6.307 1.201 10782
-1.368 6.560 1.244 1407
-1.318 6.318 1.184 7245
-1.369 6.563 1.225 1351
-1.323 6.344 1.169 4927
-1.324 6.347 1.150 5763
-1.324 6.350 1.131 12402
-1.325 6.352 1.113 18998
-1.326 6.355 1.094 15216
-1.328 6.366 1.076 8121
-1.328 6.368 1.057 5779
-1.298 6.222 1.036 1467
-1.327 6.363 1.037 5311
-1.292 6.194 1.013 1641
-1.315 6.304 1.010 6169
-1.285 6.158 0.990 1544
-1.345 6.450 1.030 1320
-1.315 6.307 0.991 6260
-1.285 6.161 0.971 1637
-1.298 6.225 0.961 6209
-1.329 6.371 0.981 3261
-1.299 6.227 0.943 5890
-1.329 6.373 0.962 3141
-1.298 6.221 0.924 4746
-1.328 6.368 0.942 2688
-1.297 6.216 0.904 3747
-1.327 6.362 0.922 1705
-1.297 6.218 0.886 2676
-1.266 6.072 0.868 1335
-1.327 6.364 0.904 1081
-1.286 6.166 0.861 1859
-1.291 6.192 0.846 2183
-1.259 6.037 0.828 1222
-1.287 6.170 0.825 2385
-1.256 6.024 0.808 1367
-1.286 6.165 0.806 2390
-1.255 6.018 0.790 1871
-1.264 6.059 0.776 2568
-1.294 6.205 0.791 1008
-1.275 6.114 0.763 2780
-1.245 5.968 0.748 1618
-1.268 6.078 0.742 3597
-1.237 5.931 0.727 1390
-1.266 6.072 0.723 4383
-1.234 5.917 0.708 1594
-1.267 6.073 0.705 3850
-1.236 5.927 0.691 1736
-1.270 6.090 0.688 2787
-1.240 5.944 0.675 2715
-1.240 5.945 0.657 4501
-1.272 6.099 0.671 1659
-1.209 5.798 0.645 1527
-1.237 5.931 0.639 5780
-1.206 5.784 0.626 1796
-1.236 5.925 0.620 6250
-1.205 5.778 0.608 1755
-1.233 5.911 0.602 5503
-1.202 5.764 0.590 1970
-1.230 5.896 0.583 4193
-1.199 5.750 0.572 2505
-1.229 5.890 0.565 3006
-1.196 5.735 0.554 2801
-1.203 5.767 0.539 2962
-1.234 5.914 0.549 2490
-1.208 5.792 0.523 3462
-1.239 5.939 0.533 2268
-1.213 5.816 0.508 4009
-1.244 5.963 0.517 1153
-1.215 5.825 0.491 4057
-1.196 5.733 0.468 3458
-1.226 5.880 0.477 1602
-1.193 5.718 0.451 4004
-1.223 5.865 0.459 1138
-1.193 5.719 0.434 4080
-1.193 5.720 0.417 3130
-1.203 5.767 0.402 1662
-1.164 5.581 0.394 1132
-1.180 5.660 0.380 1387
-1.181 5.660 0.364 1389
-1.187 5.692 0.348 1495
-1.170 5.607 0.328 2073
-1.200 5.754 0.333 1314
-1.171 5.615 0.312 3781
-1.171 5.616 0.295 4472
-1.141 5.469 0.291 1482
-1.171 5.616 0.279 4061
-1.141 5.469 0.275 1711
-1.170 5.609 0.262 2537
-1.139 5.462 0.259 1276
-1.155 5.540 0.244 1736
-1.159 5.555 0.228 1762
-1.160 5.563 0.212 1878
-1.162 5.571 0.195 2129
-1.162 5.571 0.179 2396
-1.162 5.571 0.162 1795
-1.131 5.424 0.162 1254
-1.131 5.424 0.146 1816
-1.131 5.424 0.130 1910
-1.133 5.432 0.114 1940
-1.133 5.432 0.098 1986
-1.131 5.424 0.082 2062
-1.131 5.424 0.066 2178
-1.126 5.400 0.050 1661
-1.120 5.369 0.035 1607
-1.120 5.369 0.019 1565
-1.120 5.368 0.003 1523
-1.099 5.267 -0.010 1369
-1.099 5.267 -0.025 1265
-1.107 5.305 -0.042 1605
-1.106 5.304 -0.058 2007
-1.103 5.288 -0.073 1634
-1.100 5.272 -0.088 1523
-1.098 5.264 -0.103 1159
-1.073 5.144 -0.174 1038
-1.076 5.158 -0.190 1105
-1.077 5.165 -0.206 1204
-1.064 5.101 -0.232 1045
-1.064 5.100 -0.247 1045
-0.474 2.288 1.821 4516
-0.479 2.312 1.828 9401
-0.503 2.431 1.917 2292
-0.485 2.342 1.840 15318
-0.509 2.461 1.928 1782
-0.486 2.347 1.833 15376
-0.511 2.466 1.921 2312
-0.487 2.351 1.826 15435
-0.512 2.471 1.914 2841
-0.487 2.350 1.815 14854
-0.511 2.470 1.902 3512
-0.488 2.355 1.808 14462
-0.512 2.475 1.895 4088
-0.488 2.359 1.801 14462
-0.513 2.480 1.888 4740
-0.489 2.364 1.794 11427
-0.514 2.485 1.880 4218
-0.504 2.432 1.833 11240
-0.529 2.553 1.918 1956
-0.479 2.312 1.747 1071
-0.506 2.444 1.830 10725
-0.531 2.565 1.916 2813
-0.508 2.455 1.827 10424
-0.533 2.576 1.913 3711
-0.508 2.453 1.816 9121
-0.536 2.588 1.909 3048
-0.509 2.458 1.808 7882
-0.541 2.612 1.915 2790
-0.510 2.463 1.801 7882
-0.542 2.617 1.908 2956
-0.522 2.519 1.829 7884
-0.547 2.641 1.913 1586
-0.523 2.524 1.822 10535
-0.548 2.646 1.905 1011
-0.524 2.529 1.815 9642
-0.549 2.651 1.898 1024
-0.526 2.540 1.812 8850
-0.527 2.545 1.804 7568
-0.552 2.668 1.887 2256
-0.545 2.634 1.853 7429
-0.520 2.510 1.771 3304
-0.545 2.632 1.841 8310
-0.519 2.509 1.759 2429
-0.571 2.756 1.922 1119
-0.545 2.631 1.829 9759
-0.570 2.755 1.910 1725
-0.519 2.507 1.748 1678
-0.547 2.642 1.825 8225
-0.573 2.766 1.906 1974
-0.521 2.518 1.745 1353
-0.563 2.719 1.864 8073
-0.537 2.594 1.784 2783
-0.564 2.724 1.856 6815
-0.538 2.599 1.776 2042
-0.564 2.722 1.844 5614
-0.538 2.597 1.764 1047
-0.566 2.734 1.840 5424
-0.540 2.608 1.761 1237
-0.567 2.738 1.832 5290
-0.541 2.613 1.753 1174
-0.569 2.750 1.829 7557
-0.570 2.755 1.820 9825
-0.573 2.766 1.817 10739
-0.575 2.778 1.813 11727
-0.582 2.809 1.821 9876
-0.584 2.820 1.816 8452
-0.558 2.694 1.740 1033
-0.585 2.825 1.808 8350
-0.611 2.952 1.885 1548
-0.586 2.830 1.800 8340
-0.612 2.957 1.876 2362
-0.588 2.841 1.796 9255
-0.615 2.969 1.871 2496
-0.592 2.860 1.795 10631
-0.618 2.987 1.870 2032
-0.596 2.878 1.795 11716
-0.622 3.005 1.870 1247
-0.569 2.750 1.720 1033
-0.598 2.889 1.790 9081
-0.572 2.761 1.716 1283
-0.605 2.921 1.797 7315
-0.578 2.793 1.723 1365
-0.609 2.939 1.797 5284
-0.582 2.811 1.723 1441
-0.615 2.971 1.803 5196
-0.588 2.842 1.730 2721
-0.615 2.969 1.791 5786
-0.588 2.840 1.718 1876
-0.616 2.974 1.782 5324
-0.642 3.103 1.855 1486
-0.589 2.845 1.710 1473
-0.615 2.971 1.770 4936
-0.642 3.101 1.842 1984
-0.619 2.990 1.768 3236
-0.656 3.167 1.867 2691
-0.658 3.179 1.861 4221
-0.631 3.049 1.790 2814
-0.604 2.919 1.718 1133
-0.659 3.183 1.852 5015
-0.632 3.054 1.781 3001
-0.640 3.093 1.790 4225
-0.667 3.223 1.861 3274
-0.613 2.962 1.720 2235
-0.638 3.084 1.774 5011
-0.665 3.214 1.844 2785
-0.611 2.953 1.704 1153
-0.637 3.074 1.758 6559
-0.672 3.246 1.849 2401
-0.635 3.065 1.741 5665
-0.673 3.251 1.840 2592
-0.628 3.035 1.714 4597
-0.674 3.256 1.830 3052
-0.701 3.387 1.899 1013
-0.627 3.026 1.698 4379
-0.674 3.254 1.817 2732
-0.701 3.385 1.886 1014
-0.689 3.328 1.844 4450
-0.630 3.044 1.696 3764
-0.662 3.196 1.775 1455
-0.690 3.332 1.834 6506
-0.648 3.132 1.730 3186
-0.691 3.337 1.824 6331
-0.651 3.143 1.725 3284
-0.675 3.259 1.772 5208
-0.702 3.391 1.839 3502
-0.647 3.127 1.705 2167
-0.696 3.361 1.811 3856
-0.668 3.229 1.745 3121
-0.641 3.097 1.678 1279
-0.694 3.352 1.795 3921
-0.667 3.219 1.728 2257
-0.639 3.087 1.662 1015
-0.686 3.315 1.764 3691
-0.714 3.447 1.830 2552
-0.683 3.298 1.744 6714
-0.710 3.431 1.809 3141
-0.685 3.310 1.738 7949
-0.713 3.443 1.803 2578
-0.689 3.328 1.735 7750
-0.717 3.461 1.799 1934
-0.690 3.333 1.725 8643
-0.718 3.466 1.789 2386
-0.793 3.830 1.965 1565
-0.691 3.337 1.715 8015
-0.793 3.829 1.951 3316
-0.719 3.471 1.779 2611
-0.709 3.426 1.746 8906
-0.794 3.834 1.940 4311
-0.682 3.293 1.682 1946
-0.710 3.431 1.735 9574
-0.795 3.839 1.928 4733
-0.683 3.297 1.672 1169
-0.713 3.442 1.729 9015
-0.796 3.844 1.917 5001
-0.685 3.309 1.666 1056
-0.717 3.461 1.725 8297
-0.797 3.849 1.906 7214
-0.689 3.327 1.663 1060
-0.799 3.861 1.898 9692
-0.718 3.466 1.715 6020
-0.799 3.859 1.883 9023
-0.720 3.477 1.708 3258
-0.827 3.993 1.945 1129
-0.800 3.864 1.872 6857
-0.828 3.999 1.933 2773
-0.722 3.489 1.701 2288
-0.803 3.876 1.863 6067
-0.830 4.011 1.924 4670
-0.722 3.486 1.688 1936
-0.826 3.987 1.900 7167
-0.798 3.853 1.839 5369
-0.720 3.476 1.671 1853
-0.854 4.122 1.960 1523
-0.828 4.000 1.891 8597
-0.800 3.865 1.831 5212
-0.865 4.177 1.970 1646
-0.722 3.488 1.664 1335
-0.828 3.997 1.876 7356
-0.800 3.862 1.817 2435
-0.864 4.175 1.955 2364
-0.826 3.988 1.858 6155
-0.854 4.124 1.917 3648
-0.885 4.273 1.983 1695
-0.798 3.853 1.799 1065
-0.827 3.993 1.846 5318
-0.867 4.186 1.930 4169
-0.895 4.321 1.989 1564
-0.871 4.205 1.924 6748
-0.843 4.069 1.865 4293
-0.899 4.341 1.982 1412
-0.875 4.225 1.917 7150
-0.847 4.089 1.859 5247
-0.903 4.360 1.975 1419
-0.877 4.237 1.908 4369
-0.849 4.101 1.850 3993
-0.905 4.373 1.966 2652
-0.898 4.335 1.935 8387
-0.844 4.077 1.826 2808
-0.888 4.290 1.901 9453
-0.845 4.082 1.814 1800
-0.916 4.426 1.958 1369
-0.891 4.302 1.891 10160
-0.919 4.439 1.948 1607
-0.862 4.166 1.835 1066
-0.896 4.329 1.887 8305
-0.925 4.465 1.943 1831
-0.868 4.192 1.832 1386
-0.900 4.348 1.880 5208
-0.929 4.485 1.936 2881
-0.872 4.211 1.825 1022
-0.921 4.447 1.905 4997
-0.888 4.288 1.842 1902
-0.922 4.452 1.892 4487
-0.893 4.315 1.838 1197
-0.915 4.421 1.865 3980
-0.944 4.558 1.919 2031
-0.919 4.440 1.857 3275
-0.948 4.578 1.911 2552
-0.928 4.481 1.858 3692
-0.956 4.619 1.912 2905
-0.930 4.493 1.848 4678
-0.959 4.631 1.901 2547
-0.943 4.556 1.857 6452
-0.972 4.694 1.910 1971
-0.944 4.561 1.844 8060
-0.973 4.699 1.896 1589
-0.947 4.573 1.833 6891
-0.986 4.763 1.904 2112
-0.984 4.753 1.884 5857
-0.951 4.593 1.825 4991
-0.987 4.765 1.873 7724
-0.950 4.590 1.808 3687
-0.991 4.785 1.864 8144
-0.953 4.602 1.798 1923
-1.019 4.924 1.915 1666
-0.992 4.790 1.850 8707
-1.030 4.972 1.916 2555
-0.963 4.651 1.800 1625
-0.991 4.787 1.833 6999
-1.020 4.926 1.883 3430
-0.962 4.648 1.784 1282
-1.049 5.065 1.933 1192
-0.995 4.807 1.824 4299
-1.041 5.026 1.902 2352
-1.042 5.031 1.887 2884
-0.996 4.812 1.810 1844
-1.034 4.992 1.857 2740
-1.063 5.132 1.906 1471
-1.005 4.853 1.809 1094
-1.035 4.997 1.842 3329
-1.064 5.137 1.891 3106
-1.006 4.858 1.794 1205
-1.092 5.276 1.939 1015
-1.065 5.142 1.875 4538
-1.019 4.921 1.800 2852
-1.094 5.282 1.923 2153
-1.066 5.147 1.860 3642
-1.096 5.294 1.910 2497
-1.018 4.919 1.783 1988
-1.100 5.314 1.899 3769
-1.065 5.144 1.843 2327
-1.036 5.004 1.796 1048
-1.103 5.326 1.886 4996
-1.068 5.157 1.830 2437
-1.138 5.496 1.942 1898
-1.098 5.302 1.861 4675
-1.140 5.508 1.928 3009
-1.069 5.161 1.815 2478
-1.100 5.314 1.847 3067
-1.138 5.499 1.907 3056
-1.071 5.174 1.802 1650
-1.136 5.489 1.886 2782
-1.107 5.348 1.841 2055
-1.077 5.200 1.794 1079
-1.144 5.523 1.879 2714
-1.111 5.368 1.830 2682
-1.188 5.738 1.948 1023
-1.148 5.543 1.868 3353
-1.112 5.373 1.814 2507
-1.192 5.758 1.935 1656
-1.155 5.578 1.861 3508
-1.195 5.771 1.921 1972
-1.118 5.400 1.805 1806
-1.187 5.731 1.890 3145
-1.156 5.583 1.844 2887
-1.223 5.909 1.945 1317
-1.185 5.721 1.868 3126
-1.155 5.580 1.825 1979
-1.223 5.907 1.925 1151
-1.179 5.696 1.843 3198
-1.209 5.838 1.885 1736
-1.150 5.555 1.800 1191
-1.179 5.694 1.823 2841
-1.222 5.902 1.886 2535
-1.251 6.044 1.928 1229
-1.225 5.915 1.870 3540
-1.254 6.056 1.912 2680
-1.178 5.691 1.804 1645
-1.256 6.069 1.896 2670
-1.226 5.920 1.853 2336
-1.300 6.277 1.957 1418
-1.298 6.268 1.935 1996
-1.259 6.081 1.881 1623
-1.225 5.917 1.833 1389
-1.303 6.295 1.922 2344
-1.339 6.467 1.971 2075
-1.266 6.116 1.871 1436
-1.342 6.479 1.954 2902
-1.312 6.337 1.914 2690
-1.278 6.173 1.868 1822
-1.343 6.485 1.935 4111
-1.313 6.343 1.896 2672
-1.282 6.193 1.854 2158
-1.344 6.490 1.916 4677
-1.314 6.348 1.877 1961
-1.285 6.205 1.838 1310
-1.373 6.632 1.955 1081
-1.345 6.495 1.897 4754
-1.489 7.191 2.087 1533
-1.315 6.352 1.858 1379
-1.411 6.817 1.985 1195
-1.346 6.500 1.878 4117
-1.412 6.822 1.964 2040
-1.490 7.197 2.066 1846
-1.375 6.642 1.916 1533
-1.347 6.505 1.858 2716
-1.493 7.210 2.046 2706
-1.412 6.820 1.942 2353
-1.376 6.647 1.896 1594
-1.494 7.215 2.025 3376
-1.348 6.510 1.839 1802
-1.413 6.825 1.922 1322
-1.498 7.236 2.007 2632
-1.528 7.378 2.045 1152
-1.505 7.271 1.994 2201
-1.541 7.444 2.038 1787
-1.589 7.677 2.098 1398
-1.541 7.442 2.014 1900
-1.508 7.284 1.974 1608
-1.589 7.675 2.073 1189
-1.446 6.983 1.898 1067
-1.448 6.995 1.879 2650
-1.540 7.440 1.990 1395
-1.592 7.688 2.052 1098
-1.448 6.993 1.856 4004
-1.541 7.445 1.968 1326
-1.627 7.859 2.071 1157
-1.596 7.709 2.033 1105
-1.449 6.998 1.836 4708
-1.605 7.752 2.020 1312
-1.290 6.229 1.648 1121
-1.448 6.995 1.813 5271
-1.290 6.233 1.629 1633
-1.608 7.765 1.999 1190
-1.419 6.852 1.779 1005
-1.449 7.000 1.792 4983
-1.420 6.856 1.758 1713
-1.291 6.237 1.611 1176
-1.450 7.004 1.772 5195
-1.420 6.861 1.738 2178
-1.453 7.017 1.753 4572
-1.423 6.873 1.719 2622
-1.291 6.238 1.572 1330
-1.427 6.893 1.703 3989
-1.294 6.250 1.556 3355
-1.457 7.036 1.735 2743
-1.295 6.254 1.537 4954
-1.428 6.897 1.682 4754
-1.458 7.041 1.715 2323
-1.395 6.738 1.646 1501
-1.297 6.265 1.520 4022
-1.427 6.894 1.660 3892
-1.393 6.727 1.623 2686
-1.457 7.038 1.692 1626
-1.392 6.724 1.601 5301
-1.428 6.898 1.640 3746
-1.296 6.261 1.500 2928
-1.395 6.736 1.583 8083
-1.431 6.910 1.621 2910
-1.297 6.265 1.482 2208
-1.397 6.747 1.565 9251
-1.439 6.952 1.608 1907
-1.296 6.262 1.461 1626
-1.398 6.751 1.545 9082
-1.428 6.896 1.575 1942
-1.292 6.242 1.438 1317
-1.400 6.763 1.526 9075
-1.430 6.907 1.556 1844
-1.292 6.239 1.418 1476
-1.398 6.752 1.503 7163
-1.428 6.896 1.533 2012
-1.297 6.265 1.404 1591
-1.397 6.748 1.482 5824
-1.304 6.299 1.392 2854
-1.427 6.892 1.511 1929
-1.395 6.736 1.459 4190
-1.306 6.310 1.375 4174
-1.425 6.881 1.487 2062
-1.309 6.321 1.358 4110
-1.384 6.687 1.429 3851
-1.418 6.847 1.460 1914
-1.354 6.542 1.400 1041
-1.306 6.310 1.336 5112
-1.380 6.668 1.404 3529
-1.410 6.812 1.432 1657
-1.310 6.328 1.320 7876
-1.392 6.725 1.395 1823
-1.358 6.557 1.363 1376
-1.309 6.324 1.300 9046
-1.357 6.553 1.342 1355
-1.304 6.297 1.276 11081
-1.303 6.292 1.256 13080
-1.303 6.295 1.237 12427
-1.304 6.299 1.219 10292
-1.308 6.317 1.203 9713
-1.310 6.328 1.185 7258
-1.312 6.338 1.168 5385
-1.311 6.333 1.148 5115
-1.313 6.344 1.130 8728
-1.316 6.354 1.113 15322
-1.318 6.365 1.095 13669
-1.320 6.375 1.077 7330
-1.319 6.370 1.057 4616
-1.289 6.224 1.036 1313
-1.311 6.334 1.033 4554
-1.281 6.188 1.012 1466
-1.342 6.480 1.054 1283
-1.307 6.314 1.011 5641
-1.277 6.168 0.991 1514
-1.337 6.460 1.031 1191
-1.306 6.309 0.991 5624
-1.276 6.163 0.971 1506
-1.289 6.226 0.961 5480
-1.319 6.373 0.981 2606
-1.290 6.229 0.943 5218
-1.320 6.375 0.962 2741
-1.312 6.339 0.938 4243
-1.282 6.193 0.920 3303
-1.287 6.218 0.904 3359
-1.318 6.364 0.922 1774
-1.288 6.220 0.886 2486
-1.258 6.074 0.868 1193
-1.279 6.176 0.862 2038
-1.281 6.186 0.845 2209
-1.250 6.039 0.828 1107
-1.278 6.172 0.825 2204
-1.248 6.026 0.808 1256
-1.277 6.167 0.806 2194
-1.246 6.020 0.790 1792
-1.253 6.053 0.775 2469
-1.283 6.199 0.791 1027
-1.266 6.116 0.763 2706
-1.236 5.970 0.748 1745
-1.260 6.087 0.742 3454
-1.230 5.941 0.728 1601
-1.257 6.073 0.723 4216
-1.227 5.927 0.709 1777
-1.258 6.075 0.705 3768
-1.227 5.928 0.691 1847
-1.261 6.092 0.688 2722
-1.231 5.945 0.675 2430
-1.231 5.947 0.657 4140
-1.201 5.800 0.645 1588
-1.263 6.101 0.671 1578
-1.228 5.933 0.639 5774
-1.198 5.786 0.626 1863
-1.227 5.927 0.620 6443
-1.197 5.780 0.608 1810
-1.224 5.912 0.602 5714
-1.194 5.766 0.590 2034
-1.221 5.898 0.583 4198
-1.191 5.751 0.572 2609
-1.220 5.892 0.565 2986
-1.188 5.737 0.554 2921
-1.193 5.761 0.538 2980
-1.223 5.908 0.549 2794
-1.199 5.794 0.523 3631
-1.230 5.940 0.533 2368
-1.205 5.818 0.508 4640
-1.235 5.965 0.517 1223
-1.206 5.827 0.491 4770
-1.176 5.680 0.482 1084
-1.187 5.735 0.468 3850
-1.218 5.882 0.477 1779
-1.184 5.720 0.451 4433
-1.215 5.867 0.459 1223
-1.184 5.721 0.434 4480
-1.217 5.876 0.442 1027
-1.185 5.722 0.417 3459
-1.154 5.575 0.410 1122
-1.178 5.692 0.399 1843
-1.209 5.839 0.405 1048
-1.172 5.661 0.380 1652
-1.203 5.808 0.387 1017
-1.177 5.685 0.365 1577
-1.179 5.694 0.348 1691
-1.148 5.546 0.343 1050
-1.161 5.609 0.328 2216
-1.192 5.756 0.333 1421
-1.163 5.617 0.312 4128
-1.133 5.470 0.308 1118
-1.193 5.764 0.317 1086
-1.163 5.618 0.295 4969
-1.133 5.470 0.291 1755
-1.163 5.618 0.279 4557
-1.133 5.471 0.275 2055
-1.163 5.618 0.262 2960
-1.133 5.471 0.259 1785
-1.149 5.549 0.244 1962
-1.151 5.557 0.228 2028
-1.152 5.565 0.212 2204
-1.154 5.573 0.195 2536
-1.154 5.573 0.179 2869
-1.123 5.426 0.178 1007
-1.154 5.573 0.162 2169
-1.123 5.426 0.162 1496
-1.125 5.434 0.146 2108
-1.123 5.426 0.130 2221
-1.125 5.434 0.114 2306
-1.125 5.434 0.098 2402
-1.123 5.426 0.082 2525
-1.122 5.418 0.066 2718
-1.117 5.394 0.050 2148
-1.112 5.371 0.035 2163
-1.112 5.370 0.019 2089
-1.112 5.370 0.003 2014
-1.091 5.269 -0.010 1817
-1.091 5.268 -0.025 1711
-1.099 5.307 -0.042 1952
-1.099 5.306 -0.058 2437
-1.068 5.159 -0.052 1045
-1.095 5.290 -0.073 2047
-1.092 5.274 -0.088 1939
-1.092 5.273 -0.104 1469
-1.085 5.242 -0.118 1030
-1.085 5.241 -0.133 1087
-1.086 5.248 -0.149 1150
-1.067 5.154 -0.159 1003
-1.065 5.145 -0.174 1380
-1.068 5.160 -0.190 1481
-1.070 5.167 -0.206 1613
-1.068 5.158 -0.220 1267
-1.056 5.103 -0.232 1491
-1.056 5.102 -0.247 1491
-1.056 5.101 -0.262 1269
-1.056 5.099 -0.277 1047
-0.470 2.289 1.821 4444
-0.475 2.313 1.828 9279
-0.500 2.431 1.917 2090
-0.481 2.342 1.840 14477
-0.506 2.462 1.928 1590
-0.482 2.347 1.833 14748
-0.507 2.467 1.921 2102
-0.483 2.352 1.826 15019
-0.508 2.472 1.914 2614
-0.483 2.351 1.815 14118
-0.508 2.470 1.902 3172
-0.484 2.355 1.808 13544
-0.509 2.476 1.895 3574
-0.485 2.360 1.801 13544
-0.510 2.481 1.888 4126
-0.486 2.365 1.794 10642
-0.511 2.486 1.880 4163
-0.501 2.440 1.837 10656
-0.526 2.560 1.923 1759
-0.476 2.319 1.751 1515
-0.502 2.444 1.830 10209
-0.527 2.566 1.916 2671
-0.505 2.456 1.827 9825
-0.530 2.577 1.913 3534
-0.504 2.454 1.816 8614
-0.533 2.595 1.914 2946
-0.505 2.459 1.808 7466
-0.536 2.606 1.911 2801
-0.506 2.464 1.801 7466
-0.537 2.611 1.903 2932
-0.519 2.526 1.834 7683
-0.544 2.649 1.918 1216
-0.519 2.525 1.822 10224
-0.520 2.529 1.815 9271
-0.522 2.541 1.812 8358
-0.523 2.546 1.804 7200
-0.548 2.669 1.887 1953
-0.541 2.635 1.853 7784
-0.516 2.511 1.771 3194
-0.541 2.633 1.841 8452
-0.516 2.509 1.759 2354
-0.566 2.757 1.922 1098
-0.541 2.631 1.829 9484
-0.566 2.755 1.910 1666
-0.515 2.508 1.748 1649
-0.542 2.636 1.821 7754
-0.567 2.761 1.902 2659
-0.516 2.512 1.740 1046
-0.559 2.720 1.864 8184
-0.533 2.595 1.784 2612
-0.560 2.725 1.856 7013
-0.534 2.600 1.776 1859
-0.561 2.730 1.848 5842
-0.535 2.605 1.769 1106
-0.563 2.741 1.845 5899
-0.537 2.616 1.765 1211
-0.564 2.746 1.837 5991
-0.538 2.621 1.758 1065
-0.567 2.757 1.833 7853
-0.569 2.769 1.829 9871
-0.571 2.780 1.825 11010
-0.575 2.798 1.825 12727
-0.577 2.810 1.821 11071
-0.580 2.821 1.816 9769
-0.581 2.826 1.808 8980
-0.607 2.953 1.885 1621
-0.582 2.831 1.800 8422
-0.608 2.958 1.876 2409
-0.583 2.836 1.792 9347
-0.609 2.963 1.867 2981
-0.588 2.860 1.795 10722
-0.614 2.988 1.870 2018
-0.591 2.879 1.795 12090
-0.618 3.006 1.870 1160
-0.565 2.751 1.720 1116
-0.594 2.890 1.790 9771
-0.568 2.762 1.716 1420
-0.599 2.915 1.793 8533
-0.573 2.787 1.719 1561
-0.603 2.933 1.793 5958
-0.576 2.805 1.719 1718
-0.611 2.972 1.803 5150
-0.584 2.843 1.730 3127
-0.612 2.977 1.795 5535
-0.585 2.848 1.722 2576
-0.611 2.974 1.782 4732
-0.585 2.845 1.710 1620
-0.638 3.104 1.855 1458
-0.611 2.972 1.770 4106
-0.637 3.102 1.842 1958
-0.612 2.977 1.761 2993
-0.651 3.168 1.867 2482
-0.653 3.180 1.861 3898
-0.627 3.050 1.790 2962
-0.600 2.920 1.718 1083
-0.654 3.184 1.852 4684
-0.628 3.055 1.781 3333
-0.634 3.087 1.787 4222
-0.661 3.217 1.857 3312
-0.607 2.957 1.716 1853
-0.632 3.078 1.770 4956
-0.659 3.208 1.841 2795
-0.606 2.947 1.700 1047
-0.630 3.069 1.754 6476
-0.667 3.247 1.849 2226
-0.629 3.059 1.738 5686
-0.670 3.259 1.844 2419
-0.624 3.036 1.714 4724
-0.669 3.257 1.830 2788
-0.696 3.388 1.899 1028
-0.623 3.034 1.702 4394
-0.670 3.262 1.821 2461
-0.683 3.322 1.840 4620
-0.626 3.045 1.696 3617
-0.653 3.177 1.765 1280
-0.684 3.327 1.830 6745
-0.644 3.133 1.730 3165
-0.685 3.331 1.821 6656
-0.646 3.144 1.725 3405
-0.670 3.260 1.772 5900
-0.697 3.392 1.839 2893
-0.643 3.128 1.705 2385
-0.668 3.251 1.755 4471
-0.695 3.383 1.822 2547
-0.638 3.105 1.682 1647
-0.687 3.346 1.791 3968
-0.660 3.213 1.725 2997
-0.633 3.081 1.658 1076
-0.681 3.316 1.764 4753
-0.708 3.448 1.830 1945
-0.640 3.113 1.663 1051
-0.679 3.306 1.747 7328
-0.707 3.439 1.813 2414
-0.680 3.311 1.738 7789
-0.708 3.444 1.803 2470
-0.683 3.322 1.731 6765
-0.710 3.455 1.796 2103
-0.685 3.334 1.725 7872
-0.712 3.467 1.789 2193
-0.787 3.832 1.965 1631
-0.686 3.338 1.715 7705
-0.788 3.837 1.954 3174
-0.713 3.472 1.779 2366
-0.704 3.427 1.746 8417
-0.789 3.842 1.943 3940
-0.677 3.294 1.682 1862
-0.705 3.432 1.735 9334
-0.790 3.847 1.932 4121
-0.678 3.298 1.672 1067
-0.708 3.443 1.729 8826
-0.790 3.845 1.917 4550
-0.711 3.462 1.725 8376
-0.791 3.850 1.906 7416
-0.794 3.862 1.898 10122
-0.714 3.474 1.718 5913
-0.793 3.860 1.883 9508
-0.713 3.471 1.705 2869
-0.821 3.995 1.945 1105
-0.794 3.865 1.872 7160
-0.822 4.000 1.933 2619
-0.716 3.483 1.698 1573
-0.797 3.877 1.863 5801
-0.824 4.012 1.924 4347
-0.715 3.480 1.684 1565
-0.820 3.989 1.900 6775
-0.792 3.854 1.839 4806
-0.716 3.484 1.674 1619
-0.847 4.124 1.960 1500
-0.822 4.001 1.891 8324
-0.794 3.866 1.831 4895
-0.859 4.179 1.970 1751
-0.715 3.482 1.661 1319
-0.822 3.999 1.876 7318
-0.794 3.863 1.817 2495
-0.860 4.184 1.958 2457
-0.820 3.989 1.858 6332
-0.848 4.125 1.917 3847
-0.878 4.275 1.983 1769
-0.792 3.854 1.799 1156
-0.821 3.994 1.846 5336
-0.862 4.194 1.933 3864
-0.890 4.330 1.992 1285
-0.866 4.214 1.927 6389
-0.838 4.078 1.868 4893
-0.894 4.349 1.985 1314
-0.868 4.226 1.917 6698
-0.840 4.090 1.859 5055
-0.896 4.362 1.975 1710
-0.891 4.338 1.950 4400
-0.863 4.202 1.893 3634
-0.835 4.066 1.835 2819
-0.891 4.336 1.935 8800
-0.863 4.200 1.877 2836
-0.835 4.064 1.820 2634
-0.882 4.291 1.901 9528
-0.839 4.083 1.814 1760
-0.910 4.428 1.958 1454
-0.883 4.296 1.888 9826
-0.911 4.433 1.945 1714
-0.855 4.160 1.832 1001
-0.890 4.330 1.887 7392
-0.918 4.467 1.943 1576
-0.862 4.193 1.832 1559
-0.894 4.349 1.880 4786
-0.922 4.486 1.936 2433
-0.866 4.212 1.825 1143
-0.914 4.448 1.905 4187
-0.886 4.311 1.850 1443
-0.906 4.410 1.875 4195
-0.934 4.547 1.930 2006
-0.907 4.415 1.862 4380
-0.935 4.552 1.916 1882
-0.913 4.441 1.857 3435
-0.944 4.594 1.917 2418
-0.921 4.483 1.858 3336
-0.949 4.620 1.912 2721
-0.928 4.517 1.856 4568
-0.956 4.654 1.909 1836
-0.936 4.558 1.857 6189
-0.965 4.696 1.910 1917
-0.937 4.563 1.844 7381
-0.966 4.701 1.896 1576
-0.940 4.575 1.833 6313
-0.974 4.742 1.895 2044
-0.977 4.755 1.884 5293
-0.944 4.594 1.825 4956
-0.979 4.767 1.873 6838
-0.943 4.592 1.808 3693
-1.008 4.905 1.924 1013
-0.983 4.786 1.864 7456
-0.946 4.604 1.798 1977
-1.012 4.925 1.915 1676
-0.984 4.791 1.850 8229
-1.013 4.930 1.900 2477
-0.956 4.652 1.800 1755
-0.984 4.789 1.833 6748
-1.013 4.928 1.883 3589
-0.955 4.650 1.784 1267
-1.041 5.067 1.933 1039
-0.986 4.801 1.822 4291
-1.015 4.940 1.871 2123
-1.044 5.079 1.920 1086
-1.034 5.033 1.887 2627
-0.990 4.820 1.813 1987
-1.025 4.987 1.855 3022
-1.053 5.126 1.903 1498
-0.996 4.847 1.806 1053
-1.026 4.992 1.840 3969
-1.056 5.138 1.891 2986
-0.997 4.852 1.792 1073
-1.084 5.278 1.939 1070
-1.057 5.143 1.875 4472
-1.011 4.923 1.800 3245
-1.086 5.283 1.923 2395
-1.056 5.141 1.858 3835
-1.085 5.281 1.905 2563
-1.011 4.920 1.783 2167
-1.097 5.338 1.907 3339
-1.057 5.146 1.843 2589
-1.023 4.976 1.786 1038
-1.095 5.328 1.886 4153
-1.060 5.158 1.830 2542
-1.130 5.498 1.942 1921
-1.090 5.303 1.861 4140
-1.132 5.510 1.928 2900
-1.061 5.163 1.815 2343
-1.092 5.316 1.847 2871
-1.130 5.500 1.907 2717
-1.063 5.175 1.802 1572
-1.128 5.491 1.886 2737
-1.099 5.350 1.841 1801
-1.070 5.209 1.796 1099
-1.134 5.518 1.877 2859
-1.103 5.370 1.830 2215
-1.138 5.538 1.865 3225
-1.104 5.374 1.814 2124
-1.183 5.760 1.935 1499
-1.146 5.580 1.861 3331
-1.186 5.772 1.921 1886
-1.108 5.394 1.803 1589
-1.215 5.913 1.965 1039
-1.178 5.733 1.890 3408
-1.147 5.584 1.844 2741
-1.211 5.896 1.940 1620
-1.182 5.753 1.877 3301
-1.145 5.574 1.823 2010
-1.214 5.909 1.925 1582
-1.188 5.780 1.867 3175
-1.159 5.639 1.825 1524
-1.217 5.921 1.910 1239
-1.170 5.696 1.823 2654
-1.213 5.904 1.886 2315
-1.242 6.045 1.928 1390
-1.214 5.909 1.868 3171
-1.245 6.058 1.912 2748
-1.171 5.700 1.807 1596
-1.247 6.070 1.896 2553
-1.217 5.921 1.853 2126
-1.289 6.272 1.955 1636
-1.291 6.284 1.939 2140
-1.231 5.993 1.855 1979
-1.289 6.275 1.916 2348
-1.329 6.469 1.971 1751
-1.236 6.013 1.841 1367
-1.306 6.354 1.919 2498
-1.335 6.496 1.959 2180
-1.270 6.182 1.870 1496
-1.311 6.382 1.906 4410
-1.340 6.524 1.946 2518
-1.271 6.187 1.852 1793
-1.335 6.499 1.918 4342
-1.306 6.357 1.879 2617
-1.478 7.195 2.110 1233
-1.274 6.200 1.835 1162
-1.336 6.504 1.899 4424
-1.307 6.362 1.860 1770
-1.480 7.201 2.089 1612
-1.366 6.647 1.938 1142
-1.336 6.502 1.878 3605
-1.479 7.199 2.066 1876
-1.401 6.817 1.962 1811
-1.365 6.644 1.916 1567
-1.482 7.212 2.046 3027
-1.338 6.514 1.860 2376
-1.403 6.829 1.944 2134
-1.368 6.657 1.898 1289
-1.485 7.225 2.027 3743
-1.338 6.512 1.839 1664
-1.404 6.834 1.924 1233
-1.487 7.238 2.007 2969
-1.516 7.381 2.045 1267
-1.493 7.266 1.992 2256
-1.532 7.454 2.040 1527
-1.578 7.679 2.098 1477
-1.511 7.354 1.991 1690
-1.577 7.677 2.073 1248
-1.434 6.977 1.896 1053
-1.540 7.497 2.028 1005
-1.436 6.990 1.877 2475
-1.532 7.457 1.994 1413
-1.580 7.690 2.052 1139
-1.437 6.995 1.856 3815
-1.532 7.455 1.970 1316
-1.615 7.862 2.071 1288
-1.584 7.711 2.033 1281
-1.438 7.000 1.836 4577
-1.593 7.754 2.020 1551
-1.629 7.928 2.062 1171
-1.438 6.997 1.813 4950
-1.281 6.235 1.629 1507
-1.596 7.767 1.999 1294
-1.633 7.948 2.042 1032
-1.439 7.002 1.792 4302
-1.283 6.247 1.613 1965
-1.409 6.858 1.758 1609
-1.440 7.007 1.772 4391
-1.284 6.251 1.594 2002
-1.410 6.863 1.738 1918
-1.442 7.019 1.753 4247
-1.413 6.875 1.719 2835
-1.285 6.255 1.576 2775
-1.284 6.251 1.556 4819
-1.415 6.887 1.701 4707
-1.445 7.031 1.734 2645
-1.285 6.255 1.537 5171
-1.418 6.899 1.682 4837
-1.447 7.043 1.715 2043
-1.382 6.725 1.643 1285
-1.288 6.267 1.520 3894
-1.412 6.873 1.655 3733
-1.381 6.722 1.621 2333
-1.442 7.017 1.687 1915
-1.382 6.726 1.601 4537
-1.288 6.271 1.502 3584
-1.416 6.893 1.638 3581
-1.384 6.738 1.583 7042
-1.289 6.275 1.483 3481
-1.420 6.912 1.621 3010
-1.387 6.749 1.565 8177
-1.289 6.271 1.463 2947
-1.416 6.894 1.596 2009
-1.388 6.753 1.545 8158
-1.285 6.252 1.440 2931
-1.417 6.898 1.575 2346
-1.388 6.757 1.525 8612
-1.285 6.256 1.421 2974
-1.418 6.902 1.555 2047
-1.388 6.754 1.503 7218
-1.288 6.267 1.404 3451
-1.417 6.898 1.533 2009
-1.387 6.750 1.482 5627
-1.290 6.278 1.387 3546
-1.417 6.895 1.511 2008
-1.295 6.305 1.373 4386
-1.386 6.746 1.460 3726
-1.416 6.891 1.489 1962
-1.298 6.316 1.356 5453
-1.374 6.689 1.429 3104
-1.407 6.849 1.460 2086
-1.297 6.311 1.336 5593
-1.370 6.670 1.404 2862
-1.400 6.815 1.432 1762
-1.301 6.330 1.320 6847
-1.370 6.666 1.383 1423
-1.404 6.833 1.415 1302
-1.297 6.311 1.297 7508
-1.405 6.837 1.395 1102
-1.294 6.299 1.276 10670
-1.293 6.294 1.256 12351
-1.294 6.297 1.237 10617
-1.296 6.308 1.220 8529
-1.300 6.326 1.204 8559
-1.302 6.337 1.186 7965
-1.301 6.332 1.166 7896
-1.300 6.328 1.146 7644
-1.302 6.338 1.129 7070
-1.306 6.356 1.113 10733
-1.308 6.367 1.095 10997
-1.312 6.385 1.078 6836
-1.311 6.380 1.058 4685
-1.281 6.234 1.037 1075
-1.304 6.344 1.034 5194
-1.274 6.198 1.013 1283
-1.299 6.324 1.012 5340
-1.269 6.178 0.992 1351
-1.329 6.469 1.032 1031
-1.297 6.311 0.991 4971
-1.267 6.165 0.971 1335
-1.280 6.228 0.961 4820
-1.310 6.375 0.981 2249
-1.280 6.231 0.943 4603
-1.310 6.377 0.962 2381
-1.303 6.341 0.938 3886
-1.273 6.195 0.920 2830
-1.280 6.228 0.905 2951
-1.310 6.374 0.923 1680
-1.277 6.214 0.885 2237
-1.269 6.178 0.862 2198
-1.271 6.188 0.845 2129
-1.241 6.041 0.828 1039
-1.269 6.174 0.825 1972
-1.239 6.028 0.808 1173
-1.267 6.168 0.806 1975
-1.237 6.022 0.790 1665
-1.242 6.047 0.774 2256
-1.273 6.193 0.790 1149
-1.257 6.118 0.763 2559
-1.227 5.972 0.748 1777
-1.251 6.089 0.742 3189
-1.221 5.942 0.728 1747
-1.248 6.075 0.723 3825
-1.218 5.929 0.709 1887
-1.249 6.077 0.705 3488
-1.218 5.930 0.691 1842
-1.252 6.094 0.688 2540
-1.222 5.947 0.675 2179
-1.221 5.941 0.657 3725
-1.254 6.103 0.671 1421
-1.191 5.794 0.644 1381
-1.219 5.935 0.639 5367
-1.189 5.788 0.626 1832
-1.218 5.928 0.620 6038
-1.188 5.781 0.608 1765
-1.215 5.914 0.602 5473
-1.185 5.767 0.590 1979
-1.212 5.900 0.583 3994
-1.182 5.753 0.572 2605
-1.181 5.747 0.554 2933
-1.211 5.894 0.565 2883
-1.211 5.895 0.548 3015
-1.181 5.748 0.537 2833
-1.192 5.803 0.524 3664
-1.223 5.950 0.534 2002
-1.196 5.820 0.508 5054
-1.226 5.967 0.517 1228
-1.198 5.828 0.491 5255
-1.167 5.681 0.482 1164
-1.179 5.736 0.468 4083
-1.209 5.884 0.477 1860
-1.176 5.722 0.451 4632
-1.206 5.869 0.459 1248
-1.176 5.723 0.434 4632
-1.208 5.878 0.442 1020
-1.174 5.716 0.417 3613
-1.144 5.569 0.409 1180
-1.170 5.693 0.399 2035
-1.200 5.841 0.405 1015
-1.164 5.663 0.380 1820
-1.194 5.810 0.387 1040
-1.168 5.687 0.365 1748
-1.170 5.695 0.348 1850
-1.140 5.548 0.343 1186
-1.151 5.603 0.328 2282
-1.183 5.758 0.333 1484
-1.155 5.619 0.312 4311
-1.124 5.472 0.308 1213
-1.185 5.766 0.317 1134
-1.155 5.619 0.295 5270
-1.124 5.472 0.291 1927
-1.155 5.620 0.279 4878
-1.124 5.473 0.275 2297
-1.155 5.620 0.262 3304
-1.125 5.473 0.259 2068
-1.153 5.613 0.246 2239
-1.123 5.465 0.243 1378
-1.142 5.559 0.228 2201
-1.145 5.575 0.212 2433
-1.145 5.575 0.195 2822
-1.145 5.575 0.179 3211
-1.115 5.427 0.178 1152
-1.145 5.575 0.162 2440
-1.115 5.428 0.162 1675
-1.117 5.435 0.146 2351
-1.147 5.583 0.146 1025
-1.115 5.428 0.130 2472
-1.117 5.435 0.114 2602
-1.117 5.435 0.098 2741
-1.115 5.427 0.082 2849
-1.114 5.419 0.066 3037
-1.083 5.272 0.068 1118
-1.109 5.396 0.050 2382
-1.104 5.372 0.035 2420
-1.104 5.372 0.019 2266
-1.083 5.271 0.006 2329
-1.113 5.418 0.002 1076
-1.083 5.270 -0.010 2245
-1.081 5.262 -0.025 2174
-1.089 5.301 -0.042 2278
-1.091 5.308 -0.058 2785
-1.060 5.160 -0.052 1299
-1.087 5.292 -0.073 2371
-1.086 5.283 -0.088 2273
-1.084 5.275 -0.104 1741
-1.082 5.266 -0.119 1238
