2.816 2.144 1.752 4300
2.925 2.227 1.815 3284
2.831 2.156 1.748 4787
2.946 2.243 1.815 4257
2.852 2.172 1.748 8899
2.978 2.268 1.820 7025
2.856 2.174 1.738 9928
2.988 2.275 1.813 7844
3.003 2.287 1.808 6861
2.848 2.168 1.721 6242
3.013 2.294 1.801 7261
2.852 2.171 1.711 3770
3.011 2.292 1.787 11412
2.867 2.183 1.707 3476
3.015 2.295 1.776 14504
3.142 2.392 1.846 3296
3.024 2.303 1.768 10538
3.140 2.391 1.831 4908
3.144 2.394 1.820 8344
3.011 2.292 1.748 7305
3.148 2.397 1.808 10195
3.020 2.300 1.740 5746
3.082 2.347 1.760 9859
3.192 2.430 1.819 3066
3.086 2.349 1.749 8242
3.196 2.433 1.807 2481
3.165 2.410 1.777 9506
3.055 2.326 1.719 4717
3.163 2.408 1.763 13479
3.053 2.324 1.705 3654
3.167 2.411 1.751 12904
3.056 2.327 1.694 2172
3.176 2.418 1.743 12099
3.066 2.334 1.686 1684
3.180 2.421 1.731 11787
3.069 2.337 1.675 1369
3.178 2.420 1.717 7609
3.182 2.422 1.705 5926
3.293 2.507 1.761 885
3.203 2.438 1.702 9029
3.314 2.523 1.758 938
3.218 2.450 1.697 12260
3.222 2.453 1.685 13206
3.225 2.456 1.673 14192
3.114 2.371 1.619 796
3.223 2.454 1.659 12078
3.221 2.452 1.644 14255
3.333 2.537 1.697 1122
3.224 2.455 1.633 21121
3.596 2.738 1.807 1947
3.228 2.457 1.621 25310
3.629 2.763 1.808 2417
3.237 2.464 1.612 25562
3.645 2.775 1.800 3708
3.240 2.467 1.600 17517
3.649 2.778 1.787 3634
3.232 2.461 1.583 9322
3.356 2.555 1.639 3427
3.235 2.463 1.571 5906
3.372 2.567 1.633 2858
3.244 2.470 1.562 3854
3.630 2.764 1.734 2652
3.628 2.762 1.718 3425
3.367 2.563 1.603 3130
3.364 2.561 1.588 4795
3.882 2.955 1.814 3652
3.367 2.564 1.576 4917
3.892 2.963 1.802 4481
3.901 2.970 1.791 4196
3.383 2.575 1.569 3255
3.899 2.969 1.774 4435
4.013 3.055 1.822 3021
4.017 3.058 1.808 5659
3.903 2.972 1.760 3422
4.020 3.061 1.793 4834
3.901 2.970 1.743 2161
4.084 3.109 1.803 3568
3.970 3.023 1.756 2024
4.070 3.099 1.781 3007
4.184 3.185 1.827 2311
4.152 3.161 1.798 3067
4.026 3.065 1.747 1926
4.150 3.159 1.780 3014
4.036 3.072 1.735 1591
4.219 3.212 1.791 2546
4.105 3.126 1.746 1130
4.235 3.225 1.781 2836
4.121 3.138 1.736 1505
4.293 3.269 1.786 3176
4.179 3.182 1.742 2003
4.303 3.276 1.773 5058
4.189 3.189 1.729 3370
4.307 3.279 1.757 6460
4.192 3.192 1.714 2035
4.317 3.286 1.744 7937
4.431 3.374 1.787 1337
4.320 3.289 1.728 6514
4.435 3.377 1.771 1924
4.391 3.343 1.737 4307
4.276 3.255 1.695 1746
4.394 3.346 1.721 6221
4.279 3.258 1.679 1325
4.386 3.339 1.701 6447
4.501 3.427 1.742 2336
4.402 3.351 1.689 4220
4.517 3.439 1.730 3114
4.460 3.395 1.692 7957
4.344 3.308 1.652 1232
4.475 3.407 1.680 6070
4.712 3.588 1.762 986
4.515 3.438 1.676 5336
4.400 3.350 1.637 1341
4.507 3.431 1.656 9079
4.908 3.737 1.792 1511
4.516 3.439 1.641 8211
4.942 3.763 1.784 1899
4.526 3.446 1.627 8086
5.153 3.923 1.835 2821
4.529 3.448 1.611 7043
5.060 3.852 1.784 3136
5.057 3.850 1.764 3491
4.515 3.437 1.588 3124
5.165 3.932 1.779 3643
5.049 3.844 1.742 2682
5.431 4.135 1.843 3271
5.236 3.986 1.781 2545
5.454 4.152 1.829 3705
5.240 3.989 1.762 2437
5.458 4.155 1.809 3777
5.341 4.067 1.773 2139
5.443 4.144 1.784 3229
5.559 4.233 1.819 1661
5.557 4.231 1.797 3648
5.441 4.142 1.762 2609
5.579 4.248 1.782 4477
5.708 4.346 1.820 2532
5.583 4.251 1.762 3265
5.718 4.353 1.801 1826
5.575 4.244 1.738 2510
5.900 4.492 1.832 1057
5.591 4.256 1.721 2484
5.965 4.542 1.828 1592
5.969 4.545 1.806 2212
5.594 4.259 1.701 1904
6.004 4.571 1.793 1744
5.752 4.379 1.723 1448
6.001 4.569 1.769 1981
5.841 4.447 1.726 1383
6.005 4.572 1.748 2519
6.307 4.802 1.829 1506
6.009 4.575 1.726 2871
6.305 4.800 1.804 1730
6.013 4.578 1.704 3429
6.309 4.803 1.781 2223
6.010 4.576 1.680 2473
6.479 4.933 1.801 2434
6.483 4.936 1.778 2472
6.310 4.804 1.734 1683
6.493 4.943 1.756 1865
6.307 4.802 1.709 1465
7.399 5.633 1.955 1774
6.521 4.965 1.738 1656
7.403 5.636 1.928 3087
6.871 5.231 1.798 1873
7.407 5.639 1.901 2713
6.881 5.239 1.775 2701
7.411 5.642 1.874 2095
7.207 5.487 1.825 1910
7.409 5.641 1.845 2267
7.768 5.914 1.928 1865
7.766 5.913 1.898 2664
7.605 5.790 1.862 2234
7.764 5.911 1.869 3342
7.615 5.798 1.835 2572
7.768 5.914 1.840 3092
8.451 6.434 1.991 2105
8.461 6.442 1.961 2794
8.672 6.602 2.007 2265
8.683 6.610 1.976 2360
8.478 6.454 1.933 1949
8.687 6.614 1.945 3117
8.482 6.458 1.902 1693
8.672 6.603 1.909 4257
8.486 6.461 1.871 1247
8.670 6.601 1.876 4711
9.193 6.999 1.981 1257
8.680 6.609 1.846 4450
9.234 7.030 1.955 1308
8.691 6.616 1.815 3778
9.232 7.029 1.920 1103
8.701 6.624 1.785 2103
9.311 7.089 1.901 1561
9.440 7.187 1.890 1823
9.309 7.087 1.865 1631
9.450 7.195 1.856 2306
8.702 6.625 1.720 1596
9.448 7.193 1.821 2610
8.699 6.623 1.687 1206
9.452 7.196 1.786 2773
10.886 8.288 2.037 1434
9.455 7.199 1.752 2328
10.885 8.287 1.997 2090
10.889 8.290 1.957 2290
9.465 7.206 1.718 1360
10.893 8.293 1.917 1739
11.311 8.612 1.985 1136
11.316 8.615 1.944 1845
9.497 7.231 1.653 1120
11.326 8.623 1.904 2437
8.101 6.167 1.399 1003
11.343 8.636 1.864 2249
8.116 6.179 1.372 1657
8.125 6.186 1.343 2895
11.353 8.643 1.824 2081
8.128 6.188 1.313 3541
11.344 8.637 1.780 1591
8.131 6.190 1.284 3108
11.342 8.635 1.738 1206
8.121 6.183 1.252 2331
11.352 8.642 1.697 1022
8.123 6.185 1.223 2188
8.004 6.094 1.207 1551
8.138 6.196 1.195 2810
8.013 6.101 1.178 1883
8.134 6.193 1.164 3168
8.015 6.102 1.149 1809
8.124 6.185 1.133 2613
8.005 6.095 1.118 2110
8.039 6.120 1.093 3004
8.158 6.211 1.107 890
8.003 6.093 1.059 3967
8.122 6.184 1.073 1478
8.037 6.119 1.033 4972
8.156 6.209 1.047 1217
8.051 6.130 1.005 5639
7.932 6.039 0.992 1054
8.053 6.131 0.976 4511
7.934 6.041 0.964 1155
7.999 6.090 0.941 2911
8.001 6.091 0.912 4192
8.002 6.093 0.882 5143
7.883 6.002 0.871 846
8.004 6.094 0.853 4985
7.885 6.003 0.843 918
8.006 6.095 0.824 3582
7.988 6.082 0.793 2940
8.009 6.097 0.766 2844
7.998 6.089 0.735 2432
7.980 6.076 0.705 2461
7.981 6.076 0.676 1700
7.970 6.068 0.646 1011
7.977 6.073 0.617 1027
7.978 6.074 0.588 1307
7.979 6.075 0.559 1432
7.968 6.066 0.529 1337
7.969 6.067 0.500 884
1.801 1.366 1.764 7838
1.704 1.293 1.675 905
1.804 1.369 1.758 15677
1.708 1.296 1.669 1810
1.808 1.372 1.751 15677
1.905 1.445 1.840 2329
1.807 1.371 1.740 15097
1.904 1.445 1.828 4020
1.811 1.374 1.734 14638
1.908 1.448 1.822 5263
1.871 1.419 1.778 12085
1.773 1.345 1.691 3577
1.880 1.426 1.776 13100
1.782 1.352 1.689 2902
1.883 1.429 1.769 13100
1.785 1.355 1.682 2869
1.887 1.432 1.762 11792
1.789 1.357 1.676 2354
1.896 1.439 1.760 10710
1.798 1.364 1.674 2334
1.921 1.457 1.771 8907
1.822 1.382 1.686 3048
1.940 1.472 1.778 9989
1.841 1.397 1.693 2389
1.970 1.495 1.793 9940
1.871 1.420 1.708 2763
1.979 1.501 1.791 11882
1.880 1.426 1.706 2845
1.983 1.504 1.784 11557
1.883 1.429 1.699 2084
1.992 1.511 1.781 11896
1.892 1.436 1.697 1339
2.001 1.518 1.778 12497
1.901 1.442 1.695 1447
1.999 1.517 1.767 15389
1.899 1.441 1.683 1202
2.008 1.524 1.764 18238
1.908 1.448 1.681 1212
2.012 1.527 1.757 15493
2.112 1.603 1.839 1258
2.016 1.530 1.749 12748
2.116 1.606 1.831 1599
2.020 1.532 1.742 11829
2.120 1.609 1.824 1781
2.023 1.535 1.735 10910
2.124 1.612 1.816 1964
2.032 1.542 1.732 10406
2.133 1.619 1.813 1697
2.047 1.553 1.733 10630
2.153 1.634 1.818 1533
2.056 1.560 1.730 10723
2.157 1.637 1.810 1893
2.065 1.567 1.727 11337
2.166 1.644 1.806 1798
2.069 1.569 1.719 9253
2.170 1.647 1.799 2501
2.131 1.617 1.758 8450
2.029 1.540 1.679 1309
2.140 1.624 1.754 7194
2.038 1.546 1.675 1158
2.171 1.647 1.767 8269
2.069 1.570 1.689 1639
2.175 1.650 1.759 7524
2.072 1.572 1.681 1367
2.168 1.645 1.743 6967
2.270 1.723 1.821 1896
2.166 1.643 1.731 5597
2.269 1.722 1.808 2740
2.148 1.630 1.707 5028
2.257 1.712 1.788 4294
2.266 1.719 1.784 4170
2.163 1.641 1.708 3895
2.188 1.660 1.716 3315
2.302 1.747 1.800 3071
2.317 1.758 1.800 3696
2.181 1.655 1.700 2654
2.321 1.761 1.791 5362
2.184 1.657 1.692 2189
2.319 1.760 1.779 6499
2.182 1.656 1.680 1767
2.323 1.763 1.771 5981
2.186 1.659 1.673 1412
2.316 1.757 1.754 5630
2.201 1.670 1.673 1019
2.353 1.785 1.769 6835
2.248 1.706 1.696 1890
2.367 1.796 1.769 9169
2.263 1.717 1.695 1925
2.371 1.799 1.760 9034
2.266 1.720 1.687 1287
2.386 1.810 1.759 10033
2.491 1.890 1.832 2208
2.395 1.817 1.754 11993
2.500 1.897 1.827 2999
2.399 1.820 1.746 10939
2.504 1.900 1.818 4108
2.397 1.819 1.733 8676
2.503 1.899 1.805 5030
2.401 1.822 1.725 7376
2.507 1.902 1.796 4278
2.516 1.909 1.790 6053
2.405 1.824 1.716 5666
2.520 1.912 1.781 9696
2.414 1.831 1.711 3711
2.518 1.910 1.769 12221
2.412 1.830 1.699 3279
2.522 1.913 1.760 13087
2.415 1.833 1.690 2452
2.526 1.916 1.750 12127
2.419 1.835 1.681 1431
2.540 1.928 1.749 11744
2.434 1.847 1.680 1562
2.550 1.935 1.743 14497
2.657 2.016 1.811 1634
2.548 1.933 1.730 14398
2.655 2.014 1.798 2518
2.540 1.927 1.714 13888
2.647 2.009 1.781 2711
2.544 1.930 1.705 13754
2.651 2.012 1.772 2671
2.553 1.937 1.699 13424
2.734 2.074 1.811 3770
2.563 1.944 1.693 13419
2.738 2.077 1.802 4952
2.566 1.947 1.684 11632
2.736 2.076 1.788 5366
2.729 2.070 1.771 6898
2.570 1.950 1.675 6504
2.727 2.069 1.758 7513
2.568 1.948 1.662 2265
2.782 2.111 1.779 6083
2.674 2.029 1.714 5147
2.791 2.118 1.772 8899
2.683 2.036 1.708 4284
2.795 2.121 1.762 8422
2.687 2.038 1.698 2848
2.810 2.132 1.759 4931
2.702 2.050 1.695 2334
2.820 2.139 1.752 3403
2.928 2.222 1.815 2854
2.846 2.160 1.755 4580
2.955 2.242 1.818 3853
2.856 2.167 1.748 9132
2.976 2.258 1.817 6539
2.860 2.170 1.738 10506
2.986 2.266 1.810 7369
2.858 2.168 1.724 6802
3.001 2.277 1.805 6398
3.011 2.285 1.798 6657
2.861 2.171 1.714 4147
3.015 2.287 1.787 10536
2.871 2.178 1.707 3987
3.019 2.290 1.776 13507
2.880 2.185 1.700 3507
3.028 2.298 1.768 9949
3.144 2.385 1.831 4562
3.148 2.388 1.820 8084
3.015 2.287 1.748 6950
3.152 2.391 1.808 9969
3.042 2.308 1.749 5831
3.086 2.341 1.760 10673
3.196 2.425 1.819 2944
3.090 2.344 1.749 9005
3.200 2.428 1.807 2622
3.169 2.405 1.777 10472
3.059 2.321 1.719 4685
3.173 2.407 1.766 13834
3.062 2.323 1.708 3558
3.177 2.410 1.754 12411
3.066 2.326 1.697 1983
3.180 2.413 1.743 11174
3.069 2.329 1.686 1545
3.184 2.416 1.731 10621
3.073 2.332 1.675 1321
3.182 2.414 1.717 6873
3.180 2.413 1.702 5571
3.291 2.497 1.758 1161
3.213 2.438 1.705 8743
3.324 2.522 1.760 976
3.222 2.445 1.697 12560
3.226 2.448 1.685 13014
3.338 2.532 1.739 817
3.235 2.455 1.676 13576
3.123 2.370 1.622 855
3.233 2.453 1.662 11913
3.231 2.451 1.647 14122
3.343 2.536 1.700 1257
3.228 2.449 1.633 20777
3.595 2.727 1.804 1817
3.232 2.452 1.621 23985
3.646 2.766 1.813 2187
3.241 2.459 1.612 23387
3.655 2.774 1.803 3364
3.244 2.462 1.600 15646
3.653 2.772 1.787 3231
3.236 2.455 1.583 8014
3.361 2.550 1.639 3607
3.239 2.458 1.571 5119
3.370 2.557 1.630 2837
3.249 2.465 1.562 3437
3.635 2.758 1.734 2159
3.371 2.558 1.603 3325
3.627 2.752 1.715 2816
3.368 2.556 1.588 5058
3.887 2.949 1.814 3703
3.372 2.558 1.576 5080
3.897 2.956 1.802 4241
3.900 2.959 1.788 3591
3.387 2.570 1.569 3384
3.976 3.017 1.805 4540
3.821 2.899 1.739 2646
4.022 3.051 1.808 5452
3.908 2.965 1.760 3178
4.020 3.050 1.791 4858
3.906 2.963 1.743 1854
4.089 3.103 1.803 3511
3.975 3.016 1.756 2368
4.075 3.092 1.781 2861
4.189 3.178 1.827 1870
4.157 3.154 1.798 2880
4.025 3.054 1.744 1935
4.149 3.148 1.778 3404
4.035 3.061 1.732 1361
4.153 3.151 1.763 2889
4.267 3.237 1.808 1338
4.241 3.218 1.781 2753
4.126 3.131 1.736 1737
4.299 3.262 1.786 3349
4.184 3.175 1.742 1973
4.309 3.269 1.773 5215
4.194 3.182 1.729 3253
4.318 3.276 1.759 6517
4.204 3.189 1.716 2113
4.322 3.279 1.744 8090
4.437 3.366 1.787 1686
4.320 3.278 1.726 6905
4.435 3.365 1.768 2191
4.317 3.276 1.708 4223
4.432 3.363 1.750 3308
4.400 3.338 1.721 5851
4.285 3.251 1.679 1474
4.391 3.332 1.701 6219
4.507 3.419 1.742 2197
4.450 3.376 1.704 4058
4.334 3.289 1.663 3019
4.465 3.388 1.692 7598
4.350 3.300 1.652 1375
4.481 3.400 1.680 5835
4.718 3.580 1.762 1295
4.521 3.430 1.676 6096
4.406 3.343 1.637 1301
4.513 3.424 1.656 10097
4.920 3.733 1.794 1928
4.522 3.431 1.641 8522
4.930 3.741 1.778 2032
4.532 3.438 1.627 8303
5.160 3.915 1.835 2835
4.529 3.436 1.609 7533
5.060 3.839 1.782 2889
4.520 3.430 1.588 3607
5.064 3.842 1.764 3071
5.178 3.928 1.781 3338
5.336 4.049 1.832 2508
5.438 4.126 1.843 3464
5.322 4.038 1.806 2267
5.461 4.143 1.829 3776
5.240 3.976 1.760 2223
5.464 4.146 1.809 3763
5.348 4.058 1.773 1934
5.462 4.144 1.787 3310
5.579 4.233 1.823 1631
5.570 4.226 1.799 3768
5.454 4.138 1.764 2703
5.586 4.239 1.782 4856
5.715 4.336 1.820 2433
5.590 4.241 1.762 3793
5.725 4.344 1.801 1681
5.582 4.235 1.738 2580
5.914 4.487 1.834 1120
5.598 4.247 1.721 2071
5.973 4.532 1.828 1725
5.977 4.535 1.806 2493
5.601 4.250 1.701 1640
5.987 4.542 1.786 1987
5.759 4.369 1.723 1669
6.009 4.559 1.769 2116
5.849 4.438 1.726 1439
6.007 4.557 1.746 2583
6.315 4.791 1.829 1605
6.016 4.565 1.726 2910
6.306 4.785 1.803 2171
6.020 4.568 1.704 3381
6.310 4.788 1.780 2678
6.487 4.922 1.801 2532
6.018 4.566 1.680 2486
6.491 4.925 1.778 2428
6.312 4.789 1.732 1677
6.501 4.932 1.756 1926
6.847 5.195 1.842 1601
7.408 5.621 1.955 1955
6.523 4.949 1.737 1876
7.412 5.624 1.928 3423
6.880 5.220 1.798 2061
7.417 5.627 1.901 3054
6.890 5.228 1.775 2949
7.421 5.630 1.874 2395
7.210 5.470 1.824 1959
7.418 5.628 1.845 2541
7.921 6.010 1.961 1855
7.422 5.631 1.818 2167
7.770 5.895 1.897 2131
7.774 5.898 1.869 2628
7.625 5.785 1.835 2389
7.778 5.901 1.840 2348
8.467 6.424 1.992 1989
8.478 6.432 1.962 2694
8.677 6.583 2.005 2255
8.495 6.445 1.934 2164
8.694 6.596 1.976 2104
8.692 6.595 1.943 2919
8.499 6.448 1.903 2012
8.683 6.588 1.909 4448
8.497 6.447 1.871 1520
8.681 6.587 1.876 5104
8.501 6.450 1.840 1290
8.691 6.594 1.846 4993
9.246 7.015 1.955 1314
8.702 6.602 1.815 4226
8.502 6.451 1.777 1162
8.712 6.610 1.785 2224
9.323 7.073 1.901 1389
8.715 6.613 1.753 1586
9.327 7.076 1.867 1575
9.462 7.179 1.856 2077
8.713 6.611 1.720 1811
9.460 7.177 1.821 2711
8.710 6.609 1.687 1371
9.463 7.180 1.786 2948
10.900 8.270 2.037 1405
9.467 7.183 1.752 2357
10.905 8.274 1.998 2035
10.903 8.272 1.957 2217
9.546 7.243 1.730 1487
10.907 8.275 1.917 1654
11.319 8.588 1.984 1100
11.330 8.596 1.944 1779
10.898 8.269 1.875 1005
11.340 8.604 1.904 2347
8.123 6.163 1.401 1024
11.357 8.617 1.864 2239
8.133 6.170 1.373 1580
11.367 8.625 1.824 2165
8.135 6.173 1.343 1825
8.119 6.160 1.311 2076
11.352 8.613 1.779 1673
8.122 6.162 1.281 2484
11.356 8.616 1.738 1267
8.137 6.174 1.253 2307
8.018 6.084 1.237 1327
8.046 6.105 1.211 1998
8.165 6.195 1.227 1662
8.061 6.116 1.183 2355
8.180 6.206 1.199 1552
8.151 6.184 1.165 3022
8.032 6.094 1.150 2235
8.053 6.110 1.123 3679
8.172 6.200 1.138 2142
8.049 6.107 1.093 4660
8.168 6.197 1.107 1422
8.057 6.113 1.064 4386
8.066 6.120 1.035 3691
7.946 6.029 1.022 1024
8.068 6.121 1.006 2946
7.898 5.993 0.988 1112
8.032 6.094 0.973 3276
7.913 6.004 0.960 1183
8.021 6.086 0.942 5148
7.902 5.995 0.930 780
8.017 6.083 0.912 5097
8.000 6.070 0.881 5576
8.002 6.071 0.852 5542
7.991 6.063 0.822 2787
7.961 6.040 0.790 1600
7.975 6.051 0.762 1524
7.989 6.061 0.734 1951
7.990 6.062 0.705 2203
7.972 6.049 0.674 1714
7.961 6.040 0.645 1251
7.956 6.036 0.615 1130
7.995 6.066 0.588 1282
7.990 6.062 0.559 1432
7.972 6.048 0.529 1421
7.954 6.035 0.499 1126
1.803 1.363 1.764 8107
1.707 1.290 1.675 1235
1.807 1.365 1.758 16215
1.710 1.292 1.669 2470
1.811 1.368 1.751 16215
1.714 1.295 1.663 2470
1.810 1.367 1.740 15318
1.907 1.441 1.828 4006
1.813 1.370 1.734 14478
1.911 1.444 1.822 5366
1.879 1.420 1.783 12152
1.781 1.346 1.695 4762
1.882 1.422 1.776 12891
1.785 1.348 1.689 2678
1.886 1.425 1.769 12891
1.788 1.351 1.682 2629
1.895 1.432 1.767 11627
1.797 1.358 1.681 2842
1.904 1.439 1.765 10568
1.806 1.364 1.679 2664
1.918 1.450 1.767 8961
1.820 1.375 1.681 2533
1.943 1.468 1.778 10050
1.844 1.393 1.693 2394
1.973 1.491 1.793 10299
1.874 1.416 1.708 2573
1.982 1.498 1.791 11991
1.883 1.423 1.706 2800
1.991 1.504 1.788 11757
1.891 1.429 1.704 2264
1.995 1.507 1.781 11710
1.895 1.432 1.697 1515
2.004 1.514 1.778 11771
1.904 1.439 1.695 1655
2.002 1.513 1.767 14975
1.902 1.437 1.683 1367
2.011 1.520 1.764 18106
1.911 1.444 1.681 1390
2.015 1.523 1.757 15727
2.116 1.599 1.839 1305
2.019 1.526 1.749 13349
2.120 1.602 1.831 1587
2.023 1.528 1.742 12425
2.124 1.605 1.824 1727
2.026 1.531 1.735 11500
2.127 1.608 1.816 1867
2.035 1.538 1.732 10895
2.137 1.614 1.813 1690
2.050 1.549 1.733 10977
2.157 1.630 1.818 1645
2.059 1.556 1.730 10992
2.160 1.632 1.810 2022
2.068 1.563 1.727 11483
2.170 1.639 1.806 1916
2.072 1.565 1.719 9717
2.174 1.642 1.799 2467
2.134 1.613 1.758 9861
2.032 1.536 1.679 1468
2.138 1.616 1.750 8257
2.240 1.693 1.829 1049
2.174 1.643 1.767 7886
2.072 1.565 1.689 1805
2.178 1.646 1.759 6977
2.075 1.568 1.681 1524
2.176 1.645 1.747 6192
2.279 1.722 1.825 1646
2.169 1.639 1.731 5236
2.272 1.717 1.808 2402
2.151 1.626 1.707 4695
2.260 1.708 1.788 3636
2.182 1.649 1.720 4188
2.286 1.727 1.796 2924
2.191 1.656 1.716 3733
2.322 1.755 1.812 2792
2.331 1.762 1.808 3470
2.184 1.650 1.700 3306
2.335 1.765 1.799 4533
2.188 1.653 1.692 2736
2.334 1.763 1.787 4979
2.191 1.656 1.684 2166
2.338 1.766 1.778 4787
2.200 1.663 1.680 1679
2.341 1.769 1.770 4595
2.237 1.690 1.696 1258
2.356 1.780 1.769 6400
2.252 1.701 1.696 1901
2.371 1.792 1.769 8723
2.266 1.712 1.695 1889
2.375 1.794 1.760 8365
2.270 1.715 1.687 1254
2.395 1.810 1.763 9517
2.500 1.889 1.836 1671
2.404 1.817 1.758 11372
2.510 1.896 1.830 2262
2.397 1.811 1.742 10787
2.503 1.891 1.814 4151
2.401 1.814 1.733 9623
2.506 1.894 1.805 4818
2.404 1.817 1.725 8566
2.510 1.897 1.796 4525
2.520 1.904 1.790 6523
2.408 1.820 1.716 6396
2.524 1.907 1.781 10328
2.417 1.827 1.711 3831
2.522 1.905 1.769 12875
2.415 1.825 1.699 3334
2.531 1.913 1.763 13908
2.425 1.832 1.694 2637
2.535 1.915 1.754 13795
2.428 1.835 1.685 1626
2.544 1.922 1.749 13565
2.438 1.842 1.680 1597
2.548 1.925 1.739 15852
2.655 2.006 1.808 1909
2.546 1.924 1.727 15967
2.653 2.005 1.795 2756
2.544 1.922 1.714 15717
2.651 2.003 1.781 2820
2.548 1.925 1.705 15891
2.655 2.006 1.772 2981
2.557 1.932 1.699 15413
2.727 2.060 1.804 3409
2.561 1.935 1.690 14755
2.736 2.068 1.798 4159
2.570 1.942 1.684 12990
2.735 2.066 1.785 5378
2.721 2.056 1.765 8835
2.574 1.945 1.675 7833
2.725 2.059 1.755 9532
2.566 1.939 1.659 3202
2.746 2.075 1.755 7390
2.638 1.993 1.690 2718
2.795 2.112 1.772 8684
2.687 2.030 1.708 4586
2.799 2.115 1.762 7805
2.691 2.033 1.698 2727
2.814 2.127 1.759 4122
2.706 2.044 1.695 2114
2.853 2.155 1.769 3301
2.962 2.238 1.832 1837
2.856 2.158 1.758 5185
2.965 2.241 1.821 3283
2.860 2.161 1.748 9903
2.975 2.248 1.814 5988
2.858 2.160 1.735 11648
2.985 2.255 1.806 6963
2.862 2.162 1.724 7673
3.000 2.267 1.802 5982
3.010 2.274 1.794 5842
2.866 2.165 1.714 4632
3.014 2.277 1.783 8904
2.875 2.172 1.707 4625
3.035 2.293 1.782 11699
2.884 2.179 1.700 4143
3.079 2.327 1.793 9569
2.969 2.243 1.733 2884
3.089 2.334 1.785 7889
2.979 2.251 1.726 2894
3.087 2.332 1.771 10354
3.197 2.416 1.830 3121
3.091 2.335 1.760 11615
3.201 2.419 1.819 2739
3.094 2.338 1.749 9956
3.205 2.422 1.807 3009
3.174 2.398 1.777 12170
3.063 2.315 1.719 4475
3.178 2.401 1.766 14512
3.067 2.317 1.708 3214
3.181 2.404 1.754 11663
3.070 2.320 1.697 1625
3.191 2.411 1.746 9407
3.080 2.327 1.689 1605
3.195 2.414 1.734 8171
3.084 2.330 1.678 1474
3.181 2.404 1.714 5511
3.292 2.488 1.770 1747
3.185 2.406 1.702 5088
3.296 2.491 1.758 2213
3.223 2.436 1.708 8740
3.335 2.520 1.763 1226
3.233 2.443 1.699 12789
3.345 2.527 1.754 931
3.237 2.446 1.688 12608
3.349 2.530 1.742 981
3.246 2.453 1.679 13098
3.134 2.368 1.625 837
3.250 2.455 1.667 13510
3.415 2.580 1.746 845
3.241 2.449 1.650 16107
3.354 2.534 1.703 1520
3.233 2.443 1.633 20415
3.470 2.622 1.743 2398
3.237 2.446 1.621 21729
3.468 2.620 1.728 2719
3.246 2.453 1.612 19851
3.661 2.766 1.803 2857
3.249 2.455 1.600 12705
3.594 2.715 1.757 3613
3.247 2.453 1.586 6035
3.360 2.539 1.637 3948
3.244 2.451 1.571 3914
3.369 2.546 1.627 2801
3.253 2.458 1.562 2757
3.599 2.719 1.715 2092
3.376 2.551 1.603 3553
3.823 2.889 1.799 2309
3.373 2.549 1.588 5274
3.893 2.941 1.814 3662
3.377 2.552 1.576 5117
3.855 2.913 1.782 3972
3.392 2.563 1.569 3468
3.840 2.902 1.760 3358
3.982 3.009 1.805 4634
3.826 2.891 1.739 2435
4.022 3.039 1.805 4878
3.908 2.953 1.757 2562
4.020 3.037 1.788 4884
4.133 3.123 1.835 1545
4.005 3.027 1.766 4036
4.119 3.113 1.813 2452
4.009 3.029 1.752 3105
4.123 3.116 1.798 1989
4.157 3.141 1.795 2587
4.025 3.041 1.742 1967
4.155 3.140 1.778 4042
4.005 3.026 1.718 1124
4.153 3.138 1.760 3712
4.267 3.224 1.805 1654
4.253 3.214 1.783 2882
4.138 3.127 1.738 2525
4.299 3.248 1.784 3814
4.184 3.162 1.739 2339
4.309 3.256 1.771 5273
4.194 3.169 1.727 2909
4.325 3.268 1.759 6178
4.210 3.181 1.716 2087
4.329 3.271 1.744 8031
4.444 3.358 1.787 2155
4.326 3.269 1.726 7457
4.447 3.361 1.771 2791
4.318 3.263 1.706 4931
4.433 3.350 1.748 3460
4.406 3.330 1.721 4855
4.291 3.242 1.679 1921
4.398 3.323 1.701 5431
4.513 3.410 1.742 1942
4.456 3.367 1.704 4303
4.341 3.280 1.663 3578
4.472 3.379 1.692 6836
4.728 3.572 1.782 1773
4.494 3.396 1.682 5626
4.725 3.570 1.762 2222
4.522 3.417 1.674 7045
4.729 3.573 1.745 2036
4.519 3.415 1.656 11087
4.922 3.719 1.792 2452
4.529 3.422 1.641 9097
4.926 3.722 1.774 2602
4.538 3.429 1.627 8917
5.161 3.900 1.833 2692
4.536 3.427 1.609 8249
5.055 3.820 1.778 3299
4.527 3.421 1.588 4288
5.065 3.827 1.762 2927
5.198 3.927 1.785 2880
5.344 4.038 1.832 2767
5.446 4.115 1.843 3469
5.183 3.916 1.760 2293
5.463 4.128 1.827 3784
5.211 3.938 1.749 1919
5.479 4.140 1.811 3753
5.362 4.052 1.775 2099
5.476 4.138 1.789 3681
5.593 4.226 1.825 1824
5.585 4.220 1.801 3664
5.468 4.132 1.766 3040
5.601 4.232 1.784 4970
5.724 4.325 1.820 2104
5.605 4.235 1.764 4359
5.734 4.333 1.801 1464
5.596 4.229 1.740 2820
5.922 4.475 1.834 1411
5.976 4.515 1.826 1970
5.600 4.231 1.719 1619
5.986 4.523 1.806 2881
5.758 4.351 1.742 1492
5.996 4.530 1.786 2639
5.761 4.353 1.721 1847
6.012 4.543 1.768 2465
5.851 4.421 1.724 1422
6.016 4.545 1.746 2675
6.318 4.774 1.827 1744
6.019 4.548 1.724 2861
6.316 4.772 1.803 2654
6.320 4.775 1.780 3061
6.023 4.551 1.702 3003
6.497 4.909 1.801 2623
6.020 4.549 1.679 2253
6.501 4.912 1.778 2326
6.847 5.174 1.866 1906
6.511 4.920 1.756 2127
6.858 5.182 1.842 2017
6.527 4.932 1.735 2392
7.419 5.606 1.955 2166
7.423 5.609 1.928 3712
6.890 5.206 1.798 2331
6.900 5.214 1.775 3270
7.428 5.612 1.901 3240
7.432 5.615 1.874 2659
6.898 5.212 1.748 2230
7.429 5.614 1.845 2970
7.939 5.999 1.963 1917
7.433 5.617 1.818 2534
7.781 5.880 1.897 2335
7.786 5.883 1.869 2703
7.444 5.624 1.792 2142
8.493 6.417 1.995 2176
7.790 5.886 1.840 2160
8.503 6.425 1.965 2999
8.690 6.566 2.005 2392
8.514 6.433 1.935 2712
8.694 6.569 1.974 1992
8.698 6.573 1.942 2786
8.511 6.431 1.903 2577
8.690 6.566 1.908 4862
8.509 6.430 1.871 2003
8.694 6.569 1.876 5745
8.513 6.433 1.840 1525
8.711 6.582 1.847 5802
8.517 6.436 1.809 1459
8.715 6.585 1.815 4846
8.521 6.439 1.778 1258
8.700 6.574 1.780 2427
9.337 7.055 1.901 1519
8.728 6.595 1.753 1790
9.347 7.063 1.868 1638
8.720 6.589 1.719 2168
9.470 7.155 1.855 2129
9.467 7.154 1.820 2796
8.723 6.591 1.687 1624
9.471 7.157 1.785 3008
10.916 8.249 2.037 1383
9.475 7.160 1.751 2270
10.921 8.252 1.998 1878
10.919 8.250 1.957 2001
11.370 8.591 2.032 1198
10.923 8.254 1.917 1439
11.343 8.571 1.985 1326
11.341 8.569 1.943 1938
9.499 7.177 1.649 795
11.351 8.577 1.903 2329
8.161 6.166 1.405 1110
11.374 8.594 1.864 2266
8.164 6.169 1.376 1423
11.384 8.602 1.824 2262
8.154 6.161 1.344 1786
8.150 6.159 1.313 2205
11.369 8.591 1.779 1823
8.141 6.151 1.282 2234
8.021 6.061 1.265 1479
8.049 6.082 1.239 4158
8.168 6.172 1.256 1756
8.045 6.079 1.209 5020
8.165 6.169 1.225 1621
8.048 6.081 1.180 4298
8.167 6.171 1.195 1013
8.056 6.088 1.151 4029
8.059 6.089 1.122 5093
7.876 5.952 1.100 826
8.055 6.086 1.092 5786
8.174 6.176 1.106 1243
8.057 6.088 1.063 4010
8.176 6.178 1.076 1152
8.090 6.113 1.037 2952
7.971 6.023 1.024 1066
8.086 6.110 1.007 3139
8.057 6.088 0.974 2769
8.059 6.089 0.945 3868
7.939 5.999 0.933 996
8.060 6.091 0.915 4307
7.941 6.000 0.904 995
8.056 6.087 0.885 4171
7.936 5.997 0.874 1069
8.064 6.093 0.857 3446
7.944 6.003 0.846 1337
7.984 6.033 0.820 2517
8.103 6.123 0.831 1212
7.985 6.034 0.791 2690
8.105 6.124 0.801 1178
7.974 6.025 0.761 2491
8.094 6.116 0.771 1016
7.976 6.026 0.732 2254
7.983 6.032 0.704 2115
7.978 6.028 0.674 1725
7.967 6.020 0.644 1019
8.013 6.055 0.589 806
8.008 6.051 0.559 1065
7.958 6.013 0.528 1151
7.953 6.009 0.498 1195
7.941 6.000 0.469 890
1.801 1.355 1.760 7968
1.704 1.282 1.670 1046
1.805 1.358 1.753 15937
1.708 1.285 1.664 2092
1.809 1.361 1.747 15937
1.906 1.434 1.835 2474
1.812 1.364 1.740 14826
1.910 1.437 1.828 3849
1.816 1.366 1.734 13716
1.914 1.440 1.822 5224
1.882 1.416 1.783 11767
1.784 1.342 1.695 4784
1.891 1.422 1.780 12261
1.792 1.349 1.693 3487
1.894 1.425 1.774 12261
1.796 1.351 1.687 3381
1.898 1.428 1.767 10990
1.800 1.354 1.681 2617
1.907 1.435 1.765 9896
1.808 1.361 1.679 2505
1.921 1.446 1.767 8693
1.822 1.371 1.681 2456
1.951 1.468 1.782 10052
1.847 1.390 1.693 2253
1.976 1.487 1.793 10374
1.877 1.412 1.708 2393
1.985 1.493 1.791 11761
1.886 1.419 1.706 2748
1.994 1.500 1.788 11611
1.894 1.425 1.704 2334
1.998 1.503 1.781 11179
1.898 1.428 1.697 1708
2.002 1.506 1.774 10807
1.902 1.431 1.690 1757
2.005 1.509 1.767 14064
1.905 1.434 1.683 1519
2.009 1.512 1.759 17261
1.909 1.436 1.677 1232
2.018 1.519 1.757 15083
2.119 1.594 1.839 1281
2.022 1.521 1.749 12911
2.123 1.597 1.831 1497
2.026 1.524 1.742 12066
2.127 1.600 1.824 1621
2.030 1.527 1.735 11220
2.131 1.603 1.816 1745
2.039 1.534 1.732 10537
2.140 1.610 1.813 1640
2.053 1.545 1.733 10536
2.165 1.629 1.822 1643
2.062 1.552 1.730 10552
2.164 1.628 1.810 2041
2.071 1.558 1.727 10962
2.173 1.635 1.806 1947
2.080 1.565 1.723 9541
2.182 1.642 1.803 1966
2.132 1.604 1.753 10542
2.030 1.527 1.674 1084
2.142 1.611 1.750 8811
2.039 1.534 1.671 1036
2.151 1.618 1.746 7208
2.253 1.695 1.825 948
2.176 1.637 1.755 6167
2.073 1.560 1.677 1184
2.180 1.640 1.747 5184
2.283 1.718 1.825 1525
2.173 1.635 1.731 4778
2.276 1.712 1.808 2198
2.176 1.638 1.724 4526
2.280 1.715 1.800 2744
2.191 1.648 1.724 4536
2.295 1.726 1.800 2432
2.195 1.651 1.716 4182
2.331 1.754 1.816 2761
2.187 1.646 1.700 3720
2.335 1.757 1.808 3397
2.339 1.760 1.799 4030
2.191 1.649 1.692 3069
2.343 1.763 1.791 4083
2.200 1.655 1.688 2432
2.347 1.766 1.782 3989
2.204 1.658 1.680 1802
2.350 1.768 1.774 3895
2.246 1.690 1.700 1435
2.365 1.780 1.773 5957
2.261 1.701 1.700 2053
2.375 1.787 1.769 8250
2.270 1.708 1.695 1898
2.378 1.789 1.760 7797
2.273 1.710 1.687 1309
2.399 1.805 1.763 9004
2.504 1.884 1.836 1542
2.408 1.812 1.758 10648
2.514 1.891 1.830 2053
2.401 1.806 1.742 10485
2.506 1.886 1.814 3728
2.399 1.805 1.730 10078
2.505 1.885 1.801 4667
2.408 1.812 1.725 9287
2.520 1.896 1.799 4686
2.412 1.815 1.716 6849
2.524 1.899 1.790 6707
2.527 1.902 1.781 10428
2.421 1.822 1.711 3956
2.526 1.900 1.769 12866
2.419 1.820 1.699 3407
2.535 1.907 1.763 14155
2.428 1.827 1.694 2655
2.539 1.910 1.754 14487
2.432 1.830 1.685 1585
2.543 1.913 1.745 14264
2.436 1.833 1.676 1386
2.552 1.920 1.739 15861
2.659 2.001 1.808 1899
2.550 1.919 1.727 16154
2.657 1.999 1.795 2774
2.548 1.917 1.714 16333
2.655 1.998 1.781 2942
2.552 1.920 1.705 16724
2.710 2.039 1.804 3039
2.561 1.927 1.699 16242
2.714 2.042 1.794 3643
2.565 1.930 1.690 15344
2.729 2.054 1.791 3849
2.568 1.932 1.681 13556
2.727 2.052 1.778 5557
2.726 2.051 1.765 9964
2.578 1.939 1.675 8497
2.729 2.054 1.755 10590
2.570 1.933 1.659 3682
2.745 2.065 1.752 7897
2.853 2.147 1.817 2657
2.800 2.107 1.772 8162
2.691 2.025 1.708 4612
2.804 2.109 1.762 7158
2.695 2.028 1.698 2441
2.819 2.121 1.759 4249
2.710 2.039 1.695 1756
2.851 2.145 1.765 4061
2.691 2.024 1.672 1555
2.855 2.148 1.755 5858
2.964 2.230 1.818 2734
2.865 2.155 1.748 10443
2.980 2.242 1.814 5346
2.863 2.154 1.735 12276
2.989 2.249 1.806 6558
2.866 2.157 1.724 8120
2.993 2.252 1.795 5920
3.009 2.264 1.791 5355
2.876 2.164 1.717 4959
3.076 2.314 1.815 7645
2.879 2.166 1.707 4925
3.074 2.313 1.801 11783
2.889 2.174 1.700 4243
3.084 2.320 1.793 9556
2.898 2.181 1.692 2795
3.088 2.323 1.782 7687
2.977 2.240 1.723 2470
3.086 2.322 1.768 10255
3.196 2.405 1.827 3755
3.095 2.329 1.760 11569
3.206 2.412 1.819 2467
3.099 2.332 1.749 10011
3.210 2.415 1.807 3250
3.179 2.392 1.777 12968
3.068 2.308 1.719 4120
3.183 2.395 1.766 14482
3.072 2.311 1.708 2783
3.186 2.397 1.754 10904
3.075 2.314 1.697 1396
3.202 2.409 1.749 7960
3.091 2.325 1.692 1785
3.206 2.412 1.737 6178
3.094 2.328 1.681 1573
3.250 2.446 1.746 5525
3.139 2.362 1.690 1020
3.260 2.453 1.737 5553
3.148 2.369 1.682 1109
3.234 2.433 1.711 8820
3.346 2.518 1.766 1268
3.238 2.436 1.699 12600
3.350 2.520 1.754 1319
3.247 2.443 1.691 11849
3.360 2.528 1.745 991
3.251 2.446 1.679 12647
3.446 2.593 1.772 932
3.255 2.449 1.667 14938
3.438 2.587 1.754 1270
3.252 2.447 1.653 17838
3.477 2.616 1.759 1830
3.244 2.441 1.635 19679
3.475 2.615 1.743 3030
3.247 2.443 1.624 19383
3.473 2.613 1.728 3373
3.251 2.446 1.612 16886
3.601 2.710 1.773 3121
3.254 2.449 1.600 10557
3.605 2.712 1.760 4369
3.252 2.447 1.586 5064
3.365 2.532 1.637 4053
3.255 2.449 1.574 3353
3.613 2.718 1.734 3094
3.622 2.725 1.723 2309
3.258 2.452 1.562 2224
3.375 2.539 1.600 3484
3.614 2.719 1.705 2086
3.379 2.542 1.588 4992
3.893 2.929 1.811 3587
3.388 2.549 1.579 4752
3.861 2.905 1.782 4240
3.846 2.894 1.760 3445
3.984 2.998 1.819 3317
3.982 2.996 1.802 4639
3.838 2.888 1.741 2323
4.022 3.026 1.803 4429
3.908 2.940 1.755 2168
4.020 3.024 1.786 4885
4.134 3.110 1.833 1548
4.012 3.018 1.766 4504
4.126 3.104 1.813 2049
4.015 3.021 1.752 3227
4.130 3.107 1.798 1617
4.128 3.106 1.781 2226
4.013 3.019 1.735 1828
4.155 3.127 1.775 3966
4.011 3.018 1.718 1122
4.153 3.125 1.758 3979
4.268 3.211 1.803 1982
4.266 3.209 1.785 3238
4.151 3.123 1.741 2912
4.300 3.235 1.781 4148
4.185 3.149 1.737 2703
4.310 3.243 1.768 5149
4.195 3.156 1.724 2589
4.332 3.259 1.759 5531
4.216 3.172 1.716 1899
4.335 3.262 1.744 7461
4.450 3.349 1.787 2333
4.333 3.260 1.726 7278
4.454 3.351 1.771 3075
4.325 3.254 1.706 5272
4.458 3.354 1.755 3355
4.419 3.325 1.723 3875
4.304 3.238 1.681 2643
4.405 3.314 1.701 4522
4.569 3.438 1.759 2665
4.463 3.358 1.704 4235
4.347 3.271 1.663 3664
4.479 3.370 1.692 6066
4.735 3.562 1.782 2205
4.501 3.386 1.682 5396
4.733 3.561 1.762 2669
4.529 3.407 1.674 7368
4.736 3.564 1.745 2461
4.526 3.406 1.656 11034
4.929 3.709 1.792 2553
4.536 3.413 1.641 8999
4.933 3.712 1.774 2778
4.539 3.415 1.625 8885
5.041 3.793 1.791 2515
4.537 3.413 1.607 8358
5.051 3.800 1.774 3261
4.528 3.407 1.586 4524
5.061 3.808 1.758 2679
5.206 3.917 1.785 2810
4.556 3.428 1.578 2662
5.455 4.104 1.843 3183
5.191 3.906 1.760 2612
5.471 4.116 1.827 3577
5.213 3.922 1.747 2104
5.487 4.129 1.811 3608
5.370 4.041 1.775 1961
5.491 4.131 1.791 3802
5.374 4.044 1.756 1891
5.600 4.213 1.803 3511
5.483 4.125 1.768 3230
5.610 4.221 1.784 4835
5.733 4.313 1.820 1777
5.613 4.223 1.764 4524
5.743 4.321 1.801 1358
5.605 4.217 1.740 2983
5.932 4.463 1.834 1552
5.985 4.503 1.826 2026
5.615 4.224 1.721 1452
5.995 4.511 1.806 2987
5.767 4.339 1.742 1471
6.005 4.518 1.786 3036
5.770 4.341 1.721 1846
6.021 4.530 1.768 2602
5.860 4.409 1.724 1281
6.025 4.533 1.746 2510
6.328 4.761 1.827 1685
6.326 4.759 1.803 2805
6.029 4.536 1.724 2693
6.330 4.762 1.780 3171
6.503 4.893 1.825 2578
6.507 4.896 1.801 2579
6.327 4.761 1.755 2177
6.511 4.899 1.778 2290
6.858 5.160 1.866 2066
6.868 5.168 1.842 2276
6.521 4.906 1.756 2258
6.537 4.918 1.735 2632
7.431 5.591 1.955 2152
7.435 5.594 1.928 3703
6.901 5.192 1.798 2296
6.911 5.200 1.775 3264
7.439 5.597 1.901 3165
7.443 5.600 1.874 2645
6.908 5.198 1.748 2344
7.441 5.599 1.845 3018
7.951 5.982 1.963 1877
7.445 5.602 1.818 2597
7.794 5.864 1.897 2019
7.798 5.867 1.869 2447
7.455 5.609 1.792 2270
8.512 6.404 1.996 2258
8.288 6.236 1.947 1991
8.516 6.408 1.965 3215
8.292 6.239 1.917 2456
8.527 6.415 1.935 3024
8.683 6.533 1.968 2102
8.687 6.536 1.937 2882
8.525 6.414 1.903 2837
8.697 6.544 1.907 5010
8.529 6.417 1.872 2256
8.708 6.552 1.876 5879
8.533 6.420 1.841 1664
8.724 6.564 1.847 6075
8.530 6.418 1.809 1538
8.722 6.562 1.814 5095
8.540 6.426 1.779 1273
8.713 6.556 1.780 2743
9.345 7.031 1.899 1388
8.717 6.559 1.748 1907
9.355 7.039 1.867 1353
8.733 6.571 1.719 2259
9.484 7.136 1.855 2128
9.482 7.134 1.820 2665
8.737 6.574 1.687 1634
9.486 7.137 1.785 2809
11.341 8.533 2.108 1394
9.490 7.140 1.751 2063
10.938 8.230 1.998 1721
10.936 8.228 1.957 1772
11.387 8.568 2.032 1367
11.360 8.547 1.985 1577
10.940 8.231 1.917 1244
11.358 8.546 1.943 2087
9.507 7.153 1.648 762
11.369 8.554 1.903 2306
11.513 8.662 1.925 1000
11.385 8.566 1.863 2224
8.051 6.057 1.357 1104
11.402 8.579 1.824 2237
8.053 6.059 1.327 1168
11.387 8.567 1.779 1826
8.188 6.161 1.317 1136
8.059 6.063 1.269 2075
8.178 6.153 1.286 1485
8.061 6.065 1.239 4102
8.181 6.155 1.256 1650
8.058 6.063 1.209 4999
8.177 6.153 1.225 1698
8.060 6.064 1.180 4933
8.180 6.154 1.195 1302
8.063 6.066 1.151 4997
8.201 6.170 1.168 811
8.071 6.073 1.122 5624
7.920 5.959 1.104 883
8.080 6.079 1.094 5747
7.910 5.951 1.073 918
8.076 6.076 1.063 4800
7.899 5.943 1.043 915
8.065 6.068 1.033 3930
7.945 5.978 1.019 761
8.061 6.065 1.003 3263
7.941 5.975 0.990 848
8.057 6.062 0.973 3101
7.937 5.972 0.960 835
8.027 6.039 0.940 4528
8.022 6.036 0.910 4723
8.005 6.023 0.880 4763
8.001 6.020 0.850 3787
7.983 6.007 0.819 2019
7.972 5.998 0.789 1729
7.980 6.004 0.761 2252
7.994 6.015 0.733 3009
8.008 6.025 0.704 3473
8.016 6.031 0.676 2802
8.023 6.037 0.647 1610
8.012 6.028 0.617 977
7.951 5.982 0.555 906
7.958 5.988 0.527 1293
7.959 5.988 0.498 1409
7.953 5.984 0.469 1141
7.948 5.980 0.440 763
1.804 1.351 1.760 7965
1.707 1.278 1.670 1219
1.808 1.354 1.753 15931
1.711 1.281 1.664 2438
1.812 1.357 1.747 15931
1.714 1.284 1.658 2438
1.815 1.359 1.740 14502
1.913 1.433 1.828 3707
1.819 1.362 1.734 13073
1.917 1.435 1.822 5084
1.885 1.411 1.783 11427
1.787 1.338 1.695 4827
1.894 1.418 1.780 11772
1.796 1.345 1.693 3067
1.898 1.421 1.774 11772
1.799 1.347 1.687 2898
1.901 1.424 1.767 10431
1.803 1.350 1.681 2159
1.916 1.434 1.769 9431
1.817 1.360 1.683 2641
1.925 1.441 1.767 8644
1.826 1.367 1.681 2163
1.960 1.468 1.787 10497
1.860 1.393 1.702 2022
1.979 1.482 1.793 10762
1.880 1.408 1.708 2191
1.988 1.489 1.791 11842
1.889 1.414 1.706 2744
1.997 1.496 1.788 11792
1.898 1.421 1.704 2422
2.001 1.499 1.781 10653
1.901 1.424 1.697 1913
1.995 1.494 1.765 9710
1.894 1.419 1.681 1581
2.009 1.504 1.767 12934
1.909 1.429 1.683 1650
2.013 1.507 1.759 16285
2.113 1.583 1.842 1262
2.022 1.514 1.757 14519
2.123 1.589 1.839 1250
2.031 1.521 1.754 12913
2.132 1.596 1.836 1212
2.029 1.520 1.742 12100
2.130 1.595 1.824 1519
2.033 1.522 1.735 11402
2.134 1.598 1.816 1631
2.042 1.529 1.732 10554
2.144 1.605 1.813 1603
2.057 1.540 1.733 10389
2.169 1.624 1.822 1648
2.066 1.547 1.730 10237
2.167 1.623 1.810 2032
2.075 1.554 1.727 10435
2.177 1.630 1.806 1941
2.132 1.597 1.761 9586
2.030 1.520 1.682 1070
2.136 1.600 1.753 11429
2.034 1.523 1.674 1123
2.140 1.602 1.746 9675
2.242 1.679 1.824 1055
2.127 1.593 1.726 7960
2.230 1.670 1.804 2420
2.158 1.616 1.739 5893
2.261 1.693 1.817 1192
2.189 1.639 1.751 4513
2.086 1.562 1.674 1376
2.187 1.638 1.739 4500
2.291 1.715 1.817 1674
2.186 1.637 1.728 4633
2.289 1.714 1.804 2185
2.195 1.644 1.724 4908
2.298 1.721 1.800 2223
2.198 1.646 1.716 4551
2.335 1.749 1.816 2666
2.191 1.641 1.700 4125
2.339 1.752 1.808 3319
2.343 1.754 1.799 3518
2.200 1.648 1.696 3391
2.352 1.761 1.795 3271
2.204 1.650 1.688 2705
2.351 1.760 1.782 3236
2.213 1.657 1.684 1963
2.354 1.763 1.774 3269
2.250 1.685 1.700 1406
2.380 1.783 1.781 5598
2.275 1.704 1.707 2376
2.379 1.781 1.769 7663
2.274 1.703 1.695 1938
2.382 1.784 1.760 7095
2.277 1.705 1.687 1369
2.403 1.799 1.763 8290
2.508 1.878 1.836 1405
2.412 1.806 1.758 9565
2.518 1.885 1.830 1838
2.405 1.801 1.742 9928
2.511 1.880 1.814 3239
2.403 1.800 1.730 10272
2.515 1.883 1.805 4393
2.412 1.806 1.725 9708
2.524 1.890 1.799 4921
2.416 1.809 1.716 7119
2.528 1.893 1.790 6897
2.532 1.896 1.781 10534
2.425 1.816 1.711 4021
2.536 1.899 1.772 12962
2.429 1.819 1.702 3574
2.539 1.902 1.763 14374
2.433 1.822 1.694 2642
2.549 1.909 1.758 15168
2.442 1.829 1.689 1729
2.547 1.907 1.745 15125
2.440 1.827 1.676 1346
2.556 1.914 1.739 16072
2.664 1.995 1.808 1678
2.554 1.913 1.727 16276
2.662 1.993 1.795 2444
2.552 1.911 1.714 16735
2.660 1.992 1.781 2767
2.556 1.914 1.705 17363
2.715 2.033 1.804 3305
2.565 1.921 1.699 16971
2.719 2.036 1.794 4156
2.569 1.924 1.690 15907
2.723 2.039 1.784 4154
2.573 1.927 1.681 14261
2.721 2.037 1.771 6074
2.725 2.040 1.761 10865
2.582 1.934 1.675 9220
2.734 2.047 1.755 11203
2.574 1.928 1.659 4212
2.749 2.059 1.752 8276
2.583 1.935 1.653 2596
2.805 2.100 1.772 7551
2.696 2.019 1.708 4618
2.808 2.103 1.762 6595
2.699 2.021 1.698 2207
2.824 2.114 1.759 4906
2.714 2.033 1.695 1348
2.833 2.122 1.752 5315
2.695 2.018 1.672 1392
2.860 2.142 1.755 6867
2.969 2.224 1.818 2149
2.869 2.149 1.748 11052
2.979 2.231 1.810 4695
2.867 2.147 1.735 12855
2.994 2.242 1.806 6103
2.871 2.150 1.724 8520
2.998 2.245 1.795 5982
3.008 2.253 1.788 5305
2.875 2.153 1.714 5179
3.081 2.308 1.815 7789
2.884 2.160 1.707 5176
3.085 2.310 1.804 11845
2.894 2.167 1.700 4399
3.089 2.313 1.793 9337
2.903 2.174 1.692 2837
3.093 2.316 1.782 7186
2.982 2.233 1.723 2463
3.091 2.315 1.768 9737
3.202 2.398 1.827 3221
3.095 2.318 1.757 11079
3.206 2.401 1.816 2802
3.104 2.325 1.749 9597
3.215 2.408 1.807 3552
3.184 2.385 1.777 13669
3.073 2.301 1.719 3681
3.188 2.387 1.766 14340
3.077 2.304 1.708 2317
3.198 2.395 1.757 10029
3.086 2.311 1.700 1415
3.219 2.411 1.755 6518
3.108 2.327 1.698 2035
3.246 2.431 1.755 5224
3.123 2.339 1.693 1581
3.256 2.438 1.746 6273
3.144 2.355 1.690 754
3.266 2.445 1.737 6683
3.154 2.362 1.682 803
3.240 2.426 1.711 8780
3.352 2.510 1.766 1788
3.243 2.429 1.699 11997
3.356 2.513 1.754 1845
3.253 2.436 1.691 10941
3.413 2.556 1.768 1510
3.257 2.439 1.679 12153
3.446 2.581 1.770 1484
3.260 2.441 1.667 16344
3.444 2.579 1.754 2064
3.258 2.440 1.653 19681
3.459 2.591 1.748 2598
3.250 2.433 1.635 18599
3.481 2.607 1.743 3809
3.253 2.436 1.624 16765
3.473 2.601 1.725 4223
3.256 2.439 1.612 13861
3.613 2.706 1.776 3693
3.266 2.446 1.603 8790
3.611 2.704 1.760 4952
3.269 2.448 1.591 4880
3.609 2.703 1.744 4135
3.267 2.446 1.577 3264
3.625 2.714 1.736 2958
3.634 2.722 1.726 2375
3.772 2.825 1.787 2035
3.381 2.532 1.600 3410
3.608 2.702 1.700 1933
3.384 2.534 1.588 4576
3.893 2.915 1.809 3441
3.867 2.896 1.782 4345
3.394 2.541 1.579 4192
3.859 2.890 1.763 3601
3.991 2.989 1.819 3289
3.989 2.987 1.802 4439
3.851 2.884 1.744 2520
4.029 3.017 1.803 3708
3.915 2.931 1.755 2029
4.021 3.011 1.783 4831
4.135 3.096 1.830 1726
4.018 3.009 1.766 5020
4.133 3.095 1.813 1938
4.028 3.017 1.754 3449
4.143 3.102 1.800 1632
4.135 3.096 1.781 2570
4.020 3.010 1.735 1799
4.150 3.108 1.771 3989
4.018 3.009 1.718 1037
4.154 3.111 1.756 4248
4.269 3.197 1.801 2286
4.279 3.204 1.788 3657
4.164 3.118 1.743 3303
4.301 3.221 1.779 4474
4.186 3.135 1.735 3184
4.311 3.228 1.766 5026
4.196 3.142 1.722 2427
4.321 3.236 1.753 4831
4.205 3.149 1.709 1371
4.343 3.252 1.744 6503
4.458 3.338 1.787 2304
4.334 3.246 1.724 6858
4.462 3.341 1.771 3182
4.326 3.239 1.704 5638
4.466 3.344 1.755 3420
4.329 3.242 1.688 3666
4.482 3.356 1.743 2975
4.577 3.427 1.759 4039
4.345 3.254 1.677 3593
4.477 3.352 1.706 3909
4.355 3.261 1.663 3508
4.487 3.360 1.692 5259
4.737 3.547 1.780 2767
4.509 3.376 1.682 5121
4.741 3.550 1.762 3237
4.530 3.393 1.672 7199
4.744 3.553 1.745 2926
4.534 3.395 1.656 10343
4.748 3.556 1.728 3040
4.544 3.403 1.641 8606
4.935 3.696 1.772 2790
4.547 3.405 1.625 8597
5.043 3.777 1.789 2935
4.544 3.403 1.607 8137
5.053 3.784 1.772 3881
4.536 3.396 1.586 4523
5.069 3.796 1.758 2721
5.214 3.905 1.785 2805
4.564 3.417 1.578 2465
5.200 3.894 1.760 2747
5.464 4.092 1.843 2711
5.480 4.104 1.827 3241
5.210 3.901 1.743 2332
5.497 4.116 1.811 3358
5.380 4.029 1.775 1630
5.500 4.119 1.791 3734
5.617 4.207 1.827 2059
5.615 4.205 1.804 3389
5.498 4.117 1.769 3279
5.619 4.208 1.784 4328
5.502 4.120 1.749 1548
5.623 4.211 1.764 4427
5.783 4.331 1.810 1349
5.614 4.204 1.740 3142
5.942 4.449 1.834 1721
5.952 4.457 1.814 2142
5.618 4.207 1.719 1374
6.005 4.497 1.806 3070
5.776 4.326 1.742 1204
6.015 4.504 1.786 3411
5.780 4.328 1.721 1574
6.031 4.517 1.768 2724
5.864 4.391 1.722 1087
6.035 4.519 1.746 2412
6.326 4.738 1.824 1605
6.336 4.745 1.803 2757
6.033 4.518 1.722 2591
6.340 4.748 1.780 3069
6.514 4.878 1.825 2644
6.518 4.881 1.801 2459
6.326 4.737 1.752 2240
6.863 5.140 1.864 2191
6.522 4.884 1.778 2101
6.880 5.152 1.842 2499
6.538 4.896 1.757 2314
6.548 4.903 1.735 2731
6.809 5.099 1.799 2101
7.448 5.577 1.928 3514
6.913 5.176 1.798 2199
6.916 5.179 1.773 3134
7.452 5.580 1.901 2972
7.456 5.583 1.874 2569
6.920 5.182 1.748 2407
7.454 5.582 1.845 3015
7.965 5.964 1.963 1807
7.458 5.585 1.818 2626
8.281 6.201 2.004 2018
7.462 5.588 1.791 2302
8.285 6.204 1.974 1907
8.533 6.390 1.997 2347
8.302 6.217 1.947 2252
8.537 6.393 1.966 3379
8.306 6.220 1.917 2765
8.541 6.396 1.935 3250
8.691 6.508 1.967 2365
8.702 6.516 1.937 3111
8.539 6.395 1.903 2931
8.712 6.524 1.907 5188
8.543 6.398 1.872 2331
8.722 6.532 1.876 5920
8.541 6.396 1.840 1637
8.739 6.544 1.847 6161
8.545 6.399 1.809 1519
8.737 6.542 1.814 5213
8.561 6.411 1.780 1282
8.722 6.531 1.779 2982
9.348 7.000 1.897 1304
8.732 6.539 1.748 2048
9.365 7.013 1.865 1238
8.748 6.551 1.719 2250
9.501 7.115 1.855 1735
9.498 7.113 1.820 2427
8.752 6.554 1.687 1574
9.496 7.111 1.784 2671
11.360 8.507 2.108 1424
9.506 7.119 1.751 1953
10.956 8.205 1.998 1526
11.400 8.537 2.031 1583
10.954 8.203 1.957 1506
11.386 8.526 1.987 1870
10.965 8.211 1.918 1063
11.378 8.520 1.943 2261
11.554 8.652 1.971 894
11.382 8.523 1.902 2326
11.533 8.636 1.925 1099
11.405 8.540 1.863 2163
11.543 8.644 1.884 1067
11.421 8.553 1.824 2190
8.061 6.036 1.326 1085
11.406 8.542 1.779 1773
8.057 6.034 1.296 1256
8.066 6.040 1.268 1836
11.404 8.540 1.737 1320
8.069 6.042 1.239 2898
8.189 6.132 1.255 1173
8.071 6.044 1.209 3875
8.191 6.134 1.225 994
8.074 6.046 1.180 4518
7.897 5.914 1.157 1028
8.076 6.048 1.151 4640
7.900 5.916 1.128 835
8.085 6.054 1.122 5021
7.915 5.927 1.101 787
8.081 6.051 1.092 4853
7.917 5.929 1.073 952
8.058 6.034 1.060 4037
7.919 5.930 1.044 918
8.047 6.026 1.029 2550
8.081 6.051 1.003 1567
8.077 6.048 0.973 1484
8.066 6.040 0.943 1753
8.087 6.056 0.915 2315
8.088 6.057 0.886 2830
7.968 5.967 0.875 1011
8.021 6.006 0.850 5469
8.141 6.096 0.861 784
8.022 6.007 0.821 5340
8.024 6.009 0.792 3893
8.025 6.010 0.763 3027
8.027 6.011 0.734 2411
8.022 6.007 0.704 2685
8.029 6.013 0.676 2609
8.018 6.004 0.646 2049
7.987 5.981 0.615 2398
7.989 5.982 0.586 2023
7.977 5.973 0.556 1320
7.959 5.960 0.526 1184
7.966 5.965 0.498 1417
7.967 5.966 0.469 1357
7.961 5.962 0.440 1048
1.807 1.348 1.760 7714
1.710 1.275 1.670 1337
1.810 1.350 1.753 15428
1.713 1.278 1.664 2674
1.814 1.353 1.747 15428
1.717 1.281 1.658 2674
1.818 1.356 1.740 13731
1.916 1.429 1.828 3544
1.817 1.355 1.729 12089
1.914 1.428 1.817 5800
1.887 1.408 1.783 10901
1.789 1.335 1.695 4937
1.896 1.415 1.780 11129
1.798 1.341 1.693 2749
1.900 1.417 1.774 11129
1.802 1.344 1.687 2468
1.904 1.420 1.767 9649
1.805 1.347 1.681 1719
1.918 1.431 1.769 8796
1.819 1.357 1.683 2260
1.932 1.441 1.771 8612
1.833 1.368 1.686 2249
1.968 1.468 1.791 11074
1.868 1.394 1.706 1775
1.982 1.478 1.793 10886
1.882 1.404 1.708 2141
1.996 1.489 1.795 11549
1.897 1.415 1.711 3052
2.000 1.492 1.788 11549
1.900 1.417 1.704 2572
1.999 1.491 1.776 9884
1.899 1.416 1.693 1877
1.992 1.486 1.761 8753
1.892 1.411 1.677 1366
2.017 1.505 1.771 11630
1.917 1.430 1.688 2025
2.021 1.507 1.764 14995
1.920 1.432 1.681 1616
2.025 1.510 1.757 13857
2.126 1.585 1.839 1186
2.034 1.517 1.754 13006
2.135 1.592 1.836 1131
2.037 1.520 1.746 12122
2.139 1.595 1.828 1158
2.036 1.519 1.735 11515
2.137 1.594 1.816 1544
2.045 1.525 1.732 10345
2.147 1.601 1.813 1559
2.059 1.536 1.733 9938
2.172 1.620 1.822 1539
2.068 1.543 1.730 9738
2.171 1.619 1.810 1894
2.078 1.550 1.727 9764
2.180 1.626 1.806 1832
2.135 1.593 1.761 9875
2.033 1.516 1.682 1086
2.134 1.591 1.749 12017
2.031 1.515 1.670 820
2.137 1.594 1.742 10290
2.240 1.671 1.820 1119
2.141 1.597 1.734 8562
2.244 1.674 1.812 1446
2.156 1.608 1.735 5760
2.259 1.685 1.812 1192
2.197 1.639 1.755 4140
2.094 1.562 1.678 1666
2.201 1.642 1.748 4646
2.098 1.565 1.670 1333
2.194 1.637 1.732 5239
2.298 1.714 1.808 1692
2.203 1.643 1.728 5629
2.307 1.721 1.804 1856
2.201 1.642 1.716 5009
2.306 1.720 1.792 2712
2.194 1.637 1.700 4498
2.331 1.739 1.800 3307
2.203 1.644 1.696 3683
2.346 1.750 1.799 3042
2.212 1.650 1.692 2923
2.356 1.757 1.795 2529
2.359 1.760 1.786 2694
2.216 1.653 1.684 2038
2.314 1.726 1.743 3476
2.418 1.804 1.817 2328
2.384 1.778 1.781 5476
2.279 1.700 1.707 2343
2.388 1.781 1.772 7041
2.282 1.702 1.699 2034
2.402 1.792 1.772 6585
2.291 1.709 1.695 1413
2.406 1.795 1.763 7381
2.512 1.874 1.836 1319
2.410 1.798 1.754 8177
2.516 1.877 1.827 2004
2.403 1.792 1.738 9156
2.509 1.871 1.810 3153
2.406 1.795 1.730 10113
2.518 1.878 1.805 4263
2.416 1.802 1.725 9844
2.528 1.885 1.799 5125
2.419 1.805 1.716 7149
2.531 1.888 1.790 6943
2.535 1.891 1.781 10345
2.429 1.812 1.711 3889
2.539 1.894 1.772 12682
2.432 1.814 1.702 3395
2.543 1.897 1.763 14163
2.436 1.817 1.694 2467
2.552 1.904 1.758 15368
2.445 1.824 1.689 1590
2.550 1.902 1.745 15367
2.443 1.822 1.676 1251
2.560 1.909 1.739 15617
2.667 1.990 1.808 1617
2.558 1.908 1.727 15638
2.666 1.988 1.795 2286
2.556 1.907 1.714 16293
2.664 1.987 1.781 2727
2.560 1.909 1.705 17148
2.719 2.028 1.804 3094
2.569 1.916 1.699 17028
2.717 2.027 1.790 4160
2.573 1.919 1.690 16039
2.715 2.025 1.777 4346
2.576 1.922 1.681 14433
2.719 2.028 1.767 6962
2.728 2.035 1.761 12129
2.580 1.924 1.671 9438
2.738 2.042 1.755 11827
2.578 1.923 1.659 4442
2.753 2.054 1.752 8461
2.587 1.930 1.653 2780
2.803 2.091 1.769 6971
2.694 2.009 1.705 4052
2.812 2.098 1.762 6191
2.703 2.016 1.698 2071
2.828 2.109 1.759 5895
2.718 2.028 1.695 1236
2.837 2.116 1.752 6977
2.699 2.013 1.672 1223
2.864 2.136 1.755 7831
2.974 2.218 1.818 1869
2.873 2.143 1.748 11360
2.983 2.225 1.810 4099
2.871 2.142 1.735 13007
2.999 2.237 1.806 5574
2.875 2.145 1.724 8648
3.003 2.240 1.795 5811
3.012 2.247 1.788 5376
2.879 2.147 1.714 5271
3.086 2.302 1.815 7772
2.888 2.155 1.707 5235
3.090 2.305 1.804 11629
2.898 2.162 1.700 4377
3.094 2.308 1.793 9004
2.907 2.169 1.692 2819
3.092 2.306 1.779 6463
3.202 2.389 1.839 2199
3.095 2.309 1.768 8672
3.206 2.392 1.827 2565
3.099 2.312 1.757 10006
3.210 2.395 1.816 2485
3.185 2.376 1.789 9490
3.074 2.293 1.730 5494
3.189 2.379 1.777 13764
3.077 2.296 1.719 3181
3.192 2.381 1.766 13736
3.081 2.298 1.708 1928
3.202 2.389 1.757 9050
3.091 2.305 1.700 1334
3.247 2.422 1.767 5980
3.130 2.334 1.707 2011
3.257 2.429 1.758 5148
3.133 2.337 1.696 1193
3.261 2.432 1.746 6741
3.378 2.520 1.805 766
3.270 2.439 1.737 7474
3.388 2.527 1.796 1065
3.250 2.424 1.714 8594
3.362 2.508 1.769 1912
3.248 2.423 1.699 11100
3.396 2.533 1.771 2601
3.258 2.430 1.691 9993
3.417 2.549 1.768 2384
3.261 2.433 1.679 11564
3.433 2.561 1.761 2235
3.259 2.431 1.664 16776
3.449 2.572 1.754 2891
3.262 2.434 1.653 20065
3.458 2.580 1.745 3469
3.260 2.432 1.638 17108
3.480 2.596 1.741 4498
3.258 2.430 1.624 14152
3.472 2.590 1.723 5017
3.267 2.437 1.615 11466
3.618 2.699 1.776 3860
3.270 2.439 1.603 7828
3.616 2.698 1.760 4879
3.274 2.442 1.591 5196
3.620 2.700 1.747 3978
3.277 2.445 1.579 3276
3.630 2.708 1.736 2968
3.669 2.737 1.739 2628
3.783 2.822 1.789 2231
3.386 2.525 1.600 3103
3.781 2.820 1.773 2125
3.389 2.528 1.588 3936
3.893 2.904 1.806 3310
3.879 2.893 1.784 4062
3.398 2.535 1.579 3434
3.864 2.883 1.763 3613
4.003 2.986 1.821 3032
3.994 2.980 1.802 3952
3.862 2.881 1.746 2771
3.986 2.973 1.783 3438
4.101 3.059 1.830 2529
4.026 3.003 1.783 4843
4.141 3.089 1.830 1768
4.024 3.002 1.766 5369
4.139 3.087 1.813 2267
4.028 3.004 1.752 3539
4.143 3.090 1.798 2578
4.146 3.093 1.783 2869
4.032 3.007 1.737 1815
4.150 3.096 1.768 3862
4.265 3.181 1.814 1008
4.154 3.099 1.753 4225
4.269 3.184 1.798 2468
4.285 3.196 1.788 3915
4.164 3.106 1.741 3472
