-0.937 4.373 1.908 10328
-0.908 4.236 1.852 1057
-0.938 4.378 1.895 7157
-0.968 4.514 1.951 1289
-0.941 4.390 1.885 5074
-0.970 4.527 1.940 3232
-0.962 4.489 1.910 7055
-0.933 4.352 1.855 1558
-0.962 4.486 1.893 6037
-0.991 4.624 1.948 1706
-0.966 4.506 1.886 4130
-0.995 4.643 1.940 2076
-0.987 4.605 1.909 6284
-0.958 4.467 1.856 2736
-0.990 4.617 1.898 5516
-0.960 4.479 1.845 2856
-0.975 4.550 1.857 4549
-1.005 4.687 1.910 1877
-0.978 4.562 1.846 3702
-1.023 4.772 1.926 1998
-0.987 4.603 1.846 5077
-1.024 4.777 1.912 2967
-0.988 4.608 1.833 6655
-1.024 4.775 1.895 4240
-1.022 4.766 1.876 5235
-0.990 4.620 1.822 5077
-1.024 4.778 1.864 5563
-0.994 4.639 1.814 2551
-1.041 4.856 1.876 5910
-1.071 4.994 1.927 1735
-1.042 4.861 1.862 4603
-1.076 5.021 1.920 2289
-1.063 4.961 1.881 4216
-1.034 4.822 1.832 3156
-1.066 4.973 1.869 6135
-1.036 4.834 1.820 2314
-1.067 4.978 1.855 6814
-1.097 5.117 1.903 2303
-1.068 4.983 1.840 6267
-1.098 5.122 1.888 2942
-1.074 5.009 1.833 4296
-1.126 5.252 1.915 4191
-1.128 5.264 1.902 3110
-1.083 5.051 1.830 2633
-1.106 5.159 1.850 2544
-1.137 5.306 1.899 2438
-1.135 5.296 1.879 2592
-1.165 5.436 1.925 2160
-1.140 5.316 1.868 3095
-1.200 5.596 1.960 1554
-1.160 5.409 1.881 3056
-1.196 5.579 1.936 2031
-1.181 5.510 1.896 3815
-1.142 5.326 1.836 2194
-1.206 5.626 1.915 3192
-1.176 5.486 1.870 3121
-1.209 5.639 1.900 2883
-1.179 5.498 1.856 2540
-1.184 5.525 1.847 2009
-1.257 5.866 1.953 1997
-1.260 5.878 1.938 2407
-1.219 5.686 1.878 1541
-1.218 5.683 1.859 2705
-1.266 5.906 1.927 2637
-1.270 5.926 1.914 2840
-1.218 5.681 1.840 2725
-1.281 5.975 1.910 2469
-1.219 5.685 1.823 1579
-1.284 5.988 1.895 2456
-1.314 6.129 1.936 1737
-1.302 6.075 1.901 2507
-1.340 6.253 1.953 1207
-1.303 6.080 1.883 2979
-1.343 6.266 1.937 1959
-1.322 6.166 1.888 2055
-1.352 6.308 1.929 1602
-1.408 6.567 1.982 1800
-1.336 6.231 1.887 1790
-1.409 6.572 1.962 2566
-1.338 6.244 1.870 1781
-1.410 6.577 1.943 2819
-1.341 6.256 1.854 1404
-1.413 6.590 1.925 2964
-1.456 6.792 1.981 1067
-1.412 6.587 1.904 2651
-1.540 7.186 2.066 1396
-1.437 6.705 1.914 2053
-1.545 7.207 2.048 1546
-1.581 7.377 2.070 1946
-1.437 6.702 1.892 1781
-1.583 7.382 2.048 2268
-1.547 7.217 2.005 1338
-1.587 7.403 2.030 2124
-1.553 7.245 1.990 920
-1.583 7.386 2.003 1587
-1.649 7.694 2.081 1173
-1.600 7.466 2.000 1561
-1.570 7.323 1.964 1439
-1.685 7.863 2.074 1291
-1.600 7.464 1.976 1184
-1.333 6.219 1.648 1692
-1.687 7.868 2.051 1501
-1.334 6.224 1.629 1188
-1.688 7.874 2.028 1121
-1.332 6.213 1.607 1384
-1.760 8.211 2.083 1102
-1.818 8.480 2.121 2721
-1.333 6.217 1.589 2487
-1.817 8.478 2.094 5245
-1.334 6.221 1.571 3715
-1.819 8.484 2.069 5496
-1.334 6.225 1.552 3617
-1.820 8.489 2.044 3292
-1.334 6.222 1.532 2667
-1.336 6.233 1.515 2660
-1.939 9.047 2.142 2101
-1.944 9.068 2.118 2983
-1.335 6.229 1.495 2873
-1.338 6.241 1.478 2596
-1.947 9.081 2.093 2159
-1.339 6.245 1.460 1634
-1.920 8.958 2.038 1452
-1.920 8.955 2.010 2305
-2.058 9.600 2.145 1412
-1.919 8.953 1.982 1790
-1.340 6.252 1.423 1358
-1.339 6.248 1.403 1522
-1.914 8.928 1.949 1330
-1.338 6.244 1.383 1747
-1.913 8.925 1.921 1714
-1.341 6.255 1.366 1944
-1.913 8.923 1.893 1501
-1.343 6.266 1.349 1642
-2.387 11.133 2.296 1244
-1.346 6.277 1.332 1863
-2.388 11.139 2.263 1281
-1.346 6.281 1.313 2272
-2.389 11.145 2.229 1313
-1.349 6.292 1.296 1859
-2.487 11.601 2.280 1446
-1.351 6.303 1.279 1379
-2.478 11.561 2.237 1089
-2.476 11.552 2.200 1038
-1.348 6.291 1.257 1032
-1.347 6.286 1.237 1235
-2.551 11.901 2.226 1080
-1.348 6.289 1.219 1458
-2.886 13.464 2.460 1004
-2.887 13.470 2.420 1157
-1.349 6.292 1.200 1054
-2.799 13.057 2.309 911
-2.891 13.484 2.381 867
-2.797 13.047 2.268 1021
-2.841 13.254 2.302 754
-2.801 13.069 2.232 1138
-2.923 13.635 2.323 816
-2.803 13.075 2.193 973
-2.926 13.648 2.283 898
-2.929 13.662 2.244 701
-2.799 13.057 2.150 630
-0.149 0.696 0.162 507
-0.149 0.696 0.160 583
-0.149 0.696 0.158 575
-0.149 0.696 0.156 516
-1.098 5.121 -0.188 554
-1.098 5.120 -0.203 707
-1.096 5.112 -0.218 555
-0.483 2.286 1.821 2801
-0.491 2.322 1.837 6864
-0.516 2.441 1.926 787
-0.493 2.333 1.835 10715
-0.518 2.452 1.924 1275
-0.497 2.351 1.838 11220
-0.522 2.470 1.926 1143
-0.499 2.362 1.835 12416
-0.525 2.481 1.923 1214
-0.508 2.405 1.856 11080
-0.483 2.285 1.769 1436
-0.511 2.416 1.854 14319
-0.485 2.296 1.767 1319
-0.512 2.421 1.847 14319
-0.537 2.541 1.933 1472
-0.514 2.432 1.844 13718
-0.489 2.311 1.758 1257
-0.518 2.449 1.846 14289
-0.492 2.329 1.760 1366
-0.520 2.461 1.843 10849
-0.546 2.582 1.929 1347
-0.524 2.478 1.845 7844
-0.550 2.600 1.930 1816
-0.529 2.502 1.851 5485
-0.555 2.624 1.936 1345
-0.534 2.526 1.857 5136
-0.560 2.648 1.942 990
-0.535 2.531 1.850 5136
-0.561 2.653 1.934 1209
-0.535 2.530 1.838 5427
-0.561 2.652 1.922 1453
-0.534 2.528 1.826 5829
-0.560 2.651 1.910 1878
-0.552 2.610 1.871 6164
-0.526 2.488 1.788 2404
-0.553 2.615 1.864 8357
-0.527 2.492 1.781 2503
-0.554 2.620 1.856 8976
-0.528 2.497 1.774 1946
-0.556 2.632 1.853 9689
-0.530 2.508 1.771 1900
-0.557 2.637 1.845 7883
-0.531 2.513 1.764 1572
-0.564 2.667 1.855 6576
-0.538 2.544 1.773 1992
-0.557 2.633 1.821 7900
-0.583 2.757 1.902 2155
-0.558 2.638 1.813 9792
-0.584 2.762 1.894 2656
-0.560 2.649 1.810 8911
-0.586 2.774 1.890 2820
-0.565 2.674 1.815 9144
-0.592 2.799 1.895 1784
-0.568 2.685 1.811 6735
-0.594 2.810 1.891 2289
-0.587 2.776 1.857 7231
-0.560 2.650 1.778 2102
-0.586 2.774 1.845 10936
-0.560 2.648 1.766 1409
-0.587 2.779 1.837 14869
-0.561 2.653 1.759 950
-0.590 2.790 1.833 20624
-0.563 2.664 1.755 993
-0.591 2.795 1.825 26701
-0.618 2.921 1.902 1013
-0.592 2.800 1.817 27169
-0.619 2.926 1.894 1015
-0.594 2.811 1.812 27877
-0.624 2.951 1.897 1061
-0.595 2.816 1.804 22866
-0.622 2.943 1.881 1122
-0.596 2.821 1.796 14305
-0.623 2.948 1.872 1241
-0.597 2.825 1.788 9935
-0.624 2.953 1.863 2217
-0.610 2.884 1.811 11580
-0.583 2.756 1.736 1657
-0.611 2.889 1.803 13122
-0.584 2.761 1.728 1723
-0.612 2.893 1.794 13043
-0.585 2.765 1.720 1492
-0.614 2.905 1.790 13245
-0.587 2.777 1.715 1697
-0.615 2.910 1.781 10410
-0.642 3.038 1.855 1133
-0.622 2.941 1.788 5646
-0.595 2.813 1.715 1441
-0.626 2.959 1.787 4135
-0.598 2.831 1.714 1377
-0.627 2.964 1.778 5341
-0.599 2.835 1.706 1227
-0.635 3.003 1.789 6856
-0.607 2.874 1.716 1259
-0.642 3.035 1.795 6490
-0.614 2.905 1.723 2143
-0.645 3.053 1.793 7019
-0.618 2.924 1.722 1626
-0.646 3.058 1.785 6265
-0.674 3.188 1.856 841
-0.646 3.056 1.772 6278
-0.692 3.274 1.891 1376
-0.645 3.053 1.759 5810
-0.693 3.279 1.881 2083
-0.645 3.051 1.747 5362
-0.687 3.250 1.853 2370
-0.647 3.063 1.741 4118
-0.684 3.234 1.833 3295
-0.695 3.287 1.849 3660
-0.661 3.129 1.765 3625
-0.683 3.230 1.806 5458
-0.655 3.099 1.738 2259
-0.684 3.235 1.797 8323
-0.656 3.104 1.729 2789
-0.686 3.247 1.791 8746
-0.659 3.115 1.723 4966
-0.668 3.161 1.735 10904
-0.705 3.334 1.824 6035
-0.669 3.166 1.726 9858
-0.703 3.325 1.807 6753
-0.685 3.240 1.752 9570
-0.713 3.372 1.819 2020
-0.687 3.251 1.746 13877
-0.659 3.119 1.679 2115
-0.688 3.256 1.736 17469
-0.660 3.124 1.670 1886
-0.689 3.260 1.727 16087
-0.722 3.414 1.803 2465
-0.695 3.286 1.727 8118
-0.723 3.419 1.792 3047
-0.700 3.311 1.728 7111
-0.728 3.444 1.793 3733
-0.701 3.316 1.718 6528
-0.729 3.449 1.783 4689
-0.723 3.419 1.756 5257
-0.695 3.285 1.692 3010
-0.722 3.416 1.742 5450
-0.817 3.865 1.956 2336
-0.723 3.421 1.732 5371
-0.818 3.871 1.945 2407
-0.726 3.432 1.725 4404
-0.807 3.819 1.907 3271
-0.810 3.832 1.899 5519
-0.728 3.444 1.719 2459
-0.813 3.844 1.891 5987
-0.841 3.978 1.953 2581
-0.826 3.905 1.906 5727
-0.730 3.453 1.698 1441
-0.825 3.903 1.891 6855
-0.854 4.038 1.952 1657
-0.846 4.000 1.921 5695
-0.817 3.866 1.860 4900
-0.848 4.012 1.912 7501
-0.820 3.878 1.852 3402
-0.854 4.039 1.910 7332
-0.825 3.904 1.850 4189
-0.858 4.058 1.904 8054
-0.828 3.916 1.842 3107
-0.859 4.063 1.892 7444
-0.888 4.198 1.952 3255
-0.875 4.139 1.911 6753
-0.839 3.968 1.837 3141
-0.894 4.230 1.936 6003
-0.866 4.094 1.878 4255
-0.898 4.249 1.930 7044
-0.865 4.092 1.863 3608
-0.898 4.247 1.914 9012
-0.927 4.383 1.972 5251
-0.899 4.252 1.902 10072
-0.928 4.389 1.959 6954
-0.924 4.372 1.937 11131
-0.895 4.236 1.880 6322
-0.927 4.385 1.927 12257
-0.898 4.248 1.871 3654
-0.925 4.375 1.908 10986
-0.896 4.239 1.852 996
-0.926 4.380 1.895 8258
-0.959 4.539 1.959 1137
-0.929 4.392 1.885 5503
-0.958 4.529 1.940 3016
-0.948 4.484 1.907 7547
-0.919 4.347 1.852 1303
-0.949 4.489 1.893 6478
-0.978 4.626 1.948 1713
-0.952 4.501 1.883 4180
-0.981 4.639 1.937 2706
-0.974 4.608 1.909 6524
-0.945 4.470 1.856 2559
-0.977 4.620 1.898 5858
-0.948 4.482 1.845 2560
-0.962 4.552 1.857 3985
-0.991 4.690 1.910 1722
-0.980 4.637 1.874 3804
-1.011 4.782 1.929 2285
-0.975 4.613 1.849 5516
-1.011 4.780 1.912 3402
-0.975 4.611 1.833 7122
-1.010 4.778 1.895 4590
-1.010 4.776 1.878 5312
-0.977 4.623 1.822 5267
-1.011 4.781 1.864 5688
-0.981 4.642 1.814 2367
-1.027 4.859 1.876 5949
-1.056 4.997 1.927 1603
-1.027 4.856 1.859 4787
-1.056 4.995 1.909 2249
-1.049 4.964 1.881 4376
-1.020 4.825 1.832 3234
-1.052 4.976 1.869 6589
-1.022 4.837 1.820 2281
-1.054 4.988 1.857 7215
-1.084 5.127 1.906 2789
-1.054 4.986 1.840 6097
-1.083 5.125 1.888 3222
-1.111 5.255 1.915 4122
-1.060 5.013 1.833 3888
-1.112 5.260 1.900 3018
-1.068 5.054 1.830 2809
-1.122 5.309 1.899 2586
-1.069 5.059 1.815 2151
-1.123 5.314 1.883 2866
-1.153 5.454 1.930 1774
-1.124 5.319 1.868 3447
-1.184 5.599 1.960 1667
-1.144 5.413 1.881 3275
-1.180 5.582 1.936 2436
-1.166 5.514 1.896 3799
-1.127 5.329 1.836 2601
-1.159 5.482 1.868 3333
-1.189 5.622 1.912 3186
-1.160 5.487 1.851 2661
-1.193 5.642 1.900 2554
-1.172 5.543 1.851 2237
-1.241 5.869 1.953 1786
-1.245 5.889 1.940 2152
-1.196 5.659 1.869 1823
-1.204 5.694 1.862 2430
-1.249 5.909 1.927 2400
-1.255 5.937 1.917 2561
-1.202 5.684 1.840 2429
-1.262 5.971 1.908 2037
-1.203 5.689 1.823 1481
-1.267 5.991 1.895 1918
-1.296 6.133 1.936 1557
-1.285 6.078 1.901 2010
-1.315 6.220 1.942 1316
-1.286 6.083 1.883 2634
-1.321 6.247 1.930 2550
-1.320 6.245 1.910 2289
-1.290 6.103 1.869 1968
-1.316 6.227 1.885 1962
-1.392 6.586 1.986 1811
-1.392 6.584 1.964 2691
-1.319 6.240 1.868 1932
-1.393 6.589 1.945 3070
-1.323 6.260 1.854 1570
-1.394 6.594 1.925 3277
-1.435 6.788 1.979 1171
-1.395 6.599 1.906 3051
-1.425 6.741 1.944 1279
-1.420 6.716 1.916 2174
-1.515 7.166 2.036 1754
-1.559 7.374 2.068 1923
-1.513 7.156 2.011 1852
-1.560 7.379 2.046 2028
-1.530 7.237 2.009 1275
-1.561 7.385 2.025 1876
-1.531 7.242 1.988 971
-1.561 7.383 2.001 1586
-1.632 7.721 2.087 1271
-1.551 7.335 1.966 1650
-1.632 7.719 2.062 1312
-1.663 7.867 2.074 1312
-1.789 8.462 2.222 1090
-1.664 7.873 2.051 1462
-1.706 8.069 2.099 1090
-1.315 6.220 1.628 1217
-1.667 7.886 2.030 1108
-1.314 6.217 1.607 1565
-1.839 8.698 2.198 1229
-1.794 8.485 2.121 2651
-1.315 6.221 1.589 2056
-1.793 8.483 2.094 4837
-1.840 8.702 2.145 2503
-1.795 8.489 2.069 4866
-1.841 8.708 2.119 3008
-1.796 8.494 2.044 2892
-1.842 8.714 2.093 2772
-1.914 9.052 2.142 2736
-1.320 6.244 1.517 1981
-1.918 9.073 2.118 3509
-1.319 6.241 1.497 2192
-1.921 9.086 2.093 2527
-1.322 6.252 1.480 1678
-2.028 9.592 2.172 1301
-1.924 9.099 2.067 1243
-1.893 8.953 2.008 1679
-2.031 9.606 2.145 1481
-1.894 8.959 1.982 1397
-2.033 9.619 2.119 1128
-1.887 8.926 1.948 1182
-1.322 6.252 1.403 1118
-1.324 6.263 1.386 1637
-1.888 8.931 1.921 1478
-1.325 6.267 1.367 1920
-2.138 10.115 2.127 1394
-1.325 6.270 1.349 1702
-2.139 10.120 2.097 1315
-1.326 6.274 1.330 1568
-2.356 11.146 2.263 1313
-2.358 11.152 2.229 1430
-1.329 6.285 1.313 1301
-2.452 11.600 2.278 1395
-1.332 6.303 1.297 1393
-1.332 6.299 1.277 1952
-2.442 11.553 2.234 1399
-1.332 6.302 1.259 2052
-2.443 11.559 2.200 1379
-1.333 6.305 1.240 1562
-2.517 11.908 2.226 1124
-1.334 6.308 1.221 1305
-2.848 13.472 2.460 1284
-2.849 13.478 2.420 1366
-1.331 6.296 1.200 1013
-2.852 13.492 2.381 890
-1.332 6.299 1.181 771
-1.332 6.302 1.163 912
-2.760 13.055 2.268 832
-1.333 6.305 1.144 950
-2.764 13.077 2.232 862
-1.332 6.300 1.124 720
-2.766 13.082 2.193 697
-1.334 6.311 1.107 548
-2.890 13.670 2.244 523
-1.336 6.321 1.089 518
-0.147 0.696 0.160 550
-0.147 0.696 0.158 537
-0.478 2.287 1.821 2536
-0.486 2.323 1.837 6685
-0.511 2.442 1.926 843
-0.489 2.341 1.840 10607
-0.514 2.460 1.928 1076
-0.492 2.352 1.838 11018
-0.517 2.471 1.926 1160
-0.494 2.363 1.835 11964
-0.519 2.483 1.923 1225
-0.503 2.406 1.856 10568
-0.478 2.286 1.769 1237
-0.505 2.417 1.854 13630
-0.530 2.537 1.941 1277
-0.506 2.422 1.847 13630
-0.531 2.542 1.933 1747
-0.509 2.433 1.844 13235
-0.534 2.554 1.930 1496
-0.512 2.451 1.846 13953
-0.538 2.571 1.932 1208
-0.515 2.462 1.843 10706
-0.540 2.583 1.929 1399
-0.517 2.473 1.841 7865
-0.544 2.601 1.930 1901
-0.521 2.491 1.842 5417
-0.546 2.612 1.927 1804
-0.528 2.528 1.857 4845
-0.554 2.649 1.942 1067
-0.529 2.533 1.850 4845
-0.555 2.655 1.934 1332
-0.529 2.531 1.838 5113
-0.555 2.653 1.922 1487
-0.529 2.529 1.826 5397
-0.554 2.652 1.910 1743
-0.530 2.534 1.819 5765
-0.555 2.657 1.902 2452
-0.547 2.617 1.864 7682
-0.521 2.494 1.781 2776
-0.549 2.628 1.861 8624
-0.524 2.505 1.778 2773
-0.550 2.633 1.853 9584
-0.525 2.509 1.771 2084
-0.551 2.638 1.845 7859
-0.526 2.514 1.764 1671
-0.559 2.675 1.859 7170
-0.532 2.545 1.773 2055
-0.551 2.634 1.821 7697
-0.577 2.759 1.902 1973
-0.552 2.639 1.813 9618
-0.578 2.764 1.894 2394
-0.554 2.651 1.810 8907
-0.580 2.775 1.890 2725
-0.561 2.682 1.819 9621
-0.587 2.806 1.899 1364
-0.563 2.693 1.815 7186
-0.589 2.818 1.895 1702
-0.581 2.777 1.857 7041
-0.554 2.652 1.778 2174
-0.580 2.775 1.845 10181
-0.554 2.650 1.766 1445
-0.581 2.780 1.837 13354
-0.555 2.654 1.759 927
-0.584 2.792 1.833 19435
-0.557 2.666 1.755 988
-0.585 2.796 1.825 25795
-0.611 2.923 1.902 1054
-0.586 2.801 1.817 26339
-0.612 2.928 1.894 973
-0.588 2.813 1.812 26979
-0.616 2.946 1.893 984
-0.589 2.817 1.804 21854
-0.615 2.944 1.881 1245
-0.590 2.822 1.796 13506
-0.617 2.949 1.872 1585
-0.591 2.827 1.788 9555
-0.618 2.954 1.863 2644
-0.605 2.892 1.815 13147
-0.578 2.764 1.740 1714
-0.604 2.890 1.803 14548
-0.577 2.762 1.728 1576
-0.605 2.895 1.794 14031
-0.578 2.767 1.720 1342
-0.606 2.899 1.786 13515
-0.633 3.028 1.860 1394
-0.609 2.911 1.781 10838
-0.635 3.039 1.855 1316
-0.617 2.949 1.792 6085
-0.590 2.821 1.718 1690
-0.619 2.961 1.787 4189
-0.592 2.832 1.714 1230
-0.627 3.000 1.797 5265
-0.600 2.871 1.725 1293
-0.631 3.018 1.796 6915
-0.604 2.889 1.724 1718
-0.636 3.043 1.799 7261
-0.609 2.914 1.727 2608
-0.639 3.055 1.793 7923
-0.611 2.925 1.722 1600
-0.640 3.059 1.785 6923
-0.612 2.929 1.714 719
-0.639 3.057 1.772 6575
-0.685 3.276 1.891 1075
-0.639 3.055 1.759 5799
-0.686 3.281 1.881 1608
-0.638 3.053 1.747 5568
-0.667 3.190 1.820 2206
-0.641 3.064 1.741 4445
-0.668 3.195 1.811 3211
-0.654 3.131 1.765 4409
-0.689 3.296 1.852 2978
-0.674 3.225 1.803 5520
-0.647 3.094 1.734 2113
-0.675 3.230 1.793 8681
-0.703 3.361 1.862 2631
-0.660 3.158 1.745 8923
-0.698 3.338 1.837 4407
-0.661 3.163 1.735 11932
-0.697 3.336 1.824 4769
-0.662 3.167 1.726 10603
-0.694 3.320 1.804 5353
-0.678 3.241 1.752 9997
-0.650 3.109 1.685 2152
-0.680 3.253 1.746 13574
-0.652 3.121 1.679 2162
-0.681 3.257 1.736 17407
-0.653 3.125 1.670 1912
-0.682 3.262 1.727 16503
-0.714 3.415 1.803 2274
-0.677 3.239 1.703 8023
-0.715 3.420 1.792 2836
-0.693 3.313 1.728 6271
-0.720 3.446 1.793 3547
-0.694 3.318 1.718 5762
-0.721 3.451 1.783 4555
-0.708 3.385 1.739 4966
-0.678 3.245 1.671 2989
-0.714 3.418 1.742 4422
-0.808 3.867 1.956 2403
-0.717 3.429 1.735 4319
-0.810 3.872 1.945 2668
-0.799 3.821 1.907 3505
-0.718 3.434 1.725 3492
-0.800 3.826 1.896 5188
-0.828 3.960 1.958 2136
-0.820 3.923 1.927 5371
-0.792 3.789 1.865 2459
-0.817 3.907 1.906 5668
-0.724 3.462 1.702 1451
-0.815 3.898 1.888 7203
-0.843 4.032 1.949 1819
-0.837 4.002 1.921 6098
-0.808 3.867 1.860 5119
-0.839 4.014 1.912 8422
-0.811 3.879 1.852 3583
-0.843 4.034 1.907 7862
-0.815 3.899 1.847 4205
-0.849 4.060 1.904 8104
-0.820 3.925 1.845 2915
-0.850 4.065 1.892 7554
-0.878 4.200 1.952 3037
-0.866 4.141 1.911 7209
-0.831 3.977 1.840 3521
-0.883 4.225 1.933 5866
-0.855 4.089 1.875 4138
-0.887 4.244 1.927 7679
-0.857 4.101 1.866 3754
-0.888 4.249 1.914 9553
-0.917 4.385 1.972 4930
-0.889 4.254 1.902 10059
-0.918 4.391 1.959 6456
-0.914 4.374 1.937 10614
-0.886 4.238 1.880 6151
-0.916 4.379 1.924 11951
-0.887 4.243 1.868 2661
-0.915 4.377 1.908 11172
-0.944 4.514 1.964 931
-0.916 4.382 1.895 8950
-0.949 4.541 1.959 1106
-0.935 4.474 1.917 5729
-0.907 4.337 1.862 1886
-0.938 4.486 1.907 7764
-0.909 4.349 1.852 1287
-0.937 4.484 1.891 6754
-0.966 4.621 1.945 1998
-0.937 4.482 1.874 4170
-0.966 4.619 1.928 3835
-0.965 4.617 1.912 6516
-0.936 4.479 1.858 2442
-0.966 4.622 1.898 5963
-0.937 4.484 1.845 2221
-0.969 4.634 1.887 3827
-0.998 4.772 1.940 1704
-0.971 4.647 1.876 4417
-1.000 4.785 1.929 2365
-0.966 4.622 1.852 5750
-1.000 4.782 1.912 3429
-0.964 4.613 1.833 7146
-0.999 4.780 1.895 4664
-0.999 4.778 1.878 5405
-0.967 4.625 1.822 4940
-0.998 4.776 1.861 5975
-1.027 4.914 1.912 2507
-1.016 4.861 1.876 5626
-0.987 4.722 1.826 1800
-1.016 4.859 1.859 4643
-0.987 4.720 1.810 2254
-1.038 4.966 1.881 4271
-1.009 4.827 1.832 3083
-1.041 4.978 1.869 6517
-1.070 5.117 1.918 2510
-1.043 4.990 1.857 7352
-1.072 5.130 1.906 3336
-1.044 4.995 1.842 5811
-1.073 5.135 1.891 3171
-1.098 5.250 1.913 3840
-1.047 5.008 1.830 3364
-1.109 5.307 1.915 2967
-1.059 5.064 1.833 2787
-1.112 5.319 1.902 3103
-1.058 5.061 1.815 2199
-1.111 5.317 1.883 3536
-1.141 5.457 1.930 1938
-1.114 5.329 1.870 3826
-1.170 5.595 1.957 1639
-1.134 5.423 1.883 3224
-1.166 5.578 1.934 2678
-1.167 5.583 1.917 3944
-1.136 5.435 1.870 2978
-1.145 5.477 1.865 3397
-1.174 5.617 1.910 3227
-1.146 5.482 1.849 2715
-1.178 5.637 1.898 2183
-1.159 5.546 1.851 2293
-1.228 5.872 1.953 1442
-1.182 5.655 1.867 2013
-1.232 5.892 1.940 1887
-1.237 5.919 1.930 2306
-1.202 5.749 1.877 2223
-1.242 5.939 1.917 2503
-1.186 5.672 1.836 1992
-1.266 6.056 1.932 1758
-1.187 5.677 1.819 1359
-1.272 6.083 1.921 1718
-1.225 5.860 1.855 1399
-1.302 6.230 1.944 1726
-1.271 6.081 1.901 1574
-1.305 6.243 1.928 3230
-1.274 6.094 1.885 2263
-1.305 6.240 1.907 2749
-1.275 6.098 1.867 1878
-1.302 6.230 1.885 2189
-1.377 6.589 1.986 1995
-1.378 6.594 1.967 2652
-1.305 6.243 1.868 2229
-1.380 6.599 1.947 3058
-1.309 6.263 1.854 1767
-1.379 6.597 1.925 3275
-1.420 6.792 1.979 1359
-1.380 6.602 1.906 3157
-1.410 6.744 1.944 1450
-1.381 6.607 1.886 2374
-1.496 7.154 2.032 2247
-1.495 7.152 2.009 2379
-1.541 7.370 2.066 2024
-1.542 7.375 2.045 2117
-1.495 7.150 1.986 1433
-1.543 7.381 2.023 1894
-1.612 7.711 2.108 1166
-1.539 7.364 1.995 1676
-1.613 7.717 2.085 1446
-1.533 7.331 1.964 1669
-1.614 7.723 2.062 1500
-1.647 7.879 2.076 1398
-1.770 8.466 2.222 1202
-1.647 7.877 2.051 1409
-1.768 8.457 2.193 1027
-1.769 8.463 2.168 1063
-1.649 7.890 2.030 1052
-1.818 8.695 2.197 1549
-1.770 8.469 2.143 985
-1.775 8.489 2.121 2453
-1.819 8.701 2.171 1936
-1.774 8.487 2.094 4117
-1.820 8.707 2.145 2763
-1.775 8.493 2.069 3946
-1.821 8.712 2.119 3485
-1.822 8.718 2.093 3285
-1.894 9.058 2.170 2644
-1.893 9.057 2.142 3251
-1.825 8.731 2.069 1795
-1.898 9.077 2.118 3759
-1.779 8.509 1.993 1431
-1.900 9.091 2.093 2702
-1.782 8.522 1.970 1167
-1.903 9.104 2.067 1460
-2.006 9.597 2.172 1155
-1.906 9.117 2.042 1602
-2.009 9.610 2.145 1448
-1.907 9.122 2.015 1246
-2.012 9.624 2.119 1140
-2.119 10.138 2.194 1162
-2.150 10.283 2.223 1095
-1.868 8.935 1.921 1217
-2.144 10.258 2.186 1042
-2.115 10.119 2.127 1484
-2.327 11.131 2.327 1099
-2.117 10.125 2.097 1394
-2.287 10.940 2.256 1273
-2.288 10.946 2.223 1294
-2.331 11.151 2.263 1254
-2.332 11.157 2.229 1396
-2.289 10.952 2.191 1337
-2.415 11.552 2.268 1533
-2.289 10.950 2.157 1209
-2.416 11.558 2.234 1617
-1.316 6.294 1.276 854
-2.416 11.556 2.198 1622
-2.548 12.190 2.312 901
-2.415 11.555 2.163 1273
-2.491 11.914 2.226 1106
-2.818 13.478 2.460 1563
-2.490 11.912 2.189 829
-2.819 13.485 2.420 1570
-2.773 13.263 2.382 680
-2.822 13.499 2.381 932
-2.889 13.820 2.434 731
-2.774 13.268 2.302 758
-2.889 13.819 2.392 669
-2.892 13.833 2.352 626
-2.775 13.274 2.262 621
-2.898 13.862 2.315 592
-0.146 0.696 0.160 518
-0.473 2.288 1.821 2279
-0.480 2.324 1.837 6340
-0.505 2.443 1.926 887
-0.484 2.342 1.840 10365
-0.509 2.461 1.928 1065
-0.486 2.353 1.838 10666
-0.511 2.472 1.926 1169
-0.489 2.364 1.835 11331
-0.513 2.484 1.923 1253
-0.497 2.407 1.856 9885
-0.473 2.287 1.769 1058
-0.500 2.418 1.854 12693
-0.525 2.538 1.941 1434
-0.501 2.423 1.847 12693
-0.526 2.543 1.933 2029
-0.503 2.434 1.844 12651
-0.528 2.555 1.930 1761
-0.507 2.452 1.846 13548
-0.532 2.573 1.932 1338
-0.509 2.463 1.843 10568
-0.534 2.584 1.929 1473
-0.511 2.474 1.841 8015
-0.538 2.602 1.930 1961
-0.514 2.485 1.838 5680
-0.539 2.607 1.923 1996
-0.521 2.522 1.853 4601
-0.546 2.644 1.938 1243
-0.522 2.527 1.846 4601
-0.547 2.649 1.930 1521
-0.523 2.532 1.838 4894
-0.549 2.654 1.922 1507
-0.523 2.531 1.826 5158
-0.548 2.653 1.910 1648
-0.524 2.535 1.819 5773
-0.549 2.658 1.902 2577
-0.542 2.624 1.868 7035
-0.517 2.501 1.785 3735
-0.543 2.629 1.861 8140
-0.518 2.506 1.778 3036
-0.544 2.634 1.853 9245
-0.519 2.511 1.771 2337
-0.548 2.652 1.854 7802
-0.522 2.528 1.772 2581
-0.553 2.677 1.859 7824
-0.527 2.553 1.778 2503
-0.558 2.701 1.864 8084
-0.533 2.577 1.783 2931
-0.561 2.713 1.860 9762
-0.535 2.588 1.780 4088
-0.562 2.717 1.852 8915
-0.536 2.593 1.772 2946
-0.556 2.689 1.823 10272
-0.582 2.814 1.903 1063
-0.558 2.701 1.820 7832
-0.584 2.826 1.899 1393
-0.573 2.772 1.853 6900
-0.545 2.640 1.770 1978
-0.574 2.777 1.845 9172
-0.548 2.651 1.766 1419
-0.575 2.781 1.837 11444
-0.601 2.907 1.915 913
-0.576 2.786 1.829 17777
-0.602 2.912 1.907 1091
-0.577 2.791 1.821 24110
-0.603 2.917 1.898 1269
-0.579 2.802 1.817 24722
-0.605 2.929 1.894 994
-0.580 2.807 1.808 25356
-0.608 2.941 1.889 967
-0.582 2.819 1.804 20173
-0.609 2.946 1.881 1620
-0.583 2.823 1.796 12268
-0.610 2.951 1.872 2273
-0.598 2.895 1.827 9801
-0.572 2.768 1.752 1993
-0.598 2.893 1.815 15118
-0.572 2.766 1.740 1444
-0.599 2.898 1.807 16233
-0.572 2.770 1.732 1475
-0.598 2.896 1.794 15004
-0.625 3.024 1.869 1343
-0.599 2.901 1.786 13866
-0.626 3.029 1.860 1613
-0.602 2.912 1.781 11071
-0.628 3.041 1.855 1672
-0.610 2.951 1.792 7126
-0.583 2.822 1.718 1571
-0.614 2.969 1.791 5353
-0.640 3.098 1.864 1366
-0.619 2.994 1.794 5836
-0.592 2.865 1.721 1089
-0.624 3.019 1.796 7096
-0.597 2.890 1.724 1713
-0.629 3.044 1.799 7966
-0.602 2.915 1.727 2528
-0.632 3.056 1.793 8599
-0.605 2.926 1.722 1501
-0.631 3.054 1.781 7430
-0.658 3.184 1.852 642
-0.632 3.059 1.772 6936
-0.659 3.189 1.842 892
-0.633 3.063 1.763 5925
-0.678 3.283 1.881 1153
-0.633 3.061 1.750 5765
-0.660 3.191 1.820 2119
-0.638 3.086 1.752 4886
-0.665 3.217 1.822 2896
-0.649 3.139 1.769 5478
-0.681 3.297 1.852 2351
-0.665 3.220 1.799 5537
-0.638 3.088 1.730 1974
-0.668 3.231 1.793 8671
-0.641 3.100 1.725 2318
-0.653 3.160 1.745 9397
-0.690 3.340 1.837 3291
-0.654 3.164 1.735 12531
-0.690 3.338 1.824 3591
-0.655 3.169 1.726 10917
-0.686 3.322 1.804 4168
-0.670 3.243 1.752 10176
-0.643 3.111 1.685 2348
-0.673 3.254 1.746 12762
-0.645 3.122 1.679 2257
-0.673 3.259 1.736 16405
-0.646 3.127 1.670 1996
-0.674 3.264 1.727 15796
-0.706 3.417 1.803 2051
-0.670 3.240 1.703 7945
-0.772 3.736 1.947 2622
-0.686 3.322 1.731 5690
-0.772 3.734 1.932 2935
-0.687 3.326 1.722 5094
-0.715 3.459 1.786 3735
-0.698 3.380 1.735 4849
-0.671 3.246 1.671 3322
-0.702 3.398 1.732 3537
-0.800 3.869 1.956 2336
-0.710 3.438 1.739 3379
-0.802 3.881 1.948 2836
-0.789 3.816 1.904 4250
-0.711 3.443 1.729 2662
-0.790 3.821 1.892 5520
-0.817 3.955 1.955 2340
-0.811 3.925 1.927 5577
-0.783 3.791 1.865 2695
-0.808 3.909 1.906 5457
-0.716 3.463 1.702 1371
-0.804 3.893 1.884 7257
-0.832 4.027 1.946 1949
-0.827 4.004 1.921 6328
-0.800 3.869 1.860 5018
-0.830 4.016 1.912 8847
-0.802 3.881 1.852 3653
-0.834 4.035 1.907 8016
-0.806 3.900 1.847 4265
-0.839 4.062 1.904 7967
-0.811 3.927 1.845 2762
-0.840 4.067 1.892 7643
-0.871 4.217 1.958 2678
-0.855 4.136 1.908 7337
-0.825 3.993 1.846 4255
-0.874 4.227 1.933 5373
-0.845 4.091 1.875 3882
-0.878 4.246 1.927 7874
-0.849 4.110 1.869 3712
-0.879 4.251 1.914 9490
-0.907 4.388 1.972 4484
-0.880 4.256 1.902 9583
-0.908 4.393 1.959 5952
-0.904 4.376 1.937 9899
-0.876 4.240 1.880 5856
-0.905 4.382 1.924 11239
-0.877 4.245 1.868 2378
-0.905 4.379 1.908 10929
-0.933 4.516 1.964 1081
-0.905 4.377 1.892 9214
-0.933 4.514 1.948 1279
-0.925 4.476 1.917 6013
-0.897 4.339 1.862 2003
-0.928 4.488 1.907 7807
-0.899 4.351 1.852 1243
-0.927 4.486 1.891 6801
-0.955 4.623 1.945 1910
-0.925 4.477 1.872 4130
-0.954 4.614 1.926 3729
-0.955 4.619 1.912 6066
-0.926 4.482 1.858 1991
-0.956 4.624 1.898 5637
-0.927 4.486 1.845 1756
-0.958 4.637 1.887 4069
-0.987 4.775 1.940 1801
-0.961 4.649 1.876 5045
-0.989 4.787 1.929 2377
-0.960 4.646 1.860 6381
-0.989 4.785 1.912 3208
-0.954 4.615 1.833 6840
-0.988 4.783 1.895 4458
-0.988 4.780 1.878 5337
-0.955 4.620 1.819 4279
-0.987 4.778 1.861 6438
-1.025 4.960 1.928 2691
-0.991 4.797 1.853 5799
-1.025 4.958 1.911 3178
-1.005 4.861 1.859 4551
-0.976 4.722 1.810 2399
-1.007 4.873 1.848 4560
-1.036 5.012 1.897 2574
-1.031 4.988 1.872 6014
-1.060 5.127 1.921 2963
-1.033 5.000 1.860 7077
-1.062 5.140 1.908 3393
-1.033 4.998 1.842 5357
-1.062 5.137 1.891 3050
-1.085 5.253 1.913 3368
-1.034 5.003 1.828 3016
-1.097 5.309 1.915 2917
-1.047 5.066 1.833 2734
-1.100 5.322 1.902 3375
-1.046 5.064 1.815 2281
-1.099 5.319 1.883 4144
-1.128 5.459 1.930 2250
-1.102 5.332 1.870 4304
-1.131 5.472 1.916 1648
-1.101 5.329 1.852 3395
-1.153 5.580 1.934 2835
-1.154 5.585 1.917 4214
-1.124 5.438 1.870 3436
-1.158 5.605 1.905 3310
-1.129 5.465 1.861 3239
-1.132 5.477 1.847 2554
-1.166 5.640 1.898 2085
-1.147 5.549 1.851 2174
-1.176 5.689 1.895 1354
-1.169 5.657 1.867 2540
-1.221 5.910 1.945 1547
-1.189 5.751 1.877 2222
-1.225 5.930 1.932 2049
-1.228 5.942 1.917 2082
-1.193 5.771 1.865 1858
-1.252 6.059 1.932 1739
-1.223 5.918 1.890 1341
-1.255 6.071 1.917 1738
-1.212 5.863 1.855 1659
-1.288 6.233 1.944 2170
-1.213 5.868 1.838 1378
-1.289 6.238 1.926 3933
-1.260 6.096 1.885 1741
-1.290 6.243 1.907 3335
-1.261 6.101 1.867 1825
-1.288 6.233 1.885 2476
-1.317 6.375 1.925 2098
-1.363 6.597 1.967 2545
-1.291 6.246 1.868 2332
-1.366 6.610 1.949 3307
-1.293 6.258 1.852 1841
-1.365 6.608 1.927 3438
-1.403 6.787 1.977 1459
-1.365 6.605 1.906 3100
-1.472 7.122 2.045 1627
-1.478 7.150 2.030 2863
-1.368 6.618 1.888 2334
-1.479 7.156 2.009 3012
-1.519 7.351 2.060 2262
-1.523 7.371 2.043 2282
-1.477 7.146 1.984 1809
-1.524 7.377 2.021 2055
-1.482 7.174 1.969 1247
-1.521 7.360 1.993 1711
-1.596 7.721 2.085 1568
-1.597 7.726 2.062 1739
-1.514 7.327 1.962 1692
-1.629 7.882 2.076 1319
-1.568 7.589 2.004 1269
-1.630 7.888 2.053 1261
-1.748 8.461 2.193 1204
-1.750 8.467 2.168 1268
-1.796 8.693 2.222 1171
-1.798 8.699 2.197 1724
-1.752 8.480 2.144 1058
-1.755 8.493 2.121 2008
-1.799 8.705 2.171 1984
-1.755 8.491 2.094 2994
-1.800 8.711 2.145 2807
-1.801 8.716 2.119 3745
-1.756 8.497 2.069 2814
-1.802 8.722 2.093 3610
-1.873 9.063 2.170 2963
-1.872 9.061 2.142 3505
-1.805 8.735 2.069 1989
-1.877 9.082 2.118 3667
-1.911 9.249 2.155 1425
-1.880 9.095 2.093 2651
-1.952 9.444 2.168 1090
-1.882 9.108 2.067 1582
-2.027 9.806 2.216 1300
-1.885 9.121 2.042 1747
-1.989 9.622 2.147 1405
-1.886 9.127 2.015 1372
-2.093 10.130 2.222 1208
-2.096 10.143 2.194 1282
-2.126 10.288 2.223 1226
-2.122 10.271 2.188 1208
-2.091 10.119 2.157 991
-2.092 10.124 2.127 1471
-2.259 10.931 2.287 1144
-2.260 10.937 2.254 1494
-2.092 10.122 2.096 1369
-2.263 10.951 2.223 1458
-2.306 11.157 2.263 1137
-2.264 10.957 2.191 1487
-2.389 11.559 2.304 1405
-2.387 11.550 2.267 1823
-2.264 10.955 2.157 1371
-2.388 11.556 2.233 1938
-2.489 12.045 2.321 884
-2.389 11.562 2.198 1917
-2.520 12.196 2.312 1004
-2.389 11.560 2.163 1470
-2.463 11.919 2.226 1066
-2.787 13.485 2.460 1870
-2.586 12.514 2.292 854
-2.788 13.491 2.420 1823
-2.586 12.512 2.254 853
-2.791 13.505 2.381 989
-2.889 13.980 2.460 696
-2.743 13.274 2.302 616
-2.857 13.826 2.392 608
-2.869 13.886 2.360 598
-2.744 13.280 2.262 513
-2.866 13.869 2.315 586
-0.467 2.290 1.821 1933
-0.476 2.332 1.842 6104
-0.451 2.213 1.753 683
-0.479 2.349 1.845 10218
-0.503 2.469 1.933 806
-0.480 2.354 1.838 10403
-0.504 2.474 1.926 1159
-0.482 2.365 1.835 10796
-0.507 2.485 1.923 1285
-0.492 2.414 1.861 9265
-0.468 2.294 1.773 1155
-0.493 2.419 1.854 11707
-0.518 2.540 1.941 1556
-0.494 2.424 1.847 11707
-0.519 2.545 1.933 2256
-0.497 2.435 1.844 12043
-0.521 2.556 1.930 1972
-0.500 2.453 1.846 13067
-0.525 2.574 1.932 1448
-0.503 2.464 1.843 10407
-0.527 2.585 1.929 1557
-0.505 2.476 1.841 8207
-0.530 2.597 1.926 2036
-0.507 2.487 1.838 5985
-0.532 2.608 1.923 2031
-0.513 2.517 1.849 4564
-0.538 2.639 1.933 1419
-0.514 2.522 1.841 4564
-0.539 2.644 1.925 1691
-0.517 2.534 1.838 4896
-0.542 2.656 1.922 1544
-0.516 2.532 1.826 5222
-0.541 2.655 1.910 1614
-0.517 2.537 1.819 5970
-0.542 2.660 1.902 2674
-0.518 2.542 1.812 6639
-0.543 2.665 1.894 3880
-0.538 2.637 1.865 7709
-0.513 2.514 1.783 3792
-0.539 2.642 1.857 8850
-0.514 2.519 1.775 3008
-0.542 2.660 1.858 7901
-0.517 2.536 1.776 2974
-0.546 2.678 1.859 8320
-0.521 2.554 1.778 3045
-0.551 2.703 1.864 8509
-0.526 2.578 1.783 3386
-0.553 2.714 1.860 10133
-0.528 2.589 1.780 4568
-0.549 2.693 1.835 9485
-0.524 2.568 1.755 1566
-0.549 2.691 1.823 10880
-0.574 2.816 1.903 975
-0.551 2.702 1.820 8422
-0.577 2.827 1.899 1361
-0.564 2.767 1.849 6855
-0.539 2.641 1.770 1980
-0.565 2.771 1.841 8271
-0.540 2.646 1.762 1283
-0.566 2.776 1.833 9687
-0.592 2.902 1.911 1264
-0.569 2.788 1.829 15892
-0.594 2.914 1.907 1137
-0.569 2.793 1.821 22215
-0.595 2.919 1.898 1272
-0.572 2.804 1.817 22609
-0.598 2.931 1.894 1059
-0.573 2.809 1.808 23320
-0.599 2.936 1.885 1085
-0.574 2.814 1.800 18185
-0.600 2.941 1.877 2305
-0.576 2.825 1.796 10879
-0.602 2.952 1.872 2981
-0.592 2.903 1.831 10821
-0.566 2.776 1.756 2468
-0.590 2.895 1.815 16491
-0.564 2.767 1.740 1236
-0.591 2.900 1.807 17631
-0.565 2.772 1.732 1192
-0.591 2.898 1.794 15531
-0.617 3.026 1.869 1403
-0.592 2.902 1.786 13829
-0.618 3.031 1.860 1761
-0.594 2.914 1.781 10952
-0.620 3.042 1.855 2028
-0.603 2.959 1.796 8230
-0.577 2.830 1.722 1630
-0.607 2.977 1.795 6918
-0.633 3.106 1.868 1618
-0.608 2.982 1.786 7175
-0.634 3.111 1.858 2089
-0.611 2.994 1.781 7543
-0.637 3.123 1.853 1404
-0.623 3.053 1.802 8496
-0.596 2.923 1.731 2934
-0.624 3.058 1.793 9067
-0.597 2.928 1.722 1403
-0.622 3.049 1.777 7975
-0.648 3.179 1.848 731
-0.625 3.067 1.776 7319
-0.652 3.197 1.846 750
-0.626 3.072 1.767 6205
-0.653 3.202 1.837 985
-0.625 3.063 1.750 5815
-0.651 3.193 1.820 2054
-0.633 3.102 1.760 5645
-0.659 3.232 1.829 2467
-0.639 3.134 1.765 6673
-0.674 3.306 1.856 1804
-0.656 3.214 1.796 5362
-0.629 3.083 1.727 1740
-0.658 3.226 1.790 8448
-0.631 3.095 1.721 2028
-0.645 3.161 1.745 9611
-0.672 3.293 1.812 2124
-0.647 3.173 1.739 12716
-0.680 3.332 1.821 2613
-0.647 3.171 1.726 10907
-0.673 3.302 1.793 3470
-0.663 3.252 1.755 10338
-0.636 3.120 1.689 3388
-0.665 3.263 1.749 12035
-0.638 3.131 1.683 3193
-0.666 3.268 1.740 15015
-0.639 3.135 1.674 2768
-0.666 3.265 1.727 14474
-0.760 3.726 1.954 2120
-0.661 3.242 1.703 7615
-0.762 3.738 1.947 2902
-0.678 3.323 1.731 5249
-0.761 3.729 1.929 3355
-0.663 3.251 1.684 5112
-0.700 3.433 1.772 4546
-0.690 3.382 1.735 4740
-0.662 3.248 1.671 3505
-0.691 3.386 1.725 3439
-0.761 3.731 1.889 2075
-0.791 3.876 1.945 2832
-0.703 3.447 1.742 2723
-0.780 3.825 1.907 4922
-0.702 3.444 1.729 2121
-0.778 3.816 1.889 5975
-0.806 3.950 1.952 2759
-0.801 3.927 1.927 5672
-0.773 3.793 1.865 2946
-0.800 3.925 1.912 5112
-0.773 3.791 1.851 1498
-0.793 3.888 1.881 6967
-0.820 4.022 1.942 2115
-0.817 4.006 1.921 6491
-0.789 3.871 1.860 4695
-0.819 4.018 1.912 9190
-0.792 3.883 1.852 3550
-0.822 4.031 1.904 8209
-0.794 3.895 1.844 3912
-0.827 4.057 1.901 7778
-0.800 3.922 1.842 2703
-0.830 4.069 1.892 7502
-0.860 4.219 1.958 2494
-0.844 4.138 1.908 6912
-0.815 3.996 1.846 4902
-0.861 4.222 1.930 4812
-0.814 3.993 1.832 3816
-0.866 4.249 1.927 7699
-0.839 4.113 1.869 3652
-0.869 4.261 1.917 9024
-0.897 4.397 1.975 3378
-0.869 4.259 1.902 8756
-0.896 4.395 1.959 5393
-0.893 4.379 1.937 9054
-0.865 4.242 1.880 5479
-0.894 4.384 1.924 10201
-0.866 4.247 1.868 2092
-0.892 4.375 1.905 10417
-0.920 4.511 1.961 1480
-0.893 4.380 1.892 9061
-0.921 4.517 1.948 1280
-0.912 4.471 1.914 6150
-0.884 4.334 1.859 1567
-0.916 4.491 1.907 7656
-0.888 4.353 1.852 1145
-0.914 4.481 1.888 6745
-0.942 4.619 1.942 2055
-0.913 4.479 1.872 4276
-0.941 4.617 1.926 3474
-0.944 4.629 1.915 5441
-0.916 4.491 1.861 1892
-0.945 4.634 1.901 5144
-0.917 4.496 1.848 1692
-0.946 4.639 1.887 4265
-0.918 4.501 1.835 2011
-0.949 4.651 1.876 5720
-0.977 4.790 1.929 2285
-0.950 4.656 1.863 7172
-0.978 4.795 1.915 2802
-0.940 4.610 1.830 6615
-0.976 4.785 1.895 4034
-0.975 4.783 1.878 5136
-0.941 4.615 1.817 3573
-0.975 4.780 1.861 6784
-1.012 4.963 1.928 2951
-0.977 4.793 1.850 6143
-1.012 4.961 1.911 3155
-0.992 4.863 1.859 4452
-0.963 4.724 1.810 2562
-0.996 4.883 1.850 4820
-1.024 5.022 1.900 2238
-1.019 4.998 1.874 5374
-1.048 5.137 1.923 3089
-1.020 5.003 1.860 6583
-1.049 5.142 1.908 3616
-1.020 5.000 1.842 5042
-1.048 5.140 1.891 2902
-1.073 5.263 1.915 2817
-1.021 5.005 1.828 2744
-1.086 5.327 1.920 2867
-1.040 5.098 1.843 2590
-1.087 5.332 1.904 3474
-1.033 5.066 1.815 2173
-1.087 5.329 1.886 4492
-1.117 5.477 1.935 2510
-1.088 5.334 1.870 4308
-1.116 5.475 1.916 2011
-1.087 5.332 1.852 3320
-1.139 5.583 1.934 2865
-1.140 5.588 1.917 4108
-1.109 5.440 1.870 3797
-1.115 5.468 1.861 3364
-1.144 5.608 1.905 3082
-1.116 5.472 1.844 2563
-1.151 5.643 1.898 2195
-1.153 5.655 1.884 2106
-1.125 5.514 1.840 1428
-1.154 5.660 1.867 2845
-1.183 5.801 1.910 1578
-1.178 5.777 1.884 2286
-1.213 5.948 1.936 2023
-1.212 5.945 1.917 2101
-1.182 5.797 1.872 1851
-1.236 6.062 1.932 1709
-1.207 5.921 1.890 1407
-1.237 6.067 1.914 1916
-1.196 5.866 1.855 1599
-1.272 6.236 1.944 2457
-1.237 6.065 1.894 1412
-1.273 6.242 1.926 4230
-1.239 6.077 1.878 1461
-1.272 6.239 1.905 3626
-1.301 6.381 1.946 1667
-1.272 6.237 1.885 2911
-1.301 6.379 1.925 2581
-1.274 6.249 1.868 2641
-1.328 6.511 1.941 2495
-1.349 6.613 1.949 2882
-1.277 6.262 1.852 1940
-1.348 6.611 1.927 3042
-1.386 6.799 1.979 1435
-1.346 6.601 1.904 2818
-1.453 7.126 2.045 1896
-1.459 7.154 2.030 3409
-1.370 6.719 1.914 2437
-1.459 7.152 2.007 3563
-1.498 7.347 2.058 2383
-1.501 7.360 2.039 2530
-1.458 7.150 1.984 2109
-1.505 7.381 2.021 2183
-1.464 7.178 1.969 1416
-1.500 7.356 1.991 1689
-1.575 7.725 2.085 1508
-1.576 7.730 2.062 1853
-1.546 7.580 2.024 1743
-1.547 7.585 2.002 1398
-1.581 7.751 2.043 1332
-1.728 8.473 2.195 1253
-1.586 7.779 2.025 1210
-1.726 8.464 2.166 1316
-1.772 8.690 2.221 1161
-1.775 8.704 2.197 1704
-1.613 7.911 2.008 1027
-1.778 8.717 2.173 1862
-1.735 8.506 2.123 1568
-1.777 8.715 2.145 2669
-1.733 8.496 2.094 2077
-1.779 8.721 2.119 3787
-1.848 9.062 2.197 2322
-1.780 8.727 2.093 3715
-1.849 9.068 2.170 3059
-1.849 9.066 2.142 3536
-1.782 8.740 2.069 2042
-1.852 9.079 2.116 3398
-1.887 9.254 2.155 1412
-1.856 9.100 2.093 2434
-1.927 9.449 2.168 1360
-1.858 9.113 2.067 1590
-2.001 9.812 2.216 1372
-1.860 9.118 2.040 1776
-1.963 9.628 2.147 1269
-2.104 10.318 2.260 1426
-1.862 9.131 2.015 1398
-2.101 10.301 2.225 1403
-2.068 10.141 2.192 1218
-2.097 10.284 2.189 1385
-2.065 10.124 2.157 959
-2.064 10.122 2.126 1381
-2.230 10.937 2.287 1328
-2.232 10.943 2.254 1625
-2.112 10.356 2.140 1608
-2.233 10.949 2.222 1476
-2.110 10.347 2.107 1322
-2.357 11.558 2.303 1549
-2.236 10.963 2.191 1482
-2.357 11.556 2.267 1999
-2.235 10.961 2.157 1440
-2.358 11.562 2.233 2378
-2.258 11.073 2.144 890
-2.359 11.568 2.198 2636
-2.488 12.202 2.312 1041
-2.360 11.574 2.164 2264
-2.493 12.224 2.278 1086
-2.751 13.492 2.460 1983
-2.361 11.580 2.130 1393
-2.753 13.498 2.420 1907
-2.850 13.973 2.500 774
-2.756 13.513 2.381 973
-2.851 13.980 2.459 791
-2.605 12.776 2.219 674
-2.846 13.955 2.412 589
-2.839 13.924 2.364 679
-2.830 13.876 2.315 526
-2.762 13.545 2.221 506
-0.462 2.291 1.821 1591
-0.471 2.333 1.842 5745
-0.447 2.214 1.753 700
-0.474 2.350 1.845 10051
-0.450 2.231 1.756 841
-0.476 2.362 1.842 10049
-0.501 2.481 1.930 971
-0.477 2.366 1.835 10122
-0.502 2.486 1.923 1348
-0.487 2.415 1.861 8840
-0.463 2.295 1.773 1043
-0.490 2.427 1.858 10716
-0.514 2.547 1.945 1359
-0.491 2.432 1.851 10716
-0.515 2.552 1.938 2013
-0.492 2.437 1.844 11492
-0.516 2.557 1.930 2136
-0.494 2.448 1.842 12609
-0.518 2.569 1.928 1895
-0.496 2.459 1.839 10231
-0.521 2.580 1.925 1716
-0.500 2.477 1.841 8337
-0.524 2.598 1.926 2085
-0.501 2.481 1.834 6196
-0.525 2.603 1.918 2124
-0.507 2.512 1.844 4583
-0.531 2.634 1.929 1564
-0.508 2.517 1.837 4583
-0.532 2.639 1.921 1789
-0.511 2.535 1.838 5002
-0.536 2.657 1.922 1568
-0.512 2.539 1.831 5605
-0.537 2.662 1.914 1321
-0.513 2.544 1.823 6307
-0.538 2.667 1.906 2236
-0.514 2.549 1.816 7051
-0.539 2.672 1.899 3305
-0.532 2.638 1.865 7363
-0.507 2.515 1.783 3929
-0.533 2.643 1.857 8497
-0.508 2.520 1.775 3143
-0.537 2.661 1.858 8010
-0.512 2.537 1.776 3105
-0.540 2.679 1.859 8769
-0.515 2.555 1.778 3579
-0.544 2.697 1.859 8755
-0.519 2.573 1.779 3645
-0.548 2.715 1.860 10240
-0.523 2.591 1.780 4909
-0.543 2.694 1.835 9886
-0.518 2.569 1.755 1742
-0.544 2.699 1.827 11263
-0.519 2.574 1.748 823
-0.547 2.710 1.824 8910
-0.575 2.848 1.911 1385
-0.552 2.735 1.828 7376
-0.577 2.860 1.907 2020
-0.558 2.766 1.837 7617
-0.583 2.892 1.915 1621
-0.559 2.771 1.829 8120
-0.584 2.897 1.907 1733
-0.561 2.782 1.825 13850
-0.587 2.908 1.903 1482
-0.564 2.794 1.821 19784
-0.589 2.920 1.898 1291
-0.565 2.799 1.812 20164
-0.590 2.925 1.890 1325
-0.567 2.810 1.808 20846
-0.592 2.937 1.885 1279
-0.568 2.815 1.800 16122
-0.593 2.942 1.877 2710
-0.570 2.826 1.796 9491
-0.596 2.953 1.872 3574
-0.586 2.905 1.831 11482
-0.560 2.777 1.756 2276
-0.586 2.903 1.819 17569
-0.560 2.775 1.744 1373
-0.585 2.901 1.807 18654
-0.551 2.733 1.708 1008
-0.585 2.899 1.794 15764
-0.611 3.027 1.869 1475
-0.586 2.904 1.786 13568
-0.612 3.032 1.860 1827
-0.587 2.908 1.777 10640
-0.614 3.044 1.855 2350
-0.597 2.960 1.796 9095
-0.623 3.089 1.869 1893
-0.601 2.979 1.795 8341
-0.627 3.108 1.868 2173
-0.602 2.983 1.786 8538
-0.628 3.113 1.858 2706
-0.603 2.988 1.777 8735
-0.629 3.118 1.849 2330
-0.618 3.061 1.806 8844
-0.591 2.931 1.734 3465
-0.617 3.059 1.793 9358
-0.591 2.929 1.722 1300
-0.614 3.043 1.773 8820
-0.640 3.173 1.844 883
-0.619 3.068 1.776 7741
-0.645 3.199 1.846 770
-0.621 3.080 1.770 6844
-0.648 3.210 1.841 845
-0.618 3.064 1.750 5882
-0.644 3.195 1.820 1969
-0.627 3.110 1.763 6633
-0.654 3.241 1.833 1907
-0.632 3.135 1.765 8006
-0.659 3.266 1.834 1499
-0.633 3.140 1.756 6294
-0.660 3.271 1.824 2017
-0.651 3.227 1.790 8044
-0.625 3.096 1.721 2293
-0.639 3.170 1.748 9986
-0.676 3.350 1.841 1758
-0.640 3.174 1.739 12990
-0.673 3.334 1.821 2026
-0.640 3.172 1.726 10805
-0.667 3.304 1.793 3107
-0.656 3.253 1.755 10325
-0.630 3.121 1.689 3402
-0.659 3.265 1.749 11382
-0.632 3.132 1.683 3325
-0.659 3.269 1.740 13329
-0.633 3.137 1.674 2839
-0.660 3.274 1.730 12367
-0.752 3.728 1.954 2298
-0.656 3.250 1.707 7101
-0.753 3.733 1.943 3225
-0.655 3.248 1.694 5636
-0.751 3.724 1.926 3973
-0.656 3.252 1.684 5444
-0.749 3.715 1.908 5183
-0.681 3.376 1.732 4529
-0.750 3.720 1.897 3644
-0.683 3.388 1.725 3451
-0.760 3.767 1.906 2318
-0.771 3.822 1.918 2723
-0.684 3.392 1.715 2231
-0.772 3.827 1.907 5112
-0.684 3.390 1.702 1866
-0.770 3.818 1.889 5768
-0.797 3.952 1.952 2783
-0.793 3.929 1.927 5649
-0.765 3.794 1.865 3041
-0.792 3.927 1.912 4743
-0.765 3.792 1.851 1514
-0.785 3.889 1.881 6116
-0.812 4.024 1.942 2136
-0.809 4.008 1.921 6611
-0.781 3.873 1.860 4085
-0.811 4.020 1.912 9384
-0.784 3.885 1.852 3393
-0.813 4.032 1.904 8318
-0.786 3.897 1.844 3837
-0.819 4.059 1.901 7602
-0.791 3.923 1.842 2743
-0.818 4.057 1.886 7508
-0.853 4.228 1.961 2393
-0.835 4.140 1.908 6151
-0.808 4.004 1.850 5623
-0.851 4.217 1.927 4516
-0.806 3.995 1.832 3977
-0.857 4.250 1.927 7238
-0.830 4.114 1.869 3261
-0.860 4.263 1.917 8332
-0.887 4.399 1.975 2682
-0.859 4.261 1.902 7742
-0.887 4.397 1.959 4720
-0.884 4.381 1.937 7970
-0.856 4.244 1.880 5103
-0.885 4.386 1.924 8899
-0.857 4.249 1.868 1992
-0.883 4.376 1.905 9712
-0.910 4.513 1.961 1506
-0.884 4.381 1.892 8627
-0.912 4.519 1.948 1301
-0.902 4.473 1.914 6015
-0.875 4.336 1.859 1509
-0.906 4.493 1.907 7314
-0.879 4.355 1.852 1155
-0.903 4.476 1.885 6587
-0.931 4.613 1.939 2059
-0.904 4.481 1.872 4563
-0.932 4.619 1.926 3034
-0.934 4.631 1.915 4566
-0.906 4.493 1.861 2186
-0.935 4.636 1.901 4386
-0.907 4.498 1.848 1775
-0.936 4.641 1.887 4300
-0.908 4.503 1.835 2440
-0.939 4.653 1.876 6275
-0.911 4.515 1.824 2476
-0.940 4.658 1.863 8093
-0.969 4.804 1.917 2471
-0.930 4.612 1.830 6319
-0.970 4.809 1.903 3391
-0.965 4.785 1.878 4859
-0.930 4.610 1.814 2918
-0.965 4.783 1.861 7049
-1.002 4.965 1.928 3120
-0.966 4.787 1.847 6604
-1.001 4.963 1.911 2980
-0.983 4.873 1.862 4649
-0.955 4.734 1.812 2781
-0.985 4.885 1.850 5202
-1.014 5.024 1.900 2298
-0.988 4.897 1.838 5010
-1.034 5.125 1.918 3439
-1.010 5.005 1.860 5854
-1.038 5.145 1.908 3674
-1.011 5.010 1.845 4765
-1.039 5.150 1.893 2535
-1.012 5.015 1.830 2605
-1.068 5.294 1.926 2415
-1.075 5.329 1.920 3123
-1.033 5.123 1.850 2547
-1.076 5.334 1.904 4104
-1.040 5.157 1.845 2051
-1.076 5.332 1.886 5097
-1.105 5.479 1.935 2671
-1.077 5.337 1.870 4367
-1.106 5.484 1.919 2328
-1.076 5.334 1.852 3307
-1.127 5.586 1.934 2844
-1.098 5.443 1.870 3894
-1.126 5.583 1.915 3825
-1.102 5.463 1.858 3174
-1.132 5.611 1.905 2622
-1.139 5.645 1.898 2226
-1.104 5.475 1.844 2215
-1.141 5.658 1.884 2327
-1.170 5.799 1.928 1538
-1.142 5.663 1.867 2834
-1.171 5.804 1.910 1760
-1.170 5.802 1.891 2341
-1.142 5.660 1.848 2242
-1.203 5.963 1.921 2350
-1.173 5.814 1.876 2045
-1.202 5.960 1.901 1810
-1.174 5.819 1.859 1215
-1.226 6.077 1.917 2164
-1.182 5.861 1.853 1519
-1.260 6.247 1.947 2704
-1.222 6.060 1.892 1716
-1.260 6.244 1.926 4450
-1.222 6.058 1.872 1987
-1.259 6.242 1.905 3614
-1.288 6.384 1.946 1881
-1.286 6.374 1.923 3023
-1.257 6.232 1.883 2858
-1.288 6.387 1.906 2767
-1.260 6.244 1.866 2667
-1.333 6.609 1.947 2499
-1.262 6.257 1.850 1861
-1.334 6.614 1.927 2724
-1.306 6.472 1.889 1492
-1.317 6.529 1.884 2846
-1.355 6.717 1.934 2347
-1.442 7.150 2.028 3752
-1.356 6.722 1.914 2237
-1.443 7.155 2.007 3798
-1.483 7.350 2.058 2413
-1.482 7.348 2.035 2754
-1.443 7.153 1.984 2274
-1.487 7.369 2.017 2209
-1.449 7.181 1.969 1567
-1.509 7.480 2.022 1916
-1.480 7.337 1.986 1532
-1.530 7.583 2.024 1825
-1.562 7.741 2.064 1699
-1.531 7.588 2.002 1527
-1.567 7.769 2.046 1374
-1.640 8.130 2.110 1363
-1.535 7.609 1.983 1221
-1.707 8.460 2.164 1366
-1.641 8.135 2.086 1313
-1.757 8.708 2.197 1535
-1.596 7.914 2.008 999
-1.759 8.721 2.173 1649
-1.720 8.524 2.126 1224
-1.760 8.727 2.147 2408
-1.828 9.060 2.224 1912
-1.760 8.725 2.119 3640
-1.829 9.066 2.197 2295
-1.761 8.730 2.093 3651
-1.830 9.071 2.170 3048
-1.830 9.070 2.142 3313
-1.762 8.736 2.067 1987
-1.832 9.083 2.116 2893
-1.868 9.257 2.155 1300
-1.837 9.104 2.093 2064
-1.907 9.453 2.168 1554
-1.908 9.459 2.140 1473
-1.839 9.117 2.067 1452
-1.840 9.122 2.040 1600
-2.084 10.331 2.294 1237
-2.084 10.330 2.261 1703
-1.843 9.135 2.015 1296
-2.080 10.313 2.226 1549
-2.045 10.138 2.191 1075
-2.075 10.288 2.189 1373
-2.043 10.128 2.157 846
-2.206 10.934 2.285 1422
-2.087 10.347 2.169 1271
-2.090 10.361 2.140 1850
-2.207 10.940 2.253 1697
-2.090 10.359 2.108 1527
-2.210 10.954 2.222 1463
-2.333 11.563 2.303 1810
-2.232 11.067 2.209 1697
-2.332 11.561 2.267 2397
-2.234 11.072 2.177 1736
-2.333 11.567 2.233 2581
-2.235 11.078 2.144 1153
-2.333 11.565 2.197 2467
-2.463 12.208 2.312 1048
-2.336 11.579 2.164 2025
-2.467 12.229 2.278 1160
-2.723 13.498 2.460 1918
-2.337 11.585 2.130 1165
-2.724 13.504 2.420 1879
-2.820 13.979 2.500 764
-2.727 13.518 2.381 937
-2.579 12.783 2.258 815
-2.810 13.931 2.407 702
-2.578 12.781 2.219 682
-2.810 13.930 2.364 747
-2.345 11.622 1.994 533
-2.811 13.936 2.323 540
-2.734 13.551 2.221 500
-0.457 2.292 1.821 1391
-0.467 2.340 1.847 5590
-0.443 2.221 1.758 781
-0.470 2.358 1.849 10083
-0.446 2.238 1.761 933
-0.471 2.363 1.842 9863
-0.495 2.482 1.930 959
-0.472 2.367 1.835 9644
-0.496 2.487 1.923 1409
-0.482 2.417 1.861 8675
-0.458 2.297 1.773 1013
-0.484 2.428 1.858 10092
-0.508 2.548 1.945 1399
-0.485 2.433 1.851 10092
-0.509 2.553 1.938 2095
-0.486 2.438 1.844 11166
-0.510 2.558 1.930 2265
-0.488 2.449 1.842 12376
-0.512 2.570 1.928 2053
-0.491 2.460 1.839 10127
-0.515 2.581 1.925 1849
-0.493 2.471 1.836 8439
-0.518 2.599 1.926 2150
-0.495 2.483 1.834 6374
-0.519 2.604 1.918 2129
-0.501 2.513 1.844 4746
-0.525 2.635 1.929 1551
-0.502 2.518 1.837 4746
-0.526 2.640 1.921 1807
-0.506 2.536 1.838 5241
-0.530 2.658 1.922 1580
-0.507 2.541 1.831 6154
-0.531 2.663 1.914 1334
-0.508 2.545 1.823 6853
-0.532 2.668 1.906 2263
-0.510 2.557 1.820 7530
-0.534 2.680 1.903 2738
-0.526 2.639 1.865 7043
-0.502 2.516 1.783 4076
-0.527 2.644 1.857 8144
-0.503 2.521 1.775 3279
-0.531 2.662 1.858 7999
-0.506 2.538 1.776 3286
-0.534 2.680 1.859 8937
-0.510 2.556 1.778 4095
-0.537 2.692 1.855 8840
-0.512 2.567 1.774 3910
-0.542 2.716 1.860 10038
-0.517 2.592 1.780 5171
-0.539 2.702 1.839 10119
-0.514 2.577 1.759 2299
-0.538 2.700 1.827 11550
-0.513 2.575 1.748 921
-0.541 2.711 1.824 9313
-0.570 2.856 1.916 1390
-0.546 2.736 1.828 8159
-0.571 2.861 1.907 2054
-0.550 2.761 1.833 7420
-0.576 2.886 1.911 2011
-0.553 2.772 1.829 7180
-0.578 2.898 1.907 1903
-0.555 2.784 1.825 12047
-0.580 2.910 1.903 1591
-0.556 2.788 1.817 17268
-0.581 2.915 1.894 1643
-0.558 2.800 1.812 17580
-0.584 2.926 1.890 1498
-0.561 2.811 1.808 18105
-0.586 2.938 1.885 1498
-0.561 2.816 1.800 14065
-0.587 2.943 1.877 3054
-0.562 2.821 1.792 8488
-0.588 2.948 1.868 4611
-0.579 2.906 1.831 11676
-0.554 2.778 1.756 2403
-0.579 2.904 1.819 18133
-0.554 2.776 1.744 1424
-0.580 2.909 1.810 19471
-0.545 2.734 1.708 1041
-0.580 2.907 1.798 15804
-0.605 3.035 1.872 1351
-0.578 2.898 1.782 13054
-0.603 3.027 1.856 2021
-0.580 2.910 1.777 10185
-0.608 3.052 1.859 2587
-0.592 2.969 1.799 9835
-0.618 3.097 1.873 2016
-0.594 2.980 1.795 9148
-0.620 3.109 1.868 2774
-0.595 2.985 1.786 9185
-0.621 3.114 1.858 3378
-0.595 2.983 1.773 9354
-0.621 3.112 1.846 3761
-0.612 3.069 1.810 9238
-0.586 2.940 1.738 4145
-0.612 3.067 1.797 9540
-0.586 2.937 1.726 1608
-0.607 3.045 1.773 9643
-0.633 3.175 1.844 876
-0.613 3.077 1.779 8380
-0.639 3.207 1.850 726
-0.616 3.088 1.774 7696
-0.642 3.219 1.844 732
-0.617 3.093 1.765 6422
-0.643 3.223 1.835 1063
-0.620 3.111 1.763 7748
-0.646 3.242 1.833 1483
-0.625 3.137 1.765 9310
-0.652 3.268 1.834 1238
-0.626 3.141 1.756 7371
-0.652 3.272 1.824 1641
-0.642 3.222 1.786 7267
-0.616 3.090 1.718 2078
-0.632 3.171 1.748 10310
-0.606 3.040 1.680 1413
-0.633 3.176 1.739 13102
-0.660 3.308 1.806 1581
-0.631 3.166 1.722 10605
-0.658 3.298 1.790 3540
-0.649 3.254 1.755 10050
-0.623 3.122 1.689 3431
-0.651 3.266 1.749 10696
-0.625 3.134 1.683 3551
-0.652 3.271 1.740 11517
-0.626 3.138 1.674 2834
-0.653 3.275 1.730 10012
-0.742 3.722 1.951 2420
-0.648 3.252 1.707 6519
-0.745 3.735 1.943 3436
-0.648 3.249 1.694 6193
-0.741 3.719 1.922 4504
-0.741 3.717 1.908 5841
-0.650 3.261 1.688 5770
-0.673 3.378 1.732 4205
-0.742 3.722 1.897 3958
-0.674 3.382 1.722 3411
-0.752 3.769 1.906 2407
-0.762 3.823 1.918 2847
-0.675 3.387 1.712 2336
-0.763 3.829 1.907 5161
-0.676 3.391 1.702 1933
-0.780 3.911 1.932 5818
-0.753 3.777 1.870 4256
-0.784 3.931 1.927 5535
-0.757 3.796 1.865 3141
-0.783 3.929 1.912 4252
-0.755 3.787 1.847 1654
-0.776 3.891 1.881 4749
-0.803 4.026 1.942 2418
-0.801 4.017 1.924 6476
-0.774 3.882 1.863 3828
-0.802 4.022 1.912 9184
-0.775 3.887 1.852 3270
-0.804 4.034 1.904 8217
-0.777 3.899 1.844 3828
-0.807 4.046 1.895 7484
-0.780 3.911 1.835 2448
-0.806 4.044 1.880 7702
-0.833 4.180 1.939 2592
-0.799 4.006 1.850 6238
-0.826 4.142 1.908 5148
-0.841 4.219 1.927 4679
-0.798 4.004 1.835 3948
-0.849 4.260 1.930 6634
-0.819 4.109 1.866 2867
