-0.085 2.765 1.880 7050
-0.081 2.643 1.791 7678
-0.085 2.770 1.872 7434
-0.086 2.795 1.877 8788
-0.081 2.642 1.780 5376
-0.086 2.800 1.869 7652
-0.082 2.673 1.789 4364
-0.084 2.732 1.815 7709
-0.088 2.859 1.895 2896
-0.084 2.743 1.811 6325
-0.088 2.871 1.891 2701
-0.085 2.762 1.812 5214
-0.089 2.896 1.895 3591
-0.089 2.895 1.882 4117
-0.085 2.766 1.804 3167
-0.089 2.893 1.870 4683
-0.084 2.737 1.775 970
-0.089 2.891 1.858 3593
-0.095 3.094 1.980 1248
-0.088 2.876 1.837 2743
-0.095 3.100 1.972 1737
-0.089 2.901 1.841 2554
-0.095 3.105 1.963 2501
-0.095 3.110 1.954 3265
-0.089 2.906 1.833 2591
-0.096 3.116 1.945 3931
-0.089 2.904 1.820 3297
-0.096 3.128 1.940 4665
-0.089 2.909 1.812 4251
-0.096 3.126 1.927 4733
-0.089 2.914 1.804 4612
-0.093 3.035 1.863 5678
-0.089 2.905 1.787 3390
-0.093 3.027 1.846 6660
-0.097 3.157 1.921 2598
-0.093 3.038 1.841 6627
-0.097 3.169 1.916 2828
-0.094 3.050 1.836 6773
-0.098 3.181 1.910 2541
-0.097 3.145 1.878 6007
-0.093 3.014 1.804 3054
-0.097 3.157 1.873 6455
-0.093 3.026 1.799 2548
-0.097 3.169 1.868 7856
-0.093 3.037 1.795 3754
-0.098 3.181 1.862 8904
-0.094 3.049 1.790 3578
-0.098 3.186 1.853 8238
-0.103 3.345 1.941 3461
-0.098 3.198 1.848 6897
-0.103 3.344 1.927 4606
-0.099 3.210 1.842 6666
-0.103 3.342 1.914 5777
-0.098 3.208 1.829 7654
-0.103 3.354 1.908 5258
-0.099 3.213 1.820 7286
-0.103 3.359 1.898 4249
-0.099 3.217 1.811 6919
-0.103 3.350 1.881 3819
-0.099 3.222 1.802 6080
-0.103 3.355 1.872 5352
-0.103 3.346 1.855 7935
-0.099 3.213 1.785 3243
-0.103 3.358 1.849 8326
-0.107 3.492 1.918 2304
-0.103 3.363 1.839 6661
-0.107 3.497 1.908 2789
-0.104 3.404 1.847 3500
-0.109 3.538 1.916 2470
-0.105 3.430 1.848 3922
-0.109 3.564 1.916 1629
-0.106 3.449 1.845 5744
-0.110 3.583 1.913 2393
-0.106 3.468 1.843 8681
-0.111 3.603 1.910 4290
-0.107 3.480 1.836 7916
-0.111 3.615 1.903 5204
-0.107 3.492 1.830 6187
-0.111 3.627 1.896 3547
-0.109 3.547 1.844 7566
-0.113 3.682 1.910 4625
-0.109 3.566 1.840 8968
-0.114 3.701 1.906 4910
-0.110 3.585 1.837 10149
-0.114 3.721 1.902 3904
-0.110 3.583 1.823 8732
-0.114 3.719 1.888 6620
-0.115 3.752 1.891 9504
-0.110 3.595 1.816 5131
-0.115 3.750 1.877 8933
-0.111 3.614 1.813 3264
-0.115 3.748 1.863 8021
-0.093 3.017 1.521 2792
-0.115 3.753 1.852 6903
-0.119 3.890 1.915 3320
-0.116 3.765 1.844 6607
-0.120 3.902 1.907 4480
-0.116 3.763 1.830 6489
-0.120 3.900 1.892 5363
-0.119 3.883 1.871 6747
-0.115 3.746 1.810 3646
-0.119 3.881 1.857 8088
-0.115 3.744 1.795 2114
-0.120 3.894 1.849 8295
-0.124 4.031 1.910 2273
-0.120 3.913 1.844 8784
-0.124 4.051 1.905 3548
-0.121 3.940 1.842 6980
-0.125 4.077 1.903 2545
-0.123 4.017 1.863 5525
-0.119 3.879 1.803 1609
-0.123 4.022 1.851 5871
-0.119 3.884 1.792 1727
-0.123 4.013 1.833 5662
-0.129 4.187 1.908 1454
-0.124 4.025 1.825 4749
-0.128 4.171 1.887 1791
-0.125 4.081 1.835 5363
-0.130 4.234 1.899 3206
-0.130 4.246 1.890 5753
-0.125 4.086 1.823 5233
-0.131 4.281 1.890 5732
-0.126 4.098 1.814 4303
-0.133 4.330 1.896 6165
-0.126 4.110 1.805 4337
-0.133 4.342 1.886 8239
-0.129 4.203 1.829 6228
-0.134 4.355 1.876 6146
-0.129 4.215 1.820 5136
-0.130 4.249 1.820 5040
-0.135 4.389 1.876 2702
-0.134 4.372 1.854 4526
-0.130 4.232 1.799 3029
-0.135 4.384 1.844 4495
-0.140 4.568 1.917 4439
-0.140 4.566 1.901 6038
-0.135 4.397 1.835 3090
-0.138 4.490 1.856 6476
-0.142 4.630 1.911 3250
-0.138 4.488 1.840 6272
-0.142 4.628 1.894 3325
-0.141 4.604 1.870 5831
-0.137 4.463 1.816 3248
-0.142 4.631 1.865 9192
-0.137 4.475 1.806 1717
-0.142 4.636 1.851 8418
-0.147 4.777 1.904 2119
-0.143 4.648 1.841 6902
-0.147 4.789 1.893 3495
-0.143 4.661 1.830 7170
-0.148 4.832 1.893 3700
-0.148 4.837 1.879 5790
-0.143 4.673 1.819 5015
-0.149 4.842 1.865 6954
-0.144 4.700 1.814 3880
-0.148 4.817 1.840 5676
-0.144 4.675 1.790 2618
-0.148 4.807 1.821 6199
-0.143 4.665 1.771 2149
-0.149 4.842 1.818 5959
-0.154 5.006 1.875 1846
-0.149 4.847 1.804 4831
-0.154 5.026 1.866 1500
-0.149 4.844 1.787 2834
-0.160 5.211 1.913 2302
-0.160 5.208 1.895 4907
-0.151 4.924 1.798 3686
-0.160 5.221 1.883 5340
-0.151 4.921 1.782 3476
-0.158 5.158 1.845 4980
-0.151 4.926 1.768 1824
-0.159 5.163 1.830 4208
-0.165 5.366 1.897 2870
-0.164 5.356 1.877 4457
-0.160 5.213 1.830 2697
-0.165 5.361 1.862 5075
-0.169 5.504 1.908 2702
-0.165 5.359 1.844 3505
-0.172 5.592 1.919 2443
-0.164 5.341 1.821 2335
-0.172 5.605 1.905 2328
-0.169 5.505 1.855 2766
-0.173 5.648 1.900 1651
-0.172 5.593 1.865 3447
-0.180 5.849 1.945 2646
-0.180 5.855 1.928 4336
-0.172 5.613 1.854 2499
-0.180 5.867 1.914 5161
-0.173 5.648 1.847 1815
-0.181 5.880 1.899 4413
-0.174 5.661 1.833 1876
-0.181 5.893 1.884 4534
-0.174 5.665 1.816 1756
-0.181 5.898 1.867 4611
-0.190 6.179 1.950 1227
-0.181 5.903 1.850 2626
-0.188 6.138 1.919 1115
-0.182 5.923 1.837 2256
-0.196 6.379 1.969 1948
-0.196 6.392 1.953 2625
-0.201 6.537 1.994 2487
-0.201 6.534 1.973 3796
-0.196 6.390 1.932 2652
-0.201 6.532 1.952 3118
-0.206 6.715 2.003 2840
-0.207 6.736 1.988 3438
-0.202 6.591 1.948 2327
-0.208 6.772 1.977 4311
-0.212 6.917 2.017 2653
-0.212 6.914 1.995 4563
-0.208 6.769 1.955 3356
-0.212 6.920 1.974 4017
-0.208 6.775 1.936 3571
-0.209 6.795 1.920 4149
-0.213 6.941 1.958 2122
-0.217 7.061 1.968 2336
-0.209 6.793 1.898 2265
-0.216 7.043 1.942 1979
-0.231 7.533 2.068 1488
-0.236 7.677 2.082 2215
-0.225 7.317 1.990 1547
-0.236 7.690 2.061 3129
-0.225 7.322 1.969 1620
-0.236 7.704 2.041 2521
-0.244 7.942 2.100 1680
-0.244 7.940 2.075 2159
-0.237 7.724 2.022 2114
-0.244 7.938 2.050 1815
-0.237 7.722 1.998 1319
-0.251 8.189 2.086 1512
-0.245 7.982 2.036 1304
-0.252 8.203 2.064 1355
-0.257 8.372 2.104 1278
-0.257 8.362 2.076 1505
-0.266 8.655 2.144 1436
-0.267 8.692 2.126 2025
-0.273 8.877 2.169 1098
-0.267 8.698 2.101 2508
-0.276 8.991 2.168 1201
-0.267 8.688 2.072 2168
-0.275 8.950 2.131 1203
-0.267 8.686 2.046 1696
-0.274 8.910 2.095 1617
-0.273 8.900 2.066 1963
-0.267 8.707 2.024 1052
-0.273 8.906 2.040 1388
-0.278 9.053 2.071 1053
-0.278 9.043 2.042 1347
-0.299 9.732 2.188 1274
-0.298 9.707 2.153 2068
-0.305 9.939 2.201 1649
-0.298 9.705 2.123 2020
-0.304 9.899 2.163 970
-0.298 9.711 2.095 1271
-0.319 10.401 2.235 1152
-0.319 10.384 2.200 1706
-0.312 10.166 2.156 1389
-0.319 10.382 2.168 1599
-0.313 10.195 2.132 1467
-0.339 11.040 2.264 1414
-0.321 10.450 2.150 1130
-0.348 11.326 2.285 1338
-0.333 10.837 2.192 1075
-0.329 10.710 2.136 1279
-0.348 11.333 2.252 1248
-0.345 11.237 2.201 1092
-0.329 10.716 2.105 1074
-0.357 11.633 2.239 1366
-0.334 10.878 2.102 1088
-0.357 11.631 2.203 1091
-0.334 10.891 2.071 1089
-0.365 11.894 2.215 932
-0.373 12.136 2.257 869
-0.365 11.900 2.180 845
-0.394 12.836 2.341 807
-0.394 12.842 2.304 909
-0.400 13.022 2.334 906
-0.418 13.629 2.396 969
-0.400 13.020 2.295 826
-0.418 13.620 2.354 895
-0.423 13.769 2.378 776
-0.049 1.612 0.073 983
-0.049 1.612 0.069 1551
-0.049 1.612 0.064 2119
-0.049 1.612 0.060 2905
-0.049 1.611 0.055 3691
-0.049 1.611 0.051 4450
-0.049 1.611 0.046 5208
-0.049 1.610 0.041 5824
-0.050 1.618 0.036 6389
-0.050 1.618 0.032 6599
-0.050 1.617 0.027 6759
-0.050 1.617 0.023 6623
-0.050 1.625 0.017 6527
-0.050 1.616 0.014 5882
-0.050 1.616 0.009 5278
-0.050 1.616 0.004 4698
-0.050 1.615 -0.000 4034
-0.050 1.615 -0.005 3949
-0.050 1.614 -0.009 3131
-0.050 1.622 -0.015 2345
-0.050 1.621 -0.019 1643
-0.050 1.613 -0.023 958
-0.067 2.336 1.821 2298
-0.068 2.373 1.837 7168
-0.063 2.213 1.720 924
-0.068 2.390 1.840 10855
-0.063 2.218 1.714 924
-0.070 2.447 1.870 12766
-0.066 2.325 1.782 1302
-0.070 2.458 1.868 15450
-0.067 2.336 1.780 1355
-0.070 2.463 1.861 14804
-0.067 2.341 1.773 1043
-0.070 2.468 1.854 14159
-0.071 2.473 1.847 14159
-0.074 2.596 1.933 817
-0.071 2.478 1.840 12153
-0.074 2.601 1.926 1334
-0.071 2.496 1.842 10274
-0.075 2.619 1.928 1463
-0.071 2.488 1.825 10106
-0.075 2.612 1.911 2289
-0.071 2.493 1.818 10064
-0.075 2.617 1.904 2728
-0.071 2.498 1.811 9272
-0.075 2.622 1.896 3546
-0.072 2.509 1.808 8560
-0.075 2.634 1.893 4243
-0.072 2.514 1.801 8560
-0.075 2.639 1.885 4745
-0.075 2.611 1.856 6837
-0.071 2.486 1.772 3482
-0.075 2.609 1.844 8124
-0.078 2.734 1.927 1812
-0.075 2.614 1.837 8177
-0.078 2.740 1.920 2421
-0.075 2.632 1.838 8517
-0.079 2.758 1.920 2472
-0.075 2.624 1.822 9651
-0.079 2.750 1.904 3660
-0.075 2.622 1.810 11061
-0.078 2.748 1.892 4496
-0.075 2.634 1.806 10236
-0.079 2.760 1.888 5334
-0.075 2.639 1.799 9477
-0.079 2.765 1.880 6508
-0.075 2.644 1.791 7096
-0.079 2.770 1.872 7084
-0.080 2.795 1.877 8517
-0.076 2.668 1.797 4731
-0.080 2.807 1.873 7226
-0.077 2.680 1.793 4637
-0.078 2.732 1.815 8628
-0.082 2.859 1.895 2967
-0.078 2.743 1.811 6975
-0.082 2.871 1.891 2542
-0.079 2.768 1.816 6110
-0.083 2.896 1.895 3168
-0.081 2.821 1.837 5802
-0.084 2.949 1.915 2308
-0.081 2.839 1.837 6543
-0.085 2.967 1.915 2321
-0.081 2.851 1.833 4757
-0.085 2.979 1.911 1647
-0.082 2.869 1.833 3378
-0.089 3.107 1.976 1537
-0.083 2.901 1.841 3248
-0.089 3.105 1.963 2173
-0.083 2.899 1.829 3535
-0.089 3.110 1.954 2813
-0.089 3.116 1.945 3512
-0.083 2.904 1.820 3458
-0.089 3.128 1.940 4230
-0.083 2.902 1.808 3859
-0.087 3.037 1.875 4812
-0.083 2.907 1.800 4563
-0.087 3.035 1.863 6114
-0.083 2.905 1.787 3316
-0.086 3.027 1.846 7172
-0.090 3.157 1.921 2626
-0.087 3.039 1.841 7244
-0.091 3.169 1.916 2690
-0.087 3.057 1.840 7711
-0.091 3.188 1.914 2000
-0.087 3.062 1.831 6936
-0.092 3.235 1.928 2476
-0.088 3.074 1.826 6299
-0.093 3.240 1.919 3093
-0.091 3.169 1.868 7470
-0.087 3.037 1.795 3597
-0.091 3.174 1.858 8822
-0.087 3.042 1.786 2949
-0.091 3.186 1.853 8244
-0.096 3.346 1.941 3504
-0.091 3.198 1.848 7102
-0.095 3.344 1.927 4544
-0.092 3.210 1.842 7285
-0.096 3.349 1.918 5609
-0.092 3.215 1.833 8069
-0.096 3.354 1.908 5360
-0.092 3.220 1.824 7320
-0.096 3.366 1.902 4796
-0.092 3.218 1.811 6767
-0.096 3.372 1.892 4447
-0.092 3.222 1.802 6191
-0.096 3.356 1.872 5786
-0.096 3.347 1.855 8192
-0.092 3.213 1.785 3404
-0.096 3.359 1.849 8346
-0.100 3.492 1.918 2677
-0.096 3.364 1.839 6556
-0.100 3.497 1.908 2983
-0.098 3.432 1.862 3963
-0.102 3.566 1.930 1578
-0.098 3.437 1.852 4860
-0.102 3.571 1.920 1779
-0.098 3.442 1.842 6314
-0.102 3.576 1.909 2218
-0.099 3.454 1.835 8117
-0.102 3.589 1.903 3612
-0.099 3.466 1.829 6968
-0.103 3.601 1.896 4620
-0.100 3.485 1.826 5409
-0.103 3.620 1.892 3444
-0.101 3.547 1.844 6280
-0.105 3.682 1.910 4225
-0.102 3.559 1.837 7689
-0.106 3.694 1.903 4889
-0.102 3.578 1.834 8327
-0.108 3.771 1.926 3988
-0.102 3.583 1.823 7643
-0.106 3.719 1.888 6156
-0.107 3.753 1.891 9006
-0.103 3.595 1.816 4764
-0.107 3.751 1.877 8174
-0.103 3.615 1.813 2669
-0.107 3.741 1.859 7436
-0.111 3.878 1.923 2637
-0.107 3.746 1.848 6579
-0.111 3.883 1.912 3722
-0.108 3.766 1.844 6519
-0.111 3.902 1.907 4082
-0.107 3.763 1.830 6208
-0.111 3.900 1.892 5206
-0.111 3.877 1.868 7527
-0.107 3.740 1.806 3351
-0.111 3.882 1.857 8499
-0.107 3.744 1.795 1978
-0.111 3.894 1.849 8106
-0.115 4.031 1.910 2052
-0.112 3.913 1.844 8345
-0.116 4.051 1.905 3383
-0.113 3.940 1.842 7289
-0.116 4.078 1.903 2593
-0.115 4.010 1.860 5471
-0.111 3.872 1.800 1498
-0.115 4.022 1.851 5710
-0.111 3.884 1.792 1779
-0.115 4.020 1.836 5308
-0.119 4.180 1.905 1685
-0.115 4.025 1.825 4558
-0.119 4.178 1.890 2044
-0.117 4.081 1.835 4566
-0.121 4.227 1.896 3238
-0.121 4.239 1.887 5702
-0.117 4.086 1.823 4953
-0.122 4.274 1.887 5445
-0.117 4.091 1.811 4432
-0.124 4.330 1.896 5923
-0.120 4.191 1.838 4185
-0.124 4.342 1.886 7244
-0.120 4.203 1.829 6205
-0.121 4.245 1.832 6464
-0.125 4.384 1.888 3589
-0.121 4.250 1.820 5458
-0.125 4.389 1.876 2194
-0.122 4.262 1.810 4010
-0.126 4.402 1.866 2504
-0.130 4.561 1.914 4517
-0.125 4.385 1.844 3628
-0.130 4.567 1.901 6365
-0.126 4.397 1.835 3091
-0.128 4.490 1.856 6434
-0.132 4.631 1.911 3065
-0.128 4.481 1.838 7048
-0.132 4.621 1.891 3752
-0.132 4.611 1.873 5598
-0.128 4.471 1.819 4169
-0.132 4.624 1.862 9056
-0.128 4.483 1.809 1713
-0.132 4.636 1.851 8496
-0.136 4.777 1.904 1968
-0.133 4.641 1.838 6544
-0.137 4.782 1.890 3642
-0.133 4.654 1.827 6469
-0.138 4.832 1.893 3556
-0.138 4.837 1.879 6047
-0.133 4.666 1.817 4985
-0.138 4.849 1.867 7767
-0.134 4.708 1.817 4233
-0.138 4.817 1.840 6774
-0.134 4.676 1.790 3480
-0.137 4.807 1.821 6723
-0.133 4.666 1.771 2711
-0.138 4.842 1.818 6289
-0.134 4.700 1.768 2038
-0.138 4.847 1.804 5337
-0.144 5.026 1.866 1285
-0.138 4.844 1.787 3186
-0.149 5.211 1.913 2219
-0.149 5.216 1.898 4588
-0.141 4.931 1.801 3890
-0.149 5.221 1.883 5560
-0.141 4.929 1.784 3318
-0.148 5.166 1.848 5321
-0.141 4.934 1.770 1794
-0.148 5.171 1.833 4455
-0.153 5.374 1.900 2720
-0.153 5.364 1.879 4084
-0.149 5.221 1.833 3280
-0.153 5.362 1.862 4470
-0.157 5.512 1.910 2542
-0.153 5.359 1.844 3250
-0.160 5.593 1.919 2493
-0.153 5.341 1.821 2563
-0.158 5.522 1.878 2255
-0.158 5.520 1.860 3190
-0.163 5.724 1.924 1605
-0.158 5.525 1.844 3843
-0.167 5.857 1.948 2690
-0.167 5.855 1.928 4336
-0.160 5.613 1.854 2469
-0.167 5.860 1.911 5337
-0.162 5.671 1.854 1997
-0.168 5.873 1.897 4343
-0.161 5.653 1.830 2042
-0.168 5.886 1.882 4480
-0.162 5.666 1.816 1693
-0.168 5.898 1.867 4677
-0.176 6.172 1.948 1492
-0.169 5.903 1.850 2562
-0.174 6.078 1.901 1354
-0.169 5.916 1.835 2083
-0.182 6.380 1.969 1727
-0.186 6.530 1.992 2927
-0.178 6.218 1.903 2558
-0.187 6.535 1.973 4414
-0.182 6.390 1.932 2544
-0.187 6.533 1.952 3769
-0.192 6.708 2.001 3140
-0.192 6.721 1.984 3432
-0.187 6.538 1.933 2604
-0.193 6.772 1.977 3804
-0.198 6.917 2.017 2684
-0.197 6.915 1.995 4772
-0.193 6.770 1.955 3270
-0.198 6.920 1.974 4402
-0.193 6.775 1.936 3555
-0.194 6.788 1.918 3909
-0.198 6.933 1.956 2431
-0.202 7.069 1.970 2114
-0.194 6.793 1.898 1987
-0.201 7.036 1.940 1856
-0.218 7.626 2.092 1805
-0.219 7.670 2.080 2009
-0.208 7.279 1.980 1359
-0.220 7.691 2.061 2527
-0.229 8.021 2.144 1414
-0.220 7.704 2.041 2111
-0.227 7.942 2.100 2031
-0.227 7.948 2.077 2657
-0.221 7.733 2.024 1993
-0.227 7.946 2.052 2015
-0.233 8.153 2.102 1378
-0.234 8.182 2.084 1712
-0.228 7.974 2.035 1330
-0.234 8.196 2.062 1455
-0.239 8.365 2.102 1376
-0.247 8.664 2.146 1434
-0.239 8.363 2.076 1420
-0.248 8.685 2.125 2070
-0.244 8.531 2.089 1111
-0.248 8.691 2.099 2407
-0.257 8.991 2.168 1305
-0.248 8.681 2.071 2188
-0.256 8.959 2.133 1193
-0.248 8.686 2.046 1751
-0.255 8.918 2.097 1686
-0.254 8.901 2.066 2105
-0.259 9.086 2.106 1091
-0.254 8.899 2.038 1470
-0.259 9.053 2.071 1099
-0.258 9.051 2.044 1311
-0.283 9.926 2.229 1284
-0.277 9.707 2.153 2186
-0.284 9.940 2.201 1778
-0.277 9.705 2.123 2123
-0.284 9.954 2.174 1058
-0.278 9.719 2.097 1362
-0.270 9.440 2.040 1096
-0.297 10.384 2.200 1547
-0.291 10.183 2.160 1254
-0.315 11.043 2.298 1471
-0.291 10.196 2.132 1384
-0.315 11.033 2.263 1438
-0.299 10.474 2.154 1204
-0.323 11.327 2.285 1281
-0.299 10.472 2.123 1150
-0.306 10.719 2.137 1513
-0.324 11.341 2.254 1254
-0.306 10.717 2.105 1281
-0.321 11.230 2.199 1207
-0.332 11.626 2.237 1419
-0.316 11.073 2.137 1197
-0.332 11.632 2.203 1163
-0.311 10.899 2.073 1152
-0.340 11.895 2.215 939
-0.347 12.137 2.257 894
-0.340 11.893 2.179 898
-0.374 13.079 2.383 772
-0.373 13.046 2.338 825
-0.367 12.843 2.304 773
-0.389 13.630 2.396 969
-0.389 13.621 2.354 943
-0.372 13.043 2.260 759
-0.373 13.065 2.224 817
-0.389 13.620 2.313 782
-0.046 1.619 0.050 887
-0.046 1.619 0.046 1155
-0.046 1.618 0.041 1444
-0.046 1.618 0.036 1717
-0.046 1.626 0.031 1876
-0.046 1.618 0.027 2043
-0.046 1.625 0.022 2047
-0.046 1.625 0.017 2076
-0.046 1.624 0.013 1854
-0.046 1.616 0.009 1650
-0.046 1.616 0.004 1402
-0.046 1.615 -0.000 1130
-0.046 1.615 -0.005 1106
-0.046 1.622 -0.010 810
-0.062 2.336 1.821 2531
-0.063 2.373 1.837 7791
-0.059 2.219 1.725 1028
-0.063 2.391 1.840 11922
-0.060 2.269 1.751 1075
-0.065 2.447 1.870 13225
-0.062 2.325 1.782 1540
-0.065 2.452 1.863 16085
-0.062 2.330 1.775 1341
-0.065 2.463 1.861 15506
-0.062 2.341 1.773 1175
-0.065 2.468 1.854 15070
-0.062 2.346 1.767 764
-0.066 2.473 1.847 15070
-0.062 2.350 1.760 764
-0.066 2.478 1.840 13210
-0.069 2.601 1.926 1197
-0.066 2.490 1.837 11519
-0.069 2.613 1.923 1570
-0.066 2.495 1.830 10683
-0.069 2.618 1.916 2084
-0.066 2.493 1.818 9894
-0.069 2.617 1.904 2783
-0.066 2.504 1.816 9053
-0.070 2.629 1.901 3269
-0.067 2.509 1.808 8260
-0.070 2.634 1.893 4405
-0.067 2.514 1.801 8260
-0.070 2.639 1.885 4871
-0.069 2.611 1.856 7204
-0.066 2.486 1.772 3348
-0.069 2.609 1.844 8441
-0.072 2.735 1.927 2132
-0.069 2.614 1.837 8202
-0.073 2.740 1.920 2871
-0.070 2.626 1.833 8229
-0.073 2.752 1.916 3307
-0.070 2.624 1.822 9436
-0.073 2.750 1.904 4418
-0.070 2.623 1.810 10973
-0.073 2.749 1.892 5521
-0.070 2.634 1.806 10019
-0.073 2.760 1.888 5880
-0.070 2.639 1.799 9224
-0.073 2.765 1.880 6656
-0.073 2.771 1.872 7189
-0.070 2.644 1.791 6578
-0.074 2.796 1.877 8671
-0.071 2.669 1.797 4416
-0.074 2.807 1.873 7420
-0.071 2.680 1.793 4490
-0.072 2.725 1.811 8134
-0.076 2.853 1.890 4299
-0.075 2.817 1.857 7063
-0.071 2.690 1.778 3436
-0.075 2.816 1.845 8166
-0.071 2.688 1.766 2053
-0.075 2.827 1.841 8517
-0.078 2.956 1.920 2091
-0.075 2.832 1.833 9153
-0.078 2.961 1.911 2717
-0.075 2.844 1.829 6594
-0.079 2.973 1.907 2014
-0.076 2.856 1.825 4110
-0.079 2.985 1.902 1555
-0.076 2.881 1.829 3486
-0.082 3.105 1.963 1824
-0.077 2.900 1.829 3659
-0.082 3.111 1.954 2337
-0.077 2.905 1.820 3482
-0.083 3.116 1.945 3015
-0.080 3.026 1.880 4018
-0.077 2.896 1.804 3773
-0.081 3.037 1.875 4989
-0.077 2.907 1.800 4527
-0.080 3.036 1.863 6689
-0.077 2.905 1.787 3365
-0.080 3.034 1.850 7888
-0.084 3.164 1.925 2452
-0.081 3.046 1.845 7992
-0.084 3.176 1.920 2443
-0.081 3.057 1.840 8570
-0.085 3.188 1.914 2023
-0.081 3.069 1.835 7713
-0.086 3.235 1.928 2156
-0.081 3.074 1.826 6764
-0.086 3.247 1.923 2659
-0.084 3.162 1.864 6800
-0.080 3.031 1.791 2489
-0.084 3.167 1.855 8251
-0.088 3.334 1.946 2461
-0.084 3.179 1.849 7861
-0.089 3.346 1.941 3516
-0.085 3.191 1.844 7039
-0.089 3.344 1.927 4446
-0.085 3.217 1.846 7938
-0.089 3.349 1.918 5384
-0.085 3.222 1.837 8672
-0.089 3.354 1.908 5377
-0.085 3.220 1.824 7221
-0.089 3.367 1.902 5229
-0.085 3.218 1.811 6242
-0.089 3.372 1.892 4968
-0.089 3.342 1.864 6055
-0.085 3.209 1.794 5185
-0.089 3.347 1.855 8030
-0.085 3.213 1.785 3219
-0.089 3.352 1.845 8105
-0.092 3.485 1.914 3068
-0.089 3.357 1.835 6302
-0.093 3.491 1.904 3222
-0.091 3.439 1.865 4724
-0.095 3.573 1.933 1729
-0.091 3.437 1.852 5569
-0.095 3.571 1.920 2097
-0.091 3.442 1.842 6829
-0.095 3.577 1.909 2399
-0.092 3.454 1.835 7993
-0.095 3.589 1.903 4042
-0.092 3.466 1.829 6598
-0.095 3.601 1.896 5362
-0.092 3.471 1.819 5129
-0.096 3.606 1.885 4875
-0.094 3.554 1.847 5605
-0.098 3.690 1.913 3857
-0.095 3.574 1.844 7299
-0.098 3.709 1.909 3127
-0.095 3.586 1.837 8948
-0.100 3.778 1.930 3869
-0.095 3.591 1.827 8123
-0.100 3.769 1.912 5632
-0.098 3.681 1.857 8414
-0.101 3.817 1.921 3173
-0.099 3.751 1.877 7634
-0.096 3.615 1.813 4100
-0.099 3.742 1.859 7238
-0.103 3.878 1.923 2917
-0.099 3.739 1.845 6570
-0.103 3.876 1.908 4175
-0.100 3.759 1.841 6504
-0.103 3.895 1.904 4529
-0.103 3.872 1.879 6412
-0.099 3.735 1.817 5079
-0.103 3.877 1.868 8032
-0.099 3.740 1.806 3322
-0.103 3.882 1.857 8514
-0.099 3.745 1.795 1940
-0.103 3.894 1.849 7718
-0.107 4.039 1.913 1778
-0.104 3.921 1.847 7920
-0.108 4.058 1.908 2864
-0.104 3.940 1.842 7649
-0.108 4.078 1.903 2534
-0.106 4.010 1.860 5323
-0.103 3.873 1.800 1512
-0.106 4.015 1.848 5220
-0.110 4.154 1.908 1495
-0.106 4.013 1.833 4672
-0.110 4.151 1.892 1937
-0.107 4.025 1.825 4031
-0.111 4.186 1.893 2373
-0.108 4.074 1.832 3943
-0.112 4.227 1.896 3272
-0.112 4.240 1.887 5413
-0.108 4.086 1.823 4363
-0.113 4.267 1.884 5050
-0.108 4.091 1.811 4328
-0.115 4.323 1.893 5557
-0.109 4.103 1.802 4377
-0.115 4.343 1.886 6446
-0.111 4.203 1.829 5706
-0.113 4.245 1.832 6452
-0.116 4.384 1.888 3280
-0.113 4.250 1.820 5558
-0.116 4.390 1.876 2235
-0.113 4.262 1.810 4147
-0.117 4.402 1.866 2319
-0.121 4.562 1.914 4229
-0.116 4.378 1.842 3451
-0.121 4.567 1.901 6342
-0.117 4.397 1.835 3213
-0.121 4.572 1.888 6409
-0.117 4.432 1.833 2740
-0.119 4.481 1.838 6274
-0.122 4.621 1.891 3957
-0.122 4.619 1.875 5317
-0.119 4.478 1.822 4463
-0.123 4.631 1.865 8783
-0.119 4.491 1.812 2077
-0.123 4.629 1.849 8491
-0.126 4.770 1.901 1627
-0.123 4.641 1.838 6389
-0.127 4.782 1.890 2979
-0.123 4.654 1.827 6185
-0.127 4.795 1.879 3239
-0.128 4.837 1.879 5898
-0.124 4.666 1.817 4774
-0.129 4.850 1.867 8084
-0.125 4.708 1.817 4030
-0.129 4.862 1.856 7246
-0.124 4.683 1.792 3755
-0.128 4.815 1.824 6868
-0.124 4.673 1.773 3316
-0.128 4.842 1.818 6338
-0.125 4.700 1.768 2168
-0.128 4.847 1.804 5376
-0.132 4.989 1.853 1201
-0.129 4.852 1.790 3302
-0.138 5.211 1.913 2026
-0.138 5.216 1.898 4005
-0.131 4.932 1.801 3900
-0.138 5.214 1.880 5316
-0.131 4.929 1.784 3251
-0.137 5.174 1.850 5762
-0.131 4.941 1.773 1798
-0.137 5.171 1.833 4331
-0.143 5.382 1.902 2387
-0.139 5.244 1.840 3757
-0.143 5.387 1.887 3344
-0.142 5.362 1.862 3549
-0.138 5.219 1.815 2443
-0.142 5.344 1.839 2656
-0.146 5.510 1.892 2417
-0.146 5.515 1.876 2951
-0.142 5.342 1.821 2549
-0.146 5.520 1.860 3557
-0.152 5.724 1.924 1690
-0.146 5.518 1.842 3924
-0.155 5.858 1.948 2530
-0.155 5.855 1.928 4141
-0.147 5.545 1.833 2628
-0.155 5.861 1.911 5426
-0.150 5.671 1.854 2207
-0.156 5.873 1.897 4518
-0.150 5.654 1.830 2211
-0.156 5.886 1.882 4545
-0.150 5.666 1.816 1591
-0.156 5.899 1.867 4522
-0.163 6.142 1.939 1471
-0.156 5.904 1.850 2506
-0.162 6.109 1.910 1587
-0.157 5.909 1.833 2104
-0.164 6.190 1.914 1574
-0.173 6.522 1.990 3059
-0.165 6.218 1.903 2445
-0.173 6.528 1.971 4685
-0.169 6.383 1.930 2604
-0.173 6.533 1.952 4109
-0.178 6.708 2.001 3177
-0.178 6.714 1.982 3327
-0.173 6.531 1.931 2809
-0.179 6.750 1.971 3344
-0.183 6.902 2.012 2733
-0.183 6.915 1.995 4702
-0.179 6.755 1.951 3130
-0.183 6.921 1.974 4527
-0.180 6.775 1.936 3355
-0.180 6.788 1.918 3498
-0.184 6.934 1.956 2444
-0.188 7.077 1.972 1923
-0.180 6.793 1.898 1742
-0.202 7.634 2.094 1982
-0.186 7.036 1.940 1625
-0.203 7.663 2.078 2039
-0.199 7.517 2.041 1199
-0.204 7.684 2.059 2212
-0.213 8.021 2.144 1299
-0.211 7.950 2.102 2150
-0.204 7.712 2.043 1827
-0.211 7.948 2.077 2818
-0.205 7.733 2.024 1919
-0.211 7.946 2.052 2029
-0.216 8.154 2.102 1411
-0.217 8.190 2.086 1858
-0.213 8.036 2.049 1317
-0.217 8.196 2.062 1557
-0.225 8.496 2.133 1306
-0.230 8.664 2.146 1504
-0.226 8.510 2.110 1444
-0.230 8.685 2.125 2144
-0.226 8.523 2.087 1273
-0.230 8.691 2.099 2314
-0.226 8.544 2.066 1550
-0.230 8.681 2.071 2119
-0.238 8.967 2.135 1134
-0.230 8.679 2.044 1679
-0.237 8.926 2.098 1647
-0.236 8.909 2.067 2100
-0.241 9.087 2.106 1261
-0.236 8.907 2.040 1461
-0.240 9.062 2.073 1186
-0.239 9.021 2.037 1300
-0.263 9.919 2.227 1246
-0.257 9.708 2.153 2079
-0.263 9.940 2.201 1679
-0.257 9.706 2.123 2082
-0.264 9.954 2.174 1063
-0.258 9.720 2.097 1428
-0.250 9.440 2.040 1065
-0.275 10.393 2.201 1289
-0.270 10.191 2.161 1144
-0.293 11.043 2.298 1334
-0.270 10.197 2.132 1188
-0.293 11.042 2.264 1307
-0.278 10.482 2.156 1302
-0.278 10.480 2.124 1300
-0.300 11.328 2.285 1136
-0.284 10.719 2.137 1602
-0.301 11.342 2.254 1223
-0.284 10.717 2.105 1425
-0.298 11.231 2.199 1256
-0.308 11.626 2.237 1419
-0.293 11.073 2.137 1312
-0.293 11.064 2.102 1165
-0.308 11.632 2.203 1139
-0.322 12.137 2.257 873
-0.315 11.903 2.216 830
-0.315 11.894 2.179 940
-0.346 13.072 2.382 904
-0.346 13.062 2.341 952
-0.361 13.616 2.435 772
-0.361 13.623 2.395 927
-0.346 13.038 2.298 828
-0.361 13.614 2.353 959
-0.346 13.044 2.260 927
-0.346 13.066 2.224 1006
-0.361 13.620 2.313 780
-0.043 1.611 0.051 790
-0.043 1.619 0.046 1003
-0.043 1.619 0.041 1248
-0.043 1.618 0.036 1489
-0.043 1.618 0.032 1653
-0.043 1.618 0.027 1821
-0.043 1.625 0.022 1870
-0.043 1.625 0.017 1937
-0.043 1.624 0.013 1773
-0.043 1.616 0.009 1610
-0.043 1.616 0.004 1403
-0.043 1.615 -0.000 1179
-0.043 1.623 -0.005 1163
-0.043 1.622 -0.010 886
-0.056 2.336 1.821 2792
-0.057 2.373 1.837 8462
-0.053 2.226 1.730 1151
-0.057 2.391 1.840 13030
-0.054 2.269 1.751 1223
-0.058 2.441 1.866 13865
-0.056 2.319 1.777 1705
-0.059 2.452 1.863 16819
-0.056 2.330 1.775 1662
-0.059 2.457 1.856 16207
-0.056 2.335 1.769 1293
-0.059 2.468 1.854 15847
-0.056 2.346 1.767 967
-0.059 2.473 1.847 15847
-0.056 2.351 1.760 967
-0.059 2.478 1.840 14057
-0.062 2.602 1.926 1102
-0.060 2.490 1.837 12449
-0.063 2.613 1.923 1526
-0.060 2.495 1.830 11085
-0.063 2.618 1.916 2031
-0.060 2.500 1.823 9721
-0.063 2.624 1.908 2535
-0.060 2.505 1.816 8874
-0.063 2.629 1.901 3338
-0.060 2.509 1.808 8028
-0.063 2.634 1.893 4482
-0.060 2.514 1.801 8028
-0.063 2.639 1.885 4823
-0.062 2.605 1.851 7628
-0.059 2.480 1.768 2760
-0.062 2.603 1.840 8879
-0.065 2.728 1.923 2653
-0.063 2.615 1.837 8301
-0.066 2.740 1.920 3404
-0.063 2.626 1.833 8002
-0.066 2.752 1.916 4000
-0.063 2.611 1.813 9023
-0.066 2.737 1.895 6193
-0.063 2.616 1.805 10533
-0.066 2.742 1.887 7347
-0.063 2.628 1.802 9472
-0.066 2.754 1.884 7602
-0.063 2.639 1.799 8710
-0.066 2.766 1.880 7665
-0.066 2.764 1.868 8190
-0.063 2.637 1.787 5721
-0.067 2.796 1.877 8965
-0.064 2.669 1.797 4315
-0.067 2.808 1.873 7620
-0.064 2.680 1.793 4398
-0.065 2.725 1.811 7559
-0.068 2.853 1.890 4364
-0.067 2.818 1.857 7829
-0.064 2.690 1.778 2928
-0.067 2.816 1.845 9316
-0.070 2.944 1.924 1888
-0.068 2.828 1.841 9399
-0.071 2.956 1.920 2353
-0.068 2.839 1.837 9705
-0.071 2.968 1.915 2685
-0.068 2.844 1.829 6772
-0.071 2.973 1.907 2318
-0.069 2.863 1.829 4158
-0.072 2.992 1.906 1588
-0.069 2.881 1.829 3613
-0.072 3.010 1.906 1690
-0.069 2.900 1.829 3466
-0.073 3.029 1.905 1920
-0.070 2.905 1.820 3348
-0.073 3.034 1.897 2858
-0.072 3.026 1.880 3992
-0.069 2.896 1.804 3562
-0.073 3.038 1.875 5207
-0.070 2.908 1.800 4198
-0.073 3.036 1.863 7362
-0.070 2.906 1.787 3154
-0.073 3.034 1.850 8594
-0.076 3.164 1.925 2696
-0.073 3.046 1.845 8853
-0.076 3.176 1.920 2592
-0.073 3.065 1.844 9678
-0.076 3.195 1.918 1905
-0.073 3.070 1.835 8770
-0.077 3.228 1.925 2001
-0.074 3.074 1.826 7386
-0.078 3.247 1.923 2418
-0.074 3.079 1.818 6551
-0.077 3.211 1.891 2428
-0.076 3.167 1.855 7801
-0.080 3.334 1.946 2459
-0.076 3.166 1.842 7619
-0.080 3.339 1.937 3390
-0.076 3.191 1.844 7039
-0.080 3.344 1.927 4154
-0.077 3.217 1.846 8727
-0.080 3.350 1.918 4919
-0.077 3.229 1.841 9422
-0.080 3.362 1.912 5293
-0.077 3.227 1.828 7331
-0.081 3.367 1.902 5656
-0.077 3.218 1.811 5585
-0.081 3.372 1.892 5485
-0.080 3.349 1.868 5755
-0.077 3.216 1.798 5206
-0.080 3.347 1.855 7554
-0.077 3.214 1.785 2950
-0.080 3.352 1.845 7656
-0.083 3.486 1.914 3509
-0.080 3.357 1.835 5980
-0.084 3.491 1.904 3551
-0.082 3.440 1.865 6187
-0.086 3.573 1.933 1800
-0.082 3.437 1.852 7256
-0.086 3.579 1.923 2057
-0.082 3.442 1.842 8363
-0.086 3.591 1.916 2607
-0.083 3.447 1.832 9015
-0.086 3.596 1.906 4704
-0.083 3.459 1.826 6445
-0.086 3.601 1.896 6244
-0.087 3.614 1.889 6248
-0.083 3.471 1.819 4587
-0.087 3.647 1.892 6656
-0.084 3.512 1.826 3741
-0.086 3.574 1.844 6202
-0.089 3.709 1.909 3458
-0.086 3.586 1.837 7174
-0.090 3.771 1.926 4006
-0.086 3.591 1.827 7291
-0.090 3.777 1.915 5374
-0.088 3.667 1.850 8229
-0.091 3.803 1.915 4598
-0.088 3.658 1.833 8498
-0.091 3.794 1.897 4800
-0.089 3.735 1.856 7220
-0.093 3.871 1.919 3489
-0.089 3.732 1.842 6679
-0.093 3.869 1.905 4427
-0.090 3.759 1.841 6549
-0.093 3.896 1.904 4581
-0.093 3.865 1.876 7111
-0.089 3.728 1.814 4749
-0.093 3.870 1.865 8604
-0.089 3.733 1.803 3028
-0.093 3.882 1.857 8726
-0.090 3.745 1.795 1820
-0.093 3.894 1.849 7413
-0.097 4.061 1.923 1650
-0.094 3.921 1.847 7035
-0.097 4.058 1.908 2530
-0.095 3.948 1.846 7265
-0.098 4.085 1.906 2237
-0.096 4.003 1.856 4764
-0.099 4.141 1.916 1407
-0.096 4.023 1.851 4261
-0.100 4.176 1.917 1579
-0.096 4.021 1.836 3436
-0.100 4.173 1.902 2112
-0.097 4.033 1.828 3022
-0.100 4.186 1.893 2619
-0.098 4.074 1.832 3416
-0.101 4.220 1.893 3399
-0.101 4.240 1.887 5198
-0.098 4.086 1.823 4066
-0.102 4.267 1.884 4742
-0.098 4.091 1.811 4300
-0.103 4.316 1.890 5188
-0.098 4.096 1.799 4460
-0.102 4.240 1.844 5495
-0.105 4.380 1.901 3353
-0.102 4.245 1.832 6482
-0.105 4.385 1.888 3043
-0.102 4.258 1.823 5827
-0.105 4.397 1.879 2218
-0.102 4.262 1.810 4349
-0.105 4.402 1.866 2534
-0.109 4.562 1.914 3576
-0.105 4.370 1.839 3449
-0.109 4.560 1.898 5938
-0.105 4.398 1.835 3086
-0.109 4.565 1.885 6262
-0.106 4.425 1.831 2875
-0.107 4.481 1.838 7121
-0.111 4.622 1.891 4261
-0.108 4.494 1.828 5001
-0.111 4.634 1.881 4809
-0.111 4.624 1.862 7738
-0.107 4.484 1.809 2026
-0.111 4.629 1.849 7891
-0.107 4.489 1.796 1092
-0.111 4.634 1.835 5754
-0.114 4.775 1.887 2442
-0.111 4.654 1.827 5368
-0.115 4.795 1.879 3478
-0.116 4.830 1.876 6102
-0.112 4.659 1.814 4297
-0.116 4.850 1.867 8364
-0.113 4.709 1.817 3652
-0.117 4.870 1.859 7530
-0.112 4.691 1.795 3702
-0.115 4.815 1.824 6690
-0.112 4.674 1.773 3293
-0.116 4.843 1.818 6213
-0.113 4.701 1.768 2100
-0.116 4.847 1.804 5183
-0.119 4.990 1.853 1323
-0.116 4.852 1.790 3221
-0.125 5.219 1.916 1788
-0.118 4.940 1.804 3811
-0.125 5.217 1.898 3254
-0.125 5.207 1.878 4862
-0.118 4.937 1.787 3062
-0.124 5.182 1.853 6035
-0.119 4.957 1.778 1865
-0.124 5.179 1.835 4140
-0.129 5.382 1.902 2163
-0.126 5.244 1.840 3741
-0.129 5.387 1.887 2965
-0.126 5.249 1.825 2910
-0.132 5.505 1.908 2675
-0.132 5.510 1.892 2552
-0.128 5.337 1.836 2271
-0.132 5.523 1.878 2565
-0.128 5.342 1.821 2453
-0.132 5.521 1.860 2549
-0.137 5.717 1.922 1887
-0.132 5.518 1.842 2740
-0.140 5.858 1.948 2283
-0.140 5.856 1.928 3892
-0.133 5.576 1.842 2386
-0.140 5.861 1.911 5422
-0.136 5.672 1.854 2533
-0.140 5.866 1.894 4733
-0.135 5.654 1.830 2251
-0.141 5.886 1.882 4536
-0.135 5.659 1.814 1432
-0.141 5.899 1.867 4194
-0.146 6.119 1.932 1634
-0.141 5.896 1.848 2397
-0.146 6.109 1.910 1885
-0.141 5.894 1.829 2131
-0.148 6.183 1.912 1707
-0.156 6.523 1.990 3112
-0.153 6.378 1.949 2424
-0.156 6.528 1.971 4823
-0.153 6.383 1.930 2718
-0.156 6.533 1.952 4222
-0.161 6.709 2.001 3016
-0.161 6.714 1.982 3101
-0.156 6.531 1.931 2754
-0.161 6.742 1.969 2904
-0.165 6.903 2.012 2868
-0.166 6.916 1.995 4853
-0.162 6.748 1.949 2934
-0.166 6.921 1.974 4859
-0.162 6.768 1.934 3025
-0.165 6.911 1.950 2954
-0.162 6.766 1.912 2627
-0.182 7.583 2.104 1853
-0.169 7.077 1.972 1728
-0.183 7.634 2.094 2078
-0.168 7.029 1.938 1411
-0.183 7.663 2.078 2037
-0.180 7.517 2.041 1138
-0.184 7.676 2.057 1993
-0.192 8.014 2.142 1197
-0.190 7.951 2.102 2176
-0.185 7.720 2.045 1747
-0.190 7.956 2.079 2858
-0.185 7.734 2.024 1940
-0.190 7.954 2.054 1961
-0.195 8.154 2.102 1311
-0.196 8.191 2.086 1977
-0.192 8.037 2.049 1378
-0.196 8.197 2.062 1603
-0.203 8.489 2.131 1363
-0.204 8.503 2.109 1532
-0.208 8.672 2.148 1364
-0.208 8.686 2.125 2014
-0.204 8.516 2.086 1463
-0.208 8.692 2.099 2054
-0.205 8.545 2.066 1747
-0.208 8.674 2.069 1942
-0.214 8.960 2.133 1018
-0.208 8.680 2.044 1679
-0.214 8.935 2.100 1530
-0.213 8.902 2.066 1966
-0.218 9.095 2.108 1517
-0.218 9.093 2.080 1443
-0.213 8.900 2.038 1363
-0.222 9.292 2.094 1343
-0.217 9.075 2.048 1257
-0.232 9.709 2.153 1936
-0.238 9.941 2.201 1659
-0.233 9.714 2.125 1995
-0.238 9.955 2.174 1111
-0.233 9.728 2.098 1485
-0.226 9.441 2.040 1004
-0.237 9.920 2.107 1198
-0.244 10.199 2.163 1119
-0.264 11.044 2.298 1281
-0.244 10.197 2.132 958
-0.251 10.483 2.156 1413
-0.264 11.042 2.264 1304
-0.251 10.481 2.124 1469
-0.259 10.831 2.191 1085
-0.257 10.720 2.137 1639
-0.272 11.342 2.254 1131
-0.257 10.718 2.105 1509
-0.269 11.232 2.199 1067
-0.278 11.627 2.237 1395
-0.265 11.074 2.137 1376
-0.265 11.064 2.102 1214
-0.278 11.633 2.203 1078
-0.291 12.138 2.257 843
-0.285 11.896 2.215 816
-0.285 11.895 2.179 927
-0.313 13.072 2.382 925
-0.313 13.071 2.342 948
-0.326 13.616 2.394 890
-0.312 13.038 2.298 758
-0.326 13.615 2.353 970
-0.312 13.037 2.258 897
-0.313 13.066 2.224 979
-0.326 13.621 2.313 750
-0.039 1.626 0.036 750
-0.039 1.626 0.031 785
-0.039 1.626 0.027 820
-0.039 1.625 0.022 835
-0.039 1.625 0.017 851
-0.039 1.625 0.013 793
-0.050 2.336 1.821 3044
-0.051 2.373 1.837 8926
-0.048 2.226 1.730 1141
-0.052 2.391 1.840 13671
-0.049 2.269 1.751 1326
-0.053 2.434 1.861 14104
-0.050 2.312 1.773 1771
-0.053 2.452 1.863 16969
-0.050 2.330 1.775 1818
-0.053 2.457 1.856 16425
-0.050 2.335 1.769 1438
-0.053 2.469 1.854 16086
-0.051 2.346 1.767 1125
-0.053 2.474 1.847 16086
-0.051 2.351 1.760 1125
-0.054 2.479 1.840 14395
-0.056 2.602 1.926 1076
-0.054 2.490 1.837 12876
-0.056 2.613 1.923 1560
-0.054 2.495 1.830 11183
-0.057 2.619 1.916 2005
-0.054 2.500 1.823 9490
-0.057 2.624 1.908 2451
-0.054 2.505 1.816 8558
-0.057 2.629 1.901 3315
-0.054 2.503 1.804 7638
-0.057 2.627 1.889 5042
-0.054 2.508 1.797 7638
-0.057 2.633 1.881 5192
-0.056 2.605 1.851 7808
-0.054 2.480 1.768 2844
-0.056 2.603 1.840 9051
-0.059 2.728 1.923 2556
-0.056 2.608 1.832 8176
-0.059 2.733 1.915 3548
-0.057 2.626 1.833 7503
-0.059 2.752 1.916 3735
-0.056 2.605 1.809 8578
-0.059 2.731 1.891 5773
-0.056 2.616 1.805 9858
-0.059 2.742 1.887 6592
-0.057 2.628 1.802 8705
-0.059 2.754 1.884 6775
-0.057 2.639 1.799 7991
-0.060 2.766 1.880 6798
-0.060 2.764 1.868 7031
-0.057 2.637 1.787 4930
-0.059 2.716 1.826 7690
-0.061 2.843 1.907 3934
-0.059 2.721 1.818 7626
-0.061 2.848 1.899 3851
-0.059 2.726 1.811 7562
-0.062 2.853 1.890 3768
-0.061 2.825 1.861 7169
-0.058 2.697 1.782 3467
-0.061 2.823 1.849 7645
-0.058 2.695 1.770 2291
-0.061 2.835 1.845 8287
-0.064 2.963 1.924 2128
-0.061 2.846 1.841 9138
-0.064 2.975 1.919 2368
-0.062 2.851 1.833 7393
-0.064 2.980 1.911 2060
-0.062 2.856 1.825 5648
-0.064 2.985 1.902 1751
-0.062 2.868 1.821 4404
-0.065 2.997 1.898 1763
-0.062 2.886 1.820 3254
-0.065 3.016 1.897 2123
-0.065 3.021 1.889 3074
-0.062 2.891 1.812 3010
-0.065 3.033 1.884 4037
-0.063 2.903 1.808 3309
-0.066 3.038 1.875 5441
-0.063 2.908 1.800 3810
-0.066 3.036 1.863 7928
-0.063 2.906 1.787 2930
-0.066 3.034 1.850 9127
-0.068 3.165 1.925 2747
-0.066 3.046 1.845 9585
-0.069 3.177 1.920 2623
-0.066 3.065 1.844 10722
-0.069 3.196 1.918 2008
-0.066 3.070 1.835 9706
-0.070 3.228 1.925 1842
-0.066 3.075 1.826 7983
-0.070 3.254 1.927 2181
-0.066 3.080 1.818 6928
-0.070 3.246 1.910 2199
-0.068 3.154 1.847 7515
-0.072 3.327 1.942 2432
-0.068 3.166 1.842 7432
-0.072 3.339 1.937 3230
-0.069 3.185 1.840 6982
-0.072 3.345 1.927 3838
-0.070 3.224 1.850 9329
-0.072 3.357 1.921 4329
-0.070 3.229 1.841 10088
-0.073 3.362 1.912 5090
-0.070 3.234 1.831 7589
-0.073 3.367 1.902 5796
-0.073 3.372 1.892 5741
-0.070 3.239 1.822 5091
-0.073 3.370 1.879 5589
-0.070 3.237 1.809 5099
-0.072 3.340 1.851 6863
-0.075 3.474 1.920 3146
-0.072 3.352 1.845 6939
-0.075 3.486 1.914 3682
-0.072 3.357 1.835 5681
-0.075 3.491 1.904 3678
-0.074 3.447 1.869 6866
-0.077 3.581 1.937 2410
-0.074 3.438 1.852 7583
-0.078 3.593 1.930 3218
-0.074 3.436 1.838 8646
-0.078 3.605 1.924 3728
-0.074 3.441 1.828 8944
-0.078 3.611 1.913 5086
-0.075 3.460 1.826 6095
-0.078 3.609 1.899 6042
-0.078 3.621 1.892 6279
-0.075 3.472 1.819 4293
-0.079 3.647 1.892 7788
-0.076 3.512 1.826 3201
-0.079 3.652 1.882 6986
-0.076 3.517 1.816 2440
-0.078 3.600 1.844 8338
-0.081 3.772 1.926 3938
-0.078 3.605 1.834 8075
-0.082 3.777 1.915 4807
-0.079 3.639 1.837 8024
-0.081 3.775 1.901 5817
-0.079 3.665 1.836 7473
-0.082 3.801 1.900 3594
-0.081 3.735 1.856 7283
-0.084 3.871 1.919 3535
-0.081 3.733 1.842 6882
-0.084 3.869 1.905 4404
-0.081 3.759 1.841 6868
-0.084 3.896 1.904 4446
-0.083 3.865 1.876 7234
-0.080 3.728 1.814 5090
-0.084 3.870 1.865 8604
-0.081 3.733 1.803 3229
-0.084 3.882 1.857 8444
-0.081 3.745 1.795 1879
-0.084 3.894 1.849 6643
-0.088 4.068 1.926 1481
-0.085 3.928 1.851 5818
-0.088 4.066 1.911 2091
-0.085 3.948 1.846 6754
-0.088 4.086 1.906 2053
-0.086 3.989 1.850 4710
-0.089 4.127 1.910 1589
-0.087 4.009 1.845 3843
-0.090 4.176 1.917 1638
-0.086 4.006 1.830 3031
-0.090 4.174 1.902 2215
-0.090 4.186 1.893 2793
-0.087 4.040 1.831 2744
-0.091 4.220 1.893 3588
-0.088 4.067 1.829 3207
-0.091 4.233 1.884 4940
-0.088 4.079 1.820 3687
-0.088 4.077 1.805 4359
-0.092 4.267 1.884 4338
-0.093 4.301 1.884 4970
-0.088 4.096 1.799 4751
-0.092 4.255 1.850 5210
-0.089 4.109 1.790 3535
-0.092 4.246 1.832 6394
-0.095 4.385 1.888 2621
-0.092 4.258 1.823 6013
-0.095 4.397 1.879 2376
-0.092 4.263 1.810 4420
-0.095 4.402 1.866 2656
-0.094 4.363 1.836 3745
-0.098 4.562 1.914 3103
-0.098 4.560 1.898 5295
-0.095 4.390 1.832 3548
-0.096 4.469 1.848 5816
-0.100 4.609 1.902 4297
-0.097 4.481 1.838 7147
-0.100 4.622 1.891 4843
-0.097 4.494 1.828 5076
-0.100 4.634 1.881 4767
-0.100 4.625 1.862 7042
-0.097 4.484 1.809 2153
-0.100 4.630 1.849 7279
-0.097 4.489 1.796 1604
-0.100 4.642 1.838 5010
-0.103 4.783 1.890 2145
-0.100 4.654 1.827 4446
-0.104 4.796 1.879 4060
-0.104 4.830 1.876 5787
-0.101 4.659 1.814 3446
-0.105 4.858 1.870 8029
-0.102 4.716 1.819 3451
-0.105 4.885 1.864 7638
-0.102 4.744 1.814 3829
-0.104 4.823 1.826 6373
-0.101 4.681 1.776 3370
-0.105 4.843 1.818 5918
-0.101 4.701 1.768 1965
-0.105 4.855 1.806 4728
-0.108 4.997 1.855 1371
-0.105 4.860 1.792 2871
-0.113 5.212 1.913 1586
-0.107 4.940 1.804 3511
-0.113 5.217 1.898 2597
-0.112 5.185 1.870 4882
-0.107 4.937 1.787 2871
-0.112 5.182 1.853 6540
-0.107 4.964 1.780 2026
-0.112 5.180 1.835 4189
-0.116 5.390 1.905 2155
-0.113 5.245 1.840 3462
-0.116 5.388 1.887 2933
-0.113 5.257 1.827 2909
-0.117 5.400 1.874 2168
-0.115 5.330 1.834 1938
-0.120 5.548 1.904 1827
-0.115 5.342 1.821 2242
-0.119 5.523 1.878 1875
-0.119 5.521 1.860 2401
-0.123 5.717 1.922 2034
-0.119 5.526 1.844 3371
-0.123 5.715 1.903 2076
-0.126 5.856 1.928 3275
-0.120 5.546 1.833 2614
-0.126 5.854 1.909 5004
-0.123 5.680 1.856 2666
-0.126 5.859 1.892 4783
-0.122 5.647 1.828 2128
-0.127 5.879 1.880 4430
-0.132 6.107 1.948 1364
-0.127 5.892 1.865 3766
-0.132 6.112 1.930 1871
-0.127 5.866 1.839 2286
-0.132 6.110 1.910 2095
-0.127 5.887 1.826 1961
-0.138 6.381 1.969 1798
-0.141 6.515 1.988 2922
-0.138 6.371 1.947 2443
-0.141 6.528 1.971 4803
-0.138 6.384 1.930 2944
-0.141 6.526 1.950 4172
-0.145 6.701 1.999 2639
-0.145 6.699 1.978 2856
-0.141 6.516 1.927 2697
-0.149 6.903 2.012 2825
-0.146 6.743 1.969 2614
-0.149 6.916 1.995 4585
-0.146 6.748 1.949 2878
-0.149 6.914 1.972 4705
-0.146 6.761 1.932 2730
-0.149 6.919 1.952 2848
-0.146 6.774 1.914 2315
-0.164 7.583 2.104 2070
-0.159 7.384 2.052 1522
-0.165 7.635 2.094 1927
-0.152 7.022 1.936 1266
-0.163 7.556 2.050 1922
-0.166 7.702 2.087 1470
-0.166 7.677 2.057 1809
-0.169 7.823 2.094 1127
-0.172 7.959 2.104 2097
-0.165 7.644 2.026 1765
-0.172 7.965 2.081 2756
-0.167 7.734 2.024 1761
-0.172 7.963 2.056 1884
-0.177 8.186 2.110 1265
-0.177 8.199 2.088 2070
-0.174 8.037 2.049 1381
-0.177 8.197 2.062 1580
-0.183 8.490 2.131 1296
-0.184 8.503 2.109 1438
-0.187 8.673 2.148 1242
-0.188 8.686 2.125 1838
-0.184 8.517 2.086 1505
-0.185 8.561 2.070 1872
-0.190 8.785 2.120 1843
-0.187 8.675 2.069 1780
-0.184 8.528 2.036 1107
-0.187 8.680 2.044 1518
-0.193 8.935 2.100 1367
-0.193 8.941 2.074 1765
-0.196 9.088 2.106 1665
-0.196 9.094 2.080 1772
-0.200 9.272 2.118 1533
-0.196 9.099 2.053 1456
-0.200 9.285 2.093 1443
-0.210 9.709 2.153 1800
-0.215 9.942 2.201 1586
-0.210 9.715 2.125 1972
-0.215 9.955 2.174 1149
-0.210 9.728 2.098 1618
-0.214 9.922 2.137 1076
-0.214 9.920 2.107 1293
-0.220 10.208 2.164 1139
-0.239 11.052 2.299 1278
-0.226 10.485 2.188 1058
-0.226 10.483 2.156 1657
-0.238 11.043 2.264 1283
-0.226 10.482 2.124 1784
-0.229 10.629 2.152 1070
-0.231 10.721 2.137 1539
-0.245 11.343 2.254 1117
-0.231 10.719 2.105 1511
-0.243 11.240 2.201 971
-0.239 11.075 2.137 1301
-0.251 11.628 2.237 1244
-0.239 11.065 2.102 1139
-0.235 10.901 2.073 1012
-0.257 11.889 2.213 794
-0.262 12.139 2.257 785
-0.257 11.895 2.179 968
-0.282 13.073 2.382 954
-0.282 13.072 2.342 1050
-0.257 11.893 2.143 800
-0.282 13.063 2.302 841
-0.286 13.250 2.333 788
-0.294 13.608 2.351 945
-0.282 13.045 2.260 941
-0.282 13.067 2.224 1028
-0.302 13.966 2.368 791
-0.035 1.612 0.055 930
-0.035 1.619 0.050 1273
-0.035 1.619 0.046 1616
-0.035 1.619 0.041 1962
-0.035 1.618 0.036 2283
-0.035 1.626 0.031 2536
-0.035 1.626 0.027 2764
-0.035 1.625 0.022 2887
-0.035 1.625 0.017 3010
-0.035 1.625 0.013 2851
-0.035 1.624 0.008 2693
-0.035 1.624 0.004 2456
-0.035 1.624 -0.001 2206
-0.035 1.623 -0.005 2192
-0.035 1.623 -0.010 1796
-0.035 1.622 -0.015 1400
-0.035 1.622 -0.019 1029
-0.046 2.336 1.821 3264
-0.047 2.373 1.837 9291
-0.044 2.226 1.730 1230
-0.048 2.391 1.840 14256
-0.045 2.269 1.751 1448
-0.048 2.428 1.856 14326
-0.046 2.306 1.768 1817
-0.049 2.452 1.863 16821
-0.046 2.330 1.775 2007
-0.049 2.457 1.856 16207
-0.046 2.335 1.769 1577
-0.049 2.469 1.854 15770
-0.047 2.346 1.767 1268
-0.049 2.474 1.847 15770
-0.047 2.351 1.760 1268
-0.049 2.479 1.840 14216
-0.052 2.602 1.926 1045
-0.050 2.490 1.837 12825
-0.052 2.613 1.923 1487
-0.050 2.495 1.830 11115
-0.052 2.619 1.916 1953
-0.050 2.500 1.823 9404
-0.052 2.624 1.908 2419
-0.050 2.498 1.811 8382
-0.052 2.622 1.896 3831
-0.050 2.503 1.804 7447
-0.052 2.628 1.889 5158
-0.050 2.508 1.797 7447
-0.052 2.633 1.881 5274
-0.052 2.605 1.851 7900
-0.049 2.480 1.768 3023
-0.052 2.603 1.840 9056
-0.054 2.728 1.923 2389
-0.052 2.608 1.832 8011
-0.054 2.734 1.915 3548
-0.052 2.593 1.812 7107
-0.054 2.732 1.903 4854
-0.052 2.605 1.809 8134
-0.054 2.737 1.895 6052
-0.052 2.610 1.801 9226
-0.054 2.736 1.883 7317
-0.052 2.621 1.798 7969
-0.055 2.747 1.880 7347
-0.055 2.746 1.867 7475
-0.052 2.619 1.786 6470
-0.055 2.758 1.864 6999
-0.052 2.631 1.783 4354
-0.054 2.716 1.826 8397
-0.057 2.843 1.907 3627
-0.054 2.721 1.818 8013
-0.057 2.848 1.899 3483
-0.054 2.732 1.815 7642
-0.057 2.860 1.895 2532
-0.056 2.818 1.857 6585
-0.053 2.690 1.778 2813
-0.056 2.816 1.845 7927
-0.059 2.944 1.924 1774
-0.056 2.821 1.837 10899
-0.059 2.949 1.915 2358
-0.056 2.826 1.829 13871
-0.059 2.954 1.907 2942
-0.056 2.831 1.821 11758
-0.059 2.960 1.899 2464
-0.056 2.829 1.808 9735
-0.059 2.958 1.886 2016
-0.056 2.834 1.800 6749
-0.060 3.004 1.902 1670
-0.057 2.880 1.816 4348
-0.060 3.016 1.897 2031
-0.057 2.891 1.812 3613
-0.060 3.021 1.889 3073
-0.060 3.033 1.884 4151
-0.058 2.903 1.808 3380
-0.060 3.038 1.875 5718
-0.058 2.908 1.800 3635
-0.060 3.036 1.863 8331
-0.058 2.906 1.787 2652
-0.060 3.041 1.854 9358
-0.063 3.172 1.929 2538
-0.061 3.053 1.849 10064
-0.063 3.184 1.923 2478
-0.061 3.065 1.844 11446
-0.064 3.196 1.918 2185
-0.061 3.070 1.835 10342
-0.064 3.201 1.909 1807
-0.061 3.075 1.826 8344
-0.065 3.261 1.931 2108
-0.061 3.080 1.818 7140
-0.064 3.239 1.906 2452
-0.063 3.154 1.847 7715
-0.066 3.327 1.942 2409
-0.063 3.159 1.838 7454
-0.066 3.339 1.937 3053
-0.063 3.185 1.840 7022
-0.066 3.345 1.927 3546
-0.064 3.224 1.850 9715
-0.067 3.357 1.921 3941
-0.064 3.229 1.841 10461
-0.067 3.362 1.912 4826
-0.064 3.234 1.831 7651
-0.067 3.367 1.902 5653
-0.067 3.372 1.892 5597
-0.064 3.239 1.822 4841
-0.067 3.377 1.883 5422
-0.064 3.237 1.809 4648
-0.066 3.333 1.847 6072
-0.069 3.467 1.917 3411
-0.067 3.345 1.841 6317
-0.069 3.479 1.910 3949
-0.068 3.442 1.879 6015
-0.066 3.308 1.810 3231
-0.069 3.447 1.869 7420
-0.071 3.581 1.937 2697
-0.068 3.438 1.852 7847
-0.071 3.593 1.930 3637
-0.068 3.436 1.838 8984
-0.072 3.613 1.927 4083
-0.068 3.441 1.828 8996
-0.072 3.611 1.913 5533
-0.072 3.609 1.899 6700
-0.069 3.460 1.826 5923
-0.072 3.621 1.892 7250
-0.069 3.479 1.823 4277
-0.073 3.647 1.892 8527
-0.069 3.484 1.813 2818
-0.073 3.652 1.882 7834
-0.075 3.788 1.947 2317
-0.072 3.622 1.854 7449
-0.075 3.757 1.919 4242
-0.073 3.670 1.864 7070
-0.076 3.805 1.929 3024
-0.073 3.668 1.850 8452
-0.076 3.804 1.915 3414
-0.073 3.665 1.836 8168
-0.076 3.823 1.910 3028
-0.073 3.663 1.822 6456
-0.077 3.850 1.909 4373
-0.074 3.733 1.842 6427
-0.077 3.869 1.905 4789
-0.075 3.759 1.841 7182
-0.077 3.896 1.904 4545
-0.077 3.865 1.876 7222
-0.074 3.728 1.814 5006
-0.077 3.870 1.865 8452
-0.074 3.733 1.803 3108
-0.077 3.882 1.857 8096
-0.074 3.745 1.795 1739
-0.077 3.895 1.849 6070
-0.081 4.075 1.930 1325
-0.078 3.936 1.854 5088
-0.081 4.073 1.915 1702
-0.078 3.948 1.846 6067
-0.081 4.086 1.906 1793
-0.079 3.975 1.844 4330
-0.082 4.113 1.904 1779
-0.080 4.002 1.842 3137
-0.083 4.176 1.917 1661
-0.081 4.087 1.864 2633
-0.078 3.948 1.805 1694
-0.083 4.186 1.893 3062
-0.080 4.048 1.834 2396
-0.084 4.213 1.890 3876
-0.081 4.060 1.825 2911
-0.084 4.233 1.884 4873
-0.081 4.072 1.817 3240
-0.081 4.077 1.805 4140
-0.085 4.267 1.884 4093
-0.081 4.097 1.799 4774
-0.086 4.302 1.884 4767
-0.085 4.285 1.862 5187
-0.082 4.109 1.790 3413
-0.085 4.253 1.835 5655
-0.082 4.114 1.779 1747
-0.085 4.265 1.826 6277
-0.088 4.405 1.882 2024
-0.085 4.285 1.819 4733
-0.088 4.425 1.875 1924
-0.087 4.363 1.836 3914
-0.091 4.562 1.914 2647
-0.091 4.553 1.895 4653
-0.088 4.405 1.838 3489
-0.089 4.477 1.851 6444
-0.092 4.617 1.905 3726
-0.089 4.482 1.838 7773
-0.092 4.622 1.891 4872
-0.089 4.494 1.828 5742
-0.092 4.635 1.881 4426
-0.092 4.625 1.862 6275
-0.089 4.484 1.809 2773
-0.092 4.630 1.849 6456
-0.089 4.489 1.796 2172
-0.092 4.642 1.838 4209
-0.089 4.501 1.786 2452
-0.095 4.788 1.876 4216
-0.092 4.647 1.825 3408
-0.096 4.808 1.868 4930
-0.093 4.659 1.814 2501
-0.097 4.865 1.873 7272
-0.094 4.724 1.822 3568
-0.097 4.900 1.869 7648
-0.095 4.759 1.819 4621
-0.096 4.823 1.826 6004
-0.093 4.681 1.776 2973
-0.096 4.843 1.818 5085
-0.099 4.985 1.867 1734
-0.097 4.855 1.806 3789
-0.099 4.997 1.855 1608
-0.098 4.950 1.823 2616
-0.104 5.220 1.916 1370
-0.098 4.940 1.804 3048
-0.103 5.202 1.893 2113
-0.103 5.177 1.868 5248
-0.098 4.937 1.787 2600
-0.103 5.182 1.853 6920
-0.099 4.972 1.783 2239
-0.103 5.187 1.838 4088
-0.107 5.398 1.907 2043
-0.104 5.252 1.843 3269
-0.107 5.395 1.889 2751
-0.105 5.265 1.830 3100
-0.108 5.408 1.876 2088
-0.110 5.511 1.892 2267
-0.105 5.292 1.822 1857
-0.110 5.516 1.876 3265
-0.106 5.350 1.823 1984
-0.110 5.514 1.858 3412
-0.114 5.710 1.919 2297
-0.110 5.519 1.842 3986
-0.114 5.715 1.903 2357
-0.110 5.546 1.833 3488
-0.116 5.849 1.926 2764
-0.116 5.854 1.909 4769
-0.113 5.672 1.854 2581
-0.116 5.859 1.892 4774
-0.112 5.647 1.828 1952
-0.117 5.872 1.877 4053
-0.121 6.107 1.948 1740
-0.117 5.869 1.858 3121
-0.122 6.112 1.930 2167
-0.121 6.110 1.910 2306
-0.116 5.859 1.837 2138
-0.122 6.130 1.897 2144
-0.127 6.381 1.969 1954
-0.127 6.394 1.953 2984
-0.130 6.539 1.994 2196
-0.130 6.529 1.971 4554
-0.127 6.384 1.930 2916
-0.130 6.526 1.950 3960
-0.133 6.694 1.997 2125
-0.130 6.516 1.927 2625
-0.133 6.707 1.980 2437
-0.137 6.911 2.015 2799
-0.134 6.735 1.967 2202
-0.138 6.916 1.995 4085
-0.134 6.748 1.949 2395
-0.137 6.914 1.972 4310
-0.134 6.761 1.932 2094
-0.138 6.919 1.952 2890
-0.147 7.386 2.076 1994
-0.151 7.576 2.102 2257
-0.147 7.384 2.052 1597
-0.150 7.551 2.072 2141
-0.140 7.022 1.936 1509
-0.150 7.564 2.052 1989
-0.154 7.763 2.103 1926
-0.155 7.777 2.083 2545
-0.152 7.631 2.046 1936
-0.152 7.637 2.024 2032
-0.158 7.967 2.106 1888
-0.158 7.973 2.083 2381
-0.154 7.742 2.026 1480
-0.158 7.970 2.058 1844
-0.163 8.201 2.114 1268
-0.163 8.199 2.088 2087
-0.159 7.991 2.038 1458
-0.163 8.197 2.062 1521
-0.168 8.428 2.117 1323
-0.167 8.411 2.087 1656
-0.173 8.681 2.150 1106
-0.169 8.517 2.086 1617
-0.173 8.687 2.125 1594
-0.175 8.793 2.122 1901
-0.170 8.553 2.068 1900
-0.170 8.567 2.045 1689
-0.175 8.798 2.097 1536
-0.173 8.680 2.044 1339
-0.178 8.936 2.100 1154
-0.181 9.096 2.108 1747
-0.178 8.949 2.076 1579
-0.181 9.094 2.080 2020
-0.184 9.264 2.116 1598
-0.181 9.099 2.053 1710
-0.184 9.278 2.091 1469
-0.193 9.717 2.155 1709
-0.197 9.934 2.200 1390
-0.193 9.715 2.125 1877
-0.187 9.421 2.064 1090
-0.193 9.729 2.098 1668
-0.197 9.923 2.137 1057
-0.197 9.921 2.107 1314
-0.203 10.208 2.164 1206
-0.220 11.045 2.298 1214
-0.208 10.486 2.188 1159
-0.208 10.484 2.156 1767
-0.219 11.036 2.263 1282
-0.208 10.482 2.124 1916
-0.211 10.630 2.152 1064
-0.213 10.721 2.137 1489
-0.208 10.472 2.091 1136
-0.213 10.727 2.106 1530
-0.236 11.887 2.320 1047
-0.226 11.387 2.193 1260
-0.213 10.725 2.073 1257
-0.220 11.065 2.102 1108
-0.217 10.902 2.073 972
-0.236 11.890 2.213 776
-0.236 11.896 2.179 993
-0.260 13.074 2.382 961
-0.260 13.080 2.343 1017
-0.236 11.894 2.143 889
-0.263 13.250 2.333 814
-0.260 13.071 2.303 787
-0.270 13.600 2.350 919
-0.259 13.038 2.258 852
-0.260 13.068 2.224 916
-0.278 13.959 2.367 852
-0.277 13.957 2.325 807
-0.278 13.970 2.244 760
-0.032 1.619 0.050 827
-0.032 1.619 0.046 1082
-0.032 1.619 0.041 1349
-0.032 1.626 0.036 1598
-0.032 1.626 0.031 1811
-0.032 1.626 0.027 2007
