-1.181 5.062 -0.035 1293
-1.224 5.246 -0.057 3505
-1.188 5.092 -0.051 2072
-1.224 5.246 -0.072 2991
-1.186 5.084 -0.066 2090
-1.223 5.245 -0.088 2477
-1.180 5.060 -0.080 2213
-1.182 5.067 -0.095 2669
-1.222 5.237 -0.103 1852
-1.182 5.066 -0.110 3159
-1.216 5.213 -0.118 1554
-1.182 5.066 -0.125 3021
-1.216 5.212 -0.133 1111
-1.181 5.065 -0.140 2883
-1.216 5.211 -0.149 669
-1.178 5.049 -0.154 2673
-1.212 5.195 -0.163 685
-1.174 5.032 -0.168 2911
-1.208 5.179 -0.178 708
-1.174 5.032 -0.183 3378
-1.208 5.178 -0.193 668
-1.172 5.023 -0.198 3948
-1.206 5.169 -0.208 673
-1.164 4.991 -0.211 4074
-1.202 5.153 -0.222 516
-1.160 4.975 -0.224 5544
-1.160 4.974 -0.239 5544
-1.160 4.973 -0.254 5873
-1.158 4.964 -0.268 6238
-1.192 5.110 -0.280 568
-1.159 4.970 -0.283 5223
-1.161 4.977 -0.299 4352
-1.161 4.975 -0.313 3347
-1.127 4.830 -0.300 793
-1.159 4.966 -0.327 2380
-1.125 4.821 -0.314 929
-1.158 4.965 -0.342 2380
-1.124 4.819 -0.328 929
-1.136 4.872 -0.348 1923
-1.170 5.017 -0.362 1154
-1.136 4.870 -0.362 2090
-1.170 5.016 -0.377 772
-1.136 4.869 -0.376 1045
-0.527 2.276 1.821 4074
-0.539 2.325 1.847 8214
-0.511 2.207 1.758 1161
-0.541 2.336 1.845 14876
-0.514 2.217 1.756 1561
-0.541 2.334 1.833 13777
-0.568 2.453 1.921 2257
-0.539 2.327 1.817 14126
-0.567 2.446 1.905 5315
-0.542 2.338 1.815 14317
-0.569 2.457 1.902 4702
-0.544 2.349 1.812 14863
-0.572 2.468 1.900 4443
-0.545 2.354 1.806 14863
-0.573 2.473 1.892 4966
-0.546 2.358 1.799 11973
-0.574 2.478 1.885 5187
-0.561 2.420 1.833 12499
-0.589 2.540 1.918 2868
-0.565 2.437 1.834 10856
-0.593 2.558 1.920 3246
-0.567 2.449 1.832 10691
-0.595 2.569 1.917 4057
-0.570 2.460 1.829 7506
-0.598 2.581 1.914 3331
-0.572 2.471 1.826 4694
-0.601 2.592 1.911 4519
-0.602 2.597 1.903 6078
-0.574 2.476 1.819 4694
-0.603 2.602 1.896 6643
-0.575 2.481 1.812 4768
-0.582 2.511 1.822 7513
-0.610 2.633 1.905 4063
-0.583 2.516 1.815 7334
-0.611 2.638 1.898 3667
-0.585 2.527 1.812 7169
-0.614 2.649 1.894 2867
-0.587 2.532 1.804 6229
-0.615 2.654 1.887 3052
-0.589 2.543 1.801 5359
-0.618 2.666 1.883 2922
-0.592 2.554 1.798 5418
-0.625 2.697 1.892 3197
-0.594 2.565 1.795 5673
-0.627 2.708 1.889 4132
-0.609 2.628 1.825 5760
-0.638 2.752 1.906 2576
-0.612 2.640 1.822 7621
-0.640 2.764 1.902 2882
-0.613 2.645 1.814 7012
-0.641 2.769 1.894 2806
-0.615 2.656 1.811 6527
-0.644 2.780 1.890 2262
-0.632 2.726 1.845 4936
-0.603 2.602 1.765 1329
-0.633 2.731 1.837 6233
-0.604 2.606 1.758 1148
-0.632 2.729 1.824 9164
-0.661 2.854 1.903 716
-0.633 2.734 1.816 12212
-0.662 2.859 1.895 951
-0.636 2.745 1.812 11342
-0.665 2.871 1.890 1010
-0.646 2.790 1.829 10775
-0.617 2.664 1.751 569
-0.650 2.808 1.829 8539
-0.621 2.682 1.752 1128
-0.655 2.826 1.829 7290
-0.625 2.700 1.752 2132
-0.657 2.837 1.824 5225
-0.628 2.711 1.748 2181
-0.654 2.822 1.804 3957
-0.683 2.948 1.880 1580
-0.670 2.893 1.835 4770
-0.641 2.767 1.760 1914
-0.665 2.872 1.811 7063
-0.636 2.745 1.736 1015
-0.665 2.870 1.799 9600
-0.694 2.997 1.873 662
-0.664 2.868 1.786 8023
-0.694 2.995 1.861 941
-0.675 2.913 1.801 7190
-0.645 2.785 1.727 828
-0.677 2.924 1.797 6457
-0.648 2.796 1.723 809
-0.682 2.942 1.796 7147
-0.652 2.814 1.722 792
-0.684 2.954 1.791 8451
-0.714 3.082 1.864 810
-0.685 2.958 1.782 7422
-0.715 3.087 1.855 1437
-0.686 2.963 1.773 6392
-0.716 3.091 1.846 1766
-0.691 2.981 1.772 5296
-0.730 3.151 1.867 2416
-0.698 3.013 1.778 6428
-0.733 3.162 1.861 4283
-0.698 3.011 1.766 7534
-0.734 3.167 1.852 4970
-0.700 3.022 1.761 7367
-0.735 3.172 1.842 4454
-0.706 3.047 1.763 6088
-0.738 3.184 1.837 4045
-0.712 3.072 1.765 5063
-0.747 3.223 1.846 3846
-0.749 3.234 1.840 4178
-0.708 3.056 1.745 3558
-0.750 3.239 1.830 3933
-0.706 3.047 1.729 2939
-0.710 3.065 1.727 3401
-0.772 3.333 1.868 3252
-0.770 3.324 1.851 6078
-0.740 3.194 1.783 4055
-0.770 3.322 1.837 8347
-0.717 3.095 1.719 3469
-0.768 3.313 1.821 8022
-0.717 3.093 1.707 3384
-0.762 3.290 1.797 7818
-0.718 3.097 1.698 2919
-0.768 3.316 1.797 4907
-0.799 3.447 1.864 2262
-0.771 3.327 1.791 4024
-0.740 3.196 1.725 2050
-0.790 3.408 1.819 4058
-0.751 3.242 1.736 2685
-0.771 3.330 1.768 5288
-0.802 3.462 1.834 1550
-0.771 3.328 1.755 6081
-0.802 3.460 1.820 1828
-0.772 3.332 1.745 5145
-0.803 3.464 1.810 1721
-0.767 3.309 1.722 4864
-0.797 3.441 1.786 1866
-0.784 3.383 1.745 4538
-0.882 3.809 1.951 3230
-0.788 3.402 1.742 5176
-0.884 3.814 1.940 4204
-0.791 3.413 1.735 6182
-0.886 3.826 1.932 5719
-0.889 3.838 1.924 6488
-0.793 3.425 1.729 5447
-0.892 3.850 1.915 6310
-0.801 3.457 1.732 4715
-0.895 3.862 1.907 7112
-0.802 3.462 1.721 3669
-0.896 3.867 1.896 5800
-0.801 3.459 1.708 3390
-0.897 3.872 1.884 4185
-0.802 3.464 1.698 3647
-0.911 3.934 1.899 4885
-0.805 3.475 1.691 3050
-0.916 3.953 1.893 6334
-0.947 4.087 1.954 2767
-0.920 3.972 1.888 6540
-0.951 4.106 1.948 3903
-0.920 3.970 1.873 4974
-0.954 4.119 1.939 4644
-0.957 4.131 1.930 4313
-0.923 3.982 1.864 3839
-0.985 4.249 1.967 4439
-0.935 4.036 1.874 4133
-0.974 4.205 1.933 5171
-0.938 4.048 1.865 4446
-0.974 4.203 1.917 5471
-0.942 4.068 1.859 4531
-0.978 4.222 1.911 4722
-0.947 4.087 1.854 3892
-1.001 4.320 1.938 7150
-0.969 4.184 1.880 3826
-1.007 4.346 1.934 9352
-0.976 4.211 1.877 4573
-1.010 4.359 1.924 8184
-0.978 4.223 1.868 3330
-1.003 4.328 1.896 5233
-1.034 4.464 1.952 1787
-1.012 4.369 1.898 5387
-1.044 4.505 1.954 3015
-1.022 4.410 1.900 7607
-1.053 4.546 1.955 2080
-1.023 4.415 1.886 8543
-1.054 4.551 1.941 2307
-1.021 4.405 1.868 7232
-1.052 4.542 1.922 3618
-1.062 4.583 1.923 4650
-1.022 4.410 1.855 4304
-1.066 4.602 1.915 5250
-1.033 4.458 1.858 3132
-1.064 4.593 1.895 3928
-1.032 4.456 1.842 3359
-1.049 4.526 1.854 6210
-1.080 4.663 1.907 2426
-1.051 4.538 1.844 8847
-1.083 4.675 1.896 3059
-1.059 4.572 1.841 7881
-1.098 4.738 1.904 3627
-1.096 4.729 1.884 7062
-1.064 4.591 1.833 4341
-1.098 4.741 1.873 9353
-1.066 4.603 1.822 2769
-1.101 4.753 1.861 9429
-1.135 4.898 1.915 2300
-1.101 4.751 1.845 6605
-1.143 4.932 1.911 2858
-1.102 4.755 1.831 3523
-1.142 4.930 1.893 2493
-1.162 5.015 1.907 2696
-1.128 4.869 1.855 2354
-1.161 5.013 1.890 2810
-1.107 4.780 1.808 1659
-1.157 4.996 1.867 3546
-1.190 5.135 1.916 1519
-1.179 5.089 1.883 3796
-1.147 4.950 1.835 2461
-1.183 5.108 1.873 5642
-1.217 5.254 1.923 2509
-1.212 5.230 1.897 4721
-1.180 5.091 1.850 2853
-1.215 5.243 1.884 5646
-1.249 5.389 1.934 1776
-1.217 5.255 1.871 3771
-1.251 5.402 1.920 1848
-1.224 5.282 1.863 3609
-1.256 5.421 1.909 1940
-1.233 5.323 1.859 4652
-1.272 5.492 1.914 1848
-1.236 5.336 1.846 4637
-1.296 5.593 1.929 1841
-1.242 5.362 1.837 3599
-1.275 5.502 1.882 2439
-1.276 5.507 1.865 2765
-1.243 5.367 1.821 2425
-1.282 5.534 1.856 2899
-1.339 5.778 1.932 2280
-1.288 5.561 1.846 3032
-1.340 5.783 1.915 2138
-1.291 5.574 1.832 2537
-1.338 5.773 1.893 2061
-1.311 5.660 1.840 1860
-1.370 5.911 1.917 1509
-1.419 6.124 1.961 1945
-1.367 5.901 1.895 1603
-1.398 6.032 1.914 2725
-1.365 5.892 1.873 1816
-1.397 6.030 1.894 2617
-1.433 6.186 1.940 2122
-1.436 6.198 1.924 2390
-1.403 6.057 1.883 1841
-1.449 6.255 1.920 4136
-1.411 6.092 1.873 1945
-1.490 6.431 1.950 3887
-1.452 6.268 1.904 3699
-1.493 6.444 1.933 5159
-1.526 6.585 1.973 2463
-1.494 6.449 1.914 5897
-1.527 6.590 1.953 3215
-1.494 6.446 1.893 5441
-1.526 6.588 1.932 3064
-1.495 6.451 1.874 4011
-1.527 6.593 1.912 2780
-1.525 6.583 1.888 3581
-1.677 7.240 2.064 2177
-1.675 7.230 2.039 2799
-1.525 6.581 1.867 2099
-1.668 7.198 2.007 2408
-1.708 7.370 2.052 1296
-1.672 7.219 1.990 2333
-1.711 7.383 2.032 1873
-1.715 7.404 2.014 2057
-1.674 7.224 1.968 1645
-1.722 7.431 1.998 2370
-1.595 6.884 1.860 2278
-1.433 6.185 1.664 3899
-1.596 6.889 1.840 2936
-1.434 6.189 1.646 5122
-1.597 6.894 1.819 2894
-1.435 6.193 1.628 3523
-1.593 6.876 1.793 3200
-1.596 6.889 1.774 4222
-1.434 6.190 1.607 1809
-1.597 6.893 1.754 4471
-1.432 6.179 1.585 1321
-1.584 6.838 1.719 4157
-1.617 6.980 1.753 1361
-1.583 6.835 1.697 4135
-1.550 6.692 1.665 1039
-1.581 6.824 1.674 2587
-1.438 6.206 1.534 1808
-1.437 6.203 1.514 2696
-1.577 6.806 1.648 2262
-1.440 6.214 1.497 3517
-1.571 6.780 1.621 2693
-1.561 6.739 1.591 5102
-1.442 6.226 1.480 4140
-1.564 6.750 1.573 6293
-1.445 6.237 1.463 4211
-1.567 6.762 1.554 4279
-1.446 6.241 1.445 3828
-1.538 6.637 1.508 2925
-1.450 6.259 1.429 2836
-1.453 6.271 1.412 3150
-1.539 6.641 1.488 2987
-1.454 6.274 1.393 3649
-1.559 6.728 1.485 2623
-1.451 6.263 1.372 3668
-1.544 6.664 1.451 1868
-1.448 6.251 1.350 4718
-1.543 6.660 1.430 1530
-1.444 6.232 1.327 6354
-1.542 6.656 1.409 1174
-1.445 6.235 1.309 5493
-1.541 6.652 1.388 694
-1.452 6.269 1.296 7253
-1.451 6.264 1.276 11138
-1.494 6.446 1.309 581
-1.452 6.267 1.257 11385
-3.015 13.013 2.470 574
-1.451 6.263 1.237 8893
-3.106 13.408 2.500 664
-1.450 6.259 1.217 5631
-3.106 13.407 2.458 828
-1.449 6.254 1.197 3783
-1.482 6.399 1.222 1194
-1.465 6.325 1.190 2331
-3.109 13.420 2.378 1645
-1.466 6.328 1.171 2703
-3.112 13.434 2.339 2024
-1.467 6.331 1.153 2696
-3.114 13.440 2.299 2261
-1.469 6.342 1.135 3527
-3.113 13.438 2.258 1942
-1.470 6.345 1.116 4358
-3.115 13.444 2.218 1514
-1.469 6.340 1.096 3876
-3.118 13.458 2.179 1399
-1.466 6.327 1.075 2884
-1.432 6.182 1.053 1692
-1.438 6.208 1.038 2995
-1.472 6.353 1.060 1430
-1.439 6.210 1.020 2520
-1.472 6.355 1.041 1008
-1.441 6.220 1.002 2709
-1.475 6.365 1.023 654
-1.436 6.200 0.981 3551
-1.470 6.345 1.001 674
-1.433 6.187 0.960 3244
-1.467 6.332 0.980 586
-1.430 6.174 0.940 2627
-1.426 6.153 0.919 2610
-1.459 6.299 0.937 531
-1.430 6.171 0.902 2102
-1.411 6.089 0.874 2020
-1.444 6.234 0.891 705
-1.406 6.068 0.853 2191
-1.406 6.070 0.835 2573
-1.407 6.072 0.817 2754
-1.368 5.903 0.798 586
-1.407 6.073 0.799 2387
-1.373 5.928 0.783 836
-1.388 5.991 0.772 2431
-1.354 5.845 0.756 751
-1.383 5.970 0.752 2611
-1.349 5.824 0.737 1406
-1.355 5.849 0.722 2772
-1.396 6.025 0.739 1222
-1.355 5.850 0.704 3101
-1.389 5.996 0.718 680
-1.354 5.844 0.686 2576
-1.388 5.990 0.700 528
-1.354 5.846 0.669 2854
-1.353 5.839 0.651 4789
-1.387 5.985 0.664 680
-1.348 5.818 0.631 5811
-1.382 5.964 0.644 1080
-1.346 5.811 0.613 6100
-1.380 5.958 0.625 1510
-1.348 5.820 0.597 5441
-1.382 5.967 0.608 972
-1.349 5.822 0.579 4207
-1.315 5.676 0.568 1310
-1.346 5.808 0.561 3577
-1.312 5.661 0.550 1191
-1.346 5.809 0.544 3587
-1.312 5.663 0.534 1540
-1.319 5.694 0.519 3551
-1.353 5.841 0.529 2318
-1.318 5.688 0.501 3270
-1.352 5.834 0.511 1929
-1.318 5.689 0.484 2401
-1.352 5.835 0.493 1699
-1.318 5.690 0.468 2276
-1.352 5.836 0.476 1045
-1.301 5.614 0.446 2390
-1.334 5.760 0.455 1447
-1.299 5.607 0.429 2988
-1.333 5.753 0.437 1148
-1.299 5.608 0.413 2197
-1.333 5.754 0.420 840
-1.301 5.616 0.396 1433
-1.335 5.762 0.403 526
-1.312 5.663 0.382 1606
-1.278 5.517 0.375 572
-1.303 5.625 0.363 2367
-1.269 5.479 0.358 501
-1.303 5.626 0.347 3248
-1.269 5.479 0.341 656
-1.304 5.626 0.330 3201
-1.270 5.480 0.325 1130
-1.302 5.619 0.313 2254
-1.268 5.473 0.308 2036
-1.270 5.481 0.292 2689
-1.304 5.627 0.297 1345
-1.268 5.474 0.276 2153
-1.302 5.620 0.280 912
-1.265 5.458 0.259 1336
-1.299 5.605 0.263 528
-1.252 5.405 0.242 1069
-1.288 5.559 0.245 963
-1.256 5.421 0.226 1815
-1.290 5.567 0.229 883
-1.256 5.421 0.210 2592
-1.290 5.567 0.212 837
-1.258 5.429 0.194 3834
-1.224 5.282 0.193 937
-1.258 5.429 0.178 5079
-1.224 5.282 0.177 1100
-1.258 5.429 0.162 4550
-1.224 5.282 0.161 1755
-1.260 5.437 0.146 3025
-1.226 5.290 0.146 2514
-1.226 5.290 0.130 2510
-1.261 5.444 0.130 2139
-1.227 5.298 0.114 2333
-1.263 5.452 0.114 1489
-1.240 5.352 0.098 2577
-1.274 5.498 0.097 519
-1.240 5.351 0.082 2981
-1.206 5.205 0.084 845
-1.238 5.344 0.067 3401
-1.204 5.197 0.069 1111
-1.224 5.282 0.052 3019
-1.190 5.135 0.054 644
-1.220 5.266 0.036 2862
-1.186 5.119 0.039 761
-1.218 5.258 0.021 2752
-1.184 5.111 0.024 867
-1.216 5.250 0.005 2686
-1.182 5.103 0.009 939
-1.207 5.211 -0.009 2744
-1.241 5.357 -0.013 788
-1.205 5.203 -0.024 3306
-1.239 5.349 -0.029 854
-1.207 5.210 -0.040 3014
-1.173 5.064 -0.035 1216
-1.216 5.248 -0.057 3317
-1.180 5.094 -0.051 1838
-1.216 5.247 -0.072 2816
-1.180 5.093 -0.066 1922
-1.216 5.247 -0.088 2315
-1.178 5.085 -0.081 2014
-1.174 5.069 -0.095 2545
-1.214 5.238 -0.103 1714
-1.174 5.068 -0.110 3086
-1.208 5.215 -0.118 1452
-1.174 5.067 -0.125 3019
-1.208 5.214 -0.133 1041
-1.174 5.067 -0.140 2952
-1.208 5.213 -0.149 631
-1.170 5.050 -0.154 2681
-1.204 5.197 -0.163 646
-1.168 5.042 -0.169 2855
-1.202 5.188 -0.178 658
-1.166 5.033 -0.183 3262
-1.200 5.180 -0.193 657
-1.164 5.025 -0.198 3774
-1.198 5.171 -0.208 639
-1.155 4.985 -0.210 3996
-1.194 5.154 -0.222 504
-1.153 4.977 -0.224 5472
-1.153 4.975 -0.239 5472
-1.152 4.974 -0.254 5743
-1.150 4.966 -0.268 6034
-1.184 5.112 -0.280 664
-1.152 4.972 -0.283 5106
-1.186 5.118 -0.296 540
-1.153 4.978 -0.299 4311
-1.120 4.833 -0.286 508
-1.153 4.977 -0.313 3303
-1.119 4.831 -0.300 865
-1.151 4.968 -0.327 2308
-1.117 4.822 -0.314 1007
-1.151 4.967 -0.342 2308
-1.117 4.821 -0.328 1007
-1.129 4.873 -0.348 2146
-1.163 5.019 -0.362 1228
-1.127 4.864 -0.361 2326
-1.161 5.010 -0.376 937
-1.127 4.863 -0.376 1163
-0.521 2.278 1.821 4435
-0.522 2.283 1.814 8871
-0.549 2.401 1.903 1609
-0.535 2.337 1.845 14586
-0.508 2.219 1.756 1500
-0.533 2.330 1.828 13867
-0.560 2.448 1.917 2546
-0.533 2.328 1.817 14151
-0.560 2.447 1.905 4911
-0.535 2.339 1.815 14131
-0.563 2.459 1.902 4136
-0.536 2.344 1.808 14280
-0.564 2.464 1.895 4971
-0.538 2.349 1.801 14280
-0.565 2.469 1.888 5620
-0.556 2.429 1.849 12693
-0.529 2.309 1.762 2832
-0.556 2.428 1.837 13531
-0.583 2.548 1.923 2093
-0.558 2.439 1.834 11861
-0.586 2.559 1.920 2851
-0.561 2.450 1.832 10825
-0.588 2.571 1.917 3536
-0.562 2.455 1.825 7482
-0.590 2.576 1.909 3148
-0.566 2.472 1.826 4303
-0.594 2.594 1.911 3945
-0.595 2.599 1.903 5361
-0.567 2.477 1.819 4303
-0.596 2.604 1.896 6252
-0.568 2.482 1.812 4850
-0.575 2.512 1.822 7596
-0.603 2.634 1.905 3664
-0.576 2.517 1.815 7316
-0.604 2.639 1.898 3550
-0.598 2.612 1.868 7456
-0.570 2.490 1.785 3820
-0.580 2.533 1.804 6387
-0.608 2.656 1.887 2860
-0.582 2.544 1.801 5819
-0.610 2.667 1.883 2334
-0.583 2.549 1.794 5747
-0.618 2.698 1.892 3107
-0.589 2.573 1.799 6051
-0.620 2.710 1.889 4269
-0.602 2.630 1.825 5832
-0.630 2.754 1.906 2365
-0.603 2.635 1.818 7586
-0.631 2.759 1.898 3115
-0.606 2.646 1.814 6824
-0.634 2.770 1.894 2596
-0.613 2.677 1.823 6785
-0.641 2.801 1.903 1449
-0.618 2.702 1.828 5802
-0.647 2.826 1.907 802
-0.624 2.726 1.832 6226
-0.595 2.601 1.753 790
-0.627 2.737 1.829 9702
-0.598 2.612 1.750 675
-0.628 2.742 1.820 13249
-0.656 2.867 1.899 623
-0.632 2.760 1.821 12317
-0.660 2.886 1.899 849
-0.639 2.791 1.829 14071
-0.610 2.666 1.751 660
-0.641 2.803 1.825 12468
-0.613 2.677 1.748 752
-0.644 2.814 1.820 11051
-0.615 2.688 1.744 920
-0.644 2.812 1.808 8193
-0.673 2.939 1.885 1550
-0.645 2.817 1.800 5090
-0.674 2.944 1.876 2211
-0.663 2.895 1.835 4865
-0.634 2.768 1.760 3269
-0.659 2.880 1.815 7770
-0.630 2.753 1.740 1384
-0.659 2.878 1.803 10233
-0.630 2.751 1.728 912
-0.663 2.896 1.802 8776
-0.634 2.769 1.727 1022
-0.667 2.914 1.801 8532
-0.638 2.787 1.727 1268
-0.670 2.926 1.797 7243
-0.640 2.798 1.723 994
-0.674 2.944 1.796 7535
-0.644 2.816 1.722 788
-0.675 2.949 1.787 8806
-0.704 3.077 1.860 1031
-0.677 2.960 1.782 8272
-0.707 3.089 1.855 1450
-0.679 2.965 1.773 7742
-0.708 3.093 1.846 1706
-0.683 2.983 1.772 6752
-0.722 3.152 1.867 2232
-0.688 3.008 1.775 7634
-0.724 3.164 1.861 4061
-0.689 3.013 1.766 8857
-0.725 3.169 1.852 4789
-0.692 3.024 1.761 8160
-0.726 3.174 1.842 4387
-0.696 3.042 1.759 6320
-0.728 3.179 1.833 3985
-0.699 3.054 1.754 4972
-0.740 3.231 1.849 4366
-0.742 3.243 1.844 5001
-0.698 3.051 1.741 3736
-0.743 3.248 1.834 4655
-0.698 3.049 1.729 3493
-0.702 3.067 1.727 4303
-0.744 3.253 1.824 3327
-0.760 3.319 1.847 6831
-0.706 3.086 1.725 4167
-0.761 3.324 1.837 9505
-0.706 3.083 1.712 4238
-0.756 3.301 1.813 9699
-0.705 3.081 1.700 4444
-0.754 3.292 1.797 9677
-0.708 3.092 1.694 3880
-0.753 3.290 1.783 5359
-0.783 3.422 1.850 2701
-0.743 3.246 1.749 4535
-0.781 3.413 1.833 2551
-0.757 3.306 1.767 4549
-0.787 3.438 1.833 2439
-0.759 3.318 1.761 7423
-0.790 3.450 1.827 2095
-0.762 3.330 1.755 7738
-0.792 3.462 1.820 1661
-0.765 3.341 1.748 5946
-0.795 3.473 1.813 1284
-0.769 3.360 1.745 4816
-0.874 3.820 1.969 1815
-0.775 3.385 1.745 4674
-0.874 3.818 1.954 2626
-0.777 3.397 1.739 5833
-0.877 3.830 1.946 2824
-0.780 3.408 1.732 7432
-0.878 3.835 1.935 4019
-0.783 3.420 1.725 6291
-0.881 3.848 1.927 5127
-0.882 3.853 1.915 6633
-0.787 3.438 1.722 3375
-0.883 3.858 1.904 8160
-0.794 3.471 1.725 2737
-0.884 3.863 1.893 6717
-0.794 3.468 1.711 3960
-0.885 3.868 1.881 4896
-0.795 3.473 1.701 4494
-0.915 4.000 1.927 4629
-0.885 3.866 1.867 4416
-0.917 4.005 1.916 6441
-0.884 3.863 1.852 5539
-0.913 3.989 1.894 6745
-0.882 3.854 1.834 4312
-0.927 4.050 1.908 5270
-0.890 3.887 1.835 2596
-0.928 4.055 1.896 4747
-0.974 4.254 1.983 2922
-0.929 4.060 1.884 4825
-0.975 4.259 1.970 3974
-0.927 4.051 1.865 5289
-0.963 4.207 1.933 4814
-0.964 4.213 1.920 5115
-0.928 4.056 1.853 4652
-0.988 4.317 1.950 4371
-0.957 4.182 1.893 3340
-0.989 4.323 1.938 8989
-0.958 4.187 1.880 3554
-0.995 4.349 1.934 9723
-0.964 4.213 1.877 4695
-0.979 4.275 1.888 7187
-1.010 4.411 1.945 2801
-0.991 4.331 1.896 4948
-1.022 4.467 1.952 1538
-0.997 4.357 1.892 5218
-1.028 4.493 1.948 3107
-1.010 4.412 1.900 7714
-1.041 4.549 1.955 1895
-1.011 4.417 1.886 9149
-1.042 4.554 1.941 2277
-1.010 4.415 1.871 6936
-1.042 4.552 1.925 3926
-1.046 4.571 1.917 4415
-1.012 4.420 1.857 3416
-1.054 4.605 1.915 4851
-1.023 4.468 1.861 3310
-1.030 4.502 1.859 4556
-1.063 4.646 1.915 3293
-1.038 4.536 1.857 6798
-1.070 4.673 1.910 2110
-1.039 4.541 1.844 8711
-1.071 4.678 1.896 2708
-1.045 4.567 1.838 7534
-1.085 4.741 1.904 2884
-1.083 4.731 1.884 6149
-1.051 4.594 1.833 4115
-1.084 4.736 1.870 7985
-1.052 4.598 1.819 2010
-1.088 4.756 1.861 8139
-1.130 4.938 1.928 2616
-1.090 4.761 1.847 6401
-1.133 4.950 1.916 3647
-1.111 4.853 1.865 4521
-1.142 4.991 1.914 2945
-1.147 5.011 1.905 3410
-1.115 4.872 1.855 2660
-1.146 5.009 1.887 3027
-1.178 5.147 1.936 1771
-1.141 4.984 1.862 4013
-1.173 5.123 1.911 2111
-1.142 4.989 1.848 4250
-1.174 5.128 1.896 2682
-1.170 5.111 1.873 5398
-1.202 5.250 1.920 3418
-1.198 5.233 1.897 4556
-1.166 5.094 1.850 3200
-1.199 5.238 1.882 4326
-1.167 5.099 1.835 1400
-1.203 5.258 1.871 2980
-1.254 5.478 1.945 2018
-1.208 5.278 1.861 3222
-1.257 5.491 1.931 2544
-1.221 5.334 1.862 3735
-1.254 5.481 1.910 2269
-1.222 5.339 1.846 3958
-1.256 5.486 1.893 2251
-1.226 5.358 1.835 3141
-1.258 5.498 1.879 2615
-1.266 5.533 1.872 2505
-1.233 5.385 1.826 2137
-1.269 5.545 1.858 2885
-1.321 5.774 1.930 2499
-1.272 5.557 1.844 2730
-1.323 5.779 1.913 2492
-1.320 5.769 1.891 2228
-1.276 5.577 1.832 2048
-1.298 5.671 1.843 2454
-1.354 5.915 1.917 1247
-1.296 5.661 1.821 1720
-1.406 6.142 1.966 1672
-1.381 6.036 1.914 2015
-1.414 6.177 1.956 1542
-1.417 6.189 1.940 2113
-1.381 6.034 1.894 2071
-1.419 6.202 1.924 2526
-1.387 6.061 1.883 1819
-1.431 6.252 1.918 3912
-1.395 6.096 1.873 1996
-1.432 6.257 1.900 3778
-1.473 6.435 1.950 3310
-1.476 6.448 1.933 4564
-1.508 6.589 1.973 2626
-1.504 6.572 1.947 5075
-1.472 6.430 1.908 4228
-1.476 6.450 1.893 4755
-1.509 6.592 1.932 4121
-1.479 6.463 1.876 4174
-1.512 6.605 1.914 2648
-1.508 6.587 1.888 3367
-1.656 7.237 2.062 2267
-1.656 7.235 2.039 3423
-1.505 6.577 1.865 2265
-1.655 7.233 2.015 2538
-1.691 7.390 2.056 2147
-1.694 7.403 2.036 2766
-1.657 7.238 1.994 2351
-1.673 7.311 1.989 1860
-1.747 7.633 2.071 1302
-1.577 6.889 1.860 1566
-1.702 7.436 1.998 1491
-1.583 6.916 1.845 1762
-1.413 6.174 1.661 1493
-1.414 6.178 1.642 2795
-1.596 6.973 1.838 1657
-1.415 6.182 1.624 4118
-1.595 6.971 1.815 2251
-1.416 6.186 1.606 4249
-1.571 6.863 1.767 2653
-1.570 6.860 1.745 3320
-1.417 6.190 1.587 2826
-1.568 6.849 1.721 2979
-1.419 6.202 1.571 2489
-1.420 6.206 1.552 3695
-1.562 6.824 1.694 2297
-1.420 6.203 1.532 3573
-1.559 6.813 1.670 2219
-1.422 6.214 1.515 2903
-1.560 6.817 1.650 1941
-1.421 6.210 1.495 5731
-1.565 6.837 1.633 1577
-1.424 6.222 1.478 7579
-1.541 6.735 1.590 3025
-1.546 6.754 1.573 5814
-1.425 6.226 1.460 5092
-1.549 6.766 1.554 5512
-1.426 6.229 1.441 3929
-1.549 6.770 1.534 2994
-1.428 6.241 1.424 2604
-1.438 6.282 1.414 2949
-1.523 6.653 1.489 1729
-1.435 6.270 1.392 3983
-1.544 6.748 1.488 1419
-1.436 6.274 1.373 3699
-1.545 6.751 1.468 1257
-1.437 6.278 1.355 3245
-1.551 6.778 1.452 839
-1.436 6.273 1.335 3943
-1.554 6.789 1.434 573
-1.430 6.246 1.310 5068
-1.560 6.816 1.418 508
-1.432 6.257 1.293 7784
-1.469 6.417 1.323 550
-1.435 6.268 1.276 11090
-2.975 12.999 2.506 672
-1.434 6.264 1.256 11847
-1.475 6.446 1.289 713
-1.434 6.267 1.237 9413
-1.492 6.518 1.282 679
-1.433 6.262 1.217 5654
-3.103 13.559 2.483 775
-1.432 6.258 1.197 3343
-3.072 13.421 2.418 1018
-1.452 6.345 1.193 2130
-3.073 13.428 2.378 1516
-1.456 6.363 1.176 2095
-3.076 13.442 2.339 1976
-1.459 6.373 1.159 2277
-3.078 13.448 2.299 2217
-1.456 6.361 1.137 2649
-3.077 13.446 2.258 1987
-1.455 6.356 1.117 2907
-3.079 13.452 2.218 1570
-1.452 6.344 1.096 2577
-3.082 13.466 2.179 1395
-1.449 6.331 1.075 1794
-3.083 13.472 2.139 1062
-1.422 6.211 1.038 1343
-1.455 6.357 1.060 827
-1.424 6.222 1.021 1179
-1.424 6.224 1.002 1336
-1.418 6.196 0.980 1730
-1.417 6.191 0.960 1546
-1.414 6.178 0.940 1272
-1.409 6.157 0.919 1270
-1.413 6.174 0.902 1046
-1.393 6.085 0.873 1158
-1.388 6.064 0.852 1287
-1.390 6.073 0.835 1386
-1.390 6.075 0.817 1466
-1.391 6.077 0.799 1309
-1.370 5.987 0.771 1473
-1.365 5.966 0.751 1540
-1.332 5.820 0.736 685
-1.339 5.852 0.722 1574
-1.373 5.998 0.736 671
-1.340 5.854 0.704 1714
-1.338 5.848 0.686 1417
-1.339 5.849 0.669 1796
-1.336 5.835 0.650 3211
-1.332 5.821 0.631 3957
-1.366 5.967 0.644 713
-1.331 5.815 0.613 4156
-1.364 5.961 0.625 964
-1.333 5.824 0.597 3565
-1.366 5.970 0.608 609
-1.333 5.825 0.579 2605
-1.300 5.679 0.568 910
-1.328 5.803 0.560 2264
-1.295 5.657 0.550 699
-1.328 5.805 0.543 2297
-1.295 5.658 0.533 851
-1.306 5.706 0.519 2437
-1.339 5.852 0.529 1173
-1.303 5.691 0.501 2035
-1.336 5.838 0.511 1185
-1.303 5.692 0.484 1415
-1.336 5.839 0.493 1007
-1.303 5.693 0.468 1459
-1.270 5.547 0.459 741
-1.284 5.609 0.446 1914
-1.317 5.756 0.454 1013
-1.282 5.603 0.429 2351
-1.316 5.749 0.437 722
-1.281 5.596 0.412 1697
-1.314 5.742 0.419 561
-1.279 5.589 0.395 1150
-1.288 5.628 0.380 1311
-1.288 5.629 0.363 1907
-1.288 5.629 0.347 2503
-1.255 5.483 0.341 523
-1.288 5.630 0.330 2396
-1.255 5.483 0.325 935
-1.257 5.491 0.309 1713
-1.290 5.638 0.313 1549
-1.255 5.484 0.292 2016
-1.289 5.631 0.297 905
-1.252 5.469 0.276 1654
-1.285 5.616 0.279 680
-1.250 5.462 0.259 1199
-1.247 5.447 0.243 1066
-1.243 5.432 0.226 1687
-1.277 5.578 0.229 594
-1.241 5.424 0.210 2337
-1.275 5.571 0.212 657
-1.243 5.432 0.194 3294
-1.210 5.285 0.193 796
-1.243 5.432 0.178 4252
-1.210 5.285 0.177 1003
-1.243 5.432 0.162 3703
-1.210 5.286 0.161 1509
-1.245 5.440 0.146 2313
-1.211 5.293 0.146 2017
-1.213 5.301 0.130 1905
-1.249 5.455 0.130 1565
-1.213 5.301 0.114 2026
-1.249 5.455 0.114 1125
-1.226 5.355 0.098 2436
-1.226 5.355 0.082 2711
-1.192 5.208 0.084 648
-1.225 5.355 0.066 2985
-1.192 5.208 0.068 928
-1.210 5.285 0.052 2690
-1.176 5.138 0.054 541
-1.208 5.277 0.036 2557
-1.174 5.130 0.039 730
-1.206 5.269 0.021 2331
-1.172 5.122 0.024 771
-1.202 5.253 0.005 2294
-1.169 5.106 0.009 683
-1.192 5.206 -0.009 2397
-1.225 5.353 -0.013 755
-1.191 5.206 -0.024 2859
-1.225 5.352 -0.029 689
-1.200 5.244 -0.041 2473
-1.167 5.097 -0.036 1022
-1.202 5.251 -0.057 2700
-1.168 5.105 -0.051 1348
-1.202 5.251 -0.072 2290
-1.168 5.104 -0.066 1540
-1.175 5.134 -0.083 1940
-1.209 5.281 -0.089 1213
-1.161 5.072 -0.095 2151
-1.196 5.226 -0.102 1415
-1.161 5.071 -0.110 2615
-1.194 5.218 -0.118 1265
-1.160 5.071 -0.125 2629
-1.194 5.217 -0.133 910
-1.162 5.078 -0.141 2680
-1.199 5.239 -0.150 532
-1.157 5.054 -0.154 2368
-1.190 5.200 -0.163 580
-1.153 5.037 -0.168 2657
-1.186 5.184 -0.178 717
-1.153 5.036 -0.183 2897
-1.186 5.183 -0.193 618
-1.149 5.020 -0.197 3306
-1.182 5.166 -0.207 570
-1.142 4.988 -0.210 3900
-1.140 4.980 -0.224 5237
-1.139 4.979 -0.239 5237
-1.139 4.977 -0.254 5269
-1.173 5.124 -0.265 510
-1.139 4.976 -0.268 5302
-1.172 5.122 -0.281 650
-1.139 4.975 -0.283 4585
-1.172 5.121 -0.296 593
-1.140 4.982 -0.299 3981
-1.107 4.835 -0.286 519
-1.140 4.980 -0.313 3019
-1.106 4.834 -0.300 839
-1.120 4.894 -0.320 2185
-1.154 5.040 -0.334 1206
-1.120 4.893 -0.335 2185
-1.153 5.039 -0.349 1206
-1.116 4.876 -0.348 2170
-1.149 5.022 -0.362 1286
-1.114 4.867 -0.361 2251
-1.147 5.013 -0.376 957
-1.114 4.866 -0.376 1125
-0.518 2.279 1.821 4407
-0.519 2.283 1.814 8815
-0.546 2.402 1.903 1542
-0.531 2.338 1.845 13967
-0.504 2.220 1.756 1461
-0.530 2.330 1.828 13446
-0.557 2.449 1.917 2367
-0.529 2.329 1.817 13584
-0.556 2.448 1.905 4568
-0.532 2.340 1.815 13466
-0.559 2.459 1.902 3744
-0.533 2.345 1.808 13415
-0.560 2.464 1.895 4560
-0.534 2.350 1.801 13415
-0.561 2.469 1.888 5247
-0.552 2.430 1.849 13160
-0.525 2.310 1.762 2756
-0.552 2.429 1.837 13730
-0.579 2.549 1.923 1897
-0.555 2.440 1.834 11940
-0.582 2.560 1.920 2582
-0.557 2.451 1.832 10633
-0.585 2.572 1.917 3173
-0.558 2.456 1.825 7354
-0.586 2.577 1.909 2818
-0.561 2.467 1.822 4186
-0.588 2.588 1.906 3588
-0.591 2.600 1.903 4831
-0.562 2.472 1.815 4186
-0.592 2.605 1.896 5845
-0.564 2.483 1.812 4808
-0.571 2.513 1.822 7450
-0.599 2.635 1.905 3413
-0.593 2.608 1.876 7227
-0.565 2.486 1.793 4576
-0.594 2.613 1.868 7597
-0.566 2.491 1.785 3705
-0.576 2.534 1.804 6176
-0.604 2.657 1.887 2756
-0.578 2.545 1.801 5683
-0.606 2.668 1.883 2145
-0.580 2.550 1.794 5614
-0.613 2.699 1.892 2986
-0.585 2.574 1.799 6005
-0.616 2.711 1.889 4163
-0.596 2.624 1.821 5743
-0.625 2.748 1.902 2707
-0.599 2.636 1.818 7502
-0.627 2.760 1.898 2972
-0.602 2.647 1.814 6697
-0.630 2.771 1.894 2427
-0.610 2.685 1.827 7062
-0.638 2.809 1.907 1097
-0.614 2.702 1.828 6166
-0.643 2.827 1.907 731
-0.621 2.734 1.837 6053
-0.593 2.609 1.758 803
-0.622 2.738 1.829 9778
-0.594 2.613 1.750 591
-0.625 2.750 1.825 13721
-0.570 2.506 1.672 538
-0.629 2.768 1.825 13318
-0.658 2.893 1.903 720
-0.635 2.792 1.829 15700
-0.606 2.667 1.751 610
-0.637 2.804 1.825 14311
-0.609 2.678 1.748 709
-0.638 2.809 1.816 13177
-0.667 2.935 1.893 964
-0.639 2.813 1.808 10204
-0.668 2.940 1.885 1615
-0.639 2.811 1.796 6192
-0.668 2.938 1.872 2295
-0.640 2.816 1.788 4958
-0.669 2.943 1.863 2731
-0.655 2.881 1.815 7780
-0.626 2.754 1.740 1486
-0.654 2.879 1.803 10266
-0.625 2.752 1.728 1016
-0.658 2.897 1.802 9207
-0.630 2.770 1.727 1145
-0.663 2.915 1.801 9262
-0.634 2.788 1.727 1475
-0.665 2.927 1.797 7639
-0.636 2.799 1.723 1116
-0.669 2.945 1.796 7621
-0.640 2.817 1.722 758
-0.670 2.950 1.787 8846
-0.700 3.078 1.860 951
-0.673 2.961 1.782 8405
-0.702 3.090 1.855 1375
-0.674 2.966 1.773 7970
-0.703 3.094 1.846 1657
-0.678 2.984 1.772 6909
-0.717 3.154 1.867 2121
-0.682 3.002 1.771 7735
-0.719 3.165 1.861 3739
-0.685 3.014 1.766 9008
-0.721 3.170 1.852 4379
-0.688 3.025 1.761 8245
-0.722 3.175 1.842 4085
-0.692 3.043 1.759 6189
-0.723 3.180 1.833 3792
-0.694 3.055 1.754 4618
-0.735 3.233 1.849 4338
-0.737 3.244 1.844 4999
-0.694 3.052 1.741 3302
-0.738 3.249 1.834 4581
-0.696 3.064 1.736 3073
-0.697 3.068 1.727 4211
-0.741 3.261 1.828 3284
-0.755 3.321 1.847 6984
-0.703 3.094 1.729 4311
-0.756 3.325 1.837 9681
-0.703 3.091 1.716 4283
-0.751 3.303 1.813 10132
-0.700 3.082 1.700 4411
-0.749 3.294 1.797 10153
-0.703 3.093 1.694 3885
-0.743 3.271 1.773 5942
-0.773 3.402 1.840 2679
-0.740 3.254 1.753 5000
-0.776 3.414 1.833 2172
-0.750 3.301 1.764 4645
-0.780 3.432 1.830 2330
-0.756 3.326 1.765 7720
-0.786 3.458 1.830 1664
-0.759 3.338 1.758 7957
-0.789 3.470 1.823 1411
-0.761 3.349 1.752 6066
-0.872 3.837 1.990 1175
-0.765 3.368 1.749 4859
-0.869 3.821 1.969 2040
-0.770 3.386 1.745 4705
-0.868 3.820 1.954 2483
-0.771 3.391 1.735 6142
-0.871 3.832 1.946 2346
-0.773 3.402 1.729 7839
-0.874 3.844 1.938 3320
-0.776 3.414 1.722 6670
-0.875 3.849 1.927 4693
-0.874 3.847 1.912 6822
-0.782 3.440 1.722 3705
-0.877 3.859 1.904 8417
-0.789 3.472 1.725 2793
-0.878 3.864 1.893 6943
-0.789 3.470 1.711 3431
-0.879 3.869 1.881 5078
-0.788 3.467 1.698 3849
-0.909 4.001 1.927 4600
-0.879 3.867 1.867 4346
-0.911 4.006 1.916 6303
-0.878 3.865 1.852 5199
-0.908 3.997 1.897 6515
-0.878 3.862 1.837 4556
-0.921 4.052 1.908 6088
-0.884 3.889 1.835 2525
-0.924 4.064 1.899 5428
-0.893 3.929 1.840 3174
-0.933 4.104 1.902 5372
-0.901 3.962 1.840 4018
-0.923 4.059 1.868 5421
-0.958 4.216 1.936 4497
-0.958 4.214 1.920 4691
-0.922 4.057 1.853 4629
-0.983 4.326 1.953 4748
-0.952 4.191 1.896 3395
-0.984 4.331 1.941 9509
-0.954 4.195 1.884 3856
-0.987 4.343 1.931 9745
-0.956 4.208 1.874 4375
-0.972 4.277 1.888 7117
-1.003 4.413 1.945 2569
-0.985 4.332 1.896 4685
-1.016 4.468 1.952 1381
-0.991 4.359 1.892 5097
-1.022 4.495 1.948 2830
-1.003 4.414 1.900 7595
-1.034 4.550 1.955 1787
-1.004 4.419 1.886 8922
-1.035 4.555 1.941 2214
-1.004 4.417 1.871 6345
-1.035 4.553 1.925 3899
-1.028 4.522 1.897 4581
-0.997 4.385 1.843 2003
-1.047 4.607 1.915 4499
-1.016 4.470 1.861 3322
-1.025 4.511 1.862 4782
-1.056 4.648 1.915 3025
-1.031 4.537 1.857 6866
-1.062 4.675 1.910 2004
-1.032 4.542 1.844 8338
-1.064 4.680 1.896 2480
-1.038 4.569 1.838 7141
-1.076 4.735 1.901 2485
-1.074 4.726 1.881 5495
-1.043 4.588 1.830 3740
-1.077 4.738 1.870 7240
-1.046 4.600 1.819 1705
-1.083 4.765 1.864 7543
-1.123 4.939 1.928 2601
-1.082 4.762 1.847 6329
-1.125 4.952 1.916 3728
-1.105 4.862 1.867 4548
-1.137 5.000 1.917 2930
-1.139 5.013 1.905 3604
-1.086 4.779 1.822 3001
-1.139 5.010 1.887 3051
-1.170 5.149 1.936 1862
-1.132 4.979 1.860 4081
-1.163 5.118 1.908 2393
-1.156 5.086 1.880 4561
-1.124 4.947 1.832 3372
-1.162 5.113 1.873 5334
-1.194 5.252 1.920 3543
-1.167 5.133 1.863 4312
-1.198 5.272 1.910 3212
-1.191 5.240 1.882 3381
-1.159 5.101 1.835 1544
-1.195 5.260 1.871 2594
-1.246 5.480 1.945 2093
-1.200 5.279 1.861 3061
-1.247 5.485 1.928 2611
-1.214 5.343 1.864 3350
-1.246 5.483 1.910 2036
-1.214 5.341 1.846 3384
-1.247 5.488 1.893 1922
-1.220 5.368 1.837 2809
-1.252 5.508 1.882 2457
-1.258 5.535 1.872 2284
-1.226 5.395 1.828 1956
-1.261 5.547 1.858 2721
-1.313 5.776 1.930 2233
-1.264 5.559 1.844 2662
-1.312 5.774 1.910 2394
-1.312 5.771 1.891 2308
-1.266 5.572 1.830 2071
-1.289 5.673 1.843 2539
-1.321 5.813 1.885 1421
-1.287 5.663 1.821 1780
-1.358 5.974 1.915 1607
-1.361 5.986 1.899 1918
-1.398 6.149 1.947 1568
-1.409 6.199 1.942 2042
-1.374 6.043 1.896 1847
-1.410 6.204 1.924 2435
-1.378 6.063 1.883 1843
-1.421 6.254 1.918 3843
-1.386 6.098 1.873 1942
-1.423 6.259 1.900 3686
-1.461 6.430 1.948 3008
-1.466 6.450 1.933 3971
-1.498 6.591 1.973 2427
-1.494 6.574 1.947 5138
-1.462 6.433 1.908 3302
-1.495 6.579 1.927 4851
-1.463 6.438 1.889 3359
-1.471 6.473 1.878 3780
-1.503 6.614 1.916 2337
-1.498 6.589 1.888 2909
-1.632 7.180 2.046 2516
-1.643 7.230 2.037 3514
-1.494 6.572 1.863 2125
-1.644 7.235 2.015 2697
-1.680 7.392 2.056 2449
-1.683 7.405 2.036 2970
-1.647 7.248 1.996 2203
-1.662 7.313 1.989 2187
-1.403 6.174 1.699 1792
-1.403 6.171 1.679 1711
-1.667 7.333 1.971 1399
-1.584 6.971 1.858 1433
-1.404 6.176 1.661 1304
-1.406 6.188 1.644 2609
-1.585 6.976 1.838 1713
-1.407 6.192 1.626 4501
-1.585 6.973 1.815 2246
-1.408 6.196 1.607 4247
-1.559 6.858 1.765 2520
-1.556 6.847 1.742 3026
-1.409 6.200 1.589 2534
-1.410 6.204 1.571 2847
-1.557 6.852 1.721 2381
-1.411 6.208 1.552 4518
-1.551 6.826 1.694 1783
-1.412 6.212 1.534 4908
-1.549 6.815 1.670 1746
-1.411 6.209 1.514 4392
-1.565 6.888 1.665 1700
-1.412 6.213 1.495 5810
-1.551 6.824 1.630 1463
-1.413 6.216 1.477 7718
-1.542 6.783 1.600 3328
-1.414 6.220 1.458 6416
-1.537 6.764 1.575 5847
-1.538 6.768 1.554 5756
-1.413 6.216 1.438 5279
-1.539 6.772 1.534 3410
-1.415 6.228 1.421 3046
-1.428 6.284 1.414 2718
-1.542 6.784 1.516 1818
-1.426 6.273 1.392 3628
-1.543 6.788 1.496 1261
-1.426 6.276 1.373 3350
-1.535 6.754 1.468 1027
-1.429 6.287 1.356 3244
-1.539 6.773 1.451 656
-1.428 6.283 1.336 4562
-2.508 11.033 2.248 520
-1.420 6.249 1.310 5225
-2.630 11.571 2.315 586
-1.421 6.252 1.292 8271
-1.461 6.427 1.324 701
-1.423 6.263 1.274 11588
-1.465 6.445 1.308 740
-1.424 6.266 1.256 12352
-1.466 6.448 1.289 688
-1.423 6.261 1.236 9923
-3.083 13.565 2.525 690
-1.424 6.265 1.217 5870
-3.085 13.572 2.485 846
-1.423 6.260 1.197 3572
-3.052 13.426 2.418 921
-1.422 6.255 1.177 2374
-3.053 13.432 2.378 1330
-1.447 6.365 1.176 1982
-3.054 13.439 2.338 1791
-1.447 6.368 1.158 2264
-3.058 13.453 2.299 2016
-1.446 6.363 1.137 2510
-3.057 13.451 2.258 1859
-1.445 6.358 1.117 2468
-3.059 13.457 2.218 1549
-1.442 6.346 1.096 2089
-3.098 13.631 2.203 1348
-1.441 6.341 1.076 1270
-3.063 13.476 2.139 924
-1.433 6.305 1.052 853
-3.062 13.474 2.097 560
-1.413 6.216 1.020 748
-1.415 6.226 1.002 900
-1.409 6.198 0.980 1130
-1.408 6.193 0.960 994
-1.405 6.180 0.940 834
-1.400 6.159 0.919 844
-1.402 6.169 0.901 671
-1.383 6.087 0.873 816
-1.379 6.066 0.852 907
-1.381 6.075 0.835 958
-1.381 6.077 0.817 1014
-1.382 6.079 0.799 905
-1.361 5.989 0.771 1084
-1.356 5.968 0.751 1115
-1.331 5.854 0.722 1098
-1.331 5.856 0.704 1197
-1.330 5.850 0.686 1005
-1.330 5.851 0.669 1370
-1.327 5.837 0.650 2493
-1.324 5.823 0.631 3099
-1.357 5.970 0.644 552
-1.322 5.817 0.613 3236
-1.355 5.963 0.625 728
-1.322 5.818 0.596 2770
-1.356 5.965 0.608 547
-1.323 5.820 0.579 1996
-1.289 5.673 0.568 616
-1.319 5.805 0.560 1782
-1.286 5.659 0.550 550
-1.320 5.807 0.543 1786
-1.286 5.660 0.533 660
-1.297 5.708 0.519 1884
-1.331 5.854 0.529 851
-1.294 5.693 0.501 1494
-1.327 5.840 0.511 874
-1.317 5.794 0.491 1074
-1.294 5.695 0.468 1101
-1.261 5.549 0.459 615
-1.274 5.604 0.446 1619
-1.307 5.750 0.454 806
-1.274 5.604 0.429 1955
-1.307 5.751 0.437 516
-1.272 5.598 0.412 1396
-1.271 5.591 0.395 966
-1.280 5.630 0.380 1179
-1.280 5.631 0.363 1659
-1.280 5.631 0.347 2139
-1.280 5.632 0.330 2021
-1.247 5.485 0.325 835
-1.249 5.493 0.309 1467
-1.282 5.640 0.313 1267
-1.247 5.486 0.292 1691
-1.280 5.633 0.297 715
-1.243 5.471 0.276 1419
-1.277 5.618 0.279 543
-1.242 5.464 0.259 1079
-1.238 5.449 0.243 969
-1.235 5.433 0.226 1557
-1.268 5.580 0.229 512
-1.233 5.426 0.210 2171
-1.267 5.573 0.212 580
-1.235 5.434 0.194 2959
-1.202 5.287 0.193 694
-1.235 5.434 0.178 3750
-1.202 5.287 0.177 894
-1.235 5.434 0.162 3206
-1.202 5.287 0.161 1330
-1.237 5.442 0.146 1928
-1.203 5.295 0.146 1728
-1.205 5.303 0.130 1597
-1.240 5.457 0.130 1283
-1.205 5.303 0.114 1803
-1.240 5.457 0.114 947
-1.217 5.357 0.098 2231
-1.217 5.357 0.082 2422
-1.184 5.210 0.084 540
-1.217 5.356 0.066 2614
-1.184 5.210 0.068 772
-1.202 5.287 0.052 2444
-1.202 5.286 0.036 2370
-1.168 5.140 0.039 726
-1.198 5.271 0.021 2103
-1.165 5.124 0.024 639
-1.194 5.255 0.005 2054
-1.161 5.108 0.009 550
-1.184 5.208 -0.009 2181
-1.217 5.355 -0.013 712
-1.184 5.208 -0.024 2549
-1.217 5.354 -0.029 634
-1.192 5.246 -0.041 2176
-1.159 5.099 -0.036 856
-1.196 5.261 -0.057 2345
-1.162 5.114 -0.052 1161
-1.194 5.252 -0.072 1992
-1.160 5.106 -0.066 1334
-1.167 5.136 -0.083 1796
-1.201 5.283 -0.089 1051
-1.153 5.074 -0.095 1836
-1.186 5.220 -0.102 1276
-1.153 5.073 -0.110 2215
-1.186 5.220 -0.118 1135
-1.153 5.072 -0.125 2248
-1.186 5.219 -0.133 802
-1.154 5.079 -0.141 2327
-1.147 5.048 -0.154 2033
-1.181 5.194 -0.163 518
-1.145 5.039 -0.168 2348
-1.179 5.185 -0.178 641
-1.143 5.030 -0.183 2544
-1.177 5.177 -0.192 592
-1.140 5.014 -0.197 2983
-1.134 4.990 -0.210 3740
-1.132 4.981 -0.224 4952
-1.132 4.980 -0.239 4952
-1.132 4.979 -0.254 4882
-1.131 4.978 -0.268 4812
-1.165 5.124 -0.281 600
-1.131 4.977 -0.283 4191
-1.164 5.123 -0.296 538
-1.133 4.983 -0.299 3680
-1.099 4.837 -0.286 504
-1.132 4.982 -0.313 2766
-1.099 4.836 -0.300 796
-1.111 4.888 -0.319 2095
-1.144 5.034 -0.333 1403
-1.111 4.887 -0.334 2095
-1.144 5.033 -0.348 1403
-1.109 4.878 -0.348 2047
-1.142 5.024 -0.362 1215
-1.107 4.869 -0.361 2058
-1.140 5.015 -0.376 894
-1.106 4.868 -0.376 1029
-0.513 2.280 1.821 4479
-0.515 2.291 1.819 9003
-0.542 2.409 1.908 1167
-0.525 2.333 1.840 13514
-0.498 2.214 1.751 1151
-0.524 2.332 1.828 13309
-0.551 2.451 1.917 2155
-0.526 2.336 1.822 13327
-0.552 2.456 1.909 3164
-0.527 2.341 1.815 12915
-0.553 2.461 1.902 3171
-0.543 2.415 1.858 14256
-0.516 2.296 1.771 2584
-0.544 2.420 1.851 14256
-0.517 2.300 1.765 2584
-0.545 2.425 1.844 14465
-0.518 2.305 1.758 1862
-0.548 2.436 1.842 14915
-0.521 2.316 1.756 1701
-0.550 2.447 1.839 12590
-0.578 2.568 1.925 1946
-0.553 2.459 1.836 10556
-0.580 2.579 1.922 2274
-0.554 2.463 1.829 7335
-0.581 2.585 1.914 2233
-0.565 2.513 1.853 4644
-0.593 2.634 1.938 900
-0.566 2.518 1.846 4644
-0.594 2.639 1.930 1321
-0.566 2.516 1.834 5920
-0.593 2.638 1.918 2336
-0.564 2.508 1.818 7529
-0.592 2.630 1.901 4362
-0.586 2.603 1.871 7615
-0.558 2.481 1.788 3737
-0.587 2.608 1.864 8387
-0.559 2.485 1.781 2658
-0.588 2.613 1.856 7100
-0.560 2.490 1.774 2238
-0.590 2.624 1.853 5833
-0.563 2.501 1.771 2310
-0.574 2.551 1.794 5656
-0.607 2.701 1.892 2918
-0.581 2.582 1.803 6328
-0.609 2.705 1.884 4234
-0.591 2.626 1.821 6120
-0.618 2.750 1.902 2775
-0.593 2.637 1.818 7845
-0.621 2.761 1.898 3048
-0.597 2.655 1.818 6937
-0.625 2.779 1.899 2128
-0.606 2.692 1.832 7801
-0.634 2.817 1.911 864
-0.608 2.704 1.828 6714
-0.636 2.828 1.907 739
-0.615 2.735 1.837 6031
-0.587 2.610 1.758 741
-0.618 2.746 1.833 10456
-0.590 2.621 1.754 635
-0.620 2.758 1.829 15226
-0.565 2.514 1.676 580
-0.624 2.776 1.829 16224
-0.653 2.901 1.907 613
-0.628 2.794 1.829 19568
-0.587 2.608 1.715 632
-0.629 2.799 1.821 18743
-0.658 2.925 1.898 943
-0.631 2.803 1.812 17917
-0.659 2.930 1.889 1404
-0.632 2.808 1.804 14709
-0.660 2.935 1.881 1855
-0.633 2.813 1.796 9168
-0.663 2.946 1.876 2350
-0.628 2.791 1.772 6423
-0.656 2.918 1.847 3692
-0.648 2.882 1.815 7830
-0.620 2.755 1.740 1773
-0.649 2.887 1.807 10529
-0.621 2.760 1.732 1367
-0.652 2.899 1.802 10048
-0.623 2.771 1.727 1586
-0.656 2.917 1.801 10556
-0.627 2.789 1.727 2241
-0.659 2.928 1.797 8146
-0.630 2.800 1.723 1714
-0.663 2.946 1.796 7238
-0.634 2.818 1.722 899
-0.664 2.951 1.787 8432
-0.635 2.823 1.714 1015
-0.666 2.963 1.782 8159
-0.695 3.091 1.855 1047
-0.667 2.967 1.773 7992
-0.696 3.096 1.846 1378
-0.670 2.979 1.768 6524
-0.699 3.108 1.840 1892
-0.676 3.004 1.771 7116
-0.712 3.167 1.861 3128
-0.677 3.008 1.762 8599
-0.713 3.172 1.852 3673
-0.679 3.020 1.757 7914
-0.715 3.177 1.842 3541
-0.683 3.038 1.755 6162
-0.734 3.263 1.877 3851
-0.684 3.043 1.747 4429
-0.729 3.241 1.853 4410
-0.729 3.239 1.840 5046
-0.684 3.040 1.734 3061
-0.734 3.264 1.841 4464
-0.690 3.065 1.736 2934
-0.691 3.070 1.727 4413
-0.743 3.304 1.850 3617
-0.747 3.322 1.847 7197
-0.695 3.088 1.725 4875
-0.748 3.327 1.837 9808
-0.696 3.093 1.716 4673
-0.743 3.304 1.813 10300
-0.695 3.090 1.703 4185
-0.740 3.288 1.793 10701
-0.696 3.095 1.694 3915
-0.734 3.265 1.769 7736
-0.699 3.106 1.689 2538
-0.736 3.270 1.760 6029
-0.767 3.409 1.830 1706
-0.738 3.281 1.754 5345
-0.769 3.420 1.823 2002
-0.750 3.335 1.768 7879
-0.720 3.203 1.702 3057
-0.751 3.339 1.758 7784
-0.721 3.207 1.693 2163
-0.755 3.358 1.755 6381
-0.862 3.832 1.987 1468
-0.761 3.383 1.755 5733
-0.858 3.816 1.965 2605
-0.764 3.395 1.749 5484
-0.858 3.814 1.951 2790
-0.763 3.393 1.735 7162
-0.858 3.813 1.936 2416
-0.766 3.404 1.729 8971
-0.876 3.895 1.961 2729
-0.768 3.416 1.722 7777
-0.871 3.872 1.937 4517
-0.866 3.849 1.912 7183
-0.774 3.441 1.722 4807
-0.867 3.854 1.901 8542
-0.778 3.460 1.718 2658
-0.870 3.866 1.893 7030
-0.781 3.471 1.711 2408
-0.872 3.878 1.884 5289
-0.780 3.469 1.698 2703
-0.900 4.003 1.927 4916
-0.870 3.869 1.867 4122
-0.902 4.008 1.916 6213
-0.868 3.860 1.849 4542
-0.901 4.006 1.901 5976
-0.871 3.872 1.841 4407
-0.913 4.061 1.911 7008
-0.883 3.926 1.851 2869
-0.915 4.066 1.899 6261
-0.884 3.931 1.840 3279
-0.924 4.106 1.902 6049
-0.892 3.964 1.840 3797
-0.915 4.069 1.872 5351
-0.949 4.218 1.936 4602
-0.950 4.223 1.924 4225
-0.915 4.066 1.856 4192
-0.975 4.335 1.956 5421
-0.945 4.200 1.899 3438
-0.975 4.333 1.941 10437
-0.944 4.198 1.884 4140
-0.979 4.353 1.934 10051
-0.948 4.217 1.877 5223
-0.962 4.279 1.888 7399
-0.993 4.415 1.945 3311
-0.975 4.334 1.896 4735
-1.006 4.470 1.952 1116
-0.979 4.354 1.889 4856
-1.012 4.497 1.948 2397
-0.992 4.409 1.897 7335
-1.022 4.545 1.952 2183
-0.994 4.421 1.886 8498
-1.025 4.558 1.941 2228
-0.994 4.419 1.871 5392
-1.025 4.556 1.925 3893
-1.018 4.525 1.897 4844
-0.987 4.388 1.843 1852
-1.012 4.501 1.873 4451
-1.043 4.638 1.926 3167
-1.015 4.513 1.862 5005
-1.046 4.650 1.915 2661
-1.021 4.540 1.857 6833
-1.052 4.677 1.910 1901
-1.022 4.544 1.844 7472
-1.053 4.682 1.896 1881
-1.028 4.571 1.838 6369
-1.062 4.723 1.895 2032
-1.062 4.721 1.879 4894
-1.031 4.583 1.827 3391
-1.065 4.733 1.867 6548
-1.096 4.871 1.918 1836
-1.072 4.767 1.864 6877
-1.112 4.942 1.928 2675
-1.073 4.772 1.850 5977
-1.114 4.954 1.916 4057
-1.094 4.864 1.867 5257
-1.125 5.003 1.917 3036
-1.128 5.015 1.905 3502
-1.076 4.782 1.822 3488
-1.129 5.020 1.890 3271
-1.160 5.159 1.939 2015
-1.119 4.974 1.857 4433
-1.150 5.113 1.906 3124
-1.120 4.979 1.842 5278
-1.151 5.118 1.891 3765
-1.151 5.116 1.873 5053
-1.182 5.255 1.920 4136
-1.155 5.135 1.863 4781
-1.186 5.275 1.910 3134
-1.163 5.169 1.857 3869
-1.194 5.309 1.904 1894
-1.162 5.167 1.840 2522
-1.233 5.483 1.945 2147
-1.234 5.488 1.928 2820
-1.188 5.282 1.861 2505
-1.206 5.361 1.869 2656
-1.237 5.500 1.914 2211
-1.205 5.358 1.851 2503
-1.237 5.498 1.896 2381
-1.239 5.510 1.882 2731
-1.208 5.370 1.837 2055
-1.262 5.611 1.896 2191
-1.231 5.471 1.851 1815
-1.250 5.557 1.861 2175
-1.302 5.786 1.932 1824
-1.319 5.865 1.938 2340
-1.251 5.562 1.844 2121
-1.277 5.678 1.862 2331
-1.322 5.878 1.923 2100
-1.277 5.675 1.843 2823
-1.325 5.890 1.908 1485
-1.276 5.673 1.823 1862
-1.346 5.984 1.917 1658
-1.345 5.982 1.897 1885
-1.399 6.219 1.967 1875
-1.398 6.217 1.947 2214
-1.348 5.994 1.881 1776
-1.396 6.207 1.924 2410
-1.428 6.348 1.965 1614
-1.406 6.250 1.916 3534
-1.464 6.510 1.991 2165
-1.407 6.255 1.897 3320
-1.464 6.508 1.969 2328
-1.430 6.356 1.906 3989
-1.462 6.498 1.946 2343
-1.480 6.578 1.947 4641
-1.433 6.369 1.889 2922
-1.481 6.583 1.927 4446
-1.435 6.381 1.872 2478
-1.458 6.483 1.880 3499
-1.490 6.625 1.918 1864
-1.614 7.176 2.044 2863
-1.478 6.570 1.882 2294
-1.619 7.196 2.027 3750
-1.477 6.568 1.861 2088
-1.622 7.209 2.007 2878
-1.664 7.396 2.056 2229
-1.645 7.312 2.011 2891
-1.677 7.454 2.048 2031
-1.647 7.324 1.991 2330
-1.391 6.185 1.701 1820
-1.392 6.189 1.683 1976
-1.650 7.337 1.971 1346
-1.391 6.186 1.663 2155
-1.724 7.665 2.030 1319
-1.392 6.191 1.644 2720
-1.570 6.979 1.838 1639
-1.395 6.202 1.628 4098
-1.571 6.984 1.817 1952
-1.396 6.207 1.609 6616
-1.542 6.854 1.764 2123
-1.397 6.211 1.591 6995
-1.541 6.851 1.742 2265
-1.398 6.215 1.572 5236
-1.540 6.848 1.719 1796
-1.399 6.219 1.554 3329
-1.538 6.837 1.696 1324
-1.400 6.223 1.535 2666
-1.537 6.834 1.674 1161
-1.401 6.227 1.517 3003
-1.547 6.876 1.662 1413
-1.398 6.216 1.495 4891
-1.529 6.797 1.623 1477
-1.399 6.220 1.477 7884
-1.526 6.786 1.600 3196
-1.400 6.223 1.458 8700
-1.522 6.768 1.575 4579
-1.399 6.219 1.438 7395
-1.523 6.772 1.554 4692
-1.401 6.231 1.421 3822
-1.526 6.783 1.536 3278
-1.527 6.787 1.516 2137
-1.414 6.287 1.414 2021
-1.412 6.276 1.392 2529
-1.528 6.791 1.496 1445
-1.412 6.279 1.373 3323
-1.528 6.795 1.475 692
-1.413 6.283 1.355 4212
-2.482 11.033 2.281 774
-1.414 6.286 1.336 4496
-2.483 11.039 2.248 845
-1.408 6.259 1.312 4104
-2.602 11.569 2.314 876
-1.409 6.263 1.293 6960
-2.605 11.583 2.281 1008
-1.411 6.273 1.276 9725
-2.607 11.589 2.246 792
-1.410 6.269 1.256 10527
-1.453 6.459 1.290 621
-1.411 6.272 1.237 9434
-2.753 12.240 2.290 826
-1.410 6.268 1.217 5424
-3.054 13.579 2.485 925
-1.409 6.263 1.197 2683
-2.936 13.052 2.353 1019
-1.409 6.266 1.179 1959
-2.937 13.058 2.314 1237
-1.429 6.353 1.174 1670
-3.026 13.453 2.339 1450
-1.430 6.356 1.155 1836
-3.027 13.459 2.299 1632
-1.430 6.359 1.136 1816
-3.027 13.458 2.258 1552
-3.064 13.624 2.243 1530
-1.429 6.354 1.116 1465
-3.068 13.638 2.203 1527
-1.428 6.349 1.096 1138
-3.069 13.644 2.163 1014
-3.033 13.483 2.139 758
-1.346 5.984 0.770 509
-1.343 5.971 0.751 516
-1.315 5.846 0.668 733
-1.314 5.840 0.650 1401
-1.311 5.826 0.631 1738
-1.307 5.812 0.613 1763
-1.308 5.814 0.596 1501
-1.298 5.769 0.575 1202
-1.298 5.770 0.558 1168
-1.305 5.802 0.543 972
-1.284 5.711 0.519 1008
-1.286 5.719 0.503 751
-1.304 5.797 0.491 572
-1.280 5.690 0.467 593
-1.261 5.606 0.446 1114
-1.261 5.607 0.429 1278
-1.258 5.593 0.412 905
-1.265 5.624 0.396 666
-1.269 5.640 0.380 917
-1.267 5.633 0.363 1185
-1.267 5.634 0.347 1455
-1.267 5.635 0.330 1328
-1.234 5.488 0.325 646
-1.236 5.496 0.309 1007
-1.269 5.643 0.313 776
-1.233 5.481 0.292 1099
-1.231 5.474 0.276 985
-1.228 5.459 0.259 803
-1.216 5.405 0.242 791
-1.250 5.559 0.245 503
-1.221 5.428 0.226 1265
-1.221 5.429 0.210 1792
-1.223 5.437 0.194 2252
-1.223 5.437 0.178 2717
-1.190 5.290 0.177 638
-1.223 5.437 0.162 2217
-1.190 5.290 0.161 976
-1.195 5.313 0.146 1310
-1.228 5.460 0.146 1161
-1.193 5.306 0.130 1083
-1.228 5.460 0.130 766
-1.206 5.360 0.114 1467
-1.205 5.359 0.098 2056
-1.205 5.359 0.082 2113
-1.205 5.359 0.066 2169
-1.190 5.289 0.052 1909
-1.190 5.289 0.036 1929
-1.157 5.142 0.039 541
-1.186 5.273 0.021 1626
-1.172 5.211 0.007 1629
-1.205 5.358 0.003 590
-1.172 5.211 -0.009 1794
-1.205 5.358 -0.013 529
-1.172 5.210 -0.024 1958
-1.184 5.264 -0.042 1664
-1.151 5.117 -0.036 675
-1.184 5.263 -0.057 1769
-1.151 5.117 -0.052 860
-1.182 5.255 -0.072 1480
-1.149 5.108 -0.066 1028
-1.158 5.146 -0.083 1495
-1.191 5.293 -0.090 646
-1.142 5.076 -0.095 1498
-1.175 5.223 -0.102 1050
-1.142 5.076 -0.110 1779
-1.175 5.222 -0.118 916
-1.141 5.075 -0.125 1852
-1.174 5.221 -0.133 657
-1.143 5.082 -0.141 1963
-1.136 5.050 -0.154 1662
-1.134 5.042 -0.168 1926
-1.167 5.188 -0.178 558
-1.130 5.025 -0.182 2093
-1.163 5.172 -0.192 522
-1.127 5.009 -0.196 2717
-1.123 4.993 -0.210 3442
-1.121 4.984 -0.224 4369
-1.121 4.983 -0.239 4369
-1.121 4.982 -0.254 4127
-1.153 5.128 -0.265 501
-1.120 4.981 -0.268 3884
-1.153 5.127 -0.281 596
-1.122 4.987 -0.284 3453
-1.121 4.986 -0.299 3077
-1.123 4.992 -0.314 2308
-1.090 4.846 -0.301 796
-1.100 4.891 -0.319 1796
-1.133 5.037 -0.333 1253
-1.100 4.890 -0.334 1796
-1.133 5.036 -0.348 1253
-1.100 4.888 -0.348 1751
-1.132 5.034 -0.363 889
-1.099 4.887 -0.363 1707
-1.132 5.033 -0.378 525
-1.099 4.885 -0.377 853
-0.509 2.281 1.821 4343
-0.513 2.298 1.823 8778
-0.540 2.416 1.912 891
-0.521 2.334 1.840 12746
-0.495 2.215 1.751 1121
-0.521 2.332 1.828 12606
-0.547 2.451 1.917 1989
-0.522 2.337 1.822 12525
-0.548 2.456 1.909 2857
-0.538 2.411 1.865 12130
-0.512 2.292 1.778 3948
-0.539 2.416 1.858 14620
-0.513 2.296 1.771 2528
-0.541 2.421 1.851 14620
-0.514 2.301 1.765 2528
-0.542 2.426 1.844 14694
-0.515 2.306 1.758 1804
-0.544 2.437 1.842 15142
-0.517 2.317 1.756 1608
-0.547 2.448 1.839 12584
-0.574 2.569 1.925 1756
-0.549 2.459 1.836 10303
-0.576 2.580 1.922 2080
-0.550 2.464 1.829 7148
-0.577 2.585 1.914 2100
-0.561 2.514 1.853 4865
-0.588 2.635 1.938 849
-0.562 2.519 1.846 4865
-0.590 2.640 1.930 1198
-0.562 2.517 1.834 5950
-0.589 2.639 1.918 2218
-0.560 2.509 1.818 7449
-0.587 2.631 1.901 4279
-0.581 2.604 1.871 7633
-0.554 2.482 1.788 3674
-0.583 2.609 1.864 8633
-0.555 2.486 1.781 2552
-0.584 2.614 1.856 7515
-0.556 2.491 1.774 2167
-0.586 2.625 1.853 6400
-0.559 2.502 1.771 2270
-0.570 2.552 1.794 5442
-0.597 2.675 1.875 2959
-0.577 2.583 1.803 6270
-0.604 2.706 1.884 4238
-0.586 2.627 1.821 6325
-0.614 2.750 1.902 2697
-0.589 2.638 1.818 8027
-0.617 2.762 1.898 2937
-0.603 2.702 1.848 7334
-0.575 2.577 1.768 1113
-0.603 2.700 1.836 7971
-0.631 2.824 1.916 658
-0.604 2.705 1.828 6716
-0.632 2.829 1.907 778
-0.612 2.742 1.841 5951
-0.584 2.618 1.762 875
-0.615 2.754 1.837 10695
-0.587 2.629 1.758 695
-0.617 2.765 1.833 15710
-0.561 2.515 1.676 600
-0.621 2.783 1.833 17448
-0.565 2.532 1.677 582
-0.624 2.795 1.829 21181
-0.583 2.609 1.715 674
-0.625 2.800 1.821 20722
-0.653 2.926 1.898 895
-0.626 2.804 1.812 20263
-0.654 2.931 1.889 1332
-0.627 2.809 1.804 16941
-0.655 2.936 1.881 1723
-0.628 2.814 1.796 10757
