0.680 2.137 1.722 1936
0.754 2.369 1.898 1072
0.732 2.300 1.835 4603
0.695 2.184 1.748 1837
0.716 2.250 1.787 7263
0.753 2.366 1.875 3420
0.679 2.133 1.700 1048
0.718 2.254 1.780 10089
0.755 2.371 1.867 5039
0.681 2.137 1.693 1191
0.719 2.259 1.774 10089
0.760 2.388 1.869 5296
0.682 2.142 1.687 1078
0.721 2.263 1.767 10739
0.760 2.387 1.858 7848
0.724 2.274 1.765 11434
0.761 2.392 1.851 10463
0.739 2.322 1.789 12783
0.777 2.440 1.875 5089
0.702 2.204 1.704 1078
0.741 2.327 1.782 14949
0.778 2.445 1.868 6138
0.770 2.418 1.838 17014
0.732 2.300 1.753 7681
0.771 2.423 1.831 20848
0.734 2.305 1.746 5976
0.773 2.428 1.823 20848
0.735 2.309 1.739 4690
0.774 2.432 1.816 20552
0.737 2.313 1.732 3404
0.776 2.437 1.809 20118
0.738 2.318 1.725 3716
0.777 2.442 1.802 16611
0.739 2.322 1.718 2803
0.823 2.586 1.902 1214
0.781 2.453 1.799 13408
0.743 2.333 1.716 2137
0.827 2.598 1.899 1840
0.782 2.457 1.791 14527
0.835 2.621 1.904 2037
0.744 2.337 1.709 1505
0.786 2.468 1.788 15745
0.838 2.633 1.900 2539
0.748 2.348 1.706 1121
0.787 2.473 1.781 14462
0.826 2.593 1.862 3090
0.789 2.477 1.773 13178
0.827 2.598 1.855 4417
0.788 2.476 1.762 8712
0.833 2.615 1.855 4804
0.836 2.627 1.852 6237
0.786 2.467 1.746 5066
0.840 2.638 1.848 5968
0.787 2.472 1.738 4178
0.841 2.642 1.840 5718
0.788 2.476 1.731 3291
0.816 2.564 1.778 4575
0.855 2.686 1.857 3116
0.778 2.442 1.698 1121
0.816 2.562 1.766 5280
0.854 2.684 1.845 3175
0.819 2.573 1.762 4453
0.858 2.695 1.841 4080
0.860 2.700 1.833 5180
0.821 2.577 1.755 3652
0.859 2.698 1.821 4754
0.820 2.575 1.743 2353
0.858 2.696 1.808 4543
0.819 2.573 1.731 1199
0.858 2.694 1.796 4317
0.897 2.818 1.873 1215
0.859 2.699 1.788 4120
0.899 2.822 1.865 1245
0.873 2.743 1.804 6280
0.912 2.866 1.881 1453
0.834 2.619 1.728 1054
0.875 2.747 1.796 9084
0.914 2.871 1.872 1979
0.876 2.752 1.788 9089
0.916 2.876 1.863 2574
0.878 2.756 1.779 6574
0.917 2.881 1.855 3012
0.883 2.774 1.779 4407
0.923 2.898 1.854 2337
0.914 2.870 1.825 3747
0.874 2.746 1.751 2409
0.915 2.875 1.817 4213
0.876 2.750 1.743 1911
0.915 2.873 1.804 3795
0.875 2.748 1.731 1767
0.920 2.891 1.803 3149
0.881 2.766 1.730 1343
0.924 2.902 1.798 3322
0.964 3.027 1.871 1381
0.951 2.986 1.836 4318
0.911 2.860 1.763 1197
0.950 2.984 1.823 6257
0.990 3.110 1.895 1145
0.910 2.858 1.751 1083
0.952 2.989 1.814 7136
0.992 3.115 1.886 1242
0.911 2.863 1.742 1200
0.957 3.007 1.812 7007
0.917 2.881 1.741 1490
0.967 3.038 1.818 8049
0.927 2.912 1.747 1940
0.973 3.056 1.816 7888
0.933 2.929 1.746 1644
0.979 3.074 1.815 8243
0.974 3.059 1.794 7005
0.971 3.050 1.778 7149
1.011 3.177 1.847 2891
0.972 3.054 1.769 7534
1.013 3.182 1.838 4174
1.002 3.146 1.806 6243
0.961 3.019 1.738 2662
0.997 3.130 1.786 7923
1.037 3.258 1.854 1456
1.015 3.189 1.805 8696
0.975 3.061 1.737 2717
1.025 3.221 1.810 7143
0.985 3.092 1.742 4233
1.029 3.232 1.804 7761
0.988 3.104 1.737 3412
1.022 3.209 1.780 9237
1.063 3.338 1.847 1794
0.981 3.081 1.713 1061
1.019 3.200 1.763 10732
1.060 3.329 1.830 3304
1.023 3.212 1.757 9559
1.064 3.341 1.823 5453
1.063 3.338 1.809 9039
1.022 3.209 1.744 5487
1.067 3.350 1.803 9648
1.025 3.221 1.738 2847
1.072 3.368 1.799 7236
1.031 3.239 1.735 2978
1.076 3.380 1.793 6563
1.035 3.250 1.728 2369
1.117 3.509 1.857 1070
1.080 3.391 1.786 7656
1.038 3.261 1.722 1746
1.121 3.521 1.850 1455
1.094 3.437 1.796 8329
1.053 3.307 1.732 3102
1.135 3.566 1.859 1764
1.104 3.469 1.799 9566
1.063 3.338 1.735 3863
1.146 3.599 1.862 2477
1.108 3.480 1.791 11782
1.149 3.610 1.854 3117
1.066 3.350 1.729 2994
1.107 3.478 1.778 7792
1.149 3.608 1.840 3683
1.066 3.347 1.715 1140
1.148 3.606 1.826 4712
1.102 3.462 1.757 3898
1.190 3.737 1.888 1148
1.152 3.618 1.818 5234
1.110 3.487 1.757 2190
1.193 3.748 1.880 1177
1.155 3.629 1.810 4345
1.114 3.498 1.749 1895
1.197 3.760 1.872 1082
1.161 3.648 1.806 3880
1.120 3.516 1.745 1832
1.203 3.779 1.867 1355
1.163 3.652 1.795 5234
1.205 3.783 1.855 3373
1.121 3.521 1.734 1447
1.160 3.643 1.777 5398
1.204 3.781 1.841 4841
1.203 3.779 1.826 5155
1.161 3.647 1.766 3855
1.245 3.911 1.886 1533
1.202 3.777 1.811 5612
1.160 3.645 1.752 2305
1.244 3.909 1.871 1981
1.206 3.788 1.803 5263
1.164 3.656 1.744 2497
1.248 3.920 1.862 1801
1.214 3.814 1.801 5365
1.172 3.682 1.743 2590
1.256 3.946 1.859 1703
1.220 3.832 1.795 5592
1.178 3.700 1.738 2145
1.262 3.965 1.853 1544
1.226 3.851 1.790 7682
1.268 3.983 1.847 2061
1.184 3.718 1.732 1908
1.227 3.855 1.778 8499
1.270 3.988 1.835 2794
1.185 3.723 1.721 1040
1.249 3.923 1.793 5493
1.298 4.077 1.859 3729
1.207 3.790 1.737 2076
1.306 4.102 1.856 4935
1.255 3.941 1.788 4227
1.213 3.809 1.731 1249
1.281 4.023 1.808 6815
1.323 4.156 1.864 3445
1.238 3.890 1.752 1831
1.287 4.042 1.802 5360
1.329 4.175 1.857 2665
1.244 3.909 1.746 1906
1.290 4.053 1.792 5716
1.360 4.271 1.882 1761
1.248 3.920 1.737 1221
1.305 4.100 1.797 6830
1.263 3.967 1.743 1802
1.359 4.269 1.866 1422
1.325 4.161 1.808 6140
1.280 4.020 1.751 3317
1.378 4.330 1.876 1497
1.328 4.173 1.798 7790
1.376 4.321 1.857 3022
1.286 4.039 1.744 1957
1.377 4.325 1.844 5898
1.332 4.184 1.788 5579
1.420 4.459 1.898 1317
1.290 4.050 1.735 1127
1.381 4.337 1.834 6629
1.338 4.203 1.781 4494
1.424 4.471 1.887 1684
1.385 4.349 1.824 7031
1.342 4.215 1.771 4031
1.427 4.483 1.876 1516
1.388 4.361 1.813 6688
1.345 4.226 1.761 3016
1.431 4.495 1.865 1660
1.474 4.629 1.918 1038
1.392 4.372 1.803 4479
1.349 4.238 1.751 3412
1.435 4.507 1.855 1700
1.478 4.641 1.906 1485
1.425 4.476 1.827 3770
1.382 4.341 1.776 3136
1.339 4.207 1.725 1555
1.477 4.639 1.890 1195
1.442 4.531 1.833 6038
1.386 4.353 1.766 2721
1.488 4.673 1.886 1437
1.446 4.542 1.822 6808
1.489 4.677 1.872 3158
1.403 4.407 1.771 3019
1.448 4.547 1.808 6372
1.491 4.682 1.858 3948
1.405 4.412 1.758 2137
1.451 4.559 1.797 4629
1.494 4.694 1.846 3126
1.408 4.423 1.747 1377
1.538 4.829 1.896 1279
1.464 4.599 1.796 3388
1.521 4.777 1.861 3099
1.421 4.464 1.746 1228
1.518 4.768 1.841 4552
1.568 4.925 1.898 2361
1.475 4.632 1.792 2335
1.432 4.497 1.743 1209
1.517 4.765 1.824 5136
1.569 4.929 1.883 4341
1.451 4.558 1.750 1796
1.516 4.763 1.807 5188
1.566 4.920 1.863 5066
1.453 4.563 1.736 1254
1.566 4.918 1.845 5229
1.513 4.753 1.788 3289
1.547 4.858 1.808 3718
1.590 4.994 1.855 1815
1.503 4.722 1.761 1372
1.633 5.130 1.902 1007
1.619 5.085 1.870 2906
1.571 4.934 1.818 2185
1.618 5.082 1.852 3273
1.566 4.917 1.796 2037
1.666 5.233 1.903 1445
1.620 5.087 1.836 2914
1.663 5.224 1.882 1658
1.567 4.922 1.781 1153
1.619 5.085 1.818 2463
1.671 5.250 1.874 2043
1.618 5.082 1.801 2315
1.675 5.262 1.860 1662
1.709 5.368 1.877 2548
1.633 5.130 1.799 2422
1.713 5.380 1.863 2856
1.655 5.199 1.805 1851
1.717 5.392 1.849 2975
1.666 5.233 1.798 1603
1.760 5.529 1.893 1495
1.718 5.396 1.833 2606
1.764 5.541 1.878 1882
1.674 5.259 1.789 1352
1.766 5.546 1.862 2445
1.722 5.408 1.819 1836
1.835 5.762 1.930 1540
1.678 5.271 1.776 1256
1.760 5.529 1.838 2918
1.834 5.760 1.910 2667
1.705 5.355 1.784 1210
1.762 5.533 1.821 2518
1.833 5.758 1.890 2385
1.772 5.567 1.813 2762
1.851 5.813 1.888 2211
1.895 5.951 1.930 1235
1.841 5.782 1.859 2652
1.778 5.586 1.801 2081
1.889 5.934 1.905 1770
1.838 5.772 1.838 2855
1.889 5.932 1.885 2705
1.932 6.070 1.926 1456
1.787 5.612 1.790 1407
1.885 5.922 1.863 2978
1.841 5.784 1.822 1955
1.929 6.060 1.903 1852
1.973 6.198 1.944 1335
1.885 5.920 1.843 2843
1.929 6.058 1.883 2535
1.975 6.203 1.925 2362
2.019 6.341 1.965 1647
1.953 6.135 1.885 4313
2.007 6.303 1.933 2386
1.909 5.997 1.845 1889
1.865 5.859 1.806 1762
1.955 6.140 1.866 4464
2.001 6.286 1.908 3082
1.959 6.152 1.850 4150
2.003 6.291 1.889 2891
2.142 6.728 2.011 1495
2.061 6.473 1.940 1067
1.963 6.164 1.833 3543
2.014 6.325 1.878 3015
2.146 6.741 1.993 1469
2.102 6.602 1.954 1314
2.020 6.344 1.862 3411
2.145 6.738 1.970 1906
2.101 6.600 1.932 1870
1.976 6.206 1.824 1633
2.098 6.590 1.908 2288
2.207 6.933 2.001 2277
2.145 6.736 1.948 2199
2.021 6.349 1.843 2114
2.148 6.748 1.929 2387
2.100 6.595 1.888 2060
2.209 6.939 1.980 1651
2.014 6.324 1.816 1103
2.155 6.768 1.913 2456
2.208 6.936 1.957 1687
2.097 6.585 1.864 1603
2.264 7.112 2.003 1428
2.212 6.949 1.938 2052
2.266 7.117 1.982 1474
2.156 6.773 1.892 1452
2.310 7.256 2.018 1040
2.228 6.998 1.928 2046
2.307 7.247 1.992 1596
2.183 6.858 1.892 1270
2.318 7.281 1.978 1623
2.236 7.024 1.912 1476
2.463 7.736 2.093 1402
2.369 7.442 2.019 1237
2.462 7.734 2.068 2225
2.338 7.345 1.970 1707
2.418 7.594 2.033 1104
2.464 7.739 2.044 2108
2.340 7.350 1.948 1232
2.470 7.759 2.024 1902
2.554 8.024 2.089 1300
2.479 7.786 2.006 1888
2.558 8.036 2.066 1331
2.476 7.777 1.979 2202
2.654 8.336 2.112 1416
2.565 8.056 2.045 1287
2.653 8.334 2.085 2232
2.475 7.774 1.953 2132
2.564 8.054 2.019 1646
2.660 8.354 2.063 3758
2.566 8.059 1.994 1601
2.481 7.794 1.933 1524
2.661 8.359 2.037 4573
2.485 7.807 1.911 1853
2.565 8.057 1.968 1412
2.656 8.342 2.007 3391
2.489 7.819 1.889 1398
2.701 8.483 2.038 1229
2.564 8.055 1.942 1163
2.660 8.355 1.983 2404
2.787 8.754 2.071 1199
2.705 8.495 2.014 1061
2.669 8.382 1.962 2150
2.824 8.870 2.069 1918
2.713 8.523 1.993 1222
2.779 8.729 2.038 1014
2.706 8.498 1.961 2407
2.828 8.882 2.044 1836
2.661 8.358 1.930 1696
2.964 9.311 2.136 1097
2.804 8.806 1.999 1944
2.710 8.511 1.936 1888
2.924 9.183 2.079 1707
2.665 8.370 1.907 1654
2.925 9.189 2.051 1818
2.794 8.774 1.965 1568
2.671 8.390 1.884 1235
2.982 9.366 2.088 1106
2.927 9.194 2.023 1721
2.984 9.372 2.060 1628
2.790 8.765 1.935 1143
2.929 9.199 1.995 1683
2.974 9.340 2.024 1480
3.051 9.584 2.073 1270
3.107 9.760 2.078 1677
3.051 9.582 2.043 1410
2.973 9.338 1.994 1406
2.928 9.197 1.966 1117
3.109 9.766 2.048 2605
3.055 9.595 2.015 1934
3.284 10.314 2.156 1247
2.993 9.402 1.977 1126
3.115 9.786 2.021 2971
3.056 9.600 1.986 1867
3.285 10.320 2.125 1216
3.117 9.791 1.992 2565
3.481 10.934 2.209 1488
3.363 10.563 2.138 1034
3.121 9.803 1.963 2926
3.466 10.888 2.166 1451
3.365 10.568 2.106 1031
3.123 9.808 1.933 4120
3.459 10.864 2.127 2355
3.328 10.455 2.052 1480
3.078 9.667 1.907 1055
3.124 9.813 1.903 2680
3.458 10.862 2.093 1899
3.333 10.468 2.022 1777
3.503 11.003 2.118 1531
3.500 10.993 2.082 1423
3.334 10.473 1.990 1361
3.128 9.826 1.875 1071
3.689 11.587 2.151 1122
3.509 11.021 2.052 1103
3.778 11.866 2.125 1643
4.015 12.611 2.251 1169
3.777 11.864 2.088 1834
3.781 11.877 2.053 1252
4.078 12.809 2.204 1149
4.080 12.814 2.165 1109
4.008 12.590 2.129 1078
4.010 12.596 2.091 1160
0.694 2.164 1.774 3254
0.719 2.242 1.823 6540
0.682 2.126 1.734 2696
0.722 2.253 1.821 7604
0.685 2.137 1.733 3446
0.722 2.251 1.810 5878
0.685 2.135 1.722 2186
0.759 2.367 1.898 1062
0.737 2.299 1.835 4805
0.692 2.158 1.729 1875
0.721 2.248 1.787 7337
0.758 2.365 1.875 3344
0.684 2.132 1.700 1104
0.722 2.253 1.780 10107
0.760 2.370 1.867 4832
0.724 2.257 1.774 10107
0.765 2.387 1.869 5025
0.727 2.268 1.771 10909
0.765 2.385 1.858 7383
0.729 2.273 1.765 11848
0.766 2.390 1.851 9775
0.744 2.321 1.789 13057
0.782 2.438 1.875 4952
0.706 2.203 1.704 1103
0.746 2.325 1.782 15399
0.783 2.443 1.868 6060
0.775 2.417 1.838 16874
0.737 2.299 1.753 7806
0.777 2.421 1.831 21013
0.739 2.303 1.746 6007
0.778 2.426 1.823 21013
0.740 2.307 1.739 4665
0.780 2.431 1.816 20711
0.741 2.312 1.732 3323
0.781 2.436 1.809 20339
0.743 2.316 1.725 3605
0.783 2.440 1.802 16484
0.744 2.321 1.718 2695
0.821 2.560 1.885 1285
0.786 2.451 1.799 13029
0.748 2.331 1.716 2022
0.830 2.590 1.894 1917
0.787 2.456 1.791 14231
0.840 2.620 1.904 2092
0.749 2.336 1.709 1436
0.793 2.473 1.792 15745
0.844 2.631 1.900 2639
0.754 2.353 1.710 1279
0.792 2.471 1.781 14231
0.831 2.591 1.862 3003
0.794 2.476 1.773 12728
0.833 2.596 1.855 4157
0.793 2.474 1.762 8473
0.840 2.620 1.859 4611
0.844 2.631 1.856 6097
0.791 2.466 1.746 5020
0.845 2.636 1.848 5804
0.792 2.470 1.738 4111
0.847 2.641 1.840 5512
0.791 2.468 1.727 3206
0.822 2.562 1.778 4426
0.861 2.684 1.857 3224
0.783 2.441 1.698 1097
0.821 2.560 1.766 5072
0.860 2.682 1.845 2878
0.827 2.578 1.766 4310
0.866 2.700 1.845 3442
0.865 2.698 1.833 4424
0.826 2.576 1.755 3517
0.865 2.696 1.821 4263
0.825 2.574 1.743 2370
0.864 2.694 1.808 4254
0.825 2.572 1.731 1367
0.863 2.693 1.796 4129
0.903 2.816 1.873 1277
0.865 2.697 1.788 4040
0.904 2.820 1.865 1441
0.879 2.741 1.804 6124
0.918 2.864 1.881 1567
0.839 2.617 1.728 1160
0.880 2.745 1.796 8749
0.920 2.869 1.872 2030
0.882 2.750 1.788 8492
0.922 2.874 1.863 2705
0.883 2.755 1.779 5899
0.923 2.879 1.855 3232
0.889 2.772 1.779 3583
0.929 2.896 1.854 2632
0.922 2.875 1.829 3768
0.882 2.751 1.755 2501
0.923 2.880 1.821 4181
0.883 2.755 1.747 2338
0.925 2.884 1.812 3348
0.885 2.759 1.738 2296
0.929 2.896 1.807 2454
0.888 2.770 1.734 1547
0.932 2.907 1.802 2433
0.972 3.032 1.875 1029
0.957 2.984 1.836 3737
0.917 2.859 1.763 1254
0.956 2.982 1.823 5629
0.916 2.856 1.751 1376
0.997 3.108 1.895 1041
0.958 2.987 1.814 6621
0.917 2.861 1.742 1500
0.998 3.113 1.886 1145
0.964 3.005 1.812 6979
0.923 2.879 1.741 1834
0.974 3.036 1.818 7945
0.933 2.910 1.747 2068
0.977 3.047 1.813 7812
0.937 2.921 1.742 1621
0.983 3.065 1.811 8094
0.976 3.043 1.787 7176
1.017 3.170 1.857 1300
0.977 3.048 1.778 7419
1.018 3.175 1.847 2991
0.979 3.052 1.769 7787
1.020 3.179 1.838 4123
1.010 3.151 1.810 5985
0.969 3.023 1.741 3670
1.003 3.128 1.786 7426
1.044 3.256 1.854 1485
0.962 3.001 1.718 1013
1.013 3.160 1.791 7845
0.972 3.032 1.723 1295
1.054 3.288 1.859 1227
1.019 3.178 1.789 6499
0.978 3.050 1.721 1256
1.036 3.230 1.804 6954
0.995 3.102 1.737 3524
1.026 3.201 1.776 8632
1.068 3.329 1.843 1862
0.985 3.072 1.710 1110
1.026 3.198 1.763 10408
1.067 3.327 1.830 2909
1.029 3.210 1.757 9222
1.071 3.338 1.823 5145
1.068 3.329 1.806 9009
1.026 3.201 1.740 4731
1.109 3.458 1.872 1145
1.069 3.334 1.796 9421
1.028 3.205 1.731 2105
1.111 3.463 1.861 1168
1.068 3.332 1.782 6907
1.110 3.461 1.847 1964
1.027 3.203 1.718 1419
1.083 3.377 1.793 6320
1.042 3.248 1.728 2674
1.125 3.507 1.857 1300
1.087 3.389 1.786 7601
1.045 3.259 1.722 1850
1.128 3.518 1.850 1576
1.101 3.434 1.796 8552
1.060 3.304 1.732 3040
1.143 3.564 1.859 1738
1.112 3.466 1.799 9176
1.070 3.336 1.735 3674
1.153 3.596 1.862 2328
1.115 3.478 1.791 11275
1.073 3.347 1.729 3063
1.157 3.608 1.854 2913
1.114 3.475 1.778 7455
1.156 3.606 1.840 3243
1.073 3.345 1.715 1311
1.156 3.604 1.826 4312
1.109 3.459 1.757 3564
1.197 3.734 1.888 1110
1.159 3.615 1.818 4808
1.117 3.484 1.757 1851
1.201 3.746 1.880 1039
1.161 3.620 1.807 3884
1.119 3.489 1.746 1433
1.203 3.751 1.868 1118
1.171 3.652 1.809 3388
1.129 3.521 1.748 2084
1.213 3.783 1.870 1116
1.170 3.650 1.795 4891
1.212 3.781 1.855 3510
1.128 3.518 1.734 1328
1.212 3.779 1.841 5192
1.167 3.640 1.777 5082
1.211 3.777 1.826 5697
1.169 3.645 1.766 3764
1.253 3.908 1.886 1478
1.213 3.781 1.815 6300
1.170 3.649 1.755 2473
1.255 3.913 1.874 1501
1.214 3.786 1.803 6106
1.172 3.654 1.744 2157
1.256 3.918 1.862 1803
1.220 3.804 1.798 6184
1.178 3.672 1.740 2317
1.262 3.936 1.856 1769
1.226 3.823 1.792 6027
1.184 3.691 1.734 1810
1.268 3.955 1.850 1535
1.234 3.848 1.790 8287
1.277 3.981 1.847 2122
1.192 3.716 1.732 1858
1.236 3.853 1.778 9285
1.278 3.985 1.835 2686
1.193 3.720 1.721 1160
1.259 3.927 1.796 5780
1.309 4.081 1.862 3644
1.217 3.795 1.740 2377
1.312 4.093 1.853 5370
1.268 3.953 1.793 4329
1.225 3.820 1.737 1443
1.287 4.013 1.805 6836
1.330 4.146 1.861 3895
1.244 3.880 1.749 1300
1.297 4.046 1.805 5248
1.340 4.179 1.860 2336
1.255 3.913 1.749 1749
1.299 4.051 1.792 5176
1.342 4.184 1.847 2057
1.256 3.917 1.737 1233
1.384 4.317 1.902 1034
1.316 4.104 1.800 6356
1.273 3.971 1.745 2424
1.382 4.308 1.884 1262
1.333 4.158 1.808 6447
1.288 4.018 1.751 3240
1.394 4.348 1.885 1504
1.337 4.170 1.798 8286
1.387 4.325 1.860 2984
1.294 4.036 1.744 1856
1.341 4.181 1.788 6060
1.386 4.322 1.844 5613
1.429 4.456 1.898 1397
1.298 4.048 1.735 1027
1.388 4.327 1.831 5916
1.345 4.193 1.778 4513
1.431 4.461 1.884 2044
1.396 4.353 1.826 6683
1.353 4.219 1.774 4323
1.439 4.487 1.879 1376
1.400 4.365 1.816 7215
1.354 4.223 1.761 3167
1.443 4.499 1.868 1369
1.401 4.369 1.803 5232
1.358 4.235 1.751 3476
1.483 4.624 1.901 1564
1.432 4.466 1.825 3755
1.389 4.332 1.773 3158
1.346 4.197 1.722 1348
1.489 4.643 1.892 1289
1.452 4.528 1.833 5774
1.395 4.350 1.766 3068
1.497 4.669 1.886 1572
1.456 4.539 1.822 7179
1.403 4.376 1.760 3448
1.499 4.674 1.872 3190
1.457 4.544 1.808 6629
1.500 4.679 1.858 3792
1.405 4.381 1.747 2438
1.466 4.570 1.802 4632
1.509 4.705 1.852 2116
1.422 4.435 1.752 2054
1.552 4.840 1.901 1157
1.472 4.589 1.793 3442
1.515 4.724 1.842 3281
1.558 4.859 1.892 1149
1.428 4.453 1.744 1085
1.519 4.736 1.831 4633
1.462 4.558 1.766 2240
1.580 4.928 1.900 2173
1.527 4.762 1.824 5090
1.582 4.933 1.885 3981
1.461 4.555 1.750 1931
1.529 4.767 1.810 5368
1.574 4.910 1.860 4954
1.464 4.567 1.739 1334
1.574 4.907 1.843 5294
1.525 4.757 1.790 3637
1.559 4.862 1.810 3729
1.515 4.726 1.763 1716
1.603 4.998 1.858 1646
1.579 4.924 1.815 2911
1.629 5.081 1.870 2329
1.629 5.079 1.852 2923
1.576 4.914 1.796 2594
1.672 5.215 1.898 1741
1.630 5.084 1.836 3083
1.674 5.220 1.882 2183
1.575 4.911 1.778 1275
1.632 5.088 1.821 2827
1.676 5.225 1.866 2508
1.588 4.952 1.775 1050
1.631 5.086 1.803 2553
1.677 5.230 1.851 2057
1.721 5.366 1.896 1367
1.587 4.949 1.758 1067
1.718 5.357 1.875 2577
1.646 5.134 1.802 2441
1.722 5.369 1.861 2817
1.657 5.167 1.795 1924
1.707 5.323 1.828 3033
1.774 5.532 1.895 1597
1.654 5.157 1.775 1147
1.709 5.328 1.812 2487
1.776 5.537 1.878 2124
1.777 5.542 1.862 2523
1.733 5.405 1.819 1663
1.689 5.267 1.776 1449
1.847 5.759 1.930 1402
1.774 5.532 1.840 2794
1.846 5.756 1.910 2404
1.709 5.330 1.777 1292
1.776 5.537 1.823 2651
1.836 5.725 1.881 2281
1.784 5.563 1.813 2900
1.835 5.723 1.862 2255
1.879 5.860 1.903 1313
1.851 5.771 1.857 2622
1.792 5.590 1.803 2262
1.902 5.930 1.905 1460
1.852 5.776 1.840 3045
1.901 5.928 1.885 2339
1.796 5.601 1.788 1614
1.945 6.066 1.926 1606
1.898 5.918 1.863 2884
1.942 6.056 1.903 1928
1.854 5.780 1.822 1898
1.986 6.194 1.944 1524
1.913 5.967 1.857 2719
1.988 6.199 1.925 2526
2.032 6.337 1.965 1647
1.869 5.829 1.817 1418
1.966 6.131 1.885 3964
2.022 6.306 1.935 2441
1.920 5.986 1.843 2176
1.875 5.848 1.804 1491
1.968 6.136 1.866 4227
2.014 6.282 1.908 2782
2.108 6.573 1.990 1100
1.872 5.838 1.782 1060
1.976 6.163 1.854 4073
2.021 6.301 1.893 2588
2.158 6.731 2.013 1399
2.074 6.469 1.940 1146
1.978 6.167 1.835 3521
2.034 6.342 1.884 3383
2.160 6.736 1.993 1553
2.116 6.598 1.954 1430
2.033 6.340 1.862 3683
2.115 6.595 1.932 2107
1.989 6.201 1.824 2065
2.159 6.734 1.970 1850
2.114 6.593 1.910 2746
2.035 6.345 1.843 2127
2.159 6.732 1.948 1944
2.222 6.929 2.001 1877
2.113 6.590 1.888 2478
2.160 6.737 1.927 2272
2.221 6.927 1.978 1481
2.069 6.452 1.851 1115
2.169 6.763 1.913 2441
2.221 6.924 1.955 1905
2.113 6.588 1.866 1657
2.279 7.107 2.003 1215
2.224 6.937 1.936 2258
2.173 6.776 1.894 1568
2.281 7.112 1.982 1386
2.325 7.251 2.018 1061
2.240 6.986 1.926 2164
2.322 7.242 1.992 1664
2.196 6.846 1.890 1111
2.333 7.276 1.978 1605
2.246 7.005 1.909 1602
2.479 7.730 2.093 1305
2.385 7.437 2.019 1258
2.478 7.729 2.068 1986
2.387 7.443 1.996 1708
2.333 7.274 1.954 1191
2.264 7.061 1.900 1093
2.478 7.727 2.042 1921
2.384 7.433 1.970 1188
2.487 7.754 2.024 1812
2.498 7.788 2.008 2049
2.490 7.764 1.977 2436
2.674 8.338 2.113 1469
2.586 8.066 2.049 1154
2.491 7.769 1.953 2292
2.673 8.336 2.086 2133
2.583 8.056 2.021 1519
2.677 8.348 2.063 3581
2.498 7.789 1.933 1621
2.583 8.054 1.994 1373
2.677 8.346 2.035 4357
2.502 7.801 1.911 2040
2.582 8.052 1.968 1032
2.673 8.337 2.007 3167
2.506 7.814 1.889 1599
2.718 8.477 2.038 1277
2.787 8.691 2.086 1021
2.704 8.431 2.001 2278
2.659 8.290 1.970 1394
2.808 8.755 2.073 1111
2.684 8.369 1.961 2021
2.842 8.864 2.069 1840
2.729 8.509 1.991 1683
2.797 8.723 2.038 1088
2.723 8.492 1.961 3073
2.844 8.869 2.042 1715
2.678 8.352 1.930 1609
2.908 9.068 2.085 1071
2.727 8.505 1.936 2632
2.943 9.177 2.079 1809
2.815 8.778 1.994 1711
2.682 8.364 1.907 1519
2.945 9.183 2.051 1835
2.729 8.510 1.910 1753
2.807 8.754 1.961 1694
3.032 9.456 2.109 1009
2.944 9.180 2.022 1679
3.003 9.365 2.060 1433
2.809 8.759 1.935 1220
2.728 8.507 1.883 1110
2.948 9.193 1.995 1581
2.993 9.334 2.024 1365
3.071 9.578 2.073 1362
3.130 9.761 2.080 1743
3.073 9.583 2.044 1509
2.992 9.331 1.994 1425
2.947 9.191 1.966 1018
3.130 9.759 2.048 2354
3.075 9.589 2.015 2070
3.138 9.786 2.023 2891
3.077 9.594 1.986 2041
3.140 9.792 1.993 2789
3.504 10.927 2.209 1406
3.078 9.599 1.956 1127
3.383 10.548 2.137 1009
3.142 9.797 1.963 2943
3.506 10.932 2.176 1485
3.096 9.656 1.937 1054
3.143 9.802 1.933 3891
3.481 10.856 2.127 2387
3.350 10.448 2.052 1425
3.098 9.661 1.907 1255
3.145 9.807 1.903 2707
3.481 10.854 2.093 1922
3.355 10.461 2.022 1787
3.526 10.995 2.118 1552
3.523 10.986 2.082 1507
3.356 10.466 1.990 1407
3.151 9.826 1.876 1395
3.532 11.014 2.052 1264
3.711 11.571 2.150 1134
3.803 11.858 2.125 1479
4.041 12.602 2.251 1038
3.804 11.863 2.089 1743
3.804 11.861 2.052 1181
4.035 12.582 2.129 1081
4.037 12.588 2.091 1159
0.719 2.224 1.821 3252
0.724 2.240 1.823 6898
0.687 2.125 1.734 2095
0.729 2.257 1.826 8060
0.692 2.141 1.737 3369
0.727 2.250 1.810 6191
0.689 2.134 1.722 1684
0.764 2.366 1.898 1084
0.748 2.315 1.849 5157
0.711 2.199 1.762 3233
0.726 2.247 1.787 7545
0.764 2.363 1.875 3269
0.727 2.251 1.780 10170
0.765 2.368 1.867 4593
0.690 2.135 1.693 1036
0.729 2.256 1.774 10170
0.771 2.385 1.869 4750
0.732 2.266 1.771 11078
0.770 2.384 1.858 6874
0.734 2.271 1.765 12188
0.772 2.388 1.851 9014
0.749 2.319 1.789 13201
0.787 2.437 1.875 4786
0.711 2.201 1.704 1156
0.751 2.323 1.782 15671
0.789 2.441 1.868 5969
0.780 2.415 1.838 16523
0.742 2.297 1.753 7766
0.782 2.420 1.831 20875
0.744 2.301 1.746 5838
0.783 2.424 1.823 20875
0.745 2.306 1.739 4503
0.785 2.429 1.816 20566
0.747 2.310 1.732 3168
0.786 2.434 1.809 20268
0.748 2.315 1.725 3414
0.788 2.438 1.802 16256
0.749 2.319 1.718 2570
0.827 2.558 1.885 1318
0.791 2.449 1.799 12745
0.753 2.330 1.716 1952
0.836 2.588 1.894 1932
0.795 2.460 1.796 13980
0.846 2.618 1.904 2082
0.756 2.340 1.713 1709
0.799 2.471 1.792 15602
0.850 2.629 1.900 2650
0.760 2.351 1.710 1127
0.800 2.476 1.785 13815
0.839 2.596 1.867 2704
0.801 2.480 1.778 12028
0.840 2.601 1.859 3414
0.801 2.478 1.766 8072
0.848 2.625 1.864 4386
0.850 2.629 1.856 5952
0.796 2.464 1.746 4805
0.853 2.640 1.852 5726
0.798 2.468 1.738 3908
0.855 2.645 1.844 5557
0.797 2.466 1.727 3051
0.827 2.560 1.778 4277
0.867 2.682 1.857 3494
0.788 2.439 1.698 1066
0.827 2.558 1.766 4777
0.870 2.693 1.853 2756
0.832 2.576 1.766 4100
0.872 2.698 1.845 3080
0.840 2.600 1.771 4392
0.880 2.722 1.849 2381
0.842 2.604 1.763 4080
0.881 2.727 1.841 2302
0.868 2.686 1.804 4032
0.828 2.563 1.727 1242
0.869 2.691 1.796 3989
0.909 2.814 1.873 1293
0.830 2.568 1.719 1018
0.861 2.663 1.768 4010
0.900 2.786 1.845 3218
0.887 2.745 1.808 5888
0.927 2.869 1.885 1540
0.847 2.622 1.732 1433
0.889 2.750 1.800 8344
0.929 2.873 1.876 1978
0.890 2.755 1.792 7875
0.930 2.878 1.867 2747
0.892 2.759 1.783 5282
0.932 2.883 1.859 3351
0.929 2.875 1.842 3513
0.889 2.751 1.767 2418
0.930 2.879 1.833 3989
0.890 2.755 1.759 2663
0.932 2.884 1.825 4465
0.892 2.760 1.751 2907
0.934 2.889 1.816 3531
0.893 2.764 1.742 2742
0.939 2.907 1.815 2326
0.897 2.775 1.738 1708
0.939 2.905 1.802 1830
0.964 2.982 1.836 3200
0.923 2.857 1.763 1592
0.963 2.980 1.823 5006
0.922 2.854 1.751 1704
0.967 2.991 1.818 6265
0.926 2.865 1.746 2061
0.970 3.003 1.812 7188
0.930 2.877 1.741 2152
0.978 3.027 1.814 7876
0.937 2.901 1.743 2213
0.984 3.045 1.813 7688
0.941 2.912 1.738 1614
0.990 3.063 1.811 7945
0.983 3.041 1.787 7433
1.024 3.168 1.857 1467
0.984 3.045 1.778 7791
1.025 3.172 1.847 3059
0.986 3.050 1.769 8097
1.027 3.177 1.838 4005
0.987 3.055 1.759 6181
1.028 3.182 1.828 4178
1.010 3.126 1.786 7320
1.051 3.254 1.854 1582
0.969 2.999 1.718 1237
1.020 3.158 1.791 7273
0.979 3.030 1.723 1480
1.062 3.285 1.859 1425
1.022 3.162 1.781 6196
1.063 3.290 1.849 1292
1.043 3.227 1.804 6061
1.002 3.099 1.737 3462
1.031 3.192 1.773 8193
1.073 3.320 1.840 2171
0.990 3.063 1.706 1009
1.031 3.189 1.760 10195
1.072 3.318 1.826 3750
1.036 3.207 1.757 8867
1.078 3.336 1.823 5293
1.073 3.320 1.803 9504
1.031 3.191 1.737 3997
1.115 3.449 1.868 1245
1.074 3.325 1.792 9741
1.033 3.196 1.727 1831
1.116 3.454 1.858 1275
1.076 3.329 1.782 7265
1.118 3.459 1.847 1948
1.034 3.200 1.718 1548
1.091 3.375 1.793 6060
1.049 3.245 1.728 2756
1.132 3.504 1.857 1444
1.092 3.379 1.782 7110
1.134 3.509 1.846 1930
1.050 3.250 1.719 1582
1.109 3.432 1.796 8589
1.067 3.302 1.732 3170
1.151 3.562 1.859 1807
1.117 3.457 1.795 8910
1.075 3.327 1.732 3287
1.159 3.587 1.858 2498
1.123 3.475 1.791 10833
1.081 3.345 1.729 3047
1.165 3.605 1.854 2869
1.122 3.473 1.778 7284
1.164 3.603 1.840 3127
1.080 3.343 1.715 1326
1.164 3.601 1.826 4301
1.119 3.464 1.761 3268
1.206 3.731 1.888 1087
1.167 3.613 1.818 4856
1.125 3.482 1.757 1793
1.144 3.541 1.772 4462
1.193 3.693 1.843 2796
1.150 3.560 1.767 4002
1.193 3.691 1.828 2696
1.179 3.647 1.795 4821
1.221 3.778 1.855 3619
1.136 3.516 1.734 1394
1.220 3.776 1.841 5594
1.176 3.638 1.777 5270
1.219 3.774 1.826 6102
1.177 3.642 1.766 4052
1.262 3.905 1.886 1400
1.221 3.778 1.815 6634
1.178 3.647 1.755 2417
1.264 3.910 1.874 1411
1.225 3.790 1.806 6724
1.182 3.658 1.748 2138
1.267 3.922 1.865 1419
1.226 3.795 1.795 6630
1.269 3.927 1.853 2035
1.184 3.663 1.736 1851
1.234 3.820 1.792 6065
1.192 3.688 1.734 1751
1.277 3.952 1.850 1656
1.243 3.846 1.790 8450
1.292 3.999 1.857 2264
1.200 3.713 1.732 1789
1.244 3.850 1.778 9568
1.287 3.983 1.835 2256
1.201 3.718 1.721 1120
1.264 3.910 1.790 5346
1.318 4.078 1.862 3807
1.221 3.778 1.734 1662
1.322 4.090 1.853 5981
1.279 3.957 1.796 4103
1.236 3.824 1.740 1528
1.294 4.004 1.802 6721
1.337 4.136 1.858 4200
1.295 4.008 1.790 5108
1.338 4.141 1.845 3728
1.306 4.041 1.789 4544
1.349 4.174 1.844 2903
1.263 3.908 1.734 1239
1.392 4.307 1.900 1087
1.328 4.108 1.803 5986
1.285 3.975 1.748 3236
1.387 4.291 1.878 1358
1.343 4.155 1.808 6637
1.295 4.008 1.748 3421
1.402 4.338 1.882 1575
1.346 4.167 1.798 8365
1.399 4.329 1.863 2845
1.303 4.033 1.744 1814
1.348 4.171 1.785 6211
1.396 4.319 1.844 4866
1.439 4.453 1.898 1400
1.397 4.324 1.831 4917
1.354 4.190 1.778 4338
1.441 4.458 1.884 2095
1.406 4.350 1.826 6371
1.362 4.216 1.774 4275
1.449 4.484 1.879 1480
1.409 4.362 1.816 7882
1.364 4.220 1.761 3152
1.453 4.496 1.868 1366
1.496 4.630 1.920 1018
1.411 4.366 1.803 5961
1.365 4.225 1.748 3372
1.495 4.628 1.904 1533
1.438 4.449 1.819 3504
1.367 4.229 1.735 2734
1.499 4.640 1.892 1453
1.464 4.531 1.835 5163
1.405 4.347 1.766 2889
1.508 4.666 1.886 1663
1.466 4.536 1.822 7213
1.413 4.373 1.760 3423
1.509 4.671 1.872 3213
1.467 4.541 1.808 6763
1.511 4.676 1.858 3657
1.424 4.406 1.758 2476
1.555 4.811 1.908 1103
1.478 4.574 1.804 5113
1.434 4.439 1.755 2411
1.529 4.730 1.862 2218
1.482 4.585 1.793 3735
1.525 4.721 1.842 3612
1.569 4.856 1.892 1281
1.438 4.450 1.744 1122
1.527 4.725 1.828 4888
1.472 4.554 1.766 2248
1.591 4.925 1.900 1979
1.535 4.751 1.821 4947
1.593 4.930 1.885 3635
1.473 4.559 1.753 2123
1.539 4.763 1.810 5378
1.585 4.906 1.860 4847
1.477 4.571 1.741 1591
1.585 4.904 1.843 5544
1.536 4.754 1.790 3816
1.588 4.916 1.830 4326
1.531 4.737 1.768 1985
1.632 5.051 1.878 1430
1.590 4.920 1.815 3945
1.636 5.063 1.865 2144
1.591 4.925 1.800 3248
1.638 5.068 1.849 2960
1.682 5.204 1.896 2075
1.642 5.080 1.836 3559
1.686 5.216 1.882 2636
1.598 4.944 1.790 1407
1.643 5.085 1.821 3154
1.687 5.221 1.866 2877
1.599 4.948 1.775 1160
1.647 5.097 1.808 2712
1.691 5.233 1.853 2201
1.603 4.960 1.763 1491
1.735 5.370 1.898 1331
1.655 5.123 1.799 2593
1.730 5.353 1.875 2520
1.734 5.365 1.861 2736
1.666 5.156 1.793 2018
1.719 5.319 1.828 3070
1.786 5.528 1.895 1841
1.663 5.146 1.773 1303
1.720 5.324 1.812 2529
1.788 5.533 1.878 2406
1.790 5.538 1.862 2675
1.713 5.300 1.787 1860
1.862 5.762 1.932 1118
1.786 5.528 1.840 2856
1.854 5.738 1.905 1892
1.721 5.326 1.777 1299
1.790 5.540 1.826 2623
1.844 5.706 1.877 2394
1.888 5.844 1.919 1068
1.799 5.566 1.815 2846
1.846 5.711 1.859 2521
1.890 5.849 1.901 1879
1.863 5.767 1.857 2870
1.805 5.586 1.803 2228
1.943 6.013 1.931 1386
1.865 5.771 1.840 3246
1.914 5.924 1.885 2040
1.811 5.605 1.790 1701
1.959 6.061 1.926 1567
1.911 5.914 1.863 2572
1.956 6.052 1.903 1968
2.000 6.190 1.944 1838
1.864 5.769 1.820 1833
1.929 5.970 1.859 2991
2.002 6.195 1.925 2931
2.046 6.333 1.965 1625
1.884 5.832 1.819 1111
1.985 6.141 1.889 3841
1.935 5.989 1.845 2499
2.039 6.309 1.937 2476
1.891 5.851 1.806 1189
1.981 6.132 1.866 4162
2.038 6.306 1.916 2412
2.122 6.568 1.990 1350
1.885 5.834 1.782 1006
1.990 6.158 1.854 4069
2.044 6.326 1.901 2722
2.124 6.573 1.970 1399
2.173 6.726 2.013 1334
2.048 6.338 1.884 3918
1.994 6.170 1.837 3599
2.173 6.724 1.991 1623
2.128 6.586 1.952 1474
2.047 6.335 1.862 3904
2.002 6.197 1.824 2651
2.130 6.591 1.932 2460
2.174 6.729 1.970 1839
2.129 6.588 1.910 3317
2.079 6.435 1.869 2569
2.204 6.822 1.973 1857
2.009 6.216 1.809 1800
2.131 6.593 1.890 2969
2.175 6.732 1.927 2150
2.081 6.440 1.849 1394
2.272 7.031 2.007 1302
2.182 6.751 1.911 2239
2.236 6.919 1.955 2124
2.130 6.591 1.868 1868
2.283 7.065 1.994 1090
2.240 6.932 1.936 2496
2.195 6.793 1.900 1658
2.297 7.107 1.982 1322
2.256 6.981 1.926 2254
2.336 7.229 1.990 1563
2.185 6.761 1.870 1273
2.260 6.993 1.907 1700
2.352 7.278 1.979 1496
2.499 7.732 2.095 1287
2.399 7.425 2.017 1234
2.498 7.730 2.070 1792
2.403 7.437 1.996 1639
2.280 7.056 1.900 1189
2.351 7.276 1.955 1170
2.497 7.728 2.044 1840
2.403 7.435 1.971 1205
2.504 7.748 2.024 1948
2.515 7.783 2.008 2211
2.507 7.759 1.977 2713
2.692 8.332 2.113 1457
2.604 8.060 2.049 1167
2.509 7.764 1.953 2405
2.692 8.330 2.086 2018
2.599 8.043 2.019 1432
2.696 8.342 2.063 3298
2.518 7.791 1.935 1707
2.601 8.048 1.994 1231
2.695 8.340 2.035 3987
2.522 7.803 1.913 2142
2.690 8.324 2.005 2912
2.525 7.815 1.890 1715
2.735 8.463 2.037 1633
2.644 8.184 1.973 1016
2.727 8.439 2.004 2341
2.682 8.299 1.973 1306
2.815 8.712 2.065 1047
2.741 8.481 1.987 2612
2.860 8.850 2.067 1659
2.695 8.341 1.956 1597
2.803 8.673 2.029 1120
2.745 8.494 1.962 3879
2.699 8.354 1.932 1515
2.864 8.863 2.042 1508
2.819 8.722 2.012 1272
2.746 8.499 1.936 3398
2.963 9.171 2.079 1809
2.823 8.735 1.987 1801
2.701 8.358 1.907 1275
2.748 8.504 1.910 2363
2.824 8.740 1.960 1881
2.963 9.169 2.050 1781
3.054 9.449 2.109 1057
2.964 9.174 2.022 1557
2.747 8.501 1.883 1458
2.826 8.745 1.933 1350
3.024 9.359 2.060 1226
2.969 9.186 1.995 1420
3.093 9.571 2.073 1382
3.014 9.327 2.024 1295
3.157 9.771 2.114 1031
3.157 9.769 2.083 1866
3.092 9.569 2.043 1597
3.011 9.317 1.992 1451
3.096 9.582 2.015 2198
3.158 9.774 2.053 2187
3.163 9.787 2.024 2868
3.098 9.587 1.986 2171
3.164 9.792 1.994 3083
3.100 9.592 1.956 1344
3.526 10.911 2.208 1332
3.166 9.797 1.965 3019
3.530 10.924 2.176 1513
3.120 9.656 1.938 1276
3.165 9.795 1.933 3549
3.506 10.848 2.127 2406
3.120 9.654 1.907 1509
3.376 10.448 2.053 1362
3.167 9.800 1.903 2712
3.507 10.854 2.094 1951
3.380 10.460 2.023 1716
3.553 10.995 2.120 1416
3.173 9.819 1.876 1904
3.550 10.986 2.083 1567
3.380 10.458 1.990 1359
3.175 9.824 1.846 1397
3.556 11.006 2.052 1383
3.737 11.563 2.150 1197
3.556 11.004 2.017 1007
3.829 11.849 2.125 1387
3.831 11.855 2.089 1614
3.830 11.853 2.052 1045
4.063 12.573 2.129 1036
4.065 12.578 2.091 1120
0.722 2.222 1.821 3346
0.728 2.239 1.823 7164
0.690 2.124 1.734 3056
0.733 2.256 1.826 8325
0.695 2.140 1.737 4380
0.731 2.249 1.810 6376
0.693 2.133 1.722 2439
0.768 2.364 1.898 1079
0.752 2.314 1.849 5533
0.714 2.198 1.762 3628
0.730 2.245 1.787 7592
0.767 2.362 1.875 3199
0.731 2.250 1.780 10038
0.769 2.367 1.867 4402
0.733 2.255 1.774 10038
0.773 2.378 1.865 4517
0.736 2.265 1.771 10904
0.774 2.382 1.858 6417
0.738 2.270 1.765 12044
0.776 2.387 1.851 8317
0.753 2.318 1.789 12997
0.791 2.435 1.875 4518
0.715 2.200 1.704 1124
0.755 2.322 1.782 15502
0.793 2.440 1.868 5728
0.784 2.414 1.838 15715
0.746 2.296 1.753 7523
0.786 2.418 1.831 20153
0.747 2.300 1.746 5611
0.787 2.423 1.823 20153
0.749 2.305 1.739 4263
0.789 2.428 1.816 19897
0.750 2.309 1.732 2916
0.790 2.432 1.809 19698
0.752 2.313 1.725 3118
0.792 2.437 1.802 15676
0.753 2.318 1.718 2362
0.831 2.556 1.885 1280
0.797 2.454 1.803 12296
0.759 2.335 1.720 2236
0.840 2.586 1.894 1821
0.799 2.459 1.796 13488
0.850 2.616 1.904 1984
0.760 2.339 1.713 1540
0.805 2.476 1.797 15211
0.854 2.628 1.900 2560
0.766 2.356 1.715 1074
0.806 2.481 1.789 13181
0.853 2.626 1.888 2509
0.805 2.479 1.778 11217
0.845 2.599 1.859 3103
0.805 2.477 1.766 7649
0.852 2.623 1.864 4272
0.856 2.634 1.860 5922
0.800 2.463 1.746 4619
0.857 2.639 1.852 5810
0.802 2.467 1.738 3671
0.861 2.650 1.848 5777
0.822 2.529 1.769 3117
0.831 2.559 1.778 4280
0.871 2.680 1.857 3784
0.833 2.564 1.770 4627
0.877 2.698 1.857 3021
0.841 2.587 1.775 4013
0.880 2.709 1.853 2528
0.844 2.598 1.771 4357
0.884 2.720 1.849 1836
0.846 2.603 1.763 4238
0.885 2.725 1.841 1912
0.849 2.614 1.759 4126
0.900 2.769 1.857 1888
0.872 2.683 1.792 3851
0.912 2.806 1.869 1570
0.865 2.662 1.768 4035
0.905 2.785 1.845 3502
0.894 2.750 1.812 5603
0.854 2.627 1.736 1702
0.934 2.874 1.889 1544
0.895 2.755 1.804 7918
0.937 2.885 1.884 2037
0.895 2.753 1.792 7396
0.935 2.877 1.867 2902
0.896 2.758 1.783 4899
0.936 2.882 1.859 3656
0.934 2.873 1.842 3774
0.893 2.749 1.767 2049
0.935 2.878 1.833 4280
0.895 2.754 1.759 2674
0.937 2.883 1.825 4787
0.896 2.758 1.751 3300
0.940 2.894 1.820 3963
0.900 2.769 1.746 3142
0.944 2.905 1.815 2340
0.903 2.780 1.742 1876
0.930 2.864 1.779 1848
0.971 2.989 1.852 1266
0.966 2.974 1.832 2836
0.926 2.848 1.759 1597
0.968 2.978 1.823 4662
0.927 2.853 1.751 1792
0.969 2.983 1.814 6066
0.928 2.857 1.742 1875
0.975 3.001 1.812 7311
0.934 2.875 1.741 2271
0.981 3.019 1.811 7680
0.940 2.893 1.740 2288
0.987 3.037 1.809 7336
0.944 2.904 1.735 1584
0.993 3.055 1.807 7520
0.988 3.039 1.787 7500
1.029 3.166 1.857 1592
0.989 3.044 1.778 8142
1.030 3.171 1.847 3046
0.991 3.048 1.769 8429
1.032 3.176 1.838 3797
0.992 3.053 1.759 6442
1.033 3.180 1.828 3816
1.013 3.118 1.783 6755
1.054 3.245 1.851 1869
0.972 2.990 1.714 1077
1.019 3.136 1.780 6601
1.065 3.277 1.855 1714
1.027 3.161 1.781 5733
1.068 3.288 1.849 1451
1.033 3.179 1.779 5600
0.991 3.051 1.712 1228
1.034 3.183 1.769 8199
1.076 3.311 1.836 2631
1.036 3.188 1.760 10274
1.077 3.316 1.826 4016
1.039 3.199 1.754 8536
1.081 3.327 1.819 6342
1.123 3.456 1.885 1126
1.078 3.319 1.803 9955
1.036 3.190 1.737 3755
1.120 3.447 1.868 1189
1.080 3.323 1.792 9881
1.038 3.194 1.727 1774
1.122 3.452 1.858 1146
1.081 3.328 1.782 7563
1.123 3.457 1.847 1856
1.039 3.199 1.718 1763
1.094 3.366 1.789 6358
1.052 3.237 1.725 2753
1.136 3.496 1.854 1711
1.097 3.378 1.782 7154
1.140 3.507 1.846 2155
1.055 3.248 1.719 1682
1.114 3.430 1.796 8441
1.072 3.300 1.732 2911
1.157 3.560 1.859 1932
1.123 3.455 1.795 8573
1.080 3.325 1.732 3050
1.165 3.585 1.858 2467
1.129 3.473 1.791 10267
1.086 3.343 1.729 3034
1.171 3.603 1.854 2693
1.130 3.478 1.781 7175
1.172 3.608 1.843 2854
1.088 3.348 1.719 1481
1.165 3.585 1.819 4240
1.123 3.455 1.757 3267
1.207 3.716 1.881 1444
1.171 3.604 1.815 4728
1.129 3.473 1.753 2006
1.213 3.734 1.876 1068
1.152 3.546 1.775 5103
1.197 3.684 1.839 2841
1.156 3.558 1.767 4715
1.199 3.689 1.828 3149
1.184 3.645 1.795 4648
1.227 3.776 1.855 3591
1.142 3.514 1.734 1409
1.226 3.774 1.841 5693
1.181 3.636 1.777 5296
1.226 3.772 1.826 6355
1.183 3.640 1.766 4424
1.268 3.903 1.886 1258
1.227 3.777 1.815 6983
1.184 3.645 1.755 2386
1.270 3.908 1.874 1297
1.229 3.781 1.803 7508
1.271 3.913 1.862 1835
1.186 3.649 1.744 1242
1.228 3.779 1.789 7556
1.271 3.911 1.847 2794
1.241 3.818 1.792 6113
1.198 3.686 1.734 1855
1.283 3.950 1.850 1814
1.249 3.844 1.790 8395
1.296 3.990 1.854 2480
1.206 3.711 1.732 1967
1.253 3.855 1.781 9799
1.300 4.001 1.844 2151
1.210 3.723 1.724 1331
1.268 3.901 1.788 5591
1.324 4.076 1.862 3625
1.225 3.769 1.731 1336
1.328 4.088 1.853 6241
1.285 3.955 1.796 4040
1.242 3.822 1.740 1536
1.300 4.001 1.802 6559
1.343 4.134 1.858 3936
1.299 3.999 1.787 5262
1.345 4.139 1.845 3554
1.342 4.130 1.827 4405
1.299 3.997 1.772 3730
1.387 4.270 1.885 1305
1.343 4.134 1.815 5653
1.298 3.994 1.757 3787
1.389 4.275 1.872 1633
1.349 4.153 1.808 6606
1.299 3.999 1.745 3299
1.406 4.329 1.879 1622
1.353 4.165 1.798 8494
1.406 4.326 1.863 2805
1.310 4.031 1.744 1765
1.352 4.162 1.783 6504
1.403 4.317 1.844 4432
1.446 4.451 1.898 1345
1.365 4.202 1.784 4623
1.409 4.336 1.837 4078
1.452 4.470 1.890 1701
1.322 4.068 1.731 1001
1.415 4.355 1.829 6260
1.369 4.214 1.774 4286
1.458 4.489 1.882 1369
1.416 4.359 1.816 8441
1.371 4.218 1.761 2930
1.460 4.494 1.868 1350
1.504 4.628 1.920 1019
1.420 4.371 1.806 6655
1.372 4.223 1.748 3002
1.503 4.626 1.904 1480
1.419 4.369 1.790 3649
1.373 4.227 1.735 2479
1.468 4.517 1.846 2273
1.511 4.652 1.898 1347
1.472 4.529 1.835 4891
1.419 4.366 1.774 2913
1.515 4.664 1.886 1621
1.375 4.231 1.723 1020
1.473 4.534 1.822 7343
1.420 4.371 1.760 3384
1.517 4.668 1.872 3178
1.475 4.538 1.808 6790
1.518 4.673 1.858 3583
1.431 4.403 1.758 2644
1.562 4.808 1.908 1103
1.488 4.578 1.807 5318
1.444 4.443 1.757 2813
1.536 4.728 1.862 2570
1.489 4.583 1.793 3920
1.533 4.718 1.842 3616
1.577 4.853 1.892 1238
1.445 4.448 1.744 1118
1.535 4.723 1.828 4672
1.484 4.566 1.772 2331
1.599 4.922 1.900 1733
1.545 4.756 1.824 4619
1.601 4.927 1.885 3177
1.481 4.557 1.753 2109
1.547 4.761 1.810 5091
1.593 4.903 1.860 4515
1.484 4.568 1.741 1576
1.592 4.901 1.843 5374
1.544 4.751 1.790 3891
1.596 4.913 1.830 4615
1.538 4.734 1.768 2108
1.640 5.049 1.878 1521
1.600 4.925 1.818 4653
1.644 5.061 1.865 1753
1.556 4.789 1.771 1191
1.689 5.197 1.911 1100
1.599 4.922 1.800 3639
1.644 5.058 1.847 2530
1.690 5.202 1.896 2283
1.650 5.077 1.836 3363
1.694 5.214 1.882 2841
1.605 4.941 1.790 1619
1.693 5.211 1.864 3085
1.649 5.075 1.818 3011
1.605 4.939 1.773 1079
1.681 5.173 1.834 2793
1.636 5.036 1.789 1879
1.734 5.338 1.889 1734
1.664 5.120 1.799 2435
1.738 5.350 1.875 2347
1.740 5.355 1.858 2526
1.677 5.161 1.795 1865
1.803 5.549 1.921 1039
1.727 5.316 1.828 3104
1.795 5.525 1.895 1907
1.669 5.136 1.771 1307
1.731 5.328 1.814 2651
1.797 5.530 1.878 2455
1.798 5.535 1.862 2757
1.721 5.297 1.787 2042
1.795 5.525 1.840 2915
1.854 5.706 1.896 1768
1.737 5.345 1.784 1443
1.853 5.703 1.877 2691
1.799 5.537 1.826 2598
1.855 5.708 1.859 2875
1.810 5.571 1.818 2622
1.899 5.846 1.901 1672
1.765 5.433 1.776 1141
1.866 5.742 1.851 2879
1.816 5.590 1.805 2161
1.922 5.916 1.903 1367
1.874 5.768 1.840 3124
1.959 6.029 1.917 2051
1.820 5.602 1.790 1731
2.008 6.181 1.963 1047
1.921 5.911 1.863 2257
1.965 6.049 1.903 2116
2.010 6.186 1.944 1936
1.873 5.766 1.820 1700
2.012 6.191 1.925 2953
1.941 5.974 1.862 2830
2.057 6.329 1.965 1374
1.999 6.153 1.893 3597
1.954 6.015 1.854 2891
2.051 6.313 1.939 2294
1.902 5.855 1.808 1038
1.998 6.150 1.873 4099
2.053 6.318 1.920 2144
1.953 6.012 1.833 1537
2.133 6.565 1.990 1489
2.000 6.155 1.854 4011
2.057 6.330 1.903 2711
2.132 6.562 1.968 1550
2.184 6.722 2.013 1188
2.058 6.335 1.884 3948
2.004 6.167 1.837 3489
2.181 6.713 1.989 1461
2.136 6.575 1.950 1316
2.057 6.332 1.862 3612
2.012 6.194 1.824 2786
2.140 6.587 1.932 2413
2.185 6.726 1.970 1587
2.140 6.585 1.910 3386
2.090 6.432 1.869 2776
2.213 6.811 1.972 2096
2.021 6.220 1.811 1955
2.141 6.590 1.890 3098
2.186 6.728 1.927 1967
2.283 7.027 2.007 1527
2.091 6.436 1.849 1474
2.245 6.908 1.953 2350
2.192 6.748 1.911 2058
2.143 6.594 1.870 2014
2.290 7.047 1.990 1307
2.251 6.928 1.936 2717
2.206 6.789 1.900 1639
2.308 7.103 1.982 1312
2.265 6.970 1.924 2278
2.357 7.255 1.998 1371
2.198 6.765 1.871 1277
2.271 6.989 1.907 1653
2.511 7.728 2.095 1347
2.366 7.282 1.981 1331
2.411 7.421 2.017 1250
2.513 7.734 2.071 1754
2.415 7.433 1.996 1584
2.289 7.045 1.898 1237
2.365 7.280 1.957 1176
2.512 7.732 2.046 1827
2.415 7.431 1.971 1244
2.367 7.285 1.935 1089
2.516 7.744 2.024 2123
2.520 7.757 2.002 2392
2.520 7.755 1.977 2878
2.708 8.335 2.115 1385
2.617 8.056 2.049 1186
2.524 7.767 1.955 2378
2.707 8.333 2.088 1878
2.612 8.039 2.019 1330
2.709 8.338 2.063 2974
2.530 7.787 1.935 1712
2.611 8.037 1.993 1190
2.709 8.336 2.035 3544
2.534 7.799 1.913 2124
2.754 8.476 2.067 1072
2.663 8.196 2.003 1014
2.703 8.319 2.005 2597
2.749 8.459 2.037 1848
2.538 7.811 1.890 1706
2.658 8.179 1.973 1046
2.743 8.442 2.006 2566
2.808 8.641 2.050 1156
2.698 8.302 1.975 1126
2.754 8.477 1.987 3234
2.807 8.639 2.022 1553
2.874 8.845 2.067 1401
2.709 8.337 1.956 1293
2.758 8.489 1.962 4683
2.811 8.652 1.997 1979
2.878 8.858 2.042 1270
2.713 8.349 1.932 1256
2.760 8.494 1.936 4099
2.832 8.716 1.983 2317
2.978 9.166 2.079 1718
2.933 9.026 2.049 1110
2.762 8.499 1.910 2929
2.834 8.721 1.957 2099
2.978 9.164 2.050 1647
3.066 9.437 2.107 1015
2.761 8.497 1.883 1837
2.835 8.726 1.930 1438
2.979 9.169 2.022 1392
3.073 9.457 2.081 1037
3.108 9.566 2.073 1330
3.029 9.322 2.024 1266
3.175 9.773 2.115 1237
2.981 9.174 1.994 1210
3.175 9.771 2.084 2109
3.108 9.564 2.043 1585
3.023 9.305 1.991 1571
3.177 9.776 2.054 2364
3.112 9.577 2.015 2210
3.018 9.288 1.958 1120
3.178 9.782 2.024 3042
3.111 9.574 1.984 2260
3.182 9.794 1.996 3345
3.115 9.587 1.956 1564
3.543 10.906 2.208 1135
3.182 9.792 1.965 3001
3.548 10.919 2.176 1415
3.126 9.622 1.933 1311
3.181 9.790 1.933 3350
3.523 10.843 2.127 2293
3.133 9.641 1.906 1483
3.393 10.442 2.053 1260
3.185 9.802 1.905 2791
3.525 10.848 2.094 1871
3.397 10.455 2.023 1532
3.571 10.989 2.120 1361
3.189 9.814 1.876 2170
3.568 10.980 2.083 1600
3.396 10.453 1.990 1211
3.190 9.819 1.846 1679
3.574 11.000 2.052 1442
3.755 11.557 2.150 1114
3.576 11.005 2.019 1009
3.850 11.851 2.127 1251
3.850 11.849 2.089 1462
4.083 12.566 2.129 1051
4.082 12.564 2.089 1135
0.722 2.222 1.821 3448
0.728 2.239 1.823 7394
0.690 2.124 1.734 1968
0.733 2.256 1.826 8590
0.695 2.140 1.737 3166
0.731 2.249 1.810 6574
0.693 2.133 1.722 1587
0.768 2.364 1.898 1038
0.752 2.314 1.849 5874
0.714 2.198 1.762 4069
0.730 2.245 1.787 7715
0.767 2.362 1.875 3121
0.729 2.244 1.776 9946
0.767 2.361 1.863 4289
0.731 2.248 1.769 9946
0.769 2.365 1.856 4289
0.736 2.265 1.771 10792
0.774 2.382 1.858 5919
0.738 2.270 1.765 12001
0.776 2.387 1.851 7559
0.753 2.318 1.789 12767
0.791 2.435 1.875 4152
0.715 2.200 1.704 1286
0.755 2.322 1.782 15361
0.793 2.440 1.868 5378
0.716 2.204 1.697 1101
0.784 2.414 1.838 14790
0.746 2.296 1.753 7328
0.786 2.418 1.831 19256
0.747 2.300 1.746 5366
0.787 2.423 1.823 19256
0.749 2.305 1.739 4008
0.791 2.434 1.821 18969
0.752 2.315 1.737 2978
0.790 2.432 1.809 18743
0.752 2.313 1.725 2814
0.794 2.443 1.806 14872
0.755 2.324 1.723 2435
0.833 2.563 1.889 1145
0.797 2.454 1.803 11822
0.759 2.335 1.720 2034
0.836 2.574 1.886 1671
0.801 2.465 1.800 13078
0.840 2.585 1.882 1784
0.762 2.345 1.718 1617
0.805 2.476 1.797 14911
0.854 2.628 1.900 2344
0.806 2.481 1.789 12646
0.853 2.626 1.888 2354
0.808 2.485 1.782 10382
0.847 2.606 1.863 2687
0.807 2.483 1.770 7402
0.854 2.629 1.868 4191
0.856 2.634 1.860 5895
0.804 2.475 1.754 4580
0.860 2.645 1.856 5867
0.820 2.524 1.776 4118
0.863 2.657 1.853 5958
0.824 2.535 1.773 3841
0.829 2.553 1.774 4444
0.869 2.674 1.853 4267
0.831 2.557 1.766 4707
0.877 2.698 1.857 3362
0.841 2.587 1.775 4001
0.880 2.709 1.853 2782
0.844 2.598 1.771 4309
0.884 2.720 1.849 1900
0.846 2.603 1.763 4391
0.885 2.725 1.841 1855
0.849 2.614 1.759 4501
0.900 2.769 1.857 1801
0.861 2.651 1.772 3983
0.901 2.773 1.849 2813
0.865 2.662 1.768 4204
0.905 2.785 1.845 3664
0.902 2.776 1.828 5513
0.862 2.653 1.752 2872
0.942 2.900 1.905 1091
0.899 2.768 1.812 7384
0.939 2.891 1.888 2106
0.897 2.760 1.796 6702
0.937 2.883 1.871 3009
0.898 2.764 1.787 4490
0.938 2.888 1.863 3885
0.936 2.880 1.846 4113
0.895 2.756 1.771 2267
0.937 2.885 1.837 4676
0.897 2.760 1.763 3190
0.939 2.889 1.829 5239
0.898 2.765 1.754 4113
0.940 2.894 1.820 4583
0.900 2.769 1.746 3717
0.944 2.905 1.815 2863
0.903 2.780 1.742 2178
0.930 2.864 1.779 2335
0.971 2.989 1.852 1348
0.964 2.967 1.828 2855
0.923 2.842 1.755 1743
0.968 2.978 1.823 4226
0.927 2.853 1.751 2053
0.969 2.983 1.814 5859
0.928 2.857 1.742 2095
0.975 3.001 1.812 7585
0.934 2.875 1.741 2492
1.016 3.127 1.884 1025
0.979 3.012 1.807 7848
0.938 2.886 1.736 2421
0.987 3.037 1.809 7030
0.944 2.904 1.735 1647
0.990 3.048 1.804 7068
0.988 3.039 1.787 7591
1.029 3.166 1.857 1668
0.989 3.044 1.778 8510
1.030 3.171 1.847 2986
0.991 3.048 1.769 8836
1.032 3.176 1.838 3585
0.992 3.053 1.759 6839
1.033 3.180 1.828 3381
1.013 3.118 1.783 6157
1.054 3.245 1.851 1760
0.972 2.990 1.714 1208
1.017 3.129 1.777 5906
1.063 3.270 1.852 1864
1.027 3.161 1.781 4958
1.068 3.288 1.849 1520
1.020 3.138 1.758 5583
1.061 3.266 1.825 3068
1.030 3.170 1.762 8809
1.072 3.298 1.829 3438
1.034 3.181 1.756 11086
1.075 3.309 1.823 4781
1.037 3.192 1.750 8648
1.079 3.321 1.816 7226
1.121 3.449 1.882 1253
1.078 3.319 1.803 9983
1.036 3.190 1.737 3740
1.120 3.447 1.868 1157
1.078 3.316 1.789 9573
1.036 3.187 1.724 1637
1.122 3.452 1.858 1050
1.081 3.328 1.782 7653
1.039 3.199 1.718 2065
1.123 3.457 1.847 1753
1.085 3.339 1.776 7021
1.127 3.468 1.840 2601
1.043 3.210 1.711 2095
1.095 3.371 1.779 7366
1.137 3.500 1.843 2518
1.053 3.241 1.715 1720
1.114 3.430 1.796 8124
1.072 3.300 1.732 2694
1.157 3.560 1.859 2216
1.120 3.448 1.792 8143
1.163 3.578 1.855 2921
1.078 3.318 1.729 2416
1.129 3.473 1.791 9726
1.086 3.343 1.729 3235
1.171 3.603 1.854 2655
1.130 3.478 1.781 7294
1.175 3.615 1.847 2620
1.088 3.348 1.719 1884
1.134 3.489 1.774 4239
1.176 3.620 1.836 3104
1.091 3.359 1.712 1016
1.144 3.521 1.776 4873
1.187 3.652 1.838 2577
1.152 3.546 1.775 5488
1.195 3.677 1.836 2863
1.154 3.551 1.764 5293
1.196 3.682 1.825 3538
1.187 3.652 1.798 4637
1.229 3.783 1.858 3195
1.144 3.521 1.738 1831
1.224 3.767 1.837 5797
1.181 3.636 1.777 5599
1.226 3.772 1.826 6653
1.183 3.640 1.766 5295
1.268 3.903 1.886 1148
1.225 3.770 1.811 7535
1.182 3.638 1.752 2616
1.268 3.901 1.871 1751
1.229 3.781 1.803 8436
1.271 3.913 1.862 2011
1.186 3.649 1.744 1467
1.228 3.779 1.789 8341
1.271 3.911 1.847 2882
1.185 3.647 1.730 1049
1.227 3.776 1.774 6000
1.270 3.908 1.832 2554
1.247 3.837 1.787 8189
1.290 3.969 1.844 2647
1.204 3.704 1.729 1819
1.253 3.855 1.781 9742
1.298 3.994 1.841 2017
1.210 3.723 1.724 1415
1.265 3.894 1.785 5605
1.324 4.076 1.862 3480
1.222 3.762 1.728 1201
1.326 4.081 1.850 6158
1.283 3.948 1.793 3762
1.240 3.815 1.737 1579
1.298 3.994 1.799 6569
1.341 4.127 1.855 3748
1.246 3.834 1.731 1108
1.299 3.999 1.787 5662
1.343 4.132 1.843 3305
1.342 4.130 1.827 4661
1.299 3.997 1.772 4231
1.385 4.263 1.882 1306
1.343 4.134 1.815 5690
1.295 3.987 1.754 3909
1.387 4.268 1.869 1820
1.349 4.153 1.808 6455
1.297 3.992 1.742 3124
1.393 4.286 1.862 1533
1.353 4.165 1.798 8525
1.406 4.326 1.863 2313
1.310 4.031 1.744 1806
1.350 4.155 1.780 6974
1.396 4.296 1.836 3641
1.439 4.430 1.889 1265
1.365 4.202 1.784 4728
1.409 4.336 1.837 3163
1.452 4.470 1.890 1620
1.322 4.068 1.731 1117
1.415 4.355 1.829 5979
1.369 4.214 1.774 4337
1.458 4.489 1.882 1266
1.326 4.080 1.721 1062
1.416 4.359 1.816 8489
1.366 4.204 1.756 2849
1.460 4.494 1.868 1364
1.420 4.371 1.806 6901
1.370 4.216 1.746 2655
1.464 4.505 1.857 1593
1.508 4.640 1.909 1371
1.422 4.376 1.792 3900
1.468 4.517 1.846 2534
1.371 4.220 1.733 2148
1.511 4.652 1.898 1299
1.472 4.529 1.835 4955
1.421 4.373 1.776 2731
1.518 4.671 1.889 1484
1.373 4.224 1.720 1028
1.473 4.534 1.822 7632
1.420 4.371 1.760 2941
1.519 4.676 1.875 2936
1.472 4.531 1.805 7013
1.516 4.666 1.855 3537
1.428 4.396 1.755 2419
1.560 4.801 1.905 1121
1.497 4.607 1.818 5815
1.453 4.472 1.768 3919
1.541 4.742 1.867 2616
1.489 4.583 1.793 4101
1.533 4.718 1.842 3715
1.577 4.853 1.892 1125
1.445 4.448 1.744 1102
1.535 4.723 1.828 4627
1.486 4.573 1.774 2429
1.597 4.915 1.898 1430
1.545 4.756 1.824 4393
1.601 4.927 1.885 2581
1.490 4.585 1.763 2279
1.547 4.761 1.810 4810
1.591 4.896 1.858 3769
1.503 4.625 1.761 1848
1.592 4.901 1.843 4873
1.541 4.744 1.788 4012
1.596 4.913 1.830 4724
1.541 4.741 1.771 2246
1.640 5.049 1.878 1571
1.600 4.925 1.818 5212
1.644 5.061 1.865 1552
1.556 4.789 1.771 1404
1.689 5.197 1.911 1064
1.602 4.929 1.803 4067
