3.795 13.882 2.222 835
0.612 2.222 1.797 4885
0.614 2.227 1.791 9770
0.646 2.344 1.879 1090
0.615 2.231 1.784 9770
0.647 2.349 1.872 2181
0.618 2.242 1.782 9414
0.650 2.360 1.870 3903
0.623 2.259 1.785 9851
0.655 2.377 1.872 4856
0.626 2.270 1.783 8010
0.658 2.388 1.870 6199
0.658 2.387 1.858 8682
0.625 2.268 1.771 5980
0.659 2.391 1.851 8682
0.626 2.273 1.765 5980
0.662 2.402 1.849 8401
0.629 2.284 1.762 6353
0.638 2.313 1.774 8949
0.670 2.432 1.860 7138
0.641 2.324 1.771 8557
0.673 2.443 1.857 5401
0.644 2.335 1.769 8273
0.677 2.455 1.854 3917
0.671 2.434 1.829 6306
0.638 2.314 1.744 4402
0.672 2.439 1.822 6862
0.639 2.319 1.737 2498
0.673 2.444 1.815 6862
0.640 2.323 1.730 1767
0.675 2.448 1.807 5949
0.642 2.328 1.724 1036
0.688 2.497 1.831 5433
0.643 2.332 1.717 1033
0.688 2.496 1.819 7900
0.721 2.617 1.902 895
0.689 2.501 1.812 10275
0.723 2.622 1.894 1305
0.690 2.505 1.804 8518
0.724 2.627 1.887 1688
0.699 2.536 1.814 7072
0.732 2.657 1.896 994
0.704 2.553 1.815 5042
0.744 2.701 1.914 923
0.716 2.596 1.833 3936
0.682 2.474 1.752 2697
0.720 2.614 1.834 4675
0.687 2.492 1.753 2251
0.724 2.625 1.830 6046
0.690 2.503 1.750 1744
0.723 2.623 1.818 5934
0.757 2.746 1.899 3006
0.723 2.622 1.806 6104
0.756 2.745 1.886 4798
0.756 2.743 1.874 6631
0.722 2.620 1.794 5052
0.759 2.754 1.870 8266
0.718 2.605 1.774 4408
0.759 2.753 1.858 8260
0.719 2.610 1.766 2964
0.758 2.751 1.845 8322
0.724 2.627 1.767 1580
0.760 2.756 1.837 7373
0.722 2.619 1.751 1074
0.757 2.748 1.821 6754
0.792 2.872 1.898 1562
0.762 2.765 1.821 6894
0.796 2.890 1.898 2000
0.765 2.777 1.816 7468
0.800 2.901 1.893 2358
0.768 2.788 1.812 6475
0.803 2.913 1.889 3174
0.775 2.812 1.816 5776
0.810 2.938 1.892 3090
0.780 2.830 1.815 4952
0.815 2.956 1.891 2181
0.781 2.835 1.807 4856
0.816 2.961 1.882 2458
0.781 2.833 1.795 5328
0.815 2.959 1.870 3130
0.795 2.884 1.814 5101
0.839 3.043 1.908 1585
0.796 2.889 1.805 6003
0.840 3.048 1.899 2519
0.797 2.894 1.797 5294
0.841 3.053 1.890 4063
0.843 3.058 1.881 5607
0.808 2.931 1.807 5228
0.817 2.963 1.814 6654
0.852 3.090 1.887 4407
0.831 3.014 1.832 6835
0.866 3.141 1.904 1882
0.836 3.033 1.830 6307
0.801 2.905 1.758 2550
0.857 3.111 1.863 4755
0.822 2.984 1.791 3090
0.868 3.149 1.872 5469
0.827 3.002 1.790 2018
0.866 3.141 1.856 5555
0.827 3.000 1.777 2404
0.867 3.146 1.846 6552
0.832 3.018 1.776 1928
0.868 3.150 1.837 7683
0.833 3.022 1.767 1131
0.871 3.162 1.831 7080
0.907 3.290 1.901 918
0.878 3.187 1.833 7392
0.914 3.316 1.902 1281
0.882 3.199 1.827 7901
0.917 3.327 1.896 1672
0.883 3.203 1.817 7075
0.918 3.332 1.886 2154
0.884 3.208 1.808 6464
0.920 3.337 1.876 2533
0.906 3.288 1.837 6895
0.870 3.158 1.770 2368
0.906 3.286 1.824 7213
0.870 3.156 1.757 1698
0.909 3.297 1.818 7349
0.944 3.427 1.885 1392
0.918 3.329 1.822 8538
0.882 3.199 1.755 1562
0.913 3.313 1.802 9382
0.949 3.444 1.868 1807
0.920 3.339 1.802 9909
0.956 3.469 1.868 2037
0.923 3.350 1.796 9517
0.959 3.481 1.861 2402
0.936 3.396 1.806 8806
0.972 3.527 1.871 2676
0.941 3.415 1.803 8333
0.977 3.545 1.868 3033
0.944 3.426 1.796 6976
0.980 3.557 1.860 5031
0.976 3.541 1.840 9391
0.940 3.410 1.776 4838
0.979 3.553 1.832 10011
0.943 3.422 1.769 3899
0.981 3.558 1.822 8168
0.944 3.426 1.759 3345
0.980 3.555 1.808 6975
1.016 3.687 1.871 5271
0.981 3.560 1.797 7126
1.018 3.692 1.860 5128
1.007 3.655 1.829 6575
0.971 3.523 1.767 1803
1.011 3.667 1.821 6160
1.047 3.799 1.883 1176
1.023 3.713 1.830 5627
0.987 3.581 1.769 3330
1.032 3.746 1.831 4740
0.996 3.614 1.771 4102
1.032 3.744 1.817 5111
0.995 3.611 1.757 2482
1.035 3.756 1.809 5594
1.072 3.889 1.869 4725
1.069 3.879 1.851 7784
1.033 3.746 1.792 3083
1.067 3.870 1.833 8939
1.103 4.004 1.892 1341
1.066 3.868 1.819 7807
1.103 4.001 1.877 2340
1.071 3.887 1.813 8160
1.110 4.027 1.875 3990
1.078 3.913 1.811 9340
1.115 4.046 1.869 4851
1.082 3.924 1.802 6173
1.119 4.058 1.860 5282
1.122 4.070 1.850 6774
1.085 3.936 1.793 3344
1.127 4.089 1.844 7234
1.090 3.955 1.788 3094
1.132 4.108 1.838 5325
1.095 3.974 1.782 2891
1.132 4.106 1.823 3406
1.169 4.240 1.879 2102
1.158 4.203 1.848 3598
1.121 4.068 1.793 2040
1.160 4.207 1.836 4201
1.197 4.342 1.891 1687
1.165 4.226 1.829 4170
1.202 4.362 1.884 2645
1.182 4.288 1.839 4803
1.145 4.153 1.785 3697
1.181 4.286 1.823 5375
1.219 4.421 1.877 3375
1.210 4.390 1.850 4785
1.173 4.255 1.797 4390
1.213 4.402 1.840 4113
1.176 4.267 1.787 3253
1.221 4.429 1.835 4679
1.183 4.293 1.782 2560
1.218 4.419 1.816 3953
1.279 4.641 1.901 3728
1.280 4.646 1.887 5733
1.225 4.445 1.811 3346
1.282 4.651 1.873 6811
1.222 4.435 1.792 3278
1.281 4.648 1.857 5364
1.244 4.512 1.806 2769
1.282 4.653 1.843 4205
1.320 4.790 1.893 3125
1.284 4.658 1.829 4050
1.323 4.802 1.882 2300
1.287 4.670 1.818 3263
1.325 4.807 1.867 2272
1.320 4.790 1.845 3569
1.282 4.653 1.796 1736
1.357 4.925 1.877 3366
1.319 4.788 1.828 3183
1.357 4.922 1.860 5531
1.319 4.785 1.811 2391
1.358 4.927 1.845 5784
1.320 4.790 1.797 1810
1.359 4.932 1.830 5103
1.401 5.084 1.883 1714
1.365 4.951 1.820 4167
1.403 5.089 1.868 2653
1.374 4.985 1.815 4750
1.412 5.123 1.862 2999
1.405 5.098 1.837 4244
1.367 4.960 1.791 2374
1.408 5.110 1.824 3965
1.463 5.307 1.890 3958
1.464 5.312 1.874 3728
1.412 5.122 1.811 2627
1.447 5.251 1.836 3285
1.487 5.397 1.884 2242
1.519 5.511 1.903 2287
1.451 5.263 1.823 2276
1.506 5.465 1.870 3171
1.546 5.610 1.917 1849
1.507 5.469 1.854 4658
1.558 5.652 1.911 2590
1.561 5.664 1.897 3606
1.511 5.482 1.840 2693
1.560 5.662 1.877 2812
1.633 5.925 1.959 1659
1.578 5.725 1.878 2898
1.632 5.923 1.939 2522
1.579 5.730 1.861 2215
1.630 5.913 1.917 1365
1.591 5.772 1.855 1716
1.651 5.992 1.921 1705
1.695 6.151 1.949 2727
1.655 6.004 1.905 2710
1.695 6.148 1.928 3714
1.656 6.009 1.887 3165
1.698 6.161 1.912 3506
1.655 6.006 1.867 2663
1.655 6.004 1.847 2704
1.762 6.394 1.959 2537
1.766 6.406 1.941 3371
1.804 6.546 1.981 2540
1.771 6.426 1.926 5115
1.810 6.566 1.966 3317
1.772 6.431 1.907 5229
1.811 6.571 1.946 3733
1.770 6.421 1.884 3088
1.871 6.790 1.985 2913
1.873 6.795 1.964 3247
1.769 6.419 1.862 1953
1.872 6.793 1.942 2493
1.960 7.111 2.027 1859
1.961 7.116 2.005 2159
2.000 7.257 2.043 1850
1.965 7.129 1.986 3177
2.003 7.269 2.023 2537
1.966 7.134 1.965 2797
2.005 7.275 2.001 2279
1.998 7.250 1.971 2073
2.086 7.569 2.052 1931
2.088 7.574 2.030 1684
2.000 7.255 1.950 1145
2.079 7.542 1.998 1465
2.157 7.824 2.068 960
2.158 7.830 2.044 1573
2.086 7.570 1.980 1181
2.159 7.835 2.021 1587
2.198 7.976 2.055 1033
2.179 7.907 2.013 1438
2.292 8.316 2.110 1371
2.296 8.329 2.087 2299
2.376 8.620 2.155 1374
2.297 8.335 2.062 2026
2.377 8.625 2.130 1461
2.368 8.594 2.095 1753
2.301 8.348 2.039 1484
2.368 8.592 2.067 2351
2.312 8.390 2.022 1341
2.369 8.597 2.042 1944
2.409 8.739 2.073 1294
2.402 8.714 2.040 2262
2.492 9.043 2.112 1748
2.403 8.720 2.014 2924
2.492 9.041 2.083 1903
2.403 8.717 1.986 2610
2.570 9.323 2.115 2077
2.571 9.329 2.087 2597
2.402 8.715 1.958 1768
2.589 9.394 2.071 1803
2.641 9.581 2.110 1096
2.597 9.422 2.048 2024
2.642 9.586 2.081 1448
2.596 9.420 2.018 2096
2.687 9.749 2.084 1820
2.651 9.620 2.028 2014
2.823 10.242 2.151 1359
2.651 9.618 1.997 2091
2.826 10.255 2.121 1838
2.830 10.268 2.092 1775
2.925 10.613 2.158 1663
2.925 10.612 2.124 1914
2.834 10.281 2.062 1418
2.926 10.617 2.092 1843
2.970 10.775 2.121 1324
3.162 11.472 2.215 1375
2.899 10.517 2.041 1341
3.288 11.929 2.261 1112
3.078 11.170 2.125 1044
3.217 11.672 2.178 1050
3.177 11.529 2.153 997
3.225 11.700 2.147 1160
3.303 11.986 2.196 1089
3.598 13.054 2.340 1061
3.305 11.992 2.160 958
3.597 13.053 2.299 970
3.298 11.967 2.119 893
3.612 13.104 2.267 796
3.825 13.879 2.351 780
3.819 13.855 2.304 1030
3.421 12.414 2.078 803
3.822 13.869 2.264 1092
3.824 13.875 2.222 854
0.617 2.221 1.797 4805
0.618 2.225 1.791 9610
0.651 2.342 1.879 1006
0.620 2.230 1.784 9610
0.652 2.347 1.872 2013
0.624 2.247 1.787 9350
0.657 2.364 1.875 3263
0.627 2.258 1.785 10253
0.660 2.376 1.872 4559
0.632 2.275 1.787 8511
0.665 2.393 1.875 5115
0.663 2.385 1.858 8147
0.630 2.267 1.771 6197
0.664 2.390 1.851 8147
0.631 2.272 1.765 6197
0.641 2.307 1.781 7928
0.674 2.426 1.867 5277
0.642 2.312 1.774 8381
0.675 2.431 1.860 6384
0.645 2.323 1.771 8196
0.679 2.442 1.857 4921
0.648 2.334 1.769 8165
0.682 2.453 1.854 3689
0.674 2.426 1.825 6223
0.641 2.307 1.740 3765
0.677 2.438 1.822 6624
0.644 2.318 1.737 2607
0.679 2.442 1.815 6624
0.645 2.322 1.730 1798
0.682 2.453 1.812 5785
0.648 2.333 1.728 991
0.694 2.496 1.831 6012
0.651 2.344 1.725 1009
0.693 2.494 1.819 8501
0.654 2.355 1.723 888
0.694 2.499 1.812 10880
0.728 2.620 1.894 988
0.696 2.504 1.804 8854
0.729 2.625 1.887 1364
0.704 2.534 1.814 7278
0.738 2.656 1.896 816
0.707 2.545 1.811 5369
0.750 2.699 1.914 950
0.719 2.588 1.829 3992
0.685 2.466 1.748 2341
0.724 2.606 1.830 4576
0.690 2.484 1.749 2042
0.729 2.624 1.830 5964
0.695 2.501 1.750 1845
0.730 2.628 1.823 6004
0.764 2.751 1.903 2477
0.730 2.627 1.811 6222
0.764 2.750 1.890 4167
0.762 2.741 1.874 6460
0.728 2.618 1.794 5035
0.763 2.746 1.866 8336
0.722 2.597 1.770 4502
0.763 2.745 1.853 8608
0.723 2.602 1.762 3038
0.764 2.749 1.845 8992
0.730 2.626 1.767 1705
0.765 2.754 1.837 7977
0.731 2.630 1.759 1091
0.765 2.753 1.825 7148
0.799 2.877 1.902 1482
0.768 2.764 1.821 7134
0.803 2.888 1.898 2172
0.771 2.775 1.816 7449
0.806 2.900 1.893 2491
0.776 2.793 1.816 6638
0.811 2.918 1.893 2806
0.779 2.804 1.812 5975
0.814 2.929 1.888 3431
0.782 2.815 1.808 4975
0.817 2.941 1.883 2749
0.785 2.827 1.803 4963
0.820 2.952 1.878 2552
0.787 2.831 1.795 5730
0.822 2.957 1.870 2874
0.799 2.876 1.810 5757
0.834 3.002 1.884 2085
0.802 2.887 1.805 6824
0.843 3.033 1.891 2551
0.804 2.892 1.797 5945
0.846 3.045 1.886 4240
0.847 3.050 1.877 5962
0.812 2.923 1.803 4905
0.823 2.961 1.814 6617
0.858 3.088 1.887 4281
0.837 3.013 1.832 6732
0.872 3.140 1.904 1820
0.840 3.024 1.827 5986
0.805 2.897 1.754 2262
0.868 3.123 1.870 4291
0.832 2.995 1.799 3562
0.875 3.148 1.872 5272
0.834 3.000 1.790 2303
0.874 3.146 1.859 5152
0.833 2.998 1.777 2537
0.874 3.144 1.846 6152
0.836 3.009 1.772 2017
0.875 3.149 1.837 7331
0.839 3.020 1.767 1105
0.878 3.160 1.831 6625
0.914 3.289 1.901 774
0.887 3.192 1.836 7083
0.851 3.063 1.767 1158
0.888 3.197 1.827 7697
0.924 3.325 1.896 1485
0.890 3.201 1.817 7094
0.925 3.330 1.886 1944
0.891 3.206 1.808 6683
0.927 3.335 1.876 2437
0.892 3.211 1.798 6875
0.928 3.340 1.866 2469
0.914 3.290 1.828 6752
0.878 3.161 1.760 2195
0.916 3.295 1.818 6986
0.880 3.166 1.751 1295
0.919 3.307 1.811 8156
0.955 3.437 1.878 834
0.920 3.311 1.802 9240
0.956 3.442 1.868 1690
0.927 3.337 1.802 10416
0.963 3.467 1.868 1952
0.930 3.348 1.796 10755
0.967 3.479 1.861 2441
0.937 3.373 1.796 9152
0.976 3.511 1.864 2490
0.944 3.399 1.796 7151
0.981 3.530 1.861 3657
0.980 3.528 1.847 7158
0.944 3.397 1.783 5263
0.983 3.539 1.840 8747
0.947 3.408 1.776 4347
0.987 3.551 1.832 8990
0.950 3.420 1.769 3439
0.988 3.556 1.822 7506
0.951 3.424 1.759 3106
0.985 3.546 1.805 6882
1.022 3.678 1.867 5721
0.989 3.558 1.797 7021
1.025 3.690 1.860 4958
1.015 3.653 1.829 6173
0.978 3.521 1.767 2065
1.030 3.707 1.841 6323
0.993 3.574 1.779 3632
1.033 3.718 1.833 5837
0.996 3.586 1.772 3939
1.048 3.772 1.844 5641
1.011 3.639 1.783 4965
1.051 3.784 1.836 5111
1.014 3.651 1.776 4124
1.041 3.746 1.806 5140
1.078 3.879 1.866 4832
1.077 3.877 1.851 7563
1.040 3.744 1.792 2909
1.073 3.861 1.830 8776
1.110 3.994 1.889 1477
1.072 3.859 1.816 7656
1.109 3.992 1.874 2576
1.079 3.884 1.813 7761
1.118 4.025 1.875 4519
1.087 3.910 1.811 9268
1.124 4.044 1.869 5377
1.092 3.929 1.805 6352
1.129 4.063 1.863 4789
1.130 4.068 1.850 6059
1.093 3.934 1.793 3543
1.136 4.087 1.844 7072
1.098 3.952 1.788 2966
1.139 4.099 1.835 5385
1.102 3.964 1.779 2675
1.138 4.096 1.820 3470
1.176 4.231 1.876 2092
1.136 4.087 1.802 3550
1.173 4.221 1.857 3055
1.172 4.219 1.842 3796
1.135 4.084 1.787 2669
1.176 4.231 1.832 4234
1.213 4.366 1.886 2629
1.187 4.271 1.833 4456
1.149 4.136 1.779 3203
1.206 4.340 1.846 5429
1.157 4.162 1.775 2937
1.207 4.345 1.833 5123
1.170 4.210 1.780 1955
1.223 4.400 1.840 3702
1.185 4.264 1.787 3439
1.230 4.426 1.835 4470
1.287 4.633 1.915 2423
1.227 4.416 1.816 3975
1.289 4.638 1.901 3900
1.290 4.643 1.887 5883
1.234 4.443 1.811 3490
1.292 4.648 1.873 6751
1.232 4.433 1.792 3553
1.293 4.653 1.859 5210
1.255 4.516 1.808 3074
1.272 4.579 1.816 3727
1.328 4.780 1.891 2861
1.282 4.612 1.813 3837
1.244 4.475 1.763 2329
1.297 4.667 1.818 2916
1.335 4.804 1.867 2137
1.334 4.802 1.850 3560
1.296 4.665 1.801 2129
1.368 4.922 1.877 3235
1.330 4.785 1.828 2828
1.369 4.927 1.862 5284
1.331 4.789 1.814 1913
1.366 4.917 1.842 5883
1.328 4.780 1.794 1422
1.368 4.922 1.828 5387
1.410 5.074 1.880 1408
1.385 4.984 1.833 4403
1.433 5.158 1.892 2125
1.384 4.982 1.815 4890
1.423 5.120 1.862 3109
1.416 5.095 1.837 4239
1.378 4.958 1.791 2497
1.474 5.304 1.890 3887
1.421 5.115 1.827 3814
1.473 5.301 1.871 3727
1.423 5.119 1.811 2577
1.458 5.248 1.836 3368
1.499 5.393 1.884 2149
1.462 5.260 1.823 2360
1.500 5.398 1.868 2256
1.505 5.418 1.856 2949
1.558 5.607 1.917 1712
1.519 5.466 1.854 4355
1.570 5.649 1.911 2257
1.573 5.661 1.897 3122
1.522 5.478 1.840 2581
1.572 5.659 1.877 2434
1.643 5.914 1.957 1585
1.588 5.715 1.876 2771
1.643 5.912 1.937 2482
1.589 5.719 1.859 2151
1.644 5.917 1.919 1539
1.662 5.981 1.919 1964
1.623 5.842 1.877 1816
1.708 6.147 1.949 2879
1.667 6.000 1.905 2618
1.707 6.145 1.928 4014
1.669 6.005 1.887 2897
1.711 6.157 1.912 3741
1.666 5.996 1.865 2535
1.714 6.169 1.895 2759
1.778 6.397 1.961 2730
1.779 6.402 1.941 3049
1.726 6.211 1.887 2543
1.785 6.422 1.926 4245
1.729 6.223 1.871 3188
1.786 6.427 1.907 4473
1.825 6.567 1.946 3495
1.783 6.417 1.884 3012
1.886 6.786 1.985 2843
1.887 6.791 1.964 3317
1.785 6.422 1.864 2274
1.886 6.789 1.942 2407
2.008 7.225 2.058 1679
2.011 7.238 2.039 2309
1.964 7.068 1.994 2167
1.974 7.102 1.980 3256
2.015 7.250 2.019 3053
2.014 7.248 1.995 3061
1.975 7.108 1.959 2658
2.013 7.246 1.971 2082
2.098 7.550 2.049 1861
2.103 7.570 2.030 1646
2.015 7.251 1.950 1047
2.093 7.531 1.996 1526
2.169 7.805 2.064 1004
2.172 7.818 2.042 1644
2.214 7.966 2.079 1235
2.174 7.823 2.019 1665
2.213 7.964 2.053 1191
2.194 7.895 2.011 1442
2.308 8.304 2.109 1290
2.311 8.317 2.085 2125
2.251 8.101 2.035 1704
2.315 8.330 2.062 1990
2.395 8.620 2.130 1475
2.387 8.589 2.095 1808
2.318 8.343 2.039 1455
2.386 8.587 2.067 2505
2.330 8.385 2.022 1266
2.388 8.592 2.042 2110
2.427 8.734 2.073 1184
2.511 9.038 2.112 1712
2.420 8.709 2.040 1695
2.422 8.715 2.014 2326
2.511 9.036 2.083 1862
2.421 8.712 1.986 2170
2.587 9.310 2.114 2089
2.591 9.323 2.087 2673
2.522 9.076 2.035 1485
2.592 9.329 2.059 1834
2.488 8.955 1.982 1119
2.617 9.416 2.048 2023
2.662 9.581 2.081 1294
2.616 9.414 2.018 2158
2.707 9.744 2.084 1605
2.674 9.622 2.029 1920
2.617 9.419 1.989 1384
2.673 9.619 1.999 1936
2.848 10.249 2.121 1935
2.852 10.262 2.092 1870
2.947 10.607 2.158 1722
2.947 10.605 2.124 1853
2.853 10.268 2.061 1422
2.949 10.611 2.092 1938
2.992 10.769 2.121 1403
2.948 10.609 2.059 1485
3.186 11.465 2.215 1397
3.313 11.922 2.261 1075
3.213 11.561 2.196 1048
3.241 11.665 2.178 1060
3.471 12.492 2.324 974
3.331 11.987 2.198 1156
3.249 11.693 2.147 1115
3.625 13.046 2.340 1035
3.330 11.985 2.160 985
3.625 13.045 2.299 894
3.326 11.968 2.120 870
3.624 13.043 2.259 786
3.457 12.441 2.160 768
3.626 13.049 2.219 837
3.448 12.409 2.117 779
3.848 13.847 2.304 951
3.447 12.407 2.078 909
3.849 13.853 2.262 959
3.631 13.068 2.142 784
0.622 2.219 1.797 4713
0.623 2.224 1.791 9427
0.656 2.341 1.879 942
0.624 2.229 1.784 9427
0.657 2.346 1.872 1884
0.629 2.246 1.787 9354
0.662 2.363 1.875 2982
0.632 2.257 1.785 10466
0.665 2.374 1.872 4227
0.637 2.274 1.787 8856
0.670 2.391 1.875 4765
0.642 2.291 1.790 7971
0.675 2.409 1.877 4601
0.643 2.295 1.783 7971
0.676 2.414 1.869 4676
0.644 2.300 1.776 7915
0.677 2.418 1.862 5569
0.647 2.311 1.774 7911
0.680 2.430 1.860 5632
0.650 2.322 1.771 7882
0.684 2.441 1.857 4456
0.652 2.326 1.764 8130
0.685 2.445 1.850 4211
0.679 2.425 1.825 6223
0.646 2.306 1.740 3833
0.682 2.436 1.822 6498
0.649 2.316 1.737 2747
0.684 2.441 1.815 6498
0.650 2.321 1.730 1827
0.687 2.452 1.812 5769
0.653 2.332 1.728 947
0.697 2.488 1.826 6525
0.658 2.349 1.730 1069
0.698 2.493 1.819 9026
0.664 2.372 1.736 969
0.700 2.498 1.812 11447
0.666 2.377 1.729 870
0.703 2.509 1.809 9233
0.737 2.630 1.891 939
0.709 2.533 1.814 7565
0.712 2.544 1.811 5688
0.756 2.697 1.914 1025
0.716 2.555 1.807 4088
0.757 2.702 1.906 1369
0.730 2.605 1.830 4363
0.695 2.482 1.749 2006
0.734 2.622 1.830 5741
0.700 2.500 1.750 1930
0.736 2.627 1.823 6012
0.770 2.749 1.903 2302
0.735 2.625 1.811 6373
0.770 2.748 1.890 3810
0.767 2.740 1.874 6193
0.733 2.617 1.794 5098
0.767 2.738 1.862 8455
0.727 2.596 1.770 4585
0.768 2.743 1.853 8988
0.730 2.607 1.766 3057
0.770 2.748 1.845 9521
0.735 2.624 1.767 1800
0.771 2.753 1.837 8449
0.736 2.629 1.759 1257
0.771 2.751 1.825 7486
0.805 2.875 1.902 1567
0.774 2.762 1.821 7214
0.808 2.887 1.898 2209
0.777 2.773 1.816 7176
0.812 2.898 1.893 2472
0.782 2.791 1.816 6402
0.817 2.916 1.893 2590
0.785 2.803 1.812 5858
0.820 2.928 1.888 3086
0.786 2.807 1.804 5346
0.821 2.932 1.879 2754
0.789 2.819 1.799 5678
0.825 2.944 1.874 2499
0.793 2.830 1.795 6551
0.828 2.955 1.870 2673
0.805 2.874 1.810 6216
0.840 3.000 1.884 2333
0.806 2.879 1.801 7394
0.847 3.025 1.887 2710
0.810 2.890 1.797 6333
0.850 3.036 1.882 4378
0.854 3.048 1.877 6175
0.818 2.921 1.803 4943
0.829 2.959 1.814 6511
0.864 3.086 1.887 4014
0.843 3.011 1.832 6689
0.808 2.884 1.759 1774
0.847 3.022 1.827 5760
0.811 2.895 1.754 2231
0.880 3.141 1.882 4063
0.844 3.014 1.810 3987
0.881 3.146 1.872 4965
0.842 3.005 1.793 2533
0.881 3.144 1.859 4787
0.841 3.003 1.781 2600
0.876 3.129 1.839 5903
0.840 3.001 1.768 1989
0.880 3.140 1.833 7148
0.844 3.012 1.763 997
0.883 3.152 1.827 6193
0.919 3.280 1.897 805
0.894 3.190 1.836 6614
0.858 3.062 1.767 1064
0.897 3.202 1.830 7277
0.933 3.330 1.899 1145
0.896 3.200 1.817 6914
0.932 3.328 1.886 1756
0.898 3.204 1.808 6708
0.934 3.333 1.876 2260
0.899 3.209 1.798 6854
0.935 3.338 1.866 2357
0.921 3.289 1.828 6304
0.885 3.159 1.760 2395
0.921 3.286 1.814 6672
0.957 3.416 1.881 1576
0.924 3.298 1.808 7918
0.960 3.428 1.875 1227
0.925 3.303 1.798 9148
0.961 3.433 1.864 1927
0.936 3.342 1.806 10857
0.899 3.211 1.740 2112
0.937 3.346 1.796 11743
0.974 3.477 1.861 2371
0.942 3.365 1.792 9967
0.979 3.495 1.858 2301
0.948 3.383 1.789 6988
0.984 3.514 1.854 4178
0.986 3.519 1.843 7164
0.949 3.388 1.779 4674
0.991 3.537 1.840 7786
0.954 3.406 1.776 4007
0.994 3.549 1.832 7588
0.957 3.418 1.769 3125
0.995 3.554 1.822 6553
0.959 3.422 1.759 2933
0.993 3.544 1.805 6854
1.030 3.676 1.867 5123
0.996 3.556 1.797 7182
1.033 3.688 1.860 4508
1.023 3.651 1.829 5872
0.986 3.519 1.767 2292
1.038 3.704 1.841 6503
1.001 3.572 1.779 3912
1.043 3.723 1.836 6049
1.006 3.591 1.775 4623
1.056 3.770 1.844 6637
1.019 3.637 1.783 5020
1.059 3.781 1.836 5602
1.022 3.649 1.776 3954
1.049 3.744 1.806 5061
1.086 3.877 1.866 4912
1.085 3.875 1.851 7523
1.048 3.742 1.792 2848
1.081 3.859 1.830 8647
1.118 3.992 1.889 1488
1.080 3.856 1.816 7347
1.118 3.990 1.874 2624
1.087 3.882 1.813 6734
1.127 4.023 1.875 4678
1.095 3.908 1.811 8310
1.132 4.042 1.869 5453
1.100 3.927 1.805 5979
1.137 4.061 1.863 4238
1.135 4.051 1.844 4958
1.097 3.917 1.787 3423
1.144 4.084 1.844 6437
1.104 3.943 1.785 3025
1.147 4.096 1.835 5184
1.110 3.962 1.779 2417
1.137 4.059 1.805 3470
1.174 4.193 1.861 1903
1.144 4.084 1.802 4332
1.182 4.219 1.857 2835
1.151 4.110 1.798 4275
1.189 4.245 1.853 3249
1.188 4.243 1.838 4421
1.151 4.108 1.783 2777
1.212 4.326 1.856 4259
1.164 4.155 1.788 3675
1.215 4.338 1.846 5580
1.165 4.160 1.775 2928
1.216 4.343 1.833 5596
1.178 4.207 1.780 2180
1.206 4.304 1.803 3844
1.270 4.533 1.893 2749
1.237 4.416 1.832 4342
1.275 4.552 1.885 2850
1.238 4.421 1.819 4255
1.298 4.635 1.901 3631
1.300 4.640 1.887 5646
1.242 4.433 1.808 3922
1.301 4.645 1.873 6458
1.241 4.430 1.792 3882
1.302 4.650 1.859 4881
1.238 4.421 1.774 3177
1.282 4.576 1.816 4129
1.338 4.777 1.891 2712
1.291 4.609 1.813 4114
1.253 4.473 1.763 2407
1.304 4.657 1.815 3321
1.343 4.794 1.865 2321
1.346 4.806 1.853 3689
1.308 4.669 1.804 2405
1.380 4.926 1.880 2960
1.341 4.789 1.831 2443
1.379 4.924 1.862 4899
1.339 4.779 1.811 1244
1.376 4.914 1.842 5932
1.334 4.762 1.789 1399
1.376 4.912 1.825 5845
1.414 5.049 1.873 1548
1.397 4.989 1.835 4867
1.444 5.155 1.892 2132
1.397 4.986 1.818 4982
1.435 5.124 1.865 3164
1.428 5.100 1.840 4427
1.390 4.962 1.793 2579
1.432 5.112 1.827 3805
1.485 5.301 1.890 3692
1.482 5.291 1.869 3677
1.433 5.117 1.811 2552
1.469 5.245 1.836 3406
1.512 5.398 1.886 2275
1.507 5.381 1.863 2493
1.468 5.242 1.818 2165
1.510 5.393 1.849 2881
1.574 5.619 1.921 1613
1.530 5.463 1.854 3946
1.579 5.638 1.909 2254
1.585 5.658 1.897 2753
1.534 5.475 1.840 2403
1.594 5.692 1.889 2273
1.654 5.904 1.954 1450
1.600 5.711 1.876 2521
1.655 5.909 1.937 2233
1.601 5.716 1.859 1988
1.663 5.936 1.926 1501
1.639 5.853 1.881 2163
1.678 5.992 1.923 1788
1.721 6.144 1.949 2899
1.680 5.997 1.905 2251
1.720 6.141 1.928 3887
1.681 6.002 1.887 2561
1.724 6.154 1.912 3477
1.678 5.992 1.865 2524
1.725 6.159 1.893 2852
1.791 6.394 1.961 2503
1.739 6.208 1.887 2738
1.792 6.399 1.941 2441
1.796 6.411 1.924 3364
1.835 6.551 1.964 2984
1.799 6.424 1.907 3669
1.838 6.563 1.946 3083
1.796 6.414 1.884 2703
1.898 6.775 1.983 2654
1.901 6.787 1.964 3337
1.798 6.419 1.864 2378
1.900 6.785 1.942 2246
2.022 7.221 2.058 2005
1.978 7.064 1.994 2652
2.026 7.233 2.039 2392
1.984 7.083 1.976 3666
2.030 7.246 2.019 2888
2.029 7.244 1.995 2935
1.990 7.103 1.959 2690
2.028 7.242 1.971 1924
2.109 7.531 2.045 1880
2.107 7.521 2.019 1617
2.028 7.239 1.948 961
2.106 7.519 1.994 1470
2.185 7.801 2.064 1101
2.186 7.806 2.040 1493
2.085 7.442 1.951 1231
2.188 7.811 2.017 1270
2.229 7.960 2.053 1161
2.262 8.077 2.055 1663
2.210 7.891 2.011 1363
2.266 8.089 2.033 2239
2.328 8.312 2.085 1871
2.330 8.318 2.060 1782
2.269 8.102 2.010 1628
2.404 8.584 2.095 1688
2.335 8.338 2.039 1326
2.404 8.582 2.067 2454
2.477 8.842 2.126 1189
2.405 8.587 2.042 2006
2.476 8.841 2.098 1235
2.530 9.032 2.112 1619
2.476 8.839 2.070 1483
2.527 9.023 2.082 1799
2.440 8.710 2.014 1460
2.606 9.305 2.114 1941
2.539 9.066 2.063 1710
2.610 9.318 2.087 2576
2.541 9.071 2.035 1555
2.611 9.323 2.059 1881
2.507 8.949 1.982 1164
2.636 9.411 2.048 1943
2.726 9.733 2.113 1171
2.635 9.409 2.018 2073
2.730 9.745 2.085 1464
2.696 9.624 2.031 1923
2.637 9.414 1.989 1385
2.693 9.614 1.999 1839
2.869 10.243 2.121 1829
2.873 10.256 2.092 1754
2.969 10.601 2.158 1712
2.969 10.599 2.124 1711
3.015 10.764 2.155 1509
2.970 10.605 2.092 2020
3.017 10.770 2.123 1475
2.970 10.603 2.059 1724
3.207 11.451 2.213 1315
3.201 11.427 2.173 1113
2.969 10.601 2.026 1113
3.263 11.651 2.177 1007
3.497 12.485 2.324 994
3.355 11.980 2.198 1164
3.286 11.732 2.155 1072
3.650 13.031 2.339 980
3.355 11.978 2.160 955
3.650 13.030 2.298 872
3.350 11.961 2.120 783
3.651 13.036 2.259 891
3.653 13.042 2.219 984
3.876 13.839 2.304 851
3.652 13.040 2.179 835
3.878 13.845 2.262 857
3.658 13.061 2.142 760
0.628 2.218 1.797 4279
0.629 2.222 1.791 8559
0.662 2.339 1.879 884
0.630 2.227 1.784 8559
0.664 2.344 1.872 1768
0.635 2.244 1.787 8815
0.668 2.361 1.875 2675
0.640 2.261 1.789 10472
0.673 2.378 1.877 3309
0.643 2.272 1.787 9158
0.676 2.390 1.875 4331
0.648 2.289 1.790 8436
0.681 2.407 1.877 4117
0.649 2.293 1.783 8436
0.683 2.412 1.869 4129
0.651 2.298 1.776 7948
0.684 2.417 1.862 4939
0.652 2.303 1.769 7460
0.685 2.421 1.855 5748
0.655 2.313 1.767 7488
0.689 2.432 1.852 4858
0.658 2.324 1.764 7792
0.692 2.444 1.850 4070
0.686 2.423 1.825 6239
0.652 2.304 1.740 3820
0.689 2.434 1.822 6329
0.655 2.315 1.737 2835
0.690 2.439 1.815 6329
0.656 2.319 1.730 1843
0.695 2.456 1.816 5855
0.661 2.336 1.732 1045
0.704 2.486 1.826 7082
0.670 2.366 1.743 1372
0.705 2.491 1.819 9447
0.671 2.370 1.736 1144
0.708 2.502 1.816 11834
0.674 2.381 1.733 907
0.710 2.507 1.809 9441
0.744 2.628 1.891 840
0.716 2.531 1.814 7801
0.760 2.684 1.918 864
0.719 2.542 1.811 5918
0.763 2.695 1.914 1130
0.723 2.553 1.807 4255
0.764 2.700 1.906 1413
0.735 2.596 1.825 4295
0.700 2.474 1.745 1581
0.742 2.620 1.830 5692
0.707 2.498 1.750 1815
0.743 2.625 1.823 6189
0.778 2.747 1.903 2085
0.744 2.630 1.815 6687
0.779 2.752 1.895 3039
0.773 2.731 1.870 5910
0.738 2.608 1.790 5098
0.773 2.730 1.857 8689
0.734 2.594 1.770 4817
0.774 2.734 1.849 9364
0.737 2.605 1.766 3230
0.777 2.746 1.845 10056
0.742 2.622 1.767 2016
0.779 2.751 1.837 8866
0.744 2.627 1.759 1509
0.780 2.755 1.829 7675
0.815 2.879 1.906 1382
0.781 2.760 1.821 7127
0.816 2.884 1.898 2135
0.784 2.771 1.816 6704
0.820 2.896 1.893 2352
0.790 2.789 1.816 6171
0.825 2.914 1.893 2349
0.791 2.794 1.808 5865
0.826 2.919 1.884 3187
0.792 2.799 1.800 5774
0.828 2.924 1.875 2692
0.795 2.810 1.795 6108
0.831 2.935 1.870 2446
0.800 2.828 1.795 6902
0.836 2.953 1.870 2563
0.811 2.865 1.806 6260
0.847 2.991 1.880 2622
0.814 2.877 1.801 7560
0.854 3.016 1.883 2928
0.817 2.888 1.797 6296
0.859 3.034 1.882 4480
0.862 3.046 1.877 6172
0.826 2.919 1.803 4744
0.837 2.957 1.814 6518
0.873 3.084 1.887 3667
0.852 3.009 1.832 6614
0.888 3.135 1.904 1675
0.853 3.013 1.823 5586
0.889 3.140 1.895 2460
0.854 3.018 1.814 4143
0.890 3.145 1.886 3620
0.892 3.150 1.876 4458
0.850 3.003 1.793 2735
0.884 3.121 1.848 4212
0.847 2.994 1.777 2621
0.885 3.126 1.839 5237
0.849 2.998 1.768 2012
0.886 3.131 1.829 6262
0.850 3.003 1.759 869
0.890 3.142 1.824 5326
0.926 3.271 1.894 885
0.904 3.194 1.840 6023
0.868 3.066 1.770 1423
0.906 3.199 1.830 6810
0.942 3.328 1.899 1101
0.905 3.197 1.817 6567
0.941 3.326 1.886 1634
0.906 3.202 1.808 6536
0.943 3.331 1.876 2062
0.908 3.207 1.798 6704
0.944 3.336 1.866 2152
0.930 3.286 1.828 5895
0.894 3.157 1.760 2512
0.930 3.284 1.814 6185
0.893 3.154 1.747 1573
0.933 3.295 1.808 7419
0.970 3.425 1.875 1315
0.934 3.300 1.798 8684
0.971 3.430 1.864 1727
0.945 3.339 1.806 10849
0.908 3.209 1.740 2304
0.947 3.344 1.796 12091
0.983 3.474 1.861 2232
0.950 3.355 1.789 10387
0.987 3.486 1.854 2476
0.951 3.360 1.779 7462
0.988 3.490 1.844 4656
0.993 3.509 1.840 7104
0.956 3.378 1.776 4638
1.000 3.534 1.840 6843
0.963 3.403 1.776 3780
1.004 3.546 1.832 6251
0.967 3.415 1.769 2831
1.005 3.551 1.822 5734
0.968 3.419 1.759 2781
1.003 3.542 1.805 6873
1.040 3.673 1.867 4414
1.004 3.546 1.794 7332
1.041 3.678 1.856 4554
1.033 3.648 1.829 5780
0.995 3.516 1.767 2507
1.048 3.702 1.841 7021
1.010 3.570 1.779 3991
1.055 3.727 1.839 6466
1.018 3.595 1.778 5128
1.066 3.767 1.844 7378
1.029 3.634 1.783 5038
1.070 3.779 1.836 5948
1.032 3.646 1.776 3761
1.097 3.874 1.866 5177
1.059 3.741 1.806 4417
1.098 3.879 1.854 7861
1.037 3.662 1.757 2694
1.093 3.863 1.833 8684
1.131 3.996 1.892 1547
1.091 3.853 1.816 7185
1.129 3.987 1.874 2833
1.096 3.872 1.810 6317
1.136 4.013 1.872 4850
1.105 3.905 1.811 7762
1.143 4.039 1.869 5453
1.111 3.924 1.805 6044
1.149 4.057 1.863 3682
1.114 3.935 1.796 4476
1.156 4.083 1.859 4112
1.157 4.088 1.847 5999
1.115 3.940 1.785 3378
1.165 4.114 1.844 5690
1.127 3.980 1.788 2884
1.168 4.126 1.834 4230
1.130 3.992 1.779 2893
1.155 4.081 1.802 5132
1.193 4.216 1.857 2668
1.163 4.107 1.798 4868
1.201 4.242 1.853 3421
1.202 4.247 1.840 4401
1.164 4.112 1.786 3049
1.224 4.322 1.856 4233
1.175 4.152 1.788 3554
1.227 4.334 1.846 5406
1.179 4.164 1.778 3102
1.226 4.332 1.830 5906
1.188 4.197 1.777 2803
1.218 4.301 1.803 4084
1.256 4.437 1.856 2896
1.247 4.406 1.829 4228
1.286 4.541 1.882 2937
1.250 4.418 1.819 4485
1.291 4.560 1.874 3527
1.313 4.637 1.887 5056
1.252 4.422 1.806 4352
1.312 4.635 1.871 5610
1.253 4.427 1.792 4155
1.307 4.618 1.849 4244
1.252 4.424 1.776 3230
1.294 4.572 1.816 4283
1.351 4.773 1.891 2691
1.314 4.642 1.826 4256
1.265 4.469 1.763 2574
1.317 4.654 1.815 3714
1.360 4.805 1.870 2704
1.359 4.802 1.853 3939
1.321 4.666 1.804 2303
1.393 4.922 1.880 2828
1.355 4.785 1.831 2180
1.395 4.927 1.865 4799
1.344 4.747 1.801 1338
1.388 4.903 1.840 6232
1.347 4.759 1.789 1590
1.389 4.908 1.825 6129
1.428 5.045 1.873 1454
1.411 4.985 1.835 4988
1.458 5.151 1.892 2016
1.410 4.982 1.818 4664
1.449 5.120 1.865 3338
1.445 5.103 1.842 4433
1.406 4.965 1.796 2205
1.446 5.108 1.827 3625
1.497 5.289 1.887 3382
1.492 5.272 1.864 3533
1.447 5.113 1.811 2442
1.484 5.241 1.836 3483
1.529 5.401 1.889 2399
1.505 5.318 1.844 2893
1.454 5.136 1.785 1595
1.523 5.381 1.847 2764
1.591 5.621 1.924 1536
1.545 5.459 1.854 3472
1.595 5.634 1.909 2165
1.600 5.653 1.897 2319
1.551 5.478 1.842 2202
1.610 5.687 1.889 1898
1.666 5.884 1.950 1373
1.613 5.700 1.874 2015
1.667 5.890 1.932 1988
1.652 5.836 1.897 2002
1.613 5.697 1.855 1707
1.655 5.848 1.881 2436
1.695 5.987 1.923 1870
1.738 6.139 1.949 2707
1.655 5.846 1.862 2001
1.735 6.129 1.926 3510
1.696 5.990 1.885 2085
1.738 6.141 1.910 3026
1.693 5.980 1.863 2496
1.744 6.161 1.895 2683
1.692 5.978 1.843 2601
1.841 6.504 1.973 2643
1.756 6.203 1.887 2572
1.845 6.516 1.955 3273
1.805 6.377 1.916 2683
1.844 6.514 1.934 3413
1.804 6.374 1.895 2712
1.845 6.519 1.914 2932
1.918 6.777 1.985 2362
1.920 6.782 1.964 3102
1.818 6.421 1.866 2382
2.042 7.215 2.058 2222
1.921 6.787 1.944 2059
1.998 7.058 1.994 2958
2.046 7.228 2.039 2378
2.001 7.071 1.974 4039
2.050 7.241 2.019 2557
2.049 7.238 1.995 2809
2.007 7.091 1.957 2724
2.048 7.236 1.971 2020
2.128 7.517 2.043 1895
2.127 7.515 2.019 1752
2.048 7.234 1.948 925
2.125 7.506 1.992 1700
2.200 7.772 2.058 1096
2.105 7.437 1.951 1408
2.145 7.578 1.986 1149
2.279 8.050 2.076 1277
2.178 7.694 1.990 1083
2.284 8.070 2.055 2088
2.400 8.479 2.153 1093
2.288 8.083 2.033 2741
2.429 8.581 2.150 1558
2.290 8.088 2.009 1945
2.355 8.319 2.062 1497
2.358 8.332 2.039 1251
2.428 8.577 2.095 1196
2.427 8.575 2.067 1569
2.501 8.836 2.126 1296
2.427 8.573 2.040 1364
2.501 8.834 2.098 1225
2.500 8.832 2.070 1544
2.555 9.025 2.112 1496
2.556 9.031 2.085 1694
2.502 8.837 2.043 1289
2.564 9.059 2.063 1714
2.630 9.290 2.112 1697
2.633 9.303 2.086 2290
2.566 9.064 2.035 1704
2.637 9.316 2.059 1746
2.686 9.488 2.095 1385
2.662 9.404 2.048 1956
2.755 9.732 2.115 1148
2.661 9.401 2.018 2076
2.759 9.745 2.087 1314
2.724 9.624 2.032 1722
2.661 9.399 1.988 1397
2.899 10.243 2.123 1938
2.721 9.614 2.000 1563
2.901 10.248 2.092 1892
2.999 10.593 2.158 1664
3.045 10.756 2.155 1634
2.998 10.591 2.124 1548
3.000 10.597 2.092 2050
3.046 10.762 2.123 1502
2.999 10.595 2.059 1910
3.152 11.135 2.157 1206
2.998 10.592 2.026 1277
3.230 11.411 2.172 1098
3.531 12.475 2.324 960
3.438 12.145 2.266 955
3.388 11.970 2.198 1100
3.323 11.738 2.157 1069
3.686 13.021 2.339 944
3.390 11.976 2.162 884
3.686 13.020 2.298 910
3.541 12.508 2.213 802
3.687 13.026 2.259 1020
3.542 12.514 2.175 860
3.689 13.032 2.219 1114
3.508 12.392 2.117 968
3.507 12.390 2.078 943
3.688 13.030 2.179 856
3.916 13.834 2.262 756
0.631 2.217 1.797 4060
0.632 2.222 1.791 8121
0.665 2.338 1.879 886
0.634 2.226 1.784 8121
0.667 2.343 1.872 1773
0.638 2.243 1.787 8544
0.672 2.360 1.875 2489
0.643 2.260 1.789 10456
0.677 2.378 1.877 3076
0.646 2.271 1.787 9351
0.680 2.389 1.875 3958
0.649 2.282 1.785 8686
0.683 2.400 1.872 4595
0.651 2.286 1.778 8686
0.684 2.405 1.865 4595
0.654 2.297 1.776 7965
0.687 2.416 1.862 4463
0.655 2.302 1.769 7286
0.689 2.420 1.855 5095
0.658 2.313 1.767 7281
0.692 2.432 1.852 4550
0.661 2.323 1.764 7616
0.695 2.443 1.850 4022
0.689 2.422 1.825 6421
0.655 2.303 1.740 3793
0.692 2.433 1.822 6354
0.658 2.314 1.737 2882
0.694 2.438 1.815 6354
0.660 2.318 1.730 1854
0.699 2.455 1.816 6152
0.665 2.335 1.732 1006
0.707 2.485 1.826 7656
0.673 2.365 1.743 1386
0.709 2.490 1.819 9734
0.674 2.369 1.736 1103
0.712 2.501 1.816 12046
0.677 2.380 1.733 809
0.715 2.512 1.813 9505
0.720 2.530 1.814 7841
0.762 2.676 1.913 1018
0.723 2.541 1.811 5891
0.765 2.688 1.910 1204
0.726 2.552 1.807 4050
0.768 2.699 1.906 1418
0.739 2.595 1.825 4030
0.704 2.473 1.745 1442
0.747 2.625 1.835 5622
0.712 2.503 1.754 1848
0.747 2.624 1.823 6267
0.782 2.746 1.903 1854
0.748 2.629 1.815 6922
0.783 2.751 1.895 2678
0.749 2.633 1.807 5821
0.784 2.756 1.886 4128
0.777 2.729 1.857 8706
0.738 2.593 1.770 4988
0.778 2.733 1.849 9397
0.741 2.604 1.766 3353
0.779 2.738 1.841 10088
0.744 2.615 1.763 1958
0.782 2.749 1.837 8769
0.747 2.626 1.759 1743
0.784 2.754 1.829 7480
0.749 2.630 1.751 1346
0.787 2.765 1.825 6714
0.822 2.890 1.902 1731
0.790 2.777 1.820 6121
0.826 2.901 1.897 1806
0.793 2.788 1.816 5866
0.829 2.913 1.893 2185
0.795 2.793 1.808 5889
0.830 2.918 1.884 2953
0.794 2.791 1.796 6266
0.830 2.916 1.871 2741
0.799 2.809 1.795 6575
0.835 2.934 1.870 2267
0.802 2.820 1.791 7275
0.838 2.945 1.866 2640
0.815 2.864 1.806 6525
0.851 2.990 1.880 2710
0.818 2.875 1.801 7810
0.858 3.015 1.883 3095
0.822 2.887 1.797 6330
0.863 3.033 1.882 4488
0.864 3.038 1.873 6079
0.829 2.911 1.799 4243
0.841 2.956 1.814 6703
0.877 3.082 1.887 3265
0.856 3.007 1.832 6698
0.892 3.134 1.904 1583
0.857 3.012 1.823 5537
0.893 3.139 1.895 2289
0.859 3.017 1.814 4309
0.895 3.144 1.886 3255
0.896 3.149 1.876 3902
0.854 3.001 1.793 2863
0.888 3.120 1.848 3598
0.852 2.993 1.777 2510
0.889 3.125 1.839 4522
0.853 2.997 1.768 1891
0.891 3.130 1.829 5447
0.854 3.002 1.759 765
0.886 3.114 1.809 4665
0.923 3.242 1.879 2221
0.909 3.193 1.840 5454
0.872 3.065 1.770 1331
0.910 3.198 1.830 6308
0.947 3.326 1.899 1097
0.908 3.189 1.814 6234
0.944 3.318 1.882 1731
0.909 3.194 1.804 6225
0.946 3.323 1.872 2154
0.912 3.205 1.798 6335
0.949 3.334 1.866 1934
0.935 3.285 1.828 5618
0.898 3.155 1.760 2601
0.934 3.283 1.814 5642
0.897 3.153 1.747 1722
0.949 3.335 1.829 6755
0.912 3.205 1.762 3336
0.939 3.299 1.798 7846
0.976 3.429 1.864 1631
0.950 3.338 1.806 10444
0.913 3.208 1.740 2405
0.953 3.349 1.799 11955
0.990 3.479 1.865 1852
0.956 3.361 1.792 10372
0.994 3.491 1.858 2115
0.956 3.358 1.779 7707
0.993 3.489 1.844 4682
0.998 3.508 1.840 6850
0.959 3.370 1.772 4924
1.005 3.533 1.840 5850
0.964 3.388 1.769 3649
1.009 3.545 1.832 4984
0.971 3.414 1.769 2715
1.010 3.549 1.822 4952
0.973 3.418 1.759 2841
1.008 3.540 1.805 6812
1.045 3.672 1.867 3644
1.009 3.545 1.794 7538
1.046 3.677 1.856 4123
1.038 3.647 1.829 5603
1.000 3.515 1.767 2663
1.053 3.700 1.841 7354
1.015 3.568 1.779 4016
1.058 3.719 1.836 6618
1.021 3.587 1.775 4697
1.072 3.765 1.844 7728
1.034 3.633 1.783 5012
1.075 3.777 1.836 6299
1.037 3.645 1.776 3653
1.102 3.873 1.866 5262
1.064 3.740 1.806 4167
1.103 3.877 1.854 8080
1.042 3.661 1.757 2831
1.101 3.868 1.836 8932
1.139 4.001 1.896 1472
1.098 3.859 1.819 7129
1.136 3.992 1.877 2838
1.104 3.878 1.813 5893
1.141 4.011 1.872 4788
1.111 3.903 1.811 7165
1.149 4.037 1.869 5227
1.116 3.922 1.805 5717
1.162 4.084 1.875 3435
1.122 3.941 1.799 4739
1.164 4.089 1.862 3928
1.165 4.094 1.850 6177
1.123 3.946 1.788 3281
1.172 4.120 1.847 6435
1.134 3.986 1.791 3146
1.176 4.132 1.837 5072
1.138 3.997 1.781 3243
1.161 4.080 1.802 5690
1.199 4.214 1.857 2312
1.168 4.106 1.798 5138
1.207 4.240 1.853 3381
1.210 4.252 1.843 4505
1.172 4.117 1.789 3367
1.240 4.356 1.871 4327
1.181 4.150 1.788 3487
1.233 4.333 1.846 5452
1.188 4.176 1.784 3284
1.232 4.330 1.830 6222
1.194 4.195 1.777 3560
1.224 4.299 1.803 4121
1.262 4.435 1.856 3321
1.253 4.404 1.829 4173
1.294 4.547 1.885 2804
1.257 4.416 1.819 4615
1.297 4.559 1.874 3543
1.258 4.420 1.806 4569
1.319 4.635 1.887 4385
1.318 4.633 1.871 4855
1.259 4.425 1.792 4153
1.314 4.616 1.849 3984
1.259 4.423 1.776 3190
1.301 4.571 1.816 4232
1.356 4.764 1.888 2840
1.320 4.640 1.826 4190
1.359 4.776 1.876 2880
1.326 4.659 1.818 3687
1.369 4.810 1.873 3442
1.368 4.808 1.855 4309
1.329 4.671 1.806 2126
1.372 4.820 1.844 2570
1.411 4.956 1.892 2168
1.404 4.932 1.867 4541
1.350 4.745 1.801 1519
1.393 4.894 1.837 6538
1.432 5.031 1.885 1850
1.394 4.899 1.823 6327
1.433 5.036 1.870 1704
1.420 4.990 1.838 5023
1.381 4.853 1.791 1950
1.419 4.988 1.820 4557
1.459 5.125 1.867 3343
1.454 5.108 1.844 4217
1.505 5.289 1.905 2030
1.453 5.106 1.827 3373
1.505 5.287 1.887 3102
1.496 5.256 1.859 3408
1.454 5.111 1.811 2384
1.491 5.239 1.836 3303
1.538 5.406 1.891 2593
1.513 5.316 1.844 3609
1.552 5.454 1.889 1706
1.525 5.357 1.840 2651
1.601 5.626 1.926 1500
1.557 5.471 1.858 3145
1.603 5.631 1.909 2125
1.565 5.498 1.849 2272
1.606 5.644 1.894 2204
1.616 5.678 1.887 1868
1.672 5.875 1.948 1246
1.673 5.880 1.930 1785
1.619 5.690 1.872 1742
1.660 5.834 1.897 2229
1.621 5.695 1.855 1547
1.662 5.839 1.879 2623
1.701 5.978 1.921 1763
1.746 6.136 1.949 2431
1.661 5.836 1.859 2158
1.744 6.127 1.926 2971
1.664 5.848 1.844 2084
1.747 6.139 1.910 2434
1.701 5.978 1.863 2429
1.700 5.975 1.843 2465
1.751 6.151 1.893 2349
1.848 6.494 1.971 2893
1.808 6.355 1.931 2265
1.850 6.499 1.951 3309
1.810 6.360 1.912 2277
1.853 6.512 1.934 3511
1.813 6.372 1.895 2480
1.852 6.509 1.912 3235
1.813 6.369 1.874 2134
1.929 6.779 1.964 2733
1.827 6.418 1.866 2239
2.052 7.212 2.058 2156
1.990 6.991 1.999 2002
2.008 7.055 1.994 3039
2.056 7.225 2.039 2176
2.011 7.068 1.974 4050
2.060 7.238 2.019 2105
2.015 7.080 1.955 2647
2.059 7.235 1.995 2433
2.138 7.514 2.043 2023
2.058 7.233 1.971 2007
2.138 7.512 2.019 1880
2.222 7.808 2.093 1047
2.137 7.510 1.994 1846
2.217 7.791 2.064 1321
2.116 7.434 1.951 1451
2.221 7.804 2.042 1313
2.292 8.054 2.078 1430
2.227 7.824 2.022 1171
2.298 8.075 2.057 2411
2.412 8.475 2.153 1159
2.299 8.080 2.033 3045
2.407 8.459 2.122 1537
2.301 8.085 2.009 2146
2.407 8.457 2.095 1413
2.444 8.589 2.098 1174
2.510 8.819 2.151 1130
2.441 8.579 2.069 1601
2.516 8.840 2.128 1232
2.437 8.562 2.038 1495
2.485 8.733 2.076 1215
2.514 8.836 2.071 1524
2.567 9.022 2.112 1309
2.567 9.020 2.083 1624
2.514 8.834 2.043 1359
2.577 9.055 2.063 1666
2.639 9.271 2.109 1588
2.646 9.299 2.086 1974
2.579 9.061 2.035 1711
2.652 9.320 2.061 1653
2.701 9.491 2.096 1562
2.675 9.400 2.048 1800
2.771 9.736 2.116 1193
2.674 9.398 2.018 1873
2.774 9.749 2.088 1392
2.738 9.620 2.032 1548
2.674 9.395 1.988 1277
2.914 10.239 2.123 2004
3.012 10.583 2.190 1581
2.915 10.244 2.092 1933
3.016 10.596 2.159 1664
3.060 10.752 2.155 1633
3.011 10.579 2.123 1485
3.012 10.585 2.091 2055
3.061 10.757 2.123 1473
3.012 10.583 2.058 2040
3.067 10.778 2.093 1115
3.011 10.581 2.024 1473
3.246 11.406 2.172 1098
3.455 12.140 2.266 1111
3.303 11.607 2.172 963
3.341 11.740 2.159 1089
3.548 12.469 2.285 1085
3.552 12.482 2.248 966
3.345 11.753 2.125 830
3.702 13.007 2.297 816
3.556 12.496 2.212 812
3.705 13.021 2.259 1067
3.560 12.509 2.175 812
3.707 13.027 2.219 1176
3.521 12.372 2.114 793
3.522 12.377 2.077 1020
3.707 13.025 2.179 893
3.526 12.390 2.041 837
0.637 2.215 1.797 3903
0.638 2.220 1.791 7806
0.672 2.336 1.879 915
0.640 2.224 1.784 7806
0.673 2.341 1.872 1830
0.645 2.241 1.787 8310
0.678 2.358 1.875 2299
0.649 2.258 1.789 10369
0.683 2.376 1.877 2763
0.653 2.269 1.787 9352
0.686 2.387 1.875 3495
0.656 2.280 1.785 8740
0.690 2.398 1.872 4076
0.657 2.285 1.778 8740
0.691 2.403 1.865 4094
0.660 2.295 1.776 7859
0.694 2.414 1.862 4078
0.661 2.300 1.769 7078
0.695 2.419 1.855 4653
0.665 2.311 1.767 7115
0.699 2.430 1.852 4531
0.668 2.322 1.764 7520
0.702 2.441 1.850 4293
0.696 2.420 1.825 6760
0.662 2.301 1.740 3762
0.699 2.431 1.822 6517
0.665 2.312 1.737 2873
0.701 2.436 1.815 6517
0.666 2.316 1.730 1833
0.706 2.453 1.816 6910
0.671 2.333 1.732 964
0.712 2.477 1.822 8636
0.678 2.357 1.739 1347
0.716 2.488 1.819 10358
0.681 2.368 1.736 1124
0.719 2.499 1.816 12651
0.753 2.620 1.899 772
0.724 2.517 1.817 9983
0.689 2.396 1.735 864
0.727 2.528 1.814 8219
0.769 2.674 1.913 1223
0.730 2.539 1.811 6206
0.769 2.673 1.901 1377
0.731 2.543 1.803 4205
0.770 2.678 1.893 1541
0.744 2.587 1.821 3946
0.779 2.708 1.902 1429
0.754 2.623 1.835 5875
0.719 2.501 1.754 1606
0.756 2.628 1.827 6607
0.791 2.750 1.907 1359
0.757 2.633 1.819 7340
0.792 2.755 1.899 1985
0.781 2.715 1.861 6088
0.745 2.592 1.782 5326
0.782 2.720 1.853 8961
0.745 2.590 1.770 5225
0.785 2.731 1.849 9483
0.746 2.595 1.762 3534
0.787 2.736 1.841 10087
0.751 2.613 1.763 2103
0.790 2.747 1.837 8637
0.754 2.624 1.759 2018
0.791 2.752 1.829 7204
0.756 2.628 1.751 1736
0.797 2.770 1.829 6249
0.761 2.646 1.752 1888
0.815 2.833 1.857 6126
0.779 2.709 1.780 1669
0.801 2.786 1.816 5581
0.837 2.910 1.893 1980
0.801 2.784 1.804 6077
0.836 2.909 1.880 3171
0.802 2.789 1.796 6939
0.838 2.914 1.871 2531
0.807 2.806 1.795 7157
0.843 2.932 1.870 2038
0.810 2.818 1.791 7642
0.856 2.976 1.885 2448
0.823 2.862 1.806 6645
0.861 2.994 1.884 2696
0.826 2.873 1.801 7918
0.866 3.012 1.883 3144
0.830 2.885 1.797 6261
0.871 3.030 1.882 4411
0.873 3.035 1.873 5908
0.837 2.909 1.799 3959
0.849 2.954 1.814 6494
0.886 3.080 1.887 2880
0.866 3.012 1.836 6717
0.902 3.138 1.908 1317
0.867 3.016 1.827 5570
0.904 3.143 1.899 1824
0.867 3.014 1.814 4650
0.903 3.141 1.886 2821
0.905 3.146 1.876 3265
0.862 2.999 1.793 3081
0.897 3.118 1.848 2918
0.860 2.990 1.777 2465
0.896 3.116 1.835 3750
0.859 2.988 1.764 1814
0.897 3.120 1.826 4598
0.861 2.993 1.755 818
0.893 3.105 1.805 4517
0.930 3.233 1.875 2448
0.919 3.197 1.844 4904
0.883 3.069 1.774 1793
0.915 3.182 1.823 6053
0.952 3.310 1.892 1442
0.914 3.180 1.810 6253
0.951 3.308 1.879 1790
0.918 3.191 1.804 6028
0.955 3.320 1.872 2006
0.921 3.203 1.798 5929
0.958 3.332 1.866 1773
0.944 3.282 1.828 5368
0.907 3.153 1.760 2837
0.943 3.280 1.814 4986
0.906 3.151 1.747 2048
0.960 3.339 1.833 6489
0.923 3.210 1.766 3817
0.968 3.365 1.833 7118
0.926 3.221 1.760 4585
0.961 3.342 1.809 10150
0.924 3.212 1.743 2851
0.962 3.347 1.799 11674
1.000 3.477 1.865 1806
0.966 3.358 1.792 10148
1.003 3.488 1.858 2003
0.967 3.363 1.782 7838
1.005 3.493 1.847 4329
1.006 3.498 1.837 6509
0.966 3.360 1.769 5264
1.011 3.516 1.833 5132
0.972 3.379 1.766 3667
1.019 3.542 1.832 4029
0.981 3.411 1.769 2476
0.996 3.464 1.782 4573
1.048 3.643 1.868 2375
1.015 3.531 1.801 6986
1.053 3.662 1.864 2936
1.019 3.542 1.794 7770
1.056 3.674 1.856 3805
1.060 3.685 1.849 5904
1.022 3.554 1.787 5246
1.063 3.697 1.841 7843
1.025 3.565 1.779 4174
1.069 3.716 1.836 6784
1.031 3.584 1.775 4643
1.082 3.762 1.844 7917
1.044 3.630 1.783 4783
1.085 3.774 1.836 6502
1.047 3.642 1.776 3382
1.113 3.870 1.866 5152
1.075 3.737 1.806 3918
1.114 3.874 1.854 8158
1.052 3.658 1.757 2890
1.112 3.865 1.836 9012
1.073 3.732 1.777 1434
1.111 3.863 1.822 6999
1.149 3.996 1.880 2717
1.114 3.875 1.813 5775
1.153 4.008 1.872 4802
1.120 3.893 1.808 7098
1.158 4.027 1.866 5036
1.125 3.912 1.802 5477
1.171 4.074 1.872 3440
1.134 3.945 1.802 5490
1.175 4.086 1.862 4248
1.178 4.098 1.853 6799
1.140 3.964 1.796 3558
1.184 4.116 1.847 7465
1.145 3.982 1.791 3528
1.187 4.128 1.837 5941
1.149 3.994 1.781 3515
1.172 4.076 1.802 6435
1.211 4.211 1.857 1811
1.180 4.102 1.798 5621
1.218 4.237 1.853 2994
1.224 4.256 1.846 4322
1.185 4.121 1.792 3898
1.252 4.353 1.871 4357
1.195 4.154 1.791 3666
1.245 4.329 1.846 5418
1.206 4.194 1.792 3945
1.244 4.327 1.830 6584
1.205 4.192 1.777 4216
1.240 4.310 1.809 4109
1.278 4.446 1.862 3597
1.265 4.400 1.829 4330
1.306 4.543 1.885 2628
1.269 4.412 1.819 4853
1.308 4.548 1.871 3512
1.270 4.417 1.806 4724
1.332 4.631 1.887 3735
1.269 4.415 1.790 4321
1.331 4.629 1.871 3932
1.324 4.605 1.846 3538
1.271 4.419 1.776 3276
1.313 4.567 1.816 4161
1.367 4.753 1.885 3021
1.333 4.636 1.826 4483
1.372 4.773 1.876 3280
1.382 4.806 1.873 4290
1.339 4.655 1.818 4058
1.383 4.811 1.858 4536
1.340 4.660 1.804 2272
1.391 4.837 1.851 3046
1.430 4.974 1.900 1906
1.426 4.957 1.878 4680
1.386 4.821 1.829 2122
1.406 4.890 1.837 6681
1.446 5.027 1.885 1964
1.408 4.895 1.823 6337
1.447 5.032 1.870 1759
1.434 4.986 1.838 5056
1.394 4.849 1.791 1796
1.433 4.984 1.820 4366
1.473 5.121 1.867 3482
1.472 5.119 1.849 4109
1.518 5.278 1.903 2467
1.469 5.109 1.829 3177
1.513 5.261 1.880 3083
1.508 5.244 1.857 3371
1.468 5.106 1.811 2364
1.505 5.235 1.836 3241
1.555 5.409 1.893 2758
1.528 5.312 1.844 4146
1.567 5.450 1.889 1650
1.531 5.324 1.830 3050
1.571 5.462 1.875 1998
1.574 5.474 1.861 3042
1.618 5.627 1.909 2412
1.582 5.501 1.851 2500
1.622 5.639 1.894 2371
1.629 5.666 1.884 1872
1.587 5.520 1.839 1191
1.656 5.758 1.894 1677
1.696 5.897 1.937 1210
1.676 5.829 1.897 2398
1.636 5.690 1.855 1344
1.678 5.834 1.879 2843
1.718 5.973 1.921 1561
1.677 5.832 1.859 2249
1.765 6.139 1.951 1999
1.758 6.115 1.924 2388
1.687 5.866 1.850 2309
1.711 5.951 1.856 2373
1.758 6.112 1.903 2098
1.858 6.462 1.984 2519
1.715 5.963 1.840 2427
1.864 6.482 1.969 3249
1.782 6.195 1.887 2085
1.865 6.487 1.949 3721
1.810 6.296 1.895 2551
1.869 6.499 1.932 3933
1.829 6.359 1.893 2214
1.870 6.504 1.912 3672
1.830 6.364 1.874 2197
1.868 6.494 1.888 2639
1.948 6.774 1.964 2357
1.975 6.868 1.968 2074
2.072 7.207 2.058 1859
2.027 7.050 1.994 3045
2.078 7.227 2.041 1772
2.031 7.062 1.974 4050
2.126 7.394 2.061 1784
2.034 7.075 1.955 2626
2.077 7.222 1.993 2038
2.159 7.508 2.043 1988
2.078 7.228 1.971 1985
2.159 7.506 2.019 1864
2.080 7.233 1.950 1199
2.156 7.497 1.992 1967
2.235 7.770 2.060 1463
2.245 7.805 2.044 1629
2.157 7.502 1.970 1595
2.253 7.833 2.026 1727
2.316 8.055 2.080 1602
2.320 8.068 2.057 2700
2.433 8.461 2.151 1144
2.322 8.073 2.033 3247
2.431 8.452 2.122 1637
2.323 8.079 2.009 2287
2.430 8.450 2.095 1417
2.461 8.559 2.093 1359
2.536 8.819 2.153 1110
2.463 8.565 2.067 1908
2.540 8.833 2.128 1308
2.512 8.734 2.078 1421
2.462 8.563 2.040 1381
2.541 8.836 2.073 1700
2.592 9.015 2.112 1172
2.543 8.841 2.046 1461
2.588 8.998 2.080 1449
2.602 9.048 2.063 1549
2.662 9.257 2.107 1476
2.672 9.292 2.086 1717
2.603 9.053 2.035 1660
2.727 9.484 2.096 1730
2.680 9.320 2.062 1613
2.701 9.392 2.048 1650
2.798 9.728 2.116 1170
2.703 9.398 2.019 1598
2.803 9.749 2.090 1422
2.938 10.218 2.152 1381
2.766 9.620 2.034 1339
2.942 10.231 2.123 2133
3.043 10.582 2.191 1587
2.944 10.236 2.092 2067
3.045 10.588 2.159 1563
2.988 10.391 2.089 1585
3.089 10.743 2.155 1584
3.039 10.569 2.090 2175
2.988 10.389 2.056 1560
3.041 10.575 2.058 2232
3.170 11.024 2.140 1273
3.038 10.565 2.023 1712
3.174 11.037 2.108 1099
3.488 12.130 2.266 1153
3.333 11.590 2.171 930
3.374 11.731 2.159 1098
3.585 12.467 2.286 953
3.587 12.473 2.248 924
3.377 11.744 2.125 897
3.591 12.486 2.212 926
3.487 12.125 2.152 899
3.594 12.499 2.175 1023
3.741 13.010 2.259 1012
3.743 13.016 2.219 1130
3.555 12.362 2.114 1044
3.557 12.368 2.077 1063
3.743 13.014 2.179 823
0.640 2.208 1.792 3699
0.641 2.212 1.786 7399
0.675 2.329 1.875 1170
0.642 2.217 1.779 7399
0.676 2.334 1.868 2341
0.649 2.240 1.787 7815
0.683 2.357 1.875 2122
0.654 2.257 1.789 9893
0.688 2.374 1.877 2499
0.657 2.268 1.787 9057
0.691 2.385 1.875 3073
0.660 2.279 1.785 8591
0.694 2.396 1.872 3576
0.662 2.283 1.778 8591
0.696 2.401 1.865 3612
0.663 2.288 1.771 7606
0.697 2.406 1.858 4339
0.666 2.299 1.769 6664
0.700 2.417 1.855 4555
0.669 2.309 1.767 6766
0.704 2.428 1.852 4801
0.698 2.408 1.827 7796
0.663 2.289 1.742 4093
0.701 2.419 1.825 7085
0.666 2.300 1.740 3666
0.704 2.430 1.822 6696
0.670 2.310 1.737 2839
0.706 2.435 1.815 6696
0.671 2.315 1.730 1803
0.712 2.458 1.821 7849
0.678 2.338 1.737 1066
0.716 2.469 1.818 9693
0.681 2.349 1.734 1288
0.721 2.487 1.819 10693
0.686 2.366 1.736 1195
0.726 2.504 1.820 12817
0.691 2.383 1.738 841
0.729 2.515 1.817 10158
0.694 2.394 1.735 886
0.734 2.533 1.818 8459
0.773 2.666 1.909 1319
0.735 2.537 1.811 6318
0.774 2.671 1.901 1473
0.737 2.542 1.803 4177
0.776 2.676 1.893 1628
0.749 2.585 1.821 3901
0.784 2.707 1.902 1269
0.762 2.628 1.839 6065
0.726 2.506 1.758 1252
0.763 2.633 1.831 6936
0.728 2.511 1.751 985
0.764 2.638 1.823 7807
0.800 2.760 1.903 1352
0.786 2.714 1.861 6391
0.751 2.591 1.782 5587
0.788 2.718 1.853 9162
0.750 2.589 1.770 5489
0.791 2.730 1.849 9473
0.752 2.593 1.762 3732
0.792 2.734 1.841 9959
0.757 2.611 1.763 2270
0.796 2.746 1.837 8269
0.760 2.622 1.759 2230
0.799 2.757 1.833 6663
0.763 2.633 1.755 2379
0.804 2.775 1.833 5747
0.768 2.651 1.756 2238
0.821 2.832 1.857 6386
0.785 2.708 1.780 1603
0.809 2.791 1.820 5320
0.845 2.915 1.897 1414
0.804 2.776 1.800 6190
0.841 2.900 1.876 3424
0.806 2.780 1.792 7376
0.842 2.905 1.867 2663
0.811 2.798 1.791 7651
0.847 2.923 1.866 2125
0.816 2.816 1.791 7947
0.862 2.974 1.885 2401
0.827 2.854 1.802 6722
0.869 2.999 1.888 2649
