2.984 7.399 2.035 1520
3.078 7.632 2.070 1568
2.989 7.411 2.013 1427
3.187 7.902 2.112 2281
3.060 7.588 2.033 1419
3.189 7.908 2.087 1986
3.065 7.600 2.011 1424
3.231 8.013 2.087 2295
3.124 7.748 2.022 1448
3.239 8.033 2.066 3829
3.127 7.753 1.998 2618
3.241 8.038 2.040 4301
3.129 7.758 1.974 2666
3.240 8.036 2.014 3728
3.131 7.763 1.950 1512
3.242 8.041 1.988 4139
3.425 8.493 2.093 1497
3.250 8.060 1.967 6515
3.326 8.247 2.009 2498
3.255 8.072 1.943 7169
3.331 8.259 1.985 1940
3.257 8.077 1.918 4197
3.544 8.789 2.075 1285
3.256 8.075 1.891 1923
3.427 8.499 1.983 1336
3.801 9.426 2.155 1583
3.432 8.511 1.958 1262
3.803 9.431 2.125 1814
3.725 9.237 2.084 1280
3.805 9.437 2.096 1640
3.715 9.213 2.049 1430
3.805 9.435 2.065 1665
3.720 9.225 2.022 1151
3.810 9.447 2.037 1886
3.734 9.259 1.999 1458
4.336 10.752 2.265 1576
3.727 9.243 1.966 1512
4.335 10.750 2.230 1815
4.265 10.577 2.196 1402
4.262 10.568 2.160 1489
4.337 10.756 2.196 1318
4.375 10.848 2.179 1657
4.258 10.559 2.124 970
4.383 10.868 2.148 1679
4.304 10.673 2.112 1139
4.388 10.881 2.115 1089
4.878 12.097 2.337 989
4.884 12.110 2.300 1060
4.764 11.813 2.247 1046
4.892 12.130 2.265 1359
4.705 11.667 2.183 790
4.897 12.143 2.228 1341
4.795 11.890 2.184 818
4.899 12.149 2.190 1123
4.580 11.358 2.056 812
4.901 12.155 2.152 957
0.875 2.153 1.811 2210
0.874 2.152 1.800 4421
0.876 2.156 1.793 4421
0.922 2.269 1.882 1450
0.880 2.167 1.791 4429
0.926 2.279 1.879 1302
0.882 2.171 1.785 4438
0.928 2.284 1.872 1354
0.913 2.247 1.833 5149
0.867 2.134 1.746 1767
0.915 2.252 1.826 7362
0.869 2.138 1.739 1133
0.917 2.256 1.819 7362
0.870 2.142 1.733 1133
0.916 2.255 1.808 8285
0.870 2.141 1.721 826
0.915 2.253 1.796 9404
0.917 2.258 1.789 9495
0.964 2.372 1.875 1323
0.939 2.310 1.818 10504
0.892 2.196 1.733 1212
0.923 2.273 1.780 10182
0.970 2.388 1.865 2655
0.925 2.277 1.773 10693
0.972 2.392 1.857 3396
0.944 2.324 1.797 9613
0.991 2.440 1.881 1443
0.956 2.353 1.807 10306
0.909 2.237 1.724 1033
0.958 2.357 1.800 11416
0.911 2.241 1.717 1245
0.962 2.368 1.797 14447
0.915 2.252 1.714 1295
0.964 2.372 1.790 17834
1.011 2.489 1.873 1359
0.966 2.377 1.783 14696
1.013 2.494 1.865 1264
0.965 2.375 1.771 11600
1.012 2.492 1.853 1384
0.969 2.386 1.768 9541
1.017 2.503 1.849 2410
0.986 2.427 1.786 8308
1.034 2.544 1.867 1301
0.985 2.425 1.774 7200
1.033 2.543 1.855 2432
0.987 2.430 1.767 6114
1.035 2.548 1.847 3305
1.027 2.527 1.823 5265
0.979 2.409 1.742 4467
1.034 2.544 1.823 6165
0.986 2.426 1.743 4276
1.036 2.549 1.815 6820
0.987 2.431 1.736 3418
1.037 2.553 1.807 7475
0.989 2.435 1.728 2559
1.042 2.564 1.804 5572
0.993 2.445 1.725 1630
1.046 2.575 1.800 3864
1.048 2.579 1.792 4877
1.096 2.699 1.870 1041
1.052 2.590 1.788 5995
1.101 2.710 1.866 1389
1.054 2.595 1.780 6696
1.103 2.714 1.857 2142
1.058 2.605 1.776 7415
1.107 2.725 1.853 2810
1.058 2.603 1.764 5550
1.106 2.723 1.840 4409
1.106 2.722 1.828 5984
1.057 2.601 1.752 3038
1.110 2.733 1.823 7213
1.061 2.612 1.748 2379
1.112 2.737 1.815 6955
1.063 2.616 1.740 2172
1.114 2.742 1.807 5405
1.065 2.621 1.732 1964
1.121 2.759 1.806 5904
1.072 2.638 1.731 2778
1.128 2.776 1.805 7241
1.079 2.655 1.731 4056
1.132 2.787 1.800 8075
1.083 2.666 1.727 3491
1.137 2.798 1.796 7625
1.186 2.920 1.869 2469
1.139 2.802 1.787 6227
1.188 2.924 1.860 3539
1.146 2.820 1.786 7235
1.195 2.942 1.858 3437
1.150 2.831 1.781 8988
1.200 2.953 1.853 2566
1.154 2.841 1.776 7551
1.204 2.964 1.848 2832
1.211 2.981 1.846 5073
1.161 2.859 1.775 4716
1.213 2.986 1.837 6165
1.163 2.863 1.766 2881
1.212 2.984 1.824 5118
1.162 2.861 1.753 2926
1.227 3.021 1.833 4467
1.167 2.872 1.748 2919
1.208 2.974 1.794 4231
1.258 3.097 1.864 2326
1.244 3.063 1.833 3515
1.170 2.881 1.730 2029
1.249 3.074 1.827 4680
1.199 2.950 1.758 2804
1.253 3.085 1.821 5103
1.200 2.954 1.749 2904
1.263 3.109 1.822 4922
1.197 2.946 1.732 2286
1.281 3.153 1.834 4771
1.230 3.029 1.766 3828
1.264 3.112 1.799 5224
1.214 2.987 1.732 1921
1.263 3.109 1.786 5770
1.314 3.234 1.853 2590
1.294 3.186 1.815 7744
1.244 3.061 1.748 2675
1.296 3.191 1.805 9130
1.246 3.066 1.739 1444
1.301 3.202 1.799 10129
1.352 3.327 1.865 2482
1.303 3.206 1.789 11211
1.354 3.332 1.854 3140
1.304 3.211 1.779 11160
1.355 3.336 1.844 2887
1.301 3.202 1.762 8405
1.352 3.328 1.827 3792
1.335 3.286 1.793 8605
1.386 3.412 1.857 3675
1.337 3.290 1.782 6694
1.388 3.416 1.846 4366
1.379 3.394 1.822 5218
1.328 3.268 1.759 3554
1.384 3.406 1.815 7338
1.332 3.279 1.752 3207
1.385 3.410 1.805 12412
1.334 3.284 1.742 2689
1.387 3.415 1.794 15604
1.442 3.548 1.860 4406
1.389 3.419 1.783 12765
1.441 3.546 1.845 4230
1.388 3.417 1.770 9932
1.440 3.544 1.831 3591
1.390 3.421 1.759 6732
1.442 3.549 1.820 3620
1.452 3.573 1.819 5586
1.394 3.432 1.752 3543
1.454 3.578 1.808 7157
1.396 3.437 1.741 3343
1.455 3.582 1.796 5464
1.403 3.454 1.736 3238
1.465 3.607 1.795 5430
1.408 3.465 1.729 2647
1.473 3.625 1.790 7388
1.525 3.753 1.849 1783
1.477 3.636 1.782 6908
1.529 3.764 1.840 1553
1.476 3.634 1.767 4797
1.539 3.789 1.838 1662
1.514 3.726 1.795 4373
1.462 3.598 1.738 1947
1.532 3.771 1.802 6266
1.477 3.636 1.741 2703
1.540 3.789 1.796 7768
1.487 3.660 1.739 1809
1.541 3.794 1.785 6398
1.594 3.923 1.841 2705
1.568 3.859 1.799 5032
1.515 3.730 1.743 2162
1.564 3.850 1.781 5137
1.617 3.980 1.837 2197
1.547 3.807 1.749 3832
1.630 4.011 1.837 2680
1.626 4.002 1.818 3924
1.548 3.811 1.737 2401
1.631 4.014 1.809 3848
1.578 3.884 1.754 2810
1.655 4.073 1.819 3508
1.585 3.902 1.748 2320
1.662 4.091 1.812 2800
1.723 4.242 1.874 2673
1.695 4.171 1.830 5122
1.753 4.315 1.889 2441
1.696 4.176 1.817 5998
1.763 4.340 1.884 2227
1.701 4.187 1.807 4315
1.788 4.400 1.893 2193
1.742 4.288 1.833 4011
1.795 4.419 1.885 3000
1.747 4.299 1.822 6837
1.800 4.430 1.874 3627
1.749 4.304 1.808 6335
1.802 4.435 1.860 4447
1.809 4.453 1.851 5827
1.745 4.295 1.790 3347
1.820 4.479 1.845 6131
1.766 4.347 1.795 3401
1.791 4.407 1.803 6203
1.844 4.539 1.853 3362
1.837 4.522 1.831 6204
1.784 4.391 1.781 3187
1.842 4.534 1.819 4471
1.898 4.672 1.871 2672
1.909 4.698 1.864 4063
1.855 4.566 1.815 2630
1.911 4.703 1.850 3634
1.857 4.571 1.801 2150
1.895 4.665 1.820 4116
1.952 4.804 1.870 2350
1.926 4.740 1.830 4777
1.979 4.872 1.878 2225
1.936 4.765 1.823 5113
1.882 4.633 1.776 2354
1.969 4.846 1.835 3953
2.034 5.007 1.892 1743
1.965 4.837 1.815 5658
2.042 5.025 1.881 2257
1.970 4.848 1.802 5061
2.046 5.037 1.868 2206
1.977 4.867 1.792 3172
2.040 5.021 1.845 2243
1.996 4.913 1.791 3643
2.118 5.214 1.893 2370
2.006 4.939 1.783 3156
2.126 5.233 1.882 2163
2.131 5.244 1.868 2166
2.017 4.964 1.774 1865
2.130 5.242 1.849 3006
2.076 5.109 1.805 1527
2.129 5.240 1.830 3013
2.206 5.429 1.892 1233
2.128 5.237 1.812 2753
2.202 5.420 1.871 2704
2.204 5.425 1.854 3938
2.261 5.565 1.899 3320
2.211 5.443 1.841 3168
2.266 5.577 1.883 2290
2.268 5.582 1.866 2333
2.179 5.363 1.798 2004
2.267 5.579 1.846 3211
2.212 5.445 1.805 1194
2.271 5.591 1.831 2017
2.383 5.866 1.915 1637
2.380 5.857 1.893 2990
2.434 5.991 1.933 1965
2.379 5.855 1.872 4484
2.433 5.989 1.912 3876
2.435 5.994 1.893 4700
2.380 5.859 1.854 3097
2.443 6.012 1.879 4892
2.509 6.175 1.926 3538
2.514 6.187 1.909 4415
2.448 6.024 1.862 4179
2.519 6.199 1.892 3556
2.444 6.015 1.839 2825
2.616 6.438 1.938 2562
2.437 5.998 1.814 2162
2.664 6.556 1.950 2023
2.514 6.187 1.847 1551
2.698 6.640 1.951 2087
2.813 6.924 2.029 1357
2.682 6.602 1.918 2586
2.812 6.922 2.005 1767
2.681 6.599 1.896 1983
2.820 6.941 1.987 1711
2.828 6.960 1.969 1968
2.906 7.153 2.020 1652
2.836 6.979 1.951 1446
2.998 7.379 2.056 1170
3.127 7.698 2.114 1456
3.003 7.391 2.035 1327
3.098 7.624 2.070 1633
3.011 7.410 2.015 1549
3.207 7.894 2.112 1904
3.097 7.622 2.044 1592
3.212 7.906 2.089 1725
3.084 7.592 2.011 1484
3.249 7.997 2.085 2073
3.145 7.740 2.022 1466
3.260 8.024 2.066 3498
3.147 7.745 1.998 2712
3.262 8.029 2.040 4046
3.149 7.750 1.974 2907
3.261 8.027 2.014 3482
3.151 7.755 1.950 1811
3.263 8.032 1.988 3874
3.447 8.484 2.093 1731
3.271 8.052 1.967 6077
3.347 8.238 2.009 2247
3.276 8.064 1.943 6787
3.355 8.258 1.987 1764
3.278 8.069 1.918 4024
3.614 8.895 2.101 1771
3.277 8.066 1.891 1789
3.616 8.900 2.073 1456
3.825 9.416 2.155 1694
3.685 9.071 2.081 1290
3.828 9.421 2.125 2186
3.705 9.119 2.061 1195
3.827 9.419 2.094 2224
3.730 9.182 2.045 1244
3.829 9.425 2.065 2250
3.727 9.173 2.013 1062
3.831 9.430 2.035 2342
3.758 9.250 1.999 1129
3.836 9.442 2.007 1770
4.361 10.733 2.264 1531
4.360 10.732 2.229 1772
4.293 10.566 2.196 1299
4.289 10.557 2.160 1413
4.362 10.737 2.195 1328
4.403 10.837 2.179 1455
4.282 10.541 2.123 1105
4.414 10.864 2.149 1604
4.329 10.654 2.110 1095
4.413 10.862 2.114 1097
4.913 12.092 2.338 950
4.918 12.105 2.302 1065
4.456 10.969 2.098 1044
4.923 12.118 2.265 1491
4.614 11.358 2.131 857
4.928 12.131 2.228 1455
4.778 11.761 2.164 796
4.931 12.136 2.190 1186
4.610 11.347 2.056 873
4.933 12.142 2.152 1010
5.415 13.329 2.307 867
5.418 13.335 2.265 850
0.877 2.145 1.807 2314
0.879 2.150 1.800 4628
0.881 2.154 1.793 4628
0.927 2.267 1.882 1444
0.883 2.159 1.787 4860
0.929 2.272 1.875 1661
0.884 2.163 1.780 5093
0.931 2.276 1.868 1879
0.920 2.251 1.838 5254
0.874 2.138 1.750 2487
0.920 2.250 1.826 7550
0.873 2.136 1.739 1378
0.922 2.254 1.819 7550
0.875 2.140 1.733 1378
0.921 2.253 1.808 8448
0.874 2.139 1.721 925
0.920 2.251 1.796 9674
0.922 2.256 1.789 9651
0.969 2.370 1.875 1279
0.941 2.302 1.814 10040
0.894 2.188 1.729 971
0.928 2.271 1.780 10285
0.975 2.386 1.865 2858
0.928 2.269 1.768 10920
0.975 2.384 1.853 4188
0.957 2.340 1.810 9571
0.910 2.225 1.726 1706
0.961 2.351 1.807 10193
0.914 2.235 1.724 1074
0.960 2.349 1.796 10770
0.913 2.233 1.712 938
0.967 2.366 1.797 13492
0.920 2.250 1.714 1292
0.969 2.370 1.790 16708
1.017 2.487 1.873 1252
0.971 2.375 1.783 14099
1.019 2.491 1.865 1187
0.970 2.373 1.771 11494
1.018 2.490 1.853 1388
0.974 2.384 1.768 9495
1.022 2.501 1.849 2415
0.989 2.419 1.782 8451
1.037 2.536 1.863 1816
0.991 2.423 1.774 7317
1.039 2.541 1.855 2440
0.993 2.428 1.767 6183
1.041 2.545 1.847 3064
0.994 2.432 1.759 5157
1.042 2.550 1.839 4334
1.042 2.548 1.827 5696
0.994 2.430 1.748 4124
1.044 2.553 1.820 6238
0.995 2.435 1.740 3323
1.046 2.557 1.812 6779
0.997 2.439 1.733 2522
1.047 2.562 1.804 5252
0.999 2.443 1.725 1554
1.052 2.573 1.800 3816
1.100 2.692 1.878 757
1.054 2.577 1.792 4815
1.102 2.696 1.870 1005
1.058 2.588 1.788 5849
1.107 2.707 1.866 1235
1.060 2.592 1.780 6506
1.109 2.712 1.857 1880
1.062 2.597 1.772 7164
1.111 2.716 1.849 2526
1.061 2.595 1.760 5500
1.112 2.721 1.840 4077
1.112 2.719 1.828 5684
1.063 2.599 1.752 3123
1.114 2.724 1.819 7077
1.064 2.603 1.744 2290
1.118 2.735 1.815 6959
1.069 2.614 1.740 2213
1.120 2.739 1.807 5424
1.071 2.618 1.732 1977
1.127 2.756 1.806 5418
1.077 2.635 1.731 2736
1.139 2.786 1.813 6713
1.090 2.665 1.739 4807
1.144 2.797 1.808 7733
1.094 2.676 1.734 4190
1.159 2.834 1.819 7744
1.109 2.712 1.745 3398
1.145 2.800 1.787 6130
1.194 2.922 1.860 3554
1.149 2.811 1.782 6867
1.199 2.933 1.855 3597
1.156 2.828 1.781 8219
1.206 2.950 1.853 2281
1.161 2.839 1.776 6818
1.216 2.974 1.855 2571
1.218 2.979 1.846 4772
1.168 2.856 1.775 4301
1.214 2.970 1.829 6130
1.154 2.822 1.743 2480
1.208 2.956 1.809 5198
1.158 2.833 1.738 2498
1.208 2.954 1.796 4575
1.258 3.077 1.866 2635
1.212 2.965 1.791 4305
1.262 3.088 1.861 2220
1.214 2.969 1.781 3603
1.264 3.093 1.851 2702
1.256 3.071 1.827 4637
1.205 2.947 1.758 3020
1.260 3.082 1.821 4899
1.207 2.952 1.749 2967
1.267 3.100 1.818 4748
1.206 2.950 1.736 2081
1.288 3.150 1.834 4463
1.237 3.026 1.766 3915
1.268 3.102 1.796 5539
1.217 2.978 1.728 1638
1.270 3.107 1.786 6506
1.321 3.231 1.853 2526
1.304 3.190 1.819 7754
1.253 3.065 1.752 3205
1.306 3.194 1.809 9068
1.255 3.070 1.742 1636
1.311 3.206 1.802 10171
1.362 3.331 1.868 2075
1.312 3.210 1.792 11341
1.364 3.335 1.858 2608
1.311 3.208 1.779 11416
1.363 3.333 1.844 2446
1.308 3.199 1.762 8607
1.359 3.325 1.827 3919
1.342 3.283 1.793 8099
1.291 3.157 1.728 3166
1.344 3.287 1.782 5863
1.395 3.413 1.846 3610
1.384 3.385 1.819 4517
1.332 3.259 1.756 3069
1.391 3.403 1.815 6770
1.339 3.276 1.752 2978
1.393 3.407 1.805 11792
1.341 3.281 1.742 2839
1.395 3.412 1.794 14681
1.452 3.552 1.863 4335
1.397 3.416 1.783 11923
1.448 3.543 1.845 3848
1.396 3.414 1.770 9219
1.478 3.614 1.867 3356
1.397 3.418 1.759 6381
1.482 3.626 1.859 3445
1.454 3.557 1.812 5239
1.402 3.429 1.752 3580
1.459 3.568 1.804 7313
1.404 3.434 1.741 3280
1.463 3.579 1.796 5619
1.411 3.451 1.736 3122
1.473 3.604 1.795 5371
1.418 3.469 1.732 2672
1.481 3.622 1.790 6956
1.533 3.750 1.849 2192
1.482 3.626 1.778 6388
1.535 3.754 1.837 2055
1.484 3.631 1.767 4840
1.537 3.759 1.825 1726
1.489 3.642 1.759 3945
1.541 3.770 1.817 3187
1.546 3.781 1.808 5999
1.491 3.646 1.748 3369
1.551 3.793 1.799 8001
1.495 3.657 1.739 1984
1.550 3.790 1.785 6687
1.602 3.919 1.841 3666
1.579 3.863 1.802 5127
1.526 3.734 1.746 2172
1.573 3.847 1.781 5137
1.626 3.976 1.837 2473
1.558 3.810 1.752 3489
1.613 3.947 1.810 3190
1.635 3.999 1.818 4035
1.582 3.869 1.763 2686
1.642 4.017 1.812 3874
1.589 3.887 1.757 3457
1.664 4.069 1.819 3478
1.594 3.898 1.748 2474
1.733 4.238 1.874 3003
1.671 4.088 1.812 2617
1.704 4.167 1.830 4904
1.760 4.304 1.887 2388
1.706 4.172 1.817 5971
1.652 4.042 1.764 2405
1.710 4.183 1.807 4711
1.797 4.396 1.893 2245
1.718 4.202 1.800 4299
1.791 4.380 1.871 3400
1.759 4.302 1.825 7214
1.812 4.433 1.876 2540
1.758 4.300 1.808 6594
1.811 4.431 1.860 3508
1.822 4.456 1.854 4958
1.757 4.298 1.792 3510
1.829 4.475 1.845 5104
1.776 4.343 1.795 3762
1.800 4.403 1.803 5583
1.854 4.534 1.853 3043
1.842 4.505 1.825 6419
1.788 4.373 1.776 2427
1.849 4.523 1.817 4658
1.909 4.668 1.871 3049
1.919 4.694 1.864 4538
1.865 4.562 1.815 2423
1.921 4.698 1.850 4087
1.867 4.567 1.801 1690
1.903 4.654 1.817 4000
1.965 4.807 1.873 2287
1.936 4.735 1.830 5120
1.990 4.867 1.878 2264
1.943 4.754 1.820 5093
1.998 4.886 1.868 2125
1.957 4.786 1.815 4018
2.042 4.995 1.889 1621
1.976 4.832 1.815 5621
2.053 5.021 1.881 1834
1.980 4.844 1.802 5173
2.057 5.032 1.868 1844
1.988 4.862 1.792 3428
2.048 5.009 1.842 2126
2.007 4.909 1.791 3864
2.130 5.209 1.893 2768
2.014 4.927 1.781 3285
2.137 5.228 1.882 2525
2.139 5.233 1.865 2059
2.028 4.960 1.774 1956
2.138 5.230 1.847 2715
2.193 5.364 1.891 1311
2.137 5.228 1.828 3056
2.192 5.361 1.872 1182
2.139 5.233 1.812 2971
2.214 5.415 1.871 2447
2.216 5.420 1.854 3761
2.273 5.560 1.899 3352
2.183 5.340 1.810 3227
2.278 5.572 1.883 2273
2.191 5.359 1.798 2683
2.280 5.577 1.866 2270
2.276 5.567 1.844 3170
2.195 5.370 1.783 1476
2.284 5.586 1.831 2188
2.396 5.861 1.915 1671
2.392 5.852 1.893 2905
2.447 5.986 1.933 1978
2.391 5.849 1.872 4044
2.446 5.984 1.912 3690
2.448 5.988 1.893 4338
2.393 5.854 1.854 2701
2.459 6.014 1.881 4831
2.525 6.177 1.928 3412
2.527 6.182 1.909 4396
2.461 6.019 1.862 4253
2.529 6.186 1.890 3561
2.460 6.016 1.841 2964
2.450 5.993 1.814 2623
2.630 6.432 1.938 2155
2.710 6.629 1.972 1689
2.527 6.182 1.847 1480
2.712 6.634 1.951 1962
2.828 6.918 2.029 1425
2.694 6.589 1.916 2631
2.830 6.923 2.007 1807
2.693 6.586 1.894 2071
2.832 6.928 1.986 1746
2.860 6.997 1.981 2127
2.919 7.139 2.019 1433
2.851 6.973 1.951 1434
2.918 7.137 1.994 1196
3.147 7.698 2.116 1633
3.025 7.399 2.038 1307
3.152 7.710 2.093 1927
3.030 7.411 2.017 1612
3.151 7.708 2.067 1724
3.224 7.887 2.112 1625
3.232 7.906 2.091 1723
3.101 7.585 2.011 1517
3.159 7.726 2.021 2009
3.267 7.990 2.085 1886
3.164 7.738 1.998 3327
3.278 8.017 2.066 2961
3.280 8.022 2.040 3636
3.166 7.743 1.974 3481
3.279 8.020 2.014 3333
3.168 7.748 1.950 2223
3.281 8.025 1.988 3696
3.463 8.469 2.091 2425
3.289 8.044 1.967 5279
3.468 8.482 2.066 2339
3.294 8.057 1.943 5914
3.473 8.494 2.041 2055
3.293 8.054 1.916 3567
3.633 8.887 2.101 2204
3.635 8.892 2.073 1884
3.524 8.619 2.013 1621
3.846 9.408 2.155 1825
3.479 8.509 1.961 1394
3.848 9.413 2.125 2806
3.725 9.111 2.061 1244
3.848 9.411 2.094 3019
3.745 9.159 2.042 1238
3.850 9.416 2.065 2979
3.747 9.164 2.013 1116
3.852 9.421 2.035 2923
4.296 10.509 2.255 1142
3.854 9.427 2.006 2180
4.384 10.724 2.264 1469
4.384 10.722 2.229 1695
4.313 10.549 2.195 1207
4.303 10.526 2.156 1494
4.386 10.728 2.195 1266
4.303 10.524 2.122 1298
4.421 10.813 2.176 1245
4.438 10.854 2.149 1486
4.355 10.652 2.112 1055
4.431 10.838 2.111 1095
4.939 12.081 2.338 1012
4.640 11.349 2.168 1129
4.944 12.094 2.302 1109
4.950 12.107 2.265 1559
4.642 11.355 2.132 989
4.955 12.120 2.228 1542
4.804 11.751 2.164 828
4.957 12.125 2.190 1266
4.635 11.336 2.056 921
4.959 12.131 2.152 1089
5.442 13.311 2.348 827
5.445 13.317 2.307 1032
4.962 12.136 2.114 783
5.447 13.323 2.265 1002
0.879 2.137 1.802 2281
0.881 2.142 1.795 4563
0.927 2.254 1.884 815
0.883 2.146 1.789 4563
0.929 2.259 1.877 1631
0.885 2.151 1.782 5054
0.931 2.264 1.870 2052
0.889 2.161 1.780 5608
0.935 2.274 1.868 1959
0.925 2.249 1.838 5476
0.879 2.136 1.750 2893
0.927 2.254 1.831 7791
0.880 2.140 1.744 2090
0.929 2.258 1.824 7791
0.882 2.145 1.737 2090
0.926 2.251 1.808 8630
0.879 2.137 1.721 1059
0.925 2.249 1.796 9966
0.972 2.363 1.882 831
0.927 2.254 1.789 9800
0.974 2.368 1.875 1313
0.926 2.252 1.778 9673
0.978 2.379 1.872 1862
0.931 2.263 1.775 10271
0.978 2.377 1.860 3316
0.932 2.267 1.768 10909
0.980 2.382 1.853 4836
0.964 2.344 1.815 10026
0.917 2.229 1.730 2299
0.964 2.343 1.803 10248
0.916 2.227 1.719 814
0.965 2.347 1.796 10466
0.918 2.231 1.712 951
0.972 2.364 1.797 12587
0.925 2.248 1.714 1282
0.977 2.374 1.794 15632
1.024 2.491 1.877 873
0.976 2.373 1.783 13438
1.024 2.489 1.865 1129
0.978 2.377 1.775 11367
1.026 2.494 1.857 1149
0.982 2.388 1.772 9605
1.030 2.505 1.854 2265
0.994 2.417 1.782 8954
1.042 2.534 1.863 2087
0.996 2.421 1.774 7740
1.044 2.538 1.855 2538
0.998 2.426 1.767 6526
1.046 2.543 1.847 2990
1.000 2.430 1.759 5262
1.048 2.548 1.839 4081
1.047 2.546 1.827 5239
0.999 2.428 1.748 3972
1.049 2.551 1.820 5684
1.001 2.432 1.740 3172
1.051 2.555 1.812 6130
1.002 2.437 1.733 2372
1.053 2.560 1.804 4987
1.004 2.441 1.725 1543
1.057 2.570 1.800 3872
1.008 2.452 1.722 864
1.059 2.575 1.792 4969
1.108 2.694 1.870 920
1.064 2.586 1.788 6069
1.113 2.705 1.866 1056
1.065 2.590 1.780 6711
1.114 2.709 1.857 1661
1.067 2.594 1.772 7354
1.116 2.714 1.849 2266
1.066 2.592 1.760 5833
1.118 2.719 1.840 3763
1.118 2.717 1.828 5302
1.068 2.597 1.752 3371
1.119 2.721 1.819 6889
1.070 2.601 1.744 2351
1.121 2.726 1.811 6970
1.072 2.606 1.736 1976
1.126 2.737 1.807 5517
1.076 2.616 1.732 1919
1.133 2.754 1.806 4974
1.083 2.633 1.731 2737
1.148 2.790 1.817 6434
1.098 2.669 1.743 4855
1.160 2.820 1.824 7848
1.105 2.686 1.742 4518
1.165 2.831 1.819 8218
1.115 2.710 1.745 3371
1.169 2.842 1.814 6356
1.119 2.721 1.741 2727
1.155 2.808 1.782 6647
1.205 2.930 1.855 3284
1.160 2.819 1.777 7550
1.210 2.941 1.849 2276
1.164 2.830 1.772 6142
1.214 2.952 1.844 2424
1.208 2.938 1.824 4645
1.158 2.815 1.752 3464
1.215 2.955 1.822 6117
1.160 2.819 1.743 3060
1.212 2.947 1.805 5386
1.161 2.824 1.735 2850
1.214 2.951 1.796 4729
1.264 3.074 1.866 2482
1.218 2.962 1.791 4399
1.272 3.092 1.864 2023
1.220 2.966 1.781 3726
1.271 3.090 1.851 2579
1.262 3.068 1.827 4903
1.211 2.945 1.758 3164
1.267 3.079 1.821 5065
1.216 2.956 1.752 3132
1.271 3.091 1.815 5013
1.218 2.960 1.743 2096
1.276 3.102 1.809 4729
1.225 2.977 1.741 1884
1.275 3.100 1.796 6541
1.224 2.975 1.728 1695
1.277 3.104 1.786 7754
1.328 3.228 1.853 2397
1.311 3.187 1.819 7815
1.260 3.062 1.752 3452
1.316 3.198 1.812 9328
1.264 3.073 1.746 2006
1.320 3.209 1.806 10438
1.372 3.334 1.872 1877
1.319 3.207 1.792 11759
1.371 3.332 1.858 2374
1.321 3.212 1.782 12014
1.373 3.337 1.847 2225
1.317 3.203 1.765 9043
1.369 3.328 1.830 3636
1.349 3.280 1.793 7408
1.297 3.154 1.728 3121
1.351 3.284 1.782 4860
1.403 3.410 1.846 2891
1.388 3.375 1.816 4029
1.336 3.249 1.752 2364
1.398 3.400 1.815 6338
1.346 3.273 1.752 2550
1.400 3.404 1.805 11300
1.348 3.278 1.742 2709
1.402 3.409 1.794 13717
1.460 3.549 1.863 4179
1.401 3.406 1.780 11370
1.453 3.533 1.842 3714
1.403 3.411 1.770 8990
1.485 3.611 1.867 3486
1.408 3.422 1.762 6379
1.487 3.616 1.856 3651
1.459 3.547 1.809 4983
1.407 3.420 1.748 3513
1.464 3.558 1.801 7282
1.408 3.424 1.738 3222
1.468 3.569 1.793 5706
1.416 3.442 1.733 3040
1.481 3.601 1.795 4947
1.426 3.466 1.732 2965
1.488 3.618 1.790 6262
1.541 3.746 1.849 2081
1.490 3.623 1.778 5781
1.543 3.751 1.837 2000
1.495 3.634 1.770 4799
1.548 3.762 1.829 1819
1.499 3.645 1.762 4481
1.552 3.774 1.820 3413
1.557 3.785 1.811 6117
1.501 3.650 1.751 3612
1.559 3.789 1.799 8175
1.612 3.918 1.856 2001
1.558 3.787 1.785 6977
1.611 3.916 1.841 4163
1.590 3.866 1.805 5512
1.537 3.737 1.749 2424
1.584 3.850 1.784 5197
1.637 3.979 1.840 2391
1.622 3.943 1.810 4067
1.569 3.814 1.755 3514
1.643 3.995 1.818 3987
1.590 3.866 1.763 2989
1.603 3.898 1.763 4155
1.685 4.095 1.846 4011
1.689 4.107 1.836 3299
1.602 3.895 1.748 2609
1.742 4.234 1.874 3244
1.643 3.995 1.775 2641
1.716 4.171 1.833 4631
1.648 4.006 1.766 2275
1.717 4.175 1.820 5763
1.664 4.045 1.767 3020
1.722 4.187 1.810 4892
1.668 4.056 1.757 2489
1.727 4.198 1.800 4806
1.792 4.356 1.863 3398
1.768 4.299 1.825 7287
1.714 4.168 1.773 2868
1.767 4.296 1.808 6809
1.821 4.427 1.860 2701
1.797 4.370 1.822 4711
1.888 4.590 1.908 2161
1.805 4.388 1.814 4542
1.896 4.609 1.899 1724
1.807 4.392 1.800 5271
1.861 4.524 1.850 3185
1.851 4.501 1.825 6458
1.797 4.369 1.776 2578
1.856 4.512 1.814 4888
1.919 4.664 1.871 3482
1.926 4.683 1.862 4890
1.872 4.551 1.813 2501
1.934 4.701 1.852 4547
1.860 4.521 1.786 1613
1.930 4.692 1.832 4243
1.984 4.824 1.880 2068
1.946 4.731 1.830 5510
2.003 4.870 1.880 2217
1.954 4.750 1.820 5147
1.899 4.618 1.773 2144
1.967 4.782 1.815 4051
2.041 4.963 1.879 1611
1.983 4.821 1.813 5364
2.038 4.954 1.859 1616
1.988 4.833 1.800 5066
2.060 5.007 1.861 1710
1.998 4.858 1.792 3557
2.056 4.998 1.840 2210
2.017 4.905 1.791 4034
2.141 5.205 1.893 3086
2.022 4.916 1.778 3211
2.146 5.217 1.879 2827
2.148 5.221 1.863 2077
2.038 4.955 1.774 1966
2.147 5.219 1.844 2422
2.049 4.981 1.766 1490
2.149 5.223 1.828 2850
2.235 5.434 1.897 1089
2.150 5.228 1.812 2956
2.280 5.544 1.914 2155
2.193 5.331 1.827 3484
2.282 5.548 1.896 3196
2.195 5.335 1.810 3574
2.290 5.567 1.883 2227
2.202 5.354 1.798 3133
2.283 5.551 1.859 2189
2.285 5.555 1.842 2939
2.207 5.365 1.783 1578
2.304 5.602 1.838 2210
2.409 5.856 1.915 1558
2.405 5.847 1.893 2670
2.460 5.980 1.933 2130
2.450 5.957 1.906 3657
2.395 5.823 1.866 3516
2.461 5.983 1.893 3942
2.403 5.842 1.852 2449
2.472 6.009 1.881 4835
2.539 6.171 1.928 2813
2.476 6.021 1.864 4272
2.541 6.176 1.909 3777
2.542 6.181 1.890 3120
2.473 6.011 1.841 2973
2.463 5.987 1.814 3011
2.620 6.370 1.922 2079
2.476 6.020 1.804 1769
2.724 6.623 1.972 1720
2.726 6.628 1.951 1815
2.846 6.919 2.031 1399
2.708 6.583 1.916 2686
2.845 6.917 2.007 1659
2.707 6.581 1.894 2046
2.882 7.007 2.008 1909
2.878 6.998 1.983 2421
2.934 7.133 2.019 1170
2.866 6.967 1.951 1488
2.930 7.124 1.992 1266
3.167 7.698 2.117 1749
3.044 7.399 2.040 1493
3.169 7.704 2.093 2157
3.046 7.404 2.017 1712
3.168 7.702 2.067 1859
3.112 7.566 2.033 1580
3.246 7.892 2.089 1434
3.117 7.578 2.011 1411
3.175 7.719 2.021 1769
3.284 7.983 2.085 1581
3.180 7.731 1.998 2998
3.295 8.010 2.066 2247
3.182 7.736 1.974 3250
3.297 8.015 2.040 3235
3.296 8.013 2.014 3464
3.478 8.457 2.118 2471
3.298 8.018 1.988 3439
3.481 8.462 2.091 3109
3.306 8.037 1.967 4558
3.486 8.474 2.066 2744
3.311 8.049 1.943 5132
3.491 8.487 2.041 2378
3.310 8.047 1.916 3224
3.652 8.879 2.101 2360
3.542 8.612 2.013 1996
3.654 8.884 2.073 1912
3.866 9.399 2.155 1841
3.544 8.617 1.986 1651
3.868 9.405 2.125 3082
3.744 9.103 2.061 1166
3.868 9.403 2.094 3469
3.767 9.158 2.043 1193
3.870 9.408 2.065 3456
4.053 9.854 2.157 1096
3.872 9.413 2.035 3300
4.319 10.500 2.255 1182
3.874 9.418 2.006 2478
4.404 10.707 2.262 1389
4.407 10.713 2.229 1634
3.873 9.416 1.975 1374
4.320 10.502 2.153 1683
4.433 10.776 2.206 1244
4.322 10.508 2.120 1542
4.444 10.803 2.176 1266
4.458 10.838 2.148 1433
4.378 10.643 2.112 1014
4.454 10.829 2.111 1152
4.965 12.070 2.338 941
4.664 11.339 2.168 1120
4.970 12.083 2.302 1059
4.976 12.096 2.265 1569
4.666 11.345 2.132 984
4.981 12.109 2.228 1537
4.829 11.741 2.164 856
4.983 12.115 2.190 1215
4.659 11.326 2.056 970
4.985 12.120 2.152 1039
5.471 13.300 2.348 926
5.473 13.306 2.307 1172
4.988 12.126 2.114 768
5.475 13.311 2.265 1107
0.882 2.130 1.797 2298
0.883 2.134 1.791 4597
0.930 2.246 1.879 906
0.885 2.139 1.784 4597
0.932 2.251 1.872 1812
0.890 2.149 1.782 5161
0.936 2.262 1.870 2100
0.894 2.159 1.780 5812
0.941 2.272 1.868 2002
0.930 2.247 1.838 5632
0.883 2.134 1.750 3116
0.932 2.252 1.831 8010
0.885 2.138 1.744 2312
0.934 2.256 1.824 8010
0.887 2.143 1.737 2312
0.933 2.255 1.812 8788
0.886 2.141 1.726 1471
0.930 2.247 1.796 10189
0.977 2.361 1.882 902
0.932 2.252 1.789 9835
0.979 2.366 1.875 1334
0.929 2.244 1.773 9592
0.976 2.359 1.859 2035
0.936 2.261 1.775 10049
0.983 2.375 1.860 3616
0.968 2.338 1.822 10726
0.920 2.223 1.737 3619
0.969 2.342 1.815 10726
0.922 2.227 1.730 2356
0.969 2.340 1.803 10567
0.921 2.225 1.719 853
0.968 2.339 1.791 10655
1.016 2.454 1.875 939
0.978 2.362 1.797 11840
0.930 2.246 1.714 1227
0.982 2.372 1.794 14579
1.030 2.488 1.877 794
0.981 2.371 1.783 12783
1.029 2.487 1.865 1161
0.983 2.375 1.775 11195
1.031 2.491 1.857 1279
0.987 2.385 1.772 9736
1.036 2.502 1.854 2342
0.999 2.414 1.782 9321
1.048 2.531 1.863 2298
1.001 2.419 1.774 8048
1.050 2.536 1.855 2774
1.003 2.423 1.767 6775
1.052 2.541 1.847 3249
1.005 2.428 1.759 5268
1.054 2.545 1.839 4049
1.053 2.544 1.827 4938
1.004 2.426 1.748 3745
1.055 2.548 1.820 5241
1.006 2.430 1.740 2964
1.057 2.553 1.812 5544
1.008 2.434 1.733 2184
1.059 2.557 1.804 4814
1.010 2.439 1.725 1509
1.053 2.543 1.783 4320
1.102 2.662 1.862 1464
1.062 2.566 1.788 5225
1.111 2.685 1.866 953
1.067 2.577 1.784 6426
1.116 2.696 1.861 987
1.069 2.581 1.776 6872
1.121 2.707 1.857 1489
1.073 2.592 1.772 7319
1.122 2.712 1.849 2024
1.072 2.590 1.760 6035
1.124 2.716 1.840 3399
1.124 2.714 1.828 4792
1.074 2.594 1.752 3618
1.125 2.719 1.819 6476
1.076 2.599 1.744 2486
1.127 2.723 1.811 6859
1.078 2.603 1.736 2125
1.132 2.734 1.807 5561
1.082 2.614 1.732 2122
1.139 2.752 1.806 4585
1.089 2.631 1.731 2904
1.157 2.794 1.821 6379
1.107 2.673 1.747 4957
1.166 2.818 1.824 8234
1.111 2.684 1.742 4614
1.174 2.835 1.823 8658
1.123 2.714 1.749 3482
1.175 2.840 1.814 6598
1.125 2.718 1.741 2402
1.161 2.806 1.782 6253
1.212 2.927 1.855 3270
1.166 2.817 1.777 6850
1.216 2.939 1.849 2184
1.170 2.827 1.772 5505
1.221 2.950 1.844 2326
1.215 2.935 1.824 4677
1.164 2.812 1.752 3530
1.219 2.946 1.818 6105
1.166 2.817 1.743 3654
1.221 2.950 1.809 5385
1.170 2.828 1.738 3560
1.223 2.955 1.800 4666
1.172 2.832 1.730 2609
1.225 2.959 1.791 4245
1.279 3.089 1.864 1848
1.264 3.055 1.833 3825
1.213 2.931 1.763 2641
1.269 3.066 1.827 5222
1.218 2.942 1.758 3135
1.271 3.070 1.817 5322
1.220 2.946 1.749 2858
1.275 3.081 1.811 5335
1.224 2.957 1.743 2021
1.280 3.092 1.805 5212
1.229 2.968 1.737 1781
1.282 3.097 1.796 7406
1.230 2.972 1.728 1817
1.284 3.101 1.786 8831
1.335 3.225 1.853 2334
1.318 3.184 1.819 7667
1.267 3.060 1.752 3578
1.323 3.195 1.812 9314
1.271 3.071 1.746 2033
1.327 3.206 1.806 10535
1.379 3.331 1.872 1782
1.326 3.204 1.792 12202
1.378 3.329 1.858 2209
1.328 3.209 1.782 12830
1.380 3.334 1.847 2055
1.325 3.200 1.765 9701
1.377 3.325 1.830 3766
1.359 3.284 1.796 7245
1.307 3.158 1.732 3896
1.361 3.288 1.786 4660
1.413 3.414 1.850 2017
1.382 3.339 1.799 4534
1.330 3.213 1.735 1828
1.403 3.390 1.812 5900
1.351 3.264 1.749 2210
1.408 3.401 1.805 10637
1.356 3.275 1.742 2837
1.410 3.405 1.794 12779
1.470 3.552 1.866 3927
1.409 3.403 1.780 10820
1.475 3.563 1.858 3731
1.411 3.408 1.770 8714
1.491 3.601 1.864 3640
1.415 3.419 1.762 6423
1.495 3.613 1.856 3784
1.464 3.537 1.806 4984
1.411 3.410 1.745 3395
1.471 3.555 1.801 7495
1.413 3.414 1.734 3182
1.476 3.566 1.793 6110
1.423 3.438 1.733 2981
1.489 3.597 1.795 5015
1.436 3.470 1.735 3168
1.494 3.608 1.787 5908
1.547 3.736 1.846 2030
1.498 3.620 1.778 5253
1.551 3.748 1.837 1825
1.500 3.624 1.767 4490
1.553 3.752 1.825 2208
1.510 3.649 1.765 4606
1.563 3.777 1.823 3150
1.565 3.781 1.811 5700
1.512 3.653 1.754 3635
1.567 3.786 1.799 7565
1.620 3.914 1.856 2506
1.569 3.790 1.788 6531
1.622 3.919 1.844 4263
1.599 3.863 1.805 5553
1.546 3.734 1.749 2481
1.592 3.847 1.784 5120
1.646 3.976 1.840 2537
1.631 3.940 1.810 4706
1.577 3.810 1.755 3059
1.635 3.951 1.801 4500
1.692 4.087 1.859 3718
1.612 3.894 1.763 4672
1.694 4.092 1.846 4439
1.698 4.103 1.836 3397
1.611 3.891 1.748 2784
1.751 4.230 1.874 3304
1.655 3.998 1.778 3173
1.725 4.167 1.833 4097
1.663 4.016 1.771 2613
1.727 4.171 1.820 5362
1.673 4.041 1.767 3244
1.734 4.190 1.813 4933
1.680 4.059 1.760 2837
1.736 4.194 1.800 5105
1.801 4.352 1.863 3386
1.778 4.295 1.825 7280
1.724 4.164 1.773 3038
1.780 4.299 1.811 6867
1.834 4.430 1.863 2035
1.810 4.372 1.825 5144
1.756 4.242 1.774 2390
1.812 4.377 1.811 4448
1.758 4.246 1.760 1700
1.817 4.388 1.800 4760
1.871 4.519 1.850 2817
1.858 4.489 1.823 6691
1.804 4.358 1.773 2331
1.863 4.501 1.811 5063
1.929 4.660 1.871 3797
1.937 4.678 1.862 5191
1.882 4.547 1.813 2719
1.944 4.697 1.852 5019
1.864 4.503 1.781 1821
1.943 4.695 1.835 4660
2.001 4.833 1.885 1749
1.957 4.727 1.830 5901
1.902 4.595 1.783 2496
1.964 4.745 1.820 5298
1.910 4.613 1.773 2148
1.978 4.778 1.815 4130
2.047 4.944 1.875 1848
1.991 4.810 1.810 5063
2.046 4.942 1.857 1829
1.999 4.828 1.800 4802
2.056 4.968 1.848 1983
2.009 4.854 1.792 3474
2.064 4.986 1.838 2388
2.028 4.900 1.791 3979
2.153 5.200 1.893 3363
2.033 4.911 1.778 3138
2.157 5.212 1.879 3009
2.154 5.202 1.858 2172
2.049 4.951 1.774 1961
2.155 5.207 1.842 2345
2.060 4.976 1.766 1534
2.160 5.219 1.828 2835
2.215 5.352 1.872 1167
2.162 5.223 1.812 3008
2.238 5.405 1.871 1950
2.205 5.326 1.827 3479
2.295 5.543 1.896 2899
2.206 5.330 1.810 4003
2.262 5.464 1.852 2425
2.214 5.349 1.798 3740
2.325 5.616 1.881 2777
2.298 5.550 1.842 2892
2.219 5.360 1.783 1917
2.320 5.604 1.840 2338
2.471 5.970 1.952 1407
2.465 5.954 1.927 2578
2.386 5.764 1.869 2174
2.464 5.952 1.906 3514
2.405 5.811 1.864 2703
2.474 5.977 1.893 3419
2.419 5.843 1.854 1949
2.479 5.989 1.877 4348
2.552 6.166 1.928 2344
2.499 6.036 1.870 3996
2.554 6.171 1.909 3173
2.489 6.013 1.843 2788
2.556 6.175 1.890 2664
2.479 5.989 1.816 3358
2.699 6.520 1.966 2227
2.490 6.015 1.804 2450
2.739 6.617 1.972 1920
2.723 6.579 1.939 1805
2.500 6.040 1.791 1340
2.720 6.570 1.915 2857
2.787 6.733 1.959 1528
2.722 6.575 1.894 2001
2.898 7.000 2.008 1983
2.897 6.998 1.985 2574
2.791 6.743 1.917 1054
2.887 6.975 1.955 1534
2.943 7.110 1.991 1290
3.184 7.691 2.117 1726
3.060 7.392 2.040 1640
3.186 7.696 2.093 2266
3.062 7.397 2.017 1747
3.185 7.695 2.067 2062
3.126 7.552 2.031 1473
3.181 7.686 2.040 1516
3.264 7.885 2.089 1390
3.192 7.712 2.021 1776
3.334 8.054 2.105 1496
3.197 7.724 1.998 2955
3.283 7.931 2.048 1547
3.199 7.729 1.974 3215
3.315 8.008 2.040 2476
3.314 8.006 2.014 3249
3.497 8.449 2.118 2778
3.500 8.454 2.091 3583
3.319 8.018 1.990 2929
3.324 8.030 1.967 4137
3.505 8.467 2.066 3181
3.329 8.042 1.943 4512
3.510 8.479 2.041 2832
3.328 8.040 1.916 2650
3.559 8.599 2.040 2415
3.561 8.604 2.013 2434
3.671 8.869 2.071 1997
3.564 8.609 1.986 2067
3.887 9.391 2.155 1882
3.889 9.396 2.125 3335
3.765 9.095 2.061 1269
3.889 9.394 2.094 3766
3.788 9.150 2.043 1192
3.891 9.399 2.065 3680
3.790 9.155 2.015 1062
3.893 9.405 2.035 3500
4.238 10.239 2.204 1295
3.895 9.410 2.006 2774
4.354 10.517 2.227 1369
3.894 9.407 1.975 1678
4.424 10.689 2.226 1575
4.343 10.493 2.153 2050
4.427 10.694 2.192 1246
4.346 10.498 2.120 1882
4.465 10.786 2.175 1264
4.473 10.806 2.144 1393
4.348 10.503 2.087 1148
4.475 10.811 2.110 1243
4.992 12.059 2.338 907
4.693 11.336 2.169 1103
4.997 12.072 2.302 989
5.003 12.085 2.265 1479
4.692 11.334 2.132 1029
5.008 12.098 2.228 1514
4.688 11.325 2.094 907
5.010 12.104 2.190 1171
4.684 11.316 2.056 988
5.500 13.288 2.348 962
5.013 12.109 2.152 921
5.503 13.293 2.307 1203
5.505 13.299 2.265 1150
5.507 13.305 2.223 774
0.886 2.128 1.797 2387
0.888 2.132 1.791 4775
0.935 2.244 1.879 869
0.890 2.137 1.784 4775
0.937 2.249 1.872 1738
0.894 2.147 1.782 5614
0.941 2.259 1.870 2083
0.899 2.157 1.780 6664
0.946 2.270 1.868 2045
0.935 2.245 1.838 5869
0.888 2.132 1.750 3406
0.937 2.249 1.831 8464
0.890 2.136 1.744 2573
0.939 2.254 1.824 8464
0.892 2.141 1.737 2573
0.938 2.253 1.812 9226
0.891 2.139 1.726 1561
0.935 2.245 1.796 10544
0.983 2.359 1.882 966
0.937 2.250 1.789 9801
0.985 2.364 1.875 1383
0.931 2.236 1.769 9387
0.979 2.350 1.854 2648
0.941 2.258 1.775 9653
0.989 2.373 1.860 3866
0.973 2.335 1.822 11073
0.925 2.220 1.737 3679
0.975 2.340 1.815 11073
0.927 2.225 1.730 2370
0.974 2.338 1.803 10633
0.926 2.223 1.719 833
0.971 2.331 1.787 10865
1.019 2.446 1.870 1061
0.973 2.335 1.780 11034
1.021 2.451 1.863 1572
0.987 2.370 1.794 13289
0.939 2.254 1.711 778
0.989 2.374 1.787 11985
1.038 2.491 1.869 979
0.988 2.373 1.775 10826
1.037 2.489 1.857 1450
0.995 2.389 1.776 9730
1.044 2.506 1.858 2294
1.002 2.406 1.778 9696
1.051 2.523 1.859 2849
1.007 2.417 1.774 8293
1.056 2.534 1.855 3042
1.009 2.421 1.767 6902
1.057 2.538 1.847 3620
1.010 2.425 1.759 5232
1.059 2.543 1.839 4056
1.059 2.541 1.827 4644
1.010 2.424 1.748 3533
1.061 2.546 1.820 4710
1.011 2.428 1.740 2760
1.065 2.557 1.816 4846
1.016 2.438 1.737 2089
1.062 2.549 1.800 4624
1.012 2.430 1.721 1356
1.058 2.541 1.783 4927
1.108 2.659 1.862 1442
1.065 2.558 1.784 5533
1.115 2.676 1.862 989
1.070 2.568 1.780 6506
1.119 2.687 1.857 889
1.072 2.573 1.772 6644
1.127 2.704 1.857 1304
1.076 2.583 1.768 6878
1.131 2.715 1.853 1757
1.078 2.588 1.760 5928
1.130 2.714 1.840 2986
1.130 2.712 1.828 4244
1.080 2.592 1.752 3837
1.132 2.716 1.819 6105
1.082 2.596 1.744 2695
1.134 2.721 1.811 6903
1.083 2.601 1.736 2235
1.135 2.725 1.803 5841
1.085 2.605 1.728 1774
1.145 2.749 1.806 4465
1.095 2.628 1.731 2811
1.168 2.804 1.829 6526
1.115 2.677 1.751 4578
1.175 2.822 1.828 8533
1.117 2.681 1.742 4501
1.180 2.832 1.823 8942
1.122 2.692 1.738 3522
1.182 2.837 1.814 6745
1.121 2.690 1.726 2427
1.168 2.803 1.782 5987
1.218 2.925 1.855 3122
1.170 2.808 1.773 6371
1.220 2.929 1.846 2286
1.174 2.818 1.768 5111
1.225 2.940 1.840 2441
1.222 2.932 1.824 4528
1.171 2.810 1.752 3712
1.226 2.943 1.818 5816
1.172 2.814 1.743 4063
1.228 2.948 1.809 5200
1.177 2.825 1.738 3943
1.195 2.868 1.752 4609
1.246 2.991 1.822 3020
1.232 2.956 1.791 4282
1.180 2.834 1.721 1678
1.271 3.052 1.833 4049
1.220 2.928 1.763 2912
1.273 3.056 1.823 5586
1.222 2.933 1.754 2749
1.278 3.067 1.817 5625
1.226 2.944 1.749 2749
1.282 3.078 1.811 5796
1.231 2.955 1.743 2101
1.284 3.083 1.802 5879
1.233 2.959 1.734 1625
1.289 3.094 1.796 8367
1.237 2.970 1.728 1857
1.291 3.098 1.786 9896
1.342 3.222 1.853 2440
1.328 3.188 1.822 7378
1.276 3.063 1.755 4299
1.333 3.199 1.816 9353
1.281 3.074 1.749 2252
1.335 3.203 1.806 11254
1.387 3.328 1.872 1783
1.336 3.208 1.796 13559
1.388 3.333 1.861 2166
1.336 3.206 1.782 14102
1.388 3.331 1.847 2106
1.335 3.204 1.769 10376
1.387 3.329 1.834 3762
1.367 3.281 1.796 6982
1.314 3.155 1.732 3682
1.388 3.331 1.809 5064
1.333 3.199 1.742 3140
1.390 3.336 1.799 5249
1.337 3.210 1.735 1519
1.408 3.380 1.809 5716
1.356 3.254 1.745 1849
1.416 3.398 1.805 9727
1.363 3.272 1.742 3070
1.417 3.402 1.794 11508
1.478 3.549 1.866 3950
1.416 3.400 1.780 10101
1.486 3.567 1.862 3852
1.418 3.404 1.770 8242
1.499 3.598 1.864 3762
1.423 3.416 1.762 6130
1.504 3.609 1.856 3890
1.472 3.534 1.806 5226
1.419 3.407 1.745 3317
1.480 3.551 1.801 8025
1.418 3.404 1.731 3271
1.481 3.556 1.790 6478
1.428 3.429 1.730 2995
1.497 3.594 1.795 4715
1.441 3.460 1.732 3256
1.502 3.605 1.787 5188
1.555 3.733 1.846 1885
1.504 3.609 1.775 4547
1.557 3.737 1.834 2235
1.548 3.715 1.810 4092
1.494 3.587 1.752 2603
1.519 3.645 1.765 4360
1.572 3.773 1.823 3236
1.574 3.778 1.811 5523
1.520 3.650 1.754 3440
1.579 3.789 1.802 6997
1.632 3.918 1.859 2531
1.578 3.787 1.788 5988
1.631 3.915 1.844 4582
1.605 3.852 1.802 5309
1.551 3.723 1.746 2712
1.601 3.843 1.784 4877
1.655 3.972 1.840 2626
1.640 3.936 1.810 5260
1.586 3.807 1.755 2368
1.642 3.940 1.798 5228
1.701 4.083 1.859 4177
1.624 3.897 1.766 4865
1.706 4.095 1.849 4840
1.662 3.990 1.791 3612
1.716 4.120 1.845 3302
1.661 3.988 1.775 3715
1.761 4.226 1.874 3271
1.734 4.163 1.833 3509
1.674 4.019 1.774 2971
1.736 4.167 1.820 4728
1.682 4.037 1.767 3476
1.747 4.192 1.815 4879
1.692 4.062 1.763 2929
1.746 4.190 1.800 5316
1.800 4.320 1.852 3367
1.787 4.291 1.825 7393
1.733 4.160 1.773 3113
1.792 4.302 1.814 7150
1.738 4.171 1.763 2051
1.820 4.368 1.825 5178
1.765 4.238 1.774 2361
1.805 4.332 1.795 4537
1.859 4.462 1.845 1814
1.806 4.336 1.781 4631
1.867 4.481 1.837 3572
1.869 4.485 1.823 6529
1.814 4.354 1.773 2539
1.870 4.490 1.809 5036
1.939 4.655 1.871 3889
1.947 4.674 1.862 5221
1.892 4.543 1.813 3063
1.958 4.699 1.855 5478
1.903 4.568 1.806 2688
1.963 4.711 1.842 5176
1.908 4.579 1.794 2383
1.967 4.722 1.830 6294
1.912 4.591 1.783 2482
1.975 4.741 1.820 5422
2.030 4.873 1.868 2031
1.988 4.773 1.815 3983
2.058 4.940 1.875 2334
2.002 4.805 1.810 4808
2.057 4.937 1.857 2101
2.007 4.817 1.798 4593
2.068 4.963 1.848 2277
2.023 4.856 1.794 3332
2.078 4.988 1.840 2457
2.037 4.888 1.789 3954
2.164 5.195 1.893 3642
2.169 5.207 1.879 3205
2.114 5.074 1.835 2936
2.165 5.198 1.858 2281
2.061 4.946 1.774 1819
2.167 5.202 1.842 2319
2.068 4.964 1.764 1619
2.172 5.214 1.828 2906
2.227 5.347 1.872 1194
2.174 5.218 1.812 2954
2.229 5.351 1.855 1805
2.214 5.314 1.825 3172
2.304 5.531 1.894 2505
2.219 5.325 1.810 4051
2.335 5.606 1.899 2087
2.226 5.344 1.798 4020
2.337 5.611 1.881 3528
2.336 5.608 1.862 2852
2.231 5.355 1.783 2009
2.335 5.606 1.842 2467
2.482 5.957 1.950 1713
2.484 5.962 1.931 2719
2.396 5.751 1.867 2099
2.471 5.932 1.902 2909
2.354 5.650 1.817 2571
2.491 5.979 1.896 2973
2.356 5.655 1.800 2061
2.487 5.970 1.873 3974
2.569 6.167 1.930 1746
2.512 6.031 1.870 3409
2.568 6.165 1.909 2380
2.514 6.035 1.851 2575
2.712 6.509 1.987 2067
2.499 5.997 1.820 3492
2.711 6.507 1.964 2521
2.503 6.009 1.804 3010
2.713 6.511 1.944 2023
2.727 6.545 1.931 1962
2.791 6.700 1.974 1491
2.731 6.557 1.913 2850
2.799 6.720 1.957 1988
2.914 6.994 2.008 2069
2.736 6.568 1.894 1758
2.913 6.992 1.985 2672
2.803 6.729 1.915 1240
2.906 6.975 1.957 1559
2.962 7.110 1.992 1236
3.077 7.385 2.040 1806
2.958 7.101 1.966 1636
3.203 7.689 2.093 2210
3.079 7.391 2.017 1711
3.203 7.687 2.067 2124
3.128 7.509 2.022 1482
3.199 7.678 2.040 1576
3.282 7.878 2.089 1273
3.210 7.705 2.021 1759
3.296 7.911 2.071 1336
3.212 7.710 1.996 2804
3.301 7.924 2.048 1614
3.217 7.722 1.974 3035
3.324 7.979 2.035 2311
3.332 7.998 2.014 2771
3.517 8.441 2.118 2674
3.519 8.446 2.091 3424
3.337 8.010 1.990 2202
3.342 8.022 1.967 2987
3.524 8.459 2.066 2961
3.344 8.027 1.941 3310
3.529 8.471 2.041 2705
3.579 8.590 2.040 2602
3.692 8.863 2.101 2476
3.581 8.596 2.013 2664
3.694 8.868 2.073 2006
3.583 8.601 1.986 2414
3.908 9.382 2.155 1855
3.911 9.387 2.125 3432
3.585 8.606 1.959 1438
3.913 9.392 2.096 3907
4.053 9.730 2.166 1249
3.912 9.391 2.065 3772
4.053 9.728 2.134 1222
3.914 9.396 2.035 3588
4.258 10.222 2.203 1358
3.916 9.401 2.006 2959
4.261 10.227 2.171 1409
3.915 9.399 1.975 1861
4.362 10.470 2.185 1770
4.367 10.483 2.153 2437
4.451 10.684 2.192 1285
4.366 10.481 2.119 2222
4.489 10.776 2.175 1286
4.495 10.789 2.142 1454
4.369 10.486 2.086 1331
4.497 10.794 2.108 1290
4.560 10.945 2.136 840
4.718 11.325 2.169 1089
5.082 12.198 2.326 847
5.033 12.081 2.266 1282
4.717 11.324 2.132 1027
5.035 12.087 2.228 1414
4.714 11.315 2.094 941
5.038 12.092 2.190 1134
4.713 11.313 2.057 1012
5.530 13.275 2.348 982
4.874 11.700 2.085 909
5.533 13.281 2.307 1209
5.535 13.287 2.265 1117
0.899 2.143 1.811 2401
0.901 2.147 1.805 4802
0.903 2.152 1.798 4802
0.950 2.264 1.886 1097
0.905 2.156 1.791 5995
0.952 2.269 1.879 1360
0.904 2.155 1.780 7239
0.952 2.268 1.868 2167
0.909 2.165 1.778 6286
0.956 2.278 1.865 3265
0.943 2.247 1.831 8715
0.895 2.134 1.744 2839
0.945 2.252 1.824 8715
0.897 2.138 1.737 2839
0.944 2.250 1.812 9326
0.897 2.137 1.726 1724
0.944 2.249 1.801 10420
0.896 2.135 1.715 971
0.943 2.247 1.789 9554
0.991 2.361 1.875 1451
0.937 2.233 1.769 8981
0.985 2.348 1.854 2994
0.947 2.256 1.775 9289
0.995 2.370 1.860 4197
0.979 2.333 1.822 11525
0.931 2.218 1.737 3664
0.981 2.337 1.815 11525
0.933 2.222 1.730 2373
0.980 2.336 1.803 10792
0.932 2.221 1.719 884
0.974 2.322 1.782 11296
1.023 2.437 1.866 1264
0.976 2.326 1.775 10669
1.025 2.442 1.858 1727
0.996 2.373 1.799 11718
0.947 2.258 1.716 1292
0.995 2.372 1.787 10872
1.044 2.488 1.869 1029
0.995 2.370 1.775 10103
1.043 2.486 1.857 1694
1.002 2.387 1.776 9608
1.050 2.503 1.858 2403
1.009 2.403 1.778 10025
1.058 2.520 1.859 3015
1.013 2.414 1.774 8544
1.062 2.531 1.855 3351
1.015 2.418 1.767 7098
1.064 2.536 1.847 4069
1.017 2.423 1.759 5288
1.066 2.540 1.839 3937
1.063 2.532 1.823 4120
1.013 2.415 1.743 3266
1.067 2.543 1.820 3875
1.018 2.425 1.740 2649
1.072 2.554 1.816 3821
1.022 2.436 1.737 1945
1.066 2.540 1.795 4417
1.016 2.421 1.717 1254
1.065 2.538 1.783 5535
1.115 2.656 1.862 1445
1.069 2.549 1.780 6079
1.119 2.667 1.858 1152
1.074 2.559 1.776 6940
1.142 2.722 1.882 907
1.078 2.570 1.772 6660
1.136 2.708 1.861 1207
1.083 2.580 1.768 6435
1.138 2.712 1.853 1570
1.085 2.585 1.760 5814
1.138 2.711 1.840 2566
1.092 2.602 1.760 4171
1.142 2.722 1.836 3466
1.139 2.713 1.819 5548
1.083 2.581 1.736 2961
1.141 2.718 1.811 6844
1.090 2.598 1.736 2379
1.145 2.729 1.807 6182
1.095 2.608 1.732 2168
1.152 2.746 1.806 4478
1.102 2.625 1.731 2793
1.176 2.801 1.829 6658
1.120 2.668 1.747 4261
1.183 2.818 1.828 8703
1.124 2.679 1.742 4436
1.187 2.829 1.823 9165
1.129 2.689 1.738 3741
1.189 2.834 1.814 6911
1.130 2.693 1.729 2658
1.172 2.794 1.778 5826
1.223 2.915 1.851 3197
1.177 2.804 1.773 6056
1.228 2.926 1.846 2072
1.181 2.815 1.768 4889
1.233 2.937 1.840 2278
1.229 2.929 1.824 4376
1.178 2.807 1.752 3956
1.234 2.940 1.818 5607
1.180 2.811 1.743 4447
1.236 2.944 1.809 5144
1.184 2.822 1.738 4298
1.205 2.871 1.755 5127
1.256 2.994 1.826 2611
1.207 2.876 1.747 4554
1.269 3.024 1.831 2610
1.277 3.042 1.829 4625
1.225 2.919 1.760 3092
1.281 3.053 1.823 6423
1.229 2.930 1.754 2907
1.283 3.057 1.814 6303
1.231 2.934 1.745 2555
1.288 3.068 1.808 6457
1.236 2.945 1.739 2177
1.290 3.073 1.798 6645
1.238 2.949 1.730 1576
1.297 3.090 1.796 8800
1.245 2.966 1.728 2123
1.299 3.095 1.786 10040
1.351 3.219 1.853 2520
1.336 3.184 1.822 7727
1.284 3.060 1.755 4232
1.341 3.195 1.816 10042
1.289 3.071 1.749 2236
1.343 3.200 1.806 12023
1.395 3.325 1.872 1825
1.345 3.204 1.796 14801
1.397 3.329 1.861 2228
1.347 3.209 1.786 15596
1.399 3.334 1.851 2067
1.346 3.207 1.772 11529
1.398 3.332 1.837 3827
1.375 3.277 1.796 6724
1.323 3.152 1.732 3631
1.396 3.328 1.809 5604
1.344 3.202 1.745 3026
1.398 3.332 1.799 6018
1.346 3.206 1.735 1320
1.403 3.343 1.792 6189
1.350 3.217 1.729 1175
1.424 3.394 1.805 8451
1.371 3.268 1.742 3231
1.426 3.399 1.794 9856
1.490 3.551 1.870 3703
1.425 3.396 1.780 9112
1.495 3.563 1.862 4099
1.430 3.407 1.773 7553
1.508 3.594 1.864 4208
1.435 3.418 1.765 5645
1.510 3.599 1.852 4330
1.481 3.530 1.806 4908
1.420 3.383 1.736 3255
1.489 3.548 1.801 7365
1.427 3.400 1.731 3322
1.493 3.559 1.793 6089
1.440 3.431 1.733 3188
1.509 3.597 1.798 4728
1.450 3.456 1.732 3209
1.514 3.608 1.790 5080
1.455 3.467 1.724 1726
1.513 3.606 1.775 4138
1.567 3.733 1.834 2646
1.557 3.711 1.810 5134
1.504 3.583 1.752 2462
1.565 3.729 1.805 4594
1.511 3.601 1.747 2690
1.586 3.780 1.814 5205
1.533 3.652 1.757 3610
1.588 3.785 1.802 6465
1.642 3.913 1.859 2911
1.587 3.783 1.788 5566
1.641 3.911 1.844 4762
1.643 3.916 1.832 4958
1.564 3.726 1.749 3569
1.648 3.927 1.823 4539
1.594 3.798 1.767 2151
1.650 3.932 1.810 6017
1.718 4.094 1.880 1915
1.652 3.936 1.798 6226
1.712 4.079 1.859 4297
1.636 3.900 1.769 5359
1.716 4.090 1.849 4920
1.664 3.965 1.782 4270
1.721 4.101 1.839 3560
1.672 3.983 1.775 4366
1.772 4.222 1.874 3000
1.696 4.042 1.785 3563
1.751 4.172 1.839 2496
1.701 4.054 1.775 4067
1.756 4.183 1.828 3779
1.772 4.222 1.829 5038
1.706 4.065 1.766 2762
1.785 4.254 1.827 5170
1.731 4.124 1.775 1955
1.799 4.286 1.825 6975
1.744 4.156 1.773 3007
1.803 4.297 1.814 6799
1.749 4.167 1.763 2088
1.814 4.322 1.808 4987
1.918 4.570 1.905 1974
1.816 4.327 1.795 4553
1.882 4.485 1.856 1874
1.821 4.338 1.784 4912
1.878 4.476 1.837 3665
1.877 4.474 1.820 6248
1.822 4.343 1.770 2517
1.882 4.485 1.809 4993
1.952 4.650 1.871 3782
1.959 4.669 1.862 5082
1.904 4.538 1.813 3372
1.970 4.694 1.855 5793
1.915 4.563 1.806 3587
1.975 4.706 1.842 5660
1.920 4.574 1.794 2942
1.980 4.717 1.830 6520
1.924 4.586 1.783 2375
1.987 4.736 1.820 5390
2.043 4.867 1.868 2052
2.001 4.768 1.815 3756
2.071 4.934 1.875 2453
2.009 4.786 1.805 4645
2.064 4.918 1.852 2538
2.019 4.812 1.798 4228
2.080 4.958 1.848 2553
2.039 4.858 1.797 3128
2.094 4.990 1.842 2309
2.049 4.883 1.789 3938
2.178 5.190 1.893 3771
2.180 5.194 1.877 3371
2.124 5.062 1.832 2710
2.176 5.185 1.856 2400
2.073 4.941 1.774 1750
2.181 5.196 1.842 2100
2.078 4.952 1.761 1672
2.186 5.208 1.828 2669
2.241 5.341 1.872 1342
2.187 5.213 1.812 2641
2.243 5.345 1.855 1978
2.228 5.308 1.825 2907
2.301 5.483 1.881 2204
2.232 5.320 1.810 4054
2.350 5.600 1.899 2457
2.355 5.612 1.884 4246
2.240 5.338 1.798 4081
2.354 5.609 1.864 3194
2.292 5.462 1.818 1945
2.350 5.600 1.842 2424
2.494 5.944 1.947 1895
2.502 5.963 1.933 2830
2.411 5.745 1.867 2134
2.369 5.644 1.817 2658
2.436 5.806 1.866 2465
2.512 5.987 1.900 2712
2.370 5.649 1.800 2103
2.499 5.956 1.871 3384
2.600 6.196 1.941 1190
2.495 5.947 1.848 2711
2.667 6.356 1.966 1604
2.521 6.008 1.845 2552
2.722 6.488 1.983 2280
2.517 5.998 1.822 3991
2.725 6.492 1.962 2702
2.522 6.010 1.806 3552
2.730 6.504 1.944 2311
2.743 6.538 1.931 2250
2.684 6.396 1.892 1958
2.751 6.557 1.915 2670
2.814 6.705 1.955 2573
2.929 6.979 2.007 2077
2.816 6.710 1.934 1823
2.928 6.977 1.983 2749
2.821 6.722 1.915 1440
2.927 6.975 1.959 1575
2.984 7.110 1.994 1175
3.096 7.377 2.040 1691
2.974 7.086 1.965 1613
3.223 7.681 2.093 1894
3.161 7.532 2.055 1752
3.222 7.679 2.067 1901
3.151 7.508 2.024 1580
3.216 7.663 2.038 1485
3.147 7.499 1.997 1045
3.227 7.689 2.019 1501
3.316 7.903 2.071 1220
3.232 7.701 1.996 2335
3.337 7.951 2.057 1762
3.237 7.714 1.974 2482
3.345 7.970 2.035 2443
3.353 7.990 2.014 2284
3.538 8.432 2.118 2260
3.541 8.437 2.091 2849
3.358 8.002 1.990 1914
3.543 8.442 2.065 2499
3.363 8.014 1.967 2440
3.602 8.583 2.069 2707
3.368 8.026 1.943 2299
3.601 8.581 2.040 2737
3.715 8.853 2.101 2361
3.603 8.586 2.013 2886
3.717 8.858 2.073 1896
3.605 8.591 1.986 2835
3.936 9.379 2.156 1709
3.938 9.384 2.127 3397
3.607 8.596 1.959 1881
3.937 9.382 2.096 3914
4.082 9.726 2.168 1427
3.936 9.380 2.065 3690
4.081 9.725 2.136 1439
3.939 9.386 2.035 3465
4.285 10.211 2.203 1393
3.941 9.391 2.006 3044
4.393 10.467 2.221 1477
4.389 10.459 2.185 2282
3.943 9.396 1.976 2028
4.391 10.464 2.152 2970
4.479 10.673 2.192 1277
4.393 10.469 2.119 2613
4.499 10.721 2.167 1311
4.396 10.475 2.086 1535
4.519 10.770 2.141 1507
4.522 10.775 2.107 1326
4.579 10.912 2.132 920
5.113 12.185 2.326 1338
4.748 11.313 2.169 1021
5.116 12.190 2.288 1269
4.747 11.311 2.132 1045
5.067 12.074 2.228 1172
5.124 12.211 2.252 1042
5.123 12.209 2.212 1037
4.739 11.293 2.056 983
4.905 11.688 2.085 916
5.565 13.261 2.348 807
5.567 13.267 2.307 1055
5.570 13.272 2.265 1032
0.903 2.141 1.811 2443
0.905 2.146 1.805 4887
0.858 2.034 1.716 756
0.907 2.150 1.798 4887
0.954 2.262 1.886 1039
0.909 2.155 1.791 6274
0.956 2.267 1.879 1419
0.908 2.153 1.780 7673
0.956 2.266 1.868 2322
0.912 2.164 1.778 6667
0.960 2.276 1.865 3452
0.949 2.251 1.835 8461
0.902 2.138 1.748 3447
0.951 2.256 1.828 8461
0.904 2.143 1.742 3447
0.951 2.254 1.817 9069
0.903 2.141 1.731 2166
0.948 2.247 1.801 10039
0.900 2.133 1.715 981
0.947 2.245 1.789 9179
0.995 2.359 1.875 1491
0.939 2.226 1.764 8757
0.987 2.340 1.850 3738
0.948 2.248 1.771 8891
0.996 2.363 1.856 4978
0.983 2.331 1.822 11823
0.935 2.216 1.737 3760
0.985 2.336 1.815 11823
