2.236 4.213 1.838 3898
2.245 4.230 1.830 5315
2.172 4.092 1.774 3182
2.248 4.235 1.816 5388
2.181 4.110 1.766 3011
2.243 4.226 1.797 6296
2.176 4.100 1.747 1877
2.245 4.230 1.783 5196
2.319 4.369 1.837 2433
2.325 4.380 1.826 4420
2.254 4.248 1.774 2544
2.327 4.384 1.811 6131
2.260 4.258 1.763 1869
2.326 4.382 1.794 6102
2.259 4.256 1.746 1635
2.342 4.413 1.790 4762
2.430 4.578 1.853 1880
2.348 4.423 1.778 3491
2.450 4.616 1.850 2745
2.452 4.620 1.835 3245
2.354 4.434 1.766 2438
2.493 4.698 1.847 2704
2.356 4.439 1.752 2203
2.446 4.609 1.798 2573
2.376 4.476 1.749 2230
2.449 4.613 1.783 2613
2.516 4.740 1.828 1983
2.507 4.724 1.805 3157
2.592 4.884 1.862 2180
2.510 4.729 1.790 2836
2.598 4.896 1.849 2257
2.615 4.927 1.842 2882
2.544 4.793 1.795 2532
2.603 4.904 1.817 4042
2.670 5.031 1.861 2067
2.605 4.909 1.801 3795
2.673 5.036 1.844 2353
2.654 5.000 1.814 3540
2.586 4.873 1.771 3436
2.663 5.018 1.802 2927
2.596 4.890 1.760 2138
2.722 5.129 1.821 2757
2.655 5.002 1.779 2344
2.725 5.134 1.804 3541
2.792 5.261 1.846 3361
2.791 5.259 1.827 2897
2.723 5.131 1.785 2421
2.858 5.384 1.848 2442
2.711 5.108 1.760 1560
2.892 5.449 1.850 2980
2.767 5.214 1.775 1633
2.902 5.467 1.836 3555
3.013 5.676 1.902 2651
2.951 5.559 1.845 4476
3.019 5.687 1.885 3436
2.960 5.577 1.831 4356
3.028 5.705 1.871 3227
2.984 5.622 1.825 4244
3.056 5.757 1.866 2059
3.019 5.687 1.825 4546
2.950 5.559 1.787 2625
3.060 5.766 1.828 4109
3.200 6.030 1.906 2242
3.063 5.770 1.809 3007
3.203 6.034 1.887 2129
3.374 6.357 1.959 2244
3.065 5.775 1.791 2158
3.380 6.369 1.940 3734
3.449 6.498 1.976 1868
3.433 6.468 1.945 4360
3.365 6.339 1.909 2263
3.439 6.480 1.926 5835
3.371 6.351 1.890 2004
3.442 6.484 1.905 5132
3.636 6.851 2.005 1826
3.444 6.489 1.884 3555
3.639 6.856 1.983 2162
3.446 6.493 1.862 2535
3.634 6.847 1.957 2467
3.633 6.845 1.933 1970
3.449 6.498 1.841 1702
3.777 7.116 1.979 1298
3.632 6.843 1.908 1286
3.779 7.120 1.956 1690
3.638 6.854 1.888 1241
3.771 7.104 1.927 1691
4.060 7.650 2.066 1559
4.067 7.662 2.042 2078
3.817 7.191 1.924 1320
4.077 7.681 2.020 2389
4.145 7.810 2.052 847
4.072 7.672 1.992 2989
4.141 7.802 2.023 1671
4.074 7.677 1.967 3483
4.143 7.806 1.998 2189
4.084 7.695 1.945 2472
4.288 8.078 2.035 1668
4.290 8.083 2.008 2395
4.090 7.706 1.921 1565
4.293 8.088 1.982 2651
4.522 8.520 2.081 2190
4.528 8.531 2.054 2828
4.292 8.086 1.954 2686
4.531 8.536 2.026 3493
4.294 8.090 1.927 2280
4.533 8.541 1.998 4134
4.446 8.376 1.962 1636
4.532 8.539 1.969 3346
4.751 8.951 2.057 1793
4.527 8.530 1.938 2547
4.754 8.956 2.028 1613
4.559 8.590 1.921 2188
4.756 8.961 1.999 2127
4.759 8.966 1.969 2853
4.854 9.145 2.006 1831
4.860 9.156 1.977 2362
4.761 8.970 1.940 2322
4.859 9.154 1.946 2353
5.425 10.222 2.157 1931
5.432 10.234 2.125 2056
4.857 9.152 1.914 1798
5.434 10.239 2.091 2754
5.061 9.536 1.957 1628
5.437 10.244 2.058 2735
5.701 10.741 2.151 1311
5.436 10.242 2.023 2161
5.670 10.684 2.104 1337
5.435 10.240 1.988 1672
5.673 10.689 2.069 1135
5.936 11.184 2.121 1185
5.808 10.942 2.078 1174
5.931 11.175 2.082 1055
6.133 11.555 2.148 848
6.136 11.560 2.110 1002
5.934 11.180 2.045 991
6.256 11.787 2.109 1596
6.730 12.679 2.259 1080
6.262 11.799 2.071 1984
6.611 12.456 2.180 1035
6.265 11.804 2.033 1281
6.614 12.461 2.139 1018
6.753 12.723 2.138 923
1.064 1.994 1.764 1531
1.115 2.088 1.833 3619
1.057 1.981 1.744 2216
1.120 2.098 1.831 4985
1.063 1.991 1.742 2612
1.122 2.103 1.824 4017
1.065 1.995 1.736 1801
1.097 2.056 1.775 5021
1.155 2.164 1.863 1137
1.103 2.066 1.773 5780
1.160 2.174 1.861 2396
1.111 2.081 1.776 6943
1.169 2.190 1.863 2757
1.113 2.086 1.769 6943
1.171 2.194 1.856 2757
1.155 2.164 1.821 7981
1.097 2.056 1.735 2972
1.157 2.169 1.814 10068
1.099 2.060 1.728 1816
1.166 2.184 1.816 9042
1.108 2.075 1.731 1801
1.174 2.200 1.818 9451
1.116 2.091 1.733 1794
1.180 2.210 1.816 8062
1.121 2.101 1.731 1645
1.185 2.220 1.813 7160
1.126 2.111 1.728 1379
1.187 2.225 1.806 7160
1.129 2.115 1.722 1120
1.208 2.264 1.825 7986
1.149 2.153 1.741 2036
1.207 2.262 1.813 10252
1.149 2.152 1.730 2035
1.213 2.272 1.810 10890
1.154 2.162 1.727 1720
1.218 2.282 1.807 11920
1.159 2.172 1.725 1554
1.224 2.293 1.804 9862
1.164 2.182 1.722 1326
1.229 2.303 1.801 8141
1.170 2.191 1.719 890
1.231 2.307 1.794 9290
1.291 2.418 1.875 1005
1.237 2.317 1.790 10471
1.296 2.429 1.872 994
1.239 2.321 1.783 8162
1.299 2.433 1.864 1639
1.260 2.361 1.801 6291
1.200 2.249 1.720 1312
1.262 2.365 1.793 4930
1.202 2.253 1.713 935
1.287 2.411 1.815 4120
1.227 2.298 1.735 1548
1.267 2.374 1.778 5405
1.272 2.384 1.774 7255
1.271 2.382 1.762 8092
1.274 2.386 1.755 8943
1.279 2.396 1.751 7159
1.346 2.522 1.837 1184
1.307 2.448 1.776 7944
1.368 2.562 1.853 1455
1.312 2.459 1.772 8708
1.373 2.573 1.849 2074
1.318 2.469 1.768 9825
1.379 2.583 1.845 2329
1.320 2.473 1.760 8788
1.381 2.587 1.836 2642
1.322 2.477 1.752 7693
1.383 2.592 1.828 2955
1.324 2.481 1.744 7635
1.386 2.596 1.819 2390
1.333 2.498 1.744 5892
1.394 2.612 1.819 1535
1.342 2.514 1.743 4848
1.432 2.683 1.854 1964
1.360 2.548 1.755 4073
1.425 2.670 1.833 3003
1.375 2.577 1.762 5511
1.437 2.692 1.836 3511
1.426 2.672 1.812 5148
1.365 2.557 1.738 3560
1.419 2.658 1.792 6080
1.481 2.774 1.865 1300
1.418 2.656 1.779 6897
1.480 2.772 1.852 1407
1.420 2.661 1.771 7596
1.482 2.777 1.843 1462
1.422 2.665 1.762 8295
1.488 2.787 1.838 1581
1.444 2.706 1.776 6962
1.506 2.822 1.848 2173
1.456 2.728 1.778 7373
1.519 2.845 1.850 2217
1.475 2.763 1.788 8387
1.413 2.646 1.717 2399
1.487 2.786 1.790 7750
1.421 2.663 1.716 1770
1.506 2.821 1.800 8816
1.443 2.704 1.730 1340
1.518 2.844 1.802 9168
1.455 2.727 1.732 1545
1.520 2.848 1.792 9222
1.457 2.731 1.723 1517
1.519 2.846 1.780 9009
1.582 2.964 1.849 1187
1.525 2.857 1.774 8582
1.462 2.739 1.705 1034
1.537 2.880 1.775 7950
1.474 2.761 1.707 1891
1.539 2.884 1.766 5806
1.602 3.002 1.834 1403
1.518 2.844 1.732 6552
1.585 2.969 1.803 3319
1.527 2.861 1.729 6401
1.590 2.980 1.797 4107
1.599 2.996 1.794 6787
1.536 2.878 1.727 5555
1.602 3.001 1.784 9566
1.538 2.882 1.718 4462
1.604 3.005 1.774 10716
1.668 3.124 1.840 3454
1.606 3.009 1.765 9632
1.670 3.129 1.830 3499
1.605 3.007 1.751 8846
1.669 3.127 1.816 3127
1.607 3.011 1.742 9944
1.671 3.131 1.806 3438
1.609 3.015 1.732 7921
1.694 3.173 1.816 5229
1.696 3.177 1.806 6805
1.615 3.026 1.725 4899
1.661 3.112 1.759 7272
1.725 3.232 1.822 4256
1.663 3.116 1.749 8594
1.728 3.237 1.812 4522
1.676 3.139 1.748 6724
1.740 3.260 1.811 4464
1.698 3.182 1.758 7557
1.763 3.302 1.820 2578
1.707 3.199 1.754 6936
1.772 3.319 1.816 3100
1.713 3.209 1.747 4876
1.777 3.330 1.808 3540
1.783 3.341 1.801 6600
1.718 3.220 1.740 4255
1.785 3.345 1.790 9598
1.721 3.224 1.729 3938
1.784 3.343 1.776 6197
1.719 3.221 1.715 3107
1.780 3.334 1.759 4629
1.865 3.494 1.837 2290
1.789 3.351 1.754 7204
1.864 3.492 1.823 3162
1.794 3.362 1.746 8338
1.866 3.497 1.811 3585
1.807 3.385 1.744 9111
1.872 3.507 1.803 3278
1.819 3.409 1.743 7134
1.919 3.595 1.832 3353
1.918 3.593 1.817 4403
1.825 3.419 1.734 4180
1.906 3.572 1.793 6075
1.824 3.417 1.720 2703
1.916 3.589 1.787 5682
1.829 3.427 1.712 2953
1.928 3.613 1.785 4995
1.863 3.490 1.728 3137
1.934 3.623 1.776 5858
1.868 3.500 1.719 3409
1.940 3.634 1.767 6566
1.867 3.498 1.705 2924
1.935 3.625 1.749 4656
2.004 3.755 1.807 3870
2.013 3.772 1.801 5573
1.937 3.629 1.737 2839
2.019 3.783 1.792 7574
1.936 3.627 1.722 3271
2.025 3.794 1.782 9060
1.938 3.631 1.711 3478
2.031 3.804 1.772 7948
1.940 3.635 1.699 3102
2.029 3.802 1.757 3861
1.942 3.639 1.687 2548
2.077 3.891 1.781 3481
2.178 4.081 1.862 2953
2.177 4.079 1.846 3885
2.079 3.895 1.768 2901
2.172 4.070 1.827 4892
2.099 3.932 1.769 2785
2.171 4.068 1.811 6968
2.105 3.943 1.759 3582
2.173 4.072 1.798 7338
2.107 3.947 1.746 3373
2.176 4.076 1.784 4488
2.249 4.214 1.841 3285
2.259 4.232 1.832 5236
2.185 4.094 1.776 2941
2.261 4.236 1.818 5098
2.194 4.111 1.768 3012
2.253 4.221 1.797 5802
2.186 4.095 1.747 1867
2.255 4.225 1.783 5010
2.322 4.350 1.832 2080
2.335 4.374 1.826 3589
2.264 4.242 1.774 2481
2.334 4.372 1.809 5414
2.267 4.247 1.760 1716
2.339 4.383 1.797 6143
2.272 4.257 1.749 1378
2.349 4.401 1.788 5397
2.441 4.573 1.853 1634
2.355 4.411 1.776 3846
2.457 4.604 1.848 2807
2.460 4.608 1.833 3806
2.360 4.422 1.764 2892
2.458 4.606 1.815 3362
2.363 4.426 1.749 2799
2.457 4.603 1.798 2525
2.372 4.444 1.740 2498
2.509 4.701 1.816 2752
2.374 4.448 1.725 1666
2.511 4.705 1.801 3318
2.604 4.878 1.862 2302
2.517 4.716 1.788 2949
2.610 4.889 1.849 2104
2.626 4.921 1.842 2535
2.559 4.794 1.798 2336
2.614 4.898 1.817 3629
2.682 5.025 1.861 2063
2.610 4.889 1.796 3774
2.677 5.016 1.840 2687
2.583 4.840 1.762 3493
2.665 4.994 1.814 3166
2.671 5.005 1.800 2476
2.603 4.877 1.757 1926
2.734 5.123 1.821 2547
2.666 4.996 1.779 1954
2.801 5.248 1.844 3290
2.733 5.121 1.802 3017
2.807 5.259 1.829 3056
2.717 5.091 1.775 2700
2.867 5.371 1.846 2259
2.788 5.223 1.799 1794
2.905 5.443 1.850 2607
2.786 5.221 1.780 1810
2.922 5.474 1.840 3395
3.026 5.669 1.902 2699
2.967 5.559 1.848 4259
3.035 5.687 1.887 3300
2.995 5.611 1.844 3781
2.926 5.483 1.805 2295
2.997 5.615 1.825 4284
3.069 5.750 1.866 2051
3.043 5.700 1.831 4426
2.974 5.572 1.793 3161
3.074 5.759 1.828 4176
3.211 6.016 1.904 2141
3.076 5.763 1.809 3055
3.195 5.986 1.875 2081
3.389 6.349 1.959 2254
3.089 5.788 1.796 2194
3.391 6.354 1.938 3752
3.460 6.483 1.974 1968
3.448 6.460 1.945 4012
3.379 6.332 1.909 2170
3.454 6.472 1.926 5147
3.262 6.112 1.826 1863
3.460 6.483 1.907 4413
3.652 6.843 2.005 1871
3.459 6.481 1.884 3005
3.655 6.848 1.983 2265
3.650 6.839 1.957 2352
3.462 6.485 1.862 2222
3.649 6.837 1.933 1892
3.464 6.490 1.841 1532
3.797 7.114 1.981 1489
3.651 6.841 1.910 1273
3.796 7.111 1.956 1986
3.654 6.846 1.888 1075
3.787 7.096 1.927 1968
4.082 7.648 2.067 1788
4.088 7.659 2.044 2453
3.830 7.175 1.923 1579
4.098 7.678 2.022 2906
3.818 7.152 1.892 958
4.090 7.662 1.992 3405
4.159 7.792 2.023 1859
4.092 7.667 1.967 3947
4.162 7.797 1.998 2283
4.102 7.685 1.945 2943
4.306 8.068 2.035 1964
4.309 8.073 2.008 2826
4.108 7.697 1.921 1864
4.312 8.078 1.982 3069
4.538 8.502 2.079 2197
4.310 8.076 1.954 3244
4.548 8.521 2.054 2595
4.554 8.533 2.028 3296
4.313 8.080 1.927 2793
4.557 8.538 2.000 4049
4.319 8.092 1.902 1780
4.559 8.542 1.972 3063
4.772 8.940 2.057 2002
4.566 8.554 1.945 2545
4.778 8.952 2.029 1716
4.579 8.579 1.921 2640
4.781 8.957 2.000 2100
4.780 8.955 1.969 2826
4.875 9.133 2.006 2297
4.877 9.138 1.976 2786
4.782 8.959 1.940 2282
4.880 9.143 1.946 2647
5.445 10.202 2.156 1733
4.879 9.141 1.914 1983
5.455 10.221 2.125 1802
5.458 10.226 2.091 2565
4.881 9.145 1.884 1259
5.461 10.231 2.058 2662
5.726 10.727 2.151 1204
5.460 10.229 2.023 1997
5.695 10.670 2.104 1359
5.459 10.227 1.988 1460
5.698 10.675 2.069 1187
5.833 10.929 2.078 1253
5.962 11.170 2.121 1123
5.957 11.161 2.082 1032
6.263 11.734 2.182 959
6.166 11.553 2.111 1084
6.270 11.746 2.144 1050
6.283 11.772 2.109 1577
6.162 11.544 2.071 957
6.290 11.784 2.071 1934
6.640 12.441 2.180 1123
6.292 11.789 2.033 1259
6.639 12.439 2.137 1122
1.071 1.998 1.769 1675
1.118 2.086 1.833 3518
1.061 1.979 1.744 2208
1.124 2.096 1.831 4632
1.066 1.989 1.742 2652
1.123 2.095 1.819 3585
1.065 1.988 1.731 1486
1.101 2.054 1.775 4670
1.159 2.162 1.863 991
1.106 2.064 1.773 5387
1.164 2.172 1.861 2262
1.112 2.074 1.771 6362
1.170 2.182 1.858 3091
1.114 2.078 1.765 6362
1.172 2.186 1.851 3091
1.156 2.156 1.817 7927
1.098 2.048 1.731 2371
1.161 2.166 1.814 10096
1.103 2.058 1.728 1694
1.170 2.182 1.816 9211
1.111 2.073 1.731 1762
1.178 2.198 1.818 9812
1.120 2.089 1.733 1854
1.184 2.208 1.816 8281
1.125 2.099 1.731 1706
1.189 2.218 1.813 7309
1.130 2.109 1.728 1430
1.191 2.222 1.806 7309
1.132 2.113 1.722 1161
1.212 2.262 1.825 8681
1.150 2.146 1.737 2050
1.211 2.260 1.813 11076
1.149 2.144 1.725 2024
1.217 2.270 1.810 11606
1.158 2.160 1.727 1756
1.222 2.280 1.807 12635
1.163 2.170 1.725 1837
1.228 2.290 1.804 10678
1.168 2.179 1.722 1523
1.233 2.301 1.801 9145
1.174 2.189 1.719 986
1.235 2.305 1.794 10407
1.295 2.416 1.875 896
1.241 2.315 1.790 11728
1.301 2.426 1.872 883
1.243 2.319 1.783 8935
1.303 2.431 1.864 1563
1.261 2.353 1.797 6462
1.201 2.241 1.716 1120
1.267 2.363 1.793 5204
1.206 2.251 1.713 883
1.291 2.409 1.815 4173
1.231 2.296 1.735 1603
1.274 2.377 1.782 6064
1.277 2.382 1.774 8152
1.279 2.386 1.766 8590
1.278 2.384 1.755 9044
1.283 2.394 1.751 7036
1.363 2.543 1.853 1203
1.311 2.446 1.776 8175
1.372 2.560 1.853 1608
1.317 2.456 1.772 9225
1.378 2.570 1.849 2074
1.322 2.467 1.768 10575
1.383 2.581 1.845 2227
1.324 2.471 1.760 9286
1.386 2.585 1.836 2454
1.327 2.475 1.752 7575
1.388 2.589 1.828 2682
1.329 2.479 1.744 7153
1.390 2.594 1.819 2098
1.337 2.495 1.744 5526
1.399 2.610 1.819 1589
1.346 2.511 1.743 4784
1.434 2.675 1.850 1936
1.358 2.534 1.747 4063
1.433 2.673 1.837 2896
1.383 2.580 1.766 5640
1.445 2.696 1.840 2976
1.385 2.585 1.758 4989
1.447 2.700 1.831 3641
1.427 2.662 1.796 5335
1.489 2.778 1.869 1217
1.422 2.654 1.779 5961
1.485 2.770 1.852 1318
1.425 2.658 1.771 6781
1.487 2.774 1.843 1357
1.427 2.662 1.762 7601
1.496 2.791 1.842 1499
1.449 2.703 1.776 6762
1.511 2.820 1.848 2254
1.461 2.726 1.778 7316
1.524 2.842 1.850 2261
1.480 2.761 1.788 8969
1.417 2.644 1.717 2483
1.492 2.783 1.790 8467
1.426 2.660 1.716 1941
1.501 2.800 1.789 9118
1.438 2.683 1.719 1132
1.523 2.841 1.802 8321
1.460 2.724 1.732 1859
1.525 2.846 1.792 8358
1.462 2.728 1.723 1602
1.521 2.837 1.776 8577
1.584 2.955 1.845 1181
1.530 2.854 1.774 8562
1.467 2.736 1.705 1104
1.542 2.877 1.775 8180
1.479 2.759 1.707 1786
1.544 2.881 1.766 5903
1.631 3.043 1.859 1411
1.523 2.842 1.732 6931
1.587 2.960 1.799 2659
1.532 2.858 1.729 6842
1.596 2.977 1.797 4032
1.601 2.987 1.790 6974
1.538 2.869 1.724 5559
1.604 2.992 1.781 9610
1.540 2.873 1.714 3929
1.609 3.002 1.774 10765
1.673 3.121 1.840 3658
1.611 3.006 1.765 9382
1.675 3.126 1.830 3357
1.610 3.004 1.751 8024
1.674 3.124 1.816 2646
1.613 3.008 1.742 8792
1.677 3.128 1.806 3111
1.655 3.088 1.772 7306
1.719 3.208 1.837 2598
1.664 3.105 1.769 7310
1.729 3.225 1.833 3190
1.667 3.109 1.759 7396
1.731 3.229 1.822 4010
1.669 3.113 1.749 8151
1.733 3.234 1.812 4067
1.678 3.130 1.745 6116
1.742 3.251 1.808 4621
1.704 3.179 1.758 7497
1.768 3.299 1.820 2616
1.713 3.195 1.754 7665
1.778 3.316 1.816 2905
1.718 3.206 1.747 5633
1.794 3.346 1.818 3920
1.789 3.338 1.801 7109
1.724 3.217 1.740 4767
1.791 3.342 1.790 10237
1.726 3.221 1.729 3989
1.790 3.340 1.776 6572
1.725 3.218 1.715 2884
1.786 3.331 1.759 4663
1.871 3.491 1.837 1983
1.795 3.348 1.754 7307
1.870 3.489 1.823 2752
1.800 3.359 1.746 8689
1.869 3.487 1.808 3177
1.809 3.376 1.741 9410
1.875 3.498 1.800 2780
1.815 3.386 1.733 7151
1.929 3.598 1.835 3245
1.928 3.596 1.820 4568
1.828 3.410 1.731 3957
1.909 3.562 1.790 7218
1.830 3.414 1.720 2661
1.918 3.579 1.784 6644
1.835 3.424 1.712 2728
1.935 3.609 1.785 5516
1.841 3.435 1.704 2740
1.940 3.620 1.776 6348
1.874 3.497 1.719 2484
1.943 3.624 1.764 6311
1.873 3.494 1.705 3144
1.938 3.615 1.746 4308
2.011 3.751 1.807 4021
2.017 3.762 1.798 5584
1.940 3.619 1.734 3224
2.026 3.779 1.792 7376
1.942 3.623 1.722 3548
2.032 3.790 1.782 8733
2.098 3.914 1.836 2721
2.041 3.807 1.775 7658
2.107 3.931 1.829 2314
2.082 3.883 1.794 3942
2.015 3.759 1.740 2399
2.087 3.894 1.784 3600
2.185 4.077 1.862 2752
2.184 4.075 1.846 3383
2.093 3.905 1.774 3083
2.183 4.073 1.830 4413
2.102 3.922 1.767 3010
2.178 4.064 1.811 6583
2.112 3.939 1.759 3776
2.181 4.068 1.798 6970
2.114 3.944 1.746 3567
2.183 4.072 1.784 4124
2.264 4.223 1.846 3342
2.266 4.228 1.832 5395
2.192 4.090 1.776 2689
2.268 4.232 1.818 4996
2.201 4.107 1.768 3079
2.246 4.190 1.786 5615
2.313 4.315 1.836 3404
2.262 4.221 1.783 4456
2.330 4.346 1.832 2062
2.343 4.370 1.826 3339
2.268 4.232 1.772 2300
2.341 4.368 1.809 5471
2.274 4.243 1.760 1872
2.347 4.379 1.797 6753
2.280 4.253 1.749 1424
2.357 4.396 1.788 5826
2.456 4.582 1.858 1705
2.362 4.407 1.776 3895
2.465 4.599 1.848 2834
2.468 4.604 1.833 3691
2.368 4.418 1.764 3172
2.370 4.422 1.749 3289
2.470 4.608 1.818 3129
2.376 4.433 1.737 2729
2.519 4.699 1.834 2323
2.514 4.690 1.814 3059
2.382 4.444 1.725 1732
2.520 4.701 1.801 3850
2.612 4.874 1.862 2464
2.526 4.712 1.788 3314
2.615 4.878 1.846 1961
2.639 4.923 1.844 2160
2.571 4.796 1.800 2156
2.616 4.880 1.812 3199
2.691 5.020 1.861 2003
2.615 4.878 1.794 3512
2.683 5.005 1.837 2307
2.588 4.829 1.760 3696
2.674 4.989 1.814 2773
2.630 4.906 1.768 2328
2.698 5.033 1.811 1604
2.743 5.118 1.821 2178
2.675 4.991 1.779 1476
2.810 5.243 1.844 3011
2.742 5.116 1.802 2650
2.813 5.247 1.827 3000
2.726 5.086 1.775 2851
2.793 5.211 1.797 2246
2.876 5.366 1.846 2233
2.796 5.216 1.780 2062
2.922 5.451 1.854 2012
2.931 5.469 1.840 3348
3.032 5.657 1.900 2470
2.937 5.480 1.825 3937
3.006 5.608 1.864 3153
3.005 5.605 1.844 3667
2.936 5.477 1.805 2478
3.007 5.610 1.825 4261
3.076 5.738 1.864 1961
3.056 5.702 1.833 4042
2.988 5.574 1.795 3014
3.080 5.747 1.826 3950
3.221 6.010 1.904 1973
3.083 5.751 1.808 2805
3.202 5.974 1.873 2164
3.088 5.762 1.791 2113
3.313 6.181 1.912 2096
3.403 6.348 1.938 3447
3.323 6.199 1.895 2206
3.456 6.448 1.944 3513
3.329 6.210 1.877 1973
3.462 6.459 1.924 4130
3.273 6.107 1.826 1783
3.472 6.477 1.907 3553
3.668 6.843 2.007 1813
3.474 6.482 1.885 2402
3.547 6.617 1.922 2190
3.666 6.839 1.959 2256
3.473 6.479 1.862 1853
3.665 6.837 1.934 1967
3.800 7.088 2.001 1360
3.809 7.107 1.981 1689
3.664 6.835 1.910 1332
3.808 7.105 1.956 2210
3.969 7.404 2.033 1100
3.800 7.089 1.927 2070
4.095 7.640 2.067 1994
4.102 7.652 2.044 2683
3.842 7.168 1.923 1781
4.112 7.671 2.022 3172
3.830 7.146 1.892 1160
4.103 7.655 1.992 3604
4.173 7.785 2.023 2059
4.106 7.660 1.967 4107
4.179 7.796 1.999 2282
4.116 7.678 1.945 2981
4.321 8.061 2.035 2159
4.323 8.065 2.008 3056
4.118 7.683 1.919 1785
4.326 8.070 1.982 3306
4.553 8.494 2.079 2076
4.328 8.075 1.955 3735
4.559 8.506 2.053 2165
4.331 8.080 1.929 3295
4.569 8.525 2.028 3228
4.572 8.529 2.000 4243
4.333 8.084 1.902 2011
4.578 8.541 1.973 2971
4.788 8.932 2.057 2003
4.588 8.559 1.948 2743
4.794 8.944 2.029 1693
4.594 8.571 1.921 3071
4.796 8.948 2.000 1973
4.795 8.946 1.969 2654
4.891 9.125 2.006 2647
4.894 9.130 1.976 3077
4.798 8.951 1.940 2127
4.896 9.134 1.946 2798
5.463 10.193 2.156 1534
4.895 9.132 1.914 2071
5.466 10.198 2.122 1543
5.476 10.217 2.091 2282
4.897 9.136 1.884 1346
5.479 10.222 2.058 2422
5.409 10.091 2.033 1224
5.478 10.220 2.023 1761
5.714 10.660 2.104 1304
5.477 10.217 1.988 1245
5.846 10.906 2.113 1208
5.852 10.918 2.078 1285
5.982 11.160 2.121 1029
6.284 11.723 2.182 1122
6.180 11.530 2.148 1042
6.290 11.735 2.144 1243
6.187 11.542 2.111 1123
6.304 11.761 2.109 1611
6.182 11.533 2.071 946
6.311 11.773 2.071 1861
6.658 12.422 2.178 1249
6.661 12.427 2.137 1248
6.310 11.771 2.032 1192
1.075 1.995 1.769 1747
1.120 2.078 1.828 3719
1.062 1.971 1.739 1785
1.125 2.088 1.826 4553
1.067 1.981 1.737 2224
1.118 2.076 1.805 3723
1.061 1.968 1.717 830
1.108 2.057 1.780 4395
1.173 2.176 1.877 758
1.114 2.067 1.778 5013
1.172 2.175 1.865 1894
1.153 2.140 1.826 6292
1.095 2.032 1.739 2286
1.155 2.144 1.819 6292
1.097 2.036 1.733 2286
1.161 2.154 1.817 8280
1.102 2.046 1.731 2186
1.163 2.158 1.810 10341
1.104 2.050 1.724 1508
1.174 2.180 1.816 9117
1.116 2.071 1.731 1764
1.183 2.196 1.818 9849
1.124 2.086 1.733 2019
1.188 2.206 1.816 8342
1.129 2.096 1.731 1800
1.194 2.216 1.813 7262
1.135 2.106 1.728 1405
1.196 2.220 1.806 7262
1.137 2.110 1.722 1127
1.217 2.259 1.825 8665
1.155 2.143 1.737 1920
1.216 2.257 1.813 11086
1.154 2.141 1.725 1888
1.222 2.268 1.810 11512
1.162 2.157 1.727 1680
1.227 2.278 1.807 12521
1.168 2.167 1.725 1819
1.233 2.288 1.804 10958
1.173 2.177 1.722 1516
1.241 2.304 1.805 9942
1.181 2.193 1.723 1125
1.244 2.308 1.798 11453
1.184 2.197 1.716 934
1.246 2.312 1.790 12964
1.306 2.424 1.872 816
1.248 2.316 1.783 9770
1.308 2.428 1.864 1527
1.266 2.350 1.797 6833
1.206 2.238 1.716 1027
1.275 2.366 1.797 5661
1.214 2.254 1.717 849
1.277 2.370 1.790 4609
1.279 2.375 1.782 6821
1.282 2.379 1.774 9032
1.284 2.383 1.766 9170
1.286 2.387 1.759 9308
1.288 2.391 1.751 7060
1.366 2.534 1.849 1376
1.316 2.443 1.776 8128
1.378 2.557 1.853 1800
1.322 2.453 1.772 9589
1.383 2.567 1.849 2142
1.324 2.458 1.764 11270
1.386 2.572 1.841 2692
1.330 2.468 1.760 9887
1.391 2.582 1.836 2373
1.332 2.472 1.752 7657
1.393 2.586 1.828 2539
1.334 2.476 1.744 6807
1.396 2.591 1.819 1979
1.343 2.492 1.744 5133
1.405 2.607 1.819 1836
1.355 2.515 1.747 4533
1.417 2.629 1.822 2171
1.399 2.597 1.790 4188
1.337 2.482 1.716 1669
1.392 2.583 1.770 5658
1.454 2.699 1.844 2552
1.394 2.588 1.762 5112
1.456 2.703 1.835 3360
1.436 2.665 1.799 4640
1.498 2.780 1.873 1132
1.428 2.651 1.779 5017
1.491 2.767 1.852 1259
1.430 2.655 1.771 5964
1.493 2.771 1.843 1333
1.433 2.659 1.762 6912
1.502 2.788 1.842 1484
1.458 2.706 1.780 6422
1.521 2.823 1.852 1911
1.474 2.735 1.786 7106
1.411 2.618 1.715 1927
1.489 2.764 1.792 9405
1.426 2.647 1.721 2700
1.498 2.780 1.790 9047
1.432 2.657 1.716 2028
1.507 2.797 1.789 9464
1.444 2.680 1.719 1330
1.519 2.820 1.791 7718
1.456 2.702 1.721 1931
1.531 2.842 1.792 7449
1.468 2.725 1.723 1795
1.530 2.840 1.780 7916
1.460 2.710 1.703 1178
1.539 2.857 1.777 8452
1.476 2.739 1.709 1264
1.548 2.874 1.775 8245
1.485 2.756 1.707 1617
1.551 2.878 1.766 6055
1.638 3.039 1.859 1564
1.533 2.845 1.735 6972
1.596 2.963 1.803 2280
1.538 2.855 1.729 6955
1.602 2.973 1.797 3975
1.598 2.965 1.780 7170
1.534 2.847 1.713 3969
1.610 2.988 1.781 9752
1.546 2.869 1.714 3829
1.616 2.999 1.774 11061
1.680 3.118 1.840 3732
1.615 2.997 1.761 9305
1.679 3.116 1.827 3064
1.617 3.001 1.751 7298
1.708 3.170 1.844 1945
1.619 3.005 1.742 7821
1.683 3.124 1.806 2697
1.665 3.091 1.776 7629
1.601 2.971 1.711 3177
1.671 3.101 1.769 8271
1.736 3.221 1.833 3372
1.673 3.106 1.759 7496
1.738 3.226 1.822 4022
1.675 3.110 1.749 7512
1.740 3.230 1.812 4035
1.681 3.120 1.742 5516
1.746 3.240 1.805 4851
1.711 3.175 1.758 7668
1.776 3.295 1.820 2954
1.720 3.192 1.754 8061
1.795 3.332 1.826 3032
1.725 3.202 1.747 5992
1.797 3.336 1.815 4404
1.796 3.334 1.801 7611
1.731 3.213 1.740 5059
1.798 3.338 1.790 10478
1.733 3.217 1.729 4161
1.794 3.329 1.773 6560
1.729 3.208 1.712 2421
1.793 3.327 1.759 4628
1.858 3.449 1.819 1606
1.802 3.344 1.754 7357
1.867 3.466 1.813 2216
1.808 3.355 1.746 8887
1.873 3.477 1.805 2797
1.817 3.372 1.741 9668
1.882 3.494 1.800 2460
1.819 3.376 1.730 7394
1.943 3.607 1.841 3264
1.935 3.592 1.820 4614
1.825 3.386 1.722 4158
1.917 3.558 1.790 7426
1.834 3.403 1.717 2685
1.923 3.568 1.781 6942
1.839 3.414 1.709 2475
1.946 3.611 1.788 5424
1.880 3.489 1.731 3477
1.948 3.616 1.776 6566
2.014 3.738 1.832 2956
1.947 3.613 1.761 7288
2.017 3.743 1.820 3081
1.942 3.605 1.743 6326
2.019 3.747 1.807 4087
2.025 3.758 1.798 5373
1.944 3.609 1.731 4981
2.030 3.769 1.789 6833
1.950 3.619 1.722 4486
2.040 3.786 1.782 8074
1.952 3.623 1.711 3779
2.053 3.810 1.778 7246
1.951 3.621 1.696 3143
2.090 3.879 1.794 4224
2.023 3.755 1.740 2132
2.096 3.890 1.784 3707
2.194 4.072 1.862 2528
2.105 3.907 1.777 3166
2.196 4.077 1.849 2790
2.192 4.068 1.830 3849
2.111 3.918 1.767 3268
2.187 4.059 1.811 5755
2.117 3.928 1.756 4107
2.186 4.057 1.795 5962
2.119 3.932 1.744 3384
2.188 4.061 1.782 3578
2.273 4.219 1.846 3293
2.275 4.223 1.832 5515
2.205 4.092 1.779 2615
2.246 4.168 1.795 5417
2.313 4.293 1.845 2319
2.252 4.179 1.784 5924
2.319 4.304 1.833 3905
2.272 4.216 1.783 4285
2.339 4.341 1.832 2029
2.348 4.359 1.823 3557
2.281 4.233 1.774 2398
2.347 4.356 1.806 6122
2.280 4.231 1.758 1943
2.353 4.367 1.794 7739
2.285 4.242 1.746 1474
2.359 4.378 1.783 6554
2.469 4.583 1.860 1420
2.368 4.396 1.773 3903
2.475 4.594 1.848 2532
2.478 4.598 1.833 3528
2.378 4.413 1.764 3361
2.380 4.417 1.749 3821
2.480 4.603 1.818 3259
2.386 4.428 1.737 2933
2.529 4.693 1.834 2311
2.520 4.678 1.811 3046
2.438 4.525 1.756 1824
2.530 4.695 1.801 3822
2.623 4.868 1.862 2520
2.536 4.706 1.788 3438
2.622 4.866 1.844 2183
2.606 4.837 1.816 2341
2.538 4.710 1.772 2303
2.623 4.868 1.810 3216
2.702 5.015 1.861 1987
2.629 4.879 1.796 3347
2.697 5.006 1.840 2003
2.599 4.823 1.760 3965
2.681 4.977 1.812 2508
2.640 4.901 1.768 2145
2.709 5.028 1.811 1339
2.772 5.146 1.832 1940
2.664 4.945 1.766 1415
2.735 5.076 1.791 2710
2.822 5.237 1.844 2686
2.737 5.081 1.775 3140
2.824 5.241 1.827 2939
2.805 5.205 1.797 2790
2.884 5.353 1.844 2139
2.807 5.210 1.780 2462
2.941 5.458 1.858 1816
2.943 5.462 1.840 3397
2.867 5.321 1.796 2575
2.945 5.467 1.822 4240
3.014 5.594 1.862 3268
3.013 5.592 1.842 3321
2.944 5.464 1.802 2531
3.015 5.597 1.823 3869
3.084 5.724 1.862 1796
3.065 5.688 1.831 3817
2.996 5.560 1.793 2526
3.093 5.740 1.826 3703
3.216 5.969 1.894 1987
3.095 5.744 1.808 2766
3.215 5.967 1.873 2077
3.327 6.174 1.912 2475
3.101 5.755 1.791 2049
3.416 6.341 1.938 3044
3.336 6.192 1.895 2745
3.470 6.440 1.944 3076
3.342 6.203 1.877 2454
3.476 6.451 1.924 3309
3.545 6.580 1.960 1663
3.489 6.476 1.909 2803
3.559 6.605 1.944 1804
3.561 6.610 1.922 2147
3.685 6.840 1.985 2052
3.681 6.831 1.959 2240
3.425 6.356 1.831 1605
3.683 6.836 1.936 2118
3.818 7.087 2.003 1375
3.825 7.099 1.981 1898
3.686 6.840 1.914 1401
3.824 7.096 1.956 2506
3.985 7.396 2.033 1182
3.819 7.088 1.929 2265
4.116 7.638 2.069 2114
4.122 7.650 2.046 2764
3.858 7.160 1.923 2027
4.128 7.662 2.022 3332
4.000 7.423 1.963 1521
4.123 7.653 1.993 3772
4.193 7.782 2.025 2241
4.122 7.651 1.967 4098
4.196 7.787 1.999 2324
4.132 7.669 1.945 2853
4.338 8.051 2.035 2323
4.341 8.056 2.008 3239
4.410 8.186 2.039 2093
4.343 8.061 1.982 3476
4.413 8.191 2.012 2328
4.346 8.066 1.955 4120
4.416 8.195 1.985 2304
4.348 8.070 1.929 3697
4.584 8.508 2.026 3327
4.590 8.520 2.000 4695
4.351 8.075 1.902 2232
4.597 8.531 1.973 3046
4.807 8.921 2.057 1911
4.610 8.556 1.949 2917
4.813 8.933 2.029 1605
4.613 8.561 1.921 3386
4.908 9.109 2.036 2045
4.615 8.566 1.893 2894
4.911 9.114 2.006 2787
4.913 9.119 1.976 3190
4.647 8.625 1.876 2300
4.916 9.124 1.946 2877
4.605 8.547 1.831 1622
4.915 9.121 1.914 2125
4.607 8.551 1.803 1323
5.498 10.205 2.091 1943
4.917 9.126 1.884 1397
5.501 10.210 2.058 2123
5.431 10.079 2.033 1340
5.500 10.208 2.023 1493
5.429 10.077 1.998 1253
5.870 10.894 2.113 1199
5.432 10.082 1.965 1128
5.876 10.906 2.078 1353
6.024 11.181 2.127 1033
6.309 11.710 2.182 1259
6.205 11.517 2.148 1102
6.316 11.722 2.144 1362
6.215 11.536 2.112 1105
6.329 11.748 2.109 1541
6.211 11.527 2.072 909
6.336 11.759 2.071 1751
6.685 12.408 2.178 1281
6.688 12.413 2.137 1311
6.335 11.758 2.032 1137
1.115 2.053 1.821 2169
1.121 2.063 1.819 4388
1.063 1.957 1.730 1049
1.129 2.079 1.821 5013
1.071 1.972 1.733 1747
1.128 2.078 1.810 4673
1.070 1.970 1.722 922
1.128 2.076 1.798 4509
1.133 2.086 1.796 4809
1.191 2.194 1.884 1036
1.157 2.130 1.822 6412
1.098 2.022 1.735 1411
1.159 2.134 1.815 6412
1.101 2.026 1.728 1411
1.162 2.139 1.808 8170
1.103 2.030 1.721 1255
1.167 2.149 1.805 9972
1.108 2.040 1.719 1218
1.185 2.181 1.821 8690
1.126 2.073 1.735 2192
1.190 2.192 1.818 9679
1.131 2.083 1.733 2235
1.196 2.202 1.816 8314
1.136 2.092 1.731 1940
1.201 2.212 1.813 7158
1.142 2.102 1.728 1394
1.204 2.216 1.806 7158
1.144 2.106 1.722 1118
1.222 2.249 1.821 8670
1.162 2.139 1.737 1834
1.224 2.253 1.813 11231
1.164 2.143 1.730 1832
1.229 2.263 1.810 11628
1.170 2.153 1.727 1700
1.235 2.274 1.807 12812
1.175 2.163 1.725 1931
1.240 2.284 1.804 11582
1.180 2.173 1.722 1638
1.249 2.300 1.805 11104
1.189 2.189 1.723 1258
1.251 2.304 1.798 12722
1.191 2.193 1.716 1022
1.254 2.308 1.790 14340
1.193 2.197 1.709 786
1.256 2.312 1.783 10653
1.316 2.424 1.864 1509
1.271 2.340 1.792 7106
1.332 2.452 1.873 886
1.280 2.356 1.793 6210
1.285 2.366 1.790 5592
1.287 2.370 1.782 7947
1.286 2.369 1.770 10333
1.292 2.379 1.766 9976
1.353 2.491 1.845 888
1.294 2.383 1.759 9650
1.356 2.496 1.837 1352
1.300 2.393 1.755 7101
1.374 2.530 1.849 1699
1.325 2.439 1.776 8009
1.386 2.552 1.853 2010
1.330 2.449 1.772 9736
1.392 2.563 1.849 2187
1.332 2.453 1.764 11688
1.394 2.567 1.841 2642
1.338 2.463 1.760 10067
1.400 2.577 1.836 2424
1.340 2.468 1.752 7429
1.402 2.582 1.828 2706
1.339 2.466 1.740 6350
1.401 2.580 1.815 2803
1.348 2.482 1.740 4854
1.410 2.596 1.815 2649
1.367 2.516 1.751 4804
1.429 2.631 1.826 3241
1.415 2.605 1.798 4717
1.352 2.490 1.724 2625
1.414 2.603 1.786 5727
1.351 2.488 1.712 1299
1.403 2.583 1.762 4992
1.465 2.698 1.835 3508
1.458 2.684 1.815 4612
1.395 2.569 1.742 3047
1.470 2.707 1.818 4509
1.407 2.591 1.745 2820
1.472 2.711 1.809 4879
1.410 2.595 1.736 2961
1.442 2.654 1.762 5217
1.505 2.770 1.834 1454
1.467 2.701 1.780 5497
1.530 2.817 1.852 1770
1.493 2.748 1.797 6989
1.430 2.632 1.726 2312
1.498 2.759 1.792 9673
1.435 2.642 1.721 2395
1.507 2.775 1.790 9555
1.441 2.652 1.716 1940
1.516 2.792 1.789 9662
1.453 2.675 1.719 1668
1.519 2.796 1.780 7391
1.455 2.679 1.710 1771
1.544 2.843 1.796 6293
1.481 2.726 1.727 2113
1.543 2.841 1.783 6772
1.473 2.712 1.707 1218
1.549 2.852 1.777 8049
1.485 2.734 1.709 1222
1.558 2.868 1.775 7953
1.494 2.751 1.707 1383
1.560 2.873 1.766 6187
1.648 3.034 1.859 1679
1.542 2.839 1.735 7652
1.647 3.032 1.845 2476
1.548 2.850 1.729 7608
1.612 2.968 1.797 4622
1.608 2.960 1.780 8384
1.543 2.841 1.713 4220
1.620 2.983 1.781 10269
1.556 2.864 1.714 4144
1.622 2.987 1.771 11472
1.687 3.106 1.837 4039
1.621 2.985 1.758 9403
1.686 3.104 1.823 3070
1.623 2.989 1.748 6423
1.719 3.165 1.844 2376
1.626 2.993 1.738 6301
1.690 3.112 1.803 3010
1.676 3.085 1.776 8165
1.611 2.966 1.711 3011
1.685 3.102 1.772 9400
1.750 3.222 1.836 2838
1.687 3.106 1.762 7057
1.752 3.226 1.826 3286
1.686 3.104 1.749 5906
1.751 3.224 1.812 3900
1.757 3.235 1.805 4872
1.688 3.108 1.739 4713
1.721 3.169 1.758 6887
1.787 3.289 1.820 3023
1.730 3.186 1.754 7776
1.806 3.325 1.826 3076
1.736 3.196 1.747 6139
1.809 3.330 1.815 4777
1.807 3.328 1.801 8219
1.742 3.207 1.740 5394
1.806 3.326 1.787 11065
1.741 3.205 1.726 3854
1.805 3.323 1.773 6840
1.739 3.202 1.712 2086
1.804 3.321 1.759 4609
1.870 3.442 1.819 1587
1.813 3.338 1.754 7430
1.879 3.460 1.813 1760
1.819 3.349 1.746 9306
1.885 3.470 1.805 2048
1.828 3.366 1.741 10302
1.929 3.551 1.831 1924
1.830 3.370 1.730 7934
1.952 3.594 1.838 3507
1.947 3.586 1.820 4870
1.836 3.380 1.722 4364
1.929 3.551 1.790 6632
1.849 3.404 1.720 2504
1.931 3.556 1.778 6319
1.854 3.414 1.712 2023
1.916 3.528 1.752 3946
2.003 3.689 1.826 3131
2.016 3.712 1.823 4441
1.950 3.590 1.767 3893
1.955 3.600 1.758 5958
2.026 3.730 1.817 4290
1.958 3.604 1.746 6007
2.028 3.734 1.805 4835
2.034 3.745 1.795 5504
1.967 3.622 1.740 3913
2.043 3.762 1.789 5996
1.976 3.639 1.734 3013
2.049 3.772 1.779 6592
2.116 3.896 1.833 3203
2.072 3.816 1.784 6311
2.005 3.692 1.730 2108
2.103 3.872 1.794 4729
2.195 4.041 1.867 1857
2.112 3.889 1.787 4650
2.211 4.071 1.865 1779
2.118 3.900 1.777 3826
2.217 4.082 1.854 1765
2.124 3.911 1.767 3519
2.213 4.074 1.835 2644
2.133 3.928 1.759 4172
2.201 4.052 1.811 4106
2.199 4.050 1.795 4433
2.132 3.925 1.744 3326
2.252 4.145 1.819 4914
2.152 3.962 1.744 2611
2.286 4.209 1.830 5159
2.218 4.084 1.779 2178
2.260 4.161 1.795 6045
2.327 4.285 1.845 2286
2.262 4.165 1.781 6140
2.330 4.289 1.831 4313
2.332 4.294 1.817 4715
2.264 4.169 1.767 3735
2.359 4.344 1.820 4500
2.292 4.219 1.772 2582
2.362 4.348 1.806 7556
2.294 4.223 1.758 2387
2.364 4.353 1.792 9221
2.432 4.478 1.840 1438
2.374 4.370 1.783 7850
2.485 4.575 1.860 1554
2.376 4.374 1.768 4177
2.487 4.579 1.845 2455
2.392 4.405 1.764 3436
2.493 4.590 1.833 3219
2.395 4.409 1.749 4319
2.499 4.601 1.820 3284
2.397 4.413 1.735 3033
2.508 4.619 1.810 2400
2.532 4.663 1.809 3093
2.453 4.517 1.756 1969
2.542 4.680 1.798 3937
2.636 4.853 1.860 2774
2.548 4.691 1.785 3642
2.631 4.844 1.839 2662
2.626 4.835 1.819 3021
2.557 4.708 1.774 2346
2.628 4.839 1.803 3349
2.560 4.713 1.759 1549
2.609 4.803 1.773 3455
2.678 4.930 1.817 1968
2.611 4.808 1.757 3931
2.691 4.954 1.807 2705
2.675 4.925 1.780 2383
2.795 5.145 1.854 2182
2.793 5.143 1.835 2432
2.674 4.923 1.761 1789
2.748 5.060 1.789 2898
2.883 5.308 1.870 2626
2.889 5.319 1.855 2993
2.754 5.071 1.775 2915
2.822 5.196 1.797 3092
2.895 5.330 1.840 2333
2.821 5.194 1.777 2890
2.904 5.348 1.826 2048
2.961 5.452 1.840 3029
2.885 5.312 1.796 2371
2.960 5.450 1.820 4021
3.029 5.578 1.860 3321
3.028 5.575 1.840 3977
2.959 5.448 1.800 2354
3.030 5.580 1.821 4287
3.100 5.707 1.860 1872
3.036 5.591 1.805 3391
3.106 5.718 1.843 2780
3.108 5.723 1.824 3430
3.236 5.958 1.894 1736
3.111 5.727 1.806 2607
3.348 6.165 1.934 1999
3.351 6.170 1.914 2688
3.117 5.738 1.789 1909
3.361 6.188 1.897 2899
3.478 6.403 1.959 2283
3.363 6.192 1.877 2568
3.488 6.422 1.942 2367
3.494 6.433 1.922 2043
3.571 6.575 1.962 1900
3.577 6.586 1.942 2154
3.507 6.458 1.907 1680
3.583 6.598 1.922 2091
3.440 6.334 1.850 1572
3.641 6.704 1.928 2043
3.711 6.832 1.962 1864
3.706 6.823 1.936 2169
3.636 6.695 1.902 1626
3.848 7.086 1.981 2165
3.723 6.855 1.921 1501
3.847 7.084 1.956 2899
3.682 6.778 1.877 1245
3.854 7.095 1.934 2536
4.145 7.631 2.071 2148
4.151 7.643 2.047 2702
3.878 7.140 1.921 2380
4.158 7.655 2.024 3319
4.025 7.410 1.963 2098
4.153 7.646 1.995 3773
4.223 7.775 2.027 2271
4.152 7.644 1.968 3909
4.222 7.773 1.999 2177
4.158 7.655 1.945 2630
4.369 8.043 2.037 2333
4.368 8.042 2.008 3002
4.438 8.171 2.039 2783
4.437 8.169 2.010 3494
4.366 8.039 1.980 3089
4.373 8.051 1.955 4211
4.443 8.181 1.985 3064
4.375 8.056 1.929 3914
4.613 8.492 2.026 3733
4.619 8.504 2.000 5371
4.378 8.060 1.902 2275
4.629 8.523 1.975 3234
4.454 8.201 1.905 1565
4.643 8.548 1.951 3099
4.449 8.192 1.875 1458
4.641 8.545 1.921 3677
4.935 9.086 2.034 2044
4.640 8.543 1.891 3355
4.941 9.098 2.006 2799
4.944 9.102 1.976 3153
4.676 8.609 1.876 2532
4.946 9.107 1.946 2759
5.333 9.820 2.088 1806
4.945 9.105 1.914 1994
4.640 8.543 1.804 1414
5.458 10.049 2.065 1618
5.532 10.186 2.091 1321
5.535 10.191 2.058 1526
5.461 10.054 2.032 1465
5.467 10.066 2.000 1347
5.776 10.636 2.105 1075
5.462 10.057 1.964 1212
5.906 10.874 2.113 1105
5.913 10.886 2.078 1354
6.241 11.491 2.186 1022
6.348 11.688 2.182 1291
6.240 11.489 2.147 1113
6.355 11.701 2.144 1318
6.254 11.515 2.112 1070
6.365 11.719 2.108 1323
6.728 12.387 2.221 917
6.372 11.731 2.070 1463
6.727 12.385 2.178 1394
6.730 12.390 2.137 1444
6.363 11.716 2.028 1028
6.732 12.396 2.096 844
1.118 2.052 1.821 2427
1.121 2.056 1.814 4854
1.063 1.950 1.725 758
1.132 2.077 1.821 5355
1.074 1.970 1.733 1707
1.131 2.076 1.810 5245
1.073 1.969 1.722 888
1.134 2.080 1.803 5142
1.139 2.090 1.801 5281
1.198 2.198 1.888 858
1.157 2.123 1.817 6528
1.098 2.015 1.730 942
1.159 2.127 1.810 6528
1.100 2.019 1.723 942
1.162 2.131 1.803 8156
1.103 2.023 1.717 889
1.161 2.130 1.792 9785
1.220 2.238 1.878 1293
1.188 2.180 1.821 8361
1.129 2.071 1.735 2190
1.193 2.190 1.818 9405
1.134 2.081 1.733 2296
1.199 2.200 1.816 8172
1.140 2.091 1.731 1944
1.201 2.204 1.808 7090
1.142 2.095 1.724 1023
1.204 2.208 1.801 7090
1.263 2.318 1.885 852
1.225 2.247 1.821 8550
1.165 2.138 1.737 1890
1.227 2.252 1.813 11058
1.167 2.142 1.730 1917
1.233 2.262 1.810 11368
1.173 2.152 1.727 1832
1.238 2.272 1.807 12519
1.178 2.161 1.725 2110
1.244 2.282 1.804 11575
1.183 2.171 1.722 1780
1.255 2.304 1.810 11420
1.195 2.193 1.728 1636
1.255 2.302 1.798 12956
1.194 2.191 1.716 1049
1.257 2.306 1.790 14499
1.318 2.417 1.872 814
1.259 2.310 1.783 10651
1.320 2.422 1.864 1521
1.274 2.338 1.792 6928
1.335 2.450 1.873 915
1.283 2.354 1.793 6311
1.289 2.364 1.790 5974
1.288 2.363 1.778 8427
1.290 2.367 1.770 11013
1.292 2.371 1.762 10397
1.354 2.484 1.841 1183
1.298 2.381 1.759 9845
1.359 2.494 1.837 1604
1.303 2.391 1.755 7151
1.375 2.522 1.845 1831
1.328 2.437 1.776 8014
1.390 2.550 1.853 2030
1.330 2.441 1.768 9762
1.392 2.554 1.845 2522
1.336 2.451 1.764 11732
1.398 2.565 1.841 2569
1.342 2.461 1.760 9997
1.404 2.575 1.836 2501
1.344 2.466 1.752 7215
1.406 2.580 1.828 2931
1.343 2.464 1.740 6118
1.405 2.578 1.815 3082
1.352 2.480 1.740 4773
1.414 2.594 1.815 3000
1.370 2.514 1.751 5217
1.433 2.629 1.826 3838
1.422 2.609 1.802 5029
1.359 2.494 1.727 3174
1.421 2.607 1.790 5914
1.358 2.492 1.715 1757
1.407 2.581 1.762 4966
1.469 2.696 1.835 3442
1.462 2.682 1.815 4665
1.399 2.567 1.742 3421
1.474 2.705 1.818 4517
1.411 2.589 1.745 3234
1.476 2.709 1.809 4834
1.413 2.593 1.736 3237
1.446 2.652 1.762 4657
1.509 2.768 1.834 1573
1.471 2.699 1.780 5055
1.534 2.815 1.852 1577
1.500 2.752 1.801 7100
1.437 2.636 1.730 2137
1.502 2.757 1.792 9936
1.439 2.640 1.721 2106
1.511 2.773 1.790 9812
1.448 2.656 1.720 1890
1.520 2.790 1.789 9631
1.457 2.673 1.719 1962
1.523 2.794 1.780 7150
1.459 2.677 1.710 1990
1.552 2.847 1.800 5860
1.488 2.730 1.730 2610
1.551 2.845 1.787 6582
1.487 2.728 1.718 1323
1.556 2.856 1.781 8029
1.492 2.738 1.712 1324
1.562 2.866 1.775 7885
1.498 2.748 1.707 1284
1.551 2.845 1.752 6246
1.652 3.032 1.859 1699
1.550 2.843 1.739 7842
1.655 3.036 1.849 2561
1.599 2.935 1.779 8214
1.535 2.816 1.712 4606
1.609 2.951 1.776 8688
1.544 2.833 1.710 3654
1.624 2.980 1.781 9770
1.560 2.862 1.714 4300
1.627 2.985 1.771 10724
1.691 3.103 1.837 3941
1.626 2.982 1.758 8828
1.690 3.101 1.823 2975
1.628 2.987 1.748 6079
1.723 3.162 1.844 2559
1.630 2.991 1.738 5914
1.695 3.110 1.803 3144
1.680 3.083 1.776 8735
1.745 3.202 1.840 3127
1.689 3.100 1.772 9823
1.754 3.219 1.836 2756
1.692 3.104 1.762 6834
1.757 3.223 1.826 3102
1.694 3.108 1.752 5190
1.759 3.228 1.815 3561
1.762 3.232 1.805 4933
1.693 3.106 1.739 4507
1.726 3.167 1.758 6690
1.791 3.287 1.820 3204
1.735 3.183 1.754 7676
1.801 3.304 1.816 3145
1.755 3.219 1.760 6327
1.820 3.340 1.821 4493
1.812 3.325 1.801 8292
1.746 3.204 1.740 5703
1.811 3.323 1.787 10969
1.745 3.202 1.726 4129
1.810 3.321 1.773 6668
1.744 3.200 1.712 2076
1.809 3.319 1.759 4202
1.875 3.440 1.819 1664
1.818 3.335 1.754 7113
1.884 3.457 1.813 1520
1.824 3.346 1.746 9407
1.904 3.493 1.818 1642
1.833 3.363 1.741 10438
1.899 3.484 1.800 1783
1.835 3.367 1.730 8042
1.961 3.598 1.841 3269
1.953 3.583 1.820 4538
1.841 3.377 1.722 4496
1.955 3.587 1.808 5951
1.857 3.407 1.723 2694
1.919 3.521 1.763 5613
1.985 3.643 1.820 2974
1.942 3.563 1.770 3352
2.009 3.686 1.826 3320
2.022 3.709 1.823 4894
1.955 3.587 1.767 3036
2.028 3.720 1.814 4708
1.961 3.597 1.758 4311
2.033 3.731 1.805 5079
1.967 3.608 1.749 5002
2.036 3.735 1.792 5486
1.969 3.612 1.737 3368
2.045 3.752 1.786 5518
1.978 3.629 1.731 2939
2.051 3.763 1.776 5827
2.118 3.886 1.831 3396
2.078 3.813 1.784 5776
2.011 3.689 1.730 1892
2.109 3.869 1.794 5128
2.201 4.038 1.867 2033
2.118 3.886 1.787 4893
2.210 4.055 1.859 1610
2.120 3.890 1.774 3980
2.223 4.079 1.854 1476
2.126 3.901 1.764 3682
2.226 4.083 1.841 2438
2.135 3.918 1.756 4141
2.217 4.068 1.819 3128
2.252 4.131 1.830 4610
2.152 3.948 1.754 3495
2.258 4.142 1.819 5609
2.158 3.959 1.744 2167
2.285 4.192 1.824 5344
2.217 4.068 1.774 1627
2.266 4.157 1.795 6483
2.334 4.282 1.845 2226
2.268 4.161 1.781 6348
2.336 4.286 1.831 4256
2.338 4.290 1.817 4908
2.270 4.166 1.767 3669
2.362 4.334 1.818 4735
2.294 4.209 1.769 2556
2.368 4.345 1.806 7817
2.300 4.220 1.758 2638
2.370 4.349 1.792 9398
2.302 4.224 1.744 1581
2.376 4.360 1.780 7960
2.445 4.485 1.828 1440
2.382 4.371 1.768 4065
2.490 4.569 1.843 2132
2.442 4.481 1.793 3224
2.511 4.606 1.840 2475
2.401 4.406 1.749 4141
2.506 4.597 1.820 3523
2.403 4.410 1.735 2886
2.515 4.615 1.810 2822
2.536 4.652 1.806 3025
2.460 4.513 1.756 2022
2.549 4.676 1.798 4069
2.636 4.836 1.855 2636
2.555 4.687 1.785 3849
2.634 4.833 1.837 2802
2.633 4.831 1.819 3274
2.564 4.705 1.774 2421
2.632 4.829 1.801 3447
2.563 4.702 1.757 1606
2.616 4.800 1.773 3601
2.692 4.939 1.821 2262
2.618 4.804 1.757 3930
2.698 4.950 1.807 3062
2.802 5.141 1.854 2467
2.682 4.921 1.780 2366
2.801 5.139 1.835 2742
2.681 4.919 1.761 1783
2.756 5.056 1.789 3030
2.891 5.303 1.870 2511
2.897 5.315 1.855 2978
2.762 5.067 1.775 2716
2.826 5.185 1.794 3014
2.899 5.319 1.838 2436
2.825 5.183 1.775 2962
2.894 5.310 1.816 2357
2.966 5.441 1.838 2817
2.893 5.307 1.796 2531
2.964 5.439 1.818 3913
3.034 5.566 1.858 3084
3.033 5.564 1.838 4191
2.963 5.437 1.798 2393
3.035 5.568 1.819 4425
3.105 5.696 1.858 2109
3.041 5.579 1.803 3153
3.111 5.707 1.841 2767
3.117 5.718 1.824 3153
3.197 5.866 1.868 1887
3.119 5.723 1.806 2469
3.189 5.850 1.843 2020
3.356 6.158 1.912 2756
3.110 5.707 1.781 1930
3.370 6.183 1.897 2815
3.487 6.398 1.959 2196
3.372 6.187 1.877 2502
3.497 6.416 1.942 2005
3.581 6.570 1.962 1934
3.500 6.421 1.920 1566
3.587 6.581 1.942 2179
3.495 6.412 1.896 1348
3.593 6.592 1.922 2004
3.449 6.329 1.850 1544
3.647 6.692 1.926 2181
3.717 6.820 1.960 1649
3.720 6.825 1.938 2032
3.642 6.683 1.900 1875
3.855 7.073 1.979 2309
3.733 6.850 1.921 1570
3.858 7.078 1.956 3023
3.691 6.773 1.877 1251
3.864 7.089 1.934 2613
4.160 7.632 2.072 2134
4.162 7.637 2.047 2577
3.878 7.114 1.916 2356
4.169 7.649 2.024 3233
4.035 7.404 1.963 2279
4.164 7.640 1.995 3648
4.234 7.769 2.027 2199
4.163 7.638 1.968 3598
4.233 7.767 1.999 1965
4.436 8.139 2.061 2361
4.165 7.642 1.943 2360
4.442 8.151 2.036 3108
4.372 8.021 2.005 2624
4.449 8.163 2.010 3941
4.378 8.033 1.980 2896
4.385 8.045 1.955 4089
4.455 8.174 1.985 3396
4.625 8.486 2.026 3881
4.387 8.049 1.929 3810
4.631 8.497 2.000 5495
4.390 8.054 1.902 2168
4.641 8.516 1.975 3291
4.466 8.195 1.905 1677
4.655 8.541 1.951 3088
4.461 8.186 1.875 1263
4.650 8.532 1.920 3653
4.948 9.079 2.034 1865
4.653 8.536 1.891 3408
4.955 9.090 2.006 2530
4.957 9.095 1.976 2862
4.689 8.602 1.876 2512
4.960 9.100 1.946 2521
5.348 9.812 2.088 2129
4.958 9.098 1.914 1799
5.347 9.810 2.054 1693
5.473 10.041 2.065 1648
5.346 9.808 2.020 1573
5.475 10.046 2.032 1477
5.352 9.820 1.989 1231
5.478 10.051 1.998 1366
5.624 10.318 2.048 1027
5.477 10.049 1.964 1249
5.926 10.872 2.114 1006
5.932 10.884 2.079 1280
6.254 11.475 2.185 1034
6.365 11.679 2.182 1275
6.257 11.480 2.147 1093
6.372 11.691 2.144 1256
6.271 11.506 2.112 1011
6.382 11.710 2.108 1196
6.746 12.377 2.221 989
6.745 12.375 2.178 1361
6.389 11.722 2.070 1301
6.748 12.381 2.137 1407
6.380 11.706 2.028 966
6.751 12.386 2.096 873
1.125 2.048 1.821 2902
1.128 2.052 1.814 5804
1.136 2.068 1.817 6319
1.078 1.961 1.728 1276
1.138 2.072 1.810 6496
1.080 1.965 1.722 846
1.144 2.082 1.808 6690
1.149 2.092 1.806 6385
1.164 2.119 1.817 7327
1.105 2.011 1.730 797
1.166 2.123 1.810 7327
1.107 2.015 1.723 797
1.169 2.127 1.803 8659
1.228 2.235 1.890 868
1.165 2.120 1.787 10117
1.224 2.228 1.873 1795
1.164 2.119 1.776 8321
1.224 2.227 1.861 2743
1.201 2.186 1.818 8773
1.141 2.077 1.733 2410
1.206 2.196 1.816 7677
1.147 2.087 1.731 1988
1.209 2.200 1.808 6649
1.149 2.091 1.724 994
1.211 2.204 1.801 6649
1.271 2.314 1.885 833
1.232 2.243 1.821 8497
1.172 2.134 1.737 2104
1.232 2.242 1.809 10874
1.171 2.132 1.725 1991
1.240 2.257 1.810 10914
1.180 2.148 1.727 2099
1.246 2.267 1.807 11996
1.185 2.157 1.725 2388
1.255 2.283 1.809 11588
1.194 2.173 1.726 2416
1.267 2.305 1.814 12051
1.206 2.195 1.732 2283
1.262 2.298 1.798 13250
1.202 2.187 1.716 1143
1.265 2.302 1.790 14585
1.326 2.413 1.872 928
1.267 2.306 1.783 10569
1.328 2.417 1.864 1600
1.273 2.316 1.780 6575
1.334 2.428 1.860 1919
1.294 2.356 1.797 6203
1.297 2.360 1.790 6321
1.296 2.358 1.778 9009
1.298 2.362 1.770 11842
1.360 2.475 1.849 930
1.300 2.367 1.762 10993
1.362 2.479 1.841 1522
1.306 2.377 1.759 10180
1.368 2.489 1.837 1909
1.311 2.387 1.755 7302
1.383 2.517 1.845 1960
1.336 2.432 1.776 7947
1.399 2.545 1.853 2019
1.339 2.437 1.768 9715
1.401 2.550 1.845 2561
1.344 2.447 1.764 11522
1.407 2.560 1.841 2632
1.350 2.457 1.760 9462
1.412 2.570 1.836 2817
1.395 2.539 1.804 6604
1.332 2.425 1.728 3552
1.397 2.543 1.796 6448
1.335 2.429 1.720 3302
1.396 2.541 1.783 5564
1.334 2.427 1.708 1894
1.382 2.515 1.755 6121
1.445 2.630 1.830 4455
1.434 2.610 1.806 5635
1.371 2.495 1.731 3814
1.436 2.614 1.797 6297
1.373 2.499 1.723 2595
1.459 2.655 1.812 5227
1.395 2.540 1.738 3496
1.471 2.677 1.815 5122
1.408 2.562 1.742 3561
1.480 2.694 1.814 4584
1.417 2.578 1.741 3465
1.486 2.704 1.809 4767
1.422 2.588 1.736 3564
1.495 2.720 1.808 4420
1.431 2.605 1.735 3931
1.494 2.718 1.795 4608
1.430 2.603 1.723 2685
1.513 2.753 1.805 7132
1.449 2.637 1.733 2080
1.512 2.751 1.792 9780
1.448 2.635 1.721 1906
1.517 2.762 1.787 9410
1.453 2.645 1.716 1835
1.530 2.784 1.789 8701
1.466 2.668 1.719 2135
1.536 2.795 1.783 6266
1.471 2.678 1.713 2490
1.562 2.842 1.800 5191
1.497 2.725 1.730 3303
1.567 2.852 1.794 6187
1.503 2.735 1.725 1704
1.566 2.850 1.781 7369
1.492 2.715 1.702 1360
1.572 2.861 1.775 7249
1.657 3.015 1.865 1136
1.561 2.840 1.752 6670
1.659 3.020 1.855 1798
1.559 2.838 1.739 8325
1.624 2.956 1.806 2794
1.609 2.929 1.779 10603
1.545 2.811 1.712 4410
1.615 2.940 1.773 10349
1.680 3.058 1.840 4447
1.635 2.975 1.781 9989
1.570 2.856 1.714 4700
1.637 2.979 1.771 10642
1.702 3.097 1.837 4053
1.629 2.964 1.751 9558
1.701 3.096 1.823 3061
1.628 2.962 1.738 6538
1.727 3.144 1.837 2957
1.633 2.973 1.731 5359
1.699 3.092 1.796 3743
1.687 3.071 1.772 9693
1.753 3.190 1.837 3759
1.700 3.094 1.772 10807
1.765 3.213 1.836 2520
1.706 3.104 1.766 6986
1.771 3.224 1.829 2347
1.704 3.102 1.752 4507
1.770 3.222 1.815 3496
1.776 3.232 1.808 5180
1.707 3.106 1.742 4453
1.782 3.243 1.801 6873
1.716 3.123 1.738 4142
1.749 3.184 1.757 7539
1.815 3.304 1.819 3439
1.766 3.213 1.760 6752
1.832 3.334 1.821 4439
1.824 3.319 1.801 8112
1.757 3.198 1.740 6231
1.822 3.317 1.787 10325
1.756 3.196 1.726 4450
1.821 3.315 1.773 6510
1.755 3.194 1.712 1995
1.810 3.293 1.749 4497
1.876 3.414 1.809 2338
1.829 3.329 1.754 6818
1.917 3.489 1.832 1595
1.835 3.340 1.746 9445
1.923 3.499 1.824 1904
1.844 3.357 1.741 10463
1.925 3.504 1.812 1869
1.847 3.361 1.730 8054
1.973 3.591 1.841 2685
1.859 3.384 1.728 4473
1.965 3.576 1.820 3935
1.964 3.574 1.805 5368
1.876 3.414 1.729 2881
1.931 3.514 1.763 5422
1.998 3.636 1.820 3035
2.025 3.685 1.829 3883
1.954 3.557 1.770 3486
2.034 3.702 1.823 5554
1.967 3.580 1.767 3440
2.040 3.713 1.814 5250
1.973 3.591 1.758 3175
2.043 3.717 1.802 5401
1.975 3.595 1.746 3211
2.009 3.657 1.760 6024
2.077 3.780 1.815 2547
2.054 3.739 1.783 4970
1.987 3.616 1.728 3245
2.053 3.737 1.768 5326
2.121 3.859 1.822 3644
2.094 3.812 1.787 4638
1.984 3.611 1.699 2521
2.122 3.862 1.794 5326
2.211 4.024 1.864 2232
2.131 3.879 1.787 5749
2.220 4.041 1.856 1707
2.137 3.889 1.777 4548
2.223 4.045 1.843 1493
2.121 3.861 1.750 3731
2.236 4.069 1.838 2054
2.149 3.911 1.756 3549
2.260 4.113 1.841 2575
2.266 4.124 1.830 5427
2.158 3.928 1.749 2516
2.275 4.141 1.822 7122
2.207 4.017 1.771 1499
2.281 4.152 1.811 6321
2.170 3.949 1.728 1168
2.280 4.149 1.795 6504
2.348 4.274 1.845 2261
2.286 4.160 1.784 6299
2.354 4.285 1.833 3728
2.353 4.282 1.817 4917
2.285 4.158 1.767 3639
2.373 4.319 1.815 5015
2.305 4.195 1.766 2457
2.379 4.330 1.804 8218
2.311 4.206 1.755 2367
2.385 4.341 1.792 10034
2.454 4.466 1.840 1663
2.391 4.352 1.780 8562
2.503 4.556 1.858 1663
2.397 4.363 1.768 4056
2.506 4.560 1.843 2477
2.457 4.472 1.793 4089
2.526 4.598 1.840 2572
2.452 4.463 1.774 4263
2.525 4.595 1.822 3572
2.535 4.613 1.812 3267
2.418 4.401 1.735 2742
2.551 4.644 1.806 3086
2.475 4.505 1.756 2086
2.565 4.668 1.798 4052
2.648 4.820 1.853 2709
2.571 4.679 1.785 3771
2.651 4.824 1.837 2982
2.649 4.822 1.819 3197
2.580 4.696 1.774 2366
2.648 4.820 1.801 3169
2.717 4.946 1.844 1713
2.632 4.791 1.773 3427
2.713 4.937 1.824 2940
2.635 4.795 1.757 3521
2.715 4.941 1.807 3475
2.816 5.125 1.851 3049
2.703 4.919 1.782 2414
2.818 5.129 1.835 3377
2.694 4.903 1.759 1724
2.821 5.134 1.818 3089
2.912 5.300 1.873 2206
2.823 5.138 1.801 2769
2.915 5.305 1.855 2746
2.847 5.182 1.797 2997
2.921 5.316 1.840 2462
2.839 5.166 1.773 3143
2.938 5.347 1.831 2491
2.959 5.385 1.824 2993
2.841 5.171 1.756 1859
2.983 5.429 1.818 3334
3.053 5.556 1.858 2567
3.048 5.547 1.835 4418
2.978 5.420 1.796 1847
3.054 5.558 1.819 4677
3.124 5.685 1.858 1829
3.060 5.569 1.803 2779
3.130 5.697 1.841 2339
3.136 5.708 1.824 2646
3.217 5.855 1.868 2375
3.212 5.846 1.845 2285
3.316 6.034 1.900 1999
3.370 6.133 1.908 2766
3.274 5.958 1.857 2276
3.369 6.131 1.886 2964
3.509 6.386 1.959 1875
3.390 6.169 1.875 2099
3.264 5.940 1.810 1704
3.607 6.564 1.964 1906
