1.191 4.551 1.923 2529
1.133 4.327 1.819 4275
1.193 4.556 1.909 3734
1.194 4.561 1.895 4886
1.158 4.425 1.842 3658
1.197 4.573 1.885 4054
1.161 4.437 1.832 2956
1.210 4.621 1.887 3043
1.165 4.449 1.822 2101
1.203 4.597 1.863 3910
1.162 4.439 1.803 2230
1.203 4.595 1.846 5879
1.239 4.732 1.898 3031
1.231 4.701 1.870 7237
1.172 4.477 1.787 3347
1.228 4.691 1.851 9099
1.264 4.828 1.901 2235
1.229 4.696 1.837 9390
1.265 4.833 1.887 3039
1.240 4.737 1.836 6909
1.276 4.874 1.886 1785
1.249 4.770 1.832 5771
1.213 4.633 1.783 1749
1.242 4.746 1.808 3882
1.279 4.884 1.856 3171
1.285 4.910 1.850 4628
1.322 5.048 1.898 3048
1.294 4.944 1.845 4858
1.258 4.806 1.797 1856
1.303 4.978 1.840 4244
1.267 4.840 1.793 3400
1.358 5.186 1.895 4154
1.306 4.990 1.828 3590
1.361 5.199 1.882 6348
1.308 4.995 1.813 2485
1.374 5.247 1.881 4640
1.334 5.094 1.830 2008
1.377 5.259 1.868 3457
1.333 5.092 1.812 1899
1.405 5.366 1.886 2967
1.367 5.221 1.838 2513
1.416 5.408 1.881 3187
1.370 5.233 1.824 2140
1.419 5.420 1.868 3010
1.474 5.632 1.936 1866
1.411 5.388 1.840 3360
1.447 5.527 1.884 2673
1.410 5.386 1.821 3516
1.446 5.525 1.865 2318
1.478 5.647 1.885 2679
1.517 5.794 1.931 2583
1.485 5.674 1.875 2988
1.443 5.513 1.825 1821
1.541 5.885 1.921 2407
1.492 5.701 1.865 2319
1.509 5.765 1.866 2474
1.546 5.904 1.908 2260
1.568 5.990 1.914 2959
1.510 5.770 1.848 2180
1.566 5.981 1.892 2785
1.612 6.157 1.944 1634
1.609 6.148 1.922 2100
1.573 6.008 1.881 1598
1.613 6.160 1.905 2135
1.678 6.411 1.978 1814
1.685 6.438 1.965 3779
1.753 6.696 2.039 3157
1.685 6.436 1.944 4452
1.722 6.576 1.983 3412
1.719 6.567 1.959 5023
1.682 6.426 1.920 3134
1.720 6.572 1.940 5587
1.759 6.720 1.981 3090
1.760 6.725 1.960 4160
1.722 6.577 1.920 3958
1.762 6.730 1.940 5605
1.868 7.138 2.050 2567
1.872 7.150 2.031 4471
1.763 6.735 1.920 3375
1.873 7.156 2.009 5055
1.823 6.963 1.959 1924
1.875 7.161 1.988 4474
1.826 6.975 1.940 2038
1.965 7.508 2.054 2565
1.876 7.166 1.966 2335
1.965 7.506 2.030 2824
1.877 7.171 1.945 988
1.978 7.556 2.019 2109
2.048 7.824 2.086 1880
2.050 7.829 2.062 2523
1.985 7.583 2.001 2104
2.055 7.850 2.042 1387
2.102 8.028 2.086 1243
2.226 8.504 2.175 1397
2.105 8.041 2.064 1140
2.126 8.121 2.057 1511
2.267 8.659 2.185 1342
2.127 8.127 2.033 1511
2.258 8.627 2.150 1448
2.223 8.491 2.091 1649
2.262 8.640 2.126 1637
2.273 8.683 2.109 2266
2.226 8.504 2.068 1052
2.279 8.704 2.086 3387
2.241 8.562 2.054 1000
2.280 8.709 2.060 3553
2.437 9.308 2.193 1012
2.277 8.700 2.030 2751
2.448 9.352 2.173 1671
2.283 8.720 2.008 1949
2.452 9.365 2.146 1922
2.294 8.763 1.989 1769
2.449 9.355 2.115 1111
2.476 9.459 2.108 1804
2.513 9.601 2.137 1432
2.476 9.457 2.078 2258
2.517 9.614 2.110 1962
2.520 9.627 2.083 1752
2.473 9.447 2.046 1479
2.534 9.678 2.063 1664
2.571 9.821 2.091 1541
2.537 9.691 2.035 1470
2.608 9.962 2.088 1422
2.607 9.960 2.057 1525
2.570 9.817 2.029 1162
2.902 11.087 2.241 1186
2.605 9.950 2.024 994
0.568 2.171 0.536 1246
2.902 11.086 2.206 1227
0.569 2.172 0.530 1877
2.665 10.179 2.005 965
0.571 2.180 0.525 2390
2.954 11.286 2.174 1195
0.571 2.181 0.519 2624
3.049 11.646 2.203 1194
0.571 2.182 0.512 2314
3.058 11.682 2.173 1249
0.572 2.183 0.506 1517
3.060 11.688 2.138 1075
0.572 2.185 0.499 1076
3.271 12.495 2.238 997
0.572 2.186 0.493 1192
3.274 12.508 2.202 1008
0.572 2.187 0.486 1216
3.417 13.051 2.251 981
0.573 2.187 0.480 1027
3.418 13.057 2.212 953
3.586 13.699 2.272 794
0.356 1.361 0.197 808
0.356 1.362 0.193 1004
0.356 1.362 0.189 1306
0.357 1.362 0.185 1474
0.357 1.362 0.181 1506
0.357 1.362 0.177 1377
0.357 1.362 0.173 1028
0.357 1.362 0.169 780
0.373 1.423 0.088 906
0.372 1.423 0.083 1229
0.374 1.430 0.079 1401
0.374 1.430 0.075 1453
0.372 1.422 0.071 1511
0.372 1.422 0.067 1448
0.372 1.422 0.063 1386
0.374 1.429 0.058 1245
0.374 1.429 0.054 1117
0.374 1.429 0.050 938
0.374 1.429 0.046 753
0.591 2.235 1.802 5273
0.592 2.239 1.795 10547
0.623 2.357 1.884 953
0.593 2.244 1.789 10547
0.624 2.361 1.877 1907
0.594 2.249 1.782 9523
0.625 2.366 1.870 4796
0.622 2.353 1.849 8932
0.591 2.234 1.762 6150
0.626 2.370 1.852 9691
0.595 2.252 1.764 5727
0.629 2.381 1.849 11284
0.598 2.262 1.762 3456
0.631 2.386 1.842 11284
0.599 2.267 1.755 3456
0.637 2.409 1.849 10296
0.605 2.290 1.762 4724
0.640 2.420 1.846 10455
0.608 2.301 1.760 5906
0.619 2.343 1.780 8940
0.651 2.463 1.866 4257
0.621 2.348 1.773 7651
0.652 2.468 1.859 3228
0.644 2.435 1.825 7408
0.612 2.315 1.740 2751
0.643 2.433 1.813 7501
0.611 2.313 1.728 1762
0.644 2.438 1.806 7501
0.613 2.317 1.722 1362
0.646 2.443 1.799 6245
0.678 2.563 1.882 1154
0.647 2.447 1.791 4988
0.679 2.568 1.875 1503
0.651 2.465 1.793 4289
0.692 2.618 1.898 1709
0.668 2.527 1.825 4557
0.700 2.648 1.907 1618
0.671 2.538 1.822 4657
0.703 2.660 1.904 1574
0.674 2.549 1.818 4875
0.706 2.671 1.900 1442
0.692 2.618 1.854 4399
0.660 2.496 1.772 3136
0.695 2.629 1.850 4340
0.663 2.507 1.769 3344
0.698 2.641 1.847 5070
0.662 2.505 1.757 2732
0.701 2.652 1.843 6101
0.662 2.503 1.746 2331
0.712 2.696 1.861 7261
0.680 2.573 1.780 3508
0.715 2.707 1.857 9351
0.683 2.584 1.777 4943
0.718 2.718 1.853 7289
0.686 2.595 1.774 5605
0.730 2.762 1.870 7174
0.692 2.619 1.778 6812
0.731 2.767 1.862 7124
0.693 2.624 1.771 5040
0.734 2.779 1.858 7147
0.696 2.635 1.767 3376
0.734 2.777 1.845 5872
0.698 2.639 1.759 2166
0.735 2.782 1.837 4668
0.768 2.906 1.914 1348
0.735 2.780 1.825 5779
0.768 2.905 1.902 1786
0.736 2.785 1.816 6892
0.769 2.910 1.893 2086
0.737 2.789 1.808 6392
0.770 2.915 1.885 3074
0.742 2.807 1.808 4708
0.775 2.933 1.884 3297
0.768 2.905 1.855 4286
0.731 2.766 1.772 2248
0.760 2.876 1.827 4002
0.793 3.002 1.902 3246
0.760 2.874 1.814 4694
0.793 3.000 1.889 4216
0.763 2.886 1.810 4341
0.796 3.012 1.884 3834
0.766 2.897 1.805 4210
0.803 3.037 1.887 3745
0.804 3.042 1.878 4327
0.767 2.902 1.797 3328
0.788 2.980 1.830 5091
0.754 2.853 1.757 1936
0.789 2.985 1.822 6726
0.826 3.125 1.902 2693
0.806 3.050 1.847 7764
0.772 2.922 1.774 1798
0.811 3.068 1.846 8581
0.777 2.940 1.773 2364
0.814 3.080 1.840 8364
0.848 3.207 1.912 2147
0.821 3.105 1.842 7333
0.854 3.233 1.914 1555
0.831 3.143 1.852 7534
0.779 2.947 1.743 832
0.830 3.141 1.839 7805
0.864 3.270 1.909 1370
0.831 3.146 1.829 8197
0.865 3.275 1.900 1724
0.833 3.151 1.820 7483
0.867 3.279 1.890 2128
0.843 3.189 1.829 6457
0.877 3.318 1.898 1891
0.848 3.208 1.827 7437
0.882 3.337 1.896 1728
0.854 3.233 1.828 6343
0.889 3.362 1.897 1416
0.868 3.285 1.844 8938
0.903 3.415 1.912 1960
0.871 3.297 1.837 11190
0.906 3.427 1.905 2633
0.873 3.302 1.828 10690
0.907 3.432 1.895 2593
0.874 3.307 1.818 9702
0.908 3.437 1.885 2189
0.875 3.311 1.808 6974
0.910 3.442 1.875 1824
0.900 3.405 1.843 5721
0.866 3.275 1.777 2822
0.903 3.417 1.837 7652
0.869 3.286 1.771 2559
0.903 3.415 1.823 12142
0.937 3.546 1.889 2115
0.902 3.413 1.810 15580
0.937 3.544 1.875 2352
0.903 3.417 1.799 15606
0.938 3.549 1.864 2847
0.904 3.422 1.789 12159
0.939 3.553 1.854 4090
0.906 3.427 1.779 7956
0.942 3.565 1.846 7208
0.944 3.570 1.836 9565
0.909 3.438 1.772 6080
0.950 3.596 1.835 10001
0.915 3.464 1.772 5135
0.953 3.607 1.828 9931
0.917 3.468 1.762 4320
0.947 3.584 1.804 7893
0.982 3.717 1.866 3962
0.958 3.624 1.810 5948
0.993 3.756 1.871 2665
0.981 3.712 1.838 6902
0.941 3.559 1.766 3169
0.986 3.731 1.833 7603
0.951 3.598 1.772 2733
0.989 3.743 1.825 7391
0.954 3.610 1.764 2822
0.991 3.748 1.814 4849
0.955 3.614 1.754 2096
0.990 3.745 1.800 3071
1.044 3.949 1.891 1529
1.015 3.841 1.829 3616
0.980 3.708 1.770 2145
1.020 3.860 1.824 4271
0.985 3.726 1.765 2139
1.022 3.865 1.812 5169
1.077 4.076 1.905 2293
1.023 3.870 1.801 5720
1.079 4.081 1.893 3108
1.041 3.938 1.817 5251
1.080 4.086 1.881 3721
1.081 4.091 1.869 4763
1.036 3.921 1.796 4191
1.083 4.096 1.856 4718
1.045 3.954 1.796 3474
1.050 3.973 1.790 4463
1.086 4.108 1.847 3378
1.087 4.113 1.835 4513
1.051 3.978 1.779 3758
1.088 4.117 1.823 5798
1.053 3.982 1.767 1854
1.090 4.122 1.810 4261
1.127 4.264 1.869 3638
1.132 4.284 1.862 4941
1.093 4.134 1.801 3049
1.139 4.310 1.858 4939
1.098 4.153 1.794 2746
1.138 4.307 1.842 5416
1.099 4.158 1.782 2098
1.138 4.305 1.826 6172
1.202 4.548 1.923 2768
1.143 4.324 1.819 4455
1.203 4.553 1.909 3695
1.207 4.565 1.898 4530
1.169 4.422 1.842 4167
1.210 4.577 1.887 3700
1.174 4.441 1.835 3614
1.175 4.446 1.822 2533
1.211 4.582 1.874 2454
1.212 4.587 1.860 3179
1.176 4.451 1.808 2239
1.214 4.592 1.846 5350
1.250 4.729 1.898 3185
1.242 4.698 1.870 6731
1.205 4.561 1.819 3220
1.239 4.688 1.851 8613
1.275 4.825 1.901 2211
1.240 4.693 1.837 9037
1.277 4.830 1.887 3001
1.251 4.734 1.836 6546
1.287 4.871 1.886 2091
1.258 4.760 1.830 5338
1.315 4.977 1.907 1458
1.254 4.743 1.808 4079
1.292 4.888 1.859 2813
1.299 4.915 1.852 4376
1.335 5.052 1.901 2724
1.306 4.941 1.845 4930
1.270 4.803 1.797 1908
1.315 4.975 1.840 4309
1.278 4.837 1.793 3200
1.320 4.994 1.830 4093
1.372 5.190 1.897 3986
1.373 5.195 1.882 6100
1.319 4.992 1.813 2960
1.386 5.244 1.881 4385
1.346 5.091 1.830 2290
1.387 5.249 1.865 3484
1.347 5.096 1.815 2245
1.418 5.363 1.886 3220
1.381 5.225 1.840 2734
1.428 5.405 1.881 4012
1.382 5.229 1.824 2104
1.432 5.417 1.868 3543
1.488 5.629 1.936 2230
1.452 5.495 1.875 3427
1.416 5.356 1.830 2762
1.425 5.390 1.824 3386
1.492 5.646 1.904 2472
1.492 5.644 1.885 2959
1.530 5.790 1.931 2701
1.497 5.663 1.873 2963
1.534 5.803 1.916 1748
1.554 5.881 1.921 2340
1.506 5.698 1.865 2310
1.523 5.761 1.866 2468
1.560 5.901 1.908 2290
1.582 5.987 1.914 2868
1.526 5.773 1.851 2070
1.578 5.969 1.890 2787
1.626 6.153 1.944 1607
1.626 6.151 1.924 1858
1.589 6.011 1.883 1514
1.639 6.200 1.918 1952
1.767 6.687 2.059 1700
1.703 6.441 1.967 3082
1.769 6.692 2.039 2936
1.700 6.432 1.944 4361
1.737 6.572 1.983 3347
1.740 6.585 1.966 4485
1.701 6.437 1.924 4225
1.742 6.590 1.946 5206
1.705 6.449 1.907 3695
1.776 6.721 1.960 4118
1.739 6.580 1.922 3825
1.778 6.726 1.940 5648
1.887 7.140 2.052 2974
1.889 7.146 2.031 5048
1.779 6.731 1.920 3371
1.890 7.151 2.009 5523
1.835 6.943 1.955 1671
1.891 7.156 1.988 4690
1.839 6.956 1.936 1814
1.983 7.503 2.054 2677
1.895 7.169 1.968 2401
1.983 7.501 2.030 3157
1.896 7.174 1.947 957
1.986 7.514 2.009 2136
2.069 7.826 2.087 2133
2.068 7.824 2.062 2860
1.999 7.564 1.998 2086
2.071 7.837 2.040 1460
2.152 8.143 2.115 1384
2.246 8.499 2.175 1337
2.148 8.126 2.085 1200
2.149 8.131 2.061 1552
2.204 8.340 2.110 1410
2.279 8.622 2.150 1651
2.241 8.480 2.117 1546
2.280 8.628 2.124 1891
2.243 8.486 2.091 1737
2.296 8.685 2.110 2225
2.252 8.521 2.073 1064
2.301 8.706 2.088 3669
2.263 8.564 2.056 1022
2.302 8.711 2.062 3944
2.459 9.303 2.193 1095
2.300 8.702 2.032 2787
2.468 9.338 2.171 1595
2.305 8.722 2.009 1957
2.472 9.351 2.145 1697
2.315 8.757 1.989 1909
2.479 9.380 2.122 1036
2.496 9.445 2.106 1971
2.538 9.603 2.139 1344
2.496 9.443 2.076 2476
2.542 9.616 2.112 2064
2.543 9.621 2.083 2035
2.495 9.441 2.046 1570
2.550 9.649 2.058 1628
2.590 9.800 2.088 1383
2.631 9.955 2.088 1426
2.701 10.219 2.140 1301
2.631 9.953 2.057 1525
2.669 10.096 2.085 1017
2.929 11.080 2.241 1118
2.674 10.117 2.057 996
0.577 2.184 0.539 1268
2.928 11.079 2.206 1151
0.578 2.185 0.533 2699
2.928 11.077 2.171 1018
0.578 2.186 0.526 3892
2.981 11.279 2.174 1204
0.576 2.180 0.519 3980
3.076 11.639 2.203 1142
0.574 2.174 0.511 3565
3.086 11.675 2.173 1145
0.577 2.182 0.506 3219
3.087 11.680 2.138 978
0.577 2.183 0.499 2626
3.376 12.774 2.286 929
0.575 2.177 0.492 1806
3.606 13.641 2.391 1159
0.578 2.185 0.486 1338
3.609 13.655 2.351 1037
0.578 2.186 0.480 1067
3.617 13.684 2.313 1043
3.618 13.690 2.272 959
0.357 1.352 0.212 826
0.357 1.352 0.208 962
0.358 1.353 0.204 1081
0.358 1.353 0.200 1230
0.358 1.353 0.196 1241
0.358 1.353 0.192 1185
0.358 1.353 0.188 1039
0.358 1.353 0.185 848
0.597 2.233 1.802 5706
0.598 2.237 1.795 11413
0.630 2.355 1.884 900
0.600 2.242 1.789 11413
0.631 2.360 1.877 1800
0.601 2.247 1.782 10249
0.632 2.365 1.870 4508
0.604 2.258 1.780 9205
0.635 2.376 1.868 6395
0.633 2.368 1.852 9165
0.602 2.250 1.764 5994
0.638 2.385 1.854 11026
0.606 2.267 1.767 4085
0.639 2.390 1.847 11026
0.607 2.271 1.760 4085
0.644 2.407 1.849 10322
0.612 2.288 1.762 4561
0.647 2.419 1.846 10593
0.615 2.299 1.760 5068
0.648 2.423 1.839 9165
0.616 2.304 1.753 4258
0.649 2.428 1.832 7736
0.617 2.308 1.746 3448
0.651 2.433 1.825 7652
0.619 2.313 1.740 2704
0.652 2.438 1.817 7568
0.620 2.317 1.733 1960
0.653 2.442 1.810 7568
0.621 2.322 1.726 1485
0.654 2.447 1.803 6380
0.687 2.568 1.887 1320
0.656 2.452 1.796 5182
0.688 2.573 1.879 1824
0.662 2.476 1.802 5138
0.694 2.597 1.885 1808
0.668 2.499 1.807 6336
0.701 2.621 1.890 2378
0.677 2.530 1.817 5744
0.709 2.651 1.900 1859
0.680 2.541 1.814 5586
0.712 2.663 1.896 1722
0.681 2.546 1.806 3995
0.713 2.668 1.888 1494
0.703 2.627 1.850 3624
0.670 2.505 1.769 3169
0.706 2.639 1.847 4675
0.670 2.503 1.757 2845
0.707 2.644 1.839 5842
0.669 2.501 1.746 2618
0.722 2.700 1.865 7109
0.689 2.577 1.785 3409
0.725 2.711 1.861 9105
0.692 2.588 1.781 4676
0.728 2.723 1.857 7403
0.695 2.599 1.778 5595
0.738 2.760 1.870 7994
0.700 2.617 1.778 6559
0.740 2.765 1.862 7685
0.701 2.622 1.771 4863
0.743 2.776 1.858 7438
0.704 2.633 1.767 3233
0.742 2.775 1.845 6007
0.705 2.637 1.759 2171
0.742 2.773 1.833 4697
0.775 2.897 1.910 1298
0.743 2.778 1.825 6208
0.776 2.902 1.902 1548
0.744 2.782 1.816 7718
0.778 2.907 1.893 1798
0.745 2.787 1.808 7030
0.779 2.912 1.885 2949
0.754 2.818 1.816 5214
0.787 2.944 1.892 2325
0.776 2.902 1.855 4364
0.737 2.757 1.768 2079
0.767 2.867 1.823 4130
0.801 2.993 1.898 3079
0.766 2.865 1.810 4995
0.800 2.991 1.885 3848
0.771 2.883 1.810 4722
0.805 3.010 1.884 3459
0.774 2.895 1.805 4716
0.813 3.041 1.891 3560
0.795 2.973 1.839 4562
0.761 2.846 1.765 3333
0.796 2.978 1.830 5747
0.762 2.851 1.757 2139
0.799 2.989 1.825 7414
0.833 3.116 1.898 2305
0.813 3.041 1.843 7834
0.779 2.913 1.771 1888
0.820 3.066 1.846 8405
0.786 2.938 1.773 2512
0.823 3.077 1.840 7635
0.857 3.205 1.912 2142
0.830 3.102 1.842 6402
0.864 3.230 1.914 1571
0.840 3.141 1.852 6828
0.788 2.945 1.743 785
0.839 3.139 1.839 8222
0.874 3.267 1.909 1420
0.841 3.143 1.829 9725
0.875 3.272 1.900 1721
0.844 3.155 1.824 9014
0.878 3.284 1.894 1749
0.849 3.173 1.822 7107
0.883 3.302 1.891 1904
0.857 3.205 1.827 7330
0.892 3.334 1.896 1658
0.860 3.217 1.821 6402
0.895 3.346 1.890 1759
0.878 3.283 1.844 8688
0.913 3.412 1.912 1648
0.881 3.294 1.837 11051
0.916 3.424 1.905 2267
0.882 3.299 1.828 10889
0.917 3.429 1.895 2275
0.884 3.304 1.818 9579
0.918 3.434 1.885 2003
0.887 3.316 1.811 6426
0.922 3.446 1.878 1227
0.912 3.409 1.847 5253
0.877 3.279 1.781 3633
0.913 3.414 1.837 6817
0.878 3.284 1.771 2905
0.913 3.412 1.823 10288
0.948 3.543 1.889 2333
0.912 3.410 1.810 13462
0.947 3.541 1.875 2648
0.913 3.415 1.799 13675
0.950 3.553 1.868 2804
0.913 3.412 1.786 11496
0.950 3.551 1.854 4260
0.951 3.556 1.843 8403
0.914 3.417 1.776 8343
0.954 3.567 1.836 11243
0.919 3.436 1.772 6014
0.959 3.586 1.832 10906
0.924 3.454 1.769 4813
0.964 3.605 1.828 10505
0.927 3.466 1.762 4347
0.958 3.581 1.804 8491
0.993 3.714 1.866 3694
0.965 3.607 1.803 5976
1.000 3.739 1.865 3148
0.990 3.702 1.834 6236
0.955 3.570 1.773 2933
0.995 3.721 1.830 6779
0.960 3.588 1.769 2397
0.998 3.733 1.822 6626
0.963 3.600 1.761 2407
1.002 3.745 1.814 5121
0.966 3.612 1.754 2315
1.003 3.749 1.803 4323
0.967 3.616 1.743 1349
1.013 3.789 1.807 4206
1.049 3.923 1.867 2145
1.017 3.801 1.799 5084
1.052 3.934 1.858 2105
1.031 3.855 1.809 4856
1.089 4.073 1.905 2251
1.055 3.944 1.835 5009
1.091 4.078 1.893 2997
1.052 3.935 1.817 5875
1.092 4.083 1.881 3171
1.091 4.081 1.866 4363
1.054 3.939 1.805 3930
1.093 4.086 1.853 5647
1.057 3.951 1.796 3415
1.062 3.970 1.790 4512
1.098 4.105 1.847 4196
1.099 4.109 1.835 4411
1.063 3.975 1.779 3801
1.100 4.114 1.823 5531
1.064 3.979 1.767 1858
1.102 4.119 1.810 4278
1.142 4.268 1.872 3480
1.128 4.216 1.836 5220
1.091 4.081 1.781 1371
1.129 4.221 1.823 4962
1.165 4.356 1.878 1526
1.151 4.304 1.842 5475
1.210 4.525 1.931 2162
1.151 4.302 1.826 6144
1.214 4.537 1.920 3036
1.158 4.328 1.822 4748
1.217 4.550 1.909 3523
1.182 4.419 1.842 4678
1.220 4.562 1.898 4102
1.185 4.430 1.832 4097
1.223 4.574 1.887 3160
1.190 4.450 1.824 2772
1.154 4.313 1.772 1965
1.222 4.569 1.855 2359
1.259 4.706 1.906 1979
1.225 4.581 1.844 4745
1.262 4.718 1.895 3903
1.255 4.694 1.870 5971
1.219 4.557 1.819 3666
1.253 4.684 1.851 7626
1.289 4.821 1.901 2228
1.254 4.689 1.837 8086
1.291 4.826 1.887 2956
1.267 4.737 1.838 6072
1.304 4.874 1.888 2240
1.280 4.785 1.840 4913
1.243 4.648 1.791 1864
1.268 4.740 1.808 3991
1.306 4.884 1.859 2880
1.313 4.911 1.852 4671
1.271 4.751 1.796 2859
1.319 4.930 1.842 5358
1.355 5.068 1.891 1867
1.330 4.971 1.840 4345
1.293 4.833 1.793 2235
1.335 4.990 1.830 4186
1.387 5.186 1.897 3916
1.388 5.191 1.882 5599
1.332 4.981 1.810 3204
1.390 5.196 1.866 4138
1.353 5.058 1.820 1779
1.403 5.245 1.865 3670
1.364 5.099 1.817 2405
1.400 5.235 1.845 3259
1.437 5.374 1.890 3037
1.444 5.400 1.881 4511
1.401 5.240 1.829 2100
1.448 5.413 1.868 3963
1.504 5.624 1.936 2462
1.467 5.483 1.872 3653
1.506 5.629 1.919 2506
1.442 5.393 1.826 3180
1.509 5.642 1.904 3074
1.512 5.654 1.890 3548
1.549 5.793 1.933 2592
1.513 5.659 1.873 3183
1.551 5.798 1.916 1722
1.534 5.737 1.878 3079
1.474 5.510 1.809 1746
1.538 5.749 1.863 2557
1.577 5.896 1.908 2002
1.590 5.945 1.903 2631
1.541 5.761 1.848 1820
1.595 5.965 1.890 2985
1.646 6.156 1.947 1876
1.646 6.154 1.926 2285
1.595 5.962 1.870 1519
1.653 6.181 1.914 2365
1.748 6.534 2.016 1605
1.749 6.540 1.997 2543
1.658 6.201 1.900 2446
1.719 6.427 1.944 3840
1.756 6.567 1.983 3368
1.720 6.432 1.924 4946
1.762 6.587 1.968 4072
1.763 6.592 1.948 4875
1.724 6.444 1.907 4499
1.760 6.582 1.924 4021
1.798 6.723 1.962 3778
1.795 6.713 1.938 5209
1.908 7.135 2.052 3241
1.910 7.140 2.031 5204
1.797 6.718 1.918 3101
1.911 7.146 2.009 5516
1.854 6.931 1.953 1527
1.913 7.151 1.988 4402
1.857 6.943 1.934 1646
2.005 7.497 2.054 2568
1.914 7.156 1.966 2332
2.005 7.495 2.030 3438
1.915 7.161 1.945 1109
2.006 7.501 2.007 2407
2.092 7.820 2.087 2208
2.091 7.818 2.062 2736
2.019 7.551 1.996 2093
2.174 8.129 2.113 1712
2.094 7.831 2.040 1301
2.174 8.127 2.087 1761
2.231 8.343 2.139 1458
2.229 8.334 2.110 1816
2.175 8.132 2.063 1622
2.304 8.615 2.150 1815
2.230 8.339 2.085 1782
2.308 8.628 2.126 2213
2.268 8.479 2.091 1645
2.323 8.686 2.112 2319
2.285 8.544 2.080 1170
2.327 8.699 2.088 3899
2.239 8.370 2.014 940
2.328 8.705 2.062 4065
2.488 9.303 2.194 1138
2.328 8.702 2.034 2762
2.496 9.331 2.171 1615
2.331 8.715 2.009 1805
2.501 9.352 2.146 1548
2.340 8.750 1.989 1804
2.507 9.372 2.122 1121
2.522 9.430 2.104 2050
2.568 9.603 2.140 1183
2.524 9.436 2.076 2491
2.570 9.608 2.112 2057
2.571 9.614 2.083 2172
2.523 9.434 2.046 1585
2.577 9.634 2.057 1700
2.794 10.445 2.219 1698
2.659 9.940 2.087 1438
2.795 10.451 2.188 1399
2.658 9.938 2.056 1711
2.799 10.464 2.158 961
2.704 10.109 2.057 1066
2.657 9.936 2.024 1042
2.991 11.183 2.227 1177
2.880 10.769 2.150 1029
3.075 11.497 2.251 1167
2.962 11.076 2.173 1039
2.962 11.074 2.138 1074
3.111 11.631 2.239 1067
3.038 11.358 2.155 1070
3.110 11.630 2.203 1051
0.583 2.179 0.512 1475
3.154 11.794 2.196 1012
0.583 2.180 0.506 1868
3.073 11.490 2.107 1002
0.583 2.181 0.499 2017
3.646 13.632 2.433 1058
0.584 2.182 0.493 1780
3.646 13.631 2.391 1278
0.584 2.183 0.486 1276
3.649 13.645 2.351 1012
3.657 13.673 2.313 1109
0.582 2.177 0.479 831
3.657 13.672 2.271 1062
0.361 1.351 0.220 787
0.361 1.351 0.216 1715
0.361 1.351 0.212 2941
0.361 1.351 0.208 3639
0.361 1.352 0.204 4295
0.362 1.352 0.200 5159
0.362 1.352 0.196 5321
0.362 1.352 0.192 5152
0.362 1.352 0.188 4535
0.362 1.352 0.185 3635
0.362 1.352 0.181 3005
0.362 1.353 0.177 2103
0.364 1.360 0.173 1259
0.362 1.353 0.169 848
0.600 2.232 1.802 5763
0.602 2.237 1.795 11527
0.633 2.354 1.884 833
0.603 2.241 1.789 11527
0.635 2.359 1.877 1666
0.604 2.246 1.782 10380
0.636 2.364 1.870 4190
0.607 2.257 1.780 9404
0.639 2.375 1.868 5968
0.637 2.367 1.852 8606
0.605 2.249 1.764 6089
0.641 2.384 1.854 10542
0.610 2.266 1.767 4317
0.643 2.389 1.847 10542
0.611 2.271 1.760 4317
0.647 2.407 1.849 9976
0.615 2.288 1.762 4481
0.650 2.418 1.846 10296
0.618 2.298 1.760 4588
0.652 2.422 1.839 8980
0.620 2.303 1.753 3997
0.653 2.427 1.832 7663
0.621 2.308 1.746 3406
0.654 2.432 1.825 7540
0.622 2.312 1.740 2661
0.656 2.437 1.817 7416
0.623 2.317 1.733 1917
0.657 2.441 1.810 7416
0.624 2.321 1.726 1432
0.658 2.446 1.803 6264
0.690 2.567 1.887 1363
0.659 2.451 1.796 5132
0.692 2.572 1.879 1896
0.669 2.487 1.810 5594
0.702 2.608 1.893 1690
0.674 2.505 1.812 7097
0.706 2.626 1.894 2160
0.679 2.522 1.813 6233
0.711 2.644 1.895 2030
0.683 2.540 1.814 5906
0.716 2.662 1.896 1571
0.685 2.545 1.806 4136
0.717 2.667 1.888 1332
0.701 2.607 1.837 3302
0.668 2.485 1.756 2693
0.708 2.631 1.842 4381
0.673 2.502 1.757 2772
0.711 2.642 1.839 5659
0.674 2.507 1.750 2623
0.728 2.705 1.869 6857
0.695 2.583 1.789 3536
0.729 2.710 1.861 8784
0.696 2.587 1.781 4512
0.734 2.728 1.861 7290
0.701 2.605 1.782 5708
0.742 2.759 1.870 8119
0.704 2.616 1.778 6406
0.744 2.764 1.862 7677
0.705 2.621 1.771 4754
0.747 2.775 1.858 7264
0.708 2.632 1.767 3185
0.746 2.774 1.845 5839
0.709 2.636 1.759 2135
0.737 2.739 1.813 4678
0.770 2.864 1.890 2304
0.747 2.777 1.825 6354
0.780 2.901 1.902 1442
0.748 2.781 1.816 8122
0.782 2.906 1.893 1687
0.749 2.786 1.808 7344
0.783 2.911 1.885 2858
0.758 2.817 1.816 5501
0.792 2.942 1.892 2147
0.780 2.901 1.855 4313
0.747 2.776 1.780 2147
0.771 2.866 1.823 4105
0.805 2.992 1.898 2750
0.771 2.864 1.810 5052
0.804 2.990 1.885 3450
0.775 2.882 1.810 4852
0.809 3.009 1.884 3052
0.778 2.894 1.805 4959
0.818 3.040 1.891 3232
0.799 2.972 1.839 4598
0.765 2.845 1.765 3535
0.801 2.976 1.830 5882
0.767 2.850 1.757 2274
0.804 2.988 1.825 7544
0.838 3.115 1.898 2127
0.816 3.033 1.839 7753
0.782 2.906 1.767 1943
0.824 3.064 1.846 8167
0.790 2.937 1.773 2682
0.829 3.083 1.844 7193
0.795 2.955 1.772 2270
0.834 3.101 1.842 5972
0.869 3.229 1.914 1544
0.845 3.139 1.852 6425
0.844 3.137 1.839 8236
0.879 3.266 1.909 1376
0.845 3.142 1.829 10074
0.880 3.271 1.900 1633
0.848 3.154 1.824 9418
0.883 3.282 1.894 1597
0.853 3.172 1.822 7384
0.888 3.301 1.891 1712
0.862 3.204 1.827 7298
0.897 3.333 1.896 1565
0.865 3.215 1.821 6411
0.900 3.345 1.890 1754
0.883 3.282 1.844 8420
0.918 3.411 1.912 1453
0.886 3.293 1.837 10737
0.921 3.423 1.905 2020
0.887 3.298 1.828 10746
0.922 3.428 1.895 2040
0.888 3.303 1.818 9331
0.923 3.433 1.885 1854
0.892 3.314 1.811 6074
0.927 3.444 1.878 1173
0.915 3.401 1.843 5176
0.880 3.271 1.777 3689
0.918 3.413 1.837 6272
0.883 3.282 1.771 3075
0.918 3.411 1.823 9121
0.953 3.542 1.889 2252
0.917 3.409 1.810 12011
0.952 3.540 1.875 2572
0.918 3.413 1.799 12294
0.957 3.558 1.871 2578
0.918 3.411 1.786 10863
0.955 3.549 1.854 4241
0.956 3.554 1.843 8952
0.919 3.416 1.776 8434
0.957 3.559 1.832 11817
0.922 3.427 1.769 5780
0.964 3.584 1.832 11125
0.929 3.453 1.769 4633
0.969 3.603 1.828 10424
0.932 3.464 1.762 4331
0.963 3.580 1.804 8438
0.999 3.712 1.866 3619
0.968 3.599 1.800 5850
1.004 3.731 1.862 3324
0.996 3.701 1.834 6038
0.960 3.568 1.773 2861
1.001 3.720 1.830 6626
0.965 3.587 1.769 2365
1.002 3.724 1.819 6484
0.966 3.592 1.758 2051
1.005 3.736 1.811 5159
0.969 3.603 1.750 2133
1.010 3.755 1.806 4578
1.046 3.888 1.866 1504
1.017 3.781 1.804 4103
1.053 3.914 1.864 2713
1.022 3.799 1.799 4358
1.058 3.933 1.858 2444
1.037 3.853 1.809 4699
1.073 3.987 1.868 2173
1.061 3.943 1.835 5688
1.097 4.076 1.893 2871
1.058 3.933 1.817 6592
1.096 4.074 1.878 3007
1.095 4.072 1.863 4446
1.057 3.931 1.802 4268
1.099 4.084 1.853 6273
1.063 3.950 1.796 3511
1.102 4.096 1.844 5123
1.066 3.961 1.788 4375
1.107 4.115 1.838 4495
1.071 3.980 1.782 3959
1.106 4.113 1.823 5170
1.070 3.978 1.767 1873
1.108 4.117 1.810 3979
1.150 4.274 1.875 3171
1.134 4.214 1.836 5316
1.097 4.079 1.781 1107
1.135 4.219 1.823 5179
1.171 4.355 1.878 1449
1.157 4.302 1.842 5343
1.217 4.523 1.931 2239
1.157 4.300 1.826 6321
1.218 4.528 1.917 3090
1.164 4.326 1.822 5037
1.223 4.548 1.909 3270
1.188 4.417 1.842 4826
1.227 4.560 1.898 3709
1.191 4.429 1.832 4169
1.230 4.572 1.887 2846
1.198 4.455 1.827 2716
1.162 4.319 1.775 1998
1.248 4.639 1.882 2635
1.202 4.467 1.816 1877
1.232 4.579 1.844 4299
1.269 4.716 1.895 3799
1.235 4.591 1.833 5341
1.272 4.728 1.884 4633
1.260 4.683 1.851 6701
1.296 4.819 1.901 2274
1.261 4.687 1.837 7408
1.298 4.824 1.887 2962
1.274 4.735 1.838 5919
1.311 4.872 1.888 2273
1.287 4.784 1.840 4528
1.250 4.646 1.791 1789
1.275 4.738 1.808 3867
1.311 4.875 1.856 3071
1.321 4.909 1.852 4504
1.358 5.046 1.901 2971
1.328 4.935 1.845 5167
1.365 5.073 1.893 1819
1.335 4.962 1.838 4155
1.372 5.100 1.885 2061
1.340 4.981 1.828 4096
1.395 5.184 1.897 3671
1.398 5.197 1.884 5072
1.339 4.979 1.810 3490
1.397 5.194 1.866 3979
1.360 5.056 1.820 1855
1.408 5.235 1.863 3700
1.371 5.097 1.817 2514
1.408 5.233 1.845 3379
1.449 5.386 1.895 2838
1.452 5.398 1.881 4487
1.409 5.238 1.829 2104
1.456 5.410 1.868 3942
1.510 5.615 1.934 2515
1.473 5.474 1.870 3523
1.514 5.627 1.919 2458
1.519 5.647 1.907 3155
1.454 5.405 1.831 2945
1.520 5.652 1.890 3855
1.558 5.791 1.933 2489
1.522 5.657 1.873 3270
1.559 5.796 1.916 1681
1.543 5.735 1.878 3158
1.598 5.940 1.941 1669
1.546 5.747 1.863 2316
1.588 5.901 1.910 1871
1.599 5.943 1.903 2558
1.551 5.767 1.851 1449
1.602 5.955 1.888 2905
1.655 6.154 1.947 1948
1.655 6.151 1.926 2560
1.603 5.960 1.870 1571
1.660 6.171 1.912 2609
1.757 6.532 2.016 1770
1.761 6.544 1.999 2963
1.667 6.198 1.900 2234
1.764 6.557 1.981 3541
1.726 6.417 1.941 3374
1.730 6.429 1.924 4668
1.771 6.584 1.968 4190
1.773 6.589 1.948 4993
1.733 6.442 1.907 4279
1.770 6.580 1.924 4179
1.808 6.720 1.962 3392
1.805 6.710 1.938 4813
1.919 7.132 2.052 3163
1.920 7.137 2.031 4934
1.807 6.716 1.918 2981
1.922 7.143 2.009 5240
1.838 6.832 1.927 1547
1.923 7.148 1.988 4137
1.865 6.933 1.932 1617
2.016 7.495 2.054 2455
1.922 7.146 1.965 2256
2.016 7.492 2.030 3394
1.924 7.151 1.943 1225
2.017 7.498 2.007 2461
2.103 7.817 2.087 2125
2.102 7.815 2.062 2553
2.030 7.548 1.996 1925
2.184 8.118 2.111 1839
2.110 7.843 2.044 1294
2.185 8.124 2.087 2002
2.242 8.332 2.137 1546
2.241 8.330 2.110 1938
2.187 8.129 2.063 1627
2.243 8.336 2.085 1908
2.317 8.612 2.150 1790
2.320 8.625 2.126 2255
2.278 8.468 2.090 1548
2.336 8.683 2.112 2272
2.298 8.541 2.080 1230
2.339 8.696 2.088 3743
2.251 8.367 2.014 1061
2.341 8.701 2.062 3901
2.441 9.075 2.145 1201
2.340 8.699 2.034 2676
2.509 9.327 2.171 1645
2.344 8.712 2.009 1715
2.513 9.340 2.145 1525
2.353 8.747 1.989 1694
2.518 9.361 2.120 1102
2.536 9.427 2.104 1951
2.635 9.794 2.181 1192
2.535 9.425 2.074 2381
2.584 9.605 2.112 2102
2.585 9.610 2.083 2245
2.537 9.430 2.046 1536
2.811 10.449 2.221 1832
2.589 9.623 2.055 1616
2.810 10.447 2.188 1496
2.673 9.936 2.087 1468
2.672 9.934 2.056 1743
2.814 10.460 2.158 1028
2.718 10.105 2.057 1116
2.670 9.925 2.023 1075
3.007 11.178 2.227 1107
2.896 10.765 2.150 1072
3.092 11.493 2.251 1410
2.976 11.064 2.171 1005
3.091 11.491 2.215 1242
3.132 11.642 2.242 1026
3.125 11.618 2.202 991
2.975 11.060 2.102 981
3.094 11.503 2.145 909
3.139 11.669 2.174 831
3.092 11.493 2.108 1071
3.364 12.504 2.282 816
3.664 13.619 2.432 1013
3.410 12.676 2.272 977
3.665 13.625 2.391 1262
3.408 12.667 2.232 1046
3.669 13.639 2.351 1007
3.507 13.035 2.253 862
3.677 13.668 2.313 1135
3.506 13.033 2.212 837
3.677 13.667 2.271 1061
0.366 1.359 0.201 987
0.366 1.359 0.197 1237
0.366 1.359 0.193 1429
0.366 1.359 0.189 1706
0.366 1.359 0.185 1757
0.364 1.352 0.181 1731
0.366 1.360 0.177 1634
0.366 1.360 0.173 1367
0.366 1.360 0.169 1143
0.366 1.360 0.165 819
0.382 1.420 0.083 811
0.382 1.420 0.079 911
0.382 1.420 0.075 968
0.382 1.420 0.071 1027
0.382 1.419 0.067 1015
0.382 1.419 0.063 1003
0.382 1.419 0.059 912
0.382 1.419 0.055 822
0.607 2.230 1.802 5807
0.608 2.235 1.795 11614
0.640 2.352 1.884 767
0.610 2.239 1.789 11614
0.642 2.357 1.877 1535
0.613 2.250 1.787 10541
0.645 2.368 1.875 3427
0.614 2.255 1.780 9709
0.646 2.373 1.868 5547
0.646 2.371 1.856 8160
0.614 2.253 1.769 6845
0.649 2.382 1.854 10269
0.616 2.264 1.767 4879
0.650 2.387 1.847 10269
0.618 2.269 1.760 4879
0.655 2.405 1.849 9754
0.622 2.286 1.762 4872
0.658 2.416 1.846 10053
0.625 2.297 1.760 4479
0.659 2.420 1.839 8822
0.627 2.301 1.753 4098
0.659 2.419 1.827 7605
0.626 2.299 1.742 2871
0.662 2.430 1.825 7545
0.629 2.310 1.740 2848
0.663 2.435 1.817 7499
0.630 2.315 1.733 1980
0.664 2.439 1.810 7499
0.631 2.319 1.726 1449
0.666 2.444 1.803 6362
0.698 2.565 1.887 1466
0.669 2.455 1.800 5350
0.701 2.576 1.884 1808
0.680 2.498 1.819 6888
0.713 2.619 1.902 1446
0.681 2.503 1.812 8760
0.714 2.624 1.894 1960
0.684 2.514 1.809 7536
0.718 2.635 1.891 1981
0.689 2.531 1.810 6835
0.722 2.653 1.892 1644
0.692 2.542 1.806 4872
0.736 2.703 1.914 1172
0.683 2.509 1.773 3316
0.716 2.631 1.855 2630
0.714 2.623 1.838 4124
0.681 2.500 1.757 3040
0.717 2.634 1.835 5493
0.682 2.505 1.750 2985
0.736 2.703 1.869 6696
0.703 2.580 1.789 3587
0.737 2.708 1.861 8420
0.704 2.585 1.781 4474
0.748 2.745 1.874 7609
0.710 2.609 1.786 5933
0.751 2.757 1.870 8752
0.712 2.614 1.778 6518
0.752 2.762 1.862 8176
0.713 2.618 1.771 4873
0.753 2.766 1.853 7600
0.716 2.629 1.767 3337
0.753 2.765 1.841 6099
0.717 2.634 1.759 2198
0.747 2.743 1.817 5320
0.781 2.868 1.894 1878
0.755 2.774 1.825 6784
0.789 2.899 1.902 1370
0.757 2.779 1.816 8810
0.791 2.904 1.893 1649
0.758 2.784 1.808 7821
0.792 2.909 1.885 2880
0.765 2.808 1.812 6003
0.799 2.933 1.888 2387
0.789 2.899 1.855 4447
0.755 2.773 1.780 2261
0.780 2.864 1.823 4205
0.814 2.990 1.898 2228
0.777 2.855 1.807 5367
0.812 2.981 1.881 2808
0.784 2.880 1.810 5338
0.819 3.006 1.884 2419
0.787 2.891 1.805 5744
0.829 3.044 1.895 2784
0.787 2.889 1.793 5147
0.830 3.049 1.886 3425
0.810 2.974 1.830 6181
0.775 2.847 1.757 2575
0.813 2.985 1.825 7856
0.847 3.112 1.898 1899
0.823 3.024 1.836 7991
0.789 2.896 1.763 2194
0.832 3.055 1.842 7766
0.797 2.928 1.770 2896
0.839 3.080 1.844 6141
0.804 2.953 1.772 2585
0.844 3.098 1.842 5226
0.878 3.226 1.914 1545
0.852 3.130 1.848 5869
0.854 3.135 1.839 8569
0.888 3.263 1.909 1383
0.855 3.140 1.829 11268
0.890 3.268 1.900 1624
0.858 3.151 1.824 10710
0.893 3.280 1.894 1500
0.865 3.176 1.825 8160
0.900 3.305 1.895 1432
0.872 3.201 1.827 7780
0.907 3.330 1.896 1498
0.875 3.213 1.821 6991
0.910 3.342 1.890 1856
0.893 3.279 1.844 8093
0.858 3.149 1.775 1653
0.896 3.290 1.837 10427
0.931 3.420 1.905 1693
0.897 3.295 1.828 10593
0.933 3.425 1.895 1724
0.900 3.307 1.821 8982
0.936 3.437 1.888 1216
0.922 3.387 1.850 5622
0.887 3.257 1.783 4430
0.923 3.392 1.840 5710
0.888 3.261 1.774 4363
0.929 3.410 1.837 5990
0.893 3.280 1.771 3518
0.928 3.408 1.823 7331
0.964 3.539 1.889 2099
0.927 3.406 1.810 9416
0.965 3.544 1.878 2538
0.929 3.411 1.799 10129
0.968 3.555 1.871 2571
0.928 3.408 1.786 10146
0.966 3.546 1.854 4504
0.967 3.551 1.843 9594
0.929 3.413 1.776 8518
0.970 3.563 1.836 12465
0.932 3.424 1.769 5658
0.975 3.582 1.832 11651
0.939 3.450 1.769 4445
0.980 3.600 1.828 10863
0.942 3.461 1.762 4483
0.974 3.577 1.804 8536
1.010 3.709 1.866 3484
0.977 3.589 1.796 5904
1.013 3.721 1.858 3302
1.007 3.698 1.834 6009
0.971 3.566 1.773 2966
1.010 3.710 1.827 6303
0.974 3.577 1.765 2232
1.013 3.721 1.819 5900
0.977 3.589 1.758 2051
1.018 3.740 1.814 5526
0.982 3.607 1.754 2548
1.020 3.745 1.803 5761
1.056 3.878 1.863 1903
1.025 3.763 1.798 5125
1.061 3.897 1.857 3173
1.032 3.789 1.796 5388
1.068 3.923 1.855 2957
1.045 3.836 1.803 4910
1.081 3.970 1.862 3165
1.076 3.953 1.841 6355
1.040 3.820 1.782 3187
1.070 3.930 1.817 6940
1.107 4.064 1.875 2965
1.104 4.055 1.857 4820
1.068 3.921 1.799 4225
1.109 4.074 1.850 6985
1.073 3.939 1.793 2945
1.114 4.093 1.844 6156
1.078 3.958 1.788 3854
1.120 4.112 1.838 4842
1.083 3.977 1.782 3914
1.119 4.109 1.823 4975
1.082 3.974 1.767 1869
1.143 4.199 1.845 3867
1.107 4.064 1.790 1533
1.147 4.211 1.836 5607
1.183 4.346 1.891 1192
1.148 4.216 1.823 5802
1.185 4.351 1.878 1749
1.167 4.285 1.836 5301
1.231 4.520 1.931 2199
1.170 4.297 1.826 6285
1.207 4.432 1.880 3122
1.198 4.401 1.853 5493
1.161 4.266 1.799 3898
1.202 4.413 1.842 4938
1.241 4.556 1.898 3354
1.205 4.425 1.832 4319
1.244 4.568 1.887 2575
1.191 4.373 1.797 3309
1.261 4.630 1.896 3065
1.262 4.635 1.882 4327
1.192 4.377 1.784 1879
1.244 4.568 1.841 4295
1.281 4.705 1.892 3487
1.249 4.588 1.833 4865
1.290 4.739 1.889 4442
1.274 4.679 1.851 5729
1.311 4.815 1.901 2384
1.275 4.683 1.837 6486
1.313 4.820 1.887 3016
1.288 4.732 1.838 5487
1.326 4.868 1.888 2339
1.313 4.823 1.855 4430
1.276 4.686 1.806 2229
1.287 4.727 1.805 3290
1.324 4.864 1.854 3212
1.336 4.905 1.852 4133
1.373 5.042 1.901 2774
1.341 4.924 1.842 4571
1.378 5.062 1.891 1796
1.352 4.965 1.840 3473
1.401 5.146 1.903 1991
1.359 4.992 1.833 3930
1.410 5.180 1.897 3304
1.414 5.192 1.884 4303
1.355 4.975 1.810 3852
1.415 5.197 1.869 3583
1.356 4.979 1.796 2463
1.422 5.224 1.861 3802
1.385 5.086 1.815 2342
1.426 5.236 1.847 3550
1.465 5.382 1.895 2631
1.469 5.394 1.881 4293
1.425 5.233 1.829 1961
1.472 5.406 1.868 3863
1.530 5.617 1.936 2389
1.483 5.447 1.863 3532
1.531 5.623 1.919 2258
1.538 5.649 1.909 3291
1.483 5.445 1.844 3145
1.540 5.654 1.892 4243
1.577 5.793 1.936 2129
1.541 5.659 1.875 3451
1.615 5.930 1.959 1695
1.560 5.730 1.878 3322
1.614 5.928 1.939 1908
1.564 5.742 1.863 2342
1.609 5.911 1.915 1893
1.617 5.938 1.903 2532
1.573 5.776 1.855 1449
1.620 5.950 1.888 2750
1.674 6.148 1.947 2275
1.674 6.146 1.926 2970
1.624 5.962 1.872 1736
1.677 6.159 1.910 3009
1.777 6.526 2.016 2071
1.781 6.539 1.999 3618
1.680 6.171 1.893 2470
1.784 6.552 1.981 3637
1.746 6.412 1.941 2685
1.749 6.424 1.924 4383
1.791 6.579 1.968 4234
1.793 6.584 1.948 4938
1.751 6.429 1.905 4270
1.790 6.574 1.924 4167
1.828 6.715 1.962 2718
1.824 6.698 1.936 3907
1.785 6.557 1.898 3637
1.942 7.132 2.031 4149
1.853 6.806 1.944 2764
1.941 7.129 2.007 4459
1.853 6.804 1.921 1802
1.943 7.135 1.986 3506
1.886 6.927 1.932 1606
2.037 7.481 2.052 2472
1.944 7.140 1.965 2163
2.038 7.486 2.030 3253
1.941 7.130 1.939 1514
2.040 7.492 2.007 2464
2.127 7.811 2.087 2102
2.126 7.809 2.062 2508
2.053 7.541 1.996 1721
2.209 8.112 2.111 1937
2.130 7.822 2.040 1364
2.210 8.117 2.087 2175
2.265 8.318 2.136 1686
2.268 8.331 2.112 2119
2.327 8.547 2.164 1439
2.270 8.336 2.087 2164
2.345 8.612 2.152 1618
2.349 8.625 2.128 2204
2.304 8.461 2.090 1280
2.364 8.683 2.114 2270
2.326 8.541 2.081 1351
2.368 8.696 2.089 3370
2.276 8.360 2.014 1196
2.369 8.701 2.063 3452
2.469 9.067 2.145 1368
2.367 8.692 2.034 2545
2.536 9.312 2.170 1632
2.370 8.705 2.009 1541
2.539 9.325 2.143 1452
2.380 8.740 1.989 1445
2.543 9.338 2.117 1178
2.563 9.411 2.103 1797
2.467 9.059 2.029 1192
2.562 9.409 2.073 2144
2.613 9.597 2.112 2121
2.615 9.602 2.083 2310
2.564 9.415 2.045 1453
2.843 10.440 2.221 1926
2.618 9.615 2.055 1606
2.701 9.921 2.086 1518
2.842 10.438 2.188 1493
2.701 9.918 2.054 1740
2.619 9.618 1.996 1160
2.847 10.457 2.126 1031
2.749 10.097 2.057 1009
2.929 10.756 2.150 1224
3.041 11.169 2.227 1154
3.125 11.476 2.249 1625
2.859 10.498 2.069 1035
3.124 11.474 2.213 1552
3.014 11.068 2.140 1091
3.011 11.059 2.103 1076
3.157 11.593 2.199 956
3.132 11.501 2.147 908
3.185 11.697 2.181 811
3.127 11.484 2.108 1155
3.558 13.066 2.381 898
3.449 12.665 2.272 1101
3.707 13.615 2.433 1067
3.707 13.614 2.391 1345
3.448 12.664 2.233 1196
3.711 13.628 2.351 988
3.450 12.670 2.195 866
3.721 13.664 2.315 1119
3.770 13.846 2.344 857
3.718 13.655 2.271 1101
3.763 13.821 2.297 876
0.366 1.343 0.192 796
0.368 1.351 0.188 956
0.368 1.351 0.185 1017
0.368 1.351 0.181 945
0.612 2.229 1.802 5671
0.614 2.233 1.795 11343
0.615 2.238 1.789 11343
0.647 2.355 1.877 1411
0.618 2.249 1.787 10465
0.650 2.366 1.875 3116
0.619 2.253 1.780 9812
0.651 2.371 1.868 5045
0.627 2.283 1.792 8583
0.660 2.401 1.879 4641
0.654 2.381 1.854 9664
0.622 2.263 1.767 5326
0.655 2.386 1.847 9664
0.623 2.267 1.760 5326
0.660 2.403 1.849 9187
0.628 2.284 1.762 5185
0.663 2.414 1.846 9415
0.631 2.295 1.760 4361
0.663 2.413 1.834 8311
0.630 2.293 1.749 3214
0.664 2.417 1.827 7257
0.631 2.298 1.742 3087
0.667 2.428 1.825 7338
0.634 2.309 1.740 2930
0.668 2.433 1.817 7479
0.636 2.313 1.733 1943
0.670 2.438 1.810 7479
0.637 2.318 1.726 1364
0.671 2.443 1.803 6429
0.704 2.563 1.887 1444
0.685 2.492 1.826 5634
0.644 2.346 1.725 833
0.686 2.496 1.819 7709
0.719 2.617 1.902 1208
0.687 2.501 1.812 9711
0.720 2.622 1.894 1630
0.690 2.512 1.809 8265
0.724 2.634 1.891 1605
0.695 2.530 1.810 7318
0.728 2.651 1.892 1310
0.696 2.534 1.802 5393
0.742 2.701 1.914 1158
0.701 2.552 1.803 3599
0.743 2.706 1.906 1831
0.717 2.608 1.830 4261
0.683 2.486 1.749 2663
0.721 2.626 1.830 5702
0.688 2.503 1.750 3113
0.742 2.702 1.869 6293
0.708 2.579 1.789 3765
0.745 2.713 1.865 7830
0.712 2.590 1.785 4696
0.754 2.744 1.874 7511
0.718 2.614 1.790 5950
0.757 2.755 1.870 8730
0.716 2.606 1.774 6492
0.758 2.760 1.862 8197
0.719 2.617 1.771 4846
0.760 2.765 1.853 7665
0.724 2.634 1.771 3378
0.759 2.763 1.841 6290
0.725 2.639 1.763 2167
0.753 2.742 1.817 5825
0.787 2.866 1.894 1826
0.760 2.766 1.821 7076
0.794 2.891 1.898 1640
0.763 2.777 1.816 9132
0.797 2.902 1.893 1727
0.764 2.782 1.808 8098
0.799 2.907 1.885 2928
0.771 2.806 1.812 6261
0.805 2.932 1.888 2316
0.796 2.897 1.855 4419
0.761 2.772 1.780 2561
0.775 2.822 1.799 4462
0.810 2.948 1.874 2477
0.777 2.827 1.791 5848
0.811 2.953 1.866 2530
0.791 2.878 1.810 5877
0.825 3.004 1.884 1877
0.792 2.883 1.801 6569
0.838 3.049 1.899 2475
0.793 2.888 1.793 5783
0.837 3.047 1.886 3260
0.817 2.972 1.830 6100
0.782 2.846 1.757 2647
0.820 2.984 1.825 7713
0.855 3.110 1.898 1752
0.830 3.022 1.836 8033
0.795 2.895 1.763 2345
0.835 3.040 1.834 7244
0.800 2.913 1.762 2747
0.844 3.071 1.840 5141
0.809 2.944 1.768 2498
0.851 3.096 1.842 4655
0.886 3.224 1.914 1475
0.858 3.121 1.844 5586
0.893 3.249 1.915 901
0.861 3.133 1.839 8578
0.896 3.261 1.909 1311
0.864 3.144 1.833 11737
0.899 3.273 1.903 1479
0.865 3.149 1.824 11255
0.900 3.278 1.894 1380
0.872 3.174 1.825 8569
0.907 3.303 1.895 1210
0.879 3.199 1.827 7787
0.914 3.328 1.896 1308
0.882 3.211 1.821 7247
0.918 3.340 1.890 1725
0.898 3.270 1.840 7490
0.863 3.141 1.772 1631
0.905 3.295 1.841 9806
0.870 3.166 1.773 2002
0.907 3.300 1.831 10179
0.871 3.170 1.764 1353
0.906 3.298 1.818 8515
0.942 3.428 1.885 1314
0.930 3.385 1.850 5369
0.894 3.255 1.783 4998
0.931 3.389 1.840 5493
0.895 3.259 1.774 4799
0.936 3.408 1.837 5389
0.899 3.271 1.767 3664
0.934 3.399 1.820 5766
0.970 3.530 1.885 1790
0.935 3.404 1.810 7056
0.971 3.534 1.875 2141
0.936 3.408 1.799 8109
0.974 3.546 1.868 2316
0.936 3.406 1.786 9415
0.974 3.544 1.854 4677
0.975 3.549 1.843 9572
0.937 3.411 1.776 8561
0.978 3.561 1.836 12159
0.940 3.422 1.769 5273
0.983 3.579 1.832 11288
0.947 3.448 1.769 3968
0.988 3.598 1.828 10543
0.950 3.459 1.762 4438
0.982 3.575 1.804 8387
1.018 3.707 1.866 3485
0.985 3.586 1.796 5989
1.022 3.719 1.858 3393
1.015 3.696 1.834 5939
0.979 3.563 1.773 3130
1.019 3.707 1.827 6172
0.982 3.575 1.765 2452
1.020 3.712 1.815 5501
0.983 3.579 1.755 1819
1.029 3.745 1.817 5622
0.992 3.612 1.757 2967
1.028 3.742 1.803 6061
1.065 3.875 1.863 2173
1.035 3.768 1.801 5189
1.072 3.901 1.861 3320
1.042 3.794 1.799 5299
1.079 3.927 1.858 3055
1.051 3.827 1.800 5351
1.088 3.960 1.859 3631
1.085 3.951 1.841 6505
1.049 3.817 1.782 3985
1.081 3.935 1.820 6627
1.118 4.068 1.878 3143
1.109 4.038 1.850 5673
1.073 3.904 1.793 3307
1.118 4.071 1.850 7415
1.082 3.937 1.793 2692
1.124 4.090 1.844 6659
1.087 3.956 1.788 3702
1.127 4.102 1.835 4841
1.090 3.967 1.779 3764
1.128 4.107 1.823 4675
1.091 3.972 1.767 1875
1.153 4.196 1.845 3704
1.116 4.062 1.790 2007
1.156 4.208 1.836 5380
1.193 4.343 1.891 1382
1.159 4.220 1.826 6033
1.197 4.355 1.881 1842
1.174 4.275 1.833 5326
1.212 4.410 1.888 2098
1.182 4.301 1.829 5970
1.219 4.436 1.883 2943
1.189 4.327 1.825 5498
1.152 4.192 1.771 3667
1.212 4.410 1.842 4950
1.251 4.553 1.898 2922
1.215 4.422 1.832 4606
1.268 4.615 1.907 2400
1.273 4.635 1.898 3865
1.201 4.370 1.797 3328
1.275 4.640 1.885 5016
1.237 4.503 1.833 2052
1.252 4.558 1.838 4031
1.300 4.731 1.903 3141
1.305 4.750 1.894 4395
1.262 4.592 1.835 3853
1.308 4.762 1.883 5246
1.271 4.625 1.832 3906
1.286 4.681 1.837 5614
1.323 4.817 1.887 2889
1.319 4.801 1.865 5000
1.281 4.664 1.815 2340
1.324 4.820 1.855 4488
1.287 4.683 1.806 1833
1.335 4.861 1.854 3414
1.296 4.716 1.802 2959
1.349 4.909 1.855 4409
1.301 4.736 1.793 2423
1.352 4.921 1.842 4629
1.312 4.776 1.792 1774
1.357 4.940 1.833 3395
1.411 5.136 1.900 1804
1.371 4.988 1.833 4069
1.422 5.177 1.897 2729
1.368 4.979 1.813 4171
1.426 5.189 1.884 3446
1.427 5.194 1.869 3126
1.367 4.976 1.796 2788
1.434 5.221 1.861 3835
1.396 5.083 1.815 2249
1.438 5.233 1.847 3609
1.478 5.378 1.895 2504
1.481 5.390 1.881 4042
1.537 5.594 1.948 1968
1.484 5.403 1.868 3726
1.540 5.607 1.934 2378
1.496 5.444 1.863 3554
1.544 5.619 1.919 1872
1.499 5.456 1.849 3438
1.553 5.653 1.911 3123
1.555 5.658 1.894 4257
1.504 5.475 1.837 2304
1.554 5.656 1.875 3468
1.628 5.926 1.959 1669
1.573 5.727 1.878 3134
1.626 5.917 1.937 1949
1.577 5.739 1.863 2174
1.623 5.907 1.915 1873
1.630 5.934 1.903 2481
1.588 5.780 1.857 1491
1.686 6.137 1.944 2733
1.634 5.946 1.888 2657
1.688 6.142 1.926 3638
1.645 5.988 1.881 1830
1.691 6.155 1.910 3568
1.792 6.522 2.016 1934
1.795 6.535 1.999 3709
1.692 6.160 1.891 2897
1.799 6.548 1.981 3640
1.756 6.393 1.937 2609
1.762 6.413 1.922 4107
1.804 6.567 1.966 4094
1.806 6.573 1.946 4586
1.765 6.425 1.905 3981
1.803 6.563 1.922 4104
1.866 6.792 1.985 2789
1.802 6.560 1.900 4058
1.867 6.797 1.964 3621
1.956 7.120 2.029 3334
1.869 6.802 1.944 2955
1.958 7.125 2.007 3546
1.866 6.792 1.919 1956
1.959 7.130 1.986 2836
2.044 7.441 2.067 1969
2.052 7.469 2.050 2404
1.958 7.128 1.963 2029
2.053 7.474 2.028 2717
1.958 7.126 1.939 1740
2.057 7.487 2.007 2096
2.143 7.799 2.086 1974
2.144 7.804 2.062 2265
2.071 7.537 1.996 1350
2.225 8.099 2.110 1781
2.146 7.809 2.039 1335
2.229 8.112 2.087 1992
2.284 8.313 2.136 1680
2.287 8.326 2.112 2108
2.345 8.534 2.162 1292
2.289 8.331 2.087 2190
2.381 8.666 2.166 1707
2.374 8.642 2.133 2209
2.335 8.501 2.100 1364
2.382 8.670 2.112 2107
2.343 8.528 2.080 1154
2.388 8.691 2.089 2741
2.293 8.347 2.012 1205
2.389 8.696 2.063 2853
2.490 9.062 2.145 1301
2.386 8.686 2.034 2223
2.559 9.314 2.171 1451
2.560 9.320 2.143 1316
2.390 8.699 2.009 1290
2.564 9.333 2.117 1197
2.488 9.056 2.058 1140
2.570 9.353 2.092 1799
2.487 9.054 2.029 1218
2.583 9.403 2.073 1960
2.635 9.591 2.112 1877
2.636 9.596 2.083 2160
2.818 10.255 2.217 1428
2.866 10.434 2.221 1899
2.675 9.736 2.081 1489
2.722 9.907 2.084 1548
2.866 10.432 2.188 1413
2.723 9.912 2.054 1816
2.643 9.620 1.997 1222
2.873 10.458 2.128 1105
2.772 10.090 2.057 1049
2.953 10.749 2.150 1225
2.881 10.486 2.100 1033
3.153 11.476 2.251 1718
2.882 10.492 2.069 1167
3.148 11.460 2.212 1647
3.041 11.069 2.141 988
3.036 11.052 2.103 1040
3.206 11.669 2.214 870
0.596 2.168 0.511 845
3.214 11.697 2.182 833
3.151 11.469 2.107 1004
3.588 13.058 2.381 913
3.477 12.658 2.272 1037
3.738 13.607 2.433 1009
3.738 13.606 2.391 1294
3.475 12.648 2.232 1189
3.744 13.627 2.352 917
3.481 12.669 2.196 858
3.752 13.656 2.315 1042
3.797 13.822 2.341 943
3.749 13.647 2.271 1051
3.795 13.813 2.297 957
0.371 1.349 0.196 751
0.618 2.227 1.802 5426
0.619 2.232 1.795 10853
0.620 2.237 1.789 10853
0.653 2.354 1.877 1266
0.623 2.247 1.787 10313
0.656 2.365 1.875 2812
0.626 2.258 1.785 10073
0.659 2.376 1.872 3955
0.633 2.281 1.792 9252
0.665 2.399 1.879 4349
0.637 2.298 1.794 9926
0.670 2.417 1.881 4334
0.639 2.303 1.787 9926
0.671 2.422 1.874 4527
0.643 2.320 1.790 8770
0.676 2.439 1.876 3504
0.667 2.406 1.842 8814
0.634 2.287 1.756 3635
0.669 2.411 1.834 8012
0.635 2.292 1.749 3502
0.670 2.416 1.827 7209
0.637 2.296 1.742 3369
0.673 2.427 1.825 7290
0.640 2.307 1.740 3067
0.674 2.432 1.817 7530
0.641 2.312 1.733 1947
0.676 2.436 1.810 7530
0.642 2.316 1.726 1338
0.679 2.447 1.807 6542
0.712 2.568 1.891 1172
0.690 2.490 1.826 6492
0.657 2.369 1.743 919
0.692 2.495 1.819 8739
0.725 2.616 1.902 966
0.693 2.500 1.812 10881
0.727 2.621 1.894 1296
0.696 2.511 1.809 9120
0.730 2.632 1.891 1250
0.701 2.528 1.810 7826
0.735 2.650 1.892 1009
0.702 2.533 1.802 5994
0.750 2.706 1.918 1150
0.707 2.550 1.803 4317
0.750 2.704 1.906 1726
0.721 2.600 1.825 4464
0.687 2.478 1.745 2395
0.728 2.624 1.830 5842
0.694 2.502 1.750 3241
0.750 2.706 1.873 5936
0.716 2.584 1.793 4497
0.752 2.711 1.865 7210
0.718 2.588 1.785 4883
0.760 2.742 1.874 7524
0.723 2.606 1.786 6076
0.763 2.753 1.870 8821
0.722 2.604 1.774 6633
0.765 2.758 1.862 8309
0.725 2.615 1.771 4922
0.764 2.756 1.849 7861
0.730 2.633 1.771 3539
0.764 2.755 1.837 6575
0.729 2.631 1.759 2132
0.760 2.740 1.817 6257
0.794 2.864 1.894 1793
0.766 2.764 1.821 7355
0.801 2.889 1.898 1703
0.770 2.775 1.816 9378
0.804 2.900 1.893 1836
0.771 2.780 1.808 8285
0.806 2.905 1.885 2937
0.778 2.805 1.812 6448
0.812 2.930 1.888 2200
0.779 2.809 1.804 4847
0.814 2.935 1.879 2374
0.780 2.814 1.795 5236
0.815 2.939 1.870 2363
0.783 2.825 1.791 6665
0.818 2.951 1.866 2109
0.796 2.870 1.806 6551
0.831 2.996 1.880 1682
0.799 2.881 1.801 7590
0.847 3.054 1.903 2310
0.800 2.886 1.793 6553
0.844 3.045 1.886 3165
0.824 2.970 1.830 6110
0.788 2.844 1.757 2471
0.829 2.988 1.829 7694
0.793 2.862 1.756 1706
0.837 3.020 1.836 8221
0.802 2.893 1.763 2358
0.842 3.038 1.834 7195
0.807 2.911 1.762 2783
0.849 3.063 1.836 4713
0.814 2.935 1.765 2354
0.860 3.101 1.846 4656
0.825 2.974 1.775 1278
0.865 3.119 1.844 5837
0.830 2.992 1.773 1064
0.868 3.131 1.839 8904
0.904 3.259 1.909 1157
0.871 3.142 1.833 12246
0.907 3.271 1.903 1317
0.875 3.154 1.827 11654
0.839 3.026 1.758 1080
0.880 3.172 1.825 8744
0.844 3.044 1.756 1152
0.888 3.204 1.830 8047
0.853 3.075 1.761 1194
0.890 3.209 1.821 7481
0.925 3.338 1.890 1468
0.891 3.213 1.811 7262
0.927 3.343 1.880 2768
0.913 3.293 1.841 9063
0.877 3.164 1.773 2366
0.914 3.298 1.831 9490
0.879 3.168 1.764 1653
0.914 3.296 1.818 7964
0.950 3.425 1.885 1032
0.902 3.253 1.783 5407
0.938 3.382 1.850 5252
0.937 3.380 1.837 5709
0.901 3.250 1.770 5146
0.941 3.392 1.830 5098
0.904 3.262 1.764 3847
0.934 3.369 1.806 4782
0.970 3.500 1.872 1890
0.939 3.388 1.803 5322
0.976 3.518 1.868 1635
0.943 3.399 1.796 6512
0.981 3.537 1.864 2055
0.944 3.404 1.786 8794
0.980 3.535 1.850 4784
0.982 3.540 1.840 8941
0.945 3.409 1.776 8410
0.987 3.558 1.836 11125
0.948 3.420 1.769 4905
0.992 3.577 1.832 10242
0.955 3.445 1.769 3797
0.997 3.596 1.828 9600
0.960 3.464 1.765 4476
0.989 3.566 1.801 8222
1.025 3.697 1.863 3823
0.992 3.577 1.793 5868
1.029 3.709 1.855 3702
1.024 3.693 1.834 5743
0.987 3.561 1.773 3343
1.027 3.705 1.827 5859
0.991 3.573 1.765 2780
1.029 3.710 1.815 5064
0.992 3.577 1.755 2168
1.038 3.742 1.817 5261
1.001 3.610 1.757 3058
1.037 3.740 1.803 5706
1.076 3.880 1.866 2419
1.048 3.780 1.807 4589
1.085 3.913 1.867 3093
1.055 3.805 1.805 4935
1.092 3.939 1.864 2566
1.062 3.831 1.803 5705
1.099 3.965 1.862 3609
1.095 3.948 1.841 6537
1.058 3.815 1.782 4171
1.090 3.932 1.820 6092
1.127 4.066 1.878 3356
1.117 4.028 1.847 6039
1.080 3.894 1.790 2632
1.128 4.068 1.850 7404
1.091 3.934 1.793 2391
1.133 4.087 1.844 7039
1.096 3.953 1.788 3434
1.137 4.099 1.835 4951
1.099 3.965 1.779 3805
1.138 4.104 1.823 4539
1.101 3.969 1.767 1939
1.139 4.109 1.810 3639
1.177 4.243 1.866 1525
1.166 4.206 1.836 4850
1.129 4.071 1.781 1832
1.171 4.225 1.829 6148
1.209 4.360 1.884 1903
1.181 4.258 1.828 5468
1.218 4.393 1.882 2373
1.200 4.327 1.840 5717
1.162 4.191 1.787 4235
1.201 4.331 1.828 5537
1.163 4.196 1.774 3989
1.222 4.408 1.842 4550
1.260 4.543 1.895 2873
1.225 4.419 1.832 4229
1.283 4.627 1.912 2745
1.284 4.632 1.898 4737
1.221 4.403 1.811 3315
1.286 4.637 1.885 5803
1.222 4.407 1.797 2881
1.287 4.642 1.871 4282
1.229 4.434 1.792 3568
1.316 4.747 1.894 4107
1.231 4.438 1.779 3835
1.320 4.759 1.883 5012
1.282 4.622 1.832 3906
1.295 4.670 1.834 4719
1.333 4.807 1.884 2957
1.328 4.790 1.862 4595
1.290 4.653 1.812 1954
1.336 4.817 1.855 4219
1.298 4.680 1.806 1847
1.349 4.865 1.856 3206
1.305 4.706 1.800 2623
1.360 4.906 1.855 4004
1.310 4.725 1.791 2164
