1.104 12.724 2.329 968
1.104 12.723 2.291 1137
1.050 12.100 2.185 928
1.105 12.729 2.254 1083
1.082 12.472 2.211 1061
1.085 12.501 2.178 986
1.240 14.292 2.471 830
1.240 14.291 2.428 893
1.085 12.507 2.142 779
1.137 13.097 2.197 759
0.206 2.315 1.811 5419
0.206 2.320 1.805 10838
0.217 2.441 1.893 1173
0.207 2.325 1.798 10838
0.218 2.446 1.886 2346
0.208 2.336 1.796 9251
0.219 2.457 1.884 2110
0.210 2.360 1.803 8578
0.221 2.481 1.891 2026
0.214 2.403 1.824 9041
0.203 2.281 1.737 1873
0.215 2.414 1.822 11682
0.226 2.537 1.909 1889
0.215 2.419 1.815 11682
0.226 2.542 1.901 2437
0.216 2.424 1.808 10270
0.227 2.547 1.894 3877
0.216 2.429 1.801 8859
0.227 2.552 1.887 5316
0.226 2.538 1.866 6369
0.215 2.414 1.780 5782
0.227 2.556 1.868 6048
0.215 2.419 1.773 3544
0.226 2.541 1.847 5840
0.215 2.417 1.762 2140
0.226 2.539 1.835 6210
0.237 2.663 1.920 818
0.226 2.544 1.828 6210
0.237 2.669 1.912 872
0.227 2.549 1.821 7519
0.238 2.674 1.904 1568
0.227 2.548 1.809 8839
0.238 2.672 1.892 2411
0.227 2.552 1.802 8122
0.238 2.677 1.885 2429
0.227 2.557 1.794 7414
0.239 2.682 1.877 2594
0.228 2.569 1.791 5505
0.240 2.694 1.874 3958
0.237 2.659 1.840 5749
0.225 2.534 1.758 1141
0.237 2.664 1.832 6941
0.226 2.539 1.751 1040
0.237 2.669 1.825 8134
0.249 2.795 1.906 1404
0.238 2.681 1.821 6701
0.250 2.807 1.902 2126
0.239 2.692 1.818 5538
0.251 2.819 1.898 2591
0.240 2.697 1.810 5089
0.251 2.824 1.890 3236
0.240 2.695 1.798 4712
0.251 2.822 1.878 4098
0.241 2.707 1.794 4384
0.253 2.848 1.882 3791
0.254 2.859 1.878 4327
0.242 2.718 1.791 4151
0.255 2.871 1.874 4097
0.242 2.723 1.783 2943
0.258 2.896 1.878 4309
0.243 2.735 1.779 1743
0.268 3.009 1.935 3349
0.256 2.881 1.858 2724
0.269 3.021 1.931 4561
0.248 2.791 1.792 2303
0.269 3.020 1.918 5534
0.249 2.796 1.784 2496
0.269 3.025 1.909 6575
0.258 2.896 1.833 2806
0.265 2.982 1.872 6839
0.249 2.799 1.764 2012
0.266 2.987 1.864 9381
0.279 3.137 1.952 1503
0.266 2.992 1.855 9042
0.279 3.136 1.939 1563
0.266 2.991 1.843 6994
0.278 3.120 1.918 2706
0.273 3.071 1.877 6465
0.262 2.941 1.803 1937
0.274 3.083 1.872 6394
0.263 2.953 1.798 1814
0.275 3.095 1.868 6554
0.264 2.964 1.793 1284
0.278 3.120 1.870 5015
0.266 2.990 1.797 1246
0.280 3.146 1.873 5380
0.281 3.158 1.868 4089
0.293 3.289 1.941 1673
0.292 3.287 1.927 3601
0.281 3.156 1.855 2629
0.293 3.292 1.918 4463
0.281 3.154 1.842 2603
0.294 3.304 1.912 4874
0.282 3.173 1.840 2419
0.295 3.317 1.906 5399
0.283 3.185 1.835 2548
0.295 3.315 1.893 6882
0.283 3.183 1.822 2396
0.296 3.327 1.887 8162
0.284 3.187 1.813 1763
0.298 3.346 1.885 8467
0.283 3.185 1.800 1142
0.297 3.344 1.872 8729
0.281 3.155 1.772 1335
0.298 3.349 1.862 7751
0.314 3.531 1.957 2847
0.306 3.438 1.896 8811
0.294 3.305 1.827 3850
0.304 3.422 1.875 9742
0.316 3.555 1.944 4500
0.305 3.427 1.865 8126
0.317 3.560 1.933 4705
0.305 3.432 1.855 5238
0.317 3.566 1.923 4339
0.316 3.557 1.906 5159
0.281 3.155 1.703 4571
0.318 3.576 1.903 5139
0.282 3.167 1.698 4258
0.319 3.588 1.896 5159
0.282 3.171 1.689 3423
0.316 3.551 1.864 5981
0.274 3.077 1.631 3809
0.318 3.577 1.865 11112
0.330 3.712 1.931 3796
0.319 3.589 1.858 11601
0.331 3.724 1.923 4211
0.320 3.601 1.851 8707
0.332 3.736 1.916 3840
0.330 3.706 1.888 9732
0.318 3.571 1.823 4144
0.331 3.718 1.881 10662
0.319 3.583 1.816 2307
0.331 3.716 1.867 9066
0.277 3.116 1.584 2072
0.329 3.700 1.846 9302
0.280 3.149 1.588 3207
0.329 3.704 1.835 6882
0.281 3.161 1.583 3004
0.335 3.767 1.851 5659
0.282 3.172 1.577 2503
0.335 3.772 1.840 7027
0.348 3.908 1.902 2894
0.338 3.798 1.839 5980
0.350 3.935 1.901 2439
0.341 3.839 1.844 5834
0.281 3.163 1.540 3015
0.341 3.837 1.830 5398
0.282 3.167 1.530 3449
0.354 3.979 1.879 4569
0.342 3.842 1.819 3777
0.356 4.005 1.877 5305
0.344 3.868 1.817 2659
0.357 4.018 1.869 4939
0.345 3.880 1.809 1864
0.365 4.102 1.892 5814
0.353 3.965 1.832 3259
0.358 4.020 1.843 6649
0.370 4.158 1.902 2581
0.359 4.033 1.834 7044
0.371 4.171 1.893 2212
0.360 4.052 1.829 6155
0.373 4.190 1.887 2958
0.372 4.181 1.869 6042
0.360 4.042 1.811 2949
0.372 4.186 1.857 6347
0.360 4.047 1.799 1777
0.374 4.205 1.850 4236
0.386 4.344 1.908 1330
0.378 4.254 1.856 5631
0.366 4.115 1.799 2043
0.376 4.223 1.829 4543
0.388 4.361 1.885 2035
0.391 4.396 1.884 4148
0.376 4.227 1.817 3478
0.391 4.401 1.872 5994
0.377 4.240 1.807 2809
0.393 4.413 1.862 5627
0.380 4.274 1.807 2034
0.396 4.455 1.863 4483
0.384 4.315 1.809 3366
0.386 4.335 1.802 3386
0.398 4.475 1.856 3059
0.393 4.413 1.818 2683
0.405 4.553 1.872 1875
0.394 4.433 1.811 5303
0.407 4.573 1.864 2978
0.395 4.445 1.801 4941
0.408 4.585 1.854 2749
0.421 4.738 1.896 4051
0.396 4.457 1.790 2680
0.422 4.743 1.882 6967
0.409 4.603 1.830 2835
0.421 4.733 1.863 7401
0.409 4.593 1.811 3532
0.412 4.627 1.808 6402
0.424 4.768 1.860 3637
0.413 4.639 1.798 4457
0.425 4.780 1.849 4034
0.425 4.778 1.832 6487
0.438 4.919 1.883 2189
0.426 4.790 1.821 6869
0.439 4.939 1.874 2411
0.428 4.818 1.815 5960
0.442 4.966 1.867 3865
0.443 4.979 1.855 3978
0.430 4.830 1.804 3832
0.441 4.961 1.833 4477
0.456 5.125 1.890 3478
0.442 4.974 1.821 5644
0.457 5.138 1.878 3815
0.443 4.986 1.810 4287
0.466 5.240 1.896 3188
0.466 5.238 1.878 6056
0.446 5.013 1.803 2470
0.466 5.235 1.860 5272
0.453 5.093 1.813 2068
0.455 5.120 1.806 2966
0.475 5.345 1.879 2682
0.480 5.395 1.879 2295
0.456 5.125 1.791 1801
0.474 5.325 1.839 3065
0.486 5.468 1.885 2042
0.498 5.601 1.910 2999
0.474 5.330 1.823 2870
0.499 5.606 1.893 3475
0.478 5.373 1.820 2595
0.512 5.754 1.922 2769
0.498 5.603 1.875 2676
0.498 5.593 1.854 2865
0.513 5.767 1.907 2705
0.515 5.787 1.895 3424
0.497 5.583 1.833 2498
0.515 5.792 1.878 3763
0.529 5.943 1.924 1772
0.516 5.797 1.862 2555
0.529 5.948 1.907 2474
0.530 5.953 1.890 2688
0.546 6.142 1.946 2030
0.546 6.140 1.926 2769
0.531 5.973 1.877 1614
0.545 6.130 1.903 3306
0.528 5.941 1.848 1553
0.546 6.135 1.886 2375
0.574 6.453 1.977 2181
0.574 6.459 1.958 2979
0.551 6.193 1.883 1922
0.576 6.472 1.942 3632
0.604 6.791 2.031 2584
0.605 6.804 2.013 3072
0.577 6.484 1.925 2606
0.608 6.832 2.000 2708
0.575 6.459 1.898 1872
0.608 6.837 1.980 4730
0.624 7.020 2.030 1954
0.609 6.850 1.962 4274
0.625 7.025 2.009 2608
0.628 7.061 1.997 2420
0.611 6.871 1.946 2385
0.608 6.830 1.914 2787
0.622 6.998 1.958 2444
0.649 7.301 2.015 1866
0.688 7.736 2.128 1778
0.688 7.734 2.103 2356
0.675 7.589 2.066 1839
0.688 7.740 2.081 3054
0.676 7.595 2.044 1835
0.679 7.639 2.031 2993
0.692 7.784 2.068 1995
0.690 7.759 2.037 3151
0.677 7.613 2.002 1799
0.691 7.764 2.015 2563
0.734 8.255 2.134 1728
0.735 8.261 2.110 2528
0.690 7.762 1.990 1366
0.734 8.251 2.082 1603
0.767 8.627 2.171 1343
0.769 8.648 2.150 1682
0.733 8.241 2.055 1140
0.771 8.670 2.128 1581
0.799 8.985 2.201 1458
0.800 8.991 2.175 2331
0.776 8.721 2.113 2265
0.800 8.996 2.149 2167
0.776 8.719 2.086 2109
0.777 8.733 2.063 1881
0.801 9.002 2.122 1669
0.777 8.731 2.035 1632
0.801 9.008 2.096 1216
0.826 9.283 2.128 1604
0.813 9.137 2.096 1061
0.828 9.312 2.106 2020
0.815 9.166 2.075 1542
0.838 9.418 2.100 2431
0.851 9.565 2.130 1314
0.849 9.548 2.098 1660
0.833 9.362 2.059 1338
0.862 9.692 2.098 1448
0.839 9.430 2.045 1242
0.839 9.435 2.017 1308
0.864 9.714 2.073 1200
0.869 9.766 2.054 1469
0.891 10.021 2.104 1379
0.891 10.019 2.073 1738
0.870 9.779 2.027 1476
0.945 10.629 2.160 1206
0.969 10.900 2.211 1145
0.970 10.906 2.179 1537
1.029 11.565 2.303 1391
1.044 11.734 2.300 1580
1.021 11.478 2.252 1438
1.045 11.748 2.267 1376
1.020 11.468 2.216 1239
1.041 11.699 2.223 1484
1.018 11.443 2.177 1025
1.040 11.698 2.187 1861
1.054 11.845 2.213 1040
1.042 11.711 2.155 1497
1.132 12.729 2.330 962
1.073 12.059 2.178 994
1.131 12.720 2.291 981
1.108 12.462 2.209 918
1.132 12.726 2.254 863
1.111 12.491 2.177 915
1.063 11.954 2.089 805
1.272 14.296 2.430 829
1.112 12.497 2.140 822
0.211 2.314 1.811 5379
0.211 2.319 1.805 10758
0.222 2.440 1.893 989
0.212 2.324 1.798 10758
0.223 2.445 1.886 1978
0.212 2.329 1.791 9105
0.223 2.450 1.879 2376
0.215 2.359 1.803 8149
0.226 2.481 1.891 2003
0.219 2.409 1.829 9162
0.208 2.287 1.741 2277
0.221 2.420 1.826 12199
0.209 2.298 1.739 1957
0.221 2.425 1.819 12199
0.210 2.303 1.733 1957
0.221 2.430 1.812 10645
0.233 2.553 1.899 3193
0.221 2.429 1.801 9316
0.232 2.551 1.887 5318
0.231 2.537 1.866 6320
0.220 2.414 1.780 6071
0.235 2.581 1.886 6369
0.220 2.419 1.773 3667
0.232 2.547 1.851 6199
0.221 2.423 1.766 2330
0.232 2.546 1.840 6623
0.221 2.422 1.755 890
0.232 2.550 1.832 6623
0.244 2.675 1.916 771
0.232 2.549 1.821 8038
0.244 2.673 1.904 1730
0.232 2.547 1.809 9547
0.243 2.672 1.892 2685
0.233 2.552 1.802 8613
0.244 2.677 1.885 2680
0.233 2.557 1.794 7697
0.245 2.688 1.881 2848
0.234 2.568 1.791 5677
0.245 2.694 1.874 4002
0.242 2.659 1.840 5242
0.231 2.533 1.758 1291
0.243 2.664 1.832 6516
0.231 2.538 1.751 1159
0.243 2.669 1.825 7790
0.255 2.795 1.906 1336
0.244 2.680 1.821 6627
0.256 2.807 1.902 2097
0.245 2.692 1.818 5612
0.257 2.818 1.898 2581
0.246 2.697 1.810 5145
0.257 2.823 1.890 3438
0.246 2.695 1.798 4717
0.257 2.822 1.878 4515
0.247 2.706 1.794 4453
0.258 2.834 1.874 3951
0.260 2.859 1.878 4293
0.248 2.718 1.791 4283
0.262 2.871 1.874 3892
0.248 2.723 1.783 3172
0.264 2.902 1.882 4157
0.249 2.734 1.779 2100
0.274 3.009 1.935 3504
0.262 2.881 1.858 2668
0.275 3.021 1.931 4716
0.254 2.791 1.792 1929
0.275 3.019 1.918 5789
0.263 2.891 1.841 2337
0.276 3.024 1.909 6874
0.264 2.895 1.833 2925
0.272 2.982 1.872 7052
0.255 2.798 1.764 1878
0.272 2.987 1.864 9559
0.286 3.137 1.952 1413
0.273 2.992 1.855 9228
0.286 3.135 1.939 1514
0.277 3.038 1.870 7068
0.289 3.168 1.946 1744
0.279 3.063 1.873 6635
0.291 3.193 1.948 1604
0.280 3.075 1.869 6154
0.268 2.945 1.794 1366
0.282 3.094 1.868 6060
0.270 2.964 1.793 1320
0.285 3.133 1.878 4989
0.274 3.003 1.804 1366
0.287 3.152 1.877 5641
0.288 3.164 1.871 4341
0.300 3.295 1.944 1495
0.299 3.287 1.927 3512
0.287 3.155 1.855 2922
0.301 3.299 1.922 4450
0.287 3.153 1.842 2979
0.301 3.304 1.912 5178
0.289 3.172 1.840 2860
0.301 3.309 1.902 5907
0.289 3.177 1.831 2828
0.302 3.314 1.893 7076
0.290 3.182 1.822 2780
0.303 3.326 1.887 7872
0.290 3.187 1.813 2003
0.305 3.345 1.885 8056
0.290 3.185 1.800 1229
0.305 3.350 1.875 8036
0.287 3.155 1.772 1299
0.305 3.348 1.862 6877
0.322 3.530 1.957 2710
0.313 3.437 1.896 8095
0.301 3.304 1.827 3736
0.312 3.428 1.879 8681
0.325 3.562 1.947 3943
0.312 3.426 1.865 6970
0.324 3.560 1.933 4925
0.325 3.565 1.923 4705
0.286 3.143 1.709 4490
0.287 3.154 1.703 5663
0.324 3.556 1.906 5217
0.326 3.575 1.903 5393
0.288 3.166 1.698 5003
0.327 3.587 1.896 5682
0.281 3.079 1.643 4379
0.326 3.578 1.878 6298
0.280 3.076 1.631 4274
0.326 3.576 1.865 11266
0.281 3.080 1.622 4069
0.327 3.588 1.858 11582
0.339 3.723 1.923 4007
0.327 3.593 1.847 8631
0.340 3.728 1.912 4379
0.338 3.705 1.888 9719
0.325 3.570 1.823 4254
0.338 3.710 1.877 10375
0.326 3.575 1.813 2241
0.337 3.701 1.860 8933
0.284 3.116 1.584 2133
0.336 3.692 1.843 9460
0.349 3.827 1.906 2915
0.337 3.704 1.835 7055
0.289 3.174 1.589 3395
0.343 3.766 1.851 5501
0.290 3.178 1.580 4260
0.344 3.771 1.840 6747
0.290 3.183 1.571 4335
0.346 3.797 1.839 5655
0.290 3.180 1.558 3563
0.350 3.838 1.844 5563
0.288 3.162 1.540 3085
0.350 3.836 1.830 5099
0.362 3.973 1.891 3544
0.362 3.978 1.879 4639
0.350 3.841 1.819 3560
0.365 4.005 1.877 5208
0.352 3.867 1.817 2606
0.367 4.024 1.872 4770
0.354 3.887 1.812 2266
0.374 4.102 1.892 5700
0.361 3.964 1.832 3528
0.366 4.020 1.843 6614
0.379 4.157 1.902 2745
0.367 4.032 1.834 6907
0.380 4.170 1.893 2300
0.369 4.051 1.829 6023
0.382 4.189 1.887 3010
0.380 4.173 1.866 6097
0.368 4.034 1.808 2824
0.381 4.185 1.857 6302
0.369 4.047 1.799 1875
0.383 4.205 1.850 4523
0.370 4.066 1.793 1162
0.387 4.246 1.853 5907
0.374 4.107 1.796 1690
0.385 4.229 1.832 4730
0.400 4.390 1.897 2233
0.400 4.395 1.884 4305
0.386 4.234 1.820 3620
0.401 4.400 1.872 5836
0.386 4.239 1.807 3205
0.403 4.420 1.865 5696
0.390 4.280 1.810 2324
0.406 4.454 1.863 4988
0.393 4.315 1.809 3657
0.396 4.349 1.808 3822
0.409 4.488 1.862 3272
0.402 4.412 1.818 3105
0.415 4.552 1.872 2381
0.404 4.439 1.813 5724
0.417 4.579 1.867 2726
0.406 4.452 1.803 5201
0.430 4.725 1.907 2632
0.432 4.737 1.896 3960
0.415 4.560 1.829 3064
0.432 4.742 1.882 6445
0.419 4.602 1.830 2937
0.431 4.732 1.863 6543
0.418 4.592 1.811 3108
0.422 4.634 1.811 6189
0.438 4.812 1.876 3783
0.423 4.639 1.798 4425
0.439 4.817 1.862 4015
0.435 4.777 1.832 5541
0.448 4.918 1.883 2208
0.436 4.789 1.821 6065
0.453 4.975 1.887 1984
0.440 4.824 1.818 5363
0.453 4.973 1.870 3077
0.441 4.836 1.806 3622
0.454 4.978 1.855 3450
0.451 4.953 1.831 4652
0.466 5.117 1.887 3518
0.452 4.965 1.819 5818
0.467 5.130 1.875 3607
0.454 4.985 1.810 4716
0.477 5.239 1.896 3234
0.477 5.237 1.878 6181
0.457 5.020 1.805 3083
0.477 5.234 1.860 5510
0.461 5.055 1.801 2382
0.487 5.344 1.879 3212
0.466 5.112 1.803 2897
0.492 5.402 1.881 2501
0.479 5.259 1.835 1569
0.484 5.317 1.836 2854
0.497 5.459 1.882 2441
0.486 5.329 1.823 2697
0.510 5.600 1.910 2656
0.511 5.605 1.893 3181
0.491 5.387 1.824 2702
0.524 5.753 1.922 2565
0.510 5.602 1.875 2413
0.510 5.592 1.854 2536
0.525 5.766 1.907 2256
0.527 5.786 1.895 2739
0.509 5.582 1.833 2503
0.527 5.783 1.876 3461
0.542 5.949 1.926 1807
0.527 5.781 1.857 2657
0.542 5.947 1.907 2588
0.542 5.944 1.887 2651
0.560 6.149 1.948 1872
0.559 6.139 1.926 2571
0.544 5.972 1.877 1604
0.559 6.136 1.906 3229
0.542 5.947 1.851 1514
0.560 6.141 1.888 2525
0.588 6.452 1.977 1923
0.589 6.465 1.960 2600
0.564 6.192 1.883 2213
0.590 6.478 1.944 3153
0.564 6.189 1.863 2241
0.619 6.795 2.011 2267
0.591 6.491 1.927 2133
0.622 6.831 2.000 2478
0.608 6.671 1.956 1716
0.623 6.836 1.980 4671
0.639 7.019 2.030 1674
0.624 6.849 1.962 4053
0.641 7.039 2.013 2286
0.644 7.068 1.999 2344
0.621 6.816 1.932 2172
0.646 7.088 1.982 2374
0.622 6.821 1.912 2354
0.666 7.307 2.017 2158
0.646 7.094 1.962 1729
0.705 7.733 2.103 2185
0.691 7.588 2.066 1840
0.705 7.739 2.081 2876
0.692 7.593 2.044 2067
0.706 7.752 2.060 2969
0.693 7.607 2.024 1984
0.707 7.757 2.037 3232
0.694 7.612 2.002 1825
0.707 7.763 2.015 2547
0.753 8.261 2.136 1860
0.753 8.259 2.110 2781
0.707 7.761 1.990 1430
0.752 8.249 2.082 1741
0.786 8.625 2.171 1297
0.788 8.647 2.150 1675
0.751 8.240 2.055 1224
0.789 8.660 2.126 1593
0.802 8.806 2.160 1494
0.819 8.989 2.175 2130
0.804 8.820 2.136 1903
0.819 8.987 2.147 1999
0.792 8.695 2.081 1805
0.795 8.723 2.061 1607
0.820 9.000 2.122 1559
0.804 8.821 2.056 1526
0.821 9.006 2.096 1199
0.846 9.289 2.130 1577
0.826 9.066 2.081 975
0.848 9.311 2.106 2145
0.835 9.164 2.075 1366
0.858 9.417 2.100 2336
0.872 9.571 2.132 1326
0.870 9.546 2.098 1576
0.856 9.399 2.067 1346
0.860 9.443 2.048 1429
0.882 9.683 2.097 1373
0.860 9.441 2.019 1351
0.884 9.704 2.071 1178
0.890 9.764 2.054 1419
0.913 10.019 2.104 1356
0.913 10.017 2.073 1864
0.891 9.777 2.027 1378
0.968 10.627 2.160 1248
0.912 10.015 2.043 1037
1.053 11.562 2.303 1332
0.993 10.904 2.179 1275
1.069 11.731 2.300 1528
1.045 11.468 2.251 1427
1.069 11.738 2.265 1383
1.045 11.466 2.216 1336
1.066 11.697 2.223 1510
0.995 10.921 2.084 1040
1.066 11.695 2.187 1729
1.079 11.843 2.213 1174
1.067 11.709 2.155 1434
1.086 11.919 2.191 926
1.098 12.049 2.177 1044
1.068 11.723 2.122 1036
1.135 12.452 2.208 853
1.151 12.631 2.238 778
1.138 12.489 2.177 822
1.108 12.162 2.123 788
1.303 14.301 2.431 809
1.138 12.495 2.140 771
0.215 2.308 1.807 5405
0.216 2.312 1.800 10810
0.227 2.433 1.889 920
0.216 2.317 1.793 10810
0.228 2.438 1.882 1841
0.217 2.328 1.791 9012
0.229 2.450 1.879 2353
0.220 2.352 1.798 7776
0.231 2.474 1.886 2265
0.225 2.415 1.833 9682
0.214 2.293 1.746 2479
0.226 2.420 1.826 12943
0.214 2.298 1.739 1596
0.226 2.425 1.819 12943
0.238 2.547 1.906 1726
0.227 2.430 1.812 11367
0.238 2.552 1.899 3221
0.227 2.428 1.801 9894
0.238 2.551 1.887 5410
0.226 2.426 1.789 6524
0.238 2.550 1.875 6351
0.241 2.581 1.886 7253
0.226 2.418 1.773 3650
0.241 2.586 1.878 6927
0.226 2.423 1.766 2389
0.238 2.552 1.844 7345
0.227 2.428 1.760 1128
0.239 2.556 1.837 7345
0.227 2.432 1.753 923
0.238 2.548 1.821 8734
0.249 2.673 1.904 1900
0.238 2.547 1.809 10512
0.249 2.671 1.892 2927
0.238 2.551 1.802 9267
0.250 2.676 1.885 2956
0.239 2.556 1.794 8033
0.252 2.701 1.890 3315
0.240 2.568 1.791 5752
0.251 2.693 1.874 4187
0.252 2.698 1.866 5151
0.240 2.572 1.784 3637
0.249 2.670 1.837 6040
0.237 2.544 1.755 1517
0.249 2.668 1.825 7489
0.261 2.801 1.910 1181
0.250 2.680 1.821 6379
0.262 2.806 1.902 2021
0.251 2.691 1.818 5351
0.263 2.818 1.898 2563
0.252 2.696 1.810 4706
0.263 2.823 1.890 3567
0.263 2.815 1.874 4885
0.251 2.688 1.794 3871
0.264 2.826 1.870 4210
0.252 2.699 1.790 3874
0.267 2.858 1.878 4376
0.254 2.717 1.791 4082
0.268 2.877 1.878 3900
0.255 2.729 1.787 3217
0.271 2.902 1.882 4228
0.255 2.734 1.779 2391
0.281 3.008 1.935 3781
0.269 2.880 1.858 2773
0.281 3.013 1.927 5101
0.269 2.885 1.849 2036
0.282 3.018 1.918 6243
0.270 2.890 1.841 2501
0.282 3.017 1.905 7385
0.270 2.888 1.829 2779
0.278 2.981 1.872 7500
0.261 2.798 1.764 1763
0.279 2.986 1.864 9984
0.267 2.857 1.788 1343
0.279 2.991 1.855 9507
0.293 3.134 1.939 1445
0.283 3.037 1.870 7850
0.296 3.167 1.946 1771
0.285 3.056 1.870 7092
0.297 3.186 1.944 1934
0.286 3.068 1.865 6251
0.298 3.198 1.939 1717
0.287 3.080 1.860 5559
0.300 3.210 1.934 1083
0.294 3.146 1.886 5014
0.281 3.016 1.812 1788
0.295 3.158 1.881 5864
0.283 3.028 1.807 947
0.295 3.163 1.871 4540
0.307 3.294 1.944 1490
0.307 3.293 1.931 3503
0.295 3.162 1.858 3232
0.308 3.298 1.922 4577
0.296 3.167 1.849 3442
0.308 3.303 1.912 5462
0.296 3.172 1.840 3561
0.309 3.308 1.902 6346
0.296 3.176 1.831 3794
0.309 3.313 1.893 7148
0.297 3.181 1.822 3909
0.310 3.325 1.887 7525
0.297 3.186 1.813 2920
0.312 3.344 1.885 7583
0.298 3.191 1.804 1931
0.313 3.349 1.875 7185
0.294 3.147 1.769 1436
0.312 3.348 1.862 5924
0.329 3.529 1.957 2485
0.321 3.437 1.896 7035
0.308 3.303 1.827 3492
0.321 3.435 1.882 7390
0.291 3.119 1.720 3796
0.314 3.362 1.833 5809
0.331 3.545 1.926 5304
0.293 3.142 1.709 5510
0.333 3.564 1.923 5006
0.294 3.154 1.703 6951
0.332 3.562 1.909 5425
0.334 3.575 1.903 6036
0.295 3.165 1.698 5977
0.335 3.594 1.899 6751
0.287 3.071 1.639 4162
0.335 3.585 1.882 6892
0.287 3.075 1.631 4067
0.334 3.576 1.865 10921
0.287 3.080 1.622 3809
0.335 3.588 1.858 10840
0.347 3.723 1.923 3809
0.336 3.600 1.851 7915
0.349 3.735 1.916 3338
0.345 3.697 1.885 9900
0.291 3.114 1.605 3813
0.346 3.702 1.874 10594
0.290 3.104 1.589 3177
0.344 3.686 1.853 9302
0.295 3.158 1.604 2469
0.344 3.684 1.839 9619
0.356 3.820 1.903 3235
0.345 3.696 1.832 7109
0.358 3.832 1.895 3046
0.351 3.765 1.851 5266
0.364 3.901 1.914 1692
0.352 3.770 1.840 6387
0.365 3.906 1.902 2581
0.354 3.797 1.839 5199
0.295 3.165 1.552 3288
0.357 3.830 1.841 4648
0.296 3.169 1.543 3876
0.358 3.835 1.830 4401
0.371 3.972 1.891 3770
0.371 3.970 1.876 4795
0.358 3.833 1.815 3184
0.374 4.004 1.877 4695
0.361 3.867 1.817 2361
0.378 4.052 1.885 4545
0.365 3.915 1.825 2959
0.383 4.101 1.892 5854
0.370 3.963 1.832 3870
0.384 4.113 1.883 6555
0.371 3.975 1.824 4950
0.376 4.031 1.834 6546
0.389 4.169 1.893 2575
0.378 4.051 1.829 5654
0.391 4.189 1.887 3027
0.389 4.172 1.866 5662
0.376 4.034 1.808 2774
0.390 4.184 1.857 5635
0.378 4.046 1.799 1902
0.392 4.204 1.850 4304
0.379 4.065 1.793 1261
0.396 4.245 1.853 5670
0.383 4.106 1.796 1768
0.395 4.235 1.835 4727
0.410 4.396 1.900 2275
0.401 4.292 1.843 4468
0.414 4.431 1.899 2303
0.411 4.406 1.875 5501
0.398 4.267 1.819 3755
0.412 4.419 1.865 5491
0.399 4.279 1.810 2342
0.416 4.453 1.863 5641
0.403 4.314 1.809 4048
0.406 4.355 1.811 4593
0.420 4.495 1.865 3707
0.423 4.529 1.863 3768
0.410 4.390 1.809 3113
0.414 4.439 1.813 5969
0.427 4.579 1.867 2938
0.415 4.451 1.803 5452
0.441 4.724 1.907 2996
0.443 4.744 1.898 4031
0.425 4.559 1.829 3668
0.443 4.749 1.885 6045
0.430 4.608 1.833 3578
0.442 4.732 1.863 5876
0.428 4.591 1.811 2480
0.432 4.633 1.811 5398
0.449 4.811 1.876 4075
0.434 4.645 1.800 4303
0.450 4.823 1.865 4134
0.446 4.776 1.832 4792
0.467 4.999 1.912 2506
0.447 4.788 1.821 5097
0.465 4.982 1.890 2369
0.450 4.823 1.818 4694
0.465 4.979 1.873 3101
0.460 4.925 1.837 3934
0.476 5.103 1.900 2192
0.461 4.937 1.826 5001
0.477 5.109 1.885 3706
0.463 4.964 1.819 6014
0.478 5.121 1.872 3744
0.465 4.984 1.810 5274
0.489 5.238 1.896 3230
0.489 5.236 1.878 5969
0.468 5.019 1.805 3420
0.488 5.233 1.860 5574
0.472 5.054 1.801 2391
0.499 5.343 1.879 3577
0.477 5.111 1.803 2983
0.505 5.408 1.883 2764
0.491 5.258 1.835 1758
0.509 5.451 1.880 2805
0.495 5.308 1.834 2768
0.505 5.411 1.850 2878
0.492 5.268 1.804 2226
0.504 5.401 1.829 2962
0.523 5.604 1.893 2524
0.523 5.601 1.875 2037
0.537 5.752 1.922 2018
0.522 5.591 1.854 2039
0.537 5.757 1.905 1581
0.520 5.573 1.831 2266
0.539 5.777 1.893 1897
0.540 5.782 1.876 3032
0.553 5.925 1.920 1859
0.539 5.780 1.857 2553
0.554 5.938 1.905 2476
0.554 5.936 1.885 2323
0.574 6.147 1.948 1827
0.573 6.137 1.926 2407
0.559 5.986 1.881 1489
0.573 6.135 1.906 3195
0.597 6.393 1.980 1595
0.573 6.140 1.888 2613
0.599 6.413 1.966 2134
0.603 6.464 1.960 2370
0.575 6.160 1.874 2102
0.605 6.484 1.946 2981
0.578 6.188 1.863 2055
0.606 6.497 1.929 2129
0.623 6.672 1.978 1617
0.637 6.829 2.000 2632
0.623 6.677 1.958 2030
0.638 6.835 1.980 5133
0.624 6.682 1.939 1733
0.638 6.840 1.960 4538
0.657 7.038 2.013 2136
0.636 6.815 1.932 2647
0.660 7.074 2.001 2289
0.661 7.087 1.982 2648
0.636 6.812 1.910 1802
0.682 7.306 2.017 2522
0.661 7.084 1.960 2120
0.721 7.724 2.101 1932
0.707 7.579 2.064 1698
0.721 7.729 2.079 2652
0.708 7.584 2.042 2177
0.723 7.750 2.060 2893
0.710 7.605 2.024 2056
0.724 7.756 2.037 3188
0.710 7.610 2.002 1910
0.724 7.761 2.015 2501
0.771 8.259 2.136 2086
0.771 8.257 2.110 3161
0.724 7.759 1.990 1428
0.770 8.255 2.084 2063
0.806 8.639 2.175 1224
0.808 8.653 2.152 1700
0.769 8.238 2.055 1331
0.822 8.804 2.160 1718
0.808 8.658 2.126 1590
0.823 8.818 2.136 2270
0.838 8.979 2.173 1876
0.823 8.824 2.111 2034
0.839 8.985 2.147 1818
0.823 8.822 2.083 1830
0.840 8.999 2.122 1462
0.824 8.827 2.057 1759
0.840 9.004 2.096 1181
0.867 9.287 2.130 1626
0.845 9.056 2.080 1069
0.869 9.309 2.106 2329
0.882 9.455 2.137 1330
0.873 9.353 2.087 2213
0.890 9.538 2.125 1408
0.901 9.652 2.120 1585
0.880 9.428 2.074 1517
0.881 9.441 2.048 1593
0.903 9.673 2.095 1526
0.905 9.702 2.071 1455
0.882 9.447 2.020 1394
0.911 9.762 2.054 1385
0.935 10.017 2.104 1337
0.935 10.015 2.073 1883
0.991 10.619 2.191 1427
0.992 10.624 2.160 1387
0.935 10.020 2.044 962
1.079 11.560 2.303 1129
1.017 10.901 2.179 1109
1.070 11.465 2.251 1303
1.095 11.729 2.300 1302
1.070 11.464 2.216 1351
1.019 10.913 2.116 1275
1.091 11.695 2.223 1543
1.019 10.919 2.084 1189
1.091 11.693 2.187 1592
1.105 11.841 2.213 1267
1.093 11.715 2.156 1347
1.124 12.041 2.212 972
1.094 11.720 2.122 1139
1.124 12.039 2.176 1074
1.121 12.014 2.135 788
1.179 12.628 2.238 756
1.135 12.160 2.123 753
1.310 14.033 2.388 807
1.165 12.484 2.139 769
1.309 14.024 2.345 834
0.220 2.307 1.807 5295
0.220 2.312 1.800 10591
0.209 2.191 1.711 948
0.221 2.317 1.793 10591
0.232 2.438 1.882 1514
0.222 2.328 1.791 8732
0.233 2.449 1.879 2312
0.224 2.352 1.798 7299
0.236 2.474 1.886 2272
0.230 2.415 1.833 9907
0.218 2.293 1.746 2249
0.231 2.426 1.831 13194
0.219 2.304 1.744 1566
0.232 2.431 1.824 13194
0.220 2.308 1.737 1566
0.231 2.429 1.812 11520
0.243 2.552 1.899 3033
0.231 2.428 1.801 9965
0.243 2.550 1.887 5088
0.231 2.426 1.789 6513
0.243 2.549 1.875 6102
0.246 2.580 1.886 7476
0.230 2.411 1.769 3600
0.246 2.579 1.874 7434
0.230 2.416 1.762 2456
0.244 2.558 1.849 7862
0.230 2.414 1.751 1314
0.244 2.563 1.841 7862
0.232 2.432 1.753 1030
0.243 2.548 1.821 8997
0.255 2.672 1.904 2082
0.243 2.546 1.809 10874
0.254 2.671 1.892 3177
0.243 2.551 1.802 9527
0.256 2.682 1.889 3221
0.243 2.556 1.794 8226
0.257 2.701 1.890 3604
0.245 2.567 1.791 5756
0.257 2.693 1.874 4240
0.257 2.698 1.866 4994
0.245 2.572 1.784 3374
0.254 2.669 1.837 5486
0.242 2.544 1.755 1511
0.254 2.668 1.825 7028
0.242 2.542 1.743 1054
0.255 2.679 1.821 6092
0.267 2.806 1.902 1753
0.256 2.684 1.813 5190
0.268 2.811 1.894 2524
0.256 2.689 1.806 4428
0.268 2.816 1.886 3677
0.268 2.814 1.874 4907
0.256 2.687 1.794 3491
0.269 2.826 1.870 4275
0.257 2.699 1.790 3607
0.272 2.858 1.878 4361
0.259 2.724 1.795 4016
0.275 2.883 1.882 4115
0.260 2.728 1.787 3371
0.276 2.901 1.882 4561
0.261 2.740 1.783 2736
0.287 3.008 1.935 3936
0.274 2.879 1.858 2934
0.287 3.013 1.927 5341
0.275 2.884 1.849 2158
0.288 3.018 1.918 6492
0.275 2.889 1.841 2568
0.288 3.023 1.909 7642
0.276 2.894 1.833 2978
0.284 2.981 1.872 7496
0.267 2.797 1.764 1786
0.284 2.986 1.864 9898
0.272 2.857 1.788 1515
0.286 2.998 1.859 9450
0.273 2.868 1.784 1559
0.290 3.043 1.874 8298
0.278 2.914 1.799 1845
0.291 3.055 1.870 7276
0.303 3.185 1.944 1935
0.292 3.060 1.861 6301
0.304 3.190 1.935 2218
0.293 3.072 1.856 5375
0.305 3.203 1.930 1663
0.300 3.153 1.890 5455
0.288 3.022 1.816 2220
0.301 3.158 1.881 6373
0.288 3.027 1.807 1050
0.302 3.170 1.875 4967
0.314 3.301 1.948 1382
0.302 3.175 1.866 3764
0.315 3.306 1.939 2981
0.313 3.290 1.918 4761
0.301 3.159 1.846 3860
0.315 3.303 1.912 5676
0.302 3.171 1.840 3970
0.315 3.308 1.902 6637
0.303 3.176 1.831 4153
0.316 3.313 1.893 7091
0.303 3.181 1.822 4324
0.316 3.318 1.883 7124
0.304 3.186 1.813 3255
0.318 3.337 1.881 7081
0.305 3.197 1.807 2195
0.318 3.342 1.872 6493
0.300 3.146 1.769 1757
0.319 3.347 1.862 5365
0.332 3.480 1.931 2290
0.328 3.443 1.899 6185
0.315 3.310 1.830 3737
0.328 3.441 1.886 6514
0.297 3.118 1.720 4107
0.320 3.362 1.833 5802
0.338 3.544 1.926 5411
0.299 3.142 1.709 5977
0.339 3.557 1.920 5130
0.300 3.153 1.703 7526
0.339 3.562 1.909 5478
0.341 3.581 1.906 6495
0.302 3.165 1.698 6377
0.342 3.593 1.899 7539
0.303 3.176 1.692 4030
0.341 3.584 1.882 7122
0.293 3.075 1.631 4288
0.341 3.575 1.865 9801
0.293 3.079 1.622 4079
0.342 3.587 1.858 9288
0.294 3.083 1.613 4610
0.352 3.692 1.895 7708
0.295 3.095 1.607 4946
0.352 3.697 1.885 10075
0.296 3.106 1.602 4719
0.352 3.695 1.871 10887
0.296 3.110 1.593 3355
0.350 3.671 1.846 10089
0.363 3.807 1.910 2183
0.351 3.683 1.839 9903
0.364 3.819 1.903 2918
0.351 3.688 1.829 7244
0.364 3.824 1.892 3172
0.358 3.757 1.848 5103
0.303 3.184 1.583 2184
0.359 3.770 1.840 6141
0.372 3.906 1.902 2311
0.361 3.789 1.836 4948
0.301 3.164 1.552 2924
0.365 3.830 1.841 4154
0.302 3.168 1.543 3848
0.365 3.835 1.830 4209
0.378 3.971 1.891 3797
0.378 3.969 1.876 4600
0.365 3.832 1.815 3315
0.382 4.010 1.881 4299
0.369 3.873 1.820 2626
0.386 4.052 1.885 4602
0.373 3.914 1.825 3070
0.391 4.100 1.892 5746
0.378 3.963 1.832 4175
0.392 4.112 1.883 6587
0.379 3.975 1.824 5393
0.384 4.030 1.834 5885
0.397 4.168 1.893 2702
0.386 4.050 1.829 5202
0.399 4.188 1.887 2997
0.397 4.171 1.866 5084
0.384 4.033 1.808 2512
0.398 4.176 1.854 5031
0.385 4.038 1.796 1514
0.401 4.210 1.853 4639
0.388 4.072 1.796 1439
0.404 4.237 1.850 6232
0.390 4.098 1.793 1662
0.407 4.271 1.850 5356
0.420 4.410 1.906 2013
0.408 4.284 1.840 5003
0.421 4.423 1.896 2622
0.410 4.303 1.834 5206
0.423 4.442 1.889 2487
0.413 4.330 1.830 5275
0.426 4.469 1.885 3517
0.424 4.452 1.863 6234
0.411 4.313 1.809 4262
0.425 4.457 1.851 5341
0.411 4.318 1.796 3691
0.423 4.440 1.829 4556
0.436 4.580 1.883 2479
0.423 4.438 1.813 6466
0.436 4.578 1.867 2904
0.424 4.450 1.803 5796
0.450 4.723 1.907 3413
0.451 4.735 1.896 4073
0.436 4.573 1.835 3527
0.453 4.755 1.887 5242
0.440 4.615 1.835 4223
0.453 4.753 1.871 4612
0.439 4.612 1.819 3500
0.441 4.632 1.811 4956
0.458 4.802 1.873 4307
0.444 4.659 1.806 4784
0.459 4.822 1.865 4169
0.462 4.849 1.859 4927
0.444 4.664 1.792 2793
0.456 4.788 1.821 5137
0.474 4.973 1.887 2819
0.459 4.815 1.815 4235
0.474 4.978 1.873 2812
0.468 4.916 1.835 4315
0.486 5.102 1.900 2047
0.470 4.936 1.826 5231
0.487 5.108 1.885 3675
0.473 4.963 1.819 5488
0.488 5.120 1.872 3660
0.475 4.983 1.810 5019
0.499 5.237 1.896 3323
0.499 5.235 1.878 5685
0.478 5.018 1.805 3447
0.499 5.240 1.863 5404
0.481 5.053 1.801 2439
0.508 5.335 1.877 3644
0.487 5.110 1.803 3193
0.515 5.407 1.883 2913
0.499 5.235 1.827 1945
0.518 5.442 1.877 3059
0.505 5.300 1.831 2447
0.516 5.417 1.852 3685
0.503 5.274 1.806 2281
0.515 5.407 1.832 3690
0.534 5.603 1.893 1983
0.515 5.404 1.813 1834
0.534 5.608 1.877 1531
0.516 5.417 1.800 1660
0.530 5.567 1.847 1654
0.531 5.572 1.831 2127
0.551 5.783 1.895 1737
0.551 5.781 1.876 2917
0.564 5.924 1.920 1890
0.551 5.778 1.857 2758
0.565 5.930 1.902 2345
0.565 5.935 1.885 2097
0.586 6.146 1.948 1727
0.585 6.136 1.926 2375
0.571 5.993 1.883 1350
0.584 6.134 1.906 3095
0.609 6.391 1.980 1525
0.585 6.139 1.888 2421
0.610 6.404 1.964 2291
0.611 6.417 1.947 2336
0.582 6.106 1.859 2021
0.618 6.483 1.946 2733
0.589 6.179 1.861 1803
0.619 6.496 1.929 1958
0.636 6.671 1.978 1685
0.651 6.828 2.000 2745
0.637 6.683 1.960 2086
0.651 6.833 1.980 5041
0.637 6.689 1.941 1840
0.652 6.839 1.960 4443
0.669 7.021 2.009 2097
0.651 6.829 1.936 2667
0.674 7.072 2.001 2167
0.675 7.085 1.982 2652
0.696 7.307 2.040 1822
0.697 7.312 2.019 2679
0.675 7.083 1.960 2165
0.723 7.593 2.068 1978
0.699 7.333 2.002 1669
0.724 7.598 2.046 2752
0.738 7.743 2.083 2216
0.738 7.741 2.058 2663
0.724 7.596 2.022 2098
0.739 7.754 2.037 2924
0.725 7.609 2.002 2049
0.739 7.760 2.015 2242
0.787 8.258 2.136 2222
0.787 8.256 2.110 3235
0.738 7.750 1.988 1311
0.787 8.262 2.086 2223
0.824 8.645 2.177 1147
0.825 8.659 2.153 1702
0.785 8.237 2.055 1352
0.839 8.803 2.160 1838
0.825 8.657 2.126 1536
0.840 8.816 2.136 2484
0.855 8.978 2.173 1608
0.840 8.814 2.109 2203
0.856 8.984 2.147 1662
0.840 8.820 2.083 2011
0.857 8.997 2.122 1439
0.841 8.826 2.057 1938
0.858 9.003 2.096 1183
0.885 9.286 2.130 1521
0.863 9.055 2.080 1092
0.887 9.307 2.106 2236
0.901 9.453 2.137 1446
0.891 9.351 2.087 2028
0.908 9.529 2.124 1557
0.919 9.642 2.118 1484
0.897 9.419 2.072 1434
0.899 9.440 2.048 1656
0.921 9.671 2.095 1376
0.924 9.700 2.071 1382
0.900 9.445 2.020 1353
0.953 10.007 2.103 1326
0.930 9.760 2.054 1306
0.954 10.013 2.073 1899
1.012 10.624 2.192 1396
1.013 10.630 2.161 1528
0.954 10.011 2.043 993
1.014 10.644 2.131 1085
0.979 10.272 2.061 1023
1.091 11.456 2.249 1156
0.981 10.293 2.034 1064
1.040 10.911 2.116 1323
1.092 11.462 2.216 1299
1.114 11.693 2.223 1493
1.151 12.081 2.292 1273
1.124 11.800 2.206 1647
1.151 12.079 2.256 1190
1.116 11.712 2.156 1193
1.147 12.039 2.212 1150
1.147 12.037 2.176 1170
1.116 11.718 2.122 1117
1.333 13.994 2.466 826
1.144 12.012 2.135 796
1.262 13.246 2.302 815
1.334 14.001 2.425 780
1.337 14.031 2.388 899
1.190 12.490 2.140 772
1.336 14.022 2.345 981
1.336 14.020 2.303 777
0.226 2.307 1.807 5144
0.227 2.311 1.800 10289
0.215 2.191 1.711 899
0.227 2.316 1.793 10289
0.239 2.437 1.882 1303
0.228 2.327 1.791 8393
0.240 2.449 1.879 2294
0.236 2.403 1.835 7163
0.224 2.281 1.748 2632
0.238 2.420 1.838 10264
0.226 2.298 1.750 2377
0.238 2.425 1.831 13491
0.226 2.303 1.744 1309
0.239 2.430 1.824 13491
0.227 2.308 1.737 1309
0.239 2.435 1.817 11791
0.251 2.558 1.903 2412
0.239 2.433 1.805 10259
0.251 2.556 1.891 4309
0.238 2.425 1.789 6769
0.250 2.548 1.875 5991
0.253 2.579 1.886 7780
0.237 2.417 1.773 3740
0.253 2.578 1.874 8053
0.237 2.415 1.762 2643
0.252 2.563 1.853 8664
0.238 2.420 1.755 1549
0.252 2.568 1.846 8664
0.240 2.444 1.761 1229
0.250 2.547 1.821 9216
0.262 2.671 1.904 2275
0.250 2.545 1.809 11110
0.262 2.670 1.892 3469
0.250 2.550 1.802 9593
0.263 2.682 1.889 3599
0.251 2.555 1.794 8132
0.264 2.693 1.886 4043
0.252 2.566 1.791 5653
0.265 2.698 1.878 4454
0.265 2.697 1.866 4910
0.252 2.571 1.784 3260
0.264 2.689 1.849 5135
0.252 2.563 1.768 2337
0.262 2.667 1.825 6690
0.249 2.541 1.743 1059
0.263 2.679 1.821 5876
0.275 2.805 1.902 1565
0.263 2.683 1.813 5100
0.276 2.810 1.894 2244
0.264 2.688 1.806 4058
0.276 2.815 1.886 3543
0.276 2.813 1.874 4925
0.264 2.686 1.794 2929
0.277 2.825 1.870 4358
0.265 2.698 1.790 3172
0.281 2.864 1.882 4353
0.267 2.723 1.795 3994
0.284 2.889 1.886 4376
0.268 2.734 1.791 3449
0.285 2.907 1.886 4938
0.269 2.739 1.783 2927
0.294 3.000 1.931 4153
0.282 2.872 1.853 2794
0.295 3.005 1.923 5628
0.282 2.877 1.845 2069
0.296 3.017 1.918 6732
0.284 2.889 1.841 2591
0.297 3.022 1.909 7838
0.284 2.894 1.833 3034
0.297 3.021 1.897 7480
0.284 2.892 1.820 3059
0.293 2.985 1.864 9645
0.280 2.856 1.788 1859
0.294 2.997 1.859 9159
0.281 2.867 1.784 1931
0.299 3.043 1.874 8803
0.285 2.899 1.791 2058
0.300 3.054 1.870 7752
0.313 3.184 1.944 1828
0.300 3.060 1.861 6807
0.313 3.190 1.935 2270
0.301 3.065 1.852 5862
0.314 3.195 1.926 2353
0.309 3.152 1.890 5693
0.297 3.021 1.816 2536
0.311 3.164 1.884 6525
0.298 3.033 1.811 1659
0.311 3.169 1.875 5073
0.298 3.038 1.802 1496
0.312 3.174 1.866 4143
0.324 3.305 1.939 2900
0.323 3.290 1.918 5085
0.310 3.158 1.846 4352
0.323 3.295 1.908 5947
0.311 3.163 1.836 4017
0.324 3.300 1.899 6808
0.311 3.168 1.827 4005
0.325 3.312 1.893 6944
0.312 3.180 1.822 4729
0.326 3.317 1.883 6685
0.313 3.185 1.813 3658
0.327 3.336 1.881 6523
0.314 3.204 1.811 2712
0.328 3.341 1.872 5758
0.309 3.146 1.769 2250
0.328 3.346 1.862 4823
0.341 3.479 1.931 2208
0.338 3.442 1.899 5338
0.325 3.309 1.830 3607
0.338 3.447 1.890 5706
0.306 3.118 1.720 4406
0.330 3.361 1.833 5649
0.348 3.543 1.926 5303
0.309 3.148 1.712 6145
0.349 3.556 1.920 5032
0.309 3.152 1.703 7818
0.350 3.561 1.909 5337
0.311 3.164 1.698 6726
0.351 3.580 1.906 6643
0.353 3.592 1.899 7863
0.311 3.168 1.689 4090
0.352 3.583 1.882 7104
0.301 3.067 1.627 3418
0.352 3.581 1.868 8943
0.302 3.078 1.622 4153
0.352 3.586 1.858 8098
0.303 3.083 1.613 4858
0.362 3.690 1.895 7976
0.303 3.087 1.604 4069
0.363 3.696 1.885 10366
0.350 3.560 1.820 3520
0.362 3.686 1.867 11564
0.304 3.095 1.586 3857
0.360 3.670 1.846 10830
0.304 3.100 1.577 3688
0.361 3.675 1.836 10085
0.374 3.811 1.899 2891
0.361 3.680 1.825 7238
0.375 3.816 1.888 3214
0.369 3.756 1.848 4846
0.309 3.148 1.567 2120
0.370 3.768 1.840 5991
0.309 3.152 1.558 2699
0.372 3.788 1.836 4888
0.310 3.156 1.549 3384
0.383 3.900 1.873 4473
0.310 3.160 1.540 3632
0.386 3.927 1.872 4615
0.311 3.164 1.530 3303
0.389 3.961 1.873 4563
0.375 3.824 1.812 3082
0.394 4.016 1.884 3659
0.381 3.879 1.823 2683
0.398 4.058 1.888 4406
0.385 3.920 1.828 3200
0.402 4.099 1.892 5537
0.389 3.961 1.832 4233
0.403 4.104 1.880 6504
0.389 3.966 1.821 5404
0.404 4.116 1.871 5938
0.391 3.978 1.812 4181
0.397 4.049 1.829 4602
0.411 4.187 1.887 3039
0.409 4.170 1.866 4744
0.396 4.032 1.808 2215
0.410 4.175 1.854 4519
0.423 4.313 1.911 1164
0.412 4.202 1.850 4674
0.399 4.063 1.793 1304
0.415 4.229 1.847 6215
0.401 4.090 1.790 1664
0.419 4.270 1.850 5585
0.433 4.409 1.906 2037
0.420 4.275 1.837 5318
0.433 4.414 1.893 2713
0.422 4.295 1.831 5363
0.435 4.434 1.886 2603
0.425 4.329 1.830 5611
0.439 4.468 1.885 3355
0.427 4.348 1.823 6861
0.441 4.488 1.878 4154
0.437 4.449 1.848 6572
0.423 4.309 1.793 3456
0.436 4.439 1.829 5289
0.449 4.579 1.883 2521
0.436 4.437 1.813 6235
0.449 4.576 1.867 2830
0.437 4.456 1.806 5529
0.463 4.714 1.904 4095
0.464 4.727 1.893 4467
0.450 4.586 1.840 3448
0.455 4.636 1.844 5020
0.469 4.776 1.896 4106
0.457 4.655 1.836 4376
0.471 4.796 1.887 3884
0.471 4.794 1.871 4877
0.455 4.631 1.811 4802
0.457 4.658 1.806 5091
0.473 4.821 1.865 4485
0.476 4.848 1.859 5434
0.458 4.663 1.792 3269
0.476 4.853 1.845 5420
0.490 4.994 1.895 2839
0.471 4.799 1.810 4493
0.489 4.977 1.873 2422
0.482 4.908 1.832 4281
0.496 5.049 1.881 1996
0.484 4.927 1.823 4781
0.501 5.099 1.882 3670
0.486 4.955 1.816 4716
0.502 5.111 1.870 3725
0.490 4.989 1.812 4680
0.514 5.236 1.896 3227
0.514 5.233 1.878 5111
0.492 5.017 1.805 3455
0.513 5.231 1.860 4969
0.495 5.044 1.798 2555
0.523 5.326 1.875 3570
0.504 5.131 1.810 3253
0.531 5.406 1.883 2925
0.511 5.203 1.818 2194
0.534 5.441 1.877 3153
0.520 5.298 1.831 2331
0.532 5.416 1.852 4142
0.518 5.273 1.806 2219
0.531 5.413 1.834 4123
0.517 5.270 1.789 2000
0.530 5.395 1.811 1880
0.544 5.538 1.856 1417
0.532 5.415 1.800 2150
0.546 5.558 1.844 1506
0.534 5.443 1.791 2517
0.567 5.774 1.893 1854
0.567 5.779 1.876 2932
0.581 5.923 1.920 2193
0.568 5.784 1.859 2802
0.582 5.928 1.902 2233
0.582 5.925 1.883 1656
0.603 6.145 1.948 1589
0.602 6.135 1.926 2389
0.624 6.362 1.992 1176
0.602 6.132 1.906 2958
0.627 6.390 1.980 1635
0.629 6.402 1.964 2476
0.600 6.115 1.881 2284
0.630 6.415 1.947 2625
0.599 6.104 1.859 2120
0.637 6.489 1.948 2474
0.603 6.140 1.850 1563
0.670 6.828 2.022 1914
0.655 6.676 1.980 1753
0.670 6.826 2.000 3218
0.656 6.682 1.960 2239
0.671 6.831 1.980 4911
0.656 6.687 1.941 2031
0.670 6.829 1.958 4412
0.688 7.012 2.007 2282
0.671 6.834 1.938 2976
0.694 7.071 2.001 2002
0.695 7.076 1.980 2549
0.674 6.862 1.924 2002
0.718 7.310 2.019 2722
0.695 7.081 1.960 2157
0.744 7.583 2.066 2312
0.720 7.338 2.003 1875
0.745 7.588 2.044 3155
0.759 7.734 2.081 1935
0.745 7.594 2.022 2490
0.760 7.739 2.058 2204
0.761 7.752 2.037 2338
0.746 7.599 2.000 2286
0.810 8.256 2.136 2283
0.762 7.758 2.015 1843
0.810 8.254 2.110 3203
0.760 7.740 1.987 1172
0.811 8.259 2.086 2278
0.848 8.643 2.177 1160
0.850 8.656 2.153 1734
0.810 8.250 2.058 1304
0.864 8.800 2.160 1885
0.850 8.654 2.126 1484
0.865 8.814 2.136 2647
0.881 8.975 2.173 1407
0.865 8.812 2.109 2313
0.882 8.981 2.147 1635
0.866 8.818 2.083 2120
0.882 8.987 2.121 1456
0.866 8.823 2.057 2070
0.883 8.993 2.094 1254
0.912 9.291 2.131 1392
0.881 8.975 2.063 1189
0.913 9.304 2.106 2043
0.928 9.451 2.137 1596
0.918 9.349 2.087 1797
0.934 9.518 2.122 1737
0.935 9.524 2.094 1556
0.949 9.671 2.125 1376
0.926 9.437 2.048 1651
0.948 9.661 2.093 1422
0.952 9.698 2.071 1397
0.927 9.443 2.020 1251
0.982 10.005 2.103 1332
1.036 10.554 2.211 1295
0.982 10.003 2.072 1970
1.035 10.544 2.177 1460
1.043 10.627 2.161 1596
0.982 10.008 2.043 1061
1.047 10.664 2.136 1264
1.102 11.222 2.241 1211
1.103 11.235 2.209 1138
1.124 11.452 2.249 1108
1.072 10.916 2.117 1233
1.125 11.459 2.216 1178
1.185 12.070 2.291 1355
1.146 11.674 2.220 1346
1.158 11.796 2.206 1572
1.185 12.076 2.256 1301
1.181 12.035 2.212 1244
1.150 11.717 2.157 1194
1.181 12.033 2.176 1165
1.150 11.715 2.122 1085
1.373 13.990 2.466 973
1.300 13.243 2.302 911
1.374 13.997 2.425 892
1.375 14.011 2.386 911
1.226 12.486 2.140 797
1.375 14.010 2.344 1014
1.294 13.185 2.213 761
1.376 14.016 2.303 796
0.231 2.306 1.807 4912
0.232 2.311 1.800 9824
0.220 2.190 1.711 896
0.232 2.316 1.793 9824
0.244 2.437 1.882 1106
0.233 2.327 1.791 7852
0.246 2.448 1.879 2212
0.242 2.408 1.840 7229
0.229 2.287 1.752 2838
0.243 2.420 1.838 10333
0.230 2.298 1.750 2102
0.243 2.425 1.831 13475
0.231 2.303 1.744 1055
0.244 2.430 1.824 13475
0.256 2.552 1.911 1152
0.244 2.434 1.817 11860
0.256 2.557 1.903 2321
0.244 2.433 1.805 10343
0.256 2.556 1.891 3998
0.243 2.425 1.789 6847
0.256 2.548 1.875 5686
0.259 2.579 1.886 7790
0.240 2.391 1.755 3841
0.258 2.577 1.874 8393
0.243 2.421 1.766 2865
0.258 2.569 1.857 9289
0.245 2.446 1.773 2040
0.258 2.574 1.850 9289
0.246 2.450 1.766 1815
0.255 2.547 1.821 9339
0.268 2.671 1.904 2442
0.255 2.545 1.809 11332
0.268 2.669 1.892 3695
0.256 2.550 1.802 9664
0.269 2.681 1.889 3963
0.257 2.561 1.799 8070
0.270 2.693 1.886 4447
0.257 2.566 1.791 5452
0.271 2.698 1.878 4613
0.271 2.703 1.870 4780
0.258 2.577 1.788 2983
0.270 2.688 1.849 4854
0.257 2.562 1.768 2201
0.267 2.666 1.825 6510
0.255 2.540 1.743 1035
0.269 2.678 1.821 5803
0.281 2.804 1.902 1474
0.269 2.683 1.813 5201
0.282 2.809 1.894 2077
0.270 2.688 1.806 3921
0.282 2.814 1.886 3490
0.282 2.813 1.874 4985
0.269 2.686 1.794 2642
0.283 2.824 1.870 4449
0.271 2.697 1.790 2865
0.286 2.856 1.878 4180
0.274 2.729 1.799 3859
0.290 2.895 1.891 4423
0.274 2.734 1.791 3463
0.292 2.907 1.886 5113
0.275 2.739 1.783 3067
0.301 2.999 1.931 4352
0.288 2.871 1.853 2845
0.301 3.005 1.923 5966
0.288 2.876 1.845 2218
0.302 3.010 1.914 6915
0.289 2.881 1.837 2772
0.303 3.022 1.909 7877
0.289 2.879 1.825 3344
0.303 3.020 1.897 7574
0.290 2.891 1.820 3410
0.299 2.984 1.864 9284
0.286 2.855 1.788 2248
0.300 2.996 1.859 8868
0.288 2.867 1.784 2306
0.305 3.042 1.874 9163
0.291 2.899 1.791 2417
0.306 3.047 1.866 8037
0.291 2.897 1.779 2071
0.306 3.052 1.857 7179
0.319 3.182 1.931 2761
0.307 3.057 1.848 6322
0.320 3.187 1.922 3176
0.316 3.151 1.890 6088
0.303 3.021 1.816 2774
0.317 3.163 1.884 6935
0.304 3.032 1.811 1926
0.318 3.168 1.875 5348
0.305 3.037 1.802 1779
0.318 3.173 1.866 4423
0.331 3.304 1.939 2619
0.329 3.282 1.914 5116
0.316 3.151 1.842 4132
0.330 3.294 1.908 5754
0.317 3.162 1.836 4164
0.331 3.299 1.899 6485
0.318 3.167 1.827 4428
0.331 3.304 1.889 6469
0.318 3.172 1.818 5009
0.333 3.316 1.883 6170
0.319 3.184 1.813 4390
0.334 3.328 1.877 6026
0.321 3.196 1.807 3439
0.335 3.340 1.872 5121
0.322 3.208 1.802 2670
0.336 3.345 1.862 4336
0.315 3.143 1.756 2206
0.345 3.441 1.899 4735
0.313 3.119 1.732 3810
0.337 3.355 1.843 5473
0.313 3.124 1.723 4897
0.348 3.472 1.890 5782
0.314 3.129 1.714 4801
0.316 3.147 1.712 6370
0.349 3.478 1.880 5943
0.316 3.152 1.703 8077
0.358 3.567 1.913 5037
0.317 3.163 1.698 7036
0.359 3.579 1.906 6766
0.360 3.591 1.899 8088
0.318 3.168 1.689 4335
0.360 3.589 1.885 7204
0.308 3.073 1.631 3722
0.359 3.580 1.868 8100
0.309 3.085 1.625 3650
0.369 3.678 1.903 7371
0.355 3.543 1.837 4076
0.369 3.683 1.892 8479
0.310 3.093 1.607 4849
0.370 3.688 1.881 10944
0.311 3.105 1.602 5968
0.370 3.686 1.867 12433
0.312 3.109 1.593 5208
0.369 3.676 1.850 11563
0.312 3.106 1.581 2873
0.368 3.674 1.836 10352
0.382 3.810 1.899 2682
0.369 3.679 1.825 7260
0.383 3.815 1.888 2984
0.377 3.756 1.848 4500
0.319 3.176 1.580 1625
0.378 3.768 1.840 5538
0.317 3.166 1.564 2320
0.379 3.780 1.832 4746
0.316 3.155 1.549 3183
0.390 3.892 1.870 5379
0.317 3.159 1.540 3472
0.392 3.912 1.865 4903
0.317 3.163 1.530 3075
0.394 3.931 1.860 4111
0.408 4.068 1.921 2467
0.393 3.922 1.842 3674
0.407 4.059 1.903 3040
0.407 4.057 1.888 4384
0.393 3.920 1.828 3484
0.410 4.091 1.889 5364
0.396 3.953 1.829 4304
0.412 4.103 1.880 6346
0.398 3.966 1.821 5550
0.412 4.108 1.868 5847
0.398 3.970 1.809 4260
0.415 4.142 1.868 4785
0.402 4.004 1.810 3073
0.417 4.162 1.863 4622
0.404 4.024 1.805 1920
0.419 4.174 1.854 3846
0.432 4.312 1.911 1280
0.421 4.201 1.850 4742
0.407 4.062 1.793 1292
0.424 4.228 1.847 6754
0.410 4.089 1.790 1854
0.428 4.269 1.850 6022
0.414 4.130 1.793 2095
0.426 4.245 1.826 5563
0.440 4.384 1.882 3347
0.431 4.294 1.831 5275
0.445 4.433 1.886 2167
0.435 4.335 1.833 5837
0.449 4.474 1.888 3102
0.436 4.347 1.823 7485
0.450 4.487 1.878 4102
0.445 4.440 1.845 7242
0.431 4.301 1.791 2970
0.444 4.431 1.826 5756
0.458 4.570 1.880 2534
0.445 4.436 1.813 5738
0.459 4.575 1.867 2474
0.447 4.455 1.806 4885
0.473 4.713 1.904 4272
0.474 4.726 1.893 4589
0.460 4.585 1.840 3089
0.465 4.635 1.844 5200
0.479 4.775 1.896 4316
0.479 4.780 1.882 4373
0.465 4.640 1.830 4207
0.481 4.793 1.871 5058
0.465 4.637 1.814 4879
0.467 4.657 1.806 5296
0.483 4.820 1.865 4453
0.486 4.847 1.859 5608
0.468 4.662 1.792 3561
0.487 4.852 1.845 5963
0.501 4.993 1.895 3047
0.489 4.872 1.836 4736
0.503 5.013 1.886 2262
0.492 4.907 1.832 4668
0.506 5.048 1.881 2294
0.494 4.926 1.823 4914
0.511 5.098 1.882 3924
0.496 4.946 1.814 4433
0.513 5.118 1.872 4312
0.500 4.988 1.812 4311
0.517 5.152 1.868 3460
0.524 5.225 1.875 4593
0.503 5.016 1.805 3201
0.525 5.230 1.860 4644
0.540 5.387 1.912 2890
0.538 5.362 1.887 3788
0.524 5.220 1.840 3258
0.539 5.375 1.874 2945
0.522 5.202 1.818 2620
0.546 5.440 1.877 3029
0.529 5.275 1.824 2444
0.543 5.415 1.852 4687
0.529 5.272 1.806 2179
0.543 5.412 1.834 4651
0.528 5.269 1.789 1972
0.551 5.492 1.842 2045
0.536 5.349 1.797 1405
0.544 5.422 1.802 2738
0.578 5.768 1.910 1903
0.547 5.449 1.794 3760
0.579 5.773 1.893 1950
0.580 5.778 1.876 2948
0.546 5.446 1.775 2774
0.580 5.783 1.859 2943
0.594 5.927 1.902 2026
0.580 5.781 1.840 1634
0.616 6.143 1.948 1535
0.616 6.141 1.928 2500
0.638 6.360 1.992 1096
0.616 6.139 1.908 2930
0.640 6.381 1.978 1391
0.643 6.409 1.966 2486
0.613 6.113 1.881 2152
0.643 6.414 1.947 2967
0.612 6.103 1.859 1932
0.651 6.487 1.948 2403
0.615 6.131 1.848 1489
0.681 6.789 2.011 2193
0.652 6.500 1.931 1749
0.684 6.825 2.000 3502
0.670 6.680 1.960 2281
0.685 6.830 1.980 4681
0.702 6.997 2.025 2129
0.685 6.828 1.958 4334
0.702 7.003 2.005 2580
0.685 6.833 1.938 3375
0.737 7.351 2.076 2133
0.710 7.074 1.980 2393
0.687 6.853 1.922 2188
0.735 7.324 2.023 2729
0.720 7.179 1.985 2067
0.760 7.581 2.066 2569
0.737 7.345 2.005 2160
0.760 7.579 2.042 3659
0.775 7.724 2.079 1757
0.761 7.585 2.020 2970
0.775 7.730 2.056 1762
0.761 7.590 1.998 2705
0.777 7.751 2.037 1717
0.828 8.254 2.136 2171
0.761 7.588 1.974 1978
0.828 8.260 2.112 2989
0.776 7.739 1.987 1173
0.828 8.258 2.086 2161
0.845 8.426 2.126 1257
0.868 8.654 2.153 1613
0.829 8.263 2.062 1293
0.882 8.798 2.160 1858
0.867 8.645 2.125 1411
0.883 8.804 2.134 2623
0.866 8.635 2.096 1318
0.884 8.810 2.109 2313
0.901 8.979 2.147 1620
0.884 8.816 2.083 2081
0.901 8.985 2.121 1514
0.885 8.821 2.057 1999
0.900 8.975 2.091 1456
0.900 8.973 2.063 1424
0.922 9.189 2.110 1297
0.933 9.302 2.106 1792
0.948 9.457 2.139 1743
0.954 9.516 2.122 1925
0.937 9.347 2.087 1453
0.956 9.530 2.096 1680
0.987 9.838 2.160 1325
0.947 9.443 2.049 1573
0.989 9.860 2.134 1408
0.974 9.711 2.074 1271
0.948 9.448 2.022 1161
1.002 9.995 2.101 1325
1.058 10.551 2.211 1225
1.003 10.000 2.072 1920
1.074 10.704 2.209 1582
1.067 10.641 2.164 1642
1.004 10.014 2.044 1062
1.069 10.662 2.136 1512
1.125 11.219 2.241 1292
1.127 11.233 2.209 1231
1.071 10.683 2.108 1109
1.095 10.914 2.117 1152
1.070 10.666 2.072 1115
1.210 12.067 2.291 1461
1.169 11.656 2.217 1383
1.183 11.794 2.206 1514
1.211 12.073 2.256 1394
1.206 12.025 2.211 1199
1.176 11.722 2.159 1113
1.206 12.023 2.174 1062
1.175 11.720 2.123 976
1.404 13.995 2.468 961
1.328 13.240 2.302 843
1.404 13.994 2.425 816
1.252 12.484 2.140 833
1.405 14.008 2.386 822
1.405 14.007 2.344 945
1.310 13.065 2.195 772
0.238 2.305 1.807 4499
0.239 2.310 1.800 8999
0.226 2.189 1.711 843
0.239 2.315 1.793 8999
0.252 2.436 1.882 978
0.241 2.326 1.791 7115
0.253 2.447 1.879 2169
0.250 2.414 1.845 7395
0.237 2.293 1.757 2970
0.250 2.419 1.838 10448
0.238 2.297 1.750 1945
0.251 2.424 1.831 13501
0.238 2.302 1.744 919
0.251 2.429 1.824 13501
0.264 2.551 1.911 1222
0.252 2.434 1.817 12066
0.264 2.556 1.903 2238
0.251 2.432 1.805 10645
0.264 2.555 1.891 3673
0.251 2.424 1.789 7140
0.265 2.566 1.888 5606
0.267 2.578 1.886 8045
0.247 2.390 1.755 4147
0.266 2.577 1.874 9243
0.254 2.453 1.789 3548
0.266 2.575 1.862 10683
0.253 2.451 1.777 3317
0.267 2.580 1.854 10683
0.254 2.456 1.770 2972
0.265 2.565 1.834 9540
0.278 2.690 1.918 2306
0.263 2.544 1.809 11389
0.276 2.669 1.892 3940
0.264 2.549 1.802 9502
0.277 2.680 1.889 4403
0.265 2.560 1.799 7697
0.278 2.692 1.886 4928
0.265 2.565 1.791 5161
0.279 2.697 1.878 4952
0.279 2.702 1.870 4976
0.266 2.577 1.788 2750
0.279 2.694 1.854 4816
0.266 2.568 1.772 2295
0.275 2.659 1.820 6364
0.288 2.785 1.902 1109
0.276 2.670 1.817 5834
0.289 2.797 1.898 1485
0.277 2.682 1.813 5332
0.290 2.808 1.894 1805
0.277 2.680 1.802 3801
0.290 2.807 1.882 3489
0.291 2.812 1.874 4978
0.278 2.685 1.794 2289
0.292 2.824 1.870 4495
0.279 2.696 1.790 2524
0.294 2.842 1.870 4161
0.281 2.715 1.791 3380
0.300 2.901 1.895 4403
0.283 2.740 1.795 3518
0.300 2.906 1.886 5156
0.284 2.744 1.788 3204
0.310 2.998 1.931 4527
0.297 2.870 1.853 2950
0.310 2.997 1.919 6241
0.297 2.869 1.841 2376
0.311 3.009 1.914 7073
0.298 2.880 1.837 2932
0.312 3.021 1.909 7958
0.298 2.878 1.825 3475
0.313 3.026 1.901 7576
0.300 2.897 1.824 3603
0.308 2.977 1.860 8706
0.294 2.847 1.784 2317
0.314 3.036 1.883 8824
0.301 2.907 1.808 3310
0.314 3.041 1.874 9362
0.299 2.891 1.787 2680
0.315 3.046 1.866 8271
0.300 2.903 1.783 2376
0.315 3.051 1.857 7555
0.329 3.181 1.931 2784
0.315 3.049 1.844 6889
0.329 3.179 1.918 3942
0.326 3.157 1.894 6327
0.313 3.027 1.820 3730
0.327 3.162 1.884 7170
0.313 3.032 1.811 2272
0.327 3.167 1.875 5492
0.314 3.036 1.802 2008
0.328 3.172 1.866 4586
0.342 3.303 1.939 2277
0.328 3.177 1.857 5358
0.342 3.309 1.929 3218
0.330 3.189 1.852 5764
0.343 3.321 1.923 3451
0.330 3.194 1.842 6345
0.344 3.326 1.914 4264
0.330 3.192 1.829 6731
0.344 3.324 1.900 4843
0.331 3.197 1.820 5571
0.344 3.329 1.891 4965
0.344 3.327 1.877 5245
0.330 3.195 1.807 4162
0.345 3.332 1.868 4363
0.331 3.200 1.798 3222
