1.835 4.122 1.849 2077
1.780 3.998 1.783 4497
1.840 4.133 1.839 2165
1.833 4.117 1.817 2782
1.894 4.253 1.873 2726
1.838 4.129 1.807 4625
1.896 4.257 1.860 4051
1.840 4.133 1.794 4791
1.898 4.262 1.846 3578
1.894 4.253 1.827 3676
1.836 4.124 1.776 2809
1.893 4.251 1.811 5547
1.968 4.421 1.879 2452
1.892 4.248 1.795 5608
1.970 4.425 1.865 3015
1.930 4.334 1.814 5406
1.872 4.205 1.763 2390
1.929 4.332 1.797 4728
1.987 4.462 1.847 2078
1.976 4.439 1.823 4393
1.919 4.309 1.773 2244
1.991 4.471 1.819 5642
1.933 4.341 1.770 1708
1.993 4.475 1.805 4254
1.935 4.345 1.756 1915
2.092 4.699 1.872 2382
2.025 4.548 1.816 2344
2.079 4.669 1.845 3327
2.021 4.539 1.797 2827
2.096 4.708 1.843 4856
2.023 4.543 1.783 2803
2.107 4.733 1.835 4763
2.025 4.547 1.768 2142
2.119 4.758 1.828 3978
2.060 4.627 1.781 1375
2.157 4.845 1.842 2730
2.099 4.714 1.796 2264
2.156 4.843 1.824 2690
2.098 4.712 1.778 1596
2.155 4.840 1.806 2444
2.281 5.123 1.905 1758
2.160 4.852 1.794 3067
2.286 5.134 1.891 2038
2.165 4.863 1.781 3708
2.291 5.146 1.877 2688
2.296 5.158 1.863 4619
2.170 4.874 1.767 2755
2.302 5.169 1.849 5786
2.191 4.920 1.766 2295
2.310 5.187 1.837 3863
2.193 4.924 1.750 1514
2.401 5.393 1.887 2473
2.318 5.206 1.825 2359
2.403 5.397 1.869 4778
2.314 5.196 1.804 1784
2.402 5.395 1.850 3704
2.313 5.194 1.786 1903
2.383 5.351 1.818 2421
2.478 5.566 1.886 1900
2.437 5.474 1.838 2125
2.378 5.342 1.796 1595
2.418 5.429 1.805 2303
2.507 5.631 1.868 1701
2.516 5.650 1.854 2318
2.419 5.434 1.788 1859
2.518 5.654 1.836 2248
2.632 5.912 1.914 2073
2.628 5.903 1.891 3171
2.569 5.770 1.852 1941
2.634 5.915 1.875 5812
2.693 6.047 1.914 1782
2.639 5.926 1.858 5589
2.698 6.059 1.897 1870
2.656 5.966 1.849 3265
2.796 6.280 1.940 2026
2.649 5.949 1.824 3008
2.805 6.299 1.924 2110
2.651 5.954 1.806 2259
2.801 6.290 1.900 2224
2.974 6.680 1.988 2944
2.903 6.519 1.943 2615
2.980 6.692 1.969 3527
2.905 6.524 1.922 2076
2.985 6.704 1.949 2660
3.088 6.936 2.012 1922
3.093 6.947 1.992 2692
2.909 6.533 1.881 1615
3.096 6.952 1.970 2368
3.246 7.290 2.060 1939
3.245 7.288 2.035 3411
3.126 7.021 1.965 1450
3.250 7.300 2.013 3292
3.326 7.469 2.057 1406
3.256 7.312 1.992 3939
3.331 7.481 2.035 1427
3.258 7.317 1.969 4063
3.421 7.683 2.061 1787
3.260 7.322 1.945 2929
3.420 7.681 2.035 2534
3.419 7.679 2.009 2153
3.523 7.912 2.066 1914
3.532 7.931 2.044 2102
3.626 8.143 2.095 1558
3.537 7.944 2.020 2133
3.625 8.141 2.067 1462
3.539 7.949 1.995 1707
3.624 8.139 2.040 1336
3.626 8.145 2.014 1506
3.743 8.406 2.075 1275
3.742 8.404 2.046 1754
3.629 8.150 1.988 1309
3.779 8.487 2.037 1826
4.113 9.238 2.206 1176
3.649 8.195 1.944 1563
3.961 8.896 2.100 1300
3.648 8.192 1.917 1344
3.979 8.937 2.079 1261
3.982 8.942 2.051 1676
4.301 9.659 2.205 1135
3.981 8.940 2.021 1504
4.332 9.728 2.188 1485
4.337 9.741 2.158 1912
4.410 9.904 2.192 1333
4.336 9.739 2.126 2146
4.412 9.910 2.161 1193
4.332 9.730 2.092 1889
4.465 10.029 2.152 1319
4.575 10.276 2.168 1622
4.325 9.714 2.057 1579
4.578 10.282 2.135 1493
4.657 10.460 2.170 1149
4.856 10.907 2.221 1234
4.663 10.472 2.138 1198
4.767 10.705 2.148 1133
4.941 11.097 2.222 1100
5.360 12.037 2.359 1554
5.106 11.467 2.254 969
5.365 12.050 2.322 2041
5.111 11.479 2.218 1322
5.371 12.063 2.285 2143
5.114 11.485 2.182 1667
5.370 12.061 2.246 2595
5.116 11.490 2.145 1426
5.373 12.067 2.207 3127
5.484 12.317 2.250 1413
5.375 12.073 2.169 2611
5.474 12.294 2.206 1529
5.381 12.085 2.131 2159
5.460 12.264 2.161 1071
5.383 12.090 2.093 1974
5.386 12.095 2.054 1481
5.500 12.353 2.095 758
5.388 12.101 2.016 984
5.018 11.271 1.704 1020
5.020 11.275 1.668 1059
5.025 11.286 1.633 821
0.934 2.086 1.783 2447
0.936 2.091 1.777 4895
0.985 2.201 1.865 1238
0.938 2.095 1.770 4895
0.987 2.206 1.859 2477
0.950 2.123 1.782 5778
1.000 2.234 1.870 2146
0.957 2.139 1.785 7557
1.007 2.250 1.872 2254
0.962 2.149 1.783 6790
1.012 2.261 1.870 2371
0.969 2.165 1.785 6544
1.019 2.277 1.872 2130
0.971 2.170 1.778 6544
1.021 2.282 1.865 2202
0.976 2.180 1.776 6214
1.026 2.292 1.862 2866
1.012 2.261 1.828 6559
0.962 2.149 1.742 1649
1.003 2.242 1.803 7106
1.054 2.355 1.888 1000
1.003 2.241 1.791 8561
1.053 2.354 1.877 1720
1.021 2.281 1.811 9080
0.970 2.167 1.726 1354
1.025 2.291 1.808 11856
0.975 2.178 1.724 1852
1.027 2.296 1.801 11856
0.977 2.182 1.717 1449
1.037 2.318 1.807 10821
0.986 2.204 1.724 1743
1.048 2.341 1.813 10852
0.996 2.226 1.730 2299
1.047 2.339 1.802 9830
0.996 2.225 1.718 1730
1.046 2.337 1.790 8969
0.995 2.223 1.707 885
1.051 2.348 1.787 6747
0.999 2.233 1.705 788
1.055 2.358 1.784 4646
1.060 2.369 1.781 4634
1.070 2.391 1.786 5015
1.019 2.276 1.705 1104
1.080 2.414 1.791 4242
1.029 2.298 1.711 1329
1.091 2.437 1.797 3992
1.039 2.321 1.716 1148
1.095 2.447 1.793 4693
1.043 2.331 1.713 810
1.100 2.458 1.790 5486
1.102 2.462 1.782 5412
1.154 2.579 1.861 845
1.104 2.466 1.774 5338
1.156 2.583 1.853 1174
1.106 2.471 1.766 4558
1.158 2.588 1.845 1192
1.111 2.481 1.763 3894
1.163 2.599 1.841 992
1.112 2.486 1.755 4508
1.165 2.603 1.833 2689
1.153 2.577 1.804 6617
1.101 2.459 1.727 2793
1.158 2.587 1.800 8738
1.105 2.469 1.723 2689
1.163 2.598 1.796 11088
1.110 2.480 1.719 2497
1.170 2.615 1.796 9399
1.117 2.496 1.720 3859
1.142 2.551 1.744 8508
1.195 2.669 1.820 4199
1.146 2.561 1.740 7456
1.199 2.680 1.815 4178
1.201 2.684 1.807 6205
1.148 2.565 1.732 4851
1.203 2.689 1.799 7625
1.150 2.570 1.724 2245
1.205 2.693 1.790 6494
1.152 2.574 1.716 1673
1.196 2.672 1.766 5881
1.249 2.792 1.840 2431
1.232 2.752 1.804 5337
1.178 2.632 1.731 2682
1.234 2.757 1.796 4502
1.180 2.637 1.722 2006
1.202 2.685 1.741 3665
1.264 2.824 1.825 3032
1.238 2.765 1.778 3618
1.291 2.886 1.851 2020
1.245 2.782 1.777 4351
1.299 2.903 1.849 2411
1.250 2.793 1.772 6086
1.304 2.914 1.844 2415
1.252 2.797 1.763 6915
1.306 2.918 1.835 2919
1.257 2.808 1.758 5916
1.311 2.929 1.829 2800
1.302 2.908 1.805 5017
1.247 2.787 1.735 3069
1.304 2.913 1.796 5693
1.249 2.791 1.726 1524
1.303 2.911 1.783 5750
1.360 3.039 1.857 1459
1.305 2.915 1.774 5144
1.359 3.037 1.844 2829
1.295 2.894 1.750 6211
1.350 3.016 1.819 5332
1.294 2.891 1.738 7230
1.352 3.020 1.810 5354
1.359 3.037 1.808 7129
1.302 2.909 1.736 5988
1.361 3.042 1.798 9061
1.307 2.919 1.730 3807
1.366 3.053 1.792 9372
1.311 2.930 1.725 3443
1.368 3.057 1.782 7494
1.313 2.934 1.715 2679
1.393 3.113 1.801 7908
1.335 2.984 1.731 3101
1.395 3.118 1.791 9129
1.340 2.994 1.725 2194
1.406 3.141 1.792 10231
1.351 3.018 1.726 3400
1.417 3.165 1.792 12352
1.361 3.042 1.727 4822
1.424 3.183 1.789 12331
1.369 3.059 1.724 2887
1.426 3.187 1.779 9140
1.482 3.311 1.844 2758
1.428 3.192 1.769 6440
1.484 3.316 1.833 2587
1.436 3.209 1.766 6699
1.509 3.372 1.850 1727
1.450 3.239 1.769 6675
1.514 3.384 1.843 2232
1.455 3.250 1.762 7460
1.516 3.388 1.832 2827
1.451 3.242 1.745 5643
1.518 3.393 1.821 5571
1.523 3.404 1.814 7108
1.467 3.279 1.751 2821
1.514 3.382 1.790 7869
1.581 3.533 1.865 3319
1.513 3.379 1.776 9980
1.580 3.531 1.851 4107
1.520 3.397 1.772 8647
1.582 3.536 1.839 3630
1.534 3.428 1.774 6533
1.590 3.553 1.835 3408
1.545 3.452 1.773 6516
1.601 3.578 1.833 3865
1.594 3.562 1.812 6092
1.538 3.436 1.752 4051
1.599 3.573 1.804 7214
1.543 3.447 1.745 2521
1.604 3.585 1.796 8463
1.542 3.445 1.731 1692
1.609 3.596 1.788 8277
1.666 3.722 1.846 1937
1.641 3.667 1.807 8708
1.584 3.540 1.749 1545
1.643 3.671 1.795 9673
1.706 3.811 1.859 1342
1.648 3.682 1.787 9092
1.711 3.822 1.850 1941
1.656 3.700 1.781 7278
1.725 3.854 1.850 1934
1.673 3.738 1.785 7597
1.736 3.878 1.847 2552
1.681 3.755 1.779 7494
1.738 3.883 1.835 2424
1.698 3.793 1.781 8183
1.785 3.988 1.867 2033
1.736 3.878 1.805 6821
1.679 3.751 1.749 5152
1.741 3.889 1.795 6555
1.684 3.762 1.740 4019
1.749 3.907 1.789 6068
1.692 3.779 1.734 2371
1.751 3.912 1.776 5664
1.808 4.040 1.831 2502
1.786 3.990 1.795 4705
1.843 4.118 1.849 2298
1.788 3.995 1.783 4229
1.851 4.136 1.842 2580
1.853 4.141 1.828 3108
1.787 3.992 1.767 2505
1.846 4.125 1.807 5019
1.904 4.254 1.860 3791
1.848 4.130 1.794 5049
1.906 4.258 1.846 3490
1.902 4.249 1.827 4043
1.844 4.120 1.776 2851
1.901 4.247 1.811 6293
1.980 4.424 1.881 2516
1.903 4.251 1.798 5745
1.982 4.428 1.867 2541
1.941 4.337 1.816 5695
1.883 4.208 1.766 2569
1.937 4.328 1.797 4529
1.995 4.458 1.847 1909
1.988 4.442 1.825 3976
1.930 4.312 1.776 2251
1.996 4.460 1.817 5857
1.938 4.330 1.767 1481
1.998 4.464 1.802 4982
2.056 4.594 1.851 1792
1.991 4.448 1.781 2457
2.049 4.578 1.829 1965
2.106 4.706 1.860 2723
2.030 4.535 1.797 2583
2.108 4.711 1.845 4310
2.032 4.539 1.783 2783
2.116 4.729 1.835 4641
2.058 4.598 1.788 2184
2.125 4.747 1.825 4002
2.066 4.617 1.778 1594
2.120 4.738 1.805 2715
2.179 4.868 1.852 2214
2.122 4.742 1.790 2576
2.181 4.873 1.836 1654
2.180 4.871 1.818 2188
2.288 5.112 1.902 1963
2.182 4.875 1.803 3005
2.293 5.123 1.889 2087
2.171 4.852 1.778 3339
2.298 5.135 1.875 2605
2.306 5.153 1.863 4085
2.214 4.946 1.793 2346
2.311 5.165 1.849 5090
2.200 4.916 1.766 2124
2.320 5.183 1.837 3439
2.202 4.920 1.750 1433
2.415 5.395 1.889 2520
2.328 5.201 1.825 1985
2.414 5.393 1.869 5081
2.321 5.185 1.802 1965
2.413 5.390 1.850 3802
2.319 5.182 1.783 2132
2.393 5.346 1.818 2514
2.489 5.562 1.886 1981
2.445 5.462 1.835 1902
2.386 5.330 1.794 1648
2.434 5.439 1.810 2595
2.515 5.620 1.866 1698
2.523 5.638 1.852 2238
2.436 5.443 1.792 1951
2.529 5.650 1.836 2230
2.606 5.824 1.889 1804
2.633 5.884 1.887 2751
2.574 5.752 1.848 1827
2.645 5.910 1.875 5003
2.586 5.777 1.835 2088
2.647 5.914 1.856 4742
2.894 6.466 2.017 1981
2.652 5.926 1.839 2555
2.896 6.471 1.997 2109
2.664 5.951 1.826 2790
2.764 6.175 1.890 2724
2.806 6.271 1.896 2366
2.907 6.494 1.960 2170
2.990 6.681 1.990 2753
2.915 6.513 1.943 2711
2.999 6.700 1.972 2807
2.920 6.525 1.924 2587
3.001 6.705 1.951 2572
3.101 6.930 2.012 1587
3.107 6.942 1.992 2602
2.997 6.696 1.926 1979
3.260 7.284 2.060 2127
3.109 6.946 1.970 2063
3.259 7.282 2.035 3277
3.155 7.050 1.974 1569
3.268 7.301 2.015 3448
3.170 7.083 1.959 1507
3.270 7.306 1.992 4444
3.348 7.482 2.037 1546
3.272 7.311 1.969 4583
3.436 7.677 2.061 1917
3.274 7.315 1.945 3473
3.435 7.675 2.035 2497
3.279 7.327 1.924 2133
3.437 7.680 2.010 1946
3.550 7.932 2.046 2239
3.638 8.129 2.093 1709
3.555 7.944 2.022 2143
3.638 8.127 2.066 1522
3.558 7.949 1.997 1899
3.640 8.133 2.040 1799
3.642 8.138 2.014 2238
3.566 7.968 1.975 1460
3.644 8.142 1.988 1736
3.758 8.397 2.046 1393
3.799 8.487 2.039 1434
3.982 8.898 2.131 1243
3.985 8.903 2.103 1751
3.661 8.181 1.943 1510
3.993 8.922 2.078 1995
3.660 8.178 1.915 1546
3.999 8.935 2.051 2095
4.316 9.644 2.203 1080
3.998 8.932 2.021 1594
4.309 9.628 2.168 1388
4.356 9.733 2.158 1839
3.997 8.930 1.991 1723
4.355 9.731 2.126 2185
3.999 8.935 1.962 2082
4.354 9.729 2.093 1829
4.001 8.940 1.934 1747
4.592 10.260 2.167 1582
4.341 9.699 2.055 1376
4.598 10.273 2.135 1460
4.680 10.458 2.171 1312
4.686 10.470 2.140 1362
4.877 10.897 2.221 1171
4.966 11.095 2.223 1062
4.787 10.696 2.148 1040
5.383 12.027 2.359 1257
4.892 10.929 2.156 1014
5.389 12.040 2.322 1602
5.133 11.469 2.218 1224
5.394 12.053 2.285 1695
5.136 11.475 2.182 1474
5.394 12.051 2.246 2127
5.515 12.322 2.293 1443
5.396 12.057 2.207 2619
5.508 12.307 2.250 1607
5.399 12.062 2.169 2219
5.498 12.284 2.206 1699
5.404 12.075 2.131 1846
5.484 12.253 2.161 1223
5.407 12.080 2.093 1672
5.409 12.085 2.054 1182
0.938 2.084 1.783 2427
0.940 2.089 1.777 4855
0.990 2.199 1.865 1266
0.942 2.093 1.770 4855
0.992 2.204 1.859 2532
0.955 2.121 1.782 5629
1.005 2.232 1.870 2163
0.962 2.137 1.785 7540
1.012 2.248 1.872 2251
0.969 2.153 1.787 6706
1.019 2.265 1.875 1813
0.974 2.163 1.785 6209
1.024 2.275 1.872 1827
0.976 2.168 1.778 6209
1.026 2.280 1.865 1891
1.007 2.237 1.821 5790
0.956 2.125 1.735 1250
1.014 2.253 1.823 6324
0.964 2.141 1.737 1095
1.008 2.240 1.803 7111
1.059 2.353 1.888 976
1.010 2.244 1.796 8600
1.061 2.357 1.881 1359
1.023 2.273 1.807 9039
0.972 2.159 1.722 1027
1.030 2.289 1.808 11568
0.979 2.176 1.724 1788
1.032 2.293 1.801 11568
0.981 2.180 1.717 1396
1.042 2.316 1.807 10467
0.991 2.202 1.724 1685
1.053 2.338 1.813 10599
1.001 2.224 1.730 2300
1.052 2.337 1.802 9984
1.000 2.222 1.718 1682
1.051 2.335 1.790 9585
1.000 2.221 1.707 838
1.053 2.340 1.783 7319
1.058 2.350 1.779 5060
1.062 2.360 1.776 4457
1.084 2.407 1.799 4464
1.032 2.292 1.718 1740
1.088 2.418 1.796 4410
1.036 2.302 1.715 1465
1.096 2.434 1.797 4516
1.044 2.318 1.716 1165
1.100 2.445 1.793 5395
1.048 2.329 1.713 827
1.105 2.455 1.790 6508
1.107 2.460 1.782 6323
1.160 2.576 1.861 751
1.109 2.464 1.774 6138
1.162 2.581 1.853 1061
1.111 2.468 1.766 4895
1.164 2.585 1.845 1097
1.113 2.473 1.759 3652
1.166 2.590 1.837 1133
1.157 2.570 1.812 4215
1.104 2.452 1.735 2853
1.161 2.580 1.808 6557
1.109 2.463 1.731 3131
1.163 2.585 1.800 8787
1.110 2.467 1.723 2513
1.168 2.595 1.796 11111
1.115 2.477 1.719 2442
1.142 2.538 1.748 9336
1.195 2.656 1.824 4366
1.147 2.548 1.744 9307
1.200 2.666 1.820 4114
1.152 2.559 1.740 8043
1.205 2.677 1.815 4059
1.207 2.682 1.807 5930
1.154 2.563 1.732 5257
1.209 2.686 1.799 7273
1.155 2.567 1.724 2470
1.200 2.665 1.774 6479
1.253 2.785 1.849 1648
1.199 2.663 1.762 6105
1.253 2.783 1.836 2278
1.201 2.668 1.754 4827
1.255 2.787 1.828 3297
1.237 2.748 1.792 4267
1.183 2.628 1.718 2096
1.210 2.689 1.745 3931
1.273 2.828 1.829 2647
1.212 2.693 1.736 3710
1.275 2.832 1.820 3255
1.251 2.780 1.777 4158
1.305 2.900 1.849 2441
1.256 2.790 1.772 6044
1.310 2.911 1.844 2403
1.261 2.801 1.767 7157
1.315 2.922 1.839 2650
1.263 2.805 1.758 6232
1.317 2.926 1.829 2844
1.308 2.905 1.805 5454
1.253 2.784 1.735 2834
1.310 2.910 1.796 6295
1.255 2.788 1.726 1467
1.312 2.914 1.787 6151
1.257 2.793 1.717 1669
1.311 2.912 1.774 5163
1.366 3.034 1.844 2796
1.301 2.891 1.750 6049
1.356 3.013 1.819 5457
1.300 2.889 1.738 7053
1.358 3.017 1.810 5471
1.363 3.028 1.804 6782
1.308 2.906 1.736 5720
1.368 3.039 1.798 8236
1.313 2.916 1.730 3665
1.370 3.043 1.789 8755
1.315 2.921 1.721 2660
1.372 3.048 1.779 7232
1.317 2.925 1.712 2162
1.403 3.117 1.804 7257
1.342 2.981 1.731 3501
1.405 3.121 1.795 8672
1.349 2.998 1.728 2575
1.413 3.138 1.792 9797
1.357 3.015 1.726 3178
1.423 3.162 1.792 11954
1.368 3.039 1.727 4691
1.431 3.180 1.789 11858
1.376 3.056 1.724 2980
1.433 3.184 1.779 8672
1.489 3.308 1.844 2467
1.435 3.188 1.769 6355
1.491 3.312 1.833 2432
1.443 3.206 1.766 7094
1.517 3.369 1.850 1687
1.460 3.243 1.772 7150
1.524 3.387 1.846 2170
1.462 3.247 1.762 7394
1.524 3.385 1.832 2810
1.455 3.232 1.742 5958
1.529 3.396 1.824 5722
1.531 3.400 1.814 7289
1.457 3.236 1.732 3108
1.518 3.372 1.787 7765
1.586 3.523 1.862 3092
1.517 3.370 1.773 10188
1.585 3.521 1.847 4016
1.528 3.394 1.772 8767
1.587 3.526 1.836 3607
1.538 3.418 1.771 6743
1.595 3.543 1.831 3613
1.552 3.449 1.773 6041
1.609 3.574 1.833 4240
1.602 3.559 1.812 5970
1.545 3.433 1.752 3703
1.607 3.570 1.804 7078
1.550 3.444 1.745 2278
1.612 3.581 1.796 8541
1.552 3.448 1.734 1664
1.617 3.592 1.788 8404
1.674 3.718 1.846 1868
1.649 3.663 1.807 8231
1.592 3.537 1.749 1764
1.651 3.668 1.795 9098
1.594 3.541 1.738 1573
1.656 3.679 1.787 8887
1.719 3.819 1.850 1917
1.667 3.703 1.784 7844
1.730 3.843 1.847 1733
1.681 3.734 1.785 8120
1.747 3.881 1.850 2080
1.689 3.752 1.779 8079
1.746 3.879 1.835 2084
1.703 3.783 1.779 8518
1.760 3.910 1.834 2104
1.699 3.774 1.761 7214
1.756 3.901 1.816 5765
1.752 3.892 1.798 6682
1.695 3.765 1.743 4880
1.757 3.904 1.789 6144
1.700 3.776 1.734 2634
1.759 3.908 1.776 5636
1.817 4.036 1.831 2554
1.797 3.993 1.798 4166
1.858 4.128 1.855 2064
1.793 3.984 1.780 3794
1.863 4.139 1.844 2568
1.865 4.144 1.831 3172
1.798 3.995 1.770 2583
1.858 4.128 1.810 5029
1.916 4.256 1.862 3382
1.857 4.126 1.794 4969
1.915 4.254 1.846 3397
1.911 4.245 1.827 4350
1.853 4.116 1.776 2746
1.910 4.243 1.811 6732
1.989 4.419 1.881 2299
1.915 4.254 1.800 5785
1.994 4.431 1.870 2238
1.951 4.333 1.816 5503
1.892 4.204 1.766 2753
1.946 4.324 1.797 4387
2.005 4.454 1.847 1992
1.997 4.438 1.825 4280
1.939 4.308 1.776 2357
2.003 4.449 1.814 6022
2.061 4.578 1.863 1551
2.005 4.453 1.800 5128
2.063 4.583 1.849 1989
2.000 4.444 1.781 2619
2.059 4.574 1.829 2185
2.039 4.530 1.797 2708
2.119 4.708 1.863 2466
2.118 4.706 1.845 3989
2.041 4.535 1.783 2948
2.126 4.724 1.835 4625
2.068 4.594 1.788 2374
2.135 4.743 1.825 3987
2.076 4.612 1.778 1686
2.127 4.726 1.803 2753
2.186 4.857 1.849 2300
2.132 4.738 1.790 2425
2.300 5.109 1.921 1732
2.193 4.873 1.821 2252
2.302 5.114 1.905 2002
2.195 4.877 1.805 2959
2.304 5.118 1.889 1740
2.179 4.840 1.776 3023
2.238 4.971 1.821 2229
2.317 5.148 1.863 3566
2.221 4.934 1.791 2686
2.326 5.167 1.851 4447
2.211 4.911 1.766 2138
2.331 5.178 1.837 3037
2.212 4.915 1.750 1476
2.423 5.383 1.887 2453
2.336 5.189 1.823 1757
2.425 5.388 1.869 5007
2.328 5.173 1.800 1931
2.424 5.385 1.850 3732
2.330 5.177 1.783 2013
2.407 5.348 1.820 2100
2.501 5.556 1.886 1960
2.444 5.429 1.827 1691
2.512 5.582 1.875 1489
2.443 5.427 1.807 2650
2.524 5.607 1.863 1778
2.535 5.633 1.852 2174
2.448 5.438 1.792 2030
2.544 5.651 1.838 2206
2.663 5.915 1.919 1836
2.643 5.871 1.885 2914
2.583 5.739 1.845 1784
2.654 5.897 1.873 4556
2.714 6.029 1.912 2302
2.660 5.909 1.856 4128
2.719 6.041 1.895 2043
2.662 5.913 1.837 2298
2.910 6.465 1.997 2055
2.780 6.176 1.892 3138
2.676 5.946 1.826 2605
2.820 6.265 1.896 2397
2.920 6.488 1.960 2193
2.929 6.507 1.943 2682
3.005 6.675 1.990 2487
2.937 6.526 1.926 2956
3.016 6.701 1.974 2580
3.015 6.699 1.951 2605
2.955 6.566 1.915 1780
3.121 6.935 1.992 2424
3.014 6.697 1.928 2302
3.275 7.277 2.060 2205
3.124 6.940 1.970 1824
3.274 7.275 2.035 3053
3.183 7.071 1.981 1716
3.286 7.301 2.017 3453
3.185 7.076 1.959 1711
3.285 7.299 1.992 4511
3.450 7.664 2.085 1528
3.287 7.304 1.969 4602
3.452 7.669 2.061 1833
3.290 7.308 1.945 3547
3.451 7.667 2.035 2192
3.295 7.320 1.924 2287
3.561 7.912 2.069 1941
3.570 7.931 2.047 2290
3.656 8.122 2.093 1753
3.575 7.943 2.024 2021
3.655 8.120 2.066 1488
3.660 8.132 2.042 2109
3.578 7.948 1.998 1899
3.659 8.130 2.014 3188
3.583 7.960 1.975 1662
3.662 8.135 1.988 2302
3.862 8.580 2.090 1166
4.001 8.889 2.131 1539
3.676 8.168 1.969 1271
4.004 8.894 2.103 2140
3.679 8.173 1.943 1732
4.012 8.914 2.078 2572
3.678 8.170 1.915 1678
4.018 8.926 2.051 2325
3.957 8.791 2.022 1126
4.017 8.924 2.021 1812
4.329 9.619 2.168 1330
4.016 8.922 1.991 2392
4.380 9.730 2.160 1752
4.018 8.927 1.962 2852
4.376 9.721 2.126 2114
4.020 8.932 1.934 2454
4.378 9.727 2.095 1754
4.019 8.929 1.904 1634
4.614 10.250 2.167 1465
4.703 10.448 2.171 1403
4.616 10.256 2.134 1344
4.708 10.460 2.140 1426
4.900 10.887 2.221 1111
4.989 11.084 2.223 1023
4.909 10.907 2.189 959
5.408 12.015 2.359 1082
4.915 10.919 2.156 1081
5.414 12.028 2.322 1334
5.158 11.459 2.218 1208
5.157 11.457 2.181 1449
5.522 12.269 2.326 1421
5.419 12.040 2.246 1790
5.535 12.296 2.291 1449
5.422 12.045 2.207 2248
5.534 12.295 2.250 1625
5.424 12.051 2.169 1905
5.524 12.272 2.206 1656
5.430 12.063 2.131 1540
5.510 12.242 2.161 1239
5.432 12.068 2.093 1381
5.434 12.074 2.054 971
0.940 2.077 1.778 2407
0.942 2.081 1.772 4814
0.992 2.192 1.861 1510
0.944 2.085 1.765 4814
0.994 2.196 1.854 3020
0.962 2.125 1.787 5488
1.012 2.236 1.875 1784
0.969 2.141 1.789 7727
1.019 2.252 1.877 1760
0.974 2.151 1.787 6792
1.024 2.262 1.875 1674
1.005 2.220 1.831 6013
0.954 2.108 1.744 1494
1.007 2.225 1.824 6013
0.956 2.113 1.737 1494
1.012 2.235 1.821 5796
0.961 2.123 1.735 1203
1.019 2.251 1.823 5943
0.968 2.139 1.737 1029
1.013 2.238 1.803 7020
1.064 2.351 1.888 1006
1.015 2.242 1.796 8572
1.066 2.355 1.881 1389
1.025 2.265 1.802 8946
0.974 2.151 1.717 857
1.032 2.281 1.804 11272
0.981 2.168 1.719 1374
1.034 2.285 1.797 11272
0.983 2.172 1.713 1107
1.047 2.314 1.807 10102
0.996 2.200 1.724 1710
1.057 2.336 1.813 10417
1.006 2.222 1.730 2398
1.057 2.335 1.802 10471
1.005 2.220 1.718 1694
1.056 2.333 1.790 10786
1.004 2.218 1.707 809
1.058 2.337 1.783 8396
1.060 2.342 1.775 6007
1.067 2.358 1.776 4409
1.119 2.473 1.858 768
1.094 2.417 1.807 4293
1.042 2.302 1.726 1959
1.096 2.422 1.800 4683
1.044 2.306 1.719 1584
1.098 2.426 1.792 5074
1.046 2.310 1.712 1208
1.106 2.443 1.793 5956
1.053 2.327 1.713 926
1.110 2.453 1.790 7239
1.112 2.457 1.782 6947
1.114 2.462 1.774 6654
1.167 2.578 1.853 844
1.116 2.466 1.766 5221
1.169 2.583 1.845 982
1.110 2.452 1.746 3859
1.163 2.569 1.825 1786
1.162 2.567 1.812 4206
1.109 2.450 1.735 3111
1.167 2.578 1.808 6541
1.114 2.460 1.731 3074
1.169 2.582 1.800 8698
1.116 2.465 1.723 2418
1.174 2.593 1.796 10928
1.120 2.475 1.719 2424
1.147 2.535 1.748 10558
1.201 2.653 1.824 4085
1.152 2.546 1.744 10320
1.206 2.664 1.820 3844
1.157 2.556 1.740 8764
1.211 2.675 1.815 3788
1.162 2.567 1.736 5815
1.215 2.685 1.811 5356
1.203 2.658 1.783 6922
1.149 2.540 1.708 1648
1.202 2.657 1.771 6616
1.256 2.776 1.845 1787
1.204 2.661 1.762 6341
1.258 2.780 1.836 1779
1.206 2.665 1.754 5325
1.260 2.785 1.828 2636
1.214 2.682 1.753 4349
1.268 2.802 1.826 2409
1.219 2.693 1.749 4495
1.279 2.825 1.829 2327
1.218 2.691 1.736 4102
1.281 2.830 1.820 3132
1.260 2.783 1.781 4208
1.205 2.663 1.709 2409
1.265 2.794 1.776 6117
1.319 2.915 1.848 2107
1.270 2.805 1.771 7189
1.324 2.925 1.842 2357
1.271 2.809 1.762 6291
1.326 2.930 1.833 2551
1.314 2.903 1.805 6039
1.259 2.782 1.735 2638
1.316 2.907 1.796 7088
1.261 2.786 1.726 1477
1.318 2.911 1.787 6727
1.263 2.790 1.717 1761
1.317 2.909 1.774 5354
1.372 3.031 1.844 2834
1.307 2.888 1.750 6091
1.362 3.010 1.819 5771
1.306 2.886 1.738 6822
1.361 3.008 1.806 5808
1.366 3.019 1.800 6396
1.311 2.897 1.732 5246
1.368 3.023 1.791 7084
1.313 2.901 1.723 2631
1.373 3.034 1.785 7739
1.318 2.911 1.717 1955
1.375 3.038 1.775 6634
1.431 3.161 1.843 2199
1.409 3.114 1.804 6687
1.348 2.978 1.731 4373
1.408 3.112 1.791 8124
1.353 2.989 1.725 2955
1.422 3.142 1.795 9444
1.366 3.019 1.729 4060
1.433 3.166 1.796 12069
1.377 3.043 1.730 5177
1.438 3.177 1.789 12003
1.382 3.053 1.724 2940
1.440 3.181 1.779 8776
1.496 3.305 1.844 2241
1.442 3.185 1.769 7011
1.498 3.309 1.833 2183
1.450 3.203 1.766 8556
1.524 3.366 1.850 1688
1.466 3.240 1.772 8149
1.532 3.384 1.846 2206
1.465 3.238 1.759 7841
1.531 3.382 1.832 2985
1.461 3.229 1.742 6569
1.536 3.393 1.824 6096
1.541 3.404 1.817 7549
1.475 3.259 1.745 3619
1.522 3.362 1.783 7832
1.578 3.487 1.845 3175
1.524 3.367 1.773 10431
1.589 3.511 1.844 3966
1.523 3.364 1.759 8873
1.591 3.516 1.833 3598
1.543 3.408 1.767 6987
1.602 3.540 1.831 3697
1.554 3.432 1.766 5794
1.610 3.558 1.827 5352
1.612 3.562 1.815 5592
1.555 3.437 1.755 3701
1.614 3.567 1.804 6396
1.557 3.441 1.745 2070
1.619 3.578 1.796 7965
1.562 3.452 1.737 1598
1.624 3.589 1.788 7988
1.681 3.715 1.846 1561
1.656 3.660 1.807 7427
1.599 3.533 1.749 2422
1.658 3.664 1.795 8712
1.601 3.538 1.738 2255
1.663 3.675 1.787 8948
1.727 3.815 1.850 1963
1.674 3.700 1.784 8037
1.732 3.826 1.841 1841
1.689 3.731 1.785 8131
1.758 3.884 1.853 1760
1.706 3.768 1.788 8343
1.763 3.895 1.844 1579
1.711 3.779 1.779 8604
1.795 3.967 1.861 2415
1.707 3.770 1.761 7618
1.764 3.898 1.816 5631
1.760 3.889 1.798 6460
1.702 3.761 1.743 5436
1.768 3.907 1.792 5772
1.707 3.772 1.734 3055
1.767 3.904 1.776 5379
1.825 4.032 1.831 2477
1.766 3.902 1.761 4357
1.824 4.030 1.815 2588
1.768 3.906 1.749 4009
1.829 4.041 1.805 3467
1.874 4.140 1.831 3389
1.773 3.917 1.739 2821
1.867 4.124 1.810 5425
1.925 4.252 1.862 3035
1.866 4.122 1.794 5104
1.927 4.257 1.849 3175
1.917 4.234 1.825 4345
1.858 4.106 1.773 2594
1.919 4.239 1.811 7090
1.839 4.063 1.741 2098
1.924 4.250 1.800 6025
2.007 4.433 1.873 2186
1.963 4.336 1.819 5516
1.904 4.207 1.768 2772
1.958 4.327 1.800 4209
2.017 4.456 1.850 2326
2.010 4.440 1.828 4207
1.948 4.304 1.776 2230
2.012 4.445 1.814 6699
2.070 4.574 1.863 1902
2.014 4.449 1.800 6072
2.072 4.579 1.849 2499
2.013 4.447 1.783 2771
2.071 4.576 1.832 2481
2.046 4.519 1.794 2694
2.129 4.704 1.863 2253
2.128 4.702 1.845 3499
2.051 4.531 1.783 2651
2.139 4.727 1.838 4209
2.080 4.597 1.791 2129
2.145 4.738 1.825 3757
2.086 4.608 1.778 1924
2.131 4.708 1.798 2604
2.196 4.852 1.849 2185
2.142 4.733 1.790 2321
2.310 5.104 1.921 1832
2.203 4.868 1.821 2422
2.312 5.109 1.905 1978
2.205 4.873 1.805 2962
2.314 5.113 1.889 1617
2.229 4.925 1.806 3279
2.170 4.794 1.762 2695
2.231 4.930 1.791 3237
2.331 5.150 1.865 2900
2.339 5.169 1.854 3767
2.224 4.913 1.768 2316
2.345 5.180 1.840 2863
2.223 4.911 1.750 1485
2.406 5.316 1.866 2519
2.343 5.178 1.821 1919
2.436 5.383 1.869 4617
2.342 5.175 1.802 2022
2.435 5.380 1.850 3722
2.341 5.173 1.783 1690
2.437 5.385 1.833 2093
2.516 5.558 1.888 1804
2.449 5.410 1.822 1897
2.527 5.583 1.877 1628
2.454 5.422 1.807 2479
2.536 5.602 1.863 1878
2.459 5.433 1.792 2005
2.541 5.613 1.848 1881
2.552 5.639 1.836 1949
2.672 5.903 1.916 1826
2.655 5.866 1.885 3583
2.557 5.650 1.820 1965
2.667 5.891 1.873 4690
2.726 6.024 1.912 2487
2.710 5.987 1.880 4159
2.650 5.854 1.842 2517
2.674 5.908 1.837 2558
2.787 6.159 1.910 2365
2.793 6.170 1.892 3609
2.685 5.933 1.824 2253
2.795 6.175 1.873 2629
2.934 6.482 1.960 2251
2.942 6.501 1.943 2605
2.841 6.277 1.880 2290
2.954 6.527 1.928 3394
3.043 6.723 1.982 2104
2.975 6.573 1.919 2313
3.035 6.706 1.955 2199
3.028 6.690 1.928 2373
3.136 6.928 1.992 2284
3.290 7.270 2.060 2278
3.068 6.779 1.929 2025
3.296 7.282 2.038 2934
3.201 7.071 1.983 1982
3.301 7.294 2.017 3480
3.203 7.076 1.960 1881
3.300 7.292 1.992 4547
3.466 7.657 2.085 1557
3.303 7.297 1.969 4569
3.468 7.662 2.061 1703
3.305 7.302 1.945 3593
3.470 7.667 2.036 1955
3.310 7.313 1.924 2433
3.581 7.912 2.071 2020
3.590 7.931 2.049 2426
3.666 8.100 2.090 2015
3.595 7.943 2.025 2020
3.668 8.105 2.064 1714
3.677 8.124 2.042 2240
3.601 7.955 2.002 2107
3.679 8.129 2.016 3318
3.603 7.960 1.976 2021
3.682 8.134 1.990 2632
4.017 8.876 2.159 1213
4.020 8.881 2.131 1980
3.693 8.160 1.969 1625
4.025 8.893 2.104 2837
3.696 8.165 1.943 2096
4.031 8.905 2.078 3460
3.695 8.163 1.915 2317
4.033 8.911 2.049 2918
3.969 8.769 2.019 1656
4.032 8.909 2.019 2590
3.958 8.746 1.985 1568
4.034 8.913 1.991 3648
4.400 9.721 2.160 1673
4.037 8.918 1.962 4078
4.396 9.712 2.126 2041
4.039 8.923 1.934 3569
4.402 9.725 2.096 1670
4.038 8.921 1.904 2479
4.532 10.014 2.121 1430
4.724 10.438 2.171 1437
4.043 8.933 1.877 1337
4.733 10.457 2.141 1472
5.010 11.068 2.258 1044
5.160 11.401 2.285 1143
5.012 11.074 2.223 917
4.941 10.916 2.157 1092
4.880 10.781 2.132 1064
5.181 11.448 2.218 1309
5.539 12.237 2.362 1162
5.181 11.446 2.181 1543
5.545 12.250 2.325 1405
5.560 12.285 2.291 1442
5.444 12.028 2.246 1339
5.447 12.034 2.207 1744
5.560 12.283 2.250 1586
5.549 12.260 2.206 1623
5.449 12.039 2.169 1454
5.536 12.230 2.161 1213
5.452 12.045 2.130 1118
5.457 12.057 2.093 983
0.944 2.075 1.778 2441
0.946 2.079 1.772 4882
0.996 2.189 1.861 1515
0.948 2.083 1.765 4882
0.999 2.194 1.854 3030
0.979 2.152 1.810 5916
0.929 2.041 1.722 760
0.976 2.145 1.794 7815
1.027 2.256 1.882 1300
0.978 2.149 1.787 6723
1.029 2.260 1.875 1547
1.009 2.218 1.831 5822
0.959 2.106 1.744 1555
1.011 2.222 1.824 5822
0.961 2.111 1.737 1555
1.014 2.227 1.817 5413
0.962 2.115 1.731 1035
1.024 2.249 1.823 5298
0.972 2.137 1.737 997
1.018 2.236 1.803 6940
1.069 2.348 1.888 956
1.020 2.240 1.796 8878
1.071 2.353 1.881 1330
1.027 2.256 1.798 9159
1.078 2.369 1.883 1027
1.037 2.279 1.804 11244
0.986 2.166 1.719 1428
1.039 2.283 1.797 11244
0.987 2.170 1.713 1138
1.052 2.312 1.807 9871
1.000 2.198 1.724 1709
1.062 2.334 1.813 10136
1.010 2.220 1.730 2416
1.059 2.326 1.797 10660
1.007 2.212 1.714 1493
1.061 2.331 1.790 11470
1.009 2.216 1.707 795
1.063 2.335 1.783 9128
1.065 2.339 1.775 6785
1.064 2.338 1.764 4522
1.116 2.453 1.845 1417
1.099 2.415 1.807 4142
1.047 2.300 1.726 2079
1.101 2.419 1.800 4739
1.049 2.304 1.719 1654
1.103 2.424 1.792 5337
1.050 2.308 1.712 1229
1.111 2.440 1.793 6199
1.058 2.324 1.713 953
1.115 2.451 1.790 7592
1.117 2.455 1.782 7298
1.119 2.459 1.774 7004
1.119 2.458 1.762 5450
1.172 2.574 1.841 1085
1.115 2.450 1.746 4230
1.168 2.567 1.825 1836
1.167 2.565 1.812 4122
1.114 2.448 1.735 3248
1.172 2.575 1.808 6394
1.119 2.458 1.731 2933
1.177 2.586 1.804 8396
1.123 2.469 1.727 3021
1.179 2.590 1.796 10446
1.125 2.473 1.719 2519
1.153 2.533 1.748 11245
1.206 2.651 1.824 3814
1.158 2.543 1.744 10833
1.211 2.661 1.820 3550
1.162 2.554 1.740 9009
1.216 2.672 1.815 3500
1.167 2.564 1.736 5964
1.221 2.683 1.811 4953
1.203 2.643 1.775 6958
1.257 2.762 1.850 2237
1.208 2.654 1.771 6691
1.262 2.773 1.845 1725
1.210 2.658 1.762 6460
1.264 2.778 1.836 1456
1.212 2.663 1.754 5768
1.266 2.782 1.828 2122
1.220 2.680 1.753 4922
1.274 2.799 1.826 1993
1.221 2.684 1.745 5081
1.285 2.822 1.829 1947
1.223 2.688 1.736 4463
1.278 2.808 1.809 2937
1.268 2.787 1.785 4475
1.214 2.667 1.713 2735
1.273 2.798 1.780 6321
1.219 2.678 1.708 2031
1.275 2.802 1.771 7266
1.330 2.923 1.842 2250
1.277 2.807 1.762 6254
1.332 2.927 1.833 2457
1.317 2.894 1.802 6317
1.262 2.773 1.731 2154
1.322 2.904 1.796 7571
1.267 2.783 1.726 1511
1.324 2.909 1.787 7230
1.269 2.787 1.717 1837
1.323 2.907 1.774 5768
1.378 3.028 1.844 2987
1.366 3.001 1.816 6280
1.310 2.879 1.747 5862
1.312 2.883 1.738 6461
1.368 3.005 1.806 6184
1.370 3.009 1.797 6171
1.314 2.887 1.729 4773
1.351 2.969 1.762 6289
1.413 3.104 1.837 4118
1.377 3.025 1.781 7017
1.432 3.147 1.849 2153
1.346 2.958 1.733 6636
1.423 3.126 1.825 3489
1.416 3.111 1.804 6392
1.354 2.975 1.731 4703
1.415 3.109 1.791 8019
1.359 2.986 1.725 3059
1.429 3.139 1.795 9480
1.373 3.016 1.729 4058
1.440 3.163 1.796 12313
1.383 3.040 1.730 5269
1.444 3.174 1.789 12313
1.388 3.050 1.724 3118
1.446 3.178 1.779 9055
1.503 3.302 1.844 2115
1.448 3.182 1.769 7476
1.505 3.306 1.833 2034
1.456 3.200 1.766 9251
1.531 3.363 1.850 1633
1.473 3.237 1.772 8585
1.539 3.380 1.846 2143
1.469 3.228 1.755 8119
1.538 3.378 1.832 3058
1.471 3.232 1.745 6950
1.543 3.390 1.824 6203
1.548 3.401 1.817 7486
1.485 3.263 1.748 4247
1.526 3.352 1.780 7719
1.583 3.477 1.842 3599
1.528 3.357 1.770 10318
1.585 3.482 1.831 4001
1.530 3.361 1.759 8827
1.599 3.513 1.833 3579
1.550 3.405 1.767 6901
1.610 3.537 1.831 3659
1.561 3.429 1.766 5592
1.618 3.554 1.827 5222
1.620 3.559 1.815 5206
1.563 3.433 1.755 3417
1.625 3.570 1.807 5842
1.568 3.444 1.748 2056
1.627 3.574 1.796 7393
1.569 3.449 1.737 1626
1.635 3.592 1.791 7554
1.288 2.829 1.435 1281
1.664 3.656 1.807 6834
1.607 3.530 1.749 2981
1.666 3.661 1.795 8268
1.609 3.534 1.738 2880
1.671 3.672 1.787 8585
1.735 3.811 1.850 1960
1.679 3.689 1.781 7638
1.737 3.816 1.838 2120
1.696 3.727 1.785 8641
1.766 3.881 1.853 1564
1.704 3.745 1.779 9022
1.780 3.912 1.853 1615
1.715 3.769 1.776 8583
1.801 3.957 1.858 2547
1.714 3.767 1.761 7671
1.772 3.894 1.816 5683
1.771 3.892 1.801 6425
1.713 3.764 1.746 6029
1.776 3.903 1.792 5507
1.715 3.769 1.734 3312
1.775 3.901 1.776 5067
1.833 4.028 1.831 2472
1.774 3.898 1.761 4373
1.832 4.026 1.815 2653
1.776 3.902 1.749 4114
1.837 4.037 1.805 3684
1.870 4.109 1.820 3262
1.784 3.920 1.742 2913
1.875 4.120 1.810 5357
1.934 4.248 1.862 2842
1.874 4.118 1.794 4857
1.942 4.267 1.854 3178
1.928 4.237 1.827 3921
1.845 4.055 1.754 2760
1.927 4.235 1.811 6545
1.847 4.059 1.741 2216
1.933 4.246 1.800 5650
2.016 4.429 1.873 2048
1.972 4.332 1.819 4903
1.913 4.203 1.768 2671
1.967 4.323 1.800 3746
2.026 4.452 1.850 2378
2.016 4.429 1.825 4566
1.957 4.300 1.776 2295
2.021 4.441 1.814 6869
2.080 4.570 1.863 1931
2.023 4.445 1.800 6198
2.082 4.574 1.849 2590
2.025 4.449 1.786 3059
2.084 4.579 1.834 2452
2.055 4.515 1.794 2309
2.139 4.700 1.863 1997
2.138 4.697 1.845 3066
2.072 4.554 1.793 2271
2.149 4.722 1.838 3619
2.074 4.558 1.778 2197
2.157 4.740 1.828 3318
2.098 4.610 1.781 2215
2.141 4.704 1.798 2653
2.209 4.855 1.852 2021
2.152 4.729 1.790 2344
2.321 5.099 1.921 1868
2.217 4.870 1.823 2398
2.323 5.104 1.905 1850
2.250 4.944 1.832 2900
2.178 4.786 1.777 2088
2.239 4.921 1.806 3722
2.180 4.790 1.762 2621
2.238 4.918 1.788 3674
2.351 5.166 1.872 2385
2.353 5.171 1.856 3204
2.234 4.909 1.768 2533
2.355 5.175 1.840 2740
2.236 4.913 1.753 1521
2.414 5.304 1.864 2617
2.354 5.173 1.821 2164
2.444 5.371 1.867 4345
2.359 5.184 1.807 2238
2.446 5.375 1.850 3542
2.358 5.182 1.788 1524
2.452 5.387 1.835 2385
2.530 5.560 1.890 1610
2.460 5.405 1.822 2106
2.536 5.571 1.875 1541
2.465 5.416 1.807 2497
2.544 5.590 1.861 1776
2.473 5.435 1.794 2131
2.584 5.678 1.869 1808
2.668 5.863 1.906 2092
2.564 5.634 1.836 2030
2.667 5.860 1.885 4090
2.569 5.645 1.820 2324
2.672 5.872 1.869 5080
2.733 6.004 1.908 3351
2.722 5.981 1.880 4490
2.662 5.849 1.842 3226
2.683 5.895 1.835 2916
2.800 6.153 1.910 2523
2.806 6.164 1.892 3751
2.952 6.485 1.984 2146
2.811 6.176 1.875 2767
2.951 6.483 1.962 2175
2.962 6.509 1.947 2659
2.854 6.271 1.880 2306
2.968 6.521 1.928 3569
2.898 6.367 1.886 1705
2.989 6.567 1.919 2534
3.049 6.700 1.955 1769
3.042 6.684 1.928 2292
3.150 6.922 1.992 1954
3.309 7.270 2.061 2306
3.086 6.780 1.931 2126
3.311 7.275 2.038 2840
3.215 7.065 1.983 2063
3.316 7.287 2.017 3328
3.218 7.070 1.960 1943
3.316 7.285 1.992 4325
3.478 7.643 2.083 1502
3.318 7.290 1.969 4347
3.484 7.655 2.061 1583
3.320 7.295 1.945 3471
3.486 7.660 2.036 1778
3.325 7.306 1.924 2468
3.601 7.911 2.072 1986
3.606 7.923 2.049 2411
3.683 8.092 2.090 2262
3.612 7.935 2.025 2126
3.679 8.083 2.061 2064
3.617 7.947 2.002 2400
3.691 8.109 2.040 1939
3.693 8.115 2.014 2912
3.623 7.959 1.978 2307
3.695 8.119 1.988 2584
3.628 7.971 1.954 1382
4.038 8.872 2.131 2430
3.710 8.153 1.969 1660
4.044 8.885 2.104 3401
3.983 8.751 2.075 1946
4.046 8.890 2.076 3966
3.982 8.749 2.045 2281
4.048 8.895 2.048 3465
3.978 8.740 2.014 2137
4.051 8.900 2.019 3523
3.977 8.737 1.985 2132
4.053 8.905 1.991 4761
3.976 8.735 1.955 2302
4.055 8.910 1.962 5098
4.416 9.703 2.126 1912
4.057 8.915 1.934 4447
4.554 10.006 2.155 1705
4.056 8.912 1.904 3152
4.556 10.011 2.123 1588
4.062 8.924 1.877 1758
4.746 10.428 2.171 1487
4.755 10.448 2.141 1539
5.033 11.058 2.258 993
5.184 11.390 2.285 1240
4.980 10.943 2.200 881
4.899 10.764 2.131 1135
4.963 10.906 2.157 1133
5.202 11.430 2.217 1233
5.305 11.657 2.259 1159
5.204 11.435 2.181 1480
5.570 12.239 2.325 1371
5.583 12.266 2.289 1360
5.204 11.434 2.143 1247
5.582 12.265 2.249 1473
5.472 12.023 2.207 1320
5.575 12.249 2.206 1483
5.474 12.028 2.169 1138
5.558 12.211 2.160 1124
5.477 12.033 2.130 854
0.949 2.073 1.778 2488
0.951 2.077 1.772 4976
1.001 2.187 1.861 1481
0.987 2.157 1.826 5397
0.937 2.046 1.737 1867
0.984 2.150 1.810 6452
0.933 2.039 1.722 777
0.983 2.148 1.798 7951
1.034 2.259 1.886 928
0.985 2.153 1.792 6643
1.036 2.264 1.879 1132
1.014 2.216 1.831 5877
0.963 2.104 1.744 1709
1.016 2.220 1.824 5877
0.965 2.109 1.737 1709
1.018 2.225 1.817 5398
0.967 2.113 1.731 1121
1.028 2.247 1.823 5065
0.977 2.135 1.737 891
1.022 2.234 1.803 6792
1.074 2.346 1.888 905
1.024 2.238 1.796 8666
1.076 2.351 1.881 1256
1.032 2.254 1.798 8925
1.083 2.367 1.883 995
1.039 2.271 1.800 10514
0.987 2.157 1.715 1103
1.041 2.275 1.792 10514
0.989 2.162 1.708 910
1.057 2.309 1.807 9094
1.005 2.196 1.724 1679
1.067 2.332 1.813 9621
1.015 2.218 1.730 2350
1.066 2.330 1.802 10799
1.014 2.216 1.718 1611
1.066 2.328 1.790 12234
1.068 2.333 1.783 9867
1.072 2.343 1.779 7546
1.074 2.348 1.772 4581
1.127 2.462 1.854 1390
1.107 2.419 1.812 3938
1.051 2.297 1.726 1910
1.106 2.417 1.800 4852
1.053 2.302 1.719 1535
1.108 2.421 1.792 5799
1.055 2.306 1.712 1160
1.116 2.438 1.793 6521
1.063 2.322 1.713 941
1.121 2.448 1.790 7963
1.123 2.453 1.782 7609
1.125 2.457 1.774 7256
1.124 2.455 1.762 5685
1.177 2.572 1.841 980
1.120 2.447 1.746 4597
1.174 2.564 1.825 1941
1.167 2.550 1.804 4229
1.114 2.433 1.726 2517
1.178 2.573 1.808 6091
1.124 2.456 1.731 2880
1.182 2.584 1.804 7766
1.129 2.466 1.727 2961
1.153 2.520 1.752 10395
1.207 2.638 1.829 3451
1.158 2.530 1.748 11996
1.212 2.648 1.824 3424
1.163 2.541 1.744 11438
1.217 2.659 1.820 3111
1.168 2.551 1.740 9399
1.222 2.670 1.815 3064
1.172 2.562 1.736 6211
1.227 2.680 1.811 4355
1.203 2.628 1.767 7222
1.257 2.747 1.842 2836
1.208 2.639 1.763 6743
1.262 2.758 1.837 1809
1.213 2.650 1.758 6489
1.270 2.775 1.836 1177
1.215 2.654 1.750 6279
1.269 2.773 1.824 1694
1.222 2.671 1.749 5719
1.277 2.790 1.823 1911
1.227 2.681 1.745 5869
1.282 2.801 1.818 1814
1.229 2.685 1.736 4852
1.284 2.805 1.809 3002
1.274 2.784 1.785 5237
1.219 2.664 1.713 2628
1.279 2.795 1.780 6789
1.224 2.675 1.708 1983
1.284 2.806 1.775 7297
1.339 2.926 1.846 2131
1.286 2.810 1.766 6249
1.341 2.931 1.837 2331
1.323 2.891 1.802 6769
1.268 2.770 1.731 1926
1.328 2.901 1.796 8195
1.273 2.781 1.726 1648
1.330 2.906 1.787 7822
1.275 2.785 1.717 2047
1.329 2.904 1.774 6418
1.385 3.025 1.844 3104
1.372 2.998 1.816 6815
1.316 2.876 1.747 5843
1.371 2.996 1.803 6710
1.315 2.874 1.734 6160
1.361 2.974 1.779 6738
1.420 3.103 1.851 4134
1.357 2.966 1.762 6750
1.425 3.114 1.845 4529
1.351 2.951 1.742 7411
1.430 3.125 1.838 3712
1.356 2.962 1.737 6972
1.432 3.129 1.828 4446
1.425 3.114 1.808 6795
1.360 2.972 1.731 4748
1.421 3.106 1.791 8360
1.365 2.983 1.725 2893
1.438 3.142 1.799 9793
1.382 3.020 1.733 4321
1.446 3.160 1.796 12441
1.390 3.037 1.730 4970
1.451 3.171 1.789 12396
1.395 3.047 1.724 2921
1.453 3.175 1.779 9131
1.510 3.299 1.844 1817
1.455 3.179 1.769 7899
1.512 3.303 1.833 1977
1.463 3.197 1.766 9741
1.532 3.347 1.843 1736
1.492 3.260 1.786 9107
1.549 3.384 1.849 1949
1.476 3.225 1.755 8251
1.539 3.362 1.825 3052
1.478 3.229 1.745 7335
1.550 3.386 1.824 6148
1.561 3.410 1.824 7488
1.504 3.286 1.761 5468
1.530 3.343 1.777 7789
1.587 3.467 1.839 4037
1.535 3.354 1.770 10126
1.592 3.478 1.831 3976
1.537 3.358 1.759 8799
1.594 3.483 1.820 3332
1.554 3.395 1.764 7196
1.617 3.533 1.831 3311
1.565 3.419 1.763 5717
1.622 3.544 1.823 4834
1.597 3.489 1.784 4779
1.540 3.364 1.724 2762
1.635 3.573 1.810 5685
1.578 3.448 1.751 2471
1.637 3.578 1.799 7509
1.580 3.452 1.740 1939
1.642 3.589 1.791 7643
1.288 2.813 1.429 1532
1.675 3.659 1.810 6210
1.617 3.533 1.752 3630
1.677 3.664 1.799 7626
1.619 3.537 1.741 3486
1.676 3.661 1.784 8184
1.743 3.808 1.850 1969
1.690 3.692 1.784 7594
1.748 3.819 1.841 2333
1.704 3.723 1.785 8714
1.762 3.850 1.841 1873
1.712 3.741 1.779 8905
1.792 3.915 1.856 1844
1.723 3.766 1.776 8111
1.809 3.953 1.858 2809
1.722 3.763 1.761 7259
1.781 3.890 1.816 5615
1.783 3.895 1.804 6219
1.724 3.767 1.749 6003
1.788 3.906 1.794 5038
1.723 3.765 1.734 3442
1.784 3.897 1.776 4762
1.842 4.024 1.831 2326
1.785 3.901 1.764 4421
1.844 4.029 1.818 2299
1.784 3.899 1.749 4127
1.846 4.033 1.805 3410
1.876 4.098 1.817 3222
1.792 3.916 1.742 2945
1.884 4.116 1.810 5348
1.946 4.251 1.865 2468
1.886 4.121 1.797 4738
1.951 4.262 1.854 3249
1.934 4.226 1.825 4094
1.848 4.037 1.748 2797
1.936 4.231 1.811 6130
1.878 4.102 1.760 1951
1.942 4.242 1.800 5013
2.019 4.411 1.867 2041
1.981 4.328 1.819 4659
1.922 4.199 1.768 3103
1.980 4.325 1.803 3970
2.039 4.454 1.853 2472
2.022 4.418 1.823 4770
1.963 4.289 1.773 2666
2.030 4.436 1.814 6700
2.090 4.565 1.863 2104
2.036 4.447 1.802 6030
2.095 4.577 1.851 2638
2.038 4.452 1.788 3083
2.103 4.595 1.842 2643
2.102 4.593 1.825 2339
2.027 4.429 1.764 1463
2.148 4.693 1.845 2406
2.082 4.549 1.793 1925
2.162 4.725 1.840 2930
2.084 4.554 1.778 1944
2.168 4.736 1.828 2964
2.108 4.606 1.781 2391
2.157 4.713 1.803 2641
2.226 4.864 1.857 1856
2.162 4.724 1.790 2368
2.231 4.875 1.844 2026
2.227 4.866 1.823 2365
2.334 5.099 1.905 1719
2.260 4.939 1.832 2896
2.188 4.781 1.777 1990
2.247 4.909 1.804 3910
2.187 4.778 1.759 2421
2.246 4.906 1.786 4037
2.372 5.182 1.879 2193
2.374 5.186 1.863 2926
2.244 4.904 1.768 2701
2.366 5.170 1.840 2882
2.246 4.908 1.753 1531
2.425 5.299 1.864 2865
2.365 5.168 1.821 2840
2.430 5.310 1.849 4323
2.370 5.179 1.807 2630
2.436 5.322 1.835 3294
2.376 5.190 1.792 1694
2.466 5.388 1.837 2722
2.406 5.257 1.796 1413
2.475 5.407 1.825 2363
2.636 5.760 1.936 1431
2.477 5.411 1.807 2205
2.641 5.771 1.919 1658
2.672 5.838 1.920 1825
2.555 5.582 1.841 1735
2.674 5.843 1.902 2663
2.531 5.531 1.807 2237
2.680 5.855 1.885 4672
2.740 5.987 1.925 2342
2.682 5.859 1.866 5654
2.742 5.991 1.906 3990
2.735 5.975 1.880 4959
2.674 5.843 1.842 4139
2.689 5.875 1.831 3518
2.801 6.119 1.902 2906
2.822 6.165 1.894 3597
2.704 5.908 1.820 1939
2.824 6.170 1.875 2738
2.968 6.484 1.964 2075
2.983 6.516 1.951 2878
2.868 6.265 1.880 2229
2.985 6.521 1.930 3750
2.911 6.361 1.886 1881
3.003 6.561 1.919 2667
3.064 6.694 1.955 1651
3.095 6.761 1.951 2369
3.008 6.573 1.900 1938
3.324 7.263 2.061 2309
3.100 6.773 1.931 2209
3.330 7.275 2.040 2881
3.230 7.058 1.983 1934
3.335 7.287 2.019 3123
3.233 7.063 1.960 1810
3.331 7.278 1.992 3810
3.495 7.635 2.083 1334
3.330 7.276 1.967 3776
3.497 7.641 2.059 1287
3.335 7.288 1.945 3075
3.432 7.498 1.998 1784
3.344 7.306 1.926 2306
3.621 7.911 2.074 2020
3.623 7.916 2.049 2371
3.703 8.091 2.092 2300
3.632 7.935 2.027 2192
3.699 8.082 2.062 1973
3.634 7.940 2.002 2554
3.708 8.102 2.040 2018
3.710 8.107 2.014 2724
3.639 7.952 1.978 2459
3.713 8.112 1.988 2229
4.054 8.859 2.159 1606
4.057 8.864 2.131 3018
3.996 8.730 2.101 1723
4.063 8.876 2.104 4182
3.985 8.707 2.067 2457
4.065 8.881 2.076 4721
3.987 8.712 2.039 3292
4.067 8.886 2.048 4496
3.990 8.717 2.011 2851
4.070 8.892 2.019 4955
3.992 8.722 1.983 2756
4.072 8.896 1.991 6068
3.994 8.727 1.955 3109
4.074 8.901 1.962 6164
3.996 8.732 1.927 2141
4.076 8.906 1.934 5347
4.578 10.003 2.156 1702
4.075 8.904 1.904 3874
4.578 10.002 2.123 1653
4.081 8.916 1.877 2226
4.768 10.418 2.171 1532
4.777 10.437 2.141 1568
4.083 8.920 1.849 1102
5.208 11.379 2.285 1411
4.997 10.918 2.197 971
4.922 10.753 2.131 1278
5.217 11.399 2.251 1142
5.330 11.646 2.259 1319
5.226 11.419 2.217 1309
5.229 11.424 2.181 1532
5.593 12.220 2.323 1271
5.225 11.415 2.142 1288
5.609 12.254 2.289 1247
5.608 12.253 2.249 1360
5.227 11.421 2.105 1164
5.601 12.237 2.206 1367
5.229 11.426 2.069 992
5.584 12.200 2.160 1036
5.850 12.782 2.215 758
5.800 12.673 2.156 781
0.953 2.071 1.778 2573
0.955 2.075 1.772 5146
1.006 2.185 1.861 1387
0.992 2.155 1.826 5979
0.941 2.044 1.737 2041
0.991 2.154 1.815 7000
0.940 2.043 1.726 1105
0.990 2.152 1.803 8270
0.995 2.162 1.801 6801
1.046 2.274 1.888 884
1.013 2.202 1.822 6110
0.962 2.091 1.735 1357
1.015 2.206 1.815 6110
0.964 2.095 1.728 1357
1.020 2.217 1.812 5395
0.969 2.105 1.726 1028
1.036 2.251 1.828 4817
0.984 2.139 1.742 891
1.027 2.231 1.803 6528
1.079 2.344 1.888 820
1.029 2.236 1.796 8281
1.081 2.348 1.881 1152
1.036 2.252 1.798 8581
1.088 2.365 1.883 932
1.044 2.268 1.800 9771
0.992 2.155 1.715 1051
1.046 2.273 1.792 9771
0.994 2.160 1.708 871
1.062 2.307 1.807 8195
1.009 2.194 1.724 1598
1.072 2.329 1.813 8891
1.020 2.216 1.730 2212
1.071 2.328 1.802 10693
1.019 2.214 1.718 1501
1.071 2.326 1.790 12680
1.073 2.331 1.783 10358
1.125 2.445 1.865 772
1.080 2.347 1.784 8235
1.133 2.462 1.866 751
1.082 2.351 1.776 5009
1.135 2.466 1.858 1500
1.112 2.416 1.812 3894
1.056 2.295 1.726 1751
1.111 2.415 1.800 4945
1.058 2.299 1.719 1431
1.113 2.419 1.792 6147
1.060 2.304 1.712 1110
1.124 2.442 1.797 6671
1.070 2.326 1.717 1087
1.126 2.446 1.790 8094
1.128 2.450 1.782 7762
1.130 2.455 1.774 7430
1.129 2.453 1.762 5997
1.182 2.569 1.841 1151
1.125 2.445 1.746 5083
1.179 2.562 1.825 2310
1.170 2.541 1.800 4930
1.116 2.425 1.722 2198
1.183 2.571 1.808 6232
1.129 2.453 1.731 2844
1.157 2.513 1.760 7635
1.211 2.630 1.837 2667
1.159 2.517 1.752 10910
1.213 2.635 1.829 3227
1.163 2.528 1.748 12356
1.218 2.646 1.824 2957
1.168 2.538 1.744 11591
1.222 2.656 1.820 2464
1.170 2.543 1.736 9318
1.227 2.667 1.815 2501
1.175 2.553 1.732 6205
1.229 2.671 1.807 3801
1.208 2.626 1.767 7680
1.263 2.744 1.842 2866
1.213 2.636 1.763 7063
1.268 2.755 1.837 1814
1.218 2.647 1.758 6671
1.284 2.791 1.848 1240
1.220 2.651 1.750 6707
1.281 2.783 1.831 1525
1.225 2.662 1.745 6306
1.280 2.781 1.819 2105
1.233 2.679 1.745 6454
1.288 2.798 1.818 1845
1.235 2.683 1.736 5182
1.290 2.803 1.809 3072
1.280 2.782 1.785 5791
1.225 2.662 1.713 2548
1.285 2.792 1.780 6937
1.230 2.672 1.708 1940
1.290 2.803 1.775 7046
1.345 2.923 1.846 2149
1.292 2.807 1.766 5895
1.347 2.928 1.837 2337
1.329 2.888 1.802 6922
1.274 2.767 1.731 1628
1.334 2.899 1.796 8391
1.278 2.778 1.726 1626
1.336 2.903 1.787 8115
1.280 2.782 1.717 2016
1.338 2.907 1.778 6828
1.394 3.029 1.847 2984
1.378 2.995 1.816 7367
1.322 2.873 1.747 5864
1.377 2.993 1.803 7260
1.321 2.871 1.734 6085
1.368 2.972 1.779 6872
1.427 3.100 1.851 4635
1.364 2.963 1.762 6670
1.432 3.111 1.845 5127
1.357 2.948 1.742 7364
1.437 3.122 1.838 4319
1.362 2.959 1.737 6986
1.439 3.126 1.828 5381
1.435 3.118 1.811 7637
1.367 2.969 1.731 4836
1.428 3.103 1.791 8931
1.371 2.980 1.725 2981
1.445 3.139 1.799 9664
1.388 3.017 1.733 3980
1.456 3.163 1.799 11770
1.399 3.040 1.734 5033
1.458 3.168 1.789 11701
1.401 3.045 1.724 2626
1.460 3.172 1.779 8710
1.517 3.295 1.844 1808
1.462 3.176 1.769 7988
1.519 3.300 1.833 2165
1.491 3.239 1.789 10198
1.434 3.116 1.725 2075
1.499 3.257 1.786 9804
1.556 3.381 1.849 1819
1.504 3.268 1.779 7807
1.561 3.392 1.842 2639
1.485 3.226 1.745 7169
1.560 3.390 1.828 5954
1.571 3.414 1.827 7439
1.514 3.289 1.764 6379
1.537 3.339 1.777 7537
1.594 3.464 1.839 4070
1.542 3.350 1.770 9638
1.599 3.475 1.831 3969
1.547 3.361 1.762 8539
1.604 3.486 1.823 3076
1.561 3.392 1.764 7257
1.625 3.530 1.831 3008
1.569 3.409 1.760 5798
1.627 3.534 1.820 4288
1.604 3.486 1.784 5514
1.547 3.361 1.724 2921
1.652 3.590 1.820 5283
1.594 3.464 1.760 3316
1.648 3.581 1.802 7028
1.283 2.787 1.429 2201
1.650 3.585 1.791 7063
1.290 2.804 1.426 1765
1.685 3.662 1.813 6367
1.627 3.536 1.755 4379
1.684 3.660 1.799 6963
1.626 3.534 1.741 4139
1.683 3.658 1.784 7136
1.625 3.532 1.726 2297
1.698 3.689 1.784 6336
1.756 3.815 1.841 2580
1.712 3.720 1.785 8380
1.770 3.846 1.841 2283
1.720 3.738 1.779 8684
1.800 3.911 1.856 2018
1.731 3.762 1.776 7887
1.817 3.949 1.858 3113
1.730 3.760 1.761 6914
1.789 3.887 1.816 5348
1.794 3.898 1.807 5931
1.732 3.764 1.749 5687
1.796 3.902 1.794 4813
1.731 3.761 1.734 3404
1.792 3.893 1.776 4807
1.850 4.021 1.831 2214
1.794 3.897 1.764 4703
1.852 4.025 1.818 2225
1.792 3.895 1.749 4176
1.851 4.023 1.802 3310
1.884 4.094 1.817 3510
1.801 3.913 1.742 2900
1.892 4.112 1.810 5606
1.958 4.254 1.868 2213
1.895 4.117 1.797 4777
1.960 4.258 1.854 3268
1.940 4.216 1.822 4215
1.856 4.033 1.748 2630
1.945 4.227 1.811 5792
1.886 4.098 1.760 2254
1.953 4.245 1.803 4601
1.894 4.116 1.752 2661
1.987 4.317 1.816 4418
1.927 4.188 1.766 2857
1.986 4.315 1.800 4288
2.045 4.443 1.850 2798
2.031 4.414 1.823 5372
1.972 4.285 1.773 3060
2.040 4.432 1.814 6981
2.099 4.561 1.863 2311
2.045 4.443 1.802 5967
2.104 4.572 1.851 2991
2.047 4.448 1.788 3370
2.122 4.611 1.850 2965
2.112 4.588 1.825 2295
2.036 4.425 1.764 1725
2.092 4.545 1.793 1942
2.158 4.688 1.845 1808
2.188 4.754 1.853 2385
2.090 4.542 1.776 2048
2.177 4.731 1.828 2914
2.118 4.601 1.781 2607
2.167 4.708 1.803 3084
2.236 4.859 1.857 1878
2.172 4.720 1.790 2437
2.241 4.870 1.844 2404
2.237 4.861 1.823 2415
2.344 5.094 1.905 1608
2.271 4.934 1.832 3374
2.198 4.776 1.777 1986
2.257 4.904 1.804 4217
2.197 4.774 1.759 2121
2.253 4.895 1.784 4250
2.386 5.184 1.882 2164
2.388 5.188 1.865 3050
2.255 4.899 1.768 2692
2.380 5.172 1.842 3004
2.260 4.910 1.755 1609
2.379 5.170 1.823 3104
2.439 5.301 1.866 2884
2.438 5.298 1.847 4341
2.378 5.167 1.804 2558
2.444 5.310 1.832 3228
2.383 5.179 1.790 1734
2.477 5.383 1.837 2867
2.417 5.252 1.796 1431
2.489 5.408 1.827 2530
2.651 5.761 1.938 1512
2.494 5.420 1.812 2009
2.657 5.773 1.922 1990
2.678 5.819 1.916 2023
2.541 5.521 1.824 1768
2.683 5.831 1.900 2810
2.543 5.526 1.807 2352
2.692 5.849 1.885 4591
2.752 5.981 1.925 2525
2.697 5.861 1.869 5743
2.758 5.993 1.908 3622
2.699 5.865 1.850 5233
2.760 5.997 1.889 3891
2.701 5.870 1.831 3753
2.810 6.106 1.900 3354
2.835 6.160 1.894 3293
2.774 6.027 1.856 2017
2.872 6.241 1.896 2632
3.055 6.638 2.009 1975
2.996 6.510 1.951 2856
2.881 6.259 1.880 2146
2.998 6.515 1.930 3644
2.921 6.348 1.884 1878
3.016 6.555 1.919 2554
3.077 6.687 1.955 1614
3.105 6.748 1.949 2226
3.025 6.573 1.902 1847
3.111 6.760 1.929 2181
3.342 7.263 2.063 2166
3.348 7.275 2.042 2839
3.155 6.855 1.931 1853
3.350 7.280 2.019 2895
3.247 7.056 1.960 1614
3.346 7.271 1.992 3205
3.514 7.635 2.085 1135
3.345 7.269 1.967 3123
