-0.436 2.296 1.821 2289
-0.443 2.332 1.837 5719
-0.420 2.213 1.749 1377
-0.446 2.349 1.840 9073
-0.424 2.230 1.751 1836
-0.469 2.469 1.928 1035
-0.450 2.367 1.842 9864
-0.427 2.247 1.754 1316
-0.473 2.487 1.930 1077
-0.452 2.378 1.840 11721
-0.475 2.498 1.928 1193
-0.458 2.408 1.852 12351
-0.435 2.288 1.764 1104
-0.460 2.419 1.849 16008
-0.483 2.540 1.936 1349
-0.437 2.299 1.762 1196
-0.461 2.424 1.842 16008
-0.484 2.545 1.929 1938
-0.438 2.304 1.755 1196
-0.463 2.436 1.840 14478
-0.486 2.557 1.926 1785
-0.440 2.315 1.753 1119
-0.466 2.453 1.842 13622
-0.489 2.574 1.928 1419
-0.470 2.471 1.843 9996
-0.493 2.592 1.929 1209
-0.473 2.489 1.845 7746
-0.496 2.610 1.930 1321
-0.475 2.500 1.842 6301
-0.498 2.622 1.927 1131
-0.478 2.518 1.844 5248
-0.502 2.640 1.929 1313
-0.479 2.522 1.837 5248
-0.503 2.645 1.921 1858
-0.480 2.527 1.829 5047
-0.504 2.650 1.913 2356
-0.486 2.558 1.840 4950
-0.509 2.681 1.923 1222
-0.482 2.537 1.815 5271
-0.505 2.660 1.898 4417
-0.503 2.646 1.877 7449
-0.479 2.522 1.794 5362
-0.504 2.651 1.869 7610
-0.480 2.527 1.787 4297
-0.505 2.656 1.861 7771
-0.480 2.525 1.775 3246
-0.507 2.667 1.858 6130
-0.483 2.543 1.776 3695
-0.489 2.574 1.786 6078
-0.513 2.698 1.867 4760
-0.496 2.611 1.800 6185
-0.520 2.736 1.881 3318
-0.502 2.642 1.809 9211
-0.526 2.767 1.890 2189
-0.509 2.680 1.823 10937
-0.486 2.555 1.742 1328
-0.533 2.805 1.903 1032
-0.511 2.691 1.819 14258
-0.535 2.817 1.899 1058
-0.514 2.703 1.815 11477
-0.521 2.741 1.828 10202
-0.497 2.615 1.749 1292
-0.526 2.765 1.833 7627
-0.502 2.639 1.754 1471
-0.549 2.891 1.911 1085
-0.528 2.777 1.829 6146
-0.552 2.903 1.907 1034
-0.504 2.651 1.750 1005
-0.530 2.788 1.825 9789
-0.506 2.662 1.747 1149
-0.532 2.800 1.821 14012
-0.508 2.673 1.743 1324
-0.533 2.805 1.812 16940
-0.509 2.678 1.735 1048
-0.534 2.810 1.804 19868
-0.536 2.821 1.800 17400
-0.560 2.948 1.877 2204
-0.538 2.832 1.796 13587
-0.562 2.960 1.872 2941
-0.551 2.898 1.823 13389
-0.519 2.730 1.724 1542
-0.552 2.902 1.815 21896
-0.520 2.734 1.716 1429
-0.552 2.907 1.807 23225
-0.523 2.752 1.716 1359
-0.553 2.912 1.798 18550
-0.578 3.040 1.872 1372
-0.553 2.910 1.786 14413
-0.577 3.039 1.860 2108
-0.559 2.942 1.793 11478
-0.584 3.071 1.866 2432
-0.535 2.813 1.719 1606
-0.563 2.960 1.792 11036
-0.587 3.089 1.865 2645
-0.538 2.831 1.718 1767
-0.563 2.965 1.783 9092
-0.588 3.094 1.856 3375
-0.539 2.836 1.710 1478
-0.564 2.970 1.774 9643
-0.589 3.099 1.847 4339
-0.540 2.840 1.702 1292
-0.565 2.974 1.766 10194
-0.590 3.104 1.838 4573
-0.541 2.845 1.694 1107
-0.567 2.986 1.761 10367
-0.592 3.116 1.833 3796
-0.570 2.997 1.756 8219
-0.594 3.127 1.827 3019
-0.576 3.029 1.762 6023
-0.587 3.089 1.783 5527
-0.562 2.958 1.712 1244
-0.589 3.100 1.778 5886
-0.564 2.970 1.707 1289
-0.590 3.105 1.769 5682
-0.565 2.974 1.699 1110
-0.595 3.130 1.770 7042
-0.570 2.999 1.701 1147
-0.597 3.142 1.765 8155
-0.602 3.167 1.767 9042
-0.577 3.036 1.698 1037
-0.604 3.179 1.761 8611
-0.579 3.047 1.693 1110
-0.614 3.232 1.777 5648
-0.589 3.100 1.709 3150
-0.616 3.244 1.771 7719
-0.591 3.112 1.703 3466
-0.616 3.242 1.758 9617
-0.591 3.109 1.691 2636
-0.612 3.218 1.734 17431
-0.637 3.351 1.801 1365
-0.586 3.086 1.667 1091
-0.696 3.664 1.959 1008
-0.612 3.223 1.725 23151
-0.587 3.090 1.658 1408
-0.697 3.670 1.948 1310
-0.638 3.356 1.791 1135
-0.613 3.227 1.715 21674
-0.701 3.689 1.944 1514
-0.639 3.360 1.781 1364
-0.588 3.095 1.649 1244
-0.614 3.232 1.706 14616
-0.639 3.365 1.771 2127
-0.711 3.743 1.958 2026
-0.620 3.264 1.710 8963
-0.714 3.755 1.950 2701
-0.646 3.398 1.775 1474
-0.621 3.269 1.701 9229
-0.707 3.718 1.919 2782
-0.647 3.402 1.765 1902
-0.732 3.852 1.983 1091
-0.625 3.287 1.698 7755
-0.706 3.716 1.904 3490
-0.732 3.850 1.969 1472
-0.650 3.421 1.762 1326
-0.630 3.313 1.698 5581
-0.707 3.721 1.894 2867
-0.733 3.855 1.958 1465
-0.636 3.346 1.702 2897
-0.709 3.733 1.886 2518
-0.735 3.867 1.950 1437
-0.661 3.480 1.766 1028
-0.712 3.745 1.878 3108
-0.737 3.880 1.942 2809
-0.653 3.435 1.732 2586
-0.737 3.878 1.927 5079
-0.711 3.743 1.864 4217
-0.643 3.383 1.696 2362
-0.743 3.911 1.929 5618
-0.718 3.777 1.866 5104
-0.642 3.380 1.682 2276
-0.747 3.930 1.924 6109
-0.721 3.796 1.862 2960
-0.657 3.456 1.705 1532
-0.631 3.321 1.643 1022
-0.747 3.928 1.909 5990
-0.721 3.794 1.847 1735
-0.743 3.912 1.888 7732
-0.769 4.047 1.949 2079
-0.718 3.777 1.827 1282
-0.746 3.924 1.879 7769
-0.771 4.059 1.940 4485
-0.720 3.789 1.819 1602
-0.766 4.029 1.912 9301
-0.740 3.894 1.852 3629
-0.791 4.164 1.973 1438
-0.767 4.034 1.901 8299
-0.741 3.899 1.841 3437
-0.792 4.170 1.961 2455
-0.761 4.003 1.873 7640
-0.789 4.153 1.939 3413
-0.735 3.868 1.813 1047
-0.762 4.008 1.861 8040
-0.788 4.144 1.920 4346
-0.813 4.280 1.980 1540
-0.761 4.006 1.846 7417
-0.787 4.142 1.905 4472
-0.813 4.278 1.964 2724
-0.806 4.240 1.933 5437
-0.761 4.004 1.832 4665
-0.832 4.377 1.991 1418
-0.807 4.245 1.920 8883
-0.779 4.102 1.859 4045
-0.833 4.382 1.978 2321
-0.754 3.966 1.802 1450
-0.810 4.265 1.914 9022
-0.779 4.100 1.844 3473
-0.836 4.401 1.972 1995
-0.810 4.263 1.899 8436
-0.836 4.400 1.956 3225
-0.780 4.105 1.832 1601
-0.811 4.268 1.886 7379
-0.837 4.405 1.943 5838
-0.835 4.395 1.924 8209
-0.802 4.222 1.853 3040
-0.835 4.393 1.908 11214
-0.802 4.220 1.837 1049
-0.836 4.398 1.895 11164
-0.810 4.261 1.840 1486
-0.862 4.536 1.951 1311
-0.840 4.418 1.888 7158
-0.813 4.280 1.833 1630
-0.866 4.555 1.943 1596
-0.850 4.474 1.895 6097
-0.824 4.336 1.840 1423
-0.852 4.486 1.885 6459
-0.879 4.624 1.939 1077
-0.856 4.505 1.877 3670
-0.882 4.643 1.931 2262
-0.883 4.648 1.918 4050
-0.843 4.438 1.836 3361
-0.884 4.654 1.904 4124
-0.848 4.464 1.831 3583
-0.858 4.513 1.835 4994
-0.884 4.651 1.887 3498
-0.886 4.664 1.876 5575
-0.858 4.518 1.822 4897
-0.889 4.676 1.865 7799
-0.862 4.537 1.814 2559
-0.915 4.815 1.917 1261
-0.888 4.673 1.849 5978
-0.921 4.849 1.914 2345
-0.862 4.535 1.798 1163
-0.895 4.708 1.846 4478
-0.928 4.883 1.910 3989
-0.868 4.569 1.795 1405
-0.909 4.786 1.859 7962
-0.936 4.925 1.909 3459
-0.883 4.647 1.808 2505
-0.915 4.813 1.853 7972
-0.941 4.952 1.903 1906
-0.884 4.651 1.795 1719
-0.918 4.832 1.844 4751
-0.953 5.016 1.909 1694
-0.926 4.874 1.842 4127
-0.954 5.021 1.894 2427
-0.900 4.734 1.793 2101
-0.931 4.901 1.836 5009
-0.958 5.041 1.885 2701
-0.905 4.761 1.787 1761
-0.950 5.001 1.855 6422
-0.915 4.817 1.791 2111
-0.977 5.141 1.903 1899
-0.953 5.014 1.842 6761
-0.979 5.154 1.891 1541
-0.921 4.844 1.784 1421
-1.006 5.294 1.939 1071
-0.955 5.026 1.830 3957
-1.001 5.269 1.913 1673
-0.928 4.886 1.783 1483
-0.973 5.119 1.845 2584
-0.946 4.979 1.798 2087
-0.999 5.260 1.892 1952
-1.013 5.331 1.899 2932
-0.982 5.168 1.845 2233
-0.955 5.028 1.798 1929
-1.013 5.329 1.881 3943
-0.977 5.144 1.820 2014
-1.042 5.484 1.932 1011
-1.018 5.356 1.873 3257
-0.981 5.163 1.810 1598
-1.045 5.497 1.919 1512
-1.037 5.457 1.888 3568
-1.009 5.309 1.840 2215
-0.982 5.168 1.794 1458
-1.037 5.455 1.870 4994
-1.010 5.314 1.824 2420
-1.063 5.596 1.915 1652
-0.983 5.173 1.779 1334
-1.038 5.460 1.854 3788
-1.011 5.319 1.809 2168
-1.069 5.623 1.905 1617
-1.040 5.472 1.840 2795
-1.070 5.628 1.889 2631
-1.013 5.331 1.795 1239
-1.068 5.618 1.868 3348
-1.041 5.477 1.824 2215
-1.076 5.660 1.862 3610
-1.049 5.519 1.819 1632
-1.103 5.802 1.906 1233
-1.078 5.673 1.848 3996
-1.105 5.814 1.891 1562
-1.135 5.971 1.939 1490
-1.051 5.531 1.805 1250
-1.077 5.670 1.829 2964
-1.140 5.998 1.928 2051
-1.104 5.812 1.872 1459
-1.051 5.528 1.786 1138
-1.080 5.682 1.815 1892
-1.141 6.003 1.910 1752
-1.107 5.824 1.857 1635
-1.111 5.844 1.844 1908
-1.138 5.986 1.886 1701
-1.084 5.702 1.802 1202
-1.165 6.128 1.928 1118
-1.150 6.051 1.886 2649
-1.119 5.886 1.838 1544
-1.188 6.253 1.944 1384
-1.154 6.071 1.872 3639
-1.188 6.251 1.924 2692
-1.121 5.899 1.822 1432
-1.189 6.256 1.905 3073
-1.160 6.106 1.863 2895
-1.216 6.398 1.946 1281
-1.133 5.963 1.822 1090
-1.188 6.253 1.885 2919
-1.234 6.493 1.952 1652
-1.161 6.111 1.845 1519
-1.191 6.266 1.868 2784
-1.218 6.408 1.908 2464
-1.154 6.071 1.814 1355
-1.216 6.398 1.885 4858
-1.243 6.541 1.924 2320
-1.189 6.256 1.846 1680
-1.162 6.113 1.807 1350
-1.214 6.388 1.862 4391
-1.241 6.531 1.901 3447
-1.300 6.839 1.985 1355
-1.268 6.674 1.940 1143
-1.238 6.513 1.876 2391
-1.211 6.371 1.837 2242
-1.265 6.656 1.914 1844
-1.301 6.844 1.964 1557
-1.362 7.166 2.028 3085
-1.263 6.646 1.890 2176
-1.299 6.834 1.940 1999
-1.219 6.413 1.828 1620
-1.360 7.156 2.003 4636
-1.304 6.862 1.926 2068
-1.270 6.681 1.879 1951
-1.242 6.538 1.841 1616
-1.364 7.176 1.986 3349
-1.395 7.342 2.029 1967
-1.248 6.566 1.828 1508
-1.308 6.882 1.910 1384
-1.370 7.212 1.972 3890
-1.398 7.355 2.009 1958
-1.322 6.955 1.907 1295
-1.370 7.209 1.949 3705
-1.397 7.353 1.986 2104
-1.424 7.496 2.022 1034
-1.370 7.207 1.926 2847
-1.400 7.366 1.966 2001
-1.446 7.607 2.026 1368
-1.372 7.220 1.907 1673
-1.448 7.620 2.005 1567
-1.401 7.371 1.944 1124
-1.475 7.764 2.041 1124
-1.443 7.595 1.976 1529
-1.474 7.754 2.014 1415
-1.450 7.631 1.960 1557
-1.546 8.138 2.082 1289
-1.479 7.782 1.997 1277
-1.619 8.522 2.148 1556
-1.452 7.644 1.940 1535
-1.527 8.037 2.033 1423
-1.565 8.234 2.080 1330
-1.619 8.520 2.121 1902
-1.527 8.035 2.008 1239
-1.554 8.179 2.041 1161
-1.451 7.634 1.914 1086
-1.617 8.511 2.092 2615
-1.646 8.663 2.127 1356
-1.554 8.177 2.015 1062
-1.617 8.509 2.066 3293
-1.647 8.668 2.102 1285
-1.189 6.255 1.552 1008
-1.619 8.522 2.042 2680
-1.728 9.092 2.170 2018
-1.666 8.765 2.097 1741
-1.189 6.259 1.534 1129
-1.665 8.763 2.069 3521
-1.729 9.097 2.143 2615
-1.625 8.550 2.022 1818
-1.666 8.768 2.043 3995
-1.728 9.095 2.115 2228
-1.626 8.556 1.997 1197
-1.667 8.774 2.017 2842
-1.732 9.116 2.091 2827
-1.733 9.122 2.064 2844
-1.671 8.794 1.995 1836
-1.761 9.266 2.095 1065
-1.801 9.480 2.140 1021
-1.671 8.792 1.967 1612
-1.801 9.478 2.110 1543
-1.734 9.127 2.037 1412
-1.805 9.499 2.086 1501
-1.670 8.790 1.939 1290
-1.959 10.307 2.252 1188
-1.876 9.872 2.162 1049
-1.963 10.328 2.225 2215
-1.838 9.672 2.091 1388
-1.874 9.863 2.130 1260
-1.965 10.341 2.196 3050
-1.839 9.678 2.063 1466
-1.969 10.363 2.168 2832
-1.841 9.691 2.036 1141
-1.910 10.050 2.106 1061
-1.970 10.368 2.137 3435
-1.912 10.063 2.078 1540
-1.973 10.382 2.108 3381
-1.918 10.091 2.053 1555
-1.980 10.418 2.083 2312
-1.201 6.318 1.314 1150
-2.102 11.060 2.204 1073
-1.984 10.439 2.055 2377
-2.104 11.074 2.172 1747
-1.201 6.322 1.296 1574
-1.986 10.452 2.026 2293
-2.105 11.080 2.140 1643
-2.199 11.570 2.228 1214
-1.202 6.325 1.277 1191
-2.201 11.583 2.196 1700
-1.984 10.442 1.992 1372
-2.086 10.978 2.088 1149
-2.205 11.605 2.164 2623
-2.092 11.007 2.059 1061
-2.206 11.610 2.130 2878
-2.207 11.616 2.095 1942
-2.205 11.606 2.058 1121
-0.433 2.296 1.821 1774
-0.441 2.339 1.842 5026
-0.418 2.220 1.753 1526
-0.444 2.356 1.845 8597
-0.421 2.237 1.756 1938
-0.446 2.367 1.842 9639
-0.423 2.248 1.754 1283
-0.469 2.487 1.930 1020
-0.448 2.379 1.840 11218
-0.471 2.499 1.928 1107
-0.455 2.415 1.856 11834
-0.432 2.295 1.769 1319
-0.457 2.426 1.854 15414
-0.434 2.306 1.767 1381
-0.480 2.547 1.941 1247
-0.458 2.431 1.847 15414
-0.481 2.552 1.933 1800
-0.435 2.311 1.760 1381
-0.459 2.436 1.840 14138
-0.482 2.557 1.926 1963
-0.436 2.315 1.753 1063
-0.462 2.454 1.842 13320
-0.485 2.575 1.928 1626
-0.464 2.465 1.839 9670
-0.487 2.587 1.925 1370
-0.469 2.489 1.845 7602
-0.492 2.611 1.930 1262
-0.471 2.501 1.842 6372
-0.494 2.623 1.927 1092
-0.476 2.525 1.849 5733
-0.499 2.647 1.933 1061
-0.477 2.530 1.841 5733
-0.500 2.652 1.925 1513
-0.477 2.535 1.834 5637
-0.501 2.657 1.918 2116
-0.482 2.559 1.840 5649
-0.505 2.682 1.923 1167
-0.478 2.538 1.815 5904
-0.501 2.661 1.898 4381
-0.499 2.646 1.877 7295
-0.475 2.523 1.794 5948
-0.499 2.651 1.869 7390
-0.476 2.528 1.787 4737
-0.500 2.656 1.861 7485
-0.476 2.526 1.775 3555
-0.503 2.668 1.858 6260
-0.479 2.544 1.776 3830
-0.485 2.575 1.786 6140
-0.508 2.699 1.867 4734
-0.504 2.678 1.842 6198
-0.481 2.553 1.762 3361
-0.498 2.643 1.809 8802
-0.521 2.768 1.890 1943
-0.505 2.681 1.823 10753
-0.481 2.556 1.742 1376
-0.529 2.806 1.903 1110
-0.507 2.692 1.819 14095
-0.531 2.818 1.899 1288
-0.509 2.704 1.815 11320
-0.518 2.748 1.832 10728
-0.494 2.622 1.753 1569
-0.520 2.760 1.829 8282
-0.496 2.634 1.750 1297
-0.544 2.886 1.907 1237
-0.522 2.771 1.825 6401
-0.546 2.897 1.903 1305
-0.525 2.789 1.825 8720
-0.502 2.663 1.747 1337
-0.549 2.916 1.903 1027
-0.528 2.801 1.821 11647
-0.504 2.674 1.743 1458
-0.528 2.806 1.812 14836
-0.505 2.679 1.735 1158
-0.529 2.810 1.804 18024
-0.532 2.822 1.800 16169
-0.556 2.949 1.877 2397
-0.534 2.833 1.796 12948
-0.558 2.961 1.872 3283
-0.547 2.905 1.827 13753
-0.523 2.778 1.752 1795
-0.548 2.910 1.819 22493
-0.524 2.782 1.744 1650
-0.549 2.915 1.810 23884
-0.525 2.787 1.736 1505
-0.549 2.913 1.798 18248
-0.573 3.041 1.872 1381
-0.548 2.911 1.786 13397
-0.573 3.040 1.860 2081
-0.556 2.950 1.797 11731
-0.580 3.078 1.870 2292
-0.531 2.821 1.723 1593
-0.559 2.968 1.796 12246
-0.583 3.097 1.869 2405
-0.535 2.839 1.722 1477
-0.560 2.973 1.787 10556
-0.584 3.102 1.860 3463
-0.536 2.843 1.714 1419
-0.561 2.977 1.778 10679
-0.585 3.107 1.851 4691
-0.536 2.848 1.706 1268
-0.562 2.982 1.770 10803
-0.586 3.112 1.842 4860
-0.537 2.852 1.697 1116
-0.564 2.994 1.765 10629
-0.588 3.123 1.836 3777
-0.565 2.998 1.756 7939
-0.589 3.128 1.827 3762
-0.570 3.023 1.758 5747
-0.594 3.154 1.829 1709
-0.585 3.104 1.790 6247
-0.560 2.973 1.720 1933
-0.587 3.115 1.785 6940
-0.562 2.984 1.715 1575
-0.588 3.120 1.776 6602
-0.563 2.989 1.706 1284
-0.590 3.131 1.770 7769
-0.565 3.000 1.701 1017
-0.591 3.136 1.761 8600
-0.597 3.168 1.767 9242
-0.599 3.180 1.761 8837
-0.592 3.143 1.730 5465
-0.617 3.275 1.798 3097
-0.611 3.245 1.771 6979
-0.586 3.113 1.703 3629
-0.612 3.250 1.761 8912
-0.587 3.117 1.694 3287
-0.606 3.219 1.734 17100
-0.631 3.352 1.801 1423
-0.690 3.666 1.959 1180
-0.581 3.087 1.667 1094
-0.607 3.224 1.725 23355
-0.691 3.671 1.948 1596
-0.582 3.091 1.658 1503
-0.632 3.357 1.791 1466
-0.609 3.235 1.719 22075
-0.695 3.690 1.944 1750
-0.584 3.103 1.653 1501
-0.634 3.368 1.785 1432
-0.610 3.240 1.709 14936
-0.704 3.737 1.954 2084
-0.635 3.373 1.775 1899
-0.614 3.258 1.707 9001
-0.706 3.749 1.947 2784
-0.639 3.392 1.772 1882
-0.616 3.270 1.701 9199
-0.701 3.719 1.919 3343
-0.641 3.403 1.765 1734
-0.726 3.853 1.983 1195
-0.618 3.281 1.694 7353
-0.700 3.717 1.904 3971
-0.643 3.415 1.759 1554
-0.725 3.851 1.969 1511
-0.624 3.314 1.698 5148
-0.700 3.715 1.890 2841
-0.725 3.849 1.954 1726
-0.649 3.448 1.762 1477
-0.629 3.340 1.699 2497
-0.705 3.742 1.889 2219
-0.730 3.876 1.953 1544
-0.654 3.474 1.762 1013
-0.727 3.860 1.932 3190
-0.702 3.725 1.868 2683
-0.647 3.436 1.732 1950
-0.731 3.879 1.927 5402
-0.705 3.745 1.864 4278
-0.648 3.440 1.722 2082
-0.737 3.912 1.929 5612
-0.712 3.778 1.866 4990
-0.652 3.459 1.719 2333
-0.626 3.325 1.656 1039
-0.741 3.932 1.924 5500
-0.715 3.797 1.862 3268
-0.652 3.464 1.708 1861
-0.627 3.329 1.646 1117
-0.740 3.930 1.909 4888
-0.715 3.795 1.847 2375
-0.655 3.475 1.702 1002
-0.736 3.906 1.884 6027
-0.761 4.041 1.946 2349
-0.741 3.933 1.883 7341
-0.766 4.068 1.943 3892
-0.715 3.797 1.822 1674
-0.759 4.030 1.912 9360
-0.734 3.895 1.852 3302
-0.785 4.166 1.973 1439
-0.760 4.035 1.901 8200
-0.735 3.900 1.841 3230
-0.786 4.171 1.961 2492
-0.754 4.005 1.873 8079
-0.783 4.155 1.939 3675
-0.755 4.010 1.861 8961
-0.781 4.145 1.920 3901
-0.806 4.281 1.980 1768
-0.756 4.014 1.850 8177
-0.801 4.251 1.952 3707
-0.799 4.242 1.933 5774
-0.758 4.027 1.841 4907
-0.825 4.378 1.991 1185
-0.801 4.254 1.924 8181
-0.776 4.118 1.866 3993
-0.827 4.390 1.981 1660
-0.750 3.981 1.808 1348
-0.805 4.273 1.917 8217
-0.774 4.108 1.847 2907
-0.831 4.410 1.975 1368
-0.803 4.264 1.899 7755
-0.829 4.401 1.956 2527
-0.772 4.099 1.829 1460
-0.804 4.269 1.886 7095
-0.830 4.406 1.943 4727
-0.827 4.390 1.921 7018
-0.796 4.224 1.853 2987
-0.828 4.395 1.908 10327
-0.795 4.221 1.837 1129
-0.829 4.400 1.895 10152
-0.803 4.262 1.840 1597
-0.855 4.537 1.951 1310
-0.832 4.419 1.888 6755
-0.807 4.282 1.833 1681
-0.858 4.557 1.943 1560
-0.839 4.453 1.886 5961
-0.813 4.315 1.832 1565
-0.865 4.591 1.941 1303
-0.844 4.480 1.882 6099
-0.870 4.618 1.936 1183
-0.850 4.514 1.880 3582
-0.876 4.652 1.934 1955
-0.876 4.650 1.918 3910
-0.838 4.446 1.839 2743
-0.875 4.648 1.901 4498
-0.841 4.466 1.831 3348
-0.850 4.514 1.835 5247
-0.876 4.653 1.887 3687
-0.857 4.548 1.833 5230
-0.883 4.687 1.885 4397
-0.880 4.670 1.863 7386
-0.854 4.531 1.811 2474
-0.906 4.809 1.915 1149
-0.881 4.675 1.849 5731
-0.915 4.858 1.917 2615
-0.854 4.536 1.798 1004
-0.919 4.877 1.908 4669
-0.887 4.709 1.846 3890
-0.903 4.795 1.861 8238
-0.929 4.934 1.912 2666
-0.877 4.655 1.811 2293
-0.905 4.807 1.850 8383
-0.932 4.946 1.900 2053
-0.875 4.645 1.792 1850
-0.911 4.834 1.844 5244
-0.937 4.973 1.893 1740
-0.884 4.694 1.794 1066
-0.918 4.875 1.842 4277
-0.945 5.015 1.892 2300
-0.892 4.736 1.793 2117
-0.923 4.902 1.836 4646
-0.950 5.042 1.885 2690
-0.897 4.762 1.787 1825
-0.944 5.010 1.857 5692
-0.917 4.870 1.809 2254
-0.970 5.150 1.906 1538
-0.945 5.015 1.842 5873
-0.971 5.155 1.891 1526
-0.918 4.875 1.794 1466
-0.946 5.020 1.828 3762
-0.972 5.160 1.875 2097
-0.919 4.880 1.780 1385
-0.998 5.300 1.923 1012
-0.967 5.136 1.850 3169
-0.941 4.995 1.803 2666
-0.994 5.276 1.897 1627
-1.003 5.325 1.897 2663
-0.974 5.170 1.845 2617
-0.947 5.030 1.798 2175
-1.004 5.330 1.881 3510
-0.969 5.145 1.820 2282
-1.032 5.478 1.930 1141
-1.012 5.372 1.877 3335
-0.972 5.158 1.807 1662
-1.038 5.513 1.923 1456
-1.028 5.459 1.888 3817
-1.002 5.318 1.842 2441
-0.975 5.177 1.797 1442
-1.028 5.456 1.870 5237
-1.001 5.315 1.824 2729
-1.054 5.597 1.915 1676
-0.975 5.174 1.779 1207
-1.029 5.461 1.854 3828
-1.002 5.320 1.809 2097
-1.060 5.625 1.905 1772
-1.060 5.630 1.889 2873
-1.031 5.474 1.840 2647
-1.004 5.332 1.795 1170
-1.059 5.620 1.868 3559
-1.032 5.479 1.824 1917
-1.085 5.761 1.911 1071
-1.067 5.662 1.862 3488
-1.040 5.521 1.819 1460
-1.093 5.804 1.906 1229
-1.069 5.675 1.848 3916
-1.126 5.980 1.941 1504
-1.097 5.824 1.893 1370
-1.039 5.518 1.800 1089
-1.070 5.679 1.831 2831
-1.129 5.993 1.926 2326
-1.102 5.851 1.883 1753
-1.103 5.856 1.866 2014
-1.072 5.692 1.817 1977
-1.130 5.998 1.908 1749
-1.103 5.853 1.846 1940
-1.156 6.137 1.930 1493
-1.076 5.711 1.804 1309
-1.129 5.995 1.888 1188
-1.156 6.135 1.910 2199
-1.109 5.888 1.838 1666
-1.182 6.277 1.951 1300
-1.143 6.065 1.870 3165
-1.178 6.252 1.924 2594
-1.110 5.893 1.820 1678
-1.179 6.257 1.905 3030
-1.149 6.100 1.861 2462
-1.206 6.400 1.946 1413
-1.122 5.958 1.820 1318
-1.178 6.255 1.885 2878
-1.205 6.398 1.925 1794
-1.151 6.113 1.845 1371
-1.212 6.433 1.914 2971
-1.182 6.275 1.870 2813
-1.144 6.072 1.814 1319
-1.208 6.415 1.889 5317
-1.182 6.272 1.850 2098
-1.235 6.558 1.928 1479
-1.153 6.122 1.809 1132
-1.207 6.405 1.866 4560
-1.233 6.548 1.905 2681
-1.270 6.743 1.958 1197
-1.180 6.262 1.827 1086
-1.205 6.395 1.843 2502
-1.251 6.643 1.910 2227
-1.291 6.854 1.967 1454
-1.349 7.162 2.049 1365
-1.349 7.160 2.026 2948
-1.254 6.656 1.892 2425
-1.292 6.859 1.946 1888
-1.208 6.415 1.828 1831
-1.348 7.158 2.003 4412
-1.294 6.872 1.928 2113
-1.258 6.676 1.877 1919
-1.384 7.346 2.053 1425
-1.352 7.178 1.986 3150
-1.383 7.344 2.029 2024
-1.237 6.568 1.828 1456
-1.298 6.892 1.912 1389
-1.359 7.214 1.972 3921
-1.386 7.357 2.009 2122
-1.311 6.957 1.907 1628
-1.413 7.501 2.046 1024
-1.358 7.212 1.949 4087
-1.385 7.355 1.986 2218
-1.311 6.962 1.886 1252
-1.412 7.498 2.022 1015
-1.358 7.209 1.926 3068
-1.388 7.368 1.966 1964
-1.435 7.617 2.028 1462
-1.360 7.222 1.907 1821
-1.436 7.623 2.005 1585
-1.387 7.365 1.942 1226
-1.433 7.605 1.977 1476
-1.464 7.772 2.018 1146
-1.364 7.242 1.889 1136
-1.538 8.165 2.114 1071
-1.436 7.626 1.959 1516
-1.533 8.140 2.082 1394
-1.469 7.800 2.000 1269
-1.514 8.040 2.033 1441
-1.606 8.525 2.148 1416
-1.439 7.638 1.938 1388
-1.473 7.820 1.981 1255
-1.605 8.523 2.121 1921
-1.537 8.159 2.036 1271
-1.510 8.015 2.002 1055
-1.438 7.636 1.914 1002
-1.604 8.513 2.092 2645
-1.635 8.680 2.131 1399
-1.541 8.180 2.015 1254
-1.603 8.511 2.066 3173
-1.635 8.678 2.104 1442
-1.542 8.185 1.991 1198
-1.604 8.517 2.040 2629
-1.653 8.775 2.098 1827
-1.713 9.094 2.170 1712
-1.651 8.766 2.069 3336
-1.714 9.100 2.143 2211
-1.610 8.545 2.020 1632
-1.652 8.771 2.043 3492
-1.714 9.098 2.115 1721
-1.614 8.566 1.998 1006
-1.658 8.799 2.022 2368
-1.716 9.111 2.089 2004
-1.717 9.117 2.062 2012
-1.659 8.805 1.996 1491
-1.746 9.269 2.095 1232
-1.783 9.465 2.107 1419
-1.655 8.787 1.965 1271
-1.721 9.138 2.039 1262
-1.749 9.282 2.069 1191
-1.724 9.151 2.013 1470
-1.790 9.502 2.086 1255
-1.751 9.296 2.043 1108
-1.860 9.875 2.162 1059
-1.946 10.331 2.225 2131
-1.725 9.156 1.986 1346
-1.822 9.675 2.091 1311
-1.858 9.866 2.130 1223
-1.950 10.352 2.197 3085
-1.823 9.680 2.063 1391
-1.953 10.366 2.168 3050
-1.826 9.694 2.036 1098
-1.955 10.379 2.139 3895
-1.896 10.066 2.078 1352
-1.956 10.385 2.108 4068
-1.903 10.102 2.054 1440
-1.963 10.421 2.083 2801
-2.084 11.064 2.204 1484
-1.967 10.442 2.055 2392
-2.085 11.070 2.171 2115
-1.969 10.455 2.026 2042
-2.088 11.083 2.140 1888
-2.181 11.581 2.230 1366
-2.060 10.938 2.113 1043
-2.183 11.587 2.196 1916
-2.069 10.982 2.088 1405
-1.968 10.445 1.992 1251
-2.187 11.608 2.164 2745
-2.073 11.002 2.058 1288
-2.188 11.614 2.130 3148
-2.187 11.612 2.094 2284
-2.187 11.610 2.058 1443
-0.429 2.297 1.821 1347
-0.438 2.346 1.847 4667
-0.416 2.227 1.758 1800
-0.440 2.357 1.845 8480
-0.418 2.237 1.756 2019
-0.442 2.368 1.842 9495
-0.420 2.248 1.754 1369
-0.465 2.488 1.930 1015
-0.444 2.379 1.840 10776
-0.467 2.499 1.928 1075
-0.451 2.416 1.856 11251
-0.429 2.296 1.769 1227
-0.453 2.427 1.854 14598
-0.476 2.548 1.941 1234
-0.431 2.307 1.767 1197
-0.454 2.432 1.847 14598
-0.477 2.553 1.933 1809
-0.432 2.311 1.760 1197
-0.455 2.437 1.840 13486
-0.478 2.558 1.926 2016
-0.457 2.448 1.837 12761
-0.480 2.570 1.923 2012
-0.460 2.466 1.839 9282
-0.483 2.587 1.925 1363
-0.466 2.496 1.850 7418
-0.443 2.375 1.764 1097
-0.489 2.618 1.935 1027
-0.468 2.508 1.847 6417
-0.473 2.532 1.853 6185
-0.474 2.537 1.846 6185
-0.497 2.659 1.930 1199
-0.475 2.542 1.838 6184
-0.498 2.664 1.922 1704
-0.478 2.560 1.840 6337
-0.501 2.683 1.923 1076
-0.476 2.551 1.823 6419
-0.499 2.675 1.906 2929
-0.494 2.647 1.877 7009
-0.471 2.524 1.794 6287
-0.495 2.652 1.869 7090
-0.472 2.528 1.787 4976
-0.497 2.664 1.866 7233
-0.474 2.540 1.784 3753
-0.498 2.669 1.858 6328
-0.475 2.544 1.776 3799
-0.481 2.575 1.786 5909
-0.504 2.700 1.867 4619
-0.500 2.678 1.842 6242
-0.477 2.554 1.762 3250
-0.495 2.650 1.813 8173
-0.518 2.775 1.894 1402
-0.502 2.688 1.827 10255
-0.479 2.563 1.747 1754
-0.503 2.693 1.819 13450
-0.526 2.818 1.899 1452
-0.506 2.711 1.820 10868
-0.483 2.585 1.740 1003
-0.513 2.749 1.832 11110
-0.490 2.623 1.753 1621
-0.515 2.760 1.829 8880
-0.492 2.634 1.750 1361
-0.539 2.887 1.907 1292
-0.518 2.772 1.825 6961
-0.541 2.898 1.903 1445
-0.494 2.646 1.746 1139
-0.520 2.783 1.821 7944
-0.543 2.910 1.899 1345
-0.496 2.657 1.743 1138
-0.522 2.795 1.817 9547
-0.546 2.922 1.894 1270
-0.498 2.668 1.739 1164
-0.524 2.806 1.812 12825
-0.500 2.679 1.735 1283
-0.525 2.811 1.804 16189
-0.527 2.823 1.800 14919
-0.551 2.950 1.877 2489
-0.529 2.834 1.796 12229
-0.553 2.962 1.872 3407
-0.543 2.906 1.827 13649
-0.511 2.738 1.728 1728
-0.544 2.911 1.819 22475
-0.512 2.743 1.720 1587
-0.544 2.916 1.810 23929
-0.514 2.754 1.716 1458
-0.545 2.921 1.802 17976
-0.569 3.049 1.876 1166
-0.544 2.912 1.786 12215
-0.568 3.040 1.860 1940
-0.551 2.950 1.797 12148
-0.575 3.079 1.870 2437
-0.527 2.822 1.723 1165
-0.554 2.969 1.796 13084
-0.578 3.098 1.869 2695
-0.530 2.840 1.722 1087
-0.555 2.973 1.787 11543
-0.579 3.103 1.860 3871
-0.531 2.844 1.714 1155
-0.556 2.978 1.778 12042
-0.580 3.108 1.851 5256
-0.532 2.849 1.706 1091
-0.557 2.983 1.770 12541
-0.581 3.113 1.842 5463
-0.533 2.853 1.697 1027
-0.559 2.994 1.765 11942
-0.583 3.124 1.836 4307
-0.560 2.999 1.756 8318
-0.584 3.129 1.827 4362
-0.579 3.100 1.799 6043
-0.555 2.969 1.728 2410
-0.581 3.111 1.794 7034
-0.557 2.981 1.724 2339
-0.583 3.123 1.789 7823
-0.559 2.992 1.719 1514
-0.584 3.128 1.780 7345
-0.560 2.997 1.710 1335
-0.585 3.132 1.770 8106
-0.586 3.137 1.761 8710
-0.592 3.169 1.767 9063
-0.593 3.174 1.757 8944
-0.588 3.151 1.734 5996
-0.613 3.283 1.802 2642
-0.607 3.253 1.774 5998
-0.583 3.121 1.707 4454
-0.607 3.251 1.761 8022
-0.582 3.118 1.694 3469
-0.682 3.654 1.966 1036
-0.601 3.220 1.734 16415
-0.626 3.353 1.801 1383
-0.685 3.667 1.959 1293
-0.577 3.088 1.667 1035
-0.604 3.232 1.728 22905
-0.686 3.672 1.948 1803
-0.579 3.099 1.662 1720
-0.628 3.365 1.795 1354
-0.604 3.236 1.719 21795
-0.689 3.691 1.944 1955
-0.629 3.369 1.785 1453
-0.580 3.103 1.653 1395
-0.605 3.241 1.709 14908
-0.693 3.710 1.940 2291
-0.630 3.374 1.775 1849
-0.609 3.259 1.707 9063
-0.700 3.750 1.947 2815
-0.634 3.393 1.772 1846
-0.610 3.264 1.697 9202
-0.695 3.720 1.919 3871
-0.634 3.397 1.762 1982
-0.720 3.854 1.983 1249
-0.612 3.275 1.691 7121
-0.694 3.719 1.904 4421
-0.642 3.437 1.769 2244
-0.719 3.852 1.969 1520
-0.619 3.315 1.698 4702
-0.693 3.709 1.887 2878
-0.644 3.449 1.762 2254
-0.718 3.843 1.951 2024
-0.719 3.849 1.940 2375
-0.623 3.334 1.695 2228
-0.694 3.714 1.876 1842
-0.648 3.468 1.759 1543
-0.721 3.861 1.932 3476
-0.696 3.727 1.868 2565
-0.644 3.451 1.739 1803
-0.725 3.880 1.927 5404
-0.699 3.746 1.864 4221
-0.644 3.449 1.725 1813
-0.729 3.906 1.925 5526
-0.704 3.772 1.863 4588
-0.630 3.375 1.679 1784
-0.733 3.926 1.920 4995
-0.708 3.791 1.858 3353
-0.647 3.465 1.708 1468
-0.622 3.330 1.646 1087
-0.734 3.931 1.909 4034
-0.709 3.796 1.847 3085
-0.649 3.476 1.702 1050
-0.730 3.907 1.884 4592
-0.755 4.042 1.946 2537
-0.704 3.772 1.823 1121
-0.735 3.934 1.883 6908
-0.760 4.069 1.943 3810
-0.709 3.798 1.822 1652
-0.753 4.031 1.912 9233
-0.728 3.896 1.852 3102
-0.778 4.167 1.973 1455
-0.754 4.036 1.901 8021
-0.728 3.901 1.841 2878
-0.779 4.172 1.961 2597
-0.747 3.999 1.870 8324
-0.776 4.156 1.939 3863
-0.749 4.011 1.861 9449
-0.777 4.161 1.927 3746
-0.802 4.297 1.986 1383
-0.750 4.016 1.850 8578
-0.795 4.259 1.955 4265
-0.794 4.250 1.936 6097
-0.753 4.035 1.844 5306
-0.795 4.255 1.924 7740
-0.769 4.119 1.866 3971
-0.820 4.392 1.981 1344
-0.744 3.982 1.808 1219
-0.798 4.275 1.917 7829
-0.767 4.109 1.847 2419
-0.824 4.411 1.975 1055
-0.798 4.273 1.902 7568
-0.823 4.409 1.959 1882
-0.766 4.100 1.829 1323
-0.797 4.270 1.886 7127
-0.823 4.407 1.943 3965
-0.820 4.391 1.921 6369
-0.794 4.254 1.865 3044
-0.821 4.396 1.908 9693
-0.789 4.223 1.837 1141
-0.822 4.401 1.895 9328
-0.796 4.264 1.840 1635
-0.848 4.538 1.951 1499
-0.825 4.421 1.888 6391
-0.851 4.558 1.943 1846
-0.800 4.283 1.833 1671
-0.830 4.447 1.884 6010
-0.805 4.310 1.829 1429
-0.856 4.585 1.938 1216
-0.834 4.467 1.876 5880
-0.860 4.605 1.931 1370
-0.842 4.508 1.877 3011
-0.868 4.646 1.931 1954
-0.867 4.644 1.915 3665
-0.831 4.448 1.839 2289
-0.867 4.642 1.898 4607
-0.836 4.474 1.834 3275
-0.842 4.508 1.832 5013
-0.868 4.647 1.885 3979
-0.846 4.528 1.824 5091
-0.871 4.666 1.876 4358
-0.897 4.805 1.929 1222
-0.872 4.671 1.863 6881
-0.846 4.533 1.811 2532
-0.898 4.810 1.915 1320
-0.873 4.676 1.849 5520
-0.907 4.859 1.917 2770
-0.911 4.879 1.908 5152
-0.880 4.710 1.846 3297
-0.896 4.796 1.861 8303
-0.922 4.935 1.912 2325
-0.870 4.657 1.811 2085
-0.898 4.808 1.850 8360
-0.872 4.669 1.800 1977
-0.924 4.948 1.900 1916
-0.903 4.835 1.844 5258
-0.929 4.975 1.893 1877
-0.877 4.696 1.794 1223
-0.911 4.877 1.842 4171
-0.937 5.016 1.892 2295
-0.885 4.737 1.793 2205
-0.925 4.955 1.854 4548
-0.899 4.815 1.805 3185
-0.953 5.102 1.905 2080
-0.936 5.012 1.857 4821
-0.910 4.872 1.809 2367
-0.962 5.152 1.906 1754
-0.937 5.017 1.842 4838
-0.963 5.157 1.891 1751
-0.911 4.876 1.794 1571
-0.957 5.125 1.863 4020
-0.931 4.985 1.815 3118
-0.985 5.272 1.913 1251
-0.961 5.145 1.853 3497
-0.934 5.004 1.805 2932
-0.987 5.285 1.900 1525
-0.966 5.172 1.845 2917
-0.995 5.327 1.897 2543
-0.940 5.031 1.798 2285
-0.998 5.347 1.886 3250
-0.963 5.154 1.822 2518
-1.025 5.487 1.932 1100
-1.005 5.381 1.880 3495
-0.965 5.166 1.810 1704
-1.031 5.522 1.926 1178
-1.020 5.460 1.888 3697
-0.993 5.320 1.842 2570
-0.967 5.179 1.797 1332
-1.021 5.465 1.872 4921
-0.994 5.324 1.827 3126
-1.047 5.607 1.917 1617
-0.968 5.183 1.782 1088
-1.022 5.470 1.856 3695
-0.995 5.329 1.811 2069
-1.048 5.612 1.901 1998
-1.052 5.632 1.889 2856
-1.022 5.475 1.840 2380
-1.051 5.629 1.870 3418
-1.025 5.488 1.826 1454
-1.056 5.656 1.860 3186
-1.030 5.515 1.817 1388
-1.083 5.798 1.904 1285
-1.060 5.676 1.848 3380
-1.088 5.825 1.893 1557
-1.117 5.982 1.941 1500
-1.028 5.505 1.796 1161
-1.061 5.681 1.831 2421
-1.119 5.995 1.926 2341
-1.093 5.853 1.883 2292
-1.094 5.858 1.866 2385
-1.063 5.693 1.817 1966
-1.120 6.000 1.908 1478
-1.096 5.870 1.851 1713
-1.146 6.139 1.930 1589
-1.070 5.728 1.809 1388
-1.146 6.137 1.910 2033
-1.101 5.897 1.840 1790
-1.173 6.279 1.951 1178
-1.133 6.067 1.870 2877
-1.167 6.247 1.922 2302
-1.101 5.895 1.820 2024
-1.167 6.252 1.903 2842
-1.138 6.094 1.858 2142
-1.112 5.952 1.818 1468
-1.194 6.394 1.944 1419
-1.168 6.257 1.885 2942
-1.195 6.399 1.925 1611
-1.135 6.077 1.834 1265
-1.200 6.427 1.912 3153
-1.171 6.269 1.868 2835
-1.134 6.074 1.814 1211
-1.200 6.425 1.891 5491
-1.173 6.282 1.852 2190
-1.226 6.567 1.930 1154
-1.199 6.422 1.870 4557
-1.226 6.565 1.909 1686
-1.173 6.279 1.831 1406
-1.261 6.753 1.960 1219
-1.196 6.404 1.845 2605
-1.241 6.645 1.910 2127
-1.286 6.886 1.975 1458
-1.338 7.164 2.049 1280
-1.338 7.162 2.026 2706
-1.245 6.665 1.894 2676
-1.287 6.891 1.954 1958
-1.198 6.417 1.828 1715
-1.337 7.160 2.003 4042
-1.247 6.678 1.877 2154
-1.286 6.889 1.932 2125
-1.220 6.535 1.839 1419
-1.341 7.181 1.986 2921
-1.372 7.346 2.029 1920
-1.289 6.902 1.914 1562
-1.227 6.570 1.828 1517
-1.348 7.216 1.972 3793
-1.374 7.359 2.009 2092
-1.300 6.959 1.907 1897
-1.401 7.503 2.046 1139
-1.347 7.214 1.949 4204
-1.374 7.357 1.986 2175
-1.301 6.964 1.886 1406
-1.401 7.501 2.022 1025
-1.347 7.211 1.926 3147
-1.375 7.362 1.964 1929
-1.424 7.627 2.030 1357
-1.350 7.232 1.909 1891
-1.424 7.625 2.005 1502
-1.377 7.375 1.944 1246
-1.422 7.615 1.979 1398
-1.353 7.244 1.889 1213
-1.525 8.168 2.114 1139
-1.455 7.789 2.022 1053
-1.521 8.143 2.082 1434
-1.424 7.628 1.959 1380
-1.458 7.810 2.002 1269
-1.502 8.042 2.033 1403
-1.594 8.535 2.150 1275
-1.425 7.633 1.936 1271
-1.461 7.822 1.981 1230
-1.591 8.518 2.119 1876
-1.524 8.161 2.036 1394
-1.590 8.516 2.092 2611
-1.528 8.182 2.015 1450
-1.623 8.691 2.133 1400
-1.590 8.514 2.066 2966
-1.621 8.681 2.104 1654
-1.529 8.187 1.991 1362
-1.591 8.519 2.040 2518
-1.639 8.778 2.098 1829
-1.699 9.097 2.170 1426
-1.637 8.768 2.069 3146
-1.700 9.103 2.143 1818
-1.595 8.540 2.019 1555
-1.638 8.774 2.043 3087
-1.700 9.101 2.115 1438
-1.647 8.817 2.026 2329
-1.701 9.106 2.088 1772
-1.703 9.120 2.062 2101
-1.652 8.845 2.004 1522
-1.731 9.272 2.095 1289
-1.810 9.691 2.184 1084
-1.704 9.125 2.036 1563
-1.733 9.278 2.067 1456
-1.764 9.445 2.102 1437
-1.643 8.797 1.967 1022
-1.734 9.283 2.040 1452
-1.706 9.138 2.010 1340
-1.766 9.459 2.076 1218
-1.810 9.695 2.125 1056
-1.930 10.334 2.225 1912
-1.812 9.701 2.096 1264
-1.844 9.876 2.132 1129
-1.712 9.166 1.988 1108
-1.934 10.355 2.197 2927
-1.808 9.683 2.063 1289
-1.891 10.126 2.151 1115
-1.938 10.376 2.169 3154
-1.811 9.696 2.036 1060
-1.888 10.109 2.117 1020
-1.939 10.382 2.139 4220
-1.886 10.099 2.084 1217
-1.940 10.388 2.108 4375
-1.887 10.105 2.054 1262
-2.048 10.969 2.219 1068
-1.944 10.409 2.080 2715
-2.067 11.067 2.204 1894
-2.068 11.073 2.171 2451
-1.949 10.437 2.054 2062
-1.184 6.341 1.299 1059
-2.070 11.086 2.140 2175
-1.952 10.450 2.024 1674
-2.163 11.584 2.230 1406
-1.185 6.344 1.280 1221
-2.164 11.590 2.196 1819
-2.071 11.092 2.107 1756
-1.185 6.347 1.261 1231
-1.950 10.440 1.991 1084
-2.168 11.612 2.164 2605
-2.055 11.006 2.058 1504
-1.186 6.350 1.243 1061
-2.169 11.617 2.130 3284
-2.073 11.103 2.041 1129
-2.169 11.615 2.094 2662
-2.074 11.109 2.008 1037
-2.170 11.621 2.060 1652
-0.420 2.240 1.778 1121
-0.440 2.346 1.847 4575
-0.417 2.226 1.758 1773
-0.443 2.363 1.849 8697
-0.420 2.243 1.761 2180
-0.445 2.374 1.847 9551
-0.423 2.254 1.759 1511
-0.446 2.379 1.840 10499
-0.468 2.499 1.928 1089
-0.453 2.416 1.856 10805
-0.430 2.295 1.769 1186
-0.455 2.427 1.854 13849
-0.477 2.547 1.941 1247
-0.432 2.306 1.767 1075
-0.456 2.432 1.847 13849
-0.478 2.553 1.933 1829
-0.433 2.311 1.760 1075
-0.457 2.437 1.840 12973
-0.479 2.558 1.926 2075
-0.459 2.448 1.837 12402
-0.482 2.569 1.923 2118
-0.461 2.459 1.834 8953
-0.484 2.581 1.920 1570
-0.468 2.496 1.850 7203
-0.445 2.374 1.764 1200
-0.471 2.514 1.851 6477
-0.448 2.392 1.766 1262
-0.474 2.532 1.853 6742
-0.475 2.537 1.846 6742
-0.498 2.659 1.930 1138
-0.479 2.554 1.847 6875
-0.480 2.559 1.840 7082
-0.479 2.558 1.828 6945
-0.502 2.681 1.911 2053
-0.478 2.549 1.812 6954
-0.501 2.673 1.894 4632
-0.497 2.652 1.869 6791
-0.474 2.528 1.787 5231
-0.499 2.663 1.866 7044
-0.476 2.539 1.784 3981
-0.500 2.668 1.858 6375
-0.477 2.544 1.776 3786
-0.501 2.673 1.850 5706
-0.478 2.549 1.769 3590
-0.502 2.678 1.842 6129
-0.479 2.553 1.762 3090
-0.497 2.650 1.813 7299
-0.520 2.775 1.894 1300
-0.504 2.688 1.827 9460
-0.480 2.563 1.747 1739
-0.505 2.693 1.819 12368
-0.528 2.818 1.899 1570
-0.508 2.711 1.820 10198
-0.484 2.585 1.740 1031
-0.532 2.836 1.899 1013
-0.515 2.749 1.832 11411
-0.492 2.623 1.753 1644
-0.517 2.760 1.829 9524
-0.494 2.634 1.750 1434
-0.541 2.886 1.907 1335
-0.518 2.765 1.820 7730
-0.542 2.891 1.899 1764
-0.495 2.639 1.742 1051
-0.522 2.783 1.821 7336
-0.545 2.910 1.899 1478
-0.498 2.657 1.743 1343
-0.524 2.795 1.817 7499
-0.547 2.921 1.894 1449
-0.500 2.668 1.739 1310
-0.526 2.806 1.812 10710
-0.502 2.679 1.735 1430
-0.550 2.933 1.890 1092
-0.527 2.811 1.804 14186
-0.503 2.684 1.728 1054
-0.529 2.822 1.800 13501
-0.553 2.950 1.877 2607
-0.531 2.834 1.796 11323
-0.555 2.961 1.872 3563
-0.545 2.906 1.827 13412
-0.514 2.744 1.732 1757
-0.545 2.911 1.819 22204
-0.515 2.749 1.724 1603
-0.548 2.922 1.814 23706
-0.524 2.794 1.740 1523
-0.549 2.927 1.806 17855
-0.524 2.799 1.731 1051
-0.573 3.055 1.880 1045
-0.551 2.939 1.801 12082
-0.575 3.067 1.875 1229
-0.554 2.957 1.800 12783
-0.578 3.086 1.874 2259
-0.558 2.975 1.799 13729
-0.582 3.104 1.873 2456
-0.533 2.846 1.726 1023
-0.558 2.980 1.791 12154
-0.583 3.109 1.864 3650
-0.534 2.851 1.718 1136
-0.559 2.985 1.782 12865
-0.584 3.114 1.855 4925
-0.535 2.855 1.710 1069
-0.559 2.983 1.770 13655
-0.583 3.112 1.842 5992
-0.561 2.994 1.765 12855
-0.585 3.124 1.836 4804
-0.562 2.999 1.756 8952
-0.586 3.129 1.827 4910
-0.583 3.113 1.807 6791
-0.559 2.983 1.736 4491
-0.584 3.118 1.798 7715
-0.560 2.987 1.727 3088
-0.585 3.123 1.789 8474
-0.561 2.992 1.719 1465
-0.586 3.127 1.780 7936
-0.562 2.996 1.710 1245
-0.586 3.125 1.767 8180
-0.588 3.137 1.761 8466
-0.627 3.344 1.870 1112
-0.593 3.162 1.763 8652
-0.593 3.167 1.754 8919
-0.618 3.298 1.822 1002
-0.590 3.150 1.734 6398
-0.615 3.282 1.802 2534
-0.587 3.134 1.714 5283
-0.612 3.266 1.781 4689
-0.612 3.264 1.768 7112
-0.587 3.132 1.701 4447
-0.684 3.647 1.963 1142
-0.605 3.227 1.738 15300
-0.687 3.666 1.959 1360
-0.580 3.094 1.671 1224
-0.630 3.359 1.804 1143
-0.606 3.231 1.728 21645
-0.688 3.671 1.948 1962
-0.581 3.099 1.662 1456
-0.634 3.385 1.805 1386
-0.606 3.236 1.719 20665
-0.693 3.698 1.948 2176
-0.639 3.411 1.806 1422
-0.582 3.103 1.653 1274
-0.609 3.248 1.713 14415
-0.695 3.710 1.940 2566
-0.641 3.423 1.799 1683
-0.584 3.114 1.647 1323
-0.609 3.252 1.703 8943
-0.696 3.715 1.930 2999
-0.634 3.385 1.768 1984
-0.584 3.119 1.638 1113
-0.612 3.264 1.697 9003
-0.696 3.713 1.915 4389
-0.637 3.397 1.762 2019
-0.721 3.846 1.980 1309
-0.614 3.275 1.691 6910
-0.696 3.711 1.901 5077
-0.645 3.444 1.772 2379
-0.721 3.845 1.965 1545
-0.621 3.315 1.698 4181
-0.695 3.709 1.887 3402
-0.646 3.448 1.762 2248
-0.720 3.843 1.951 2202
-0.721 3.848 1.940 2766
-0.693 3.700 1.869 2381
-0.625 3.333 1.695 2020
-0.650 3.467 1.759 1524
-0.723 3.860 1.932 3742
-0.697 3.719 1.865 2621
-0.647 3.451 1.739 1808
-0.618 3.295 1.666 1045
-0.726 3.872 1.924 5373
-0.701 3.738 1.861 3748
-0.646 3.448 1.725 1473
-0.620 3.307 1.659 1098
-0.732 3.906 1.925 5179
-0.707 3.771 1.863 4308
-0.632 3.375 1.679 1601
-0.734 3.918 1.917 4369
-0.709 3.783 1.855 3500
-0.627 3.344 1.653 1072
-0.714 3.810 1.854 4326
-0.739 3.944 1.915 3204
-0.740 3.950 1.904 3917
-0.715 3.814 1.843 3654
-0.766 4.085 1.965 2032
-0.737 3.933 1.883 6497
-0.762 4.068 1.943 3718
-0.712 3.798 1.822 1719
-0.755 4.031 1.912 9027
-0.730 3.895 1.852 3109
-0.781 4.166 1.973 1493
-0.756 4.036 1.901 7772
-0.782 4.172 1.961 2830
-0.731 3.900 1.841 2790
-0.749 3.998 1.870 8248
-0.779 4.155 1.939 4104
-0.752 4.010 1.861 9545
-0.781 4.168 1.930 3936
-0.807 4.304 1.989 1194
-0.752 4.015 1.850 8696
-0.798 4.259 1.955 4803
-0.796 4.250 1.936 6460
-0.768 4.099 1.872 5953
-0.743 3.963 1.813 2205
-0.799 4.262 1.927 7667
-0.772 4.118 1.866 4042
-0.746 3.982 1.808 1227
-0.801 4.274 1.917 7886
-0.775 4.138 1.860 2155
-0.801 4.272 1.902 7689
-0.826 4.409 1.959 1458
-0.766 4.085 1.823 1245
-0.800 4.270 1.886 7179
-0.826 4.407 1.943 3440
-0.823 4.390 1.921 6022
-0.797 4.253 1.865 3220
-0.824 4.395 1.908 9224
-0.797 4.251 1.849 1198
-0.825 4.400 1.895 8598
-0.799 4.263 1.840 1622
-0.850 4.538 1.951 1369
-0.828 4.420 1.888 5971
-0.854 4.558 1.943 1743
-0.803 4.282 1.833 1597
-0.833 4.447 1.884 5806
-0.808 4.309 1.829 1382
-0.859 4.584 1.938 1097
-0.837 4.466 1.876 5522
-0.863 4.604 1.931 1335
-0.839 4.478 1.866 2941
-0.868 4.631 1.926 1821
-0.870 4.643 1.915 3300
-0.840 4.483 1.853 2025
-0.868 4.634 1.895 4519
-0.840 4.481 1.837 3253
-0.848 4.522 1.838 5267
-0.873 4.661 1.890 3254
-0.853 4.549 1.833 5593
-0.879 4.688 1.885 2959
-0.875 4.671 1.863 6172
-0.849 4.532 1.811 2503
-0.901 4.810 1.915 1671
-0.869 4.639 1.836 5348
-0.911 4.859 1.917 2859
-0.913 4.871 1.905 5437
-0.879 4.688 1.838 2964
-0.899 4.795 1.861 8233
-0.873 4.656 1.811 2117
-0.925 4.935 1.912 1959
-0.900 4.800 1.847 8355
-0.874 4.661 1.797 2038
-0.926 4.940 1.898 1999
-0.906 4.835 1.844 5415
-0.932 4.974 1.893 2026
-0.880 4.695 1.794 1388
-0.928 4.950 1.868 4522
-0.896 4.781 1.809 3460
-0.929 4.955 1.854 4974
-0.902 4.815 1.805 3173
-0.955 5.094 1.903 2208
-0.939 5.011 1.857 3892
-0.913 4.871 1.809 2632
-0.965 5.151 1.906 1851
-0.939 5.009 1.840 3565
-0.965 5.149 1.888 2138
-0.912 4.869 1.792 1605
-0.960 5.124 1.863 4269
-0.934 4.984 1.815 2915
-0.991 5.287 1.918 1186
-0.965 5.151 1.855 3706
-0.939 5.011 1.808 2904
-0.993 5.299 1.905 1607
-0.969 5.171 1.845 3048
-0.998 5.326 1.897 2499
-0.943 5.030 1.798 2227
-1.003 5.353 1.888 3292
-0.966 5.154 1.822 2655
-1.030 5.494 1.935 1091
-1.007 5.373 1.877 3729
-0.965 5.151 1.805 1759
-1.033 5.514 1.923 1379
-1.008 5.378 1.862 3942
-1.034 5.519 1.907 2042
-0.969 5.171 1.794 1306
-1.005 5.361 1.839 4359
-1.031 5.502 1.884 3646
-0.974 5.198 1.786 1092
-1.025 5.470 1.856 3272
-1.052 5.611 1.901 2352
-0.999 5.329 1.811 1828
-1.055 5.631 1.889 2921
-1.026 5.475 1.840 1933
-1.055 5.628 1.870 3279
-1.084 5.785 1.918 1067
-1.028 5.487 1.826 1025
-1.059 5.648 1.858 2753
-1.085 5.790 1.901 1464
-1.032 5.507 1.814 1281
-1.064 5.675 1.848 2722
-1.090 5.817 1.891 1631
-1.121 5.981 1.941 1379
-1.032 5.504 1.796 1131
-1.095 5.845 1.881 2496
-1.065 5.680 1.831 2095
-1.123 5.994 1.926 2080
-1.098 5.857 1.866 2585
-1.068 5.700 1.819 1796
-1.124 5.999 1.908 1220
-1.100 5.869 1.851 1774
-1.152 6.146 1.932 1762
-1.073 5.727 1.809 1365
-1.157 6.174 1.920 1903
-1.105 5.897 1.840 1857
-1.126 6.006 1.853 2370
-1.169 6.239 1.919 2035
-1.099 5.864 1.812 1586
-1.170 6.244 1.901 2465
-1.121 5.981 1.826 2132
-1.201 6.408 1.948 1322
-1.171 6.249 1.883 2929
-1.198 6.391 1.923 1458
-1.144 6.106 1.843 1180
-1.118 5.964 1.802 1118
-1.204 6.426 1.912 3639
-1.175 6.269 1.868 2583
-1.137 6.066 1.812 1061
-1.231 6.569 1.952 1051
-1.205 6.431 1.893 6099
-1.179 6.289 1.854 1678
-1.232 6.574 1.933 1532
-1.206 6.436 1.874 5328
-1.246 6.647 1.932 1663
-1.179 6.293 1.836 1402
-1.272 6.790 1.970 1045
-1.207 6.441 1.855 2912
-1.247 6.652 1.912 2180
-1.273 6.795 1.950 1416
-1.343 7.164 2.049 1108
-1.249 6.664 1.894 2889
-1.342 7.161 2.026 2322
-1.293 6.898 1.956 2176
-1.202 6.416 1.828 1542
-1.342 7.159 2.003 3491
-1.250 6.670 1.875 2438
-1.292 6.896 1.934 2083
-1.223 6.526 1.837 1336
-1.346 7.180 1.986 2537
-1.377 7.346 2.029 1639
-1.298 6.923 1.919 1508
-1.231 6.569 1.828 1389
-1.352 7.215 1.972 3539
-1.379 7.359 2.009 2024
-1.304 6.959 1.907 1994
-1.406 7.502 2.046 1209
-1.352 7.213 1.949 4095
-1.379 7.356 1.986 2122
-1.305 6.964 1.886 1455
-1.351 7.210 1.926 3057
-1.380 7.362 1.964 1738
-1.431 7.634 2.032 1403
-1.355 7.231 1.909 1871
-1.430 7.631 2.007 1309
-1.382 7.374 1.944 1175
-1.463 7.805 2.050 1005
-1.464 7.811 2.027 1252
-1.357 7.243 1.889 1237
-1.525 8.136 2.106 1197
-1.427 7.614 1.979 1147
-1.526 8.142 2.082 1480
-1.466 7.824 2.006 1446
-1.429 7.627 1.959 1178
-1.507 8.041 2.033 1351
-1.466 7.822 1.981 1331
-1.601 8.541 2.152 1114
-1.430 7.632 1.936 1092
-1.596 8.517 2.119 1764
-1.529 8.160 2.036 1369
-1.467 7.827 1.958 1004
-1.594 8.507 2.091 2474
-1.532 8.173 2.014 1466
-1.629 8.689 2.133 1343
-1.595 8.513 2.066 2710
-1.627 8.680 2.104 1821
-1.534 8.186 1.991 1428
-1.596 8.518 2.040 2368
-1.645 8.777 2.098 1844
-1.705 9.096 2.170 1058
-1.645 8.775 2.071 2999
-1.599 8.531 2.017 1493
-1.706 9.102 2.143 1294
-1.646 8.780 2.045 2859
-1.721 9.183 2.133 1293
-1.654 8.824 2.027 2609
-1.706 9.105 2.088 1517
-1.734 9.250 2.119 1052
-1.656 8.837 2.003 1760
-1.709 9.119 2.062 1588
-1.736 9.263 2.093 1340
-1.816 9.690 2.184 1100
-1.739 9.276 2.067 1592
-1.769 9.437 2.101 1478
-1.740 9.282 2.040 1614
-1.770 9.442 2.073 1263
-1.815 9.686 2.123 1190
-1.938 10.340 2.226 1615
-1.814 9.677 2.091 1254
-1.743 9.303 2.016 1058
-1.851 9.875 2.132 1016
-1.942 10.362 2.199 2639
-1.898 10.125 2.151 1218
-1.815 9.682 2.063 1140
-1.944 10.375 2.169 2974
-1.899 10.131 2.121 1105
-2.050 10.941 2.281 1042
-1.946 10.381 2.139 4049
-2.020 10.778 2.216 1182
-2.054 10.962 2.251 1057
-1.894 10.106 2.086 1050
-1.948 10.394 2.110 4397
-2.074 11.067 2.238 1435
-2.023 10.792 2.185 1044
-1.895 10.111 2.056 1011
-1.952 10.415 2.082 2861
-2.074 11.066 2.204 2430
-2.047 10.920 2.176 1097
-2.075 11.072 2.171 2891
-1.957 10.444 2.055 2130
-2.077 11.085 2.140 2524
-1.960 10.457 2.026 1782
-2.171 11.583 2.230 1293
-2.079 11.091 2.107 2253
-2.172 11.589 2.196 1701
-1.959 10.455 1.993 1237
-2.174 11.602 2.163 2465
-2.080 11.096 2.074 1868
-2.176 11.608 2.128 3211
-2.079 11.094 2.040 1498
-2.177 11.614 2.094 2764
-2.082 11.107 2.008 1387
-2.181 11.635 2.062 1746
-0.416 2.241 1.778 1145
-0.436 2.353 1.851 4522
-0.414 2.233 1.763 1984
-0.439 2.370 1.854 9011
-0.417 2.251 1.765 2290
-0.440 2.375 1.847 9487
-0.418 2.255 1.759 1519
-0.441 2.380 1.840 9963
-0.464 2.500 1.928 1224
-0.449 2.423 1.861 10444
-0.427 2.302 1.773 1245
-0.450 2.428 1.854 12922
-0.472 2.548 1.941 1316
-0.428 2.307 1.767 1040
-0.451 2.433 1.847 12922
-0.473 2.554 1.933 1921
-0.429 2.312 1.760 1040
-0.452 2.438 1.840 12289
-0.474 2.559 1.926 2096
-0.454 2.449 1.837 11766
-0.477 2.570 1.923 2094
-0.456 2.460 1.834 8365
-0.479 2.582 1.920 1551
-0.463 2.497 1.850 6253
-0.440 2.375 1.764 1254
-0.466 2.515 1.851 5774
-0.444 2.393 1.766 1256
-0.472 2.545 1.862 6467
-0.473 2.550 1.854 6467
-0.474 2.555 1.847 6585
-0.475 2.560 1.840 6691
-0.467 2.520 1.802 5928
-0.490 2.643 1.885 4552
-0.491 2.648 1.877 6188
-0.467 2.518 1.790 5893
-0.492 2.653 1.869 6484
-0.469 2.529 1.787 5024
-0.494 2.664 1.866 6893
-0.470 2.534 1.779 4204
-0.495 2.669 1.858 6446
-0.472 2.545 1.776 4003
-0.495 2.668 1.846 6032
-0.472 2.543 1.765 3332
-0.497 2.679 1.842 5854
-0.474 2.554 1.762 3375
-0.493 2.658 1.818 6004
-0.516 2.783 1.898 1007
-0.499 2.689 1.827 8163
-0.475 2.564 1.747 1898
-0.522 2.814 1.907 1083
-0.501 2.700 1.823 10635
-0.524 2.826 1.903 1387
-0.477 2.575 1.743 1331
-0.509 2.745 1.840 9475
-0.486 2.619 1.761 2056
-0.511 2.756 1.837 11670
-0.488 2.630 1.758 1968
-0.512 2.761 1.829 10295
-0.489 2.635 1.750 1651
-0.535 2.887 1.907 1337
-0.513 2.766 1.820 8919
-0.536 2.892 1.899 1771
-0.489 2.640 1.742 1335
-0.515 2.777 1.817 7025
-0.538 2.904 1.894 1705
-0.491 2.651 1.739 1223
-0.517 2.789 1.813 5477
-0.541 2.916 1.890 1731
-0.494 2.662 1.735 1072
-0.520 2.807 1.812 8370
-0.497 2.680 1.735 1651
-0.544 2.934 1.890 1233
-0.521 2.812 1.804 11749
-0.498 2.685 1.728 1184
-0.546 2.946 1.885 1038
-0.523 2.823 1.800 11745
-0.547 2.951 1.877 2755
-0.500 2.696 1.724 1006
-0.527 2.842 1.800 10204
-0.550 2.969 1.876 3063
-0.540 2.914 1.831 12824
-0.516 2.786 1.756 2446
-0.541 2.918 1.823 21605
-0.517 2.790 1.748 1842
-0.542 2.923 1.814 23346
-0.511 2.754 1.716 1418
-0.543 2.928 1.806 17682
-0.567 3.057 1.880 1058
-0.512 2.759 1.708 1019
-0.545 2.940 1.801 12463
-0.569 3.068 1.875 1176
-0.550 2.965 1.804 13507
-0.574 3.094 1.878 2127
-0.552 2.976 1.799 14277
-0.576 3.105 1.873 2796
-0.553 2.981 1.791 12687
-0.577 3.110 1.864 3958
-0.554 2.986 1.782 13209
-0.578 3.115 1.855 5234
-0.554 2.990 1.773 13730
-0.578 3.120 1.846 5349
-0.555 2.995 1.765 12690
-0.579 3.125 1.836 5242
-0.611 3.296 1.931 1107
-0.556 3.000 1.756 8541
-0.580 3.130 1.827 5412
-0.611 3.294 1.918 1425
-0.577 3.114 1.807 7658
-0.553 2.984 1.736 4398
-0.612 3.299 1.908 1484
-0.578 3.119 1.798 8367
-0.554 2.988 1.727 2998
-0.613 3.305 1.898 1209
-0.579 3.124 1.789 9013
-0.555 2.993 1.719 1342
-0.580 3.128 1.780 8416
-0.556 2.997 1.710 1086
-0.615 3.315 1.879 1065
-0.580 3.126 1.767 7943
-0.618 3.333 1.877 1327
-0.580 3.131 1.758 7882
-0.620 3.345 1.870 1492
-0.586 3.163 1.763 7878
-0.620 3.343 1.857 1340
-0.587 3.168 1.754 8951
-0.619 3.341 1.844 1197
-0.584 3.152 1.734 6755
-0.609 3.284 1.802 2402
-0.581 3.135 1.714 5244
-0.607 3.274 1.785 3934
-0.607 3.272 1.772 6161
-0.582 3.140 1.705 4383
-0.676 3.648 1.963 1215
-0.638 3.439 1.857 1116
-0.600 3.235 1.741 13712
-0.575 3.102 1.675 1539
-0.680 3.668 1.959 1477
-0.632 3.409 1.829 1353
-0.599 3.233 1.728 19252
-0.681 3.673 1.948 2194
-0.630 3.400 1.812 1842
-0.575 3.100 1.662 1395
-0.601 3.244 1.722 18631
-0.686 3.699 1.948 2507
-0.634 3.419 1.809 1893
-0.577 3.111 1.656 1651
-0.602 3.249 1.713 13333
-0.688 3.711 1.940 2929
-0.635 3.424 1.799 2100
-0.578 3.116 1.647 1927
-0.603 3.253 1.703 8566
-0.688 3.709 1.926 3432
-0.628 3.386 1.768 2282
-0.578 3.120 1.638 1629
-0.605 3.265 1.697 8579
-0.689 3.714 1.915 5073
-0.630 3.398 1.762 2191
-0.715 3.855 1.983 1324
-0.607 3.276 1.691 6677
-0.688 3.712 1.901 5975
-0.640 3.452 1.776 2057
-0.714 3.853 1.969 1454
-0.687 3.703 1.883 4718
-0.613 3.309 1.695 3784
-0.713 3.844 1.951 2239
-0.638 3.443 1.759 1725
-0.686 3.701 1.869 3864
-0.714 3.849 1.940 2951
-0.618 3.334 1.695 1968
-0.643 3.468 1.759 1218
-0.716 3.862 1.932 3793
-0.690 3.720 1.865 3299
-0.640 3.452 1.739 1378
-0.612 3.304 1.669 1300
-0.718 3.874 1.924 5260
-0.693 3.739 1.861 3465
-0.613 3.308 1.659 1413
-0.722 3.893 1.919 4897
-0.697 3.759 1.856 3583
-0.626 3.376 1.679 1451
-0.747 4.028 1.981 1082
-0.706 3.806 1.865 4132
-0.731 3.941 1.927 2938
-0.707 3.811 1.854 5032
-0.732 3.946 1.915 3018
-0.757 4.081 1.977 1141
-0.709 3.823 1.846 4250
-0.734 3.958 1.907 4027
-0.759 4.093 1.968 1982
-0.729 3.935 1.883 6358
-0.755 4.070 1.943 3493
-0.704 3.799 1.822 1956
-0.748 4.032 1.912 8731
-0.722 3.897 1.852 3708
-0.773 4.168 1.973 1609
-0.749 4.037 1.901 7671
-0.774 4.173 1.961 3170
-0.723 3.902 1.841 2949
-0.743 4.007 1.873 8143
-0.772 4.164 1.942 4371
-0.744 4.012 1.861 9523
-0.774 4.176 1.933 4526
-0.746 4.024 1.853 8854
-0.789 4.253 1.952 5249
-0.762 4.108 1.875 6758
-0.788 4.251 1.936 6739
-0.736 3.971 1.816 1793
-0.790 4.263 1.927 7775
-0.765 4.127 1.869 4226
-0.740 3.990 1.811 1590
-0.793 4.276 1.917 8232
-0.767 4.139 1.860 2092
-0.794 4.281 1.905 7966
-0.768 4.144 1.847 1349
-0.819 4.418 1.962 1219
-0.793 4.279 1.889 7105
-0.819 4.416 1.946 2821
-0.768 4.142 1.832 1120
-0.813 4.385 1.918 6050
-0.787 4.248 1.862 3012
-0.815 4.397 1.908 8916
-0.790 4.260 1.852 1368
-0.816 4.402 1.895 7928
-0.789 4.257 1.837 1621
-0.842 4.540 1.951 1393
-0.820 4.422 1.888 5429
-0.845 4.559 1.943 1894
-0.794 4.284 1.833 1376
-0.825 4.448 1.884 5251
-0.850 4.586 1.938 1178
-0.799 4.311 1.829 1176
-0.828 4.468 1.876 4953
-0.854 4.606 1.931 1406
-0.831 4.480 1.866 2880
-0.858 4.625 1.923 1823
-0.846 4.565 1.884 3429
-0.854 4.606 1.884 4858
