-1.023 3.415 1.714 4403
-0.973 3.249 1.637 3002
-1.167 3.898 1.926 3791
-1.055 3.524 1.753 3529
-1.057 3.528 1.742 3207
-1.171 3.910 1.918 3145
-1.062 3.547 1.738 3047
-1.179 3.936 1.916 1973
-1.065 3.558 1.730 3981
-1.176 3.927 1.897 2848
-1.065 3.556 1.716 4319
-1.177 3.932 1.886 3931
-1.066 3.560 1.706 3991
-1.179 3.936 1.874 3850
-1.067 3.564 1.695 3259
-1.180 3.941 1.862 2740
-1.067 3.562 1.681 2735
-1.213 4.051 1.896 2671
-1.215 4.056 1.884 4180
-1.269 4.238 1.963 2950
-1.227 4.096 1.887 6293
-1.273 4.250 1.953 4419
-1.230 4.108 1.877 7280
-1.272 4.248 1.938 4030
-1.034 3.452 1.585 5319
-1.259 4.204 1.904 5081
-1.035 3.456 1.574 5499
-1.250 4.174 1.876 3469
-1.034 3.453 1.561 3466
-1.251 4.178 1.864 2029
-1.291 4.310 1.904 3067
-1.033 3.450 1.548 2670
-1.299 4.336 1.900 5229
-1.036 3.461 1.540 3696
-1.311 4.376 1.901 4637
-1.038 3.465 1.530 4228
-1.327 4.431 1.908 4386
-1.041 3.476 1.522 4206
-1.330 4.443 1.897 5652
-1.040 3.473 1.509 3993
-1.334 4.455 1.887 5954
-1.041 3.476 1.498 3521
-1.338 4.467 1.876 5012
-1.042 3.480 1.488 2613
-1.341 4.479 1.865 5120
-1.122 3.747 1.580 2012
-1.343 4.484 1.852 5686
-1.123 3.751 1.569 2906
-1.391 4.645 1.898 4039
-1.346 4.495 1.841 3981
-1.390 4.643 1.881 4147
-1.350 4.507 1.830 2502
-1.379 4.605 1.851 4718
-1.420 4.740 1.902 3146
-1.404 4.688 1.867 6718
-1.445 4.824 1.917 2329
-1.401 4.679 1.847 5128
-1.442 4.814 1.898 3447
-1.396 4.662 1.825 4092
-1.441 4.812 1.880 3697
-1.477 4.932 1.907 5777
-1.419 4.738 1.837 2987
-1.483 4.951 1.898 6401
-1.412 4.714 1.813 2098
-1.486 4.963 1.885 7176
-1.531 5.114 1.939 2081
-1.486 4.961 1.868 9122
-1.526 5.097 1.916 2346
-1.487 4.965 1.853 7814
-1.532 5.117 1.905 3108
-1.497 4.999 1.848 5057
-1.538 5.136 1.895 3502
-1.518 5.069 1.855 4843
-1.559 5.206 1.902 2781
-1.569 5.239 1.896 3648
-1.528 5.102 1.849 3221
-1.575 5.259 1.885 4792
-1.534 5.122 1.839 3860
-1.542 5.148 1.830 3082
-1.583 5.285 1.876 2787
-1.643 5.485 1.924 2748
-1.582 5.283 1.858 1612
-1.646 5.498 1.910 2620
-1.581 5.280 1.839 1750
-1.654 5.524 1.900 2199
-1.704 5.691 1.954 1748
-1.712 5.718 1.944 2404
-1.591 5.312 1.814 1796
-1.720 5.745 1.933 3183
-1.653 5.520 1.862 1828
-1.722 5.750 1.916 3312
-1.763 5.888 1.959 1829
-1.725 5.762 1.901 3662
-1.784 5.958 1.961 1818
-1.727 5.767 1.883 2457
-1.788 5.971 1.946 1916
-1.755 5.859 1.892 1966
-1.796 5.997 1.934 1668
-1.791 5.981 1.910 1877
-1.859 6.207 1.977 1561
-1.849 6.175 1.947 3211
-1.790 5.978 1.889 1931
-1.853 6.188 1.931 3166
-1.894 6.326 1.971 2310
-1.883 6.288 1.940 3394
-1.924 6.426 1.980 3020
-1.919 6.410 1.954 3108
-1.878 6.271 1.914 2113
-1.921 6.415 1.935 2965
-1.871 6.246 1.887 1086
-1.925 6.427 1.917 3179
-2.094 6.991 2.075 1430
-1.935 6.461 1.906 3602
-2.106 7.033 2.064 1921
-1.954 6.525 1.902 4039
-2.108 7.039 2.042 2385
-1.951 6.515 1.879 2339
-2.109 7.044 2.021 2139
-2.142 7.152 2.027 2484
-2.184 7.292 2.064 1688
-2.146 7.165 2.007 3017
-2.187 7.304 2.044 1859
-2.140 7.148 1.980 2490
-2.182 7.288 2.016 2053
-2.142 7.153 1.958 2202
-2.263 7.558 2.062 2129
-2.258 7.541 2.033 2065
-2.179 7.276 1.966 1721
-2.253 7.524 2.005 2971
-2.180 7.281 1.944 1393
-2.259 7.544 1.986 3126
-2.489 8.312 2.175 983
-2.263 7.557 1.965 2342
-2.489 8.310 2.148 1462
-2.490 8.316 2.123 1590
-2.656 8.870 2.256 1275
-2.492 8.321 2.098 1595
-2.618 8.743 2.198 1149
-2.494 8.327 2.072 1207
-2.653 8.860 2.197 1172
-2.655 8.865 2.170 1356
-2.564 8.562 2.100 875
-2.661 8.886 2.147 1152
-2.725 9.101 2.195 1019
-2.707 9.040 2.153 1382
-2.749 9.180 2.184 1140
-2.715 9.067 2.130 1637
-2.793 9.327 2.188 1228
-2.797 9.340 2.161 1795
-2.719 9.080 2.104 1626
-2.812 9.390 2.142 1620
-2.721 9.086 2.077 1080
-2.823 9.426 2.120 1507
-2.754 9.195 2.071 1267
-2.827 9.439 2.093 2068
-2.760 9.216 2.047 1461
-2.833 9.459 2.067 1670
-3.182 10.627 2.307 1008
-3.093 10.328 2.213 1176
-2.845 9.502 2.046 1013
-3.090 10.319 2.179 1191
-3.269 10.915 2.297 1009
-3.190 10.653 2.212 1054
-3.380 11.286 2.335 1009
-3.268 10.912 2.228 1040
-3.006 10.039 2.060 1008
-3.399 11.351 2.277 1218
-3.254 10.866 2.185 1131
-3.401 11.356 2.242 1140
-3.338 11.147 2.203 1100
-3.450 11.519 2.236 1316
-3.687 12.311 2.381 1056
-3.671 12.257 2.333 1824
-3.454 11.532 2.203 1393
-3.699 12.353 2.312 2314
-3.455 11.538 2.168 1225
-3.676 12.277 2.260 2286
-3.560 11.888 2.193 935
-3.678 12.283 2.223 1977
-4.062 13.563 2.441 992
-3.680 12.289 2.185 1604
-1.890 6.313 1.186 1538
-1.891 6.316 1.167 2270
-3.682 12.294 2.148 1538
-1.892 6.319 1.148 2738
-3.681 12.292 2.110 1560
-1.893 6.321 1.129 2644
-3.689 12.320 2.076 1641
-1.892 6.317 1.109 2123
-3.691 12.326 2.038 1454
-1.895 6.327 1.091 1358
-3.690 12.323 2.000 756
-0.477 1.593 -0.004 1061
-0.479 1.601 -0.010 1264
-0.479 1.600 -0.015 1810
-0.479 1.600 -0.019 2143
-0.479 1.599 -0.024 2796
-0.479 1.599 -0.029 3450
-0.476 1.591 -0.033 3802
-0.476 1.590 -0.037 5485
-0.651 2.198 1.788 2815
-0.653 2.202 1.781 5630
-0.687 2.319 1.870 2151
-0.654 2.207 1.775 5630
-0.689 2.323 1.863 4303
-0.692 2.334 1.861 5423
-0.657 2.218 1.773 4588
-0.693 2.339 1.854 6621
-0.659 2.222 1.766 3549
-0.686 2.313 1.824 7827
-0.720 2.430 1.911 1791
-0.687 2.318 1.817 9211
-0.722 2.435 1.904 2912
-0.688 2.322 1.810 9211
-0.723 2.440 1.897 3905
-0.694 2.340 1.812 7269
-0.729 2.458 1.899 4093
-0.704 2.375 1.828 7519
-0.739 2.494 1.914 1863
-0.706 2.380 1.821 7199
-0.741 2.499 1.907 1724
-0.709 2.391 1.818 6962
-0.744 2.510 1.904 1255
-0.719 2.427 1.834 6554
-0.755 2.546 1.918 998
-0.721 2.432 1.826 6446
-0.756 2.551 1.911 1208
-0.722 2.437 1.819 6446
-0.758 2.556 1.903 1290
-0.731 2.466 1.829 8825
-0.787 2.656 1.962 862
-0.734 2.477 1.826 12203
-0.770 2.597 1.910 849
-0.740 2.495 1.828 13427
-0.775 2.615 1.911 1984
-0.743 2.506 1.825 16312
-0.779 2.626 1.907 2731
-0.744 2.511 1.817 13999
-0.780 2.631 1.900 3998
-0.742 2.503 1.801 12027
-0.778 2.623 1.883 5591
-0.743 2.507 1.794 9895
-0.781 2.635 1.880 5077
-0.743 2.505 1.782 7771
-0.788 2.659 1.884 5053
-0.784 2.644 1.864 5967
-0.746 2.516 1.779 4910
-0.782 2.636 1.847 7586
-0.744 2.508 1.763 1999
-0.779 2.628 1.831 9996
-0.815 2.750 1.911 2251
-0.781 2.633 1.823 12554
-0.817 2.755 1.903 3390
-0.784 2.644 1.820 11411
-0.820 2.767 1.899 2605
-0.785 2.649 1.812 10454
-0.822 2.772 1.891 2701
-0.800 2.699 1.833 13436
-0.764 2.576 1.754 1320
-0.803 2.710 1.829 16908
-0.767 2.587 1.750 1872
-0.807 2.721 1.825 17033
-0.770 2.598 1.747 2068
-0.810 2.732 1.821 17480
-0.773 2.609 1.743 2170
-0.813 2.744 1.817 19604
-0.777 2.620 1.739 2702
-0.817 2.755 1.812 22544
-0.780 2.631 1.736 2706
-0.818 2.760 1.804 23920
-0.781 2.635 1.728 1742
-0.821 2.771 1.800 20811
-0.858 2.895 1.876 836
-0.823 2.775 1.792 14764
-0.860 2.900 1.867 1047
-0.822 2.773 1.779 11944
-0.859 2.898 1.855 2321
-0.845 2.850 1.814 11250
-0.808 2.725 1.740 2966
-0.846 2.855 1.806 10736
-0.809 2.730 1.731 2714
-0.850 2.866 1.801 10517
-0.813 2.741 1.727 3315
-0.851 2.871 1.793 9574
-0.814 2.745 1.719 2432
-0.856 2.889 1.792 8959
-0.819 2.763 1.718 1891
-0.860 2.900 1.787 10046
-0.905 3.053 1.875 1816
-0.859 2.898 1.774 10731
-0.897 3.024 1.847 2511
-0.860 2.903 1.766 11654
-0.898 3.029 1.838 3262
-0.864 2.914 1.761 12029
-0.909 3.067 1.848 3174
-0.867 2.925 1.756 9928
-0.915 3.085 1.846 4452
-0.872 2.943 1.755 7244
-0.916 3.090 1.837 4636
-0.929 3.135 1.850 5575
-0.874 2.947 1.746 4807
-0.933 3.147 1.844 8372
-0.867 2.925 1.722 3305
-0.934 3.151 1.835 10356
-0.868 2.930 1.713 4056
-0.936 3.156 1.825 11925
-0.870 2.934 1.705 3486
-0.937 3.161 1.816 11509
-0.867 2.925 1.689 1865
-0.940 3.172 1.810 15019
-0.902 3.044 1.741 1713
-0.942 3.177 1.800 19271
-0.904 3.048 1.732 1868
-0.939 3.168 1.784 21234
-0.901 3.039 1.716 1341
-0.938 3.166 1.771 17931
-0.981 3.308 1.845 939
-0.940 3.170 1.761 16441
-0.988 3.333 1.846 1197
-0.941 3.175 1.752 20127
-0.990 3.338 1.836 1966
-0.942 3.179 1.742 21766
-0.991 3.343 1.826 2136
-0.944 3.184 1.733 21226
-0.994 3.354 1.819 2655
-0.943 3.181 1.720 17971
-0.996 3.359 1.809 4594
-0.942 3.179 1.707 13576
-0.997 3.364 1.799 6044
-0.946 3.190 1.701 11880
-0.999 3.368 1.789 6621
-0.949 3.201 1.694 10830
-1.000 3.373 1.779 6391
-0.956 3.226 1.695 12133
-0.999 3.371 1.766 5506
-0.956 3.224 1.682 10371
-1.003 3.382 1.759 6577
-0.955 3.221 1.669 7959
-1.004 3.387 1.749 7784
-1.007 3.398 1.742 8402
-0.954 3.219 1.656 7530
-1.009 3.402 1.732 7059
-0.957 3.230 1.650 6524
-1.010 3.407 1.721 5552
-0.961 3.241 1.643 4239
-1.011 3.411 1.711 4890
-1.050 3.543 1.773 2815
-1.015 3.423 1.704 3986
-1.156 3.901 1.926 3194
-1.045 3.524 1.739 3932
-1.162 3.920 1.921 2566
-1.050 3.543 1.734 4140
-1.170 3.946 1.919 1637
-1.054 3.554 1.727 5355
-1.167 3.937 1.901 2461
-1.057 3.565 1.719 4514
-1.169 3.942 1.889 3390
-1.168 3.940 1.874 3235
-1.056 3.563 1.706 3073
-1.055 3.560 1.692 2463
-1.167 3.938 1.859 2414
-1.202 4.054 1.896 2365
-1.055 3.558 1.678 2152
-1.203 4.059 1.884 3946
-1.255 4.234 1.960 3175
-1.215 4.099 1.887 6364
-1.261 4.253 1.953 4770
-1.219 4.111 1.877 7397
-1.260 4.251 1.938 4334
-1.247 4.207 1.904 5258
-1.022 3.448 1.582 4559
-1.023 3.452 1.571 5043
-1.240 4.184 1.879 3604
-1.022 3.449 1.558 3587
-1.075 3.625 1.631 2271
-1.281 4.321 1.907 2803
-1.024 3.453 1.548 2756
-1.284 4.333 1.897 4787
-1.025 3.457 1.537 3126
-1.284 4.330 1.881 4487
-1.028 3.468 1.530 3137
-1.315 4.434 1.908 4801
-1.275 4.300 1.853 2969
-1.318 4.446 1.897 5777
-1.032 3.483 1.512 2639
-1.320 4.451 1.884 5777
-1.031 3.479 1.498 2566
-1.323 4.463 1.873 5039
-1.369 4.620 1.935 2234
-1.329 4.482 1.865 5402
-1.110 3.743 1.577 2501
-1.330 4.487 1.852 6053
-1.113 3.754 1.569 3949
-1.116 3.765 1.560 4085
-1.334 4.499 1.841 3993
-1.354 4.568 1.852 3203
-1.117 3.769 1.549 2584
-1.364 4.601 1.849 4222
-1.404 4.737 1.900 3069
-1.393 4.699 1.869 5923
-1.433 4.835 1.920 1800
-1.386 4.675 1.845 4907
-1.426 4.811 1.895 3466
-1.385 4.673 1.828 4351
-1.428 4.816 1.880 3771
-1.463 4.936 1.907 5326
-1.389 4.685 1.817 3172
-1.469 4.955 1.898 6663
-1.399 4.718 1.813 1947
-1.472 4.967 1.885 7355
-1.517 5.118 1.939 2100
-1.472 4.965 1.868 8449
-1.512 5.101 1.916 2408
-1.473 4.970 1.853 7208
-1.520 5.128 1.908 3310
-1.483 5.003 1.848 4906
-1.524 5.140 1.895 3712
-1.502 5.066 1.852 4819
-1.542 5.203 1.899 2715
-1.522 5.135 1.859 4285
-1.563 5.273 1.905 3328
-1.526 5.147 1.846 5616
-1.567 5.285 1.892 4299
-1.527 5.152 1.830 3537
-1.568 5.290 1.876 2945
-1.625 5.483 1.922 2629
-1.567 5.287 1.858 1863
-1.631 5.502 1.910 2774
-1.564 5.278 1.837 1889
-1.637 5.522 1.898 2300
-1.570 5.297 1.826 1806
-1.694 5.715 1.941 2477
-1.574 5.309 1.812 1951
-1.704 5.749 1.933 3107
-1.638 5.524 1.862 2012
-1.704 5.747 1.914 3199
-1.745 5.885 1.957 2014
-1.707 5.759 1.899 3233
-1.653 5.577 1.843 1480
-1.711 5.771 1.883 2290
-1.771 5.975 1.946 1878
-1.738 5.864 1.892 1964
-1.801 6.075 1.956 1728
-1.822 6.146 1.957 2026
-1.744 5.883 1.879 1541
-1.823 6.151 1.939 3610
-1.871 6.312 1.986 1466
-1.831 6.178 1.927 2940
-1.873 6.317 1.967 2405
-1.865 6.293 1.940 3510
-1.907 6.432 1.980 2881
-1.891 6.378 1.944 3099
-1.850 6.239 1.904 2211
-1.929 6.508 1.959 2860
-1.888 6.369 1.920 2414
-1.931 6.513 1.940 2993
-1.889 6.374 1.901 2509
-1.917 6.467 1.906 3330
-2.082 7.024 2.059 2377
-1.923 6.486 1.890 3949
-2.082 7.022 2.036 2832
-2.083 7.028 2.015 2701
-1.920 6.476 1.867 2282
-2.120 7.151 2.025 2767
-2.078 7.011 1.988 1960
-2.123 7.163 2.005 3104
-2.165 7.303 2.042 2009
-2.121 7.154 1.980 3091
-2.162 7.294 2.016 1892
-2.122 7.159 1.958 3032
-2.244 7.572 2.064 1929
-2.124 7.164 1.937 1990
-2.240 7.555 2.035 1803
-2.235 7.538 2.007 2329
-2.123 7.161 1.913 1403
-2.238 7.550 1.986 2597
-2.466 8.319 2.175 1040
-2.244 7.570 1.967 2161
-2.468 8.324 2.150 1489
-2.467 8.323 2.123 1538
-2.632 8.877 2.256 1384
-2.469 8.328 2.098 1526
-2.594 8.750 2.198 1394
-2.631 8.874 2.199 1114
-2.468 8.326 2.071 1052
-2.648 8.932 2.184 1244
-2.540 8.569 2.100 920
-2.625 8.856 2.138 1117
-2.702 9.116 2.197 1074
-2.708 9.136 2.173 1379
-2.640 8.906 2.121 1070
-2.692 9.082 2.132 1627
-2.769 9.342 2.189 1113
-2.773 9.355 2.163 1855
-2.694 9.088 2.104 1818
-2.784 9.391 2.141 1684
-2.696 9.093 2.077 1212
-2.796 9.434 2.120 1576
-2.728 9.203 2.071 1136
-2.800 9.446 2.093 2258
-2.732 9.216 2.045 1184
-2.806 9.467 2.067 1694
-3.067 10.346 2.247 989
-3.066 10.344 2.215 1164
-3.267 11.022 2.351 989
-3.061 10.327 2.179 1123
-2.938 9.910 2.096 990
-3.236 10.915 2.261 1001
-3.163 10.669 2.213 953
-3.240 10.928 2.229 958
-2.979 10.048 2.060 915
-3.370 11.367 2.278 1079
-3.325 11.218 2.250 1017
-3.372 11.373 2.244 1114
-3.418 11.530 2.273 1006
-3.418 11.529 2.236 1365
-3.652 12.321 2.381 923
-3.637 12.268 2.333 1369
-3.424 11.550 2.204 1277
-3.665 12.363 2.312 1926
-3.425 11.555 2.169 1085
-3.665 12.362 2.273 1902
-3.427 11.561 2.134 779
-3.644 12.293 2.223 1477
-1.872 6.315 1.206 1134
-1.873 6.318 1.186 1889
-4.021 13.565 2.397 1198
-1.874 6.321 1.167 2975
-4.023 13.572 2.356 1177
-1.875 6.324 1.148 3836
-3.669 12.378 2.122 1219
-1.875 6.327 1.129 3882
-3.655 12.331 2.076 1217
-1.876 6.329 1.110 3109
-3.657 12.336 2.038 1077
-1.877 6.332 1.091 1952
-1.878 6.335 1.072 940
-0.473 1.595 -0.004 1077
-0.475 1.602 -0.010 1285
-0.475 1.601 -0.015 1866
-0.475 1.601 -0.019 2232
-0.472 1.593 -0.023 2667
-0.472 1.593 -0.028 3105
-0.472 1.592 -0.033 3120
-0.470 1.584 -0.036 4287
-0.647 2.199 1.788 2825
-0.648 2.204 1.781 5650
-0.682 2.320 1.870 2282
-0.650 2.208 1.775 5650
-0.684 2.325 1.863 4564
-0.685 2.330 1.856 5777
-0.651 2.213 1.768 4423
-0.688 2.341 1.854 7020
-0.654 2.223 1.766 3498
-0.683 2.321 1.829 8171
-0.717 2.438 1.916 1207
-0.682 2.319 1.817 9512
-0.717 2.437 1.904 2949
-0.684 2.324 1.810 9512
-0.718 2.442 1.897 4139
-0.689 2.341 1.812 7513
-0.723 2.459 1.899 4462
-0.699 2.377 1.828 7827
-0.734 2.495 1.914 2120
-0.701 2.382 1.821 7416
-0.735 2.500 1.907 2009
-0.704 2.393 1.818 7005
-0.739 2.511 1.904 1567
-0.714 2.429 1.834 6592
-0.749 2.548 1.918 1232
-0.718 2.440 1.831 6591
-0.753 2.559 1.915 1160
-0.719 2.444 1.823 6591
-0.754 2.564 1.908 1329
-0.724 2.462 1.825 8778
-0.759 2.581 1.909 907
-0.727 2.473 1.822 11882
-0.763 2.593 1.905 872
-0.734 2.496 1.828 13240
-0.770 2.617 1.911 1744
-0.738 2.507 1.825 16314
-0.773 2.628 1.907 2363
-0.739 2.512 1.817 13811
-0.774 2.633 1.900 3492
-0.738 2.510 1.805 11441
-0.774 2.631 1.887 4782
-0.738 2.509 1.794 9159
-0.779 2.649 1.888 4494
-0.737 2.507 1.782 6995
-0.783 2.660 1.884 4815
-0.782 2.659 1.872 5025
-0.741 2.518 1.779 4505
-0.765 2.600 1.822 5587
-0.800 2.721 1.902 2710
-0.772 2.624 1.827 7862
-0.808 2.746 1.907 3116
-0.775 2.635 1.823 10284
-0.811 2.757 1.903 3490
-0.797 2.710 1.861 9583
-0.761 2.588 1.782 3634
-0.795 2.702 1.845 9905
-0.759 2.579 1.766 1853
-0.796 2.707 1.837 13258
-0.760 2.584 1.758 1896
-0.798 2.712 1.829 16610
-0.761 2.589 1.750 1938
-0.801 2.723 1.825 17138
-0.765 2.600 1.747 2050
-0.802 2.728 1.817 17936
-0.766 2.604 1.739 1339
-0.808 2.745 1.817 19407
-0.771 2.622 1.739 2517
-0.811 2.757 1.812 21881
-0.774 2.633 1.736 2444
-0.812 2.761 1.804 23168
-0.776 2.637 1.728 1529
-0.816 2.772 1.800 20124
-0.852 2.897 1.876 890
-0.817 2.777 1.792 14485
-0.854 2.902 1.867 1150
-0.818 2.782 1.783 11714
-0.855 2.907 1.859 1806
-0.839 2.852 1.814 12894
-0.802 2.727 1.740 2924
-0.840 2.857 1.806 12522
-0.803 2.732 1.731 2621
-0.844 2.868 1.801 12452
-0.807 2.743 1.727 3093
-0.845 2.873 1.793 11899
-0.808 2.747 1.719 2256
-0.848 2.884 1.788 11303
-0.897 3.050 1.884 1747
-0.852 2.895 1.783 12010
-0.899 3.055 1.875 1762
-0.853 2.900 1.774 11467
-0.890 3.026 1.847 2547
-0.854 2.904 1.766 10924
-0.892 3.031 1.838 3274
-0.860 2.922 1.765 11288
-0.903 3.069 1.848 3246
-0.863 2.934 1.760 9642
-0.908 3.087 1.846 4443
-0.864 2.938 1.751 6721
-0.910 3.092 1.837 4638
-0.923 3.137 1.850 5978
-0.866 2.943 1.742 4697
-0.926 3.149 1.844 8825
-0.867 2.947 1.733 2591
-0.926 3.147 1.831 10490
-0.868 2.952 1.724 2509
-0.929 3.158 1.825 12499
-0.869 2.956 1.716 1765
-0.932 3.170 1.819 13056
-0.893 3.035 1.747 1688
-0.934 3.174 1.810 16778
-0.896 3.046 1.741 1833
-0.935 3.179 1.800 20588
-0.897 3.050 1.732 2160
-0.934 3.177 1.787 21233
-0.897 3.048 1.719 1659
-0.934 3.175 1.774 17476
-0.896 3.046 1.707 1061
-0.933 3.172 1.761 15784
-0.981 3.335 1.846 1679
-0.934 3.177 1.752 19892
-0.982 3.340 1.836 2560
-0.936 3.181 1.742 21752
-0.984 3.345 1.826 2638
-0.937 3.186 1.733 21642
-0.987 3.356 1.819 3166
-0.936 3.183 1.720 18903
-0.989 3.361 1.809 5281
-0.938 3.188 1.710 14116
-0.988 3.359 1.796 6915
-0.939 3.192 1.701 12072
-0.991 3.370 1.789 7575
-0.944 3.210 1.698 12198
-0.993 3.375 1.779 7334
-0.948 3.222 1.692 14997
-0.992 3.373 1.766 5932
-0.947 3.219 1.679 13010
-0.995 3.384 1.759 6427
-0.948 3.223 1.669 9764
-0.999 3.396 1.752 7700
-1.000 3.400 1.742 8809
-0.947 3.221 1.656 7916
-1.001 3.405 1.732 7780
-0.951 3.232 1.650 5760
-1.001 3.402 1.718 5668
-0.952 3.236 1.640 3847
-1.004 3.413 1.711 4462
-1.043 3.545 1.773 2449
-1.005 3.418 1.701 3506
-1.044 3.550 1.762 2997
-1.037 3.526 1.739 4067
-1.154 3.922 1.921 2215
-1.041 3.538 1.731 4853
-1.161 3.948 1.919 1541
-1.046 3.556 1.727 6497
-1.161 3.946 1.904 2242
-1.049 3.568 1.719 5573
-1.160 3.944 1.889 2899
-1.051 3.572 1.709 2790
-1.157 3.935 1.871 2705
-1.155 3.926 1.853 2147
-1.202 4.087 1.924 2132
-1.193 4.057 1.896 2230
-1.045 3.553 1.675 1833
-1.195 4.062 1.884 3623
-1.246 4.237 1.960 3241
-1.209 4.109 1.890 6045
-1.250 4.249 1.950 4893
-1.210 4.114 1.877 7125
-1.251 4.254 1.938 4513
-1.238 4.210 1.904 5173
-1.067 3.626 1.656 4624
-1.068 3.630 1.645 4649
-1.016 3.454 1.571 4343
-1.067 3.627 1.631 3590
-1.015 3.451 1.558 3477
-1.290 4.387 1.933 3017
-1.014 3.448 1.545 2900
-1.271 4.321 1.891 4661
-1.017 3.459 1.537 3069
-1.275 4.333 1.881 4677
-1.021 3.470 1.530 2882
-1.303 4.430 1.905 5110
-1.263 4.296 1.851 2896
-1.309 4.449 1.897 5873
-1.269 4.315 1.843 1721
-1.310 4.454 1.884 5709
-1.350 4.589 1.937 2055
-1.314 4.466 1.873 5132
-1.360 4.622 1.935 2365
-1.317 4.478 1.862 5683
-1.106 3.759 1.583 3200
-1.321 4.490 1.852 6411
-1.105 3.756 1.569 4625
-1.108 3.767 1.560 4392
-1.322 4.495 1.838 4270
-1.347 4.578 1.854 3060
-1.107 3.764 1.546 2749
-1.352 4.597 1.846 3872
-1.392 4.733 1.897 3269
-1.383 4.702 1.869 5562
-1.103 3.751 1.516 1687
-1.376 4.678 1.845 4778
-1.416 4.814 1.895 3246
-1.375 4.676 1.828 4334
-1.418 4.819 1.880 3659
-1.453 4.939 1.907 5106
-1.402 4.767 1.845 3106
-1.458 4.958 1.898 6762
-1.410 4.793 1.838 2221
-1.462 4.970 1.885 7318
-1.506 5.121 1.939 1920
-1.461 4.968 1.868 7622
-1.512 5.141 1.928 2134
-1.463 4.973 1.853 6386
-1.514 5.146 1.913 3453
-1.477 5.021 1.853 4558
-1.517 5.158 1.900 3671
-1.491 5.069 1.852 4872
-1.531 5.206 1.899 2936
-1.514 5.146 1.862 5093
-1.554 5.283 1.908 3171
-1.515 5.151 1.846 6481
-1.555 5.288 1.892 4304
-1.516 5.155 1.830 3866
-1.557 5.293 1.876 3088
-1.614 5.486 1.922 2237
-1.556 5.291 1.858 2098
-1.617 5.498 1.908 2920
-1.553 5.281 1.837 2144
-1.621 5.511 1.893 2534
-1.557 5.293 1.823 2060
-1.682 5.719 1.941 2481
-1.560 5.305 1.810 1948
-1.690 5.746 1.931 3040
-1.626 5.528 1.862 1674
-1.692 5.751 1.914 3228
-1.732 5.889 1.957 1791
-1.695 5.763 1.899 3130
-1.642 5.581 1.843 1549
-1.699 5.775 1.883 2172
-1.761 5.987 1.948 1876
-1.788 6.079 1.956 1955
-1.726 5.868 1.892 1933
-1.809 6.150 1.957 2424
-1.729 5.880 1.877 1550
-1.810 6.155 1.939 3863
-1.886 6.411 2.014 1559
-1.816 6.175 1.925 2810
-1.857 6.314 1.965 2504
-1.852 6.297 1.940 3721
-1.895 6.443 1.982 2675
-1.879 6.390 1.946 2849
-1.838 6.250 1.906 2687
-1.915 6.512 1.959 3105
-1.874 6.373 1.920 2158
-1.917 6.517 1.940 3138
-1.876 6.378 1.901 2250
-1.890 6.427 1.894 2869
-2.065 7.021 2.057 2765
-1.907 6.483 1.888 3744
-2.067 7.027 2.036 3279
-2.068 7.032 2.015 3186
-1.906 6.480 1.867 2405
-2.105 7.155 2.025 3093
-2.063 7.015 1.988 2210
-2.106 7.160 2.003 3332
-2.147 7.300 2.040 1759
-2.105 7.158 1.980 3542
-2.177 7.401 2.043 1579
-2.107 7.163 1.958 3622
-2.228 7.576 2.064 1629
-2.108 7.168 1.937 2426
-2.228 7.574 2.039 1437
-2.221 7.550 2.009 1660
-2.108 7.166 1.913 1658
-2.224 7.563 1.988 2174
-2.453 8.339 2.179 1070
-2.228 7.575 1.967 2022
-2.450 8.330 2.150 1573
-2.450 8.328 2.123 1603
-2.574 8.750 2.224 1131
-2.449 8.326 2.096 1512
-2.575 8.756 2.198 1187
-2.605 8.858 2.193 1013
-2.520 8.569 2.126 1008
-2.605 8.856 2.165 1095
-2.659 9.041 2.208 989
-2.681 9.114 2.195 1287
-2.607 8.862 2.138 1214
-2.687 9.134 2.171 1351
-2.615 8.889 2.116 1292
-2.673 9.088 2.132 1598
-2.750 9.348 2.189 1058
-2.754 9.361 2.163 1871
-2.675 9.094 2.104 1860
-2.764 9.397 2.141 1650
-2.676 9.099 2.077 1204
-2.766 9.402 2.112 1561
-2.709 9.209 2.071 1126
-2.778 9.445 2.091 2180
-2.721 9.251 2.051 1038
-2.773 9.428 2.058 1559
-3.047 10.360 2.249 1037
-3.045 10.351 2.215 1090
-1.957 6.652 1.469 1017
-2.917 9.916 2.096 1139
-1.955 6.648 1.448 1070
-2.921 9.929 2.067 1048
-3.171 10.780 2.233 938
-3.276 11.137 2.268 903
-2.955 10.046 2.059 849
-3.346 11.375 2.278 1045
-3.275 11.135 2.233 1009
-3.347 11.380 2.244 1117
-3.438 11.687 2.301 987
-3.393 11.536 2.236 1190
-3.439 11.693 2.265 975
-3.417 11.617 2.215 1313
-3.637 12.365 2.349 969
-3.639 12.371 2.312 1505
-3.403 11.570 2.171 989
-3.638 12.370 2.273 1543
-1.858 6.316 1.225 1044
-1.859 6.319 1.206 1650
-3.638 12.368 2.234 1149
-1.860 6.322 1.186 2434
-3.995 13.581 2.398 1138
-1.863 6.332 1.169 3676
-3.994 13.580 2.356 1065
-1.863 6.335 1.149 4846
-3.643 12.385 2.122 890
-1.862 6.331 1.129 5108
-3.631 12.346 2.077 861
-1.863 6.333 1.110 4294
-3.631 12.344 2.038 753
-1.866 6.344 1.092 2822
-1.864 6.339 1.072 1459
-0.252 0.857 0.163 778
-0.252 0.857 0.160 806
-0.252 0.857 0.158 769
-0.469 1.596 -0.004 1060
-0.469 1.595 -0.009 1239
-0.469 1.595 -0.014 1797
-0.469 1.594 -0.018 2175
-0.469 1.594 -0.023 2750
-0.469 1.594 -0.028 3325
-0.469 1.593 -0.033 3455
-0.468 1.593 -0.037 4647
-0.642 2.200 1.788 2765
-0.644 2.205 1.781 5531
-0.678 2.321 1.870 2565
-0.645 2.210 1.775 5531
-0.679 2.326 1.863 5130
-0.680 2.331 1.856 6218
-0.646 2.214 1.768 4306
-0.684 2.342 1.854 7313
-0.649 2.225 1.766 3371
-0.678 2.322 1.829 8324
-0.644 2.205 1.741 1072
-0.679 2.327 1.822 9539
-0.714 2.445 1.909 2511
-0.681 2.332 1.815 9539
-0.715 2.450 1.901 3999
-0.684 2.342 1.812 7647
-0.718 2.461 1.899 4822
-0.694 2.378 1.828 8374
-0.729 2.497 1.914 2380
-0.696 2.383 1.821 7719
-0.730 2.502 1.907 2338
-0.697 2.388 1.814 7065
-0.732 2.507 1.899 2297
-0.711 2.436 1.838 6667
-0.746 2.556 1.923 1171
-0.713 2.441 1.831 6856
-0.747 2.561 1.915 1530
-0.714 2.446 1.823 6856
-0.749 2.565 1.908 1780
-0.719 2.463 1.825 8810
-0.754 2.583 1.909 1070
-0.722 2.474 1.822 11606
-0.757 2.594 1.905 887
-0.729 2.498 1.828 12975
-0.764 2.618 1.911 1526
-0.732 2.509 1.825 16229
-0.768 2.630 1.907 2011
-0.734 2.514 1.817 13561
-0.769 2.635 1.900 3023
-0.735 2.518 1.810 10893
-0.770 2.639 1.892 4035
-0.735 2.517 1.798 8325
-0.774 2.651 1.888 4105
-0.732 2.509 1.782 6098
-0.777 2.662 1.884 4599
-0.778 2.667 1.877 4420
-0.735 2.520 1.779 4034
-0.757 2.595 1.818 5347
-0.793 2.717 1.898 3333
-0.789 2.702 1.877 7306
-0.753 2.580 1.797 4346
-0.792 2.714 1.874 10250
-0.756 2.591 1.794 4819
-0.792 2.712 1.861 9896
-0.756 2.589 1.782 3589
-0.789 2.704 1.845 9813
-0.753 2.581 1.766 1752
-0.791 2.709 1.837 12835
-0.755 2.586 1.758 1836
-0.792 2.713 1.829 15856
-0.756 2.590 1.750 1921
-0.795 2.725 1.825 16887
-0.759 2.601 1.747 1961
-0.797 2.729 1.817 18145
-0.761 2.606 1.739 1261
-0.802 2.747 1.817 18964
-0.766 2.623 1.739 2287
-0.805 2.758 1.812 20969
-0.769 2.634 1.736 2146
-0.806 2.763 1.804 22052
-0.770 2.639 1.728 1335
-0.810 2.774 1.800 19036
-0.846 2.899 1.876 945
-0.811 2.779 1.792 13897
-0.848 2.904 1.867 1240
-0.812 2.783 1.783 11343
-0.849 2.908 1.859 2028
-0.833 2.854 1.814 14379
-0.796 2.729 1.740 2779
-0.834 2.859 1.806 14302
-0.798 2.733 1.731 2459
-0.838 2.870 1.801 14669
-0.801 2.744 1.727 2826
-0.839 2.875 1.793 13761
-0.802 2.749 1.719 2071
-0.842 2.886 1.788 11618
-0.891 3.052 1.884 1684
-0.846 2.897 1.783 11149
-0.892 3.057 1.875 1775
-0.847 2.902 1.774 10374
-0.884 3.028 1.847 2601
-0.848 2.906 1.766 9598
-0.885 3.033 1.838 3290
-0.854 2.924 1.765 10702
-0.896 3.071 1.848 3376
-0.857 2.935 1.760 9264
-0.904 3.096 1.850 4510
-0.854 2.926 1.743 6526
-0.905 3.101 1.841 4748
-0.916 3.139 1.850 6368
-0.856 2.931 1.735 5035
-0.920 3.150 1.844 9119
-0.859 2.942 1.730 2723
-0.919 3.149 1.831 10394
-0.868 2.974 1.736 2171
-0.922 3.160 1.825 12821
-0.869 2.978 1.727 1931
-0.926 3.171 1.819 14482
-0.888 3.043 1.750 1736
-0.927 3.176 1.810 18330
-0.890 3.048 1.741 1865
-0.928 3.181 1.800 21341
-0.891 3.052 1.732 2038
-0.928 3.179 1.787 20806
-0.861 2.948 1.666 1294
-0.927 3.176 1.774 16708
-0.860 2.946 1.654 1290
-0.929 3.181 1.765 15808
-0.976 3.344 1.850 2312
-0.928 3.179 1.752 20956
-0.976 3.342 1.836 3511
-0.929 3.183 1.742 22787
-0.977 3.347 1.826 3637
-0.930 3.188 1.733 22213
-0.978 3.352 1.816 3813
-0.930 3.185 1.720 18911
-0.980 3.356 1.806 5881
-0.931 3.190 1.710 13815
-0.981 3.361 1.796 7772
-0.934 3.201 1.704 11654
-0.984 3.373 1.789 8380
-0.938 3.212 1.698 13510
-0.986 3.377 1.779 7921
-0.939 3.217 1.688 17465
-0.985 3.375 1.766 6036
-0.940 3.221 1.679 15191
-0.988 3.386 1.759 6654
-0.941 3.225 1.669 11304
-0.992 3.398 1.752 8446
-0.995 3.409 1.745 9798
-0.943 3.230 1.659 8280
-0.996 3.414 1.735 8246
-0.944 3.234 1.650 5130
-0.996 3.411 1.721 5215
-0.945 3.238 1.640 3534
-0.995 3.409 1.708 3874
-1.033 3.540 1.770 2564
-1.031 3.531 1.753 3104
-0.992 3.399 1.691 2929
-1.028 3.522 1.736 3857
-1.148 3.932 1.924 1873
-1.031 3.533 1.728 5129
-1.153 3.951 1.919 1378
-1.039 3.558 1.727 7050
-1.155 3.956 1.907 1811
-1.042 3.570 1.719 6433
-1.189 4.072 1.945 2246
-1.045 3.581 1.712 3396
-1.141 3.910 1.858 2342
-1.049 3.593 1.704 2080
-1.143 3.914 1.846 2065
-1.183 4.052 1.893 2260
-1.222 4.185 1.951 1911
-1.186 4.064 1.884 3371
-1.235 4.233 1.957 3197
-1.198 4.104 1.887 5472
-1.241 4.252 1.950 4838
-1.201 4.116 1.877 6455
-1.242 4.257 1.938 4539
-1.061 3.635 1.659 5377
-1.230 4.212 1.904 4683
-1.060 3.632 1.645 5271
-1.009 3.456 1.571 3686
-1.059 3.630 1.631 4303
-1.008 3.453 1.558 3157
-1.065 3.648 1.626 3570
-1.281 4.390 1.933 3364
-1.260 4.317 1.888 4562
-1.070 3.666 1.621 2919
-1.266 4.336 1.881 4706
-1.013 3.472 1.530 2492
-1.294 4.433 1.905 5259
-1.255 4.298 1.851 2709
-1.297 4.445 1.894 5776
-1.258 4.310 1.840 1644
-1.301 4.457 1.884 5272
-1.340 4.592 1.937 2008
-1.304 4.469 1.873 4913
-1.097 3.758 1.594 2611
-1.308 4.481 1.862 5766
-1.096 3.755 1.580 3224
-1.311 4.493 1.852 6560
-1.097 3.759 1.569 4609
-1.098 3.763 1.557 4531
-1.313 4.498 1.838 4495
-1.099 3.767 1.546 3287
-1.339 4.588 1.857 3017
-1.343 4.600 1.846 3559
-1.382 4.736 1.897 3058
-1.375 4.712 1.872 4916
-1.093 3.746 1.513 2202
-1.364 4.674 1.842 4353
-1.406 4.817 1.895 3212
-1.366 4.679 1.828 4127
-1.408 4.822 1.880 3762
-1.445 4.949 1.910 4405
-1.396 4.784 1.850 3323
-1.446 4.954 1.895 6190
-1.400 4.796 1.838 2517
-1.452 4.973 1.885 6630
-1.496 5.124 1.939 1852
-1.451 4.971 1.868 6672
-1.504 5.151 1.931 2183
-1.452 4.976 1.853 5662
-1.503 5.149 1.913 3535
-1.469 5.031 1.855 4638
-1.509 5.168 1.902 3320
-1.478 5.065 1.850 4667
-1.518 5.202 1.897 2885
-1.503 5.149 1.862 5668
-1.543 5.286 1.908 3125
-1.506 5.161 1.848 6901
-1.547 5.298 1.894 3187
-1.506 5.159 1.830 4213
-1.546 5.296 1.876 2933
-1.545 5.294 1.858 2450
-1.590 5.446 1.908 1772
-1.606 5.502 1.908 2778
-1.542 5.284 1.837 2471
-1.607 5.507 1.891 2576
-1.544 5.289 1.821 2326
-1.670 5.722 1.941 2602
-1.549 5.308 1.810 1902
-1.678 5.749 1.931 3304
-1.612 5.524 1.860 1405
-1.680 5.754 1.914 3380
-1.624 5.565 1.855 1554
-1.683 5.766 1.899 2892
-1.628 5.577 1.840 1563
-1.687 5.779 1.883 2292
-1.774 6.078 1.974 2015
-1.778 6.090 1.958 2177
-1.714 5.871 1.892 1836
-1.796 6.154 1.957 2539
-1.747 5.986 1.907 1815
-1.798 6.159 1.939 3680
-1.872 6.415 2.014 1561
-1.801 6.171 1.922 2561
-1.842 6.310 1.963 2459
-1.837 6.293 1.938 3730
-1.882 6.447 1.982 2431
-1.834 6.284 1.914 2868
-1.875 6.423 1.954 2645
-1.900 6.509 1.957 3393
-1.859 6.369 1.918 2150
-1.906 6.528 1.942 3330
-2.045 7.006 2.075 2497
-2.051 7.026 2.057 3195
-1.871 6.408 1.888 2704
-2.050 7.024 2.034 3672
-1.893 6.487 1.888 3591
-2.052 7.029 2.013 3647
-1.891 6.477 1.865 2621
-2.060 7.056 1.998 3473
-2.126 7.285 2.058 1773
-2.091 7.165 2.003 3439
-2.050 7.025 1.967 1651
-2.091 7.162 1.980 3742
-2.162 7.406 2.043 1443
-2.092 7.168 1.958 3728
-2.215 7.588 2.066 1360
-2.094 7.173 1.937 2560
-2.217 7.594 2.043 1125
-2.093 7.170 1.913 1770
-2.231 7.643 2.031 1145
-2.211 7.575 1.990 1725
-2.438 8.351 2.181 1234
-2.212 7.580 1.967 1790
-2.437 8.349 2.153 1734
-2.432 8.333 2.123 1645
-2.212 7.577 1.942 1135
-2.432 8.331 2.096 1363
-2.590 8.872 2.224 1268
-2.591 8.878 2.197 1749
-2.503 8.574 2.126 1077
-2.593 8.884 2.170 1542
-2.639 9.039 2.206 1070
-2.642 9.053 2.180 1528
-2.597 8.897 2.145 1335
-2.664 9.125 2.168 1588
-2.601 8.910 2.120 1496
-2.657 9.101 2.134 1681
-2.754 9.436 2.207 1003
-2.734 9.367 2.163 1766
-2.656 9.099 2.104 1673
-2.744 9.402 2.141 1761
-2.655 9.097 2.075 1099
-2.746 9.408 2.112 1563
-2.787 9.549 2.142 1103
-2.763 9.466 2.095 2086
-2.722 9.324 2.065 997
-2.754 9.434 2.058 1522
-3.028 10.373 2.250 1034
-1.941 6.648 1.468 1352
-3.021 10.349 2.213 1018
-1.944 6.660 1.449 1731
-3.153 10.803 2.270 1207
-1.945 6.663 1.429 1403
-3.149 10.787 2.233 1067
-1.944 6.659 1.408 1045
-3.277 11.226 2.284 905
-3.322 11.381 2.278 1103
-3.409 11.681 2.335 1027
-1.931 6.614 1.358 1207
-3.413 11.694 2.301 1122
-3.415 11.700 2.265 1084
-3.374 11.558 2.239 959
-3.393 11.624 2.215 1217
-3.699 12.672 2.403 850
-3.613 12.379 2.312 1122
-3.699 12.671 2.363 949
-1.847 6.327 1.226 1303
-3.611 12.370 2.272 1122
-1.848 6.330 1.207 1854
-3.969 13.598 2.442 918
-1.849 6.333 1.188 2575
-3.965 13.582 2.397 1091
-1.849 6.336 1.169 3918
-3.964 13.581 2.355 1036
-1.850 6.339 1.149 5422
-1.851 6.342 1.130 5943
-1.850 6.337 1.110 5210
-1.853 6.347 1.092 3680
-1.854 6.350 1.073 1947
-1.852 6.345 1.053 871
-0.250 0.858 0.165 804
-0.250 0.858 0.163 863
-0.250 0.858 0.160 900
-0.250 0.858 0.158 859
-0.468 1.604 -0.010 825
-0.468 1.603 -0.015 1112
-0.468 1.603 -0.019 1285
-0.466 1.595 -0.023 1619
-0.465 1.594 -0.028 1961
-0.465 1.594 -0.033 2050
-0.465 1.594 -0.037 2745
-0.638 2.202 1.788 2689
-0.639 2.206 1.781 5378
-0.673 2.323 1.870 2815
-0.674 2.328 1.863 5631
-0.640 2.211 1.775 5378
-0.676 2.332 1.856 6553
-0.642 2.215 1.768 4180
-0.679 2.343 1.854 7494
-0.645 2.226 1.766 3262
-0.673 2.324 1.829 8183
-0.639 2.206 1.741 1035
-0.674 2.328 1.822 9242
-0.708 2.446 1.909 2512
-0.676 2.333 1.815 9242
-0.710 2.451 1.901 4149
-0.688 2.375 1.835 7904
-0.722 2.493 1.921 2185
-0.691 2.386 1.833 9101
-0.725 2.505 1.918 2112
-0.691 2.384 1.821 7949
-0.725 2.503 1.907 2716
-0.692 2.389 1.814 6977
-0.726 2.508 1.899 2780
-0.706 2.438 1.838 6712
-0.741 2.557 1.923 1411
-0.707 2.443 1.831 7113
-0.742 2.562 1.915 1914
-0.709 2.447 1.823 7113
-0.744 2.567 1.908 2284
-0.714 2.465 1.825 8806
-0.749 2.585 1.909 1290
-0.717 2.476 1.822 11230
-0.752 2.596 1.905 936
-0.724 2.499 1.828 12583
-0.759 2.620 1.911 1309
-0.727 2.510 1.825 15987
-0.762 2.631 1.907 1648
-0.729 2.515 1.817 13192
-0.764 2.636 1.900 2553
-0.732 2.526 1.814 10459
-0.767 2.647 1.896 3371
-0.729 2.518 1.798 7477
-0.770 2.659 1.892 3764
-0.727 2.510 1.782 5107
-0.773 2.670 1.889 4478
-0.777 2.681 1.885 4358
-0.741 2.559 1.804 3711
-0.750 2.590 1.813 5398
-0.785 2.712 1.894 3921
-0.783 2.704 1.877 7472
-0.748 2.582 1.797 4551
-0.785 2.709 1.869 10471
-0.749 2.586 1.790 4269
-0.786 2.714 1.861 10015
-0.750 2.591 1.782 3604
-0.786 2.712 1.849 9690
-0.750 2.589 1.770 2203
-0.785 2.710 1.837 12092
-0.749 2.587 1.758 1797
-0.786 2.715 1.829 14619
-0.751 2.592 1.750 1888
-0.790 2.726 1.825 16214
-0.754 2.603 1.747 1854
-0.791 2.731 1.817 18032
-0.755 2.607 1.739 1180
-0.796 2.749 1.817 18161
-0.760 2.625 1.739 2032
-0.799 2.760 1.812 19662
-0.763 2.636 1.736 1841
-0.801 2.765 1.804 20413
-0.837 2.889 1.881 1263
-0.802 2.769 1.796 17445
-0.838 2.894 1.872 1569
-0.805 2.780 1.792 12918
-0.842 2.905 1.867 1350
-0.824 2.844 1.819 11108
-0.788 2.719 1.744 1776
-0.827 2.856 1.814 15668
-0.791 2.730 1.740 2548
-0.828 2.860 1.806 16027
-0.792 2.735 1.731 2248
-0.832 2.872 1.801 16873
-0.795 2.746 1.727 2522
-0.833 2.876 1.793 15816
-0.797 2.750 1.719 1852
-0.836 2.888 1.788 12528
-0.884 3.054 1.884 1789
-0.840 2.899 1.783 10754
-0.886 3.058 1.875 1969
-0.841 2.903 1.774 9859
-0.878 3.030 1.847 2779
-0.844 2.915 1.770 9146
-0.881 3.041 1.842 3439
-0.847 2.926 1.765 10007
-0.890 3.073 1.848 3521
-0.849 2.930 1.756 7989
-0.897 3.098 1.850 4318
-0.844 2.915 1.736 5626
-0.899 3.103 1.841 4598
-0.910 3.141 1.850 6302
-0.846 2.919 1.727 4116
-0.913 3.152 1.844 8741
-0.853 2.944 1.730 2185
-0.912 3.150 1.831 9669
-0.858 2.962 1.728 2056
-0.918 3.169 1.829 12492
-0.861 2.973 1.723 1886
-0.921 3.180 1.823 15441
-0.882 3.045 1.750 1758
-0.922 3.185 1.814 19202
-0.885 3.056 1.745 1896
-0.922 3.183 1.800 21068
-0.885 3.054 1.732 2026
-0.923 3.187 1.791 19275
-0.886 3.058 1.723 1450
-0.923 3.185 1.778 15008
-0.970 3.348 1.863 1410
-0.922 3.183 1.765 14299
-0.969 3.346 1.850 3129
-0.921 3.181 1.752 20132
-0.969 3.344 1.836 4603
-0.921 3.178 1.739 22688
-0.970 3.349 1.826 4757
-0.922 3.183 1.729 22327
-0.971 3.354 1.816 4470
-0.923 3.187 1.720 18945
-0.973 3.358 1.806 6328
-0.926 3.199 1.714 13702
-0.974 3.363 1.796 8472
-0.928 3.203 1.704 11632
-0.977 3.375 1.789 9162
-0.929 3.207 1.694 14534
-0.979 3.379 1.779 8943
-0.932 3.219 1.688 19056
-0.978 3.377 1.766 6825
-0.933 3.223 1.679 16413
-0.981 3.388 1.759 7082
-0.935 3.227 1.669 12225
-0.987 3.407 1.755 9182
-0.988 3.411 1.745 10613
-0.936 3.231 1.659 8338
-0.989 3.416 1.735 8686
-0.937 3.236 1.650 4478
-0.989 3.413 1.721 4810
-0.938 3.240 1.640 3246
-0.986 3.404 1.705 3458
-1.024 3.536 1.766 2845
-1.023 3.533 1.753 3009
-0.985 3.401 1.691 2956
-1.021 3.524 1.736 3711
-0.982 3.392 1.675 1830
-1.024 3.535 1.728 5131
-1.143 3.946 1.916 1291
-1.031 3.561 1.727 7215
-1.175 4.056 1.951 1623
-1.035 3.572 1.719 6788
-1.180 4.075 1.945 1913
-1.038 3.583 1.712 3956
-1.129 3.898 1.852 2527
-1.041 3.595 1.704 2970
-1.134 3.917 1.846 2246
-1.042 3.599 1.693 2485
-1.174 4.055 1.893 2181
-1.038 3.582 1.674 3165
-1.178 4.067 1.884 3035
-1.041 3.594 1.666 5185
-1.189 4.107 1.887 4704
-1.193 4.119 1.877 5624
-1.048 3.619 1.664 5356
-1.054 3.637 1.659 5934
-1.221 4.215 1.904 3991
-1.055 3.642 1.648 5344
-1.214 4.192 1.879 3078
-1.052 3.632 1.631 4546
-1.265 4.366 1.937 3441
-1.057 3.650 1.626 4204
-1.270 4.385 1.930 3901
-1.251 4.319 1.888 4285
-1.060 3.661 1.618 3578
-1.273 4.395 1.904 4728
-1.006 3.474 1.530 2228
-1.277 4.407 1.893 5439
-1.063 3.670 1.596 1987
-1.284 4.433 1.889 5646
-1.064 3.674 1.585 2213
-1.290 4.452 1.881 4743
-1.329 4.587 1.934 1992
-1.293 4.464 1.870 4643
-1.089 3.760 1.594 2554
-1.299 4.484 1.862 5742
-1.090 3.764 1.583 3358
-1.302 4.495 1.852 6642
-1.089 3.761 1.569 4645
-1.303 4.500 1.838 4687
-1.090 3.765 1.557 4595
-1.342 4.634 1.873 3690
-1.087 3.755 1.541 3620
-1.084 3.744 1.524 3579
-1.337 4.617 1.851 3387
-1.366 4.715 1.872 4510
-1.084 3.741 1.510 2498
-1.355 4.677 1.842 4063
-1.398 4.827 1.898 3099
-1.356 4.681 1.828 3957
-1.400 4.832 1.883 3889
-1.430 4.938 1.905 3850
-1.386 4.787 1.850 3570
-1.436 4.957 1.895 5621
-1.390 4.799 1.838 2935
-1.441 4.976 1.885 5585
-1.402 4.839 1.837 1969
-1.441 4.974 1.868 5409
-1.491 5.147 1.928 2305
-1.442 4.979 1.853 5035
-1.492 5.152 1.913 4063
-1.460 5.041 1.858 5098
-1.500 5.178 1.905 2895
-1.466 5.061 1.847 4562
-1.524 5.263 1.916 2761
-1.492 5.152 1.862 6012
-1.532 5.290 1.908 2932
-1.496 5.164 1.848 7324
-1.536 5.302 1.894 2732
-1.497 5.169 1.833 4291
-1.537 5.307 1.878 2518
-1.536 5.304 1.860 2841
-1.576 5.442 1.905 1885
-1.569 5.418 1.879 2934
-1.529 5.280 1.835 2653
-1.594 5.503 1.889 2579
-1.533 5.292 1.821 2530
-1.658 5.726 1.941 2800
-1.536 5.304 1.807 1785
-1.666 5.753 1.931 3687
-1.595 5.505 1.853 1267
-1.668 5.758 1.914 3668
-1.628 5.619 1.871 1270
-1.667 5.755 1.894 2820
-1.745 6.025 1.977 1560
-1.675 5.782 1.883 2276
-1.761 6.081 1.974 2076
-1.767 6.101 1.961 2285
-1.674 5.780 1.864 2130
-1.783 6.157 1.957 2471
-1.737 5.996 1.910 2089
-1.785 6.162 1.939 3449
-1.740 6.009 1.894 1901
-1.788 6.175 1.922 2526
-1.829 6.314 1.963 2442
-1.822 6.290 1.935 3556
-1.864 6.436 1.978 2212
-1.821 6.287 1.914 2880
-1.866 6.441 1.958 2298
-1.886 6.513 1.957 3633
-1.835 6.336 1.908 2145
-1.892 6.532 1.942 3387
-2.030 7.010 2.075 2635
-2.034 7.023 2.055 3632
-1.857 6.412 1.888 2226
-2.036 7.028 2.034 3971
-1.878 6.483 1.886 3187
-2.037 7.033 2.013 3684
-1.877 6.481 1.865 2725
-2.045 7.060 1.998 3597
-1.911 6.596 1.875 1550
-2.076 7.169 2.003 3316
-2.036 7.029 1.967 1819
-2.076 7.167 1.980 3729
-2.210 7.632 2.100 1401
-2.077 7.172 1.958 3728
-2.216 7.652 2.081 1580
-2.079 7.177 1.937 2653
-2.220 7.665 2.060 1388
-2.078 7.175 1.913 1876
-2.217 7.655 2.033 1442
-2.420 8.356 2.181 1538
-2.200 7.594 1.993 1416
-2.420 8.354 2.153 1961
-2.197 7.584 1.967 1505
-2.417 8.345 2.125 1861
-2.196 7.582 1.942 1203
-2.419 8.351 2.099 1452
-2.573 8.885 2.226 1392
-2.573 8.883 2.197 1352
-2.483 8.571 2.124 1123
-2.575 8.889 2.170 1283
-2.626 9.067 2.211 1116
-2.645 9.132 2.197 1544
-2.576 8.895 2.143 1403
-2.580 8.908 2.118 1751
-2.645 9.131 2.168 1622
-2.640 9.114 2.135 1632
-2.588 8.935 2.096 1272
-2.728 9.417 2.172 1685
-2.637 9.105 2.104 1303
-2.725 9.408 2.141 1764
-2.624 9.058 2.066 1080
-2.729 9.421 2.114 1584
-2.670 9.220 2.071 1026
-2.733 9.434 2.087 1887
-1.925 6.645 1.508 1593
-1.926 6.649 1.488 1470
-2.734 9.439 2.058 1454
-1.927 6.652 1.468 1510
-1.968 6.794 1.496 1161
-1.930 6.664 1.449 1982
-3.129 10.802 2.269 1320
-1.931 6.667 1.429 1897
-3.126 10.793 2.233 1254
-1.930 6.663 1.408 1745
-3.383 11.681 2.370 956
-1.914 6.607 1.376 1868
-3.385 11.688 2.335 1107
-1.915 6.611 1.356 1485
-3.389 11.701 2.301 1144
-3.391 11.707 2.265 1027
-3.306 11.415 2.212 904
-3.369 11.631 2.215 1291
-3.673 12.680 2.403 932
-3.672 12.679 2.363 1065
-3.368 11.629 2.178 917
-3.672 12.677 2.324 1097
-1.836 6.339 1.227 1070
-1.835 6.334 1.207 1850
-3.941 13.606 2.442 804
-1.836 6.337 1.188 3168
-3.939 13.598 2.398 949
-1.836 6.340 1.169 4793
-3.805 13.138 2.281 982
-1.837 6.343 1.149 6455
-3.683 12.716 2.172 829
-1.838 6.346 1.130 7163
-1.839 6.348 1.111 6143
-1.840 6.351 1.092 4097
-1.840 6.354 1.073 2002
-0.249 0.858 0.168 757
-0.249 0.858 0.165 882
-0.249 0.858 0.163 948
-0.249 0.858 0.160 985
-0.249 0.858 0.158 939
-0.249 0.858 0.155 789
-0.466 1.610 -0.039 1184
-0.633 2.210 1.792 2577
-0.635 2.214 1.786 5155
-0.668 2.331 1.875 3064
-0.668 2.330 1.863 6158
-0.634 2.213 1.775 5135
-0.671 2.341 1.861 6824
-0.637 2.223 1.773 4113
-0.672 2.345 1.854 7519
-0.639 2.228 1.766 3071
-0.667 2.325 1.829 7934
-0.633 2.208 1.741 968
-0.668 2.330 1.822 8811
-0.702 2.448 1.909 2485
-0.669 2.335 1.815 8811
-0.703 2.453 1.901 4223
-0.692 2.414 1.862 8545
-0.658 2.296 1.776 4360
-0.695 2.425 1.860 10054
-0.661 2.307 1.774 3800
-0.697 2.430 1.852 8050
-0.663 2.311 1.767 2479
-0.684 2.385 1.809 6711
-0.718 2.504 1.895 3538
-0.699 2.440 1.838 6678
-0.734 2.559 1.923 1724
-0.701 2.445 1.831 7310
-0.735 2.564 1.915 2380
-0.702 2.449 1.823 7310
-0.736 2.569 1.908 2879
-0.705 2.460 1.821 8792
-0.740 2.580 1.904 1996
-0.708 2.471 1.818 10879
-0.743 2.592 1.901 1379
-0.719 2.508 1.832 12115
-0.753 2.628 1.915 938
-0.720 2.512 1.825 15575
-0.755 2.633 1.907 1334
-0.723 2.524 1.822 12843
-0.758 2.645 1.904 2032
-0.727 2.535 1.818 10197
-0.761 2.656 1.900 2883
-0.726 2.533 1.806 6735
-0.765 2.667 1.897 3585
-0.768 2.679 1.893 4567
-0.720 2.512 1.782 4015
-0.769 2.683 1.885 4585
-0.734 2.562 1.804 3626
-0.745 2.598 1.818 5582
-0.780 2.720 1.898 3857
-0.776 2.706 1.877 7653
-0.741 2.584 1.797 4786
-0.777 2.711 1.869 10642
-0.742 2.588 1.790 4634
-0.778 2.716 1.861 10021
-0.743 2.593 1.782 3681
-0.778 2.714 1.849 9482
-0.743 2.591 1.770 2133
-0.779 2.719 1.841 11162
-0.744 2.596 1.762 2244
-0.779 2.717 1.829 13076
-0.743 2.594 1.750 1826
-0.782 2.728 1.825 15277
-0.747 2.605 1.747 1716
-0.783 2.733 1.817 17711
-0.819 2.857 1.894 1242
-0.789 2.751 1.817 17171
-0.753 2.627 1.739 1767
-0.792 2.762 1.812 18188
-0.756 2.638 1.736 1555
-0.793 2.767 1.804 18514
-0.829 2.891 1.881 1427
-0.794 2.772 1.796 15610
-0.830 2.896 1.872 1792
-0.798 2.783 1.792 11696
-0.833 2.908 1.867 1485
-0.816 2.847 1.819 11952
-0.780 2.721 1.744 1430
-0.819 2.858 1.814 16839
-0.783 2.733 1.740 2115
-0.821 2.863 1.806 17554
-0.785 2.737 1.731 1883
-0.824 2.874 1.801 18716
-0.788 2.748 1.727 2116
-0.825 2.879 1.793 17582
-0.789 2.753 1.719 1547
-0.828 2.890 1.788 13885
-0.876 3.056 1.884 1928
-0.832 2.901 1.783 11592
-0.877 3.061 1.875 2177
-0.833 2.906 1.774 10587
-0.873 3.046 1.855 2836
-0.836 2.917 1.770 9781
-0.872 3.044 1.842 3421
-0.839 2.928 1.765 9949
-0.880 3.069 1.844 3468
-0.839 2.926 1.752 7181
-0.889 3.100 1.850 4129
-0.894 3.118 1.848 4799
-0.838 2.924 1.740 4588
-0.901 3.143 1.850 6542
-0.837 2.922 1.727 3283
-0.904 3.155 1.844 8729
-0.837 2.919 1.715 2326
-0.904 3.153 1.831 9268
-0.838 2.924 1.706 2527
-0.909 3.171 1.829 12846
-0.839 2.928 1.697 2336
-0.912 3.183 1.823 17026
-0.839 2.926 1.685 2132
-0.914 3.187 1.814 20267
-0.840 2.930 1.676 2075
-0.913 3.185 1.800 20939
-0.876 3.056 1.732 1926
-0.914 3.190 1.791 18645
-0.961 3.353 1.877 1395
-0.914 3.188 1.778 14480
-0.961 3.351 1.863 1826
-0.913 3.186 1.765 12961
-0.958 3.342 1.846 4113
-0.912 3.183 1.752 17861
-0.959 3.347 1.836 6102
-0.912 3.181 1.739 20535
-0.961 3.352 1.826 6317
-0.913 3.185 1.729 20551
-0.962 3.356 1.816 5264
-0.914 3.190 1.720 17420
-0.963 3.361 1.806 6561
-0.918 3.201 1.714 13106
-0.965 3.366 1.796 8911
-0.921 3.212 1.707 12050
-0.968 3.377 1.789 9908
-0.920 3.210 1.694 15507
-0.969 3.382 1.779 10105
-0.921 3.214 1.685 20340
-0.969 3.380 1.766 8152
-0.925 3.225 1.679 17015
-0.972 3.391 1.759 8557
-0.926 3.230 1.669 12574
-0.977 3.409 1.755 10733
-0.981 3.421 1.748 11621
-0.927 3.234 1.659 8240
-0.982 3.425 1.738 8553
-0.928 3.238 1.650 3944
-0.983 3.430 1.728 3776
-0.927 3.236 1.637 2951
-0.976 3.406 1.705 3229
-1.014 3.538 1.766 2779
-0.978 3.411 1.695 3435
-1.016 3.543 1.756 2688
-1.011 3.527 1.736 3489
-0.973 3.394 1.675 2286
-1.014 3.538 1.728 5039
-1.118 3.900 1.893 1806
-1.019 3.556 1.724 7093
-1.125 3.926 1.891 1718
-1.023 3.568 1.716 6765
-1.113 3.882 1.857 2040
-1.028 3.586 1.712 4171
-1.118 3.901 1.852 2682
-1.031 3.598 1.704 3488
-1.124 3.920 1.846 2386
-1.032 3.602 1.693 3091
-1.175 4.100 1.911 2281
-1.032 3.599 1.680 3802
-1.173 4.091 1.893 2856
-1.031 3.597 1.666 5903
-1.178 4.110 1.887 3872
-1.036 3.615 1.661 6143
-1.181 4.122 1.877 4541
-1.041 3.633 1.656 6424
-1.175 4.099 1.853 3297
-1.043 3.638 1.645 5615
-1.245 4.343 1.942 2564
-1.042 3.635 1.631 4779
-1.250 4.362 1.934 3830
-1.047 3.653 1.626 4745
-1.258 4.389 1.930 4295
-1.261 4.401 1.920 4466
-1.050 3.664 1.618 4114
-1.251 4.363 1.889 5049
-1.052 3.668 1.607 2450
-1.262 4.404 1.891 5628
-1.053 3.672 1.596 2245
-1.270 4.430 1.886 5533
-1.054 3.677 1.585 2593
-1.277 4.456 1.881 4285
-1.077 3.759 1.605 2053
-1.283 4.475 1.873 4213
-1.079 3.763 1.594 2832
-1.286 4.487 1.862 5487
-1.078 3.760 1.580 2813
-1.288 4.492 1.849 6583
-1.075 3.750 1.563 3771
-1.291 4.504 1.838 4805
-1.076 3.754 1.552 3894
-1.331 4.644 1.876 4315
-1.075 3.750 1.538 3698
-1.072 3.740 1.521 4117
-1.341 4.678 1.873 3821
-1.353 4.719 1.872 4176
-1.073 3.744 1.510 2763
-1.340 4.673 1.839 3411
-1.389 4.845 1.903 3239
-1.388 4.843 1.886 3952
-1.345 4.692 1.831 3414
-1.373 4.791 1.850 3740
-1.414 4.934 1.902 3497
-1.420 4.954 1.892 5215
-1.377 4.803 1.838 3261
-1.425 4.973 1.883 4638
-1.386 4.836 1.834 2058
-1.427 4.978 1.868 4016
-1.472 5.137 1.923 2774
-1.476 5.149 1.910 4877
-1.428 4.983 1.853 3977
-1.448 5.053 1.860 5456
-1.488 5.190 1.907 2218
-1.452 5.065 1.847 4747
-1.512 5.274 1.919 2637
-1.480 5.163 1.864 6565
-1.519 5.301 1.910 2369
-1.481 5.168 1.848 7524
-1.521 5.306 1.894 2320
-1.483 5.173 1.833 4248
-1.522 5.311 1.878 2276
-1.522 5.308 1.860 3048
-1.561 5.446 1.905 1796
-1.521 5.306 1.842 3147
-1.560 5.444 1.886 2900
-1.520 5.303 1.823 2560
-1.579 5.507 1.889 2252
-1.645 5.738 1.944 2601
-1.522 5.308 1.807 1491
-1.650 5.757 1.931 3630
-1.611 5.619 1.888 951
-1.650 5.755 1.911 3549
-1.727 6.025 1.995 1065
-1.649 5.753 1.892 2757
-1.731 6.037 1.979 1712
-1.652 5.765 1.877 2123
-1.742 6.079 1.972 2072
-1.683 5.872 1.890 2275
-1.750 6.106 1.961 2237
-1.766 6.162 1.957 2179
-1.720 6.001 1.910 2115
-1.768 6.167 1.939 2966
-1.724 6.014 1.894 2025
-1.771 6.180 1.922 2312
-1.811 6.319 1.963 2274
-1.800 6.280 1.931 3387
-1.846 6.441 1.978 1646
-1.802 6.285 1.912 2851
-1.860 6.491 1.971 2054
-1.866 6.510 1.955 3892
-1.816 6.334 1.906 2352
-1.872 6.530 1.940 3467
-2.013 7.023 2.077 2570
-2.015 7.028 2.055 3833
-1.875 6.543 1.922 1939
-2.016 7.034 2.034 3980
-1.860 6.489 1.886 2745
-2.018 7.039 2.013 3409
-1.859 6.486 1.865 2615
-2.023 7.059 1.996 3509
-1.892 6.602 1.875 1712
-2.057 7.175 2.003 2806
-2.016 7.034 1.967 1903
-2.056 7.172 1.980 3338
-2.189 7.638 2.100 1648
-2.057 7.178 1.958 3431
-2.193 7.651 2.079 1866
-2.057 7.175 1.935 2493
-2.197 7.663 2.058 1615
-2.058 7.180 1.913 1781
-2.198 7.669 2.035 1674
-2.397 8.363 2.181 1847
-2.176 7.593 1.991 1410
-2.397 8.361 2.153 2191
-2.176 7.590 1.967 1291
-2.396 8.359 2.126 2183
-2.551 8.901 2.256 1320
-2.398 8.365 2.101 1751
-2.551 8.899 2.227 1509
-2.399 8.370 2.076 1340
-2.565 8.950 2.211 1092
-2.571 8.970 2.187 1506
-2.403 8.383 2.052 1317
-2.566 8.954 2.155 1540
-2.620 9.140 2.197 1353
-2.560 8.930 2.121 1540
-2.619 9.138 2.168 1513
-2.610 9.106 2.132 1531
-2.570 8.965 2.101 1311
-2.699 9.417 2.171 1724
-2.610 9.104 2.103 1433
-2.699 9.416 2.141 1960
-1.945 6.784 1.578 1799
-1.946 6.788 1.558 1722
-2.703 9.429 2.114 1657
-2.706 9.442 2.087 1772
-1.908 6.658 1.510 1342
-1.909 6.662 1.489 2041
-1.950 6.803 1.518 1571
-1.945 6.785 1.493 2461
-1.904 6.643 1.465 1771
-1.909 6.662 1.448 2075
-1.950 6.804 1.476 1654
-1.910 6.665 1.428 2529
-3.096 10.802 2.233 1372
-1.912 6.669 1.408 2705
-3.098 10.808 2.201 1059
-1.900 6.627 1.379 1914
-3.353 11.697 2.335 1026
-1.892 6.601 1.354 1012
-3.271 11.411 2.245 993
-3.358 11.717 2.265 879
-3.275 11.424 2.212 868
-3.336 11.640 2.215 1057
-3.637 12.690 2.403 1027
-3.635 12.681 2.362 1097
-1.815 6.333 1.245 864
-3.635 12.680 2.322 1053
-1.816 6.336 1.226 1002
-1.817 6.339 1.207 1971
-1.818 6.342 1.188 3671
-3.901 13.609 2.398 822
-1.819 6.345 1.169 5315
-3.769 13.149 2.281 889
-1.820 6.348 1.149 6456
-1.820 6.351 1.130 6667
-1.821 6.354 1.111 5534
-1.824 6.364 1.093 3568
-1.825 6.366 1.074 1831
-1.828 6.377 1.056 795
-0.244 0.851 0.167 803
-0.244 0.851 0.165 919
-0.246 0.859 0.163 990
-0.244 0.851 0.160 1038
-0.244 0.852 0.158 993
-0.244 0.852 0.155 837
-0.457 1.596 -0.037 1235
-0.630 2.210 1.792 2358
-0.632 2.215 1.786 4717
-0.665 2.332 1.875 3255
-0.666 2.337 1.868 6510
-0.633 2.220 1.779 4717
-0.668 2.341 1.861 6862
-0.634 2.224 1.773 3751
-0.669 2.346 1.854 7214
-0.636 2.229 1.766 2785
-0.665 2.332 1.833 7439
-0.632 2.215 1.746 1114
-0.665 2.331 1.822 8007
-0.698 2.449 1.909 2423
-0.666 2.336 1.815 8007
-0.700 2.454 1.901 4186
-0.689 2.415 1.862 9143
-0.655 2.297 1.776 3761
-0.692 2.426 1.860 10962
-0.658 2.308 1.774 3454
-0.695 2.437 1.857 8418
-0.661 2.318 1.771 2759
-0.702 2.461 1.863 6845
-0.668 2.342 1.778 3600
-0.696 2.441 1.838 6525
-0.730 2.560 1.923 2033
-0.697 2.445 1.831 7268
-0.731 2.565 1.915 2851
-0.699 2.450 1.823 7268
-0.733 2.570 1.908 3494
-0.702 2.461 1.821 8766
-0.736 2.581 1.904 2452
-0.703 2.466 1.813 10569
-0.737 2.586 1.897 2047
-0.715 2.509 1.832 11547
-0.750 2.629 1.915 802
-0.719 2.520 1.829 15093
-0.684 2.399 1.746 932
-0.720 2.525 1.822 12459
-0.754 2.646 1.904 1798
-0.725 2.542 1.823 10256
-0.759 2.663 1.905 2485
-0.728 2.553 1.819 6576
-0.763 2.675 1.901 3525
-0.764 2.680 1.893 4793
-0.729 2.558 1.812 3031
-0.765 2.685 1.885 4961
-0.731 2.563 1.804 3616
-0.741 2.599 1.818 5869
-0.776 2.722 1.898 4157
-0.772 2.707 1.877 7801
-0.737 2.585 1.797 5120
-0.773 2.712 1.869 10617
-0.738 2.589 1.790 5149
-0.775 2.717 1.861 9836
-0.740 2.594 1.782 4007
-0.774 2.715 1.849 9120
-0.739 2.592 1.770 2378
-0.776 2.720 1.841 10111
-0.740 2.597 1.762 2251
-0.775 2.718 1.829 11389
-0.740 2.595 1.750 1706
-0.778 2.730 1.825 14237
-0.743 2.606 1.747 1551
-0.780 2.734 1.817 17371
-0.815 2.858 1.894 1334
