1.666 2.760 1.802 4067
1.665 2.758 1.789 5666
1.596 2.644 1.719 4399
1.682 2.786 1.794 6406
1.606 2.660 1.718 2384
1.688 2.796 1.788 5780
1.619 2.682 1.720 1836
1.662 2.752 1.750 5399
1.764 2.921 1.851 1493
1.708 2.829 1.784 4883
1.638 2.714 1.716 2149
1.710 2.833 1.774 5698
1.780 2.948 1.842 2397
1.716 2.843 1.768 8089
1.786 2.958 1.835 2998
1.719 2.847 1.759 12961
1.788 2.962 1.826 3946
1.718 2.845 1.746 15833
1.791 2.967 1.816 4257
1.720 2.849 1.736 12604
1.797 2.977 1.809 4636
1.733 2.871 1.737 8078
1.803 2.987 1.803 4947
1.732 2.869 1.724 6121
1.802 2.985 1.789 5000
1.808 2.995 1.782 5209
1.731 2.867 1.711 5149
1.818 3.012 1.779 6809
1.733 2.871 1.701 3669
1.836 3.040 1.782 8422
1.765 2.924 1.719 2771
1.849 3.063 1.782 9546
1.779 2.946 1.719 3035
1.859 3.079 1.779 8199
1.788 2.962 1.715 3824
1.869 3.096 1.775 7474
1.798 2.979 1.712 4065
1.879 3.112 1.771 7724
1.808 2.995 1.709 3306
1.893 3.135 1.770 5994
1.963 3.252 1.832 2274
1.884 3.120 1.750 4361
1.958 3.244 1.815 1820
1.886 3.124 1.740 4902
1.957 3.242 1.801 1961
1.892 3.134 1.732 4252
1.963 3.252 1.793 2525
1.966 3.256 1.782 3600
1.895 3.138 1.722 2495
1.998 3.310 1.796 4862
2.070 3.428 1.856 2423
2.008 3.327 1.792 6729
2.080 3.445 1.851 2035
2.049 3.393 1.811 6761
1.962 3.250 1.740 2418
2.051 3.397 1.800 5586
1.972 3.266 1.735 1820
2.057 3.408 1.792 4027
1.978 3.277 1.727 1944
2.045 3.387 1.768 5094
2.116 3.506 1.826 2995
2.077 3.441 1.781 6133
1.987 3.291 1.708 1755
2.084 3.451 1.772 8116
2.186 3.621 1.853 3011
2.124 3.518 1.790 6554
2.196 3.637 1.847 4039
2.130 3.529 1.782 6648
2.202 3.648 1.838 3400
2.121 3.514 1.761 5988
2.194 3.633 1.817 4813
2.177 3.606 1.790 5274
2.105 3.486 1.734 4132
2.126 3.522 1.737 3828
2.199 3.642 1.792 2322
2.182 3.614 1.766 4409
2.277 3.772 1.838 1987
2.188 3.625 1.756 6454
2.261 3.745 1.811 3023
2.244 3.717 1.784 5429
2.172 3.597 1.730 3314
2.231 3.696 1.760 5120
2.315 3.835 1.822 2998
2.241 3.713 1.753 3765
2.322 3.846 1.812 2903
2.367 3.920 1.829 4333
2.252 3.729 1.746 3736
2.377 3.937 1.822 5454
2.258 3.740 1.736 3663
2.398 3.973 1.822 5490
2.268 3.756 1.729 3324
2.413 3.996 1.817 4945
2.336 3.869 1.763 3608
2.346 3.885 1.755 4788
2.419 4.007 1.806 3249
2.371 3.928 1.758 4392
2.456 4.068 1.816 1624
2.385 3.951 1.752 4452
2.459 4.072 1.803 2161
2.407 3.987 1.752 3872
2.515 4.166 1.825 2613
2.514 4.164 1.809 2527
2.595 4.298 1.863 2402
2.601 4.309 1.851 3601
2.474 4.097 1.766 2691
2.608 4.320 1.839 4425
2.472 4.095 1.750 3724
2.607 4.317 1.822 4481
2.479 4.106 1.739 3358
2.605 4.315 1.805 6316
2.485 4.116 1.727 1816
2.612 4.326 1.793 5270
2.685 4.448 1.840 1576
2.622 4.343 1.783 4165
2.750 4.555 1.865 1498
2.636 4.366 1.776 5571
2.710 4.489 1.822 1873
2.646 4.383 1.766 3791
2.720 4.506 1.812 1935
2.684 4.445 1.773 3650
2.770 4.587 1.826 3212
2.803 4.643 1.829 5206
2.702 4.475 1.767 4386
2.806 4.648 1.813 6008
2.704 4.479 1.752 3227
2.805 4.645 1.795 6973
2.910 4.820 1.858 1947
2.803 4.643 1.777 7441
2.913 4.824 1.842 2372
2.802 4.641 1.759 6137
2.876 4.764 1.803 2553
2.804 4.645 1.744 4676
2.879 4.768 1.787 1897
2.806 4.649 1.728 3106
2.959 4.902 1.816 2198
2.927 4.848 1.779 2676
3.072 5.088 1.861 2057
3.086 5.112 1.851 2774
2.929 4.852 1.763 2534
3.109 5.149 1.844 3046
2.963 4.908 1.764 1778
3.119 5.166 1.831 3278
3.214 5.323 1.883 1707
3.086 5.112 1.794 2419
3.177 5.262 1.843 2103
3.179 5.266 1.826 2977
3.061 5.070 1.762 2180
3.269 5.414 1.854 4316
3.174 5.257 1.804 3266
3.279 5.431 1.840 4464
3.204 5.307 1.800 2253
3.282 5.436 1.821 5133
3.357 5.560 1.860 1904
3.280 5.433 1.801 4520
3.399 5.630 1.861 2296
3.421 5.667 1.852 2547
3.497 5.792 1.890 2189
3.404 5.638 1.823 2741
3.567 5.907 1.904 2063
3.403 5.636 1.802 3170
3.589 5.945 1.894 2772
3.592 5.949 1.874 3161
3.405 5.640 1.783 2053
3.598 5.960 1.856 2494
3.745 6.203 1.926 2107
3.744 6.201 1.903 2543
3.668 6.076 1.868 1634
3.762 6.232 1.890 1649
3.866 6.403 1.938 1606
3.777 6.256 1.874 1839
3.868 6.408 1.917 1773
4.026 6.669 1.966 1645
3.895 6.452 1.906 1329
4.029 6.674 1.943 1637
3.918 6.489 1.893 1309
4.028 6.672 1.919 1828
4.171 6.909 1.983 1329
4.330 7.172 2.028 1555
4.031 6.676 1.896 1543
4.337 7.183 2.005 1425
4.185 6.932 1.939 1277
4.343 7.194 1.982 1665
4.507 7.466 2.052 985
4.346 7.199 1.958 1650
4.510 7.470 2.027 1195
4.357 7.217 1.937 1689
4.529 7.502 2.008 1126
4.600 7.619 2.011 1716
4.360 7.221 1.912 1659
4.727 7.829 2.035 1793
4.607 7.630 1.987 1745
4.726 7.827 2.007 2543
4.617 7.648 1.964 1407
4.712 7.805 1.974 3667
4.845 8.025 2.026 1948
4.715 7.810 1.948 3811
4.904 8.122 2.020 3185
4.714 7.808 1.920 4041
4.915 8.140 1.996 4015
4.712 7.806 1.892 3574
4.921 8.152 1.970 3452
4.707 7.797 1.862 2489
4.924 8.156 1.942 1794
4.714 7.808 1.837 1939
5.498 9.107 2.121 1176
5.457 9.038 2.075 1394
5.597 9.271 2.125 1393
5.524 9.150 2.066 1419
5.661 9.376 2.114 1333
5.692 9.428 2.092 1610
5.857 9.702 2.149 1554
5.864 9.713 2.118 2135
5.707 9.453 2.064 1636
5.867 9.718 2.085 2697
5.742 9.511 2.043 1317
5.874 9.730 2.053 2658
5.951 9.857 2.078 1340
5.877 9.734 2.020 2812
5.954 9.861 2.045 1573
5.880 9.739 1.987 2562
5.956 9.866 2.011 2265
5.955 9.864 1.976 2822
5.878 9.737 1.953 2391
5.881 9.741 1.920 2879
5.958 9.869 1.943 1978
5.876 9.732 1.884 2232
6.725 11.139 2.137 1076
7.238 11.988 2.249 1394
5.882 9.743 1.852 1320
7.245 12.000 2.209 1808
5.897 9.768 1.823 1056
7.248 12.005 2.168 2235
7.074 11.717 2.119 790
7.247 12.004 2.126 1827
7.226 11.968 2.079 1173
7.253 12.013 2.045 790
7.260 12.025 2.005 782
1.207 1.986 1.811 3030
1.209 1.990 1.805 6061
1.225 2.016 1.817 6173
1.162 1.912 1.728 1594
1.231 2.026 1.815 7046
1.168 1.922 1.726 1533
1.233 2.030 1.808 7928
1.297 2.135 1.896 1102
1.236 2.034 1.801 7154
1.300 2.139 1.888 1695
1.238 2.038 1.794 6380
1.302 2.143 1.881 2501
1.241 2.043 1.787 6380
1.305 2.148 1.874 2715
1.284 2.113 1.835 8114
1.220 2.008 1.749 1786
1.290 2.123 1.833 10683
1.226 2.017 1.747 1973
1.289 2.122 1.821 9661
1.225 2.016 1.735 1093
1.292 2.126 1.814 8723
1.356 2.232 1.899 1381
1.294 2.130 1.807 7173
1.359 2.236 1.892 1828
1.293 2.129 1.795 5624
1.358 2.235 1.880 2777
1.296 2.133 1.788 5624
1.360 2.239 1.872 2777
1.329 2.187 1.821 6208
1.264 2.081 1.737 899
1.328 2.186 1.809 7256
1.393 2.293 1.892 876
1.331 2.190 1.802 7131
1.396 2.297 1.885 1300
1.340 2.205 1.803 7255
1.405 2.313 1.886 1057
1.346 2.215 1.800 9195
1.411 2.323 1.882 1355
1.348 2.219 1.792 11196
1.414 2.327 1.874 1923
1.351 2.224 1.785 11028
1.417 2.332 1.867 2786
1.350 2.222 1.773 10873
1.416 2.330 1.855 4193
1.359 2.237 1.774 7813
1.425 2.346 1.855 3195
1.397 2.299 1.809 8127
1.331 2.190 1.729 1600
1.403 2.309 1.806 8125
1.336 2.200 1.726 1481
1.409 2.318 1.802 8460
1.342 2.209 1.722 1428
1.404 2.311 1.786 6899
1.470 2.420 1.865 891
1.400 2.304 1.770 6740
1.466 2.413 1.849 1904
1.448 2.383 1.816 6212
1.381 2.273 1.737 3142
1.450 2.387 1.808 5882
1.383 2.277 1.730 2932
1.453 2.391 1.800 7664
1.386 2.281 1.722 2256
1.455 2.395 1.792 9446
1.388 2.285 1.715 1580
1.458 2.399 1.784 11380
1.391 2.289 1.707 1118
1.457 2.398 1.772 13465
1.524 2.508 1.849 1771
1.463 2.407 1.768 12173
1.530 2.518 1.844 1699
1.462 2.406 1.756 8608
1.529 2.517 1.832 2377
1.460 2.404 1.744 6875
1.528 2.515 1.819 2477
1.463 2.408 1.736 4918
1.538 2.531 1.819 3083
1.533 2.523 1.803 3921
1.465 2.412 1.728 2960
1.536 2.527 1.794 5258
1.468 2.416 1.720 2988
1.542 2.537 1.790 6607
1.474 2.426 1.715 3336
1.537 2.530 1.773 8087
1.469 2.418 1.700 2350
1.539 2.534 1.765 8423
1.471 2.422 1.691 1446
1.545 2.544 1.760 7100
1.614 2.656 1.833 2449
1.609 2.649 1.816 5173
1.541 2.536 1.744 4683
1.612 2.653 1.808 6270
1.518 2.498 1.709 3099
1.603 2.639 1.787 6020
1.535 2.526 1.716 2572
1.591 2.619 1.763 6437
1.660 2.732 1.835 1226
1.590 2.617 1.751 6961
1.659 2.731 1.822 1691
1.593 2.621 1.742 5790
1.662 2.735 1.813 2238
1.602 2.637 1.741 5089
1.671 2.751 1.811 2606
1.605 2.641 1.732 5460
1.674 2.755 1.802 4134
1.673 2.753 1.789 5870
1.604 2.639 1.719 4375
1.690 2.781 1.794 6497
1.613 2.655 1.718 2393
1.696 2.792 1.788 5773
1.627 2.677 1.720 1657
1.713 2.820 1.793 5940
1.644 2.705 1.725 2893
1.716 2.824 1.784 6609
1.646 2.709 1.716 2375
1.718 2.828 1.774 7080
1.648 2.713 1.707 2312
1.724 2.838 1.768 9384
1.794 2.953 1.835 2634
1.727 2.842 1.759 14474
1.797 2.957 1.826 3716
1.729 2.846 1.749 17395
1.803 2.968 1.819 4192
1.728 2.844 1.736 13555
1.806 2.972 1.809 4618
1.741 2.866 1.737 8596
1.812 2.982 1.803 5226
1.785 2.937 1.765 6672
1.714 2.822 1.700 2495
1.798 2.960 1.765 5320
1.728 2.844 1.701 4001
1.830 3.013 1.783 6749
1.741 2.866 1.701 3608
1.844 3.035 1.782 8988
1.773 2.919 1.719 3089
1.858 3.058 1.782 9825
1.787 2.941 1.719 3044
1.868 3.074 1.779 8228
1.797 2.957 1.715 3594
1.878 3.090 1.775 6977
1.807 2.974 1.712 3956
1.888 3.107 1.771 7051
1.816 2.990 1.709 3236
1.898 3.123 1.767 5761
1.969 3.240 1.829 2561
1.892 3.115 1.750 4414
1.967 3.238 1.815 1946
1.899 3.125 1.743 4786
1.970 3.243 1.804 2211
1.901 3.129 1.732 4157
1.973 3.247 1.793 2711
1.919 3.158 1.734 3333
1.990 3.276 1.795 2581
2.015 3.317 1.803 5067
1.925 3.168 1.727 2371
2.022 3.327 1.795 6773
1.950 3.209 1.735 2199
2.054 3.381 1.808 6777
1.975 3.251 1.743 2747
2.057 3.385 1.797 5538
1.981 3.261 1.735 2377
2.048 3.371 1.776 4187
2.120 3.489 1.835 2651
2.054 3.381 1.768 5628
2.126 3.500 1.826 2868
2.064 3.398 1.763 6086
2.136 3.516 1.820 2513
2.093 3.445 1.772 7587
2.196 3.614 1.853 2777
2.134 3.512 1.790 6211
2.206 3.631 1.847 3849
2.140 3.523 1.782 6002
2.213 3.642 1.838 3195
2.188 3.602 1.805 5731
2.116 3.483 1.749 4083
2.187 3.600 1.790 5754
2.115 3.480 1.734 3893
2.136 3.516 1.737 4262
2.209 3.635 1.792 2303
2.192 3.608 1.766 4282
2.119 3.488 1.711 1828
2.198 3.618 1.756 6132
2.271 3.738 1.811 3123
2.251 3.705 1.781 6158
2.178 3.585 1.727 2799
2.246 3.696 1.763 5439
2.322 3.822 1.819 3218
2.252 3.706 1.753 4397
2.329 3.833 1.809 3072
2.266 3.729 1.749 4747
2.377 3.913 1.829 3872
2.380 3.917 1.816 5159
2.268 3.733 1.736 4627
2.410 3.966 1.822 5296
2.274 3.744 1.726 3803
2.424 3.989 1.817 5117
2.350 3.868 1.765 4131
2.357 3.879 1.755 5474
2.430 4.000 1.806 3419
2.402 3.953 1.771 4572
2.475 4.074 1.822 1694
2.412 3.970 1.763 4780
2.485 4.091 1.813 2102
2.418 3.980 1.752 3927
2.527 4.159 1.825 2223
2.553 4.202 1.827 2407
2.479 4.080 1.778 2236
2.563 4.219 1.818 3659
2.485 4.091 1.766 3292
2.488 4.095 1.753 4115
2.620 4.312 1.839 3956
2.619 4.310 1.822 4220
2.490 4.099 1.739 3543
2.617 4.308 1.805 6484
2.691 4.430 1.853 2195
2.624 4.318 1.793 5289
2.698 4.441 1.840 1844
2.638 4.342 1.786 3991
2.712 4.464 1.833 1484
2.652 4.365 1.778 5909
2.726 4.488 1.825 1887
2.659 4.376 1.766 3997
2.733 4.498 1.812 2033
2.700 4.444 1.775 3840
2.786 4.586 1.828 3363
2.812 4.629 1.827 5590
2.714 4.468 1.767 5201
2.815 4.633 1.811 6333
2.717 4.472 1.752 3771
2.817 4.637 1.795 7676
2.927 4.818 1.861 1535
2.816 4.635 1.777 8704
2.934 4.829 1.847 2029
2.815 4.633 1.759 6960
2.889 4.756 1.803 1872
2.817 4.637 1.744 5006
2.931 4.825 1.809 1920
2.819 4.641 1.728 3390
2.973 4.894 1.816 2582
2.968 4.885 1.795 2465
2.822 4.645 1.712 2248
3.105 5.110 1.853 2960
2.962 4.876 1.774 2299
3.119 5.134 1.842 3468
2.977 4.900 1.764 1932
3.126 5.145 1.827 3571
3.232 5.320 1.885 1661
3.104 5.110 1.797 2417
3.191 5.253 1.843 2313
3.194 5.257 1.826 2714
3.079 5.068 1.764 2036
3.280 5.398 1.852 4132
3.189 5.248 1.804 3228
3.274 5.390 1.829 4805
3.195 5.259 1.788 2155
3.289 5.413 1.817 5295
3.364 5.538 1.856 2228
3.291 5.418 1.799 4591
3.427 5.640 1.868 2344
3.437 5.657 1.852 2862
3.513 5.782 1.890 2283
3.420 5.629 1.823 2792
3.583 5.897 1.904 2175
3.418 5.626 1.802 3146
3.602 5.928 1.892 2740
3.608 5.939 1.874 3074
3.421 5.631 1.783 1934
3.611 5.943 1.854 2447
3.762 6.193 1.926 2157
3.761 6.191 1.903 2440
3.685 6.066 1.868 1895
3.680 6.057 1.843 1617
3.796 6.248 1.897 1614
3.798 6.252 1.876 2020
3.886 6.397 1.917 1852
4.049 6.665 1.968 1702
3.885 6.395 1.893 1525
4.052 6.669 1.945 1911
3.944 6.491 1.897 1542
4.051 6.667 1.921 1949
3.918 6.449 1.862 1100
4.053 6.671 1.898 1516
4.350 7.160 2.028 1287
4.204 6.920 1.939 1490
4.361 7.178 2.007 1038
4.360 7.176 1.981 1318
4.203 6.918 1.914 1114
4.366 7.187 1.958 1510
4.531 7.458 2.027 1286
4.377 7.205 1.937 1755
4.542 7.476 2.005 1375
4.561 7.507 1.986 1851
4.380 7.209 1.912 1694
4.568 7.518 1.962 1762
4.749 7.816 2.035 1707
4.748 7.814 2.007 2461
4.651 7.655 1.969 1599
4.734 7.792 1.974 3714
4.924 8.104 2.048 1746
4.737 7.797 1.948 3906
4.926 8.109 2.020 3124
4.732 7.788 1.918 4768
4.937 8.127 1.996 3634
4.734 7.792 1.892 4458
4.948 8.144 1.971 3118
4.729 7.783 1.862 3136
4.951 8.149 1.943 1561
4.731 7.788 1.836 2354
5.523 9.091 2.121 1218
5.627 9.262 2.126 1527
4.742 7.805 1.812 1365
5.626 9.261 2.093 1372
4.943 8.136 1.855 1293
5.718 9.412 2.092 1713
5.508 9.066 2.020 1554
5.891 9.697 2.118 2169
5.737 9.444 2.066 1742
5.898 9.708 2.086 2978
5.748 9.462 2.036 1392
5.901 9.713 2.053 2697
5.776 9.506 2.012 1095
5.908 9.725 2.021 2629
5.985 9.851 2.046 1111
5.907 9.723 1.987 2418
5.984 9.849 2.011 1608
5.906 9.720 1.953 2092
5.983 9.847 1.976 1842
5.908 9.725 1.920 2547
6.753 11.115 2.175 1245
5.907 9.723 1.885 2117
6.756 11.120 2.137 1019
7.267 11.961 2.247 1320
5.906 9.720 1.851 1253
7.278 11.980 2.209 1817
5.924 9.751 1.823 1062
7.282 11.985 2.168 2292
5.927 9.755 1.789 838
7.281 11.983 2.126 1861
7.263 11.955 2.080 1282
1.211 1.984 1.811 3191
1.213 1.988 1.805 6383
1.229 2.014 1.817 6421
1.166 1.910 1.728 1504
1.232 2.018 1.810 7273
1.168 1.914 1.722 1103
1.238 2.028 1.808 8172
1.301 2.132 1.896 1165
1.240 2.032 1.801 7577
1.304 2.136 1.888 1793
1.243 2.036 1.794 6983
1.307 2.141 1.881 2653
1.245 2.040 1.787 6983
1.309 2.145 1.874 2887
1.288 2.110 1.835 8158
1.224 2.005 1.749 2286
1.291 2.115 1.828 11087
1.227 2.009 1.742 1946
1.293 2.119 1.821 10325
1.229 2.013 1.735 1354
1.296 2.123 1.814 9563
1.361 2.229 1.899 1393
1.299 2.127 1.807 7799
1.363 2.233 1.892 1844
1.298 2.126 1.795 6054
1.363 2.232 1.880 2800
1.300 2.130 1.788 6054
1.365 2.236 1.872 2800
1.334 2.184 1.821 5990
1.268 2.078 1.737 824
1.333 2.183 1.809 7183
1.398 2.290 1.892 861
1.335 2.187 1.802 6750
1.401 2.294 1.885 1282
1.345 2.203 1.803 6696
1.410 2.310 1.886 1028
1.351 2.212 1.800 8869
1.416 2.320 1.882 1317
1.353 2.217 1.792 11091
1.419 2.324 1.874 1874
1.356 2.221 1.785 10908
1.421 2.328 1.867 2711
1.358 2.225 1.778 10726
1.424 2.333 1.859 3548
1.364 2.235 1.774 7741
1.430 2.343 1.855 3086
1.401 2.296 1.809 8456
1.335 2.187 1.729 1359
1.407 2.306 1.806 8158
1.341 2.197 1.726 1301
1.417 2.321 1.806 8370
1.351 2.212 1.727 1535
1.409 2.308 1.786 6577
1.476 2.417 1.865 782
1.450 2.375 1.824 6418
1.383 2.266 1.745 3063
1.453 2.380 1.816 6127
1.386 2.270 1.737 3100
1.455 2.384 1.808 5836
1.388 2.274 1.730 3136
1.458 2.388 1.800 7454
1.391 2.278 1.722 2392
1.460 2.392 1.792 9072
1.393 2.282 1.715 1647
1.463 2.396 1.784 10959
1.395 2.286 1.707 1209
1.462 2.394 1.772 12881
1.529 2.505 1.849 1844
1.468 2.404 1.768 11962
1.535 2.515 1.844 1766
1.467 2.403 1.756 8851
1.534 2.513 1.832 2398
1.466 2.401 1.744 7154
1.533 2.512 1.819 2662
1.472 2.411 1.740 4980
1.539 2.522 1.815 3543
1.538 2.520 1.803 4437
1.470 2.409 1.728 2791
1.541 2.524 1.794 5495
1.473 2.413 1.720 2959
1.543 2.528 1.786 6552
1.475 2.417 1.712 3127
1.542 2.526 1.773 8044
1.474 2.415 1.700 2376
1.545 2.531 1.765 8370
1.476 2.418 1.691 1432
1.551 2.540 1.760 7152
1.619 2.653 1.833 2687
1.615 2.645 1.816 5820
1.546 2.533 1.744 4616
1.617 2.649 1.808 7134
1.527 2.501 1.713 2800
1.613 2.642 1.791 6391
1.544 2.529 1.719 2512
1.597 2.616 1.763 6409
1.666 2.729 1.835 1287
1.592 2.608 1.747 7265
1.661 2.721 1.818 2283
1.598 2.618 1.742 6277
1.667 2.731 1.813 2406
1.608 2.634 1.741 5516
1.677 2.747 1.811 2614
1.610 2.638 1.732 5572
1.680 2.752 1.802 4222
1.675 2.744 1.785 6044
1.605 2.630 1.716 4005
1.696 2.778 1.794 6417
1.619 2.652 1.718 2225
1.676 2.746 1.763 5744
1.746 2.860 1.832 1062
1.719 2.816 1.793 6806
1.649 2.702 1.725 2794
1.722 2.820 1.784 8195
1.652 2.706 1.716 2509
1.724 2.824 1.774 8453
1.654 2.710 1.707 2655
1.730 2.834 1.768 10448
1.660 2.720 1.701 2905
1.733 2.839 1.759 14933
1.803 2.954 1.826 3655
1.735 2.843 1.749 17561
1.809 2.964 1.819 4307
1.738 2.847 1.740 13175
1.812 2.968 1.809 4700
1.774 2.905 1.761 9294
1.844 3.021 1.827 2778
1.791 2.934 1.765 7355
1.720 2.818 1.700 2503
1.805 2.956 1.765 6172
1.734 2.840 1.701 4109
1.841 3.015 1.786 5911
1.747 2.862 1.701 3594
1.847 3.025 1.779 8780
1.776 2.909 1.715 2721
1.864 3.054 1.782 9723
1.793 2.937 1.719 3013
1.874 3.070 1.779 7947
1.803 2.954 1.715 3239
1.888 3.093 1.778 6508
1.813 2.970 1.712 3511
1.894 3.103 1.771 6333
1.965 3.220 1.833 2955
1.900 3.113 1.764 5627
1.972 3.230 1.826 2528
1.903 3.117 1.753 4899
1.978 3.240 1.818 1783
1.905 3.121 1.743 5179
1.977 3.238 1.804 2169
1.912 3.131 1.736 4439
1.983 3.249 1.796 2681
1.929 3.160 1.738 3834
2.023 3.315 1.817 2737
2.026 3.319 1.806 5590
1.954 3.201 1.746 2930
2.032 3.329 1.798 6805
1.960 3.211 1.738 2819
2.058 3.371 1.805 6675
1.982 3.246 1.743 3010
2.060 3.375 1.794 5340
1.988 3.257 1.735 2702
2.055 3.366 1.776 4257
2.127 3.485 1.835 2507
2.061 3.377 1.768 6255
2.134 3.495 1.826 2849
2.071 3.393 1.763 7095
2.144 3.512 1.820 2960
2.101 3.441 1.772 7431
2.204 3.610 1.853 2596
2.141 3.508 1.790 6288
2.214 3.627 1.847 3697
2.151 3.524 1.785 5749
2.224 3.643 1.841 2510
2.196 3.597 1.805 5914
2.123 3.478 1.749 3943
2.195 3.595 1.790 6148
2.122 3.476 1.734 4031
2.140 3.505 1.734 5062
2.213 3.624 1.789 3320
2.200 3.603 1.766 4507
2.127 3.484 1.711 2182
2.206 3.614 1.756 5994
2.279 3.733 1.811 3194
2.259 3.700 1.781 6633
2.185 3.580 1.727 2932
2.253 3.691 1.763 5404
2.330 3.818 1.819 3366
2.264 3.708 1.756 4410
2.337 3.828 1.809 3187
2.274 3.725 1.749 5054
2.382 3.902 1.826 3189
2.276 3.729 1.736 4667
2.388 3.912 1.816 4567
2.422 3.967 1.825 4977
2.282 3.739 1.726 3651
2.432 3.984 1.817 5008
2.358 3.863 1.765 4386
2.365 3.874 1.755 6024
2.439 3.995 1.806 3538
2.414 3.954 1.774 5166
2.340 3.833 1.723 1892
2.424 3.971 1.766 5377
2.498 4.092 1.816 2168
2.427 3.975 1.752 4081
2.594 4.249 1.865 2047
2.491 4.081 1.780 2852
2.573 4.215 1.835 2768
2.576 4.219 1.820 4016
2.494 4.085 1.766 3986
2.496 4.089 1.753 4469
2.629 4.307 1.839 3607
2.624 4.298 1.820 3829
2.499 4.093 1.739 3659
2.626 4.302 1.805 6093
2.701 4.424 1.853 2477
2.637 4.319 1.796 5227
2.711 4.441 1.843 2068
2.655 4.349 1.791 4091
2.792 4.574 1.877 1640
2.661 4.360 1.778 6031
2.736 4.482 1.825 2325
2.668 4.370 1.766 4002
2.742 4.492 1.812 2282
2.714 4.445 1.778 3834
2.800 4.587 1.830 3345
2.724 4.462 1.767 5740
2.822 4.623 1.827 5688
2.825 4.627 1.811 6361
2.726 4.466 1.752 4097
2.827 4.631 1.795 8031
2.717 4.451 1.730 1333
2.826 4.629 1.777 9408
2.948 4.829 1.849 1805
2.824 4.627 1.759 7125
2.943 4.821 1.828 1671
2.827 4.631 1.744 4624
2.941 4.818 1.809 1759
2.829 4.635 1.728 3173
2.984 4.887 1.816 2795
2.982 4.885 1.797 2421
2.832 4.639 1.712 2325
3.119 5.110 1.855 2773
2.973 4.870 1.774 2033
3.130 5.127 1.842 3588
2.987 4.893 1.764 1794
3.129 5.125 1.822 3822
3.204 5.248 1.863 1939
3.123 5.116 1.801 2512
3.199 5.240 1.841 2469
3.245 5.316 1.847 2642
3.090 5.062 1.764 1973
3.287 5.385 1.850 3994
3.200 5.242 1.804 2985
3.278 5.370 1.825 5054
3.354 5.494 1.864 2309
3.292 5.393 1.813 5303
3.368 5.517 1.852 2518
3.299 5.404 1.797 4561
3.451 5.652 1.874 2360
3.449 5.650 1.852 2970
3.529 5.781 1.892 2316
3.432 5.622 1.823 2681
3.600 5.896 1.906 2252
3.430 5.619 1.802 2716
3.614 5.920 1.892 2496
3.681 6.030 1.903 2824
3.605 5.905 1.866 2207
3.692 6.047 1.886 2158
3.776 6.185 1.926 2102
3.774 6.183 1.903 2247
3.698 6.058 1.868 2220
3.697 6.056 1.845 1734
3.809 6.240 1.897 1614
3.812 6.244 1.876 2238
3.896 6.382 1.915 1855
3.895 6.380 1.891 1702
4.067 6.663 1.970 1675
4.074 6.674 1.949 2146
3.966 6.496 1.900 1796
4.065 6.658 1.921 2078
3.932 6.441 1.862 1268
4.067 6.663 1.898 1495
4.212 6.900 1.961 1221
4.219 6.911 1.939 1711
4.461 7.307 2.043 1016
4.218 6.909 1.914 1250
4.500 7.371 2.034 1066
4.543 7.442 2.025 1331
4.378 7.171 1.956 1243
4.392 7.195 1.937 1619
4.554 7.459 2.003 1477
4.573 7.491 1.985 1936
4.395 7.200 1.912 1531
4.584 7.508 1.962 1892
4.660 7.634 1.993 1811
4.748 7.778 2.000 2341
4.667 7.645 1.969 1859
4.751 7.782 1.974 3494
4.941 8.093 2.048 1684
4.749 7.780 1.946 3840
4.944 8.098 2.020 2768
4.748 7.778 1.918 5464
4.955 8.116 1.996 3117
4.747 7.776 1.890 5373
4.965 8.134 1.971 2779
4.741 7.767 1.861 3817
4.968 8.138 1.943 1679
4.748 7.778 1.836 2865
4.975 8.150 1.917 1306
4.755 7.789 1.811 1618
5.647 9.250 2.126 1518
4.960 8.125 1.855 1763
5.650 9.255 2.095 1415
5.531 9.061 2.021 1815
5.738 9.400 2.092 1629
5.912 9.684 2.118 2144
5.758 9.431 2.066 1791
5.919 9.696 2.086 3212
5.769 9.449 2.036 1531
5.922 9.701 2.053 2691
5.796 9.494 2.012 1043
5.929 9.712 2.021 2244
5.799 9.499 1.980 891
5.928 9.710 1.987 2079
6.770 11.090 2.251 1164
5.926 9.708 1.953 1822
6.774 11.096 2.213 1425
5.929 9.712 1.920 2280
6.777 11.101 2.175 1131
5.928 9.710 1.885 1987
6.776 11.099 2.136 958
7.293 11.946 2.247 1228
5.930 9.714 1.852 1126
7.304 11.964 2.209 1680
5.945 9.739 1.823 963
7.303 11.963 2.167 2175
5.944 9.736 1.788 817
7.306 11.968 2.126 1788
7.289 11.939 2.080 1275
1.222 1.992 1.821 3345
1.224 1.996 1.814 6690
1.161 1.893 1.725 904
1.230 2.006 1.812 6730
1.167 1.902 1.723 1222
1.236 2.015 1.810 7534
1.172 1.911 1.722 1190
1.239 2.019 1.803 8354
1.303 2.124 1.891 1428
1.241 2.024 1.796 8038
1.305 2.128 1.884 2142
1.244 2.028 1.790 7722
1.308 2.132 1.877 3056
1.246 2.032 1.783 7722
1.311 2.137 1.869 3255
1.293 2.108 1.835 8111
1.228 2.003 1.749 2659
1.295 2.112 1.828 11368
1.231 2.007 1.742 2211
1.298 2.116 1.821 10793
1.233 2.011 1.735 1492
1.301 2.120 1.814 10218
1.365 2.226 1.899 1395
1.300 2.119 1.802 8424
1.365 2.225 1.887 2243
1.302 2.123 1.795 6650
1.367 2.229 1.880 2825
1.305 2.127 1.788 6650
1.370 2.233 1.872 2825
1.335 2.176 1.816 5967
1.334 2.175 1.804 7249
1.399 2.281 1.888 966
1.336 2.179 1.797 6453
1.402 2.286 1.880 1514
1.373 2.239 1.833 6154
1.308 2.132 1.751 2200
1.355 2.210 1.800 8475
1.421 2.317 1.882 1247
1.358 2.214 1.792 10975
1.424 2.321 1.874 1783
1.360 2.218 1.785 10636
1.426 2.325 1.867 2596
1.363 2.222 1.778 10296
1.429 2.330 1.859 3409
1.369 2.232 1.774 7478
1.435 2.340 1.855 2959
1.406 2.293 1.809 8781
1.340 2.184 1.729 1185
1.412 2.303 1.806 8134
1.346 2.194 1.726 1164
1.422 2.318 1.806 8124
1.355 2.209 1.727 1348
1.449 2.362 1.828 6207
1.382 2.253 1.748 2924
1.452 2.367 1.820 6115
1.385 2.257 1.741 2407
1.458 2.376 1.816 5890
1.391 2.267 1.737 2986
1.460 2.381 1.808 5689
1.393 2.271 1.730 3172
1.463 2.385 1.800 7282
1.396 2.275 1.722 2446
1.465 2.389 1.792 8875
1.398 2.279 1.715 1720
1.468 2.393 1.784 10683
1.400 2.283 1.707 1326
1.470 2.397 1.776 12492
1.538 2.507 1.853 1557
1.473 2.401 1.768 11716
1.541 2.512 1.844 1856
1.475 2.405 1.760 8816
1.543 2.516 1.836 2156
1.474 2.403 1.748 7035
1.542 2.514 1.823 2709
1.477 2.407 1.740 4822
1.545 2.518 1.815 3824
1.522 2.482 1.779 5085
1.590 2.593 1.854 1112
1.546 2.521 1.794 5492
1.478 2.409 1.720 2802
1.549 2.525 1.786 6175
1.480 2.413 1.712 3061
1.551 2.529 1.777 7549
1.483 2.417 1.703 2667
1.554 2.533 1.769 7938
1.485 2.421 1.695 1585
1.560 2.543 1.764 7078
1.629 2.655 1.837 2507
1.620 2.642 1.816 6352
1.551 2.529 1.744 4536
1.623 2.646 1.808 7922
1.554 2.533 1.735 2784
1.618 2.638 1.791 7205
1.549 2.525 1.719 2457
1.602 2.613 1.763 6647
1.672 2.725 1.835 1434
1.598 2.605 1.747 7535
1.667 2.718 1.818 2683
1.604 2.615 1.742 6745
1.673 2.728 1.813 2656
1.614 2.631 1.741 5913
1.683 2.744 1.811 2670
1.616 2.634 1.732 5648
1.686 2.748 1.802 4323
1.681 2.740 1.785 6285
1.611 2.626 1.716 3943
1.702 2.774 1.794 6339
1.624 2.648 1.718 2104
1.682 2.742 1.763 6213
1.752 2.856 1.832 1166
1.725 2.812 1.793 7400
1.655 2.698 1.725 2822
1.728 2.817 1.784 9310
1.657 2.702 1.716 2512
1.730 2.821 1.774 9377
1.660 2.706 1.707 2663
1.736 2.831 1.768 11595
1.666 2.716 1.701 2983
1.739 2.835 1.759 16378
1.813 2.956 1.829 3434
1.741 2.839 1.749 19045
1.819 2.966 1.823 4208
1.747 2.849 1.743 14181
1.818 2.964 1.809 4662
1.780 2.901 1.761 10065
1.850 3.017 1.827 2823
1.805 2.942 1.772 8445
1.734 2.826 1.707 3709
1.807 2.946 1.762 7445
1.736 2.830 1.697 3611
1.806 2.944 1.749 7171
1.877 3.060 1.813 2645
1.857 3.027 1.782 8403
1.786 2.911 1.719 3128
1.867 3.044 1.779 9805
1.796 2.927 1.715 2575
1.877 3.060 1.775 7930
1.806 2.944 1.712 2596
1.894 3.089 1.778 6205
1.819 2.966 1.712 2848
1.901 3.099 1.771 5703
1.972 3.215 1.833 3169
1.907 3.109 1.764 5047
1.982 3.232 1.829 2601
1.909 3.113 1.753 4484
2.000 3.261 1.831 1941
1.912 3.117 1.743 4495
1.988 3.240 1.807 2283
1.926 3.140 1.742 3967
1.998 3.257 1.803 2698
1.940 3.162 1.741 4056
2.027 3.304 1.814 3413
2.033 3.315 1.806 5887
1.961 3.197 1.746 3464
2.043 3.331 1.801 6658
1.971 3.213 1.741 2810
2.065 3.366 1.805 6482
1.992 3.248 1.746 3024
2.063 3.364 1.791 5449
1.991 3.246 1.732 2671
2.058 3.356 1.773 4604
2.131 3.474 1.832 2630
2.069 3.372 1.768 6465
2.141 3.491 1.826 2783
2.079 3.389 1.763 7680
2.151 3.507 1.820 3379
2.108 3.437 1.772 7269
2.181 3.555 1.829 2566
2.149 3.503 1.790 6269
2.222 3.622 1.847 3438
2.155 3.513 1.782 5355
2.228 3.632 1.838 2887
2.200 3.586 1.802 6227
2.127 3.467 1.746 3853
2.202 3.591 1.790 6647
2.129 3.471 1.734 4354
2.147 3.500 1.734 5670
2.220 3.620 1.789 4189
2.211 3.605 1.769 4854
2.138 3.486 1.714 2886
2.260 3.685 1.791 6009
2.187 3.565 1.736 3171
2.263 3.689 1.778 7528
2.348 3.827 1.840 2784
2.261 3.686 1.763 5884
2.339 3.813 1.819 3378
2.271 3.703 1.756 4698
2.345 3.823 1.809 3316
2.282 3.720 1.749 5739
2.382 3.884 1.821 3079
2.284 3.724 1.736 5114
2.385 3.888 1.808 4644
2.430 3.962 1.825 5024
2.286 3.728 1.724 3680
2.441 3.979 1.817 5337
2.367 3.858 1.765 4922
2.373 3.869 1.755 6200
2.447 3.989 1.806 3575
2.426 3.955 1.776 5288
2.352 3.835 1.726 2297
2.440 3.979 1.771 5521
2.515 4.099 1.821 1897
2.435 3.970 1.752 3944
2.599 4.237 1.862 2344
2.496 4.070 1.778 3421
2.578 4.203 1.832 2946
2.506 4.086 1.769 4583
2.585 4.214 1.820 4254
2.509 4.090 1.755 4696
2.630 4.288 1.834 3448
2.507 4.088 1.739 3688
2.625 4.280 1.815 3670
2.639 4.303 1.808 5822
2.714 4.425 1.855 2387
2.642 4.307 1.793 5182
2.717 4.429 1.840 2755
2.664 4.343 1.791 4268
2.802 4.568 1.877 1865
2.671 4.354 1.778 6163
2.745 4.476 1.825 2615
2.677 4.364 1.766 3975
2.752 4.487 1.812 2429
2.735 4.459 1.785 3741
2.822 4.600 1.838 3415
2.733 4.456 1.767 5957
2.832 4.617 1.827 5525
2.831 4.615 1.809 6068
2.736 4.460 1.752 4232
2.833 4.619 1.793 7780
2.726 4.445 1.730 1445
2.836 4.623 1.777 9217
2.970 4.843 1.856 1792
2.834 4.621 1.759 6730
2.953 4.814 1.828 1729
2.837 4.625 1.744 3927
2.956 4.819 1.812 1848
2.994 4.881 1.816 2892
2.839 4.629 1.728 2724
2.993 4.879 1.797 2521
2.842 4.633 1.712 2257
3.130 5.103 1.855 2685
2.963 4.831 1.763 1935
3.141 5.120 1.842 3491
2.998 4.887 1.764 1826
3.139 5.118 1.822 3667
3.259 5.313 1.887 1973
3.094 5.044 1.780 2567
3.270 5.330 1.873 2507
3.268 5.328 1.853 2885
3.192 5.205 1.813 2560
3.287 5.358 1.843 3875
3.195 5.209 1.795 3035
3.289 5.363 1.825 5122
3.209 5.232 1.784 1921
3.296 5.373 1.809 5328
3.388 5.523 1.856 2415
3.310 5.397 1.797 4447
3.398 5.541 1.841 2420
3.465 5.649 1.854 2786
3.313 5.401 1.778 2656
3.440 5.608 1.821 2586
3.616 5.895 1.908 2161
3.438 5.605 1.800 2277
3.627 5.913 1.892 2176
3.694 6.022 1.903 3011
3.593 5.858 1.855 2093
3.704 6.039 1.886 2243
3.616 5.895 1.844 1924
3.715 6.057 1.870 2270
3.791 6.181 1.905 2018
3.710 6.048 1.845 1724
3.790 6.179 1.882 1644
3.825 6.236 1.876 2265
3.909 6.374 1.915 1818
3.896 6.352 1.886 1901
4.021 6.555 1.942 1770
4.092 6.672 1.950 2367
3.971 6.474 1.897 1897
4.083 6.656 1.922 2102
3.946 6.433 1.862 1528
4.082 6.654 1.898 1453
4.227 6.891 1.961 1229
4.230 6.896 1.938 1833
4.476 7.297 2.043 1163
4.232 6.900 1.914 1450
4.103 6.689 1.860 1079
4.559 7.432 2.025 1278
4.389 7.155 1.955 1026
4.574 7.456 2.005 1544
4.408 7.186 1.937 1496
4.585 7.474 1.983 1985
4.661 7.600 2.014 1455
4.599 7.499 1.962 1932
4.676 7.624 1.993 1835
4.760 7.761 1.999 2213
4.683 7.635 1.969 1881
4.767 7.772 1.974 3118
4.958 8.083 2.048 1493
4.762 7.763 1.944 3724
4.961 8.088 2.020 2242
4.761 7.761 1.916 6037
4.972 8.106 1.996 2482
4.763 7.766 1.890 6079
4.983 8.123 1.971 2389
4.758 7.757 1.861 4303
4.986 8.128 1.943 1768
4.764 7.768 1.836 3140
4.992 8.139 1.917 1678
4.767 7.772 1.809 1870
4.987 8.130 1.887 1744
4.977 8.115 1.855 2200
5.670 9.243 2.095 1412
5.554 9.056 2.023 1941
4.988 8.132 1.830 1764
5.932 9.672 2.118 2143
5.782 9.426 2.067 1809
5.940 9.683 2.086 3295
5.789 9.437 2.036 1580
5.942 9.688 2.053 2738
5.816 9.482 2.012 964
5.945 9.693 2.020 2182
5.823 9.493 1.981 806
5.944 9.691 1.986 1991
6.794 11.076 2.251 992
5.943 9.689 1.951 1613
6.797 11.081 2.213 1136
5.950 9.700 1.920 1917
6.853 11.173 2.191 1035
5.952 9.704 1.886 1750
6.861 11.185 2.154 1002
7.318 11.930 2.247 1050
6.868 11.196 2.117 1031
7.325 11.942 2.208 1485
6.871 11.201 2.079 901
7.328 11.947 2.167 1993
7.331 11.952 2.126 1726
7.314 11.924 2.080 1217
1.223 1.984 1.816 3639
1.225 1.988 1.809 7279
1.162 1.885 1.720 879
1.228 1.992 1.803 7279
1.292 2.096 1.891 963
1.241 2.013 1.810 7861
1.177 1.909 1.722 1385
1.243 2.017 1.803 8715
1.307 2.121 1.891 1424
1.246 2.021 1.796 8541
1.310 2.125 1.884 2177
1.248 2.025 1.790 8367
1.313 2.129 1.877 3135
1.251 2.029 1.783 8367
1.315 2.134 1.869 3340
1.297 2.105 1.835 7982
1.233 2.000 1.749 3036
1.300 2.109 1.828 11552
1.235 2.004 1.742 2505
1.299 2.108 1.816 11138
1.234 2.002 1.731 1348
1.302 2.112 1.809 10763
1.367 2.217 1.895 1631
1.304 2.116 1.802 9073
1.370 2.222 1.887 2207
1.310 2.126 1.800 7420
1.376 2.232 1.884 2265
1.313 2.130 1.792 7420
1.378 2.236 1.877 2272
1.322 2.145 1.794 6537
1.388 2.251 1.878 1953
1.339 2.172 1.804 7333
1.404 2.278 1.888 911
1.338 2.170 1.793 6209
1.404 2.277 1.876 1736
1.378 2.236 1.833 5709
1.313 2.129 1.751 2152
1.360 2.207 1.800 7996
1.426 2.314 1.882 1164
1.366 2.216 1.797 10713
1.432 2.324 1.879 1293
1.369 2.220 1.789 10189
1.435 2.328 1.871 1893
1.371 2.225 1.782 9665
1.438 2.332 1.863 2492
1.377 2.234 1.779 7131
1.444 2.342 1.859 2166
1.411 2.290 1.809 8515
1.345 2.181 1.729 1017
1.417 2.299 1.806 7801
1.351 2.191 1.726 1024
1.427 2.315 1.806 7866
1.360 2.206 1.727 1040
1.451 2.353 1.824 5971
1.384 2.245 1.744 2599
1.457 2.363 1.820 5836
1.390 2.254 1.741 2606
1.463 2.373 1.816 5611
1.396 2.264 1.737 3104
1.466 2.377 1.808 5468
1.398 2.268 1.730 3249
1.468 2.382 1.800 7040
1.401 2.272 1.722 2478
1.471 2.386 1.792 8613
1.403 2.276 1.715 1707
1.473 2.390 1.784 10227
1.405 2.280 1.707 1362
1.476 2.394 1.776 11842
1.544 2.504 1.853 1563
1.478 2.398 1.768 11283
1.546 2.508 1.844 1879
1.481 2.402 1.760 8854
1.549 2.512 1.836 2196
1.480 2.400 1.748 7164
1.548 2.511 1.823 2933
1.482 2.404 1.740 5005
1.550 2.515 1.815 4082
1.524 2.472 1.775 5709
1.593 2.583 1.850 845
1.552 2.517 1.794 5676
1.483 2.406 1.720 2841
1.554 2.522 1.786 6394
1.486 2.410 1.712 2897
1.557 2.526 1.777 7668
1.488 2.414 1.703 2439
1.559 2.530 1.769 8078
1.490 2.418 1.695 1396
1.569 2.545 1.768 7568
1.638 2.657 1.841 2437
1.626 2.638 1.816 6477
1.557 2.526 1.744 4610
1.629 2.642 1.808 8264
1.560 2.530 1.735 3038
1.628 2.640 1.795 7726
1.558 2.528 1.723 2668
1.619 2.627 1.775 6565
1.550 2.514 1.703 1238
1.603 2.601 1.747 7431
1.673 2.714 1.818 2891
1.610 2.611 1.742 6736
1.679 2.724 1.813 2777
1.619 2.627 1.741 5959
1.689 2.740 1.811 2646
1.622 2.631 1.732 5497
1.692 2.744 1.802 4327
1.683 2.730 1.781 6408
1.613 2.617 1.712 3203
1.686 2.735 1.772 6454
1.616 2.621 1.703 1400
1.688 2.739 1.763 6694
1.758 2.853 1.832 1125
1.724 2.797 1.786 7982
1.654 2.683 1.718 1635
1.734 2.813 1.784 10073
1.663 2.699 1.716 2443
1.736 2.817 1.774 9780
1.666 2.702 1.707 2866
1.739 2.821 1.765 12115
1.668 2.706 1.698 2972
1.745 2.831 1.759 17052
1.674 2.716 1.692 3073
1.748 2.835 1.749 19650
1.826 2.962 1.823 3518
1.754 2.845 1.743 14494
1.825 2.960 1.809 4086
1.790 2.904 1.765 10807
1.861 3.019 1.830 2764
1.811 2.938 1.772 9170
1.740 2.823 1.707 3447
1.814 2.942 1.762 8725
1.742 2.826 1.697 3457
1.816 2.946 1.752 8554
1.745 2.830 1.688 2892
1.864 3.023 1.782 8080
1.792 2.907 1.719 3012
1.874 3.040 1.779 9561
1.802 2.923 1.715 2453
1.880 3.050 1.772 7627
1.808 2.934 1.709 2154
1.901 3.084 1.778 5660
1.830 2.968 1.715 2971
1.908 3.095 1.771 5290
1.979 3.211 1.833 3344
1.914 3.105 1.764 4783
1.990 3.228 1.829 2848
1.916 3.109 1.753 4181
1.996 3.238 1.821 2232
1.926 3.125 1.749 3921
1.999 3.242 1.810 2484
1.936 3.141 1.745 3938
2.012 3.265 1.809 2795
1.950 3.164 1.744 4567
2.034 3.300 1.814 3938
2.040 3.310 1.806 6085
1.968 3.193 1.746 4142
2.054 3.333 1.804 6723
1.982 3.215 1.745 2888
2.068 3.355 1.802 6727
1.996 3.238 1.743 2963
2.071 3.360 1.791 5854
1.998 3.242 1.732 2685
2.066 3.351 1.773 4818
2.139 3.469 1.832 2482
2.076 3.368 1.768 6269
2.149 3.486 1.826 2625
2.086 3.384 1.763 7936
2.159 3.503 1.820 3661
2.112 3.426 1.769 7231
2.185 3.544 1.826 3082
2.156 3.498 1.790 6509
2.076 3.367 1.728 3686
2.163 3.509 1.782 5265
2.086 3.384 1.722 2790
2.204 3.575 1.799 6237
2.131 3.456 1.743 3628
2.210 3.586 1.790 6542
2.137 3.467 1.734 4504
2.155 3.496 1.734 6041
2.228 3.615 1.789 4695
2.223 3.606 1.771 4786
2.150 3.487 1.717 3502
2.268 3.680 1.791 6242
2.195 3.560 1.736 3116
2.271 3.684 1.778 7823
2.352 3.816 1.838 3238
2.265 3.675 1.760 5767
2.347 3.807 1.819 3433
2.280 3.698 1.756 4666
2.353 3.818 1.809 3284
2.294 3.721 1.752 6255
2.387 3.872 1.818 2999
2.292 3.719 1.736 5334
2.390 3.877 1.805 4469
2.439 3.957 1.825 4947
2.295 3.723 1.724 3608
2.379 3.860 1.768 5530
2.453 3.980 1.819 5271
2.378 3.857 1.752 6303
2.452 3.978 1.803 3771
2.435 3.950 1.776 5059
2.361 3.829 1.726 2289
2.449 3.973 1.771 5205
2.598 4.215 1.871 2203
2.448 3.971 1.755 3910
2.609 4.232 1.862 2512
2.505 4.064 1.778 3753
2.588 4.198 1.832 2884
2.516 4.081 1.769 4935
2.594 4.208 1.820 4229
2.518 4.085 1.755 4839
2.636 4.276 1.832 3418
2.517 4.082 1.739 3649
2.635 4.274 1.815 3465
2.649 4.297 1.808 5521
2.724 4.419 1.855 2273
2.652 4.301 1.793 5128
2.726 4.423 1.840 3041
2.678 4.344 1.793 4313
2.816 4.568 1.879 1897
2.680 4.348 1.778 6015
2.755 4.470 1.825 2700
2.687 4.359 1.766 3957
2.762 4.480 1.812 2522
2.745 4.452 1.785 3673
2.832 4.594 1.838 3088
2.743 4.450 1.767 6066
2.842 4.611 1.827 4787
2.837 4.602 1.806 5445
2.742 4.448 1.750 4207
2.843 4.613 1.793 7241
2.736 4.439 1.730 1422
2.846 4.617 1.777 8398
2.993 4.855 1.863 1715
2.848 4.621 1.762 5842
2.960 4.801 1.826 1716
2.847 4.618 1.744 2935
2.966 4.812 1.812 1730
3.005 4.874 1.816 2725
2.849 4.622 1.728 2062
3.007 4.879 1.799 2520
3.119 5.060 1.861 2183
3.142 5.096 1.855 2390
2.974 4.824 1.763 1905
3.148 5.107 1.840 3106
3.008 4.880 1.764 1744
3.099 5.027 1.794 3585
3.219 5.221 1.859 2159
3.105 5.038 1.780 3102
3.281 5.323 1.873 2467
3.280 5.321 1.853 2873
3.204 5.197 1.813 2650
3.291 5.338 1.839 3940
3.206 5.202 1.795 3233
3.301 5.355 1.825 4853
3.209 5.206 1.778 1911
3.308 5.366 1.809 5382
3.404 5.522 1.858 2600
3.314 5.377 1.793 4491
3.411 5.533 1.841 2797
3.325 5.394 1.778 3071
3.478 5.642 1.854 2488
3.625 5.881 1.906 2304
3.448 5.594 1.819 2269
3.596 5.833 1.871 2533
3.712 6.022 1.927 2051
3.711 6.020 1.905 2934
3.602 5.844 1.853 2590
3.718 6.031 1.886 2279
3.621 5.874 1.840 2121
3.732 6.055 1.871 2356
3.632 5.891 1.824 1911
3.796 6.158 1.879 1689
3.719 6.033 1.843 1532
3.835 6.221 1.874 2228
4.012 6.509 1.955 1985
3.910 6.343 1.886 2026
4.007 6.501 1.930 1970
4.107 6.663 1.950 2385
3.986 6.466 1.897 1994
4.102 6.654 1.924 2014
3.960 6.424 1.862 1595
4.096 6.645 1.898 1418
4.246 6.888 1.963 1313
4.245 6.886 1.938 1878
4.492 7.287 2.043 1256
4.248 6.891 1.914 1561
4.118 6.680 1.860 1211
4.510 7.316 1.998 1239
4.319 7.007 1.919 1155
4.590 7.446 2.005 1454
4.505 7.308 1.970 1390
4.601 7.464 1.983 1833
4.678 7.589 2.014 1370
4.693 7.614 1.993 1832
4.616 7.488 1.962 1815
4.757 7.717 1.991 2186
4.615 7.486 1.935 1348
4.780 7.755 1.972 2649
4.703 7.629 1.943 1292
4.771 7.740 1.941 3791
4.975 8.070 2.019 1630
4.778 7.751 1.916 6337
4.986 8.088 1.994 1854
4.780 7.755 1.890 6521
4.968 8.059 1.959 2113
4.775 7.746 1.861 4648
4.971 8.064 1.932 2082
4.778 7.750 1.834 3378
5.010 8.128 1.917 1935
4.780 7.755 1.808 2167
5.001 8.112 1.885 2055
4.995 8.104 1.855 2631
5.261 8.535 1.946 1669
5.575 9.043 2.023 2030
5.006 8.121 1.830 2008
5.954 9.659 2.118 2103
5.577 9.048 1.992 1747
5.961 9.670 2.086 3186
5.809 9.424 2.036 1621
5.964 9.675 2.053 2668
5.816 9.436 2.005 924
5.963 9.673 2.019 2091
6.200 10.059 2.094 952
5.961 9.671 1.984 1899
6.224 10.097 2.066 1061
5.964 9.675 1.951 1442
6.235 10.115 2.034 1214
5.975 9.693 1.921 1661
6.882 11.165 2.192 1137
5.978 9.698 1.888 1549
6.889 11.176 2.155 1168
6.897 11.188 2.118 1344
7.344 11.914 2.247 928
7.352 11.926 2.208 1362
6.895 11.186 2.079 1208
7.355 11.931 2.167 1769
7.354 11.929 2.125 1532
7.340 11.908 2.080 1133
1.227 1.981 1.816 4046
1.230 1.985 1.809 8093
1.166 1.882 1.720 934
1.232 1.990 1.803 8093
1.168 1.886 1.714 934
1.245 2.010 1.810 8547
1.181 1.906 1.722 1395
1.247 2.014 1.803 9631
1.312 2.118 1.891 1389
1.250 2.018 1.796 9434
1.314 2.122 1.884 2187
1.252 2.022 1.790 9238
1.317 2.127 1.877 3186
1.255 2.026 1.783 9238
1.320 2.131 1.869 3387
1.298 2.097 1.831 7873
1.234 1.992 1.744 2555
1.301 2.101 1.823 11743
1.236 1.996 1.737 2183
1.304 2.105 1.816 11454
1.239 2.000 1.731 1505
1.303 2.104 1.805 11183
1.368 2.209 1.890 1867
1.309 2.113 1.802 9546
1.374 2.219 1.887 2143
1.315 2.123 1.800 8048
1.380 2.229 1.884 2180
1.317 2.127 1.792 8048
1.383 2.233 1.877 2183
1.327 2.142 1.794 7107
1.393 2.249 1.878 1815
1.340 2.163 1.800 7454
1.406 2.270 1.884 1019
1.342 2.167 1.793 6039
1.408 2.274 1.876 1540
1.383 2.233 1.833 5274
1.317 2.126 1.751 2318
1.368 2.209 1.804 7526
1.302 2.102 1.722 940
1.371 2.213 1.797 10426
1.437 2.321 1.879 1159
1.373 2.218 1.789 9684
1.440 2.325 1.871 1671
1.376 2.222 1.782 8943
1.443 2.329 1.863 2184
1.382 2.231 1.779 6737
1.449 2.339 1.859 1933
1.416 2.287 1.809 7920
1.349 2.179 1.729 819
1.422 2.296 1.806 7251
1.355 2.188 1.726 953
1.435 2.318 1.811 7355
1.368 2.209 1.731 1248
1.456 2.350 1.824 5530
1.388 2.242 1.744 2713
1.462 2.360 1.820 5384
1.394 2.252 1.741 3024
1.468 2.370 1.816 5272
1.400 2.261 1.737 3435
1.474 2.380 1.812 5309
1.406 2.271 1.734 4031
1.473 2.378 1.800 6727
1.405 2.269 1.722 2662
1.476 2.383 1.792 8167
1.408 2.273 1.715 1811
1.478 2.387 1.784 9432
1.410 2.277 1.707 1469
1.481 2.391 1.776 10697
1.549 2.501 1.853 1635
1.483 2.395 1.768 10528
1.551 2.505 1.844 1954
1.486 2.399 1.760 8720
1.554 2.509 1.836 2273
1.484 2.397 1.748 7189
1.553 2.508 1.823 3084
1.491 2.407 1.744 5032
1.559 2.518 1.819 4145
1.529 2.469 1.775 5866
1.557 2.514 1.794 5407
1.488 2.403 1.720 2745
1.560 2.518 1.786 5877
1.491 2.407 1.712 2655
1.562 2.522 1.777 7044
1.493 2.411 1.703 2112
1.568 2.532 1.772 7720
1.499 2.421 1.699 1393
1.574 2.542 1.768 7665
1.644 2.654 1.841 2504
1.632 2.635 1.816 6446
1.562 2.523 1.744 4426
1.634 2.639 1.808 8378
1.565 2.527 1.735 3147
1.633 2.637 1.795 8036
1.564 2.525 1.723 2731
1.628 2.629 1.778 6923
1.559 2.517 1.707 1631
1.609 2.598 1.747 7442
1.679 2.710 1.818 3018
1.619 2.614 1.746 7064
1.689 2.727 1.816 2498
1.625 2.624 1.741 6350
1.695 2.737 1.811 2630
1.627 2.628 1.732 5593
1.697 2.741 1.802 4297
1.689 2.727 1.781 6531
1.619 2.614 1.712 3122
1.688 2.725 1.769 6868
1.617 2.611 1.700 1134
1.690 2.729 1.759 7267
1.761 2.843 1.828 1332
1.726 2.787 1.783 8325
1.655 2.673 1.714 1326
1.736 2.803 1.780 10302
1.665 2.689 1.712 1976
1.742 2.813 1.774 9595
1.671 2.699 1.707 2856
1.745 2.817 1.765 11853
1.674 2.703 1.698 2994
1.751 2.827 1.759 16917
1.680 2.713 1.692 3232
1.757 2.837 1.753 19498
1.686 2.723 1.686 3481
1.763 2.847 1.747 14454
1.846 2.981 1.823 3073
1.796 2.900 1.765 11216
1.867 3.015 1.830 3042
1.810 2.922 1.765 8946
1.881 3.037 1.830 2495
1.820 2.938 1.762 9303
1.748 2.823 1.697 3098
1.826 2.948 1.755 9588
1.754 2.833 1.691 2942
1.870 3.019 1.782 7770
1.798 2.904 1.719 2826
1.876 3.030 1.776 9308
1.804 2.914 1.712 2243
1.871 3.021 1.759 7743
1.943 3.137 1.822 1551
1.908 3.080 1.778 5460
1.836 2.964 1.715 3969
1.914 3.091 1.771 5110
1.986 3.207 1.833 3497
1.920 3.101 1.764 4632
2.000 3.230 1.832 3242
1.923 3.105 1.753 4081
2.003 3.234 1.821 2804
1.933 3.121 1.749 3444
2.017 3.256 1.820 2678
1.951 3.150 1.752 3750
2.027 3.273 1.815 3290
1.972 3.185 1.757 5315
2.045 3.302 1.817 4969
2.047 3.306 1.806 6940
1.975 3.189 1.746 4871
2.061 3.328 1.804 6319
1.989 3.211 1.745 3146
2.079 3.357 1.805 6203
2.006 3.240 1.746 2890
2.078 3.355 1.791 5849
2.005 3.238 1.732 2493
2.073 3.347 1.773 5120
2.146 3.465 1.832 2402
2.083 3.363 1.768 6128
2.156 3.481 1.826 2713
2.097 3.386 1.766 8260
2.170 3.504 1.823 3925
2.107 3.403 1.760 7399
2.180 3.521 1.817 4667
2.164 3.494 1.790 6058
2.090 3.375 1.734 4184
2.170 3.504 1.782 4425
2.097 3.386 1.725 3242
2.211 3.571 1.799 5985
2.138 3.452 1.743 3894
2.218 3.581 1.790 6487
2.144 3.462 1.734 4953
2.228 3.598 1.784 6433
2.154 3.479 1.729 5720
2.231 3.602 1.771 5074
2.157 3.483 1.717 3602
2.272 3.669 1.788 6753
2.365 3.819 1.856 3090
2.274 3.673 1.775 8447
2.360 3.811 1.838 3499
2.269 3.664 1.757 5757
2.355 3.803 1.819 3311
2.299 3.712 1.764 4598
2.373 3.832 1.817 2553
2.301 3.716 1.752 6270
2.383 3.849 1.810 3346
2.300 3.714 1.736 4972
2.394 3.865 1.802 4669
2.447 3.952 1.825 5150
2.302 3.718 1.724 3402
2.387 3.855 1.768 5722
2.462 3.975 1.819 5457
2.386 3.852 1.752 5883
2.460 3.973 1.803 3832
2.447 3.951 1.779 4580
2.372 3.831 1.728 2239
2.461 3.974 1.773 4792
2.607 4.209 1.871 2509
2.460 3.972 1.757 4049
2.617 4.226 1.862 2698
2.514 4.059 1.778 3950
2.616 4.224 1.845 2844
2.520 4.069 1.766 5033
2.603 4.203 1.820 4035
2.526 4.080 1.755 4721
2.645 4.271 1.832 3655
2.663 4.300 1.827 3749
2.525 4.077 1.739 3424
2.658 4.292 1.808 5371
2.733 4.413 1.855 2063
2.657 4.290 1.791 5113
2.732 4.411 1.838 3803
2.687 4.338 1.793 4228
2.825 4.562 1.879 1918
2.693 4.349 1.781 5565
2.769 4.471 1.827 2511
2.696 4.353 1.766 3793
2.771 4.475 1.812 2827
2.754 4.447 1.785 3518
2.841 4.588 1.838 2611
2.752 4.444 1.767 5721
2.852 4.605 1.827 3669
2.842 4.590 1.804 4499
2.751 4.442 1.750 3982
2.849 4.600 1.791 6380
2.745 4.433 1.730 1347
2.856 4.611 1.777 7156
2.931 4.733 1.821 1957
2.858 4.615 1.762 4605
2.934 4.737 1.805 1718
2.864 4.625 1.748 1923
2.976 4.806 1.812 1606
3.011 4.862 1.813 2632
3.123 5.042 1.876 1692
3.017 4.872 1.799 2697
3.129 5.053 1.861 2188
3.024 4.883 1.785 2195
3.176 5.129 1.868 2157
3.103 5.010 1.809 2756
3.179 5.133 1.851 1832
3.109 5.020 1.794 4035
3.230 5.215 1.859 1905
3.116 5.031 1.780 3459
3.292 5.316 1.873 2342
3.291 5.314 1.853 2874
3.215 5.191 1.813 2543
3.294 5.318 1.835 4181
3.217 5.195 1.795 3150
3.312 5.348 1.825 4109
3.216 5.193 1.776 1832
3.323 5.366 1.811 4873
3.420 5.522 1.860 2874
3.317 5.357 1.789 4376
3.426 5.532 1.843 3245
3.336 5.387 1.778 3462
3.433 5.543 1.826 2479
3.331 5.378 1.756 2413
3.633 5.867 1.904 2411
3.608 5.825 1.871 2927
3.725 6.015 1.927 1962
3.610 5.830 1.851 3060
3.723 6.012 1.905 2655
3.742 6.043 1.892 2259
3.633 5.867 1.840 2236
3.745 6.047 1.871 2298
3.644 5.884 1.824 1962
3.800 6.137 1.875 1849
3.918 6.326 1.929 1560
4.022 6.494 1.954 2063
3.848 6.213 1.874 2047
3.919 6.328 1.884 2057
4.021 6.492 1.930 2019
4.121 6.654 1.950 2474
3.999 6.457 1.897 1901
4.124 6.658 1.928 2073
3.973 6.416 1.862 1562
4.260 6.879 1.963 1414
4.110 6.637 1.898 1309
4.259 6.877 1.938 1927
4.507 7.278 2.043 1276
4.266 6.888 1.916 1654
4.506 7.276 2.017 1199
4.338 7.005 1.921 1252
4.460 7.202 1.971 1205
4.520 7.299 1.970 1369
4.606 7.437 2.005 1291
4.612 7.448 1.981 1585
4.694 7.580 2.014 1180
4.770 7.703 2.017 2183
4.632 7.479 1.962 1583
4.773 7.707 1.991 2501
4.626 7.470 1.934 1360
4.784 7.725 1.968 2359
4.629 7.475 1.908 1160
4.783 7.723 1.940 3875
4.946 7.987 2.002 1131
4.790 7.734 1.915 6478
4.974 8.031 1.984 1722
4.792 7.739 1.889 6748
4.977 8.036 1.956 2784
4.791 7.736 1.861 4781
4.983 8.047 1.930 2724
4.794 7.740 1.834 3467
4.978 8.038 1.900 2188
5.018 8.102 1.885 2426
5.276 8.519 1.976 2406
5.012 8.093 1.855 2989
5.279 8.524 1.946 2447
5.019 8.104 1.828 2068
5.593 9.032 2.023 2050
5.974 9.646 2.118 1979
5.764 9.308 2.048 1796
5.981 9.658 2.086 2882
5.829 9.412 2.036 1505
5.984 9.662 2.053 2448
6.218 10.041 2.128 1171
5.979 9.654 2.017 2087
6.221 10.046 2.094 1323
5.977 9.652 1.983 1883
6.245 10.084 2.066 1439
6.252 10.095 2.033 1612
5.980 9.656 1.950 1297
6.008 9.701 1.924 1496
6.905 11.150 2.192 1263
6.002 9.692 1.889 1356
6.913 11.162 2.155 1325
6.920 11.174 2.118 1603
6.277 10.135 1.934 871
6.919 11.172 2.079 1480
7.380 11.917 2.209 1171
7.379 11.916 2.167 1531
6.922 11.177 2.041 926
7.378 11.914 2.125 1325
6.953 11.228 2.010 811
7.365 11.892 2.080 972
1.231 1.979 1.816 4260
1.234 1.983 1.809 8520
1.170 1.880 1.720 1180
1.236 1.987 1.803 8520
1.172 1.884 1.714 1180
1.249 2.007 1.810 9068
1.185 1.904 1.722 1513
1.252 2.011 1.803 10394
1.316 2.115 1.891 1342
1.254 2.016 1.796 10238
1.319 2.119 1.884 2180
1.257 2.020 1.790 10082
1.322 2.124 1.877 3218
1.259 2.024 1.783 10082
1.324 2.128 1.869 3417
1.262 2.028 1.776 7860
1.327 2.132 1.862 5094
1.306 2.098 1.823 11583
1.240 1.993 1.737 2401
1.305 2.097 1.812 11376
1.239 1.992 1.726 1280
1.307 2.101 1.805 11217
1.373 2.206 1.890 1777
1.313 2.110 1.802 9674
1.379 2.216 1.887 2035
1.323 2.126 1.804 8553
1.389 2.231 1.889 1559
1.325 2.130 1.797 8553
1.391 2.236 1.881 1559
1.331 2.139 1.794 7705
1.397 2.246 1.878 1612
1.344 2.160 1.800 8125
1.411 2.267 1.884 882
1.343 2.159 1.788 6525
1.410 2.265 1.871 1574
1.360 2.185 1.799 5163
1.426 2.292 1.881 839
1.370 2.201 1.800 7466
1.436 2.308 1.882 894
1.376 2.210 1.797 10326
1.442 2.318 1.879 1005
1.378 2.215 1.789 9334
1.445 2.322 1.871 1432
1.381 2.219 1.782 8342
1.448 2.326 1.863 1859
1.387 2.228 1.779 6332
1.454 2.336 1.859 1731
1.421 2.284 1.809 7156
1.354 2.176 1.729 883
1.431 2.299 1.810 6598
1.363 2.191 1.730 1185
1.440 2.315 1.811 6831
1.373 2.206 1.731 878
1.457 2.342 1.820 5176
1.390 2.233 1.740 2248
1.467 2.357 1.820 4973
1.399 2.248 1.741 3265
1.473 2.367 1.816 4854
1.405 2.258 1.737 3641
1.479 2.377 1.812 4996
1.411 2.268 1.734 4174
1.478 2.375 1.800 6261
1.410 2.266 1.722 2783
1.481 2.379 1.792 7617
1.413 2.270 1.715 1876
1.483 2.383 1.784 8580
1.415 2.274 1.707 1537
1.489 2.393 1.780 9575
1.421 2.284 1.703 1680
1.488 2.392 1.768 9643
1.557 2.502 1.844 1827
1.491 2.396 1.760 8329
1.559 2.506 1.836 2132
1.490 2.394 1.748 6942
1.558 2.504 1.823 2955
1.496 2.404 1.744 4918
1.565 2.514 1.819 3939
1.535 2.466 1.775 5535
1.559 2.505 1.790 5086
1.490 2.394 1.716 2436
1.565 2.515 1.786 5575
1.496 2.404 1.712 2549
1.568 2.519 1.777 6679
1.498 2.408 1.703 1912
1.574 2.529 1.772 7501
1.643 2.640 1.846 1334
1.584 2.545 1.772 7751
1.653 2.656 1.845 2463
1.637 2.631 1.816 6203
1.568 2.519 1.744 4111
1.640 2.635 1.808 8207
1.570 2.523 1.735 3102
1.639 2.634 1.795 8085
1.569 2.521 1.723 2680
1.638 2.632 1.782 7280
1.568 2.519 1.711 2092
1.614 2.594 1.747 7411
1.684 2.707 1.818 3105
1.624 2.610 1.746 7586
1.694 2.723 1.816 2502
1.630 2.620 1.741 7065
1.701 2.733 1.811 2610
1.637 2.630 1.736 6097
1.707 2.743 1.805 3776
1.691 2.717 1.778 6657
1.621 2.604 1.708 2750
1.690 2.715 1.765 7348
1.760 2.829 1.834 1109
1.696 2.725 1.759 7924
1.767 2.839 1.828 1260
1.732 2.783 1.783 8934
1.661 2.670 1.714 1711
1.742 2.799 1.780 10725
1.671 2.685 1.712 1934
1.745 2.803 1.771 9473
1.674 2.689 1.703 2536
1.755 2.820 1.768 11210
1.683 2.705 1.701 3370
1.761 2.830 1.762 16056
1.690 2.715 1.696 3851
1.763 2.834 1.753 18548
1.692 2.719 1.686 3793
1.773 2.850 1.750 13779
1.702 2.735 1.684 3331
1.802 2.896 1.765 11056
1.874 3.011 1.830 3014
1.816 2.918 1.765 8876
1.888 3.033 1.830 2249
1.826 2.934 1.762 9567
1.754 2.819 1.697 2603
1.836 2.950 1.759 10522
1.764 2.835 1.694 2765
1.858 2.985 1.766 8156
1.786 2.869 1.702 2376
1.887 3.032 1.779 8568
1.815 2.916 1.715 2582
1.870 3.005 1.752 7395
1.942 3.121 1.815 1661
1.869 3.003 1.739 5714
1.964 3.156 1.821 3570
1.921 3.086 1.771 4948
1.993 3.203 1.833 3593
1.927 3.097 1.764 4195
2.007 3.225 1.832 3552
1.926 3.094 1.750 3659
2.010 3.229 1.821 3234
1.924 3.092 1.736 3052
2.016 3.240 1.814 2921
1.977 3.176 1.767 3709
2.049 3.293 1.828 3179
1.983 3.186 1.760 5822
2.056 3.303 1.820 4971
2.054 3.301 1.806 7416
1.982 3.184 1.746 5195
2.069 3.324 1.804 6271
