1.925 4.812 1.803 5632
2.006 5.015 1.874 1843
1.933 4.831 1.793 4401
2.000 4.999 1.851 3393
1.999 4.996 1.833 3061
1.946 4.863 1.787 2381
1.995 4.987 1.813 2671
2.048 5.120 1.858 2601
1.988 4.970 1.790 2834
2.047 5.118 1.839 2810
2.046 5.115 1.821 2156
2.100 5.249 1.865 2074
2.045 5.113 1.803 2010
2.127 5.317 1.870 1866
2.132 5.328 1.856 2294
2.053 5.131 1.792 2218
2.094 5.234 1.807 3036
2.148 5.368 1.850 2650
2.144 5.359 1.829 3471
2.234 5.584 1.901 2565
2.148 5.370 1.815 3396
2.233 5.582 1.881 2106
2.153 5.382 1.800 3159
2.224 5.559 1.855 2377
2.234 5.584 1.844 3140
2.158 5.394 1.785 1697
2.273 5.681 1.855 2953
2.349 5.872 1.913 1968
2.274 5.686 1.837 3776
2.357 5.891 1.899 3402
2.361 5.903 1.883 4526
2.271 5.676 1.815 3701
2.363 5.907 1.864 4136
2.272 5.680 1.797 2200
2.393 5.983 1.866 4363
2.456 6.139 1.912 1828
2.401 6.002 1.852 3670
2.466 6.165 1.899 2400
2.408 6.021 1.837 2897
2.477 6.191 1.886 2442
2.632 6.580 1.974 2634
2.578 6.445 1.936 2289
2.637 6.592 1.956 3281
2.583 6.457 1.918 2119
2.636 6.590 1.933 2854
2.582 6.454 1.896 2050
2.632 6.580 1.909 2188
2.798 6.994 2.021 2040
2.803 7.006 2.001 2910
2.857 7.142 2.037 1853
2.808 7.018 1.981 3601
2.862 7.154 2.017 2245
2.807 7.016 1.957 2165
2.861 7.152 1.992 1865
3.023 7.557 2.073 1858
2.854 7.135 1.965 1674
2.925 7.312 1.986 2077
3.060 7.648 2.071 1568
3.096 7.739 2.069 2986
2.930 7.324 1.965 2571
3.098 7.744 2.045 5345
2.975 7.436 1.969 2078
3.100 7.750 2.021 6978
3.178 7.943 2.068 2447
3.102 7.755 1.996 6851
3.180 7.948 2.043 3965
3.107 7.767 1.974 4940
3.179 7.946 2.017 3142
3.221 8.052 2.015 4253
3.112 7.779 1.951 2687
3.223 8.057 1.990 5438
3.168 7.920 1.959 1428
3.228 8.069 1.967 6857
3.283 8.206 1.998 1365
3.230 8.074 1.941 6774
3.403 8.506 2.038 1365
3.235 8.086 1.918 5606
3.549 8.871 2.091 1380
3.242 8.105 1.896 4653
3.412 8.530 1.988 1807
3.247 8.117 1.872 3770
3.414 8.535 1.961 2453
3.246 8.115 1.845 2992
3.414 8.533 1.933 1609
3.248 8.119 1.819 1669
3.773 9.433 2.093 1550
3.778 9.445 2.065 1791
3.882 9.705 2.118 1479
3.885 9.710 2.088 1576
3.783 9.458 2.037 1332
3.884 9.708 2.056 1507
4.222 10.554 2.224 1105
4.221 10.553 2.189 1606
3.883 9.706 2.024 1314
4.212 10.529 2.151 2046
4.354 10.884 2.219 1262
4.356 10.889 2.185 2369
4.211 10.527 2.116 1469
4.361 10.902 2.152 2431
4.306 10.764 2.126 1506
4.311 10.777 2.094 1799
4.407 11.016 2.137 1785
4.310 10.775 2.059 1931
4.424 11.058 2.109 1638
4.431 11.078 2.077 1910
4.359 10.896 2.046 1443
4.436 11.090 2.044 1677
4.367 10.916 2.014 1672
4.439 11.095 2.009 1752
4.375 10.935 1.982 1427
4.438 11.093 1.973 1625
4.705 11.761 2.084 1527
4.704 11.759 2.046 1607
4.431 11.076 1.935 1040
4.709 11.772 2.011 849
4.401 11.001 1.888 804
4.513 11.282 1.896 800
0.872 2.168 1.821 2422
0.874 2.172 1.814 4844
0.829 2.060 1.725 1047
0.876 2.177 1.807 4844
0.831 2.064 1.719 1047
0.883 2.193 1.810 4124
0.837 2.080 1.722 1140
0.899 2.234 1.831 5378
0.853 2.120 1.743 2781
0.903 2.244 1.829 5266
0.857 2.131 1.741 1983
0.912 2.267 1.835 5920
0.866 2.153 1.748 1582
0.914 2.271 1.828 5920
0.868 2.157 1.742 1582
0.909 2.258 1.808 6529
0.863 2.144 1.721 817
0.908 2.256 1.796 7897
0.954 2.371 1.882 816
0.910 2.261 1.789 7552
0.956 2.375 1.875 1080
0.931 2.314 1.818 8742
0.885 2.199 1.733 1322
0.916 2.276 1.780 8806
0.962 2.391 1.865 2294
0.915 2.274 1.768 10357
0.962 2.389 1.853 3595
0.919 2.285 1.766 9214
0.966 2.400 1.850 3236
0.946 2.350 1.803 10097
0.899 2.234 1.719 1077
0.945 2.348 1.791 11345
0.898 2.232 1.708 927
0.952 2.365 1.793 11928
0.905 2.249 1.710 1255
0.956 2.376 1.790 14079
1.003 2.492 1.873 1175
0.958 2.380 1.783 12022
1.005 2.497 1.865 1256
0.957 2.378 1.771 10130
1.012 2.514 1.866 1463
0.974 2.420 1.789 9314
0.927 2.303 1.708 1287
0.978 2.430 1.786 10144
1.025 2.548 1.867 1135
0.982 2.441 1.783 8699
1.030 2.559 1.864 1265
0.984 2.446 1.775 7273
1.032 2.563 1.856 1555
0.988 2.456 1.772 5925
1.036 2.574 1.852 2431
0.993 2.467 1.769 4764
1.040 2.585 1.848 3153
0.999 2.484 1.769 4567
1.047 2.602 1.849 2378
1.004 2.494 1.766 4592
1.052 2.613 1.845 2168
1.013 2.518 1.771 3447
1.061 2.636 1.849 1069
1.027 2.553 1.783 2861
1.032 2.564 1.780 3406
1.085 2.696 1.866 1207
1.034 2.568 1.772 3993
1.082 2.688 1.849 1723
1.043 2.592 1.776 5644
1.091 2.712 1.853 1704
1.047 2.602 1.772 7413
1.096 2.722 1.849 1481
1.047 2.601 1.760 6320
1.095 2.721 1.836 2754
1.048 2.605 1.752 4321
1.097 2.725 1.828 3750
1.093 2.717 1.812 4508
1.045 2.597 1.736 3095
1.095 2.722 1.803 4628
1.047 2.601 1.728 2155
1.089 2.707 1.783 4287
1.138 2.828 1.858 1169
1.089 2.705 1.771 6056
1.137 2.826 1.845 2877
1.088 2.703 1.758 8044
1.137 2.825 1.832 4744
1.092 2.714 1.754 7355
1.141 2.836 1.828 5087
1.099 2.731 1.753 4806
1.148 2.853 1.826 4624
1.116 2.774 1.768 5050
1.165 2.896 1.841 2640
1.152 2.862 1.809 5315
1.103 2.740 1.736 2872
1.154 2.867 1.800 6828
1.203 2.989 1.872 2798
1.155 2.871 1.791 5859
1.205 2.994 1.863 3043
1.168 2.901 1.797 4510
1.217 3.024 1.869 3145
1.206 2.997 1.841 5413
1.156 2.874 1.770 3364
1.187 2.949 1.802 5826
1.137 2.826 1.731 2063
1.191 2.960 1.796 6013
1.241 3.084 1.866 2541
1.196 2.971 1.791 5607
1.245 3.095 1.861 2426
1.237 3.073 1.836 5197
1.187 2.950 1.767 3504
1.241 3.084 1.830 7237
1.191 2.961 1.761 3976
1.243 3.089 1.821 7941
1.193 2.965 1.752 3252
1.242 3.087 1.808 7460
1.192 2.963 1.739 1930
1.241 3.085 1.795 6249
1.191 2.961 1.727 1377
1.272 3.162 1.824 5881
1.222 3.037 1.757 4590
1.274 3.166 1.814 7000
1.224 3.041 1.747 3980
1.281 3.184 1.811 8392
1.231 3.059 1.745 2664
1.283 3.188 1.802 9877
1.233 3.063 1.735 1498
1.288 3.200 1.795 7961
1.338 3.325 1.861 4053
1.292 3.211 1.789 6460
1.343 3.336 1.854 5060
1.291 3.208 1.775 6819
1.342 3.334 1.840 4853
1.282 3.186 1.752 6560
1.333 3.312 1.817 4095
1.321 3.284 1.789 6920
1.271 3.158 1.725 3786
1.339 3.328 1.799 7714
1.288 3.202 1.735 3295
1.344 3.339 1.792 8834
1.395 3.466 1.856 1787
1.348 3.350 1.785 7029
1.399 3.477 1.848 1330
1.374 3.415 1.805 9163
1.312 3.261 1.729 1434
1.376 3.419 1.794 11289
1.322 3.286 1.728 1351
1.375 3.417 1.780 9844
1.453 3.611 1.875 2271
1.374 3.415 1.766 8291
1.455 3.616 1.864 3092
1.392 3.459 1.775 6183
1.443 3.587 1.836 3415
1.397 3.471 1.767 4406
1.459 3.625 1.841 4108
1.463 3.636 1.833 5073
1.385 3.441 1.741 3459
1.473 3.661 1.831 4752
1.389 3.452 1.733 3865
1.494 3.713 1.842 5772
1.413 3.511 1.748 3395
1.496 3.718 1.830 6509
1.412 3.508 1.734 4220
1.498 3.722 1.819 5261
1.411 3.506 1.720 4190
1.412 3.510 1.709 4074
1.494 3.713 1.801 3287
1.488 3.697 1.780 3451
1.417 3.521 1.701 3160
1.492 3.708 1.772 4381
1.550 3.851 1.835 2585
1.552 3.856 1.823 5987
1.500 3.726 1.766 3876
1.534 3.812 1.790 7128
1.619 4.023 1.883 2405
1.533 3.810 1.776 4966
1.621 4.028 1.871 3174
1.626 4.040 1.861 3157
1.565 3.890 1.796 2604
1.567 3.894 1.784 3330
1.627 4.044 1.848 2903
1.569 3.898 1.772 3894
1.654 4.110 1.862 3037
1.653 4.108 1.846 2597
1.584 3.937 1.774 2530
1.594 3.962 1.771 2735
1.647 4.092 1.825 2344
1.673 4.158 1.838 3536
1.593 3.960 1.755 1773
1.678 4.170 1.828 4841
1.733 4.307 1.884 2166
1.655 4.113 1.789 4776
1.735 4.312 1.870 2574
1.662 4.131 1.782 5055
1.715 4.262 1.835 2352
1.681 4.177 1.786 3676
1.733 4.307 1.838 2447
1.735 4.312 1.825 3474
1.682 4.181 1.773 2385
1.745 4.337 1.819 4699
1.693 4.206 1.768 3385
1.750 4.349 1.808 4888
1.806 4.487 1.862 4676
1.807 4.492 1.848 6111
1.755 4.360 1.798 3386
1.784 4.434 1.810 8651
1.857 4.614 1.879 2815
1.814 4.508 1.823 8182
1.867 4.639 1.873 3073
1.819 4.519 1.811 5619
1.880 4.672 1.868 3344
1.896 4.711 1.867 4007
1.820 4.524 1.797 2528
1.898 4.716 1.852 4367
1.819 4.521 1.781 2221
1.897 4.713 1.835 4179
1.821 4.526 1.767 1569
1.901 4.725 1.823 5299
1.971 4.899 1.885 1743
1.912 4.750 1.815 4166
1.965 4.883 1.863 1916
1.930 4.797 1.815 4121
1.877 4.664 1.769 2461
1.935 4.808 1.803 5394
2.016 5.011 1.874 1690
1.942 4.827 1.793 4150
2.010 4.995 1.851 3148
2.009 4.992 1.833 3075
1.955 4.859 1.787 2660
2.005 4.983 1.813 2836
2.059 5.116 1.858 2756
1.999 4.966 1.790 2865
2.106 5.233 1.879 2830
2.108 5.237 1.863 2537
2.034 5.055 1.802 1963
2.107 5.235 1.844 2613
2.053 5.102 1.801 1996
2.140 5.317 1.853 2731
2.063 5.127 1.792 2427
2.108 5.237 1.809 3052
2.181 5.420 1.868 2525
2.115 5.256 1.798 2927
2.192 5.446 1.858 2695
2.159 5.366 1.815 3629
2.242 5.570 1.879 1996
2.164 5.378 1.800 3877
2.229 5.540 1.851 3366
2.237 5.559 1.838 3572
2.169 5.389 1.785 2040
2.279 5.662 1.850 2874
2.361 5.867 1.913 2147
2.286 5.681 1.837 3504
2.366 5.879 1.897 3348
2.373 5.898 1.883 4252
2.282 5.671 1.815 3433
2.407 5.980 1.887 5037
2.321 5.768 1.825 2269
2.406 5.978 1.866 5106
2.474 6.148 1.916 1749
2.413 5.997 1.852 4532
2.476 6.153 1.897 2361
2.418 6.009 1.835 3887
2.487 6.179 1.884 2225
2.589 6.432 1.934 2413
2.646 6.575 1.974 2411
2.651 6.587 1.956 3066
2.593 6.444 1.916 2004
2.650 6.584 1.933 3025
2.595 6.449 1.896 2011
2.649 6.582 1.911 2575
2.809 6.981 2.019 2058
2.820 7.007 2.003 2904
2.648 6.580 1.888 1846
2.825 7.020 1.983 3754
2.879 7.155 2.019 1982
2.867 7.124 1.987 2725
2.812 6.989 1.951 2057
2.869 7.129 1.965 2273
3.039 7.551 2.073 1881
2.940 7.306 1.986 1860
3.115 7.742 2.097 1698
3.112 7.733 2.069 3620
2.945 7.318 1.965 2488
3.114 7.738 2.045 6235
2.990 7.430 1.969 2257
3.116 7.743 2.021 7990
3.194 7.937 2.068 2536
3.118 7.748 1.996 7940
3.196 7.942 2.043 3847
3.120 7.753 1.972 5577
3.198 7.947 2.018 2852
3.238 8.045 2.015 4380
3.125 7.765 1.950 2777
3.240 8.050 1.990 5498
3.127 7.770 1.925 1283
3.244 8.062 1.967 6782
3.421 8.501 2.066 1397
3.246 8.067 1.941 6373
3.423 8.506 2.040 1650
3.254 8.087 1.919 5048
3.419 8.497 2.010 1761
3.259 8.099 1.896 4270
3.427 8.516 1.987 2402
3.264 8.111 1.872 3321
3.432 8.528 1.961 3181
3.263 8.108 1.845 2552
3.431 8.526 1.933 2101
3.790 9.418 2.091 1756
3.265 8.113 1.819 1485
3.798 9.437 2.065 1941
3.899 9.690 2.117 1594
3.902 9.695 2.086 1525
3.803 9.450 2.037 1515
3.901 9.693 2.054 1427
3.805 9.455 2.007 1330
4.231 10.515 2.184 1616
3.804 9.453 1.976 1604
4.234 10.520 2.151 2012
3.803 9.450 1.945 1480
4.378 10.880 2.185 2576
4.247 10.555 2.123 1509
4.381 10.886 2.150 2584
4.319 10.734 2.122 1635
4.330 10.761 2.093 1750
4.386 10.898 2.118 1631
4.332 10.766 2.059 1796
4.446 11.049 2.109 1568
4.454 11.068 2.077 1844
4.381 10.887 2.046 1348
4.456 11.074 2.043 1716
4.389 10.907 2.014 1613
4.458 11.079 2.008 1865
4.397 10.926 1.982 1436
4.729 11.752 2.084 1776
4.460 11.084 1.973 1725
4.731 11.757 2.047 1923
4.456 11.074 1.936 1041
4.736 11.769 2.012 1083
4.534 11.268 1.932 872
4.536 11.273 1.896 836
0.878 2.165 1.821 2275
0.880 2.170 1.814 4550
0.835 2.057 1.725 1113
0.882 2.174 1.807 4550
0.836 2.062 1.719 1113
0.872 2.149 1.777 4101
0.918 2.262 1.866 2179
0.905 2.231 1.831 5237
0.859 2.118 1.743 2976
0.909 2.242 1.829 5461
0.863 2.128 1.741 2209
0.919 2.264 1.835 6311
0.872 2.150 1.748 1930
0.920 2.269 1.828 6311
0.874 2.155 1.742 1930
0.913 2.249 1.803 7415
0.959 2.363 1.890 874
0.909 2.242 1.787 9423
0.956 2.356 1.873 1652
0.911 2.246 1.780 8542
0.958 2.361 1.866 1710
0.938 2.311 1.818 8177
0.891 2.196 1.733 1336
0.920 2.267 1.775 8874
0.966 2.382 1.860 2681
0.922 2.271 1.768 10190
0.968 2.387 1.853 3986
0.953 2.349 1.815 9288
0.906 2.233 1.730 2443
0.952 2.347 1.803 9973
0.905 2.232 1.719 1092
0.949 2.340 1.787 11048
0.996 2.455 1.870 1052
0.953 2.350 1.784 10975
1.001 2.466 1.867 1256
0.963 2.373 1.790 12877
1.010 2.489 1.873 1067
0.965 2.377 1.783 11401
1.012 2.494 1.865 1070
0.964 2.376 1.771 10183
1.011 2.493 1.853 1231
0.981 2.417 1.789 9118
0.933 2.300 1.708 1709
0.985 2.428 1.786 10066
0.937 2.310 1.705 1454
0.989 2.438 1.783 8576
0.942 2.321 1.702 1232
0.991 2.443 1.775 7137
1.039 2.560 1.856 1399
0.995 2.453 1.772 5647
1.043 2.571 1.852 2379
1.035 2.551 1.827 4775
0.987 2.433 1.748 3527
1.039 2.562 1.824 4344
0.991 2.443 1.744 3315
1.008 2.485 1.762 4074
1.056 2.604 1.841 2619
1.040 2.565 1.804 3648
0.992 2.446 1.725 1829
1.035 2.550 1.783 3824
1.083 2.669 1.862 948
1.039 2.561 1.780 4182
1.093 2.693 1.866 1272
1.041 2.565 1.772 4549
1.097 2.704 1.861 1713
1.050 2.589 1.776 5643
1.099 2.708 1.853 1740
1.055 2.600 1.772 7126
1.103 2.719 1.849 1504
1.054 2.598 1.760 6345
1.103 2.718 1.836 2672
1.056 2.602 1.752 4483
1.104 2.722 1.828 3578
1.104 2.720 1.815 4442
1.055 2.600 1.740 3356
1.106 2.725 1.807 4902
1.057 2.604 1.732 2365
1.105 2.723 1.795 4676
1.056 2.602 1.720 1325
1.096 2.702 1.771 6311
1.145 2.823 1.845 2973
1.095 2.700 1.758 8274
1.145 2.821 1.832 4930
1.100 2.711 1.754 7648
1.149 2.832 1.828 5354
1.154 2.843 1.823 4999
1.104 2.722 1.749 4771
1.124 2.771 1.768 4996
1.174 2.893 1.841 2931
1.160 2.859 1.809 5367
1.110 2.737 1.736 2489
1.162 2.863 1.800 6727
1.211 2.986 1.872 2693
1.169 2.881 1.799 5871
1.218 3.003 1.870 2496
1.176 2.898 1.797 4548
1.226 3.021 1.869 3015
1.196 2.948 1.814 5471
1.146 2.825 1.743 2733
1.198 2.952 1.805 5882
1.148 2.829 1.735 2809
1.200 2.957 1.796 6069
1.250 3.080 1.866 2410
1.204 2.968 1.791 5635
1.254 3.091 1.861 2350
1.245 3.070 1.836 5210
1.195 2.946 1.767 3537
1.250 3.081 1.830 7313
1.200 2.957 1.761 3942
1.249 3.079 1.817 7898
1.199 2.955 1.749 2883
1.251 3.084 1.808 7442
1.201 2.959 1.739 1874
1.253 3.088 1.798 6216
1.202 2.964 1.730 1596
1.281 3.158 1.824 6651
1.231 3.034 1.757 4510
1.280 3.156 1.811 7744
1.230 3.031 1.744 3828
1.290 3.180 1.811 8229
1.240 3.055 1.745 2710
1.295 3.191 1.805 9667
1.244 3.066 1.739 1544
1.299 3.202 1.799 7823
1.350 3.328 1.865 3882
1.301 3.207 1.789 6599
1.352 3.332 1.854 4767
1.300 3.205 1.775 7087
1.351 3.330 1.840 4450
1.294 3.189 1.755 7221
1.345 3.315 1.820 3589
1.325 3.267 1.783 6414
1.274 3.141 1.718 3204
1.351 3.331 1.803 7141
1.300 3.205 1.739 3723
1.356 3.342 1.796 8358
1.305 3.216 1.732 1589
1.360 3.353 1.789 6859
1.412 3.480 1.852 1718
1.384 3.411 1.805 9451
1.319 3.251 1.725 1122
1.386 3.415 1.794 11020
1.323 3.262 1.719 1179
1.385 3.413 1.780 9788
1.463 3.607 1.875 2484
1.384 3.411 1.766 8267
1.463 3.605 1.860 3362
1.388 3.422 1.759 5362
1.464 3.610 1.849 3378
1.409 3.473 1.771 5704
1.469 3.621 1.841 3517
1.414 3.484 1.763 6274
1.479 3.646 1.839 4176
1.435 3.536 1.774 4684
1.486 3.664 1.834 4457
1.505 3.709 1.842 5547
1.406 3.466 1.729 3697
1.507 3.713 1.830 6222
1.416 3.491 1.727 3658
1.508 3.718 1.819 5011
1.421 3.502 1.720 3180
1.502 3.702 1.798 3381
1.422 3.506 1.709 2321
1.498 3.693 1.780 3642
1.421 3.503 1.695 1292
1.503 3.704 1.772 4410
1.561 3.847 1.835 2405
1.562 3.851 1.823 5842
1.510 3.722 1.766 4203
1.562 3.849 1.808 6773
1.509 3.720 1.752 2629
1.541 3.799 1.773 5027
1.632 4.023 1.871 3223
1.637 4.035 1.861 3280
1.540 3.797 1.758 2478
1.644 4.053 1.854 3054
1.578 3.890 1.784 2963
1.580 3.894 1.772 3945
1.666 4.106 1.862 3108
1.593 3.926 1.771 2974
1.665 4.103 1.846 2506
1.606 3.957 1.771 2835
1.658 4.087 1.825 2110
1.685 4.154 1.838 3395
1.610 3.969 1.761 2119
1.690 4.165 1.828 4519
1.745 4.302 1.884 2018
1.689 4.163 1.812 4191
1.750 4.314 1.873 2523
1.685 4.154 1.793 4428
1.738 4.284 1.846 2376
1.695 4.179 1.789 3464
1.748 4.309 1.841 2567
1.745 4.300 1.822 3735
1.692 4.169 1.770 2167
1.758 4.332 1.819 4614
1.704 4.201 1.768 3283
1.762 4.344 1.808 5019
1.821 4.489 1.865 4134
1.820 4.486 1.848 5750
1.761 4.341 1.792 3539
1.794 4.422 1.808 8794
1.867 4.602 1.876 2820
1.827 4.502 1.823 8662
1.880 4.634 1.873 3312
1.831 4.514 1.811 6026
1.890 4.660 1.866 3497
1.906 4.699 1.864 4253
1.830 4.512 1.795 2633
1.911 4.710 1.852 4685
1.832 4.516 1.781 2411
1.910 4.708 1.835 4674
1.834 4.520 1.767 1842
1.915 4.720 1.823 5710
1.985 4.894 1.885 1670
1.925 4.745 1.815 4139
1.871 4.613 1.768 1831
1.944 4.791 1.815 3752
1.890 4.659 1.769 2386
1.949 4.803 1.803 5265
1.895 4.670 1.756 1614
1.956 4.821 1.793 4128
2.024 4.989 1.851 2901
1.975 4.868 1.792 3007
2.029 5.001 1.838 2581
2.019 4.977 1.813 2694
2.073 5.110 1.858 2501
2.118 5.220 1.877 2591
2.013 4.961 1.790 2587
2.120 5.224 1.861 2740
2.049 5.049 1.802 2239
2.121 5.229 1.844 3127
2.067 5.096 1.801 1826
2.155 5.311 1.853 3192
2.078 5.121 1.792 2269
2.125 5.238 1.812 2862
2.196 5.414 1.868 2353
2.130 5.250 1.798 2766
2.216 5.461 1.865 2530
2.175 5.360 1.815 3665
2.240 5.522 1.866 2170
2.179 5.371 1.800 4194
2.245 5.534 1.851 3691
2.250 5.545 1.835 4041
2.184 5.383 1.785 2283
2.289 5.642 1.846 2684
2.378 5.860 1.913 2120
2.382 5.872 1.897 3255
2.299 5.667 1.835 3255
2.424 5.976 1.908 4608
2.301 5.672 1.817 3419
2.424 5.974 1.887 5925
2.360 5.818 1.841 2414
2.420 5.964 1.864 5711
2.365 5.830 1.825 1962
2.430 5.990 1.852 5321
2.493 6.146 1.897 2244
2.435 6.002 1.835 5002
2.599 6.406 1.950 2354
2.440 6.013 1.818 2875
2.607 6.425 1.934 2443
2.672 6.586 1.958 2757
2.447 6.032 1.804 2016
2.668 6.577 1.933 3206
2.611 6.435 1.894 2067
2.667 6.575 1.911 2924
2.745 6.767 1.963 2138
2.840 6.999 2.003 2804
2.666 6.572 1.888 1903
2.845 7.012 1.983 3766
2.900 7.147 2.019 1856
2.887 7.116 1.987 2951
2.832 6.981 1.951 2158
2.892 7.128 1.966 2645
3.060 7.542 2.073 1904
2.897 7.140 1.946 1761
3.137 7.733 2.097 1735
3.134 7.724 2.069 3796
2.966 7.310 1.965 2369
3.136 7.729 2.045 6474
3.011 7.422 1.969 2311
3.138 7.734 2.021 8298
3.216 7.928 2.068 2515
3.140 7.739 1.996 8321
3.218 7.933 2.043 3644
3.142 7.744 1.972 5846
3.258 8.031 2.040 2896
3.257 8.029 2.014 4475
3.147 7.756 1.950 2853
3.262 8.041 1.990 5401
3.149 7.761 1.925 1285
3.267 8.053 1.967 6376
3.445 8.491 2.066 1426
3.269 8.058 1.941 5806
3.447 8.496 2.040 1801
3.277 8.077 1.919 4533
3.443 8.487 2.010 2058
3.282 8.089 1.896 3837
3.451 8.506 1.987 2822
3.456 8.519 1.961 3615
3.287 8.101 1.872 2923
3.452 8.509 1.932 2440
3.286 8.099 1.845 2194
3.819 9.414 2.093 1807
3.288 8.103 1.819 1329
3.824 9.427 2.065 2047
3.927 9.679 2.117 1592
3.829 9.439 2.037 1674
3.929 9.684 2.086 1476
3.832 9.444 2.007 1546
3.928 9.682 2.054 1385
3.831 9.442 1.976 1895
4.261 10.503 2.184 1591
4.266 10.516 2.152 1930
3.830 9.440 1.945 1774
4.409 10.868 2.185 2577
4.277 10.543 2.123 1620
4.411 10.873 2.150 2550
4.350 10.722 2.122 1840
4.361 10.749 2.093 1768
4.417 10.886 2.118 1588
4.363 10.754 2.059 1712
4.539 11.188 2.137 1508
4.485 11.056 2.077 1785
4.412 10.875 2.046 1277
4.488 11.061 2.043 1671
4.420 10.894 2.014 1593
4.490 11.066 2.008 1778
4.428 10.914 1.982 1440
4.762 11.738 2.084 1895
4.492 11.071 1.973 1663
4.764 11.743 2.047 2106
4.491 11.069 1.937 994
4.769 11.756 2.012 1238
4.563 11.248 1.930 976
4.568 11.260 1.896 852
0.882 2.157 1.816 2366
0.884 2.162 1.809 4733
0.838 2.049 1.720 1192
0.886 2.166 1.803 4733
0.840 2.053 1.714 1192
0.878 2.147 1.777 4554
0.924 2.260 1.866 2242
0.914 2.235 1.835 5053
0.867 2.121 1.748 3401
0.915 2.239 1.829 5514
0.869 2.126 1.741 2332
0.925 2.262 1.835 6531
0.878 2.148 1.748 2195
0.927 2.266 1.828 6531
0.880 2.152 1.742 2195
0.919 2.247 1.803 7705
0.965 2.361 1.890 998
0.915 2.239 1.787 9948
0.962 2.353 1.873 1823
0.915 2.238 1.776 9046
0.962 2.352 1.861 2391
0.917 2.242 1.769 8312
0.964 2.357 1.854 2447
0.926 2.265 1.775 9161
0.973 2.379 1.860 3110
0.928 2.269 1.768 10560
0.975 2.384 1.853 4683
0.959 2.346 1.815 9754
0.912 2.231 1.730 2618
0.959 2.345 1.803 10102
0.911 2.229 1.719 1202
0.953 2.331 1.782 11641
1.000 2.447 1.866 1186
0.955 2.335 1.775 10863
1.002 2.451 1.858 1617
0.972 2.376 1.794 11677
0.924 2.260 1.711 962
0.971 2.375 1.783 10655
1.019 2.491 1.865 874
0.968 2.367 1.767 10098
1.015 2.484 1.849 1443
0.987 2.414 1.789 9054
0.939 2.297 1.708 1975
0.991 2.425 1.786 10148
0.944 2.308 1.705 1662
0.993 2.429 1.779 8647
1.041 2.547 1.859 1383
0.998 2.440 1.775 7257
1.046 2.558 1.856 1241
1.002 2.451 1.772 5601
1.050 2.568 1.852 2194
1.042 2.548 1.827 4710
0.994 2.430 1.748 3343
1.044 2.553 1.820 4075
0.995 2.435 1.740 3010
1.015 2.483 1.762 3864
1.063 2.601 1.841 2641
1.045 2.556 1.800 4198
0.996 2.437 1.721 1752
1.044 2.554 1.788 5254
1.093 2.673 1.866 1109
1.046 2.558 1.780 5499
1.095 2.677 1.858 1420
1.048 2.563 1.772 5745
1.104 2.701 1.861 1865
1.055 2.580 1.772 5890
1.104 2.699 1.849 1945
1.059 2.590 1.768 6522
1.108 2.710 1.845 1879
1.061 2.595 1.760 5942
1.110 2.715 1.836 2642
1.060 2.593 1.748 4258
1.112 2.719 1.828 3405
1.114 2.724 1.819 4424
1.062 2.597 1.740 3198
1.113 2.722 1.807 5265
1.064 2.601 1.732 2293
1.107 2.707 1.787 5227
1.162 2.841 1.870 1211
1.106 2.706 1.774 6587
1.156 2.826 1.849 2950
1.105 2.704 1.762 8259
1.155 2.825 1.836 4982
1.107 2.708 1.754 7825
1.157 2.829 1.828 5660
1.164 2.847 1.826 5391
1.114 2.725 1.753 5074
1.134 2.774 1.772 5289
1.184 2.896 1.845 2846
1.168 2.856 1.809 5080
1.118 2.734 1.736 2232
1.172 2.867 1.804 6143
1.222 2.989 1.876 2027
1.179 2.884 1.802 5623
1.129 2.762 1.731 2288
1.199 2.934 1.820 4547
1.147 2.805 1.745 3091
1.204 2.945 1.814 5784
1.154 2.822 1.743 3482
1.206 2.949 1.805 5898
1.155 2.826 1.735 3544
1.208 2.954 1.796 5823
1.157 2.830 1.726 2588
1.212 2.965 1.791 5518
1.262 3.088 1.861 2293
1.254 3.067 1.836 5172
1.203 2.943 1.767 3553
1.258 3.078 1.830 7384
1.208 2.954 1.761 3898
1.257 3.076 1.817 7921
1.207 2.952 1.749 2796
1.259 3.080 1.808 7352
1.209 2.956 1.739 1803
1.285 3.143 1.830 6246
1.234 3.019 1.762 2988
1.290 3.155 1.824 7579
1.239 3.030 1.757 4427
1.286 3.146 1.807 8479
1.235 3.021 1.740 3730
1.302 3.183 1.815 7863
1.251 3.059 1.748 2895
1.306 3.194 1.809 9325
1.357 3.319 1.875 1451
1.311 3.206 1.802 7936
1.362 3.331 1.868 3883
1.312 3.210 1.792 7359
1.364 3.335 1.858 4584
1.312 3.208 1.779 8033
1.363 3.333 1.844 4244
1.305 3.192 1.759 7768
1.357 3.318 1.823 3933
1.307 3.197 1.749 7067
1.364 3.336 1.820 4479
1.363 3.334 1.806 7243
1.312 3.208 1.742 4457
1.365 3.338 1.796 8394
1.313 3.212 1.732 1575
1.369 3.349 1.789 6972
1.421 3.476 1.852 882
1.393 3.407 1.805 8998
1.341 3.281 1.742 1156
1.395 3.412 1.794 10733
1.447 3.538 1.856 1380
1.391 3.403 1.777 9247
1.443 3.530 1.839 3180
1.426 3.487 1.805 8012
1.374 3.360 1.744 3849
1.425 3.485 1.791 5763
1.477 3.612 1.852 3583
1.462 3.577 1.822 3827
1.410 3.449 1.761 3577
1.437 3.514 1.779 4457
1.489 3.642 1.839 4403
1.422 3.478 1.749 5980
1.513 3.700 1.853 4164
1.427 3.489 1.741 6887
1.517 3.711 1.845 5412
1.431 3.500 1.734 7310
1.519 3.716 1.833 5919
1.433 3.505 1.723 7482
1.521 3.721 1.822 4826
1.432 3.502 1.709 6118
1.509 3.691 1.795 3554
1.508 3.689 1.780 4157
1.434 3.506 1.698 3605
1.513 3.700 1.772 4340
1.571 3.842 1.835 2283
1.576 3.854 1.826 5402
1.523 3.725 1.769 4280
1.575 3.851 1.811 6236
1.522 3.722 1.755 2710
1.552 3.795 1.773 5245
1.640 4.012 1.868 3151
1.551 3.792 1.758 3521
1.651 4.037 1.864 3255
1.658 4.056 1.857 3063
1.583 3.872 1.778 2641
1.590 3.890 1.772 4187
1.677 4.101 1.862 3068
1.603 3.921 1.771 4155
1.681 4.113 1.852 2236
1.616 3.953 1.771 3681
1.669 4.083 1.825 2079
1.624 3.971 1.764 3083
1.696 4.149 1.838 2947
1.701 4.161 1.828 3739
1.623 3.969 1.749 2097
1.706 4.172 1.817 3627
1.762 4.309 1.873 2642
1.699 4.156 1.796 3616
1.752 4.286 1.849 2250
1.721 4.208 1.802 3099
1.788 4.373 1.868 1701
1.756 4.295 1.822 4220
1.703 4.165 1.770 2315
1.761 4.307 1.811 5235
1.707 4.176 1.760 2618
1.774 4.339 1.808 5298
1.720 4.208 1.758 3487
1.841 4.502 1.856 5374
1.787 4.371 1.806 4017
1.806 4.417 1.808 8002
1.860 4.548 1.858 2944
1.839 4.498 1.823 8517
1.893 4.629 1.873 3682
1.844 4.509 1.811 5877
1.897 4.641 1.861 3896
1.919 4.694 1.864 4641
1.843 4.507 1.795 2362
1.924 4.705 1.852 5157
1.842 4.504 1.778 2380
1.923 4.703 1.835 5161
1.843 4.508 1.764 2063
1.930 4.721 1.825 6213
1.876 4.589 1.778 1698
1.935 4.733 1.813 4484
1.989 4.865 1.860 1767
1.960 4.793 1.818 3276
1.906 4.661 1.771 2036
1.962 4.798 1.803 5071
1.907 4.665 1.756 1589
1.966 4.809 1.790 3899
2.038 4.983 1.851 2436
1.988 4.862 1.792 3230
2.042 4.995 1.838 2239
1.993 4.874 1.779 2597
2.093 5.118 1.862 2309
2.129 5.207 1.875 2429
2.057 5.032 1.816 2204
2.134 5.219 1.861 2978
2.062 5.044 1.802 2582
2.136 5.223 1.844 3599
2.070 5.062 1.791 1726
2.169 5.305 1.853 3451
2.092 5.116 1.792 2116
2.139 5.232 1.812 2684
2.223 5.436 1.877 2232
2.233 5.462 1.867 2752
2.144 5.244 1.798 2658
2.189 5.354 1.815 3639
2.252 5.509 1.863 2501
2.194 5.366 1.800 4794
2.260 5.527 1.851 4022
2.265 5.539 1.835 4304
2.198 5.377 1.785 2686
2.304 5.635 1.846 2634
2.243 5.487 1.801 2430
2.317 5.668 1.837 3373
2.439 5.965 1.927 2946
2.441 5.969 1.908 5615
2.316 5.666 1.817 3430
2.443 5.974 1.889 6866
2.376 5.812 1.841 2698
2.439 5.965 1.866 6656
2.384 5.830 1.827 2833
2.446 5.983 1.852 6681
2.391 5.849 1.813 2386
2.451 5.995 1.835 6379
2.616 6.399 1.950 2540
2.456 6.007 1.818 4050
2.621 6.411 1.932 2530
2.704 6.614 1.968 2671
2.461 6.018 1.802 2519
2.706 6.619 1.947 3310
2.625 6.421 1.892 2261
2.697 6.596 1.918 3155
2.766 6.766 1.965 2696
2.861 6.999 2.005 2681
2.766 6.764 1.942 1759
2.864 7.004 1.983 3704
2.768 6.769 1.920 1726
2.906 7.108 1.987 3318
2.851 6.973 1.951 2158
2.908 7.113 1.965 3223
3.028 7.406 2.040 1915
2.916 7.133 1.946 1958
3.027 7.404 2.015 1766
3.155 7.716 2.069 3787
3.076 7.523 2.021 1978
3.157 7.721 2.045 6422
3.031 7.414 1.969 2185
3.159 7.726 2.021 8162
3.238 7.919 2.068 2396
3.161 7.731 1.996 8206
3.240 7.924 2.043 3326
3.163 7.736 1.972 5787
3.277 8.015 2.039 3013
3.279 8.020 2.014 4563
3.168 7.748 1.950 2761
3.281 8.025 1.988 5069
3.167 7.746 1.924 1292
3.289 8.044 1.967 5545
3.471 8.489 2.068 1345
3.294 8.056 1.943 4722
3.470 8.487 2.040 1978
3.305 8.083 1.922 3493
3.469 8.485 2.012 2520
3.471 8.490 1.985 3324
3.307 8.088 1.897 2923
3.476 8.502 1.960 3901
3.309 8.092 1.872 2165
3.475 8.500 1.932 2670
3.840 9.391 2.121 1673
3.845 9.404 2.093 1901
3.468 8.483 1.901 1384
3.850 9.416 2.065 2148
3.953 9.668 2.117 1508
3.855 9.429 2.037 1864
3.952 9.666 2.085 1362
3.857 9.434 2.007 1849
4.193 10.255 2.171 1385
3.856 9.431 1.976 2299
4.289 10.491 2.184 1499
3.855 9.429 1.945 2152
4.298 10.511 2.153 1750
4.439 10.856 2.185 2561
3.860 9.441 1.917 1796
4.441 10.861 2.150 2396
4.379 10.710 2.122 1975
4.387 10.730 2.091 1672
4.301 10.520 2.053 1543
4.392 10.742 2.059 1423
4.569 11.176 2.137 1396
4.512 11.036 2.076 1593
4.444 10.870 2.047 1154
4.514 11.042 2.041 1511
4.449 10.882 2.014 1456
4.519 11.054 2.008 1623
4.638 11.344 2.057 1436
4.797 11.733 2.085 1930
4.522 11.059 1.973 1544
4.796 11.730 2.047 2216
4.524 11.064 1.939 934
4.801 11.743 2.012 1334
4.594 11.235 1.930 966
4.599 11.247 1.896 809
4.791 11.719 1.970 793
0.885 2.156 1.816 2364
0.887 2.160 1.809 4728
0.841 2.048 1.720 1237
0.889 2.165 1.803 4728
0.842 2.052 1.714 1237
0.881 2.146 1.777 4745
0.927 2.258 1.866 2187
0.883 2.150 1.771 5064
0.929 2.263 1.859 2709
0.919 2.238 1.829 5324
0.872 2.125 1.741 2393
0.930 2.266 1.840 6323
0.884 2.153 1.753 2856
0.932 2.271 1.833 6323
0.885 2.157 1.746 2856
0.917 2.233 1.794 7908
0.964 2.347 1.880 1764
0.916 2.232 1.783 10306
0.963 2.346 1.869 2441
0.918 2.236 1.776 9732
0.965 2.351 1.861 2490
0.920 2.241 1.769 9159
0.967 2.355 1.854 2539
0.927 2.257 1.771 9506
0.974 2.372 1.856 3715
0.931 2.268 1.768 10686
0.978 2.383 1.853 5022
0.963 2.345 1.815 10022
0.915 2.230 1.730 2592
0.962 2.343 1.803 10171
0.914 2.228 1.719 1170
0.951 2.317 1.774 12092
0.999 2.433 1.857 1780
0.956 2.328 1.771 11101
1.003 2.444 1.854 1781
0.975 2.375 1.794 11003
0.927 2.259 1.711 1123
0.974 2.373 1.783 10275
1.022 2.490 1.865 859
0.961 2.341 1.749 10293
1.009 2.458 1.831 4685
0.990 2.413 1.789 9004
0.943 2.296 1.708 2043
0.995 2.424 1.786 10253
0.947 2.307 1.705 1603
0.997 2.428 1.779 8784
1.045 2.545 1.859 1380
1.001 2.439 1.775 7404
1.049 2.556 1.856 1221
1.003 2.443 1.768 5610
1.051 2.561 1.848 2403
1.040 2.534 1.819 4629
0.992 2.416 1.739 3059
1.045 2.545 1.815 4039
0.996 2.427 1.736 2774
1.029 2.506 1.778 3811
1.077 2.624 1.857 1149
1.046 2.548 1.795 4782
0.997 2.429 1.717 1612
1.045 2.546 1.783 6288
1.094 2.665 1.862 1307
1.050 2.557 1.780 6338
1.098 2.676 1.858 1461
1.051 2.561 1.772 6414
1.108 2.699 1.861 1888
1.058 2.578 1.772 6265
1.107 2.698 1.849 1969
1.063 2.589 1.768 6569
1.112 2.709 1.845 1901
1.064 2.593 1.760 6233
1.114 2.713 1.836 2501
1.066 2.598 1.752 4680
1.116 2.718 1.828 3100
1.117 2.722 1.819 4262
1.065 2.596 1.740 3559
1.117 2.720 1.807 5305
1.067 2.600 1.732 2424
1.108 2.700 1.783 5448
1.158 2.820 1.858 1288
1.110 2.704 1.774 6750
1.160 2.825 1.849 3028
1.109 2.702 1.762 8228
1.159 2.823 1.836 5121
1.111 2.706 1.754 7839
1.161 2.828 1.828 5813
1.168 2.845 1.826 5573
1.118 2.724 1.753 5259
1.138 2.773 1.772 5114
1.188 2.894 1.845 2987
1.172 2.854 1.809 4863
1.122 2.732 1.736 2174
1.176 2.865 1.804 5722
1.226 2.987 1.876 1793
1.183 2.882 1.802 5457
1.133 2.760 1.731 2131
1.204 2.932 1.820 4548
1.151 2.803 1.745 3272
1.208 2.943 1.814 5668
1.158 2.820 1.743 3922
1.210 2.947 1.805 5561
1.159 2.825 1.735 3955
1.212 2.952 1.796 5304
1.161 2.829 1.726 2841
1.216 2.963 1.791 4992
1.267 3.086 1.861 2167
1.258 3.065 1.836 5081
1.207 2.941 1.767 3341
1.263 3.076 1.830 7303
1.212 2.952 1.761 3517
1.262 3.074 1.817 7851
1.211 2.950 1.749 2416
1.264 3.078 1.808 7204
1.213 2.954 1.739 1733
1.292 3.148 1.834 6586
1.236 3.011 1.759 3599
1.294 3.153 1.824 8035
1.238 3.015 1.749 4662
1.291 3.144 1.807 8680
1.240 3.020 1.740 3951
1.309 3.188 1.819 7237
1.257 3.063 1.752 3080
1.313 3.199 1.812 8694
0.882 2.147 1.254 2891
1.315 3.204 1.802 8125
1.366 3.329 1.868 3947
1.320 3.215 1.796 8243
1.371 3.340 1.861 4180
1.319 3.213 1.782 8784
1.370 3.338 1.847 3998
1.310 3.191 1.759 8076
1.361 3.316 1.823 4488
1.311 3.195 1.749 7255
1.369 3.334 1.820 5186
1.370 3.339 1.809 7469
1.319 3.213 1.745 4731
1.372 3.343 1.799 8377
1.320 3.217 1.735 1715
1.377 3.354 1.792 6997
0.888 2.164 1.197 1283
1.398 3.405 1.805 8605
1.346 3.279 1.742 1517
1.400 3.410 1.794 10094
1.457 3.550 1.863 1221
1.396 3.401 1.777 9106
1.448 3.528 1.839 2303
1.414 3.445 1.786 7920
1.480 3.606 1.864 3126
1.422 3.463 1.781 7414
1.474 3.590 1.843 3162
1.426 3.474 1.774 7036
1.484 3.615 1.841 3189
1.425 3.472 1.760 6795
1.491 3.633 1.836 3701
1.430 3.483 1.752 7386
1.518 3.698 1.853 3967
1.431 3.487 1.741 9102
1.523 3.709 1.845 5607
1.433 3.492 1.731 9059
1.524 3.714 1.833 6419
1.435 3.496 1.720 8205
1.526 3.718 1.822 5446
1.437 3.500 1.709 6765
1.514 3.689 1.795 4262
1.513 3.687 1.780 4374
1.438 3.504 1.698 3964
1.521 3.705 1.775 4314
1.574 3.833 1.832 2240
1.581 3.851 1.826 5146
1.528 3.723 1.769 4298
1.583 3.856 1.814 5840
1.530 3.727 1.758 2457
1.557 3.793 1.773 5125
1.649 4.017 1.871 3018
1.556 3.790 1.758 4095
1.656 4.035 1.864 3342
1.664 4.053 1.857 3179
1.588 3.869 1.778 2419
1.599 3.894 1.775 4058
1.682 4.099 1.862 2998
1.609 3.919 1.771 4759
1.690 4.117 1.855 2279
1.622 3.951 1.771 4257
1.675 4.081 1.825 2433
1.629 3.969 1.764 3589
1.705 4.154 1.840 2840
1.707 4.158 1.828 3433
1.628 3.966 1.749 2249
1.709 4.163 1.815 3314
1.771 4.313 1.876 2629
1.708 4.160 1.799 3288
1.770 4.311 1.860 2303
1.726 4.206 1.802 3253
1.791 4.364 1.865 2072
1.759 4.286 1.819 4472
1.706 4.155 1.767 2530
1.767 4.304 1.811 5473
1.713 4.174 1.760 2539
1.777 4.330 1.806 5094
1.831 4.461 1.857 3248
1.844 4.493 1.853 5533
1.790 4.362 1.803 3733
1.809 4.408 1.805 7483
1.863 4.539 1.855 3417
1.842 4.488 1.820 8771
1.896 4.619 1.870 3844
1.847 4.500 1.809 5884
1.901 4.631 1.858 4032
1.926 4.691 1.864 4718
1.849 4.504 1.795 2142
1.930 4.703 1.852 5198
1.848 4.502 1.778 2012
1.929 4.700 1.835 5137
1.847 4.499 1.761 1852
1.937 4.719 1.825 6345
1.883 4.587 1.778 1775
1.942 4.730 1.813 4800
1.887 4.598 1.766 1742
1.966 4.790 1.818 2976
1.912 4.658 1.771 1785
1.968 4.795 1.803 4841
1.914 4.663 1.756 1575
1.970 4.799 1.788 3824
2.044 4.981 1.851 2196
1.995 4.860 1.792 2992
2.049 4.992 1.838 2095
1.999 4.871 1.779 2390
2.134 5.199 1.891 2331
2.136 5.204 1.875 2500
2.067 5.036 1.818 2339
2.141 5.216 1.861 3045
2.069 5.041 1.802 2649
2.146 5.227 1.847 3614
2.074 5.052 1.789 1661
2.176 5.302 1.853 3407
2.099 5.113 1.792 2000
2.149 5.237 1.814 2294
2.233 5.440 1.880 2087
2.241 5.459 1.867 2701
2.151 5.241 1.798 2306
2.196 5.351 1.815 3578
2.260 5.506 1.863 2492
2.201 5.362 1.800 5182
2.268 5.524 1.851 3940
2.272 5.536 1.835 4250
2.206 5.374 1.785 2957
2.251 5.484 1.801 2748
2.312 5.632 1.846 2420
2.447 5.961 1.927 3166
2.325 5.665 1.837 3100
2.449 5.966 1.908 5856
2.324 5.662 1.817 3059
2.451 5.971 1.889 6875
2.396 5.836 1.850 2977
2.444 5.954 1.864 6568
2.389 5.820 1.825 3385
2.455 5.980 1.852 6849
2.399 5.846 1.813 2754
2.459 5.992 1.835 6862
2.625 6.395 1.950 2749
2.461 5.996 1.816 4684
2.627 6.400 1.930 2752
2.469 6.015 1.802 2796
2.716 6.618 1.970 2565
2.716 6.616 1.947 3236
2.634 6.417 1.892 2314
2.709 6.599 1.920 3299
2.776 6.762 1.965 2783
2.871 6.995 2.005 2594
2.717 6.618 1.903 1948
2.876 7.007 1.985 3575
2.777 6.765 1.920 1989
2.916 7.104 1.987 3274
2.861 6.969 1.951 2015
2.918 7.109 1.965 3384
3.035 7.394 2.038 1972
2.926 7.129 1.946 2043
3.037 7.399 2.015 1777
3.165 7.711 2.069 3533
3.089 7.526 2.022 1780
3.167 7.716 2.045 5961
3.041 7.409 1.969 1976
3.169 7.721 2.021 7470
3.249 7.914 2.068 2148
3.172 7.726 1.996 7504
3.254 7.927 2.045 2891
3.174 7.731 1.972 5430
3.285 8.003 2.037 3052
3.287 8.008 2.012 4598
3.179 7.744 1.950 2647
3.292 8.021 1.988 4769
3.395 8.271 2.047 1288
3.300 8.040 1.967 4786
3.483 8.484 2.068 1231
3.308 8.059 1.945 3903
3.485 8.489 2.041 1923
3.319 8.085 1.924 2859
3.481 8.480 2.012 2627
3.483 8.485 1.985 3587
3.318 8.083 1.897 2302
3.488 8.497 1.960 3963
3.320 8.088 1.872 1686
3.487 8.495 1.932 2822
3.853 9.386 2.121 1648
3.858 9.398 2.093 1835
3.480 8.478 1.901 1429
3.863 9.411 2.065 2151
3.966 9.663 2.117 1347
3.868 9.423 2.037 1938
4.199 10.229 2.200 1390
3.867 9.421 2.006 1933
4.207 10.249 2.171 1432
3.866 9.419 1.975 2338
4.301 10.478 2.182 1374
3.868 9.424 1.945 2241
4.312 10.505 2.153 1676
4.457 10.857 2.186 2383
3.873 9.436 1.917 1943
4.453 10.848 2.149 2154
4.397 10.711 2.124 2008
4.316 10.514 2.053 1684
4.402 10.723 2.091 1607
4.588 11.177 2.138 1352
4.523 11.018 2.109 1183
4.528 11.030 2.076 1422
4.590 11.182 2.103 1078
4.530 11.035 2.041 1401
4.467 10.883 2.015 1343
4.535 11.048 2.008 1503
4.654 11.337 2.057 1412
4.813 11.726 2.085 1871
4.537 11.053 1.973 1389
4.812 11.724 2.047 2217
4.539 11.058 1.939 845
4.817 11.736 2.012 1393
4.609 11.229 1.930 980
4.808 11.712 1.970 827
4.614 11.241 1.896 774
0.888 2.147 1.811 2278
0.890 2.152 1.805 4556
0.844 2.040 1.716 1258
0.892 2.156 1.798 4556
0.846 2.044 1.709 1258
0.887 2.143 1.777 5034
0.933 2.256 1.866 2176
0.888 2.148 1.771 5639
0.935 2.260 1.859 2702
0.900 2.176 1.783 5224
0.947 2.289 1.870 2346
0.909 2.198 1.790 6642
0.956 2.311 1.877 2712
0.911 2.203 1.783 6642
0.958 2.316 1.869 2859
0.920 2.225 1.790 8395
0.968 2.339 1.876 2360
0.922 2.229 1.783 10957
0.969 2.343 1.869 2623
0.924 2.234 1.776 10359
0.971 2.348 1.861 2678
0.923 2.232 1.764 9873
0.971 2.347 1.850 3340
0.930 2.249 1.766 9543
0.978 2.363 1.851 4643
0.967 2.338 1.822 10423
0.920 2.223 1.737 4133
0.969 2.342 1.815 10423
0.921 2.227 1.730 2804
0.966 2.335 1.799 10389
0.918 2.219 1.715 947
0.958 2.315 1.774 12619
1.005 2.430 1.857 1773
0.957 2.313 1.762 11484
1.005 2.429 1.845 2600
0.956 2.311 1.751 10477
1.004 2.427 1.833 3836
0.963 2.328 1.752 10291
1.011 2.444 1.835 3860
0.967 2.338 1.749 10295
1.016 2.455 1.831 4647
0.997 2.410 1.789 8857
0.949 2.294 1.708 2177
1.001 2.421 1.786 10093
0.953 2.304 1.705 1691
1.003 2.425 1.779 8689
1.052 2.542 1.859 1505
1.008 2.436 1.775 7367
1.056 2.553 1.856 1380
1.010 2.440 1.768 5458
1.058 2.558 1.848 2199
1.040 2.513 1.806 5018
0.991 2.395 1.727 1962
1.039 2.511 1.794 4559
0.990 2.393 1.715 1397
1.038 2.509 1.783 4208
1.087 2.628 1.862 1111
1.053 2.545 1.795 5603
1.004 2.427 1.717 1640
1.052 2.543 1.783 7568
1.101 2.662 1.862 1406
1.057 2.554 1.780 7474
1.106 2.673 1.858 1495
1.058 2.558 1.772 7477
1.115 2.696 1.861 1886
1.063 2.569 1.768 6631
1.112 2.688 1.845 2026
1.067 2.580 1.764 5945
1.117 2.699 1.841 2100
1.072 2.590 1.760 5865
1.121 2.710 1.836 2320
1.071 2.588 1.748 4778
1.126 2.721 1.832 2773
1.128 2.726 1.823 4049
1.070 2.586 1.736 3797
1.127 2.724 1.811 5287
1.072 2.591 1.728 2590
1.116 2.696 1.783 5503
1.165 2.817 1.858 1346
1.117 2.701 1.774 6618
1.167 2.822 1.849 3108
1.117 2.699 1.762 7788
1.167 2.820 1.836 5252
1.121 2.710 1.758 7689
1.171 2.831 1.831 5938
1.176 2.842 1.826 5821
1.125 2.720 1.753 5567
1.143 2.763 1.768 5186
1.193 2.885 1.841 3645
1.182 2.857 1.813 4397
1.132 2.735 1.740 2690
1.187 2.868 1.808 4817
1.136 2.746 1.735 1628
1.194 2.886 1.806 4934
1.143 2.763 1.734 2223
1.209 2.922 1.816 4451
1.158 2.800 1.745 3644
1.216 2.940 1.814 5364
1.163 2.811 1.740 4449
1.218 2.944 1.805 5189
1.167 2.821 1.735 4465
1.220 2.949 1.796 4916
1.169 2.826 1.726 3198
1.224 2.960 1.791 4757
1.173 2.836 1.721 2243
1.266 3.061 1.836 4769
1.215 2.938 1.767 3182
1.271 3.072 1.830 6977
1.220 2.949 1.761 3281
1.270 3.070 1.817 7558
1.219 2.947 1.749 2469
1.272 3.075 1.808 6924
1.221 2.951 1.739 2053
1.301 3.145 1.834 7051
1.242 3.001 1.755 4255
1.303 3.149 1.824 8484
1.243 3.005 1.746 4919
1.299 3.141 1.807 8479
1.248 3.016 1.740 4059
1.317 3.184 1.819 7038
0.886 2.142 1.260 3144
1.322 3.196 1.812 8513
0.887 2.145 1.254 3667
1.327 3.207 1.806 8544
0.889 2.148 1.247 4396
1.328 3.211 1.796 9346
0.890 2.151 1.240 4930
1.328 3.209 1.782 9819
0.891 2.154 1.234 5155
1.329 3.213 1.772 8576
0.892 2.157 1.227 5015
1.320 3.191 1.749 7319
1.378 3.330 1.820 6553
1.380 3.335 1.809 8565
1.327 3.209 1.745 4961
1.381 3.339 1.799 9150
0.896 2.166 1.207 2578
1.386 3.350 1.792 7628
0.894 2.162 1.197 2054
1.407 3.401 1.805 7809
1.355 3.275 1.742 1975
1.409 3.406 1.794 8919
1.357 3.279 1.732 1600
1.403 3.390 1.774 8466
1.455 3.517 1.836 2881
1.404 3.395 1.763 7214
1.487 3.595 1.860 3231
1.442 3.486 1.794 5001
1.390 3.359 1.733 3608
1.436 3.470 1.774 6496
1.488 3.597 1.835 3372
1.443 3.488 1.769 10328
1.507 3.642 1.842 4246
1.445 3.492 1.759 10308
1.520 3.674 1.844 4081
1.441 3.483 1.741 8251
1.533 3.705 1.845 5121
1.532 3.703 1.830 6050
1.446 3.494 1.734 5799
1.534 3.707 1.819 5279
1.450 3.505 1.726 4392
1.527 3.692 1.798 4735
1.449 3.503 1.712 2810
1.523 3.683 1.780 4830
1.577 3.811 1.838 2135
1.553 3.755 1.799 4541
1.606 3.883 1.857 2089
1.550 3.746 1.781 5035
1.603 3.874 1.838 4655
1.596 3.858 1.817 5480
1.543 3.730 1.761 2721
1.564 3.782 1.770 4877
1.660 4.012 1.871 2532
1.566 3.786 1.758 4295
1.667 4.030 1.864 3032
1.675 4.049 1.857 2972
1.565 3.783 1.743 2723
1.612 3.897 1.778 4396
1.697 4.101 1.865 2955
1.619 3.915 1.771 5477
1.701 4.112 1.855 2464
1.633 3.946 1.771 4767
1.686 4.076 1.825 3111
1.640 3.964 1.764 4102
1.694 4.094 1.818 2681
1.721 4.160 1.830 2714
1.639 3.962 1.749 2541
1.720 4.158 1.815 2884
1.782 4.309 1.876 2464
1.719 4.156 1.799 2974
1.784 4.313 1.862 2269
1.735 4.194 1.800 3226
1.800 4.352 1.863 2182
1.771 4.281 1.819 4101
1.717 4.151 1.767 2913
1.779 4.300 1.811 5033
1.725 4.169 1.760 2546
1.823 4.407 1.838 5468
1.744 4.215 1.763 2632
1.825 4.412 1.824 5298
1.879 4.543 1.875 2375
1.853 4.478 1.834 6841
1.798 4.347 1.784 2891
1.855 4.483 1.820 8706
1.909 4.614 1.870 3805
1.859 4.494 1.809 5930
1.914 4.626 1.858 4112
1.936 4.679 1.862 4787
1.864 4.506 1.797 2193
1.943 4.697 1.852 5367
1.857 4.490 1.776 2068
1.951 4.716 1.842 5239
1.896 4.584 1.794 2762
1.953 4.720 1.828 6568
1.898 4.588 1.780 2180
1.955 4.725 1.813 5064
1.900 4.593 1.766 1716
1.982 4.792 1.820 2610
1.910 4.618 1.759 1616
1.981 4.789 1.803 4534
1.927 4.657 1.756 1366
1.983 4.794 1.788 3601
2.058 4.975 1.851 2000
2.011 4.861 1.794 2939
2.077 5.021 1.850 1903
2.016 4.873 1.782 2634
2.148 5.194 1.891 2394
2.084 5.038 1.821 2508
2.150 5.198 1.875 2350
2.152 5.203 1.858 3057
2.083 5.035 1.802 2504
2.160 5.221 1.847 3752
2.085 5.040 1.787 1583
2.188 5.289 1.851 3227
2.113 5.107 1.792 1759
2.190 5.294 1.834 2123
2.248 5.434 1.880 2013
2.259 5.460 1.869 2747
2.166 5.235 1.798 2023
2.211 5.345 1.815 3427
2.275 5.499 1.863 2582
2.216 5.356 1.800 5166
2.286 5.525 1.853 3774
2.288 5.530 1.835 3957
2.221 5.368 1.785 3006
2.269 5.485 1.803 2941
2.339 5.654 1.855 2211
2.460 5.947 1.925 3110
2.344 5.666 1.839 2865
2.462 5.952 1.906 5426
2.372 5.734 1.840 2922
2.464 5.957 1.887 6313
2.409 5.823 1.848 3331
2.460 5.947 1.864 6184
2.405 5.813 1.825 3817
2.471 5.973 1.852 6575
2.416 5.839 1.813 3153
2.476 5.985 1.835 6777
2.640 6.381 1.948 2777
2.478 5.989 1.816 4699
2.648 6.400 1.932 2818
2.483 6.001 1.800 2777
2.647 6.398 1.910 2583
2.734 6.608 1.947 2862
2.649 6.403 1.890 2580
2.730 6.599 1.922 3323
2.791 6.748 1.963 2921
2.893 6.994 2.007 2525
2.735 6.611 1.903 2145
2.895 6.999 1.985 3360
2.793 6.750 1.919 2095
2.933 7.089 1.985 3222
2.877 6.954 1.950 1673
2.938 7.101 1.965 3551
3.106 7.507 2.070 1915
2.946 7.120 1.946 2155
3.055 7.384 2.013 1650
3.186 7.702 2.069 3036
3.066 7.410 1.995 1377
3.189 7.708 2.045 5091
3.065 7.408 1.970 1718
3.191 7.713 2.021 6259
3.273 7.912 2.070 1862
3.193 7.718 1.996 6321
3.275 7.918 2.045 2455
3.195 7.723 1.972 4692
3.307 7.994 2.037 3221
3.306 7.992 2.010 4792
3.200 7.735 1.950 2331
3.308 7.997 1.985 4542
3.415 8.255 2.045 1353
3.319 8.024 1.965 3873
3.376 8.160 1.996 1195
3.330 8.050 1.945 2904
3.508 8.480 2.041 1932
3.507 8.478 2.013 2714
3.341 8.076 1.924 1954
3.506 8.475 1.985 3601
3.563 8.612 2.015 2262
3.508 8.480 1.958 3701
3.565 8.617 1.988 1975
3.507 8.478 1.930 2681
3.878 9.375 2.121 1588
3.884 9.388 2.093 1728
3.634 8.784 1.967 1432
3.889 9.400 2.065 2101
3.636 8.789 1.939 1181
3.894 9.413 2.037 1976
4.227 10.218 2.200 1498
3.893 9.410 2.006 1969
4.235 10.238 2.171 1485
3.892 9.408 1.975 2338
4.235 10.236 2.137 1272
3.894 9.413 1.945 2271
4.344 10.501 2.155 1506
4.486 10.845 2.186 2053
3.899 9.425 1.917 2022
4.426 10.699 2.124 2003
4.345 10.504 2.087 1866
4.345 10.502 2.053 1585
4.428 10.704 2.090 1573
4.618 11.164 2.138 1259
4.544 10.984 2.106 1119
4.555 11.010 2.075 1255
4.818 11.646 2.187 1136
4.817 11.644 2.149 1301
4.557 11.016 2.040 1241
4.565 11.035 2.008 1333
4.685 11.324 2.057 1273
4.845 11.713 2.085 1772
4.690 11.337 2.023 1308
4.848 11.718 2.049 2091
4.689 11.334 1.986 928
4.850 11.723 2.012 1371
4.640 11.216 1.930 912
4.843 11.706 1.971 826
0.893 2.146 1.811 2314
0.895 2.150 1.805 4628
0.848 2.038 1.716 1286
0.897 2.155 1.798 4628
0.850 2.042 1.709 1286
0.891 2.141 1.777 5144
0.938 2.254 1.866 2131
0.893 2.146 1.771 5908
0.940 2.259 1.859 2678
0.905 2.174 1.783 5489
0.952 2.287 1.870 2493
0.914 2.196 1.790 6965
0.961 2.309 1.877 2956
0.916 2.201 1.783 6965
0.963 2.314 1.869 3112
0.925 2.223 1.790 8839
0.972 2.337 1.876 2574
0.927 2.227 1.783 11365
0.974 2.341 1.869 2845
0.929 2.232 1.776 10566
0.976 2.346 1.861 2937
0.928 2.230 1.764 9955
0.976 2.345 1.850 3661
0.935 2.247 1.766 9289
0.983 2.361 1.851 5036
0.972 2.336 1.822 11019
0.924 2.221 1.737 4245
0.974 2.340 1.815 11019
0.926 2.225 1.730 2889
0.971 2.333 1.799 10883
0.923 2.217 1.715 978
0.962 2.313 1.774 13223
1.010 2.428 1.857 1774
0.959 2.305 1.758 11852
1.007 2.421 1.841 3122
0.961 2.309 1.751 10763
1.009 2.425 1.833 3592
0.968 2.326 1.752 10079
1.016 2.442 1.835 3515
0.970 2.330 1.745 9971
1.018 2.447 1.827 4603
0.999 2.402 1.785 8498
0.951 2.285 1.703 1676
1.004 2.413 1.782 9840
1.053 2.530 1.863 1637
1.008 2.423 1.779 8439
1.057 2.540 1.859 1645
1.013 2.434 1.775 7166
1.061 2.551 1.856 1580
1.015 2.438 1.768 5289
1.063 2.556 1.848 1961
1.042 2.505 1.802 5296
0.993 2.387 1.722 1493
1.044 2.509 1.794 5203
0.995 2.391 1.715 1311
1.046 2.514 1.787 5110
0.997 2.395 1.708 1129
1.055 2.537 1.791 6760
1.006 2.418 1.713 1488
1.057 2.541 1.783 8974
1.107 2.660 1.862 1371
1.062 2.552 1.780 8721
1.111 2.671 1.858 1478
1.064 2.556 1.772 8669
1.121 2.694 1.861 1796
1.068 2.567 1.768 7154
1.118 2.686 1.845 2053
1.070 2.571 1.760 5661
1.120 2.691 1.837 2376
1.074 2.582 1.756 5763
1.124 2.701 1.832 2232
1.076 2.586 1.748 4972
1.131 2.719 1.832 2494
1.075 2.584 1.736 4077
1.133 2.723 1.823 3779
1.132 2.721 1.811 5103
1.077 2.588 1.728 2703
1.134 2.726 1.803 5205
1.079 2.593 1.720 1330
1.120 2.692 1.771 6236
1.170 2.813 1.845 3351
1.125 2.703 1.766 7338
1.175 2.824 1.840 4771
1.127 2.707 1.758 7481
1.177 2.828 1.831 5780
1.131 2.718 1.753 5906
1.181 2.839 1.826 5732
1.149 2.761 1.768 5252
1.199 2.882 1.841 3649
1.185 2.848 1.809 3930
1.135 2.727 1.736 2640
1.198 2.879 1.815 3956
1.144 2.750 1.739 1662
1.200 2.883 1.806 4124
1.149 2.761 1.734 2189
1.215 2.920 1.816 4105
1.164 2.797 1.745 4078
1.222 2.937 1.814 4927
1.168 2.808 1.740 4917
1.178 2.832 1.742 4966
1.229 2.955 1.813 4287
1.188 2.856 1.744 4617
1.239 2.978 1.815 3000
1.230 2.957 1.791 4173
1.179 2.834 1.721 2346
1.273 3.059 1.836 4880
1.221 2.936 1.767 2722
1.275 3.063 1.827 7132
1.223 2.940 1.758 2332
1.276 3.068 1.817 7656
1.225 2.944 1.749 2333
1.281 3.079 1.811 6907
1.230 2.955 1.743 2469
1.305 3.135 1.830 7513
1.245 2.992 1.752 4819
1.309 3.147 1.824 8843
1.249 3.003 1.746 5104
1.308 3.145 1.811 8378
1.254 3.014 1.740 4025
1.327 3.188 1.822 6492
1.275 3.064 1.755 3242
1.329 3.193 1.812 7677
0.892 2.143 1.254 3115
1.333 3.204 1.806 8682
0.893 2.146 1.247 3602
1.335 3.208 1.796 10277
1.387 3.333 1.861 3980
1.337 3.213 1.786 10704
0.895 2.152 1.234 4053
1.339 3.217 1.776 9161
1.391 3.343 1.840 4528
1.341 3.222 1.766 7832
1.393 3.347 1.830 6553
1.386 3.332 1.809 9353
1.334 3.206 1.745 5482
1.388 3.336 1.799 9653
1.336 3.211 1.735 2171
1.393 3.347 1.792 8057
1.445 3.474 1.855 2131
1.414 3.398 1.805 7013
1.362 3.272 1.742 2130
1.416 3.403 1.794 8126
1.363 3.277 1.732 2043
1.409 3.387 1.774 7878
1.462 3.514 1.836 3293
1.445 3.472 1.802 7195
1.392 3.345 1.740 3664
1.435 3.450 1.778 6039
1.488 3.576 1.839 3039
1.471 3.534 1.806 5174
1.401 3.367 1.726 3365
1.470 3.532 1.792 6420
1.417 3.405 1.731 3631
1.452 3.489 1.759 5719
1.536 3.691 1.853 3121
1.451 3.487 1.745 5376
1.538 3.695 1.842 4314
1.537 3.693 1.827 5202
1.447 3.478 1.727 3910
1.539 3.698 1.816 4871
1.449 3.482 1.717 3169
1.535 3.689 1.798 5259
1.451 3.486 1.706 2529
1.534 3.686 1.783 5318
1.452 3.491 1.695 1902
1.561 3.752 1.799 5281
1.614 3.880 1.857 2509
1.560 3.749 1.784 5426
1.613 3.878 1.841 4528
1.607 3.862 1.820 4771
1.553 3.733 1.764 3091
1.569 3.772 1.767 4800
1.668 4.009 1.871 2069
1.571 3.776 1.755 4721
1.676 4.027 1.864 2754
1.573 3.780 1.743 3520
1.680 4.038 1.854 2705
1.626 3.907 1.784 4873
1.708 4.104 1.868 2815
1.630 3.918 1.774 5983
1.710 4.109 1.855 2380
1.641 3.943 1.771 5172
1.695 4.073 1.825 3088
1.648 3.961 1.764 4318
1.702 4.091 1.818 2786
1.650 3.965 1.752 2586
1.761 4.232 1.861 2423
1.763 4.237 1.848 3043
1.700 4.086 1.787 2132
1.759 4.227 1.829 2767
1.691 4.063 1.763 2080
1.741 4.184 1.797 3181
1.809 4.349 1.863 2305
1.734 4.168 1.776 3693
1.788 4.298 1.827 3344
1.790 4.303 1.814 4593
1.736 4.172 1.763 2595
1.832 4.404 1.838 6506
1.778 4.273 1.787 2337
1.834 4.408 1.824 5511
1.889 4.539 1.875 2323
1.862 4.475 1.834 6405
1.807 4.344 1.784 3243
1.864 4.479 1.820 8192
1.918 4.610 1.870 3547
1.868 4.491 1.809 5677
1.923 4.622 1.858 3828
1.945 4.675 1.862 4622
1.890 4.543 1.813 2685
1.956 4.700 1.855 5309
1.901 4.569 1.806 2477
1.960 4.712 1.842 5325
1.906 4.580 1.794 3110
1.965 4.723 1.830 6590
1.910 4.592 1.783 2389
1.967 4.728 1.815 4964
1.912 4.596 1.768 1542
1.998 4.802 1.825 2370
1.923 4.621 1.761 1511
1.991 4.785 1.803 4114
2.052 4.931 1.854 1588
1.987 4.776 1.783 3300
2.065 4.964 1.848 1921
2.024 4.864 1.797 2838
2.090 5.024 1.852 2031
2.040 4.903 1.794 2912
2.098 5.043 1.841 2826
2.094 5.033 1.821 2860
2.161 5.194 1.875 2442
2.166 5.205 1.861 3062
2.093 5.031 1.802 2482
2.171 5.217 1.847 3680
2.083 5.007 1.777 1656
2.199 5.285 1.851 3045
2.123 5.103 1.792 1661
2.204 5.296 1.837 2314
2.262 5.436 1.882 1827
2.273 5.462 1.872 2669
2.179 5.238 1.800 1561
2.219 5.333 1.812 3393
2.286 5.495 1.863 2516
2.227 5.352 1.800 4914
2.341 5.626 1.886 3676
2.346 5.637 1.870 3492
2.290 5.504 1.829 3046
2.280 5.480 1.803 3125
2.374 5.705 1.872 2626
2.376 5.710 1.854 3072
2.473 5.942 1.925 2742
2.475 5.947 1.906 4542
2.384 5.729 1.840 2585
2.479 5.959 1.889 5560
2.424 5.825 1.850 3891
2.473 5.942 1.864 6047
2.417 5.808 1.825 3890
2.483 5.968 1.852 7020
2.425 5.827 1.811 3240
2.488 5.980 1.835 6775
2.653 6.376 1.948 2834
2.487 5.977 1.814 4385
2.664 6.402 1.934 2761
2.660 6.392 1.910 2760
2.492 5.989 1.798 2549
2.662 6.397 1.890 2738
2.721 6.539 1.929 2353
2.743 6.593 1.922 3221
2.799 6.728 1.959 3004
2.911 6.995 2.008 2413
2.745 6.598 1.902 2278
2.910 6.993 1.985 3036
2.806 6.745 1.919 2085
2.947 7.083 1.985 2917
2.811 6.757 1.899 1687
2.952 7.095 1.965 3347
3.121 7.501 2.070 2047
2.960 7.114 1.946 2091
3.123 7.506 2.046 1473
3.199 7.689 2.067 2223
2.971 7.141 1.929 1118
3.204 7.701 2.045 3861
3.074 7.388 1.967 1388
