-0.482 2.661 1.830 8923
-0.483 2.666 1.822 8015
-0.506 2.791 1.902 1331
-0.488 2.691 1.827 7919
-0.465 2.566 1.747 1696
-0.511 2.816 1.907 1111
-0.490 2.702 1.823 8695
-0.467 2.577 1.743 1762
-0.513 2.828 1.903 1324
-0.498 2.747 1.840 8437
-0.475 2.621 1.761 2752
-0.500 2.758 1.837 10925
-0.477 2.632 1.758 2021
-0.523 2.884 1.916 1126
-0.501 2.763 1.829 10916
-0.524 2.889 1.907 1544
-0.478 2.637 1.750 1445
-0.502 2.768 1.820 10907
-0.525 2.894 1.899 1961
-0.503 2.773 1.812 9477
-0.526 2.899 1.890 1872
-0.502 2.771 1.800 8102
-0.525 2.898 1.878 1963
-0.508 2.802 1.808 7623
-0.531 2.929 1.886 1916
-0.511 2.821 1.808 8688
-0.534 2.948 1.885 1686
-0.513 2.832 1.804 8569
-0.537 2.960 1.881 3311
-0.516 2.844 1.800 7177
-0.539 2.971 1.876 4288
-0.531 2.929 1.839 10794
-0.508 2.801 1.764 3979
-0.529 2.921 1.823 17252
-0.506 2.792 1.748 2233
-0.530 2.925 1.814 18465
-0.501 2.763 1.720 1409
-0.532 2.937 1.810 14817
-0.556 3.066 1.884 1042
-0.538 2.969 1.817 12929
-0.515 2.840 1.743 1096
-0.539 2.974 1.808 14006
-0.562 3.103 1.882 1960
-0.541 2.985 1.803 13579
-0.565 3.114 1.877 2502
-0.543 2.997 1.798 12073
-0.567 3.126 1.871 2979
-0.543 2.995 1.786 12726
-0.566 3.124 1.858 5674
-0.596 3.288 1.950 1315
-0.543 2.993 1.773 13658
-0.566 3.122 1.846 7661
-0.597 3.293 1.941 1762
-0.543 2.997 1.765 11891
-0.567 3.127 1.836 6918
-0.598 3.298 1.931 2280
-0.544 3.002 1.756 6983
-0.568 3.132 1.827 5129
-0.598 3.297 1.918 2805
-0.564 3.110 1.803 5135
-0.600 3.309 1.912 2921
-0.540 2.979 1.732 2486
-0.566 3.121 1.798 5001
-0.601 3.314 1.902 2373
-0.542 2.991 1.727 1741
-0.568 3.133 1.792 5250
-0.605 3.340 1.903 1812
-0.568 3.131 1.780 6224
-0.608 3.351 1.897 1715
-0.567 3.128 1.767 7033
-0.606 3.343 1.880 1732
-0.567 3.126 1.754 7157
-0.607 3.348 1.870 1902
-0.568 3.131 1.745 6247
-0.591 3.263 1.814 1929
-0.568 3.135 1.736 4909
-0.592 3.267 1.804 3340
-0.588 3.244 1.780 5496
-0.564 3.112 1.712 2461
-0.612 3.376 1.848 1355
-0.586 3.235 1.764 6038
-0.613 3.381 1.838 1524
-0.563 3.103 1.696 1508
-0.661 3.646 1.973 1243
-0.586 3.233 1.751 6099
-0.662 3.651 1.963 1903
-0.615 3.393 1.832 1361
-0.562 3.100 1.684 1057
-0.581 3.202 1.724 9560
-0.665 3.670 1.959 2130
-0.641 3.538 1.892 1396
-0.605 3.335 1.790 1308
-0.583 3.214 1.718 12366
-0.668 3.682 1.952 3203
-0.630 3.473 1.847 1624
-0.559 3.081 1.651 1075
-0.585 3.226 1.712 10551
-0.671 3.702 1.948 3751
-0.609 3.359 1.778 1625
-0.636 3.506 1.851 1389
-0.587 3.237 1.706 6398
-0.672 3.707 1.937 4227
-0.615 3.391 1.782 2263
-0.563 3.104 1.640 1836
-0.672 3.705 1.923 5228
-0.593 3.270 1.710 2779
-0.617 3.403 1.775 2635
-0.569 3.136 1.645 2013
-0.671 3.703 1.909 8348
-0.619 3.415 1.769 3537
-0.595 3.281 1.704 2680
-0.696 3.837 1.973 1650
-0.671 3.701 1.894 12208
-0.624 3.441 1.769 4332
-0.597 3.293 1.698 3088
-0.695 3.835 1.959 2228
-0.672 3.706 1.883 11544
-0.625 3.445 1.759 3225
-0.600 3.311 1.695 3124
-0.696 3.840 1.947 2907
-0.671 3.704 1.869 10132
-0.700 3.859 1.943 3325
-0.601 3.316 1.685 2180
-0.625 3.450 1.749 2062
-0.672 3.709 1.858 7500
-0.701 3.864 1.932 3699
-0.622 3.433 1.729 2034
-0.598 3.299 1.666 1540
-0.675 3.721 1.851 4320
-0.703 3.877 1.924 4110
-0.625 3.445 1.722 2423
-0.600 3.310 1.659 1019
-0.719 3.967 1.952 4023
-0.681 3.754 1.853 3474
-0.627 3.456 1.715 2421
-0.721 3.979 1.943 4384
-0.685 3.780 1.852 3447
-0.629 3.468 1.708 1787
-0.711 3.920 1.902 5290
-0.686 3.785 1.841 4123
-0.735 4.055 1.964 2237
-0.630 3.473 1.698 1081
-0.712 3.925 1.891 6040
-0.687 3.790 1.830 3029
-0.736 4.061 1.952 2969
-0.711 3.923 1.876 6389
-0.736 4.059 1.937 3494
-0.687 3.788 1.815 1092
-0.712 3.928 1.865 8216
-0.737 4.064 1.925 4765
-0.714 3.940 1.856 7546
-0.739 4.076 1.916 5593
-0.764 4.212 1.976 1727
-0.739 4.074 1.901 6607
-0.714 3.938 1.842 3745
-0.763 4.210 1.961 2999
-0.729 4.022 1.864 7643
-0.756 4.172 1.930 6158
-0.781 4.308 1.989 1514
-0.704 3.886 1.805 1151
-0.731 4.034 1.856 7992
-0.774 4.271 1.958 6517
-0.799 4.407 2.016 1052
-0.733 4.046 1.847 7184
-0.774 4.269 1.942 6979
-0.799 4.405 2.000 1558
-0.775 4.274 1.930 7831
-0.747 4.123 1.866 4115
-0.800 4.410 1.988 1628
-0.723 3.986 1.808 1205
-0.777 4.286 1.920 8750
-0.748 4.128 1.854 1651
-0.802 4.423 1.978 1579
-0.778 4.291 1.908 7952
-0.803 4.428 1.965 1591
-0.740 4.082 1.820 1129
-0.781 4.311 1.901 6617
-0.806 4.448 1.958 1232
-0.793 4.373 1.912 5721
-0.768 4.236 1.856 1253
-0.796 4.393 1.905 6435
-0.799 4.405 1.895 5935
-0.824 4.543 1.951 1083
-0.800 4.410 1.882 3671
-0.824 4.548 1.937 1738
-0.814 4.488 1.898 3717
-0.789 4.350 1.843 1175
-0.816 4.500 1.888 4492
-0.841 4.638 1.942 1451
-0.830 4.578 1.903 5598
-0.805 4.440 1.849 1588
-0.830 4.576 1.887 6581
-0.855 4.714 1.940 1307
-0.834 4.603 1.882 6854
-0.809 4.464 1.828 1822
-0.861 4.748 1.937 1764
-0.838 4.622 1.874 5899
-0.813 4.483 1.821 2682
-0.863 4.761 1.926 2403
-0.841 4.642 1.865 4368
-0.867 4.780 1.918 3359
-0.816 4.503 1.813 2342
-0.842 4.647 1.852 3937
-0.868 4.786 1.904 3123
-0.817 4.508 1.800 1017
-0.858 4.732 1.868 5612
-0.883 4.871 1.919 2936
-0.833 4.593 1.817 1086
-0.883 4.869 1.902 6074
-0.857 4.730 1.851 5609
-0.884 4.874 1.888 8064
-0.858 4.735 1.838 3846
-0.878 4.842 1.861 7310
-0.853 4.703 1.810 1677
-0.903 4.982 1.911 1494
-0.928 5.121 1.961 1120
-0.881 4.862 1.852 5171
-0.856 4.722 1.802 2445
-0.907 5.002 1.901 1712
-0.932 5.141 1.951 1416
-0.896 4.940 1.863 6156
-0.865 4.771 1.804 2398
-0.921 5.080 1.913 2325
-0.899 4.960 1.854 7521
-0.925 5.100 1.903 4101
-0.874 4.820 1.805 2131
-0.950 5.240 1.952 1073
-0.904 4.987 1.847 6380
-0.929 5.127 1.895 3575
-0.879 4.847 1.798 1686
-0.960 5.297 1.954 1628
-0.906 4.999 1.835 4231
-0.941 5.191 1.901 3263
-0.967 5.331 1.949 1459
-0.881 4.859 1.787 1329
-0.941 5.189 1.883 3488
-0.907 5.004 1.820 3349
-0.966 5.329 1.931 1702
-0.940 5.186 1.865 3425
-0.966 5.327 1.912 2282
-0.908 5.009 1.805 1934
-0.940 5.184 1.847 3738
-0.969 5.347 1.902 3539
-1.003 5.532 1.963 1345
-0.972 5.359 1.888 5733
-0.942 5.196 1.835 2985
-1.007 5.552 1.952 2303
-0.974 5.372 1.875 5430
-1.006 5.550 1.933 2424
-0.948 5.231 1.829 1610
-0.977 5.392 1.864 2980
-1.012 5.585 1.926 2505
-1.015 5.597 1.912 3901
-0.981 5.411 1.853 1732
-1.042 5.746 1.960 1189
-1.018 5.617 1.901 3236
-1.044 5.758 1.945 1886
-0.993 5.476 1.856 1680
-1.025 5.652 1.893 3546
-0.998 5.503 1.847 1483
-1.050 5.793 1.938 1322
-1.027 5.664 1.879 3957
-1.053 5.806 1.923 1435
-1.078 5.947 1.967 1304
-1.001 5.523 1.835 1033
-1.037 5.722 1.878 2794
-1.078 5.945 1.947 1251
-1.039 5.734 1.864 2416
-1.077 5.943 1.927 1808
-1.058 5.836 1.876 2340
-1.084 5.978 1.919 2011
-1.032 5.694 1.834 1674
-1.119 6.170 1.957 1673
-1.077 5.938 1.888 1623
-1.043 5.751 1.832 1595
-1.119 6.175 1.939 2584
-1.080 5.958 1.875 1254
-1.123 6.195 1.925 2169
-1.091 6.016 1.873 1647
-1.161 6.405 1.986 1335
-1.134 6.253 1.922 1930
-1.093 6.028 1.857 1831
-1.182 6.523 1.999 1404
-1.183 6.528 1.980 2190
-1.122 6.190 1.884 2091
-1.155 6.370 1.935 1362
-1.096 6.048 1.843 1023
-1.183 6.526 1.959 4003
-1.122 6.188 1.864 1790
-1.148 6.331 1.904 1385
-1.185 6.538 1.941 5661
-1.157 6.381 1.898 1784
-1.131 6.238 1.858 1327
-1.186 6.544 1.922 6461
-1.160 6.401 1.883 2084
-1.234 6.807 1.995 1043
-1.186 6.541 1.901 6190
-1.235 6.812 1.974 1551
-1.160 6.398 1.862 1242
-1.188 6.554 1.884 4769
-1.214 6.697 1.922 1948
-1.240 6.840 1.960 1828
-1.295 7.141 2.041 1426
-1.190 6.566 1.866 3552
-1.237 6.823 1.934 2194
-1.300 7.169 2.026 2014
-1.191 6.571 1.847 2197
-1.301 7.175 2.005 2193
-1.238 6.828 1.914 1854
-1.303 7.188 1.986 2153
-1.330 7.338 2.025 1542
-1.232 6.795 1.884 1467
-1.198 6.606 1.835 1254
-1.307 7.208 1.969 2646
-1.333 7.351 2.005 2374
-1.264 6.974 1.909 1903
-1.366 7.533 2.052 1684
-1.308 7.213 1.947 2654
-1.334 7.357 1.984 2229
-1.362 7.516 2.024 1618
-1.267 6.986 1.890 1296
-1.310 7.226 1.928 1789
-1.363 7.521 2.002 1074
-1.336 7.370 1.964 1063
-1.429 7.882 2.067 1729
-1.433 7.903 2.047 1871
-1.470 8.107 2.097 1548
-1.361 7.509 1.952 1199
-1.471 8.113 2.073 1426
-1.439 7.938 2.031 1374
-1.487 8.202 2.069 1623
-1.567 8.642 2.173 1035
-1.591 8.777 2.178 1252
-1.564 8.625 2.142 1242
-1.489 8.215 2.047 1192
-1.591 8.775 2.150 1526
-1.547 8.532 2.094 1195
-1.560 8.606 2.085 1107
-1.673 9.228 2.197 1635
-1.637 9.030 2.153 1022
-1.682 9.279 2.180 2483
-1.638 9.035 2.126 1504
-1.598 8.815 2.078 1068
-1.682 9.277 2.151 2796
-1.650 9.102 2.113 1195
-1.596 8.805 2.048 1062
-1.683 9.283 2.124 2978
-1.762 9.717 2.217 1595
-1.652 9.115 2.088 1054
-1.763 9.723 2.188 2294
-1.683 9.281 2.095 1877
-1.709 9.426 2.125 1315
-1.844 10.173 2.284 1214
-1.764 9.729 2.160 1511
-1.713 9.447 2.101 1221
-1.848 10.195 2.257 1131
-1.684 9.287 2.067 1105
-1.817 10.025 2.191 1632
-1.849 10.201 2.227 1313
-1.687 9.307 2.043 1263
-1.758 9.697 2.123 1111
-1.818 10.031 2.161 2003
-1.846 10.184 2.192 1359
-1.776 9.794 2.113 1162
-1.889 10.421 2.240 1025
-1.820 10.037 2.132 2042
-1.846 10.182 2.160 1294
-1.885 10.396 2.203 1176
-2.005 11.061 2.336 1011
-1.822 10.050 2.103 1968
-2.005 11.060 2.302 1361
-1.890 10.425 2.177 1301
-1.852 10.218 2.136 1239
-2.006 11.066 2.269 1972
-1.883 10.385 2.137 1791
-1.958 10.798 2.217 1548
-1.826 10.071 2.077 1412
-2.007 11.072 2.236 2898
-1.885 10.398 2.108 1797
-1.981 10.926 2.209 1769
-2.034 11.217 2.264 1267
-2.007 11.070 2.202 3993
-1.980 10.925 2.175 1594
-2.089 11.522 2.287 1551
-2.033 11.216 2.229 1182
-2.008 11.076 2.169 4363
-2.090 11.528 2.253 2072
-2.116 11.674 2.280 1064
-2.010 11.089 2.138 3353
-2.094 11.550 2.221 1547
-2.122 11.703 2.249 1132
-2.011 11.095 2.105 2370
-2.100 11.586 2.193 1553
-2.014 11.108 2.074 1801
-2.101 11.592 2.159 1741
-2.234 12.321 2.286 1003
-2.108 11.629 2.130 1640
-2.015 11.114 2.041 1275
-2.235 12.327 2.250 1094
-2.111 11.642 2.097 1705
-2.113 11.655 2.063 1062
-0.425 2.374 1.865 5308
-0.426 2.379 1.859 10617
-0.428 2.390 1.856 9554
-0.449 2.510 1.944 1150
-0.432 2.414 1.863 9281
-0.434 2.426 1.861 8680
-0.435 2.430 1.854 8142
-0.457 2.551 1.941 1295
-0.436 2.435 1.847 8142
-0.458 2.556 1.933 1886
-0.436 2.434 1.835 8225
-0.457 2.555 1.921 2127
-0.437 2.439 1.828 8531
-0.458 2.560 1.914 1939
-0.438 2.444 1.821 6175
-0.459 2.565 1.907 2282
-0.440 2.455 1.818 3949
-0.461 2.577 1.904 2486
-0.459 2.563 1.883 3466
-0.437 2.440 1.798 2574
-0.459 2.561 1.871 4563
-0.437 2.439 1.786 1524
-0.459 2.566 1.863 4563
-0.437 2.443 1.779 1490
-0.460 2.571 1.856 5494
-0.438 2.448 1.772 1119
-0.461 2.576 1.848 6378
-0.466 2.600 1.854 6395
-0.443 2.477 1.771 1946
-0.471 2.631 1.864 8830
-0.449 2.508 1.781 3622
-0.473 2.643 1.861 8337
-0.451 2.519 1.778 2980
-0.478 2.667 1.866 8938
-0.455 2.543 1.784 2706
-0.476 2.659 1.849 9229
-0.454 2.535 1.768 1667
-0.476 2.658 1.837 10296
-0.477 2.662 1.830 9232
-0.499 2.787 1.911 1112
-0.478 2.667 1.822 8169
-0.500 2.792 1.902 1661
-0.480 2.679 1.818 6752
-0.502 2.804 1.899 1974
-0.484 2.703 1.823 6546
-0.462 2.578 1.743 1682
-0.506 2.829 1.903 1349
-0.493 2.754 1.845 8076
-0.471 2.629 1.765 3138
-0.494 2.759 1.837 11016
-0.471 2.633 1.758 2019
-0.517 2.885 1.916 1159
-0.495 2.764 1.829 11159
-0.472 2.638 1.750 1506
-0.517 2.890 1.907 1463
-0.496 2.769 1.820 11302
-0.518 2.896 1.899 1767
-0.497 2.774 1.812 10038
-0.519 2.901 1.890 1703
-0.499 2.785 1.808 8844
-0.524 2.926 1.894 1539
-0.504 2.817 1.817 7593
-0.482 2.690 1.739 1494
-0.527 2.944 1.894 1481
-0.509 2.842 1.820 7818
-0.486 2.714 1.744 1083
-0.508 2.840 1.808 7650
-0.531 2.967 1.885 2615
-0.526 2.939 1.856 7020
-0.503 2.811 1.780 5122
-0.525 2.930 1.839 10219
-0.502 2.802 1.764 3711
-0.524 2.928 1.827 15827
-0.501 2.800 1.752 2394
-0.525 2.933 1.818 17265
-0.495 2.764 1.720 1314
-0.549 3.068 1.897 1025
-0.527 2.945 1.814 14293
-0.550 3.073 1.888 1292
-0.504 2.816 1.739 1073
-0.531 2.963 1.813 12857
-0.507 2.834 1.739 1365
-0.554 3.092 1.887 1318
-0.533 2.975 1.808 13854
-0.556 3.104 1.882 2115
-0.509 2.846 1.734 1186
-0.535 2.986 1.803 13538
-0.558 3.116 1.877 2701
-0.537 2.998 1.798 12227
-0.560 3.127 1.871 3114
-0.536 2.996 1.786 12754
-0.560 3.126 1.858 5689
-0.589 3.289 1.950 1706
-0.536 2.994 1.773 13616
-0.559 3.124 1.846 7709
-0.590 3.295 1.941 2229
-0.537 2.998 1.765 11811
-0.560 3.129 1.836 6918
-0.590 3.293 1.927 2954
-0.538 3.003 1.756 6965
-0.561 3.133 1.827 4932
-0.590 3.298 1.918 3691
-0.554 3.097 1.796 5482
-0.593 3.310 1.912 4005
-0.531 2.967 1.725 1803
-0.559 3.122 1.798 5248
-0.594 3.315 1.902 3503
-0.536 2.992 1.727 1900
-0.561 3.134 1.792 5626
-0.597 3.334 1.900 2768
-0.562 3.139 1.783 6412
-0.599 3.346 1.894 2486
-0.560 3.130 1.767 6697
-0.599 3.344 1.880 2339
-0.559 3.121 1.750 6679
-0.600 3.349 1.870 2511
-0.560 3.125 1.741 5954
-0.598 3.340 1.853 2168
-0.560 3.130 1.732 4547
-0.584 3.262 1.800 3074
-0.582 3.253 1.784 4630
-0.559 3.120 1.716 2974
-0.606 3.385 1.852 1551
-0.630 3.517 1.920 1256
-0.578 3.229 1.760 5359
-0.604 3.376 1.835 1814
-0.632 3.529 1.913 1765
-0.554 3.097 1.693 1754
-0.579 3.234 1.751 5197
-0.635 3.548 1.910 2328
-0.659 3.680 1.977 1735
-0.606 3.387 1.828 1502
-0.572 3.197 1.720 7423
-0.639 3.567 1.906 2463
-0.662 3.700 1.973 1907
-0.596 3.329 1.787 1662
-0.576 3.215 1.718 9297
-0.660 3.684 1.952 3464
-0.624 3.488 1.854 2247
-0.599 3.348 1.784 1446
-0.578 3.227 1.712 8054
-0.663 3.703 1.948 4124
-0.602 3.360 1.778 1857
-0.627 3.500 1.847 1836
-0.580 3.238 1.706 5262
-0.664 3.708 1.937 4765
-0.606 3.386 1.778 2420
-0.556 3.105 1.640 2272
-0.660 3.685 1.912 6068
-0.592 3.306 1.727 3377
-0.562 3.137 1.645 2446
-0.616 3.439 1.792 1973
-0.663 3.704 1.909 9473
-0.612 3.416 1.769 3370
-0.588 3.282 1.704 2804
-0.564 3.149 1.639 1588
-0.663 3.702 1.894 13792
-0.615 3.435 1.766 3954
-0.591 3.301 1.701 2907
-0.687 3.836 1.959 1847
-0.664 3.708 1.883 13237
-0.617 3.447 1.759 2913
-0.688 3.842 1.947 2805
-0.593 3.313 1.695 2803
-0.663 3.705 1.869 11927
-0.687 3.840 1.933 3615
-0.595 3.324 1.689 2086
-0.619 3.458 1.752 1827
-0.664 3.710 1.858 8822
-0.693 3.873 1.935 3932
-0.616 3.442 1.732 1916
-0.592 3.307 1.669 1384
-0.665 3.715 1.848 4648
-0.694 3.878 1.924 4303
-0.617 3.446 1.722 2235
-0.712 3.976 1.955 4049
-0.670 3.741 1.847 3284
-0.619 3.458 1.715 2297
-0.714 3.988 1.946 4612
-0.676 3.775 1.849 3557
-0.621 3.469 1.708 1806
-0.702 3.922 1.902 5370
-0.678 3.787 1.841 4355
-0.726 4.057 1.964 2402
-0.622 3.474 1.698 1118
-0.703 3.927 1.891 6267
-0.679 3.792 1.830 3267
-0.727 4.062 1.952 3083
-0.703 3.925 1.876 6443
-0.727 4.060 1.937 3320
-0.678 3.789 1.815 1265
-0.704 3.930 1.865 8138
-0.741 4.137 1.957 4444
-0.706 3.942 1.856 7658
-0.730 4.078 1.916 5591
-0.754 4.213 1.976 1814
-0.728 4.068 1.898 6893
-0.704 3.932 1.839 3971
-0.753 4.204 1.958 3573
-0.722 4.031 1.868 7551
-0.747 4.174 1.930 6233
-0.697 3.894 1.808 1650
-0.772 4.310 1.989 1401
-0.722 4.035 1.856 7898
-0.764 4.265 1.955 6337
-0.788 4.401 2.013 1447
-0.698 3.899 1.797 1082
-0.725 4.048 1.847 6984
-0.765 4.270 1.942 6662
-0.789 4.407 2.000 1869
-0.765 4.275 1.930 7792
-0.726 4.052 1.835 3762
-0.790 4.412 1.988 1975
-0.768 4.288 1.920 8781
-0.792 4.425 1.978 2025
-0.729 4.072 1.829 1666
-0.770 4.300 1.911 7800
-0.794 4.437 1.968 1381
-0.731 4.084 1.820 1160
-0.773 4.320 1.904 6709
-0.782 4.368 1.909 5985
-0.756 4.223 1.850 1518
-0.786 4.387 1.902 5730
-0.789 4.407 1.895 5401
-0.814 4.545 1.951 1042
-0.791 4.419 1.885 3498
-0.816 4.557 1.940 1738
-0.804 4.490 1.898 4333
-0.779 4.352 1.843 1029
-0.806 4.502 1.888 4920
-0.831 4.640 1.942 1465
-0.820 4.580 1.903 5583
-0.795 4.441 1.849 2060
-0.820 4.577 1.887 6602
-0.844 4.716 1.940 1372
-0.795 4.439 1.833 1256
-0.823 4.597 1.879 7016
-0.850 4.750 1.937 2048
-0.798 4.458 1.826 1330
-0.827 4.617 1.871 6082
-0.851 4.755 1.923 2685
-0.802 4.478 1.818 2047
-0.834 4.658 1.871 4336
-0.859 4.797 1.923 2345
-0.807 4.505 1.813 1887
-0.852 4.758 1.893 4161
-0.827 4.619 1.841 2704
-0.877 4.897 1.945 1486
-0.849 4.741 1.871 5977
-0.874 4.880 1.922 2981
-0.824 4.602 1.819 1358
-0.848 4.739 1.854 6559
-0.873 4.878 1.905 5341
-0.873 4.876 1.888 7300
-0.848 4.736 1.838 4059
-0.867 4.844 1.861 6671
-0.842 4.705 1.810 1715
-0.913 5.101 1.953 1157
-0.873 4.878 1.857 4622
-0.848 4.739 1.807 2820
-0.918 5.129 1.946 1563
-0.884 4.935 1.861 6035
-0.909 5.075 1.910 2290
-0.855 4.773 1.804 2230
-0.887 4.955 1.851 6806
-0.912 5.095 1.900 4435
-0.862 4.815 1.802 1866
-0.937 5.235 1.949 1141
-0.895 4.996 1.850 6241
-0.920 5.137 1.898 3281
-0.869 4.856 1.801 1854
-0.949 5.299 1.954 1357
-0.895 5.001 1.835 4239
-0.931 5.201 1.903 3768
-0.870 4.861 1.787 1382
-0.931 5.198 1.885 4001
-0.898 5.014 1.823 3326
-0.972 5.427 1.963 1239
-0.930 5.196 1.868 3481
-0.967 5.403 1.937 2431
-0.901 5.033 1.813 1937
-0.958 5.349 1.902 3860
-0.931 5.201 1.852 3622
-0.989 5.527 1.961 1439
-0.960 5.361 1.888 5791
-0.933 5.213 1.840 3280
-0.994 5.554 1.952 2542
-0.962 5.374 1.875 5023
-0.994 5.552 1.933 2875
-0.937 5.233 1.829 2111
-1.000 5.587 1.926 2848
-0.972 5.431 1.876 2742
-0.934 5.215 1.806 1049
-1.002 5.599 1.912 4053
-0.977 5.458 1.867 1428
-1.030 5.755 1.962 1260
-1.006 5.619 1.901 3166
-1.031 5.761 1.945 1746
-0.981 5.478 1.856 1731
-1.011 5.647 1.891 3507
-1.036 5.788 1.935 1502
-0.986 5.505 1.847 1492
-1.013 5.659 1.877 3613
-1.039 5.801 1.921 1645
-1.065 5.950 1.967 1405
-1.038 5.798 1.901 2527
-1.013 5.657 1.858 2221
-1.066 5.955 1.949 1318
-1.028 5.744 1.866 2285
-1.064 5.945 1.927 1931
-1.064 5.943 1.908 2528
-1.028 5.741 1.847 2517
-1.025 5.724 1.823 1779
-1.062 5.933 1.886 1763
-1.104 6.165 1.955 1603
-1.105 6.170 1.936 2338
-1.035 5.781 1.822 1121
-1.071 5.983 1.881 1112
-1.108 6.190 1.923 1955
-1.076 6.010 1.870 1551
-1.146 6.400 1.984 1161
-1.078 6.023 1.855 1952
-1.119 6.248 1.919 1709
-1.168 6.525 1.999 1676
-1.169 6.531 1.980 2276
-1.109 6.193 1.884 2018
-1.138 6.358 1.931 1517
-1.078 6.020 1.835 1073
-1.170 6.536 1.961 4365
-1.108 6.190 1.864 1650
-1.135 6.341 1.906 1295
-1.171 6.541 1.941 5105
-1.140 6.368 1.893 1594
-1.171 6.539 1.920 5190
-1.145 6.396 1.881 1480
-1.222 6.825 1.999 1165
-1.172 6.544 1.901 5198
-1.221 6.822 1.977 1660
-1.146 6.401 1.862 1023
-1.175 6.564 1.886 4496
-1.221 6.820 1.954 2054
-1.279 7.144 2.041 1466
-1.253 7.001 2.003 1155
-1.177 6.576 1.868 4231
-1.222 6.825 1.934 2304
-1.284 7.172 2.026 2151
-1.177 6.574 1.847 2432
-1.285 7.177 2.005 2293
-1.223 6.830 1.914 1962
-1.287 7.190 1.986 1969
-1.314 7.341 2.025 1757
-1.217 6.798 1.884 1416
-1.182 6.601 1.834 1203
-1.317 7.354 2.005 2635
-1.291 7.211 1.969 2300
-1.250 6.984 1.911 1561
-1.349 7.536 2.052 1364
-1.316 7.352 1.982 2321
-1.291 7.208 1.945 2051
-1.346 7.518 2.024 1596
-1.253 6.997 1.892 1067
-1.347 7.524 2.002 1382
-1.294 7.229 1.928 1310
-1.320 7.372 1.964 1186
-1.412 7.885 2.067 1505
-1.362 7.605 1.998 1058
-1.415 7.906 2.047 1643
-1.452 8.110 2.097 1362
-1.344 7.504 1.950 1193
-1.452 8.108 2.071 1439
-1.422 7.942 2.031 1303
-1.470 8.213 2.071 1476
-1.521 8.493 2.137 1079
-1.571 8.773 2.176 1428
-1.471 8.218 2.047 1197
-1.543 8.621 2.141 1191
-1.570 8.771 2.148 1847
-1.542 8.611 2.112 1088
-1.571 8.777 2.123 1164
-1.541 8.609 2.085 1025
-1.662 9.284 2.209 1536
-1.617 9.033 2.153 1426
-1.663 9.290 2.182 2354
-1.618 9.039 2.126 2099
-1.662 9.281 2.151 2462
-1.625 9.075 2.106 1330
-1.788 9.990 2.306 1083
-1.663 9.287 2.124 2672
-1.736 9.698 2.212 1451
-1.689 9.432 2.155 1143
-1.790 9.996 2.276 1112
-1.687 9.422 2.124 1966
-1.742 9.727 2.188 1959
-1.661 9.277 2.093 1644
-1.823 10.185 2.285 1313
-1.691 9.443 2.099 1522
-1.826 10.199 2.257 1275
-1.740 9.718 2.157 1184
-1.785 9.970 2.209 1082
-1.796 10.029 2.191 1645
-1.826 10.197 2.225 1372
-1.734 9.685 2.120 1102
-1.798 10.043 2.163 2073
-1.824 10.188 2.192 1356
-1.754 9.798 2.113 1076
-1.869 10.440 2.243 1030
-1.799 10.048 2.133 2078
-1.825 10.194 2.162 1397
-1.800 10.054 2.103 1994
-1.830 10.222 2.136 1479
-1.981 11.064 2.302 1277
-1.933 10.796 2.249 1048
-1.982 11.070 2.269 2010
-1.857 10.373 2.134 1683
-1.934 10.802 2.217 1680
-1.804 10.075 2.077 1487
-1.983 11.076 2.236 2950
-1.864 10.410 2.110 1787
-1.956 10.923 2.207 1716
-2.071 11.566 2.330 1098
-1.983 11.074 2.202 4130
-1.957 10.929 2.175 1650
-2.064 11.527 2.287 1507
-1.866 10.423 2.080 1012
-1.984 11.080 2.169 4588
-2.065 11.533 2.253 1919
-2.094 11.694 2.282 1269
-1.934 10.804 2.119 1147
-1.986 11.094 2.138 3455
-2.097 11.715 2.251 1430
-2.067 11.546 2.220 1386
-1.987 11.100 2.105 2327
-2.077 11.598 2.194 1412
-2.103 11.744 2.220 1120
-1.990 11.113 2.074 1697
-2.076 11.597 2.159 1557
-2.207 12.326 2.286 1175
-2.083 11.633 2.130 1312
-2.208 12.332 2.250 1243
-1.991 11.118 2.041 1182
-2.085 11.646 2.097 1362
-0.422 2.375 1.865 5092
-0.423 2.380 1.859 10185
-0.425 2.391 1.856 9055
-0.447 2.511 1.944 1121
-0.429 2.415 1.863 8797
-0.430 2.420 1.856 8134
-0.432 2.431 1.854 7543
-0.454 2.552 1.941 1139
-0.433 2.436 1.847 7543
-0.455 2.557 1.933 1600
-0.433 2.434 1.835 7638
-0.455 2.556 1.921 1897
-0.433 2.433 1.823 7991
-0.454 2.554 1.909 2128
-0.434 2.438 1.816 5754
-0.455 2.559 1.902 2687
-0.436 2.449 1.814 3568
-0.457 2.571 1.899 3101
-0.456 2.563 1.883 3805
-0.434 2.441 1.798 2646
-0.457 2.568 1.875 4427
-0.435 2.446 1.791 1870
-0.458 2.573 1.868 4427
-0.436 2.450 1.784 1861
-0.459 2.578 1.860 5084
-0.437 2.455 1.776 1376
-0.459 2.583 1.853 5694
-0.437 2.460 1.769 1030
-0.464 2.607 1.858 6407
-0.442 2.484 1.775 2127
-0.467 2.625 1.860 8787
-0.445 2.502 1.777 2975
-0.470 2.643 1.861 8226
-0.448 2.519 1.778 2749
-0.474 2.668 1.866 8701
-0.452 2.544 1.784 2566
-0.472 2.653 1.845 9254
-0.450 2.529 1.764 1329
-0.473 2.658 1.837 10526
-0.474 2.663 1.830 9422
-0.496 2.788 1.911 1250
-0.474 2.668 1.822 8318
-0.497 2.793 1.902 1920
-0.475 2.673 1.814 6248
-0.498 2.798 1.894 2770
-0.494 2.777 1.869 5412
-0.468 2.631 1.777 4644
-0.491 2.762 1.849 7998
-0.469 2.636 1.769 3560
-0.491 2.760 1.837 10979
-0.468 2.634 1.758 2030
-0.513 2.886 1.916 1143
-0.492 2.765 1.829 11202
-0.469 2.639 1.750 1568
-0.514 2.891 1.907 1373
-0.493 2.770 1.820 11426
-0.515 2.896 1.899 1603
-0.470 2.643 1.742 1107
-0.495 2.781 1.817 10410
-0.517 2.908 1.894 1483
-0.472 2.654 1.739 1142
-0.497 2.793 1.813 9527
-0.520 2.926 1.894 1476
-0.474 2.666 1.735 1002
-0.505 2.838 1.829 7961
-0.482 2.710 1.752 2465
-0.507 2.849 1.825 8120
-0.484 2.722 1.748 1411
-0.506 2.847 1.812 7268
-0.529 2.975 1.889 1982
-0.523 2.939 1.856 6903
-0.500 2.812 1.780 4764
-0.521 2.931 1.839 9703
-0.498 2.803 1.764 3614
-0.521 2.929 1.827 14688
-0.498 2.801 1.752 2493
-0.522 2.934 1.818 16352
-0.499 2.805 1.743 1381
-0.547 3.076 1.901 1120
-0.524 2.945 1.814 13752
-0.547 3.074 1.888 1480
-0.501 2.817 1.739 1301
-0.527 2.964 1.813 12553
-0.504 2.835 1.739 1586
-0.550 3.093 1.887 1491
-0.529 2.975 1.808 13485
-0.552 3.105 1.882 2245
-0.506 2.846 1.734 1356
-0.531 2.987 1.803 13400
-0.554 3.116 1.877 2857
-0.533 2.999 1.798 12257
-0.556 3.128 1.871 3192
-0.584 3.285 1.960 1138
-0.533 2.997 1.786 12597
-0.556 3.126 1.858 5595
-0.585 3.290 1.950 1973
-0.533 2.994 1.773 13283
-0.556 3.124 1.846 7579
-0.586 3.295 1.941 2543
-0.535 3.006 1.768 11531
-0.558 3.136 1.840 5772
-0.586 3.294 1.927 3429
-0.553 3.107 1.812 6775
-0.529 2.976 1.741 4379
-0.587 3.299 1.918 4335
-0.551 3.098 1.796 5891
-0.589 3.311 1.912 4843
-0.528 2.967 1.725 1943
-0.553 3.109 1.790 5320
-0.590 3.316 1.902 4453
-0.530 2.979 1.720 1434
-0.558 3.135 1.792 5516
-0.593 3.335 1.900 3620
-0.558 3.139 1.783 6200
-0.594 3.340 1.890 3132
-0.557 3.130 1.767 6354
-0.595 3.345 1.880 2779
-0.555 3.121 1.750 6324
-0.596 3.350 1.870 2913
-0.556 3.126 1.741 5601
-0.595 3.348 1.857 2608
-0.557 3.130 1.732 4256
-0.580 3.262 1.800 2723
-0.621 3.492 1.919 1341
-0.579 3.253 1.784 4023
-0.555 3.121 1.716 3333
-0.622 3.497 1.909 1793
-0.574 3.230 1.760 4986
-0.626 3.523 1.909 2235
-0.551 3.098 1.693 2221
-0.599 3.369 1.831 2115
-0.574 3.228 1.747 4811
-0.630 3.542 1.906 2877
-0.653 3.674 1.973 1856
-0.601 3.381 1.825 1706
-0.567 3.190 1.717 6607
-0.632 3.554 1.899 2888
-0.656 3.686 1.966 2251
-0.591 3.323 1.783 1845
-0.571 3.209 1.714 7544
-0.655 3.685 1.952 3532
-0.620 3.489 1.854 2836
-0.594 3.342 1.781 1851
-0.574 3.227 1.712 6375
-0.659 3.704 1.948 4247
-0.623 3.501 1.847 2285
-0.598 3.361 1.778 1988
-0.653 3.674 1.920 5123
-0.580 3.260 1.716 4725
-0.556 3.127 1.651 3673
-0.603 3.393 1.782 2488
-0.654 3.679 1.909 6654
-0.587 3.300 1.724 4072
-0.558 3.138 1.645 2892
-0.611 3.433 1.789 2055
-0.659 3.705 1.909 10089
-0.588 3.304 1.714 3415
-0.611 3.438 1.779 2957
-0.560 3.149 1.639 1992
-0.659 3.703 1.894 14635
-0.611 3.436 1.766 3665
-0.587 3.302 1.701 2951
-0.560 3.147 1.627 1776
-0.660 3.708 1.883 14168
-0.683 3.842 1.947 2769
-0.613 3.447 1.759 2672
-0.589 3.313 1.695 2606
-0.659 3.706 1.869 12976
-0.683 3.840 1.933 3949
-0.591 3.325 1.689 2001
-0.615 3.459 1.752 1715
-0.660 3.711 1.858 9643
-0.684 3.846 1.922 4177
-0.612 3.442 1.732 1793
-0.588 3.308 1.669 1237
-0.661 3.716 1.848 4908
-0.691 3.886 1.927 4344
-0.613 3.447 1.722 2024
-0.707 3.976 1.955 3943
-0.666 3.742 1.847 3171
-0.615 3.459 1.715 2081
-0.709 3.989 1.946 4624
-0.674 3.790 1.855 3697
-0.617 3.470 1.708 1682
-0.698 3.923 1.902 5067
-0.674 3.788 1.841 4517
-0.722 4.058 1.964 2431
-0.618 3.475 1.698 1067
-0.699 3.928 1.891 6068
-0.674 3.792 1.830 3409
-0.723 4.063 1.952 3107
-0.698 3.926 1.876 6494
-0.722 4.061 1.937 3318
-0.674 3.790 1.815 1359
-0.699 3.931 1.865 8163
-0.736 4.138 1.957 4628
-0.700 3.936 1.853 7628
-0.724 4.071 1.913 5793
-0.748 4.207 1.973 1969
-0.724 4.069 1.898 7075
-0.700 3.933 1.839 4202
-0.748 4.205 1.958 3223
-0.718 4.039 1.871 7417
-0.742 4.175 1.930 5763
-0.694 3.902 1.811 2122
-0.767 4.311 1.989 1301
-0.719 4.043 1.859 7575
-0.759 4.266 1.955 5995
-0.783 4.402 2.013 1512
-0.695 3.907 1.800 1413
-0.720 4.048 1.847 6601
-0.758 4.264 1.939 6491
-0.783 4.400 1.997 2302
-0.761 4.276 1.930 7687
-0.721 4.053 1.835 3648
-0.785 4.413 1.988 2126
-0.764 4.296 1.923 8702
-0.740 4.159 1.866 2119
-0.788 4.433 1.981 1840
-0.766 4.308 1.914 7651
-0.742 4.171 1.856 1365
-0.791 4.445 1.971 1016
-0.768 4.320 1.904 6664
-0.744 4.183 1.847 1100
-0.777 4.369 1.909 5908
-0.751 4.224 1.850 1947
-0.780 4.388 1.902 5174
-0.752 4.229 1.837 1445
-0.785 4.415 1.898 5116
-0.753 4.234 1.825 1062
-0.810 4.553 1.954 1021
-0.791 4.449 1.897 4080
-0.816 4.587 1.952 1257
-0.797 4.483 1.895 4952
-0.822 4.621 1.950 1200
-0.801 4.503 1.888 5156
-0.825 4.641 1.942 1396
-0.813 4.573 1.900 5346
-0.789 4.435 1.846 2252
-0.814 4.578 1.887 6500
-0.790 4.440 1.833 1627
-0.839 4.717 1.940 1315
-0.818 4.598 1.879 7052
-0.845 4.751 1.937 2083
-0.793 4.459 1.826 1362
-0.821 4.618 1.871 6182
-0.846 4.756 1.923 2705
-0.797 4.479 1.818 1769
-0.830 4.666 1.874 4418
-0.855 4.805 1.926 1739
-0.800 4.498 1.811 1552
-0.845 4.752 1.890 4269
-0.820 4.613 1.838 2476
-0.870 4.891 1.942 1857
-0.842 4.735 1.868 5942
-0.867 4.874 1.919 3160
-0.817 4.596 1.817 1156
-0.843 4.740 1.854 6850
-0.868 4.879 1.905 4824
-0.818 4.601 1.803 1017
-0.867 4.877 1.888 6582
-0.843 4.737 1.838 4296
-0.860 4.838 1.858 6226
-0.836 4.698 1.808 1745
-0.885 4.977 1.908 1188
-0.910 5.117 1.958 1115
-0.869 4.887 1.859 4566
-0.844 4.747 1.810 3058
-0.912 5.130 1.946 1548
-0.877 4.929 1.858 5906
-0.849 4.774 1.804 2308
-0.901 5.069 1.907 2185
-0.926 5.208 1.957 1171
-0.881 4.956 1.851 6082
-0.906 5.096 1.900 4413
-0.856 4.816 1.802 1753
-0.931 5.236 1.949 1152
-0.889 4.997 1.850 5982
-0.914 5.138 1.898 3489
-0.864 4.857 1.801 1711
-0.940 5.285 1.949 1339
-0.890 5.002 1.835 4139
-0.925 5.202 1.903 4040
-0.865 4.862 1.787 1376
-0.923 5.192 1.883 4473
-0.892 5.015 1.823 3260
-0.964 5.421 1.961 1459
-0.867 4.874 1.775 1095
-0.918 5.160 1.855 3775
-0.961 5.404 1.937 2598
-0.893 5.019 1.808 1967
-0.952 5.350 1.902 3582
-0.925 5.202 1.852 3437
-0.977 5.491 1.948 1457
-0.954 5.363 1.888 5336
-0.929 5.222 1.842 3396
-0.985 5.540 1.947 2493
-0.956 5.375 1.875 4841
-0.986 5.546 1.931 3098
-0.931 5.234 1.829 2349
-0.992 5.580 1.924 2956
-0.967 5.439 1.878 2859
-0.930 5.231 1.811 1123
-0.996 5.600 1.912 4166
-0.971 5.459 1.867 1601
-1.024 5.757 1.962 1258
-1.000 5.620 1.901 3237
-0.974 5.479 1.856 1745
-1.025 5.762 1.945 1577
-1.006 5.655 1.893 3702
-0.981 5.514 1.849 1631
-1.031 5.797 1.938 1329
-1.007 5.660 1.877 3638
-1.032 5.802 1.921 1740
-1.060 5.958 1.969 1305
-1.030 5.792 1.899 2602
-1.005 5.650 1.856 2366
-1.061 5.964 1.952 1275
-1.023 5.752 1.868 2133
-1.067 5.999 1.943 1974
-1.056 5.937 1.905 2661
-1.021 5.742 1.847 2357
-1.054 5.927 1.883 1950
-1.017 5.717 1.821 1893
-1.097 6.166 1.955 1520
-1.096 6.164 1.934 2133
-1.030 5.789 1.824 1192
-1.055 5.932 1.866 1108
-1.101 6.191 1.923 1833
-1.070 6.019 1.873 1314
-1.130 6.356 1.970 1292
-1.161 6.529 2.021 1002
-1.161 6.527 1.999 1938
-1.130 6.354 1.950 1883
-1.071 6.024 1.855 1622
-1.102 6.197 1.904 1616
-1.162 6.532 1.980 2381
-1.103 6.202 1.886 2041
-1.130 6.352 1.929 1802
-1.163 6.537 1.961 4604
-1.101 6.192 1.864 1814
-1.131 6.357 1.910 1404
-1.164 6.542 1.941 5055
-1.133 6.369 1.893 1536
-1.163 6.540 1.920 4722
-1.136 6.390 1.879 1167
-1.214 6.826 1.999 1083
-1.164 6.545 1.901 4690
-1.214 6.824 1.977 1508
-1.251 7.035 2.034 1203
-1.169 6.573 1.888 4375
-1.215 6.829 1.956 1816
-1.249 7.025 2.009 1663
-1.275 7.168 2.047 1282
-1.173 6.593 1.872 4372
-1.276 7.174 2.026 2028
-1.214 6.827 1.934 1932
-1.250 7.030 1.988 1107
-1.169 6.575 1.847 2472
-1.275 7.171 2.003 2265
-1.216 6.839 1.916 1794
-1.305 7.337 2.047 1020
-1.279 7.192 1.986 1818
-1.306 7.343 2.025 1815
-1.209 6.799 1.884 1500
-1.172 6.588 1.830 1234
-1.307 7.348 2.003 2594
-1.281 7.205 1.967 1968
-1.244 6.993 1.913 1199
-1.345 7.560 2.057 1118
-1.308 7.354 1.982 2252
-1.282 7.210 1.945 1734
-1.337 7.520 2.024 1507
-1.338 7.525 2.002 1664
-1.309 7.359 1.960 1326
-1.399 7.866 2.086 1057
-1.403 7.887 2.067 1383
-1.355 7.622 2.002 1071
-1.408 7.915 2.049 1465
-1.443 8.112 2.097 1209
-1.335 7.506 1.950 1164
-1.441 8.103 2.070 1418
-1.413 7.943 2.031 1137
-1.467 8.247 2.104 1003
-1.461 8.214 2.071 1292
-1.511 8.495 2.137 1080
-1.559 8.767 2.174 1516
-1.463 8.227 2.048 1153
-1.533 8.622 2.141 1147
-1.560 8.773 2.148 1962
-1.533 8.621 2.113 1049
-1.561 8.778 2.123 1226
-1.594 8.961 2.164 1042
-1.607 9.035 2.153 1717
-1.653 9.294 2.211 1466
-1.608 9.041 2.126 2472
-1.654 9.300 2.184 2258
-1.652 9.290 2.153 2173
-1.613 9.069 2.105 1492
-1.778 9.999 2.307 1155
-1.652 9.289 2.124 2442
-1.722 9.685 2.209 1366
-1.781 10.013 2.279 1265
-1.678 9.433 2.155 1006
-1.656 9.309 2.100 1860
-1.730 9.729 2.188 1667
-1.812 10.187 2.285 1303
-1.681 9.454 2.130 1254
-1.685 9.475 2.106 1314
-1.814 10.201 2.257 1239
-1.775 9.979 2.211 1040
-1.783 10.023 2.189 1365
-1.815 10.207 2.227 1253
-1.723 9.687 2.120 1105
-1.841 10.352 2.257 1021
-1.785 10.037 2.161 1800
-1.812 10.190 2.192 1200
-1.744 9.808 2.115 1087
-1.858 10.450 2.245 1009
-1.786 10.043 2.132 1903
-1.813 10.196 2.162 1305
-1.788 10.056 2.103 1913
-1.820 10.232 2.138 1586
-1.968 11.066 2.302 1189
-1.862 10.469 2.185 1152
-1.969 11.072 2.269 1973
-1.843 10.360 2.131 1681
-1.922 10.804 2.217 1591
-1.794 10.085 2.078 1567
-1.970 11.078 2.236 2893
-1.925 10.826 2.188 1719
-1.845 10.374 2.102 1635
-2.041 11.477 2.312 1124
-1.970 11.077 2.202 4010
-1.925 10.824 2.155 1533
-2.050 11.529 2.287 1429
-1.971 11.083 2.169 4450
-2.052 11.535 2.253 1744
-1.922 10.807 2.119 1327
-2.082 11.704 2.284 1261
-1.973 11.096 2.138 3298
-2.084 11.718 2.251 1517
-2.054 11.549 2.220 1222
-2.028 11.403 2.194 1023
-1.974 11.102 2.105 2117
-2.063 11.601 2.194 1443
-2.089 11.747 2.220 1243
-2.063 11.599 2.159 1601
-1.977 11.115 2.074 1501
-2.193 12.329 2.286 1260
-2.089 11.745 2.184 1003
-2.194 12.335 2.250 1301
-2.068 11.628 2.128 1230
-1.978 11.121 2.041 1050
-2.088 11.741 2.112 1210
-0.418 2.375 1.865 4936
-0.418 2.380 1.859 9873
-0.420 2.392 1.856 8575
-0.442 2.512 1.944 1082
-0.425 2.416 1.863 8229
-0.426 2.421 1.856 7530
-0.426 2.425 1.849 6831
-0.448 2.546 1.936 1259
-0.427 2.430 1.842 6831
-0.449 2.551 1.929 1664
-0.427 2.429 1.831 7015
-0.448 2.550 1.917 2211
-0.427 2.427 1.819 7333
-0.448 2.549 1.905 2785
-0.428 2.432 1.812 5393
-0.449 2.554 1.898 3474
-0.450 2.559 1.890 4163
-0.428 2.437 1.805 3454
-0.451 2.564 1.883 4309
-0.429 2.442 1.798 2773
-0.452 2.569 1.875 4454
-0.430 2.447 1.791 2093
-0.452 2.574 1.868 4454
-0.431 2.451 1.784 2080
-0.455 2.585 1.865 4713
-0.433 2.462 1.781 1647
-0.455 2.590 1.857 5058
-0.434 2.467 1.774 1095
-0.459 2.608 1.858 6601
-0.437 2.485 1.775 1701
-0.462 2.626 1.860 9019
-0.440 2.503 1.777 2382
-0.464 2.638 1.856 8345
-0.442 2.514 1.774 2064
-0.469 2.669 1.866 8581
-0.447 2.545 1.784 2456
-0.467 2.654 1.845 9411
-0.445 2.530 1.764 1145
-0.466 2.652 1.833 10854
-0.488 2.777 1.914 1016
-0.467 2.657 1.825 9715
-0.489 2.782 1.906 2024
-0.469 2.669 1.822 8577
-0.491 2.794 1.902 2348
-0.469 2.667 1.810 6164
-0.491 2.792 1.890 3980
-0.488 2.778 1.869 6403
-0.463 2.632 1.777 5130
-0.487 2.769 1.853 8320
-0.465 2.643 1.774 4128
-0.487 2.768 1.841 11021
-0.464 2.641 1.762 2557
-0.509 2.894 1.920 1043
-0.487 2.772 1.833 11196
-0.465 2.646 1.754 2146
-0.510 2.899 1.911 1212
-0.487 2.771 1.820 11380
-0.509 2.897 1.899 1435
-0.465 2.644 1.742 1259
-0.489 2.782 1.817 10800
-0.511 2.909 1.894 1525
-0.467 2.655 1.739 1288
-0.491 2.794 1.813 10318
-0.513 2.921 1.890 1621
-0.469 2.667 1.735 1083
-0.500 2.845 1.833 8690
-0.478 2.718 1.756 3014
-0.502 2.857 1.829 9012
-0.480 2.729 1.752 1939
-0.503 2.862 1.820 7421
-0.481 2.734 1.744 1532
-0.525 2.989 1.897 1261
-0.515 2.927 1.848 6974
-0.492 2.799 1.772 4159
-0.515 2.932 1.839 9098
-0.491 2.790 1.756 3674
-0.515 2.930 1.827 13040
-0.493 2.802 1.752 2613
-0.516 2.935 1.818 14850
-0.493 2.806 1.743 1599
-0.541 3.077 1.901 1261
-0.518 2.946 1.814 12724
-0.541 3.075 1.888 1751
-0.495 2.818 1.739 1557
-0.521 2.965 1.813 11798
-0.499 2.836 1.739 1822
-0.544 3.094 1.887 1763
-0.523 2.976 1.808 12649
-0.546 3.106 1.882 2484
-0.501 2.847 1.734 1533
-0.525 2.988 1.803 12975
-0.548 3.117 1.877 3114
-0.574 3.267 1.962 1080
-0.527 3.000 1.798 12074
-0.550 3.129 1.871 3306
-0.578 3.286 1.960 1353
-0.527 2.998 1.786 12215
-0.550 3.127 1.858 5464
-0.579 3.291 1.950 2326
-0.528 3.002 1.777 12651
-0.551 3.132 1.849 6452
-0.579 3.296 1.941 2968
-0.529 3.007 1.768 11023
-0.551 3.137 1.840 5670
-0.579 3.295 1.927 4069
-0.545 3.101 1.809 6573
-0.580 3.300 1.918 5193
-0.522 2.970 1.737 3247
-0.545 3.099 1.796 6257
-0.582 3.312 1.912 6027
-0.522 2.968 1.725 1929
-0.583 3.317 1.902 5885
-0.547 3.110 1.790 5409
-0.524 2.980 1.720 1340
-0.606 3.448 1.973 1186
-0.550 3.129 1.789 5223
-0.585 3.329 1.896 4956
-0.608 3.460 1.966 1351
-0.552 3.141 1.783 5846
-0.587 3.341 1.890 4196
-0.610 3.472 1.960 1146
-0.552 3.138 1.770 5905
-0.588 3.346 1.880 3486
-0.611 3.477 1.950 1032
-0.549 3.122 1.750 5581
-0.589 3.351 1.870 3527
-0.550 3.127 1.741 5003
-0.589 3.349 1.857 3272
-0.612 3.481 1.926 1177
-0.550 3.132 1.732 3926
-0.590 3.354 1.847 2823
-0.614 3.493 1.919 1996
-0.551 3.136 1.723 3812
-0.575 3.268 1.791 3293
-0.615 3.498 1.909 2686
-0.568 3.231 1.760 4531
-0.619 3.524 1.909 3053
-0.545 3.099 1.693 2704
-0.593 3.371 1.831 2601
-0.554 3.152 1.708 4222
-0.623 3.543 1.906 3851
-0.577 3.285 1.775 2753
-0.646 3.675 1.973 1882
-0.560 3.185 1.713 5185
-0.616 3.506 1.875 3811
-0.641 3.646 1.945 3055
-0.583 3.317 1.780 1828
-0.561 3.189 1.704 5201
-0.615 3.497 1.857 3757
-0.648 3.686 1.952 3582
-0.584 3.322 1.770 2226
-0.650 3.698 1.944 4362
-0.571 3.250 1.722 4089
-0.548 3.116 1.656 3200
-0.616 3.502 1.847 2980
-0.645 3.668 1.916 5602
-0.579 3.296 1.734 4870
-0.551 3.135 1.654 4348
-0.603 3.430 1.799 1960
-0.647 3.680 1.909 7187
-0.580 3.301 1.724 4436
-0.552 3.139 1.645 3594
-0.670 3.814 1.974 2122
-0.652 3.707 1.909 10411
-0.580 3.298 1.711 3701
-0.603 3.432 1.776 2713
-0.553 3.144 1.636 2632
-0.651 3.705 1.894 15091
-0.604 3.437 1.766 3114
-0.581 3.303 1.701 2913
-0.553 3.148 1.627 2268
-0.651 3.703 1.880 14986
-0.674 3.837 1.944 2985
-0.584 3.321 1.698 2302
-0.607 3.456 1.762 2177
-0.652 3.708 1.869 14134
-0.675 3.842 1.933 4405
-0.586 3.333 1.692 1771
-0.610 3.467 1.756 1417
-0.651 3.705 1.855 10673
-0.675 3.840 1.918 4802
-0.605 3.444 1.732 1621
-0.699 3.974 1.981 1278
-0.653 3.717 1.848 5183
-0.683 3.887 1.927 4718
-0.606 3.448 1.722 1768
-0.698 3.971 1.952 3817
-0.674 3.836 1.889 3198
-0.608 3.460 1.715 1820
-0.651 3.701 1.827 1728
-0.700 3.983 1.943 4601
-0.668 3.798 1.858 3728
-0.609 3.464 1.705 1503
-0.670 3.810 1.851 4793
-0.706 4.017 1.945 4094
-0.691 3.929 1.891 5365
-0.667 3.794 1.830 3378
-0.715 4.064 1.952 3217
-0.690 3.927 1.876 6045
-0.714 4.063 1.937 3615
-0.667 3.791 1.815 1439
-0.690 3.925 1.862 7742
-0.728 4.139 1.957 4965
-0.692 3.937 1.853 7413
-0.730 4.151 1.948 5968
-0.754 4.287 2.008 1170
-0.716 4.071 1.898 7321
-0.692 3.935 1.839 4407
-0.740 4.207 1.958 3286
-0.711 4.047 1.874 7576
-0.735 4.183 1.933 5602
-0.688 3.911 1.815 2552
-0.711 4.045 1.859 7392
-0.736 4.188 1.921 6010
-0.769 4.375 2.001 2108
-0.687 3.909 1.800 1524
-0.749 4.258 1.936 6495
-0.712 4.050 1.847 6051
-0.773 4.395 1.994 2822
-0.752 4.278 1.930 7595
-0.713 4.055 1.835 3421
-0.776 4.414 1.988 2333
-0.755 4.297 1.923 8288
-0.731 4.160 1.866 2962
-0.780 4.434 1.981 1978
-0.707 4.024 1.808 1015
-0.759 4.317 1.917 7235
-0.735 4.180 1.859 2081
-0.761 4.329 1.907 6301
-0.737 4.192 1.850 1772
-0.768 4.370 1.909 5633
-0.744 4.233 1.853 2675
-0.770 4.383 1.899 4436
-0.746 4.245 1.843 1306
-0.776 4.417 1.898 4961
-0.801 4.554 1.954 1217
-0.782 4.451 1.897 5794
-0.807 4.589 1.952 1313
-0.786 4.470 1.889 6470
-0.810 4.608 1.944 1651
-0.791 4.497 1.885 5606
-0.815 4.635 1.939 1646
-0.804 4.575 1.900 4916
-0.780 4.437 1.846 2720
-0.806 4.587 1.889 6270
-0.782 4.449 1.836 2379
-0.831 4.726 1.943 1172
-0.810 4.607 1.882 7056
-0.836 4.753 1.937 2076
-0.785 4.468 1.828 1684
-0.812 4.619 1.871 6233
-0.836 4.758 1.923 2741
-0.788 4.480 1.818 1518
-0.822 4.675 1.876 4528
-0.846 4.814 1.929 1324
-0.790 4.493 1.808 1262
-0.836 4.754 1.890 4340
-0.811 4.614 1.838 2605
-0.860 4.893 1.942 2014
-0.831 4.729 1.865 5750
-0.856 4.868 1.917 3553
-0.807 4.590 1.814 1203
-0.834 4.742 1.854 6664
-0.858 4.881 1.905 4354
-0.809 4.602 1.803 1314
-0.856 4.871 1.885 5636
-0.832 4.732 1.835 4056
-0.851 4.840 1.858 5488
-0.826 4.700 1.808 2021
-0.875 4.979 1.908 1300
-0.900 5.119 1.958 1087
-0.861 4.896 1.862 4808
-0.836 4.756 1.812 3406
-0.903 5.139 1.948 1573
-0.865 4.923 1.855 5919
-0.841 4.783 1.806 2489
-0.890 5.063 1.905 2008
-0.915 5.203 1.954 1486
-0.877 4.987 1.862 5148
-0.901 5.127 1.911 3733
-0.852 4.847 1.813 1652
-0.879 4.999 1.850 5258
-0.903 5.139 1.898 4076
-0.854 4.859 1.801 1552
-0.928 5.280 1.946 1212
-0.913 5.196 1.901 4598
-0.881 5.011 1.837 3940
-0.856 4.871 1.789 1481
-0.958 5.447 1.987 1071
-0.913 5.194 1.883 5408
-0.882 5.016 1.823 3396
-0.956 5.438 1.966 1594
-0.857 4.876 1.775 1097
-0.907 5.162 1.855 4490
-0.933 5.310 1.905 2443
-0.883 5.021 1.808 2196
-0.958 5.451 1.952 1751
-0.916 5.211 1.855 3514
-0.950 5.404 1.919 3355
-0.979 5.567 1.973 1302
-0.943 5.364 1.888 4602
-0.918 5.223 1.842 3669
-0.976 5.550 1.949 2616
-0.945 5.377 1.875 4401
-0.975 5.548 1.931 3462
-0.920 5.236 1.829 2676
-0.960 5.464 1.886 3218
-0.985 5.605 1.931 2676
-0.921 5.241 1.814 1262
-0.985 5.602 1.912 3804
-0.960 5.461 1.867 2141
-1.014 5.766 1.965 1228
-0.988 5.622 1.901 3224
-0.964 5.481 1.856 2169
-1.015 5.771 1.948 1383
-0.993 5.650 1.891 3794
-1.018 5.791 1.935 1870
-0.968 5.508 1.847 1816
-0.994 5.655 1.874 3171
-1.019 5.797 1.918 2349
-1.048 5.961 1.969 1201
-0.969 5.513 1.831 1051
-1.016 5.779 1.894 2837
-0.991 5.637 1.851 1877
-1.050 5.973 1.954 1384
-1.014 5.769 1.873 2467
-1.054 5.993 1.941 2267
-0.989 5.627 1.830 1200
-1.044 5.939 1.905 2823
-1.009 5.737 1.845 2359
-1.061 6.034 1.915 1980
-1.005 5.719 1.821 1884
-1.036 5.891 1.872 1882
-1.086 6.176 1.957 1304
-1.072 6.099 1.914 2035
-1.018 5.792 1.824 1272
-1.101 6.263 1.963 1154
-1.073 6.104 1.896 2086
-1.116 6.351 1.968 1438
-1.148 6.531 2.021 1281
-1.149 6.536 2.001 2257
-1.117 6.356 1.950 2078
-1.074 6.109 1.878 1651
-1.150 6.542 1.982 2360
-1.100 6.256 1.901 1940
-1.075 6.114 1.861 1422
-1.125 6.399 1.942 1237
-1.151 6.547 1.963 4636
-1.101 6.261 1.883 1789
-1.152 6.552 1.944 5278
-1.120 6.372 1.893 1133
-1.150 6.542 1.920 4284
-1.239 7.047 2.059 1095
-1.151 6.547 1.901 3828
-1.238 7.045 2.036 1821
-1.201 6.834 1.979 1418
-1.160 6.598 1.894 4807
-1.237 7.035 2.011 1901
-1.201 6.831 1.956 1511
-1.262 7.178 2.049 1164
-1.159 6.595 1.872 4633
-1.262 7.176 2.026 1945
-1.201 6.829 1.934 1398
-1.236 7.033 1.988 1225
-1.156 6.577 1.847 2466
-1.261 7.174 2.003 2216
-1.207 6.864 1.922 1605
-1.181 6.721 1.885 1361
-1.265 7.194 1.986 1756
-1.291 7.345 2.025 1653
-1.196 6.801 1.884 1368
-1.158 6.590 1.830 1187
-1.292 7.351 2.003 2236
-1.267 7.207 1.967 1777
-1.332 7.578 2.061 1161
-1.239 7.048 1.926 1102
-1.295 7.364 1.984 1891
-1.322 7.523 2.024 1624
-1.267 7.205 1.944 1366
-1.323 7.528 2.002 1952
-1.297 7.377 1.964 1343
-1.383 7.869 2.086 1137
-1.349 7.672 2.037 1029
-1.387 7.890 2.067 1265
-1.324 7.533 1.979 1254
-1.299 7.389 1.944 1012
-1.412 8.032 2.077 1253
-1.321 7.516 1.952 1242
-1.375 7.819 2.025 1023
-1.426 8.113 2.071 1467
-1.377 7.832 2.004 1055
-1.422 8.088 2.040 1159
-1.493 8.491 2.136 1045
-1.542 8.770 2.174 1573
-1.516 8.625 2.141 1130
-1.450 8.246 2.052 1063
-1.400 7.964 1.986 1019
-1.543 8.776 2.148 2086
-1.517 8.631 2.115 1143
-1.452 8.259 2.029 1119
-1.544 8.781 2.123 1314
-1.516 8.622 2.086 1050
-1.577 8.972 2.166 1006
-1.589 9.038 2.153 1984
-1.614 9.183 2.185 1427
-1.640 9.328 2.218 1086
-1.590 9.044 2.126 2910
-1.635 9.303 2.184 2159
-1.634 9.294 2.153 2031
-1.594 9.065 2.103 1754
-1.758 10.003 2.307 1250
-1.635 9.299 2.125 2205
-1.762 10.024 2.281 1708
-1.702 9.681 2.207 1357
-1.660 9.444 2.157 1326
-1.637 9.313 2.100 1867
-1.765 10.038 2.253 1685
-1.702 9.679 2.177 1440
-1.663 9.458 2.130 1398
-1.665 9.471 2.104 1128
-1.762 10.021 2.219 1097
-1.795 10.212 2.259 1094
-1.701 9.677 2.147 1062
-1.763 10.027 2.189 1268
-1.819 10.348 2.255 1228
-1.702 9.683 2.119 1141
-1.794 10.203 2.225 1091
-1.765 10.040 2.161 1458
-1.797 10.224 2.198 1106
-1.726 9.819 2.116 1040
-1.840 10.469 2.248 1029
-1.766 10.046 2.132 1584
-1.801 10.245 2.171 1559
-1.860 10.582 2.238 1161
-1.801 10.243 2.139 1770
-1.767 10.052 2.102 1665
-1.918 10.909 2.270 1206
-1.860 10.580 2.206 1164
-1.822 10.364 2.131 1897
-1.946 11.069 2.268 1825
-1.900 10.808 2.217 1492
-1.775 10.096 2.080 1440
-1.948 11.082 2.236 2645
-1.902 10.822 2.187 1785
-1.823 10.370 2.101 1697
-2.018 11.481 2.312 1210
-1.948 11.081 2.202 3644
-1.903 10.828 2.155 1730
-2.019 11.487 2.278 1521
-1.949 11.087 2.169 4007
-2.029 11.539 2.253 1491
-1.899 10.803 2.117 1451
-2.003 11.393 2.226 1147
-1.951 11.100 2.138 2867
-2.062 11.729 2.252 1522
-2.012 11.445 2.201 1317
-1.920 10.923 2.106 1275
-1.952 11.106 2.105 1689
-2.020 11.490 2.174 1483
-2.063 11.735 2.217 1429
-2.038 11.595 2.157 1426
-2.168 12.333 2.286 1287
-1.955 11.119 2.074 1170
-2.064 11.741 2.183 1144
-2.169 12.339 2.250 1342
-2.065 11.747 2.148 1306
-2.065 11.745 2.112 1414
-2.192 12.468 2.234 1176
-0.414 2.376 1.865 4623
-0.415 2.381 1.859 9246
-0.417 2.392 1.856 7834
-0.421 2.416 1.863 7431
-0.421 2.415 1.852 6900
-0.420 2.407 1.835 6809
-0.441 2.528 1.922 2137
-0.420 2.412 1.828 6809
-0.441 2.533 1.915 2997
-0.421 2.417 1.821 6788
-0.442 2.538 1.908 3357
-0.422 2.422 1.814 6766
-0.443 2.543 1.900 3717
-0.424 2.433 1.812 5108
-0.445 2.555 1.898 3929
-0.446 2.560 1.890 4767
-0.425 2.438 1.805 3522
-0.447 2.565 1.883 4623
-0.426 2.442 1.798 2887
-0.448 2.570 1.875 4480
-0.427 2.447 1.791 2252
-0.449 2.575 1.868 4480
-0.427 2.452 1.784 2234
-0.451 2.586 1.865 4317
-0.429 2.463 1.781 1725
-0.453 2.598 1.862 4562
-0.431 2.474 1.778 1319
-0.455 2.609 1.858 6750
-0.433 2.485 1.775 1392
-0.457 2.620 1.855 9235
-0.435 2.497 1.772 1383
-0.459 2.632 1.852 8499
-0.437 2.508 1.770 1376
-0.465 2.670 1.866 8377
-0.444 2.545 1.784 2399
-0.462 2.648 1.841 9472
-0.462 2.653 1.833 10932
-0.484 2.778 1.914 1165
-0.463 2.658 1.825 9900
-0.485 2.783 1.906 2319
-0.464 2.663 1.818 8868
-0.486 2.788 1.898 3474
-0.482 2.767 1.873 6534
-0.460 2.641 1.793 6399
-0.484 2.778 1.869 7257
-0.460 2.639 1.781 5529
-0.483 2.770 1.853 8816
-0.461 2.644 1.774 4376
-0.482 2.768 1.841 10939
-0.460 2.642 1.762 2621
-0.483 2.773 1.833 11013
-0.461 2.647 1.754 2250
-0.505 2.899 1.911 1156
-0.484 2.778 1.825 11087
-0.462 2.651 1.746 1880
-0.506 2.905 1.903 1356
-0.485 2.783 1.817 10810
-0.507 2.910 1.894 1580
-0.463 2.656 1.739 1377
-0.487 2.794 1.813 10663
-0.509 2.921 1.890 1698
-0.465 2.667 1.735 1106
-0.496 2.846 1.833 9047
-0.474 2.719 1.756 3110
-0.498 2.858 1.829 9536
-0.476 2.730 1.752 2107
-0.500 2.869 1.824 7923
-0.478 2.741 1.748 2116
-0.506 2.901 1.832 7410
-0.483 2.773 1.756 3454
-0.509 2.919 1.831 8354
-0.486 2.791 1.756 3711
-0.511 2.931 1.827 11613
-0.488 2.803 1.752 2667
-0.512 2.936 1.818 13729
-0.489 2.807 1.743 1718
-0.536 3.078 1.901 1345
-0.514 2.947 1.814 11744
-0.536 3.076 1.888 1896
-0.491 2.819 1.739 1712
-0.517 2.966 1.813 10719
-0.494 2.837 1.739 1975
-0.539 3.095 1.887 1906
-0.519 2.977 1.808 11633
-0.541 3.106 1.882 2629
-0.496 2.848 1.734 1674
-0.522 2.996 1.807 12344
-0.545 3.125 1.881 2885
-0.500 2.866 1.734 1285
-0.570 3.268 1.962 1191
-0.523 3.000 1.798 11597
-0.546 3.130 1.871 3351
-0.573 3.287 1.960 1505
-0.523 2.998 1.786 11606
-0.545 3.128 1.858 5299
-0.574 3.292 1.950 2537
-0.523 3.003 1.777 11900
-0.546 3.133 1.849 6336
-0.575 3.297 1.941 3188
-0.524 3.008 1.768 10397
-0.547 3.138 1.840 5537
-0.574 3.296 1.927 4467
-0.541 3.102 1.809 6355
-0.575 3.301 1.918 5772
-0.518 2.971 1.737 2883
-0.577 3.313 1.912 6932
-0.540 3.100 1.796 6383
-0.517 2.969 1.725 1775
-0.578 3.318 1.902 7087
-0.542 3.111 1.790 5292
-0.601 3.449 1.973 1414
-0.519 2.980 1.720 1200
-0.580 3.330 1.896 6141
-0.544 3.123 1.785 4726
-0.603 3.461 1.966 1624
-0.546 3.134 1.780 5155
-0.581 3.335 1.886 5149
-0.604 3.466 1.956 1633
-0.547 3.139 1.770 5247
-0.583 3.347 1.880 4050
-0.606 3.478 1.950 1266
-0.546 3.130 1.754 4974
-0.584 3.352 1.870 3946
-0.607 3.483 1.939 1136
-0.545 3.128 1.741 4369
-0.584 3.350 1.857 3755
-0.607 3.482 1.926 1478
-0.545 3.125 1.729 3545
-0.586 3.362 1.851 3420
-0.609 3.494 1.919 2542
-0.547 3.137 1.723 4077
-0.610 3.499 1.909 3459
-0.587 3.367 1.841 3389
-0.548 3.141 1.714 5059
-0.613 3.518 1.906 3746
-0.571 3.274 1.781 3447
-0.636 3.650 1.973 1152
-0.550 3.153 1.708 4789
-0.618 3.544 1.906 4659
-0.573 3.286 1.775 2653
-0.641 3.676 1.973 1782
-0.554 3.178 1.710 4971
-0.611 3.507 1.875 4845
-0.636 3.647 1.945 3299
-0.578 3.318 1.780 1739
-0.555 3.183 1.700 4631
-0.611 3.505 1.861 4556
-0.643 3.687 1.952 3427
-0.580 3.330 1.774 1974
-0.629 3.608 1.899 4902
-0.546 3.131 1.663 3555
-0.571 3.278 1.736 3250
-0.606 3.475 1.833 2685
-0.639 3.669 1.916 5663
-0.575 3.297 1.734 4711
-0.546 3.136 1.654 4534
-0.616 3.536 1.851 2258
-0.642 3.681 1.909 7375
-0.575 3.302 1.724 4539
-0.547 3.140 1.645 3858
-0.665 3.815 1.974 2107
-0.645 3.700 1.905 10309
-0.575 3.299 1.711 3845
-0.548 3.144 1.636 2918
-0.598 3.433 1.776 2372
-0.646 3.705 1.894 14948
-0.577 3.311 1.705 2895
-0.549 3.149 1.627 2501
-0.600 3.445 1.769 2491
-0.645 3.703 1.880 15279
-0.669 3.838 1.944 3040
-0.579 3.322 1.698 2019
-0.546 3.132 1.607 2000
-0.645 3.701 1.866 14757
-0.669 3.836 1.929 4702
-0.581 3.334 1.692 1536
-0.545 3.129 1.595 1513
-0.646 3.706 1.855 11330
-0.669 3.841 1.918 4928
-0.602 3.452 1.735 1457
-0.693 3.975 1.981 1229
-0.647 3.711 1.844 5457
-0.678 3.888 1.927 4925
-0.601 3.449 1.722 1519
-0.546 3.130 1.573 1001
-0.679 3.894 1.915 3619
-0.651 3.737 1.843 2830
-0.702 4.028 1.978 1564
-0.603 3.461 1.715 1529
-0.694 3.984 1.943 4127
-0.662 3.799 1.858 3677
-0.604 3.465 1.705 1254
-0.664 3.811 1.851 4582
-0.700 4.018 1.945 3704
-0.685 3.930 1.891 4643
-0.709 4.066 1.952 3307
-0.661 3.795 1.830 3266
-0.685 3.928 1.876 5568
-0.708 4.064 1.937 3954
-0.661 3.792 1.815 1492
-0.684 3.926 1.862 7296
-0.720 4.133 1.954 5239
-0.686 3.938 1.853 7059
-0.724 4.153 1.948 6156
-0.747 4.288 2.008 1188
-0.708 4.065 1.895 7443
-0.685 3.929 1.835 4238
-0.732 4.201 1.955 3264
-0.706 4.048 1.874 7899
-0.729 4.184 1.933 4788
-0.682 3.912 1.815 2629
-0.705 4.046 1.859 7325
-0.731 4.197 1.924 5481
-0.763 4.376 2.001 2112
-0.681 3.910 1.800 1574
-0.742 4.259 1.936 6438
-0.707 4.058 1.850 5483
-0.766 4.396 1.994 2856
-0.744 4.272 1.927 7502
-0.707 4.056 1.835 3093
-0.768 4.408 1.985 2579
-0.750 4.306 1.926 7728
-0.727 4.169 1.869 4121
