-0.433 3.527 1.923 6264
-0.410 3.343 1.816 12266
-0.433 3.532 1.912 6619
-0.410 3.341 1.803 10559
-0.434 3.537 1.902 5716
-0.410 3.345 1.793 7140
-0.439 3.577 1.910 4677
-0.441 3.597 1.906 5290
-0.411 3.350 1.783 3644
-0.441 3.595 1.892 5738
-0.425 3.461 1.826 2497
-0.441 3.593 1.878 4903
-0.460 3.748 1.955 2205
-0.436 3.555 1.847 6133
-0.461 3.760 1.947 3829
-0.438 3.567 1.840 7697
-0.462 3.766 1.936 5017
-0.439 3.579 1.834 7153
-0.463 3.771 1.926 6079
-0.450 3.669 1.864 8942
-0.467 3.804 1.928 5630
-0.461 3.760 1.894 7579
-0.441 3.596 1.816 5311
-0.464 3.779 1.889 8958
-0.439 3.580 1.796 3971
-0.464 3.784 1.878 9927
-0.441 3.592 1.789 3196
-0.462 3.768 1.857 9441
-0.479 3.903 1.920 3899
-0.463 3.773 1.847 6576
-0.489 3.987 1.945 3779
-0.474 3.864 1.875 4936
-0.491 4.000 1.937 3400
-0.474 3.861 1.860 5026
-0.490 3.998 1.922 2695
-0.474 3.866 1.849 4129
-0.491 4.003 1.910 2969
-0.491 4.001 1.895 5092
-0.474 3.864 1.835 2778
-0.503 4.099 1.925 7179
-0.486 3.963 1.865 2717
-0.495 4.032 1.882 8735
-0.512 4.169 1.942 2982
-0.494 4.030 1.867 7750
-0.511 4.167 1.926 3464
-0.506 4.122 1.892 7695
-0.489 3.985 1.833 2087
-0.505 4.120 1.877 9533
-0.522 4.257 1.936 1355
-0.506 4.125 1.865 9598
-0.523 4.262 1.924 2649
-0.508 4.144 1.859 7369
-0.525 4.282 1.917 3470
-0.513 4.178 1.860 7260
-0.530 4.316 1.917 2308
-0.511 4.169 1.841 8501
-0.528 4.307 1.899 2602
-0.514 4.188 1.835 6281
-0.531 4.326 1.892 3297
-0.518 4.222 1.835 5678
-0.535 4.361 1.891 2728
-0.528 4.307 1.855 5810
-0.545 4.446 1.911 3714
-0.527 4.298 1.837 6967
-0.546 4.451 1.898 4431
-0.547 4.456 1.885 4846
-0.528 4.303 1.824 4809
-0.547 4.461 1.872 6114
-0.528 4.300 1.809 2361
-0.543 4.422 1.842 5846
-0.570 4.649 1.931 2787
-0.542 4.420 1.826 5067
-0.571 4.655 1.917 4190
-0.575 4.689 1.915 5886
-0.556 4.535 1.856 3712
-0.575 4.687 1.898 7639
-0.558 4.547 1.845 4570
-0.577 4.699 1.887 7798
-0.559 4.559 1.835 3553
-0.578 4.712 1.876 6844
-0.561 4.572 1.824 2728
-0.584 4.761 1.879 4931
-0.561 4.577 1.811 2390
-0.587 4.781 1.871 5233
-0.604 4.921 1.922 3192
-0.581 4.734 1.838 4212
-0.604 4.926 1.908 3275
-0.581 4.732 1.822 4970
-0.610 4.976 1.909 3540
-0.612 4.988 1.898 5806
-0.580 4.729 1.805 3761
-0.613 4.993 1.883 7049
-0.595 4.852 1.833 3051
-0.614 5.006 1.871 6967
-0.597 4.865 1.822 2399
-0.617 5.026 1.862 6642
-0.643 5.241 1.936 2999
-0.629 5.127 1.880 5810
-0.646 5.269 1.929 3680
-0.630 5.132 1.865 5847
-0.647 5.274 1.913 3246
-0.629 5.130 1.848 3871
-0.612 4.988 1.800 1953
-0.644 5.247 1.870 2803
-0.661 5.388 1.917 2455
-0.659 5.371 1.894 3233
-0.642 5.229 1.847 1819
-0.659 5.369 1.876 3517
-0.676 5.511 1.923 1532
-0.659 5.374 1.861 3541
-0.691 5.636 1.945 2888
-0.661 5.386 1.847 4238
-0.691 5.633 1.926 3555
-0.687 5.601 1.898 3974
-0.662 5.399 1.834 3743
-0.687 5.599 1.879 3132
-0.717 5.846 1.957 2389
-0.719 5.859 1.942 3196
-0.701 5.716 1.898 2810
-0.720 5.872 1.928 3987
-0.703 5.729 1.884 2799
-0.723 5.892 1.915 4711
-0.704 5.741 1.869 1557
-0.724 5.905 1.900 3674
-0.742 6.048 1.943 1260
-0.725 5.910 1.883 2761
-0.743 6.053 1.926 1451
-0.727 5.922 1.868 2335
-0.744 6.065 1.910 1228
-0.737 6.010 1.875 1855
-0.769 6.267 1.950 1502
-0.770 6.280 1.933 2076
-0.797 6.499 1.997 1948
-0.758 6.179 1.885 2610
-0.776 6.323 1.926 1818
-0.817 6.661 2.001 2417
-0.775 6.320 1.905 1914
-0.819 6.674 1.984 3098
-0.776 6.325 1.887 2462
-0.823 6.709 1.973 2686
-0.841 6.853 2.012 2070
-0.824 6.715 1.953 3630
-0.841 6.859 1.992 3112
-0.824 6.720 1.934 3608
-0.842 6.864 1.972 3195
-0.826 6.733 1.916 2836
-0.844 6.877 1.954 2450
-0.866 7.057 1.980 2691
-0.824 6.715 1.890 2262
-0.866 7.062 1.960 3188
-0.889 7.245 2.007 2063
-0.925 7.540 2.060 2417
-0.867 7.068 1.939 2153
-0.928 7.560 2.042 1980
-0.905 7.378 1.996 1543
-0.926 7.551 2.016 1764
-0.960 7.825 2.085 1200
-0.926 7.548 1.992 1651
-0.977 7.961 2.094 1558
-0.957 7.798 2.030 1437
-1.008 8.218 2.132 1333
-1.008 8.216 2.106 1794
-0.957 7.804 2.007 1450
-1.009 8.222 2.082 1262
-1.048 8.543 2.159 1076
-1.050 8.557 2.136 1261
-1.083 8.824 2.198 966
-1.083 8.830 2.173 1394
-1.054 8.593 2.118 1202
-1.084 8.836 2.147 1370
-1.053 8.583 2.089 1256
-1.090 8.888 2.131 1246
-1.053 8.581 2.062 1176
-1.134 9.239 2.182 1270
-1.099 8.955 2.119 995
-1.162 9.468 2.204 1357
-1.133 9.237 2.153 1330
-1.156 9.420 2.164 1492
-1.105 9.005 2.075 1067
-1.216 9.910 2.240 1555
-1.154 9.403 2.132 1186
-1.218 9.924 2.213 2585
-1.265 10.308 2.294 1342
-1.218 9.930 2.184 2752
-1.247 10.161 2.231 1992
-1.247 10.167 2.202 2626
-1.219 9.936 2.155 2167
-1.265 10.311 2.200 1951
-1.294 10.550 2.248 1812
-1.295 10.556 2.217 2452
-1.270 10.348 2.176 2026
-1.271 10.362 2.147 2306
-1.297 10.570 2.188 2051
-1.272 10.367 2.117 2588
-1.293 10.537 2.149 1703
-1.272 10.365 2.085 1929
-1.296 10.566 2.123 1568
-1.298 10.580 2.093 2647
-1.271 10.363 2.053 967
-1.299 10.585 2.062 2612
-1.317 10.732 2.089 1058
-1.311 10.684 2.048 2510
-1.311 10.689 2.017 1902
-1.305 10.640 1.976 1107
-1.319 10.754 1.963 965
-1.635 13.326 2.402 953
-1.318 10.744 1.929 863
-1.634 13.317 2.360 824
-0.278 2.320 1.821 1460
-0.278 2.325 1.814 2920
-0.293 2.446 1.903 1780
-0.287 2.393 1.854 4145
-0.272 2.273 1.765 829
-0.287 2.398 1.847 5925
-0.288 2.403 1.840 7706
-0.288 2.408 1.833 7209
-0.287 2.394 1.812 6835
-0.301 2.516 1.900 3162
-0.287 2.399 1.806 6835
-0.302 2.521 1.892 3790
-0.295 2.468 1.844 7413
-0.281 2.346 1.758 1170
-0.295 2.466 1.833 10217
-0.297 2.478 1.830 11019
-0.311 2.601 1.916 943
-0.299 2.496 1.832 12232
-0.314 2.619 1.917 1131
-0.302 2.526 1.842 9843
-0.305 2.551 1.849 8637
-0.291 2.427 1.764 1088
-0.306 2.556 1.841 8637
-0.291 2.432 1.757 898
-0.306 2.554 1.829 9814
-0.321 2.678 1.913 1288
-0.306 2.553 1.818 11020
-0.320 2.677 1.901 2090
-0.306 2.557 1.810 11048
-0.321 2.682 1.893 2253
-0.308 2.569 1.807 11266
-0.323 2.694 1.890 2250
-0.308 2.574 1.800 9391
-0.323 2.699 1.882 2930
-0.308 2.572 1.788 7607
-0.323 2.697 1.870 4366
-0.321 2.682 1.849 7113
-0.306 2.557 1.768 4845
-0.323 2.700 1.850 8393
-0.308 2.575 1.769 5360
-0.323 2.699 1.838 9461
-0.308 2.573 1.757 3401
-0.322 2.690 1.822 11035
-0.337 2.817 1.902 1690
-0.324 2.702 1.818 10087
-0.339 2.828 1.899 1598
-0.324 2.707 1.811 9262
-0.339 2.833 1.890 2009
-0.325 2.718 1.807 6802
-0.341 2.845 1.886 1981
-0.328 2.737 1.807 5259
-0.343 2.864 1.886 2251
-0.329 2.748 1.804 5524
-0.344 2.875 1.882 2608
-0.330 2.760 1.800 6003
-0.346 2.887 1.878 2966
-0.334 2.791 1.808 6807
-0.349 2.919 1.886 2421
-0.337 2.816 1.813 9924
-0.353 2.944 1.890 1955
-0.339 2.828 1.808 10041
-0.354 2.956 1.886 1878
-0.340 2.839 1.804 10343
-0.355 2.968 1.881 1891
-0.341 2.851 1.800 8001
-0.357 2.980 1.877 2639
-0.345 2.883 1.808 6899
-0.361 3.012 1.884 1954
-0.345 2.881 1.796 6223
-0.360 3.010 1.871 3062
-0.358 2.988 1.847 5777
-0.342 2.859 1.771 3617
-0.359 3.000 1.842 5968
-0.344 2.870 1.767 2940
-0.361 3.011 1.837 7222
-0.380 3.175 1.931 4640
-0.362 3.023 1.832 8807
-0.381 3.181 1.922 6056
-0.364 3.042 1.831 7041
-0.382 3.193 1.917 6858
-0.383 3.198 1.908 7954
-0.367 3.067 1.834 6359
-0.383 3.203 1.898 9369
-0.368 3.072 1.825 5866
-0.384 3.208 1.889 11480
-0.368 3.077 1.816 6069
-0.385 3.213 1.880 12176
-0.369 3.082 1.808 6494
-0.385 3.218 1.870 11051
-0.370 3.087 1.799 4651
-0.385 3.216 1.857 10323
-0.401 3.347 1.929 3599
-0.386 3.221 1.848 10729
-0.401 3.353 1.919 3866
-0.387 3.233 1.842 9437
-0.403 3.365 1.913 3527
-0.388 3.238 1.833 8422
-0.403 3.370 1.903 3325
-0.399 3.333 1.872 7659
-0.383 3.201 1.802 2825
-0.399 3.331 1.858 8398
-0.415 3.464 1.928 2571
-0.399 3.329 1.845 9114
-0.414 3.462 1.914 3563
-0.398 3.327 1.832 11415
-0.414 3.460 1.900 4477
-0.399 3.332 1.822 12747
-0.422 3.528 1.923 5498
-0.400 3.344 1.816 11987
-0.423 3.533 1.912 5676
-0.400 3.342 1.803 10303
-0.424 3.545 1.906 5064
-0.401 3.347 1.793 6913
-0.428 3.572 1.906 4519
-0.430 3.591 1.903 5058
-0.414 3.457 1.836 3668
-0.430 3.589 1.889 5536
-0.411 3.434 1.812 2561
-0.424 3.537 1.851 4902
-0.440 3.672 1.917 4196
-0.425 3.549 1.844 6490
-0.441 3.684 1.909 4224
-0.427 3.569 1.840 7601
-0.450 3.760 1.933 4940
-0.429 3.581 1.834 6820
-0.450 3.758 1.919 6422
-0.439 3.671 1.864 8075
-0.456 3.806 1.928 5028
-0.450 3.761 1.894 7384
-0.431 3.597 1.816 5376
-0.453 3.780 1.889 8253
-0.429 3.581 1.796 4146
-0.452 3.778 1.875 9283
-0.430 3.593 1.789 3350
-0.450 3.762 1.854 9605
-0.467 3.898 1.917 4346
-0.462 3.860 1.886 7083
-0.478 3.996 1.948 3420
-0.463 3.865 1.875 5517
-0.479 4.001 1.937 3217
-0.462 3.863 1.860 5348
-0.479 3.999 1.922 3009
-0.463 3.868 1.849 4161
-0.479 4.004 1.910 3160
-0.479 4.002 1.895 4975
-0.496 4.139 1.956 2461
-0.491 4.101 1.925 7225
-0.475 3.964 1.865 2956
-0.483 4.034 1.882 8487
-0.499 4.171 1.942 2652
-0.483 4.032 1.867 7187
-0.499 4.169 1.926 3009
-0.493 4.116 1.889 6770
-0.476 3.979 1.830 1820
-0.493 4.121 1.877 9556
-0.477 3.984 1.819 1361
-0.494 4.126 1.865 10386
-0.511 4.264 1.924 2514
-0.496 4.146 1.859 7773
-0.513 4.284 1.917 3029
-0.501 4.187 1.863 7422
-0.518 4.325 1.920 1952
-0.498 4.163 1.838 8744
-0.520 4.345 1.914 2584
-0.501 4.182 1.832 6443
-0.517 4.321 1.889 3376
-0.506 4.224 1.835 5710
-0.522 4.362 1.891 2618
-0.517 4.316 1.858 5444
-0.533 4.455 1.914 4192
-0.516 4.307 1.840 6664
-0.533 4.453 1.898 5397
-0.534 4.458 1.885 5191
-0.516 4.311 1.827 4401
-0.534 4.463 1.872 5964
-0.518 4.324 1.817 1588
-0.535 4.468 1.859 6183
-0.557 4.651 1.931 2397
-0.532 4.443 1.835 5461
-0.557 4.656 1.917 3655
-0.560 4.676 1.909 5111
-0.543 4.536 1.856 3053
-0.561 4.689 1.898 6928
-0.545 4.549 1.845 3972
-0.563 4.701 1.887 7282
-0.546 4.561 1.835 3296
-0.564 4.713 1.876 6456
-0.548 4.573 1.824 2690
-0.570 4.763 1.879 4736
-0.547 4.571 1.808 2289
-0.573 4.782 1.871 4788
-0.589 4.923 1.922 3171
-0.567 4.736 1.838 4162
-0.591 4.935 1.910 3522
-0.567 4.733 1.822 5032
-0.596 4.978 1.909 3469
-0.598 4.997 1.900 5373
-0.567 4.738 1.808 3755
-0.598 4.995 1.883 6789
-0.581 4.854 1.833 3929
-0.600 5.008 1.871 7246
-0.583 4.866 1.822 2654
-0.602 5.027 1.862 7592
-0.628 5.243 1.936 3480
-0.627 5.241 1.918 5563
-0.603 5.032 1.847 5515
-0.615 5.134 1.865 5285
-0.632 5.276 1.913 3588
-0.614 5.132 1.848 3584
-0.631 5.273 1.895 2377
-0.628 5.249 1.870 3284
-0.645 5.390 1.917 2160
-0.633 5.283 1.865 3084
-0.650 5.425 1.911 1818
-0.651 5.438 1.898 3086
-0.634 5.296 1.852 2414
-0.644 5.376 1.861 3252
-0.674 5.630 1.943 3006
-0.645 5.388 1.847 3891
-0.675 5.635 1.926 3802
-0.672 5.611 1.900 4357
-0.647 5.401 1.834 3272
-0.671 5.608 1.882 3304
-0.700 5.848 1.957 2297
-0.702 5.861 1.942 3387
-0.685 5.718 1.898 2664
-0.703 5.874 1.928 4514
-0.680 5.678 1.868 2410
-0.706 5.894 1.915 4983
-0.676 5.646 1.840 1383
-0.707 5.907 1.900 3611
-0.724 6.050 1.943 1303
-0.707 5.904 1.881 2568
-0.724 6.047 1.923 1986
-0.708 5.917 1.866 2456
-0.726 6.060 1.908 1799
-0.721 6.020 1.877 1944
-0.751 6.277 1.952 1910
-0.753 6.289 1.936 2439
-0.778 6.501 1.997 1824
-0.740 6.181 1.885 2637
-0.757 6.325 1.926 2120
-0.798 6.663 2.001 2813
-0.757 6.322 1.905 2030
-0.799 6.676 1.984 3631
-0.758 6.327 1.887 2506
-0.802 6.696 1.969 2710
-0.820 6.848 2.010 2270
-0.804 6.717 1.953 3319
-0.821 6.861 1.992 2896
-0.805 6.722 1.934 3325
-0.823 6.874 1.974 3009
-0.806 6.735 1.916 2661
-0.824 6.879 1.954 2080
-0.846 7.067 1.982 2906
-0.804 6.717 1.890 2570
-0.846 7.065 1.960 3402
-0.902 7.537 2.082 1959
-0.846 7.070 1.939 2565
-0.902 7.535 2.058 2472
-0.847 7.075 1.918 2142
-0.903 7.540 2.036 2078
-0.903 7.546 2.014 1835
-0.848 7.080 1.898 1605
-0.904 7.551 1.992 1564
-0.953 7.963 2.094 1474
-0.984 8.221 2.132 1343
-0.944 7.885 2.050 1290
-0.984 8.219 2.106 1918
-0.918 7.669 1.974 1393
-0.985 8.225 2.082 1453
-1.023 8.546 2.159 1186
-1.025 8.560 2.136 1377
-0.992 8.284 2.071 945
-1.029 8.596 2.118 1538
-1.059 8.841 2.174 1346
-1.028 8.586 2.089 1699
-1.058 8.839 2.147 1355
-1.027 8.577 2.060 1499
-1.062 8.868 2.126 1133
-1.107 9.242 2.182 1428
-1.124 9.388 2.214 909
-1.106 9.241 2.153 1455
-1.133 9.463 2.202 1361
-1.128 9.423 2.164 1652
-1.079 9.016 2.076 1201
-1.187 9.913 2.240 1701
-1.127 9.414 2.134 1330
-1.189 9.927 2.213 2999
-1.235 10.312 2.294 1329
-1.189 9.933 2.184 2992
-1.217 10.164 2.231 1721
-1.218 10.170 2.202 2248
-1.190 9.939 2.155 2166
-1.234 10.307 2.198 1852
-1.217 10.161 2.169 1416
-1.244 10.390 2.183 1898
-1.264 10.560 2.217 1868
-1.241 10.365 2.147 2130
-1.264 10.558 2.185 1789
-1.242 10.371 2.117 2308
-1.262 10.541 2.149 1635
-1.241 10.369 2.085 1679
-1.265 10.562 2.121 1405
-1.268 10.591 2.095 2811
-1.241 10.367 2.053 825
-1.270 10.604 2.065 3236
-1.287 10.751 2.092 774
-1.280 10.687 2.048 2852
-1.278 10.677 2.014 1975
-1.273 10.636 1.975 1246
-1.596 13.331 2.402 905
-1.287 10.750 1.962 879
-1.594 13.314 2.359 794
-1.287 10.747 1.929 792
-1.589 13.274 2.312 785
-0.273 2.321 1.821 1638
-0.274 2.326 1.814 3277
-0.288 2.446 1.903 1796
-0.282 2.400 1.859 4581
-0.268 2.280 1.770 1143
-0.284 2.412 1.856 6304
-0.269 2.291 1.768 1152
-0.284 2.417 1.849 8034
-0.270 2.295 1.762 908
-0.284 2.415 1.838 7463
-0.282 2.395 1.812 7280
-0.296 2.516 1.900 3350
-0.282 2.399 1.806 7280
-0.297 2.521 1.892 4141
-0.287 2.443 1.826 7609
-0.302 2.565 1.912 1574
-0.290 2.467 1.833 10086
-0.291 2.478 1.830 10799
-0.306 2.601 1.916 838
-0.293 2.490 1.827 11914
-0.307 2.613 1.913 1016
-0.297 2.527 1.842 9896
-0.299 2.545 1.844 8993
-0.285 2.422 1.760 859
-0.300 2.550 1.837 8993
-0.314 2.674 1.921 787
-0.300 2.555 1.829 10083
-0.315 2.679 1.913 1449
-0.300 2.553 1.818 11165
-0.315 2.678 1.901 2282
-0.301 2.558 1.810 11072
-0.316 2.683 1.893 2404
-0.302 2.570 1.807 11127
-0.317 2.694 1.890 2379
-0.303 2.574 1.800 9526
-0.317 2.699 1.882 2952
-0.303 2.573 1.788 8002
-0.317 2.698 1.870 4281
-0.315 2.676 1.845 7256
-0.300 2.551 1.764 3923
-0.318 2.701 1.850 8449
-0.303 2.575 1.769 5464
-0.317 2.699 1.838 9461
-0.303 2.574 1.757 3321
-0.316 2.691 1.822 10849
-0.331 2.817 1.902 1687
-0.318 2.703 1.818 9672
-0.333 2.829 1.899 1666
-0.318 2.707 1.811 8569
-0.333 2.834 1.890 2148
-0.321 2.726 1.811 6268
-0.335 2.853 1.891 2208
-0.323 2.744 1.812 5047
-0.338 2.871 1.891 2678
-0.323 2.749 1.804 5408
-0.338 2.876 1.882 3150
-0.325 2.760 1.800 5905
-0.340 2.888 1.878 3491
-0.328 2.792 1.808 6830
-0.343 2.920 1.886 2482
-0.331 2.817 1.813 9990
-0.346 2.945 1.890 1897
-0.333 2.829 1.808 10082
-0.348 2.957 1.886 1990
-0.334 2.840 1.804 10352
-0.349 2.969 1.881 2134
-0.336 2.859 1.804 8341
-0.351 2.987 1.881 2242
-0.340 2.891 1.812 7993
-0.355 3.019 1.888 1646
-0.343 2.916 1.815 7227
-0.358 3.045 1.891 1516
-0.351 2.982 1.843 5680
-0.335 2.853 1.767 3372
-0.353 3.000 1.842 5868
-0.338 2.871 1.767 3143
-0.354 3.012 1.837 7008
-0.374 3.176 1.931 4919
-0.356 3.024 1.832 8347
-0.374 3.181 1.922 6361
-0.376 3.193 1.917 6969
-0.358 3.043 1.831 6383
-0.376 3.198 1.908 7890
-0.361 3.068 1.834 5492
-0.377 3.204 1.898 8993
-0.361 3.073 1.825 5413
-0.377 3.209 1.889 10940
-0.362 3.078 1.816 5932
-0.378 3.214 1.880 11785
-0.363 3.083 1.808 6414
-0.379 3.219 1.870 10842
-0.363 3.087 1.799 4756
-0.378 3.217 1.857 10724
-0.395 3.355 1.933 2982
-0.379 3.222 1.848 11517
-0.394 3.353 1.919 3313
-0.380 3.234 1.842 10145
-0.396 3.366 1.913 3261
-0.381 3.239 1.833 9080
-0.396 3.371 1.903 3252
-0.381 3.244 1.824 7110
-0.397 3.376 1.894 4818
-0.393 3.339 1.862 8040
-0.408 3.472 1.931 2709
-0.392 3.337 1.849 8898
-0.408 3.470 1.918 3439
-0.391 3.328 1.832 11088
-0.407 3.461 1.900 4718
-0.392 3.333 1.822 12283
-0.415 3.529 1.923 4918
-0.393 3.345 1.816 11423
-0.416 3.534 1.912 4894
-0.393 3.343 1.803 9762
-0.417 3.546 1.906 4484
-0.394 3.347 1.793 6409
-0.419 3.566 1.903 4679
-0.421 3.578 1.896 5348
-0.405 3.444 1.829 3587
-0.421 3.583 1.885 5852
-0.404 3.435 1.812 2530
-0.420 3.574 1.868 5361
-0.436 3.708 1.934 2413
-0.418 3.550 1.844 6833
-0.433 3.685 1.909 5475
-0.420 3.569 1.840 7750
-0.436 3.704 1.906 5251
-0.436 3.709 1.895 6749
-0.420 3.574 1.830 6602
-0.439 3.728 1.891 8375
-0.423 3.593 1.827 6054
-0.442 3.762 1.894 7028
-0.422 3.591 1.813 5248
-0.445 3.781 1.889 7530
-0.422 3.589 1.799 4145
-0.444 3.779 1.875 8602
-0.423 3.594 1.789 3333
-0.443 3.763 1.854 9502
-0.459 3.899 1.917 4379
-0.454 3.861 1.886 7159
-0.470 3.997 1.948 3195
-0.455 3.866 1.875 5598
-0.471 4.002 1.937 3078
-0.454 3.864 1.860 5267
-0.470 4.000 1.922 3154
-0.455 3.869 1.849 3973
-0.471 4.005 1.910 3282
-0.471 4.003 1.895 5014
-0.487 4.140 1.956 2366
-0.482 4.102 1.925 6892
-0.466 3.965 1.865 3291
-0.475 4.035 1.882 7852
-0.491 4.172 1.942 2290
-0.475 4.040 1.870 6408
-0.491 4.177 1.929 2184
-0.484 4.117 1.889 6029
-0.468 3.980 1.830 2006
-0.484 4.115 1.874 9490
-0.500 4.253 1.933 1298
-0.486 4.134 1.868 10800
-0.502 4.272 1.927 1989
-0.488 4.147 1.859 7757
-0.504 4.285 1.917 2412
-0.493 4.195 1.866 7538
-0.510 4.333 1.923 1857
-0.490 4.164 1.838 8676
-0.511 4.346 1.914 2921
-0.493 4.191 1.835 6477
-0.512 4.351 1.901 3501
-0.497 4.225 1.835 5667
-0.513 4.363 1.891 3787
-0.508 4.317 1.858 5106
-0.524 4.456 1.914 4203
-0.506 4.300 1.837 5960
-0.524 4.454 1.898 5571
-0.524 4.459 1.885 5175
-0.506 4.305 1.824 3829
-0.525 4.464 1.872 5718
-0.507 4.310 1.812 1441
-0.526 4.469 1.859 6058
-0.547 4.652 1.931 2187
-0.523 4.444 1.835 5652
-0.548 4.657 1.917 3425
-0.548 4.663 1.903 4982
-0.522 4.442 1.819 2898
-0.551 4.682 1.895 6369
-0.534 4.543 1.842 3055
-0.553 4.702 1.887 6853
-0.537 4.562 1.835 3089
-0.554 4.715 1.876 6237
-0.538 4.574 1.824 2593
-0.555 4.720 1.863 4283
-0.572 4.860 1.915 2729
-0.563 4.784 1.871 4276
-0.579 4.924 1.922 3091
-0.557 4.737 1.838 4046
-0.581 4.937 1.910 3653
-0.558 4.742 1.824 5113
-0.586 4.986 1.912 3329
-0.588 4.999 1.900 4831
-0.557 4.739 1.808 3803
-0.588 4.996 1.883 6269
-0.571 4.855 1.833 4522
-0.589 5.009 1.871 7190
-0.572 4.860 1.819 2919
-0.591 5.029 1.862 8078
-0.616 5.237 1.934 3799
-0.617 5.242 1.918 6083
-0.592 5.034 1.847 5946
-0.617 5.247 1.903 4458
-0.593 5.046 1.835 4149
-0.616 5.237 1.883 3603
-0.594 5.051 1.820 3552
-0.617 5.250 1.870 3633
-0.634 5.392 1.917 2193
-0.622 5.285 1.865 2980
-0.638 5.427 1.911 2021
-0.640 5.439 1.898 3467
-0.623 5.297 1.852 2501
-0.639 5.437 1.880 3499
-0.662 5.632 1.943 3034
-0.663 5.637 1.926 3974
-0.634 5.389 1.847 3572
-0.661 5.619 1.903 4407
-0.636 5.409 1.836 2936
-0.661 5.617 1.884 3121
-0.689 5.857 1.959 2137
-0.690 5.870 1.945 3438
-0.674 5.727 1.900 2510
-0.692 5.883 1.930 4718
-0.667 5.672 1.865 2284
-0.693 5.895 1.915 4826
-0.664 5.647 1.840 1470
-0.695 5.908 1.900 3311
-0.712 6.051 1.943 1343
-0.695 5.906 1.881 2414
-0.711 6.049 1.923 2214
-0.696 5.918 1.866 2622
-0.713 6.062 1.908 2016
-0.697 5.923 1.848 2294
-0.738 6.278 1.952 2213
-0.742 6.306 1.940 2706
-0.725 6.162 1.899 2239
-0.730 6.205 1.891 2682
-0.747 6.349 1.932 2109
-0.783 6.657 1.999 3110
-0.743 6.316 1.903 2176
-0.785 6.678 1.984 4046
-0.743 6.321 1.885 2538
-0.787 6.691 1.967 2710
-0.806 6.850 2.010 2365
-0.805 6.848 1.988 2958
-0.788 6.703 1.949 2656
-0.806 6.853 1.968 2961
-0.789 6.709 1.930 2468
-0.807 6.866 1.950 2380
-0.790 6.721 1.912 2190
-0.830 7.061 1.980 2932
-0.789 6.711 1.888 2597
-0.831 7.067 1.960 3440
-0.887 7.539 2.082 1744
-0.832 7.072 1.939 2649
-0.886 7.537 2.058 2294
-0.832 7.077 1.918 2381
-0.886 7.534 2.034 2218
-0.833 7.082 1.898 1948
-0.887 7.540 2.012 1817
-0.832 7.072 1.873 1637
-0.937 7.965 2.094 1379
-0.927 7.879 2.048 1343
-0.966 8.216 2.130 1300
-0.967 8.221 2.106 1857
-0.903 7.678 1.976 1373
-0.970 8.250 2.088 1568
-1.006 8.556 2.161 1184
-1.006 8.554 2.134 1480
-0.974 8.278 2.069 1244
-1.010 8.591 2.116 1617
-1.041 8.851 2.176 1281
-1.010 8.589 2.089 1956
-1.041 8.849 2.148 1301
-1.009 8.579 2.060 1678
-1.042 8.863 2.124 1152
-1.087 9.245 2.182 1489
-1.104 9.391 2.214 969
-1.087 9.243 2.153 1482
-1.113 9.466 2.202 1402
-1.109 9.425 2.164 1810
-1.061 9.018 2.076 1324
-1.167 9.924 2.242 1820
-1.107 9.416 2.134 1469
-1.168 9.930 2.213 3231
-1.118 9.506 2.124 1250
-1.169 9.936 2.184 3037
-1.196 10.167 2.231 1456
-1.169 9.941 2.155 2046
-1.196 10.173 2.202 1933
-1.212 10.302 2.197 1721
-1.172 9.963 2.129 1399
-1.223 10.401 2.185 1884
-1.245 10.586 2.221 1626
-1.245 10.584 2.189 1873
-1.220 10.376 2.148 1869
-1.220 10.374 2.117 1927
-1.240 10.543 2.149 1622
-1.256 10.681 2.143 1482
-1.220 10.372 2.085 1362
-1.247 10.601 2.096 2839
-1.247 10.607 2.065 3143
-1.265 10.754 2.092 846
-1.257 10.690 2.048 2839
-1.255 10.672 2.012 2102
-1.252 10.647 1.976 1177
-1.265 10.753 1.962 918
-1.568 13.334 2.402 873
-1.263 10.742 1.928 793
-1.636 13.915 2.459 770
-1.562 13.277 2.312 823
-1.639 13.939 2.253 761
-0.267 2.321 1.821 1868
-0.271 2.358 1.837 3997
-0.285 2.479 1.926 943
-0.276 2.401 1.859 6115
-0.263 2.280 1.770 1222
-0.278 2.419 1.861 7458
-0.265 2.298 1.773 1397
-0.279 2.424 1.854 8957
-0.265 2.302 1.766 1128
-0.279 2.422 1.842 7925
-0.276 2.395 1.812 7693
-0.290 2.517 1.900 3661
-0.276 2.400 1.806 7693
-0.290 2.522 1.892 4635
-0.281 2.444 1.826 8011
-0.295 2.566 1.912 2050
-0.283 2.461 1.828 10174
-0.298 2.584 1.914 1160
-0.285 2.473 1.825 10739
-0.299 2.596 1.911 929
-0.286 2.484 1.823 11642
-0.300 2.607 1.908 781
-0.292 2.534 1.847 10005
-0.278 2.411 1.762 952
-0.293 2.546 1.844 9355
-0.279 2.422 1.760 836
-0.294 2.551 1.837 9355
-0.308 2.675 1.921 923
-0.294 2.556 1.829 10468
-0.309 2.680 1.913 1617
-0.294 2.554 1.818 11523
-0.308 2.678 1.901 2474
-0.295 2.559 1.810 11203
-0.309 2.683 1.893 2571
-0.296 2.570 1.807 10993
-0.310 2.695 1.890 2545
-0.296 2.575 1.800 9709
-0.311 2.700 1.882 3033
-0.297 2.580 1.792 8425
-0.311 2.705 1.874 3520
-0.307 2.671 1.841 7404
-0.293 2.545 1.759 2842
-0.310 2.695 1.846 8330
-0.296 2.570 1.765 4833
-0.311 2.700 1.838 9321
-0.296 2.574 1.757 3224
-0.310 2.692 1.822 10501
-0.324 2.818 1.902 1776
-0.311 2.703 1.818 9136
-0.326 2.830 1.899 1813
-0.312 2.708 1.811 7787
-0.326 2.835 1.890 2343
-0.314 2.726 1.811 5711
-0.329 2.853 1.891 2617
-0.316 2.745 1.812 4806
-0.331 2.872 1.891 3213
-0.317 2.756 1.808 5193
-0.332 2.884 1.886 3570
-0.318 2.761 1.800 5646
-0.333 2.889 1.878 4124
-0.322 2.793 1.808 6677
-0.336 2.921 1.886 2646
-0.324 2.818 1.813 9797
-0.339 2.946 1.890 1962
-0.326 2.829 1.808 9834
-0.341 2.958 1.886 2296
-0.327 2.841 1.804 10038
-0.342 2.970 1.881 2615
-0.329 2.859 1.804 8572
-0.344 2.988 1.881 2209
-0.334 2.898 1.816 9260
-0.349 3.027 1.892 1598
-0.336 2.917 1.815 8415
-0.351 3.046 1.891 2003
-0.340 2.949 1.823 5793
-0.364 3.160 1.946 1707
-0.346 3.001 1.842 5830
-0.331 2.872 1.767 3360
-0.347 3.013 1.837 6931
-0.366 3.177 1.931 5130
-0.348 3.025 1.832 8165
-0.366 3.182 1.922 6577
-0.367 3.187 1.913 6991
-0.350 3.043 1.831 6086
-0.368 3.199 1.908 7639
-0.353 3.069 1.834 5177
-0.369 3.204 1.898 8404
-0.354 3.074 1.825 4963
-0.370 3.210 1.889 10186
-0.354 3.079 1.816 5513
-0.370 3.215 1.880 11203
-0.355 3.084 1.808 6124
-0.371 3.220 1.870 10472
-0.356 3.088 1.799 5119
-0.370 3.218 1.857 11135
-0.355 3.086 1.786 3523
-0.371 3.223 1.848 12411
-0.355 3.084 1.773 3067
-0.372 3.235 1.842 10947
-0.388 3.367 1.913 3033
-0.373 3.240 1.833 9786
-0.388 3.372 1.903 3361
-0.374 3.244 1.824 7847
-0.389 3.377 1.894 4877
-0.385 3.347 1.866 7818
-0.370 3.214 1.796 3040
-0.384 3.338 1.849 8729
-0.400 3.471 1.918 3841
-0.383 3.329 1.832 10651
-0.399 3.462 1.900 4984
-0.384 3.334 1.822 11641
-0.406 3.523 1.919 4705
-0.385 3.346 1.816 10702
-0.407 3.535 1.912 4410
-0.386 3.351 1.806 9115
-0.408 3.547 1.906 4066
-0.386 3.348 1.793 5693
-0.411 3.567 1.903 5199
-0.411 3.572 1.892 6336
-0.396 3.438 1.826 3270
-0.412 3.577 1.882 6751
-0.396 3.436 1.812 2352
-0.411 3.568 1.865 6398
-0.426 3.702 1.931 3717
-0.410 3.558 1.847 7243
-0.425 3.693 1.913 6595
-0.412 3.578 1.844 8073
-0.427 3.712 1.909 5986
-0.427 3.710 1.895 7625
-0.412 3.575 1.830 6431
-0.429 3.722 1.888 9023
-0.413 3.587 1.823 5508
-0.430 3.735 1.880 7128
-0.414 3.592 1.813 5012
-0.435 3.782 1.889 6316
-0.413 3.590 1.799 4029
-0.433 3.759 1.865 7445
-0.414 3.595 1.789 3199
-0.433 3.764 1.854 9186
-0.449 3.900 1.917 4317
-0.434 3.769 1.843 7246
-0.450 3.905 1.906 3922
-0.444 3.860 1.871 5721
-0.460 3.996 1.933 3161
-0.445 3.865 1.860 5246
-0.461 4.001 1.922 3334
-0.446 3.870 1.849 3852
-0.461 4.006 1.910 3545
-0.460 3.997 1.892 5216
-0.476 4.134 1.953 2734
-0.462 4.017 1.887 6897
-0.478 4.153 1.947 2925
-0.465 4.036 1.882 7283
-0.480 4.173 1.942 1924
-0.465 4.041 1.870 5757
-0.481 4.178 1.929 1716
-0.473 4.111 1.886 5140
-0.458 3.974 1.827 2049
-0.474 4.116 1.874 9122
-0.458 3.979 1.816 1420
-0.476 4.136 1.868 10881
-0.492 4.273 1.927 1526
-0.478 4.148 1.859 7650
-0.493 4.286 1.917 1610
-0.486 4.218 1.875 7685
-0.470 4.080 1.817 2956
-0.480 4.165 1.838 7982
-0.500 4.340 1.911 2699
-0.483 4.192 1.835 5952
-0.499 4.330 1.892 3749
-0.498 4.328 1.876 5751
-0.482 4.189 1.820 3773
-0.506 4.399 1.890 5552
-0.487 4.231 1.823 3919
-0.495 4.302 1.837 5602
-0.512 4.448 1.895 5540
-0.514 4.460 1.885 4670
-0.495 4.299 1.821 4263
-0.514 4.465 1.872 4794
-0.496 4.311 1.812 1927
-0.512 4.448 1.851 5655
-0.536 4.654 1.931 1941
-0.511 4.438 1.832 5897
-0.533 4.629 1.906 3632
-0.535 4.649 1.898 5296
-0.512 4.443 1.819 3226
-0.538 4.676 1.893 5538
-0.522 4.536 1.840 1952
-0.542 4.703 1.887 5629
-0.525 4.563 1.835 2773
-0.543 4.716 1.876 5177
-0.527 4.576 1.824 2709
-0.544 4.721 1.863 3812
-0.560 4.861 1.915 2632
-0.541 4.696 1.838 3805
-0.557 4.837 1.890 3197
-0.545 4.731 1.835 3852
-0.569 4.945 1.913 3782
-0.546 4.743 1.824 4950
-0.571 4.958 1.901 3082
-0.558 4.844 1.845 4136
-0.576 5.000 1.900 4045
-0.575 4.998 1.883 5318
-0.559 4.857 1.833 4852
-0.578 5.018 1.874 6815
-0.560 4.862 1.819 3115
-0.579 5.030 1.862 8268
-0.603 5.238 1.934 4047
-0.604 5.244 1.918 6346
-0.581 5.043 1.850 6065
-0.603 5.241 1.901 4726
-0.581 5.047 1.835 4516
-0.603 5.239 1.883 4217
-0.583 5.060 1.823 3871
-0.605 5.251 1.870 4104
-0.621 5.393 1.917 2522
-0.608 5.279 1.862 2923
-0.624 5.421 1.909 2446
-0.626 5.441 1.898 3534
-0.609 5.291 1.849 2581
-0.640 5.558 1.919 3682
-0.624 5.416 1.873 3293
-0.648 5.631 1.924 4084
-0.622 5.398 1.850 3235
-0.648 5.629 1.905 4331
-0.624 5.418 1.839 2642
-0.649 5.634 1.889 3047
-0.675 5.859 1.959 1977
-0.676 5.872 1.945 3419
-0.654 5.684 1.886 2081
-0.678 5.884 1.930 4571
-0.650 5.644 1.856 2414
-0.679 5.897 1.915 4186
-0.650 5.649 1.840 1626
-0.680 5.902 1.898 2839
-0.696 6.045 1.941 1605
-0.696 6.043 1.921 2507
-0.678 5.892 1.876 2473
-0.681 5.912 1.863 2769
-0.697 6.056 1.906 2479
-0.682 5.925 1.848 2596
-0.723 6.280 1.952 2407
-0.726 6.308 1.940 2885
-0.710 6.164 1.899 2314
-0.717 6.230 1.898 3015
-0.700 6.078 1.855 1654
-0.767 6.659 1.999 3274
-0.727 6.311 1.901 2190
-0.768 6.672 1.982 4279
-0.728 6.323 1.885 2372
-0.769 6.677 1.962 2611
-0.788 6.844 2.008 2308
-0.788 6.842 1.986 3074
-0.771 6.698 1.947 1739
-0.788 6.847 1.966 3124
-0.808 7.014 2.011 1705
-0.791 6.868 1.950 2645
-0.772 6.708 1.908 1883
-0.812 7.056 1.978 2785
-0.773 6.713 1.888 2740
-0.814 7.069 1.960 3093
-0.868 7.541 2.082 1622
-0.814 7.074 1.939 2450
-0.868 7.539 2.058 2275
-0.869 7.544 2.036 2581
-0.814 7.071 1.916 2516
-0.815 7.077 1.896 2116
-0.869 7.550 2.014 1773
-0.814 7.074 1.873 1914
-0.907 7.876 2.071 1649
-0.907 7.882 2.048 1577
-0.946 8.218 2.130 1300
-0.947 8.224 2.106 1884
-0.908 7.887 2.025 1587
-0.950 8.252 2.088 1677
-0.909 7.892 2.002 1249
-0.984 8.549 2.132 1642
-0.953 8.273 2.067 1405
-0.988 8.585 2.114 1684
-1.020 8.861 2.178 1114
-0.988 8.583 2.087 2133
-1.020 8.859 2.150 1159
-0.988 8.581 2.060 1789
-1.066 9.257 2.212 1197
-1.065 9.247 2.182 1457
-1.082 9.393 2.214 1011
-1.090 9.468 2.202 1467
-1.064 9.238 2.152 1449
-1.086 9.428 2.164 1759
-1.039 9.021 2.076 1444
-1.143 9.926 2.242 1880
-1.084 9.419 2.134 1547
-1.144 9.932 2.213 3287
-1.113 9.663 2.156 1278
-1.144 9.938 2.184 3009
-1.113 9.669 2.128 1340
-1.145 9.944 2.155 1928
-1.185 10.291 2.225 1466
-1.186 10.297 2.195 1685
-1.147 9.966 2.129 1307
-1.199 10.411 2.186 1875
-1.222 10.612 2.226 1767
-1.222 10.610 2.194 1852
-1.196 10.386 2.150 1651
-1.195 10.377 2.117 1537
-1.229 10.678 2.174 1492
-1.231 10.691 2.145 1619
-1.214 10.545 2.117 1179
-1.221 10.604 2.096 2617
-1.222 10.610 2.065 2498
-1.239 10.757 2.092 935
-1.232 10.701 2.049 2945
-1.249 10.848 2.076 866
-1.232 10.698 2.017 2005
-1.226 10.650 1.976 886
-1.237 10.748 1.961 830
-1.602 13.912 2.499 814
-1.603 13.919 2.459 778
-1.529 13.281 2.312 870
-1.605 13.943 2.253 767
-0.262 2.322 1.821 2022
-0.267 2.365 1.842 4876
-0.281 2.486 1.931 780
-0.270 2.389 1.849 7875
-0.256 2.268 1.761 926
-0.273 2.419 1.861 8576
-0.260 2.298 1.773 1463
-0.275 2.431 1.859 9860
-0.261 2.309 1.771 1408
-0.274 2.429 1.847 8360
-0.261 2.308 1.760 764
-0.271 2.396 1.812 7975
-0.284 2.518 1.900 3846
-0.271 2.401 1.806 7975
-0.285 2.523 1.892 4937
-0.276 2.444 1.826 8237
-0.290 2.567 1.912 2424
-0.278 2.462 1.828 10107
-0.292 2.585 1.914 1381
-0.279 2.467 1.821 10487
-0.292 2.590 1.907 1404
-0.281 2.485 1.823 11167
-0.286 2.535 1.847 9890
-0.272 2.412 1.762 924
-0.288 2.546 1.844 9485
-0.274 2.423 1.760 818
-0.288 2.551 1.837 9485
-0.302 2.675 1.921 1030
-0.289 2.556 1.829 10577
-0.303 2.680 1.913 1723
-0.288 2.555 1.818 11568
-0.303 2.679 1.901 2564
-0.289 2.559 1.810 11061
-0.303 2.684 1.893 2642
-0.290 2.571 1.807 10612
-0.304 2.696 1.890 2626
-0.291 2.576 1.800 9682
-0.305 2.701 1.882 3033
-0.291 2.581 1.792 8752
-0.306 2.706 1.874 3440
-0.293 2.592 1.789 7523
-0.307 2.717 1.871 4328
-0.304 2.696 1.846 7999
-0.290 2.570 1.765 4656
-0.305 2.701 1.838 8963
-0.291 2.575 1.757 3051
-0.305 2.699 1.826 10062
-0.319 2.825 1.907 1431
-0.305 2.704 1.818 8604
-0.320 2.831 1.899 1955
-0.306 2.709 1.811 7146
-0.320 2.836 1.890 2478
-0.309 2.734 1.815 5221
-0.323 2.861 1.895 2653
-0.310 2.745 1.812 4520
-0.324 2.873 1.891 3567
-0.311 2.757 1.808 4937
-0.326 2.884 1.886 3956
-0.312 2.762 1.800 5361
-0.326 2.889 1.878 4604
-0.315 2.793 1.808 6483
-0.330 2.921 1.886 2796
-0.318 2.819 1.813 9383
-0.333 2.947 1.890 2088
-0.320 2.830 1.808 9327
-0.334 2.958 1.886 2644
-0.320 2.835 1.800 9410
-0.335 2.963 1.877 3268
-0.323 2.860 1.804 8429
-0.338 2.989 1.881 2289
-0.328 2.906 1.820 10111
-0.344 3.048 1.904 1784
-0.329 2.917 1.815 9206
-0.344 3.047 1.891 2422
-0.333 2.949 1.823 6048
-0.356 3.154 1.942 1718
-0.339 3.002 1.842 5788
-0.324 2.872 1.767 3510
-0.340 3.014 1.837 6951
-0.359 3.178 1.931 5069
-0.342 3.026 1.832 8249
-0.359 3.183 1.922 6447
-0.360 3.188 1.913 6663
-0.344 3.044 1.831 6118
-0.361 3.200 1.908 7003
-0.347 3.070 1.834 5317
-0.362 3.205 1.898 7445
-0.347 3.075 1.825 5416
-0.363 3.217 1.893 9078
-0.348 3.079 1.816 6714
-0.363 3.215 1.880 10264
-0.348 3.084 1.808 7902
-0.364 3.220 1.870 9802
-0.349 3.089 1.799 6764
-0.363 3.219 1.857 11247
-0.349 3.087 1.786 4391
-0.364 3.224 1.848 12946
-0.348 3.085 1.773 3288
-0.365 3.235 1.842 11470
-0.380 3.367 1.913 2832
-0.366 3.240 1.833 10303
-0.381 3.373 1.903 3560
-0.366 3.245 1.824 8359
-0.381 3.378 1.894 4936
-0.379 3.355 1.869 7860
-0.364 3.222 1.800 3905
-0.378 3.346 1.852 8590
-0.393 3.479 1.921 3875
-0.376 3.330 1.832 10002
-0.391 3.463 1.900 5075
-0.377 3.335 1.822 10737
-0.397 3.517 1.916 4440
-0.378 3.347 1.816 9692
-0.399 3.529 1.909 3968
-0.378 3.351 1.806 8205
-0.401 3.548 1.906 4066
-0.403 3.567 1.903 5947
-0.378 3.349 1.793 4859
-0.403 3.573 1.892 7568
-0.388 3.439 1.826 2948
-0.404 3.578 1.882 7755
-0.389 3.443 1.816 2032
-0.403 3.568 1.865 7238
-0.418 3.703 1.931 4477
-0.416 3.687 1.909 7894
-0.401 3.552 1.844 6830
-0.405 3.586 1.847 8393
-0.420 3.720 1.912 5991
-0.418 3.704 1.891 8174
-0.403 3.569 1.827 5905
-0.420 3.723 1.888 9585
-0.405 3.588 1.823 5249
-0.422 3.736 1.880 7372
-0.406 3.593 1.813 4794
-0.423 3.748 1.873 5354
-0.406 3.591 1.799 3873
-0.424 3.753 1.862 6701
-0.406 3.596 1.789 2985
-0.424 3.758 1.851 8499
-0.440 3.894 1.914 4643
-0.426 3.770 1.843 7134
-0.441 3.906 1.906 4152
-0.436 3.861 1.871 5737
-0.451 3.997 1.933 2985
-0.437 3.866 1.860 5088
-0.452 4.002 1.922 3189
-0.437 3.871 1.849 3670
-0.453 4.007 1.910 3454
-0.452 4.005 1.895 5136
-0.431 3.818 1.812 2374
-0.454 4.018 1.887 6695
-0.469 4.154 1.947 2645
-0.456 4.037 1.882 6568
-0.471 4.174 1.942 1640
-0.456 4.042 1.870 5461
-0.472 4.179 1.929 1367
-0.457 4.047 1.858 5166
-0.473 4.184 1.917 1315
-0.465 4.117 1.874 8777
-0.449 3.980 1.816 1680
-0.467 4.137 1.868 10868
-0.487 4.311 1.942 1381
-0.469 4.149 1.859 7406
-0.484 4.287 1.917 1687
-0.476 4.219 1.875 7573
-0.461 4.081 1.817 3594
-0.470 4.166 1.838 7158
-0.488 4.319 1.902 2457
-0.476 4.215 1.844 5675
-0.492 4.353 1.901 2856
-0.489 4.329 1.876 6136
-0.473 4.191 1.820 3762
-0.496 4.393 1.887 5778
-0.477 4.225 1.820 3771
-0.486 4.303 1.837 5637
-0.502 4.449 1.895 5123
-0.487 4.315 1.827 5179
-0.505 4.469 1.888 4459
-0.504 4.466 1.872 4430
-0.489 4.327 1.817 3452
-0.502 4.442 1.848 5720
-0.525 4.647 1.928 1794
-0.501 4.439 1.832 6313
-0.524 4.638 1.909 3739
-0.524 4.643 1.895 5636
-0.503 4.452 1.822 3653
-0.527 4.670 1.890 5134
-0.505 4.471 1.815 2115
-0.531 4.705 1.887 4588
-0.515 4.565 1.835 2667
-0.534 4.724 1.879 4645
-0.518 4.584 1.827 2915
-0.532 4.715 1.860 3667
-0.548 4.855 1.912 2610
-0.530 4.697 1.838 3780
-0.546 4.838 1.890 3325
-0.559 4.947 1.913 3742
-0.543 4.806 1.862 3637
-0.536 4.744 1.824 4607
-0.559 4.952 1.899 2935
-0.547 4.846 1.845 4156
-0.566 5.009 1.903 3352
-0.548 4.851 1.831 4756
-0.565 4.999 1.883 4339
-0.567 5.019 1.874 6268
-0.549 4.863 1.819 3209
-0.568 5.031 1.862 8103
-0.592 5.240 1.934 4039
-0.592 5.245 1.918 6205
-0.570 5.044 1.850 6064
-0.571 5.056 1.837 4852
-0.592 5.243 1.901 4716
-0.592 5.240 1.883 4496
-0.572 5.061 1.823 3957
-0.592 5.245 1.868 4253
-0.608 5.387 1.915 2984
-0.595 5.265 1.857 2810
-0.611 5.407 1.904 2720
-0.626 5.539 1.930 3586
-0.610 5.397 1.883 2745
-0.628 5.560 1.919 4114
-0.612 5.417 1.873 3318
-0.636 5.632 1.924 3975
-0.611 5.407 1.852 2954
-0.637 5.637 1.908 4186
-0.612 5.420 1.839 2243
-0.636 5.635 1.889 3003
-0.662 5.860 1.959 1735
-0.663 5.873 1.945 3226
-0.637 5.640 1.872 2210
-0.665 5.886 1.930 4135
-0.638 5.645 1.856 2541
-0.666 5.899 1.915 3252
-0.638 5.650 1.840 1643
-0.666 5.896 1.896 2323
-0.682 6.039 1.939 1733
-0.665 5.886 1.874 2604
-0.683 6.045 1.921 2481
-0.667 5.906 1.861 2894
-0.683 6.050 1.903 2603
-0.669 5.926 1.848 2781
-0.709 6.281 1.952 2339
-0.701 6.211 1.912 2771
-0.685 6.067 1.870 1945
-0.705 6.239 1.900 3603
-0.687 6.088 1.857 1575
-0.752 6.661 1.999 3343
-0.709 6.282 1.893 2202
-0.754 6.674 1.982 4357
-0.714 6.325 1.885 2234
-0.753 6.671 1.960 2541
-0.772 6.838 2.006 2153
-0.773 6.844 1.986 3220
-0.791 7.003 2.030 1469
-0.773 6.849 1.966 3313
-0.793 7.024 2.013 2232
-0.775 6.862 1.948 2602
-0.759 6.717 1.910 1924
-0.782 6.920 1.942 2992
-0.758 6.715 1.888 2861
-0.798 7.063 1.958 2546
-0.845 7.482 2.066 1712
-0.798 7.068 1.937 2257
-0.852 7.541 2.058 1977
-0.799 7.073 1.916 2694
-0.853 7.554 2.038 2580
-0.799 7.078 1.896 2157
-0.854 7.559 2.016 1728
-0.890 7.878 2.071 1871
-0.799 7.076 1.873 1823
-0.890 7.883 2.048 1794
-0.928 8.220 2.130 1256
-0.891 7.889 2.025 2042
-0.929 8.226 2.106 1867
-0.932 8.254 2.088 1762
-0.892 7.894 2.002 1508
-0.966 8.551 2.132 1752
-0.935 8.275 2.067 1499
-0.969 8.580 2.112 1754
-1.001 8.863 2.178 980
-0.970 8.585 2.087 2147
-1.002 8.877 2.154 1094
-0.969 8.583 2.060 1744
-1.046 9.259 2.212 1155
-1.045 9.250 2.182 1349
-1.061 9.396 2.214 1022
-1.070 9.471 2.202 1535
-1.043 9.240 2.152 1427
-1.065 9.430 2.164 1794
-1.019 9.023 2.076 1506
-1.121 9.929 2.242 1813
-1.064 9.421 2.134 1651
-1.122 9.935 2.213 3170
-1.092 9.665 2.156 1310
-1.123 9.941 2.184 2842
-1.092 9.671 2.128 1445
-1.123 9.947 2.155 1733
-1.162 10.294 2.225 1551
-1.163 10.300 2.195 1631
-1.180 10.446 2.225 1275
-1.200 10.622 2.228 1834
-1.177 10.421 2.188 1795
-1.199 10.620 2.195 1849
-1.174 10.396 2.151 1490
-1.206 10.680 2.174 1724
-1.190 10.534 2.146 1230
-1.208 10.694 2.145 1737
-1.191 10.547 2.117 1049
-1.197 10.599 2.095 1900
-1.214 10.746 2.122 1027
-1.210 10.713 2.083 2281
-1.193 10.566 2.057 1188
-1.209 10.703 2.049 2720
-1.225 10.851 2.076 1023
-1.208 10.701 2.017 1811
-1.500 13.284 2.312 851
-0.257 2.323 1.821 2173
-0.262 2.366 1.842 5883
-0.275 2.486 1.931 789
-0.264 2.390 1.849 9879
-0.251 2.269 1.761 1113
-0.268 2.420 1.861 9807
-0.254 2.299 1.773 1553
-0.269 2.431 1.859 10851
-0.256 2.310 1.771 1469
-0.269 2.430 1.847 8975
-0.255 2.308 1.760 770
-0.265 2.396 1.812 8323
-0.279 2.518 1.900 3970
-0.266 2.401 1.806 8323
-0.279 2.523 1.892 5143
-0.271 2.445 1.826 8384
-0.284 2.567 1.912 2723
-0.273 2.463 1.828 10012
-0.286 2.585 1.914 1557
-0.273 2.467 1.821 10263
-0.287 2.590 1.907 1612
-0.274 2.479 1.818 10718
-0.288 2.602 1.904 1163
-0.281 2.536 1.847 9705
-0.267 2.412 1.762 821
-0.282 2.547 1.844 9548
-0.296 2.671 1.929 779
-0.282 2.552 1.837 9548
-0.296 2.676 1.921 1130
-0.283 2.557 1.829 10633
-0.297 2.681 1.913 1803
-0.284 2.562 1.822 11552
-0.297 2.686 1.905 2320
-0.283 2.560 1.810 10776
-0.297 2.685 1.893 2690
-0.285 2.572 1.807 9995
-0.298 2.696 1.890 2706
-0.285 2.576 1.800 9371
-0.299 2.701 1.882 3035
-0.286 2.588 1.797 8787
-0.300 2.713 1.879 2773
-0.288 2.599 1.794 7742
-0.302 2.725 1.875 3484
-0.298 2.697 1.846 7592
-0.285 2.571 1.765 4427
-0.299 2.702 1.838 8486
-0.285 2.576 1.757 2881
-0.299 2.700 1.826 9453
-0.313 2.826 1.907 1643
-0.299 2.705 1.818 7952
-0.313 2.831 1.899 2122
-0.299 2.703 1.806 6477
-0.313 2.830 1.886 2793
-0.303 2.735 1.815 4730
-0.317 2.861 1.895 2859
-0.315 2.846 1.874 4500
-0.301 2.719 1.795 2608
-0.317 2.865 1.874 4964
-0.303 2.737 1.795 3901
-0.318 2.870 1.866 5549
-0.304 2.742 1.788 4156
-0.309 2.794 1.808 6201
-0.323 2.922 1.886 2969
-0.312 2.819 1.813 8736
-0.326 2.947 1.890 2269
-0.313 2.831 1.808 8565
-0.328 2.959 1.886 3010
-0.314 2.836 1.800 8552
-0.328 2.964 1.877 3836
-0.320 2.888 1.820 8243
-0.334 3.017 1.897 1930
-0.322 2.906 1.820 10790
-0.337 3.042 1.900 2031
-0.323 2.918 1.815 9834
-0.337 3.047 1.891 2722
-0.327 2.950 1.823 6332
-0.349 3.155 1.942 1672
-0.332 3.003 1.842 6040
-0.318 2.873 1.767 3644
-0.333 3.008 1.833 7220
-0.352 3.179 1.931 4856
-0.334 3.019 1.829 8530
-0.352 3.184 1.922 6129
-0.335 3.024 1.820 6294
-0.353 3.189 1.913 6174
-0.354 3.201 1.908 6229
-0.339 3.064 1.830 5455
-0.340 3.075 1.825 6709
-0.355 3.206 1.898 6360
-0.341 3.080 1.816 8960
-0.356 3.218 1.893 7890
-0.341 3.078 1.804 10380
-0.357 3.223 1.884 9177
-0.357 3.221 1.870 8991
-0.341 3.083 1.795 8561
-0.356 3.219 1.857 11066
-0.342 3.088 1.786 4938
-0.357 3.224 1.848 13060
-0.342 3.086 1.773 3263
-0.357 3.229 1.839 11576
-0.372 3.361 1.909 3382
-0.359 3.241 1.833 10363
-0.373 3.373 1.903 3904
-0.359 3.246 1.824 8540
-0.374 3.378 1.894 4960
-0.371 3.356 1.869 8007
-0.357 3.223 1.800 4001
-0.371 3.354 1.856 8625
-0.386 3.486 1.925 4051
-0.369 3.331 1.832 9504
-0.383 3.464 1.900 5103
-0.369 3.335 1.822 9990
-0.384 3.469 1.890 4268
-0.371 3.347 1.816 8831
-0.391 3.530 1.909 3570
-0.371 3.352 1.806 7445
-0.392 3.542 1.902 4290
-0.394 3.561 1.899 6911
-0.371 3.350 1.793 4106
-0.396 3.573 1.892 8807
-0.381 3.439 1.826 2741
-0.395 3.571 1.878 8775
-0.410 3.706 1.945 2143
-0.395 3.569 1.865 7895
-0.410 3.704 1.931 5180
-0.408 3.688 1.909 8828
-0.393 3.553 1.844 6431
-0.398 3.594 1.851 8907
-0.413 3.728 1.916 6174
-0.410 3.705 1.891 8626
-0.395 3.570 1.827 5841
-0.412 3.724 1.888 10004
-0.397 3.589 1.823 5301
-0.413 3.729 1.877 7661
-0.397 3.587 1.809 4542
-0.414 3.742 1.869 5025
-0.398 3.592 1.799 3588
-0.415 3.754 1.862 6055
-0.430 3.889 1.925 2745
-0.416 3.759 1.851 7855
-0.431 3.895 1.914 4628
-0.418 3.778 1.847 7117
-0.433 3.914 1.909 4093
-0.427 3.862 1.871 5769
-0.443 3.998 1.933 2881
-0.428 3.867 1.860 5076
-0.443 4.003 1.922 3057
-0.439 3.965 1.891 3903
-0.424 3.829 1.830 3504
-0.443 4.006 1.895 5098
-0.423 3.819 1.812 2667
-0.445 4.019 1.887 6382
-0.460 4.155 1.947 2408
-0.447 4.038 1.882 5725
-0.462 4.175 1.942 1528
-0.448 4.050 1.873 5191
-0.433 3.913 1.813 1277
-0.448 4.048 1.858 5470
-0.463 4.186 1.917 1317
-0.455 4.111 1.871 8458
-0.440 3.973 1.812 1611
-0.458 4.138 1.868 10609
-0.476 4.297 1.936 1622
-0.459 4.150 1.859 7222
-0.475 4.288 1.917 2274
-0.467 4.220 1.875 7202
-0.452 4.082 1.817 4110
-0.459 4.145 1.829 6592
-0.474 4.284 1.887 3593
-0.467 4.223 1.847 5391
-0.483 4.362 1.904 2433
-0.479 4.330 1.876 5692
-0.464 4.192 1.820 3593
-0.485 4.386 1.884 5578
-0.467 4.218 1.817 3635
-0.477 4.311 1.840 5532
-0.493 4.450 1.895 4540
-0.479 4.323 1.830 5171
-0.495 4.470 1.888 4088
-0.494 4.460 1.869 4097
-0.478 4.321 1.815 3703
-0.492 4.443 1.848 5831
-0.507 4.582 1.902 2198
-0.492 4.441 1.832 6475
-0.513 4.639 1.909 4065
-0.514 4.644 1.895 5989
-0.493 4.453 1.822 4108
-0.516 4.664 1.887 4846
-0.496 4.480 1.817 2510
-0.521 4.706 1.887 3574
-0.501 4.529 1.821 2668
-0.522 4.718 1.876 4193
-0.507 4.578 1.824 3165
-0.522 4.716 1.860 3548
-0.538 4.856 1.912 2511
-0.534 4.824 1.884 3786
-0.518 4.684 1.833 3316
-0.535 4.829 1.870 3867
-0.550 4.970 1.921 2874
-0.524 4.738 1.822 4287
-0.540 4.879 1.872 2893
-0.536 4.847 1.845 4383
-0.555 5.010 1.903 2711
-0.537 4.852 1.831 4769
-0.553 4.993 1.880 3366
-0.556 5.020 1.874 5596
-0.538 4.864 1.819 3407
-0.557 5.033 1.862 7576
-0.580 5.241 1.934 3954
-0.581 5.246 1.918 5980
-0.558 5.045 1.850 5771
-0.560 5.057 1.837 4916
-0.580 5.244 1.901 4614
-0.580 5.241 1.883 4561
-0.560 5.062 1.823 3847
-0.582 5.254 1.870 4314
-0.597 5.396 1.917 2596
-0.583 5.266 1.857 2869
-0.599 5.409 1.904 2620
-0.613 5.541 1.930 3997
-0.598 5.399 1.883 2691
-0.616 5.561 1.919 4334
-0.600 5.419 1.873 3072
-0.624 5.634 1.924 3711
-0.599 5.416 1.854 2705
-0.624 5.639 1.908 4094
-0.600 5.421 1.839 2123
-0.625 5.644 1.891 3323
-0.646 5.839 1.952 1558
-0.650 5.875 1.945 2935
-0.625 5.649 1.875 2555
-0.651 5.880 1.928 3599
-0.625 5.646 1.856 2519
-0.652 5.892 1.913 2366
-0.626 5.651 1.840 1470
-0.651 5.883 1.891 2140
-0.668 6.033 1.936 1763
-0.652 5.888 1.874 2943
-0.670 6.054 1.923 2369
-0.654 5.908 1.861 3076
-0.670 6.051 1.903 2467
-0.656 5.928 1.848 2799
-0.683 6.170 1.919 2191
-0.688 6.213 1.912 3098
-0.672 6.069 1.870 1833
-0.690 6.233 1.898 4056
-0.674 6.089 1.857 1417
-0.737 6.662 1.999 3440
-0.691 6.246 1.882 2378
-0.739 6.675 1.982 4544
-0.700 6.326 1.885 2188
-0.739 6.673 1.960 2565
-0.755 6.817 2.000 2080
-0.759 6.853 1.988 3200
-0.776 7.012 2.032 1563
-0.758 6.851 1.966 3335
-0.778 7.033 2.015 2347
-0.759 6.856 1.946 2616
-0.743 6.711 1.908 1996
-0.766 6.922 1.942 3193
-0.743 6.717 1.888 2922
-0.781 7.057 1.956 2554
-0.829 7.491 2.068 1942
-0.782 7.062 1.935 2002
-0.833 7.527 2.054 1834
-0.836 7.556 2.038 2428
-0.784 7.083 1.918 2421
-0.837 7.561 2.016 2019
-0.784 7.080 1.896 1963
-0.872 7.880 2.071 1901
-0.843 7.612 2.005 1694
-0.873 7.885 2.048 1867
-0.910 8.222 2.130 1173
-0.874 7.899 2.027 2328
-0.911 8.228 2.106 1803
-0.914 8.256 2.088 1705
-0.876 7.912 2.006 1631
-0.946 8.545 2.130 1757
-0.915 8.270 2.065 1446
-0.949 8.574 2.110 1762
-0.994 8.981 2.204 909
-0.951 8.588 2.087 2044
-0.995 8.987 2.178 1146
-0.950 8.586 2.060 1592
-0.981 8.862 2.123 1093
-1.024 9.252 2.182 1139
-1.050 9.482 2.233 1012
-1.049 9.473 2.202 1525
-0.998 9.019 2.103 1261
-1.043 9.425 2.163 1752
-1.068 9.648 2.211 1662
-1.043 9.423 2.134 1724
-1.100 9.939 2.243 1621
-1.101 9.945 2.214 2810
-1.052 9.506 2.122 1463
-1.101 9.943 2.184 2551
-1.072 9.681 2.130 1502
-1.140 10.296 2.225 1696
-1.100 9.942 2.153 1620
-1.140 10.302 2.195 1611
-1.157 10.449 2.225 1504
-1.176 10.625 2.228 1918
-1.154 10.424 2.188 1616
-1.176 10.623 2.195 2005
-1.152 10.407 2.153 1307
-1.182 10.675 2.173 1885
-1.165 10.529 2.145 1128
-1.184 10.697 2.145 1924
-1.168 10.550 2.117 950
-1.186 10.718 2.116 1869
-1.170 10.571 2.089 1173
-1.176 10.623 2.066 2469
-1.204 10.879 2.113 1054
-1.185 10.706 2.049 2478
-1.202 10.861 2.077 1152
-1.182 10.681 2.012 1628
-1.210 10.936 2.058 803
-1.471 13.288 2.312 754
-0.251 2.323 1.821 2314
-0.255 2.366 1.842 6915
-0.268 2.487 1.931 829
-0.258 2.390 1.849 11925
-0.245 2.269 1.761 1281
-0.261 2.421 1.861 11090
-0.248 2.300 1.773 1641
-0.262 2.432 1.859 11937
-0.249 2.311 1.771 1559
-0.262 2.431 1.847 9620
-0.275 2.552 1.934 858
-0.259 2.397 1.812 8660
-0.272 2.519 1.900 4096
-0.259 2.402 1.806 8660
-0.272 2.524 1.892 5284
-0.264 2.445 1.826 8489
-0.277 2.568 1.912 2935
-0.265 2.457 1.823 9924
-0.278 2.580 1.909 2480
-0.266 2.468 1.821 9929
-0.279 2.591 1.907 1961
-0.267 2.480 1.818 10158
-0.281 2.603 1.904 1694
-0.274 2.536 1.847 9368
-0.275 2.548 1.844 9531
-0.288 2.672 1.929 835
-0.275 2.553 1.837 9531
-0.289 2.677 1.921 1209
-0.276 2.558 1.829 10590
-0.289 2.682 1.913 1853
-0.276 2.563 1.822 11566
-0.290 2.687 1.905 2356
-0.276 2.561 1.810 10406
-0.290 2.686 1.893 2703
-0.277 2.572 1.807 9307
-0.291 2.697 1.890 2769
-0.279 2.584 1.804 9075
-0.292 2.709 1.887 2600
-0.279 2.589 1.797 8951
-0.293 2.714 1.879 2731
-0.281 2.607 1.798 8056
-0.295 2.732 1.880 2909
-0.282 2.618 1.795 7317
-0.296 2.744 1.876 3548
-0.291 2.702 1.838 7779
-0.278 2.576 1.757 2757
-0.291 2.701 1.826 8605
-0.305 2.827 1.907 1925
-0.292 2.706 1.818 7134
-0.305 2.832 1.899 2324
-0.292 2.704 1.806 5723
-0.305 2.831 1.886 2901
-0.295 2.735 1.815 4177
-0.309 2.862 1.895 3060
-0.307 2.847 1.874 4883
-0.293 2.720 1.795 2373
-0.309 2.866 1.874 5389
-0.295 2.738 1.795 3503
-0.310 2.871 1.866 6042
-0.296 2.743 1.788 3751
-0.301 2.795 1.808 5858
-0.315 2.923 1.886 3232
-0.303 2.813 1.808 7819
-0.317 2.941 1.886 2762
-0.305 2.825 1.804 7493
-0.319 2.953 1.882 3666
-0.306 2.837 1.800 7363
-0.320 2.965 1.877 4469
-0.312 2.896 1.824 8083
-0.326 3.024 1.901 1924
-0.314 2.907 1.820 11159
-0.328 3.043 1.900 2321
-0.315 2.919 1.815 10222
-0.329 3.048 1.891 3082
-0.319 2.958 1.827 6613
-0.340 3.149 1.938 1581
-0.323 2.997 1.838 6577
-0.309 2.867 1.763 3377
-0.325 3.009 1.833 7729
-0.343 3.180 1.931 4487
-0.325 3.014 1.825 8912
-0.344 3.185 1.922 5614
-0.326 3.018 1.816 6756
-0.344 3.190 1.913 5530
-0.331 3.064 1.830 5676
-0.345 3.195 1.904 5446
-0.332 3.076 1.825 7989
-0.346 3.207 1.898 5214
-0.332 3.081 1.816 10717
-0.347 3.219 1.893 6558
-0.332 3.079 1.804 11862
-0.348 3.224 1.884 7898
-0.333 3.091 1.799 9650
-0.348 3.222 1.870 7951
-0.347 3.220 1.857 10631
-0.333 3.089 1.786 5252
-0.348 3.225 1.848 12893
-0.333 3.087 1.773 3307
-0.348 3.230 1.839 11489
-0.363 3.362 1.909 3642
-0.350 3.242 1.833 10269
-0.364 3.374 1.903 4376
-0.350 3.247 1.824 8573
-0.365 3.379 1.894 5040
-0.363 3.364 1.873 8249
-0.349 3.231 1.803 4430
-0.363 3.369 1.863 8925
-0.378 3.508 1.936 4375
-0.363 3.367 1.850 9201
-0.377 3.500 1.918 4717
-0.360 3.337 1.822 9068
-0.377 3.491 1.901 4377
-0.362 3.355 1.820 7882
-0.377 3.496 1.891 3523
-0.362 3.360 1.810 6650
-0.382 3.543 1.902 4590
-0.384 3.562 1.899 7906
-0.362 3.358 1.797 3382
-0.386 3.575 1.892 9941
-0.371 3.440 1.826 2584
-0.385 3.573 1.878 9704
-0.400 3.707 1.945 2518
-0.386 3.578 1.868 8455
-0.400 3.712 1.934 4899
-0.398 3.689 1.909 9618
-0.383 3.554 1.844 6228
-0.388 3.595 1.851 9974
-0.402 3.729 1.916 6391
-0.400 3.706 1.891 8790
-0.385 3.571 1.827 6137
-0.401 3.718 1.884 9898
-0.386 3.583 1.820 5436
-0.401 3.716 1.870 7932
-0.386 3.581 1.806 4038
-0.401 3.714 1.856 5452
-0.386 3.579 1.792 2857
-0.404 3.748 1.858 5411
-0.420 3.891 1.925 2828
-0.406 3.760 1.851 7020
-0.420 3.896 1.914 4669
-0.408 3.779 1.847 7021
-0.426 3.951 1.925 4609
-0.416 3.856 1.868 5322
-0.431 3.992 1.930 3199
-0.416 3.861 1.857 4692
-0.431 3.997 1.919 3130
-0.427 3.959 1.888 4356
-0.412 3.823 1.827 3693
-0.432 4.007 1.895 4950
-0.412 3.820 1.812 2884
-0.434 4.020 1.887 6039
-0.448 4.157 1.947 2204
-0.436 4.039 1.882 4848
-0.450 4.176 1.942 1597
-0.437 4.051 1.873 5014
-0.422 3.914 1.813 1358
-0.438 4.057 1.861 6134
-0.452 4.194 1.920 1257
-0.442 4.098 1.865 8346
-0.427 3.960 1.806 1417
-0.446 4.139 1.868 10231
-0.464 4.299 1.936 1818
-0.443 4.108 1.841 7350
-0.461 4.275 1.911 2620
-0.444 4.120 1.832 7395
-0.459 4.258 1.890 4046
-0.457 4.234 1.865 6649
-0.442 4.096 1.808 3688
-0.460 4.268 1.865 6428
-0.445 4.130 1.808 2322
-0.463 4.295 1.862 5356
-0.478 4.434 1.918 1845
-0.472 4.373 1.879 5943
-0.457 4.234 1.823 3824
-0.464 4.298 1.834 5184
-0.479 4.437 1.889 3861
-0.467 4.332 1.833 4498
-0.483 4.478 1.891 3642
-0.480 4.454 1.866 4001
-0.465 4.315 1.812 2703
-0.479 4.437 1.845 5922
-0.494 4.577 1.899 3128
-0.479 4.442 1.832 6313
-0.501 4.640 1.909 4368
-0.501 4.646 1.895 6216
-0.481 4.462 1.825 4369
-0.503 4.665 1.887 4663
-0.483 4.481 1.817 2594
-0.497 4.611 1.851 3265
-0.513 4.751 1.904 1897
-0.496 4.602 1.833 3781
-0.511 4.742 1.885 3426
-0.508 4.710 1.857 3368
-0.523 4.850 1.909 2449
-0.521 4.826 1.884 3691
-0.505 4.685 1.833 2954
