0.479 0.717 1.557 18917
0.482 0.720 1.554 19346
0.484 0.724 1.552 15290
0.489 0.731 1.556 12467
0.491 0.734 1.553 13700
0.498 0.745 1.564 18239
0.498 0.744 1.554 18654
0.498 0.744 1.545 15308
0.505 0.755 1.556 19448
0.507 0.758 1.553 33197
0.512 0.765 1.557 40195
0.514 0.769 1.554 41870
0.519 0.776 1.558 42643
0.524 0.783 1.562 31207
0.531 0.794 1.572 24153
0.531 0.794 1.562 18810
0.530 0.793 1.553 10527
0.540 0.808 1.570 7257
0.543 0.811 1.567 14287
0.542 0.811 1.557 22126
0.547 0.818 1.561 30478
0.549 0.822 1.558 34005
0.554 0.829 1.561 23515
0.564 0.844 1.578 19195
0.567 0.847 1.575 18768
0.569 0.851 1.572 17228
0.569 0.850 1.562 15619
0.571 0.854 1.559 20427
0.576 0.861 1.562 30884
0.578 0.865 1.559 31260
0.583 0.872 1.563 19101
0.591 0.883 1.572 12137
0.590 0.883 1.563 10177
0.593 0.886 1.559 10858
0.598 0.894 1.562 16431
0.600 0.897 1.559 22678
0.600 0.897 1.550 25590
0.605 0.904 1.553 26628
0.607 0.907 1.550 26794
0.612 0.915 1.552 26796
0.611 0.914 1.543 30387
0.616 0.922 1.546 26779
0.619 0.925 1.543 21043
0.621 0.929 1.539 27189
0.623 0.932 1.536 37121
0.628 0.939 1.539 40156
0.633 0.947 1.541 33049
0.638 0.955 1.544 19771
0.643 0.962 1.547 14305
0.643 0.961 1.537 16340
0.645 0.965 1.534 17406
0.647 0.968 1.530 21198
0.650 0.971 1.527 17861
0.658 0.983 1.535 8577
0.654 0.978 1.520 7027
0.665 0.995 1.534 8547
0.676 1.011 1.548 10189
0.681 1.019 1.551 9640
0.686 1.027 1.553 8156
0.683 1.021 1.538 10624
0.682 1.020 1.528 18873
0.687 1.028 1.530 20301
0.687 1.027 1.521 15789
0.692 1.035 1.523 19550
0.700 1.047 1.531 22117
0.705 1.055 1.533 17656
0.707 1.058 1.529 14678
0.707 1.057 1.519 13679
0.709 1.060 1.516 12307
0.705 1.054 1.500 14237
0.698 1.044 1.480 13682
0.734 1.098 1.538 13624
0.736 1.101 1.535 19821
0.735 1.100 1.525 21733
0.734 1.098 1.515 24101
0.746 1.116 1.528 29859
0.745 1.114 1.519 26584
0.744 1.113 1.509 21556
0.753 1.126 1.516 19710
0.761 1.138 1.523 15160
0.770 1.151 1.530 12137
0.769 1.150 1.521 20829
0.774 1.158 1.522 41107
0.776 1.161 1.518 38268
0.779 1.164 1.514 18485
0.784 1.172 1.515 11586
0.793 1.185 1.522 20106
0.792 1.184 1.512 26967
0.794 1.187 1.508 16623
0.812 1.214 1.531 9737
0.808 1.208 1.516 15040
0.813 1.216 1.517 17143
0.819 1.224 1.518 19317
0.821 1.228 1.513 24458
0.826 1.236 1.514 28881
0.825 1.234 1.505 24769
0.831 1.243 1.506 16024
0.840 1.256 1.512 10755
0.842 1.259 1.507 8457
0.847 1.267 1.508 7633
0.863 1.290 1.524 6974
0.852 1.274 1.499 9961
0.851 1.272 1.489 19925
0.853 1.275 1.485 21180
0.855 1.279 1.480 14070
0.874 1.307 1.501 13893
0.879 1.315 1.502 13729
0.885 1.324 1.502 12472
0.894 1.337 1.507 8511
0.910 1.360 1.523 8177
0.912 1.364 1.518 16101
0.918 1.372 1.518 18027
0.920 1.376 1.513 14264
0.929 1.389 1.518 15423
0.931 1.392 1.513 20271
0.930 1.391 1.503 19547
0.929 1.389 1.494 12961
0.951 1.423 1.518 13323
0.957 1.431 1.518 17522
0.963 1.440 1.518 14906
0.969 1.448 1.517 16292
0.967 1.447 1.507 20388
0.966 1.445 1.497 17163
0.986 1.474 1.516 10720
0.991 1.483 1.516 15101
0.987 1.475 1.501 16804
0.978 1.463 1.481 13826
0.980 1.466 1.476 11472
1.021 1.528 1.523 11257
1.024 1.531 1.517 10903
1.026 1.534 1.512 9288
1.017 1.522 1.493 8262
1.012 1.514 1.478 8927
1.029 1.539 1.491 6254
1.038 1.553 1.495 8715
1.048 1.567 1.498 12952
1.053 1.575 1.497 14492
1.059 1.584 1.496 12555
1.065 1.593 1.495 10220
1.067 1.596 1.489 7063
1.102 1.648 1.524 6707
1.104 1.651 1.518 8481
1.088 1.627 1.490 8794
1.087 1.625 1.480 9001
1.133 1.694 1.527 8928
1.131 1.692 1.517 10621
1.134 1.695 1.511 12482
1.136 1.699 1.505 10962
1.145 1.713 1.507 10843
1.148 1.716 1.501 12685
1.150 1.719 1.495 13383
1.152 1.723 1.489 11123
1.154 1.726 1.483 7118
1.160 1.735 1.481 5411
1.170 1.749 1.483 8885
1.175 1.758 1.481 14548
1.174 1.756 1.471 15861
1.176 1.759 1.464 12918
1.212 1.812 1.495 7329
1.218 1.821 1.493 10129
1.224 1.830 1.491 12332
1.230 1.839 1.488 14291
1.232 1.842 1.482 13703
1.234 1.846 1.475 10935
1.259 1.883 1.493 10574
1.254 1.875 1.478 12950
1.252 1.872 1.467 10423
1.250 1.870 1.457 8392
1.252 1.873 1.450 5314
1.297 1.939 1.487 5746
1.291 1.931 1.472 5955
1.305 1.951 1.477 6179
1.318 1.972 1.481 7695
1.324 1.981 1.478 9300
1.327 1.984 1.471 10937
1.333 1.993 1.468 9825
1.342 2.008 1.468 10121
1.348 2.017 1.465 10773
1.351 2.020 1.458 9044
1.349 2.017 1.447 7637
1.386 2.073 1.473 6088
1.392 2.082 1.469 7167
1.394 2.085 1.462 7208
1.412 2.112 1.469 8362
1.418 2.121 1.465 8110
1.420 2.124 1.458 7910
1.426 2.133 1.454 8197
1.428 2.136 1.446 8651
1.430 2.139 1.439 9159
1.428 2.136 1.427 9844
1.427 2.133 1.416 7295
1.484 2.219 1.457 5456
1.494 2.234 1.456 7452
1.496 2.238 1.448 9590
1.498 2.241 1.440 9590
1.500 2.244 1.432 9109
1.498 2.241 1.421 8655
1.509 2.256 1.420 7269
1.519 2.271 1.419 6694
1.521 2.274 1.411 7027
1.527 2.283 1.406 7491
1.529 2.286 1.398 8406
1.531 2.289 1.390 9769
1.529 2.286 1.378 10272
1.531 2.289 1.370 9370
1.529 2.286 1.359 8475
1.531 2.289 1.351 4237
0.813 1.216 0.786 303
0.341 0.508 1.565 3911
0.345 0.514 1.571 4946
0.349 0.520 1.576 6264
0.354 0.526 1.581 8779
0.356 0.530 1.579 11339
0.358 0.533 1.577 12286
0.360 0.537 1.576 13233
0.365 0.543 1.581 13165
0.367 0.546 1.579 11516
0.371 0.553 1.584 10115
0.374 0.556 1.582 7071
0.378 0.562 1.587 4143
0.380 0.566 1.585 4599
0.383 0.569 1.583 5054
0.383 0.570 1.574 5054
0.381 0.568 1.558 5163
0.386 0.574 1.563 5689
0.388 0.577 1.560 6310
0.392 0.584 1.565 7378
0.396 0.590 1.570 8564
0.399 0.594 1.568 10677
0.403 0.600 1.573 13135
0.405 0.604 1.571 12236
0.410 0.610 1.576 11125
0.412 0.614 1.573 10304
0.415 0.617 1.571 9395
0.419 0.624 1.576 8149
0.430 0.640 1.601 7170
0.430 0.640 1.592 9279
0.432 0.643 1.590 11628
0.432 0.644 1.581 10073
0.435 0.647 1.578 8538
0.439 0.654 1.583 7729
0.442 0.657 1.580 6994
0.444 0.661 1.578 7497
0.446 0.664 1.576 7737
0.449 0.668 1.573 7457
0.449 0.668 1.564 9775
0.449 0.668 1.555 12169
0.456 0.678 1.566 15890
0.460 0.685 1.570 19868
0.462 0.688 1.568 19940
0.465 0.692 1.565 15391
0.465 0.692 1.556 10366
0.469 0.699 1.560 7747
0.472 0.702 1.558 6643
0.472 0.702 1.549 8156
0.479 0.712 1.559 12682
0.481 0.716 1.557 17291
0.483 0.719 1.554 17232
0.485 0.723 1.552 14093
0.490 0.730 1.556 12730
0.495 0.737 1.560 14380
0.499 0.744 1.564 19221
0.502 0.747 1.561 18468
0.502 0.747 1.552 14268
0.506 0.754 1.556 18380
0.509 0.757 1.553 32248
0.513 0.764 1.557 39681
0.516 0.768 1.554 42134
0.520 0.775 1.558 43500
0.525 0.782 1.562 32390
0.533 0.793 1.572 25398
0.532 0.792 1.562 19531
0.532 0.792 1.553 11148
0.539 0.803 1.563 8366
0.542 0.806 1.560 15468
0.544 0.810 1.557 23174
0.546 0.813 1.554 32213
0.551 0.821 1.558 37012
0.556 0.828 1.561 24768
0.564 0.839 1.571 18047
0.566 0.842 1.568 18218
0.568 0.846 1.565 17295
0.570 0.849 1.562 16568
0.573 0.853 1.559 20431
0.578 0.860 1.562 28846
0.580 0.863 1.559 28284
0.585 0.871 1.563 17028
0.590 0.878 1.566 10927
0.592 0.882 1.563 9515
0.595 0.885 1.559 10423
0.600 0.893 1.562 15508
0.602 0.896 1.559 20833
0.601 0.895 1.550 22628
0.606 0.903 1.553 23729
0.609 0.906 1.550 25352
0.611 0.910 1.546 27620
0.616 0.917 1.549 32280
0.618 0.920 1.546 27795
0.623 0.928 1.549 22804
0.623 0.927 1.539 27377
0.625 0.931 1.536 34145
0.630 0.938 1.539 37155
0.635 0.946 1.541 31230
0.643 0.958 1.550 18938
0.646 0.961 1.547 12502
0.645 0.960 1.537 13236
0.647 0.963 1.534 15112
0.652 0.971 1.536 19559
0.655 0.974 1.533 16901
0.660 0.982 1.535 9448
0.662 0.985 1.532 8019
0.667 0.993 1.534 9010
0.678 1.010 1.548 9132
0.686 1.022 1.557 8396
0.686 1.021 1.547 7586
0.682 1.015 1.532 11232
0.684 1.019 1.528 21204
0.687 1.022 1.524 23034
0.686 1.021 1.515 17899
0.694 1.033 1.523 20220
0.702 1.045 1.531 22500
0.707 1.053 1.533 16787
0.707 1.052 1.523 12284
0.706 1.051 1.514 13033
0.711 1.059 1.516 13043
0.707 1.053 1.500 13164
0.700 1.043 1.480 12920
0.736 1.096 1.538 15854
0.742 1.104 1.540 21426
0.738 1.098 1.525 21153
0.737 1.097 1.515 23410
0.748 1.114 1.528 30705
0.747 1.113 1.519 26875
0.743 1.107 1.504 19390
0.755 1.124 1.516 17746
0.760 1.132 1.518 13181
0.772 1.149 1.530 11356
0.771 1.148 1.521 16748
0.777 1.156 1.522 34215
0.779 1.159 1.518 39043
0.781 1.163 1.514 21259
0.783 1.166 1.510 11047
0.795 1.184 1.522 18852
0.794 1.182 1.512 26193
0.796 1.185 1.508 18082
0.805 1.198 1.515 9305
0.807 1.202 1.510 12411
0.813 1.210 1.511 17187
0.818 1.218 1.512 21842
0.824 1.226 1.513 23714
0.826 1.229 1.509 25491
0.828 1.233 1.505 22779
0.834 1.241 1.506 15190
0.839 1.249 1.506 8921
0.845 1.257 1.507 5709
0.850 1.265 1.508 4980
0.866 1.288 1.524 5062
0.851 1.267 1.494 10335
0.853 1.270 1.489 20691
0.856 1.274 1.485 22137
0.858 1.277 1.480 13979
0.877 1.305 1.501 12435
0.882 1.313 1.502 12425
0.891 1.327 1.507 12034
0.897 1.335 1.507 9482
0.909 1.353 1.518 9240
0.915 1.362 1.518 15465
0.917 1.365 1.513 17942
0.923 1.374 1.513 14298
0.932 1.387 1.518 12552
0.934 1.390 1.513 16773
0.933 1.389 1.503 17526
0.935 1.392 1.498 11988
0.958 1.426 1.523 15172
0.960 1.429 1.518 19722
0.966 1.438 1.518 17313
0.972 1.446 1.517 19489
0.970 1.444 1.507 25467
0.973 1.448 1.502 22154
0.978 1.456 1.502 13491
0.991 1.475 1.511 15897
0.986 1.468 1.496 18157
0.981 1.461 1.481 15473
0.983 1.464 1.476 12785
0.993 1.478 1.480 11154
1.027 1.529 1.517 10277
1.026 1.527 1.507 9436
1.017 1.514 1.488 10298
1.016 1.512 1.478 10610
1.021 1.520 1.477 6431
1.052 1.566 1.508 7305
1.051 1.564 1.498 12361
1.057 1.573 1.497 14321
1.063 1.582 1.496 12495
1.068 1.590 1.495 10709
1.067 1.588 1.485 8552
1.105 1.646 1.524 7836
1.108 1.649 1.518 9582
1.110 1.652 1.512 9842
1.090 1.623 1.480 9649
1.136 1.692 1.527 8069
1.135 1.689 1.517 10135
1.137 1.693 1.511 12407
1.139 1.696 1.505 11151
1.149 1.710 1.507 10786
1.151 1.714 1.501 11979
1.153 1.717 1.495 12348
1.156 1.720 1.489 10432
1.158 1.723 1.483 6906
1.164 1.732 1.481 5362
1.173 1.747 1.483 8677
1.179 1.755 1.481 14603
1.181 1.759 1.475 16306
1.184 1.762 1.469 13533
1.186 1.765 1.462 7933
1.222 1.819 1.493 9429
1.228 1.828 1.491 11723
1.234 1.836 1.488 13470
1.236 1.840 1.482 12635
1.234 1.837 1.471 10218
1.267 1.886 1.497 10197
1.258 1.872 1.478 12677
1.256 1.870 1.467 10137
1.254 1.867 1.457 8092
1.256 1.870 1.450 5197
1.305 1.942 1.490 5394
1.303 1.939 1.480 5126
1.313 1.954 1.481 5732
1.330 1.980 1.489 7729
1.332 1.984 1.482 9234
1.335 1.987 1.475 10738
1.337 1.990 1.468 9626
1.351 2.011 1.472 10075
1.353 2.014 1.465 10994
1.355 2.017 1.458 9130
1.357 2.020 1.451 7490
1.390 2.070 1.473 6194
1.393 2.073 1.466 7480
1.399 2.082 1.462 7117
1.416 2.108 1.469 7842
1.422 2.118 1.465 7647
1.425 2.121 1.458 7461
1.431 2.130 1.454 7884
1.433 2.133 1.446 8408
1.435 2.136 1.439 8687
1.433 2.133 1.427 9074
1.435 2.136 1.420 6701
1.489 2.216 1.457 5148
1.495 2.225 1.453 7143
1.501 2.234 1.448 9289
1.503 2.238 1.440 9289
1.505 2.241 1.432 8860
1.503 2.238 1.421 8526
1.509 2.247 1.417 7089
1.523 2.268 1.419 6720
1.526 2.271 1.411 7296
1.528 2.274 1.402 7871
1.534 2.283 1.398 8765
1.536 2.286 1.390 10023
1.534 2.283 1.378 10394
1.536 2.286 1.370 9582
1.538 2.289 1.362 8770
1.540 2.292 1.354 4385
0.816 1.214 0.786 275
0.343 0.507 1.565 4086
0.347 0.513 1.571 5671
0.351 0.519 1.576 7417
0.353 0.522 1.574 9425
0.357 0.529 1.579 11658
0.360 0.532 1.577 12284
0.362 0.536 1.576 12911
0.365 0.539 1.574 12734
0.369 0.545 1.579 11337
0.373 0.552 1.584 10192
0.377 0.558 1.589 7058
0.382 0.564 1.594 4157
0.384 0.568 1.592 4380
0.386 0.571 1.590 4602
0.385 0.569 1.574 5109
0.385 0.569 1.565 5810
0.387 0.573 1.563 6326
0.392 0.579 1.567 7081
0.394 0.583 1.565 7072
0.398 0.589 1.570 7159
0.401 0.592 1.568 9130
0.405 0.599 1.573 11403
0.409 0.605 1.578 10754
0.414 0.612 1.583 10468
0.414 0.612 1.573 10214
0.414 0.613 1.564 10032
0.421 0.622 1.576 7980
0.425 0.629 1.581 6463
0.430 0.636 1.585 8641
0.432 0.639 1.583 10975
0.434 0.642 1.581 9600
0.437 0.646 1.578 8225
0.439 0.649 1.576 7703
0.441 0.653 1.574 7180
0.446 0.660 1.578 7208
0.448 0.663 1.576 7352
0.446 0.660 1.560 7664
0.451 0.667 1.564 10039
0.453 0.670 1.562 12426
0.458 0.677 1.566 17502
0.460 0.680 1.564 22365
0.462 0.684 1.561 22394
0.467 0.690 1.565 17037
0.469 0.694 1.563 11052
0.474 0.701 1.567 7621
0.472 0.697 1.551 5833
0.471 0.697 1.542 8506
0.478 0.707 1.553 11266
0.483 0.714 1.557 14518
0.485 0.718 1.554 13957
0.488 0.721 1.552 12457
0.492 0.728 1.556 13412
0.502 0.742 1.573 16786
0.504 0.746 1.570 20847
0.507 0.749 1.568 18362
0.509 0.752 1.565 13328
0.509 0.752 1.556 16600
0.511 0.756 1.553 29446
0.516 0.763 1.557 36327
0.518 0.766 1.554 39033
0.523 0.773 1.558 41914
0.528 0.780 1.562 33013
0.535 0.791 1.572 26838
0.535 0.791 1.562 20766
0.535 0.790 1.553 12670
0.539 0.798 1.557 9673
0.544 0.805 1.560 16516
0.547 0.808 1.557 24325
0.549 0.812 1.554 34624
0.554 0.819 1.558 40814
0.556 0.822 1.555 27246
0.564 0.833 1.565 17413
0.569 0.841 1.568 17893
0.568 0.840 1.559 17616
0.571 0.844 1.556 17973
0.575 0.851 1.559 20859
0.580 0.858 1.562 26975
0.583 0.862 1.559 24962
0.588 0.869 1.563 15130
0.590 0.872 1.559 10462
0.592 0.876 1.556 9395
0.597 0.883 1.559 10229
0.602 0.891 1.562 14088
0.605 0.894 1.559 17642
0.607 0.897 1.556 17841
0.609 0.901 1.553 19047
0.612 0.904 1.550 22771
0.614 0.908 1.546 28353
0.619 0.915 1.549 34724
0.621 0.919 1.546 29561
0.626 0.926 1.549 25050
0.629 0.929 1.545 27530
0.628 0.929 1.536 29611
0.633 0.936 1.539 31344
0.641 0.948 1.547 27353
0.646 0.956 1.550 18317
0.649 0.959 1.547 11662
0.645 0.954 1.531 11144
0.650 0.961 1.534 14577
0.655 0.969 1.536 19298
0.661 0.977 1.539 16860
0.663 0.980 1.535 11694
0.665 0.983 1.532 10883
0.670 0.991 1.534 10052
0.678 1.003 1.542 9919
0.684 1.011 1.545 7955
0.686 1.014 1.541 6228
0.682 1.009 1.526 11986
0.687 1.016 1.528 21975
0.693 1.024 1.530 22707
0.695 1.028 1.527 16762
0.697 1.031 1.523 18753
0.702 1.039 1.525 22563
0.708 1.046 1.527 15564
0.710 1.050 1.523 10637
0.712 1.053 1.519 12499
0.718 1.061 1.521 12903
0.711 1.051 1.500 13690
0.707 1.045 1.485 14738
0.740 1.094 1.538 16851
0.745 1.102 1.540 22325
0.744 1.100 1.531 19871
0.740 1.094 1.515 20711
0.752 1.112 1.528 28958
0.754 1.115 1.524 25073
0.759 1.123 1.526 16761
0.762 1.126 1.522 16637
0.754 1.116 1.501 11717
0.772 1.142 1.525 11540
0.775 1.146 1.521 14988
0.780 1.154 1.522 26779
0.782 1.157 1.518 36924
0.785 1.160 1.514 23439
0.787 1.163 1.510 10839
0.799 1.181 1.522 16801
0.798 1.180 1.512 23887
0.800 1.183 1.508 19759
0.805 1.191 1.509 9623
0.811 1.199 1.510 8763
0.816 1.207 1.511 16412
0.822 1.215 1.512 24547
0.827 1.223 1.513 22665
0.830 1.227 1.509 21630
0.832 1.230 1.505 20053
0.837 1.238 1.506 13437
0.843 1.246 1.506 7411
0.848 1.255 1.507 3352
0.824 1.218 1.461 2937
0.833 1.231 1.467 5154
0.852 1.259 1.488 12058
0.857 1.268 1.489 21408
0.859 1.271 1.485 20912
0.862 1.274 1.480 12719
0.881 1.302 1.501 10864
0.886 1.311 1.502 10558
0.895 1.324 1.507 11166
0.901 1.332 1.507 10279
0.913 1.351 1.518 10719
0.919 1.359 1.518 15041
0.921 1.362 1.513 18038
0.924 1.366 1.508 15098
0.933 1.379 1.513 11334
0.935 1.382 1.508 14511
0.941 1.391 1.508 15842
0.953 1.409 1.518 12229
0.962 1.423 1.523 16607
0.968 1.432 1.523 21204
0.970 1.435 1.518 19204
0.973 1.438 1.512 22253
0.975 1.441 1.507 29710
0.977 1.445 1.502 26645
0.983 1.453 1.502 16794
0.996 1.472 1.511 16516
0.991 1.465 1.496 18415
0.989 1.463 1.486 16341
0.992 1.466 1.481 13692
1.001 1.480 1.485 11733
1.028 1.520 1.513 10225
1.027 1.518 1.503 10492
1.022 1.511 1.488 12738
1.020 1.509 1.478 12567
1.023 1.512 1.472 7404
1.061 1.569 1.513 6508
1.059 1.566 1.503 11576
1.062 1.570 1.497 13769
1.067 1.578 1.496 12271
1.073 1.587 1.495 11213
1.072 1.585 1.485 10141
1.111 1.642 1.524 8831
1.113 1.645 1.518 10435
1.108 1.638 1.503 10923
1.095 1.619 1.480 10443
1.097 1.623 1.474 8216
1.137 1.680 1.512 9182
1.139 1.684 1.506 11923
1.145 1.693 1.505 11267
1.154 1.707 1.507 11309
1.157 1.710 1.501 11700
1.159 1.713 1.495 11497
1.161 1.717 1.489 9876
1.167 1.725 1.487 6966
1.169 1.729 1.481 5629
1.182 1.748 1.487 8467
1.185 1.752 1.481 14096
1.187 1.755 1.475 16145
1.189 1.758 1.469 13822
1.191 1.761 1.462 8383
1.227 1.815 1.493 8573
1.233 1.824 1.491 10945
1.239 1.833 1.488 12440
1.238 1.830 1.478 11392
1.240 1.833 1.471 9419
1.273 1.882 1.497 9680
1.267 1.874 1.482 11956
1.262 1.866 1.467 9451
1.260 1.863 1.457 7516
1.262 1.866 1.450 4975
1.311 1.938 1.490 5049
1.313 1.941 1.484 4501
1.323 1.956 1.484 5358
1.340 1.982 1.493 7782
1.339 1.979 1.482 9052
1.341 1.983 1.475 10370
1.347 1.992 1.472 9202
1.357 2.006 1.472 9716
1.359 2.009 1.465 10839
1.361 2.013 1.458 8909
1.363 2.016 1.451 7163
1.393 2.060 1.469 6065
1.399 2.069 1.466 7410
1.401 2.072 1.458 6802
1.427 2.110 1.473 7244
1.429 2.113 1.465 7134
1.431 2.116 1.458 7024
1.437 2.125 1.454 7595
1.439 2.128 1.446 8225
1.442 2.132 1.439 8240
1.444 2.135 1.431 8255
1.442 2.132 1.420 6046
1.496 2.212 1.457 5152
1.502 2.221 1.453 7106
1.508 2.230 1.448 9114
1.510 2.233 1.440 9114
1.508 2.230 1.429 8751
1.510 2.233 1.421 8397
1.516 2.242 1.417 7093
1.531 2.263 1.419 6635
1.533 2.266 1.411 7404
1.535 2.269 1.402 8173
1.541 2.278 1.398 8926
1.543 2.281 1.390 10071
1.545 2.284 1.381 10315
1.543 2.281 1.370 9544
1.545 2.284 1.362 8837
1.547 2.287 1.354 4418
1.455 2.151 1.274 308
0.346 0.509 1.573 3924
0.350 0.515 1.578 5764
0.352 0.518 1.576 7730
0.354 0.522 1.574 9248
0.359 0.528 1.579 10963
0.361 0.531 1.577 11338
0.363 0.535 1.576 11714
0.366 0.538 1.574 11547
0.370 0.544 1.579 10523
0.374 0.551 1.584 9811
0.379 0.557 1.589 6915
0.383 0.563 1.594 4321
0.385 0.567 1.592 4001
0.390 0.573 1.597 3698
0.386 0.568 1.574 5107
0.386 0.568 1.565 6587
0.391 0.575 1.570 7386
0.395 0.581 1.575 8441
0.397 0.585 1.572 7095
0.400 0.588 1.570 5748
0.404 0.595 1.575 7486
0.408 0.601 1.580 9323
0.411 0.604 1.578 10124
0.413 0.608 1.576 11125
0.415 0.611 1.573 10529
0.418 0.615 1.571 9728
0.422 0.621 1.576 7673
0.427 0.628 1.581 6016
0.431 0.635 1.585 8084
0.434 0.638 1.583 10258
0.436 0.641 1.581 8932
0.438 0.645 1.578 7606
0.441 0.648 1.576 7242
0.445 0.655 1.580 6948
0.450 0.662 1.585 6838
0.450 0.662 1.576 7379
0.450 0.662 1.566 8383
0.452 0.666 1.564 10852
0.455 0.669 1.562 13321
0.459 0.676 1.566 19193
0.462 0.679 1.564 23948
0.466 0.686 1.568 23195
0.468 0.689 1.565 17932
0.473 0.696 1.570 12208
0.473 0.696 1.560 8753
0.471 0.693 1.544 6661
0.473 0.696 1.542 8067
0.478 0.703 1.546 9300
0.485 0.713 1.557 11454
0.487 0.717 1.554 11209
0.492 0.724 1.558 11886
0.501 0.738 1.576 16667
0.504 0.741 1.573 20861
0.506 0.744 1.570 23797
0.508 0.748 1.568 19217
0.513 0.755 1.572 13327
0.510 0.751 1.556 15142
0.513 0.754 1.553 25968
0.517 0.761 1.557 32005
0.520 0.765 1.554 35026
0.525 0.772 1.558 40702
0.529 0.779 1.562 34406
0.537 0.790 1.572 28944
0.537 0.790 1.562 22932
0.536 0.789 1.553 14632
0.541 0.796 1.557 10587
0.546 0.804 1.560 16963
0.548 0.807 1.557 24728
0.551 0.810 1.554 36559
0.553 0.814 1.552 44791
0.555 0.817 1.549 30440
0.563 0.828 1.558 18093
0.568 0.835 1.562 17854
0.570 0.839 1.559 17419
0.572 0.842 1.556 18393
0.577 0.850 1.559 21210
0.582 0.857 1.562 26229
0.585 0.860 1.559 23357
0.587 0.864 1.556 13900
0.589 0.867 1.553 9815
0.594 0.874 1.556 8910
0.599 0.882 1.559 9439
0.604 0.889 1.562 12201
0.607 0.893 1.559 14553
0.609 0.896 1.556 13601
0.611 0.900 1.553 14509
0.614 0.903 1.550 19412
0.616 0.906 1.546 27307
0.621 0.914 1.549 35337
0.623 0.917 1.546 30850
0.631 0.929 1.555 27945
0.631 0.928 1.545 28765
0.630 0.927 1.536 25950
0.635 0.935 1.539 25760
0.643 0.946 1.547 23043
0.651 0.958 1.556 17683
0.654 0.962 1.553 11694
0.647 0.952 1.531 8623
0.649 0.956 1.528 13094
0.658 0.968 1.536 17914
0.663 0.975 1.539 16737
0.665 0.979 1.535 14584
0.667 0.982 1.532 14842
0.670 0.985 1.528 13165
0.678 0.997 1.537 12198
0.680 1.001 1.533 8982
0.679 1.000 1.523 5958
0.684 1.007 1.526 11986
0.690 1.015 1.528 22129
0.692 1.018 1.524 23163
0.697 1.026 1.527 16697
0.703 1.034 1.529 17388
0.705 1.037 1.525 21606
0.707 1.040 1.521 14404
0.709 1.044 1.517 8794
0.715 1.052 1.519 11435
0.720 1.059 1.521 13880
0.722 1.063 1.518 13988
0.709 1.043 1.485 14627
0.742 1.092 1.538 16652
0.747 1.100 1.540 21634
0.744 1.094 1.525 17992
0.743 1.093 1.515 17483
0.754 1.110 1.528 25507
0.760 1.118 1.530 23376
0.762 1.121 1.526 17892
0.761 1.120 1.516 18049
0.757 1.114 1.501 11856
0.775 1.140 1.525 11785
0.777 1.144 1.521 15209
0.786 1.156 1.528 21649
0.785 1.155 1.518 33048
0.784 1.154 1.508 24106
0.789 1.162 1.510 10963
0.801 1.179 1.522 14752
0.797 1.173 1.507 20909
0.803 1.181 1.508 19995
0.811 1.194 1.515 10398
0.810 1.192 1.505 6774
0.819 1.205 1.511 15567
0.825 1.213 1.512 25490
0.827 1.217 1.508 21148
0.832 1.225 1.509 17819
0.835 1.228 1.505 16781
0.837 1.231 1.500 10961
0.842 1.240 1.501 5972
0.828 1.218 1.470 3717
0.823 1.212 1.456 5311
0.836 1.230 1.467 6881
0.851 1.253 1.483 15374
0.857 1.261 1.484 23816
0.862 1.269 1.485 20556
0.865 1.272 1.480 12975
0.880 1.295 1.496 9887
0.893 1.314 1.507 8901
0.898 1.322 1.507 10245
0.904 1.330 1.507 10957
0.916 1.349 1.518 11977
0.919 1.352 1.513 14662
0.924 1.360 1.513 18107
0.927 1.364 1.508 16419
0.932 1.372 1.508 12593
0.938 1.380 1.508 14884
0.947 1.394 1.513 15301
0.967 1.423 1.533 13803
0.969 1.426 1.528 17520
0.971 1.429 1.523 21917
0.974 1.433 1.518 20274
0.976 1.436 1.512 23937
0.978 1.439 1.507 32201
0.980 1.443 1.502 29549
0.986 1.451 1.502 19336
0.999 1.470 1.511 16737
0.994 1.463 1.496 17920
0.993 1.461 1.486 16803
0.995 1.464 1.481 14501
1.008 1.483 1.490 12303
1.014 1.491 1.489 10834
1.027 1.511 1.498 11654
1.025 1.509 1.488 14695
1.027 1.512 1.482 14254
1.026 1.510 1.472 8335
1.068 1.572 1.518 6347
1.063 1.564 1.503 10615
1.065 1.567 1.497 12797
1.071 1.576 1.496 11690
1.077 1.585 1.495 11489
1.075 1.582 1.485 11544
1.114 1.640 1.524 9213
1.117 1.643 1.518 10607
1.104 1.625 1.495 11628
1.099 1.617 1.480 11009
1.101 1.620 1.474 8830
1.140 1.678 1.512 8202
1.139 1.676 1.502 11236
1.148 1.690 1.505 11349
1.158 1.704 1.507 12354
1.164 1.713 1.505 11891
1.163 1.711 1.495 10881
1.169 1.719 1.493 9425
1.174 1.728 1.491 7525
1.177 1.731 1.485 6497
1.186 1.746 1.487 8580
1.192 1.755 1.485 13429
1.195 1.758 1.479 15559
1.193 1.755 1.469 13736
1.195 1.759 1.462 8609
1.231 1.812 1.493 7669
1.237 1.821 1.491 10014
1.240 1.824 1.484 11235
1.242 1.827 1.478 9969
1.244 1.831 1.471 8410
1.277 1.879 1.497 8998
1.271 1.871 1.482 10943
1.266 1.863 1.467 8570
1.260 1.855 1.453 6887
1.262 1.858 1.446 4661
1.315 1.935 1.490 4795
1.317 1.938 1.484 4137
1.339 1.970 1.496 5391
1.345 1.979 1.493 7679
1.347 1.982 1.486 8645
1.349 1.985 1.479 9612
1.351 1.989 1.472 8475
1.361 2.003 1.472 9078
1.364 2.006 1.465 10294
1.366 2.010 1.458 8343
1.368 2.013 1.451 6520
1.398 2.056 1.469 5806
1.404 2.065 1.466 7089
1.406 2.069 1.458 6368
1.432 2.107 1.473 6650
1.434 2.110 1.465 6617
1.436 2.113 1.458 6584
1.442 2.122 1.454 7235
1.444 2.125 1.446 7931
1.446 2.128 1.439 7759
1.448 2.131 1.431 7588
1.447 2.129 1.420 5438
1.497 2.202 1.454 5305
1.507 2.217 1.453 7141
1.509 2.220 1.445 9070
1.511 2.224 1.437 9070
1.513 2.227 1.429 8642
1.515 2.230 1.421 8215
1.517 2.233 1.413 7065
1.536 2.260 1.419 6432
1.534 2.257 1.407 7338
1.536 2.260 1.399 8265
1.542 2.269 1.394 8958
1.548 2.278 1.390 9888
1.550 2.281 1.381 10013
1.548 2.278 1.370 9221
1.550 2.281 1.362 8588
1.552 2.284 1.354 4294
1.468 2.160 1.280 343
0.348 0.511 1.580 5736
0.351 0.514 1.578 7845
0.353 0.517 1.576 9921
0.357 0.524 1.581 10840
0.360 0.527 1.579 12032
0.362 0.531 1.577 11635
0.364 0.534 1.576 11239
0.367 0.537 1.574 11064
0.371 0.544 1.579 10275
0.375 0.550 1.584 9938
0.380 0.556 1.589 7414
0.386 0.565 1.601 5211
0.388 0.569 1.599 4276
0.393 0.575 1.604 3344
0.389 0.570 1.581 4916
0.389 0.571 1.572 6664
0.394 0.577 1.577 8110
0.398 0.583 1.582 9773
0.398 0.584 1.572 8362
0.403 0.590 1.577 7041
0.405 0.594 1.575 7910
0.408 0.597 1.573 8467
0.410 0.601 1.571 9254
0.414 0.607 1.576 10454
0.417 0.611 1.573 9695
0.421 0.617 1.578 8748
0.423 0.621 1.576 7386
0.428 0.627 1.581 6032
0.432 0.634 1.585 7676
0.435 0.637 1.583 9448
0.437 0.641 1.581 8045
0.440 0.644 1.578 6642
0.444 0.651 1.583 6339
0.446 0.654 1.580 6166
0.449 0.658 1.578 6841
0.451 0.661 1.576 8457
0.451 0.661 1.566 9571
0.454 0.665 1.564 12037
0.454 0.665 1.555 14596
0.461 0.675 1.566 20242
0.463 0.678 1.564 24204
0.467 0.685 1.568 22940
0.470 0.688 1.565 18677
0.472 0.692 1.563 13926
0.472 0.692 1.554 10827
0.467 0.685 1.531 7727
0.470 0.688 1.528 7221
0.477 0.699 1.539 6525
0.484 0.709 1.550 8553
0.486 0.712 1.548 10209
0.495 0.726 1.565 12262
0.503 0.737 1.576 20566
0.505 0.740 1.573 25611
0.507 0.743 1.570 27192
0.510 0.747 1.568 20105
0.514 0.754 1.572 13060
0.514 0.754 1.562 13769
0.514 0.753 1.553 22309
0.519 0.760 1.557 28229
0.524 0.768 1.561 32413
0.526 0.771 1.558 40278
0.533 0.782 1.568 36101
0.538 0.789 1.572 31368
0.538 0.789 1.562 25232
0.538 0.788 1.553 15656
0.543 0.795 1.557 10650
0.545 0.799 1.554 16978
0.547 0.802 1.551 24849
0.552 0.809 1.554 37723
0.555 0.813 1.552 48125
0.557 0.816 1.549 34068
0.559 0.819 1.546 20213
0.569 0.834 1.562 18153
0.572 0.838 1.559 17203
0.574 0.841 1.556 18862
0.579 0.848 1.559 21869
0.584 0.856 1.562 26038
0.586 0.859 1.559 22566
0.589 0.863 1.556 13049
0.588 0.862 1.547 9034
0.593 0.869 1.550 8215
0.598 0.877 1.553 8323
0.606 0.888 1.562 9596
0.611 0.896 1.565 10961
0.611 0.895 1.556 9545
0.610 0.894 1.547 10307
0.615 0.902 1.550 15627
0.618 0.905 1.546 24914
0.623 0.913 1.549 33867
0.625 0.916 1.546 30647
0.633 0.928 1.555 29540
0.632 0.927 1.545 29222
0.635 0.930 1.542 22512
0.640 0.938 1.545 20515
0.645 0.945 1.547 19151
0.653 0.957 1.556 18077
0.655 0.960 1.553 14212
0.652 0.955 1.537 9057
0.651 0.954 1.528 12674
0.659 0.966 1.536 15929
0.665 0.974 1.539 15088
0.664 0.973 1.529 15416
0.669 0.981 1.532 16668
0.671 0.984 1.528 15892
0.677 0.992 1.531 15321
0.679 0.995 1.527 11665
0.678 0.994 1.518 7718
0.686 1.006 1.526 12542
0.692 1.014 1.528 22357
0.694 1.017 1.524 24073
0.699 1.025 1.527 16896
0.705 1.032 1.529 16207
0.707 1.036 1.525 20384
0.709 1.039 1.521 14197
0.711 1.042 1.517 8153
0.720 1.055 1.525 10571
0.722 1.058 1.521 15580
0.724 1.061 1.518 15331
0.714 1.046 1.491 13221
0.713 1.045 1.481 15242
0.746 1.094 1.535 19943
0.746 1.093 1.525 16181
0.745 1.091 1.515 14490
0.756 1.108 1.528 21043
0.762 1.116 1.530 21849
0.767 1.124 1.532 19922
0.766 1.123 1.522 19608
0.765 1.122 1.512 12581
0.777 1.139 1.525 12445
0.780 1.142 1.521 16069
0.785 1.150 1.522 18470
0.787 1.154 1.518 28021
0.786 1.152 1.508 22366
0.792 1.160 1.510 10205
0.804 1.178 1.522 12906
0.799 1.171 1.507 18035
0.805 1.180 1.508 18946
0.814 1.192 1.515 11996
0.806 1.181 1.494 7008
0.818 1.199 1.506 15220
0.824 1.207 1.507 24794
0.829 1.215 1.508 18775
0.831 1.218 1.504 14317
0.834 1.222 1.499 14133
0.836 1.225 1.495 10084
0.831 1.218 1.480 6098
0.827 1.212 1.465 4964
0.832 1.220 1.466 5439
0.845 1.238 1.477 8725
0.850 1.246 1.478 18653
0.859 1.259 1.484 27271
0.861 1.262 1.479 22273
0.864 1.265 1.475 14187
0.866 1.269 1.470 10631
0.878 1.287 1.481 8297
0.901 1.320 1.507 9219
0.907 1.328 1.507 11231
0.919 1.347 1.518 12737
0.925 1.355 1.518 14305
0.927 1.358 1.513 17844
0.926 1.357 1.503 17744
0.931 1.365 1.503 15371
0.937 1.373 1.503 17372
0.950 1.392 1.513 15918
0.970 1.421 1.533 14657
0.972 1.424 1.528 17459
0.974 1.427 1.523 21524
0.976 1.431 1.518 20404
0.979 1.434 1.512 24486
0.981 1.437 1.507 33060
0.983 1.441 1.502 31014
0.989 1.449 1.502 21038
0.998 1.463 1.506 16690
0.997 1.461 1.496 16990
0.996 1.459 1.486 17092
0.998 1.462 1.481 15340
1.011 1.481 1.490 12857
1.016 1.490 1.489 11742
1.029 1.509 1.498 12620
1.032 1.512 1.493 15949
1.030 1.510 1.482 15435
1.032 1.513 1.477 9077
1.075 1.575 1.522 6569
1.066 1.562 1.503 9747
1.068 1.565 1.497 11797
1.074 1.574 1.496 11069
1.080 1.583 1.495 11611
1.078 1.580 1.485 12545
1.106 1.621 1.511 8974
1.112 1.630 1.509 10357
1.107 1.622 1.495 12081
1.102 1.615 1.480 11553
1.101 1.613 1.470 9667
1.114 1.632 1.477 8588
1.135 1.663 1.493 10970
1.152 1.688 1.505 11456
1.161 1.702 1.507 13740
1.164 1.705 1.501 12507
1.162 1.703 1.491 10844
1.172 1.717 1.493 9337
1.182 1.731 1.495 8592
1.180 1.729 1.485 7763
1.190 1.743 1.487 8901
1.196 1.752 1.485 12737
1.198 1.755 1.479 14895
1.200 1.759 1.473 13424
1.202 1.762 1.466 8741
1.235 1.810 1.493 6943
1.241 1.819 1.491 9147
1.243 1.822 1.484 10094
1.245 1.825 1.478 8646
1.240 1.817 1.463 7527
1.284 1.882 1.501 8314
1.279 1.874 1.486 9763
1.266 1.855 1.463 7613
1.264 1.852 1.453 6295
1.305 1.912 1.486 4566
1.319 1.932 1.490 4518
1.325 1.941 1.487 3941
1.343 1.967 1.496 5392
1.349 1.976 1.493 7373
1.351 1.979 1.486 8136
1.353 1.983 1.479 8900
1.359 1.992 1.475 7863
1.369 2.006 1.476 8424
1.371 2.010 1.469 9610
1.370 2.007 1.458 7651
1.372 2.010 1.451 5779
1.402 2.054 1.469 5332
1.404 2.057 1.462 6609
1.406 2.060 1.455 5794
1.436 2.104 1.473 6079
1.438 2.107 1.465 6101
1.440 2.110 1.458 6123
1.446 2.119 1.454 6784
1.448 2.122 1.446 7494
1.450 2.125 1.439 7234
1.453 2.129 1.431 6975
1.451 2.126 1.420 4889
1.501 2.199 1.454 5626
1.507 2.208 1.449 7244
1.513 2.217 1.445 8959
1.515 2.221 1.437 8959
1.518 2.224 1.429 8437
1.520 2.227 1.421 7915
1.522 2.230 1.413 6988
1.536 2.251 1.415 6109
1.538 2.254 1.407 7079
1.540 2.257 1.399 8048
1.542 2.260 1.391 8588
1.552 2.275 1.390 9306
1.554 2.278 1.381 9318
1.556 2.281 1.373 8590
1.554 2.278 1.362 8099
1.556 2.281 1.354 4049
0.824 1.208 0.786 266
0.350 0.510 1.580 7110
0.352 0.513 1.578 9141
0.355 0.517 1.576 11141
0.359 0.523 1.581 11542
0.361 0.526 1.579 12124
0.364 0.530 1.577 11091
0.366 0.533 1.576 10057
0.368 0.536 1.574 9889
0.372 0.543 1.579 9304
0.377 0.549 1.584 9143
0.381 0.555 1.589 6929
0.385 0.562 1.594 4935
0.390 0.568 1.599 3932
0.392 0.571 1.597 3026
0.393 0.572 1.588 4899
0.393 0.572 1.579 6919
0.395 0.576 1.577 9455
0.400 0.582 1.582 12024
0.400 0.583 1.572 10915
0.402 0.586 1.570 9816
0.407 0.593 1.575 9055
0.409 0.596 1.573 8013
0.412 0.600 1.571 8026
0.418 0.609 1.583 8887
0.418 0.609 1.573 9074
0.421 0.613 1.571 9082
0.423 0.616 1.569 7636
0.428 0.623 1.574 6350
0.434 0.633 1.585 7247
0.439 0.639 1.590 8417
0.439 0.639 1.581 7127
0.441 0.643 1.578 5853
0.446 0.650 1.583 5784
0.448 0.653 1.580 5818
0.451 0.656 1.578 6778
0.451 0.657 1.569 9050
0.453 0.660 1.566 10608
0.453 0.660 1.557 13199
0.453 0.660 1.548 16089
0.460 0.670 1.559 20598
0.467 0.680 1.570 24169
0.469 0.684 1.568 22874
0.472 0.687 1.565 19422
0.472 0.687 1.556 16016
0.472 0.687 1.547 12853
0.472 0.687 1.538 8461
0.472 0.687 1.528 6842
0.476 0.694 1.533 6172
0.481 0.701 1.537 7697
0.486 0.707 1.541 9973
0.500 0.728 1.572 13183
0.502 0.732 1.569 24229
0.507 0.739 1.573 29850
0.509 0.742 1.570 30011
0.512 0.745 1.568 20830
0.514 0.749 1.565 12982
0.519 0.756 1.569 12945
0.519 0.756 1.560 19333
0.521 0.759 1.557 25274
0.526 0.766 1.561 30527
0.531 0.773 1.564 39788
0.536 0.780 1.568 37675
0.540 0.787 1.572 33641
0.540 0.787 1.562 27007
0.540 0.787 1.553 16278
0.545 0.794 1.557 11302
0.545 0.793 1.547 17859
0.550 0.801 1.551 25429
0.554 0.808 1.554 38781
0.557 0.811 1.552 50757
0.556 0.811 1.542 37432
0.559 0.814 1.539 22871
0.569 0.829 1.555 18540
0.571 0.832 1.552 16950
0.574 0.836 1.549 18917
0.581 0.847 1.559 21939
0.586 0.854 1.562 25480
0.589 0.858 1.559 21720
0.591 0.861 1.556 12395
0.588 0.856 1.540 9022
0.593 0.864 1.544 8325
0.598 0.871 1.547 7161
0.608 0.886 1.562 6691
0.614 0.894 1.565 7738
0.616 0.897 1.562 6664
0.613 0.893 1.547 7091
0.618 0.900 1.550 12244
0.620 0.903 1.546 22233
0.625 0.911 1.549 31825
0.630 0.918 1.552 30282
0.633 0.922 1.549 30430
0.635 0.925 1.545 28559
0.637 0.928 1.542 19893
0.642 0.936 1.545 17735
0.650 0.948 1.554 17708
0.656 0.955 1.556 19004
0.658 0.959 1.553 16439
0.655 0.954 1.537 10035
0.654 0.953 1.528 12218
0.659 0.960 1.530 14750
0.664 0.968 1.533 14557
0.667 0.971 1.529 16902
0.672 0.979 1.532 18850
0.674 0.982 1.528 17980
0.679 0.990 1.531 17553
0.682 0.993 1.527 13999
0.681 0.992 1.518 8438
0.689 1.004 1.526 12312
0.694 1.012 1.528 22563
0.697 1.015 1.524 24848
0.699 1.018 1.521 16837
0.704 1.026 1.523 14886
0.710 1.034 1.525 19092
0.712 1.037 1.521 15094
0.717 1.045 1.523 8533
0.726 1.057 1.531 11167
0.725 1.056 1.521 18416
0.727 1.059 1.518 15959
0.717 1.044 1.491 11451
0.741 1.079 1.527 13630
0.746 1.087 1.529 18722
0.745 1.086 1.519 13470
0.748 1.089 1.515 11257
0.756 1.102 1.523 17567
0.765 1.114 1.530 19802
0.770 1.122 1.532 22060
0.769 1.121 1.522 21802
0.772 1.124 1.518 13689
0.780 1.137 1.525 12812
0.783 1.140 1.521 16339
0.788 1.148 1.522 16098
0.790 1.151 1.518 21731
0.789 1.150 1.508 18605
0.775 1.130 1.477 9959
0.804 1.171 1.517 11738
0.806 1.174 1.512 15062
0.811 1.182 1.513 16470
0.820 1.195 1.520 12513
0.816 1.189 1.505 7207
0.821 1.197 1.506 14900
0.827 1.205 1.507 23244
0.833 1.213 1.508 16491
0.835 1.216 1.504 11381
0.837 1.219 1.499 11499
0.836 1.218 1.490 9590
0.838 1.221 1.485 6517
0.840 1.224 1.481 5730
0.829 1.208 1.456 8183
0.851 1.240 1.483 9184
0.857 1.249 1.483 19182
0.859 1.252 1.479 28733
0.861 1.255 1.474 23580
0.857 1.248 1.459 13685
0.862 1.256 1.460 11620
0.865 1.259 1.456 9193
0.908 1.323 1.512 8333
0.910 1.326 1.507 10924
0.923 1.344 1.518 12677
0.928 1.353 1.518 13788
0.931 1.356 1.513 17574
0.929 1.354 1.503 19279
0.932 1.357 1.498 18241
0.941 1.371 1.503 20141
0.954 1.389 1.513 16941
0.973 1.418 1.533 15106
0.976 1.421 1.528 17043
0.978 1.425 1.523 20382
0.980 1.428 1.518 19790
0.983 1.431 1.512 24210
0.985 1.435 1.507 32683
0.987 1.438 1.502 31445
0.993 1.446 1.502 22332
1.002 1.460 1.506 16687
0.997 1.453 1.491 16114
1.000 1.456 1.486 17231
1.005 1.465 1.486 16099
1.004 1.462 1.476 13465
1.021 1.487 1.489 12444
1.034 1.506 1.498 13077
1.036 1.509 1.493 16468
1.034 1.507 1.482 16006
1.037 1.510 1.477 9590
1.079 1.572 1.522 6752
1.070 1.559 1.503 8895
1.072 1.562 1.497 10782
1.082 1.576 1.501 10657
1.084 1.580 1.495 11740
1.083 1.577 1.485 13296
1.085 1.581 1.479 10025
1.113 1.622 1.505 10416
1.112 1.619 1.495 12512
1.106 1.612 1.480 11985
1.105 1.610 1.470 10275
1.118 1.629 1.477 9284
1.132 1.649 1.484 11140
1.156 1.685 1.505 11198
1.166 1.699 1.507 15039
1.168 1.702 1.501 13430
1.167 1.700 1.491 11423
1.180 1.719 1.497 9767
1.190 1.734 1.500 9999
1.189 1.731 1.489 9287
1.195 1.740 1.487 9391
1.201 1.749 1.485 12014
1.203 1.752 1.479 14033
1.205 1.755 1.473 13032
1.207 1.759 1.466 8772
1.236 1.801 1.489 6638
1.242 1.810 1.487 8606
1.248 1.818 1.484 9071
1.250 1.822 1.478 7403
1.245 1.814 1.463 6759
1.290 1.879 1.501 7891
1.288 1.876 1.490 8837
1.271 1.851 1.463 6867
1.269 1.849 1.453 5914
1.314 1.914 1.489 4814
1.324 1.929 1.490 4459
1.338 1.949 1.495 4113
1.348 1.964 1.496 5293
1.358 1.978 1.497 6965
1.360 1.982 1.490 7572
1.362 1.985 1.483 8180
1.369 1.994 1.479 7269
1.375 2.003 1.476 7603
1.377 2.006 1.469 8616
1.375 2.003 1.458 6716
1.377 2.006 1.451 4893
1.403 2.044 1.466 4801
1.409 2.053 1.462 6046
1.411 2.056 1.455 5196
1.441 2.100 1.473 5628
1.444 2.103 1.465 5680
1.446 2.106 1.458 5732
1.452 2.115 1.454 6358
1.454 2.118 1.446 7057
1.456 2.122 1.439 6731
1.462 2.130 1.434 6458
1.461 2.128 1.423 4418
1.507 2.195 1.454 5863
1.513 2.204 1.449 7313
1.519 2.213 1.445 8841
1.521 2.216 1.437 8841
1.524 2.220 1.429 8201
1.526 2.223 1.421 7562
1.528 2.226 1.413 6767
1.530 2.229 1.405 5973
1.536 2.238 1.401 6697
1.542 2.247 1.396 7606
1.548 2.256 1.391 8053
1.559 2.270 1.390 8586
1.561 2.273 1.381 8505
1.563 2.276 1.373 7913
1.560 2.273 1.362 7502
1.562 2.276 1.354 3751
1.466 2.135 1.271 366
0.351 0.509 1.580 7788
0.353 0.512 1.578 10187
0.356 0.516 1.576 12574
0.360 0.522 1.581 12727
0.362 0.525 1.579 13056
0.364 0.529 1.577 11714
0.367 0.532 1.576 10372
0.369 0.536 1.574 10180
0.374 0.542 1.579 9542
0.378 0.548 1.584 9228
0.382 0.554 1.589 6749
0.386 0.561 1.594 4528
0.391 0.567 1.599 3538
0.395 0.574 1.604 2734
0.392 0.568 1.581 5181
0.394 0.572 1.579 7790
0.396 0.575 1.577 11108
0.399 0.579 1.575 14474
0.401 0.582 1.572 13050
0.403 0.585 1.570 11626
0.408 0.592 1.575 9357
0.410 0.595 1.573 6706
0.415 0.602 1.578 7291
0.417 0.605 1.576 8871
0.419 0.609 1.573 9893
0.422 0.612 1.571 10693
0.424 0.615 1.569 8822
0.429 0.622 1.574 7105
0.433 0.629 1.578 7045
0.440 0.638 1.590 7306
0.442 0.642 1.588 6364
0.442 0.642 1.578 5446
0.447 0.649 1.583 5527
0.449 0.652 1.580 5633
0.452 0.656 1.578 5978
0.452 0.656 1.569 8203
0.454 0.659 1.566 10193
0.454 0.659 1.557 13175
0.457 0.663 1.555 16179
0.464 0.673 1.566 20727
0.468 0.679 1.570 24798
0.471 0.683 1.568 23631
0.473 0.686 1.565 19884
0.473 0.686 1.556 16626
0.473 0.686 1.547 13924
0.473 0.686 1.538 9527
0.475 0.690 1.535 7580
0.480 0.696 1.539 7072
0.482 0.700 1.537 7605
0.484 0.703 1.534 8638
0.501 0.727 1.572 14125
0.504 0.731 1.569 27293
0.506 0.734 1.566 33425
0.511 0.741 1.570 32060
0.513 0.744 1.568 21292
0.515 0.748 1.565 13037
0.520 0.755 1.569 12520
0.520 0.755 1.560 16880
0.522 0.758 1.557 22216
0.527 0.765 1.561 28145
0.532 0.772 1.564 38487
0.537 0.779 1.568 37892
0.542 0.786 1.572 34443
0.542 0.786 1.562 27283
0.541 0.786 1.553 15471
0.544 0.789 1.550 10495
0.546 0.792 1.547 18590
0.548 0.796 1.544 26863
0.553 0.803 1.548 40148
0.558 0.810 1.552 52856
0.558 0.810 1.542 40689
0.558 0.809 1.533 25597
0.568 0.824 1.549 18981
0.573 0.831 1.552 16667
0.575 0.835 1.549 18852
0.583 0.846 1.559 21776
0.588 0.853 1.562 25165
0.590 0.856 1.559 21611
0.590 0.856 1.550 11602
0.589 0.855 1.540 7979
0.595 0.863 1.544 7591
0.600 0.870 1.547 5671
0.605 0.877 1.550 4117
0.618 0.897 1.572 4786
0.618 0.896 1.562 4619
0.609 0.883 1.534 4788
0.619 0.899 1.550 9350
0.625 0.906 1.552 20150
0.627 0.910 1.549 30169
0.632 0.917 1.552 30200
0.634 0.921 1.549 31491
0.637 0.924 1.545 28170
0.642 0.931 1.548 17675
0.644 0.935 1.545 15343
0.652 0.946 1.554 17565
0.657 0.954 1.556 20486
0.660 0.957 1.553 18040
0.656 0.952 1.537 11223
0.656 0.951 1.528 12888
0.661 0.959 1.530 14919
0.666 0.967 1.533 14192
0.668 0.970 1.529 16615
0.674 0.977 1.532 19974
0.676 0.981 1.528 19858
0.681 0.988 1.531 20136
0.683 0.992 1.527 18083
0.686 0.995 1.523 11954
0.691 1.003 1.526 13124
0.696 1.010 1.528 22243
0.699 1.014 1.524 25575
0.701 1.017 1.521 17628
0.706 1.025 1.523 15097
0.712 1.032 1.525 19454
0.714 1.036 1.521 16216
0.719 1.044 1.523 8858
0.725 1.051 1.525 12035
0.727 1.055 1.521 21037
0.726 1.053 1.512 17025
0.719 1.043 1.491 10896
0.721 1.046 1.487 11976
0.745 1.081 1.523 15840
0.751 1.089 1.525 10205
0.750 1.088 1.515 8922
0.758 1.100 1.523 14258
0.767 1.113 1.530 17596
0.772 1.121 1.532 23799
0.772 1.120 1.522 24537
0.774 1.123 1.518 17260
0.779 1.131 1.519 13672
0.785 1.139 1.521 15217
0.790 1.147 1.522 13868
0.793 1.150 1.518 15366
0.795 1.153 1.514 13952
0.810 1.175 1.532 8937
0.806 1.169 1.517 10815
0.808 1.173 1.512 12565
0.817 1.185 1.519 14424
0.822 1.193 1.520 12549
0.815 1.182 1.500 7703
0.820 1.190 1.501 14135
0.829 1.203 1.507 20817
0.831 1.206 1.503 14004
0.834 1.210 1.498 8288
0.836 1.213 1.494 8982
0.838 1.216 1.490 9765
0.844 1.224 1.491 7575
0.843 1.223 1.481 6994
0.838 1.216 1.466 9034
0.850 1.234 1.477 10554
0.859 1.247 1.483 18591
0.862 1.250 1.479 28017
0.857 1.243 1.464 25025
0.859 1.247 1.459 13675
0.875 1.270 1.475 10871
0.874 1.268 1.466 9215
0.910 1.321 1.512 7775
0.916 1.329 1.512 10220
0.925 1.343 1.518 12047
0.931 1.351 1.518 12974
0.930 1.349 1.508 16904
0.932 1.352 1.503 20270
0.934 1.356 1.498 20515
0.943 1.369 1.503 22141
0.956 1.388 1.513 17757
0.973 1.411 1.528 15193
0.982 1.425 1.533 16341
0.984 1.428 1.528 18743
0.983 1.426 1.518 18694
0.985 1.430 1.512 23411
0.987 1.433 1.507 31345
0.993 1.441 1.507 31067
0.996 1.445 1.502 23192
1.005 1.458 1.506 16735
1.004 1.456 1.496 15346
1.002 1.454 1.486 17483
1.008 1.463 1.486 17101
1.007 1.461 1.476 14389
1.023 1.485 1.489 13104
1.033 1.499 1.493 13185
1.039 1.507 1.493 16403
1.037 1.505 1.482 16025
1.039 1.508 1.477 9583
1.082 1.570 1.522 6788
1.080 1.568 1.512 8316
1.079 1.566 1.502 9849
1.085 1.574 1.501 10157
1.087 1.578 1.495 11548
1.086 1.575 1.485 13576
1.088 1.579 1.479 10953
1.112 1.614 1.500 10346
1.111 1.612 1.490 12496
1.109 1.610 1.480 12152
1.108 1.608 1.470 10819
1.121 1.627 1.477 10002
1.131 1.641 1.480 11660
1.159 1.682 1.505 10923
1.169 1.697 1.507 16192
1.171 1.700 1.501 14451
1.170 1.698 1.491 12254
1.187 1.723 1.502 10630
1.193 1.732 1.500 11758
1.192 1.729 1.489 11049
1.202 1.744 1.492 10153
1.204 1.747 1.485 11357
1.206 1.750 1.479 13016
1.208 1.753 1.473 12501
1.214 1.762 1.471 8930
1.236 1.793 1.485 6627
1.242 1.802 1.482 8174
1.248 1.810 1.480 8198
1.250 1.814 1.474 6488
1.248 1.811 1.463 5962
1.293 1.876 1.501 7630
1.291 1.874 1.490 8108
1.297 1.883 1.487 6331
1.272 1.846 1.453 5681
1.317 1.912 1.489 5035
1.324 1.921 1.487 4637
1.341 1.947 1.495 4540
1.344 1.950 1.488 5258
1.362 1.976 1.497 6436
1.368 1.985 1.493 6916
1.370 1.988 1.486 7492
1.376 1.997 1.483 6725
1.378 2.000 1.476 6761
1.381 2.003 1.469 7570
1.379 2.001 1.458 5831
1.377 1.998 1.447 4159
1.387 2.013 1.447 4337
1.405 2.039 1.455 5486
1.407 2.042 1.447 4567
1.445 2.097 1.473 5281
1.448 2.100 1.465 5391
1.450 2.104 1.458 5501
1.456 2.113 1.454 6046
1.458 2.116 1.446 6697
1.464 2.125 1.442 6367
1.466 2.128 1.434 6118
1.501 2.178 1.455 4301
1.511 2.193 1.454 6006
1.517 2.202 1.449 7281
1.523 2.211 1.445 8620
1.526 2.214 1.437 8620
1.528 2.217 1.429 7893
1.530 2.220 1.421 7166
1.532 2.223 1.413 6464
1.530 2.220 1.402 5798
1.536 2.229 1.397 6405
1.542 2.238 1.393 7195
1.548 2.247 1.388 7534
1.563 2.268 1.390 7852
1.569 2.276 1.385 7795
1.567 2.273 1.373 7173
1.565 2.270 1.362 6812
1.567 2.273 1.354 3406
1.482 2.150 1.280 437
0.352 0.508 1.580 8992
0.355 0.511 1.578 11453
0.357 0.515 1.576 13985
0.361 0.521 1.581 13541
0.364 0.524 1.579 13221
0.366 0.528 1.577 11597
0.368 0.531 1.576 9974
0.373 0.538 1.581 9813
0.375 0.541 1.579 9406
0.379 0.547 1.584 9263
0.384 0.553 1.589 6951
0.388 0.560 1.594 4956
0.392 0.566 1.599 3629
0.399 0.575 1.611 2622
0.393 0.567 1.581 5360
0.394 0.568 1.572 8328
0.398 0.574 1.577 12172
0.400 0.578 1.575 16143
0.403 0.581 1.572 14875
0.405 0.584 1.570 13607
0.410 0.591 1.575 10438
0.412 0.594 1.573 6785
0.414 0.598 1.571 7605
0.419 0.604 1.576 9401
0.421 0.607 1.573 10466
0.423 0.611 1.571 11315
0.426 0.614 1.569 9583
0.428 0.618 1.567 7851
0.431 0.621 1.564 7363
0.435 0.628 1.569 6908
0.442 0.637 1.581 6079
0.453 0.654 1.606 5487
0.451 0.651 1.590 5629
0.453 0.654 1.587 5941
0.454 0.654 1.578 5221
0.451 0.651 1.562 6437
0.454 0.655 1.560 8192
0.456 0.658 1.557 11720
0.458 0.661 1.555 15248
0.465 0.671 1.566 20087
0.470 0.678 1.570 24531
0.472 0.682 1.568 23460
0.475 0.685 1.565 19987
0.475 0.685 1.556 17091
0.475 0.685 1.547 14649
0.477 0.688 1.544 10971
0.484 0.699 1.555 9801
0.487 0.702 1.553 9266
0.489 0.705 1.550 8243
0.494 0.712 1.554 7914
0.501 0.722 1.565 15577
0.506 0.729 1.569 30410
0.508 0.733 1.566 36897
0.513 0.740 1.570 34024
0.515 0.743 1.568 22120
0.517 0.746 1.565 13726
0.522 0.753 1.569 13069
0.525 0.757 1.566 15928
0.525 0.757 1.557 20092
0.529 0.764 1.561 26268
0.534 0.771 1.564 36988
0.539 0.778 1.568 36923
0.544 0.785 1.572 33877
0.546 0.788 1.569 26654
0.546 0.788 1.560 14063
0.541 0.780 1.537 9144
0.548 0.791 1.547 18568
0.551 0.794 1.544 27508
0.556 0.801 1.548 40547
0.558 0.805 1.545 53764
0.560 0.808 1.542 43026
0.560 0.808 1.533 27600
0.567 0.819 1.543 19055
0.575 0.830 1.552 16069
0.577 0.833 1.549 18300
0.585 0.844 1.559 20850
0.590 0.851 1.562 24166
0.593 0.855 1.559 21195
0.595 0.858 1.556 11253
0.595 0.858 1.547 6922
0.600 0.865 1.550 6596
0.605 0.872 1.553 4658
0.593 0.856 1.519 3686
0.607 0.875 1.541 3827
0.614 0.886 1.550 3901
0.608 0.878 1.528 4638
0.622 0.897 1.550 7498
0.627 0.905 1.552 18364
0.629 0.908 1.549 28599
0.635 0.915 1.552 29328
0.637 0.919 1.549 30889
0.639 0.922 1.545 27154
0.644 0.930 1.548 16510
0.650 0.937 1.551 14287
0.655 0.945 1.554 18128
0.657 0.948 1.550 22424
0.662 0.956 1.553 19222
0.659 0.951 1.537 12842
0.658 0.950 1.528 14519
0.663 0.957 1.530 15063
0.669 0.965 1.533 12995
0.671 0.968 1.529 15064
0.676 0.976 1.532 19197
0.679 0.979 1.528 21090
0.681 0.982 1.525 23677
0.686 0.990 1.527 22789
0.688 0.993 1.523 15407
0.694 1.001 1.526 13864
0.699 1.009 1.528 21978
0.701 1.012 1.524 25951
0.701 1.011 1.515 18356
0.706 1.018 1.517 15935
0.711 1.026 1.519 20441
0.717 1.034 1.521 17502
0.722 1.042 1.523 10133
0.727 1.049 1.525 13511
0.730 1.053 1.521 22956
0.732 1.056 1.518 18862
0.725 1.046 1.497 10501
0.743 1.071 1.521 10708
0.748 1.079 1.523 13098
0.757 1.092 1.531 7450
0.756 1.090 1.521 6735
0.761 1.098 1.523 10199
0.773 1.115 1.536 14765
0.775 1.119 1.532 23806
0.775 1.117 1.522 25265
0.777 1.121 1.518 20690
0.782 1.129 1.519 15343
0.788 1.137 1.521 13245
0.790 1.140 1.517 12097
0.796 1.148 1.518 10498
0.801 1.156 1.519 10134
0.807 1.164 1.521 9053
0.809 1.167 1.517 10797
0.811 1.170 1.512 10952
0.820 1.183 1.519 12567
0.826 1.191 1.520 11894
0.808 1.166 1.483 8784
0.824 1.188 1.501 13036
0.832 1.201 1.507 17497
0.831 1.199 1.497 11707
0.807 1.164 1.451 8135
0.829 1.196 1.478 8384
0.838 1.209 1.484 10237
0.844 1.217 1.485 8130
0.846 1.220 1.481 8558
0.835 1.204 1.456 13518
0.854 1.232 1.477 13082
0.863 1.245 1.483 19200
0.862 1.243 1.474 26764
0.857 1.236 1.459 25993
0.852 1.229 1.444 18607
0.878 1.267 1.475 10599
0.881 1.270 1.471 8358
0.921 1.328 1.522 7783
0.916 1.322 1.507 9207
0.929 1.340 1.518 10622
0.935 1.348 1.518 11552
0.933 1.347 1.508 15808
0.936 1.350 1.503 20588
0.941 1.358 1.503 22071
0.947 1.366 1.503 23289
0.960 1.385 1.513 18155
0.976 1.409 1.528 14918
0.986 1.422 1.533 15575
0.988 1.425 1.528 16785
0.987 1.424 1.518 17073
0.989 1.427 1.512 22161
0.991 1.430 1.507 29340
0.997 1.439 1.507 29970
1.003 1.447 1.507 23603
1.009 1.455 1.506 16819
1.011 1.459 1.501 14782
1.010 1.457 1.491 17430
1.012 1.460 1.486 17577
1.011 1.458 1.476 15043
1.024 1.477 1.485 13809
1.037 1.496 1.493 12969
1.043 1.504 1.493 15588
1.041 1.502 1.482 15238
1.044 1.505 1.477 9154
1.086 1.567 1.522 6693
1.085 1.565 1.512 8087
1.083 1.563 1.502 9184
1.089 1.571 1.501 9526
1.091 1.575 1.495 10958
1.090 1.572 1.485 13347
1.096 1.581 1.484 11733
1.109 1.600 1.491 10439
1.112 1.604 1.486 12028
1.114 1.607 1.480 11895
1.112 1.605 1.470 11238
1.129 1.629 1.481 10947
1.135 1.638 1.480 12392
1.168 1.685 1.509 10668
1.178 1.699 1.511 16960
1.176 1.697 1.501 15324
1.171 1.689 1.486 13155
1.196 1.725 1.506 11766
1.198 1.728 1.500 13744
1.200 1.732 1.494 13149
1.206 1.740 1.492 11287
1.212 1.749 1.489 11005
1.211 1.747 1.479 11958
1.217 1.755 1.477 11979
1.223 1.764 1.475 9381
1.237 1.784 1.481 7077
1.247 1.798 1.482 8182
1.249 1.802 1.476 7824
1.251 1.805 1.470 6188
1.296 1.869 1.507 5515
1.298 1.873 1.501 7498
1.300 1.876 1.494 7614
1.303 1.879 1.487 6499
1.313 1.894 1.488 5552
1.319 1.902 1.486 5618
1.325 1.911 1.483 5201
1.339 1.932 1.487 4999
1.345 1.940 1.484 5460
1.347 1.944 1.477 5927
1.377 1.987 1.497 6174
1.379 1.990 1.490 6804
1.386 1.999 1.487 6192
1.392 2.008 1.483 5932
1.386 1.999 1.469 6338
1.384 1.997 1.458 4970
1.370 1.977 1.436 3764
1.393 2.009 1.447 4091
1.407 2.029 1.451 5128
1.405 2.027 1.440 4050
1.451 2.093 1.473 5189
1.453 2.097 1.465 5240
1.455 2.100 1.458 5292
1.462 2.109 1.454 5658
1.464 2.112 1.446 6186
1.470 2.121 1.442 5949
1.476 2.130 1.438 5755
1.507 2.174 1.455 4337
1.517 2.188 1.454 5939
1.523 2.197 1.449 7056
1.529 2.206 1.445 8275
1.532 2.209 1.437 8275
1.534 2.213 1.429 7577
1.536 2.216 1.421 6880
1.538 2.219 1.413 6044
1.536 2.216 1.402 5339
1.538 2.219 1.394 5824
1.544 2.228 1.389 6424
1.550 2.237 1.385 6643
1.573 2.269 1.393 6987
1.575 2.272 1.385 6927
1.577 2.275 1.376 6296
1.571 2.266 1.362 5938
1.573 2.269 1.354 2969
0.353 0.507 1.580 9757
0.355 0.511 1.578 12095
0.358 0.514 1.576 14539
0.362 0.520 1.581 13504
0.364 0.524 1.579 12501
0.367 0.527 1.577 10996
0.371 0.533 1.583 9515
0.373 0.537 1.581 9515
0.378 0.543 1.586 9238
0.380 0.547 1.584 9177
0.385 0.553 1.589 7204
0.389 0.559 1.594 5507
0.391 0.563 1.592 4126
0.390 0.560 1.576 3047
0.394 0.567 1.581 5934
0.397 0.570 1.579 8846
0.399 0.573 1.577 13136
0.401 0.577 1.575 17521
0.404 0.580 1.572 16477
0.406 0.584 1.570 15433
0.410 0.590 1.575 11820
0.413 0.594 1.573 7906
0.415 0.597 1.571 8885
0.420 0.603 1.576 10865
0.422 0.607 1.573 12634
0.422 0.607 1.564 14398
0.425 0.611 1.562 11978
0.429 0.617 1.567 9592
0.432 0.620 1.564 7867
0.443 0.636 1.590 6225
0.447 0.643 1.594 5917
0.452 0.650 1.599 5974
0.454 0.653 1.597 5887
0.455 0.653 1.587 5883
