-0.688 0.682 1.677 20231
-0.691 0.686 1.674 16753
-0.694 0.689 1.671 12762
-0.694 0.689 1.661 10664
-0.700 0.695 1.665 12184
-0.704 0.698 1.662 12397
-0.710 0.704 1.666 11643
-0.713 0.707 1.663 15995
-0.716 0.711 1.660 21066
-0.719 0.714 1.657 25261
-0.722 0.717 1.654 28778
-0.722 0.717 1.644 25205
-0.722 0.717 1.635 20617
-0.728 0.723 1.638 19166
-0.732 0.726 1.635 18925
-0.738 0.732 1.638 18014
-0.744 0.738 1.642 16467
-0.757 0.751 1.658 16276
-0.760 0.754 1.655 17521
-0.760 0.754 1.645 18799
-0.763 0.757 1.642 15141
-0.783 0.777 1.670 7402
-0.786 0.780 1.667 10391
-0.789 0.783 1.664 17503
-0.796 0.790 1.667 19014
-0.799 0.793 1.664 16619
-0.802 0.796 1.660 15169
-0.805 0.799 1.657 17389
-0.808 0.802 1.653 19025
-0.815 0.809 1.656 16524
-0.821 0.815 1.659 12887
-0.828 0.822 1.662 14795
-0.831 0.825 1.658 21005
-0.834 0.828 1.655 23063
-0.837 0.831 1.651 20939
-0.841 0.834 1.648 21542
-0.851 0.844 1.657 24604
-0.857 0.851 1.659 21711
-0.868 0.861 1.668 13917
-0.874 0.868 1.670 10796
-0.881 0.874 1.673 14158
-0.884 0.877 1.669 18910
-0.887 0.881 1.665 19733
-0.894 0.887 1.668 18592
-0.897 0.890 1.664 16907
-0.900 0.893 1.660 13246
-0.907 0.900 1.662 11085
-0.910 0.903 1.659 12442
-0.914 0.906 1.655 21353
-0.920 0.913 1.657 26917
-0.931 0.924 1.665 18743
-0.941 0.934 1.673 13587
-0.945 0.937 1.669 16619
-0.944 0.937 1.659 21415
-0.947 0.940 1.655 21525
-0.950 0.943 1.651 13257
-0.969 0.961 1.671 7100
-0.972 0.964 1.667 6216
-0.975 0.967 1.663 6892
-0.982 0.974 1.664 12659
-0.993 0.985 1.672 16172
-1.000 0.992 1.673 15576
-1.003 0.995 1.669 14808
-1.006 0.998 1.665 14148
-1.013 1.005 1.667 25428
-1.020 1.012 1.668 40498
-1.027 1.019 1.669 38281
-1.038 1.030 1.677 33004
-1.045 1.037 1.678 29025
-1.048 1.040 1.673 18095
-1.055 1.047 1.675 10601
-1.078 1.070 1.698 10152
-1.085 1.077 1.699 12830
-1.093 1.084 1.701 9785
-1.088 1.079 1.685 16875
-1.091 1.083 1.680 22065
-1.102 1.094 1.687 17012
-1.105 1.097 1.682 11505
-1.109 1.100 1.678 9432
-1.116 1.107 1.678 11980
-1.127 1.118 1.685 17138
-1.134 1.126 1.685 22967
-1.138 1.129 1.681 19914
-1.145 1.136 1.681 14793
-1.156 1.147 1.687 15908
-1.164 1.154 1.688 14885
-1.171 1.162 1.688 12887
-1.170 1.161 1.678 14166
-1.177 1.168 1.679 19365
-1.185 1.175 1.679 18481
-1.196 1.187 1.685 18421
-1.208 1.198 1.690 24537
-1.211 1.201 1.685 23967
-1.214 1.205 1.680 20216
-1.226 1.216 1.686 18821
-1.233 1.223 1.686 12673
-1.236 1.227 1.681 6418
-1.244 1.234 1.681 5662
-1.255 1.246 1.686 9402
-1.263 1.253 1.686 10995
-1.275 1.265 1.691 10392
-1.282 1.272 1.690 15911
-1.285 1.275 1.685 18981
-1.293 1.283 1.685 12030
-1.309 1.299 1.695 6435
-1.312 1.302 1.689 12303
-1.315 1.305 1.684 23696
-1.323 1.312 1.683 25349
-1.335 1.324 1.688 16929
-1.338 1.327 1.682 14592
-1.341 1.331 1.676 21158
-1.344 1.334 1.671 22598
-1.347 1.337 1.665 17647
-1.364 1.353 1.674 15624
-1.385 1.374 1.688 18161
-1.383 1.373 1.678 17970
-1.387 1.376 1.672 20124
-1.394 1.383 1.671 20159
-1.411 1.400 1.679 16328
-1.423 1.412 1.683 14439
-1.426 1.415 1.677 13056
-1.434 1.423 1.676 12276
-1.437 1.426 1.670 17561
-1.440 1.429 1.664 22462
-1.452 1.441 1.667 19955
-1.464 1.453 1.671 18980
-1.472 1.461 1.669 21633
-1.471 1.459 1.658 19240
-1.469 1.458 1.648 12611
-1.509 1.497 1.678 9313
-1.517 1.505 1.677 13173
-1.524 1.513 1.675 12761
-1.537 1.525 1.678 12707
-1.540 1.528 1.671 12290
-1.548 1.536 1.669 11071
-1.551 1.539 1.663 10843
-1.549 1.537 1.652 14763
-1.553 1.540 1.646 22540
-1.556 1.544 1.639 26188
-1.563 1.551 1.637 28327
-1.566 1.554 1.631 28866
-1.570 1.557 1.624 21377
-1.577 1.565 1.622 15597
-1.585 1.573 1.620 15430
-1.597 1.585 1.622 13091
-1.638 1.626 1.649 10242
-1.646 1.633 1.647 12806
-1.645 1.632 1.636 12381
-1.643 1.630 1.625 10266
-1.646 1.633 1.618 7779
-1.654 1.641 1.615 5788
-1.671 1.658 1.621 3976
-1.693 1.680 1.630 4864
-1.696 1.683 1.623 6186
-1.699 1.686 1.616 8784
-1.702 1.689 1.609 10061
-1.715 1.702 1.610 10738
-1.713 1.700 1.599 8820
-1.716 1.703 1.592 5768
-1.797 1.783 1.649 4699
-1.810 1.795 1.650 5754
-1.813 1.799 1.642 4934
-1.845 1.831 1.658 4339
-1.848 1.834 1.651 5243
-1.851 1.837 1.643 6828
-1.859 1.845 1.639 8514
-1.862 1.848 1.631 8462
-1.851 1.836 1.612 8694
-1.868 1.854 1.616 9156
-1.876 1.862 1.612 7048
-1.919 1.904 1.635 8220
-1.922 1.907 1.627 9193
-1.920 1.905 1.615 10227
-1.923 1.908 1.607 8084
-1.926 1.911 1.599 5940
-1.939 1.924 1.598 6633
-1.947 1.932 1.594 7747
-1.960 1.945 1.593 7732
-1.968 1.953 1.589 8225
-1.966 1.951 1.577 6097
-1.934 1.919 1.544 6761
-1.937 1.922 1.536 6809
-1.945 1.929 1.531 6897
-1.942 1.927 1.520 5458
-1.940 1.925 1.508 4079
-2.251 2.233 1.712 4518
-2.259 2.242 1.707 6035
-2.267 2.250 1.701 5930
-2.281 2.263 1.698 6028
-2.289 2.271 1.692 6944
-2.297 2.279 1.686 8007
-2.290 2.272 1.670 7482
-2.288 2.271 1.657 7410
-2.291 2.274 1.647 7410
-2.300 2.282 1.641 6627
-2.308 2.290 1.635 6078
-2.331 2.313 1.638 4806
-2.340 2.321 1.632 4393
-2.368 2.350 1.638 3736
-2.377 2.358 1.632 3804
-2.380 2.361 1.622 3804
-2.383 2.364 1.612 1902
-0.468 0.466 1.674 17971
-0.473 0.471 1.679 18564
-0.476 0.474 1.677 19490
-0.479 0.478 1.675 21728
-0.483 0.481 1.673 23965
-0.486 0.484 1.671 23965
-0.489 0.487 1.669 22405
-0.490 0.488 1.660 21067
-0.493 0.491 1.657 16396
-0.496 0.494 1.655 11725
-0.497 0.495 1.646 10127
-0.500 0.498 1.644 8551
-0.500 0.498 1.635 8112
-0.503 0.501 1.633 7790
-0.506 0.505 1.630 7836
-0.510 0.508 1.628 8243
-0.513 0.511 1.626 8178
-0.518 0.516 1.631 8530
-0.521 0.519 1.629 9284
-0.524 0.522 1.627 9144
-0.530 0.528 1.631 8973
-0.533 0.531 1.629 8833
-0.539 0.537 1.634 8794
-0.547 0.545 1.646 9308
-0.553 0.551 1.650 10236
-0.556 0.554 1.648 9043
-0.562 0.559 1.652 8038
-0.565 0.563 1.650 10134
-0.571 0.568 1.655 11975
-0.574 0.571 1.652 13391
-0.579 0.577 1.657 14872
-0.583 0.580 1.654 14648
-0.586 0.583 1.652 11265
-0.589 0.587 1.649 7883
-0.595 0.592 1.654 5400
-0.598 0.596 1.651 2936
-0.601 0.599 1.649 3541
-0.596 0.593 1.626 5241
-0.599 0.596 1.623 6728
-0.607 0.605 1.634 9853
-0.613 0.611 1.638 13851
-0.616 0.614 1.636 15385
-0.619 0.617 1.633 16276
-0.625 0.623 1.637 16251
-0.661 0.658 1.709 22554
-0.667 0.664 1.713 25094
-0.667 0.665 1.703 25851
-0.670 0.668 1.701 22260
-0.674 0.671 1.698 17903
-0.677 0.674 1.695 15663
-0.677 0.674 1.685 18485
-0.680 0.677 1.682 23573
-0.683 0.681 1.680 24497
-0.686 0.684 1.677 22019
-0.690 0.687 1.674 18617
-0.693 0.690 1.671 14302
-0.693 0.690 1.661 11067
-0.696 0.693 1.658 11472
-0.699 0.696 1.655 11489
-0.705 0.703 1.659 9855
-0.712 0.709 1.663 14037
-0.715 0.712 1.660 19641
-0.718 0.715 1.657 24811
-0.721 0.718 1.654 30026
-0.721 0.718 1.644 27204
-0.724 0.721 1.641 22425
-0.727 0.724 1.638 20073
-0.730 0.727 1.635 19004
-0.736 0.734 1.638 18316
-0.743 0.740 1.642 16729
-0.752 0.750 1.651 15713
-0.756 0.753 1.648 17147
-0.759 0.756 1.645 19573
-0.762 0.759 1.642 16667
-0.765 0.762 1.639 8425
-0.781 0.778 1.661 10304
-0.788 0.785 1.664 18372
-0.794 0.791 1.667 20334
-0.797 0.794 1.664 17892
-0.801 0.797 1.660 16347
-0.804 0.801 1.657 18345
-0.807 0.804 1.653 20206
-0.813 0.810 1.656 17563
-0.820 0.817 1.659 12981
-0.826 0.823 1.662 13948
-0.830 0.826 1.658 20500
-0.833 0.830 1.655 22678
-0.836 0.833 1.651 19933
-0.839 0.836 1.648 18993
-0.846 0.842 1.651 20546
-0.856 0.852 1.659 17919
-0.866 0.863 1.668 9639
-0.873 0.869 1.670 7284
-0.876 0.872 1.667 12472
-0.883 0.879 1.669 18165
-0.886 0.882 1.665 18585
-0.892 0.889 1.668 16926
-0.896 0.892 1.664 15555
-0.899 0.895 1.660 13846
-0.905 0.902 1.662 13246
-0.909 0.905 1.659 13601
-0.912 0.908 1.655 21946
-0.919 0.915 1.657 27172
-0.925 0.922 1.659 17323
-0.940 0.936 1.673 11833
-0.939 0.935 1.663 16519
-0.942 0.939 1.659 21630
-0.945 0.942 1.655 21487
-0.952 0.949 1.657 13401
-0.967 0.963 1.671 6629
-0.974 0.970 1.672 5438
-0.973 0.969 1.663 5448
-0.980 0.976 1.664 11118
-0.991 0.987 1.672 15124
-0.998 0.994 1.673 15856
-1.001 0.997 1.669 15508
-1.004 1.000 1.665 13018
-1.011 1.007 1.667 24169
-1.018 1.014 1.668 41537
-1.025 1.021 1.669 38926
-1.032 1.028 1.671 31634
-1.043 1.039 1.678 26016
-1.042 1.038 1.668 15681
-1.053 1.049 1.675 10979
-1.076 1.072 1.698 11109
-1.087 1.083 1.705 11025
-1.090 1.086 1.701 6862
-1.086 1.082 1.685 15529
-1.089 1.085 1.680 21047
-1.096 1.092 1.681 15606
-1.099 1.095 1.677 11996
-1.106 1.102 1.678 10787
-1.114 1.109 1.678 13689
-1.125 1.121 1.685 19728
-1.128 1.124 1.680 23634
-1.135 1.131 1.681 20601
-1.143 1.138 1.681 16977
-1.150 1.145 1.682 16704
-1.157 1.153 1.683 14426
-1.164 1.160 1.683 11916
-1.163 1.159 1.673 13219
-1.171 1.166 1.673 19531
-1.182 1.178 1.679 20476
-1.194 1.189 1.685 17654
-1.205 1.201 1.690 22080
-1.208 1.204 1.685 21561
-1.216 1.211 1.685 17581
-1.227 1.223 1.691 16119
-1.235 1.230 1.691 12155
-1.238 1.233 1.686 6767
-1.241 1.236 1.681 6076
-1.253 1.248 1.686 11268
-1.256 1.251 1.680 12885
-1.272 1.267 1.691 10905
-1.279 1.275 1.690 17194
-1.283 1.278 1.685 20854
-1.286 1.281 1.680 13218
-1.293 1.288 1.679 5616
-1.305 1.300 1.684 11652
-1.313 1.308 1.684 24584
-1.320 1.315 1.683 26317
-1.328 1.323 1.683 16458
-1.335 1.330 1.682 14352
-1.338 1.333 1.676 21485
-1.342 1.336 1.671 21353
-1.345 1.340 1.665 14945
-1.365 1.360 1.679 13694
-1.382 1.377 1.688 17820
-1.381 1.375 1.678 18206
-1.384 1.379 1.672 19911
-1.396 1.391 1.676 20076
-1.408 1.403 1.679 17253
-1.416 1.410 1.678 14930
-1.419 1.413 1.672 13215
-1.431 1.425 1.676 13381
-1.434 1.429 1.670 19440
-1.437 1.432 1.664 23129
-1.449 1.444 1.667 18512
-1.462 1.456 1.671 18442
-1.469 1.464 1.669 21920
-1.468 1.462 1.658 19162
-1.471 1.465 1.652 12658
-1.506 1.500 1.678 9928
-1.509 1.503 1.672 13690
-1.521 1.516 1.675 12718
-1.538 1.533 1.682 12845
-1.537 1.531 1.671 12767
-1.545 1.539 1.669 11548
-1.548 1.542 1.663 10445
-1.542 1.536 1.648 13409
-1.549 1.544 1.646 21226
-1.557 1.551 1.644 25263
-1.560 1.554 1.637 27886
-1.563 1.557 1.631 28607
-1.571 1.565 1.628 20610
-1.574 1.568 1.622 14565
-1.587 1.581 1.624 14561
-1.599 1.593 1.626 13234
-1.630 1.624 1.645 10660
-1.638 1.632 1.643 12958
-1.637 1.630 1.631 12563
-1.640 1.633 1.625 10039
-1.647 1.641 1.622 7477
-1.650 1.644 1.615 5592
-1.663 1.657 1.617 3801
-1.676 1.669 1.618 4127
-1.688 1.682 1.619 5348
-1.691 1.685 1.612 7754
-1.699 1.693 1.609 8886
-1.712 1.705 1.610 9614
-1.715 1.708 1.603 7911
-1.713 1.706 1.592 5273
-1.750 1.743 1.613 3978
-1.811 1.804 1.654 4253
-1.809 1.802 1.642 3849
-1.841 1.834 1.658 3856
-1.844 1.837 1.651 5089
-1.848 1.840 1.643 6390
-1.856 1.848 1.639 7791
-1.859 1.851 1.631 7961
-1.847 1.840 1.612 8550
-1.860 1.853 1.612 8820
-1.873 1.865 1.612 6932
-1.915 1.908 1.635 7999
-1.913 1.906 1.623 8895
-1.916 1.909 1.615 9805
-1.919 1.912 1.607 7634
-1.922 1.915 1.599 5462
-1.940 1.933 1.602 6239
-1.943 1.936 1.594 7526
-1.956 1.949 1.593 7356
-1.964 1.957 1.589 7583
-1.932 1.925 1.555 6177
-1.930 1.923 1.544 7483
-1.933 1.925 1.536 7599
-1.936 1.928 1.528 7715
-1.939 1.931 1.520 6176
-1.936 1.929 1.508 4689
-2.251 2.243 1.716 4128
-2.260 2.251 1.710 5389
-2.268 2.259 1.704 5432
-2.276 2.268 1.698 5616
-2.285 2.276 1.692 6726
-2.293 2.284 1.686 7920
-2.286 2.277 1.670 7293
-2.284 2.275 1.657 7099
-2.287 2.278 1.647 7099
-2.295 2.286 1.641 6251
-2.303 2.294 1.635 5616
-2.322 2.313 1.635 4535
-2.335 2.326 1.632 4151
-2.369 2.360 1.641 3783
-2.372 2.363 1.632 3975
-2.375 2.366 1.622 3975
-2.378 2.369 1.612 1987
-0.467 0.467 1.674 17956
-0.472 0.472 1.679 18027
-0.475 0.475 1.677 18429
-0.478 0.479 1.675 20583
-0.482 0.482 1.673 22738
-0.485 0.485 1.671 22738
-0.488 0.488 1.669 21431
-0.489 0.489 1.660 20287
-0.492 0.492 1.657 15776
-0.495 0.495 1.655 11265
-0.496 0.496 1.646 9196
-0.496 0.496 1.637 7235
-0.499 0.499 1.635 7166
-0.502 0.502 1.633 7098
-0.505 0.506 1.630 7635
-0.508 0.509 1.628 8685
-0.514 0.514 1.633 8788
-0.517 0.517 1.631 9358
-0.520 0.520 1.629 10264
-0.523 0.523 1.627 9794
-0.529 0.529 1.631 9305
-0.532 0.532 1.629 9200
-0.538 0.538 1.634 9226
-0.543 0.543 1.639 9682
-0.549 0.549 1.643 10499
-0.555 0.555 1.648 9002
-0.560 0.561 1.652 7671
-0.564 0.564 1.650 9643
-0.569 0.570 1.655 11426
-0.572 0.573 1.652 12736
-0.578 0.578 1.657 13890
-0.579 0.579 1.647 13594
-0.584 0.585 1.652 10248
-0.588 0.588 1.649 6927
-0.593 0.594 1.654 4703
-0.608 0.608 1.679 2882
-0.605 0.605 1.662 3944
-0.603 0.603 1.646 5812
-0.597 0.598 1.623 7191
-0.606 0.606 1.634 10132
-0.612 0.612 1.638 13495
-0.615 0.615 1.636 15297
-0.618 0.618 1.633 16549
-0.624 0.624 1.637 16664
-0.659 0.659 1.709 21007
-0.663 0.663 1.706 23701
-0.666 0.666 1.703 24755
-0.669 0.669 1.701 21623
-0.672 0.672 1.698 17438
-0.675 0.676 1.695 14802
-0.676 0.676 1.685 17929
-0.679 0.679 1.682 23623
-0.682 0.682 1.680 25241
-0.685 0.685 1.677 23592
-0.688 0.688 1.674 20326
-0.688 0.688 1.664 16020
-0.688 0.688 1.655 11857
-0.691 0.692 1.652 11550
-0.694 0.695 1.649 11385
-0.701 0.701 1.653 9194
-0.707 0.707 1.656 12937
-0.710 0.710 1.653 18584
-0.716 0.717 1.657 24344
-0.719 0.720 1.654 31147
-0.719 0.720 1.644 29191
-0.722 0.723 1.641 24214
-0.726 0.726 1.638 20915
-0.729 0.729 1.635 19011
-0.735 0.735 1.638 18441
-0.741 0.741 1.642 16765
-0.748 0.748 1.645 15407
-0.754 0.754 1.648 17052
-0.754 0.754 1.639 20221
-0.757 0.757 1.635 18197
-0.760 0.760 1.632 10275
-0.776 0.777 1.654 10853
-0.783 0.783 1.658 19160
-0.793 0.793 1.667 21281
-0.799 0.799 1.670 18742
-0.799 0.799 1.660 17169
-0.799 0.799 1.651 19104
-0.805 0.805 1.653 21183
-0.812 0.812 1.656 18700
-0.818 0.818 1.659 13395
-0.821 0.822 1.656 13075
-0.828 0.828 1.658 19561
-0.831 0.831 1.655 22200
-0.834 0.834 1.651 19371
-0.837 0.837 1.648 16567
-0.844 0.844 1.651 15827
-0.850 0.851 1.653 13896
-0.857 0.857 1.656 7539
-0.864 0.864 1.658 6089
-0.874 0.874 1.667 11508
-0.877 0.877 1.663 17405
-0.884 0.884 1.665 17081
-0.891 0.891 1.668 14928
-0.890 0.890 1.658 14364
-0.893 0.893 1.654 15090
-0.900 0.900 1.656 16215
-0.907 0.907 1.659 14789
-0.910 0.910 1.655 21715
-0.917 0.917 1.657 27188
-0.923 0.924 1.659 16919
-0.934 0.934 1.667 11250
-0.937 0.937 1.663 17069
-0.940 0.940 1.659 22072
-0.943 0.944 1.655 21379
-0.946 0.947 1.651 13168
-0.957 0.957 1.659 6807
-0.960 0.960 1.655 5514
-0.967 0.967 1.657 4779
-0.982 0.982 1.670 9107
-0.989 0.989 1.672 13211
-0.996 0.996 1.673 15308
-0.995 0.995 1.663 15696
-1.002 1.002 1.665 11615
-1.009 1.009 1.667 22480
-1.016 1.016 1.668 41452
-1.023 1.023 1.669 38010
-1.030 1.030 1.671 29328
-1.037 1.037 1.672 23301
-1.048 1.048 1.679 14849
-1.051 1.051 1.675 12434
-1.074 1.074 1.698 11544
-1.085 1.085 1.705 10428
-1.088 1.089 1.701 5179
-1.080 1.080 1.679 13205
-1.087 1.087 1.680 19540
-1.094 1.094 1.681 14767
-1.097 1.097 1.677 12702
-1.104 1.104 1.678 11284
-1.111 1.112 1.678 14429
-1.119 1.119 1.679 22415
-1.126 1.126 1.680 23732
-1.133 1.133 1.681 19962
-1.140 1.141 1.681 18358
-1.147 1.148 1.682 17101
-1.155 1.155 1.683 14155
-1.158 1.158 1.678 12959
-1.157 1.157 1.668 14698
-1.168 1.169 1.673 20378
-1.176 1.176 1.674 21930
-1.187 1.187 1.679 16091
-1.203 1.203 1.690 18200
-1.206 1.206 1.685 17840
-1.213 1.214 1.685 14238
-1.225 1.225 1.691 13176
-1.232 1.233 1.691 12129
-1.235 1.236 1.686 8170
-1.239 1.239 1.681 7234
-1.246 1.246 1.681 13536
-1.249 1.250 1.675 15299
-1.265 1.265 1.685 11156
-1.277 1.277 1.690 17668
-1.276 1.276 1.680 22177
-1.279 1.279 1.675 15134
-1.282 1.282 1.669 7922
-1.302 1.303 1.684 13116
-1.310 1.310 1.684 24764
-1.317 1.318 1.683 26454
-1.321 1.321 1.678 16838
-1.332 1.333 1.682 14932
-1.336 1.336 1.676 21485
-1.339 1.339 1.671 19837
-1.342 1.342 1.665 12483
-1.363 1.363 1.679 11755
-1.379 1.379 1.688 16658
-1.378 1.378 1.678 17675
-1.381 1.381 1.672 18814
-1.393 1.393 1.676 19012
-1.405 1.405 1.679 17438
-1.413 1.413 1.678 15043
-1.416 1.416 1.672 13085
-1.428 1.428 1.676 13836
-1.431 1.431 1.670 20485
-1.434 1.435 1.664 22816
-1.442 1.442 1.663 16580
-1.459 1.459 1.671 17654
-1.466 1.467 1.669 21936
-1.465 1.465 1.658 18729
-1.468 1.468 1.652 12587
-1.498 1.499 1.674 10391
-1.506 1.506 1.672 14009
-1.514 1.514 1.670 12641
-1.535 1.536 1.682 12990
-1.534 1.534 1.671 13248
-1.542 1.542 1.669 12017
-1.545 1.545 1.663 9969
-1.539 1.539 1.648 11754
-1.546 1.547 1.646 19143
-1.554 1.554 1.644 23528
-1.557 1.558 1.637 26572
-1.560 1.561 1.631 27622
-1.568 1.568 1.628 19637
-1.604 1.604 1.652 13879
-1.602 1.603 1.641 14106
-1.596 1.596 1.626 13505
-1.608 1.609 1.628 11648
-1.635 1.635 1.643 12983
-1.633 1.634 1.631 12540
-1.636 1.637 1.625 9510
-1.644 1.644 1.622 6942
-1.652 1.652 1.619 5301
-1.655 1.655 1.612 4144
-1.663 1.663 1.610 4612
-1.680 1.680 1.615 4938
-1.688 1.688 1.612 6541
-1.696 1.696 1.609 7375
-1.713 1.713 1.614 8384
-1.721 1.721 1.611 7146
-1.709 1.710 1.592 4788
-1.746 1.747 1.613 4065
-1.749 1.750 1.606 3423
-1.786 1.787 1.626 3363
-1.799 1.799 1.627 4098
-1.836 1.836 1.647 4961
-1.844 1.844 1.643 5781
-1.852 1.852 1.639 6821
-1.850 1.850 1.628 7253
-1.838 1.839 1.608 8199
-1.851 1.852 1.608 8324
-1.869 1.869 1.612 6914
-1.906 1.907 1.631 7757
-1.909 1.910 1.623 8556
-1.907 1.908 1.611 9532
-1.910 1.911 1.603 7219
-1.918 1.919 1.599 5007
-1.941 1.942 1.606 5932
-1.944 1.945 1.598 7122
-1.952 1.953 1.593 6753
-1.960 1.961 1.589 6723
-1.923 1.924 1.552 6503
-1.926 1.927 1.544 8238
-1.929 1.929 1.536 8429
-1.932 1.932 1.528 8620
-1.935 1.935 1.520 6922
-1.932 1.933 1.508 5311
-1.935 1.936 1.500 3831
-2.260 2.261 1.713 4706
-2.268 2.269 1.707 4878
-2.277 2.277 1.701 5095
-2.285 2.286 1.695 6355
-2.288 2.289 1.686 7639
-2.281 2.282 1.670 6950
-2.279 2.280 1.657 6658
-2.282 2.283 1.647 6658
-2.290 2.291 1.641 5752
-2.299 2.299 1.635 5053
-2.317 2.318 1.635 4223
-2.330 2.331 1.632 3898
-2.369 2.370 1.645 3933
-2.372 2.373 1.635 4352
-2.375 2.376 1.625 4352
-2.378 2.379 1.615 2176
-0.466 0.468 1.674 18038
-0.471 0.473 1.679 17496
-0.474 0.476 1.677 17336
-0.478 0.480 1.675 19340
-0.481 0.483 1.673 21344
-0.484 0.486 1.671 21344
-0.487 0.489 1.669 20282
-0.488 0.490 1.660 19347
-0.491 0.493 1.657 15077
-0.494 0.496 1.655 10807
-0.495 0.497 1.646 8312
-0.495 0.497 1.637 6037
-0.498 0.500 1.635 6461
-0.501 0.503 1.633 6886
-0.507 0.509 1.638 7908
-0.510 0.512 1.635 9551
-0.513 0.515 1.633 9844
-0.516 0.518 1.631 10463
-0.519 0.521 1.629 11409
-0.522 0.524 1.627 10555
-0.528 0.530 1.631 9712
-0.531 0.533 1.629 9512
-0.536 0.539 1.634 9464
-0.542 0.544 1.639 9847
-0.548 0.550 1.643 10577
-0.554 0.556 1.648 8803
-0.559 0.562 1.652 7225
-0.562 0.565 1.650 8960
-0.568 0.571 1.655 10727
-0.571 0.574 1.652 12063
-0.574 0.577 1.650 12997
-0.577 0.580 1.647 12796
-0.581 0.583 1.645 9476
-0.586 0.589 1.649 6162
-0.590 0.592 1.647 4562
-0.604 0.606 1.672 3514
-0.604 0.607 1.662 5045
-0.604 0.607 1.653 6941
-0.599 0.602 1.630 7880
-0.605 0.607 1.634 10410
-0.608 0.611 1.632 13042
-0.614 0.616 1.636 14984
-0.617 0.620 1.633 16622
-0.623 0.626 1.637 16931
-0.658 0.661 1.709 19156
-0.661 0.664 1.706 21928
-0.664 0.667 1.703 23217
-0.665 0.667 1.694 20607
-0.671 0.674 1.698 16638
-0.674 0.677 1.695 13585
-0.674 0.677 1.685 16863
-0.677 0.680 1.682 23044
-0.681 0.683 1.680 25429
-0.681 0.684 1.670 24901
-0.687 0.690 1.674 21729
-0.687 0.690 1.664 17603
-0.687 0.690 1.655 12677
-0.687 0.690 1.645 11812
-0.690 0.693 1.642 11485
-0.696 0.699 1.646 9529
-0.706 0.709 1.656 12913
-0.709 0.712 1.653 18340
-0.712 0.715 1.650 24173
-0.718 0.721 1.654 31823
-0.718 0.721 1.644 30560
-0.721 0.724 1.641 25605
-0.724 0.727 1.638 21655
-0.727 0.730 1.635 19130
-0.733 0.737 1.638 18671
-0.740 0.743 1.642 16729
-0.746 0.749 1.645 15174
-0.749 0.752 1.642 17365
-0.752 0.755 1.639 20995
-0.755 0.759 1.635 19423
-0.762 0.765 1.639 12136
-0.768 0.771 1.642 12281
-0.781 0.785 1.658 19767
-0.791 0.794 1.667 21670
-0.798 0.801 1.670 19124
-0.797 0.801 1.660 17663
-0.797 0.800 1.651 19529
-0.804 0.807 1.653 21761
-0.810 0.813 1.656 19632
-0.813 0.817 1.653 13787
-0.820 0.823 1.656 12375
-0.826 0.830 1.658 18310
-0.829 0.833 1.655 21522
-0.832 0.836 1.651 19262
-0.836 0.839 1.648 15267
-0.839 0.842 1.644 12104
-0.845 0.849 1.647 10623
-0.852 0.855 1.650 8614
-0.858 0.862 1.652 7969
-0.869 0.872 1.661 11124
-0.875 0.879 1.663 16517
-0.879 0.882 1.659 15455
-0.885 0.889 1.662 12871
-0.888 0.892 1.658 13461
-0.891 0.895 1.654 16210
-0.898 0.902 1.656 19153
-0.901 0.905 1.653 16189
-0.908 0.912 1.655 21103
-0.915 0.919 1.657 27182
-0.918 0.922 1.653 18373
-0.932 0.936 1.667 12351
-0.935 0.939 1.663 17927
-0.938 0.942 1.659 22415
-0.941 0.945 1.655 21119
-0.941 0.945 1.645 12878
-0.944 0.948 1.641 8251
-0.951 0.955 1.643 8529
-0.958 0.962 1.645 6670
-0.976 0.980 1.664 7835
-0.987 0.991 1.672 10839
-0.994 0.998 1.673 14102
-0.993 0.997 1.663 15241
-0.996 1.000 1.659 10399
-1.007 1.011 1.667 21121
-1.014 1.018 1.668 40394
-1.017 1.021 1.664 35523
-1.024 1.028 1.665 26059
-1.031 1.035 1.667 20409
-1.046 1.050 1.679 14755
-1.049 1.053 1.675 13833
-1.072 1.076 1.698 11078
-1.083 1.088 1.705 11007
-1.074 1.079 1.684 7095
-1.077 1.082 1.679 11626
-1.085 1.089 1.680 16876
-1.092 1.096 1.681 13831
-1.095 1.099 1.677 12405
-1.102 1.107 1.678 10090
-1.109 1.114 1.678 14443
-1.116 1.121 1.679 24803
-1.124 1.128 1.680 22675
-1.131 1.136 1.681 17945
-1.138 1.143 1.681 18935
-1.141 1.146 1.677 17547
-1.148 1.153 1.677 14635
-1.156 1.161 1.678 15218
-1.155 1.160 1.668 17729
-1.162 1.167 1.668 21724
-1.173 1.178 1.674 22462
-1.181 1.186 1.674 14128
-1.200 1.205 1.690 13409
-1.204 1.209 1.685 13606
-1.211 1.216 1.685 10979
-1.227 1.232 1.696 10307
-1.234 1.239 1.696 11813
-1.233 1.238 1.686 9822
-1.236 1.241 1.681 8681
-1.244 1.249 1.681 15242
-1.242 1.248 1.670 16996
-1.254 1.259 1.675 11302
-1.274 1.280 1.690 17290
-1.273 1.279 1.680 23036
-1.276 1.282 1.675 17602
-1.280 1.285 1.669 10931
-1.300 1.305 1.684 14900
-1.307 1.313 1.684 24068
-1.311 1.316 1.678 26296
-1.314 1.319 1.673 19068
-1.325 1.331 1.677 17157
-1.333 1.339 1.676 21179
-1.336 1.342 1.671 18217
-1.339 1.345 1.665 10528
-1.360 1.366 1.679 9928
-1.376 1.382 1.688 14720
-1.375 1.381 1.678 16325
-1.378 1.384 1.672 16765
-1.390 1.396 1.676 16884
-1.402 1.408 1.679 16832
-1.410 1.416 1.678 14809
-1.413 1.419 1.672 12869
-1.425 1.431 1.676 13649
-1.428 1.434 1.670 20188
-1.431 1.437 1.664 21141
-1.439 1.445 1.663 14854
-1.456 1.462 1.671 17603
-1.463 1.469 1.669 21762
-1.466 1.473 1.663 18075
-1.465 1.471 1.652 12319
-1.491 1.497 1.669 10488
-1.503 1.509 1.672 13743
-1.511 1.517 1.670 12202
-1.532 1.539 1.682 12939
-1.531 1.537 1.671 13495
-1.538 1.545 1.669 12287
-1.542 1.548 1.663 9486
-1.531 1.537 1.643 10016
-1.543 1.550 1.646 16341
-1.551 1.558 1.644 20905
-1.554 1.561 1.637 24302
-1.562 1.568 1.635 25854
-1.569 1.576 1.633 18403
-1.600 1.607 1.652 14532
-1.599 1.606 1.641 14331
-1.597 1.604 1.630 13977
-1.605 1.612 1.628 13064
-1.627 1.634 1.638 13057
-1.630 1.637 1.631 12297
-1.633 1.640 1.625 8825
-1.645 1.652 1.626 6371
-1.649 1.656 1.619 5142
-1.656 1.663 1.617 4973
-1.659 1.666 1.610 6022
-1.662 1.669 1.603 5521
-1.680 1.687 1.608 5411
-1.702 1.709 1.617 5777
-1.714 1.722 1.619 7209
-1.722 1.730 1.615 6708
-1.740 1.747 1.620 4824
-1.747 1.755 1.617 4096
-1.750 1.758 1.610 3389
-1.782 1.790 1.626 3608
-1.795 1.803 1.627 5410
-1.803 1.811 1.623 5918
-1.821 1.828 1.627 5434
-1.853 1.861 1.643 5685
-1.832 1.839 1.616 6386
-1.835 1.842 1.608 7550
-1.847 1.855 1.608 7618
-1.865 1.873 1.612 6900
-1.902 1.911 1.631 7442
-1.901 1.909 1.619 8302
-1.899 1.907 1.607 9397
-1.907 1.915 1.603 6893
-1.934 1.942 1.614 4652
-1.937 1.946 1.606 5624
-1.940 1.949 1.598 6595
-1.953 1.961 1.597 5966
-1.956 1.964 1.589 5593
-1.919 1.927 1.552 6956
-1.922 1.930 1.544 8932
-1.925 1.933 1.536 9203
-1.928 1.936 1.528 9474
-1.931 1.939 1.520 7627
-1.929 1.937 1.508 5892
-1.931 1.940 1.500 4265
-2.266 2.275 1.720 4075
-2.269 2.279 1.711 4270
-2.277 2.287 1.705 4496
-2.280 2.290 1.695 5839
-2.284 2.293 1.686 7182
-2.277 2.286 1.670 6474
-2.275 2.284 1.657 6104
-2.278 2.287 1.647 6104
-2.286 2.296 1.641 5114
-2.299 2.309 1.638 4374
-2.353 2.363 1.661 3859
-2.321 2.330 1.629 3676
-2.370 2.380 1.648 4131
-2.373 2.383 1.638 4800
-2.376 2.386 1.628 4800
-2.379 2.389 1.618 2400
-0.465 0.469 1.674 18160
-0.470 0.474 1.679 17076
-0.473 0.477 1.677 16452
-0.476 0.481 1.675 18285
-0.480 0.484 1.673 20118
-0.483 0.487 1.671 20118
-0.486 0.490 1.669 19278
-0.487 0.491 1.660 18538
-0.490 0.494 1.657 14498
-0.493 0.497 1.655 10457
-0.496 0.500 1.653 7688
-0.497 0.501 1.644 5111
-0.500 0.504 1.642 6207
-0.503 0.507 1.640 7303
-0.506 0.510 1.638 8662
-0.509 0.513 1.635 10697
-0.512 0.516 1.633 11072
-0.515 0.519 1.631 11628
-0.518 0.522 1.629 12521
-0.521 0.526 1.627 11330
-0.527 0.531 1.631 10166
-0.530 0.534 1.629 9820
-0.535 0.540 1.634 9622
-0.541 0.546 1.639 9920
-0.547 0.551 1.643 10570
-0.552 0.557 1.648 8560
-0.558 0.563 1.652 6762
-0.561 0.566 1.650 8230
-0.567 0.572 1.655 10038
-0.570 0.575 1.652 11535
-0.573 0.578 1.650 12433
-0.576 0.581 1.647 12286
-0.579 0.584 1.645 9143
-0.582 0.587 1.642 5999
-0.588 0.593 1.647 4998
-0.597 0.602 1.658 4534
-0.603 0.608 1.662 6262
-0.603 0.608 1.653 8216
-0.603 0.609 1.644 8706
-0.604 0.609 1.634 10595
-0.607 0.612 1.632 12554
-0.610 0.615 1.629 14648
-0.616 0.621 1.633 16579
-0.622 0.627 1.637 17062
-0.651 0.656 1.695 17428
-0.660 0.665 1.706 20054
-0.663 0.669 1.703 21539
-0.663 0.669 1.694 19573
-0.669 0.675 1.698 15743
-0.673 0.678 1.695 12370
-0.673 0.679 1.685 15763
-0.676 0.682 1.682 22293
-0.676 0.682 1.673 25611
-0.679 0.685 1.670 25952
-0.685 0.691 1.674 22814
-0.685 0.691 1.664 18919
-0.685 0.691 1.655 13439
-0.685 0.691 1.645 12162
-0.689 0.694 1.642 11734
-0.692 0.698 1.639 10319
-0.701 0.707 1.650 13648
-0.707 0.713 1.653 18606
-0.710 0.716 1.650 24236
-0.716 0.723 1.654 31866
-0.716 0.723 1.644 30932
-0.719 0.726 1.641 26038
-0.723 0.729 1.638 21733
-0.726 0.732 1.635 18885
-0.732 0.738 1.638 18673
-0.738 0.745 1.642 16649
-0.741 0.748 1.639 15114
-0.748 0.754 1.642 17699
-0.751 0.757 1.639 21508
-0.754 0.760 1.635 20228
-0.760 0.767 1.639 13923
-0.763 0.770 1.635 14579
-0.776 0.783 1.651 20377
-0.786 0.793 1.661 21735
-0.796 0.803 1.670 18931
-0.796 0.802 1.660 17443
-0.795 0.802 1.651 19143
-0.798 0.805 1.647 21796
-0.805 0.812 1.650 20374
-0.811 0.818 1.653 14321
-0.818 0.825 1.656 11782
-0.821 0.828 1.652 16954
-0.828 0.835 1.655 20730
-0.831 0.838 1.651 19607
-0.837 0.844 1.654 16038
-0.840 0.848 1.651 10321
-0.847 0.854 1.653 8908
-0.857 0.864 1.662 10594
-0.857 0.864 1.652 9835
-0.867 0.874 1.661 10985
-0.874 0.881 1.663 15335
-0.877 0.884 1.659 13942
-0.883 0.891 1.662 11396
-0.883 0.890 1.652 13051
-0.890 0.897 1.654 17389
-0.896 0.904 1.656 22007
-0.899 0.907 1.653 18442
-0.906 0.914 1.655 20831
-0.913 0.921 1.657 26751
-0.912 0.920 1.647 20885
-0.926 0.934 1.661 14924
-0.933 0.941 1.663 18865
-0.933 0.941 1.653 22577
-0.939 0.947 1.655 20679
-0.939 0.947 1.645 12882
-0.942 0.950 1.641 10716
-0.949 0.957 1.643 12600
-0.956 0.964 1.645 9453
-0.974 0.982 1.664 7252
-0.984 0.993 1.672 8327
-0.988 0.996 1.668 12124
-0.991 0.999 1.663 13836
-0.994 1.002 1.659 9872
-1.005 1.013 1.667 20851
-1.012 1.020 1.668 38679
-1.015 1.023 1.664 32830
-1.022 1.030 1.665 22921
-1.029 1.038 1.667 17730
-1.040 1.049 1.673 14175
-1.047 1.056 1.675 14229
-1.066 1.075 1.693 10675
-1.077 1.086 1.699 12579
-1.072 1.081 1.684 11332
-1.071 1.080 1.674 10584
-1.082 1.091 1.680 13674
-1.089 1.099 1.681 12700
-1.092 1.102 1.677 11027
-1.100 1.109 1.678 8618
-1.107 1.116 1.678 14731
-1.114 1.123 1.679 25856
-1.117 1.127 1.675 21046
-1.124 1.134 1.675 15856
-1.131 1.141 1.676 19267
-1.135 1.144 1.671 18561
-1.142 1.152 1.672 16290
-1.149 1.159 1.672 18259
-1.152 1.162 1.668 20830
-1.159 1.169 1.668 22896
-1.167 1.177 1.668 22750
-1.174 1.184 1.669 12965
-1.202 1.212 1.696 9274
-1.201 1.211 1.685 10220
-1.208 1.219 1.685 9315
-1.220 1.230 1.691 8879
-1.227 1.238 1.691 11761
-1.230 1.241 1.686 11280
-1.238 1.248 1.686 10271
-1.237 1.247 1.675 16417
-1.240 1.250 1.670 18127
-1.247 1.258 1.670 11529
-1.267 1.278 1.685 16170
-1.270 1.281 1.680 23039
-1.274 1.285 1.675 19480
-1.281 1.292 1.674 13705
-1.297 1.308 1.684 16008
-1.300 1.311 1.679 22983
-1.308 1.319 1.678 25916
-1.311 1.322 1.673 21674
-1.323 1.334 1.677 19952
-1.330 1.342 1.676 20666
-1.333 1.345 1.671 16729
-1.336 1.348 1.665 9415
-1.357 1.369 1.679 8305
-1.373 1.385 1.688 12318
-1.377 1.388 1.682 14420
-1.371 1.383 1.667 14163
-1.392 1.404 1.680 14437
-1.399 1.411 1.679 15821
-1.407 1.419 1.678 14467
-1.410 1.422 1.672 12957
-1.418 1.430 1.671 13189
-1.425 1.437 1.670 18568
-1.428 1.441 1.664 18472
-1.436 1.448 1.663 13690
-1.452 1.465 1.671 18246
-1.460 1.473 1.669 21481
-1.463 1.476 1.663 17326
-1.466 1.479 1.657 11912
-1.488 1.500 1.669 10229
-1.495 1.508 1.668 12878
-1.507 1.520 1.670 11377
-1.529 1.542 1.682 12620
-1.532 1.545 1.676 13420
-1.535 1.548 1.669 12246
-1.538 1.551 1.663 9025
-1.523 1.536 1.639 8245
-1.540 1.553 1.646 13253
-1.548 1.561 1.644 17823
-1.551 1.564 1.637 21537
-1.558 1.572 1.635 23958
-1.566 1.579 1.633 17409
-1.592 1.606 1.648 15167
-1.595 1.609 1.641 14563
-1.599 1.612 1.635 14438
-1.602 1.615 1.628 14261
-1.609 1.623 1.625 13641
-1.622 1.636 1.627 11954
-1.629 1.643 1.625 8113
-1.642 1.656 1.626 5698
-1.645 1.659 1.619 4873
-1.653 1.667 1.617 5690
-1.656 1.670 1.610 7284
-1.659 1.673 1.603 6284
-1.666 1.681 1.600 4490
-1.722 1.737 1.638 4442
-1.720 1.735 1.627 6274
-1.723 1.738 1.619 6455
-1.741 1.756 1.624 4981
-1.748 1.763 1.621 4187
-1.756 1.771 1.618 3424
-1.779 1.794 1.626 4173
-1.791 1.807 1.627 6952
-1.799 1.815 1.623 7836
-1.802 1.818 1.616 6370
-1.796 1.811 1.600 4993
-1.823 1.838 1.612 5697
-1.831 1.846 1.608 6711
-1.843 1.859 1.608 6870
-1.861 1.877 1.612 6942
-1.874 1.890 1.612 7418
-1.887 1.903 1.612 8373
-1.890 1.906 1.604 9472
-1.898 1.914 1.599 6725
-1.930 1.947 1.614 4651
-1.933 1.950 1.606 5324
-1.941 1.958 1.601 6001
-1.949 1.966 1.597 5093
-1.902 1.919 1.552 5259
-1.915 1.932 1.552 7301
-1.918 1.934 1.544 9481
-1.921 1.937 1.536 9818
-1.924 1.940 1.528 10155
-1.927 1.943 1.520 8184
-1.924 1.941 1.508 6348
-1.927 1.944 1.500 4601
-2.261 2.280 1.720 3488
-2.264 2.283 1.711 3645
-2.277 2.297 1.708 3948
-2.275 2.295 1.695 5241
-2.274 2.293 1.682 6657
-2.272 2.291 1.670 5942
-2.270 2.289 1.657 5530
-2.273 2.292 1.647 5530
-2.281 2.301 1.641 4433
-2.345 2.365 1.671 4049
-2.353 2.373 1.664 3644
-2.371 2.392 1.664 3678
-2.375 2.395 1.654 4393
-2.373 2.393 1.641 5216
-2.376 2.396 1.631 5216
-2.379 2.399 1.621 2608
-0.464 0.470 1.674 18294
-0.469 0.475 1.679 16796
-0.475 0.481 1.684 15867
-0.476 0.481 1.675 17498
-0.479 0.485 1.673 19145
-0.482 0.488 1.671 19145
-0.485 0.491 1.669 18481
-0.486 0.492 1.660 17877
-0.489 0.495 1.657 14002
-0.492 0.498 1.655 10126
-0.495 0.501 1.653 7280
-0.496 0.502 1.644 4515
-0.499 0.505 1.642 6277
-0.502 0.508 1.640 8038
-0.505 0.511 1.638 9600
-0.508 0.514 1.635 11961
-0.511 0.517 1.633 12430
-0.514 0.520 1.631 12830
-0.520 0.526 1.636 13653
-0.523 0.529 1.634 12120
-0.526 0.532 1.631 10587
-0.529 0.535 1.629 9999
-0.534 0.541 1.634 9569
-0.540 0.547 1.639 9839
-0.546 0.552 1.643 10458
-0.551 0.558 1.648 8265
-0.557 0.564 1.652 6247
-0.560 0.567 1.650 7414
-0.563 0.570 1.648 9331
-0.569 0.576 1.652 11065
-0.572 0.579 1.650 12030
-0.572 0.580 1.640 12211
-0.575 0.583 1.638 9304
-0.579 0.586 1.636 6397
-0.584 0.592 1.640 5736
-0.593 0.600 1.651 5738
-0.602 0.609 1.662 7557
-0.602 0.609 1.653 9632
-0.602 0.610 1.644 9874
-0.602 0.610 1.634 10839
-0.603 0.610 1.625 12079
-0.609 0.616 1.629 14325
-0.617 0.625 1.640 16594
-0.620 0.628 1.637 17239
-0.647 0.655 1.689 16019
-0.659 0.667 1.706 18007
-0.659 0.667 1.697 19778
-0.662 0.670 1.694 18408
-0.668 0.676 1.698 14818
-0.671 0.680 1.695 11280
-0.668 0.677 1.679 14812
-0.672 0.680 1.676 21646
-0.675 0.683 1.673 25659
-0.678 0.686 1.670 26592
-0.681 0.689 1.667 23512
-0.684 0.693 1.664 19804
-0.684 0.693 1.655 14027
-0.684 0.693 1.645 12439
-0.687 0.696 1.642 11844
-0.690 0.699 1.639 11155
-0.700 0.708 1.650 14691
-0.706 0.715 1.653 19201
-0.709 0.718 1.650 24443
-0.715 0.724 1.654 31711
-0.715 0.724 1.644 30981
-0.718 0.727 1.641 26145
-0.721 0.730 1.638 21505
-0.724 0.733 1.635 18557
-0.727 0.736 1.632 18804
-0.737 0.746 1.642 16710
-0.740 0.749 1.639 15255
-0.746 0.755 1.642 18062
-0.749 0.759 1.639 21887
-0.752 0.762 1.635 20691
-0.759 0.768 1.639 15446
-0.762 0.771 1.635 16794
-0.775 0.784 1.651 21140
-0.784 0.794 1.661 21619
-0.794 0.804 1.670 18442
-0.794 0.804 1.660 16687
-0.794 0.804 1.651 17900
-0.797 0.807 1.647 21187
-0.803 0.813 1.650 20436
-0.810 0.820 1.653 14463
-0.813 0.823 1.649 11507
-0.819 0.830 1.652 15931
-0.826 0.836 1.655 19901
-0.833 0.843 1.658 19971
-0.836 0.846 1.654 17570
-0.842 0.853 1.657 11097
-0.849 0.859 1.659 9306
-0.855 0.866 1.662 12483
-0.859 0.869 1.658 11058
-0.865 0.876 1.661 10586
-0.872 0.883 1.663 13520
-0.875 0.886 1.659 12027
-0.878 0.889 1.656 10311
-0.881 0.892 1.652 13062
-0.888 0.899 1.654 18434
-0.895 0.906 1.656 24536
-0.901 0.912 1.659 21644
-0.904 0.916 1.655 21387
-0.911 0.922 1.657 26264
-0.911 0.922 1.647 23646
-0.921 0.932 1.655 18350
-0.928 0.939 1.657 19802
-0.931 0.942 1.653 22529
-0.934 0.946 1.649 20780
-0.937 0.949 1.645 13365
-0.940 0.952 1.641 13465
-0.947 0.959 1.643 16837
-0.954 0.966 1.645 12219
-0.968 0.980 1.658 7454
-0.986 0.999 1.678 6455
-0.986 0.998 1.668 9835
-0.985 0.997 1.658 12319
-0.988 1.000 1.654 10158
-1.003 1.015 1.667 21538
-1.006 1.018 1.662 36898
-1.009 1.021 1.658 29985
-1.016 1.029 1.659 20627
-1.023 1.036 1.661 15251
-1.038 1.051 1.673 12975
-1.041 1.054 1.669 13855
-1.060 1.073 1.687 11209
-1.067 1.080 1.688 15954
-1.070 1.083 1.684 15250
-1.069 1.082 1.674 9396
-1.080 1.094 1.680 10221
-1.087 1.101 1.681 10854
-1.086 1.100 1.671 8407
-1.097 1.111 1.678 7788
-1.105 1.118 1.678 16083
-1.108 1.122 1.674 25878
-1.115 1.129 1.675 19554
-1.118 1.132 1.670 14834
-1.125 1.139 1.671 20141
-1.132 1.146 1.671 20571
-1.140 1.154 1.672 19084
-1.147 1.161 1.672 21439
-1.150 1.164 1.668 23401
-1.153 1.167 1.663 23574
-1.164 1.179 1.668 23059
-1.168 1.182 1.664 13192
-1.195 1.210 1.690 6093
-1.199 1.214 1.685 7754
-1.206 1.221 1.685 8480
-1.213 1.228 1.686 8716
-1.221 1.236 1.686 11941
-1.228 1.243 1.686 12502
-1.231 1.246 1.681 11764
-1.234 1.250 1.675 17008
-1.237 1.253 1.670 18387
-1.241 1.256 1.665 11417
-1.265 1.281 1.685 14509
-1.268 1.284 1.680 22104
-1.271 1.287 1.675 20491
-1.283 1.299 1.679 15890
-1.295 1.311 1.684 16542
-1.298 1.314 1.679 21668
-1.305 1.321 1.678 25701
-1.308 1.325 1.673 24257
-1.320 1.336 1.677 22536
-1.328 1.344 1.676 19961
-1.335 1.352 1.676 15486
-1.338 1.355 1.670 9019
-1.354 1.371 1.679 6809
-1.371 1.388 1.688 9788
-1.374 1.391 1.682 12408
-1.368 1.385 1.667 11483
-1.389 1.406 1.680 11975
-1.397 1.414 1.679 14602
-1.404 1.422 1.678 14204
-1.407 1.425 1.672 13492
-1.415 1.432 1.671 12763
-1.422 1.440 1.670 15849
-1.426 1.443 1.664 15183
-1.438 1.455 1.667 13254
-1.450 1.468 1.671 19259
-1.457 1.475 1.669 21277
-1.460 1.479 1.663 16704
-1.464 1.482 1.657 11565
-1.485 1.503 1.669 9574
-1.492 1.511 1.668 11475
-1.505 1.523 1.670 10147
-1.526 1.545 1.682 11980
-1.529 1.548 1.676 12950
-1.532 1.551 1.669 11775
-1.535 1.554 1.663 8401
-1.515 1.534 1.634 6514
-1.542 1.561 1.650 10321
-1.545 1.564 1.644 14712
-1.548 1.567 1.637 18639
-1.555 1.575 1.635 21823
-1.572 1.592 1.642 16875
-1.589 1.609 1.648 15769
-1.592 1.612 1.641 14614
-1.595 1.615 1.635 14772
-1.598 1.618 1.628 15231
-1.602 1.621 1.621 14378
-1.619 1.639 1.627 11696
-1.626 1.647 1.625 7471
-1.639 1.659 1.626 4969
-1.647 1.667 1.624 4643
-1.654 1.675 1.621 6511
-1.657 1.678 1.614 8579
-1.660 1.681 1.607 7273
-1.649 1.669 1.588 4466
-1.723 1.745 1.642 4081
-1.722 1.743 1.631 5880
-1.725 1.746 1.624 6423
-1.733 1.754 1.620 5214
-1.750 1.772 1.625 4297
-1.753 1.775 1.618 3537
-1.780 1.802 1.630 4879
-1.788 1.810 1.627 8688
-1.791 1.813 1.619 10060
-1.789 1.811 1.608 8210
-1.787 1.809 1.596 6773
-1.814 1.837 1.608 5171
-1.827 1.850 1.608 5821
-1.840 1.863 1.608 6226
-1.857 1.881 1.612 7068
-1.870 1.893 1.612 8122
-1.878 1.901 1.608 8788
-1.881 1.904 1.600 9657
-1.889 1.912 1.596 6739
-1.926 1.950 1.614 4716
-1.929 1.953 1.606 5120
-1.932 1.956 1.598 5523
-1.921 1.944 1.579 4713
-1.899 1.922 1.552 5542
-1.907 1.930 1.548 7604
-1.914 1.938 1.544 9884
-1.917 1.941 1.536 10262
-1.920 1.944 1.528 10641
-1.923 1.947 1.520 8569
-1.921 1.945 1.508 6637
-1.923 1.947 1.500 4826
-1.926 1.950 1.492 3012
-2.265 2.293 1.714 3056
-2.278 2.306 1.712 3407
-2.266 2.294 1.692 4627
-2.269 2.297 1.682 6061
-2.262 2.290 1.666 5355
-2.260 2.288 1.653 4946
-2.263 2.292 1.644 4946
-2.277 2.305 1.641 3730
-2.340 2.369 1.671 3726
-2.349 2.378 1.664 3407
-2.372 2.401 1.667 3903
-2.370 2.399 1.654 4689
-2.368 2.397 1.641 5567
-2.371 2.401 1.631 5567
-2.374 2.404 1.621 2783
-0.463 0.471 1.674 18347
-0.468 0.476 1.679 16573
-0.474 0.482 1.684 15486
-0.475 0.483 1.675 16940
-0.478 0.486 1.673 18451
-0.481 0.489 1.671 18451
-0.484 0.492 1.669 17954
-0.487 0.495 1.667 17457
-0.488 0.496 1.657 13655
-0.491 0.499 1.655 9858
-0.494 0.502 1.653 6994
-0.497 0.505 1.651 4131
-0.498 0.506 1.642 6547
-0.501 0.509 1.640 8972
-0.506 0.515 1.645 10687
-0.507 0.515 1.635 13258
-0.510 0.518 1.633 13813
-0.515 0.524 1.638 14108
-0.518 0.527 1.636 14772
-0.521 0.530 1.634 12924
-0.524 0.533 1.631 11076
-0.528 0.536 1.629 10142
-0.533 0.542 1.634 9355
-0.539 0.548 1.639 9636
-0.544 0.554 1.643 10259
-0.550 0.559 1.648 7943
-0.556 0.565 1.652 5733
-0.559 0.568 1.650 6546
-0.562 0.571 1.648 8655
-0.565 0.575 1.645 10706
-0.568 0.578 1.643 11951
-0.571 0.581 1.640 12485
-0.574 0.584 1.638 9824
-0.577 0.587 1.636 7162
-0.583 0.593 1.640 6668
-0.592 0.602 1.651 6970
-0.600 0.610 1.662 8799
-0.603 0.614 1.660 10966
-0.604 0.614 1.650 10962
-0.601 0.611 1.634 10958
-0.601 0.611 1.625 11587
-0.607 0.617 1.629 13861
-0.616 0.626 1.640 16569
-0.619 0.629 1.637 17262
-0.642 0.653 1.682 14938
-0.657 0.668 1.706 15864
-0.654 0.665 1.690 18105
-0.661 0.672 1.694 17140
-0.667 0.678 1.698 13823
-0.667 0.678 1.688 10517
-0.667 0.678 1.679 14449
-0.670 0.681 1.676 21345
-0.673 0.685 1.673 25654
-0.676 0.688 1.670 26921
-0.679 0.691 1.667 23880
-0.683 0.694 1.664 20362
-0.683 0.694 1.655 14477
-0.683 0.694 1.645 12664
-0.686 0.697 1.642 11864
-0.689 0.700 1.639 11863
-0.695 0.707 1.643 16045
-0.701 0.713 1.647 20036
-0.707 0.719 1.650 24598
-0.714 0.726 1.654 31029
-0.713 0.725 1.644 30312
-0.717 0.729 1.641 25710
-0.720 0.732 1.638 20980
-0.719 0.731 1.628 18261
-0.726 0.738 1.632 19184
-0.732 0.744 1.635 17105
-0.738 0.751 1.639 15578
-0.741 0.754 1.635 18623
-0.744 0.757 1.632 22316
-0.751 0.763 1.635 21059
-0.757 0.770 1.639 16970
-0.760 0.773 1.635 19136
-0.770 0.783 1.645 22032
-0.783 0.796 1.661 21251
-0.789 0.802 1.664 17655
-0.792 0.806 1.660 15436
-0.792 0.805 1.651 15958
-0.795 0.808 1.647 20006
-0.802 0.815 1.650 20370
-0.808 0.822 1.653 14891
-0.811 0.825 1.649 11657
-0.818 0.831 1.652 15090
-0.824 0.838 1.655 19128
-0.831 0.845 1.658 20527
-0.837 0.851 1.660 19792
-0.844 0.858 1.663 13882
-0.850 0.865 1.665 11155
-0.857 0.871 1.668 13496
-0.860 0.875 1.664 11332
-0.863 0.878 1.661 9608
-0.870 0.885 1.663 11122
-0.873 0.888 1.659 9690
-0.876 0.891 1.656 9345
-0.879 0.894 1.652 13173
-0.886 0.901 1.654 19233
-0.893 0.908 1.656 26793
-0.899 0.914 1.659 25317
-0.906 0.921 1.661 22272
-0.909 0.924 1.657 25462
-0.909 0.924 1.647 25634
-0.919 0.934 1.655 21300
-0.926 0.941 1.657 20624
-0.929 0.944 1.653 22216
-0.932 0.948 1.649 20999
-0.935 0.951 1.645 14235
-0.942 0.958 1.647 16340
-0.945 0.961 1.643 20616
-0.948 0.964 1.639 14681
-0.970 0.986 1.664 8742
-0.984 1.001 1.678 5840
-0.984 1.000 1.668 7430
-0.983 0.999 1.658 10464
-0.990 1.006 1.659 10605
-1.001 1.017 1.667 22332
-1.004 1.020 1.662 34938
-1.007 1.024 1.658 27942
-1.010 1.027 1.654 19188
-1.017 1.034 1.655 13350
-1.032 1.049 1.668 11610
-1.039 1.056 1.669 13144
-1.049 1.067 1.676 12115
-1.060 1.078 1.683 19603
-1.064 1.081 1.678 18527
-1.067 1.085 1.674 8424
-1.082 1.100 1.686 8002
-1.085 1.103 1.681 8751
-1.080 1.098 1.666 5448
-1.099 1.118 1.683 6423
-1.102 1.121 1.678 16788
-1.105 1.124 1.674 25114
-1.108 1.127 1.669 18960
-1.112 1.130 1.664 15478
-1.119 1.137 1.665 21702
-1.126 1.145 1.666 23464
-1.133 1.152 1.666 22598
-1.140 1.159 1.667 24743
-1.147 1.167 1.668 25400
-1.151 1.170 1.663 24064
-1.162 1.181 1.668 23328
-1.165 1.185 1.664 14259
-1.164 1.183 1.653 5235
-1.192 1.212 1.680 6108
-1.199 1.219 1.680 8103
-1.206 1.227 1.680 8827
-1.218 1.238 1.686 11730
-1.225 1.246 1.686 13035
-1.228 1.249 1.681 12719
-1.232 1.252 1.675 16816
-1.235 1.255 1.670 17833
-1.238 1.259 1.665 11218
-1.258 1.279 1.680 12603
-1.265 1.286 1.680 20395
-1.268 1.290 1.675 20567
-1.280 1.302 1.679 17241
-1.292 1.313 1.684 16527
-1.295 1.317 1.679 20350
-1.302 1.324 1.678 25739
-1.310 1.332 1.678 26563
-1.317 1.339 1.677 24435
-1.325 1.347 1.676 19110
-1.332 1.355 1.676 14521
-1.335 1.358 1.670 8897
-1.347 1.370 1.674 5328
-1.368 1.391 1.688 7313
-1.371 1.394 1.682 10523
-1.374 1.397 1.677 9112
-1.390 1.414 1.685 10015
-1.394 1.417 1.679 13462
-1.401 1.425 1.678 14081
-1.404 1.428 1.672 14245
-1.412 1.435 1.671 12329
-1.419 1.443 1.670 12527
-1.427 1.451 1.669 12226
-1.439 1.463 1.672 13962
-1.447 1.471 1.671 20421
-1.454 1.479 1.669 21242
-1.457 1.482 1.663 16398
-1.460 1.485 1.657 11318
-1.477 1.502 1.665 8711
-1.489 1.514 1.668 9351
-1.501 1.527 1.670 8483
-1.523 1.548 1.682 10930
-1.526 1.551 1.676 11848
-1.529 1.555 1.669 10644
-1.532 1.558 1.663 7542
-1.503 1.528 1.625 5262
-1.538 1.564 1.650 7955
-1.546 1.572 1.648 11861
-1.549 1.575 1.641 15648
-1.552 1.578 1.635 19377
-1.574 1.600 1.646 16782
-1.586 1.612 1.648 16083
-1.589 1.616 1.641 14393
-1.592 1.619 1.635 14837
-1.595 1.622 1.628 15936
-1.598 1.625 1.621 14902
-1.610 1.637 1.623 11398
-1.623 1.650 1.625 6962
-1.626 1.653 1.618 4457
-1.638 1.666 1.619 4279
-1.655 1.683 1.625 6858
-1.654 1.681 1.614 9322
-1.657 1.684 1.607 7879
-1.645 1.673 1.588 4594
-1.720 1.749 1.642 3966
-1.718 1.747 1.631 5685
-1.721 1.750 1.624 6412
-1.729 1.758 1.620 5395
-1.746 1.775 1.625 4270
-1.754 1.783 1.622 3522
-1.776 1.806 1.630 5502
-1.784 1.814 1.627 10408
-1.787 1.817 1.619 12398
-1.785 1.815 1.608 10312
-1.783 1.813 1.596 8742
-1.791 1.821 1.593 5880
-1.852 1.883 1.631 5356
-1.836 1.867 1.608 5794
-1.853 1.885 1.612 7274
-1.861 1.893 1.608 8861
-1.869 1.901 1.604 9296
-1.877 1.909 1.600 9958
-1.880 1.912 1.592 6952
-1.922 1.954 1.614 4767
-1.925 1.957 1.606 4967
-1.928 1.960 1.598 5168
-1.916 1.948 1.579 4624
-1.895 1.926 1.552 5675
-1.902 1.934 1.548 7810
-1.910 1.942 1.544 10117
-1.913 1.945 1.536 10528
-1.916 1.948 1.528 10939
-1.919 1.951 1.520 8798
-1.917 1.949 1.508 6794
-1.919 1.951 1.500 4948
-1.922 1.954 1.492 3115
-2.260 2.298 1.714 2559
-2.273 2.311 1.712 2927
-2.261 2.299 1.692 4092
-2.259 2.297 1.679 5473
-2.257 2.295 1.666 4889
-2.255 2.293 1.653 4565
-2.258 2.296 1.644 4565
-2.332 2.371 1.681 3596
-2.335 2.374 1.671 3427
-2.338 2.378 1.661 3232
-2.367 2.407 1.667 4118
-2.370 2.410 1.658 4946
-2.368 2.408 1.644 5835
-2.371 2.411 1.634 5835
-2.374 2.414 1.625 2917
-0.462 0.472 1.674 18343
-0.465 0.475 1.672 16295
-0.473 0.483 1.684 15017
-0.474 0.483 1.675 16298
-0.477 0.487 1.673 17651
-0.480 0.490 1.671 17651
-0.483 0.493 1.669 17305
-0.486 0.496 1.667 16960
-0.487 0.497 1.657 13287
-0.490 0.500 1.655 9643
-0.493 0.503 1.653 6896
-0.496 0.506 1.651 4149
-0.499 0.509 1.649 7086
-0.502 0.513 1.647 10023
-0.505 0.516 1.645 11818
-0.506 0.516 1.635 14474
-0.509 0.519 1.633 15103
-0.514 0.525 1.638 15309
-0.517 0.528 1.636 15831
-0.520 0.531 1.634 13684
-0.523 0.534 1.631 11538
-0.526 0.537 1.629 10249
-0.532 0.543 1.634 9090
-0.538 0.549 1.639 9370
-0.543 0.555 1.643 9980
-0.549 0.560 1.648 7601
-0.555 0.566 1.652 5258
-0.558 0.569 1.650 5728
-0.561 0.573 1.648 8076
-0.564 0.576 1.645 10669
-0.567 0.579 1.643 12148
-0.567 0.579 1.634 13040
-0.570 0.582 1.631 10604
-0.573 0.585 1.629 8168
-0.582 0.594 1.640 7577
-0.590 0.603 1.651 8008
-0.596 0.609 1.655 9911
-0.602 0.615 1.660 12099
-0.602 0.615 1.650 11934
-0.600 0.612 1.634 10916
-0.600 0.613 1.625 10895
-0.606 0.619 1.629 13250
-0.615 0.628 1.640 16467
-0.621 0.634 1.644 17163
-0.638 0.651 1.675 14140
-0.656 0.669 1.706 13849
-0.650 0.664 1.683 16497
-0.656 0.670 1.687 15902
-0.665 0.679 1.698 12696
-0.657 0.670 1.668 10139
-0.663 0.676 1.672 14622
-0.666 0.680 1.669 21181
-0.669 0.683 1.666 25695
-0.675 0.689 1.670 26857
-0.678 0.692 1.667 23828
-0.681 0.695 1.664 20537
-0.681 0.695 1.655 14658
-0.681 0.695 1.645 12633
-0.684 0.699 1.642 11586
-0.687 0.702 1.639 12258
-0.694 0.708 1.643 17494
-0.700 0.714 1.647 21236
-0.706 0.721 1.650 24859
-0.709 0.724 1.647 30087
-0.712 0.727 1.644 29073
-0.715 0.730 1.641 24762
-0.718 0.733 1.638 20168
-0.718 0.733 1.628 18021
-0.724 0.739 1.632 19657
-0.730 0.746 1.635 17627
-0.737 0.752 1.639 15792
-0.740 0.755 1.635 18898
-0.743 0.758 1.632 22410
-0.749 0.765 1.635 20871
-0.755 0.771 1.639 18127
-0.758 0.774 1.635 21206
-0.768 0.784 1.645 22747
-0.778 0.794 1.654 20439
-0.788 0.804 1.664 16583
-0.791 0.807 1.660 13884
-0.790 0.807 1.651 13860
-0.793 0.810 1.647 18805
-0.800 0.817 1.650 20300
-0.806 0.823 1.653 15436
-0.806 0.823 1.643 12193
-0.813 0.829 1.646 14417
-0.823 0.840 1.655 18137
-0.829 0.846 1.658 20936
-0.836 0.853 1.660 21609
-0.842 0.860 1.663 16540
-0.852 0.870 1.672 12650
-0.855 0.873 1.668 13771
-0.858 0.876 1.664 11208
-0.862 0.879 1.661 8255
-0.865 0.883 1.657 8392
-0.871 0.889 1.659 7326
-0.871 0.889 1.650 8681
-0.877 0.896 1.652 13157
-0.884 0.903 1.654 19474
-0.891 0.909 1.656 28281
-0.897 0.916 1.659 28752
-0.904 0.923 1.661 23579
-0.907 0.926 1.657 24677
-0.907 0.926 1.647 27101
-0.917 0.936 1.655 23720
-0.924 0.943 1.657 21257
-0.927 0.946 1.653 21987
-0.930 0.949 1.649 21485
-0.933 0.952 1.645 15216
-0.940 0.959 1.647 18987
-0.943 0.963 1.643 23897
-0.950 0.969 1.645 16617
-0.968 0.988 1.664 10582
-0.982 1.003 1.678 6657
-0.982 1.002 1.668 5990
-0.985 1.005 1.663 9131
-0.992 1.012 1.665 11218
-0.999 1.019 1.667 22697
-1.002 1.022 1.662 32776
-1.005 1.026 1.658 26562
-1.008 1.029 1.654 18799
-1.015 1.036 1.655 12624
-1.029 1.051 1.668 11515
-1.036 1.058 1.669 12751
-1.047 1.069 1.676 13108
-1.058 1.080 1.683 22490
-1.061 1.084 1.678 20672
-1.065 1.087 1.674 9298
-1.080 1.102 1.686 8052
-1.083 1.105 1.681 7684
-1.074 1.096 1.660 4139
-1.101 1.124 1.689 6156
-1.100 1.123 1.678 16846
-1.103 1.126 1.674 23944
-1.106 1.129 1.669 19245
-1.109 1.132 1.664 17438
-1.116 1.140 1.665 23532
-1.124 1.147 1.666 26486
-1.131 1.154 1.666 26123
-1.138 1.162 1.667 27677
-1.145 1.169 1.668 26668
-1.148 1.172 1.663 23972
-1.160 1.184 1.668 23286
-1.167 1.191 1.669 15544
-1.166 1.190 1.659 5452
-1.189 1.214 1.680 4772
-1.197 1.222 1.680 7510
-1.204 1.229 1.680 8672
-1.216 1.241 1.686 10907
-1.223 1.248 1.686 12773
-1.226 1.251 1.681 12864
-1.229 1.255 1.675 15827
-1.228 1.254 1.665 16526
-1.231 1.257 1.660 10711
-1.251 1.277 1.675 10556
-1.258 1.285 1.675 17845
-1.266 1.292 1.675 19677
-1.277 1.304 1.679 17816
-1.289 1.316 1.684 16227
-1.292 1.319 1.679 19266
-1.300 1.327 1.678 25912
-1.307 1.334 1.678 28650
-1.315 1.342 1.677 25643
-1.322 1.350 1.676 18309
-1.329 1.357 1.676 13931
-1.333 1.360 1.670 8977
-1.340 1.368 1.669 4190
-1.361 1.389 1.683 5476
-1.364 1.392 1.678 9192
-1.376 1.404 1.681 7779
-1.388 1.416 1.685 8690
-1.391 1.420 1.679 12572
-1.398 1.427 1.678 14072
-1.406 1.435 1.677 15149
-1.409 1.438 1.671 12211
-1.421 1.450 1.675 9734
-1.433 1.463 1.678 11384
-1.440 1.470 1.677 16258
-1.444 1.474 1.671 21485
-1.451 1.481 1.669 21302
-1.454 1.485 1.663 16453
-1.457 1.488 1.657 11337
-1.474 1.505 1.665 7687
-1.482 1.512 1.663 6714
-1.503 1.534 1.675 6590
-1.520 1.551 1.682 9483
-1.523 1.554 1.676 10176
-1.526 1.558 1.669 8975
-1.529 1.561 1.663 6709
-1.514 1.545 1.639 4594
-1.535 1.567 1.650 6504
-1.543 1.575 1.648 9335
-1.546 1.578 1.641 12958
-1.553 1.586 1.639 17079
-1.570 1.603 1.646 16741
-1.578 1.611 1.644 16185
-1.586 1.619 1.641 13947
-1.589 1.622 1.635 14728
-1.592 1.625 1.628 16313
-1.595 1.628 1.621 15096
-1.607 1.641 1.623 11121
-1.620 1.653 1.625 6594
-1.618 1.652 1.614 4267
-1.626 1.659 1.611 4064
-1.657 1.691 1.629 7086
-1.655 1.690 1.618 9780
-1.663 1.697 1.615 8480
-1.685 1.720 1.625 5158
-1.716 1.752 1.642 3886
-1.714 1.750 1.631 5536
-1.717 1.753 1.624 6423
-1.721 1.756 1.616 5603
-1.747 1.784 1.629 4178
