-0.663 2.652 1.488 7309
-0.676 2.705 1.504 5377
-0.682 2.729 1.507 6458
-0.683 2.733 1.498 7370
-0.685 2.744 1.493 8414
-0.686 2.748 1.485 8529
-0.686 2.744 1.473 6702
-0.711 2.846 1.511 6313
-0.714 2.857 1.506 5466
-0.715 2.861 1.497 4731
-0.717 2.871 1.492 4138
-0.718 2.875 1.483 3641
-0.719 2.879 1.475 3641
-0.720 2.883 1.466 3628
-0.761 3.048 1.530 3647
-0.762 3.052 1.521 1823
-0.154 0.622 1.630 7656
-0.155 0.626 1.628 7665
-0.157 0.634 1.634 7695
-0.161 0.651 1.661 9778
-0.163 0.658 1.666 13485
-0.164 0.662 1.664 13485
-0.164 0.663 1.654 16146
-0.165 0.668 1.652 18854
-0.167 0.675 1.657 15662
-0.169 0.683 1.662 12823
-0.170 0.687 1.660 8917
-0.172 0.695 1.665 5232
-0.173 0.699 1.663 4926
-0.173 0.700 1.654 4783
-0.173 0.701 1.645 6225
-0.175 0.705 1.642 8430
-0.175 0.706 1.633 9185
-0.178 0.720 1.652 9752
-0.180 0.728 1.657 11886
-0.181 0.732 1.655 12999
-0.181 0.733 1.645 14475
-0.183 0.741 1.650 12472
-0.185 0.749 1.655 10878
-0.183 0.739 1.625 11344
-0.184 0.743 1.622 11769
-0.187 0.754 1.634 12059
-0.188 0.759 1.632 14336
-0.188 0.759 1.622 15469
-0.190 0.767 1.627 16848
-0.192 0.775 1.631 18504
-0.194 0.783 1.636 19487
-0.195 0.787 1.634 19699
-0.196 0.791 1.631 15793
-0.198 0.799 1.636 12571
-0.200 0.807 1.640 14132
-0.201 0.811 1.637 15786
-0.203 0.819 1.642 22819
-0.205 0.828 1.646 32378
-0.206 0.832 1.644 34273
-0.207 0.836 1.641 33073
-0.208 0.840 1.638 31978
-0.210 0.848 1.643 33233
-0.211 0.853 1.640 35913
-0.212 0.857 1.637 37000
-0.214 0.865 1.641 31944
-0.216 0.873 1.645 27944
-0.217 0.878 1.643 22287
-0.218 0.882 1.640 14177
-0.218 0.882 1.631 11735
-0.219 0.886 1.628 12586
-0.220 0.890 1.625 13478
-0.221 0.895 1.622 13519
-0.222 0.899 1.620 12457
-0.232 0.936 1.670 16962
-0.232 0.936 1.661 25361
-0.233 0.941 1.658 29938
-0.235 0.949 1.661 30443
-0.236 0.954 1.658 28066
-0.237 0.958 1.655 28197
-0.238 0.962 1.653 23631
-0.241 0.975 1.663 16983
-0.243 0.984 1.666 14078
-0.245 0.988 1.663 22787
-0.246 0.992 1.660 34872
-0.248 1.001 1.664 35632
-0.249 1.005 1.661 30925
-0.251 1.014 1.664 24655
-0.251 1.014 1.654 15514
-0.251 1.013 1.645 10313
-0.253 1.022 1.648 12821
-0.254 1.026 1.645 15963
-0.255 1.031 1.642 16064
-0.257 1.039 1.645 13081
-0.259 1.048 1.648 6783
-0.259 1.048 1.639 5110
-0.264 1.066 1.654 10928
-0.265 1.070 1.651 18434
-0.266 1.074 1.648 23262
-0.268 1.083 1.651 25266
-0.269 1.088 1.648 26654
-0.270 1.092 1.644 28091
-0.271 1.096 1.641 32212
-0.272 1.100 1.637 33824
-0.275 1.109 1.640 25193
-0.274 1.109 1.631 12686
-0.275 1.113 1.627 10911
-0.278 1.122 1.630 16030
-0.280 1.131 1.633 15846
-0.282 1.140 1.636 11438
-0.283 1.144 1.632 8431
-0.284 1.148 1.629 9417
-0.286 1.157 1.631 9777
-0.287 1.161 1.628 8560
-0.291 1.175 1.636 8594
-0.293 1.185 1.639 13732
-0.294 1.189 1.635 24353
-0.295 1.193 1.631 30112
-0.298 1.202 1.634 24669
-0.299 1.206 1.630 12772
-0.298 1.206 1.620 6517
-0.298 1.205 1.611 6616
-0.302 1.219 1.619 7670
-0.307 1.238 1.633 8597
-0.306 1.237 1.623 10834
-0.307 1.242 1.620 13652
-0.308 1.246 1.616 21237
-0.309 1.250 1.612 35052
-0.310 1.254 1.608 45216
-0.310 1.253 1.598 44391
-0.311 1.257 1.595 31133
-0.312 1.261 1.591 15739
-0.313 1.265 1.587 14882
-0.314 1.269 1.583 20798
-0.315 1.273 1.579 17609
-0.316 1.278 1.575 12636
-0.319 1.287 1.577 10612
-0.322 1.301 1.585 10666
-0.327 1.321 1.598 10424
-0.328 1.326 1.594 12520
-0.329 1.330 1.590 12171
-0.331 1.339 1.591 10037
-0.332 1.343 1.587 8555
-0.329 1.331 1.566 8795
-0.332 1.340 1.568 11380
-0.334 1.350 1.569 10128
-0.335 1.354 1.565 7859
-0.333 1.347 1.550 8355
-0.338 1.367 1.562 17188
-0.339 1.371 1.558 21418
-0.339 1.370 1.548 28053
-0.340 1.374 1.544 39648
-0.341 1.378 1.540 28433
-0.343 1.387 1.541 17261
-0.344 1.391 1.537 20255
-0.345 1.395 1.533 24923
-0.346 1.399 1.529 20446
-0.347 1.403 1.524 16217
-0.348 1.407 1.520 19870
-0.349 1.411 1.516 18889
-0.352 1.420 1.517 15847
-0.354 1.430 1.518 16087
-0.353 1.428 1.508 10823
-0.352 1.420 1.493 8210
-0.354 1.430 1.494 6094
-0.351 1.417 1.474 5269
-0.381 1.541 1.580 7958
-0.381 1.539 1.570 7987
-0.383 1.549 1.571 5536
-0.384 1.553 1.566 4076
-0.360 1.453 1.468 7010
-0.359 1.451 1.458 9732
-0.359 1.448 1.448 8932
-0.359 1.452 1.444 9879
-0.362 1.462 1.445 11481
-0.363 1.465 1.440 10304
-0.409 1.651 1.593 14326
-0.410 1.656 1.588 16741
-0.414 1.671 1.593 16418
-0.416 1.681 1.593 14961
-0.417 1.686 1.588 11957
-0.418 1.690 1.583 12953
-0.421 1.700 1.583 11600
-0.423 1.710 1.583 10011
-0.426 1.720 1.583 14175
-0.427 1.724 1.577 15611
-0.431 1.740 1.582 17567
-0.433 1.750 1.581 18394
-0.436 1.760 1.581 14022
-0.437 1.764 1.576 9143
-0.441 1.780 1.580 8586
-0.443 1.791 1.579 11711
-0.444 1.795 1.574 15101
-0.445 1.799 1.568 16496
-0.452 1.827 1.582 14187
-0.455 1.837 1.581 21493
-0.456 1.841 1.575 25619
-0.460 1.858 1.579 19440
-0.464 1.874 1.583 18595
-0.462 1.866 1.568 17990
-0.463 1.870 1.562 14050
-0.479 1.936 1.603 12065
-0.479 1.934 1.592 13450
-0.477 1.926 1.577 10606
-0.476 1.924 1.567 6401
-0.483 1.953 1.579 7634
-0.489 1.976 1.587 11744
-0.495 1.999 1.594 13973
-0.496 2.003 1.588 15204
-0.494 1.994 1.573 16771
-0.499 2.017 1.581 18119
-0.502 2.028 1.579 25541
-0.503 2.032 1.573 28330
-0.502 2.029 1.562 25237
-0.505 2.040 1.560 15847
-0.512 2.069 1.572 13261
-0.513 2.073 1.565 14726
-0.514 2.077 1.559 12318
-0.517 2.088 1.557 8393
-0.529 2.137 1.581 11018
-0.530 2.141 1.574 10656
-0.523 2.113 1.546 11810
-0.524 2.117 1.540 13613
-0.526 2.127 1.538 14316
-0.527 2.131 1.531 12649
-0.528 2.135 1.525 8859
-0.541 2.185 1.547 8452
-0.548 2.215 1.557 10167
-0.556 2.245 1.567 15214
-0.557 2.249 1.560 17573
-0.558 2.253 1.553 12346
-0.559 2.257 1.547 7118
-0.569 2.301 1.564 5847
-0.577 2.331 1.573 6622
-0.580 2.342 1.570 8005
-0.582 2.352 1.567 7346
-0.595 2.403 1.587 8577
-0.597 2.414 1.584 10971
-0.597 2.411 1.573 11925
-0.598 2.415 1.565 13034
-0.597 2.413 1.554 10990
-0.598 2.416 1.547 9035
-0.601 2.427 1.543 7943
-0.603 2.438 1.540 7186
-0.609 2.462 1.544 8319
-0.614 2.479 1.544 7502
-0.616 2.490 1.540 7427
-0.619 2.501 1.536 8104
-0.620 2.505 1.529 8848
-0.623 2.516 1.525 11450
-0.625 2.526 1.521 14443
-0.628 2.537 1.517 14907
-0.631 2.548 1.513 15762
-0.632 2.551 1.505 12576
-0.631 2.548 1.493 9417
-0.633 2.559 1.489 6900
-0.643 2.597 1.499 4848
-0.652 2.635 1.509 5585
-0.655 2.646 1.504 7144
-0.654 2.643 1.493 7082
-0.657 2.654 1.488 7016
-0.670 2.706 1.504 5506
-0.674 2.724 1.503 6760
-0.675 2.728 1.495 7426
-0.678 2.738 1.490 8180
-0.679 2.742 1.482 8222
-0.680 2.746 1.473 6430
-0.707 2.854 1.515 7869
-0.707 2.858 1.506 6880
-0.708 2.862 1.497 5891
-0.711 2.873 1.492 4725
-0.712 2.877 1.483 3596
-0.713 2.880 1.475 3596
-0.714 2.884 1.466 3377
-0.757 3.057 1.533 3477
-0.758 3.061 1.524 1738
-0.152 0.619 1.623 7037
-0.153 0.627 1.628 7035
-0.155 0.634 1.634 7057
-0.159 0.651 1.661 9437
-0.161 0.658 1.666 13198
-0.162 0.663 1.664 13198
-0.163 0.664 1.654 15775
-0.164 0.668 1.652 18387
-0.165 0.676 1.657 15275
-0.167 0.683 1.662 12432
-0.168 0.688 1.660 8668
-0.171 0.699 1.672 5221
-0.171 0.699 1.663 5021
-0.171 0.700 1.654 4962
-0.172 0.701 1.645 6379
-0.173 0.705 1.642 8541
-0.173 0.706 1.633 9318
-0.175 0.714 1.638 9345
-0.178 0.729 1.657 10848
-0.179 0.733 1.655 11904
-0.180 0.734 1.645 13317
-0.181 0.738 1.643 11779
-0.183 0.749 1.655 10574
-0.181 0.739 1.625 11621
-0.182 0.743 1.622 12308
-0.185 0.755 1.634 12625
-0.186 0.759 1.632 14703
-0.186 0.760 1.622 15401
-0.188 0.767 1.627 16207
-0.191 0.779 1.638 18296
-0.192 0.783 1.636 19773
-0.193 0.787 1.634 20496
-0.195 0.795 1.638 16542
-0.196 0.800 1.636 13227
-0.198 0.808 1.640 14231
-0.199 0.812 1.637 15280
-0.201 0.820 1.642 22458
-0.203 0.828 1.646 32690
-0.204 0.832 1.644 34987
-0.205 0.837 1.641 34239
-0.206 0.841 1.638 33614
-0.208 0.849 1.643 34931
-0.209 0.853 1.640 37248
-0.210 0.857 1.637 37789
-0.211 0.862 1.635 32090
-0.214 0.874 1.645 27315
-0.215 0.878 1.643 21477
-0.216 0.882 1.640 13159
-0.215 0.878 1.624 10956
-0.217 0.887 1.628 12399
-0.218 0.891 1.625 13166
-0.220 0.899 1.629 12473
-0.220 0.899 1.620 11345
-0.229 0.937 1.670 16851
-0.229 0.937 1.661 25783
-0.230 0.941 1.658 30229
-0.233 0.950 1.661 31181
-0.234 0.954 1.658 29422
-0.235 0.958 1.655 30163
-0.236 0.963 1.653 25440
-0.239 0.976 1.663 18228
-0.241 0.984 1.666 14916
-0.242 0.988 1.663 23862
-0.243 0.993 1.660 35540
-0.245 1.001 1.664 34888
-0.246 1.006 1.661 29689
-0.248 1.014 1.664 23958
-0.248 1.014 1.654 15552
-0.248 1.014 1.645 11213
-0.250 1.023 1.648 13211
-0.251 1.027 1.645 15465
-0.254 1.036 1.648 15217
-0.255 1.040 1.645 12738
-0.257 1.049 1.648 7286
-0.261 1.067 1.664 5356
-0.262 1.071 1.661 8838
-0.262 1.071 1.651 14536
-0.263 1.075 1.648 20232
-0.264 1.079 1.645 23326
-0.266 1.088 1.648 25703
-0.267 1.092 1.644 28143
-0.269 1.097 1.641 32373
-0.270 1.101 1.637 33876
-0.272 1.110 1.640 24893
-0.272 1.109 1.631 12939
-0.273 1.114 1.627 12292
-0.275 1.123 1.630 17854
-0.277 1.132 1.633 17186
-0.278 1.136 1.629 12647
-0.280 1.145 1.632 8635
-0.281 1.149 1.629 9074
-0.284 1.158 1.631 10480
-0.285 1.162 1.628 10657
-0.288 1.176 1.636 10316
-0.290 1.185 1.639 14249
-0.291 1.190 1.635 23691
-0.294 1.199 1.637 28973
-0.295 1.203 1.634 25038
-0.296 1.207 1.630 14512
-0.299 1.221 1.638 7831
-0.295 1.206 1.611 6194
-0.300 1.225 1.625 6331
-0.303 1.239 1.633 9905
-0.303 1.238 1.623 12437
-0.304 1.242 1.620 14093
-0.305 1.247 1.616 21350
-0.306 1.251 1.612 35028
-0.307 1.255 1.608 44872
-0.307 1.254 1.598 45175
-0.308 1.258 1.595 32830
-0.309 1.262 1.591 17307
-0.310 1.266 1.587 14687
-0.311 1.270 1.583 18482
-0.312 1.274 1.579 16032
-0.313 1.278 1.575 12308
-0.315 1.288 1.577 9590
-0.320 1.308 1.590 9383
-0.324 1.322 1.598 9905
-0.325 1.326 1.594 12034
-0.324 1.325 1.584 11198
-0.325 1.329 1.580 7513
-0.325 1.328 1.570 8500
-0.325 1.326 1.561 9539
-0.328 1.341 1.568 10078
-0.329 1.345 1.564 9687
-0.330 1.349 1.560 9105
-0.331 1.353 1.555 10589
-0.334 1.363 1.557 16385
-0.335 1.367 1.553 24643
-0.336 1.371 1.548 33840
-0.337 1.375 1.544 36156
-0.338 1.379 1.540 25423
-0.339 1.383 1.536 16827
-0.341 1.392 1.537 18526
-0.342 1.396 1.533 24727
-0.341 1.394 1.523 21874
-0.342 1.398 1.519 16687
-0.345 1.408 1.520 19331
-0.346 1.412 1.516 19549
-0.348 1.421 1.517 16793
-0.350 1.431 1.518 15373
-0.350 1.429 1.508 10261
-0.348 1.421 1.493 7923
-0.373 1.522 1.579 6750
-0.375 1.532 1.579 7523
-0.378 1.542 1.580 9973
-0.377 1.540 1.570 8406
-0.380 1.550 1.571 5541
-0.382 1.560 1.571 4267
-0.356 1.454 1.468 7178
-0.355 1.451 1.458 10456
-0.355 1.449 1.448 9116
-0.354 1.447 1.439 9690
-0.358 1.463 1.445 11460
-0.359 1.466 1.440 10502
-0.405 1.653 1.593 15401
-0.406 1.657 1.588 16255
-0.410 1.673 1.593 16804
-0.412 1.683 1.593 17153
-0.413 1.687 1.588 13958
-0.414 1.691 1.583 14220
-0.416 1.701 1.583 13047
-0.419 1.711 1.583 11575
-0.421 1.721 1.583 15253
-0.422 1.725 1.577 16532
-0.426 1.741 1.582 19218
-0.430 1.757 1.586 19853
-0.431 1.761 1.581 15044
-0.432 1.765 1.576 9767
-0.436 1.782 1.580 8805
-0.439 1.792 1.579 11733
-0.440 1.796 1.574 15707
-0.441 1.800 1.568 18652
-0.443 1.810 1.568 15926
-0.450 1.839 1.581 22595
-0.451 1.843 1.575 27630
-0.455 1.859 1.579 21925
-0.459 1.875 1.583 20485
-0.457 1.867 1.568 18870
-0.458 1.871 1.562 15007
-0.474 1.938 1.603 11435
-0.474 1.935 1.592 11140
-0.472 1.927 1.577 9411
-0.473 1.931 1.571 7510
-0.480 1.960 1.584 9643
-0.484 1.977 1.587 14014
-0.488 1.994 1.590 15372
-0.491 2.004 1.588 15478
-0.489 1.995 1.573 15380
-0.494 2.018 1.581 16719
-0.497 2.029 1.579 24543
-0.498 2.033 1.573 28254
-0.497 2.031 1.562 26368
-0.500 2.041 1.560 17343
-0.509 2.077 1.576 15013
-0.510 2.081 1.570 16285
-0.511 2.085 1.563 13557
-0.516 2.108 1.570 9508
-0.522 2.132 1.576 11223
-0.520 2.123 1.561 11119
-0.519 2.120 1.551 12275
-0.520 2.124 1.544 14224
-0.521 2.128 1.538 15168
-0.522 2.132 1.531 13580
-0.523 2.136 1.525 9663
-0.534 2.179 1.543 8443
-0.543 2.216 1.557 10331
-0.548 2.240 1.563 15546
-0.551 2.250 1.560 17541
-0.552 2.254 1.553 12044
-0.551 2.252 1.542 6602
-0.565 2.309 1.568 5936
-0.571 2.333 1.573 7778
-0.574 2.343 1.570 9728
-0.575 2.347 1.563 9154
-0.589 2.405 1.587 9485
-0.591 2.415 1.584 12105
-0.591 2.413 1.573 12865
-0.592 2.417 1.565 13750
-0.591 2.414 1.554 11333
-0.592 2.418 1.547 8921
-0.593 2.422 1.539 8433
-0.596 2.433 1.536 8059
-0.598 2.443 1.532 8446
-0.607 2.481 1.544 6984
-0.612 2.499 1.544 7014
-0.613 2.502 1.536 7864
-0.614 2.506 1.529 8714
-0.616 2.517 1.525 11468
-0.619 2.528 1.521 14484
-0.622 2.538 1.517 14879
-0.624 2.549 1.513 15870
-0.625 2.553 1.505 12790
-0.626 2.557 1.497 9709
-0.627 2.561 1.489 7198
-0.636 2.599 1.499 4959
-0.646 2.637 1.509 5685
-0.647 2.641 1.501 6892
-0.648 2.645 1.493 6834
-0.650 2.656 1.488 6744
-0.663 2.708 1.504 5581
-0.667 2.725 1.503 7002
-0.668 2.729 1.495 7472
-0.669 2.733 1.487 7884
-0.670 2.737 1.478 7826
-0.700 2.859 1.527 7359
-0.699 2.856 1.515 9099
-0.700 2.860 1.506 7801
-0.703 2.871 1.501 6532
-0.702 2.868 1.489 4771
-0.703 2.871 1.480 3040
-0.704 2.875 1.471 3040
-0.707 2.886 1.466 2617
-0.749 3.059 1.533 3244
-0.750 3.063 1.524 1622
-0.150 0.620 1.623 6703
-0.152 0.627 1.628 6558
-0.154 0.634 1.634 6512
-0.158 0.651 1.661 9079
-0.159 0.656 1.659 12850
-0.160 0.660 1.656 12850
-0.161 0.664 1.654 15416
-0.162 0.668 1.652 17982
-0.164 0.676 1.657 15077
-0.166 0.684 1.662 12392
-0.167 0.688 1.660 8717
-0.170 0.699 1.672 5482
-0.170 0.700 1.663 5333
-0.170 0.701 1.654 5343
-0.170 0.702 1.645 6791
-0.171 0.706 1.642 9104
-0.172 0.707 1.633 9901
-0.173 0.714 1.638 9574
-0.177 0.729 1.657 10015
-0.177 0.730 1.648 10830
-0.177 0.730 1.638 11945
-0.178 0.735 1.636 10989
-0.179 0.735 1.627 10116
-0.180 0.739 1.625 11870
-0.181 0.747 1.629 13013
-0.183 0.755 1.634 13523
-0.184 0.759 1.632 15525
-0.184 0.760 1.622 15498
-0.186 0.768 1.627 15736
-0.189 0.779 1.638 18508
-0.190 0.784 1.636 20219
-0.191 0.788 1.634 21322
-0.193 0.796 1.638 17214
-0.194 0.800 1.636 13619
-0.196 0.808 1.640 14101
-0.197 0.812 1.637 14605
-0.199 0.820 1.642 21886
-0.201 0.828 1.646 32918
-0.202 0.833 1.644 35818
-0.203 0.837 1.641 35482
-0.204 0.841 1.638 35245
-0.206 0.849 1.643 36395
-0.207 0.854 1.640 37990
-0.208 0.858 1.637 37918
-0.209 0.862 1.635 31743
-0.212 0.874 1.645 25921
-0.213 0.879 1.643 20091
-0.214 0.883 1.640 11967
-0.213 0.879 1.624 10307
-0.215 0.887 1.628 12244
-0.217 0.895 1.632 13245
-0.219 0.904 1.636 12164
-0.219 0.904 1.626 10660
-0.228 0.937 1.670 16754
-0.228 0.937 1.661 25684
-0.229 0.942 1.658 30016
-0.231 0.950 1.661 31530
-0.232 0.955 1.658 30417
-0.233 0.959 1.655 31617
-0.235 0.967 1.659 27008
-0.237 0.976 1.663 19286
-0.239 0.985 1.666 15504
-0.240 0.989 1.663 24561
-0.241 0.993 1.660 35718
-0.243 1.002 1.664 33753
-0.244 1.006 1.661 28282
-0.246 1.015 1.664 23204
-0.246 1.015 1.654 15621
-0.246 1.015 1.645 12218
-0.248 1.023 1.648 14046
-0.249 1.028 1.645 15372
-0.252 1.036 1.648 14912
-0.254 1.045 1.651 12731
-0.255 1.049 1.648 8023
-0.258 1.063 1.658 7268
-0.260 1.072 1.661 8230
-0.261 1.076 1.658 10838
-0.261 1.076 1.648 17254
-0.262 1.080 1.645 21501
-0.264 1.089 1.648 24467
-0.265 1.093 1.644 27280
-0.266 1.097 1.641 30958
-0.267 1.101 1.637 32323
-0.268 1.106 1.634 23708
-0.269 1.110 1.631 13038
-0.270 1.114 1.627 13378
-0.273 1.123 1.630 18880
-0.274 1.127 1.627 18263
-0.276 1.136 1.629 14411
-0.277 1.140 1.626 9711
-0.279 1.149 1.629 8946
-0.280 1.154 1.625 10900
-0.282 1.163 1.628 12352
-0.283 1.167 1.624 12204
-0.287 1.181 1.633 15165
-0.289 1.190 1.635 23057
-0.291 1.199 1.637 26589
-0.293 1.209 1.640 24084
-0.294 1.213 1.636 16754
-0.297 1.222 1.638 10282
-0.293 1.206 1.611 6762
-0.301 1.240 1.643 6472
-0.301 1.240 1.633 10893
-0.301 1.239 1.623 13420
-0.302 1.243 1.620 13861
-0.303 1.247 1.616 21479
-0.304 1.251 1.612 35194
-0.305 1.255 1.608 44290
-0.305 1.254 1.598 44292
-0.306 1.259 1.595 31819
-0.307 1.263 1.591 18277
-0.308 1.267 1.587 14795
-0.309 1.271 1.583 14859
-0.310 1.275 1.579 13331
-0.311 1.279 1.575 12391
-0.311 1.283 1.571 10743
-0.316 1.303 1.585 9913
-0.321 1.323 1.598 10583
-0.321 1.322 1.588 12571
-0.321 1.320 1.578 12242
-0.320 1.319 1.569 8162
-0.323 1.328 1.570 9924
-0.324 1.333 1.566 10875
-0.326 1.342 1.568 8607
-0.325 1.341 1.558 8661
-0.328 1.350 1.560 12032
-0.329 1.354 1.555 15508
-0.330 1.358 1.551 20169
-0.331 1.362 1.547 34115
-0.332 1.366 1.543 41720
-0.334 1.375 1.544 30928
-0.335 1.379 1.540 21483
-0.336 1.383 1.536 16968
-0.338 1.393 1.537 17408
-0.339 1.397 1.533 23716
-0.339 1.395 1.523 22681
-0.340 1.399 1.519 16869
-0.342 1.408 1.520 17066
-0.343 1.412 1.516 17439
-0.345 1.422 1.517 16510
-0.348 1.431 1.518 15246
-0.346 1.424 1.503 10258
-0.345 1.422 1.493 7947
-0.370 1.523 1.579 8968
-0.372 1.533 1.579 10710
-0.375 1.543 1.580 12017
-0.376 1.547 1.575 8664
-0.378 1.556 1.576 5101
-0.380 1.566 1.576 4943
-0.385 1.588 1.587 8133
-0.353 1.452 1.458 10565
-0.352 1.450 1.448 8782
-0.352 1.448 1.439 8955
-0.355 1.463 1.445 10566
-0.402 1.655 1.604 11273
-0.401 1.653 1.593 17738
-0.402 1.657 1.588 17511
-0.405 1.667 1.588 17877
-0.409 1.683 1.593 19000
-0.410 1.687 1.588 15430
-0.411 1.692 1.583 14963
-0.413 1.702 1.583 14008
-0.416 1.712 1.583 12891
-0.418 1.722 1.583 15885
-0.419 1.726 1.577 16937
-0.423 1.742 1.582 20316
-0.425 1.752 1.581 20502
-0.428 1.762 1.581 15697
-0.427 1.760 1.571 10746
-0.431 1.776 1.575 9523
-0.435 1.793 1.579 11885
-0.436 1.797 1.574 16133
-0.437 1.801 1.568 20257
-0.440 1.811 1.568 17480
-0.447 1.839 1.581 22600
-0.449 1.850 1.580 28567
-0.453 1.866 1.584 24154
-0.456 1.876 1.583 21906
-0.455 1.874 1.573 19202
-0.455 1.872 1.562 15391
-0.469 1.932 1.598 10877
-0.470 1.936 1.592 9382
-0.468 1.928 1.577 8930
-0.471 1.938 1.576 9923
-0.476 1.961 1.584 12720
-0.480 1.978 1.587 16682
-0.484 1.994 1.590 17108
-0.487 2.005 1.588 15808
-0.486 2.003 1.578 13799
-0.490 2.019 1.581 15110
-0.493 2.030 1.579 23259
-0.492 2.027 1.568 27995
-0.493 2.031 1.562 27177
-0.496 2.042 1.560 18554
-0.506 2.084 1.580 16423
-0.505 2.082 1.570 17323
-0.506 2.086 1.563 14677
-0.512 2.109 1.570 11051
-0.515 2.120 1.568 12081
-0.516 2.124 1.561 11925
-0.515 2.121 1.551 12478
-0.516 2.125 1.544 14302
-0.517 2.129 1.538 15441
-0.518 2.133 1.531 14129
-0.519 2.137 1.525 10353
-0.529 2.180 1.543 8482
-0.538 2.217 1.557 10549
-0.544 2.241 1.563 15604
-0.547 2.251 1.560 16929
-0.546 2.249 1.549 11498
-0.544 2.240 1.534 6443
-0.562 2.316 1.572 6274
-0.567 2.334 1.573 9229
-0.569 2.344 1.570 11816
-0.570 2.348 1.563 11368
-0.584 2.406 1.587 10248
-0.587 2.416 1.584 12996
-0.586 2.414 1.573 13537
-0.585 2.411 1.561 14230
-0.586 2.415 1.554 11408
-0.587 2.419 1.547 8586
-0.588 2.423 1.539 8710
-0.589 2.427 1.532 8791
-0.592 2.438 1.528 8655
-0.596 2.455 1.529 6424
-0.607 2.500 1.544 6554
-0.608 2.504 1.536 7515
-0.609 2.508 1.529 8476
-0.611 2.518 1.525 11284
-0.614 2.529 1.521 14207
-0.617 2.540 1.517 14456
-0.619 2.550 1.513 15459
-0.620 2.554 1.505 12583
-0.621 2.558 1.497 9707
-0.624 2.569 1.493 7283
-0.633 2.607 1.503 4968
-0.641 2.638 1.509 5702
-0.642 2.642 1.501 6616
-0.642 2.646 1.493 6562
-0.645 2.657 1.488 6479
-0.658 2.709 1.504 5630
-0.660 2.720 1.500 7236
-0.661 2.724 1.491 7465
-0.662 2.727 1.483 7562
-0.665 2.738 1.478 7458
-0.693 2.854 1.523 8395
-0.694 2.857 1.515 10104
-0.695 2.861 1.506 8617
-0.697 2.872 1.501 7206
-0.697 2.869 1.489 4985
-0.694 2.859 1.474 3013
-0.695 2.862 1.465 3013
-0.701 2.887 1.466 2480
-0.745 3.067 1.536 2930
-0.746 3.071 1.527 1465
-0.149 0.620 1.623 6374
-0.151 0.627 1.628 6191
-0.152 0.635 1.634 6289
-0.156 0.648 1.653 8953
-0.157 0.656 1.659 12621
-0.158 0.660 1.656 12621
-0.159 0.665 1.654 14907
-0.161 0.672 1.660 17217
-0.162 0.676 1.657 14388
-0.164 0.684 1.662 11743
-0.166 0.692 1.667 8253
-0.168 0.699 1.672 5166
-0.168 0.700 1.663 5128
-0.168 0.701 1.654 5255
-0.168 0.702 1.645 6853
-0.170 0.706 1.642 9360
-0.170 0.707 1.633 10212
-0.172 0.715 1.638 9683
-0.175 0.729 1.657 9482
-0.174 0.727 1.641 10069
-0.175 0.731 1.638 10800
-0.176 0.735 1.636 10299
-0.177 0.736 1.627 9977
-0.178 0.740 1.625 12082
-0.179 0.748 1.629 13717
-0.181 0.756 1.634 14436
-0.182 0.760 1.632 16449
-0.182 0.760 1.622 15861
-0.185 0.772 1.634 15729
-0.187 0.780 1.638 18824
-0.188 0.784 1.636 20681
-0.189 0.788 1.634 22004
-0.191 0.796 1.638 17805
-0.193 0.804 1.642 14048
-0.194 0.809 1.640 14007
-0.195 0.813 1.637 13966
-0.197 0.821 1.642 21103
-0.199 0.829 1.646 32406
-0.200 0.833 1.644 35718
-0.201 0.838 1.641 35983
-0.202 0.842 1.638 36338
-0.204 0.850 1.643 37307
-0.205 0.854 1.640 37999
-0.206 0.858 1.637 37225
-0.207 0.863 1.635 30831
-0.210 0.875 1.645 24178
-0.211 0.879 1.643 18534
-0.212 0.883 1.640 10987
-0.211 0.879 1.624 9962
-0.213 0.888 1.628 12197
-0.215 0.896 1.632 13451
-0.217 0.904 1.636 12138
-0.217 0.904 1.626 10340
-0.224 0.934 1.663 16080
-0.225 0.938 1.661 24541
-0.226 0.942 1.658 28769
-0.228 0.951 1.661 30890
-0.229 0.955 1.658 30345
-0.230 0.959 1.655 31713
-0.232 0.968 1.659 27558
-0.234 0.977 1.663 19930
-0.236 0.985 1.666 16262
-0.238 0.990 1.663 25473
-0.239 0.994 1.660 36178
-0.241 1.003 1.664 32919
-0.242 1.007 1.661 27242
-0.244 1.016 1.664 22815
-0.244 1.015 1.654 15854
-0.244 1.015 1.645 13007
-0.246 1.024 1.648 14565
-0.247 1.028 1.645 15016
-0.249 1.037 1.648 14468
-0.251 1.046 1.651 12771
-0.252 1.050 1.648 8664
-0.254 1.059 1.651 8942
-0.256 1.068 1.654 8988
-0.258 1.077 1.658 9337
-0.258 1.076 1.648 15795
-0.259 1.080 1.645 20991
-0.261 1.089 1.648 24561
-0.262 1.094 1.644 27547
-0.264 1.098 1.641 29836
-0.265 1.102 1.637 30282
-0.266 1.106 1.634 22458
-0.267 1.111 1.631 13299
-0.268 1.115 1.627 13959
-0.269 1.119 1.624 18449
-0.271 1.128 1.627 17980
-0.273 1.137 1.629 15372
-0.274 1.141 1.626 10970
-0.275 1.145 1.622 8833
-0.277 1.154 1.625 10118
-0.278 1.159 1.621 11955
-0.279 1.163 1.618 12765
-0.284 1.182 1.633 15866
-0.286 1.191 1.635 23077
-0.288 1.200 1.637 24746
-0.290 1.209 1.640 23406
-0.292 1.218 1.642 18772
-0.293 1.223 1.638 12186
-0.290 1.207 1.611 6889
-0.298 1.241 1.643 7529
-0.298 1.240 1.633 11810
-0.298 1.240 1.623 13111
-0.299 1.244 1.620 12030
-0.300 1.248 1.616 21016
-0.301 1.252 1.612 35489
-0.302 1.256 1.608 44050
-0.301 1.255 1.598 43619
-0.302 1.259 1.595 30695
-0.303 1.263 1.591 18734
-0.304 1.268 1.587 14889
-0.305 1.272 1.583 12611
-0.306 1.276 1.579 12037
-0.307 1.280 1.575 11680
-0.308 1.284 1.571 10826
-0.313 1.304 1.585 10936
-0.318 1.324 1.598 12254
-0.319 1.328 1.594 13888
-0.316 1.316 1.573 13443
-0.317 1.320 1.569 11222
-0.319 1.329 1.570 15537
-0.321 1.339 1.572 17157
-0.322 1.343 1.568 11460
-0.322 1.341 1.558 10953
-0.323 1.345 1.554 17470
-0.325 1.355 1.555 21510
-0.325 1.353 1.546 30091
-0.326 1.357 1.542 45858
-0.328 1.367 1.543 45341
-0.329 1.371 1.539 26897
-0.330 1.375 1.535 19900
-0.332 1.384 1.536 19810
-0.334 1.394 1.537 18407
-0.335 1.398 1.533 22670
-0.335 1.396 1.523 22467
-0.336 1.400 1.519 15768
-0.337 1.404 1.515 13463
-0.339 1.413 1.516 13994
-0.341 1.423 1.517 15302
-0.344 1.432 1.518 14738
-0.342 1.425 1.503 10273
-0.340 1.417 1.488 8477
-0.367 1.530 1.584 10943
-0.368 1.534 1.579 13122
-0.370 1.544 1.580 13233
-0.373 1.553 1.581 8719
-0.375 1.563 1.581 4372
-0.378 1.573 1.582 5525
-0.380 1.583 1.582 10337
-0.382 1.593 1.582 11833
-0.348 1.451 1.448 7944
-0.348 1.449 1.439 8011
-0.351 1.464 1.445 9150
-0.397 1.656 1.604 13300
-0.397 1.654 1.593 19852
-0.398 1.658 1.588 19168
-0.400 1.668 1.588 19096
-0.403 1.678 1.588 19998
-0.405 1.688 1.588 16001
-0.406 1.693 1.583 15008
-0.409 1.703 1.583 14237
-0.411 1.713 1.583 13516
-0.413 1.723 1.583 15767
-0.414 1.727 1.577 16580
-0.418 1.743 1.582 20519
-0.421 1.753 1.581 20530
-0.423 1.763 1.581 16369
-0.423 1.761 1.571 12678
-0.425 1.771 1.570 11139
-0.431 1.794 1.579 12055
-0.431 1.798 1.574 16057
-0.432 1.802 1.568 20821
-0.435 1.812 1.568 18090
-0.442 1.841 1.581 21963
-0.444 1.851 1.580 28729
-0.448 1.867 1.584 25617
-0.451 1.878 1.583 22560
-0.450 1.875 1.573 18966
-0.450 1.873 1.562 14990
-0.461 1.921 1.589 11042
-0.464 1.931 1.588 9515
-0.465 1.935 1.582 10283
-0.465 1.939 1.576 13107
-0.471 1.962 1.584 15856
-0.475 1.979 1.587 18912
-0.477 1.989 1.585 18539
-0.480 2.000 1.584 16084
-0.481 2.004 1.578 12580
-0.483 2.014 1.576 13633
-0.487 2.031 1.579 21948
-0.487 2.029 1.568 27729
-0.488 2.033 1.562 27554
-0.492 2.050 1.565 19361
-0.501 2.086 1.580 17196
-0.502 2.090 1.574 17439
-0.501 2.087 1.563 15407
-0.504 2.098 1.561 12671
-0.508 2.115 1.564 13029
-0.509 2.119 1.557 12748
-0.509 2.123 1.551 12532
-0.510 2.127 1.544 13997
-0.511 2.131 1.538 15287
-0.512 2.135 1.531 14279
-0.513 2.139 1.525 10789
-0.524 2.182 1.543 8531
-0.534 2.225 1.561 11379
-0.537 2.236 1.559 15505
-0.539 2.246 1.556 16082
-0.539 2.244 1.545 10913
-0.536 2.234 1.530 6578
-0.556 2.318 1.572 6899
-0.560 2.335 1.573 10609
-0.563 2.346 1.570 13800
-0.564 2.350 1.563 13424
-0.562 2.341 1.548 11456
-0.579 2.411 1.580 13429
-0.580 2.415 1.573 13711
-0.579 2.413 1.561 14187
-0.580 2.417 1.554 11103
-0.581 2.421 1.547 8018
-0.582 2.425 1.539 8705
-0.583 2.429 1.532 9337
-0.585 2.439 1.528 8782
-0.588 2.450 1.525 6182
-0.600 2.501 1.544 6086
-0.603 2.512 1.540 7132
-0.604 2.516 1.532 8244
-0.605 2.520 1.525 10947
-0.607 2.531 1.521 13693
-0.610 2.541 1.517 13714
-0.613 2.552 1.513 14584
-0.613 2.556 1.505 11966
-0.616 2.567 1.501 9384
-0.615 2.564 1.489 7078
-0.634 2.643 1.521 4880
-0.634 2.640 1.509 5589
-0.633 2.637 1.497 6318
-0.635 2.648 1.493 6288
-0.638 2.658 1.488 6240
-0.651 2.711 1.504 5667
-0.653 2.722 1.500 7389
-0.654 2.725 1.491 7432
-0.683 2.848 1.541 7471
-0.684 2.851 1.532 7471
-0.685 2.855 1.523 9157
-0.686 2.859 1.515 10843
-0.689 2.870 1.509 9291
-0.690 2.874 1.501 7782
-0.689 2.871 1.489 5382
-0.687 2.861 1.474 3356
-0.687 2.864 1.465 3356
-0.693 2.889 1.466 2775
-0.699 2.914 1.467 2834
-0.700 2.918 1.458 1417
-0.148 0.620 1.623 5959
-0.150 0.631 1.636 5990
-0.152 0.638 1.641 6611
-0.155 0.649 1.653 9191
-0.156 0.656 1.659 12515
-0.157 0.661 1.656 12515
-0.158 0.665 1.654 14252
-0.160 0.672 1.660 16095
-0.161 0.677 1.657 13167
-0.163 0.684 1.662 10477
-0.165 0.692 1.667 7377
-0.167 0.700 1.672 4449
-0.167 0.701 1.663 4552
-0.167 0.701 1.654 4780
-0.167 0.702 1.645 6675
-0.168 0.703 1.635 9435
-0.169 0.707 1.633 10305
-0.170 0.711 1.631 9712
-0.172 0.723 1.643 9177
-0.173 0.727 1.641 9608
-0.174 0.731 1.638 10040
-0.174 0.732 1.629 9930
-0.175 0.736 1.627 10050
-0.176 0.740 1.625 12411
-0.178 0.748 1.629 14430
-0.180 0.756 1.634 15199
-0.181 0.760 1.632 17067
-0.181 0.761 1.622 16233
-0.184 0.772 1.634 15829
-0.186 0.780 1.638 18901
-0.187 0.784 1.636 21054
-0.188 0.789 1.634 22685
-0.190 0.797 1.638 18470
-0.192 0.805 1.642 14752
-0.193 0.809 1.640 14242
-0.194 0.813 1.637 13733
-0.196 0.821 1.642 20532
-0.198 0.829 1.646 31615
-0.199 0.834 1.644 35178
-0.200 0.838 1.641 36194
-0.201 0.842 1.638 37284
-0.203 0.850 1.643 37974
-0.204 0.854 1.640 37736
-0.205 0.859 1.637 36400
-0.206 0.863 1.635 29887
-0.208 0.871 1.639 22806
-0.210 0.879 1.643 17017
-0.211 0.884 1.640 10287
-0.210 0.880 1.624 9892
-0.212 0.888 1.628 12331
-0.215 0.901 1.639 13382
-0.217 0.909 1.642 11912
-0.216 0.905 1.626 9906
-0.223 0.934 1.663 15360
-0.224 0.938 1.661 23185
-0.225 0.943 1.658 27298
-0.227 0.951 1.661 29922
-0.228 0.956 1.658 29696
-0.229 0.960 1.655 30835
-0.231 0.968 1.659 26972
-0.233 0.977 1.663 19779
-0.234 0.981 1.660 16517
-0.236 0.990 1.663 25511
-0.237 0.994 1.660 35519
-0.239 1.003 1.664 31507
-0.241 1.012 1.667 26099
-0.242 1.016 1.664 22379
-0.241 1.011 1.648 15912
-0.242 1.016 1.645 13286
-0.244 1.024 1.648 14761
-0.245 1.029 1.645 14611
-0.248 1.042 1.655 14178
-0.249 1.046 1.651 13130
-0.250 1.050 1.648 9064
-0.252 1.059 1.651 9653
-0.255 1.068 1.654 10410
-0.256 1.072 1.651 9741
-0.255 1.072 1.642 15262
-0.258 1.081 1.645 20821
-0.259 1.085 1.641 24770
-0.260 1.089 1.638 27568
-0.261 1.094 1.635 27918
-0.263 1.103 1.637 27126
-0.264 1.107 1.634 20600
-0.264 1.106 1.625 13378
-0.265 1.110 1.621 13815
-0.267 1.119 1.624 16980
-0.269 1.128 1.627 16752
-0.271 1.137 1.629 16327
-0.273 1.146 1.632 12853
-0.273 1.146 1.622 8546
-0.275 1.155 1.625 7434
-0.276 1.159 1.621 9498
-0.276 1.158 1.612 11970
-0.282 1.182 1.633 16074
-0.284 1.191 1.635 23044
-0.286 1.201 1.637 23465
-0.288 1.210 1.640 22852
-0.290 1.219 1.642 20487
-0.291 1.223 1.638 13534
-0.289 1.212 1.617 6648
-0.296 1.242 1.643 8304
-0.294 1.236 1.627 12890
-0.294 1.235 1.617 13646
-0.295 1.239 1.614 12120
-0.299 1.254 1.622 21542
-0.298 1.253 1.612 34620
-0.299 1.257 1.608 42735
-0.299 1.256 1.598 41967
-0.300 1.260 1.595 28744
-0.301 1.264 1.591 18107
-0.302 1.268 1.587 14474
-0.304 1.277 1.589 12364
-0.305 1.281 1.585 12802
-0.306 1.285 1.581 11301
-0.307 1.290 1.577 12123
-0.309 1.299 1.579 13666
-0.316 1.324 1.598 14266
-0.315 1.323 1.588 16413
-0.315 1.322 1.578 14934
-0.316 1.326 1.574 16012
-0.317 1.330 1.570 23076
-0.319 1.339 1.572 23895
-0.320 1.343 1.568 17422
-0.320 1.342 1.558 16740
-0.321 1.346 1.554 23534
-0.322 1.350 1.550 28394
-0.323 1.354 1.546 40305
-0.324 1.358 1.542 54373
-0.324 1.362 1.537 46364
-0.325 1.366 1.533 25356
-0.328 1.375 1.535 22639
-0.330 1.385 1.536 25245
-0.332 1.394 1.537 20697
-0.333 1.398 1.533 21785
-0.333 1.396 1.523 21535
-0.334 1.400 1.519 14118
-0.335 1.404 1.515 9397
-0.337 1.414 1.516 8915
-0.340 1.429 1.522 12784
-0.341 1.433 1.518 13852
-0.340 1.425 1.503 9930
-0.362 1.521 1.583 9481
-0.365 1.530 1.584 12421
-0.366 1.534 1.579 14398
-0.369 1.550 1.585 13371
-0.372 1.560 1.586 8686
-0.377 1.581 1.597 5054
-0.375 1.574 1.582 6789
-0.376 1.578 1.577 12194
-0.380 1.593 1.582 12974
-0.381 1.598 1.577 8350
-0.345 1.449 1.439 6950
-0.349 1.465 1.445 7480
-0.395 1.657 1.604 15409
-0.396 1.661 1.599 21790
-0.395 1.659 1.588 20821
-0.398 1.669 1.588 20377
-0.400 1.679 1.588 20633
-0.402 1.689 1.588 16085
-0.405 1.699 1.588 14484
-0.407 1.709 1.588 13967
-0.408 1.713 1.583 13651
-0.411 1.723 1.583 15135
-0.413 1.734 1.582 15738
-0.415 1.744 1.582 19926
-0.418 1.754 1.581 20076
-0.420 1.764 1.581 17265
-0.420 1.762 1.571 15202
-0.421 1.766 1.565 13641
-0.426 1.788 1.574 12539
-0.429 1.798 1.574 15544
-0.429 1.802 1.568 20446
-0.432 1.813 1.568 17983
-0.439 1.841 1.581 20877
-0.441 1.852 1.580 28032
-0.445 1.868 1.584 26230
-0.448 1.878 1.583 22635
-0.447 1.876 1.573 18375
-0.447 1.874 1.562 14282
-0.458 1.922 1.589 11865
-0.460 1.932 1.588 11629
-0.463 1.942 1.587 13095
-0.462 1.940 1.576 16485
-0.468 1.963 1.584 18710
-0.470 1.973 1.582 20750
-0.474 1.990 1.585 19543
-0.477 2.001 1.584 16459
-0.478 2.005 1.578 11771
-0.479 2.009 1.572 12431
-0.483 2.026 1.575 20492
-0.484 2.030 1.568 26891
-0.485 2.034 1.562 27189
-0.489 2.050 1.565 19425
-0.497 2.087 1.580 17213
-0.498 2.091 1.574 17109
-0.499 2.095 1.568 16190
-0.500 2.099 1.561 14501
-0.503 2.109 1.559 14098
-0.505 2.120 1.557 13512
-0.506 2.124 1.551 12527
-0.507 2.128 1.544 13484
-0.508 2.132 1.538 14796
-0.509 2.135 1.531 13989
-0.510 2.139 1.525 10817
-0.529 2.222 1.568 9078
-0.530 2.226 1.561 12710
-0.533 2.237 1.559 15370
-0.535 2.247 1.556 14926
-0.535 2.245 1.545 10565
-0.533 2.235 1.530 6865
-0.554 2.325 1.576 7492
-0.557 2.336 1.573 11768
-0.558 2.340 1.566 15539
-0.559 2.344 1.559 15296
-0.558 2.341 1.548 13527
-0.575 2.412 1.580 13507
-0.576 2.416 1.573 13506
-0.575 2.414 1.561 13792
-0.576 2.418 1.554 10638
-0.577 2.422 1.547 7484
-0.578 2.426 1.539 8661
-0.577 2.423 1.528 9795
-0.580 2.433 1.525 8922
-0.584 2.451 1.525 5973
-0.598 2.509 1.547 5718
-0.599 2.513 1.540 6818
-0.601 2.524 1.536 7918
-0.601 2.521 1.525 10396
-0.602 2.525 1.517 12874
-0.606 2.542 1.517 12542
-0.610 2.560 1.516 13182
-0.611 2.564 1.508 10950
-0.612 2.568 1.501 8718
-0.611 2.565 1.489 6595
-0.630 2.644 1.521 4831
-0.629 2.641 1.509 5347
-0.629 2.638 1.497 5993
-0.631 2.649 1.493 5945
-0.634 2.660 1.488 5956
-0.646 2.712 1.504 5700
-0.649 2.723 1.500 7470
-0.650 2.726 1.491 7321
-0.679 2.849 1.541 7817
-0.680 2.853 1.532 7817
-0.681 2.857 1.523 9383
-0.682 2.860 1.515 10948
-0.684 2.871 1.509 9416
-0.685 2.875 1.501 7896
-0.684 2.872 1.489 5538
-0.682 2.862 1.474 3549
-0.683 2.865 1.465 3549
-0.687 2.883 1.463 2890
-0.691 2.901 1.460 2686
-0.692 2.905 1.451 1343
-0.146 0.621 1.623 6090
-0.148 0.631 1.636 6248
-0.150 0.639 1.641 7236
-0.152 0.649 1.653 9589
-0.153 0.653 1.651 12392
-0.155 0.661 1.656 12384
-0.156 0.665 1.654 13281
-0.158 0.673 1.660 14307
-0.159 0.677 1.657 11564
-0.162 0.688 1.670 9183
-0.163 0.692 1.667 7047
-0.164 0.697 1.665 4910
-0.164 0.698 1.656 4948
-0.164 0.699 1.647 5042
-0.165 0.703 1.645 7143
-0.165 0.704 1.635 10003
-0.166 0.708 1.633 10767
-0.167 0.712 1.631 10003
-0.169 0.720 1.636 9166
-0.171 0.727 1.641 9188
-0.172 0.732 1.638 9297
-0.172 0.732 1.629 9660
-0.173 0.737 1.627 10216
-0.174 0.741 1.625 12758
-0.176 0.749 1.629 15047
-0.178 0.756 1.634 15838
-0.179 0.761 1.632 17594
-0.179 0.761 1.622 16568
-0.182 0.773 1.634 16000
-0.183 0.781 1.638 19057
-0.184 0.785 1.636 21358
-0.185 0.789 1.634 23159
-0.187 0.797 1.638 18897
-0.189 0.805 1.642 15243
-0.190 0.810 1.640 14488
-0.191 0.814 1.637 13733
-0.193 0.822 1.642 20238
-0.195 0.830 1.646 31023
-0.196 0.834 1.644 34748
-0.197 0.838 1.641 36152
-0.198 0.843 1.638 37601
-0.200 0.851 1.643 38022
-0.201 0.855 1.640 37192
-0.202 0.859 1.637 35550
-0.203 0.864 1.635 29053
-0.205 0.872 1.639 21853
-0.207 0.880 1.643 15795
-0.208 0.884 1.640 9756
-0.208 0.885 1.631 9741
-0.210 0.893 1.635 12574
-0.212 0.901 1.639 13546
-0.214 0.910 1.642 11851
-0.214 0.910 1.633 9745
-0.220 0.935 1.663 14513
-0.221 0.939 1.661 21632
-0.222 0.943 1.658 25532
-0.224 0.952 1.661 28452
-0.225 0.956 1.658 28477
-0.226 0.961 1.655 29219
-0.228 0.969 1.659 25285
-0.230 0.978 1.663 18645
-0.231 0.982 1.660 16088
-0.233 0.991 1.663 24650
-0.234 0.995 1.660 33740
-0.236 1.004 1.664 29578
-0.238 1.012 1.667 24849
-0.239 1.017 1.664 21727
-0.238 1.012 1.648 15383
-0.239 1.016 1.645 12951
-0.241 1.025 1.648 15186
-0.243 1.034 1.651 15206
-0.245 1.043 1.655 15166
-0.246 1.047 1.651 14456
-0.247 1.051 1.648 9422
-0.249 1.060 1.651 9343
-0.250 1.064 1.648 11215
-0.251 1.069 1.645 10977
-0.252 1.073 1.642 15886
-0.254 1.082 1.645 20811
-0.255 1.086 1.641 24654
-0.256 1.090 1.638 26541
-0.257 1.094 1.635 24796
-0.259 1.103 1.637 22663
-0.260 1.108 1.634 17631
-0.260 1.107 1.625 12132
-0.261 1.111 1.621 12442
-0.263 1.120 1.624 14933
-0.265 1.129 1.627 15914
-0.268 1.143 1.636 17838
-0.269 1.147 1.632 14715
-0.269 1.147 1.622 9397
-0.270 1.151 1.619 6559
-0.271 1.155 1.615 7914
-0.272 1.159 1.612 11622
-0.278 1.183 1.633 15829
-0.280 1.192 1.635 21661
-0.282 1.201 1.637 21352
-0.284 1.211 1.640 22248
-0.287 1.220 1.642 22153
-0.288 1.224 1.638 14878
-0.285 1.213 1.617 7267
-0.292 1.243 1.643 8476
-0.291 1.237 1.627 11266
-0.289 1.231 1.611 12724
-0.292 1.245 1.620 14708
-0.295 1.254 1.622 23461
-0.296 1.259 1.618 32778
-0.295 1.258 1.608 39678
-0.295 1.257 1.598 38219
-0.296 1.261 1.595 25251
-0.297 1.265 1.591 16494
-0.299 1.274 1.593 13227
-0.300 1.278 1.589 12524
-0.301 1.282 1.585 14746
-0.302 1.286 1.581 12494
-0.303 1.291 1.577 14017
-0.305 1.300 1.579 15707
-0.310 1.320 1.592 15423
-0.311 1.324 1.588 18380
-0.311 1.323 1.578 16739
-0.312 1.327 1.574 19247
-0.313 1.331 1.570 27998
-0.315 1.340 1.572 29494
-0.316 1.344 1.568 23211
-0.315 1.343 1.558 23700
-0.316 1.347 1.554 30856
-0.317 1.351 1.550 33445
-0.318 1.355 1.546 44815
-0.319 1.359 1.542 58271
-0.320 1.363 1.537 47477
-0.321 1.367 1.533 28256
-0.323 1.376 1.535 28400
-0.325 1.386 1.536 31249
-0.328 1.395 1.537 24275
-0.329 1.399 1.533 21346
-0.330 1.403 1.529 19144
-0.348 1.480 1.595 11827
-0.349 1.484 1.590 9086
-0.352 1.500 1.596 7866
-0.337 1.436 1.528 9544
-0.337 1.434 1.518 12614
-0.355 1.512 1.583 11088
-0.357 1.522 1.583 10710
-0.358 1.526 1.579 12957
-0.361 1.536 1.579 14331
-0.364 1.551 1.585 12491
-0.367 1.561 1.586 9470
-0.369 1.571 1.586 7327
-0.370 1.575 1.582 9189
-0.371 1.579 1.577 13525
-0.375 1.595 1.582 13119
-0.376 1.599 1.577 8627
-0.341 1.450 1.439 5683
-0.390 1.660 1.614 7540
-0.389 1.658 1.604 17538
-0.390 1.662 1.599 23484
-0.390 1.660 1.588 22337
-0.392 1.670 1.588 21811
-0.395 1.680 1.588 21155
-0.397 1.690 1.588 15881
-0.399 1.701 1.588 13451
-0.402 1.711 1.588 13166
-0.404 1.721 1.588 13358
-0.405 1.725 1.583 13912
-0.407 1.735 1.582 14288
-0.410 1.745 1.582 18625
-0.412 1.755 1.581 19424
-0.415 1.765 1.581 18384
-0.414 1.763 1.571 17818
-0.415 1.767 1.565 16323
-0.420 1.790 1.574 13240
-0.423 1.800 1.574 14531
-0.424 1.804 1.568 19020
-0.426 1.814 1.568 17104
-0.433 1.843 1.581 19286
-0.435 1.853 1.580 26557
-0.439 1.869 1.584 26141
-0.442 1.880 1.583 22405
-0.441 1.878 1.573 17692
-0.440 1.875 1.562 13449
-0.452 1.923 1.589 13123
-0.454 1.933 1.588 14960
-0.457 1.944 1.587 16410
-0.456 1.942 1.576 19609
-0.460 1.958 1.579 21070
-0.464 1.975 1.582 21971
-0.468 1.992 1.585 20087
-0.470 2.002 1.584 16949
-0.471 2.006 1.578 11541
-0.472 2.010 1.572 11350
-0.476 2.027 1.575 18921
-0.477 2.031 1.568 25451
-0.478 2.035 1.562 26089
-0.482 2.052 1.565 18851
-0.492 2.095 1.585 16734
-0.493 2.099 1.578 16599
-0.492 2.096 1.568 16990
-0.493 2.100 1.561 16627
-0.496 2.111 1.559 15632
-0.497 2.115 1.553 14353
-0.499 2.125 1.551 12295
-0.500 2.129 1.544 12473
-0.503 2.140 1.542 13845
-0.502 2.137 1.531 13306
-0.503 2.141 1.525 10539
-0.522 2.224 1.568 11282
-0.523 2.228 1.561 14269
-0.524 2.232 1.555 15236
-0.527 2.242 1.552 13571
-0.528 2.246 1.545 10232
-0.525 2.237 1.530 7117
-0.547 2.327 1.576 7941
-0.549 2.338 1.573 12633
-0.550 2.342 1.566 16973
-0.551 2.346 1.559 16819
-0.550 2.343 1.548 15217
-0.567 2.414 1.580 13215
-0.568 2.418 1.573 12950
-0.567 2.415 1.561 13031
-0.568 2.419 1.554 10103
-0.569 2.423 1.547 7175
-0.570 2.427 1.539 8698
-0.570 2.425 1.528 10265
-0.572 2.435 1.525 9120
-0.576 2.453 1.525 5931
-0.590 2.511 1.547 5453
-0.592 2.522 1.544 6474
-0.595 2.532 1.540 7527
-0.593 2.523 1.525 9538
-0.593 2.527 1.517 11639
-0.598 2.544 1.517 10888
-0.602 2.562 1.516 11265
-0.603 2.566 1.508 9475
-0.604 2.570 1.501 7685
-0.603 2.567 1.489 5843
-0.622 2.646 1.521 4625
-0.619 2.636 1.505 4971
-0.618 2.633 1.494 5592
-0.621 2.644 1.489 5478
-0.625 2.662 1.488 5547
-0.637 2.714 1.504 5573
-0.640 2.725 1.500 7317
-0.641 2.729 1.491 7008
-0.670 2.851 1.541 7643
-0.671 2.855 1.532 7643
-0.671 2.859 1.523 9005
-0.672 2.863 1.515 10367
-0.673 2.866 1.506 8972
-0.674 2.870 1.497 7576
-0.675 2.874 1.489 5418
-0.673 2.864 1.474 3607
-0.674 2.868 1.465 3607
-0.676 2.878 1.459 2892
-0.680 2.896 1.457 2513
-0.681 2.900 1.448 1256
-0.145 0.621 1.623 6206
-0.147 0.631 1.636 6581
-0.150 0.642 1.648 7852
-0.151 0.646 1.646 9835
-0.153 0.654 1.651 12099
-0.154 0.661 1.656 11869
-0.155 0.666 1.654 11857
-0.157 0.673 1.660 11985
-0.158 0.677 1.657 9745
-0.161 0.688 1.670 8016
-0.161 0.689 1.660 6857
-0.162 0.694 1.658 5824
-0.163 0.698 1.656 5747
-0.163 0.699 1.647 5703
-0.164 0.703 1.645 7873
-0.164 0.704 1.635 10642
-0.165 0.708 1.633 11302
-0.166 0.712 1.631 10282
-0.168 0.720 1.636 9148
-0.169 0.724 1.634 8906
-0.171 0.732 1.638 8796
-0.171 0.733 1.629 9579
-0.172 0.737 1.627 10494
-0.174 0.745 1.632 13276
-0.175 0.749 1.629 15832
-0.177 0.757 1.634 16604
-0.178 0.761 1.632 18155
-0.177 0.758 1.615 16859
-0.180 0.773 1.634 16146
-0.182 0.781 1.638 19232
-0.183 0.785 1.636 21631
-0.184 0.789 1.634 23532
-0.186 0.797 1.638 19208
-0.188 0.806 1.642 15553
-0.189 0.810 1.640 14677
-0.190 0.814 1.637 13802
-0.192 0.822 1.642 20037
-0.194 0.830 1.646 30440
-0.195 0.834 1.644 34239
-0.196 0.839 1.641 35807
-0.197 0.843 1.638 37383
-0.199 0.851 1.643 37439
-0.200 0.855 1.640 36050
-0.200 0.856 1.631 34248
-0.202 0.864 1.635 27960
-0.204 0.872 1.639 20913
-0.206 0.880 1.643 14663
-0.207 0.889 1.647 9348
-0.208 0.889 1.637 9768
-0.209 0.893 1.635 12918
-0.210 0.902 1.639 13977
-0.213 0.914 1.649 12334
-0.212 0.910 1.633 9885
-0.218 0.935 1.663 13839
-0.219 0.939 1.661 20134
-0.220 0.944 1.658 23961
-0.222 0.952 1.661 27253
-0.223 0.957 1.658 27466
-0.224 0.961 1.655 27649
-0.226 0.969 1.659 23408
-0.228 0.978 1.663 17133
-0.230 0.987 1.666 15210
-0.231 0.991 1.663 23023
-0.233 1.000 1.667 31155
-0.234 1.004 1.664 27411
-0.236 1.013 1.667 23571
-0.237 1.017 1.664 20996
-0.237 1.017 1.654 14681
-0.237 1.017 1.645 12289
-0.239 1.025 1.648 15474
-0.241 1.034 1.651 16014
-0.243 1.043 1.655 16341
-0.244 1.047 1.651 16116
-0.245 1.052 1.648 10627
-0.248 1.060 1.651 9455
-0.249 1.065 1.648 11829
-0.248 1.064 1.638 12394
-0.251 1.073 1.642 16746
-0.252 1.077 1.638 21019
-0.254 1.086 1.641 24440
-0.255 1.091 1.638 25071
-0.256 1.095 1.635 21163
-0.258 1.104 1.637 17970
-0.259 1.108 1.634 14743
-0.259 1.107 1.625 11070
-0.260 1.112 1.621 10847
-0.260 1.116 1.618 12546
-0.264 1.130 1.627 15218
-0.267 1.143 1.636 19237
-0.268 1.148 1.632 16110
-0.268 1.147 1.622 10477
-0.270 1.156 1.625 7039
-0.270 1.155 1.615 6833
-0.271 1.160 1.612 10672
-0.276 1.183 1.633 14802
-0.278 1.193 1.635 19248
-0.281 1.202 1.637 19076
-0.284 1.216 1.646 21536
-0.285 1.220 1.642 22585
-0.286 1.225 1.638 15119
-0.282 1.209 1.611 7720
-0.290 1.243 1.643 7847
-0.290 1.242 1.633 9049
-0.289 1.236 1.617 12736
-0.292 1.251 1.626 19334
-0.293 1.255 1.622 25555
-0.294 1.259 1.618 30932
-0.294 1.258 1.608 36719
-0.293 1.257 1.598 34580
-0.294 1.261 1.595 22124
-0.295 1.265 1.591 15250
-0.298 1.275 1.593 12714
-0.300 1.284 1.595 13596
-0.299 1.283 1.585 16701
-0.300 1.287 1.581 13116
-0.301 1.291 1.577 14685
-0.304 1.300 1.579 16437
-0.308 1.320 1.592 15986
-0.309 1.324 1.588 19944
-0.310 1.329 1.584 18251
-0.310 1.327 1.574 21133
-0.311 1.331 1.570 31328
-0.313 1.341 1.572 33717
-0.314 1.345 1.568 27853
-0.314 1.343 1.558 30321
-0.315 1.347 1.554 38082
-0.315 1.351 1.550 37932
-0.316 1.355 1.546 47096
-0.317 1.359 1.542 59613
-0.318 1.363 1.537 48222
-0.318 1.362 1.528 31224
-0.321 1.377 1.535 33430
-0.324 1.386 1.536 35794
-0.326 1.396 1.537 27384
-0.327 1.400 1.533 21222
-0.346 1.482 1.605 18880
-0.346 1.481 1.595 15474
-0.348 1.490 1.596 12360
-0.350 1.500 1.596 10458
-0.350 1.499 1.587 11086
-0.352 1.508 1.587 12722
-0.353 1.512 1.583 11884
-0.355 1.522 1.583 11439
-0.356 1.526 1.579 12640
-0.359 1.536 1.579 13102
-0.362 1.552 1.585 11351
-0.365 1.561 1.586 11287
-0.365 1.566 1.581 10929
-0.366 1.570 1.576 11508
-0.369 1.579 1.577 14056
-0.371 1.589 1.577 12390
-0.373 1.599 1.577 8139
-0.374 1.603 1.573 4448
-0.388 1.660 1.614 8684
-0.387 1.659 1.604 19579
-0.387 1.657 1.593 25038
-0.388 1.661 1.588 23631
-0.390 1.671 1.588 23044
-0.392 1.681 1.588 21262
-0.395 1.691 1.588 15198
-0.397 1.701 1.588 11947
-0.401 1.717 1.593 12077
-0.402 1.721 1.588 12797
-0.403 1.725 1.583 12377
-0.405 1.735 1.582 12456
-0.407 1.746 1.582 16821
-0.410 1.756 1.581 18630
-0.412 1.766 1.581 19442
-0.412 1.764 1.571 20026
-0.413 1.768 1.565 18505
-0.416 1.784 1.570 13946
-0.420 1.800 1.574 13217
-0.421 1.804 1.568 16915
-0.424 1.815 1.568 15816
-0.430 1.843 1.581 17288
-0.433 1.854 1.580 24344
-0.437 1.870 1.584 25211
-0.439 1.880 1.583 21757
-0.438 1.878 1.573 16866
-0.438 1.876 1.562 12508
-0.451 1.930 1.594 14957
-0.452 1.934 1.588 18617
-0.454 1.944 1.587 19655
-0.453 1.942 1.576 22248
-0.457 1.959 1.579 22691
-0.461 1.976 1.582 22201
-0.465 1.992 1.585 19957
-0.466 1.996 1.579 17289
-0.468 2.007 1.578 11677
-0.469 2.011 1.572 10353
-0.473 2.028 1.575 17000
-0.474 2.032 1.568 23366
-0.475 2.036 1.562 24281
-0.481 2.059 1.569 17804
-0.489 2.095 1.585 16101
-0.490 2.099 1.578 16328
-0.490 2.097 1.568 17926
-0.490 2.101 1.561 18728
-0.491 2.105 1.555 17280
-0.494 2.115 1.553 15448
-0.496 2.126 1.551 12276
-0.497 2.130 1.544 11396
-0.500 2.140 1.542 12658
-0.501 2.144 1.536 12361
-0.502 2.148 1.529 10026
-0.519 2.224 1.568 13416
-0.520 2.228 1.561 15787
-0.521 2.232 1.555 15113
-0.524 2.243 1.552 12231
-0.525 2.247 1.545 9819
-0.524 2.244 1.534 7421
-0.543 2.328 1.576 8127
-0.546 2.339 1.573 13138
-0.547 2.343 1.566 17904
-0.548 2.347 1.559 17808
-0.547 2.344 1.548 16372
-0.547 2.341 1.537 12567
-0.565 2.419 1.573 12070
-0.564 2.416 1.561 11949
-0.565 2.420 1.554 9716
-0.566 2.424 1.547 7483
-0.565 2.421 1.536 9040
-0.566 2.425 1.528 10675
-0.569 2.436 1.525 9367
-0.573 2.454 1.525 6038
-0.588 2.519 1.551 5293
-0.590 2.529 1.547 6191
-0.591 2.533 1.540 7172
-0.589 2.524 1.525 8605
-0.590 2.527 1.517 10265
-0.594 2.545 1.517 8993
-0.598 2.563 1.516 8984
-0.599 2.567 1.508 7684
-0.598 2.563 1.497 6470
-0.599 2.567 1.489 4931
-0.618 2.647 1.521 4302
-0.614 2.630 1.502 4529
-0.610 2.613 1.483 5503
-0.613 2.624 1.479 5059
-0.649 2.780 1.547 5331
-0.650 2.784 1.539 5637
-0.638 2.733 1.503 7013
-0.637 2.729 1.491 6564
-0.664 2.845 1.537 7105
-0.665 2.849 1.529 7105
-0.668 2.860 1.523 8201
-0.668 2.863 1.515 9341
-0.669 2.867 1.506 8224
-0.670 2.871 1.497 7106
-0.670 2.868 1.485 5214
-0.667 2.858 1.470 3657
-0.668 2.861 1.462 3657
-0.672 2.879 1.459 2948
-0.676 2.897 1.457 2598
-0.677 2.901 1.448 1299
-0.143 0.621 1.623 5862
-0.146 0.635 1.643 6626
-0.148 0.642 1.648 8118
-0.149 0.647 1.646 9862
-0.150 0.654 1.651 11726
-0.151 0.659 1.649 11432
-0.153 0.666 1.654 10747
-0.155 0.674 1.660 10389
-0.157 0.681 1.665 8799
-0.158 0.689 1.670 7564
-0.159 0.690 1.660 6748
-0.159 0.694 1.658 6033
-0.160 0.695 1.649 6075
-0.161 0.699 1.647 6126
-0.162 0.704 1.645 8295
-0.162 0.704 1.635 11038
-0.163 0.709 1.633 11620
-0.164 0.713 1.631 10330
-0.166 0.721 1.636 8941
-0.167 0.725 1.634 8733
-0.168 0.733 1.638 8601
-0.168 0.733 1.629 9708
-0.169 0.737 1.627 10891
-0.171 0.745 1.632 13963
-0.172 0.749 1.629 16813
-0.174 0.757 1.634 17389
-0.175 0.762 1.632 18499
-0.174 0.758 1.615 17015
-0.178 0.774 1.634 16127
-0.180 0.782 1.638 19330
-0.181 0.786 1.636 21793
-0.182 0.790 1.634 23722
-0.183 0.798 1.638 19360
-0.185 0.806 1.642 15722
-0.186 0.810 1.640 14767
-0.187 0.815 1.637 13811
-0.189 0.823 1.642 19790
-0.191 0.831 1.646 29764
-0.192 0.835 1.644 33551
-0.193 0.839 1.641 35189
-0.194 0.844 1.638 36812
-0.195 0.848 1.636 36596
-0.197 0.856 1.640 34678
-0.197 0.856 1.631 32837
-0.199 0.865 1.635 26685
-0.201 0.873 1.639 19824
-0.202 0.881 1.643 13571
-0.204 0.889 1.647 8794
-0.204 0.890 1.637 9484
-0.206 0.898 1.641 12803
-0.208 0.906 1.645 14115
-0.211 0.919 1.656 12766
-0.210 0.915 1.640 10363
-0.215 0.936 1.663 13372
-0.216 0.940 1.661 18846
-0.217 0.945 1.658 22665
-0.218 0.949 1.655 26292
-0.220 0.957 1.658 26499
-0.221 0.962 1.655 26049
-0.223 0.970 1.659 21508
-0.225 0.979 1.663 15448
-0.227 0.988 1.666 13906
-0.228 0.992 1.663 20752
-0.230 1.001 1.667 27906
-0.231 1.005 1.664 24835
-0.233 1.014 1.667 21947
-0.234 1.018 1.664 19871
-0.234 1.018 1.654 13582
-0.235 1.022 1.651 11156
-0.236 1.026 1.648 15185
-0.238 1.035 1.651 16551
-0.240 1.044 1.655 17381
-0.241 1.048 1.651 17895
-0.242 1.052 1.648 12902
-0.243 1.057 1.645 10813
-0.244 1.061 1.642 13164
-0.245 1.065 1.638 14018
-0.246 1.069 1.635 17611
-0.248 1.078 1.638 21415
-0.250 1.087 1.641 24632
-0.251 1.091 1.638 24463
-0.252 1.096 1.635 18345
-0.254 1.105 1.637 13513
-0.256 1.114 1.640 12382
-0.255 1.108 1.625 11161
-0.256 1.113 1.621 10015
-0.257 1.117 1.618 10396
-0.261 1.135 1.633 14672
-0.263 1.144 1.636 19836
-0.264 1.149 1.632 16708
-0.265 1.153 1.629 11182
-0.267 1.162 1.631 8121
-0.267 1.161 1.621 6818
-0.268 1.165 1.618 9905
-0.271 1.179 1.627 14083
-0.273 1.189 1.629 17256
-0.276 1.203 1.637 17151
-0.280 1.217 1.646 20211
-0.281 1.221 1.642 21697
-0.282 1.226 1.638 14569
-0.277 1.205 1.605 7386
-0.286 1.244 1.643 6355
-0.286 1.243 1.633 7987
-0.285 1.242 1.623 15322
-0.288 1.252 1.626 24501
-0.289 1.256 1.622 26990
-0.290 1.260 1.618 27188
-0.289 1.259 1.608 31337
-0.289 1.258 1.598 29397
-0.290 1.262 1.595 18487
-0.291 1.266 1.591 13622
-0.293 1.276 1.593 12524
-0.295 1.285 1.595 14712
-0.296 1.289 1.591 17271
-0.297 1.293 1.587 12963
-0.298 1.297 1.583 15376
-0.299 1.301 1.579 16999
-0.304 1.321 1.592 15786
-0.305 1.326 1.588 20251
-0.305 1.330 1.584 19449
-0.306 1.334 1.580 23718
-0.307 1.338 1.576 34568
-0.308 1.342 1.572 37110
-0.309 1.346 1.568 31433
-0.309 1.344 1.558 35233
-0.310 1.348 1.554 43063
-0.311 1.352 1.550 41477
-0.312 1.356 1.546 49207
-0.313 1.360 1.542 60056
-0.313 1.364 1.537 48573
-0.313 1.363 1.528 33642
-0.317 1.378 1.535 36883
-0.319 1.387 1.536 38444
-0.321 1.397 1.537 29493
-0.322 1.401 1.533 21810
-0.341 1.483 1.605 22977
-0.340 1.482 1.595 20220
-0.343 1.492 1.596 17162
-0.344 1.496 1.591 14034
-0.345 1.500 1.587 13261
