1.110 1.741 1.501 8531
1.112 1.744 1.495 10137
1.114 1.747 1.489 8564
1.120 1.756 1.487 8079
1.118 1.754 1.477 8972
1.124 1.763 1.475 11750
1.123 1.760 1.464 13166
1.125 1.764 1.458 12115
1.130 1.772 1.456 11511
1.140 1.787 1.458 10580
1.142 1.790 1.452 9430
1.144 1.793 1.446 7864
1.182 1.854 1.480 8159
1.181 1.851 1.470 9000
1.186 1.860 1.467 7023
1.192 1.869 1.465 4804
1.242 1.948 1.510 4788
1.252 1.962 1.511 4760
1.257 1.972 1.508 5082
1.219 1.911 1.458 4909
1.236 1.938 1.467 7995
1.245 1.952 1.468 10601
1.255 1.967 1.469 10095
1.260 1.976 1.466 10680
1.266 1.985 1.463 8561
1.268 1.989 1.456 6517
1.293 2.027 1.472 4727
1.299 2.036 1.468 3976
1.334 2.092 1.495 3396
1.337 2.096 1.488 3264
1.339 2.099 1.480 3132
1.337 2.096 1.469 4738
1.339 2.100 1.462 6426
1.341 2.103 1.455 7669
1.343 2.106 1.447 8913
1.349 2.115 1.443 7042
1.370 2.148 1.454 5671
1.376 2.157 1.450 6031
1.382 2.166 1.446 6520
1.380 2.164 1.435 7705
1.382 2.167 1.427 8935
1.384 2.170 1.420 7128
1.436 2.251 1.457 6718
1.445 2.266 1.456 7044
1.451 2.276 1.452 7492
1.453 2.279 1.444 7492
1.451 2.276 1.432 7311
1.453 2.279 1.425 7169
1.452 2.276 1.413 6593
1.450 2.273 1.402 6135
1.456 2.282 1.397 5646
1.481 2.322 1.409 5626
1.479 2.319 1.398 5592
1.485 2.328 1.393 5284
1.491 2.337 1.388 5231
1.492 2.340 1.380 4498
1.561 2.447 1.425 4243
1.563 2.450 1.417 2121
0.782 1.227 0.783 304
0.338 0.529 1.601 10103
0.341 0.532 1.600 11427
0.345 0.539 1.605 12826
0.347 0.542 1.603 11823
0.349 0.546 1.601 10820
0.352 0.549 1.599 11322
0.354 0.553 1.597 11891
0.356 0.557 1.595 11958
0.358 0.560 1.593 10562
0.363 0.567 1.598 9488
0.367 0.573 1.603 8910
0.369 0.577 1.601 8450
0.369 0.577 1.592 7444
0.368 0.575 1.576 6796
0.370 0.578 1.574 7449
0.370 0.579 1.565 8078
0.371 0.579 1.555 9201
0.373 0.583 1.553 10348
0.381 0.595 1.572 13617
0.383 0.599 1.570 17815
0.387 0.605 1.575 18850
0.390 0.609 1.573 20753
0.394 0.616 1.578 18092
0.398 0.622 1.583 15934
0.400 0.626 1.580 17436
0.403 0.629 1.578 17905
0.407 0.636 1.583 19299
0.409 0.640 1.581 20681
0.411 0.643 1.578 21270
0.414 0.647 1.576 21859
0.414 0.647 1.567 22832
0.414 0.647 1.558 24703
0.418 0.654 1.562 23988
0.423 0.661 1.567 22894
0.425 0.664 1.564 20389
0.427 0.668 1.562 16896
0.431 0.674 1.566 15563
0.434 0.678 1.564 14871
0.436 0.681 1.562 14180
0.438 0.685 1.559 13454
0.440 0.688 1.557 11088
0.445 0.695 1.561 9729
0.449 0.702 1.565 7978
0.451 0.706 1.563 5931
0.454 0.709 1.560 4220
0.454 0.709 1.551 3200
0.456 0.712 1.549 3943
0.467 0.730 1.573 5947
0.472 0.737 1.577 8377
0.476 0.744 1.581 8823
0.478 0.748 1.578 9707
0.474 0.740 1.556 10537
0.476 0.744 1.553 11882
0.483 0.754 1.564 17467
0.485 0.758 1.561 20111
0.490 0.765 1.565 17243
0.494 0.772 1.569 15258
0.499 0.779 1.573 12059
0.499 0.779 1.563 11615
0.501 0.783 1.561 16083
0.503 0.786 1.558 20690
0.505 0.790 1.555 17363
0.512 0.801 1.565 12659
0.517 0.808 1.569 12183
0.519 0.811 1.566 10373
0.524 0.819 1.570 9614
0.529 0.826 1.573 11545
0.531 0.830 1.570 12083
0.535 0.837 1.574 10284
0.540 0.844 1.577 9214
0.542 0.848 1.574 10068
0.547 0.855 1.578 11770
0.549 0.859 1.575 12767
0.552 0.862 1.572 14553
0.551 0.862 1.562 22352
0.554 0.865 1.559 36939
0.556 0.869 1.556 48403
0.558 0.872 1.553 47919
0.560 0.876 1.550 34636
0.562 0.879 1.547 29003
0.565 0.882 1.544 31575
0.567 0.886 1.541 25404
0.572 0.893 1.544 18627
0.579 0.905 1.553 22449
0.581 0.909 1.550 29082
0.586 0.916 1.553 28254
0.591 0.924 1.556 19376
0.591 0.923 1.546 10406
0.593 0.926 1.543 11629
0.592 0.926 1.534 16698
0.594 0.929 1.530 20448
0.597 0.932 1.527 21279
0.601 0.940 1.530 15342
0.604 0.943 1.526 6465
0.622 0.972 1.560 6637
0.619 0.967 1.544 20012
0.621 0.971 1.541 33685
0.626 0.979 1.543 34009
0.631 0.986 1.546 25607
0.630 0.985 1.536 17770
0.635 0.993 1.539 16903
0.640 1.001 1.541 25623
0.645 1.009 1.544 29507
0.648 1.012 1.540 32789
0.650 1.016 1.537 27271
0.649 1.015 1.527 14750
0.654 1.022 1.529 19321
0.662 1.035 1.538 23368
0.664 1.038 1.534 24276
0.664 1.037 1.524 23425
0.666 1.040 1.521 17253
0.668 1.044 1.517 16212
0.676 1.056 1.525 18072
0.684 1.069 1.533 20426
0.683 1.068 1.523 17973
0.685 1.071 1.519 14705
0.693 1.083 1.527 11269
0.687 1.073 1.506 11592
0.689 1.076 1.502 16524
0.703 1.098 1.521 13996
0.708 1.106 1.523 12639
0.713 1.114 1.525 14185
0.718 1.122 1.527 11396
0.723 1.130 1.528 15271
0.728 1.138 1.530 16154
0.725 1.132 1.515 20648
0.730 1.141 1.516 35848
0.735 1.149 1.518 27115
0.740 1.157 1.519 19291
0.745 1.165 1.521 34515
0.747 1.168 1.517 46015
0.750 1.172 1.513 35058
0.752 1.175 1.508 19257
0.760 1.188 1.515 15607
0.753 1.177 1.495 14682
0.752 1.175 1.485 17134
0.767 1.198 1.503 17142
0.772 1.206 1.504 16238
0.780 1.219 1.510 8857
0.751 1.174 1.452 9864
0.797 1.246 1.523 8956
0.796 1.244 1.513 12976
0.798 1.247 1.509 13315
0.810 1.266 1.521 18433
0.815 1.274 1.521 20199
0.824 1.287 1.527 12353
0.826 1.291 1.523 12073
0.825 1.289 1.513 14221
0.824 1.287 1.503 10727
0.842 1.316 1.525 9899
0.847 1.324 1.525 17738
0.846 1.323 1.516 20504
0.845 1.321 1.506 12588
0.857 1.340 1.516 10460
0.859 1.343 1.512 15474
0.861 1.346 1.507 17561
0.863 1.350 1.502 16714
0.872 1.363 1.508 15789
0.887 1.387 1.523 15204
0.893 1.396 1.523 15318
0.895 1.399 1.518 14689
0.897 1.402 1.513 13195
0.903 1.411 1.513 11381
0.912 1.425 1.518 9368
0.917 1.433 1.518 9665
0.923 1.442 1.518 10248
0.935 1.461 1.528 11201
0.937 1.464 1.522 15894
0.939 1.468 1.517 21058
0.941 1.471 1.512 19520
0.940 1.469 1.502 16453
0.942 1.472 1.497 16860
0.944 1.476 1.492 12081
0.943 1.474 1.482 6371
0.979 1.530 1.524 7122
0.957 1.496 1.486 10336
0.963 1.505 1.485 12745
0.996 1.557 1.522 13780
0.998 1.560 1.517 18150
1.000 1.563 1.511 21478
1.002 1.567 1.506 18677
1.008 1.575 1.505 18996
1.010 1.579 1.499 20005
1.023 1.598 1.507 14479
1.035 1.618 1.515 11955
1.044 1.632 1.519 12156
1.043 1.630 1.509 15253
1.049 1.639 1.507 20754
1.054 1.648 1.506 19744
1.064 1.662 1.509 15279
1.069 1.671 1.508 15135
1.068 1.669 1.498 15307
1.066 1.667 1.487 13817
1.076 1.681 1.490 10900
1.085 1.696 1.493 11712
1.087 1.699 1.487 12986
1.093 1.708 1.486 10256
1.113 1.739 1.501 9362
1.115 1.742 1.495 11508
1.117 1.746 1.489 9987
1.119 1.749 1.483 8956
1.121 1.752 1.477 9447
1.127 1.761 1.475 12279
1.129 1.764 1.468 14203
1.127 1.762 1.458 13463
1.133 1.771 1.456 12383
1.139 1.780 1.454 10309
1.144 1.789 1.452 8726
1.187 1.855 1.491 8039
1.189 1.858 1.484 9328
1.187 1.855 1.474 9897
1.189 1.859 1.467 7555
1.199 1.873 1.469 4988
1.245 1.946 1.510 4802
1.254 1.961 1.511 4497
1.260 1.970 1.508 4823
1.218 1.904 1.454 4701
1.242 1.942 1.471 7509
1.248 1.951 1.468 10358
1.258 1.966 1.469 9832
1.263 1.975 1.466 10225
1.269 1.984 1.463 8369
1.275 1.993 1.460 6786
1.296 2.025 1.472 5488
1.298 2.028 1.465 4673
1.337 2.090 1.495 3826
1.340 2.094 1.488 3706
1.342 2.097 1.480 3587
1.340 2.094 1.469 4925
1.342 2.098 1.462 6323
1.344 2.101 1.455 7562
1.350 2.110 1.451 8879
1.356 2.119 1.447 7168
1.373 2.146 1.454 6547
1.379 2.155 1.450 6578
1.385 2.164 1.446 6796
1.387 2.168 1.439 8122
1.385 2.165 1.427 9508
1.387 2.168 1.420 7673
1.439 2.249 1.457 7089
1.449 2.264 1.456 7417
1.455 2.273 1.452 8065
1.457 2.277 1.444 8065
1.455 2.274 1.432 7886
1.457 2.277 1.425 7813
1.455 2.274 1.413 7034
1.457 2.277 1.405 6337
1.463 2.286 1.401 5644
1.488 2.326 1.412 5657
1.486 2.323 1.401 5765
1.488 2.326 1.393 5842
1.494 2.335 1.388 5774
1.492 2.332 1.376 4955
1.560 2.439 1.422 4502
1.562 2.442 1.414 2251
0.784 1.226 0.783 311
0.340 0.528 1.601 9425
0.342 0.531 1.600 10916
0.346 0.538 1.605 12425
0.349 0.541 1.603 11411
0.351 0.545 1.601 10397
0.353 0.548 1.599 10959
0.356 0.552 1.597 11604
0.358 0.555 1.595 11686
0.360 0.559 1.593 10416
0.364 0.565 1.598 9507
0.368 0.572 1.603 9002
0.371 0.575 1.601 8584
0.371 0.576 1.592 7649
0.372 0.577 1.583 7037
0.372 0.577 1.574 7683
0.372 0.578 1.565 8335
0.373 0.578 1.555 9045
0.375 0.582 1.553 9764
0.383 0.594 1.572 13303
0.385 0.598 1.570 17619
0.387 0.601 1.568 18755
0.392 0.608 1.573 20810
0.396 0.614 1.578 18149
0.400 0.621 1.583 15952
0.402 0.625 1.580 16885
0.407 0.631 1.585 16899
0.409 0.635 1.583 18683
0.411 0.638 1.581 20399
0.413 0.642 1.578 21006
0.416 0.645 1.576 21614
0.416 0.646 1.567 21861
0.416 0.646 1.558 23060
0.420 0.652 1.562 22324
0.425 0.659 1.567 21261
0.427 0.663 1.564 19413
0.429 0.666 1.562 17056
0.434 0.673 1.566 16408
0.436 0.676 1.564 15870
0.438 0.680 1.562 15333
0.440 0.683 1.559 14452
0.442 0.687 1.557 11609
0.447 0.694 1.561 10064
0.451 0.701 1.565 8767
0.454 0.704 1.563 7138
0.456 0.708 1.560 5206
0.460 0.715 1.565 3400
0.460 0.714 1.555 3504
0.472 0.732 1.580 5777
0.474 0.736 1.577 8097
0.476 0.739 1.574 8546
0.483 0.750 1.585 9135
0.476 0.739 1.556 10240
0.478 0.742 1.553 12167
0.485 0.753 1.564 19346
0.487 0.756 1.561 22522
0.492 0.764 1.565 18973
0.494 0.767 1.562 14977
0.501 0.778 1.573 10730
0.501 0.778 1.563 11083
0.503 0.781 1.561 15502
0.505 0.785 1.558 20138
0.510 0.792 1.562 16908
0.515 0.799 1.565 12815
0.519 0.806 1.569 12744
0.522 0.810 1.566 11206
0.526 0.817 1.570 9032
0.531 0.824 1.573 9861
0.533 0.828 1.570 10931
0.538 0.835 1.574 10699
0.540 0.839 1.571 11620
0.545 0.846 1.574 12653
0.550 0.854 1.578 11994
0.552 0.857 1.575 11052
0.552 0.857 1.565 11920
0.554 0.860 1.562 19253
0.556 0.864 1.559 34447
0.559 0.867 1.556 47049
0.561 0.870 1.553 47412
0.563 0.874 1.550 33050
0.568 0.881 1.553 26462
0.567 0.881 1.544 29657
0.572 0.888 1.547 24717
0.580 0.900 1.556 18869
0.582 0.903 1.553 22548
0.584 0.907 1.550 28686
0.589 0.914 1.553 28337
0.594 0.922 1.556 20420
0.593 0.921 1.546 12921
0.596 0.925 1.543 15933
0.598 0.928 1.540 21127
0.597 0.927 1.530 23140
0.600 0.931 1.527 22756
0.602 0.934 1.524 17033
0.607 0.942 1.526 8357
0.625 0.971 1.560 7250
0.622 0.965 1.544 16979
0.624 0.969 1.541 30047
0.629 0.977 1.543 31502
0.634 0.984 1.546 25044
0.634 0.983 1.536 18317
0.639 0.991 1.539 17278
0.644 0.999 1.541 25345
0.649 1.007 1.544 28733
0.651 1.010 1.540 33742
0.653 1.014 1.537 28848
0.658 1.021 1.539 13775
0.657 1.020 1.529 15598
0.668 1.037 1.543 20097
0.667 1.036 1.534 21558
0.667 1.035 1.524 20410
0.672 1.043 1.527 13442
0.674 1.046 1.523 10847
0.682 1.059 1.531 15127
0.687 1.067 1.533 17787
0.686 1.065 1.523 15714
0.689 1.069 1.519 13334
0.694 1.077 1.521 10352
0.690 1.071 1.506 12906
0.695 1.079 1.508 18283
0.706 1.096 1.521 15429
0.711 1.104 1.523 12540
0.716 1.112 1.525 14570
0.722 1.120 1.527 13193
0.727 1.128 1.528 16573
0.735 1.141 1.536 17727
0.731 1.135 1.520 23102
0.736 1.143 1.522 40382
0.739 1.146 1.518 32589
0.744 1.154 1.519 24234
0.749 1.163 1.521 37772
0.751 1.166 1.517 48705
0.753 1.169 1.513 37016
0.755 1.173 1.508 20813
0.761 1.181 1.510 15161
0.757 1.174 1.495 15798
0.756 1.173 1.485 19761
0.758 1.176 1.481 14735
0.779 1.209 1.509 10061
0.749 1.163 1.451 8357
0.755 1.171 1.452 10369
0.801 1.243 1.523 11939
0.800 1.242 1.513 16158
0.802 1.245 1.509 15836
0.811 1.258 1.515 18263
0.816 1.266 1.516 17527
0.828 1.285 1.527 9459
0.833 1.293 1.528 11331
0.829 1.286 1.513 14178
0.828 1.285 1.503 10203
0.846 1.313 1.525 9400
0.851 1.322 1.525 16300
0.850 1.320 1.516 18394
0.853 1.323 1.511 12016
0.865 1.342 1.522 11031
0.863 1.340 1.512 14846
0.866 1.344 1.507 16214
0.871 1.352 1.507 14846
0.880 1.366 1.513 15501
0.892 1.384 1.523 16751
0.897 1.393 1.523 16312
0.899 1.396 1.518 15554
0.902 1.400 1.513 15268
0.907 1.408 1.513 14747
0.913 1.417 1.513 12083
0.918 1.425 1.513 9798
0.924 1.434 1.513 8850
0.939 1.458 1.528 9096
0.941 1.461 1.522 14526
0.944 1.465 1.517 19696
0.946 1.468 1.512 18691
0.945 1.466 1.502 17477
0.947 1.469 1.497 19073
0.945 1.467 1.487 14121
0.948 1.471 1.482 6764
0.987 1.533 1.529 7144
0.962 1.493 1.486 8948
0.964 1.497 1.480 10750
1.004 1.559 1.527 12329
1.003 1.557 1.517 16710
1.005 1.560 1.511 20319
1.007 1.564 1.506 18120
1.013 1.572 1.505 19245
1.015 1.576 1.499 20049
1.021 1.584 1.498 13292
1.037 1.609 1.511 10123
1.046 1.624 1.514 11244
1.048 1.627 1.509 13422
1.054 1.636 1.507 17574
1.063 1.650 1.511 17685
1.072 1.664 1.514 14285
1.078 1.673 1.512 13633
1.073 1.666 1.498 14241
1.072 1.663 1.487 13783
1.081 1.678 1.490 10406
1.094 1.698 1.497 9970
1.096 1.701 1.491 11350
1.102 1.710 1.490 9646
1.118 1.735 1.501 10167
1.120 1.739 1.495 12700
1.122 1.742 1.489 11137
1.124 1.745 1.483 9643
1.127 1.749 1.477 9712
1.132 1.758 1.475 12764
1.134 1.761 1.468 15515
1.136 1.764 1.462 15003
1.139 1.767 1.456 13486
1.144 1.776 1.454 10100
1.183 1.836 1.489 8682
1.192 1.851 1.491 9125
1.195 1.854 1.484 10608
1.197 1.857 1.478 10989
1.202 1.866 1.475 8264
1.208 1.875 1.473 5658
1.207 1.873 1.462 5191
1.209 1.876 1.455 4881
1.207 1.874 1.445 4604
1.224 1.900 1.454 4499
1.252 1.943 1.475 7227
1.254 1.947 1.468 10110
1.264 1.962 1.469 9584
1.270 1.971 1.466 9839
1.275 1.980 1.463 8300
1.285 1.995 1.463 7350
1.302 2.021 1.472 6337
1.304 2.024 1.465 5425
1.344 2.086 1.495 4173
1.346 2.090 1.488 4108
1.348 2.093 1.480 4044
1.347 2.090 1.469 5058
1.349 2.093 1.462 6135
1.355 2.103 1.458 7393
1.357 2.106 1.451 8750
1.366 2.121 1.451 7409
1.380 2.142 1.454 7445
1.386 2.151 1.450 7181
1.392 2.160 1.446 7082
1.394 2.163 1.439 8509
1.392 2.160 1.427 10016
1.394 2.164 1.420 8147
1.446 2.244 1.457 7284
1.456 2.260 1.456 7702
1.462 2.269 1.452 8608
1.464 2.272 1.444 8608
1.466 2.275 1.436 8438
1.464 2.272 1.425 8394
1.466 2.275 1.417 7471
1.464 2.272 1.405 6579
1.470 2.282 1.401 5726
1.499 2.327 1.416 5757
1.497 2.324 1.404 6064
1.495 2.321 1.393 6469
1.497 2.324 1.385 6454
1.499 2.327 1.376 5524
1.493 2.318 1.362 4810
1.495 2.321 1.354 2405
1.399 2.171 1.268 331
0.340 0.524 1.594 8903
0.344 0.530 1.600 10457
0.346 0.534 1.598 12042
0.350 0.540 1.603 10797
0.353 0.544 1.601 9626
0.355 0.547 1.599 10298
0.357 0.551 1.597 11076
0.360 0.554 1.595 11184
0.362 0.558 1.593 10020
0.366 0.564 1.598 9166
0.370 0.571 1.603 8447
0.373 0.574 1.601 7844
0.373 0.575 1.592 7058
0.373 0.576 1.583 6592
0.374 0.576 1.574 7415
0.374 0.577 1.565 8218
0.376 0.580 1.563 8462
0.377 0.581 1.553 8718
0.385 0.593 1.572 12248
0.387 0.597 1.570 16326
0.389 0.600 1.568 17486
0.393 0.607 1.573 19578
0.398 0.613 1.578 17357
0.402 0.620 1.583 15468
0.404 0.623 1.580 16158
0.409 0.630 1.585 16009
0.411 0.633 1.583 17904
0.413 0.637 1.581 19737
0.415 0.640 1.578 20336
0.418 0.644 1.576 20936
0.418 0.644 1.567 20669
0.418 0.644 1.558 21360
0.422 0.651 1.562 20584
0.427 0.658 1.567 19463
0.429 0.661 1.564 18252
0.431 0.665 1.562 17036
0.436 0.672 1.566 17072
0.438 0.675 1.564 16777
0.440 0.679 1.562 16481
0.442 0.682 1.559 15559
0.447 0.689 1.564 12535
0.449 0.692 1.561 10863
0.454 0.699 1.565 9822
0.454 0.699 1.556 8537
0.458 0.706 1.560 6870
0.463 0.713 1.565 4566
0.469 0.724 1.575 3857
0.474 0.731 1.580 5667
0.476 0.734 1.577 7703
0.481 0.741 1.581 8378
0.485 0.748 1.585 8407
0.478 0.737 1.556 10030
0.481 0.741 1.553 13225
0.490 0.755 1.570 21648
0.492 0.759 1.568 25223
0.492 0.758 1.558 21125
0.494 0.762 1.556 14321
0.504 0.776 1.573 8391
0.503 0.776 1.563 10006
0.508 0.783 1.567 14068
0.508 0.783 1.558 18807
0.513 0.790 1.562 16463
0.517 0.797 1.565 13182
0.522 0.805 1.569 13106
0.524 0.808 1.566 11762
0.526 0.812 1.563 8753
0.534 0.823 1.573 8337
0.536 0.826 1.570 9998
0.541 0.834 1.574 11523
0.543 0.837 1.571 14525
0.548 0.844 1.574 15639
0.553 0.852 1.578 13282
0.552 0.851 1.568 10701
0.555 0.855 1.565 10176
0.557 0.858 1.562 16131
0.556 0.858 1.553 31690
0.561 0.865 1.556 45506
0.566 0.873 1.559 47089
0.568 0.876 1.556 32134
0.571 0.880 1.553 24527
0.573 0.883 1.550 27180
0.575 0.886 1.547 23303
0.582 0.898 1.556 18833
0.585 0.901 1.553 22444
0.587 0.905 1.550 28092
0.592 0.912 1.553 28302
0.597 0.920 1.556 21565
0.599 0.923 1.552 15839
0.599 0.923 1.543 20622
0.601 0.926 1.540 25751
0.600 0.925 1.530 25052
0.602 0.929 1.527 23433
0.605 0.932 1.524 19468
0.612 0.944 1.533 12773
0.626 0.964 1.554 11233
0.628 0.968 1.550 15753
0.630 0.971 1.547 25974
0.635 0.979 1.549 28631
0.637 0.982 1.546 23772
0.637 0.981 1.536 19049
0.642 0.989 1.539 18368
0.647 0.997 1.541 25003
0.652 1.005 1.544 27982
0.654 1.008 1.540 33863
0.659 1.016 1.542 29310
0.664 1.024 1.545 13373
0.663 1.023 1.535 11751
0.671 1.035 1.543 15992
0.671 1.034 1.534 18255
0.670 1.033 1.524 17433
0.675 1.041 1.527 11121
0.680 1.049 1.529 8028
0.685 1.056 1.531 12657
0.688 1.060 1.527 14842
0.684 1.054 1.512 13859
0.689 1.062 1.514 11001
0.700 1.079 1.527 7905
0.690 1.064 1.500 13681
0.695 1.072 1.502 19727
0.710 1.094 1.521 16028
0.712 1.097 1.517 12514
0.720 1.110 1.525 14766
0.728 1.122 1.532 14598
0.730 1.126 1.528 15831
0.739 1.139 1.536 18872
0.741 1.142 1.532 25515
0.740 1.141 1.522 42186
0.745 1.149 1.523 35706
0.747 1.152 1.519 28363
0.753 1.160 1.521 41173
0.755 1.164 1.517 51515
0.757 1.167 1.513 39051
0.759 1.170 1.508 22975
0.761 1.174 1.504 16866
0.757 1.167 1.489 17474
0.762 1.175 1.491 21125
0.761 1.174 1.481 15143
0.757 1.167 1.466 10157
0.791 1.219 1.516 9411
0.758 1.169 1.452 10949
0.805 1.241 1.523 14157
0.804 1.239 1.513 19253
0.806 1.242 1.509 18995
0.811 1.251 1.510 18714
0.817 1.259 1.511 16092
0.825 1.272 1.517 9041
0.834 1.286 1.523 11241
0.833 1.284 1.513 13474
0.835 1.287 1.509 9488
0.853 1.316 1.530 8866
0.859 1.324 1.530 14403
0.858 1.322 1.521 16177
0.860 1.326 1.516 12132
0.869 1.339 1.522 12158
0.868 1.337 1.512 14332
0.870 1.341 1.507 14265
0.879 1.354 1.512 12655
0.887 1.368 1.518 15302
0.896 1.382 1.523 18290
0.902 1.390 1.523 17204
0.904 1.393 1.518 16043
0.906 1.397 1.513 17305
0.912 1.405 1.513 18590
0.917 1.414 1.513 15607
0.923 1.422 1.513 10882
0.925 1.426 1.508 8594
0.934 1.439 1.513 8228
0.946 1.458 1.522 13334
0.948 1.462 1.517 17883
0.950 1.465 1.512 17464
0.946 1.458 1.497 18256
0.948 1.461 1.492 20596
0.950 1.465 1.487 15664
0.952 1.468 1.482 7528
0.996 1.535 1.534 7073
0.963 1.485 1.481 8024
0.969 1.494 1.480 9567
1.009 1.556 1.527 10788
1.008 1.554 1.517 14815
1.007 1.552 1.506 18961
1.012 1.560 1.506 17211
1.018 1.569 1.505 18998
1.020 1.572 1.499 19820
1.022 1.576 1.494 12808
1.038 1.601 1.506 8872
1.051 1.620 1.514 10671
1.050 1.618 1.504 11895
1.059 1.632 1.507 14418
1.072 1.652 1.515 16057
1.077 1.661 1.514 13073
1.080 1.664 1.508 11551
1.078 1.662 1.498 12688
1.077 1.660 1.487 13225
1.090 1.680 1.495 9885
1.113 1.716 1.515 9114
1.105 1.703 1.496 9980
1.110 1.712 1.494 9062
1.123 1.732 1.501 10768
1.126 1.735 1.495 13477
1.128 1.739 1.489 11839
1.130 1.742 1.483 9962
1.132 1.745 1.477 9723
1.138 1.754 1.475 13075
1.140 1.757 1.468 16760
1.142 1.760 1.462 16854
1.144 1.764 1.456 14699
1.150 1.772 1.454 10065
1.189 1.832 1.489 9516
1.198 1.847 1.491 10001
1.200 1.850 1.484 11737
1.202 1.854 1.478 12231
1.208 1.863 1.475 9287
1.218 1.877 1.477 6583
1.220 1.881 1.470 6112
1.215 1.872 1.455 5466
1.213 1.870 1.445 5112
1.226 1.890 1.450 4525
1.262 1.945 1.479 6947
1.260 1.943 1.468 9654
1.266 1.952 1.465 9110
1.276 1.967 1.466 9284
1.285 1.981 1.467 8276
1.295 1.996 1.467 8153
1.308 2.017 1.472 7149
1.311 2.020 1.465 6152
1.313 2.024 1.457 4743
1.353 2.085 1.488 4367
1.317 2.030 1.443 4460
1.357 2.092 1.473 5151
1.355 2.089 1.462 5967
1.361 2.098 1.458 7262
1.367 2.107 1.454 8709
1.381 2.128 1.458 7908
1.390 2.143 1.458 8239
1.392 2.147 1.450 7737
1.398 2.156 1.446 7364
1.400 2.159 1.439 8911
1.399 2.156 1.427 10549
1.401 2.159 1.420 8621
1.449 2.234 1.454 7355
1.463 2.255 1.456 7917
1.469 2.264 1.452 9098
1.471 2.267 1.444 9098
1.473 2.271 1.436 8930
1.471 2.268 1.425 8890
1.473 2.271 1.417 7884
1.475 2.274 1.409 6879
1.477 2.277 1.401 5809
1.506 2.322 1.416 5984
1.505 2.319 1.404 6493
1.503 2.316 1.393 7163
1.505 2.319 1.385 7240
1.503 2.316 1.373 6256
1.501 2.313 1.362 5505
1.503 2.316 1.354 2752
1.405 2.167 1.268 338
0.341 0.523 1.594 8525
0.345 0.530 1.600 9967
0.347 0.533 1.598 11568
0.351 0.540 1.603 9873
0.354 0.543 1.601 8368
0.356 0.547 1.599 9334
0.358 0.550 1.597 10438
0.360 0.554 1.595 10575
0.363 0.557 1.593 9690
0.367 0.564 1.598 9048
0.371 0.570 1.603 7979
0.373 0.574 1.601 7089
0.374 0.574 1.592 6375
0.374 0.575 1.583 5994
0.375 0.576 1.574 6955
0.375 0.576 1.565 7869
0.377 0.579 1.563 8013
0.379 0.583 1.560 8090
0.386 0.592 1.572 11351
0.388 0.596 1.570 14953
0.390 0.599 1.568 16086
0.394 0.606 1.573 18250
0.399 0.613 1.578 16681
0.403 0.619 1.583 15226
0.405 0.623 1.580 15659
0.410 0.629 1.585 15321
0.412 0.633 1.583 16992
0.414 0.636 1.581 18614
0.416 0.640 1.578 19268
0.419 0.643 1.576 19922
0.419 0.644 1.567 19386
0.419 0.644 1.558 19780
0.423 0.650 1.562 18928
0.426 0.654 1.560 17704
0.430 0.661 1.564 17140
0.434 0.667 1.569 17113
0.437 0.671 1.566 17719
0.439 0.674 1.564 17592
0.441 0.678 1.562 17464
0.443 0.681 1.559 16813
0.448 0.688 1.564 14247
0.452 0.695 1.568 12331
0.452 0.695 1.559 11044
0.455 0.699 1.556 9820
0.459 0.705 1.560 8483
0.464 0.712 1.565 6139
0.466 0.716 1.562 4850
0.473 0.726 1.573 5650
0.480 0.737 1.584 7261
0.482 0.740 1.581 8059
0.489 0.751 1.592 7715
0.479 0.737 1.556 10046
0.484 0.744 1.560 14938
0.491 0.754 1.570 24438
0.493 0.758 1.568 28472
0.495 0.761 1.565 24091
0.495 0.761 1.556 14764
0.507 0.779 1.579 6552
0.505 0.775 1.563 8616
0.509 0.782 1.567 12341
0.509 0.782 1.558 17348
0.514 0.789 1.562 16299
0.519 0.797 1.565 13624
0.523 0.804 1.569 13427
0.523 0.804 1.560 12350
0.525 0.807 1.557 9032
0.532 0.818 1.567 7416
0.537 0.825 1.570 9426
0.542 0.833 1.574 12500
0.544 0.836 1.571 17201
0.549 0.844 1.574 18245
0.551 0.847 1.571 14833
0.554 0.850 1.568 11425
0.556 0.854 1.565 9419
0.556 0.853 1.556 13739
0.558 0.857 1.553 28770
0.563 0.864 1.556 43812
0.567 0.872 1.559 46932
0.570 0.875 1.556 31726
0.575 0.883 1.559 23332
0.574 0.882 1.550 25170
0.576 0.886 1.547 21874
0.584 0.897 1.556 18730
0.586 0.901 1.553 22199
0.591 0.908 1.556 27298
0.593 0.911 1.553 27970
0.596 0.915 1.550 22476
0.598 0.918 1.546 18783
0.600 0.922 1.543 25381
0.602 0.925 1.540 30229
0.604 0.929 1.536 26587
0.604 0.928 1.527 23655
0.606 0.931 1.524 21800
0.619 0.951 1.545 18706
0.627 0.963 1.554 17409
0.629 0.967 1.550 16407
0.631 0.970 1.547 21964
0.637 0.978 1.549 26468
0.639 0.981 1.546 23574
0.638 0.980 1.536 20593
0.646 0.992 1.545 19883
0.651 1.000 1.547 24267
0.653 1.004 1.544 26787
0.655 1.007 1.540 32806
0.661 1.015 1.542 28604
0.669 1.027 1.551 12809
0.671 1.031 1.547 8366
0.673 1.034 1.543 11667
0.672 1.033 1.534 14251
0.672 1.032 1.524 14536
0.677 1.040 1.527 9882
0.682 1.048 1.529 6687
0.687 1.055 1.531 10697
0.686 1.054 1.521 12603
0.682 1.049 1.506 13144
0.685 1.052 1.502 9498
0.702 1.078 1.527 5239
0.689 1.058 1.495 12949
0.697 1.071 1.502 21125
0.696 1.070 1.493 16879
0.692 1.064 1.478 16409
0.725 1.113 1.531 15328
0.730 1.121 1.532 15597
0.735 1.129 1.534 13848
0.743 1.142 1.541 18964
0.743 1.141 1.532 27132
0.742 1.139 1.522 41772
0.747 1.148 1.523 36345
0.749 1.151 1.519 29947
0.754 1.159 1.521 43252
0.757 1.162 1.517 53680
0.759 1.166 1.513 40452
0.761 1.169 1.508 24367
0.763 1.172 1.504 18742
0.759 1.166 1.489 18077
0.767 1.179 1.496 21408
0.770 1.182 1.492 17335
0.784 1.205 1.509 11936
0.793 1.218 1.516 14780
0.798 1.226 1.517 12322
0.807 1.239 1.523 15473
0.806 1.238 1.513 21053
0.808 1.241 1.509 21897
0.810 1.244 1.505 20183
0.815 1.253 1.506 15577
0.827 1.271 1.517 9328
0.836 1.284 1.523 11035
0.835 1.283 1.513 12474
0.840 1.291 1.514 9054
0.855 1.314 1.530 8613
0.861 1.323 1.530 12783
0.863 1.326 1.526 14030
0.865 1.329 1.521 12215
0.868 1.333 1.516 13249
0.870 1.336 1.512 14132
0.872 1.339 1.507 12242
0.884 1.358 1.517 10943
0.893 1.372 1.523 15246
0.898 1.380 1.523 19577
0.904 1.389 1.523 17878
0.906 1.392 1.518 16286
0.908 1.395 1.513 19344
0.914 1.404 1.513 22582
0.919 1.412 1.513 19036
0.921 1.416 1.508 12444
0.924 1.419 1.503 10302
0.929 1.427 1.503 10204
0.945 1.452 1.518 13041
0.951 1.460 1.517 15877
0.953 1.464 1.512 16093
0.948 1.456 1.497 19044
0.950 1.460 1.492 21140
0.952 1.463 1.487 16285
0.954 1.466 1.482 8760
0.998 1.533 1.534 7061
0.969 1.489 1.486 8593
0.968 1.487 1.476 9848
0.977 1.501 1.480 9790
1.003 1.541 1.507 13138
1.009 1.550 1.506 17324
1.015 1.559 1.506 16175
1.020 1.567 1.505 18348
1.022 1.571 1.499 19369
1.025 1.574 1.494 12794
1.027 1.577 1.488 8862
1.047 1.608 1.505 10591
1.052 1.617 1.504 11050
1.065 1.636 1.512 11820
1.078 1.656 1.520 14473
1.080 1.659 1.514 11720
1.082 1.663 1.508 9383
1.077 1.655 1.493 11209
1.079 1.658 1.487 12616
1.096 1.684 1.499 10037
1.116 1.715 1.515 9701
1.111 1.707 1.500 9536
1.117 1.716 1.498 8632
1.126 1.730 1.501 11185
1.128 1.733 1.495 13899
1.130 1.737 1.489 12158
1.133 1.740 1.483 9869
1.135 1.743 1.477 9322
1.140 1.752 1.475 12959
1.143 1.755 1.468 17524
1.145 1.759 1.462 18227
1.150 1.767 1.460 15677
1.153 1.771 1.454 9963
1.192 1.831 1.489 10214
1.201 1.845 1.491 10648
1.207 1.854 1.488 12626
1.205 1.852 1.478 13215
1.211 1.861 1.475 10152
1.224 1.881 1.481 7543
1.234 1.896 1.482 7190
1.221 1.876 1.459 6018
1.220 1.874 1.449 5609
1.225 1.883 1.446 4606
1.265 1.943 1.479 6505
1.263 1.941 1.468 8833
1.273 1.956 1.469 8307
1.283 1.970 1.470 8492
1.292 1.985 1.470 8330
1.302 2.000 1.471 8971
1.312 2.015 1.472 7858
1.314 2.018 1.465 6809
1.320 2.027 1.461 5570
1.325 2.036 1.458 5003
1.320 2.028 1.443 5134
1.360 2.090 1.473 5211
1.358 2.087 1.462 5780
1.368 2.102 1.462 7107
1.374 2.111 1.458 8665
1.388 2.132 1.462 8383
1.394 2.141 1.458 8877
1.396 2.144 1.450 8250
1.402 2.153 1.446 7700
1.400 2.151 1.435 9245
1.402 2.154 1.427 10866
1.404 2.157 1.420 8875
1.453 2.232 1.454 7322
1.466 2.253 1.456 7990
1.472 2.262 1.452 9453
1.474 2.265 1.444 9453
1.476 2.268 1.436 9310
1.475 2.265 1.425 9288
1.477 2.269 1.417 8231
1.479 2.272 1.409 7174
1.485 2.281 1.404 6076
1.506 2.314 1.412 6405
1.508 2.317 1.404 7036
1.506 2.314 1.393 7925
1.504 2.311 1.381 8141
1.506 2.314 1.373 7121
1.504 2.311 1.362 6337
1.506 2.314 1.354 3168
0.798 1.226 0.786 322
0.343 0.522 1.594 8113
0.347 0.529 1.600 9317
0.349 0.532 1.598 10686
0.351 0.536 1.596 8922
0.357 0.545 1.608 7270
0.356 0.543 1.592 8286
0.358 0.546 1.590 9414
0.362 0.553 1.595 9570
0.365 0.556 1.593 8786
0.369 0.562 1.598 8270
0.373 0.569 1.603 7575
0.375 0.572 1.601 6971
0.376 0.573 1.592 6521
0.374 0.571 1.576 6360
0.377 0.574 1.574 7146
0.377 0.575 1.565 7847
0.379 0.578 1.563 7997
0.381 0.582 1.560 8062
0.388 0.591 1.572 11058
0.390 0.595 1.570 14365
0.394 0.601 1.575 15522
0.397 0.605 1.573 17842
0.401 0.611 1.578 16795
0.405 0.618 1.583 15611
0.407 0.621 1.580 15525
0.412 0.628 1.585 14775
0.414 0.631 1.583 15948
0.418 0.638 1.588 17134
0.421 0.642 1.585 17932
0.421 0.642 1.576 18754
0.421 0.642 1.567 18145
0.421 0.642 1.558 18472
0.426 0.649 1.562 17546
0.428 0.652 1.560 16313
0.432 0.659 1.564 16299
0.437 0.666 1.569 17275
0.439 0.669 1.566 18239
0.441 0.673 1.564 18257
0.444 0.676 1.562 18276
0.446 0.680 1.559 18082
0.450 0.687 1.564 16182
0.455 0.693 1.568 14229
0.455 0.693 1.559 12257
0.457 0.697 1.556 10521
0.459 0.700 1.554 9393
0.464 0.707 1.558 6853
0.468 0.714 1.562 5226
0.475 0.725 1.573 5601
0.482 0.735 1.584 6967
0.487 0.742 1.588 7838
0.491 0.749 1.592 7496
0.482 0.735 1.556 10713
0.487 0.742 1.560 17327
0.494 0.753 1.570 27682
0.496 0.756 1.568 32315
0.498 0.760 1.565 27926
0.498 0.759 1.556 17380
0.510 0.777 1.579 6486
0.507 0.774 1.563 7033
0.510 0.777 1.561 10408
0.512 0.780 1.558 15812
0.517 0.788 1.562 15798
0.521 0.795 1.565 13460
0.526 0.802 1.569 13345
0.526 0.802 1.560 12710
0.523 0.798 1.544 10127
0.528 0.805 1.547 7542
0.540 0.823 1.570 8931
0.545 0.831 1.574 13258
0.547 0.834 1.571 19381
0.549 0.838 1.568 20291
0.554 0.845 1.571 16127
0.557 0.849 1.568 12298
0.559 0.852 1.565 9146
0.558 0.852 1.556 11442
0.561 0.855 1.553 25242
0.566 0.862 1.556 41138
0.570 0.870 1.559 45622
0.575 0.877 1.563 30969
0.578 0.881 1.559 22281
0.577 0.880 1.550 22522
0.579 0.884 1.547 19608
0.587 0.895 1.556 17610
0.592 0.903 1.559 21202
0.594 0.906 1.556 25993
0.596 0.909 1.553 27267
0.599 0.913 1.550 23220
0.601 0.916 1.546 20793
0.603 0.920 1.543 28031
0.605 0.923 1.540 32030
0.608 0.926 1.536 25922
0.604 0.921 1.521 22920
0.612 0.933 1.530 23746
0.623 0.949 1.545 23475
0.628 0.957 1.547 22207
0.633 0.965 1.550 16773
0.638 0.972 1.553 18083
0.640 0.976 1.549 24109
0.642 0.979 1.546 23019
0.642 0.978 1.536 21054
0.649 0.990 1.545 20419
0.655 0.998 1.547 23428
0.657 1.001 1.544 25636
0.659 1.005 1.540 31241
0.664 1.013 1.542 27236
0.672 1.025 1.551 12013
0.677 1.033 1.553 6283
0.679 1.036 1.549 7900
0.673 1.026 1.528 10010
0.675 1.029 1.524 11266
0.680 1.037 1.527 8916
0.685 1.045 1.529 7390
0.691 1.053 1.531 9935
0.690 1.052 1.521 10075
0.686 1.046 1.506 12376
0.688 1.049 1.502 9289
0.682 1.039 1.481 4959
0.699 1.065 1.506 11867
0.701 1.069 1.502 20908
0.697 1.063 1.487 19522
0.696 1.061 1.478 17585
0.732 1.115 1.536 15412
0.737 1.123 1.538 16189
0.742 1.131 1.540 12117
0.747 1.140 1.541 17157
0.747 1.138 1.532 26324
0.746 1.137 1.522 39198
0.751 1.145 1.523 33938
0.753 1.148 1.519 28056
0.758 1.156 1.521 42958
0.764 1.164 1.522 54702
0.763 1.163 1.513 39908
0.765 1.166 1.508 23459
0.767 1.170 1.504 20159
0.766 1.168 1.495 18072
0.771 1.176 1.496 20475
0.777 1.184 1.497 20116
0.792 1.207 1.515 16575
0.797 1.215 1.516 19391
0.802 1.223 1.517 14829
0.811 1.237 1.523 16187
0.810 1.235 1.513 22365
0.812 1.238 1.509 24603
0.814 1.242 1.505 21228
0.820 1.250 1.506 14766
0.828 1.263 1.512 9489
0.837 1.276 1.518 10649
0.839 1.280 1.513 11620
0.841 1.283 1.509 8858
0.860 1.311 1.530 8252
0.866 1.320 1.530 11395
0.868 1.323 1.526 12317
0.873 1.331 1.526 11886
0.872 1.330 1.516 13744
0.871 1.328 1.507 14171
0.876 1.336 1.507 10730
0.892 1.360 1.523 9588
0.898 1.369 1.523 15237
0.903 1.377 1.523 20479
0.909 1.385 1.523 18248
0.911 1.389 1.518 16050
0.913 1.392 1.513 20587
0.919 1.401 1.513 25687
0.924 1.409 1.513 21575
0.926 1.412 1.508 13767
0.929 1.416 1.503 12467
0.934 1.424 1.503 13549
0.947 1.443 1.513 13683
0.956 1.457 1.517 13989
0.954 1.455 1.507 14899
0.953 1.453 1.497 19457
0.952 1.451 1.487 20706
0.957 1.460 1.487 15882
0.963 1.468 1.487 10014
0.972 1.482 1.491 8892
0.974 1.485 1.486 9879
0.973 1.483 1.476 10431
0.985 1.503 1.485 10166
1.005 1.533 1.503 11876
1.014 1.547 1.506 15401
1.020 1.555 1.506 15096
1.026 1.564 1.505 17146
1.028 1.567 1.499 18334
1.030 1.571 1.494 12676
1.036 1.579 1.493 9592
1.052 1.604 1.505 11089
1.054 1.608 1.500 10940
1.074 1.638 1.516 9853
1.084 1.652 1.520 13038
1.082 1.650 1.509 10650
1.066 1.626 1.481 8489
1.083 1.651 1.493 9947
1.085 1.655 1.487 11440
1.109 1.691 1.508 10282
1.118 1.705 1.511 10930
1.121 1.709 1.505 9834
1.126 1.717 1.503 8529
1.132 1.726 1.501 11326
1.134 1.730 1.495 13879
1.137 1.733 1.489 12051
1.139 1.736 1.483 9408
1.141 1.739 1.477 8595
1.147 1.748 1.475 12444
1.152 1.757 1.473 17964
1.154 1.760 1.466 19034
1.157 1.763 1.460 16426
1.159 1.767 1.454 10014
1.198 1.826 1.489 10709
1.207 1.841 1.491 10907
1.213 1.850 1.488 12884
1.212 1.848 1.478 13539
1.218 1.856 1.475 10487
1.242 1.894 1.493 8324
1.241 1.892 1.482 8051
1.235 1.883 1.467 6404
1.226 1.869 1.449 5824
1.288 1.964 1.505 4617
1.279 1.950 1.487 6404
1.270 1.936 1.468 8273
1.280 1.951 1.469 7732
1.293 1.972 1.474 8070
1.303 1.987 1.474 8612
1.309 1.996 1.471 9706
1.315 2.005 1.468 8413
1.321 2.014 1.465 7319
1.327 2.023 1.461 6319
1.329 2.026 1.454 5609
1.327 2.023 1.443 5583
1.371 2.091 1.477 5170
1.370 2.088 1.466 5597
1.376 2.097 1.462 6989
1.385 2.112 1.462 8645
1.395 2.127 1.462 8692
1.401 2.136 1.458 9237
1.403 2.139 1.450 8621
1.409 2.149 1.446 8031
1.407 2.146 1.435 9552
1.409 2.149 1.427 11099
1.411 2.152 1.420 9051
1.410 2.149 1.409 7330
1.474 2.248 1.456 7962
1.480 2.257 1.452 9659
1.482 2.260 1.444 9659
1.480 2.257 1.432 9577
1.482 2.260 1.425 9591
1.484 2.263 1.417 8441
1.490 2.272 1.412 7311
1.492 2.276 1.404 6290
1.514 2.309 1.412 6812
1.516 2.312 1.404 7508
1.514 2.309 1.393 8582
1.512 2.306 1.381 8989
1.510 2.303 1.370 7963
1.508 2.300 1.359 7154
1.510 2.303 1.351 3577
0.802 1.223 0.786 311
0.343 0.522 1.594 7177
0.348 0.528 1.600 8394
0.350 0.531 1.598 9704
0.354 0.538 1.603 8535
0.356 0.541 1.601 7457
0.357 0.542 1.592 8114
0.359 0.546 1.590 8944
0.363 0.552 1.595 9113
0.366 0.555 1.593 7951
0.372 0.565 1.605 7038
0.372 0.565 1.596 7025
0.375 0.569 1.594 7043
0.375 0.569 1.585 7062
0.375 0.570 1.576 7338
0.378 0.574 1.574 7879
0.380 0.577 1.572 8321
0.380 0.577 1.563 8370
0.382 0.581 1.560 8320
0.387 0.587 1.565 10695
0.391 0.594 1.570 13385
0.395 0.600 1.575 14820
0.398 0.604 1.573 17316
0.402 0.610 1.578 16694
0.406 0.617 1.583 15873
0.409 0.620 1.580 15719
0.413 0.627 1.585 14880
0.415 0.631 1.583 15568
0.420 0.637 1.588 16428
0.422 0.641 1.585 17128
0.424 0.644 1.583 17828
0.422 0.641 1.567 16692
0.422 0.642 1.558 16765
0.427 0.648 1.562 15638
0.429 0.652 1.560 14354
0.433 0.658 1.564 15130
0.438 0.665 1.569 17427
0.440 0.669 1.566 18745
0.442 0.672 1.564 19365
0.445 0.676 1.562 19985
0.449 0.682 1.566 20153
0.452 0.686 1.564 18599
0.456 0.693 1.568 16430
0.456 0.693 1.559 13619
0.458 0.696 1.556 11132
0.461 0.700 1.554 10160
0.465 0.706 1.558 7594
0.470 0.713 1.562 5851
0.472 0.717 1.559 5844
0.486 0.738 1.590 6577
0.488 0.741 1.588 7423
0.493 0.748 1.592 7440
0.483 0.734 1.556 12016
0.488 0.741 1.560 20079
0.495 0.752 1.570 31137
0.497 0.755 1.568 36432
0.499 0.759 1.565 32243
0.502 0.762 1.562 20835
0.509 0.773 1.573 6636
0.504 0.765 1.550 4923
0.509 0.772 1.554 8034
0.513 0.780 1.558 13224
0.518 0.787 1.562 14229
0.523 0.794 1.565 12692
0.525 0.797 1.562 12927
0.525 0.797 1.553 13154
0.525 0.797 1.544 11840
0.529 0.804 1.547 8858
0.539 0.819 1.564 9133
0.546 0.830 1.574 13821
0.549 0.833 1.571 20706
0.551 0.837 1.568 21537
0.556 0.844 1.571 16904
0.558 0.848 1.568 13239
0.558 0.847 1.559 9757
0.560 0.851 1.556 9603
0.562 0.854 1.553 21077
0.570 0.865 1.562 37587
0.572 0.869 1.559 42982
0.577 0.876 1.563 30126
0.582 0.884 1.566 21521
0.581 0.883 1.556 20010
0.581 0.882 1.547 17302
0.591 0.898 1.562 16101
0.594 0.901 1.559 19506
0.596 0.905 1.556 23797
0.598 0.908 1.553 25819
0.600 0.912 1.550 23681
0.603 0.915 1.546 22597
0.605 0.919 1.543 29605
0.607 0.922 1.540 31926
0.609 0.925 1.536 24075
0.611 0.929 1.533 21946
0.614 0.932 1.530 25685
0.624 0.948 1.545 27259
0.629 0.956 1.547 25799
0.634 0.963 1.550 17231
0.639 0.971 1.553 15414
0.642 0.975 1.549 21353
0.644 0.978 1.546 21024
0.643 0.977 1.536 19934
0.651 0.989 1.545 19820
0.656 0.997 1.547 21368
0.659 1.000 1.544 23653
0.664 1.008 1.546 28889
0.666 1.011 1.542 24342
0.671 1.019 1.545 11434
0.676 1.027 1.547 6742
0.681 1.035 1.549 6491
0.678 1.029 1.534 6665
0.680 1.033 1.530 8364
0.685 1.041 1.532 7743
0.687 1.044 1.529 8574
0.692 1.052 1.531 10995
0.692 1.051 1.521 8672
0.688 1.045 1.506 11902
0.690 1.048 1.502 10179
0.686 1.042 1.487 8314
0.691 1.050 1.489 12212
0.712 1.081 1.520 19502
0.699 1.061 1.487 21344
0.698 1.060 1.478 17830
0.734 1.114 1.536 15132
0.739 1.122 1.538 16878
0.741 1.125 1.534 13266
0.746 1.134 1.536 16062
0.745 1.132 1.526 23163
0.748 1.136 1.522 34345
0.753 1.144 1.523 29015
0.755 1.147 1.519 24037
0.760 1.155 1.521 40500
0.766 1.163 1.522 54382
0.768 1.166 1.518 38907
0.770 1.170 1.514 21335
0.769 1.168 1.504 20693
0.771 1.172 1.500 17459
0.777 1.180 1.501 17554
0.782 1.188 1.503 20185
0.794 1.206 1.515 19774
0.799 1.214 1.516 22771
0.805 1.222 1.517 16707
0.813 1.235 1.523 16658
0.812 1.234 1.513 22927
0.814 1.237 1.509 27094
0.817 1.240 1.505 22902
0.822 1.248 1.506 14242
0.831 1.262 1.512 9655
0.836 1.270 1.512 9792
0.838 1.273 1.508 10755
0.840 1.277 1.503 8885
0.856 1.300 1.520 7738
0.861 1.308 1.520 10548
0.870 1.322 1.526 10752
0.876 1.330 1.526 11197
0.874 1.328 1.516 13620
0.870 1.321 1.502 14407
0.876 1.330 1.502 10330
0.898 1.364 1.528 8361
0.903 1.372 1.528 14899
0.906 1.375 1.523 21043
0.911 1.384 1.523 18396
0.913 1.387 1.518 15415
0.916 1.391 1.513 20869
0.921 1.399 1.513 27638
0.923 1.402 1.508 23215
0.925 1.406 1.503 14525
0.931 1.414 1.503 14178
0.940 1.428 1.508 17001
0.946 1.436 1.508 15155
0.955 1.450 1.512 12292
0.957 1.453 1.507 13976
0.952 1.446 1.493 19510
0.954 1.449 1.487 19857
0.960 1.458 1.487 15054
0.969 1.472 1.491 11829
0.975 1.480 1.491 12186
0.980 1.489 1.490 12230
0.975 1.482 1.476 11507
0.988 1.501 1.485 11014
1.004 1.525 1.498 10801
1.017 1.545 1.506 13544
1.023 1.553 1.506 14249
1.032 1.567 1.509 15968
1.031 1.565 1.499 17259
1.033 1.569 1.494 12717
1.042 1.583 1.497 10732
1.051 1.597 1.501 12192
1.057 1.606 1.500 11674
1.077 1.636 1.516 8351
1.087 1.650 1.520 11541
1.085 1.648 1.509 10712
1.077 1.635 1.490 8971
1.082 1.644 1.489 9831
1.088 1.653 1.487 10572
1.116 1.694 1.512 11300
1.121 1.703 1.511 12855
1.124 1.707 1.505 10734
1.133 1.721 1.507 8612
1.135 1.724 1.501 11189
1.137 1.728 1.495 13498
1.140 1.731 1.489 11616
1.142 1.734 1.483 8832
1.144 1.737 1.477 7928
1.153 1.752 1.479 11963
1.155 1.755 1.473 18152
1.158 1.758 1.466 19620
1.160 1.761 1.460 16857
1.162 1.765 1.454 10096
1.201 1.824 1.489 11183
1.211 1.839 1.491 11110
1.217 1.848 1.488 12967
1.215 1.845 1.478 13750
1.221 1.854 1.475 10752
1.246 1.892 1.493 9077
1.248 1.895 1.486 8965
1.242 1.887 1.471 6849
1.233 1.873 1.453 5911
1.288 1.956 1.501 4875
1.286 1.954 1.490 6513
1.277 1.940 1.472 7739
1.287 1.955 1.473 7213
1.300 1.975 1.477 8007
1.306 1.984 1.474 8980
1.312 1.993 1.471 10283
1.318 2.002 1.468 8910
1.324 2.011 1.465 7818
1.330 2.020 1.461 7089
1.332 2.024 1.454 6173
1.331 2.021 1.443 5932
1.375 2.088 1.477 5207
1.377 2.092 1.469 5607
1.383 2.101 1.466 7003
1.393 2.116 1.465 8672
1.403 2.131 1.465 8909
1.405 2.134 1.458 9495
1.407 2.137 1.450 8867
1.409 2.140 1.443 8239
1.411 2.143 1.435 9581
1.413 2.146 1.427 10922
1.411 2.144 1.416 8897
1.413 2.147 1.409 7194
1.478 2.245 1.456 7768
1.484 2.254 1.452 9627
1.486 2.257 1.444 9627
1.484 2.255 1.432 9658
1.486 2.258 1.425 9734
1.492 2.267 1.420 8522
1.494 2.270 1.412 7467
1.500 2.279 1.407 6665
1.518 2.306 1.412 7308
1.516 2.303 1.401 8087
1.514 2.300 1.390 9285
1.516 2.303 1.381 9784
1.514 2.300 1.370 8800
1.512 2.297 1.359 7978
1.514 2.300 1.351 3989
0.804 1.221 0.786 290
0.345 0.521 1.594 6443
0.349 0.527 1.600 7582
0.353 0.533 1.605 8772
0.354 0.534 1.596 8395
0.356 0.537 1.594 8036
0.358 0.541 1.592 8841
0.361 0.545 1.590 9646
0.365 0.551 1.595 9660
0.367 0.554 1.593 8034
0.372 0.561 1.598 6407
0.372 0.561 1.589 6780
0.374 0.565 1.587 7152
0.377 0.568 1.585 7568
0.377 0.569 1.576 8161
0.379 0.572 1.574 8796
0.382 0.576 1.572 9336
0.382 0.576 1.563 9190
0.386 0.583 1.567 8995
0.390 0.589 1.572 10384
0.393 0.593 1.570 12016
0.397 0.599 1.575 13902
0.399 0.603 1.573 16707
0.404 0.609 1.578 16330
0.408 0.616 1.583 15948
0.410 0.619 1.580 16010
0.413 0.623 1.578 15253
0.417 0.629 1.583 15316
0.421 0.636 1.588 15704
0.424 0.640 1.585 16046
0.426 0.643 1.583 16388
0.426 0.643 1.574 14996
0.424 0.640 1.558 14923
0.427 0.644 1.555 13897
0.431 0.650 1.560 12922
0.435 0.657 1.564 14432
0.440 0.664 1.569 17263
0.444 0.671 1.573 18413
0.444 0.671 1.564 20093
0.447 0.674 1.562 21773
0.451 0.681 1.566 22431
0.454 0.684 1.564 21012
0.458 0.691 1.568 18357
0.458 0.691 1.559 14461
0.458 0.691 1.549 11514
0.463 0.698 1.554 10403
0.467 0.705 1.558 8304
0.469 0.708 1.555 7207
0.472 0.712 1.553 6932
0.476 0.719 1.557 6217
0.493 0.743 1.594 6772
0.495 0.747 1.592 7337
0.485 0.733 1.556 13632
0.490 0.740 1.560 22844
0.497 0.750 1.570 34315
0.499 0.754 1.568 39800
0.502 0.757 1.565 35629
0.504 0.761 1.562 23693
0.509 0.768 1.566 6990
0.496 0.749 1.524 5260
0.506 0.764 1.541 7118
0.513 0.774 1.551 11400
0.520 0.785 1.562 13678
0.525 0.792 1.565 13055
0.525 0.792 1.556 13451
0.525 0.792 1.547 14641
0.527 0.795 1.544 13653
0.532 0.802 1.547 10898
0.536 0.809 1.551 10413
0.546 0.824 1.567 13962
0.551 0.832 1.571 21101
0.553 0.835 1.568 21862
0.558 0.842 1.571 16545
0.561 0.846 1.568 13287
0.560 0.845 1.559 10192
0.563 0.849 1.556 8544
0.567 0.856 1.559 17975
0.572 0.864 1.562 34504
0.575 0.867 1.559 40035
0.579 0.874 1.563 28660
0.587 0.886 1.572 21172
0.587 0.885 1.563 18951
0.589 0.889 1.559 15903
0.594 0.896 1.562 14997
0.596 0.900 1.559 17954
0.596 0.899 1.550 21630
0.601 0.907 1.553 23912
0.603 0.910 1.550 23244
0.605 0.913 1.546 23316
0.608 0.917 1.543 29832
0.612 0.924 1.546 30578
0.615 0.928 1.543 22175
0.614 0.927 1.533 21196
0.616 0.930 1.530 26143
0.627 0.946 1.545 29377
0.632 0.954 1.547 28079
0.637 0.962 1.550 18319
0.642 0.969 1.553 14096
0.645 0.973 1.549 18915
0.647 0.976 1.546 19219
0.646 0.975 1.536 18646
0.654 0.987 1.545 18559
0.659 0.995 1.547 19098
0.661 0.998 1.544 22655
0.664 1.002 1.540 26964
0.669 1.009 1.542 20712
0.674 1.017 1.545 10541
0.676 1.021 1.541 8544
0.679 1.024 1.538 6741
0.684 1.032 1.540 5902
0.689 1.040 1.542 8610
0.691 1.043 1.538 7478
0.693 1.046 1.534 9039
0.696 1.050 1.531 12440
0.689 1.040 1.510 8142
0.688 1.038 1.500 10443
0.690 1.042 1.496 10442
0.689 1.040 1.487 11868
0.692 1.044 1.483 15268
0.718 1.083 1.525 18374
0.699 1.055 1.481 21208
0.698 1.053 1.472 18590
0.737 1.112 1.536 13982
0.742 1.120 1.538 18288
0.741 1.119 1.528 19166
0.743 1.122 1.524 17539
0.749 1.130 1.526 19010
0.748 1.129 1.516 29762
0.753 1.137 1.518 24525
0.759 1.145 1.519 19805
0.764 1.153 1.521 36959
0.769 1.161 1.522 52976
0.771 1.164 1.518 37738
0.774 1.168 1.514 19345
0.776 1.171 1.510 21089
0.775 1.169 1.500 17505
0.780 1.177 1.501 14753
0.789 1.190 1.508 18457
0.801 1.208 1.520 21763
0.803 1.211 1.516 25251
0.808 1.220 1.517 18548
0.817 1.233 1.523 17674
0.816 1.231 1.513 22804
0.818 1.235 1.509 28187
0.820 1.238 1.505 23912
0.826 1.246 1.506 14047
0.834 1.259 1.512 9618
0.840 1.267 1.512 8727
0.842 1.271 1.508 9647
0.844 1.274 1.503 8848
0.853 1.287 1.509 7845
0.859 1.296 1.510 10820
0.857 1.294 1.500 10069
0.880 1.327 1.526 10409
0.878 1.326 1.516 13139
0.874 1.319 1.502 14176
0.873 1.317 1.492 11858
0.898 1.356 1.523 7380
0.907 1.369 1.528 14226
0.910 1.373 1.523 20976
0.912 1.376 1.518 18688
0.917 1.384 1.518 14874
0.923 1.393 1.518 20290
0.925 1.396 1.513 27980
0.927 1.400 1.508 23493
0.930 1.403 1.503 14416
0.935 1.411 1.503 15028
0.944 1.425 1.508 20042
0.950 1.434 1.508 16953
0.959 1.447 1.512 11580
0.958 1.445 1.503 13802
0.956 1.443 1.493 19598
0.959 1.447 1.487 18693
0.964 1.455 1.487 13728
0.973 1.469 1.491 13359
0.979 1.478 1.491 15506
0.988 1.491 1.495 14826
0.990 1.495 1.490 12459
0.993 1.498 1.485 11741
1.009 1.522 1.498 9557
1.022 1.542 1.506 11946
1.024 1.545 1.501 13555
1.037 1.564 1.509 14581
1.035 1.562 1.499 15966
1.037 1.566 1.494 12468
1.050 1.585 1.502 11623
1.056 1.594 1.501 13394
1.062 1.603 1.500 12873
1.064 1.606 1.494 9019
1.088 1.642 1.515 10513
1.086 1.640 1.505 11328
1.089 1.643 1.499 10237
1.087 1.641 1.489 10143
1.093 1.649 1.487 10062
1.121 1.691 1.512 12295
1.126 1.700 1.511 14584
1.129 1.703 1.505 11984
1.134 1.712 1.503 8847
1.140 1.721 1.501 10719
1.143 1.724 1.495 12707
1.145 1.727 1.489 10872
1.147 1.731 1.483 8152
1.149 1.734 1.477 7267
1.159 1.748 1.479 11380
1.161 1.752 1.473 17693
1.163 1.755 1.466 19363
1.165 1.758 1.460 16670
1.171 1.767 1.458 10112
1.206 1.821 1.489 11205
1.216 1.835 1.491 10995
1.222 1.844 1.488 12761
1.220 1.842 1.478 13720
1.226 1.851 1.475 10748
1.251 1.888 1.493 9491
1.253 1.891 1.486 9585
1.248 1.883 1.471 7187
1.239 1.869 1.453 5990
1.294 1.953 1.501 5216
1.292 1.950 1.490 6762
1.283 1.936 1.472 7219
1.300 1.962 1.481 7033
1.310 1.977 1.481 8170
1.316 1.986 1.478 9367
1.318 1.989 1.471 10685
1.324 1.998 1.468 9224
1.330 2.007 1.465 8091
1.336 2.016 1.461 7595
1.338 2.020 1.454 6491
1.336 2.017 1.443 6041
1.385 2.090 1.480 5276
1.387 2.093 1.473 5823
1.389 2.097 1.466 6998
1.403 2.117 1.469 8574
1.409 2.126 1.465 8897
1.415 2.136 1.461 9416
1.413 2.133 1.450 8829
1.415 2.136 1.443 8243
1.417 2.139 1.435 9370
1.420 2.142 1.427 10497
1.422 2.145 1.420 8528
1.420 2.143 1.409 6857
1.481 2.235 1.453 7552
1.487 2.244 1.448 9465
1.489 2.247 1.440 9465
1.491 2.250 1.432 9619
1.493 2.253 1.425 9772
1.499 2.262 1.420 8511
1.501 2.265 1.412 7451
1.511 2.280 1.411 7007
1.521 2.296 1.409 7798
1.523 2.299 1.401 8637
1.521 2.296 1.390 9886
1.523 2.299 1.381 10410
1.521 2.296 1.370 9466
1.519 2.293 1.359 8635
1.521 2.295 1.351 4317
1.390 2.098 1.239 279
0.348 0.523 1.601 5448
0.350 0.526 1.600 6576
0.354 0.532 1.605 7781
0.355 0.533 1.596 8017
0.357 0.537 1.594 8332
0.360 0.540 1.592 9347
0.362 0.544 1.590 10363
0.364 0.547 1.588 10363
0.368 0.554 1.593 8462
0.371 0.557 1.591 6670
0.373 0.561 1.589 7079
0.375 0.564 1.587 7488
0.376 0.565 1.578 8182
0.378 0.568 1.576 9061
0.380 0.572 1.574 9958
0.383 0.575 1.572 10799
0.385 0.579 1.570 10319
0.387 0.582 1.567 9896
0.392 0.588 1.572 10044
0.394 0.592 1.570 10254
0.398 0.598 1.575 12758
0.401 0.602 1.573 16032
0.405 0.608 1.578 15945
0.409 0.615 1.583 16211
0.412 0.618 1.580 16524
0.414 0.622 1.578 15899
0.418 0.629 1.583 14750
0.423 0.635 1.588 14197
0.425 0.639 1.585 14107
0.427 0.642 1.583 14016
0.428 0.642 1.574 12864
0.426 0.639 1.558 13096
0.428 0.643 1.555 12415
0.432 0.650 1.560 11723
0.437 0.656 1.564 13584
0.441 0.663 1.569 16663
0.446 0.670 1.573 17877
0.446 0.670 1.564 20452
0.448 0.673 1.562 23258
0.453 0.680 1.566 24376
0.457 0.687 1.570 23627
0.460 0.690 1.568 20620
0.462 0.694 1.565 15445
0.457 0.687 1.543 11549
0.462 0.694 1.547 10159
0.466 0.701 1.551 8779
0.469 0.704 1.549 8505
0.473 0.711 1.553 7857
0.478 0.718 1.557 6334
0.494 0.742 1.594 6275
0.496 0.746 1.592 7497
0.487 0.732 1.556 15816
0.494 0.742 1.566 25831
0.499 0.749 1.570 37302
0.501 0.753 1.568 42699
0.503 0.756 1.565 38553
0.506 0.760 1.562 26210
0.510 0.767 1.566 9949
0.500 0.752 1.530 7543
0.508 0.762 1.541 9917
0.512 0.770 1.545 12849
0.519 0.780 1.555 14438
0.524 0.788 1.559 13850
0.526 0.791 1.556 14257
0.526 0.791 1.547 15931
0.531 0.798 1.550 15624
0.533 0.801 1.547 13602
0.538 0.808 1.551 12653
0.548 0.823 1.567 14163
0.550 0.827 1.564 21497
0.553 0.830 1.561 22655
0.557 0.837 1.565 16342
0.560 0.841 1.562 13207
0.562 0.844 1.559 10561
0.562 0.844 1.549 7478
0.569 0.855 1.559 14914
0.574 0.862 1.562 31045
0.576 0.866 1.559 36597
0.581 0.873 1.563 26506
0.589 0.885 1.572 19905
0.589 0.884 1.563 16967
0.591 0.888 1.559 14023
0.596 0.895 1.562 13587
0.598 0.898 1.559 16272
0.598 0.898 1.550 19273
0.603 0.905 1.553 21378
0.605 0.909 1.550 21980
0.607 0.912 1.546 23296
0.612 0.920 1.549 29501
0.614 0.923 1.546 28784
0.617 0.926 1.543 20689
0.616 0.926 1.533 20194
0.621 0.933 1.536 25742
0.629 0.945 1.545 30720
0.634 0.953 1.547 29630
0.639 0.960 1.550 19703
0.644 0.968 1.553 13558
0.647 0.971 1.549 16456
0.649 0.975 1.546 17373
0.651 0.978 1.542 17843
0.656 0.986 1.545 17491
0.661 0.994 1.547 16775
0.664 0.997 1.544 21205
0.666 1.000 1.540 24126
0.671 1.008 1.542 16692
0.676 1.016 1.545 9213
0.675 1.015 1.535 9499
0.675 1.014 1.526 7676
0.689 1.035 1.546 7193
0.691 1.038 1.542 10965
0.696 1.046 1.544 9083
0.696 1.045 1.534 10633
0.698 1.048 1.531 14405
0.688 1.034 1.504 9192
0.687 1.032 1.494 10034
0.692 1.040 1.496 10993
0.689 1.034 1.481 14550
0.691 1.038 1.478 20137
0.696 1.045 1.480 19235
0.698 1.049 1.476 21123
0.697 1.047 1.466 19788
0.696 1.046 1.457 13485
0.744 1.118 1.538 19227
0.744 1.117 1.528 25361
0.746 1.120 1.524 19822
0.748 1.124 1.520 15632
0.750 1.127 1.516 25308
0.756 1.135 1.518 19416
0.764 1.148 1.525 15143
0.766 1.151 1.521 32303
0.772 1.159 1.522 49964
0.774 1.163 1.518 36325
0.779 1.171 1.519 18032
0.778 1.169 1.510 21080
0.780 1.173 1.506 18230
0.789 1.185 1.512 12507
0.791 1.189 1.508 15336
0.803 1.207 1.520 20532
0.805 1.210 1.516 24520
0.811 1.218 1.517 20072
0.819 1.231 1.523 19310
0.818 1.229 1.513 22898
0.821 1.233 1.509 28022
0.823 1.236 1.505 23645
0.828 1.244 1.506 13069
0.837 1.257 1.512 9175
0.846 1.271 1.518 7698
0.848 1.274 1.513 8492
0.847 1.272 1.503 8322
0.849 1.276 1.499 8782
0.851 1.279 1.494 13223
0.850 1.277 1.485 12827
0.879 1.320 1.521 9646
0.881 1.324 1.516 12563
0.877 1.317 1.502 13235
0.875 1.315 1.492 13286
0.874 1.313 1.482 8455
0.907 1.362 1.523 13351
0.909 1.366 1.518 20483
0.915 1.374 1.518 18964
0.920 1.383 1.518 14040
0.926 1.391 1.518 18701
0.928 1.394 1.513 26801
0.930 1.398 1.508 22703
0.929 1.396 1.498 13562
0.945 1.420 1.513 15342
0.951 1.428 1.513 22820
0.956 1.437 1.513 19003
0.962 1.445 1.512 12053
0.961 1.443 1.503 14350
0.959 1.441 1.493 19625
0.962 1.445 1.487 17598
0.967 1.453 1.487 12827
0.976 1.467 1.491 14752
0.986 1.481 1.496 18798
0.991 1.489 1.495 17394
0.993 1.493 1.490 13350
0.996 1.496 1.485 12065
