0.964 2.367 1.439 12204
0.965 2.370 1.431 10158
0.969 2.380 1.427 8112
0.968 2.377 1.416 6830
0.969 2.380 1.409 5558
0.973 2.390 1.405 5765
0.977 2.400 1.400 5225
0.981 2.410 1.396 4571
0.983 2.414 1.389 3885
1.019 2.504 1.425 3553
1.015 2.494 1.410 4002
1.011 2.484 1.395 4715
1.013 2.487 1.387 4690
1.014 2.490 1.380 4665
1.015 2.494 1.372 4665
1.074 2.638 1.432 3482
1.075 2.641 1.423 3482
1.079 2.651 1.418 3554
1.081 2.655 1.410 3630
1.082 2.658 1.401 1815
0.985 2.419 1.280 303
0.244 0.596 1.638 3370
0.245 0.600 1.636 4890
0.246 0.601 1.627 6423
0.247 0.605 1.625 7803
0.249 0.609 1.623 9182
0.251 0.613 1.621 8575
0.254 0.620 1.626 8447
0.258 0.630 1.638 9645
0.259 0.634 1.636 9599
0.262 0.642 1.641 9608
0.263 0.642 1.632 11069
0.264 0.646 1.630 12586
0.265 0.647 1.621 11591
0.265 0.648 1.611 11082
0.267 0.652 1.609 10113
0.270 0.659 1.614 9264
0.270 0.660 1.605 7716
0.273 0.667 1.610 6004
0.274 0.671 1.608 6128
0.276 0.675 1.605 6295
0.279 0.682 1.610 6370
0.281 0.686 1.608 10636
0.284 0.694 1.613 14771
0.287 0.701 1.618 18979
0.288 0.705 1.615 24095
0.290 0.709 1.613 25880
0.293 0.716 1.618 22989
0.295 0.720 1.615 19256
0.298 0.728 1.620 12690
0.301 0.735 1.625 6189
0.307 0.750 1.643 6633
0.308 0.754 1.640 6637
0.310 0.758 1.638 8563
0.313 0.766 1.642 10561
0.315 0.770 1.640 10490
0.315 0.770 1.631 10474
0.315 0.770 1.621 10753
0.317 0.774 1.619 12597
0.320 0.782 1.623 14011
0.323 0.790 1.627 13211
0.326 0.797 1.632 13480
0.329 0.805 1.636 12423
0.331 0.809 1.633 9343
0.331 0.809 1.624 7596
0.333 0.813 1.621 12338
0.334 0.817 1.619 18026
0.336 0.821 1.616 20601
0.338 0.825 1.613 19626
0.341 0.833 1.617 17029
0.341 0.833 1.608 12504
0.342 0.837 1.605 8606
0.346 0.845 1.609 9235
0.347 0.849 1.606 10664
0.349 0.853 1.604 10217
0.352 0.861 1.607 6935
0.359 0.877 1.625 4266
0.362 0.885 1.628 5226
0.364 0.889 1.625 7807
0.363 0.889 1.616 8368
0.365 0.893 1.613 7327
0.368 0.901 1.617 7547
0.370 0.905 1.614 7567
0.373 0.913 1.618 5994
0.377 0.921 1.621 7059
0.380 0.929 1.625 10669
0.382 0.933 1.622 15545
0.383 0.937 1.619 18879
0.385 0.941 1.616 19908
0.388 0.949 1.619 16917
0.390 0.953 1.616 11094
0.390 0.953 1.606 8073
0.391 0.957 1.603 7685
0.393 0.961 1.600 8088
0.396 0.969 1.604 8432
0.398 0.973 1.600 7087
0.296 0.723 1.229 5227
0.297 0.726 1.226 5453
0.298 0.729 1.224 6195
0.299 0.732 1.222 6410
0.301 0.735 1.219 5629
0.304 0.742 1.223 4798
0.305 0.745 1.221 4090
0.306 0.748 1.218 3512
0.309 0.756 1.222 3691
0.312 0.763 1.226 3225
0.315 0.770 1.230 2085
0.322 0.787 1.246 2578
0.323 0.790 1.243 3344
0.324 0.793 1.241 4024
0.325 0.796 1.238 5621
0.327 0.799 1.236 5387
0.328 0.802 1.233 2800
0.426 1.042 1.542 2145
0.363 0.887 1.331 2099
0.364 0.890 1.329 2067
0.338 0.828 1.241 2683
0.369 0.901 1.329 3404
0.368 0.900 1.320 4416
0.363 0.889 1.299 5690
0.363 0.887 1.290 6331
0.366 0.895 1.293 5479
0.369 0.903 1.296 7659
0.370 0.906 1.293 10091
0.370 0.904 1.284 9697
0.369 0.902 1.276 10527
0.368 0.901 1.267 9700
0.368 0.899 1.258 9332
0.369 0.902 1.255 8903
0.368 0.900 1.246 7182
0.365 0.893 1.232 5616
0.366 0.896 1.229 6794
0.370 0.904 1.232 7812
0.369 0.902 1.223 8139
0.370 0.905 1.220 13015
0.371 0.907 1.217 17950
0.370 0.905 1.208 21727
0.371 0.908 1.206 21833
0.373 0.911 1.203 22005
0.372 0.909 1.194 23534
0.371 0.906 1.185 22244
0.372 0.909 1.182 31303
0.373 0.912 1.179 38649
0.376 0.920 1.182 24556
0.375 0.918 1.174 14507
0.374 0.915 1.165 16850
0.375 0.918 1.162 13712
0.415 1.014 1.260 10876
0.382 0.934 1.167 7828
0.383 0.937 1.164 10707
0.388 0.950 1.172 8120
0.381 0.932 1.147 8433
0.380 0.929 1.139 7469
0.405 0.990 1.196 9839
0.408 0.998 1.198 9225
0.409 1.001 1.195 11170
0.408 0.998 1.186 17234
0.409 1.001 1.183 18800
0.411 1.004 1.180 18236
0.412 1.007 1.177 18274
0.413 1.009 1.173 14823
0.416 1.018 1.176 11306
0.415 1.015 1.167 9897
0.418 1.023 1.169 8200
0.424 1.037 1.176 6157
0.425 1.040 1.173 5398
0.424 1.037 1.164 7069
0.421 1.029 1.150 7383
0.424 1.037 1.152 10214
0.427 1.045 1.154 11625
0.431 1.053 1.156 11413
0.613 1.500 1.567 16628
0.617 1.509 1.567 20310
0.619 1.513 1.562 17220
0.618 1.511 1.552 9167
0.466 1.140 1.205 8694
0.637 1.558 1.578 6488
0.636 1.556 1.568 12325
0.638 1.560 1.563 13674
0.642 1.569 1.563 10175
0.643 1.573 1.558 5722
0.461 1.128 1.158 7303
0.465 1.137 1.160 9060
0.466 1.139 1.156 9033
0.469 1.148 1.157 6557
0.470 1.150 1.154 4748
0.472 1.153 1.150 4829
0.473 1.156 1.146 5264
0.481 1.176 1.157 4599
0.491 1.202 1.173 4004
0.459 1.123 1.101 4875
0.460 1.126 1.098 6499
0.461 1.128 1.094 6052
0.458 1.119 1.081 3714
0.684 1.672 1.525 3419
0.692 1.693 1.534 3016
0.694 1.697 1.528 3590
0.696 1.701 1.523 3308
0.712 1.740 1.546 3475
0.713 1.744 1.540 4362
0.717 1.753 1.539 8517
0.719 1.757 1.533 12813
0.715 1.749 1.519 10738
0.719 1.759 1.518 8396
0.730 1.786 1.530 11677
0.734 1.796 1.529 14417
0.738 1.806 1.528 15103
0.742 1.815 1.527 13836
0.744 1.819 1.521 11943
0.745 1.823 1.515 13646
0.752 1.839 1.518 16931
0.756 1.848 1.517 18037
0.757 1.852 1.511 14055
0.779 1.905 1.540 14425
0.780 1.908 1.534 21421
0.779 1.906 1.524 22204
0.781 1.910 1.518 19199
0.787 1.926 1.520 16706
0.791 1.935 1.518 19492
0.793 1.939 1.512 19738
0.794 1.943 1.506 16764
0.796 1.946 1.500 10806
0.800 1.956 1.498 7908
0.804 1.966 1.496 9830
0.811 1.982 1.498 10860
0.830 2.029 1.521 12386
0.829 2.027 1.510 15118
0.828 2.024 1.499 15170
0.829 2.028 1.493 13341
0.836 2.044 1.495 11211
0.843 2.060 1.496 11576
0.847 2.070 1.494 12604
0.848 2.074 1.487 10180
0.852 2.084 1.485 8609
0.851 2.081 1.474 9191
0.852 2.085 1.467 7905
0.854 2.088 1.461 6620
0.879 2.149 1.489 7928
0.880 2.153 1.483 10067
0.882 2.156 1.476 9356
0.886 2.166 1.473 8198
0.887 2.170 1.466 7046
0.889 2.173 1.459 5448
0.888 2.170 1.448 3996
0.889 2.174 1.441 2709
0.933 2.280 1.495 4036
0.926 2.265 1.476 5734
0.925 2.262 1.465 6760
0.924 2.259 1.454 8098
0.954 2.334 1.488 8475
0.956 2.337 1.480 11233
0.955 2.334 1.469 10601
0.956 2.338 1.462 10159
0.960 2.348 1.458 10879
0.964 2.358 1.454 11936
0.966 2.362 1.447 12398
0.967 2.365 1.439 12860
0.971 2.375 1.435 10586
0.973 2.379 1.427 8515
0.974 2.382 1.420 6718
0.973 2.379 1.409 5099
0.977 2.389 1.405 5361
0.981 2.399 1.400 5017
0.985 2.409 1.396 4473
0.986 2.412 1.389 3807
1.048 2.562 1.455 3759
1.022 2.499 1.413 3985
1.012 2.476 1.392 5207
1.014 2.479 1.384 5180
1.018 2.489 1.380 5164
1.019 2.492 1.372 5164
1.018 2.489 1.360 3539
1.082 2.646 1.426 3304
1.083 2.650 1.418 3518
1.085 2.653 1.410 3731
1.086 2.656 1.401 1865
0.989 2.417 1.280 257
0.246 0.595 1.638 3717
0.247 0.599 1.636 5270
0.249 0.603 1.634 6823
0.249 0.604 1.625 8017
0.251 0.608 1.623 9212
0.253 0.612 1.621 8610
0.255 0.619 1.626 8266
0.260 0.630 1.638 9117
0.261 0.634 1.636 9351
0.263 0.638 1.634 9585
0.265 0.642 1.632 11242
0.266 0.646 1.630 12899
0.267 0.646 1.621 11845
0.267 0.647 1.611 11293
0.269 0.651 1.609 10444
0.272 0.658 1.614 9766
0.272 0.659 1.605 8155
0.275 0.666 1.610 6492
0.276 0.670 1.608 6678
0.278 0.674 1.605 6812
0.281 0.681 1.610 6972
0.283 0.685 1.608 11192
0.286 0.693 1.613 15264
0.289 0.700 1.618 19279
0.290 0.704 1.615 24361
0.292 0.708 1.613 26176
0.294 0.712 1.611 23396
0.297 0.719 1.615 19618
0.298 0.723 1.613 13017
0.298 0.724 1.604 6562
0.300 0.728 1.601 6789
0.302 0.732 1.599 7016
0.312 0.757 1.638 9408
0.314 0.761 1.636 11867
0.316 0.765 1.633 12317
0.317 0.769 1.631 12767
0.317 0.769 1.621 13120
0.319 0.773 1.619 14720
0.321 0.777 1.616 15809
0.324 0.785 1.621 14033
0.329 0.797 1.632 12967
0.332 0.804 1.636 10442
0.335 0.812 1.640 7788
0.335 0.812 1.631 7116
0.335 0.812 1.621 12295
0.337 0.816 1.619 18589
0.338 0.820 1.616 20847
0.340 0.824 1.613 18799
0.342 0.828 1.611 15581
0.343 0.832 1.608 11242
0.343 0.832 1.598 7349
0.345 0.836 1.596 7524
0.348 0.844 1.600 8481
0.350 0.848 1.597 8139
0.353 0.856 1.601 5894
0.353 0.856 1.591 4100
0.365 0.884 1.628 4868
0.366 0.888 1.625 6956
0.364 0.884 1.609 7419
0.368 0.892 1.613 6278
0.374 0.908 1.630 7063
0.374 0.908 1.620 7456
0.378 0.916 1.624 6133
0.381 0.924 1.628 7360
0.383 0.928 1.625 10652
0.384 0.932 1.622 16544
0.386 0.936 1.619 20772
0.388 0.940 1.616 22051
0.389 0.944 1.613 18889
0.393 0.952 1.616 12415
0.393 0.952 1.606 9131
0.394 0.956 1.603 8577
0.396 0.960 1.600 8630
0.399 0.968 1.604 8647
0.401 0.972 1.600 7240
0.298 0.723 1.229 5036
0.299 0.725 1.226 5402
0.300 0.728 1.224 6381
0.302 0.731 1.222 7064
0.303 0.734 1.219 6504
0.306 0.741 1.223 5494
0.307 0.744 1.221 4362
0.308 0.747 1.218 3336
0.311 0.755 1.222 3449
0.314 0.762 1.226 3156
0.317 0.770 1.230 2014
0.324 0.786 1.246 2357
0.325 0.789 1.243 3018
0.327 0.792 1.241 3585
0.328 0.795 1.238 5210
0.329 0.798 1.236 5175
0.330 0.801 1.233 2866
0.429 1.041 1.542 2066
0.367 0.891 1.337 2061
0.367 0.889 1.329 2121
0.368 0.892 1.326 2875
0.371 0.900 1.329 4003
0.371 0.899 1.320 4960
0.368 0.892 1.305 5896
0.367 0.891 1.296 5808
0.369 0.894 1.293 5967
0.372 0.902 1.296 8962
0.373 0.905 1.293 10011
0.374 0.908 1.290 8664
0.370 0.896 1.270 10185
0.371 0.899 1.267 10404
0.370 0.898 1.258 10596
0.371 0.901 1.255 10042
0.371 0.899 1.246 7665
0.370 0.897 1.238 5620
0.369 0.895 1.229 7073
0.372 0.903 1.232 7605
0.371 0.901 1.223 7134
0.373 0.903 1.220 10799
0.374 0.906 1.217 15271
0.373 0.904 1.208 22599
0.374 0.907 1.206 25849
0.375 0.910 1.203 23098
0.374 0.908 1.194 21456
0.373 0.905 1.185 21408
0.375 0.908 1.182 28908
0.378 0.916 1.185 32236
0.381 0.924 1.188 22304
0.380 0.922 1.179 17012
0.379 0.919 1.171 18738
0.380 0.922 1.168 14523
0.384 0.930 1.170 8670
0.383 0.928 1.162 11408
0.386 0.935 1.164 13838
0.387 0.938 1.161 8955
0.395 0.957 1.175 7706
0.407 0.986 1.199 8052
0.408 0.989 1.196 9075
0.413 1.002 1.204 8471
0.412 1.000 1.195 10999
0.411 0.997 1.186 17925
0.412 1.000 1.183 19176
0.414 1.003 1.180 20134
0.415 1.005 1.177 23101
0.418 1.014 1.179 19647
0.419 1.016 1.176 14526
0.418 1.014 1.167 12221
0.421 1.022 1.169 10254
0.427 1.035 1.176 7461
0.430 1.044 1.178 5523
0.427 1.036 1.164 7337
0.424 1.027 1.150 8495
0.425 1.030 1.147 11499
0.428 1.038 1.149 12973
0.432 1.046 1.151 12574
0.618 1.498 1.567 17722
0.622 1.507 1.567 21921
0.623 1.511 1.562 18851
0.622 1.509 1.552 10990
0.624 1.513 1.547 8318
0.637 1.545 1.568 8868
0.641 1.554 1.568 14882
0.643 1.558 1.563 15299
0.646 1.567 1.563 11555
0.646 1.566 1.553 7121
0.645 1.564 1.543 6125
0.647 1.568 1.538 7375
0.469 1.138 1.156 7654
0.473 1.146 1.157 5665
0.661 1.602 1.543 4078
0.477 1.157 1.155 3559
0.479 1.160 1.151 4935
0.484 1.174 1.157 4956
0.495 1.200 1.173 4292
0.463 1.122 1.101 4837
0.464 1.124 1.098 6265
0.465 1.127 1.094 5617
0.687 1.666 1.530 4357
0.689 1.670 1.525 4048
0.698 1.691 1.534 3789
0.699 1.695 1.528 4314
0.701 1.699 1.523 3713
0.717 1.738 1.546 4380
0.716 1.736 1.535 5433
0.720 1.745 1.534 9783
0.721 1.749 1.529 14021
0.720 1.747 1.519 11827
0.724 1.757 1.518 8862
0.733 1.778 1.526 10727
0.740 1.794 1.529 12088
0.744 1.804 1.528 12367
0.748 1.813 1.527 11792
0.752 1.823 1.525 11707
0.753 1.827 1.520 15862
0.757 1.836 1.518 19658
0.761 1.846 1.517 20040
0.763 1.850 1.511 14691
0.785 1.902 1.540 12063
0.784 1.900 1.530 17658
0.785 1.904 1.524 19566
0.787 1.907 1.518 18895
0.793 1.923 1.520 18868
0.797 1.933 1.518 21973
0.799 1.937 1.512 22098
0.800 1.940 1.506 18551
0.802 1.944 1.500 11596
0.803 1.948 1.494 8189
0.810 1.964 1.496 9545
0.817 1.980 1.498 9878
0.836 2.027 1.521 12399
0.835 2.024 1.510 15306
0.834 2.022 1.499 15050
0.835 2.025 1.493 12788
0.842 2.042 1.495 11532
0.849 2.058 1.496 12729
0.850 2.061 1.490 13923
0.854 2.071 1.487 10898
0.858 2.081 1.485 8428
0.857 2.079 1.474 8587
0.859 2.082 1.467 7141
0.860 2.086 1.461 5696
0.885 2.146 1.489 7736
0.887 2.150 1.483 9895
0.888 2.154 1.476 9266
0.892 2.164 1.473 7876
0.894 2.167 1.466 6528
0.895 2.171 1.459 5031
0.894 2.168 1.448 3587
0.896 2.171 1.441 2529
0.939 2.278 1.495 4537
0.936 2.268 1.480 6290
0.932 2.259 1.465 7230
0.931 2.256 1.454 8536
0.959 2.324 1.484 8511
0.960 2.328 1.477 11361
0.962 2.332 1.469 10961
0.960 2.329 1.458 10597
0.965 2.339 1.454 11127
0.971 2.355 1.454 12074
0.973 2.359 1.447 12657
0.974 2.362 1.439 13240
0.978 2.372 1.435 10900
0.983 2.382 1.431 8901
0.981 2.379 1.420 6645
0.980 2.376 1.409 4558
0.984 2.386 1.405 4864
0.988 2.396 1.400 4691
0.992 2.406 1.396 4251
0.994 2.409 1.389 3680
1.055 2.558 1.455 4076
1.057 2.562 1.447 4320
1.020 2.472 1.392 5574
1.021 2.476 1.384 5548
1.022 2.479 1.376 5521
1.024 2.482 1.368 5521
1.025 2.486 1.360 3817
1.090 2.643 1.426 2961
1.091 2.646 1.418 3298
1.096 2.656 1.413 3655
1.097 2.660 1.404 1827
0.996 2.414 1.280 290
0.246 0.595 1.638 4123
0.248 0.599 1.636 5660
0.250 0.603 1.634 7197
0.250 0.604 1.625 8161
0.252 0.608 1.623 9147
0.253 0.612 1.621 8529
0.256 0.619 1.626 7956
0.259 0.626 1.631 8499
0.262 0.633 1.636 9131
0.264 0.637 1.634 9786
0.266 0.641 1.632 11576
0.267 0.645 1.630 13366
0.268 0.646 1.621 12247
0.268 0.647 1.611 11620
0.271 0.654 1.616 10879
0.273 0.658 1.614 10379
0.273 0.659 1.605 8716
0.276 0.666 1.610 7108
0.277 0.670 1.608 7325
0.279 0.674 1.605 7346
0.282 0.681 1.610 7497
0.284 0.685 1.608 11601
0.287 0.692 1.613 15442
0.290 0.700 1.618 19204
0.291 0.704 1.615 24218
0.293 0.708 1.613 26101
0.295 0.711 1.611 23602
0.298 0.719 1.615 19915
0.298 0.719 1.606 13499
0.298 0.720 1.597 7583
0.301 0.727 1.601 7731
0.303 0.731 1.599 7964
0.313 0.757 1.638 10281
0.315 0.761 1.636 13374
0.317 0.765 1.633 14491
0.317 0.765 1.624 15611
0.319 0.769 1.621 16351
0.320 0.773 1.619 17476
0.322 0.777 1.616 17827
0.325 0.785 1.621 15209
0.328 0.792 1.625 12983
0.331 0.800 1.629 9151
0.338 0.815 1.647 7382
0.338 0.816 1.637 7905
0.338 0.816 1.628 12707
0.338 0.816 1.619 18591
0.340 0.820 1.616 20493
0.341 0.824 1.613 17558
0.343 0.828 1.611 13834
0.343 0.828 1.601 10055
0.343 0.828 1.592 6488
0.346 0.836 1.596 6015
0.348 0.840 1.593 6340
0.349 0.843 1.590 6274
0.353 0.851 1.594 5554
0.354 0.855 1.591 4901
0.356 0.859 1.589 4846
0.368 0.887 1.625 6229
0.364 0.879 1.603 6824
0.367 0.887 1.607 5546
0.376 0.907 1.630 7005
0.378 0.911 1.627 8401
0.383 0.924 1.637 7788
0.384 0.928 1.634 8290
0.386 0.932 1.631 10603
0.386 0.931 1.622 17441
0.388 0.935 1.619 22379
0.389 0.939 1.616 23883
0.391 0.943 1.613 20608
0.394 0.952 1.616 13558
0.394 0.951 1.606 10138
0.396 0.955 1.603 9443
0.397 0.959 1.600 9074
0.401 0.967 1.604 8704
0.402 0.971 1.600 7292
0.299 0.722 1.229 4718
0.300 0.725 1.226 5019
0.302 0.728 1.224 6284
0.303 0.731 1.222 7594
0.304 0.734 1.219 7335
0.307 0.741 1.223 6146
0.308 0.744 1.221 4562
0.309 0.747 1.218 3028
0.314 0.759 1.228 3019
0.317 0.766 1.232 2877
0.319 0.769 1.230 1840
0.325 0.786 1.246 2179
0.327 0.789 1.243 2739
0.328 0.792 1.241 3169
0.329 0.794 1.238 4681
0.330 0.797 1.236 4804
0.332 0.800 1.233 2908
0.431 1.040 1.542 1948
0.369 0.890 1.337 1968
0.368 0.889 1.329 2102
0.369 0.892 1.326 3223
0.373 0.900 1.329 4579
0.372 0.898 1.320 5363
0.369 0.892 1.305 5889
0.369 0.890 1.296 5264
0.370 0.893 1.293 6579
0.373 0.901 1.296 10319
0.377 0.909 1.299 9766
0.372 0.898 1.278 6987
0.371 0.896 1.270 9389
0.372 0.899 1.267 10824
0.372 0.897 1.258 11521
0.373 0.900 1.255 11063
0.374 0.903 1.252 8300
0.371 0.896 1.238 5788
0.370 0.894 1.229 7116
0.374 0.902 1.232 7152
0.373 0.900 1.223 6239
0.374 0.903 1.220 8570
0.375 0.906 1.217 12087
0.374 0.904 1.208 22651
0.373 0.901 1.200 29027
0.377 0.909 1.203 22459
0.376 0.907 1.194 17850
0.375 0.905 1.185 19888
0.376 0.908 1.182 25863
0.379 0.915 1.185 27869
0.383 0.923 1.188 27770
0.382 0.921 1.179 27790
0.381 0.919 1.171 22806
0.382 0.921 1.168 16543
0.385 0.929 1.170 12995
0.384 0.927 1.162 16325
0.387 0.935 1.164 16863
0.388 0.938 1.161 9703
0.400 0.967 1.186 7471
0.408 0.985 1.199 8308
0.416 1.004 1.212 8082
0.415 1.001 1.204 8598
0.414 0.999 1.195 12138
0.413 0.996 1.186 19236
0.414 0.999 1.183 19829
0.417 1.007 1.185 21750
0.418 1.010 1.182 26966
0.420 1.013 1.179 23517
0.421 1.016 1.176 17261
0.420 1.013 1.167 14259
0.423 1.021 1.169 11893
0.429 1.035 1.176 8450
0.434 1.048 1.183 5581
0.429 1.035 1.164 7342
0.425 1.027 1.150 9439
0.426 1.029 1.147 12306
0.430 1.038 1.149 13717
0.431 1.040 1.146 13368
0.620 1.497 1.567 18263
0.624 1.506 1.567 22630
0.623 1.504 1.557 19929
0.625 1.508 1.552 12969
0.626 1.512 1.547 11310
0.633 1.527 1.553 11238
0.643 1.553 1.568 16644
0.645 1.557 1.563 16217
0.649 1.566 1.563 12404
0.646 1.559 1.548 8227
0.645 1.557 1.538 7428
0.649 1.567 1.538 8791
0.653 1.576 1.538 6992
0.477 1.151 1.162 5518
0.661 1.595 1.538 3965
0.489 1.180 1.174 3389
0.487 1.177 1.166 5059
0.489 1.179 1.162 5251
0.497 1.199 1.173 4459
0.464 1.121 1.101 4579
0.466 1.124 1.098 5736
0.688 1.661 1.535 5811
0.690 1.665 1.530 5292
0.689 1.663 1.520 5251
0.700 1.690 1.534 5334
0.702 1.694 1.528 5475
0.703 1.698 1.523 4482
0.717 1.731 1.541 5529
0.719 1.735 1.535 6836
0.723 1.744 1.534 11008
0.724 1.748 1.529 15041
0.723 1.746 1.519 12938
0.725 1.749 1.513 9179
0.736 1.777 1.526 9359
0.740 1.787 1.525 9257
0.749 1.808 1.532 8998
0.753 1.818 1.531 9312
0.755 1.822 1.525 11533
0.759 1.832 1.524 18209
0.760 1.835 1.518 22148
0.764 1.845 1.517 21784
0.766 1.849 1.511 15384
0.787 1.901 1.540 9768
0.786 1.899 1.530 13958
0.786 1.896 1.519 17866
0.787 1.900 1.513 19719
0.796 1.922 1.520 22199
0.800 1.932 1.518 24954
0.802 1.935 1.512 24637
0.803 1.939 1.506 20402
0.805 1.943 1.500 12443
0.806 1.946 1.494 8718
0.810 1.956 1.492 9527
0.817 1.972 1.494 9160
0.837 2.019 1.517 12406
0.838 2.023 1.510 15595
0.837 2.021 1.499 15072
0.839 2.024 1.493 12361
0.845 2.040 1.495 11908
0.852 2.056 1.496 13871
0.853 2.060 1.490 15193
0.857 2.070 1.487 11622
0.862 2.080 1.485 8406
0.863 2.084 1.478 8184
0.865 2.087 1.471 6410
0.874 2.110 1.477 4999
0.889 2.145 1.489 7541
0.890 2.149 1.483 9693
0.892 2.152 1.476 9127
0.896 2.162 1.473 7420
0.897 2.166 1.466 5841
0.899 2.169 1.459 4482
0.900 2.173 1.452 3124
0.904 2.183 1.449 2541
0.943 2.276 1.495 4860
0.939 2.267 1.480 6601
0.935 2.258 1.465 7568
0.934 2.255 1.454 8913
0.960 2.316 1.480 8530
0.964 2.327 1.477 11458
0.963 2.324 1.466 11136
0.964 2.327 1.458 11003
0.968 2.337 1.454 11295
0.972 2.347 1.450 12014
0.976 2.357 1.447 12742
0.978 2.361 1.439 13477
0.982 2.371 1.435 11134
0.989 2.387 1.434 9429
0.988 2.384 1.423 6712
0.989 2.388 1.416 3996
0.991 2.391 1.408 4323
0.992 2.394 1.400 4264
0.996 2.404 1.396 3931
0.997 2.408 1.389 3507
1.059 2.557 1.455 4366
1.061 2.560 1.447 4635
1.021 2.464 1.389 5936
1.025 2.474 1.384 5873
1.026 2.478 1.376 5837
1.028 2.481 1.368 5837
1.026 2.477 1.357 4063
1.094 2.641 1.426 2504
1.098 2.651 1.421 2985
1.100 2.655 1.413 3490
1.101 2.658 1.404 1745
1.000 2.413 1.280 277
0.247 0.591 1.630 4485
0.250 0.598 1.636 5921
0.252 0.602 1.634 7363
0.252 0.603 1.625 8073
0.254 0.607 1.623 8836
0.255 0.611 1.621 8253
0.257 0.615 1.619 7489
0.261 0.625 1.631 7670
0.264 0.632 1.636 8792
0.266 0.636 1.634 10006
0.268 0.640 1.632 11913
0.269 0.644 1.630 13821
0.270 0.645 1.621 12575
0.270 0.646 1.611 11783
0.273 0.653 1.616 11122
0.275 0.657 1.614 10684
0.275 0.658 1.605 9044
0.278 0.665 1.610 7498
0.280 0.669 1.608 7711
0.281 0.673 1.605 7639
0.284 0.680 1.610 7770
0.286 0.684 1.608 11746
0.289 0.691 1.613 15367
0.292 0.699 1.618 18778
0.294 0.703 1.615 23588
0.295 0.707 1.613 25487
0.297 0.711 1.611 23361
0.299 0.714 1.608 19939
0.300 0.718 1.606 14049
0.300 0.719 1.597 8513
0.304 0.726 1.601 8500
0.307 0.734 1.606 8662
0.316 0.756 1.638 11350
0.318 0.760 1.636 14906
0.319 0.764 1.633 16430
0.319 0.764 1.624 18010
0.321 0.768 1.621 18763
0.323 0.772 1.619 19493
0.324 0.776 1.616 19450
0.326 0.780 1.614 16542
0.329 0.787 1.618 13954
0.332 0.795 1.622 9740
0.337 0.807 1.633 7705
0.340 0.814 1.637 9148
0.341 0.815 1.628 13367
0.342 0.819 1.625 18559
0.342 0.819 1.616 19942
0.346 0.827 1.620 16279
0.347 0.831 1.617 12162
0.347 0.831 1.608 9193
0.347 0.831 1.598 5913
0.350 0.838 1.602 5301
0.350 0.838 1.593 5161
0.354 0.846 1.597 5702
0.355 0.850 1.594 6348
0.357 0.854 1.591 6141
0.360 0.862 1.595 5493
0.364 0.870 1.599 5761
0.365 0.874 1.596 6485
0.370 0.886 1.607 5297
0.375 0.898 1.617 7682
0.379 0.906 1.620 10276
0.382 0.914 1.624 10095
0.386 0.922 1.628 9178
0.389 0.930 1.631 10378
0.389 0.930 1.622 17972
0.390 0.934 1.619 23362
0.392 0.938 1.616 24947
0.394 0.942 1.613 21593
0.397 0.950 1.616 14126
0.397 0.950 1.606 10691
0.399 0.954 1.603 10010
0.400 0.958 1.600 9300
0.404 0.966 1.604 8480
0.405 0.970 1.600 7030
0.405 0.970 1.591 4545
0.303 0.724 1.226 4438
0.304 0.727 1.224 5785
0.305 0.730 1.222 7696
0.306 0.733 1.219 7869
0.309 0.740 1.223 6640
0.312 0.747 1.227 4752
0.314 0.750 1.225 2769
0.317 0.758 1.228 2651
0.320 0.765 1.232 2721
0.321 0.768 1.230 1799
0.328 0.785 1.246 1968
0.329 0.788 1.243 2428
0.328 0.786 1.235 2773
0.330 0.789 1.232 4180
0.331 0.792 1.229 4548
0.334 0.799 1.233 3027
0.372 0.890 1.346 1801
0.370 0.884 1.331 1797
0.373 0.892 1.335 2080
0.374 0.895 1.332 3560
0.376 0.899 1.329 5032
0.375 0.897 1.320 5500
0.372 0.891 1.305 5655
0.372 0.889 1.296 4769
0.373 0.892 1.293 7212
0.376 0.900 1.296 11523
0.379 0.908 1.299 9379
0.375 0.896 1.278 5014
0.374 0.895 1.270 7993
0.375 0.898 1.267 10701
0.374 0.896 1.258 11784
0.376 0.899 1.255 11556
0.377 0.902 1.252 8690
0.376 0.900 1.243 6066
0.375 0.898 1.235 7066
0.377 0.901 1.232 6743
0.376 0.899 1.223 5878
0.375 0.897 1.214 7190
0.374 0.895 1.206 9508
0.375 0.897 1.203 22469
0.376 0.900 1.200 31554
0.377 0.903 1.197 20969
0.379 0.906 1.194 13823
0.378 0.904 1.185 17420
0.379 0.906 1.182 22295
0.382 0.914 1.185 26342
0.383 0.917 1.182 34272
0.384 0.920 1.179 36315
0.383 0.917 1.171 26051
0.385 0.920 1.168 18915
0.386 0.923 1.165 18092
0.387 0.926 1.162 20833
0.390 0.934 1.164 19117
0.389 0.931 1.156 10214
0.408 0.976 1.197 7764
0.411 0.984 1.199 8256
0.419 1.002 1.212 7171
0.418 1.000 1.204 9221
0.417 0.998 1.195 13937
0.416 0.995 1.186 20489
0.419 1.003 1.189 20227
0.420 1.006 1.185 21996
0.422 1.009 1.182 28354
0.423 1.012 1.179 25256
0.424 1.014 1.176 18911
0.423 1.012 1.167 15412
0.426 1.020 1.169 12615
0.434 1.039 1.182 9115
0.440 1.053 1.189 5960
0.434 1.039 1.170 7257
0.429 1.025 1.150 9696
0.430 1.028 1.147 12187
0.431 1.031 1.144 13834
0.434 1.039 1.146 13654
0.625 1.495 1.567 18121
0.626 1.499 1.562 22710
0.628 1.502 1.557 20660
0.630 1.506 1.552 14875
0.631 1.510 1.547 14229
0.637 1.525 1.553 13990
0.646 1.546 1.563 18403
0.648 1.549 1.558 16609
0.652 1.559 1.558 12406
0.651 1.557 1.548 9250
0.650 1.555 1.538 8844
0.654 1.564 1.538 10239
0.658 1.574 1.538 7758
0.478 1.144 1.157 5812
0.482 1.152 1.159 3894
0.488 1.167 1.165 4201
0.491 1.175 1.166 5553
0.492 1.178 1.162 5342
0.501 1.198 1.173 4448
0.470 1.125 1.106 4005
0.687 1.644 1.531 5518
0.694 1.659 1.535 7014
0.695 1.663 1.530 6464
0.694 1.661 1.520 7036
0.706 1.688 1.534 7516
0.707 1.692 1.528 7067
0.709 1.695 1.523 5606
0.723 1.729 1.541 6714
0.724 1.732 1.535 8224
0.728 1.742 1.534 11839
0.730 1.746 1.529 15263
0.729 1.743 1.519 13449
0.730 1.747 1.513 9447
0.739 1.769 1.521 7959
0.743 1.778 1.520 6784
0.757 1.812 1.537 5883
0.759 1.816 1.531 6897
0.763 1.825 1.530 11219
0.765 1.829 1.524 20215
0.769 1.839 1.523 24214
0.770 1.843 1.517 23113
0.774 1.852 1.515 16277
0.788 1.886 1.531 8408
0.790 1.890 1.525 12032
0.789 1.888 1.515 17298
0.793 1.897 1.513 21302
0.802 1.919 1.520 25831
0.806 1.929 1.518 27757
0.808 1.933 1.512 26788
0.809 1.937 1.506 21957
0.811 1.940 1.500 13252
0.813 1.944 1.494 9377
0.817 1.954 1.492 9829
0.823 1.970 1.494 9078
0.843 2.017 1.517 12682
0.845 2.020 1.510 15892
0.843 2.018 1.499 15084
0.845 2.021 1.493 11913
0.852 2.038 1.495 12204
0.856 2.047 1.492 14762
0.860 2.057 1.490 15876
0.864 2.067 1.487 12020
0.871 2.083 1.489 8663
0.872 2.087 1.482 8167
0.877 2.097 1.479 6142
0.894 2.139 1.496 4815
0.895 2.142 1.489 7397
0.897 2.146 1.483 9462
0.898 2.149 1.476 8944
0.900 2.153 1.469 7021
0.904 2.163 1.466 5271
0.906 2.166 1.459 4040
0.910 2.176 1.456 2823
0.927 2.218 1.472 2929
0.950 2.273 1.495 5042
0.949 2.270 1.484 6757
0.945 2.261 1.469 7750
0.941 2.252 1.454 9131
0.967 2.313 1.480 8585
0.968 2.317 1.473 11336
0.970 2.321 1.466 11205
0.969 2.318 1.454 11129
0.976 2.334 1.454 11136
0.980 2.344 1.450 11636
0.984 2.354 1.447 12401
0.985 2.358 1.439 13304
0.990 2.368 1.435 11146
0.997 2.384 1.434 10144
0.998 2.388 1.427 6924
0.999 2.391 1.419 3699
0.998 2.388 1.408 3779
1.000 2.391 1.400 3723
1.004 2.401 1.396 3503
1.063 2.543 1.460 3332
1.067 2.553 1.455 4413
1.069 2.557 1.447 4689
1.029 2.461 1.389 6201
1.030 2.464 1.381 6121
1.034 2.474 1.376 6080
1.036 2.478 1.368 6080
1.034 2.474 1.357 4290
1.033 2.471 1.346 2584
1.110 2.654 1.424 2705
1.111 2.658 1.416 3321
1.112 2.661 1.407 1660
1.007 2.410 1.280 315
0.249 0.590 1.630 4821
0.252 0.597 1.636 6092
0.253 0.601 1.634 7388
0.254 0.602 1.625 7823
0.256 0.606 1.623 8335
0.257 0.610 1.621 7833
0.259 0.614 1.619 6980
0.262 0.621 1.624 6838
0.265 0.628 1.629 8575
0.268 0.636 1.634 10344
0.270 0.640 1.632 12332
0.271 0.644 1.630 14320
0.272 0.644 1.621 12958
0.272 0.645 1.611 12024
0.275 0.652 1.616 11381
0.277 0.656 1.614 10940
0.277 0.657 1.605 9349
0.280 0.664 1.610 7865
0.282 0.668 1.608 8043
0.283 0.672 1.605 7794
0.286 0.679 1.610 7837
0.288 0.683 1.608 11616
0.291 0.690 1.613 14908
0.294 0.698 1.618 17989
0.296 0.702 1.615 22662
0.297 0.706 1.613 24605
0.299 0.710 1.611 22986
0.301 0.714 1.608 20170
0.302 0.718 1.606 14831
0.303 0.718 1.597 9793
0.306 0.725 1.601 9453
0.309 0.733 1.606 9312
0.318 0.755 1.638 11804
0.320 0.759 1.636 15576
0.321 0.763 1.633 17538
0.322 0.763 1.624 19686
0.323 0.767 1.621 20933
0.325 0.771 1.619 21792
0.327 0.775 1.616 21380
0.328 0.779 1.614 18065
0.331 0.787 1.618 14826
0.333 0.790 1.615 11511
0.340 0.806 1.633 9715
0.341 0.810 1.631 11070
0.343 0.814 1.628 14556
0.345 0.818 1.625 18758
0.346 0.822 1.623 19794
0.348 0.826 1.620 15666
0.350 0.830 1.617 11217
0.351 0.834 1.615 8862
0.353 0.837 1.612 5880
0.355 0.841 1.609 5303
0.356 0.845 1.606 5265
0.358 0.849 1.604 6585
0.360 0.853 1.601 7871
0.361 0.857 1.598 7607
0.363 0.861 1.595 6153
0.366 0.869 1.599 5592
0.368 0.873 1.596 6264
0.371 0.881 1.600 5415
0.378 0.897 1.617 8969
0.381 0.905 1.620 12463
0.383 0.909 1.618 12594
0.388 0.921 1.628 10191
0.390 0.925 1.625 10147
0.390 0.925 1.615 18041
0.391 0.929 1.612 23625
0.395 0.937 1.616 25160
0.397 0.941 1.613 21912
0.400 0.949 1.616 14300
0.400 0.949 1.606 10879
0.401 0.953 1.603 10293
0.403 0.957 1.600 9377
0.407 0.965 1.604 8183
0.408 0.969 1.600 6742
0.408 0.968 1.591 4613
0.406 0.963 1.575 3927
0.306 0.726 1.224 5130
0.307 0.729 1.222 7528
0.308 0.732 1.219 8078
0.311 0.739 1.223 6883
0.315 0.746 1.227 4864
0.316 0.749 1.225 2581
0.319 0.757 1.228 2308
0.322 0.764 1.232 2524
0.323 0.767 1.230 1762
0.328 0.779 1.240 1799
0.330 0.782 1.237 2177
0.331 0.785 1.235 2462
0.332 0.788 1.232 3787
0.333 0.791 1.229 4323
0.336 0.798 1.233 3109
0.377 0.894 1.353 1700
0.372 0.883 1.331 1466
0.375 0.891 1.335 2036
0.377 0.894 1.332 3912
0.378 0.897 1.329 5379
0.380 0.901 1.326 5400
0.375 0.890 1.305 5124
0.374 0.888 1.296 4334
0.375 0.891 1.293 7859
0.379 0.899 1.296 12570
0.380 0.902 1.293 9285
0.385 0.915 1.302 3946
0.377 0.894 1.270 6263
0.378 0.897 1.267 9861
0.377 0.895 1.258 11167
0.378 0.898 1.255 11225
0.380 0.901 1.252 8582
0.379 0.899 1.243 6265
0.378 0.897 1.235 7100
0.379 0.900 1.232 6545
0.378 0.898 1.223 6121
0.375 0.891 1.208 7693
0.374 0.888 1.200 9577
0.376 0.891 1.197 22482
0.377 0.894 1.194 33201
0.378 0.897 1.191 21570
0.379 0.900 1.188 13600
0.380 0.902 1.185 16045
0.381 0.905 1.182 19384
0.385 0.913 1.185 25512
0.386 0.916 1.182 37915
0.387 0.919 1.179 40674
0.386 0.916 1.171 27867
0.387 0.919 1.168 21150
0.388 0.922 1.165 22609
0.390 0.925 1.162 24205
0.393 0.932 1.164 20270
0.392 0.930 1.156 10316
0.413 0.980 1.202 7532
0.414 0.983 1.199 7724
0.415 0.985 1.196 6752
0.419 0.994 1.198 11096
0.418 0.991 1.190 15556
0.419 0.994 1.186 20860
0.422 1.002 1.189 20187
0.423 1.005 1.185 20524
0.425 1.008 1.182 26267
0.426 1.010 1.179 24219
0.427 1.013 1.176 19058
0.426 1.010 1.167 15251
0.432 1.024 1.174 12173
0.437 1.038 1.182 9356
0.443 1.051 1.189 6774
0.437 1.038 1.170 7917
0.432 1.024 1.150 9686
0.433 1.027 1.147 11360
0.434 1.029 1.144 13093
0.435 1.032 1.141 13196
0.629 1.493 1.567 17525
0.631 1.497 1.562 22485
0.632 1.501 1.557 21082
0.634 1.504 1.552 16611
0.636 1.508 1.547 17118
0.642 1.523 1.553 16690
0.651 1.544 1.563 19075
0.652 1.547 1.558 15865
0.654 1.551 1.553 12250
0.653 1.549 1.543 10614
0.654 1.553 1.538 10520
0.658 1.563 1.538 11729
0.480 1.140 1.161 10305
0.482 1.143 1.157 7351
0.483 1.145 1.154 5426
0.489 1.160 1.160 5629
0.492 1.168 1.161 6073
0.496 1.176 1.162 5294
0.504 1.196 1.173 4273
0.685 1.627 1.527 3878
0.692 1.642 1.531 6392
0.701 1.663 1.540 7976
0.700 1.661 1.530 7698
0.702 1.665 1.525 9091
0.710 1.686 1.534 9961
0.712 1.690 1.528 8813
0.714 1.693 1.523 6874
0.728 1.726 1.541 7762
0.729 1.730 1.535 9359
0.733 1.740 1.534 12175
0.732 1.738 1.524 14822
0.734 1.741 1.519 13170
0.735 1.745 1.513 9106
0.739 1.755 1.512 6706
0.743 1.764 1.511 5625
0.740 1.756 1.496 5133
0.772 1.831 1.545 5195
0.771 1.829 1.534 10951
0.772 1.833 1.529 21797
0.774 1.837 1.523 25966
0.776 1.840 1.517 24152
0.780 1.850 1.515 17310
0.789 1.872 1.523 9954
0.793 1.882 1.521 12946
0.797 1.891 1.519 17719
0.801 1.901 1.518 23474
0.808 1.917 1.520 29442
0.812 1.927 1.518 30248
0.814 1.931 1.512 28469
0.815 1.934 1.506 23164
0.817 1.938 1.500 13885
0.821 1.948 1.498 9942
0.822 1.951 1.492 10115
0.832 1.973 1.498 9357
0.849 2.014 1.517 12803
0.848 2.012 1.506 16221
0.847 2.009 1.495 14997
0.851 2.019 1.493 11404
0.858 2.035 1.495 12478
0.862 2.045 1.492 15603
0.863 2.049 1.486 16458
0.867 2.058 1.483 12389
0.880 2.087 1.493 9088
0.878 2.085 1.482 8493
0.883 2.094 1.479 6153
0.900 2.136 1.496 4701
0.902 2.140 1.489 7112
0.903 2.143 1.483 9106
0.905 2.147 1.476 8689
0.906 2.150 1.469 6767
0.910 2.160 1.466 4956
0.912 2.164 1.459 3816
0.932 2.212 1.479 2962
0.934 2.216 1.472 3424
0.957 2.270 1.495 4964
0.958 2.274 1.487 6551
0.952 2.258 1.469 7608
0.948 2.249 1.454 9040
0.971 2.304 1.477 8482
0.975 2.314 1.473 11056
0.974 2.311 1.462 10929
0.975 2.315 1.454 11000
0.980 2.325 1.451 10837
0.984 2.335 1.447 11119
0.988 2.345 1.443 11854
0.992 2.355 1.439 12857
0.999 2.371 1.439 11176
1.006 2.388 1.438 10928
1.008 2.391 1.430 7379
1.009 2.395 1.423 3842
1.008 2.392 1.412 3547
1.006 2.388 1.400 3271
1.011 2.398 1.396 3097
1.070 2.540 1.460 3353
1.075 2.550 1.455 4411
1.076 2.554 1.447 4700
1.036 2.458 1.389 6057
1.037 2.461 1.381 6020
1.039 2.465 1.373 5983
1.040 2.468 1.365 5983
1.041 2.471 1.357 4240
1.040 2.468 1.346 2571
1.123 2.665 1.431 2461
1.121 2.661 1.419 3057
1.123 2.665 1.411 1528
1.014 2.407 1.280 308
0.251 0.590 1.630 5054
0.254 0.597 1.636 6114
0.255 0.601 1.634 7227
0.256 0.602 1.625 7350
0.257 0.606 1.623 7573
0.259 0.610 1.621 7150
0.261 0.614 1.619 6222
0.264 0.621 1.624 5861
0.267 0.628 1.629 8340
0.268 0.632 1.627 10905
0.271 0.639 1.632 12858
0.273 0.643 1.630 14903
0.273 0.644 1.621 13416
0.274 0.644 1.611 12320
0.277 0.651 1.616 11662
0.278 0.655 1.614 11150
0.279 0.656 1.605 9625
0.282 0.663 1.610 8158
0.283 0.667 1.608 8276
0.285 0.671 1.605 7844
0.288 0.678 1.610 7733
0.290 0.682 1.608 11241
0.293 0.690 1.613 14108
0.296 0.697 1.618 16727
0.298 0.701 1.615 21133
0.299 0.705 1.613 23170
0.301 0.709 1.611 22259
0.303 0.713 1.608 20297
0.304 0.717 1.606 15570
0.306 0.721 1.604 11002
0.308 0.724 1.601 10162
0.312 0.735 1.613 9585
0.320 0.754 1.638 12208
0.322 0.758 1.636 16236
0.324 0.762 1.633 18690
0.324 0.762 1.624 21344
0.325 0.766 1.621 22823
0.327 0.770 1.619 23510
0.329 0.774 1.616 22691
0.331 0.778 1.614 19246
0.332 0.782 1.611 15802
0.335 0.789 1.615 13232
0.342 0.805 1.633 11766
0.344 0.809 1.631 13108
0.345 0.813 1.628 15801
0.347 0.817 1.625 19042
0.349 0.821 1.623 19759
0.350 0.825 1.620 15255
0.354 0.832 1.624 10775
0.355 0.836 1.621 8829
0.359 0.844 1.625 6408
0.360 0.848 1.622 6089
0.360 0.848 1.613 6338
0.362 0.852 1.610 8244
0.364 0.856 1.607 9607
0.364 0.856 1.598 9059
0.365 0.860 1.595 6841
0.369 0.868 1.599 5428
0.370 0.872 1.596 5796
0.372 0.876 1.593 5711
0.379 0.892 1.610 10305
0.382 0.900 1.614 14677
0.386 0.908 1.618 14954
0.389 0.916 1.621 11404
0.393 0.924 1.625 9907
0.392 0.924 1.615 17475
0.394 0.928 1.612 23102
0.398 0.936 1.616 24405
0.399 0.940 1.613 21345
0.403 0.948 1.616 13916
0.403 0.948 1.606 10759
0.404 0.952 1.603 10344
0.406 0.955 1.600 9279
0.409 0.964 1.604 7804
0.411 0.968 1.600 6477
0.409 0.963 1.585 4782
0.409 0.962 1.575 4259
0.308 0.725 1.224 4384
0.309 0.728 1.222 7101
0.311 0.731 1.219 8036
0.314 0.738 1.223 6949
0.317 0.746 1.227 4869
0.318 0.748 1.225 2500
0.321 0.756 1.228 2126
0.322 0.759 1.226 2443
0.326 0.766 1.230 1834
0.329 0.774 1.233 1718
0.332 0.781 1.237 1995
0.333 0.784 1.235 2220
0.334 0.787 1.232 3462
0.336 0.790 1.229 4152
0.337 0.793 1.227 3252
0.340 0.800 1.230 1879
0.381 0.896 1.350 1334
0.380 0.895 1.341 2188
0.381 0.898 1.338 4139
0.381 0.896 1.329 5460
0.382 0.899 1.326 5089
0.377 0.888 1.305 4565
0.377 0.887 1.296 4102
0.378 0.890 1.293 8457
0.379 0.893 1.290 13461
0.383 0.901 1.293 9896
0.386 0.909 1.296 5478
0.381 0.897 1.276 6714
0.380 0.895 1.267 8340
0.380 0.894 1.258 9699
0.381 0.897 1.255 10084
0.382 0.900 1.252 8013
0.381 0.898 1.243 6384
0.381 0.896 1.235 7576
0.382 0.899 1.232 7050
0.381 0.897 1.223 6973
0.376 0.885 1.203 9525
0.375 0.882 1.194 11825
0.378 0.890 1.197 23529
0.379 0.893 1.194 34528
0.378 0.891 1.185 25377
0.380 0.894 1.183 18955
0.381 0.896 1.180 18403
0.384 0.904 1.182 18821
0.385 0.907 1.179 25036
0.389 0.915 1.182 37930
0.390 0.918 1.179 41246
0.389 0.915 1.171 28386
0.390 0.918 1.168 22779
0.391 0.921 1.165 25757
0.392 0.923 1.162 25744
0.396 0.931 1.164 19776
0.395 0.929 1.156 10028
0.416 0.979 1.202 7014
0.417 0.981 1.199 7099
0.418 0.984 1.196 7090
0.419 0.987 1.193 13071
0.421 0.990 1.190 16939
0.422 0.993 1.186 20558
0.425 1.001 1.189 19618
0.426 1.004 1.185 17583
0.425 1.001 1.177 20991
0.429 1.009 1.179 20638
0.430 1.012 1.176 17684
0.431 1.015 1.172 13817
0.437 1.028 1.180 10630
0.440 1.036 1.182 9336
0.444 1.045 1.183 7739
0.440 1.036 1.170 8657
0.435 1.023 1.150 9354
0.436 1.025 1.147 10111
0.435 1.023 1.139 11873
0.438 1.031 1.141 12260
0.634 1.491 1.567 16148
0.635 1.495 1.562 21439
0.637 1.499 1.557 20845
0.638 1.502 1.552 17415
0.640 1.506 1.547 18771
0.646 1.521 1.553 17807
0.655 1.542 1.563 18259
0.657 1.546 1.558 14534
0.658 1.549 1.553 11615
0.657 1.547 1.543 11085
0.481 1.133 1.168 13030
0.485 1.141 1.170 16453
0.484 1.139 1.161 15610
0.485 1.141 1.157 10444
0.486 1.144 1.154 7655
0.490 1.152 1.155 7374
0.493 1.161 1.156 6551
0.499 1.175 1.162 5066
0.508 1.195 1.173 3916
0.688 1.619 1.522 4844
0.697 1.640 1.531 7380
0.706 1.661 1.540 8817
0.705 1.659 1.530 8823
0.706 1.663 1.525 10909
0.715 1.684 1.534 12098
0.717 1.688 1.528 10458
0.719 1.691 1.523 8113
0.733 1.724 1.541 8652
0.734 1.728 1.535 10244
0.738 1.738 1.534 11984
0.737 1.735 1.524 13690
0.736 1.733 1.514 12299
0.740 1.743 1.513 8338
0.745 1.752 1.512 5755
0.746 1.756 1.506 5780
0.748 1.760 1.501 6213
0.752 1.769 1.500 5796
0.776 1.827 1.534 10778
0.778 1.831 1.529 22834
0.779 1.834 1.523 26989
0.784 1.844 1.521 24958
0.785 1.848 1.515 18184
0.794 1.870 1.523 12250
0.798 1.879 1.521 14737
0.803 1.889 1.519 18516
0.807 1.899 1.518 25831
0.814 1.915 1.520 32622
0.818 1.924 1.518 32167
0.819 1.928 1.512 29548
0.821 1.932 1.506 23952
0.825 1.942 1.504 14395
0.827 1.945 1.498 10353
0.831 1.955 1.496 10390
0.837 1.971 1.498 9987
0.852 2.006 1.512 13146
0.854 2.009 1.506 16390
0.853 2.007 1.495 14959
0.846 1.992 1.477 11432
0.864 2.033 1.495 12634
0.868 2.042 1.492 16008
0.869 2.046 1.486 16526
0.874 2.056 1.483 12358
0.888 2.091 1.497 9351
0.887 2.088 1.486 8803
0.891 2.098 1.483 6262
0.906 2.133 1.496 4538
0.908 2.137 1.489 6831
0.909 2.140 1.483 8824
0.908 2.138 1.472 8658
0.912 2.148 1.469 6715
0.917 2.157 1.466 4974
0.918 2.161 1.459 3825
0.941 2.216 1.483 3235
0.943 2.219 1.475 3792
0.953 2.242 1.480 4742
0.965 2.271 1.487 6044
0.956 2.249 1.465 7121
0.954 2.246 1.454 8555
0.978 2.301 1.477 8275
0.979 2.305 1.469 10528
0.981 2.308 1.462 10557
0.980 2.305 1.451 10758
0.984 2.315 1.447 10377
0.991 2.332 1.447 10587
0.995 2.342 1.443 11181
0.999 2.352 1.439 12158
1.009 2.375 1.442 11299
1.013 2.385 1.438 11654
1.015 2.388 1.430 7966
1.019 2.398 1.426 4263
1.015 2.389 1.412 3617
1.014 2.385 1.400 2940
1.018 2.395 1.396 2677
1.078 2.537 1.460 3246
1.082 2.547 1.455 4209
1.084 2.551 1.447 4465
1.040 2.448 1.385 5835
1.044 2.458 1.381 5765
1.046 2.462 1.373 5776
1.047 2.465 1.365 5776
1.046 2.461 1.354 4071
1.047 2.465 1.346 2460
1.131 2.661 1.431 2303
1.132 2.665 1.422 2729
1.134 2.668 1.414 1364
1.021 2.404 1.280 374
0.252 0.589 1.630 5245
0.255 0.596 1.636 6109
0.257 0.600 1.634 7058
0.259 0.604 1.632 6940
0.259 0.605 1.623 6935
0.261 0.609 1.621 6575
0.263 0.613 1.619 5607
0.266 0.620 1.624 5105
0.269 0.627 1.629 8188
0.270 0.631 1.627 11397
0.272 0.635 1.625 13302
0.275 0.642 1.630 15337
0.275 0.643 1.621 13754
0.276 0.643 1.611 12511
0.279 0.651 1.616 11926
0.281 0.655 1.614 11416
0.281 0.655 1.605 9960
0.282 0.659 1.603 8548
0.286 0.666 1.608 8583
0.287 0.670 1.605 7876
0.290 0.677 1.610 7564
0.292 0.681 1.608 10833
0.295 0.689 1.613 13308
0.298 0.696 1.618 15471
0.300 0.700 1.615 19543
0.302 0.704 1.613 21700
0.303 0.708 1.611 21448
0.305 0.712 1.608 20212
0.307 0.716 1.606 15956
0.308 0.720 1.604 11759
0.310 0.723 1.601 10560
0.315 0.734 1.613 9909
0.323 0.753 1.638 12721
0.324 0.757 1.636 16726
0.326 0.761 1.633 19386
0.326 0.761 1.624 22316
0.328 0.765 1.621 24084
0.330 0.769 1.619 25141
0.331 0.773 1.616 24379
0.333 0.777 1.614 20640
0.335 0.781 1.611 16900
0.338 0.788 1.615 14686
0.343 0.800 1.626 13386
0.346 0.808 1.631 14413
0.348 0.812 1.628 16468
0.350 0.816 1.625 18883
0.351 0.820 1.623 19354
0.353 0.823 1.620 14774
0.358 0.835 1.631 10523
0.360 0.839 1.628 8840
0.361 0.843 1.625 7074
0.365 0.851 1.629 7177
0.365 0.851 1.620 7837
0.365 0.851 1.610 10255
0.366 0.855 1.607 11558
0.368 0.859 1.605 10621
0.368 0.859 1.595 7664
0.371 0.867 1.599 5189
0.375 0.875 1.603 5011
0.375 0.874 1.593 5890
0.382 0.891 1.610 11609
0.383 0.894 1.607 16795
0.387 0.902 1.611 17349
0.390 0.911 1.615 12770
0.395 0.923 1.625 9423
0.395 0.923 1.615 16336
0.397 0.926 1.612 21855
0.399 0.930 1.609 23058
0.402 0.939 1.613 20358
0.404 0.942 1.609 13276
0.406 0.946 1.606 10319
0.407 0.950 1.603 10098
0.409 0.954 1.600 8969
0.412 0.962 1.604 7328
0.414 0.966 1.600 6118
0.410 0.957 1.578 4940
0.412 0.961 1.575 4527
0.415 0.969 1.578 4176
0.312 0.727 1.222 6508
0.313 0.730 1.219 7725
0.316 0.737 1.223 6782
0.319 0.745 1.227 4848
0.320 0.747 1.225 2603
0.323 0.755 1.228 2118
0.325 0.758 1.226 2411
0.328 0.765 1.230 1894
0.331 0.773 1.233 1640
0.332 0.775 1.231 1810
0.334 0.778 1.228 2074
0.337 0.786 1.232 3287
0.338 0.789 1.229 4067
0.339 0.792 1.227 3418
0.342 0.799 1.230 2147
0.386 0.900 1.356 1495
0.385 0.898 1.347 2513
0.384 0.897 1.338 4385
0.384 0.895 1.329 5363
0.385 0.898 1.326 4636
0.380 0.887 1.305 3984
0.380 0.886 1.296 3889
0.379 0.884 1.287 8916
0.382 0.892 1.290 14351
0.386 0.900 1.293 11440
0.387 0.903 1.290 8779
0.386 0.901 1.282 8307
0.383 0.894 1.267 6575
0.382 0.892 1.258 7764
0.384 0.895 1.255 8321
0.385 0.898 1.252 6961
0.386 0.901 1.249 6223
0.385 0.899 1.240 8374
0.385 0.897 1.232 8173
0.384 0.895 1.223 8143
0.379 0.883 1.203 11362
0.378 0.881 1.194 15105
0.379 0.884 1.191 25398
0.380 0.887 1.188 35599
0.381 0.890 1.185 30608
0.382 0.892 1.183 26677
0.384 0.895 1.180 24613
0.387 0.903 1.182 21515
0.388 0.906 1.179 24017
0.389 0.908 1.177 35036
0.393 0.916 1.179 39071
0.392 0.914 1.171 27954
0.393 0.917 1.168 23431
0.394 0.919 1.165 27242
0.397 0.927 1.167 25505
0.399 0.930 1.164 17574
0.400 0.933 1.161 9290
0.412 0.962 1.186 6339
0.411 0.959 1.177 6957
0.421 0.983 1.196 7537
0.422 0.986 1.193 14418
0.424 0.989 1.190 18218
0.425 0.991 1.186 19771
0.426 0.994 1.183 18179
0.430 1.002 1.185 13882
0.428 1.000 1.177 14630
0.427 0.997 1.168 15452
0.433 1.010 1.176 14950
0.434 1.013 1.172 11464
0.442 1.032 1.185 8945
0.446 1.040 1.187 8962
0.447 1.043 1.183 8434
0.441 1.030 1.164 9250
0.438 1.021 1.150 9220
0.437 1.019 1.142 9016
0.438 1.021 1.139 10439
0.441 1.029 1.141 10963
0.638 1.489 1.567 14822
0.640 1.493 1.562 20396
0.641 1.497 1.557 20151
0.643 1.500 1.552 17296
0.645 1.504 1.547 19053
0.651 1.519 1.553 18080
0.657 1.534 1.558 17243
0.659 1.538 1.553 13376
0.661 1.542 1.548 10673
0.484 1.129 1.172 13357
0.485 1.132 1.168 18649
0.486 1.134 1.165 23645
0.487 1.137 1.161 21995
0.488 1.140 1.157 14564
0.490 1.142 1.154 10141
0.491 1.145 1.150 8913
0.497 1.159 1.156 6975
0.500 1.168 1.157 4829
0.689 1.607 1.522 3905
0.693 1.617 1.522 5768
0.702 1.638 1.531 8616
0.711 1.659 1.540 9509
0.708 1.651 1.525 9771
0.712 1.660 1.525 12352
0.721 1.682 1.534 13630
0.722 1.685 1.528 11607
0.724 1.689 1.523 9104
0.735 1.716 1.536 9422
0.737 1.720 1.531 10978
0.741 1.729 1.530 11379
0.743 1.733 1.524 11836
0.744 1.737 1.519 10755
0.746 1.740 1.513 7265
0.750 1.750 1.512 5102
0.757 1.766 1.515 6409
0.756 1.763 1.505 7357
0.757 1.767 1.500 6737
0.784 1.830 1.539 10762
0.784 1.828 1.529 23023
0.788 1.838 1.527 27234
0.789 1.842 1.521 25168
0.793 1.851 1.520 18693
0.803 1.873 1.527 14385
0.807 1.883 1.525 16832
0.811 1.893 1.524 19571
0.813 1.896 1.518 27834
0.820 1.912 1.520 34944
0.824 1.922 1.518 33191
0.828 1.932 1.516 29811
0.829 1.935 1.510 24342
0.831 1.939 1.504 14692
0.833 1.943 1.498 10512
0.837 1.952 1.496 10515
0.846 1.975 1.502 10653
0.856 1.997 1.508 13355
0.857 2.000 1.502 16583
0.856 1.998 1.491 14970
0.852 1.989 1.477 11790
0.870 2.030 1.495 12723
0.874 2.040 1.492 16137
0.876 2.043 1.486 16265
0.877 2.047 1.479 12093
0.898 2.094 1.501 9303
0.894 2.085 1.486 8836
0.898 2.095 1.483 6304
0.913 2.130 1.496 3992
0.915 2.134 1.489 6250
0.913 2.131 1.479 8522
0.915 2.135 1.472 8650
0.919 2.145 1.469 6839
0.923 2.155 1.466 5377
0.925 2.158 1.459 4107
0.948 2.213 1.483 3468
0.950 2.216 1.475 4060
0.957 2.233 1.476 4644
0.972 2.268 1.487 5318
0.960 2.240 1.462 6446
0.959 2.237 1.451 7931
0.985 2.298 1.477 7860
0.986 2.302 1.469 9877
0.985 2.299 1.458 9935
0.984 2.296 1.447 10294
0.991 2.312 1.447 9884
0.995 2.322 1.443 10147
1.002 2.339 1.443 10402
1.007 2.349 1.439 11214
1.019 2.378 1.446 11481
1.024 2.388 1.441 12244
1.025 2.392 1.434 8518
1.026 2.395 1.426 4791
1.022 2.385 1.412 3825
1.024 2.389 1.404 2697
1.079 2.517 1.461 2320
1.086 2.534 1.460 3014
1.090 2.544 1.455 3834
1.041 2.429 1.387 4314
1.048 2.445 1.385 5535
1.049 2.448 1.378 5477
1.054 2.458 1.373 5443
1.055 2.462 1.365 5443
1.054 2.458 1.354 3842
1.052 2.455 1.343 2282
1.139 2.658 1.431 2116
1.141 2.661 1.422 2329
1.142 2.665 1.414 1164
1.029 2.401 1.280 397
0.253 0.589 1.630 5429
0.255 0.593 1.628 6182
0.258 0.600 1.634 7048
0.260 0.604 1.632 6735
0.260 0.604 1.623 6473
0.262 0.608 1.621 6157
0.263 0.612 1.619 5206
0.267 0.619 1.624 4663
0.270 0.626 1.629 8151
0.271 0.630 1.627 11791
0.273 0.634 1.625 13655
0.276 0.642 1.630 15653
0.276 0.642 1.621 14059
0.277 0.643 1.611 12784
0.280 0.650 1.616 12334
0.281 0.654 1.614 11919
0.282 0.655 1.605 10526
0.283 0.659 1.603 9183
0.287 0.666 1.608 9060
0.288 0.670 1.605 8005
0.291 0.677 1.610 7472
0.293 0.681 1.608 10497
0.296 0.688 1.613 12594
0.299 0.696 1.618 14370
0.301 0.700 1.615 18177
0.301 0.700 1.606 20538
0.304 0.707 1.611 20893
0.306 0.711 1.608 20342
0.308 0.715 1.606 16453
0.309 0.719 1.604 12531
0.313 0.727 1.608 11063
0.316 0.734 1.613 10122
0.322 0.749 1.631 12802
0.325 0.756 1.636 16762
0.326 0.757 1.626 19731
0.327 0.761 1.624 22993
0.329 0.765 1.621 24934
0.331 0.768 1.619 26268
0.332 0.772 1.616 25562
0.334 0.776 1.614 21667
0.336 0.780 1.611 17772
0.339 0.788 1.615 15745
0.344 0.799 1.626 14537
0.347 0.807 1.631 15258
0.349 0.811 1.628 16753
0.351 0.815 1.625 18463
0.352 0.819 1.623 18831
0.356 0.827 1.627 14521
0.359 0.835 1.631 10640
0.361 0.839 1.628 8906
0.364 0.846 1.632 7558
0.366 0.850 1.629 8015
0.366 0.850 1.620 9128
0.366 0.850 1.610 12013
0.368 0.854 1.607 13291
0.369 0.858 1.605 12236
0.371 0.862 1.602 8830
0.374 0.870 1.606 5216
0.378 0.878 1.609 4241
0.376 0.874 1.593 5889
0.381 0.886 1.604 12673
0.385 0.894 1.607 18587
0.386 0.898 1.604 19195
0.390 0.906 1.608 14151
0.393 0.914 1.612 8821
0.397 0.922 1.615 14851
0.398 0.926 1.612 20163
0.400 0.930 1.609 21312
0.404 0.938 1.613 19174
0.405 0.942 1.609 12572
0.407 0.946 1.606 9757
0.409 0.950 1.603 9729
0.410 0.954 1.600 8541
0.414 0.962 1.604 6801
0.416 0.966 1.600 5740
0.412 0.957 1.578 5141
0.411 0.956 1.569 4777
0.417 0.969 1.578 4218
0.311 0.722 1.215 5815
0.314 0.729 1.219 7276
0.317 0.737 1.223 6540
0.320 0.744 1.227 4763
0.321 0.747 1.225 2697
0.377 0.875 1.397 2367
0.326 0.757 1.226 2415
0.327 0.760 1.223 1994
0.332 0.772 1.233 1583
0.333 0.775 1.231 1625
0.335 0.778 1.228 1984
0.336 0.781 1.226 3240
0.339 0.788 1.229 4017
0.340 0.791 1.227 3613
0.342 0.794 1.224 2534
0.389 0.904 1.362 2089
0.386 0.898 1.347 3078
0.386 0.896 1.338 4580
0.387 0.899 1.335 5144
0.386 0.898 1.326 4245
0.382 0.887 1.305 3646
0.379 0.880 1.290 3865
0.380 0.883 1.287 9362
0.384 0.891 1.290 15105
0.387 0.899 1.293 13250
0.386 0.897 1.284 12448
0.387 0.900 1.282 10243
0.387 0.899 1.273 5310
0.384 0.892 1.258 5828
0.385 0.895 1.255 6355
0.386 0.898 1.252 5765
0.386 0.896 1.243 6050
0.387 0.899 1.240 9330
0.388 0.902 1.238 9714
0.385 0.895 1.223 9287
0.380 0.883 1.203 12667
0.379 0.881 1.194 17829
0.380 0.883 1.191 27068
0.381 0.886 1.188 36295
0.383 0.889 1.185 34561
0.384 0.892 1.183 33294
0.385 0.895 1.180 31339
0.388 0.902 1.182 25152
0.389 0.905 1.179 22377
0.391 0.908 1.177 30398
0.394 0.916 1.179 35186
0.393 0.913 1.171 26218
0.394 0.916 1.168 22701
0.395 0.919 1.165 27186
0.399 0.927 1.167 23742
0.400 0.929 1.164 14346
0.401 0.932 1.161 8661
0.407 0.945 1.169 7245
0.412 0.959 1.177 7448
0.423 0.982 1.196 7738
0.424 0.985 1.193 14788
0.425 0.988 1.190 19221
0.426 0.991 1.186 18527
0.427 0.993 1.183 15872
0.429 0.996 1.180 10379
0.428 0.994 1.171 9696
0.429 0.996 1.168 11683
0.428 0.994 1.159 12021
0.438 1.018 1.178 9160
0.449 1.042 1.196 8295
0.447 1.040 1.187 8532
0.449 1.042 1.183 8754
0.443 1.029 1.164 9433
0.439 1.021 1.150 9037
0.438 1.018 1.142 8116
0.439 1.021 1.139 9011
0.443 1.029 1.141 9587
0.638 1.483 1.562 13806
0.642 1.492 1.562 19387
0.641 1.490 1.552 19421
0.645 1.500 1.552 16805
0.649 1.509 1.553 18795
0.653 1.518 1.553 17898
0.657 1.528 1.553 16017
0.659 1.531 1.548 11723
0.484 1.125 1.176 11000
0.485 1.128 1.172 16530
0.487 1.131 1.168 24067
0.488 1.134 1.165 30488
0.489 1.136 1.161 28290
0.490 1.139 1.157 18848
0.491 1.142 1.154 12544
0.492 1.144 1.150 10277
0.496 1.153 1.151 7460
0.500 1.161 1.152 4734
0.691 1.606 1.522 4475
0.695 1.616 1.522 6790
0.704 1.637 1.531 9813
0.711 1.652 1.535 10013
0.710 1.650 1.525 10228
0.714 1.659 1.525 13156
0.723 1.681 1.534 14484
0.725 1.684 1.528 12245
0.724 1.682 1.518 9804
0.738 1.715 1.536 9923
0.740 1.719 1.531 11447
0.741 1.722 1.525 10604
0.745 1.732 1.524 9608
0.747 1.736 1.519 8827
0.748 1.739 1.513 6046
0.758 1.761 1.521 5131
0.762 1.770 1.520 7274
0.761 1.768 1.510 8174
0.762 1.772 1.504 7293
0.787 1.829 1.539 10680
0.789 1.833 1.533 23057
0.790 1.837 1.527 27506
0.792 1.840 1.521 25486
0.796 1.850 1.520 19311
0.806 1.872 1.527 16003
0.810 1.882 1.525 18465
0.817 1.897 1.528 20418
0.815 1.895 1.518 29081
0.822 1.911 1.520 36125
0.827 1.921 1.518 33198
0.831 1.930 1.516 29469
0.832 1.934 1.510 24351
0.834 1.938 1.504 14861
0.835 1.941 1.498 10487
0.842 1.957 1.500 10481
0.849 1.973 1.502 11230
0.859 1.995 1.508 13518
0.860 1.999 1.502 16439
0.856 1.990 1.487 14877
0.855 1.988 1.477 11933
0.873 2.029 1.495 12637
0.877 2.038 1.492 15724
0.876 2.036 1.482 15351
0.878 2.039 1.475 11320
0.901 2.093 1.501 8532
0.897 2.084 1.486 8210
0.901 2.094 1.483 5867
0.903 2.098 1.477 3582
0.918 2.133 1.489 5333
0.917 2.130 1.479 8035
0.915 2.127 1.468 8520
0.920 2.137 1.465 6958
0.927 2.153 1.466 5799
0.931 2.163 1.463 4352
0.952 2.211 1.483 3703
0.953 2.215 1.475 4277
0.960 2.231 1.476 4538
0.975 2.267 1.487 4697
0.960 2.232 1.458 5873
0.959 2.229 1.447 7360
0.986 2.290 1.473 7412
0.990 2.300 1.469 9054
0.986 2.291 1.455 9256
0.985 2.288 1.444 9689
0.992 2.304 1.443 9359
