0.360 1.264 1.599 7396
0.361 1.268 1.595 9107
0.361 1.267 1.585 12220
0.362 1.271 1.581 17425
0.364 1.280 1.583 17378
0.368 1.295 1.590 13490
0.370 1.299 1.586 10363
0.368 1.292 1.571 10844
0.370 1.302 1.573 11321
0.376 1.321 1.586 13939
0.379 1.331 1.587 12769
0.377 1.324 1.572 8437
0.380 1.334 1.573 9896
0.381 1.338 1.569 16673
0.383 1.347 1.571 21748
0.383 1.345 1.561 23348
0.387 1.360 1.568 34179
0.390 1.370 1.569 34057
0.391 1.374 1.565 25127
0.392 1.378 1.561 29077
0.395 1.387 1.562 26185
0.397 1.397 1.563 15123
0.402 1.412 1.570 9809
0.404 1.421 1.571 14216
0.407 1.431 1.572 19706
0.408 1.435 1.568 18829
0.409 1.439 1.563 12610
0.411 1.442 1.559 12914
0.413 1.452 1.560 16142
0.416 1.462 1.561 16979
0.419 1.471 1.561 17851
0.420 1.475 1.557 21999
0.421 1.479 1.552 22956
0.422 1.483 1.548 18890
0.425 1.493 1.548 12608
0.428 1.502 1.549 9655
0.429 1.506 1.544 9285
0.433 1.522 1.550 11622
0.434 1.526 1.546 16102
0.435 1.529 1.541 14473
0.438 1.539 1.541 11211
0.439 1.543 1.537 9734
0.444 1.559 1.542 6434
0.445 1.562 1.537 4115
0.338 1.187 1.202 4005
0.339 1.190 1.198 6208
0.341 1.199 1.199 9257
0.340 1.196 1.191 11001
0.341 1.199 1.187 12120
0.344 1.208 1.188 12321
0.345 1.211 1.185 9502
0.345 1.214 1.181 4428
0.350 1.228 1.187 2509
0.352 1.237 1.188 3946
0.355 1.246 1.189 4729
0.355 1.249 1.185 4395
0.356 1.252 1.181 3815
0.357 1.255 1.178 3213
0.358 1.258 1.174 2588
0.359 1.261 1.170 2426
0.363 1.276 1.176 3789
0.367 1.291 1.181 6234
0.368 1.293 1.177 6312
0.367 1.290 1.168 3706
0.368 1.293 1.164 1915
0.374 1.314 1.175 2313
0.375 1.317 1.171 3089
0.377 1.326 1.171 3184
0.380 1.335 1.172 2813
0.383 1.344 1.172 2128
0.420 1.477 1.265 2790
0.421 1.480 1.260 3974
0.422 1.483 1.256 5068
0.423 1.486 1.251 5615
0.424 1.490 1.247 5950
0.427 1.499 1.247 6012
0.424 1.489 1.233 5860
0.418 1.467 1.210 5669
0.417 1.464 1.201 3946
0.417 1.467 1.197 3067
0.417 1.464 1.188 4325
0.417 1.466 1.183 5602
0.418 1.469 1.179 8229
0.421 1.479 1.179 11289
0.423 1.488 1.179 16501
0.424 1.491 1.174 18857
0.425 1.494 1.169 14480
0.426 1.496 1.165 12024
0.423 1.487 1.152 10481
0.420 1.476 1.139 10330
0.423 1.486 1.138 10496
0.424 1.488 1.134 9048
0.424 1.491 1.129 5300
0.423 1.487 1.120 2690
0.605 2.126 1.523 2511
0.606 2.129 1.516 2753
0.607 2.133 1.509 3008
0.608 2.137 1.503 2995
0.609 2.141 1.496 4230
0.612 2.151 1.494 5543
0.619 2.175 1.499 8790
0.622 2.185 1.497 14372
0.625 2.195 1.494 16016
0.626 2.199 1.487 15388
0.629 2.209 1.484 14899
0.630 2.213 1.478 14185
0.631 2.217 1.471 10896
0.630 2.214 1.460 8448
0.633 2.224 1.457 5858
0.638 2.241 1.458 3768
0.427 1.499 1.022 3067
0.427 1.501 1.018 3336
0.428 1.504 1.013 3472
0.429 1.506 1.008 3945
0.670 2.353 1.476 4540
0.669 2.350 1.465 6009
0.668 2.347 1.454 7726
0.667 2.344 1.443 7614
0.668 2.348 1.436 7635
0.669 2.351 1.429 6217
0.674 2.369 1.429 5089
0.691 2.426 1.451 4682
0.692 2.430 1.443 5954
0.696 2.447 1.443 6641
0.698 2.451 1.435 7661
0.700 2.461 1.431 7835
0.705 2.479 1.431 8305
0.708 2.489 1.427 7892
0.711 2.499 1.423 7672
0.712 2.503 1.415 6626
0.715 2.513 1.411 4469
0.724 2.544 1.417 4092
0.723 2.541 1.405 3508
0.469 1.648 0.961 3001
0.470 1.650 0.956 3977
0.470 1.653 0.951 3913
0.471 1.655 0.946 3755
0.472 1.657 0.941 3661
0.474 1.666 0.939 2944
0.787 2.767 1.444 3369
0.788 2.770 1.436 3369
0.790 2.774 1.428 3014
0.791 2.778 1.419 2660
0.463 1.628 0.891 1876
0.464 1.630 0.886 2889
0.182 0.631 1.667 3506
0.183 0.635 1.665 4012
0.185 0.643 1.670 4548
0.184 0.638 1.646 8128
0.184 0.639 1.637 12180
0.185 0.643 1.635 13579
0.186 0.647 1.633 18006
0.188 0.651 1.631 21033
0.189 0.655 1.629 24546
0.190 0.659 1.627 28059
0.192 0.667 1.632 29085
0.194 0.674 1.637 30717
0.195 0.679 1.635 26101
0.196 0.679 1.626 21491
0.198 0.687 1.630 20391
0.199 0.691 1.628 19540
0.200 0.695 1.626 19594
0.201 0.699 1.624 20265
0.203 0.704 1.622 21296
0.204 0.708 1.620 22225
0.205 0.712 1.617 22602
0.207 0.719 1.622 21721
0.208 0.724 1.620 20996
0.211 0.731 1.625 17471
0.212 0.735 1.622 12855
0.215 0.747 1.634 11973
0.216 0.751 1.632 11475
0.219 0.759 1.636 11533
0.220 0.763 1.634 10311
0.221 0.767 1.631 7972
0.222 0.771 1.629 6037
0.221 0.768 1.613 4446
0.226 0.783 1.631 3396
0.230 0.799 1.649 3275
0.231 0.803 1.647 3598
0.232 0.807 1.644 3921
0.234 0.811 1.642 5880
0.234 0.812 1.632 7964
0.235 0.816 1.630 8300
0.237 0.824 1.634 8009
0.240 0.832 1.638 8084
0.244 0.848 1.656 7490
0.247 0.856 1.660 9742
0.247 0.856 1.651 12018
0.248 0.860 1.648 13400
0.248 0.861 1.639 14916
0.248 0.861 1.629 12707
0.248 0.861 1.620 10710
0.249 0.865 1.617 10748
0.250 0.869 1.615 11176
0.253 0.877 1.619 10876
0.254 0.881 1.616 10385
0.257 0.894 1.626 11932
0.260 0.902 1.630 14201
0.262 0.910 1.634 14727
0.263 0.915 1.631 11994
0.266 0.923 1.635 14025
0.266 0.923 1.625 22465
0.267 0.927 1.623 26311
0.268 0.931 1.620 26137
0.271 0.940 1.623 24264
0.274 0.952 1.634 21139
0.277 0.961 1.637 16336
0.277 0.961 1.628 15532
0.277 0.960 1.618 17312
0.279 0.969 1.622 15094
0.283 0.982 1.632 15272
0.285 0.990 1.635 22178
0.286 0.994 1.632 34743
0.288 0.999 1.629 46080
0.289 1.003 1.626 49494
0.291 1.011 1.629 49052
0.293 1.016 1.626 44714
0.294 1.020 1.623 34766
0.296 1.028 1.626 27395
0.295 1.023 1.610 22642
0.296 1.027 1.607 21450
0.298 1.036 1.610 21984
0.301 1.045 1.613 17643
0.305 1.058 1.622 12369
0.309 1.072 1.632 14597
0.310 1.076 1.628 20468
0.311 1.080 1.625 24894
0.314 1.089 1.628 22809
0.316 1.097 1.631 18277
0.317 1.102 1.627 14132
0.317 1.101 1.618 16206
0.318 1.105 1.614 20600
0.320 1.109 1.611 17336
0.323 1.123 1.620 11446
0.327 1.137 1.629 11840
0.329 1.141 1.625 15778
0.330 1.145 1.621 18232
0.330 1.144 1.612 15972
0.331 1.148 1.608 11276
0.333 1.157 1.611 9278
0.336 1.166 1.613 10950
0.337 1.170 1.610 12907
0.340 1.179 1.612 14622
0.342 1.189 1.614 18992
0.344 1.193 1.611 17557
0.346 1.202 1.613 17831
0.347 1.206 1.609 23026
0.349 1.210 1.606 20975
0.350 1.214 1.602 12355
0.352 1.223 1.604 9977
0.355 1.232 1.606 12523
0.356 1.236 1.602 14475
0.356 1.235 1.593 15429
0.357 1.239 1.589 12020
0.358 1.243 1.585 7197
0.364 1.263 1.599 6902
0.365 1.267 1.595 7891
0.365 1.266 1.585 10629
0.366 1.270 1.581 16816
0.368 1.279 1.583 18565
0.371 1.288 1.585 12879
0.372 1.292 1.581 7343
0.372 1.291 1.571 9574
0.375 1.300 1.573 12737
0.380 1.320 1.586 15036
0.383 1.330 1.587 12727
0.386 1.339 1.589 9661
0.382 1.327 1.568 10082
0.382 1.326 1.558 15807
0.388 1.346 1.571 21801
0.389 1.350 1.567 26172
0.391 1.359 1.568 36187
0.394 1.368 1.569 33103
0.395 1.372 1.565 22725
0.396 1.376 1.561 25496
0.399 1.386 1.562 24853
0.402 1.395 1.563 14826
0.406 1.410 1.570 8159
0.409 1.420 1.571 10814
0.412 1.429 1.572 16688
0.413 1.433 1.568 17957
0.416 1.443 1.569 11110
0.417 1.447 1.564 8467
0.418 1.451 1.560 11100
0.421 1.460 1.561 13667
0.423 1.470 1.561 14518
0.425 1.474 1.557 17470
0.426 1.478 1.552 17800
0.427 1.482 1.548 14165
0.430 1.491 1.548 10462
0.434 1.507 1.554 9631
0.435 1.511 1.550 9880
0.438 1.520 1.550 11855
0.439 1.524 1.546 15328
0.440 1.528 1.541 14688
0.443 1.538 1.541 13161
0.444 1.542 1.537 12523
0.447 1.551 1.537 9237
0.450 1.561 1.537 6639
0.449 1.559 1.527 3900
0.343 1.189 1.198 5129
0.345 1.198 1.199 7779
0.344 1.195 1.191 9479
0.345 1.198 1.187 10558
0.348 1.207 1.188 10512
0.348 1.209 1.185 8030
0.348 1.206 1.176 4159
0.354 1.227 1.187 2524
0.356 1.236 1.188 3943
0.359 1.245 1.189 4819
0.359 1.248 1.185 4602
0.360 1.251 1.181 3810
0.363 1.260 1.182 2736
0.364 1.263 1.179 2480
0.365 1.265 1.175 3421
0.367 1.274 1.176 5217
0.370 1.283 1.176 7315
0.372 1.292 1.177 7222
0.371 1.289 1.168 4588
0.374 1.298 1.169 2562
0.378 1.313 1.175 2897
0.379 1.316 1.171 3807
0.380 1.319 1.166 3978
0.384 1.334 1.172 3536
0.387 1.343 1.172 2648
0.425 1.476 1.265 3278
0.428 1.485 1.265 4592
0.427 1.482 1.256 5849
0.428 1.485 1.251 6505
0.429 1.488 1.247 6848
0.431 1.497 1.247 6930
0.429 1.488 1.233 6703
0.424 1.472 1.215 5834
0.423 1.469 1.206 3942
0.431 1.497 1.219 3404
0.423 1.469 1.192 4566
0.422 1.465 1.183 5724
0.423 1.468 1.179 8786
0.426 1.477 1.179 12289
0.428 1.487 1.179 17039
0.429 1.489 1.174 18330
0.428 1.486 1.165 14184
0.429 1.489 1.161 12858
0.426 1.479 1.147 12039
0.425 1.475 1.139 12348
0.428 1.484 1.138 12485
0.428 1.487 1.134 10782
0.429 1.490 1.129 6472
0.428 1.486 1.120 3501
0.427 1.482 1.112 2288
0.463 1.608 1.186 2411
0.614 2.131 1.509 2588
0.615 2.135 1.503 2473
0.618 2.145 1.500 3577
0.619 2.149 1.494 4894
0.626 2.173 1.499 8121
0.629 2.183 1.497 13503
0.632 2.193 1.494 15137
0.633 2.197 1.487 14653
0.636 2.207 1.484 14230
0.637 2.211 1.478 13693
0.638 2.215 1.471 10881
0.639 2.219 1.464 8605
0.642 2.229 1.461 6024
0.651 2.259 1.470 4579
0.654 2.270 1.467 3191
0.432 1.500 1.018 3356
0.433 1.502 1.013 3395
0.676 2.347 1.483 4064
0.677 2.351 1.476 5156
0.676 2.348 1.465 6726
0.676 2.345 1.454 8625
0.675 2.342 1.443 8341
0.676 2.346 1.436 8224
0.677 2.349 1.429 6456
0.682 2.366 1.429 4979
0.698 2.424 1.451 5097
0.699 2.428 1.443 6629
0.702 2.438 1.439 7113
0.705 2.449 1.435 7999
0.708 2.459 1.431 7572
0.711 2.469 1.427 7402
0.716 2.487 1.427 7045
0.719 2.497 1.423 6999
0.722 2.508 1.418 6225
0.725 2.518 1.414 4592
0.730 2.535 1.413 4375
0.731 2.539 1.405 3694
0.724 2.515 1.384 3157
0.475 1.649 0.956 3573
0.732 2.542 1.379 3764
0.476 1.653 0.946 3663
0.477 1.656 0.941 3622
0.763 2.650 1.401 2910
0.794 2.757 1.441 3447
0.795 2.761 1.433 3447
0.796 2.765 1.424 3129
0.797 2.768 1.416 2810
0.469 1.627 0.891 1664
0.471 1.636 0.889 2636
0.182 0.628 1.659 5104
0.184 0.635 1.665 5454
0.185 0.639 1.663 5943
0.185 0.637 1.646 9088
0.185 0.638 1.637 12824
0.186 0.643 1.635 14321
0.187 0.647 1.633 19179
0.188 0.651 1.631 22539
0.190 0.655 1.629 25812
0.192 0.663 1.634 29098
0.193 0.667 1.632 29535
0.195 0.674 1.637 30436
0.196 0.678 1.635 25858
0.197 0.679 1.626 21495
0.199 0.687 1.630 20685
0.200 0.691 1.628 20613
0.201 0.695 1.626 20838
0.202 0.699 1.624 21023
0.204 0.703 1.622 21639
0.205 0.707 1.620 22194
0.206 0.711 1.617 22230
0.208 0.719 1.622 21638
0.210 0.727 1.627 21281
0.212 0.731 1.625 17838
0.213 0.735 1.622 13263
0.215 0.743 1.627 11877
0.217 0.751 1.632 10739
0.220 0.758 1.636 11107
0.221 0.763 1.634 10228
0.222 0.767 1.631 8017
0.223 0.771 1.629 6134
0.223 0.771 1.620 4462
0.228 0.787 1.638 3648
0.232 0.802 1.656 3774
0.233 0.806 1.654 4125
0.235 0.811 1.651 4477
0.236 0.815 1.649 5904
0.236 0.815 1.639 7336
0.236 0.815 1.630 7493
0.238 0.823 1.634 7353
0.241 0.831 1.638 7401
0.244 0.843 1.649 6460
0.247 0.852 1.653 8819
0.247 0.852 1.644 11649
0.248 0.856 1.641 13241
0.249 0.860 1.639 14903
0.249 0.860 1.629 12910
0.249 0.861 1.620 11503
0.250 0.865 1.617 12017
0.252 0.869 1.615 12585
0.254 0.877 1.619 11879
0.255 0.881 1.616 10705
0.258 0.889 1.620 11649
0.261 0.902 1.630 13547
0.263 0.910 1.634 14403
0.265 0.914 1.631 11836
0.267 0.923 1.635 13852
0.267 0.923 1.625 22453
0.268 0.927 1.623 26571
0.269 0.931 1.620 25993
0.272 0.939 1.623 23095
0.274 0.948 1.627 19220
0.278 0.960 1.637 14899
0.278 0.960 1.628 15387
0.279 0.964 1.625 18872
0.280 0.968 1.622 17644
0.284 0.981 1.632 17920
0.287 0.990 1.635 24625
0.288 0.994 1.632 36268
0.289 0.998 1.629 46379
0.290 1.002 1.626 49040
0.293 1.011 1.629 48380
0.294 1.015 1.626 44131
0.295 1.019 1.623 34201
0.298 1.028 1.626 26242
0.296 1.023 1.610 21852
0.297 1.027 1.607 23091
0.300 1.036 1.610 24997
0.302 1.044 1.613 19601
0.305 1.053 1.616 12995
0.309 1.066 1.625 14150
0.311 1.075 1.628 19380
0.313 1.079 1.625 23106
0.315 1.088 1.628 20739
0.318 1.097 1.631 16828
0.319 1.101 1.627 13759
0.320 1.105 1.624 16247
0.320 1.105 1.614 20176
0.322 1.114 1.617 16663
0.325 1.122 1.620 12270
0.329 1.136 1.629 14136
0.330 1.140 1.625 17403
0.331 1.145 1.621 18499
0.333 1.149 1.618 15285
0.334 1.153 1.614 11659
0.335 1.157 1.611 8450
0.338 1.166 1.613 6952
0.339 1.170 1.610 9833
0.341 1.179 1.612 14774
0.344 1.188 1.614 20431
0.345 1.192 1.611 17999
0.348 1.201 1.613 16743
0.349 1.205 1.609 21435
0.350 1.209 1.606 20586
0.350 1.208 1.596 14038
0.353 1.218 1.598 12014
0.355 1.227 1.600 12931
0.356 1.231 1.596 14577
0.358 1.235 1.593 17054
0.359 1.239 1.589 13023
0.361 1.248 1.591 7765
0.361 1.247 1.581 8206
0.362 1.251 1.577 8707
0.365 1.260 1.579 10772
0.368 1.269 1.581 17702
0.370 1.279 1.583 20146
0.371 1.283 1.579 14959
0.374 1.292 1.581 8634
0.377 1.301 1.582 9099
0.378 1.305 1.578 13067
0.381 1.314 1.580 16142
0.383 1.324 1.582 15251
0.388 1.338 1.589 15943
0.387 1.337 1.579 14171
0.384 1.325 1.558 15736
0.389 1.345 1.571 22049
0.391 1.349 1.567 28856
0.393 1.358 1.568 37354
0.396 1.368 1.569 32243
0.396 1.366 1.560 20569
0.398 1.376 1.561 21362
0.401 1.385 1.562 23010
0.404 1.395 1.563 14654
0.407 1.404 1.564 7419
0.409 1.414 1.566 8363
0.414 1.429 1.572 13987
0.415 1.433 1.568 16773
0.418 1.442 1.569 10606
0.420 1.452 1.570 7575
0.423 1.461 1.570 9130
0.424 1.465 1.566 11734
0.425 1.469 1.561 11653
0.428 1.479 1.562 13005
0.428 1.477 1.552 12527
0.429 1.481 1.548 9911
0.433 1.496 1.554 8755
0.436 1.506 1.554 9267
0.439 1.516 1.555 10617
0.440 1.520 1.550 12943
0.441 1.524 1.546 15680
0.442 1.527 1.541 15799
0.445 1.537 1.541 15702
0.448 1.547 1.542 14991
0.449 1.551 1.537 11801
0.452 1.560 1.537 8964
0.451 1.558 1.527 5391
0.344 1.189 1.198 3954
0.347 1.197 1.199 6122
0.346 1.194 1.191 7708
0.347 1.197 1.187 8667
0.349 1.206 1.188 8412
0.348 1.203 1.180 6463
0.349 1.206 1.176 3915
0.352 1.215 1.177 2659
0.358 1.236 1.188 3616
0.359 1.238 1.184 4411
0.361 1.247 1.185 4274
0.364 1.256 1.186 3505
0.365 1.259 1.182 2434
0.367 1.268 1.183 2764
0.368 1.271 1.179 4443
0.369 1.274 1.176 6432
0.371 1.283 1.176 8183
0.372 1.286 1.172 7856
0.375 1.295 1.173 5250
0.376 1.297 1.169 3111
0.380 1.313 1.175 3428
0.381 1.315 1.171 4408
0.382 1.318 1.166 4639
0.386 1.333 1.172 4133
0.387 1.336 1.168 3119
0.427 1.475 1.265 3657
0.430 1.484 1.265 5106
0.429 1.481 1.256 6489
0.430 1.484 1.251 7202
0.431 1.488 1.247 7526
0.433 1.497 1.247 7605
0.431 1.487 1.233 7286
0.428 1.478 1.219 5939
0.431 1.487 1.219 4076
0.433 1.496 1.219 4085
0.425 1.468 1.192 4969
0.424 1.465 1.183 6048
0.425 1.467 1.179 9316
0.428 1.477 1.179 12977
0.428 1.480 1.174 17190
0.429 1.482 1.170 17514
0.430 1.485 1.165 13974
0.429 1.482 1.156 13993
0.428 1.478 1.147 13649
0.427 1.475 1.139 14226
0.430 1.484 1.138 14326
0.430 1.487 1.134 12378
0.429 1.483 1.125 7642
0.430 1.486 1.120 4379
0.429 1.482 1.112 2992
0.467 1.614 1.190 2864
0.468 1.617 1.185 3042
0.471 1.627 1.184 2952
0.470 1.623 1.175 3412
0.624 2.155 1.498 4290
0.629 2.172 1.499 7297
0.632 2.182 1.497 12329
0.635 2.193 1.494 13931
0.636 2.196 1.487 13677
0.639 2.207 1.484 13446
0.640 2.210 1.478 13188
0.641 2.214 1.471 10941
0.642 2.218 1.464 8951
0.647 2.235 1.465 6540
0.656 2.265 1.474 5764
0.657 2.269 1.467 4208
0.671 2.319 1.486 3369
0.435 1.502 1.013 3234
0.679 2.347 1.483 4458
0.681 2.350 1.476 5547
0.680 2.347 1.465 7189
0.679 2.344 1.454 9239
0.678 2.341 1.443 8810
0.679 2.345 1.436 8562
0.680 2.348 1.429 6486
0.685 2.365 1.429 4689
0.704 2.430 1.454 5424
0.703 2.427 1.443 7133
0.706 2.437 1.439 7436
0.709 2.448 1.435 8071
0.712 2.458 1.431 7079
0.715 2.469 1.427 6313
0.720 2.486 1.427 6070
0.725 2.503 1.426 6311
0.726 2.507 1.418 5835
0.731 2.524 1.418 4808
0.734 2.534 1.413 4648
0.733 2.531 1.402 3865
0.728 2.514 1.384 3357
0.735 2.538 1.387 3404
0.736 2.541 1.379 3641
0.479 1.653 0.946 3395
0.479 1.655 0.941 3397
0.771 2.663 1.407 3125
0.798 2.756 1.441 3434
0.799 2.760 1.433 3434
0.800 2.764 1.424 3158
0.799 2.760 1.413 2888
0.473 1.633 0.894 1476
0.473 1.635 0.889 2407
0.183 0.624 1.652 5976
0.185 0.632 1.657 6426
0.187 0.639 1.663 7099
0.187 0.637 1.646 10137
0.188 0.641 1.644 13555
0.188 0.642 1.635 15137
0.189 0.646 1.633 20424
0.190 0.650 1.631 24110
0.192 0.654 1.629 26990
0.194 0.662 1.634 29891
0.195 0.666 1.632 29729
0.197 0.674 1.637 29896
0.198 0.674 1.628 25578
0.199 0.679 1.626 21588
0.200 0.683 1.623 21233
0.202 0.690 1.628 21758
0.203 0.694 1.626 22133
0.205 0.698 1.624 21797
0.206 0.703 1.622 21987
0.207 0.707 1.620 22084
0.208 0.711 1.617 21700
0.210 0.718 1.622 21364
0.213 0.726 1.627 21424
0.214 0.730 1.625 17923
0.216 0.738 1.629 13452
0.217 0.742 1.627 11733
0.220 0.750 1.632 10241
0.222 0.758 1.636 10856
0.223 0.762 1.634 10206
0.224 0.766 1.631 8098
0.226 0.770 1.629 6277
0.226 0.771 1.620 4570
0.231 0.790 1.645 3941
0.235 0.801 1.656 4136
0.236 0.806 1.654 4663
0.237 0.810 1.651 5190
0.238 0.814 1.649 6346
0.239 0.814 1.639 7283
0.239 0.815 1.630 7220
0.241 0.823 1.634 6984
0.242 0.827 1.632 6860
0.246 0.839 1.643 5702
0.248 0.847 1.647 8477
0.249 0.851 1.644 11817
0.251 0.855 1.641 13357
0.251 0.856 1.632 15014
0.252 0.860 1.629 13214
0.252 0.860 1.620 12116
0.253 0.864 1.617 12820
0.254 0.868 1.615 13602
0.257 0.876 1.619 12791
0.258 0.880 1.616 11210
0.260 0.889 1.620 11451
0.264 0.901 1.630 12755
0.266 0.909 1.634 14020
0.268 0.913 1.631 12005
0.269 0.918 1.628 14295
0.270 0.922 1.625 22853
0.270 0.922 1.616 27105
0.272 0.930 1.620 25924
0.275 0.938 1.623 21411
0.277 0.947 1.627 16676
0.281 0.959 1.637 12909
0.281 0.959 1.628 14641
0.282 0.963 1.625 19796
0.283 0.968 1.622 19787
0.287 0.980 1.632 20454
0.288 0.985 1.628 26700
0.291 0.993 1.632 36898
0.292 0.997 1.629 46060
0.293 1.001 1.626 48346
0.296 1.010 1.629 47484
0.297 1.014 1.626 43391
0.298 1.018 1.623 33586
0.301 1.027 1.626 25099
0.299 1.022 1.610 21263
0.301 1.026 1.607 24888
0.303 1.035 1.610 27713
0.304 1.039 1.607 21350
0.308 1.052 1.616 13636
0.312 1.066 1.625 13307
0.315 1.074 1.628 17349
0.316 1.078 1.625 20533
0.318 1.087 1.628 18041
0.321 1.096 1.631 14895
0.322 1.100 1.627 13116
0.323 1.104 1.624 15977
0.323 1.104 1.614 19203
0.326 1.113 1.617 15828
0.330 1.126 1.626 12746
0.333 1.135 1.629 15869
0.334 1.139 1.625 19258
0.335 1.143 1.621 18981
0.336 1.148 1.618 14809
0.337 1.152 1.614 12178
0.340 1.161 1.617 9038
0.343 1.170 1.619 4278
0.342 1.169 1.610 6036
0.345 1.178 1.612 13922
0.348 1.187 1.614 21607
0.349 1.191 1.611 19143
0.352 1.200 1.613 16357
0.353 1.204 1.609 19526
0.354 1.208 1.606 18378
0.352 1.202 1.590 15246
0.355 1.211 1.592 15131
0.359 1.226 1.600 14111
0.360 1.230 1.596 15167
0.361 1.234 1.593 18716
0.363 1.238 1.589 14536
0.364 1.242 1.585 8978
0.365 1.246 1.581 9558
0.365 1.245 1.571 9863
0.367 1.254 1.573 10674
0.371 1.268 1.581 17363
0.374 1.277 1.583 21441
0.375 1.281 1.579 18043
0.377 1.285 1.575 12134
0.382 1.305 1.588 11357
0.383 1.309 1.584 13865
0.385 1.313 1.580 16729
0.387 1.323 1.582 17743
0.392 1.337 1.589 23021
0.393 1.341 1.585 22400
0.394 1.345 1.580 16713
0.397 1.355 1.582 23002
0.396 1.353 1.572 32133
0.398 1.357 1.568 37978
0.399 1.361 1.564 31953
0.400 1.365 1.560 19798
0.403 1.375 1.561 17829
0.405 1.384 1.562 21142
0.408 1.393 1.563 14435
0.408 1.392 1.554 7710
0.412 1.407 1.560 7117
0.418 1.427 1.572 11532
0.419 1.431 1.568 15299
0.422 1.441 1.569 11251
0.426 1.456 1.575 10319
0.428 1.460 1.570 11198
0.429 1.464 1.566 11634
0.430 1.468 1.561 10136
0.433 1.478 1.562 9380
0.432 1.476 1.552 8070
0.435 1.485 1.553 7992
0.438 1.495 1.554 8856
0.441 1.505 1.554 8926
0.444 1.514 1.555 11622
0.445 1.518 1.550 14689
0.446 1.522 1.546 16902
0.447 1.526 1.541 17408
0.450 1.536 1.541 18338
0.453 1.545 1.542 17585
0.454 1.549 1.537 14486
0.457 1.559 1.537 11327
0.456 1.557 1.527 6860
0.348 1.187 1.198 2716
0.349 1.190 1.194 4297
0.350 1.193 1.191 5724
0.352 1.202 1.192 6629
0.353 1.205 1.188 6265
0.352 1.202 1.180 5050
0.355 1.211 1.181 3803
0.357 1.220 1.182 3009
0.360 1.228 1.183 3488
0.362 1.237 1.184 4057
0.365 1.246 1.185 3956
0.368 1.255 1.186 3311
0.370 1.264 1.187 2450
0.371 1.267 1.183 3224
0.372 1.270 1.179 5362
0.373 1.273 1.176 7563
0.375 1.282 1.176 8966
0.376 1.284 1.172 8299
0.379 1.293 1.173 5791
0.381 1.302 1.174 3687
0.384 1.311 1.175 3863
0.385 1.314 1.171 4961
0.386 1.317 1.166 5315
0.390 1.332 1.172 4743
0.391 1.335 1.168 3595
0.432 1.474 1.265 3803
0.434 1.483 1.265 5500
0.434 1.480 1.256 7021
0.434 1.483 1.251 7743
0.435 1.486 1.247 8044
0.438 1.496 1.247 8125
0.437 1.492 1.237 7716
0.434 1.483 1.224 5932
0.435 1.486 1.219 4333
0.438 1.495 1.219 4658
0.431 1.473 1.197 5467
0.429 1.463 1.183 6452
0.428 1.460 1.175 9772
0.430 1.469 1.174 13433
0.433 1.478 1.174 16953
0.434 1.481 1.170 16376
0.433 1.478 1.161 13858
0.434 1.480 1.156 15107
0.433 1.477 1.147 15066
0.432 1.473 1.139 15988
0.434 1.482 1.138 16182
0.433 1.479 1.129 14068
0.434 1.481 1.125 9038
0.433 1.478 1.116 5440
0.430 1.468 1.103 3909
0.472 1.613 1.190 3356
0.473 1.616 1.185 3567
0.476 1.625 1.184 3500
0.477 1.628 1.179 3949
0.476 1.624 1.170 4167
0.636 2.170 1.499 6324
0.639 2.180 1.497 10834
0.640 2.184 1.490 12418
0.643 2.194 1.487 12416
0.646 2.205 1.484 12492
0.647 2.208 1.478 12618
0.650 2.219 1.475 11122
0.651 2.222 1.468 9493
0.656 2.239 1.469 7506
0.663 2.263 1.474 7067
0.664 2.267 1.467 5338
0.677 2.310 1.483 3644
0.684 2.334 1.487 3401
0.687 2.344 1.483 4762
0.688 2.348 1.476 5794
0.687 2.345 1.465 7532
0.686 2.342 1.454 9781
0.685 2.339 1.443 9237
0.686 2.343 1.436 8854
0.687 2.346 1.429 6424
0.694 2.370 1.433 4260
0.711 2.428 1.454 5655
0.710 2.425 1.443 7529
0.713 2.435 1.439 7660
0.716 2.445 1.435 8044
0.717 2.449 1.428 6554
0.720 2.459 1.424 5198
0.729 2.490 1.430 5091
0.732 2.501 1.426 5734
0.736 2.511 1.422 5605
0.739 2.522 1.418 5171
0.740 2.525 1.410 5020
0.741 2.529 1.402 4155
0.736 2.511 1.384 3634
0.741 2.529 1.383 3407
0.744 2.539 1.379 3468
0.484 1.651 0.946 3028
0.772 2.636 1.406 3327
0.781 2.667 1.411 3402
0.784 2.678 1.406 3806
0.785 2.681 1.397 3806
0.807 2.754 1.421 3139
0.808 2.758 1.413 2946
0.809 2.761 1.404 1473
0.479 1.634 0.889 2165
0.185 0.624 1.652 6860
0.186 0.628 1.650 7346
0.188 0.635 1.655 7985
0.188 0.636 1.646 10763
0.190 0.640 1.644 13693
0.190 0.641 1.635 15308
0.191 0.646 1.633 21040
0.192 0.650 1.631 25089
0.194 0.654 1.629 27827
0.196 0.661 1.634 30631
0.197 0.665 1.632 30145
0.199 0.673 1.637 29946
0.200 0.674 1.628 25840
0.201 0.678 1.626 22019
0.202 0.682 1.623 21607
0.204 0.690 1.628 22024
0.205 0.694 1.626 22306
0.207 0.698 1.624 21710
0.208 0.702 1.622 21702
0.209 0.706 1.620 21794
0.210 0.710 1.617 21445
0.213 0.718 1.622 21035
0.215 0.725 1.627 21029
0.216 0.730 1.625 17552
0.218 0.737 1.629 13319
0.220 0.741 1.627 11667
0.222 0.749 1.632 10265
0.223 0.753 1.629 11028
0.225 0.761 1.634 10347
0.227 0.765 1.631 8203
0.229 0.773 1.636 6380
0.229 0.774 1.627 4572
0.234 0.789 1.645 4170
0.238 0.804 1.663 4370
0.238 0.805 1.654 5101
0.240 0.809 1.651 5845
0.241 0.813 1.649 6775
0.242 0.817 1.646 7180
0.242 0.818 1.637 6673
0.242 0.818 1.627 6262
0.244 0.822 1.625 5859
0.247 0.834 1.636 5251
0.249 0.842 1.640 8610
0.251 0.846 1.637 11923
0.253 0.855 1.641 13214
0.253 0.855 1.632 14732
0.253 0.855 1.623 13096
0.254 0.859 1.620 12589
0.256 0.863 1.617 13800
0.257 0.867 1.615 14774
0.259 0.875 1.619 13861
0.262 0.884 1.622 11880
0.263 0.888 1.620 11441
0.267 0.900 1.630 11991
0.269 0.908 1.634 13467
0.270 0.913 1.631 12027
0.272 0.917 1.628 14938
0.271 0.917 1.619 23381
0.273 0.921 1.616 27654
0.275 0.929 1.620 25449
0.276 0.933 1.617 19168
0.280 0.946 1.627 13287
0.284 0.959 1.637 10102
0.284 0.958 1.628 12704
0.285 0.963 1.625 19736
0.286 0.967 1.622 21771
0.290 0.980 1.632 23290
0.291 0.984 1.628 28811
0.294 0.992 1.632 37148
0.295 0.996 1.629 45269
0.296 1.001 1.626 47142
0.298 1.005 1.623 46133
0.300 1.013 1.626 42425
0.301 1.017 1.623 33257
0.304 1.026 1.626 24349
0.302 1.021 1.610 21134
0.305 1.030 1.613 26699
0.306 1.034 1.610 29831
0.307 1.038 1.607 22671
0.310 1.047 1.610 14301
0.314 1.060 1.619 12380
0.318 1.073 1.628 15396
0.319 1.077 1.625 18372
0.322 1.086 1.628 15687
0.324 1.095 1.631 12648
0.326 1.099 1.627 12395
0.327 1.103 1.624 16230
0.328 1.107 1.620 19155
0.329 1.112 1.617 15634
0.333 1.125 1.626 13389
0.336 1.134 1.629 17182
0.337 1.138 1.625 20608
0.338 1.142 1.621 19290
0.340 1.147 1.618 14606
0.342 1.156 1.620 12522
0.343 1.160 1.617 9817
0.346 1.169 1.619 5682
0.346 1.168 1.610 6118
0.349 1.177 1.612 12572
0.351 1.186 1.614 21150
0.352 1.190 1.611 19531
0.355 1.199 1.613 15964
0.356 1.203 1.609 17291
0.358 1.207 1.606 15637
0.357 1.206 1.596 15733
0.360 1.215 1.598 18289
0.363 1.225 1.600 15758
0.364 1.229 1.596 15623
0.364 1.228 1.587 19944
0.366 1.237 1.589 16396
0.367 1.241 1.585 10726
0.367 1.240 1.575 10438
0.368 1.244 1.571 10058
0.371 1.253 1.573 11097
0.375 1.267 1.581 17692
0.378 1.276 1.583 21933
0.378 1.275 1.573 20038
0.380 1.284 1.575 16226
0.386 1.304 1.588 13888
0.389 1.313 1.590 13995
0.389 1.312 1.580 16251
0.391 1.321 1.582 20148
0.396 1.336 1.589 30018
0.397 1.340 1.585 31407
0.398 1.344 1.580 22360
0.401 1.353 1.582 25869
0.400 1.352 1.572 35904
0.402 1.356 1.568 38304
0.403 1.360 1.564 32156
0.404 1.364 1.560 20114
0.405 1.368 1.555 14742
0.410 1.383 1.562 18654
0.411 1.387 1.558 14168
0.412 1.391 1.554 8890
0.411 1.389 1.544 7695
0.421 1.421 1.567 10110
0.424 1.430 1.568 13826
0.428 1.445 1.574 11694
0.429 1.449 1.570 13165
0.432 1.459 1.570 14408
0.433 1.463 1.566 13204
0.434 1.467 1.561 10927
0.437 1.476 1.562 8142
0.438 1.480 1.558 7046
0.440 1.484 1.553 9960
0.442 1.494 1.554 11031
0.445 1.503 1.554 9501
0.448 1.513 1.555 12750
0.449 1.517 1.550 16633
0.450 1.521 1.546 18128
0.453 1.530 1.546 18611
0.454 1.534 1.541 20093
0.457 1.544 1.542 19398
0.458 1.548 1.537 16409
0.461 1.558 1.537 13049
0.461 1.556 1.527 7859
0.462 1.560 1.523 2878
0.352 1.189 1.194 2501
0.355 1.198 1.196 3716
0.356 1.201 1.192 4632
0.357 1.204 1.188 4332
0.357 1.207 1.185 3877
0.360 1.216 1.186 3673
0.363 1.224 1.187 3202
0.364 1.227 1.183 3436
0.366 1.236 1.184 3617
0.367 1.239 1.180 3349
0.371 1.254 1.186 2914
0.376 1.269 1.192 2486
0.375 1.266 1.183 3641
0.376 1.269 1.179 5971
0.378 1.278 1.180 8260
0.379 1.280 1.176 9369
0.380 1.283 1.172 8339
0.383 1.292 1.173 5989
0.387 1.307 1.179 4150
0.390 1.316 1.179 4212
0.389 1.313 1.171 5262
0.390 1.316 1.166 5659
0.392 1.325 1.167 5103
0.395 1.334 1.168 3898
0.438 1.479 1.270 3731
0.439 1.482 1.265 5705
0.438 1.479 1.256 7327
0.439 1.482 1.251 7951
0.440 1.485 1.247 8191
0.441 1.488 1.242 8320
0.442 1.491 1.237 7839
0.439 1.482 1.224 5678
0.442 1.491 1.224 4430
0.442 1.494 1.219 5037
0.436 1.472 1.197 5819
0.433 1.462 1.183 6857
0.432 1.459 1.175 10211
0.433 1.461 1.170 13879
0.436 1.471 1.170 16404
0.436 1.473 1.165 15238
0.437 1.476 1.161 13536
0.438 1.479 1.156 15688
0.437 1.476 1.147 15960
0.436 1.472 1.139 17321
0.439 1.481 1.138 17705
0.438 1.477 1.129 15591
0.438 1.480 1.125 10339
0.437 1.476 1.116 6559
0.434 1.466 1.103 4878
0.477 1.611 1.190 3697
0.480 1.621 1.189 3898
0.481 1.624 1.184 3849
0.482 1.627 1.179 4331
0.481 1.623 1.170 4555
0.642 2.168 1.499 5277
0.645 2.178 1.497 9156
0.646 2.182 1.490 10700
0.649 2.192 1.487 10980
0.652 2.203 1.484 11441
0.653 2.206 1.478 11943
0.657 2.217 1.475 11293
0.658 2.220 1.468 10058
0.665 2.244 1.473 8474
0.668 2.254 1.470 8191
0.669 2.258 1.463 6331
0.670 2.262 1.456 4472
0.691 2.332 1.487 3552
0.696 2.349 1.487 4909
0.697 2.353 1.480 5858
0.694 2.343 1.465 7699
0.693 2.340 1.454 10133
0.692 2.337 1.443 9535
0.693 2.341 1.436 9053
0.694 2.344 1.429 6285
0.717 2.422 1.462 3978
0.718 2.426 1.454 5830
0.718 2.423 1.443 7798
0.721 2.433 1.439 7776
0.724 2.443 1.435 7912
0.725 2.447 1.428 6050
0.728 2.457 1.424 4213
0.737 2.488 1.430 4241
0.742 2.505 1.430 5219
0.743 2.509 1.422 5439
0.746 2.519 1.418 5510
0.747 2.523 1.410 5455
0.746 2.520 1.399 4477
0.743 2.509 1.384 3897
0.746 2.520 1.380 3412
0.753 2.544 1.382 3256
0.783 2.644 1.420 2678
0.780 2.634 1.406 3140
0.789 2.665 1.411 3602
0.792 2.675 1.406 4199
0.793 2.679 1.397 4199
0.794 2.682 1.389 3326
0.814 2.748 1.410 2899
0.815 2.752 1.401 1449
0.486 1.639 0.893 1903
0.185 0.620 1.645 7993
0.187 0.627 1.650 8460
0.188 0.632 1.648 9037
0.190 0.636 1.646 11412
0.191 0.640 1.644 13788
0.191 0.641 1.635 15435
0.193 0.645 1.633 21557
0.194 0.649 1.631 25948
0.195 0.654 1.629 28516
0.197 0.661 1.634 31130
0.198 0.665 1.632 30553
0.201 0.673 1.637 30209
0.201 0.673 1.628 26458
0.202 0.678 1.626 22941
0.203 0.682 1.623 22121
0.206 0.689 1.628 22050
0.207 0.693 1.626 22093
0.208 0.697 1.624 21115
0.209 0.702 1.622 20815
0.211 0.706 1.620 21188
0.212 0.710 1.617 21167
0.214 0.717 1.622 20603
0.216 0.725 1.627 20362
0.218 0.729 1.625 16964
0.220 0.737 1.629 13017
0.221 0.741 1.627 11680
0.223 0.749 1.632 10545
0.225 0.753 1.629 11346
0.227 0.761 1.634 10442
0.228 0.765 1.631 8169
0.231 0.773 1.636 6486
0.233 0.781 1.640 4729
0.236 0.792 1.652 4483
0.240 0.804 1.663 4671
0.240 0.804 1.654 5599
0.241 0.809 1.651 6571
0.243 0.813 1.649 7262
0.244 0.817 1.646 7124
0.245 0.821 1.644 6203
0.244 0.818 1.627 5227
0.244 0.818 1.618 4603
0.248 0.830 1.629 5315
0.251 0.842 1.640 9810
0.252 0.846 1.637 12884
0.255 0.854 1.641 13489
0.255 0.854 1.632 14525
0.255 0.854 1.623 12783
0.256 0.859 1.620 12736
0.257 0.863 1.617 14572
0.260 0.871 1.621 15983
0.261 0.875 1.619 15247
0.264 0.883 1.622 13221
0.265 0.887 1.620 11948
0.268 0.900 1.630 11415
0.271 0.908 1.634 12799
0.272 0.912 1.631 11844
0.273 0.916 1.628 15697
0.273 0.916 1.619 24706
0.275 0.920 1.616 28954
0.277 0.929 1.620 25591
0.278 0.933 1.617 17173
0.281 0.941 1.620 9776
0.287 0.962 1.644 6794
0.286 0.958 1.628 10684
0.287 0.962 1.625 20302
0.290 0.970 1.628 24485
0.292 0.979 1.632 26997
0.293 0.983 1.628 31479
0.296 0.992 1.632 37255
0.297 0.996 1.629 43820
0.298 1.000 1.626 45298
0.300 1.004 1.623 44396
0.302 1.013 1.626 41239
0.303 1.017 1.623 33214
0.306 1.025 1.626 23952
0.306 1.025 1.616 21750
0.307 1.029 1.613 29235
0.308 1.033 1.610 31485
0.310 1.037 1.607 23179
0.312 1.046 1.610 14458
0.316 1.059 1.619 11757
0.319 1.068 1.622 13746
0.321 1.077 1.625 16135
0.323 1.081 1.622 13356
0.325 1.090 1.625 10876
0.328 1.099 1.627 12475
0.329 1.103 1.624 16937
0.330 1.107 1.620 19234
0.333 1.116 1.623 15519
0.336 1.125 1.626 13957
0.337 1.129 1.622 18588
0.339 1.138 1.625 21771
0.341 1.142 1.621 19279
0.342 1.146 1.618 14392
0.345 1.155 1.620 12607
0.346 1.159 1.617 11042
0.347 1.163 1.613 9469
0.347 1.162 1.604 8451
0.351 1.176 1.612 11236
0.354 1.185 1.614 19339
0.356 1.194 1.617 19441
0.358 1.198 1.613 15766
0.359 1.202 1.609 14949
0.360 1.207 1.606 12934
0.361 1.211 1.602 16244
0.362 1.215 1.598 21413
0.365 1.224 1.600 17527
0.366 1.228 1.596 16176
0.366 1.227 1.587 20976
0.369 1.236 1.589 18121
0.370 1.240 1.585 12839
0.370 1.239 1.575 11181
0.371 1.243 1.571 9600
0.374 1.252 1.573 11533
0.378 1.266 1.581 17721
0.381 1.276 1.583 21507
0.380 1.274 1.573 21675
0.383 1.284 1.575 19694
0.389 1.303 1.588 15885
0.392 1.313 1.590 13739
0.393 1.317 1.586 15952
0.394 1.321 1.582 23798
0.398 1.335 1.589 37466
0.400 1.339 1.585 40417
0.401 1.343 1.580 29747
0.402 1.347 1.576 30355
0.403 1.351 1.572 39804
0.404 1.355 1.568 38319
0.406 1.359 1.564 32211
0.407 1.363 1.560 22023
0.408 1.367 1.555 13162
0.412 1.382 1.562 15911
0.414 1.386 1.558 14134
0.415 1.390 1.554 10398
0.414 1.388 1.544 8364
0.424 1.420 1.567 9113
0.428 1.435 1.573 12197
0.431 1.444 1.574 11677
0.432 1.448 1.570 15353
0.433 1.452 1.565 17600
0.436 1.462 1.566 15685
0.437 1.466 1.561 13462
0.440 1.475 1.562 9832
0.441 1.479 1.558 8862
0.443 1.483 1.553 13758
0.445 1.493 1.554 14906
0.448 1.502 1.554 11554
0.451 1.512 1.555 14494
0.452 1.516 1.550 18690
0.454 1.520 1.546 18785
0.456 1.530 1.546 19095
0.458 1.533 1.541 20930
0.460 1.543 1.542 20229
0.462 1.547 1.537 17509
0.465 1.557 1.537 14219
0.464 1.555 1.527 8468
0.462 1.547 1.512 2950
0.355 1.189 1.194 991
0.357 1.197 1.196 1884
0.358 1.200 1.192 2827
0.361 1.209 1.193 2707
0.362 1.212 1.190 3008
0.364 1.221 1.191 3575
0.365 1.224 1.187 3358
0.368 1.233 1.188 3493
0.367 1.230 1.179 3233
0.370 1.238 1.180 2726
0.374 1.253 1.186 2527
0.378 1.268 1.192 2391
0.377 1.265 1.183 3644
0.378 1.268 1.179 6084
0.381 1.277 1.180 8618
0.382 1.280 1.176 9455
0.383 1.283 1.172 8008
0.385 1.292 1.173 5817
0.392 1.313 1.183 4520
0.393 1.316 1.179 4405
0.392 1.312 1.171 5307
0.392 1.315 1.166 5816
0.395 1.324 1.167 5355
0.398 1.333 1.168 4108
0.400 1.342 1.168 3838
0.442 1.481 1.265 5781
0.441 1.478 1.256 7424
0.444 1.487 1.256 7838
0.443 1.484 1.247 7921
0.444 1.487 1.242 8180
0.445 1.490 1.237 7617
0.444 1.487 1.228 5183
0.445 1.490 1.224 4317
0.445 1.493 1.219 5187
0.441 1.477 1.201 5903
0.436 1.461 1.183 7008
0.435 1.458 1.175 10448
0.436 1.460 1.170 14120
0.437 1.463 1.166 15899
0.438 1.466 1.161 14233
0.440 1.475 1.161 13298
0.441 1.478 1.156 15897
0.440 1.475 1.147 16428
0.439 1.471 1.139 18259
0.442 1.480 1.138 18904
0.441 1.477 1.129 16907
0.441 1.479 1.125 11667
0.440 1.476 1.116 7865
0.439 1.472 1.107 6015
0.438 1.468 1.099 4154
0.483 1.620 1.189 3952
0.484 1.623 1.184 3938
0.485 1.626 1.179 4521
0.484 1.622 1.170 4864
0.485 1.625 1.165 4724
0.650 2.177 1.497 7328
0.651 2.181 1.490 8771
0.654 2.191 1.487 9389
0.657 2.201 1.484 10294
0.658 2.205 1.478 11184
0.661 2.215 1.475 11443
0.664 2.226 1.472 10726
0.669 2.243 1.473 9405
0.672 2.253 1.470 9084
0.673 2.257 1.463 7108
0.672 2.254 1.452 5148
0.695 2.331 1.487 3576
0.701 2.348 1.487 4962
0.702 2.351 1.480 5868
0.697 2.335 1.462 7811
0.698 2.339 1.454 10389
0.697 2.336 1.443 9772
0.698 2.339 1.436 9192
0.699 2.343 1.429 6104
0.722 2.421 1.462 3949
0.723 2.424 1.454 5872
0.722 2.421 1.443 7876
0.726 2.431 1.439 7741
0.727 2.435 1.432 7687
0.730 2.445 1.428 5557
0.731 2.449 1.420 3458
0.742 2.487 1.430 3582
0.747 2.504 1.430 4903
0.748 2.507 1.422 5428
0.749 2.511 1.414 5924
0.750 2.514 1.406 5935
0.749 2.511 1.395 4884
0.748 2.508 1.384 4187
0.751 2.518 1.380 3427
0.759 2.542 1.382 3070
0.790 2.649 1.424 2514
0.794 2.660 1.419 3028
0.795 2.663 1.411 3756
0.798 2.674 1.406 4514
0.799 2.677 1.397 4514
0.800 2.681 1.389 3568
0.820 2.747 1.410 2754
0.821 2.750 1.401 1377
0.489 1.638 0.893 1581
0.187 0.620 1.645 8308
0.188 0.624 1.643 8867
0.190 0.631 1.648 9552
0.191 0.635 1.646 11592
0.193 0.640 1.644 13632
0.193 0.641 1.635 15402
0.194 0.645 1.633 22021
0.195 0.649 1.631 26856
0.197 0.653 1.629 29436
0.199 0.660 1.634 32116
0.200 0.665 1.632 31353
0.202 0.672 1.637 30764
0.203 0.673 1.628 27297
0.204 0.677 1.626 24003
0.205 0.681 1.623 22829
0.207 0.689 1.628 22349
0.209 0.693 1.626 22153
0.210 0.697 1.624 20810
0.210 0.698 1.615 20359
0.212 0.705 1.620 20951
0.214 0.709 1.617 21294
0.216 0.717 1.622 20460
0.218 0.724 1.627 19858
0.220 0.729 1.625 16409
0.222 0.736 1.629 12618
0.223 0.740 1.627 11893
0.225 0.748 1.632 11278
0.227 0.752 1.629 12160
0.229 0.760 1.634 11060
0.231 0.768 1.638 8582
0.233 0.772 1.636 6955
0.236 0.784 1.647 5289
0.238 0.792 1.652 5096
0.242 0.803 1.663 5193
0.242 0.804 1.654 6043
0.243 0.808 1.651 6905
0.245 0.812 1.649 7501
0.246 0.816 1.646 7221
0.247 0.821 1.644 6255
0.247 0.821 1.634 4968
0.244 0.809 1.604 4172
0.251 0.833 1.636 5951
0.253 0.841 1.640 10891
0.255 0.845 1.637 13419
0.256 0.849 1.635 13394
0.257 0.854 1.632 13888
0.257 0.854 1.623 12132
0.258 0.858 1.620 12601
0.260 0.862 1.617 15022
0.262 0.870 1.621 16856
0.263 0.874 1.619 16212
0.266 0.882 1.622 14117
0.267 0.887 1.620 12113
0.271 0.899 1.630 10544
0.273 0.907 1.634 11754
0.275 0.911 1.631 11304
0.276 0.915 1.628 16229
0.276 0.915 1.619 25803
0.277 0.919 1.616 29959
0.280 0.928 1.620 25611
0.281 0.932 1.617 15075
0.281 0.932 1.607 7259
0.282 0.936 1.604 5039
0.288 0.957 1.628 9346
0.290 0.961 1.625 20940
0.292 0.970 1.628 27257
0.295 0.978 1.632 30310
0.296 0.982 1.628 33760
0.299 0.991 1.632 37118
0.300 0.995 1.629 42138
0.301 0.999 1.626 43283
0.302 1.003 1.623 42531
0.303 1.007 1.619 39867
0.306 1.016 1.623 32985
0.307 1.020 1.620 23705
0.309 1.024 1.616 22537
0.310 1.028 1.613 31163
0.311 1.032 1.610 32284
0.312 1.036 1.607 22989
0.315 1.045 1.610 14166
0.317 1.054 1.613 10875
0.322 1.067 1.622 11495
0.323 1.071 1.619 13416
0.324 1.075 1.615 11552
0.327 1.084 1.618 10660
0.329 1.093 1.621 13362
0.332 1.102 1.624 17777
0.333 1.106 1.620 19013
0.336 1.115 1.623 15065
0.339 1.124 1.626 13977
0.340 1.128 1.622 19523
0.342 1.137 1.625 22742
0.344 1.141 1.621 19255
0.345 1.145 1.618 14120
0.348 1.154 1.620 12202
0.349 1.158 1.617 11955
0.350 1.162 1.613 13427
0.351 1.166 1.610 12111
0.356 1.180 1.618 11856
0.357 1.184 1.614 18229
0.358 1.188 1.611 19394
0.359 1.192 1.607 15595
0.360 1.197 1.603 12452
0.363 1.206 1.606 10280
0.366 1.215 1.608 16700
0.367 1.219 1.604 24320
0.368 1.223 1.600 19651
0.370 1.227 1.596 16369
0.369 1.226 1.587 21718
0.372 1.235 1.589 20105
0.375 1.244 1.591 14806
0.373 1.238 1.575 11490
0.376 1.247 1.577 8624
0.378 1.256 1.579 11238
0.383 1.270 1.587 16495
0.384 1.275 1.583 19592
0.384 1.273 1.573 22446
0.386 1.283 1.575 21704
0.392 1.302 1.588 16985
0.397 1.317 1.595 13682
0.398 1.321 1.591 16927
0.399 1.325 1.587 28627
0.402 1.334 1.589 43788
0.403 1.338 1.585 48413
0.404 1.342 1.580 36981
0.406 1.346 1.576 34612
0.407 1.350 1.572 43124
0.408 1.354 1.568 36181
0.409 1.358 1.564 30205
0.410 1.362 1.560 24591
0.412 1.366 1.555 13377
0.414 1.375 1.557 13969
0.417 1.385 1.558 14810
0.418 1.389 1.554 11972
0.418 1.387 1.544 8491
0.429 1.424 1.572 8585
0.432 1.434 1.573 10601
0.435 1.443 1.574 11151
0.436 1.447 1.570 16424
0.437 1.451 1.565 19704
0.440 1.461 1.566 17823
0.441 1.465 1.561 16301
0.442 1.469 1.557 13686
0.444 1.472 1.552 12952
0.446 1.482 1.553 18407
0.448 1.486 1.548 19645
0.451 1.496 1.549 14326
0.455 1.511 1.555 16508
0.456 1.515 1.550 19965
0.458 1.519 1.546 18199
0.460 1.528 1.546 18764
0.463 1.538 1.546 20874
0.465 1.542 1.542 20065
0.466 1.546 1.537 17911
0.469 1.555 1.537 14968
0.468 1.553 1.527 8748
0.466 1.546 1.512 3124
0.469 1.555 1.513 1401
0.473 1.571 1.518 1474
0.365 1.211 1.202 1788
0.364 1.208 1.193 1688
0.367 1.217 1.195 2509
0.367 1.220 1.191 3414
0.368 1.223 1.187 3365
0.371 1.232 1.188 3737
0.372 1.235 1.184 3232
0.375 1.243 1.185 2293
0.379 1.258 1.191 2086
0.382 1.267 1.192 2170
0.381 1.264 1.183 3255
0.383 1.273 1.184 5729
0.384 1.276 1.180 8496
0.385 1.279 1.176 9211
0.386 1.282 1.172 7399
0.389 1.290 1.173 5318
0.395 1.312 1.183 4773
0.398 1.321 1.184 4510
0.395 1.311 1.171 5150
0.396 1.314 1.166 5653
0.399 1.323 1.167 5249
0.399 1.326 1.163 4128
0.404 1.341 1.168 3824
0.444 1.474 1.260 5702
0.445 1.477 1.256 7330
0.448 1.486 1.256 7392
0.449 1.489 1.251 7290
0.448 1.486 1.242 7705
0.449 1.489 1.237 7089
0.448 1.486 1.228 4473
0.424 1.407 1.166 4633
0.448 1.485 1.215 5142
0.445 1.476 1.201 5672
0.438 1.454 1.179 6887
0.437 1.450 1.170 10526
0.438 1.453 1.166 14034
0.440 1.462 1.166 15169
0.441 1.465 1.161 13787
0.442 1.468 1.157 13077
0.445 1.477 1.156 15285
0.444 1.473 1.147 16049
0.443 1.470 1.139 18560
0.444 1.473 1.134 19713
0.444 1.475 1.129 17852
0.445 1.478 1.125 12812
0.444 1.474 1.116 9097
0.443 1.471 1.107 7129
0.442 1.467 1.099 4963
0.443 1.469 1.094 4143
0.488 1.621 1.184 3724
0.489 1.624 1.179 4564
0.490 1.627 1.174 5261
0.489 1.623 1.165 5228
0.655 2.175 1.497 5479
0.656 2.179 1.490 6786
0.660 2.189 1.487 7809
0.663 2.200 1.484 9221
0.666 2.210 1.482 10506
0.669 2.220 1.479 11552
0.670 2.224 1.472 11367
0.675 2.241 1.473 10225
0.678 2.251 1.470 9693
0.677 2.248 1.459 7730
0.678 2.252 1.452 5804
0.679 2.255 1.445 4035
0.707 2.346 1.487 4856
0.708 2.349 1.480 5723
0.703 2.333 1.462 7830
0.702 2.330 1.451 10554
0.703 2.334 1.443 9912
0.702 2.331 1.433 9311
0.703 2.334 1.425 6019
0.729 2.419 1.462 3890
0.730 2.422 1.454 5833
0.729 2.419 1.443 7823
0.732 2.430 1.439 7662
0.733 2.433 1.432 7548
0.734 2.437 1.424 5366
0.737 2.447 1.420 3220
0.740 2.457 1.416 3570
0.752 2.495 1.426 4798
0.753 2.499 1.418 5546
0.756 2.509 1.414 6357
0.757 2.513 1.406 6427
0.756 2.509 1.395 5299
0.755 2.506 1.384 4415
0.758 2.516 1.380 3427
0.767 2.547 1.385 3039
0.773 2.564 1.384 2648
0.801 2.657 1.419 3006
0.802 2.661 1.411 3837
0.805 2.671 1.406 4689
0.806 2.675 1.397 4689
0.805 2.671 1.386 3721
0.802 2.661 1.372 2816
0.803 2.664 1.363 1408
0.493 1.637 0.893 1333
0.188 0.619 1.645 8398
0.189 0.623 1.643 9088
0.192 0.631 1.648 9821
0.193 0.635 1.646 11801
0.193 0.636 1.637 13813
0.194 0.640 1.635 15642
0.196 0.644 1.633 22561
0.197 0.648 1.631 27651
0.198 0.653 1.629 30158
0.200 0.660 1.634 32779
0.202 0.664 1.632 31901
0.204 0.672 1.637 31151
0.204 0.672 1.628 27850
0.205 0.677 1.626 24677
0.207 0.681 1.623 23254
0.209 0.688 1.628 22435
0.210 0.692 1.626 21994
0.211 0.696 1.624 20534
0.212 0.697 1.615 20104
0.214 0.705 1.620 20844
0.215 0.709 1.617 21409
0.218 0.716 1.622 20448
0.220 0.724 1.627 19692
0.221 0.728 1.625 16368
0.223 0.736 1.629 13044
0.225 0.740 1.627 12678
0.227 0.748 1.632 12160
0.228 0.752 1.629 12935
0.231 0.760 1.634 11525
0.232 0.764 1.631 8895
0.234 0.772 1.636 7269
0.238 0.783 1.647 5649
0.240 0.791 1.652 5516
0.243 0.799 1.656 5711
0.244 0.803 1.654 6398
0.245 0.807 1.651 7086
0.246 0.812 1.649 7652
0.248 0.816 1.646 7397
0.249 0.820 1.644 6498
0.250 0.824 1.641 5317
0.250 0.824 1.632 4342
0.253 0.832 1.636 7249
0.255 0.841 1.640 12174
0.257 0.845 1.637 14058
0.258 0.849 1.635 13335
0.259 0.853 1.632 13174
0.259 0.853 1.623 11517
0.260 0.857 1.620 12434
0.263 0.865 1.624 15268
0.264 0.870 1.621 17192
0.265 0.874 1.619 16509
0.268 0.882 1.622 14403
0.269 0.886 1.620 11997
0.273 0.898 1.630 9807
0.275 0.907 1.634 10842
0.275 0.907 1.625 10938
0.277 0.911 1.622 16765
0.278 0.915 1.619 26702
0.279 0.919 1.616 30669
0.282 0.927 1.620 25624
0.283 0.931 1.617 13582
0.283 0.931 1.607 5684
0.284 0.935 1.604 4087
0.289 0.952 1.621 8687
0.292 0.961 1.625 21451
0.294 0.969 1.628 29493
0.297 0.978 1.632 33095
0.298 0.982 1.628 35523
0.301 0.990 1.632 36455
0.302 0.994 1.629 39826
0.303 0.998 1.626 40585
0.304 1.003 1.623 39814
0.306 1.007 1.619 37659
0.308 1.015 1.623 31949
0.310 1.019 1.620 23727
0.311 1.024 1.616 23507
0.312 1.028 1.613 32189
0.313 1.032 1.610 31801
0.315 1.036 1.607 21710
0.317 1.044 1.610 13106
0.320 1.053 1.613 9468
0.324 1.066 1.622 9151
0.325 1.071 1.619 11130
0.326 1.075 1.615 10689
0.328 1.079 1.612 10863
0.332 1.092 1.621 13780
0.334 1.101 1.624 18092
0.336 1.105 1.620 18635
0.338 1.114 1.623 14363
0.341 1.123 1.626 13649
0.342 1.127 1.622 20234
0.344 1.131 1.619 23560
0.346 1.140 1.621 19088
0.347 1.144 1.618 13561
0.350 1.153 1.620 11099
0.351 1.157 1.617 12344
0.351 1.156 1.607 16393
0.354 1.165 1.610 14983
0.357 1.174 1.612 13156
0.359 1.183 1.614 18183
0.361 1.188 1.611 19123
0.362 1.192 1.607 15241
0.362 1.191 1.597 11058
0.367 1.210 1.611 9961
0.369 1.214 1.608 18587
0.370 1.218 1.604 26368
0.371 1.222 1.600 21278
0.371 1.221 1.590 16620
0.372 1.225 1.587 22481
0.375 1.234 1.589 21627
0.378 1.243 1.591 16596
0.377 1.242 1.581 12791
0.378 1.246 1.577 9544
0.381 1.255 1.579 12307
0.384 1.264 1.581 16280
0.387 1.274 1.583 17501
0.388 1.278 1.579 20406
0.391 1.287 1.581 21486
0.395 1.301 1.588 16805
0.400 1.316 1.595 13750
0.402 1.325 1.597 18853
0.402 1.324 1.587 33033
0.405 1.333 1.589 48198
0.406 1.337 1.585 53868
0.407 1.341 1.580 41574
0.409 1.345 1.576 36199
0.410 1.349 1.572 43076
0.411 1.353 1.568 31411
0.412 1.357 1.564 26284
0.413 1.361 1.560 25708
0.415 1.365 1.555 13885
0.417 1.374 1.557 12898
0.420 1.384 1.558 16222
0.421 1.388 1.554 13388
0.426 1.403 1.560 9577
0.432 1.423 1.572 10509
0.435 1.433 1.573 9762
0.438 1.442 1.574 10127
0.439 1.446 1.570 16182
0.440 1.450 1.565 20114
0.443 1.460 1.566 18821
0.444 1.464 1.561 18078
0.446 1.468 1.557 16914
0.447 1.471 1.552 16919
0.448 1.475 1.548 22411
0.451 1.485 1.548 22919
0.454 1.495 1.549 16273
0.457 1.504 1.550 18311
0.460 1.514 1.550 19902
0.463 1.523 1.551 16827
0.464 1.527 1.546 18030
0.465 1.531 1.541 19777
0.468 1.541 1.542 18730
0.471 1.550 1.542 17388
0.472 1.554 1.537 14857
0.471 1.552 1.527 8511
0.469 1.545 1.512 3345
0.474 1.560 1.518 2210
0.367 1.207 1.206 2171
0.368 1.210 1.202 2226
0.368 1.213 1.198 1766
0.369 1.216 1.195 2316
0.370 1.219 1.191 3046
0.371 1.222 1.187 3156
0.374 1.231 1.188 3695
0.376 1.240 1.189 3085
0.379 1.248 1.190 1961
0.382 1.257 1.191 1747
0.386 1.272 1.197 1875
0.384 1.263 1.183 2779
0.386 1.272 1.184 5129
0.387 1.275 1.180 7896
0.388 1.278 1.176 8574
0.389 1.281 1.172 6590
0.393 1.296 1.178 4691
0.400 1.317 1.188 4785
0.401 1.320 1.184 4410
0.398 1.310 1.171 4726
0.399 1.313 1.166 5244
0.402 1.322 1.167 4949
0.402 1.325 1.163 3984
0.405 1.334 1.163 3614
0.447 1.473 1.260 5626
0.448 1.476 1.256 7046
0.451 1.485 1.256 6657
0.452 1.488 1.251 6387
0.451 1.485 1.242 6939
0.450 1.482 1.233 6325
0.428 1.410 1.175 4291
0.429 1.413 1.170 5079
0.451 1.484 1.215 4926
0.450 1.481 1.206 5188
0.441 1.453 1.179 6611
0.440 1.449 1.170 10629
0.441 1.452 1.166 14040
0.442 1.455 1.161 14764
0.443 1.458 1.157 13926
0.445 1.467 1.157 12817
0.448 1.476 1.156 13994
0.447 1.472 1.147 14862
0.446 1.469 1.139 18033
0.447 1.472 1.134 19757
0.448 1.474 1.129 18138
0.447 1.471 1.121 13588
0.447 1.473 1.116 10056
0.446 1.470 1.107 8021
0.445 1.466 1.099 5584
0.446 1.468 1.094 4597
0.447 1.471 1.090 3687
0.493 1.623 1.179 4803
0.494 1.626 1.174 5954
0.493 1.622 1.165 6033
0.496 1.632 1.164 5112
0.661 2.178 1.490 5051
0.664 2.188 1.487 6396
0.668 2.198 1.484 8194
0.671 2.208 1.482 9807
0.674 2.219 1.479 11538
0.677 2.229 1.476 11760
0.678 2.233 1.469 10667
0.681 2.243 1.466 9915
0.682 2.247 1.459 8046
0.683 2.250 1.452 6177
0.685 2.254 1.445 4413
0.708 2.331 1.480 4731
0.713 2.348 1.480 5420
0.706 2.325 1.458 7752
0.707 2.329 1.451 10583
0.706 2.325 1.440 9943
0.707 2.329 1.433 9366
0.708 2.333 1.425 5966
0.736 2.424 1.465 3822
0.735 2.421 1.454 5663
0.734 2.418 1.443 7530
0.735 2.421 1.436 7382
0.738 2.431 1.432 7244
0.740 2.435 1.424 5521
0.741 2.439 1.417 3798
0.746 2.456 1.416 4159
0.753 2.480 1.419 4951
0.756 2.490 1.415 5812
0.759 2.500 1.411 6673
0.763 2.511 1.406 6670
0.762 2.507 1.395 5546
0.760 2.504 1.384 4576
0.764 2.514 1.380 3447
0.775 2.552 1.389 3210
0.778 2.563 1.384 2925
0.783 2.580 1.383 2908
0.808 2.659 1.411 3756
0.809 2.663 1.402 4667
0.810 2.666 1.394 4667
0.811 2.670 1.386 3748
0.808 2.659 1.372 2886
0.809 2.663 1.363 1443
0.497 1.636 0.893 1144
0.189 0.616 1.638 7743
0.191 0.623 1.643 8524
0.192 0.627 1.641 9369
0.193 0.631 1.639 11262
0.195 0.635 1.637 13155
0.196 0.640 1.635 14986
0.197 0.644 1.633 22158
0.198 0.648 1.631 27499
0.200 0.652 1.629 30360
0.202 0.659 1.634 33354
0.203 0.664 1.632 32770
0.206 0.671 1.637 32390
0.207 0.675 1.635 29036
0.207 0.676 1.626 25841
0.209 0.684 1.630 23956
0.211 0.688 1.628 22540
0.212 0.692 1.626 21802
0.213 0.696 1.624 20114
0.213 0.697 1.615 19618
0.216 0.704 1.620 20585
0.217 0.708 1.617 21511
0.219 0.716 1.622 20623
0.222 0.723 1.627 19994
0.223 0.728 1.625 16723
0.225 0.735 1.629 13933
0.227 0.739 1.627 13645
0.228 0.744 1.625 12927
0.230 0.751 1.629 13394
0.233 0.759 1.634 11631
0.234 0.763 1.631 9006
0.236 0.771 1.636 7444
0.239 0.779 1.640 5941
0.242 0.790 1.652 5867
0.245 0.798 1.656 6207
0.246 0.803 1.654 6634
0.247 0.807 1.651 7062
0.248 0.811 1.649 7695
0.250 0.815 1.646 7642
0.251 0.819 1.644 6890
0.252 0.824 1.641 6261
0.254 0.828 1.638 5699
0.255 0.832 1.636 9064
0.257 0.840 1.640 13619
0.259 0.844 1.637 14771
0.260 0.848 1.635 13219
0.262 0.856 1.639 12285
0.261 0.853 1.623 10801
0.262 0.857 1.620 12110
0.264 0.861 1.617 15168
0.266 0.869 1.621 17000
0.267 0.873 1.619 16423
0.270 0.881 1.622 14528
0.271 0.885 1.620 11968
0.275 0.898 1.630 9152
0.276 0.902 1.627 9716
0.276 0.902 1.618 10364
0.279 0.910 1.622 17613
0.280 0.914 1.619 28522
0.281 0.918 1.616 32330
0.284 0.927 1.620 26450
0.285 0.931 1.617 13051
0.295 0.965 1.660 5500
0.297 0.969 1.657 4408
0.291 0.951 1.621 8842
0.295 0.964 1.631 22436
0.297 0.968 1.628 31687
0.299 0.977 1.632 35813
0.301 0.981 1.628 37233
0.303 0.989 1.632 35565
0.304 0.994 1.629 36741
0.306 0.998 1.626 36790
0.307 1.002 1.623 35827
0.308 1.006 1.619 34239
0.311 1.015 1.623 30184
0.312 1.019 1.620 24235
0.313 1.023 1.616 25288
0.315 1.027 1.613 33046
0.317 1.036 1.616 30450
0.317 1.035 1.607 19332
0.320 1.044 1.610 11106
0.320 1.043 1.600 7486
0.325 1.061 1.616 6467
0.328 1.070 1.619 8207
0.328 1.069 1.609 9138
0.330 1.078 1.612 10391
0.334 1.091 1.621 13293
0.337 1.100 1.624 17365
0.340 1.109 1.627 17607
0.341 1.113 1.623 13398
0.342 1.117 1.620 13286
0.345 1.126 1.622 20441
0.346 1.130 1.619 23919
0.348 1.134 1.615 19249
0.350 1.143 1.618 12824
0.353 1.152 1.620 9509
0.354 1.156 1.617 12517
0.356 1.161 1.613 18536
0.357 1.165 1.610 16706
0.360 1.174 1.612 14517
0.362 1.183 1.614 18794
