-0.911 2.759 1.478 5459
-0.953 2.886 1.528 5364
-0.955 2.889 1.519 5933
-0.956 2.893 1.510 5933
-0.957 2.897 1.501 4702
-0.967 2.928 1.505 3515
-0.969 2.932 1.495 1757
-0.201 0.615 1.645 8330
-0.204 0.622 1.650 8849
-0.206 0.630 1.655 9543
-0.205 0.628 1.639 11823
-0.207 0.632 1.637 14457
-0.208 0.636 1.635 15291
-0.209 0.640 1.633 17734
-0.211 0.644 1.631 19341
-0.212 0.648 1.629 18324
-0.212 0.649 1.620 17631
-0.215 0.656 1.625 19419
-0.216 0.660 1.623 21531
-0.219 0.668 1.628 22782
-0.220 0.672 1.626 24126
-0.221 0.676 1.623 20758
-0.223 0.680 1.621 17537
-0.224 0.684 1.619 14922
-0.229 0.699 1.638 16795
-0.231 0.706 1.643 20897
-0.232 0.710 1.641 21499
-0.234 0.714 1.638 22100
-0.236 0.722 1.643 16447
-0.239 0.730 1.648 11323
-0.240 0.734 1.646 7789
-0.242 0.738 1.643 4255
-0.243 0.742 1.641 4702
-0.248 0.757 1.659 5314
-0.250 0.765 1.664 5189
-0.252 0.769 1.662 5483
-0.251 0.766 1.645 5128
-0.248 0.759 1.622 6601
-0.251 0.767 1.627 8336
-0.251 0.767 1.617 8608
-0.252 0.771 1.615 8897
-0.254 0.775 1.612 6488
-0.260 0.794 1.637 4687
-0.265 0.810 1.655 4905
-0.266 0.814 1.653 7183
-0.268 0.818 1.650 9233
-0.270 0.826 1.655 9967
-0.272 0.830 1.652 10704
-0.273 0.835 1.649 10638
-0.275 0.839 1.647 13584
-0.276 0.843 1.644 16716
-0.279 0.851 1.648 17112
-0.280 0.855 1.645 17518
-0.283 0.863 1.650 18068
-0.285 0.871 1.654 25432
-0.287 0.876 1.651 31285
-0.288 0.880 1.648 35122
-0.291 0.888 1.652 37143
-0.293 0.896 1.656 35875
-0.295 0.900 1.653 31032
-0.299 0.913 1.663 20914
-0.303 0.925 1.674 17658
-0.304 0.929 1.671 18454
-0.306 0.934 1.668 17525
-0.307 0.938 1.665 16444
-0.308 0.942 1.662 18756
-0.310 0.946 1.659 24820
-0.311 0.950 1.656 24507
-0.311 0.950 1.647 19993
-0.311 0.950 1.637 13894
-0.312 0.954 1.634 11423
-0.319 0.976 1.657 16696
-0.322 0.984 1.661 18819
-0.325 0.993 1.664 18404
-0.326 0.997 1.661 18467
-0.328 1.001 1.658 15764
-0.329 1.005 1.655 17295
-0.330 1.009 1.651 23522
-0.332 1.014 1.648 28522
-0.333 1.018 1.645 31575
-0.336 1.026 1.648 31397
-0.339 1.035 1.651 29169
-0.342 1.044 1.654 18523
-0.344 1.052 1.658 7427
-0.341 1.043 1.635 5819
-0.347 1.061 1.651 9176
-0.350 1.069 1.654 14628
-0.351 1.073 1.651 15962
-0.353 1.078 1.647 17504
-0.356 1.086 1.650 25162
-0.359 1.095 1.653 26278
-0.361 1.104 1.656 21136
-0.361 1.104 1.646 18604
-0.363 1.108 1.643 15213
-0.364 1.112 1.639 11492
-0.367 1.121 1.642 12289
-0.368 1.125 1.638 15146
-0.368 1.124 1.629 14139
-0.372 1.138 1.637 13860
-0.375 1.147 1.640 23147
-0.377 1.151 1.636 30328
-0.380 1.160 1.639 29824
-0.383 1.169 1.641 23688
-0.386 1.178 1.644 21920
-0.387 1.182 1.640 27108
-0.390 1.191 1.642 24366
-0.394 1.205 1.650 15839
-0.396 1.209 1.647 8997
-0.391 1.193 1.619 6198
-0.394 1.202 1.621 10214
-0.397 1.212 1.623 19787
-0.400 1.221 1.626 26420
-0.403 1.230 1.628 28342
-0.406 1.239 1.630 22042
-0.407 1.243 1.626 14126
-0.407 1.242 1.616 10717
-0.410 1.251 1.618 7929
-0.408 1.245 1.602 5593
-0.412 1.259 1.610 8778
-0.417 1.273 1.618 17718
-0.418 1.278 1.614 29227
-0.420 1.282 1.610 46068
-0.421 1.286 1.606 55421
-0.421 1.285 1.596 48690
-0.422 1.289 1.592 37938
-0.423 1.293 1.588 25730
-0.424 1.297 1.584 15374
-0.424 1.295 1.574 9598
-0.429 1.310 1.582 14412
-0.432 1.319 1.583 22148
-0.433 1.323 1.579 15624
-0.434 1.327 1.575 22587
-0.437 1.336 1.576 39169
-0.439 1.340 1.572 31092
-0.440 1.344 1.568 30525
-0.443 1.353 1.569 42540
-0.444 1.357 1.565 35446
-0.446 1.361 1.561 23145
-0.447 1.365 1.557 17163
-0.450 1.375 1.558 24104
-0.451 1.378 1.554 34246
-0.451 1.377 1.544 42314
-0.452 1.381 1.539 33768
-0.453 1.385 1.535 18855
-0.458 1.399 1.542 15284
-0.459 1.403 1.537 17612
-0.462 1.413 1.538 14810
-0.484 1.478 1.593 17745
-0.485 1.482 1.588 18261
-0.488 1.491 1.589 13105
-0.493 1.506 1.595 10630
-0.502 1.533 1.611 9489
-0.507 1.548 1.617 11461
-0.510 1.558 1.617 10123
-0.515 1.573 1.623 9728
-0.516 1.577 1.618 10659
-0.518 1.581 1.613 16406
-0.521 1.591 1.613 20694
-0.522 1.595 1.608 16687
-0.523 1.599 1.603 10346
-0.530 1.620 1.614 7098
-0.532 1.624 1.609 11097
-0.533 1.628 1.604 12546
-0.540 1.650 1.614 13345
-0.543 1.660 1.614 20565
-0.545 1.664 1.609 23597
-0.546 1.668 1.603 17315
-0.549 1.678 1.603 9425
-0.550 1.682 1.598 7310
-0.558 1.703 1.608 7845
-0.559 1.707 1.602 10686
-0.560 1.711 1.597 16184
-0.562 1.715 1.592 15576
-0.569 1.737 1.601 12412
-0.572 1.747 1.600 18439
-0.573 1.751 1.595 21678
-0.576 1.761 1.594 18022
-0.580 1.771 1.594 18769
-0.581 1.775 1.588 21527
-0.582 1.779 1.583 18658
-0.586 1.789 1.582 14509
-0.589 1.799 1.581 18541
-0.594 1.815 1.585 27150
-0.597 1.825 1.584 25695
-0.599 1.829 1.578 16433
-0.614 1.875 1.605 9893
-0.617 1.886 1.604 12147
-0.619 1.890 1.598 10821
-0.620 1.894 1.592 7797
-0.623 1.904 1.591 6498
-0.633 1.932 1.603 6385
-0.638 1.949 1.607 6661
-0.635 1.940 1.591 9409
-0.634 1.938 1.581 12570
-0.636 1.942 1.575 12146
-0.649 1.983 1.596 10907
-0.653 1.994 1.594 16465
-0.658 2.010 1.597 22441
-0.665 2.033 1.604 28417
-0.669 2.043 1.602 25221
-0.668 2.041 1.591 17231
-0.667 2.039 1.580 10058
-0.665 2.030 1.565 8151
-0.668 2.040 1.563 6336
-0.682 2.082 1.583 6714
-0.683 2.086 1.576 7331
-0.686 2.096 1.574 6881
-0.708 2.164 1.610 5111
-0.712 2.174 1.608 5809
-0.715 2.184 1.605 5886
-0.716 2.188 1.598 5961
-0.718 2.192 1.592 5417
-0.727 2.222 1.601 5492
-0.722 2.207 1.582 5483
-0.730 2.230 1.588 8432
-0.731 2.234 1.581 11537
-0.735 2.245 1.578 14335
-0.736 2.248 1.571 17185
-0.737 2.252 1.564 16680
-0.737 2.250 1.553 12756
-0.763 2.332 1.594 11906
-0.767 2.342 1.591 11750
-0.770 2.353 1.587 12213
-0.774 2.363 1.584 12650
-0.775 2.367 1.577 11385
-0.776 2.371 1.569 10121
-0.780 2.382 1.566 8256
-0.785 2.399 1.566 7065
-0.784 2.396 1.555 6976
-0.786 2.400 1.547 6787
-0.787 2.404 1.540 6722
-0.788 2.408 1.532 5719
-0.792 2.418 1.529 4613
-0.799 2.442 1.532 4376
-0.805 2.459 1.532 4575
-0.806 2.463 1.525 5546
-0.807 2.467 1.517 6517
-0.837 2.557 1.557 6939
-0.838 2.561 1.549 8446
-0.840 2.565 1.541 8969
-0.841 2.569 1.533 9491
-0.849 2.593 1.536 8674
-0.857 2.617 1.538 10104
-0.858 2.621 1.530 13904
-0.859 2.625 1.522 17704
-0.860 2.628 1.514 15051
-0.859 2.625 1.502 12532
-0.865 2.643 1.501 9954
-0.871 2.660 1.500 7936
-0.874 2.670 1.495 8897
-0.878 2.681 1.490 9524
-0.879 2.685 1.482 9194
-0.882 2.695 1.477 7867
-0.888 2.713 1.475 6677
-0.896 2.737 1.476 5474
-0.944 2.884 1.537 4823
-0.945 2.888 1.528 5496
-0.949 2.899 1.522 6203
-0.950 2.903 1.513 6203
-0.951 2.906 1.504 5054
-0.957 2.924 1.501 4019
-0.958 2.928 1.492 2009
-0.202 0.618 1.652 8192
-0.203 0.623 1.650 9086
-0.204 0.627 1.648 9979
-0.205 0.628 1.639 12604
-0.206 0.632 1.637 15274
-0.207 0.636 1.635 16102
-0.209 0.640 1.633 18437
-0.210 0.644 1.631 19945
-0.211 0.648 1.629 19018
-0.212 0.649 1.620 18478
-0.214 0.657 1.625 20075
-0.215 0.661 1.623 22059
-0.218 0.668 1.628 23150
-0.219 0.672 1.626 24367
-0.220 0.676 1.623 20470
-0.222 0.680 1.621 16576
-0.223 0.685 1.619 13685
-0.228 0.699 1.638 15021
-0.230 0.706 1.643 19000
-0.232 0.711 1.641 19466
-0.233 0.715 1.638 19931
-0.235 0.722 1.643 14727
-0.238 0.730 1.648 10083
-0.239 0.734 1.646 6665
-0.242 0.742 1.650 3292
-0.247 0.757 1.669 3522
-0.248 0.761 1.666 3895
-0.249 0.765 1.664 4445
-0.249 0.766 1.655 5089
-0.250 0.766 1.645 4910
-0.249 0.763 1.629 6378
-0.250 0.767 1.627 8243
-0.250 0.768 1.617 8434
-0.251 0.772 1.615 8728
-0.254 0.779 1.619 6387
-0.260 0.799 1.644 4663
-0.264 0.810 1.655 5131
-0.265 0.814 1.653 7984
-0.267 0.819 1.650 10458
-0.268 0.823 1.648 11208
-0.271 0.831 1.652 11917
-0.272 0.835 1.649 10986
-0.273 0.839 1.647 13019
-0.275 0.843 1.644 16098
-0.277 0.851 1.648 16227
-0.279 0.855 1.645 16391
-0.281 0.864 1.650 16508
-0.284 0.872 1.654 23654
-0.285 0.876 1.651 29834
-0.287 0.880 1.648 34139
-0.289 0.888 1.652 36881
-0.292 0.897 1.656 35892
-0.293 0.901 1.653 31049
-0.298 0.913 1.663 21304
-0.302 0.925 1.674 18556
-0.303 0.930 1.671 18584
-0.304 0.934 1.668 16485
-0.306 0.938 1.665 15351
-0.307 0.942 1.662 18575
-0.308 0.947 1.659 24940
-0.310 0.951 1.656 24108
-0.311 0.955 1.653 19143
-0.311 0.955 1.644 13508
-0.311 0.955 1.634 11225
-0.318 0.976 1.657 15388
-0.321 0.984 1.661 17600
-0.324 0.993 1.664 18093
-0.325 0.997 1.661 19078
-0.326 1.001 1.658 16322
-0.326 1.001 1.648 15433
-0.328 1.005 1.645 19903
-0.330 1.014 1.648 25321
-0.332 1.018 1.645 30493
-0.335 1.027 1.648 31365
-0.339 1.040 1.658 26871
-0.340 1.044 1.654 15555
-0.344 1.057 1.664 7144
-0.340 1.043 1.635 6784
-0.346 1.061 1.651 9643
-0.349 1.070 1.654 14528
-0.350 1.074 1.651 15295
-0.353 1.083 1.653 17946
-0.354 1.087 1.650 26309
-0.357 1.096 1.653 26249
-0.358 1.100 1.649 21084
-0.360 1.104 1.646 19541
-0.361 1.108 1.643 16616
-0.362 1.112 1.639 12623
-0.365 1.121 1.642 12648
-0.365 1.121 1.632 14917
-0.366 1.125 1.629 14412
-0.371 1.138 1.637 13359
-0.374 1.147 1.640 21065
-0.375 1.151 1.636 27718
-0.378 1.160 1.639 28370
-0.381 1.169 1.641 22623
-0.384 1.178 1.644 21328
-0.385 1.182 1.640 27586
-0.388 1.191 1.642 25163
-0.393 1.205 1.650 16996
-0.393 1.205 1.641 10757
-0.392 1.204 1.631 10047
-0.394 1.208 1.627 14464
-0.393 1.207 1.617 22301
-0.396 1.216 1.620 27562
-0.401 1.230 1.628 28158
-0.404 1.239 1.630 21594
-0.405 1.243 1.626 13870
-0.405 1.242 1.616 9918
-0.408 1.252 1.618 7224
-0.409 1.256 1.614 5426
-0.412 1.265 1.616 10581
-0.415 1.274 1.618 20749
-0.416 1.278 1.614 30150
-0.418 1.282 1.610 45870
-0.419 1.286 1.606 56228
-0.419 1.285 1.596 48260
-0.420 1.289 1.592 35988
-0.421 1.293 1.588 25807
-0.423 1.297 1.584 19399
-0.424 1.301 1.580 16423
-0.427 1.310 1.582 14855
-0.430 1.320 1.583 16734
-0.431 1.324 1.579 13006
-0.433 1.328 1.575 22989
-0.434 1.331 1.571 42372
-0.435 1.335 1.567 38898
-0.438 1.345 1.568 30566
-0.441 1.354 1.569 34362
-0.441 1.353 1.560 30384
-0.442 1.356 1.555 20946
-0.445 1.366 1.557 14562
-0.448 1.375 1.558 19067
-0.449 1.379 1.554 28942
-0.449 1.377 1.544 38032
-0.450 1.381 1.539 31531
-0.451 1.385 1.535 19503
-0.454 1.395 1.536 15297
-0.457 1.404 1.537 15411
-0.480 1.474 1.597 15258
-0.483 1.484 1.598 21287
-0.483 1.482 1.588 22210
-0.484 1.486 1.583 15255
-0.491 1.507 1.595 12127
-0.498 1.528 1.606 11579
-0.503 1.543 1.612 13898
-0.506 1.553 1.612 11061
-0.513 1.574 1.623 9968
-0.512 1.572 1.613 11961
-0.514 1.576 1.608 17788
-0.519 1.592 1.613 22580
-0.520 1.596 1.608 20634
-0.521 1.600 1.603 16860
-0.528 1.621 1.614 13642
-0.530 1.625 1.609 14835
-0.529 1.623 1.599 13879
-0.536 1.645 1.609 10766
-0.541 1.660 1.614 16683
-0.542 1.664 1.609 21007
-0.544 1.668 1.603 16207
-0.547 1.678 1.603 9240
-0.556 1.706 1.618 6178
-0.555 1.704 1.608 8032
-0.557 1.708 1.602 13900
-0.558 1.712 1.597 18267
-0.559 1.716 1.592 15071
-0.566 1.738 1.601 12450
-0.568 1.742 1.596 19327
-0.569 1.746 1.590 21492
-0.574 1.762 1.594 16299
-0.577 1.772 1.594 17365
-0.579 1.776 1.588 20953
-0.582 1.786 1.587 17832
-0.583 1.790 1.582 14945
-0.588 1.806 1.586 21084
-0.592 1.816 1.585 28770
-0.595 1.826 1.584 25551
-0.596 1.830 1.578 16490
-0.598 1.834 1.573 9981
-0.615 1.886 1.604 9848
-0.614 1.884 1.594 9051
-0.615 1.888 1.588 7137
-0.621 1.905 1.591 6869
-0.624 1.915 1.590 6555
-0.637 1.956 1.611 7011
-0.637 1.954 1.601 10127
-0.636 1.951 1.590 11530
-0.633 1.943 1.575 9983
-0.647 1.984 1.596 9086
-0.648 1.988 1.590 15695
-0.657 2.017 1.601 22854
-0.663 2.034 1.604 29510
-0.664 2.038 1.597 26433
-0.665 2.042 1.591 18740
-0.665 2.039 1.580 11714
-0.664 2.037 1.570 9984
-0.665 2.041 1.563 7414
-0.677 2.077 1.579 6013
-0.678 2.080 1.572 6683
-0.681 2.091 1.570 6599
-0.683 2.095 1.563 4850
-0.709 2.175 1.608 4824
-0.710 2.179 1.601 4722
-0.713 2.189 1.598 4496
-0.721 2.213 1.604 4425
-0.724 2.223 1.601 5044
-0.724 2.221 1.590 5554
-0.727 2.231 1.588 8697
-0.728 2.235 1.581 11655
-0.732 2.246 1.578 14348
-0.733 2.249 1.571 17071
-0.732 2.247 1.560 16528
-0.733 2.251 1.553 12745
-0.760 2.333 1.594 10657
-0.764 2.343 1.591 10725
-0.767 2.354 1.587 12001
-0.768 2.358 1.580 12896
-0.770 2.362 1.573 11654
-0.773 2.372 1.569 10419
-0.774 2.376 1.562 7917
-0.782 2.400 1.566 6029
-0.781 2.397 1.555 5963
-0.782 2.401 1.547 6356
-0.786 2.412 1.544 6814
-0.787 2.415 1.536 5626
-0.793 2.432 1.536 4608
-0.796 2.443 1.532 4209
-0.799 2.453 1.529 4020
-0.801 2.457 1.521 4907
-0.804 2.468 1.517 5820
-0.834 2.558 1.557 7452
-0.837 2.569 1.552 9117
-0.836 2.566 1.541 9828
-0.837 2.570 1.533 10552
-0.841 2.581 1.529 9349
-0.851 2.611 1.535 10088
-0.854 2.622 1.530 14043
-0.856 2.626 1.522 18022
-0.857 2.630 1.514 15384
-0.856 2.627 1.502 12954
-0.861 2.644 1.501 10313
-0.867 2.661 1.500 8370
-0.871 2.672 1.495 9399
-0.874 2.682 1.490 10078
-0.877 2.693 1.485 9755
-0.879 2.696 1.477 8366
-0.880 2.700 1.468 6976
-0.885 2.717 1.467 5354
-0.940 2.886 1.537 4775
-0.944 2.896 1.531 5624
-0.945 2.900 1.522 6540
-0.946 2.904 1.513 6540
-0.947 2.908 1.504 5483
-0.953 2.925 1.501 4585
-0.954 2.929 1.492 2292
-0.201 0.622 1.659 8307
-0.201 0.623 1.650 9404
-0.200 0.621 1.634 10830
-0.203 0.628 1.639 13605
-0.204 0.633 1.637 16394
-0.205 0.637 1.635 17252
-0.207 0.641 1.633 19333
-0.208 0.645 1.631 20557
-0.208 0.646 1.622 19754
-0.210 0.650 1.620 19188
-0.212 0.657 1.625 20644
-0.213 0.661 1.623 22489
-0.216 0.669 1.628 23359
-0.217 0.673 1.626 24300
-0.218 0.677 1.623 19904
-0.220 0.681 1.621 15368
-0.220 0.682 1.612 12371
-0.227 0.703 1.645 13325
-0.228 0.707 1.643 16868
-0.230 0.711 1.641 17239
-0.231 0.715 1.638 17611
-0.233 0.723 1.643 13013
-0.237 0.734 1.655 9097
-0.238 0.738 1.653 6622
-0.241 0.746 1.657 4195
-0.241 0.747 1.648 3721
-0.242 0.751 1.646 3438
-0.244 0.755 1.643 4348
-0.246 0.763 1.648 5146
-0.248 0.767 1.645 4875
-0.246 0.764 1.629 6326
-0.248 0.768 1.627 8156
-0.249 0.772 1.624 8174
-0.249 0.772 1.615 8295
-0.252 0.780 1.619 6089
-0.259 0.803 1.651 5048
-0.263 0.815 1.662 5860
-0.263 0.815 1.653 9018
-0.264 0.819 1.650 11498
-0.266 0.823 1.648 12086
-0.268 0.832 1.652 12556
-0.270 0.836 1.649 11197
-0.271 0.840 1.647 12820
-0.272 0.844 1.644 15933
-0.275 0.852 1.648 15755
-0.276 0.856 1.645 15533
-0.279 0.864 1.650 15162
-0.282 0.873 1.654 22028
-0.283 0.877 1.651 28522
-0.284 0.881 1.648 33322
-0.287 0.889 1.652 36822
-0.290 0.897 1.656 36123
-0.291 0.902 1.653 31220
-0.295 0.914 1.663 21643
-0.299 0.926 1.674 19095
-0.300 0.931 1.671 18428
-0.302 0.935 1.668 15253
-0.303 0.939 1.665 14102
-0.304 0.943 1.662 18309
-0.306 0.947 1.659 24873
-0.307 0.952 1.656 23531
-0.308 0.956 1.653 18474
-0.310 0.960 1.650 13496
-0.310 0.960 1.641 11035
-0.315 0.977 1.657 13962
-0.318 0.985 1.661 16925
-0.321 0.994 1.664 18806
-0.321 0.994 1.654 21159
-0.322 0.998 1.651 18201
-0.323 1.002 1.648 14546
-0.325 1.006 1.645 16076
-0.328 1.015 1.648 20968
-0.329 1.019 1.645 27331
-0.332 1.028 1.648 29923
-0.334 1.036 1.651 24715
-0.339 1.049 1.661 13852
-0.342 1.058 1.664 7706
-0.337 1.044 1.635 7637
-0.343 1.062 1.651 10317
-0.346 1.071 1.654 14558
-0.347 1.075 1.651 14800
-0.350 1.084 1.653 18200
-0.351 1.088 1.650 26541
-0.354 1.097 1.653 25457
-0.355 1.101 1.649 20737
-0.357 1.105 1.646 20222
-0.358 1.109 1.643 17635
-0.359 1.113 1.639 13614
-0.362 1.122 1.642 13096
-0.362 1.122 1.632 14914
-0.363 1.126 1.629 15061
-0.366 1.135 1.631 14202
-0.371 1.148 1.640 19585
-0.373 1.157 1.642 25156
-0.375 1.161 1.639 25613
-0.378 1.170 1.641 19760
-0.381 1.179 1.644 19134
-0.382 1.184 1.640 26506
-0.385 1.193 1.642 25040
-0.388 1.202 1.644 18012
-0.388 1.201 1.635 13788
-0.389 1.205 1.631 14996
-0.390 1.209 1.627 18376
-0.392 1.213 1.623 24190
-0.393 1.217 1.620 28531
-0.397 1.231 1.628 27761
-0.400 1.240 1.630 20446
-0.402 1.245 1.626 13337
-0.401 1.244 1.616 9417
-0.404 1.253 1.618 6608
-0.407 1.262 1.620 6018
-0.409 1.266 1.616 12230
-0.412 1.275 1.618 22385
-0.413 1.279 1.614 30303
-0.414 1.283 1.610 44821
-0.416 1.287 1.606 55692
-0.415 1.286 1.596 46844
-0.416 1.290 1.592 33291
-0.418 1.294 1.588 24920
-0.419 1.298 1.584 22514
-0.420 1.302 1.580 23437
-0.423 1.312 1.582 15043
-0.428 1.326 1.589 10046
-0.428 1.325 1.579 9276
-0.427 1.323 1.569 21845
-0.430 1.333 1.571 42553
-0.431 1.337 1.567 44241
-0.433 1.341 1.562 30392
-0.436 1.350 1.564 27100
-0.437 1.354 1.560 26513
-0.438 1.358 1.555 18687
-0.439 1.362 1.551 10819
-0.444 1.376 1.558 12779
-0.444 1.375 1.548 23830
-0.445 1.379 1.544 33264
-0.446 1.383 1.539 29231
-0.447 1.386 1.535 20934
-0.450 1.396 1.536 16182
-0.454 1.405 1.537 14286
-0.476 1.476 1.597 15742
-0.479 1.485 1.598 23717
-0.481 1.489 1.593 25120
-0.480 1.488 1.583 16840
-0.487 1.508 1.595 14116
-0.494 1.529 1.606 14171
-0.498 1.544 1.612 14953
-0.500 1.549 1.607 11419
-0.507 1.570 1.618 10287
-0.506 1.568 1.608 13704
-0.509 1.578 1.608 19305
-0.512 1.587 1.608 24250
-0.515 1.597 1.608 24653
-0.517 1.601 1.603 22586
-0.524 1.623 1.614 18822
-0.525 1.627 1.609 18111
-0.524 1.625 1.599 15890
-0.526 1.629 1.594 11204
-0.534 1.656 1.609 13587
-0.538 1.666 1.609 18567
-0.539 1.670 1.603 14904
-0.542 1.680 1.603 9427
-0.547 1.696 1.608 6003
-0.550 1.706 1.608 8783
-0.552 1.710 1.602 16477
-0.553 1.714 1.597 19658
-0.554 1.718 1.592 14471
-0.561 1.739 1.601 13103
-0.563 1.743 1.596 20301
-0.564 1.747 1.590 21110
-0.567 1.757 1.590 14713
-0.570 1.767 1.589 15693
-0.574 1.777 1.588 20498
-0.577 1.787 1.587 17814
-0.578 1.791 1.582 15634
-0.583 1.807 1.586 22939
-0.587 1.817 1.585 29571
-0.590 1.827 1.584 25148
-0.591 1.831 1.578 16593
-0.592 1.835 1.573 10600
-0.609 1.888 1.604 7700
-0.609 1.886 1.594 7637
-0.610 1.890 1.588 7185
-0.615 1.906 1.591 8887
-0.615 1.904 1.581 9726
-0.622 1.927 1.588 8654
-0.631 1.955 1.601 11245
-0.632 1.959 1.594 11786
-0.632 1.957 1.584 8810
-0.641 1.986 1.596 8520
-0.642 1.990 1.590 15086
-0.652 2.019 1.601 22881
-0.655 2.029 1.599 29869
-0.658 2.040 1.597 27028
-0.660 2.044 1.591 19591
-0.659 2.041 1.580 12962
-0.658 2.039 1.570 11613
-0.659 2.043 1.563 8422
-0.669 2.072 1.574 6780
-0.670 2.076 1.568 7511
-0.673 2.086 1.566 6891
-0.677 2.097 1.563 4785
-0.701 2.171 1.603 3948
-0.700 2.168 1.593 3954
-0.703 2.179 1.590 2921
-0.715 2.215 1.604 3680
-0.716 2.219 1.597 4798
-0.715 2.216 1.586 5827
-0.719 2.227 1.583 8722
-0.722 2.237 1.581 11389
-0.725 2.248 1.578 13864
-0.727 2.252 1.571 16354
-0.726 2.249 1.560 15826
-0.727 2.253 1.553 12173
-0.754 2.335 1.594 9413
-0.757 2.345 1.591 9580
-0.760 2.356 1.587 11446
-0.762 2.360 1.580 12781
-0.763 2.364 1.573 11656
-0.764 2.368 1.565 10531
-0.768 2.378 1.562 7615
-0.773 2.395 1.562 5041
-0.772 2.393 1.551 5279
-0.778 2.410 1.551 6198
-0.779 2.414 1.544 7051
-0.782 2.424 1.540 5756
-0.786 2.435 1.536 4708
-0.789 2.445 1.532 4088
-0.790 2.449 1.525 3536
-0.822 2.546 1.569 4362
-0.825 2.557 1.565 6055
-0.826 2.561 1.557 7746
-0.830 2.571 1.552 9471
-0.829 2.568 1.541 10314
-0.830 2.572 1.533 11191
-0.831 2.576 1.525 9849
-0.844 2.614 1.535 9845
-0.847 2.624 1.530 13668
-0.848 2.628 1.522 17705
-0.849 2.632 1.514 15258
-0.848 2.629 1.502 13088
-0.854 2.646 1.501 10429
-0.860 2.664 1.500 8526
-0.863 2.674 1.495 9611
-0.866 2.685 1.490 10359
-0.870 2.695 1.485 10103
-0.871 2.699 1.477 8679
-0.872 2.703 1.468 7256
-0.878 2.720 1.467 5497
-0.932 2.888 1.537 4762
-0.936 2.899 1.531 5856
-0.937 2.903 1.522 7002
-0.938 2.907 1.513 7002
-0.942 2.917 1.507 6130
-0.943 2.921 1.498 5317
-0.944 2.925 1.489 2658
-0.199 0.623 1.659 8566
-0.199 0.624 1.650 9893
-0.199 0.622 1.634 12168
-0.201 0.629 1.639 14785
-0.202 0.633 1.637 17547
-0.204 0.637 1.635 18495
-0.204 0.638 1.626 20419
-0.206 0.646 1.631 21265
-0.207 0.646 1.622 20462
-0.208 0.650 1.620 19680
-0.210 0.658 1.625 21047
-0.213 0.665 1.630 22787
-0.214 0.669 1.628 23401
-0.215 0.673 1.626 24014
-0.218 0.681 1.630 19139
-0.217 0.678 1.614 14051
-0.218 0.682 1.612 11124
-0.225 0.704 1.645 11778
-0.226 0.708 1.643 14927
-0.227 0.712 1.641 15139
-0.230 0.719 1.645 15360
-0.231 0.724 1.643 11396
-0.236 0.738 1.662 8271
-0.236 0.739 1.653 6793
-0.237 0.743 1.650 5434
-0.238 0.744 1.641 4753
-0.239 0.748 1.639 4087
-0.240 0.752 1.636 5049
-0.243 0.760 1.641 5596
-0.245 0.768 1.645 5072
-0.245 0.768 1.636 6243
-0.246 0.769 1.627 7632
-0.247 0.773 1.624 7501
-0.247 0.773 1.615 7456
-0.250 0.781 1.619 5429
-0.258 0.808 1.658 5430
-0.261 0.816 1.662 6895
-0.262 0.820 1.660 10382
-0.262 0.820 1.650 12614
-0.263 0.824 1.648 12659
-0.266 0.832 1.652 12634
-0.267 0.836 1.649 11226
-0.269 0.841 1.647 12784
-0.270 0.845 1.644 15900
-0.273 0.853 1.648 15524
-0.274 0.857 1.645 14964
-0.276 0.865 1.650 14107
-0.279 0.873 1.654 20558
-0.280 0.878 1.651 27249
-0.282 0.882 1.648 32447
-0.284 0.890 1.652 36702
-0.287 0.898 1.656 36392
-0.288 0.902 1.653 31451
-0.292 0.915 1.663 22039
-0.296 0.927 1.674 19605
-0.298 0.931 1.671 18498
-0.299 0.936 1.668 14757
-0.300 0.940 1.665 13597
-0.302 0.944 1.662 18370
-0.303 0.948 1.659 24779
-0.304 0.952 1.656 22844
-0.306 0.957 1.653 17799
-0.307 0.961 1.650 13679
-0.307 0.961 1.641 10950
-0.314 0.982 1.664 13501
-0.315 0.986 1.661 17416
-0.317 0.991 1.657 20566
-0.318 0.995 1.654 23444
-0.319 0.999 1.651 19648
-0.319 0.999 1.642 14334
-0.320 1.003 1.639 13835
-0.323 1.011 1.642 17935
-0.326 1.020 1.645 24381
-0.329 1.029 1.648 27332
-0.331 1.037 1.651 22000
-0.336 1.050 1.661 13566
-0.337 1.055 1.658 9856
-0.337 1.054 1.648 9604
-0.340 1.063 1.651 11801
-0.342 1.072 1.654 15362
-0.345 1.081 1.657 14860
-0.347 1.085 1.653 18349
-0.348 1.089 1.650 26223
-0.351 1.098 1.653 23967
-0.352 1.102 1.649 19774
-0.353 1.106 1.646 20281
-0.355 1.110 1.643 17988
-0.356 1.114 1.639 14370
-0.359 1.123 1.642 13716
-0.359 1.123 1.632 14962
-0.360 1.127 1.629 15272
-0.363 1.136 1.631 14360
-0.367 1.149 1.640 17769
-0.370 1.158 1.642 22499
-0.371 1.162 1.639 22702
-0.374 1.171 1.641 16345
-0.377 1.180 1.644 15979
-0.379 1.185 1.640 23789
-0.381 1.194 1.642 22963
-0.384 1.203 1.644 17855
-0.384 1.202 1.635 16625
-0.385 1.206 1.631 19074
-0.387 1.210 1.627 21400
-0.388 1.214 1.623 25936
-0.389 1.218 1.620 29817
-0.394 1.232 1.628 27407
-0.397 1.242 1.630 18905
-0.398 1.246 1.626 12703
-0.398 1.245 1.616 9299
-0.399 1.249 1.612 6619
-0.402 1.258 1.614 7228
-0.405 1.267 1.616 13821
-0.408 1.276 1.618 23123
-0.409 1.280 1.614 29465
-0.410 1.285 1.610 42744
-0.412 1.289 1.606 53948
-0.411 1.287 1.596 44287
-0.413 1.291 1.592 29764
-0.414 1.296 1.588 23412
-0.415 1.300 1.584 24843
-0.417 1.303 1.580 29270
-0.419 1.313 1.582 18942
-0.422 1.322 1.583 8070
-0.422 1.321 1.573 7602
-0.423 1.325 1.569 19787
-0.426 1.334 1.571 40638
-0.428 1.338 1.567 47107
-0.429 1.342 1.562 30566
-0.432 1.351 1.564 21850
-0.431 1.350 1.554 23909
-0.433 1.354 1.550 18020
-0.434 1.357 1.546 10868
-0.437 1.367 1.547 10784
-0.440 1.376 1.548 21411
-0.441 1.380 1.544 29433
-0.442 1.384 1.539 26961
-0.443 1.388 1.535 22295
-0.446 1.397 1.536 17815
-0.449 1.406 1.537 14741
-0.472 1.477 1.597 15432
-0.475 1.486 1.598 24634
-0.476 1.490 1.593 26677
-0.476 1.489 1.583 17635
-0.484 1.515 1.600 16237
-0.489 1.531 1.606 16568
-0.494 1.546 1.612 15465
-0.495 1.550 1.607 11450
-0.500 1.565 1.612 11433
-0.501 1.569 1.608 16123
-0.505 1.579 1.608 20760
-0.508 1.589 1.608 25511
-0.511 1.599 1.608 27549
-0.514 1.608 1.609 26531
-0.517 1.618 1.609 22337
-0.520 1.628 1.609 20657
-0.520 1.626 1.599 17958
-0.521 1.630 1.594 12771
-0.526 1.646 1.599 12667
-0.531 1.662 1.604 16477
-0.534 1.672 1.603 13644
-0.535 1.676 1.598 9819
-0.533 1.668 1.583 6421
-0.546 1.707 1.608 9629
-0.547 1.711 1.602 18016
-0.548 1.715 1.597 20058
-0.549 1.719 1.592 13613
-0.560 1.753 1.611 14231
-0.558 1.745 1.596 20757
-0.557 1.743 1.585 20063
-0.560 1.753 1.585 13405
-0.565 1.769 1.589 14150
-0.568 1.779 1.588 19666
-0.572 1.789 1.587 17809
-0.575 1.799 1.587 16060
-0.578 1.809 1.586 23565
-0.581 1.819 1.585 29341
-0.583 1.823 1.579 24623
-0.586 1.833 1.578 16768
-0.585 1.831 1.568 11282
-0.590 1.847 1.572 7865
-0.597 1.870 1.580 6909
-0.605 1.892 1.588 7591
-0.610 1.908 1.591 11112
-0.609 1.906 1.581 12851
-0.614 1.922 1.584 11397
-0.625 1.957 1.601 12233
-0.629 1.967 1.599 12326
-0.632 1.978 1.597 9522
-0.629 1.969 1.582 9354
-0.635 1.986 1.585 14617
-0.646 2.021 1.601 22456
-0.649 2.031 1.599 29634
-0.652 2.041 1.597 26829
-0.654 2.045 1.591 19614
-0.653 2.043 1.580 13574
-0.652 2.041 1.570 12724
-0.655 2.051 1.568 9546
-0.667 2.087 1.583 8532
-0.664 2.078 1.568 8959
-0.667 2.088 1.566 7549
-0.671 2.099 1.563 4613
-0.690 2.160 1.595 3612
-0.691 2.164 1.588 3992
-0.689 2.155 1.573 3329
-0.704 2.204 1.596 3394
-0.708 2.214 1.593 5134
-0.707 2.212 1.582 6464
-0.712 2.229 1.583 8621
-0.716 2.239 1.581 10752
-0.719 2.250 1.578 12882
-0.720 2.254 1.571 15023
-0.719 2.251 1.560 14472
-0.721 2.255 1.553 11078
-0.747 2.337 1.594 8264
-0.750 2.348 1.591 8424
-0.754 2.358 1.587 10684
-0.755 2.362 1.580 12370
-0.756 2.366 1.573 11432
-0.757 2.370 1.565 10495
-0.759 2.374 1.558 7447
-0.762 2.384 1.554 4515
-0.765 2.395 1.551 5111
-0.771 2.412 1.551 6645
-0.774 2.423 1.547 7541
-0.777 2.433 1.544 6108
-0.781 2.444 1.540 4852
-0.782 2.447 1.532 3957
-0.783 2.451 1.525 3062
-0.814 2.549 1.569 4587
-0.818 2.559 1.565 6195
-0.819 2.563 1.557 7834
-0.822 2.574 1.552 9518
-0.822 2.571 1.541 10466
-0.823 2.575 1.533 11460
-0.824 2.579 1.525 10036
-0.834 2.609 1.531 9356
-0.839 2.627 1.530 12839
-0.841 2.631 1.522 16780
-0.842 2.634 1.514 14651
-0.841 2.631 1.502 12858
-0.846 2.649 1.501 10266
-0.852 2.666 1.500 8447
-0.855 2.677 1.495 9552
-0.861 2.694 1.493 10369
-0.862 2.698 1.485 10160
-0.863 2.701 1.477 8766
-0.864 2.705 1.468 7373
-0.868 2.716 1.463 5707
-0.924 2.891 1.537 4739
-0.927 2.902 1.531 6111
-0.931 2.912 1.525 7538
-0.932 2.916 1.516 7538
-0.933 2.920 1.507 6879
-0.934 2.924 1.498 6220
-0.935 2.927 1.489 3110
-0.198 0.623 1.659 8871
-0.198 0.624 1.650 10517
-0.198 0.622 1.634 13543
-0.200 0.629 1.639 16060
-0.201 0.633 1.637 18799
-0.203 0.638 1.635 19871
-0.203 0.638 1.626 21703
-0.204 0.643 1.624 22281
-0.206 0.647 1.622 21172
-0.207 0.651 1.620 20063
-0.209 0.658 1.625 21357
-0.212 0.666 1.630 23064
-0.213 0.670 1.628 23363
-0.214 0.674 1.626 23663
-0.217 0.681 1.630 18383
-0.216 0.679 1.614 12900
-0.217 0.683 1.612 9925
-0.224 0.704 1.645 10208
-0.226 0.711 1.650 13086
-0.227 0.716 1.648 13211
-0.229 0.720 1.645 13336
-0.231 0.727 1.650 10143
-0.235 0.739 1.662 7810
-0.235 0.739 1.653 6989
-0.234 0.736 1.636 6810
-0.235 0.741 1.634 6248
-0.234 0.738 1.618 5368
-0.239 0.752 1.636 6047
-0.242 0.760 1.641 6263
-0.244 0.768 1.645 5464
-0.245 0.772 1.643 6226
-0.246 0.773 1.634 7050
-0.246 0.773 1.624 6871
-0.246 0.773 1.615 6811
-0.254 0.800 1.654 5483
-0.257 0.808 1.658 6006
-0.259 0.816 1.662 7976
-0.261 0.820 1.660 11764
-0.261 0.820 1.650 13712
-0.262 0.825 1.648 13049
-0.263 0.829 1.645 12409
-0.266 0.837 1.649 11008
-0.267 0.841 1.647 12662
-0.269 0.845 1.644 15862
-0.271 0.853 1.648 15364
-0.273 0.857 1.645 14525
-0.275 0.866 1.650 13055
-0.278 0.874 1.654 18889
-0.279 0.878 1.651 25683
-0.280 0.882 1.648 31288
-0.283 0.890 1.652 36348
-0.284 0.895 1.649 36495
-0.287 0.903 1.653 31456
-0.291 0.915 1.663 22208
-0.295 0.928 1.674 19846
-0.296 0.932 1.671 18535
-0.298 0.936 1.668 14837
-0.299 0.940 1.665 13726
-0.300 0.945 1.662 18636
-0.302 0.949 1.659 24692
-0.303 0.953 1.656 22183
-0.306 0.961 1.660 17495
-0.307 0.966 1.657 14228
-0.307 0.966 1.647 11390
-0.312 0.983 1.664 13825
-0.314 0.987 1.661 18409
-0.315 0.991 1.657 22749
-0.316 0.995 1.654 26356
-0.316 0.995 1.645 22268
-0.316 0.995 1.635 15999
-0.316 0.994 1.626 14344
-0.322 1.012 1.642 16766
-0.324 1.020 1.645 22396
-0.327 1.029 1.648 24776
-0.330 1.038 1.651 19547
-0.333 1.046 1.654 14140
-0.334 1.051 1.651 12979
-0.334 1.050 1.642 12196
-0.338 1.064 1.651 13684
-0.341 1.072 1.654 16532
-0.344 1.081 1.657 15073
-0.345 1.085 1.653 18166
-0.346 1.089 1.650 25447
-0.349 1.098 1.653 22243
-0.350 1.102 1.649 18444
-0.352 1.107 1.646 19627
-0.353 1.111 1.643 17643
-0.356 1.120 1.645 14859
-0.356 1.119 1.636 14646
-0.355 1.118 1.626 15750
-0.357 1.123 1.622 15960
-0.361 1.136 1.631 14469
-0.365 1.150 1.640 16018
-0.368 1.159 1.642 19857
-0.370 1.163 1.639 19532
-0.373 1.172 1.641 12560
-0.375 1.181 1.644 12134
-0.377 1.185 1.640 19706
-0.378 1.189 1.636 19610
-0.381 1.198 1.638 16583
-0.382 1.203 1.635 18068
-0.384 1.207 1.631 21962
-0.385 1.211 1.627 23409
-0.386 1.215 1.623 26765
-0.387 1.219 1.620 30309
-0.392 1.233 1.628 26451
-0.395 1.242 1.630 17131
-0.396 1.246 1.626 12062
-0.396 1.245 1.616 9372
-0.397 1.249 1.612 6837
-0.398 1.254 1.608 8398
-0.403 1.268 1.616 14704
-0.406 1.277 1.618 22725
-0.407 1.281 1.614 27614
-0.408 1.285 1.610 39410
-0.410 1.289 1.606 50936
-0.409 1.288 1.596 40543
-0.411 1.292 1.592 24578
-0.412 1.296 1.588 20076
-0.413 1.300 1.584 25282
-0.415 1.304 1.580 33049
-0.416 1.308 1.576 24707
-0.417 1.312 1.572 11658
-0.420 1.321 1.573 8311
-0.421 1.325 1.569 17137
-0.424 1.335 1.571 36586
-0.425 1.339 1.567 47280
-0.427 1.342 1.562 30339
-0.428 1.346 1.558 19865
-0.429 1.350 1.554 24834
-0.430 1.354 1.550 21449
-0.432 1.358 1.546 17882
-0.435 1.367 1.547 17474
-0.436 1.371 1.543 23897
-0.437 1.375 1.538 27817
-0.440 1.385 1.539 25257
-0.441 1.388 1.535 23730
-0.444 1.398 1.536 20274
-0.447 1.407 1.537 16590
-0.471 1.483 1.603 14286
-0.473 1.487 1.598 24143
-0.474 1.491 1.593 26813
-0.473 1.490 1.583 17931
-0.484 1.522 1.605 17211
-0.487 1.531 1.606 17272
-0.492 1.547 1.612 14753
-0.493 1.551 1.607 10888
-0.498 1.566 1.612 13110
-0.499 1.570 1.608 19269
-0.502 1.580 1.608 22727
-0.505 1.590 1.608 26242
-0.508 1.599 1.608 28770
-0.511 1.609 1.609 28599
-0.515 1.619 1.609 24304
-0.518 1.629 1.609 22387
-0.517 1.627 1.599 19681
-0.518 1.631 1.594 14136
-0.520 1.635 1.588 12878
-0.527 1.657 1.598 14261
-0.530 1.667 1.598 12547
-0.529 1.665 1.588 10513
-0.530 1.669 1.583 7120
-0.541 1.702 1.603 10028
-0.544 1.712 1.602 18415
-0.545 1.716 1.597 19466
-0.547 1.720 1.592 12537
-0.557 1.754 1.611 15993
-0.555 1.746 1.596 20929
-0.554 1.744 1.585 19111
-0.556 1.748 1.580 13224
-0.563 1.770 1.589 12948
-0.568 1.786 1.593 17941
-0.569 1.790 1.587 17085
-0.572 1.800 1.587 15811
-0.575 1.810 1.586 22985
-0.578 1.820 1.585 28216
-0.580 1.824 1.579 23828
-0.583 1.834 1.578 16760
-0.582 1.832 1.568 11725
-0.582 1.830 1.558 8432
-0.591 1.858 1.570 6785
-0.604 1.899 1.592 8158
-0.607 1.909 1.591 13032
-0.606 1.907 1.581 15314
-0.611 1.923 1.584 13470
-0.620 1.952 1.596 13237
-0.626 1.968 1.599 12841
-0.627 1.972 1.593 11280
-0.624 1.964 1.578 11769
-0.629 1.980 1.581 14383
-0.643 2.022 1.601 21380
-0.646 2.032 1.599 28529
-0.647 2.036 1.593 26169
-0.650 2.046 1.591 19139
-0.652 2.050 1.585 14125
-0.651 2.048 1.574 14160
-0.654 2.058 1.572 11244
-0.664 2.088 1.583 10819
-0.661 2.079 1.568 10636
-0.662 2.083 1.561 8490
-0.667 2.100 1.563 4437
-0.689 2.167 1.599 4175
-0.690 2.171 1.593 4870
-0.689 2.169 1.582 4571
-0.697 2.192 1.587 4879
-0.700 2.203 1.585 6208
-0.701 2.207 1.578 7376
-0.707 2.223 1.579 8471
-0.712 2.240 1.581 9828
-0.715 2.251 1.578 11434
-0.717 2.255 1.571 13086
-0.716 2.252 1.560 12485
-0.717 2.256 1.553 9502
-0.741 2.332 1.590 7323
-0.744 2.342 1.587 7379
-0.750 2.359 1.587 9765
-0.749 2.357 1.576 11779
-0.750 2.361 1.569 11069
-0.752 2.365 1.561 10359
-0.755 2.375 1.558 7474
-0.756 2.379 1.551 4614
-0.760 2.390 1.547 5466
-0.767 2.413 1.551 7454
-0.770 2.424 1.547 8196
-0.774 2.434 1.544 6515
-0.777 2.445 1.540 5068
-0.778 2.449 1.532 3880
-0.807 2.539 1.573 3238
-0.810 2.550 1.569 4711
-0.812 2.554 1.561 6210
-0.815 2.564 1.557 7742
-0.818 2.575 1.552 9336
-0.818 2.572 1.541 10321
-0.819 2.576 1.533 11361
-0.820 2.580 1.525 9882
-0.830 2.611 1.531 8662
-0.833 2.621 1.527 11763
-0.837 2.632 1.522 15360
-0.836 2.629 1.510 13720
-0.837 2.633 1.502 12348
-0.842 2.650 1.501 9924
-0.848 2.667 1.500 8234
-0.851 2.678 1.495 9325
-0.857 2.695 1.493 10265
-0.858 2.699 1.485 10031
-0.859 2.703 1.477 8672
-0.862 2.713 1.472 7399
-0.864 2.717 1.463 5833
-0.919 2.892 1.537 4633
-0.923 2.903 1.531 6320
-0.926 2.914 1.525 8093
-0.927 2.918 1.516 8093
-0.929 2.921 1.507 7648
-0.928 2.918 1.495 7245
-0.929 2.922 1.486 3622
-0.196 0.624 1.659 9225
-0.196 0.622 1.643 11209
-0.196 0.623 1.634 14607
-0.198 0.630 1.639 17121
-0.200 0.634 1.637 19882
-0.201 0.638 1.635 21085
-0.201 0.639 1.626 22823
-0.202 0.643 1.624 23166
-0.204 0.647 1.622 21757
-0.205 0.651 1.620 20349
-0.207 0.659 1.625 21528
-0.210 0.666 1.630 23125
-0.211 0.670 1.628 23162
-0.212 0.674 1.626 23199
-0.215 0.682 1.630 17557
-0.214 0.679 1.614 11704
-0.215 0.683 1.612 8766
-0.223 0.708 1.652 8881
-0.224 0.712 1.650 11228
-0.225 0.716 1.648 11332
-0.228 0.724 1.652 11449
-0.229 0.728 1.650 9542
-0.233 0.739 1.662 7820
-0.231 0.733 1.639 7837
-0.232 0.737 1.636 8290
-0.232 0.738 1.627 7970
-0.233 0.742 1.625 6879
-0.237 0.753 1.636 7202
-0.239 0.761 1.641 7110
-0.242 0.769 1.645 6135
-0.243 0.773 1.643 6425
-0.243 0.773 1.634 6433
-0.244 0.774 1.624 6297
-0.244 0.774 1.615 6345
-0.252 0.801 1.654 5845
-0.255 0.809 1.658 6752
-0.257 0.817 1.662 9004
-0.258 0.821 1.660 12986
-0.258 0.821 1.650 14776
-0.260 0.825 1.648 13405
-0.261 0.830 1.645 12101
-0.264 0.838 1.649 10657
-0.265 0.842 1.647 12343
-0.266 0.846 1.644 15656
-0.269 0.854 1.648 15175
-0.271 0.862 1.652 14282
-0.273 0.866 1.650 12115
-0.275 0.875 1.654 17271
-0.277 0.879 1.651 24123
-0.278 0.883 1.648 30160
-0.280 0.891 1.652 35968
-0.282 0.895 1.649 36528
-0.284 0.904 1.653 31191
-0.288 0.916 1.663 21853
-0.292 0.928 1.674 19412
-0.292 0.929 1.664 18178
-0.294 0.933 1.661 14799
-0.296 0.941 1.665 13810
-0.298 0.945 1.662 18607
-0.299 0.950 1.659 24153
-0.302 0.958 1.663 21532
-0.303 0.962 1.660 17392
-0.304 0.966 1.657 14970
-0.304 0.966 1.647 12132
-0.310 0.983 1.664 14562
-0.311 0.988 1.661 19782
-0.312 0.992 1.657 25193
-0.314 0.996 1.654 29629
-0.313 0.996 1.645 25679
-0.313 0.996 1.635 18672
-0.313 0.995 1.626 16326
-0.317 1.008 1.635 16841
-0.321 1.021 1.645 21100
-0.326 1.035 1.655 22768
-0.328 1.043 1.658 17875
-0.330 1.047 1.654 15239
-0.330 1.047 1.645 16261
-0.331 1.051 1.642 14972
-0.335 1.064 1.651 15576
-0.338 1.073 1.654 17664
-0.339 1.077 1.651 15051
-0.340 1.082 1.647 17398
-0.343 1.090 1.650 24032
-0.346 1.099 1.653 20228
-0.347 1.103 1.649 16859
-0.349 1.108 1.646 18559
-0.350 1.112 1.643 16834
-0.353 1.121 1.645 15029
-0.353 1.120 1.636 15580
-0.352 1.119 1.626 17025
-0.354 1.124 1.622 17153
-0.356 1.132 1.625 14997
-0.362 1.151 1.640 14451
-0.365 1.160 1.642 17377
-0.366 1.164 1.639 16197
-0.369 1.173 1.641 9807
-0.374 1.187 1.650 9365
-0.373 1.186 1.640 15285
-0.375 1.190 1.636 15797
-0.378 1.199 1.638 14299
-0.379 1.204 1.635 17824
-0.380 1.208 1.631 23493
-0.381 1.212 1.627 24418
-0.383 1.216 1.623 26391
-0.384 1.220 1.620 29690
-0.388 1.234 1.628 25095
-0.390 1.238 1.624 15565
-0.393 1.247 1.626 11195
-0.391 1.241 1.610 8843
-0.392 1.246 1.606 7210
-0.393 1.250 1.602 10212
-0.398 1.264 1.610 14938
-0.402 1.278 1.618 20997
-0.404 1.282 1.614 25092
-0.405 1.286 1.610 34733
-0.406 1.290 1.606 44707
-0.406 1.289 1.596 34020
-0.407 1.293 1.592 17798
-0.408 1.297 1.588 15021
-0.410 1.301 1.584 23250
-0.411 1.305 1.580 33372
-0.412 1.309 1.576 28603
-0.415 1.319 1.577 16740
-0.416 1.323 1.573 11473
-0.418 1.326 1.569 15471
-0.419 1.330 1.565 31542
-0.422 1.340 1.567 44392
-0.423 1.344 1.562 29800
-0.422 1.342 1.553 21016
-0.424 1.346 1.548 28868
-0.425 1.350 1.544 27732
-0.428 1.359 1.546 26668
-0.431 1.369 1.547 26639
-0.432 1.373 1.543 29603
-0.433 1.376 1.538 28309
-0.436 1.386 1.539 24379
-0.437 1.390 1.535 25180
-0.440 1.399 1.536 22877
-0.442 1.403 1.532 18920
-0.467 1.484 1.603 12765
-0.469 1.489 1.598 22647
-0.470 1.493 1.593 26177
-0.469 1.491 1.583 17787
-0.479 1.523 1.605 16849
-0.484 1.538 1.611 17188
-0.487 1.548 1.612 14387
-0.489 1.552 1.607 10676
-0.493 1.568 1.612 15241
-0.495 1.572 1.608 22699
-0.498 1.581 1.608 24543
-0.501 1.591 1.608 26276
-0.504 1.601 1.608 28564
-0.507 1.611 1.609 28921
-0.510 1.621 1.609 24848
-0.513 1.630 1.609 22932
-0.513 1.629 1.599 20246
-0.514 1.633 1.594 14300
-0.515 1.637 1.588 12701
-0.520 1.652 1.593 12281
-0.525 1.668 1.598 11641
-0.524 1.666 1.588 11389
-0.524 1.664 1.578 7800
-0.536 1.704 1.603 9855
-0.539 1.714 1.602 17784
-0.539 1.712 1.592 18165
-0.542 1.722 1.592 11324
-0.552 1.755 1.611 17750
-0.552 1.753 1.600 21187
-0.549 1.746 1.585 18424
-0.551 1.750 1.580 14346
-0.556 1.766 1.584 12771
-0.563 1.788 1.593 15508
-0.564 1.792 1.587 15289
-0.567 1.802 1.587 14454
-0.570 1.812 1.586 21126
-0.573 1.822 1.585 26135
-0.575 1.826 1.579 22639
-0.578 1.836 1.578 16498
-0.577 1.834 1.568 11909
-0.576 1.831 1.558 8794
-0.585 1.860 1.570 6724
-0.600 1.907 1.597 8806
-0.601 1.911 1.591 14389
-0.601 1.909 1.581 16943
-0.604 1.919 1.579 14718
-0.615 1.954 1.596 13912
-0.618 1.964 1.594 13299
-0.619 1.968 1.588 12892
-0.619 1.966 1.578 14187
-0.622 1.976 1.576 14764
-0.637 2.024 1.601 20157
-0.640 2.034 1.599 27128
-0.641 2.038 1.593 25265
-0.643 2.042 1.587 18335
-0.646 2.052 1.585 14562
-0.645 2.050 1.574 15490
-0.650 2.067 1.576 13203
-0.658 2.090 1.583 12982
-0.655 2.081 1.568 12185
-0.656 2.085 1.561 9314
-0.673 2.140 1.589 4571
-0.685 2.176 1.603 5294
-0.686 2.180 1.597 6524
-0.687 2.184 1.590 6627
-0.689 2.188 1.583 7249
-0.692 2.198 1.581 7893
-0.695 2.209 1.578 8608
-0.698 2.219 1.575 8428
-0.706 2.242 1.581 8755
-0.709 2.253 1.578 9638
-0.710 2.257 1.571 10658
-0.710 2.254 1.560 9967
-0.711 2.258 1.553 7530
-0.730 2.321 1.582 6747
-0.736 2.338 1.583 6574
-0.741 2.355 1.583 8776
-0.742 2.359 1.576 11005
-0.744 2.363 1.569 10598
-0.745 2.367 1.561 10191
-0.746 2.371 1.554 7586
-0.749 2.381 1.551 4994
-0.753 2.392 1.547 6141
-0.760 2.415 1.551 8451
-0.764 2.426 1.547 8962
-0.769 2.443 1.547 6951
-0.770 2.447 1.540 5235
-0.771 2.451 1.532 3910
-0.800 2.541 1.573 3382
-0.803 2.552 1.569 4697
-0.805 2.556 1.561 6083
-0.808 2.567 1.557 7431
-0.811 2.577 1.552 8878
-0.810 2.574 1.541 9847
-0.812 2.578 1.533 10871
-0.813 2.582 1.525 9374
-0.814 2.586 1.517 7878
-0.826 2.624 1.527 10348
-0.829 2.634 1.522 13503
-0.828 2.631 1.510 12418
-0.829 2.635 1.502 11522
-0.833 2.646 1.498 9339
-0.840 2.670 1.500 7797
-0.844 2.680 1.495 8830
-0.849 2.698 1.493 9823
-0.852 2.708 1.488 9584
-0.854 2.712 1.480 8402
-0.855 2.716 1.472 7219
-0.856 2.719 1.463 5815
-0.913 2.902 1.540 4482
-0.917 2.913 1.534 6489
-0.918 2.916 1.525 8573
-0.919 2.920 1.516 8573
-0.918 2.917 1.504 8456
-0.919 2.921 1.495 8429
-0.921 2.925 1.486 4214
-0.195 0.624 1.659 9327
-0.194 0.622 1.643 11920
-0.195 0.623 1.634 15365
-0.197 0.630 1.639 17991
-0.198 0.634 1.637 20809
-0.200 0.639 1.635 22095
-0.200 0.639 1.626 23687
-0.201 0.644 1.624 23804
-0.202 0.648 1.622 22087
-0.204 0.652 1.620 20369
-0.206 0.659 1.625 21472
-0.208 0.667 1.630 22969
-0.210 0.671 1.628 22809
-0.211 0.675 1.626 22649
-0.213 0.682 1.630 16756
-0.212 0.680 1.614 10600
-0.213 0.680 1.605 7919
-0.221 0.708 1.652 8117
-0.224 0.716 1.657 9797
-0.225 0.720 1.655 9835
-0.226 0.724 1.652 9874
-0.228 0.729 1.650 9009
-0.228 0.729 1.641 8158
-0.229 0.733 1.639 8766
-0.229 0.734 1.629 9449
-0.231 0.738 1.627 9439
-0.232 0.742 1.625 8270
-0.236 0.754 1.636 8313
-0.238 0.761 1.641 7953
-0.242 0.773 1.652 6924
-0.243 0.777 1.650 6767
-0.243 0.777 1.640 5976
-0.243 0.778 1.631 5874
-0.242 0.775 1.615 6087
-0.252 0.805 1.661 6238
-0.253 0.809 1.658 7624
-0.255 0.817 1.662 9903
-0.257 0.821 1.660 13836
-0.257 0.822 1.650 15453
-0.258 0.826 1.648 13514
-0.259 0.830 1.645 11668
-0.262 0.838 1.649 10319
-0.263 0.842 1.647 12118
-0.265 0.846 1.644 15541
-0.267 0.855 1.648 15149
-0.270 0.863 1.652 14399
-0.272 0.871 1.656 11705
-0.274 0.875 1.654 16362
-0.275 0.879 1.651 23231
-0.276 0.883 1.648 29571
-0.279 0.892 1.652 35825
-0.280 0.896 1.649 36648
-0.283 0.904 1.653 30861
-0.286 0.917 1.663 21274
-0.289 0.925 1.667 18723
-0.290 0.929 1.664 17814
-0.292 0.933 1.661 14919
-0.294 0.942 1.665 13869
-0.296 0.946 1.662 18537
-0.297 0.950 1.659 23754
-0.300 0.959 1.663 21178
-0.301 0.963 1.660 17444
-0.302 0.967 1.657 15346
-0.304 0.971 1.654 12420
-0.308 0.984 1.664 15072
-0.309 0.988 1.661 20795
-0.310 0.993 1.657 26884
-0.310 0.992 1.648 31860
-0.311 0.997 1.645 27779
-0.311 0.996 1.635 20792
-0.311 0.996 1.626 18154
-0.314 1.005 1.629 17736
-0.319 1.022 1.645 19963
-0.324 1.035 1.655 21235
-0.326 1.044 1.658 17171
-0.328 1.048 1.654 16922
-0.327 1.048 1.645 19751
-0.329 1.052 1.642 18202
-0.333 1.065 1.651 17950
-0.336 1.074 1.654 19302
-0.337 1.078 1.651 15515
-0.338 1.082 1.647 16561
-0.341 1.091 1.650 22018
-0.344 1.100 1.653 17805
-0.344 1.099 1.643 15544
-0.345 1.104 1.640 17970
-0.348 1.112 1.643 16567
-0.350 1.121 1.645 15679
-0.350 1.121 1.636 17033
-0.350 1.120 1.626 18728
-0.351 1.124 1.622 18515
-0.354 1.133 1.625 15396
-0.360 1.152 1.640 13192
-0.363 1.161 1.642 15375
-0.364 1.165 1.639 13118
-0.367 1.174 1.641 9200
-0.370 1.183 1.644 8848
-0.371 1.187 1.640 11543
-0.372 1.191 1.636 12219
-0.375 1.200 1.638 11706
-0.376 1.204 1.635 16152
-0.378 1.208 1.631 23288
-0.379 1.213 1.627 24424
-0.380 1.217 1.623 25400
-0.383 1.226 1.626 28348
-0.386 1.235 1.628 23684
-0.387 1.239 1.624 14076
-0.389 1.243 1.620 9827
-0.388 1.242 1.610 7819
-0.390 1.246 1.606 7555
-0.391 1.250 1.602 11994
-0.395 1.265 1.610 14848
-0.400 1.279 1.618 18952
-0.401 1.283 1.614 22406
-0.402 1.287 1.610 29742
-0.404 1.291 1.606 37540
-0.405 1.295 1.602 27299
-0.406 1.299 1.598 12216
-0.407 1.303 1.594 10990
-0.407 1.302 1.584 20536
-0.408 1.306 1.580 31545
-0.409 1.310 1.576 30159
-0.412 1.319 1.577 21108
-0.415 1.329 1.579 16061
-0.415 1.327 1.569 16019
-0.416 1.331 1.565 27489
-0.419 1.341 1.567 40397
-0.420 1.345 1.562 29912
-0.420 1.343 1.553 24819
-0.421 1.347 1.548 33958
-0.422 1.351 1.544 34202
-0.425 1.360 1.546 34079
-0.428 1.370 1.547 34320
-0.429 1.373 1.543 34970
-0.430 1.377 1.538 29536
-0.433 1.387 1.539 24171
-0.435 1.391 1.535 25898
-0.438 1.400 1.536 24446
-0.439 1.404 1.532 20573
-0.440 1.408 1.528 13028
-0.466 1.489 1.598 20448
-0.467 1.493 1.593 24344
-0.466 1.492 1.583 16741
-0.476 1.524 1.605 15748
-0.481 1.539 1.611 16035
-0.484 1.549 1.612 12966
-0.485 1.553 1.607 9899
-0.490 1.568 1.612 17212
-0.492 1.573 1.608 25678
-0.495 1.582 1.608 25807
-0.498 1.592 1.608 25413
-0.501 1.602 1.608 26982
-0.504 1.612 1.609 27974
-0.507 1.622 1.609 24648
-0.508 1.626 1.604 22499
-0.509 1.630 1.599 19468
-0.511 1.634 1.594 13278
-0.512 1.638 1.588 11471
-0.513 1.642 1.583 11112
-0.520 1.663 1.593 11048
-0.519 1.661 1.583 12038
-0.519 1.660 1.573 8754
-0.533 1.705 1.603 9396
-0.534 1.709 1.597 16675
-0.535 1.713 1.592 16483
-0.548 1.752 1.616 10551
-0.551 1.762 1.616 19204
-0.548 1.755 1.600 21356
-0.548 1.753 1.590 18006
-0.549 1.757 1.585 15809
-0.554 1.773 1.589 13063
-0.559 1.789 1.593 13295
-0.560 1.793 1.587 13073
-0.563 1.803 1.587 12286
-0.567 1.813 1.586 18296
-0.570 1.823 1.585 23431
-0.573 1.833 1.584 21145
-0.574 1.837 1.578 15832
-0.573 1.835 1.568 11637
-0.573 1.833 1.558 8803
-0.580 1.855 1.566 6642
-0.598 1.914 1.602 9298
-0.598 1.912 1.591 15265
-0.597 1.910 1.581 17818
-0.600 1.920 1.579 15281
-0.609 1.949 1.591 14326
-0.614 1.965 1.594 13634
-0.615 1.969 1.588 14161
-0.615 1.967 1.578 16104
-0.618 1.977 1.576 15387
-0.631 2.019 1.597 19136
-0.636 2.035 1.599 25696
-0.635 2.033 1.589 24307
-0.639 2.043 1.587 17793
-0.642 2.054 1.585 14934
-0.643 2.058 1.578 16831
-0.646 2.068 1.576 15180
-0.652 2.085 1.579 14762
-0.651 2.082 1.568 13374
-0.652 2.086 1.561 9906
-0.669 2.141 1.589 4809
-0.680 2.177 1.603 6591
-0.684 2.187 1.601 8414
-0.683 2.185 1.590 8828
-0.684 2.189 1.583 9630
-0.685 2.193 1.576 9872
-0.689 2.203 1.574 10013
-0.694 2.220 1.575 8622
-0.699 2.237 1.577 7778
-0.703 2.248 1.574 7776
-0.706 2.258 1.571 8069
-0.707 2.262 1.564 7321
-0.708 2.266 1.557 5572
-0.724 2.316 1.578 6642
-0.727 2.326 1.575 6140
-0.734 2.350 1.579 7879
-0.736 2.354 1.572 10093
-0.739 2.364 1.569 9997
-0.740 2.368 1.561 9941
-0.741 2.372 1.554 7736
-0.743 2.376 1.547 5531
-0.748 2.393 1.547 6943
-0.755 2.417 1.551 9446
-0.759 2.427 1.547 9708
-0.764 2.445 1.547 7326
-0.765 2.449 1.540 5346
-0.767 2.452 1.532 3988
-0.795 2.543 1.573 3438
-0.798 2.554 1.569 4600
-0.799 2.558 1.561 5870
-0.803 2.568 1.557 7025
-0.806 2.579 1.552 8327
-0.805 2.576 1.541 9212
-0.806 2.580 1.533 10151
-0.808 2.584 1.525 8639
-0.809 2.588 1.517 7128
-0.821 2.625 1.527 8830
-0.824 2.636 1.522 11503
-0.823 2.633 1.510 10931
-0.824 2.637 1.502 10485
-0.827 2.647 1.498 8612
-0.833 2.665 1.496 7198
-0.838 2.682 1.495 8143
-0.844 2.699 1.493 9153
-0.847 2.710 1.488 9020
-0.848 2.714 1.480 7965
-0.852 2.724 1.475 7041
-0.853 2.728 1.467 5737
-0.852 2.725 1.455 4437
-0.911 2.914 1.534 6626
-0.912 2.918 1.525 8985
-0.913 2.922 1.516 8985
-0.912 2.919 1.504 9242
-0.911 2.916 1.492 9614
-0.913 2.919 1.483 4807
-0.193 0.621 1.652 9450
-0.193 0.622 1.643 12558
-0.193 0.623 1.634 15898
-0.196 0.631 1.639 18660
-0.197 0.635 1.637 21490
-0.198 0.639 1.635 22776
-0.198 0.640 1.626 24149
-0.200 0.644 1.624 24059
-0.201 0.648 1.622 22069
-0.202 0.652 1.620 20079
-0.205 0.660 1.625 21145
-0.206 0.664 1.623 22629
-0.208 0.671 1.628 22250
-0.209 0.675 1.626 21895
-0.212 0.683 1.630 15902
-0.211 0.680 1.614 9550
-0.211 0.681 1.605 7172
-0.220 0.709 1.652 7518
-0.222 0.716 1.657 8596
-0.225 0.724 1.662 8552
-0.226 0.728 1.659 8609
-0.226 0.729 1.650 8572
-0.226 0.730 1.641 8961
-0.226 0.730 1.632 9629
-0.228 0.734 1.629 10434
-0.229 0.739 1.627 10637
-0.230 0.743 1.625 9470
-0.234 0.754 1.636 9409
-0.236 0.762 1.641 8922
-0.240 0.773 1.652 7957
-0.241 0.778 1.650 7456
-0.244 0.785 1.654 6014
-0.243 0.782 1.638 5822
-0.242 0.779 1.622 6222
-0.250 0.806 1.661 6853
-0.251 0.810 1.658 8693
-0.254 0.818 1.662 10890
-0.255 0.822 1.660 14688
-0.255 0.822 1.650 16118
-0.256 0.826 1.648 13604
-0.259 0.835 1.652 11255
-0.260 0.839 1.649 10011
-0.261 0.843 1.647 11954
-0.263 0.847 1.644 15493
-0.265 0.855 1.648 15255
-0.268 0.863 1.652 14681
-0.270 0.872 1.656 11568
-0.272 0.876 1.654 15709
-0.273 0.880 1.651 22590
-0.274 0.884 1.648 29252
-0.277 0.892 1.652 36058
-0.278 0.897 1.649 37204
-0.281 0.905 1.653 30951
-0.283 0.913 1.657 21124
-0.287 0.926 1.667 18284
-0.287 0.926 1.658 17689
-0.290 0.934 1.661 15170
-0.292 0.942 1.665 13947
-0.294 0.947 1.662 18614
-0.295 0.951 1.659 23817
-0.297 0.959 1.663 21148
-0.299 0.964 1.660 17514
-0.300 0.968 1.657 15415
-0.301 0.972 1.654 12382
-0.305 0.985 1.664 15217
-0.307 0.989 1.661 21200
-0.307 0.989 1.651 27751
-0.308 0.993 1.648 32925
-0.309 0.997 1.645 28708
-0.309 0.997 1.635 22205
-0.309 0.997 1.626 19518
-0.312 1.005 1.629 18555
-0.317 1.023 1.645 19270
-0.321 1.036 1.655 20243
-0.324 1.045 1.658 17285
-0.325 1.049 1.654 18867
-0.325 1.048 1.645 22860
-0.326 1.053 1.642 21370
-0.329 1.061 1.645 20405
-0.333 1.075 1.654 20956
-0.335 1.079 1.651 16020
-0.336 1.083 1.647 15405
-0.339 1.092 1.650 19378
-0.340 1.096 1.647 15533
-0.341 1.100 1.643 14522
-0.342 1.104 1.640 17596
-0.345 1.113 1.643 16557
-0.348 1.122 1.645 16670
-0.348 1.122 1.636 18822
-0.348 1.121 1.626 20644
-0.349 1.125 1.622 19973
-0.352 1.134 1.625 15816
-0.356 1.148 1.634 12190
-0.360 1.161 1.642 13696
-0.361 1.166 1.639 10796
-0.363 1.170 1.635 9623
-0.366 1.179 1.637 11332
-0.368 1.188 1.640 10700
-0.370 1.192 1.636 9850
-0.372 1.201 1.638 9556
-0.374 1.205 1.635 13682
-0.375 1.209 1.631 21851
-0.378 1.218 1.633 23429
-0.378 1.218 1.623 23521
-0.380 1.227 1.626 26205
-0.382 1.231 1.622 21927
-0.384 1.240 1.624 12307
-0.386 1.244 1.620 7682
-0.385 1.243 1.610 6338
-0.385 1.242 1.600 7809
-0.388 1.251 1.602 12858
-0.391 1.260 1.604 14236
-0.395 1.275 1.612 16703
-0.398 1.284 1.614 19282
-0.399 1.288 1.610 24890
-0.401 1.292 1.606 30976
-0.402 1.296 1.602 22221
-0.405 1.305 1.604 10933
-0.406 1.309 1.599 10661
-0.406 1.308 1.590 18256
-0.405 1.307 1.580 28606
-0.408 1.316 1.582 30173
-0.409 1.320 1.577 24418
-0.412 1.330 1.579 21053
-0.412 1.328 1.569 18032
-0.413 1.332 1.565 24228
-0.414 1.336 1.561 35966
-0.416 1.340 1.557 30290
-0.417 1.344 1.553 29816
-0.418 1.348 1.548 39793
-0.419 1.352 1.544 40523
-0.422 1.361 1.546 40169
-0.425 1.370 1.547 40419
-0.426 1.374 1.543 39409
-0.427 1.378 1.538 31005
-0.430 1.388 1.539 24504
-0.431 1.392 1.535 26141
-0.433 1.395 1.531 24971
-0.436 1.405 1.532 21211
-0.437 1.409 1.528 13245
-0.462 1.491 1.598 17699
-0.463 1.495 1.593 21867
-0.463 1.493 1.583 15540
-0.473 1.525 1.605 14697
-0.479 1.546 1.616 14539
-0.481 1.550 1.612 11209
-0.480 1.549 1.602 9258
-0.488 1.575 1.618 18531
-0.488 1.574 1.608 27330
-0.491 1.583 1.608 26489
