0.214 1.057 1.610 6415
0.217 1.070 1.619 8215
0.219 1.079 1.622 12982
0.220 1.083 1.619 20166
0.221 1.088 1.616 24185
0.221 1.092 1.612 18433
0.224 1.106 1.622 15647
0.225 1.110 1.618 20537
0.226 1.114 1.615 19500
0.228 1.123 1.618 16237
0.229 1.127 1.614 13791
0.231 1.136 1.617 14455
0.231 1.140 1.614 18925
0.233 1.149 1.616 21261
0.234 1.154 1.613 23669
0.235 1.158 1.609 24257
0.237 1.167 1.612 20148
0.238 1.171 1.608 14786
0.239 1.180 1.611 11045
0.241 1.190 1.613 12488
0.241 1.189 1.604 17077
0.242 1.193 1.600 16316
0.242 1.192 1.590 10235
0.242 1.191 1.581 11694
0.243 1.200 1.583 13709
0.248 1.225 1.603 10100
0.249 1.229 1.600 11680
0.252 1.243 1.608 19269
0.254 1.253 1.610 21899
0.254 1.252 1.600 18785
0.255 1.256 1.596 16982
0.255 1.255 1.587 13247
0.257 1.269 1.595 9505
0.258 1.273 1.591 10197
0.259 1.277 1.587 7740
0.259 1.276 1.577 6305
0.260 1.280 1.573 5861
0.262 1.290 1.575 5925
0.264 1.299 1.577 10589
0.264 1.303 1.573 21766
0.265 1.307 1.569 32105
0.267 1.317 1.571 39323
0.268 1.321 1.567 40200
0.270 1.330 1.569 33496
0.271 1.334 1.565 24622
0.274 1.349 1.572 23041
0.276 1.359 1.573 25975
0.276 1.363 1.569 20169
0.283 1.394 1.593 17219
0.285 1.404 1.594 14097
0.283 1.397 1.579 26411
0.283 1.396 1.569 38609
0.284 1.400 1.565 30560
0.286 1.409 1.566 24770
0.284 1.402 1.551 18042
0.284 1.401 1.541 12892
0.287 1.416 1.548 8414
0.287 1.414 1.538 8626
0.290 1.429 1.545 9033
0.294 1.450 1.557 7617
0.296 1.460 1.558 5085
0.299 1.476 1.564 4286
0.299 1.474 1.554 4021
0.299 1.472 1.545 4305
0.171 0.845 0.954 3854
0.172 0.847 0.951 1883
0.174 0.856 0.954 1094
0.172 0.846 0.941 1021
0.171 0.843 0.933 1195
0.174 0.857 0.941 1657
0.175 0.865 0.943 1416
0.318 1.568 1.566 1145
0.319 1.572 1.561 1656
0.258 1.271 1.287 3518
0.257 1.268 1.278 6269
0.258 1.271 1.274 7741
0.259 1.275 1.271 7596
0.259 1.278 1.267 6764
0.260 1.281 1.263 6660
0.262 1.290 1.264 6484
0.262 1.293 1.260 4943
0.331 1.632 1.538 5199
0.332 1.636 1.533 4458
0.334 1.646 1.533 2833
0.340 1.674 1.548 2090
0.339 1.672 1.538 3149
0.340 1.676 1.533 4385
0.342 1.686 1.533 3859
0.344 1.696 1.533 2499
0.273 1.346 1.244 1477
0.274 1.349 1.240 1784
0.272 1.340 1.226 2261
0.272 1.343 1.222 2642
0.274 1.352 1.223 2210
0.275 1.355 1.219 1660
0.217 1.068 0.990 1563
0.511 2.520 2.101 1273
0.221 1.091 0.998 1380
0.221 1.087 0.990 2046
0.219 1.077 0.977 1975
0.215 1.061 0.960 2685
0.214 1.057 0.952 4199
0.215 1.059 0.948 5612
0.215 1.061 0.945 7601
0.216 1.064 0.942 10499
0.216 1.066 0.939 12466
0.217 1.068 0.936 13376
0.217 1.070 0.932 14333
0.216 1.066 0.925 15064
0.217 1.069 0.921 14531
0.217 1.071 0.918 13834
0.218 1.073 0.915 13509
0.218 1.075 0.912 11821
0.219 1.077 0.908 9272
0.219 1.079 0.905 6730
0.231 1.140 0.941 5976
0.236 1.161 0.951 5837
0.237 1.170 0.952 6182
0.238 1.172 0.948 6646
0.236 1.162 0.936 8072
0.235 1.157 0.928 7866
0.234 1.153 0.920 7112
0.236 1.162 0.921 6993
0.237 1.171 0.922 6305
0.235 1.160 0.910 5494
0.238 1.175 0.915 6118
0.240 1.184 0.915 6939
0.239 1.179 0.908 6270
0.240 1.182 0.904 4818
0.240 1.184 0.901 3211
0.241 1.186 0.897 2297
0.242 1.195 0.897 1645
0.244 1.203 0.898 1122
0.246 1.212 0.898 1184
0.246 1.214 0.895 1817
0.244 1.203 0.883 2206
0.243 1.198 0.875 2521
0.242 1.194 0.868 2085
0.243 1.196 0.864 1660
0.244 1.205 0.864 1664
0.245 1.207 0.861 2078
0.245 1.209 0.857 2497
0.246 1.211 0.853 2282
0.247 1.220 0.853 2128
0.249 1.228 0.854 2262
0.251 1.237 0.854 2305
0.253 1.246 0.854 2397
0.253 1.248 0.850 1913
0.256 1.264 0.854 1612
0.258 1.273 0.854 1896
0.257 1.268 0.846 2208
0.258 1.270 0.842 2460
0.513 2.530 1.510 2220
0.514 2.534 1.502 2220
0.513 2.531 1.491 2231
0.514 2.535 1.483 3168
0.515 2.538 1.476 4105
0.520 2.563 1.479 4532
0.524 2.581 1.478 5709
0.524 2.584 1.470 5482
0.524 2.581 1.459 5270
0.524 2.585 1.451 5379
0.525 2.589 1.443 5451
0.530 2.613 1.446 4544
0.544 2.680 1.469 5012
0.544 2.684 1.461 5012
0.547 2.695 1.456 5561
0.549 2.705 1.451 6138
0.545 2.688 1.433 5431
0.546 2.692 1.425 4870
0.553 2.723 1.430 5825
0.555 2.734 1.425 6916
0.554 2.731 1.414 5736
0.555 2.734 1.406 4564
0.555 2.738 1.397 4564
0.562 2.770 1.402 4358
0.566 2.788 1.400 5117
0.566 2.791 1.392 2558
0.301 1.483 0.808 286
0.131 0.637 1.652 20279
0.131 0.642 1.650 17464
0.132 0.646 1.648 14649
0.133 0.650 1.646 13157
0.133 0.651 1.637 11882
0.134 0.655 1.635 12259
0.136 0.663 1.640 15882
0.137 0.667 1.638 19474
0.138 0.671 1.636 20517
0.139 0.679 1.641 22104
0.141 0.687 1.646 21266
0.142 0.691 1.644 21214
0.142 0.695 1.642 19585
0.143 0.700 1.640 17956
0.144 0.704 1.638 16968
0.145 0.708 1.635 16869
0.146 0.712 1.633 16890
0.147 0.720 1.638 16995
0.148 0.724 1.636 18023
0.149 0.729 1.634 16313
0.149 0.729 1.624 14669
0.150 0.733 1.622 11620
0.151 0.738 1.620 8429
0.153 0.745 1.625 8167
0.153 0.746 1.615 8695
0.154 0.750 1.613 11571
0.155 0.758 1.618 13339
0.157 0.766 1.622 14218
0.159 0.774 1.627 12864
0.160 0.782 1.631 10291
0.162 0.790 1.636 7799
0.163 0.794 1.634 5063
0.164 0.798 1.631 8766
0.164 0.803 1.629 12469
0.165 0.807 1.626 16746
0.166 0.811 1.624 20998
0.167 0.815 1.621 19372
0.169 0.823 1.626 15893
0.169 0.824 1.616 13897
0.170 0.832 1.621 14863
0.173 0.844 1.632 16518
0.174 0.848 1.629 12800
0.175 0.857 1.633 11163
0.176 0.861 1.631 13148
0.178 0.869 1.635 13911
0.180 0.877 1.639 15285
0.181 0.882 1.636 15663
0.182 0.890 1.640 15919
0.184 0.898 1.644 15838
0.185 0.903 1.641 16984
0.186 0.907 1.639 20810
0.187 0.911 1.636 23490
0.187 0.915 1.633 25999
0.188 0.920 1.630 27642
0.189 0.924 1.627 26960
0.189 0.924 1.618 24474
0.190 0.928 1.615 22179
0.191 0.932 1.612 21694
0.193 0.941 1.616 21150
0.194 0.945 1.613 15414
0.195 0.954 1.617 7559
0.200 0.975 1.640 5256
0.201 0.979 1.637 5970
0.201 0.979 1.628 7673
0.201 0.984 1.625 8498
0.203 0.992 1.628 6546
0.207 1.010 1.644 6388
0.208 1.014 1.641 7414
0.208 1.014 1.632 6775
0.208 1.014 1.622 9638
0.209 1.022 1.626 12279
0.211 1.031 1.629 12369
0.212 1.035 1.626 13855
0.213 1.040 1.623 17666
0.215 1.048 1.626 20390
0.215 1.048 1.616 16347
0.215 1.052 1.613 8671
0.216 1.056 1.610 6063
0.219 1.070 1.619 7967
0.221 1.079 1.622 12191
0.222 1.083 1.619 18958
0.223 1.087 1.616 23345
0.224 1.091 1.612 19042
0.225 1.100 1.615 15608
0.226 1.105 1.612 19882
0.228 1.114 1.615 19503
0.230 1.123 1.618 17256
0.232 1.132 1.620 15742
0.233 1.136 1.617 16291
0.233 1.140 1.614 20093
0.235 1.149 1.616 21978
0.236 1.153 1.613 24887
0.237 1.157 1.609 26938
0.239 1.167 1.612 23594
0.240 1.171 1.608 18501
0.242 1.180 1.611 14198
0.244 1.189 1.613 14180
0.243 1.188 1.604 17789
0.244 1.192 1.600 17206
0.245 1.197 1.596 10337
0.244 1.191 1.581 10614
0.246 1.200 1.583 13352
0.250 1.219 1.597 9815
0.254 1.239 1.611 9927
0.256 1.248 1.614 15799
0.256 1.252 1.610 17189
0.256 1.251 1.600 15083
0.257 1.255 1.596 15343
0.258 1.259 1.593 12463
0.260 1.269 1.595 8720
0.261 1.273 1.591 8260
0.262 1.277 1.587 7701
0.262 1.281 1.583 9197
0.263 1.285 1.579 8432
0.263 1.284 1.569 6005
0.266 1.299 1.577 7980
0.267 1.303 1.573 18854
0.268 1.307 1.569 29470
0.270 1.316 1.571 37923
0.270 1.320 1.567 39373
0.272 1.330 1.569 32867
0.273 1.334 1.565 24381
0.277 1.354 1.577 22297
0.278 1.358 1.573 27070
0.279 1.362 1.569 22457
0.285 1.394 1.593 17976
0.287 1.403 1.594 13707
0.286 1.397 1.579 26504
0.286 1.395 1.569 38168
0.287 1.399 1.565 28723
0.289 1.409 1.566 23814
0.289 1.413 1.562 16722
0.291 1.422 1.563 11889
0.292 1.426 1.559 8783
0.290 1.414 1.538 7982
0.293 1.429 1.545 9540
0.296 1.444 1.551 8763
0.298 1.454 1.552 5221
0.301 1.469 1.559 3856
0.301 1.468 1.549 3433
0.301 1.472 1.545 3608
0.174 0.851 0.959 3176
0.175 0.853 0.956 1774
0.304 1.484 1.531 1233
0.309 1.511 1.548 1280
0.313 1.526 1.554 1384
0.175 0.856 0.941 1822
0.177 0.864 0.943 1580
0.320 1.562 1.561 1427
0.322 1.571 1.561 2178
0.260 1.270 1.287 3692
0.260 1.268 1.278 6528
0.260 1.271 1.274 8082
0.261 1.274 1.271 8060
0.262 1.277 1.267 7242
0.262 1.280 1.263 7110
0.264 1.290 1.264 6834
0.333 1.627 1.543 6033
0.334 1.631 1.538 7329
0.335 1.635 1.533 6331
0.338 1.651 1.538 4356
0.341 1.667 1.543 3521
0.342 1.671 1.538 4556
0.343 1.675 1.533 5799
0.345 1.685 1.533 5118
0.347 1.695 1.533 3343
0.349 1.705 1.533 1796
0.276 1.348 1.240 1830
0.276 1.345 1.231 2196
0.275 1.342 1.222 2567
0.277 1.352 1.223 2169
0.277 1.355 1.219 1710
0.219 1.067 0.990 1731
0.218 1.063 0.982 1360
0.223 1.091 0.998 1621
0.223 1.087 0.990 2392
0.221 1.077 0.977 2490
0.216 1.054 0.955 3695
0.216 1.056 0.952 5669
0.217 1.059 0.948 7517
0.217 1.061 0.945 10022
0.218 1.063 0.942 13187
0.218 1.066 0.939 15164
0.219 1.068 0.936 15962
0.219 1.070 0.932 16442
0.218 1.066 0.925 16441
0.219 1.068 0.921 15392
0.219 1.070 0.918 14304
0.220 1.073 0.915 13398
0.220 1.075 0.912 11158
0.221 1.077 0.908 8403
0.221 1.079 0.905 5975
0.235 1.146 0.946 6467
0.238 1.161 0.951 6827
0.240 1.170 0.952 7148
0.240 1.172 0.948 7443
0.238 1.161 0.936 8115
0.237 1.157 0.928 7199
0.236 1.153 0.920 6278
0.239 1.168 0.925 6611
0.240 1.170 0.922 6294
0.237 1.159 0.910 5403
0.242 1.181 0.919 5978
0.242 1.183 0.915 6784
0.241 1.179 0.908 6110
0.242 1.181 0.904 4639
0.244 1.190 0.905 3118
0.243 1.185 0.897 2246
0.245 1.194 0.897 1602
0.246 1.203 0.898 1166
0.248 1.212 0.898 1276
0.250 1.221 0.899 1846
0.249 1.216 0.891 1967
0.247 1.205 0.879 2069
0.246 1.200 0.872 1604
0.246 1.202 0.868 1148
0.248 1.211 0.868 1139
0.248 1.213 0.865 1572
0.249 1.215 0.861 2005
0.249 1.217 0.857 1769
0.252 1.233 0.861 1740
0.253 1.235 0.857 2011
0.255 1.244 0.858 2214
0.255 1.246 0.854 2444
0.257 1.254 0.854 2103
0.260 1.270 0.857 2017
0.261 1.272 0.854 2185
0.261 1.274 0.850 2373
0.261 1.276 0.846 2606
0.260 1.271 0.838 2312
0.519 2.533 1.502 2136
0.510 2.488 1.469 2439
0.519 2.534 1.483 3204
0.520 2.537 1.476 4156
0.525 2.562 1.479 4719
0.527 2.573 1.474 5856
0.528 2.576 1.467 5700
0.530 2.587 1.462 5583
0.529 2.584 1.451 5687
0.530 2.588 1.443 5797
0.534 2.605 1.443 4830
0.549 2.679 1.469 5164
0.549 2.683 1.461 5164
0.550 2.686 1.453 5675
0.552 2.697 1.448 6204
0.550 2.687 1.433 5678
0.551 2.691 1.425 5228
0.556 2.715 1.427 5606
0.558 2.726 1.422 6512
0.559 2.730 1.414 5332
0.560 2.733 1.406 4153
0.561 2.737 1.397 4153
0.567 2.769 1.402 4043
0.572 2.794 1.403 4888
0.573 2.797 1.395 2444
0.302 1.475 0.805 289
0.132 0.637 1.652 19749
0.133 0.641 1.650 17122
0.134 0.645 1.648 14496
0.135 0.650 1.646 13147
0.135 0.651 1.637 11968
0.136 0.655 1.635 12453
0.138 0.662 1.640 16405
0.139 0.667 1.638 20251
0.140 0.674 1.643 21385
0.141 0.679 1.641 23083
0.143 0.686 1.646 21837
0.144 0.691 1.644 21369
0.145 0.695 1.642 19109
0.145 0.699 1.640 16849
0.146 0.703 1.638 15652
0.147 0.708 1.635 15182
0.148 0.712 1.633 15164
0.150 0.720 1.638 15521
0.151 0.724 1.636 16698
0.151 0.728 1.634 15359
0.152 0.729 1.624 14032
0.153 0.733 1.622 11157
0.153 0.737 1.620 8146
0.155 0.745 1.625 7443
0.155 0.746 1.615 7286
0.157 0.753 1.620 10341
0.158 0.758 1.618 12852
0.159 0.766 1.622 14242
0.161 0.773 1.627 12946
0.163 0.781 1.631 10353
0.164 0.789 1.636 7592
0.165 0.794 1.634 4662
0.166 0.798 1.631 8221
0.167 0.802 1.629 11781
0.168 0.806 1.626 16329
0.169 0.811 1.624 20870
0.170 0.819 1.628 19447
0.171 0.823 1.626 16174
0.171 0.823 1.616 14198
0.173 0.831 1.621 15291
0.176 0.844 1.632 16944
0.176 0.848 1.629 13092
0.178 0.856 1.633 11153
0.179 0.860 1.631 13047
0.181 0.869 1.635 13680
0.182 0.877 1.639 14977
0.183 0.881 1.636 15243
0.185 0.889 1.640 15342
0.187 0.898 1.644 15081
0.188 0.902 1.641 16075
0.189 0.906 1.639 20000
0.189 0.911 1.636 22930
0.190 0.915 1.633 25920
0.191 0.919 1.630 28725
0.192 0.923 1.627 28726
0.192 0.923 1.618 26393
0.193 0.927 1.615 23818
0.194 0.932 1.612 22517
0.196 0.940 1.616 21644
0.196 0.944 1.613 15627
0.198 0.953 1.617 6728
0.193 0.927 1.568 5271
0.203 0.974 1.631 6435
0.204 0.979 1.628 8735
0.205 0.983 1.625 9028
0.206 0.992 1.628 6831
0.210 1.009 1.644 6840
0.211 1.013 1.641 7794
0.211 1.013 1.632 6225
0.212 1.017 1.629 7408
0.213 1.022 1.626 9303
0.215 1.035 1.635 9697
0.215 1.035 1.626 11508
0.216 1.039 1.623 15004
0.218 1.048 1.626 16998
0.218 1.047 1.616 13856
0.219 1.051 1.613 7871
0.220 1.056 1.610 6640
0.221 1.064 1.613 8303
0.224 1.078 1.622 11456
0.225 1.082 1.619 17446
0.225 1.082 1.610 22116
0.227 1.091 1.612 19443
0.229 1.100 1.615 15967
0.230 1.104 1.612 19412
0.232 1.113 1.615 19018
0.233 1.122 1.618 17637
0.235 1.131 1.620 17359
0.236 1.135 1.617 18000
0.237 1.139 1.614 21488
0.239 1.148 1.616 22871
0.240 1.152 1.613 25897
0.241 1.157 1.609 29008
0.243 1.166 1.612 26547
0.243 1.170 1.608 21984
0.245 1.179 1.611 16910
0.247 1.188 1.613 15529
0.248 1.192 1.610 18334
0.249 1.197 1.606 17921
0.250 1.201 1.602 10833
0.248 1.190 1.581 10031
0.249 1.199 1.583 12998
0.253 1.218 1.597 10878
0.258 1.238 1.611 10306
0.259 1.247 1.614 12902
0.260 1.251 1.610 12925
0.260 1.250 1.600 12450
0.261 1.254 1.596 14249
0.262 1.259 1.593 11833
0.263 1.263 1.589 8034
0.266 1.277 1.597 7100
0.266 1.276 1.587 8208
0.266 1.280 1.583 11929
0.267 1.284 1.579 11164
0.268 1.288 1.575 7874
0.270 1.298 1.577 7224
0.271 1.302 1.573 15849
0.272 1.306 1.569 26208
0.274 1.315 1.571 35261
0.275 1.319 1.567 36952
0.277 1.329 1.569 30973
0.278 1.338 1.570 23580
0.282 1.353 1.577 21237
0.282 1.357 1.573 27807
0.283 1.361 1.569 24811
0.289 1.387 1.588 17603
0.292 1.403 1.594 12810
0.290 1.396 1.579 26354
0.290 1.394 1.569 35618
0.291 1.398 1.565 24888
0.293 1.408 1.566 21091
0.295 1.417 1.568 16632
0.297 1.427 1.569 13650
0.298 1.431 1.564 9816
0.294 1.413 1.538 7129
0.298 1.434 1.550 9819
0.300 1.443 1.551 9114
0.302 1.453 1.552 5014
0.303 1.457 1.548 3581
0.305 1.467 1.549 3002
0.306 1.471 1.545 2804
0.177 0.850 0.959 2536
0.241 1.157 1.238 1858
0.241 1.160 1.235 1516
0.314 1.510 1.548 1548
0.317 1.525 1.554 1759
0.178 0.856 0.941 1884
0.179 0.858 0.938 1780
0.326 1.566 1.566 1962
0.327 1.570 1.561 3213
0.329 1.580 1.562 4637
0.264 1.267 1.278 6530
0.264 1.270 1.274 8094
0.331 1.592 1.547 8789
0.333 1.602 1.547 9246
0.266 1.280 1.263 7186
0.268 1.289 1.264 6781
0.338 1.626 1.543 8445
0.339 1.630 1.538 10116
0.340 1.634 1.533 8693
0.343 1.650 1.538 6348
0.347 1.666 1.543 5351
0.347 1.670 1.538 6488
0.348 1.674 1.533 7642
0.350 1.684 1.533 6560
0.352 1.694 1.533 4340
0.355 1.704 1.533 2290
0.280 1.348 1.240 1808
0.280 1.345 1.231 2091
0.279 1.342 1.222 2423
0.281 1.351 1.223 2016
0.283 1.360 1.224 1653
0.223 1.073 0.995 1746
0.226 1.087 1.001 1368
0.228 1.096 1.002 1826
0.227 1.092 0.994 2653
0.224 1.076 0.977 2886
0.220 1.060 0.960 4450
0.220 1.056 0.952 6762
0.220 1.058 0.948 9044
0.221 1.060 0.945 12095
0.221 1.063 0.942 15522
0.222 1.065 0.939 17497
0.222 1.067 0.936 18072
0.222 1.069 0.932 17989
0.223 1.072 0.929 17302
0.222 1.067 0.921 15819
0.223 1.070 0.918 14409
0.223 1.072 0.915 13012
0.223 1.074 0.912 10377
0.224 1.076 0.908 7504
0.238 1.143 0.949 5538
0.240 1.151 0.950 6694
0.241 1.160 0.951 7489
0.243 1.169 0.952 7797
0.244 1.171 0.948 8011
0.243 1.167 0.940 8251
0.242 1.163 0.933 6747
0.242 1.165 0.929 5487
0.244 1.174 0.930 6272
0.245 1.176 0.926 6312
0.245 1.178 0.923 5118
0.246 1.180 0.919 5752
0.246 1.183 0.915 6406
0.245 1.178 0.908 5774
0.246 1.180 0.904 4337
0.247 1.189 0.905 2984
0.248 1.191 0.901 2188
0.250 1.200 0.901 1566
0.250 1.202 0.898 1199
0.252 1.211 0.898 1373
0.254 1.220 0.899 1948
0.253 1.215 0.891 1980
0.252 1.211 0.883 1956
0.251 1.206 0.876 1456
0.251 1.208 0.872 944
0.252 1.210 0.868 883
0.252 1.212 0.865 1285
0.254 1.221 0.865 1709
0.256 1.230 0.865 1554
0.258 1.239 0.865 1663
0.258 1.241 0.861 1982
0.260 1.250 0.861 2256
0.260 1.252 0.858 2551
0.261 1.254 0.854 2350
0.264 1.269 0.857 2408
0.265 1.271 0.854 2499
0.265 1.273 0.850 2567
0.265 1.275 0.846 2779
0.266 1.277 0.842 2506
0.265 1.272 0.834 2265
0.517 2.487 1.469 2741
0.527 2.532 1.483 3197
0.528 2.536 1.476 4151
0.531 2.553 1.475 4815
0.534 2.564 1.471 5858
0.536 2.575 1.467 5749
0.538 2.586 1.462 5723
0.537 2.582 1.451 5867
0.538 2.586 1.443 6066
0.542 2.604 1.443 5120
0.550 2.642 1.452 5455
0.551 2.646 1.444 5455
0.557 2.678 1.449 5677
0.559 2.688 1.445 6165
0.559 2.685 1.433 5880
0.559 2.689 1.425 5613
0.562 2.699 1.420 5734
0.565 2.717 1.419 6183
0.568 2.728 1.414 4973
0.568 2.732 1.406 3824
0.569 2.735 1.397 3824
0.577 2.774 1.405 3798
0.582 2.799 1.406 4642
0.583 2.803 1.398 2321
0.308 1.482 0.808 278
0.134 0.636 1.652 19104
0.135 0.641 1.650 16636
0.136 0.645 1.648 14167
0.137 0.649 1.646 12771
0.137 0.650 1.637 11491
0.138 0.655 1.635 12002
0.140 0.662 1.640 16235
0.141 0.666 1.638 20301
0.142 0.674 1.643 21666
0.143 0.678 1.641 23546
0.145 0.686 1.646 21965
0.146 0.690 1.644 21160
0.147 0.694 1.642 18402
0.147 0.699 1.640 15645
0.148 0.703 1.638 14325
0.149 0.707 1.635 13545
0.150 0.711 1.633 13477
0.152 0.719 1.638 14106
0.153 0.723 1.636 15448
0.154 0.728 1.634 14474
0.154 0.732 1.631 13501
0.155 0.736 1.629 10776
0.156 0.740 1.627 8052
0.157 0.745 1.625 6998
0.158 0.749 1.622 6343
0.159 0.753 1.620 9414
0.160 0.757 1.618 12017
0.161 0.765 1.622 13541
0.163 0.773 1.627 12572
0.165 0.781 1.631 10197
0.166 0.785 1.629 7279
0.167 0.793 1.634 4230
0.168 0.797 1.631 7692
0.169 0.802 1.629 11155
0.170 0.806 1.626 16089
0.171 0.810 1.624 21001
0.173 0.818 1.628 19779
0.174 0.822 1.626 16487
0.174 0.823 1.616 14453
0.175 0.831 1.621 15586
0.177 0.839 1.625 17253
0.179 0.847 1.629 13199
0.181 0.855 1.633 10890
0.181 0.860 1.631 12607
0.183 0.868 1.635 13227
0.185 0.876 1.639 14576
0.186 0.881 1.636 14753
0.188 0.889 1.640 14395
0.189 0.897 1.644 13784
0.190 0.902 1.641 14713
0.191 0.906 1.639 18775
0.192 0.910 1.636 21908
0.193 0.914 1.633 25436
0.194 0.919 1.630 29489
0.195 0.923 1.627 30215
0.195 0.923 1.618 28110
0.196 0.927 1.615 25326
0.196 0.931 1.612 23316
0.198 0.940 1.616 22266
0.200 0.948 1.620 16103
0.202 0.957 1.623 6865
0.199 0.943 1.594 5540
0.205 0.969 1.624 6949
0.206 0.978 1.628 9321
0.207 0.982 1.625 9027
0.209 0.991 1.628 7121
0.212 1.004 1.638 7426
0.214 1.013 1.641 8334
0.214 1.013 1.632 5903
0.215 1.017 1.629 5254
0.215 1.021 1.626 6452
0.219 1.039 1.642 7056
0.218 1.034 1.626 9234
0.219 1.038 1.623 12444
0.221 1.047 1.626 13851
0.222 1.051 1.623 11541
0.222 1.051 1.613 7486
0.224 1.060 1.616 7620
0.224 1.064 1.613 8907
0.226 1.073 1.616 10754
0.228 1.082 1.619 15236
0.228 1.081 1.610 19980
0.229 1.085 1.606 19195
0.232 1.099 1.615 16268
0.233 1.103 1.612 19210
0.234 1.107 1.609 18682
0.237 1.121 1.618 17324
0.238 1.130 1.620 18077
0.239 1.134 1.617 19182
0.240 1.139 1.614 22694
0.242 1.148 1.616 23367
0.243 1.152 1.613 26081
0.244 1.156 1.609 30161
0.245 1.160 1.606 29259
0.246 1.164 1.602 25874
0.248 1.173 1.605 20000
0.251 1.188 1.613 16996
0.251 1.192 1.610 19402
0.252 1.196 1.606 19295
0.253 1.200 1.602 11782
0.251 1.189 1.581 9955
0.253 1.198 1.583 13359
0.257 1.218 1.597 12786
0.261 1.237 1.611 11983
0.263 1.246 1.614 11354
0.263 1.245 1.604 9813
0.263 1.244 1.594 11026
0.265 1.254 1.596 14016
0.265 1.258 1.593 11720
0.266 1.262 1.589 7913
0.270 1.282 1.602 7402
0.270 1.281 1.593 9543
0.270 1.280 1.583 14299
0.271 1.284 1.579 13593
0.272 1.288 1.575 9403
0.274 1.297 1.577 6688
0.275 1.301 1.573 13271
0.275 1.305 1.569 22758
0.276 1.309 1.565 30989
0.278 1.319 1.567 33098
0.280 1.328 1.569 29748
0.282 1.338 1.570 23766
0.285 1.353 1.577 19893
0.286 1.357 1.573 27148
0.287 1.361 1.569 26213
0.290 1.376 1.576 17184
0.293 1.391 1.583 11348
0.293 1.389 1.574 25262
0.294 1.393 1.569 31451
0.295 1.397 1.565 19867
0.297 1.407 1.566 17204
0.300 1.422 1.573 16938
0.302 1.432 1.574 16373
0.303 1.436 1.570 12057
0.301 1.429 1.555 7838
0.302 1.433 1.550 9905
0.304 1.442 1.551 8704
0.177 0.840 0.969 5120
0.178 0.843 0.967 4790
0.178 0.845 0.964 3221
0.179 0.847 0.962 2135
0.179 0.850 0.959 2009
0.244 1.156 1.238 2690
0.245 1.159 1.235 2118
0.320 1.514 1.553 1735
0.322 1.524 1.554 2128
0.324 1.534 1.554 2023
0.327 1.550 1.560 1839
0.330 1.565 1.566 2680
0.331 1.569 1.561 4674
0.333 1.579 1.562 6550
0.334 1.583 1.557 7196
0.335 1.587 1.552 8810
0.336 1.591 1.547 11916
0.337 1.595 1.542 12459
0.339 1.605 1.543 8376
0.341 1.615 1.543 7403
0.342 1.619 1.538 11705
0.344 1.629 1.538 13708
0.346 1.639 1.538 11714
0.348 1.649 1.538 8748
0.351 1.665 1.543 7643
0.352 1.669 1.538 8974
0.353 1.673 1.533 9935
0.355 1.683 1.533 8339
0.357 1.693 1.533 5665
0.359 1.703 1.533 3045
0.284 1.347 1.240 1765
0.284 1.344 1.231 1974
0.283 1.341 1.222 2242
0.285 1.350 1.223 1815
0.287 1.359 1.224 1549
0.228 1.078 1.000 1569
0.229 1.087 1.001 1383
0.231 1.095 1.002 1951
0.232 1.098 0.999 2755
0.227 1.075 0.977 3101
0.223 1.059 0.960 5038
0.223 1.055 0.952 7656
0.223 1.057 0.948 10374
0.224 1.060 0.945 13902
0.224 1.062 0.942 17445
0.225 1.064 0.939 19352
0.225 1.066 0.936 19697
0.226 1.069 0.932 19055
0.226 1.071 0.929 17735
0.225 1.067 0.921 15808
0.226 1.069 0.918 14137
0.226 1.071 0.915 12339
0.227 1.073 0.912 9368
0.227 1.076 0.908 6501
0.241 1.142 0.949 5086
0.243 1.151 0.950 6754
0.245 1.159 0.951 7909
0.247 1.168 0.952 8155
0.247 1.170 0.948 8340
0.246 1.166 0.940 8415
0.247 1.169 0.937 6767
0.247 1.171 0.933 5265
0.249 1.180 0.934 6208
0.249 1.182 0.930 6574
0.250 1.184 0.927 5264
0.249 1.180 0.919 5492
0.249 1.182 0.915 5866
0.248 1.177 0.908 5294
0.249 1.180 0.904 3939
0.252 1.195 0.909 2827
0.253 1.197 0.905 2081
0.253 1.199 0.901 1533
0.254 1.201 0.898 1219
0.258 1.224 0.906 1481
0.259 1.226 0.903 2065
0.258 1.221 0.895 2077
0.257 1.217 0.887 2024
0.256 1.212 0.880 1513
0.255 1.207 0.872 944
0.259 1.230 0.880 861
0.258 1.225 0.872 1201
0.260 1.234 0.873 1664
0.262 1.243 0.873 1635
0.263 1.245 0.869 1775
0.263 1.247 0.865 2078
0.264 1.249 0.861 2363
0.264 1.251 0.858 2649
0.266 1.260 0.858 2562
0.266 1.262 0.854 2707
0.268 1.270 0.854 2745
0.270 1.279 0.853 2750
0.269 1.274 0.846 2931
0.269 1.276 0.842 2756
0.270 1.278 0.838 2580
0.524 2.485 1.469 3092
0.527 2.496 1.465 3323
0.535 2.534 1.476 4101
0.539 2.552 1.475 4794
0.541 2.563 1.471 5741
0.543 2.573 1.467 5517
0.545 2.584 1.462 5534
0.545 2.581 1.451 5846
0.545 2.584 1.443 6278
0.549 2.602 1.443 5419
0.556 2.634 1.448 5949
0.557 2.637 1.440 5949
0.562 2.662 1.443 5792
0.566 2.680 1.441 6123
0.566 2.684 1.433 6115
0.567 2.687 1.425 6108
0.568 2.691 1.417 6047
0.570 2.702 1.412 6081
0.574 2.719 1.411 4617
0.576 2.730 1.406 3479
0.577 2.733 1.397 3479
0.591 2.801 1.418 3940
0.592 2.804 1.410 4647
0.593 2.808 1.401 2323
0.311 1.474 0.805 275
0.136 0.636 1.652 18560
0.137 0.640 1.650 16279
0.137 0.645 1.648 13997
0.138 0.649 1.646 12406
0.139 0.650 1.637 10889
0.140 0.654 1.635 11303
0.141 0.662 1.640 15726
0.142 0.666 1.638 19943
0.144 0.674 1.643 21524
0.145 0.678 1.641 23516
0.146 0.686 1.646 21652
0.147 0.690 1.644 20573
0.148 0.694 1.642 17422
0.149 0.698 1.640 14272
0.151 0.706 1.645 13036
0.151 0.707 1.635 11943
0.152 0.711 1.633 11817
0.153 0.719 1.638 12650
0.154 0.723 1.636 14089
0.155 0.727 1.634 13479
0.156 0.732 1.631 12870
0.157 0.736 1.629 10384
0.158 0.740 1.627 7899
0.159 0.744 1.625 6531
0.160 0.748 1.622 5589
0.161 0.753 1.620 8662
0.162 0.761 1.625 11427
0.163 0.765 1.622 12981
0.165 0.773 1.627 12052
0.166 0.781 1.631 9765
0.167 0.785 1.629 6859
0.168 0.789 1.627 3850
0.170 0.797 1.631 7264
0.171 0.801 1.629 10716
0.172 0.806 1.626 15901
0.173 0.810 1.624 21113
0.174 0.818 1.628 20127
0.174 0.818 1.619 16632
0.175 0.822 1.616 14254
0.177 0.831 1.621 15455
0.179 0.839 1.625 17165
0.181 0.847 1.629 13088
0.182 0.855 1.633 10588
0.183 0.859 1.631 12099
0.185 0.868 1.635 12820
0.187 0.876 1.639 14297
0.188 0.880 1.636 14440
0.189 0.888 1.640 13595
0.191 0.897 1.644 12552
0.192 0.901 1.641 13336
0.193 0.905 1.639 17374
0.194 0.910 1.636 20628
0.195 0.914 1.633 24626
0.196 0.918 1.630 29767
0.197 0.922 1.627 31120
0.197 0.922 1.618 29152
0.198 0.927 1.615 26212
0.199 0.935 1.619 23759
0.200 0.939 1.616 22679
0.202 0.948 1.620 16815
0.205 0.961 1.630 8426
0.201 0.943 1.594 6458
0.207 0.969 1.624 7997
0.208 0.978 1.628 9632
0.210 0.986 1.631 8721
0.212 0.995 1.635 7366
0.214 1.004 1.638 8126
0.215 1.008 1.635 8735
0.217 1.017 1.638 5796
0.218 1.021 1.635 3607
0.218 1.021 1.626 4374
0.219 1.025 1.623 5366
0.219 1.029 1.619 7727
0.221 1.038 1.623 10185
0.223 1.047 1.626 11068
0.224 1.051 1.623 9626
0.224 1.050 1.613 7136
0.226 1.059 1.616 8213
0.227 1.063 1.613 8905
0.229 1.072 1.616 9699
0.230 1.076 1.613 12990
0.230 1.081 1.610 17936
0.232 1.090 1.612 18757
0.233 1.094 1.609 16346
0.234 1.098 1.606 18706
0.236 1.107 1.609 17983
0.239 1.121 1.618 16623
0.241 1.130 1.620 18328
0.243 1.139 1.623 20224
0.243 1.138 1.614 23650
0.244 1.142 1.610 23399
0.246 1.151 1.613 25449
0.246 1.155 1.609 30385
0.247 1.160 1.606 30952
0.248 1.164 1.602 28507
0.250 1.173 1.605 21964
0.253 1.187 1.613 17804
0.254 1.191 1.610 20065
0.255 1.195 1.606 20355
0.257 1.205 1.608 13158
0.255 1.194 1.587 10512
0.255 1.198 1.583 13947
0.260 1.217 1.597 14735
0.263 1.231 1.606 14676
0.265 1.241 1.608 11486
0.264 1.240 1.598 8465
0.265 1.244 1.594 10432
0.267 1.253 1.596 13991
0.267 1.252 1.587 12301
0.269 1.261 1.589 9047
0.273 1.281 1.602 9256
0.273 1.280 1.593 10997
0.273 1.279 1.583 14991
0.274 1.283 1.579 14563
0.274 1.287 1.575 10045
0.276 1.296 1.577 6943
0.277 1.301 1.573 11478
0.278 1.305 1.569 18472
0.279 1.309 1.565 25694
0.281 1.318 1.567 27981
0.283 1.328 1.569 27860
0.285 1.337 1.570 23663
0.288 1.352 1.577 18707
0.289 1.356 1.573 26116
0.290 1.360 1.569 26330
0.292 1.370 1.571 17021
0.293 1.374 1.567 11129
0.296 1.389 1.574 23537
0.297 1.393 1.569 26485
0.298 1.397 1.565 15595
0.300 1.406 1.566 14453
0.304 1.427 1.579 16628
0.305 1.431 1.574 18293
0.306 1.435 1.570 14582
0.306 1.434 1.560 9737
0.307 1.438 1.556 9973
0.306 1.436 1.546 7785
0.179 0.840 0.969 6329
0.180 0.842 0.967 5947
0.180 0.845 0.964 4104
0.181 0.847 0.962 2206
0.245 1.147 1.236 2505
0.246 1.156 1.238 3772
0.247 1.159 1.235 2931
0.324 1.520 1.558 1894
0.326 1.529 1.559 2424
0.327 1.533 1.554 2367
0.330 1.549 1.560 2106
0.334 1.565 1.566 3467
0.335 1.569 1.561 6259
0.335 1.573 1.556 8563
0.338 1.583 1.557 9330
0.338 1.587 1.552 11440
0.339 1.591 1.547 15263
0.340 1.595 1.542 15953
0.342 1.605 1.543 10791
0.344 1.614 1.543 9600
0.345 1.618 1.538 15050
0.347 1.628 1.538 17342
0.349 1.638 1.538 14916
0.352 1.648 1.538 11423
0.355 1.664 1.543 10094
0.356 1.668 1.538 11616
0.357 1.672 1.533 12418
0.359 1.682 1.533 10236
0.361 1.692 1.533 7167
0.363 1.702 1.533 3993
0.365 1.712 1.532 1925
0.286 1.343 1.231 1815
0.286 1.340 1.222 2001
0.366 1.718 1.512 1674
0.290 1.359 1.224 1413
0.231 1.084 1.004 1562
0.232 1.086 1.001 1533
0.234 1.095 1.002 2027
0.235 1.104 1.004 2786
0.229 1.075 0.977 3078
0.226 1.059 0.960 5173
0.225 1.055 0.952 7925
0.225 1.057 0.948 10983
0.226 1.059 0.945 14895
0.226 1.061 0.942 18521
0.227 1.064 0.939 20368
0.227 1.066 0.936 20487
0.228 1.068 0.932 19335
0.228 1.070 0.929 17471
0.227 1.066 0.921 15178
0.228 1.069 0.918 13286
0.228 1.071 0.915 11224
0.229 1.073 0.912 8191
0.229 1.075 0.908 5479
0.245 1.148 0.954 4611
0.245 1.150 0.950 6532
0.247 1.159 0.951 7955
0.249 1.168 0.952 8090
0.250 1.170 0.948 8331
0.250 1.172 0.945 8550
0.250 1.174 0.941 7223
0.251 1.177 0.938 5640
0.253 1.186 0.938 6524
0.253 1.188 0.935 7028
0.252 1.183 0.927 5590
0.253 1.186 0.923 5335
0.253 1.188 0.920 5396
0.252 1.183 0.912 4856
0.254 1.192 0.912 3576
0.258 1.208 0.917 2778
0.257 1.203 0.909 2013
0.257 1.205 0.906 1502
0.262 1.227 0.914 1268
0.262 1.230 0.910 1563
0.261 1.225 0.903 2149
0.260 1.221 0.895 2156
0.259 1.216 0.887 2078
0.260 1.218 0.883 1568
0.259 1.214 0.876 961
0.262 1.229 0.880 870
0.263 1.231 0.876 1241
0.264 1.240 0.876 1778
0.265 1.242 0.873 1847
0.267 1.251 0.873 2017
0.267 1.253 0.869 2242
0.268 1.255 0.865 2480
0.268 1.257 0.861 2718
0.269 1.259 0.858 2688
0.269 1.261 0.854 2872
0.271 1.270 0.854 2890
0.273 1.279 0.853 2882
0.273 1.281 0.850 3070
0.272 1.276 0.842 2991
0.273 1.278 0.838 2939
0.530 2.484 1.469 3334
0.531 2.488 1.462 3579
0.542 2.540 1.479 3976
0.544 2.551 1.475 4724
0.545 2.554 1.467 5595
0.547 2.565 1.463 5235
0.551 2.583 1.462 5188
0.550 2.580 1.451 5708
0.551 2.583 1.443 6380
0.556 2.608 1.446 5735
0.561 2.633 1.448 6559
0.562 2.636 1.440 6559
0.566 2.654 1.439 6026
0.571 2.679 1.441 6077
0.572 2.682 1.433 6284
0.573 2.686 1.425 6491
0.574 2.690 1.417 6321
0.574 2.693 1.409 6151
0.574 2.690 1.398 4388
0.597 2.799 1.438 3611
0.598 2.803 1.430 3611
0.597 2.800 1.418 4099
0.598 2.803 1.410 4660
0.599 2.807 1.401 2330
0.316 1.480 0.808 283
0.137 0.636 1.652 17986
0.138 0.640 1.650 15943
0.139 0.644 1.648 13899
0.140 0.649 1.646 12122
0.140 0.650 1.637 10361
0.141 0.654 1.635 10685
0.143 0.661 1.640 15335
0.144 0.666 1.638 19716
0.145 0.673 1.643 21443
0.146 0.678 1.641 23489
0.148 0.685 1.646 21384
0.149 0.689 1.644 20066
0.150 0.694 1.642 16450
0.151 0.701 1.647 12922
0.152 0.706 1.645 11780
0.153 0.710 1.642 10481
0.153 0.711 1.633 10341
0.155 0.718 1.638 11456
0.156 0.723 1.636 13027
0.157 0.727 1.634 12761
0.158 0.731 1.631 12496
0.159 0.735 1.629 10291
0.160 0.740 1.627 8086
0.161 0.744 1.625 6483
0.161 0.748 1.622 5309
0.162 0.752 1.620 8260
0.164 0.760 1.625 10958
0.166 0.768 1.629 12227
0.167 0.772 1.627 11277
0.168 0.780 1.631 9173
0.169 0.784 1.629 6450
0.170 0.789 1.627 3671
0.172 0.797 1.631 6882
0.173 0.801 1.629 10267
0.174 0.805 1.626 15802
0.176 0.813 1.631 21378
0.176 0.817 1.628 20621
0.176 0.818 1.619 16881
0.177 0.822 1.616 14108
0.179 0.830 1.621 15344
0.181 0.838 1.625 17124
0.183 0.846 1.629 13131
0.184 0.855 1.633 10712
0.185 0.859 1.631 12193
0.187 0.867 1.635 12981
0.189 0.875 1.639 14441
0.190 0.880 1.636 14198
0.192 0.888 1.640 12790
0.193 0.896 1.644 11438
0.194 0.901 1.641 12010
0.195 0.905 1.639 15943
0.196 0.909 1.636 19304
0.197 0.913 1.633 23632
0.198 0.918 1.630 29703
0.199 0.922 1.627 31640
0.199 0.922 1.618 29744
0.200 0.926 1.615 26821
0.202 0.934 1.619 24320
0.203 0.939 1.616 23234
0.204 0.947 1.620 17929
0.207 0.960 1.630 10614
0.205 0.951 1.607 7867
0.208 0.964 1.618 9298
0.210 0.973 1.621 9957
0.213 0.986 1.631 8563
0.215 0.994 1.635 7893
0.216 0.999 1.632 9086
0.217 1.007 1.635 9157
0.219 1.016 1.638 5730
0.197 0.912 1.481 3020
0.219 1.016 1.619 3878
0.220 1.020 1.616 5262
0.221 1.024 1.613 7104
0.223 1.033 1.616 8680
0.226 1.046 1.626 8713
0.228 1.055 1.629 7903
0.228 1.054 1.619 6883
0.228 1.059 1.616 8391
0.229 1.063 1.613 8441
0.231 1.072 1.616 8411
0.232 1.076 1.613 10785
0.233 1.080 1.610 15814
0.235 1.089 1.612 18051
0.236 1.093 1.609 16395
0.237 1.097 1.606 18210
0.239 1.106 1.609 16829
0.242 1.120 1.618 15379
0.245 1.134 1.627 18124
0.246 1.138 1.623 21111
0.245 1.137 1.614 24490
0.246 1.142 1.610 23099
0.248 1.151 1.613 24261
0.249 1.155 1.609 29921
0.250 1.159 1.606 31896
0.251 1.163 1.602 30309
0.253 1.172 1.605 23090
0.256 1.186 1.613 18113
0.257 1.191 1.610 20421
0.258 1.195 1.606 20936
0.260 1.204 1.608 14439
0.259 1.198 1.593 11507
0.258 1.197 1.583 14443
0.263 1.216 1.597 16042
0.266 1.231 1.606 17287
0.268 1.240 1.608 12868
0.266 1.234 1.592 8608
0.268 1.243 1.594 10360
0.270 1.252 1.596 14000
0.270 1.251 1.587 13162
0.272 1.261 1.589 10661
0.275 1.275 1.597 11332
0.276 1.279 1.593 11744
0.276 1.278 1.583 14163
0.277 1.282 1.579 14188
0.278 1.286 1.575 9824
0.280 1.296 1.577 6979
0.282 1.305 1.579 9769
0.281 1.304 1.569 14230
0.282 1.308 1.565 20564
0.284 1.317 1.567 22805
0.286 1.327 1.569 25823
0.288 1.336 1.570 22982
0.292 1.351 1.577 17234
0.292 1.355 1.573 24696
0.293 1.359 1.569 26588
0.294 1.363 1.565 18864
0.294 1.362 1.555 14142
0.300 1.388 1.574 21922
0.302 1.398 1.575 21773
0.302 1.402 1.571 13347
0.305 1.411 1.572 13535
0.308 1.426 1.579 16293
0.310 1.436 1.580 19753
0.311 1.440 1.575 16930
0.310 1.439 1.566 12137
0.311 1.443 1.561 10055
0.310 1.435 1.546 6664
0.181 0.839 0.969 7454
0.182 0.842 0.967 6896
0.183 0.850 0.970 4954
0.184 0.852 0.967 2610
0.247 1.146 1.236 3692
0.248 1.149 1.233 5162
0.250 1.158 1.235 4037
0.328 1.519 1.558 1999
0.330 1.529 1.559 2753
0.331 1.533 1.554 2847
0.334 1.548 1.560 2470
0.338 1.564 1.566 4277
0.338 1.568 1.561 7709
0.339 1.572 1.556 10397
0.341 1.582 1.557 11625
0.342 1.586 1.552 14556
0.343 1.590 1.547 19004
0.344 1.594 1.542 19858
0.345 1.598 1.538 13876
0.347 1.608 1.538 12191
0.349 1.618 1.538 18625
0.351 1.628 1.538 21265
0.353 1.638 1.538 18628
0.356 1.647 1.538 14620
0.359 1.663 1.543 12833
0.360 1.667 1.538 14450
0.361 1.671 1.533 15042
0.363 1.681 1.533 12216
0.365 1.691 1.533 8769
0.367 1.701 1.533 5081
0.369 1.711 1.532 2814
0.370 1.715 1.527 2651
0.371 1.719 1.522 2592
0.371 1.717 1.512 2015
0.293 1.358 1.224 1304
0.234 1.083 1.004 1670
0.234 1.086 1.001 1767
0.236 1.094 1.002 2078
0.239 1.109 1.009 2908
0.235 1.087 0.986 2934
0.228 1.058 0.960 4946
0.227 1.054 0.952 7752
0.228 1.056 0.948 11050
0.228 1.059 0.945 15242
0.229 1.061 0.942 18923
0.229 1.063 0.939 20698
0.230 1.065 0.936 20567
0.230 1.068 0.932 18954
0.231 1.070 0.929 16639
0.230 1.066 0.921 14084
0.230 1.068 0.918 12058
0.231 1.070 0.915 9853
0.231 1.072 0.912 6885
0.232 1.075 0.908 4416
0.249 1.154 0.958 4356
0.249 1.156 0.955 6259
0.250 1.158 0.951 7731
0.252 1.167 0.952 7698
0.252 1.169 0.948 8045
0.253 1.172 0.945 8719
0.255 1.180 0.945 8125
0.255 1.183 0.942 6678
0.257 1.191 0.943 7361
0.258 1.194 0.939 7676
0.257 1.189 0.931 6095
0.256 1.185 0.923 5184
0.256 1.187 0.920 4846
0.257 1.189 0.916 4431
0.260 1.205 0.921 3443
0.262 1.214 0.921 2887
0.264 1.222 0.922 2065
0.266 1.231 0.922 1565
0.265 1.227 0.914 1371
0.265 1.229 0.910 1671
0.264 1.225 0.903 2243
0.263 1.220 0.895 2245
0.264 1.222 0.891 2164
0.263 1.218 0.883 1677
0.263 1.220 0.880 1037
0.265 1.228 0.880 907
0.267 1.237 0.880 1336
0.267 1.239 0.876 1915
0.269 1.248 0.877 2029
0.270 1.250 0.873 2210
0.270 1.252 0.869 2387
0.271 1.254 0.865 2578
0.271 1.256 0.861 2769
0.272 1.258 0.858 2744
0.272 1.260 0.854 2936
0.274 1.269 0.854 2928
0.276 1.278 0.853 2946
0.276 1.280 0.850 3180
0.275 1.275 0.842 3205
0.276 1.277 0.838 3289
0.536 2.483 1.469 3503
0.535 2.480 1.458 3775
0.533 2.470 1.443 4422
0.549 2.542 1.471 4723
0.550 2.546 1.464 5535
0.550 2.550 1.456 4974
0.557 2.581 1.462 4547
0.556 2.578 1.451 5359
0.557 2.582 1.443 6298
0.564 2.614 1.449 6102
0.568 2.631 1.448 7187
0.569 2.635 1.440 7187
0.572 2.653 1.439 6302
0.576 2.670 1.438 6019
0.577 2.674 1.430 6433
0.578 2.678 1.422 6848
0.579 2.681 1.414 6601
0.579 2.685 1.406 6355
0.579 2.681 1.394 4611
0.604 2.798 1.438 3797
0.605 2.802 1.430 3797
0.605 2.805 1.421 4180
0.605 2.802 1.410 4604
0.605 2.805 1.401 2302
0.318 1.472 0.805 255
0.138 0.636 1.652 16932
0.139 0.640 1.650 15161
0.140 0.644 1.648 13390
0.141 0.648 1.646 11728
0.142 0.653 1.644 10066
0.143 0.657 1.642 10384
0.144 0.661 1.640 15276
0.145 0.665 1.638 19851
0.147 0.673 1.643 21598
0.147 0.677 1.641 23617
0.148 0.682 1.639 21336
0.150 0.689 1.644 19756
0.151 0.693 1.642 15682
0.153 0.701 1.647 11803
0.154 0.705 1.645 10581
0.155 0.710 1.642 9055
0.155 0.710 1.633 8860
0.156 0.718 1.638 10266
0.157 0.722 1.636 11966
0.158 0.727 1.634 12092
0.159 0.731 1.631 12217
0.160 0.735 1.629 10386
0.161 0.739 1.627 8556
0.162 0.744 1.625 6670
0.164 0.751 1.629 5307
0.165 0.756 1.627 7927
0.165 0.760 1.625 10447
0.167 0.768 1.629 11673
0.168 0.772 1.627 10533
0.170 0.780 1.631 8468
0.171 0.784 1.629 5883
0.172 0.788 1.627 3291
0.173 0.796 1.631 6484
0.174 0.801 1.629 9885
0.176 0.809 1.633 15666
0.177 0.813 1.631 21576
0.178 0.817 1.628 20993
0.178 0.817 1.619 17026
0.178 0.818 1.609 13832
0.181 0.830 1.621 14951
0.182 0.838 1.625 16680
0.183 0.842 1.622 12930
0.186 0.854 1.633 11035
0.187 0.859 1.631 12753
0.189 0.867 1.635 13658
0.191 0.875 1.639 15128
0.192 0.883 1.643 14344
0.193 0.888 1.640 11854
0.195 0.896 1.644 10157
0.196 0.900 1.641 10733
0.197 0.905 1.639 14637
0.198 0.909 1.636 17965
0.198 0.909 1.626 22758
0.200 0.917 1.630 29475
0.201 0.921 1.627 31953
0.201 0.921 1.618 30080
0.202 0.926 1.615 27044
0.203 0.934 1.619 24502
0.204 0.938 1.616 23535
0.206 0.947 1.620 19021
0.209 0.960 1.630 12769
0.210 0.964 1.627 9634
0.210 0.964 1.618 10381
0.212 0.972 1.621 9998
0.215 0.985 1.631 8806
0.215 0.990 1.628 8995
0.217 0.998 1.632 10304
0.218 1.002 1.628 9627
0.220 1.011 1.632 5571
0.219 1.006 1.616 3127
0.219 1.006 1.606 5090
0.220 1.010 1.603 6371
0.222 1.019 1.607 7495
0.224 1.028 1.610 7977
0.228 1.046 1.626 6840
0.231 1.059 1.635 6574
0.231 1.059 1.626 6718
0.230 1.058 1.616 8500
0.231 1.062 1.613 7762
0.233 1.071 1.616 6908
0.234 1.075 1.613 8198
0.235 1.080 1.610 12966
0.237 1.089 1.612 16534
0.238 1.093 1.609 15881
0.239 1.097 1.606 17554
0.241 1.106 1.609 15790
0.244 1.120 1.618 14180
0.247 1.133 1.627 17649
0.248 1.138 1.623 21543
0.248 1.137 1.614 25269
0.248 1.141 1.610 22691
0.250 1.150 1.613 22579
0.251 1.154 1.609 28616
0.252 1.159 1.606 31630
0.253 1.163 1.602 30685
0.255 1.172 1.605 23197
0.258 1.186 1.613 17866
0.259 1.190 1.610 20314
0.261 1.199 1.612 21321
0.263 1.209 1.614 15719
0.262 1.203 1.599 12753
0.261 1.197 1.583 14803
0.265 1.216 1.597 16358
0.268 1.230 1.606 18907
0.269 1.234 1.602 14776
0.267 1.228 1.586 9440
0.269 1.238 1.588 10380
0.272 1.247 1.590 13995
0.272 1.251 1.587 13970
0.274 1.260 1.589 11941
0.278 1.275 1.597 12955
0.278 1.279 1.593 11544
0.278 1.278 1.583 11828
0.279 1.282 1.579 12668
0.280 1.286 1.575 9494
0.282 1.295 1.577 6709
0.285 1.310 1.585 7964
0.285 1.309 1.575 11292
0.285 1.307 1.565 17412
0.287 1.317 1.567 18926
0.289 1.326 1.569 22881
0.291 1.336 1.570 21383
0.294 1.351 1.577 16029
0.295 1.355 1.573 22496
0.296 1.359 1.569 25835
0.297 1.363 1.565 21870
0.298 1.367 1.561 18406
0.302 1.387 1.574 20540
0.303 1.391 1.569 17366
0.306 1.407 1.576 12861
0.308 1.416 1.577 13999
0.312 1.431 1.584 16075
0.313 1.435 1.580 20488
0.313 1.440 1.575 18876
0.314 1.444 1.571 14318
0.314 1.442 1.561 10437
0.183 0.842 0.977 6422
0.183 0.839 0.969 8046
0.183 0.841 0.967 7302
0.185 0.849 0.970 5516
0.248 1.137 1.234 4046
0.249 1.146 1.236 5264
0.250 1.149 1.233 6879
0.251 1.152 1.229 5403
0.253 1.161 1.231 2529
0.333 1.528 1.559 3373
0.334 1.532 1.554 3709
0.337 1.548 1.560 2985
0.340 1.563 1.566 5057
0.341 1.567 1.561 9127
0.342 1.571 1.556 12030
0.344 1.581 1.557 13776
0.345 1.585 1.552 17654
0.346 1.589 1.547 22646
0.347 1.593 1.542 23663
0.348 1.597 1.538 17073
0.350 1.607 1.538 14914
0.352 1.617 1.538 21997
0.354 1.627 1.538 25103
0.356 1.637 1.538 22476
0.359 1.647 1.538 18057
0.362 1.663 1.543 15661
0.363 1.667 1.538 17365
0.364 1.671 1.533 17737
0.366 1.681 1.533 14202
0.368 1.691 1.533 10390
0.372 1.707 1.537 6339
0.373 1.711 1.532 3996
0.373 1.715 1.527 4098
0.374 1.719 1.522 3860
0.375 1.723 1.517 2630
0.375 1.720 1.507 1380
0.237 1.089 1.009 1535
0.235 1.079 0.996 1759
0.236 1.082 0.993 2086
0.241 1.109 1.009 3012
0.238 1.093 0.991 2986
0.230 1.058 0.960 4414
0.229 1.054 0.952 6993
0.230 1.056 0.948 10452
0.230 1.058 0.945 14840
0.231 1.060 0.942 18538
0.231 1.063 0.939 20257
0.232 1.065 0.936 19925
0.232 1.067 0.932 17955
0.233 1.069 0.929 15317
0.233 1.072 0.926 12629
0.232 1.068 0.918 10536
0.233 1.070 0.915 8282
0.233 1.072 0.912 5529
0.255 1.170 0.975 4946
0.254 1.166 0.967 4480
0.253 1.162 0.959 5870
0.252 1.158 0.951 7171
0.254 1.167 0.952 6927
0.255 1.169 0.948 7453
0.256 1.178 0.949 8946
0.257 1.180 0.945 9270
0.259 1.189 0.946 8269
0.259 1.191 0.943 8485
0.260 1.193 0.939 8184
0.260 1.195 0.935 6638
0.259 1.191 0.927 5077
0.260 1.193 0.924 4406
0.262 1.202 0.924 4194
0.264 1.211 0.925 3601
0.267 1.226 0.929 3174
0.266 1.222 0.922 2203
0.268 1.231 0.922 1639
0.268 1.233 0.918 1435
0.268 1.229 0.910 1697
0.267 1.224 0.903 2239
0.266 1.219 0.895 2266
0.266 1.222 0.891 2222
0.266 1.224 0.887 1744
0.267 1.226 0.884 1143
0.269 1.235 0.884 1008
0.271 1.243 0.884 1512
0.271 1.246 0.880 2115
0.272 1.248 0.877 2234
0.272 1.250 0.873 2390
0.273 1.252 0.869 2496
0.273 1.254 0.865 2612
0.273 1.256 0.861 2727
0.274 1.258 0.858 2680
0.274 1.260 0.854 2843
0.276 1.269 0.854 2821
0.278 1.278 0.853 2906
0.279 1.280 0.850 3207
0.279 1.282 0.846 3319
0.278 1.277 0.838 3509
0.540 2.482 1.469 3585
0.537 2.465 1.451 4085
0.536 2.462 1.440 5095
0.553 2.541 1.471 4708
0.553 2.538 1.460 5634
0.552 2.535 1.449 5014
0.547 2.511 1.427 5038
0.558 2.563 1.444 4998
0.564 2.588 1.447 6200
0.570 2.619 1.453 6576
0.573 2.630 1.448 7804
0.574 2.634 1.440 7804
0.577 2.651 1.439 6569
0.581 2.669 1.438 5903
0.582 2.673 1.430 6488
0.583 2.676 1.422 7074
0.584 2.680 1.414 6817
0.583 2.677 1.402 6579
0.582 2.673 1.391 4902
0.609 2.797 1.438 3847
0.610 2.800 1.430 3847
0.611 2.804 1.421 4211
0.610 2.801 1.410 4583
0.611 2.804 1.401 2291
0.320 1.472 0.805 268
0.141 0.635 1.652 15941
0.141 0.639 1.650 14518
0.142 0.644 1.648 13096
0.143 0.648 1.646 11646
0.144 0.652 1.644 10197
0.145 0.656 1.642 10554
0.146 0.661 1.640 15704
0.147 0.665 1.638 20499
0.149 0.673 1.643 22201
0.150 0.677 1.641 24176
0.151 0.681 1.639 21591
0.152 0.689 1.644 19593
0.153 0.693 1.642 15037
0.155 0.701 1.647 10742
0.157 0.708 1.652 9437
0.157 0.709 1.642 7592
0.157 0.710 1.633 7301
0.159 0.718 1.638 9015
0.160 0.722 1.636 10853
0.161 0.726 1.634 11462
0.162 0.730 1.631 12071
0.163 0.735 1.629 10815
0.163 0.739 1.627 9559
0.165 0.747 1.632 7688
0.166 0.751 1.629 6418
0.167 0.755 1.627 8455
0.168 0.759 1.625 10293
0.170 0.767 1.629 11319
0.171 0.775 1.634 9962
0.172 0.779 1.631 7943
0.173 0.784 1.629 5554
0.173 0.784 1.620 3254
0.176 0.796 1.631 6055
0.178 0.804 1.636 9241
0.179 0.808 1.633 15411
0.180 0.812 1.631 21581
0.181 0.817 1.628 21245
0.181 0.817 1.619 17140
0.180 0.813 1.603 13950
0.183 0.825 1.614 14339
0.184 0.833 1.618 15762
0.186 0.842 1.622 12408
0.189 0.854 1.633 11245
0.190 0.858 1.631 13290
0.192 0.866 1.635 14226
0.193 0.874 1.639 15735
0.195 0.883 1.643 14552
0.196 0.887 1.640 11067
0.199 0.899 1.651 9081
0.199 0.900 1.641 9796
0.199 0.900 1.632 13780
0.200 0.904 1.629 16848
0.201 0.908 1.626 21780
0.202 0.912 1.624 28852
0.204 0.921 1.627 31747
0.204 0.921 1.618 29889
0.205 0.925 1.615 26843
0.207 0.933 1.619 24531
0.207 0.938 1.616 23825
0.210 0.950 1.626 20277
0.212 0.959 1.630 15018
0.212 0.959 1.620 11581
0.213 0.963 1.618 11302
0.215 0.972 1.621 9859
0.218 0.985 1.631 9394
0.219 0.989 1.628 10635
0.220 0.993 1.625 11855
0.222 1.002 1.628 10306
0.223 1.006 1.625 5620
0.222 1.006 1.616 4142
0.222 1.005 1.606 6735
0.223 1.009 1.603 8050
0.225 1.018 1.607 8577
0.227 1.027 1.610 8007
0.230 1.040 1.620 5387
0.234 1.058 1.635 5583
0.234 1.058 1.626 6746
0.234 1.057 1.616 8370
0.235 1.062 1.613 6810
0.237 1.070 1.616 5109
0.237 1.070 1.607 5424
0.239 1.079 1.610 9602
0.241 1.088 1.612 14173
0.242 1.092 1.609 14663
0.241 1.091 1.600 16410
0.243 1.100 1.602 14456
0.248 1.119 1.618 12700
0.251 1.133 1.627 16897
0.252 1.137 1.623 21721
0.251 1.136 1.614 25874
0.252 1.140 1.610 22191
0.254 1.149 1.613 20441
0.255 1.154 1.609 26417
0.256 1.158 1.606 30330
0.257 1.162 1.602 30081
0.259 1.171 1.605 22697
0.262 1.185 1.613 17257
0.263 1.189 1.610 19717
0.265 1.198 1.612 21357
0.267 1.208 1.614 17229
0.266 1.202 1.599 14429
0.265 1.196 1.583 14659
0.268 1.210 1.591 15631
0.272 1.229 1.606 19475
0.273 1.234 1.602 16401
0.274 1.238 1.598 10258
0.274 1.237 1.588 10042
0.276 1.246 1.590 13540
0.277 1.250 1.587 14402
0.279 1.259 1.589 12845
0.282 1.274 1.597 14057
0.283 1.278 1.593 10534
0.282 1.277 1.583 8293
0.283 1.281 1.579 9923
0.284 1.285 1.575 8527
0.286 1.294 1.577 6294
0.291 1.314 1.590 6625
0.289 1.308 1.575 9757
0.289 1.307 1.565 16224
0.291 1.316 1.567 16762
0.293 1.325 1.569 19422
0.295 1.335 1.570 18157
0.299 1.350 1.577 14330
0.299 1.354 1.573 20082
0.302 1.363 1.575 24473
0.303 1.367 1.571 23789
0.303 1.371 1.567 22113
0.306 1.381 1.568 19336
0.309 1.396 1.575 13377
0.311 1.406 1.576 13161
0.314 1.421 1.583 15411
0.316 1.430 1.584 16049
0.317 1.434 1.580 20458
0.318 1.439 1.575 20080
0.319 1.443 1.571 15957
0.320 1.447 1.567 10899
0.186 0.842 0.977 6745
0.186 0.838 0.969 8431
0.186 0.841 0.967 7532
0.188 0.849 0.970 5846
0.251 1.136 1.234 6085
0.253 1.145 1.236 7300
0.254 1.148 1.233 9064
0.255 1.151 1.229 7174
0.257 1.160 1.231 3383
0.338 1.527 1.559 4476
0.339 1.531 1.554 5366
0.342 1.546 1.560 3856
0.344 1.556 1.561 5815
0.346 1.566 1.561 10272
0.347 1.570 1.556 13102
0.350 1.580 1.557 15760
0.350 1.584 1.552 20949
0.351 1.588 1.547 26216
0.352 1.592 1.542 27231
0.353 1.596 1.538 20621
0.355 1.606 1.538 17901
0.357 1.616 1.538 25221
0.360 1.626 1.538 29244
0.362 1.636 1.538 27211
0.364 1.646 1.538 22313
0.368 1.662 1.543 18814
0.368 1.666 1.538 20390
0.369 1.669 1.533 20476
0.372 1.679 1.533 16097
0.374 1.689 1.533 11757
0.377 1.706 1.537 7654
0.378 1.710 1.532 5582
0.379 1.713 1.527 6119
0.380 1.717 1.522 5685
0.381 1.721 1.517 3633
0.380 1.719 1.507 1656
0.241 1.088 1.009 1319
0.387 1.751 1.515 2040
0.234 1.056 0.974 2689
0.247 1.114 1.013 3100
0.240 1.086 0.986 3157
0.235 1.063 0.964 4066
0.234 1.059 0.956 5905
0.233 1.055 0.948 9335
0.234 1.057 0.945 13751
0.234 1.060 0.942 17330
0.235 1.062 0.939 18945
0.235 1.064 0.936 18435
0.236 1.066 0.932 16260
0.236 1.069 0.929 13475
0.237 1.071 0.926 10785
0.236 1.067 0.918 8719
0.238 1.075 0.919 6539
0.258 1.167 0.978 5744
0.260 1.176 0.979 5821
0.259 1.172 0.971 4959
0.257 1.161 0.959 5620
0.257 1.163 0.955 6451
0.258 1.166 0.952 5967
0.260 1.174 0.953 6776
0.262 1.183 0.953 9300
0.262 1.186 0.950 10610
0.263 1.188 0.946 10021
0.263 1.190 0.943 9541
0.265 1.199 0.943 8537
0.266 1.201 0.940 7051
0.268 1.210 0.940 5097
0.268 1.212 0.936 4334
0.267 1.208 0.929 4242
0.271 1.223 0.933 4083
0.271 1.225 0.929 3510
0.272 1.228 0.926 2268
0.272 1.230 0.922 1598
0.271 1.225 0.914 1410
0.270 1.221 0.906 1661
0.271 1.223 0.903 2156
0.270 1.219 0.895 2219
0.270 1.221 0.891 2237
0.271 1.223 0.887 1863
0.272 1.232 0.888 1368
0.274 1.240 0.888 1266
0.275 1.243 0.884 1824
0.275 1.245 0.880 2357
0.276 1.247 0.877 2389
0.276 1.249 0.873 2459
0.277 1.251 0.869 2473
0.277 1.253 0.865 2551
0.278 1.255 0.861 2630
0.278 1.257 0.858 2530
0.279 1.259 0.854 2624
0.280 1.268 0.854 2585
0.282 1.277 0.853 2784
0.283 1.279 0.850 3188
0.282 1.274 0.842 3412
0.282 1.276 0.838 3712
0.547 2.473 1.465 3815
0.543 2.456 1.447 4752
0.543 2.453 1.436 5919
0.545 2.464 1.432 5017
0.558 2.523 1.453 6085
0.556 2.512 1.439 5559
0.555 2.509 1.427 5607
0.556 2.513 1.420 4733
0.575 2.600 1.454 6293
0.579 2.618 1.453 7157
0.581 2.628 1.448 8414
0.582 2.632 1.440 8414
0.586 2.650 1.439 6852
0.589 2.660 1.435 5784
0.589 2.664 1.427 6550
0.592 2.675 1.422 7318
0.591 2.671 1.411 7186
0.592 2.675 1.402 7058
0.591 2.671 1.391 5373
0.618 2.795 1.438 3891
0.619 2.798 1.430 3891
0.620 2.802 1.421 4228
0.621 2.806 1.413 4565
0.622 2.809 1.404 2282
0.143 0.635 1.652 15147
0.144 0.639 1.650 14057
0.145 0.643 1.648 12967
0.145 0.647 1.646 11540
0.146 0.652 1.644 10112
0.147 0.656 1.642 10473
0.148 0.660 1.640 15661
0.149 0.664 1.638 20489
0.151 0.672 1.643 22182
0.152 0.676 1.641 24144
0.153 0.681 1.639 21440
0.155 0.688 1.644 19210
0.156 0.692 1.642 14353
0.157 0.700 1.647 9755
0.159 0.708 1.652 8472
0.160 0.712 1.650 6386
0.159 0.709 1.633 5972
0.161 0.717 1.638 7873
0.162 0.721 1.636 9768
0.163 0.726 1.634 10813
0.164 0.730 1.631 11859
0.165 0.734 1.629 11164
0.166 0.738 1.627 10469
0.168 0.746 1.632 8931
0.169 0.754 1.636 8031
0.170 0.758 1.634 9265
0.171 0.762 1.632 10633
0.172 0.767 1.629 11454
0.174 0.775 1.634 9971
0.175 0.779 1.631 7953
0.176 0.783 1.629 5659
0.176 0.783 1.620 3471
0.179 0.795 1.631 5935
0.180 0.803 1.636 8805
0.181 0.807 1.633 15016
0.182 0.812 1.631 21226
0.183 0.816 1.628 21197
0.183 0.816 1.619 17161
0.183 0.813 1.603 14042
0.185 0.825 1.614 13683
0.187 0.833 1.618 14578
0.189 0.841 1.622 11635
0.192 0.853 1.633 11352
0.194 0.861 1.637 13774
0.195 0.870 1.641 14761
0.197 0.878 1.645 16149
0.198 0.882 1.643 14526
0.200 0.890 1.647 10648
0.202 0.899 1.651 8930
0.202 0.899 1.641 9727
0.202 0.899 1.632 13538
0.203 0.903 1.629 16015
0.204 0.908 1.626 20637
0.205 0.912 1.624 27673
0.207 0.920 1.627 30753
0.208 0.924 1.625 28895
0.208 0.924 1.615 25884
0.210 0.933 1.619 23929
0.211 0.937 1.616 23569
0.213 0.950 1.626 20932
0.214 0.954 1.623 16450
0.215 0.958 1.620 12854
0.216 0.962 1.618 11747
0.218 0.971 1.621 9625
0.221 0.984 1.631 10325
0.221 0.984 1.622 12714
0.223 0.992 1.625 13627
0.224 0.997 1.622 11288
0.225 1.001 1.619 5934
0.226 1.005 1.616 4796
0.227 1.009 1.613 7882
0.228 1.013 1.610 9397
0.229 1.017 1.607 9570
0.230 1.022 1.604 8258
0.233 1.035 1.613 4973
