0.650 0.842 1.450 11818
0.649 0.841 1.441 13038
0.651 0.844 1.438 11121
0.719 0.932 1.561 12300
0.722 0.935 1.558 14628
0.721 0.934 1.548 15462
0.720 0.933 1.539 15065
0.726 0.941 1.541 15793
0.738 0.956 1.556 19754
0.741 0.959 1.552 24224
0.743 0.963 1.548 27038
0.746 0.966 1.545 24580
0.751 0.973 1.547 21037
0.754 0.977 1.543 16275
0.753 0.976 1.534 14753
0.756 0.979 1.530 13911
0.761 0.986 1.532 11315
0.767 0.994 1.534 12509
0.766 0.993 1.525 14584
0.769 0.996 1.521 13941
0.778 1.007 1.529 12704
0.783 1.015 1.531 16884
0.789 1.022 1.533 20931
0.792 1.026 1.529 17792
0.798 1.033 1.531 16990
0.803 1.041 1.533 21477
0.806 1.044 1.529 19712
0.808 1.047 1.525 16304
0.811 1.050 1.521 11659
0.813 1.053 1.517 11269
0.816 1.057 1.513 13721
0.818 1.060 1.509 13286
0.817 1.058 1.500 11272
0.823 1.066 1.501 12663
0.822 1.065 1.492 12369
0.828 1.072 1.493 8853
0.837 1.084 1.500 13329
0.839 1.087 1.496 32115
0.842 1.091 1.492 40063
0.841 1.089 1.482 34330
0.840 1.088 1.473 27932
0.842 1.091 1.469 20221
0.841 1.089 1.459 25261
0.843 1.092 1.455 35615
0.845 1.095 1.451 38002
0.848 1.098 1.447 35723
0.854 1.106 1.448 31348
0.856 1.109 1.444 30629
0.858 1.112 1.440 26499
0.864 1.120 1.441 14958
0.870 1.127 1.442 10673
0.880 1.140 1.448 13604
0.878 1.138 1.439 17571
0.881 1.141 1.435 25445
0.887 1.149 1.436 26769
0.889 1.151 1.431 21174
0.895 1.159 1.432 15872
0.901 1.167 1.433 17884
0.903 1.170 1.429 20769
0.905 1.173 1.424 16704
0.911 1.181 1.425 15414
0.910 1.179 1.415 19475
0.916 1.186 1.416 18382
0.922 1.194 1.417 14087
0.935 1.212 1.427 14141
0.941 1.219 1.428 12005
0.944 1.222 1.423 6207
0.942 1.220 1.414 3330
1.012 1.311 1.498 5918
1.022 1.324 1.503 12940
1.025 1.327 1.498 15709
1.031 1.335 1.498 10766
1.045 1.353 1.508 9922
1.055 1.366 1.513 16785
1.057 1.369 1.508 21215
1.059 1.373 1.503 15952
1.070 1.386 1.507 12220
1.076 1.394 1.507 16113
1.078 1.397 1.501 21193
1.081 1.400 1.496 20534
1.079 1.398 1.486 14099
1.082 1.401 1.481 10034
1.084 1.404 1.476 7998
1.125 1.458 1.517 7053
1.108 1.436 1.489 10722
1.111 1.439 1.483 13715
1.121 1.452 1.487 13477
1.123 1.455 1.482 16729
1.126 1.458 1.476 17606
1.128 1.461 1.471 17276
1.130 1.464 1.465 18182
1.133 1.467 1.460 20030
1.143 1.481 1.463 22083
1.149 1.489 1.462 15888
1.183 1.533 1.493 16509
1.190 1.541 1.491 21280
1.188 1.539 1.481 22088
1.191 1.542 1.475 19145
1.201 1.556 1.479 14879
1.203 1.559 1.473 15783
1.206 1.562 1.467 16918
1.253 1.623 1.509 20706
1.251 1.621 1.498 25123
1.257 1.629 1.497 15504
1.264 1.637 1.495 8222
1.270 1.646 1.493 7561
1.277 1.654 1.491 6227
1.296 1.678 1.502 5659
1.290 1.671 1.487 7598
1.292 1.674 1.481 9824
1.295 1.677 1.475 9979
1.301 1.685 1.473 8531
1.324 1.715 1.487 8671
1.331 1.724 1.485 9220
1.329 1.721 1.474 8055
1.331 1.724 1.468 7733
1.333 1.727 1.461 8537
1.340 1.736 1.459 6776
1.397 1.809 1.505 5140
1.403 1.818 1.502 7658
1.401 1.815 1.491 10452
1.404 1.818 1.484 13520
1.406 1.822 1.478 13062
1.417 1.836 1.479 12268
1.423 1.844 1.476 13115
1.426 1.847 1.469 11586
1.428 1.850 1.462 10056
1.443 1.870 1.467 10155
1.450 1.878 1.463 11357
1.448 1.876 1.453 9807
1.450 1.879 1.446 8345
1.453 1.882 1.439 6602
1.468 1.901 1.443 3683
1.496 1.937 1.458 4126
1.502 1.946 1.454 5107
1.509 1.955 1.451 6203
1.515 1.963 1.447 6100
1.548 2.005 1.465 7182
1.550 2.008 1.458 7941
1.552 2.011 1.450 8699
1.555 2.014 1.443 6924
1.540 1.995 1.421 5728
1.542 1.998 1.414 4253
1.605 2.079 1.455 3797
1.581 2.049 1.427 5482
1.584 2.051 1.419 7989
1.590 2.060 1.415 8847
1.597 2.069 1.411 9851
1.599 2.071 1.403 9880
1.601 2.074 1.395 8190
1.643 2.128 1.418 7544
1.645 2.131 1.410 6118
1.634 2.117 1.392 4693
1.632 2.114 1.381 3517
1.718 2.226 1.435 3065
1.703 2.206 1.414 3383
1.705 2.209 1.406 3803
1.707 2.211 1.397 3803
1.754 2.272 1.421 3138
1.751 2.269 1.410 3457
1.754 2.272 1.401 1728
0.898 1.163 0.789 268
0.383 0.494 1.594 14383
0.385 0.497 1.592 17058
0.388 0.500 1.590 19734
0.392 0.506 1.596 16943
0.397 0.512 1.601 14693
0.400 0.516 1.599 15773
0.402 0.519 1.597 16968
0.405 0.522 1.595 17082
0.405 0.523 1.586 18375
0.408 0.526 1.584 19830
0.410 0.530 1.582 19907
0.413 0.533 1.580 19984
0.418 0.539 1.585 19447
0.420 0.542 1.583 19108
0.423 0.546 1.581 17454
0.425 0.549 1.579 15965
0.428 0.552 1.577 13917
0.430 0.555 1.575 11704
0.433 0.559 1.572 9443
0.433 0.559 1.563 7303
0.438 0.565 1.568 10367
0.443 0.571 1.573 13894
0.445 0.575 1.571 17765
0.450 0.581 1.576 22484
0.453 0.584 1.573 26422
0.455 0.588 1.571 29029
0.460 0.594 1.576 28123
0.463 0.597 1.574 27534
0.465 0.600 1.571 23575
0.465 0.601 1.562 19810
0.468 0.604 1.560 23749
0.470 0.607 1.558 27689
0.475 0.614 1.562 31174
0.478 0.617 1.560 35218
0.480 0.620 1.557 29374
0.485 0.626 1.562 22750
0.490 0.633 1.566 22324
0.498 0.642 1.578 20373
0.508 0.655 1.596 20295
0.508 0.655 1.586 24567
0.510 0.659 1.584 27502
0.515 0.665 1.588 26489
0.518 0.668 1.586 24609
0.521 0.672 1.583 22389
0.523 0.675 1.581 21502
0.526 0.678 1.578 17439
0.526 0.678 1.569 14666
0.531 0.685 1.573 21757
0.533 0.688 1.570 30993
0.536 0.692 1.568 33269
0.541 0.698 1.572 28125
0.546 0.705 1.576 19835
0.546 0.705 1.566 16347
0.551 0.711 1.570 14194
0.554 0.715 1.568 10511
0.548 0.708 1.545 9756
0.548 0.707 1.536 12520
0.548 0.707 1.527 14834
0.545 0.703 1.511 14343
0.556 0.717 1.528 14033
0.574 0.741 1.564 16724
0.577 0.745 1.562 17989
0.579 0.748 1.559 18225
0.579 0.747 1.549 16876
0.582 0.751 1.547 15421
0.581 0.750 1.537 21527
0.581 0.750 1.528 24662
0.584 0.753 1.525 22975
0.583 0.753 1.516 21055
0.583 0.752 1.507 16073
0.594 0.766 1.523 11434
0.605 0.780 1.539 10234
0.610 0.787 1.543 8243
0.590 0.761 1.489 7709
0.592 0.764 1.486 9900
0.594 0.767 1.483 13371
0.600 0.774 1.486 15932
0.599 0.773 1.477 15194
0.602 0.776 1.474 17218
0.604 0.779 1.471 23645
0.606 0.782 1.468 30287
0.609 0.786 1.465 36181
0.611 0.789 1.462 39000
0.613 0.792 1.459 32175
0.616 0.795 1.456 27278
0.618 0.798 1.453 23603
0.620 0.801 1.450 11967
0.623 0.804 1.447 9152
0.628 0.811 1.450 16209
0.630 0.814 1.447 18667
0.633 0.817 1.444 17611
0.638 0.823 1.447 16288
0.644 0.830 1.450 14405
0.646 0.833 1.447 11389
0.648 0.836 1.444 12088
0.650 0.839 1.441 14992
0.653 0.842 1.438 12339
0.721 0.930 1.561 11493
0.723 0.934 1.558 12749
0.723 0.933 1.548 13693
0.722 0.932 1.539 14299
0.731 0.943 1.547 15021
0.740 0.955 1.556 19185
0.742 0.958 1.552 24107
0.745 0.961 1.548 27292
0.747 0.965 1.545 24601
0.753 0.972 1.547 20164
0.756 0.975 1.543 15374
0.755 0.974 1.534 13969
0.754 0.973 1.524 13344
0.760 0.981 1.527 9354
0.769 0.992 1.534 8570
0.768 0.991 1.525 11998
0.770 0.994 1.521 12957
0.783 1.010 1.535 13682
0.789 1.018 1.537 18536
0.791 1.021 1.533 22055
0.794 1.024 1.529 19929
0.799 1.032 1.531 20636
0.805 1.039 1.533 23688
0.808 1.042 1.529 19992
0.807 1.041 1.519 17715
0.813 1.049 1.521 14413
0.815 1.052 1.517 12350
0.818 1.055 1.513 13252
0.820 1.058 1.509 13846
0.819 1.057 1.500 13255
0.825 1.065 1.501 13743
0.824 1.063 1.492 12558
0.823 1.062 1.482 8226
0.843 1.087 1.506 12604
0.841 1.086 1.496 32054
0.840 1.085 1.487 39072
0.843 1.088 1.482 33697
0.842 1.086 1.473 28994
0.844 1.089 1.469 22306
0.846 1.092 1.465 27584
0.845 1.091 1.455 36634
0.848 1.094 1.451 37050
0.850 1.097 1.447 32984
0.852 1.100 1.443 28408
0.858 1.107 1.444 30857
0.860 1.110 1.440 30224
0.866 1.118 1.441 19409
0.872 1.126 1.442 13034
0.882 1.138 1.448 14233
0.880 1.136 1.439 17296
0.883 1.139 1.435 25070
0.885 1.142 1.430 26195
0.891 1.150 1.431 21372
0.901 1.162 1.437 17100
0.903 1.165 1.433 18837
0.905 1.168 1.429 20976
0.907 1.171 1.424 17212
0.913 1.179 1.425 17138
0.912 1.177 1.415 19885
0.914 1.180 1.411 16276
0.928 1.197 1.422 13526
0.938 1.210 1.427 15141
0.940 1.213 1.423 11991
0.946 1.221 1.423 5717
0.963 1.243 1.439 3273
1.015 1.309 1.498 5984
1.025 1.322 1.503 13413
1.027 1.325 1.498 17320
1.033 1.333 1.498 12391
1.047 1.351 1.508 10277
1.057 1.364 1.513 16775
1.060 1.367 1.508 21991
1.062 1.371 1.503 17024
0.987 1.274 1.401 10956
1.078 1.392 1.507 13648
1.081 1.395 1.501 19617
1.083 1.398 1.496 19976
1.082 1.396 1.486 14495
1.084 1.399 1.481 10480
1.083 1.397 1.471 8434
1.124 1.451 1.513 8498
1.115 1.439 1.493 11156
1.117 1.442 1.488 14275
1.123 1.450 1.487 15011
1.126 1.453 1.482 18218
1.128 1.456 1.476 19422
1.131 1.459 1.471 19531
1.133 1.462 1.465 20386
1.139 1.470 1.464 22469
1.150 1.484 1.468 25927
1.156 1.492 1.467 19724
1.186 1.531 1.493 15711
1.193 1.539 1.491 18550
1.195 1.542 1.486 18661
1.189 1.535 1.471 15757
1.204 1.554 1.479 10837
1.210 1.562 1.477 11180
1.257 1.622 1.519 13628
1.256 1.620 1.509 19700
1.254 1.618 1.498 24079
1.260 1.627 1.497 15063
1.275 1.645 1.504 8455
1.277 1.649 1.497 8097
1.280 1.652 1.491 6567
1.299 1.676 1.502 5781
1.293 1.668 1.487 7650
1.295 1.672 1.481 10515
1.298 1.675 1.475 11263
1.304 1.683 1.473 10245
1.323 1.707 1.483 10017
1.325 1.710 1.477 10488
1.328 1.714 1.470 9254
1.334 1.722 1.468 8773
1.337 1.725 1.461 9655
1.343 1.733 1.459 7832
1.371 1.769 1.477 5504
1.406 1.815 1.502 6609
1.405 1.813 1.491 9618
1.407 1.816 1.484 12802
1.409 1.819 1.478 13090
1.420 1.833 1.479 12772
1.427 1.841 1.476 13311
1.429 1.844 1.469 11839
1.432 1.847 1.462 10366
1.447 1.867 1.467 10967
1.453 1.875 1.463 12353
1.451 1.873 1.453 10654
1.454 1.876 1.446 9002
1.456 1.879 1.439 6754
1.475 1.904 1.447 3518
1.499 1.935 1.458 4423
1.506 1.943 1.454 5299
1.512 1.952 1.451 6315
1.515 1.955 1.444 6380
1.552 2.002 1.465 7056
1.558 2.011 1.462 7630
1.561 2.014 1.454 8265
1.559 2.011 1.443 6486
1.556 2.009 1.432 4815
1.546 1.995 1.414 3735
1.600 2.065 1.448 3941
1.585 2.046 1.427 5687
1.587 2.049 1.419 8201
1.598 2.063 1.418 9177
1.601 2.066 1.411 10373
1.603 2.069 1.403 10473
1.605 2.071 1.395 8644
1.607 2.074 1.388 6815
1.654 2.134 1.413 5740
1.656 2.137 1.405 4674
1.632 2.106 1.378 3649
1.709 2.205 1.425 3008
1.707 2.202 1.414 3530
1.709 2.205 1.406 4072
1.711 2.208 1.397 4072
1.713 2.211 1.389 3281
1.756 2.266 1.410 3446
1.758 2.269 1.401 1723
0.900 1.162 0.789 272
0.384 0.493 1.594 15024
0.387 0.496 1.592 17181
0.389 0.499 1.590 19339
0.394 0.505 1.596 16318
0.398 0.511 1.601 13648
0.399 0.512 1.592 14886
0.402 0.515 1.590 16247
0.406 0.521 1.595 16274
0.407 0.522 1.586 17489
0.409 0.525 1.584 18731
0.412 0.528 1.582 18758
0.414 0.532 1.580 18785
0.419 0.538 1.585 18389
0.422 0.541 1.583 18246
0.424 0.544 1.581 16355
0.427 0.548 1.579 14654
0.429 0.551 1.577 12233
0.432 0.554 1.575 9624
0.432 0.555 1.565 8428
0.435 0.558 1.563 7437
0.440 0.564 1.568 10646
0.442 0.567 1.566 14415
0.447 0.574 1.571 17976
0.452 0.580 1.576 22298
0.454 0.583 1.573 26290
0.457 0.586 1.571 28933
0.462 0.593 1.576 28231
0.464 0.596 1.574 27873
0.467 0.599 1.571 23989
0.467 0.599 1.562 20267
0.470 0.603 1.560 23634
0.472 0.606 1.558 27002
0.477 0.612 1.562 30229
0.480 0.615 1.560 33947
0.482 0.619 1.557 27989
0.487 0.625 1.562 21844
0.492 0.631 1.566 21939
0.500 0.641 1.578 20408
0.510 0.654 1.596 20445
0.510 0.654 1.586 24511
0.512 0.657 1.584 27495
0.517 0.664 1.588 26558
0.520 0.667 1.586 24475
0.522 0.670 1.583 22114
0.525 0.674 1.581 20679
0.528 0.677 1.578 16471
0.528 0.677 1.569 13884
0.533 0.684 1.573 21684
0.535 0.687 1.570 31570
0.538 0.690 1.568 33879
0.543 0.697 1.572 29107
0.546 0.700 1.569 21042
0.548 0.703 1.566 17494
0.553 0.710 1.570 15266
0.558 0.717 1.574 11607
0.550 0.706 1.545 10753
0.550 0.706 1.536 13369
0.547 0.702 1.520 16314
0.552 0.709 1.524 15733
0.560 0.719 1.534 15272
0.574 0.736 1.558 17885
0.579 0.743 1.562 17730
0.579 0.743 1.552 17226
0.579 0.742 1.543 16246
0.581 0.746 1.540 14924
0.584 0.749 1.537 21477
0.583 0.748 1.528 25555
0.586 0.751 1.525 24510
0.585 0.751 1.516 23093
0.582 0.747 1.500 16908
0.593 0.761 1.517 10093
0.607 0.779 1.539 8655
0.612 0.786 1.543 6951
0.592 0.759 1.489 7124
0.594 0.762 1.486 9016
0.597 0.765 1.483 12430
0.602 0.772 1.486 14946
0.601 0.772 1.477 14595
0.604 0.775 1.474 16873
0.606 0.778 1.471 23341
0.609 0.781 1.468 30923
0.611 0.784 1.465 38569
0.613 0.787 1.462 41560
0.613 0.786 1.453 35081
0.615 0.789 1.450 31530
0.620 0.796 1.453 27604
0.623 0.799 1.450 15308
0.628 0.806 1.454 11193
0.633 0.813 1.457 17352
0.633 0.812 1.447 19202
0.632 0.811 1.438 17269
0.644 0.826 1.453 15571
0.646 0.829 1.450 14189
0.645 0.828 1.441 10828
0.651 0.835 1.444 12092
0.653 0.838 1.441 16259
0.655 0.841 1.438 13045
0.661 0.848 1.441 11397
0.666 0.855 1.443 12924
0.725 0.931 1.548 11767
0.725 0.930 1.539 13424
0.734 0.941 1.547 13227
0.743 0.953 1.556 17468
0.745 0.956 1.552 23063
0.748 0.959 1.548 26972
0.750 0.962 1.545 24540
0.756 0.970 1.547 18650
0.758 0.973 1.543 13583
0.758 0.972 1.534 12443
0.757 0.971 1.524 12680
0.763 0.978 1.527 7660
0.768 0.986 1.529 5242
0.771 0.989 1.525 10754
0.777 0.996 1.527 13666
0.789 1.012 1.541 15700
0.792 1.016 1.537 19548
0.794 1.019 1.533 22113
0.797 1.022 1.529 22221
0.802 1.029 1.531 24088
0.808 1.037 1.533 25249
0.811 1.040 1.529 19797
0.813 1.043 1.525 17419
0.816 1.047 1.521 15568
0.818 1.050 1.517 12786
0.817 1.048 1.507 13186
0.820 1.052 1.504 14301
0.822 1.055 1.500 13659
0.824 1.058 1.496 14050
0.827 1.061 1.492 13370
0.826 1.059 1.482 8733
0.849 1.089 1.511 12597
0.845 1.084 1.496 30905
0.843 1.082 1.487 37338
0.846 1.085 1.482 31969
0.845 1.084 1.473 28494
0.847 1.087 1.469 22732
0.849 1.090 1.465 27910
0.848 1.088 1.455 35402
0.851 1.091 1.451 34340
0.853 1.094 1.447 29608
0.859 1.102 1.448 24932
0.861 1.105 1.444 29476
0.867 1.113 1.445 33198
0.873 1.120 1.446 25375
0.879 1.128 1.447 16130
0.885 1.135 1.448 14077
0.887 1.138 1.444 15549
0.886 1.137 1.435 21678
0.892 1.144 1.436 24256
0.898 1.152 1.437 20857
0.904 1.160 1.437 17677
0.906 1.163 1.433 20268
0.908 1.166 1.429 21868
0.911 1.169 1.424 17684
0.917 1.176 1.425 16757
0.915 1.174 1.415 16615
0.921 1.182 1.416 11955
0.935 1.199 1.427 13040
0.941 1.207 1.427 16218
0.943 1.210 1.423 12059
0.953 1.223 1.428 5498
0.967 1.240 1.439 3657
1.018 1.307 1.498 5797
1.032 1.324 1.508 13210
1.035 1.327 1.503 18594
1.041 1.335 1.503 14098
1.051 1.348 1.508 10491
1.061 1.361 1.513 16024
1.063 1.364 1.508 22130
1.066 1.368 1.503 17997
0.991 1.272 1.401 11729
1.082 1.389 1.507 11586
1.085 1.392 1.501 17577
1.087 1.395 1.496 18404
1.086 1.393 1.486 13580
1.088 1.396 1.481 9920
1.126 1.444 1.518 8354
1.128 1.447 1.513 10338
1.123 1.441 1.498 12888
1.121 1.439 1.488 15408
1.132 1.452 1.492 16017
1.130 1.450 1.482 18634
1.132 1.453 1.476 20474
1.139 1.461 1.475 21640
1.141 1.464 1.470 22272
1.143 1.467 1.464 24229
1.154 1.480 1.468 28297
1.164 1.494 1.471 22365
1.183 1.517 1.484 15545
1.197 1.536 1.491 16276
1.199 1.539 1.486 16098
1.190 1.526 1.467 13986
1.216 1.561 1.487 9416
1.255 1.611 1.521 9279
1.258 1.614 1.515 11878
1.260 1.617 1.509 17863
1.263 1.620 1.503 22168
1.269 1.628 1.501 14568
1.280 1.642 1.504 9386
1.282 1.645 1.497 9165
1.285 1.648 1.491 7300
1.303 1.672 1.502 5816
1.298 1.665 1.487 7508
1.304 1.673 1.485 10805
1.306 1.676 1.479 12355
1.313 1.685 1.477 11849
1.324 1.698 1.479 11404
1.330 1.707 1.477 11622
1.328 1.704 1.466 10320
1.335 1.713 1.464 9747
1.342 1.721 1.461 10752
1.348 1.730 1.459 8952
1.363 1.749 1.465 6811
1.382 1.773 1.474 6030
1.410 1.809 1.491 8994
1.408 1.806 1.480 12361
1.415 1.815 1.478 13015
1.421 1.823 1.475 13064
1.432 1.837 1.476 13253
1.434 1.840 1.469 11874
1.437 1.843 1.462 10496
1.452 1.863 1.467 11555
1.459 1.871 1.463 13070
1.457 1.869 1.453 11254
1.459 1.872 1.446 9463
1.461 1.875 1.439 6781
1.494 1.916 1.458 3488
1.505 1.930 1.458 4955
1.511 1.939 1.454 5792
1.518 1.948 1.451 6702
1.520 1.950 1.444 6859
1.527 1.959 1.440 7134
1.564 2.006 1.462 7194
1.566 2.009 1.454 7785
1.569 2.012 1.447 6195
1.575 2.021 1.443 4662
1.582 2.030 1.439 3943
1.602 2.055 1.445 4151
1.600 2.052 1.434 6017
1.598 2.050 1.423 8431
1.604 2.058 1.418 9553
1.611 2.067 1.414 10903
1.613 2.070 1.406 11043
1.611 2.067 1.395 9080
1.613 2.070 1.388 7123
1.615 2.073 1.380 5665
1.662 2.132 1.405 4732
1.637 2.101 1.378 3800
1.640 2.104 1.370 3525
1.642 2.107 1.362 3525
1.715 2.201 1.406 4116
1.717 2.203 1.397 4116
1.720 2.206 1.389 3332
1.758 2.255 1.406 3384
1.760 2.258 1.398 1692
0.904 1.159 0.789 274
0.385 0.492 1.594 15248
0.388 0.495 1.592 16841
0.390 0.499 1.590 18434
0.395 0.504 1.596 15450
0.399 0.510 1.601 12663
0.400 0.511 1.592 14074
0.403 0.514 1.590 15630
0.405 0.518 1.588 15630
0.408 0.521 1.586 16455
0.410 0.524 1.584 17280
0.413 0.528 1.582 17171
0.416 0.531 1.580 17063
0.420 0.537 1.585 16834
0.423 0.540 1.583 16892
0.425 0.544 1.581 14878
0.430 0.550 1.586 13184
0.431 0.550 1.577 10468
0.433 0.553 1.575 7625
0.436 0.557 1.572 7602
0.436 0.557 1.563 7756
0.441 0.563 1.568 10931
0.443 0.566 1.566 14650
0.448 0.573 1.571 17901
0.453 0.579 1.576 21882
0.456 0.582 1.573 25836
0.458 0.585 1.571 28442
0.463 0.592 1.576 27832
0.466 0.595 1.574 27549
0.468 0.598 1.571 23747
0.468 0.598 1.562 20077
0.471 0.602 1.560 23194
0.473 0.605 1.558 26311
0.478 0.611 1.562 29280
0.481 0.614 1.560 32615
0.486 0.621 1.564 26685
0.488 0.624 1.562 20762
0.493 0.630 1.566 21206
0.503 0.643 1.585 20363
0.511 0.653 1.596 20549
0.511 0.653 1.586 24415
0.514 0.656 1.584 27363
0.519 0.663 1.588 26426
0.521 0.666 1.586 24166
0.524 0.669 1.583 21733
0.526 0.673 1.581 19786
0.529 0.676 1.578 15652
0.532 0.679 1.575 13465
0.534 0.682 1.573 21829
0.537 0.686 1.570 32207
0.539 0.689 1.568 34490
0.544 0.696 1.572 30109
0.547 0.699 1.569 22441
0.550 0.702 1.566 18937
0.555 0.709 1.570 16619
0.560 0.715 1.574 13157
0.552 0.705 1.545 11859
0.552 0.705 1.536 14256
0.551 0.705 1.527 17550
0.554 0.708 1.524 17131
0.562 0.718 1.534 16793
0.575 0.735 1.558 19889
0.578 0.738 1.555 18263
0.580 0.741 1.552 17081
0.580 0.741 1.543 16395
0.583 0.744 1.540 14717
0.585 0.748 1.537 21077
0.585 0.747 1.528 26001
0.587 0.750 1.525 25601
0.587 0.750 1.516 24759
0.584 0.746 1.500 18095
0.586 0.749 1.497 9749
0.609 0.778 1.539 7574
0.617 0.788 1.549 6338
0.593 0.758 1.489 6593
0.596 0.761 1.486 8075
0.598 0.764 1.483 11188
0.603 0.771 1.486 13624
0.603 0.770 1.477 13592
0.605 0.773 1.474 15823
0.608 0.776 1.471 22221
0.610 0.780 1.468 30763
0.612 0.783 1.465 40003
0.615 0.786 1.462 43325
0.614 0.785 1.453 38112
0.617 0.788 1.450 35986
0.622 0.795 1.453 31408
0.624 0.798 1.450 18502
0.630 0.804 1.454 13390
0.635 0.811 1.457 18535
0.634 0.810 1.447 19347
0.634 0.810 1.438 16641
0.645 0.824 1.453 14914
0.648 0.827 1.450 13917
0.644 0.822 1.435 10554
0.646 0.825 1.432 12631
0.651 0.832 1.435 17356
0.657 0.839 1.438 13345
0.662 0.846 1.441 11667
0.668 0.853 1.443 13248
0.670 0.856 1.440 12113
0.727 0.928 1.539 12215
0.739 0.944 1.553 11474
0.745 0.951 1.556 15388
0.747 0.954 1.552 21479
0.750 0.958 1.548 25957
0.752 0.961 1.545 23672
0.755 0.964 1.541 17155
0.760 0.971 1.543 12276
0.760 0.971 1.534 11063
0.762 0.974 1.530 11443
0.765 0.977 1.527 6528
0.774 0.988 1.534 3270
0.773 0.987 1.525 9207
0.782 0.999 1.533 14930
0.791 1.011 1.541 18302
0.794 1.014 1.537 20256
0.796 1.017 1.533 21768
0.799 1.020 1.529 23088
0.804 1.028 1.531 26936
0.810 1.035 1.533 26881
0.813 1.039 1.529 19736
0.815 1.042 1.525 17043
0.818 1.045 1.521 16328
0.813 1.039 1.506 14370
0.819 1.047 1.507 13063
0.825 1.054 1.509 13393
0.824 1.053 1.500 14942
0.827 1.056 1.496 15375
0.829 1.059 1.492 13861
0.831 1.062 1.488 9483
0.851 1.088 1.511 13481
0.847 1.082 1.496 29251
0.846 1.080 1.487 35325
0.848 1.084 1.482 29801
0.847 1.082 1.473 26906
0.849 1.085 1.469 21888
0.852 1.088 1.465 26683
0.850 1.087 1.455 32684
0.853 1.090 1.451 30795
0.859 1.097 1.452 26350
0.861 1.100 1.448 21558
0.863 1.103 1.444 26556
0.869 1.111 1.445 35036
0.875 1.118 1.446 32016
0.881 1.126 1.447 20368
0.887 1.134 1.448 13730
0.890 1.137 1.444 13076
0.888 1.135 1.435 17785
0.894 1.143 1.436 21470
0.900 1.150 1.437 19700
0.906 1.158 1.437 18603
0.909 1.161 1.433 21638
0.911 1.164 1.429 21526
0.913 1.167 1.424 15658
0.923 1.179 1.430 13484
0.925 1.182 1.426 12359
0.931 1.190 1.426 9873
0.937 1.198 1.427 13421
0.943 1.205 1.427 17090
0.949 1.213 1.428 12167
0.956 1.221 1.428 5550
1.026 1.311 1.513 4411
1.025 1.309 1.503 5710
1.035 1.322 1.508 12779
1.037 1.325 1.503 19649
1.044 1.333 1.503 16141
0.981 1.253 1.415 11819
1.064 1.359 1.513 14909
1.066 1.362 1.508 21950
1.069 1.365 1.503 18856
0.994 1.270 1.401 12113
1.081 1.381 1.502 10649
1.088 1.390 1.501 15985
1.090 1.393 1.496 16662
1.092 1.396 1.491 12104
1.091 1.394 1.481 8693
1.125 1.437 1.513 9977
1.131 1.445 1.513 12191
1.126 1.438 1.498 14614
1.128 1.441 1.493 16721
1.134 1.449 1.492 16883
1.133 1.447 1.482 18520
1.135 1.451 1.476 20906
1.142 1.459 1.475 23297
1.144 1.462 1.470 23861
1.150 1.470 1.469 25247
1.161 1.483 1.472 29285
1.167 1.491 1.471 24038
1.182 1.510 1.479 16052
1.196 1.528 1.487 14427
1.186 1.516 1.468 14233
1.193 1.524 1.467 13339
1.224 1.563 1.492 9638
1.254 1.603 1.517 7685
1.261 1.611 1.515 10144
1.259 1.609 1.505 15671
1.266 1.617 1.503 19737
1.272 1.626 1.501 13939
1.283 1.639 1.504 9976
1.281 1.637 1.493 10114
1.284 1.640 1.487 8179
1.290 1.649 1.485 6247
1.301 1.662 1.487 7321
1.308 1.671 1.485 11088
1.310 1.674 1.479 13469
1.316 1.682 1.477 13590
1.323 1.690 1.475 12781
1.330 1.699 1.472 12332
1.332 1.702 1.466 11084
1.343 1.715 1.468 10547
1.345 1.718 1.461 11840
1.356 1.732 1.463 10336
1.367 1.746 1.465 8484
1.373 1.754 1.462 7295
1.397 1.784 1.475 8690
1.412 1.804 1.480 11965
1.418 1.812 1.478 12898
1.425 1.821 1.475 13242
1.432 1.829 1.472 13130
1.438 1.837 1.469 11679
1.441 1.841 1.462 10332
1.456 1.860 1.467 11867
1.458 1.863 1.460 13542
1.460 1.866 1.453 11697
1.463 1.869 1.446 9853
1.465 1.872 1.439 6783
1.506 1.924 1.465 3824
1.509 1.927 1.458 5642
1.515 1.936 1.454 6525
1.518 1.939 1.447 7420
1.524 1.947 1.444 7490
1.527 1.950 1.436 7616
1.568 2.003 1.462 6556
1.570 2.006 1.454 7061
1.577 2.015 1.450 5840
1.584 2.023 1.446 4825
1.590 2.032 1.442 4416
1.606 2.052 1.445 4461
1.599 2.043 1.430 6365
1.602 2.046 1.423 8495
1.608 2.055 1.418 9739
1.615 2.063 1.414 11306
1.617 2.066 1.406 11484
1.615 2.064 1.395 9424
1.613 2.061 1.384 7398
1.615 2.064 1.377 5824
1.671 2.134 1.409 5052
1.642 2.098 1.378 3994
1.644 2.100 1.370 4018
1.646 2.103 1.362 4018
1.724 2.203 1.409 4171
1.726 2.206 1.401 4171
1.729 2.209 1.392 3433
1.758 2.246 1.403 3437
1.760 2.249 1.395 1718
0.906 1.157 0.789 251
0.388 0.493 1.601 15850
0.391 0.497 1.600 16926
0.393 0.500 1.598 18001
0.396 0.503 1.596 14997
0.401 0.509 1.601 12245
0.403 0.513 1.599 13519
0.404 0.513 1.590 14889
0.406 0.517 1.588 14889
0.409 0.520 1.586 15205
0.412 0.523 1.584 15521
0.414 0.527 1.582 15265
0.417 0.530 1.580 15008
0.422 0.536 1.585 15009
0.424 0.539 1.583 15246
0.429 0.545 1.588 13273
0.432 0.549 1.586 11690
0.432 0.549 1.577 8824
0.437 0.555 1.582 5979
0.437 0.556 1.572 6786
0.437 0.556 1.563 7725
0.442 0.562 1.568 10683
0.445 0.565 1.566 14050
0.450 0.571 1.571 16900
0.454 0.578 1.576 20477
0.457 0.581 1.573 24382
0.460 0.584 1.571 26987
0.465 0.590 1.576 26511
0.467 0.594 1.574 26316
0.470 0.597 1.571 22650
0.470 0.597 1.562 19056
0.472 0.600 1.560 22258
0.475 0.604 1.558 25461
0.480 0.610 1.562 28295
0.485 0.616 1.567 31558
0.487 0.620 1.564 25632
0.492 0.626 1.569 19788
0.497 0.632 1.573 20073
0.505 0.642 1.585 20371
0.513 0.651 1.596 20770
0.513 0.652 1.586 24513
0.515 0.655 1.584 27380
0.520 0.661 1.588 26319
0.523 0.665 1.586 23788
0.526 0.668 1.583 21255
0.528 0.671 1.581 18799
0.531 0.675 1.578 14999
0.533 0.678 1.575 13657
0.536 0.681 1.573 22271
0.538 0.684 1.570 32980
0.541 0.688 1.568 35184
0.546 0.694 1.572 31220
0.549 0.697 1.569 24056
0.551 0.701 1.566 20631
0.557 0.707 1.570 18277
0.562 0.714 1.574 14750
0.564 0.717 1.572 12912
0.553 0.703 1.536 14892
0.553 0.703 1.527 18318
0.558 0.710 1.530 18105
0.566 0.720 1.541 18036
0.574 0.730 1.551 21474
0.577 0.733 1.548 19264
0.579 0.736 1.546 17372
0.579 0.736 1.536 16864
0.579 0.736 1.527 15055
0.584 0.742 1.531 20518
0.587 0.746 1.528 25787
0.589 0.749 1.525 26175
0.589 0.748 1.516 26100
0.588 0.748 1.507 19605
0.588 0.747 1.497 10718
0.608 0.772 1.533 6667
0.590 0.750 1.485 5716
0.595 0.757 1.489 6145
0.598 0.760 1.486 7040
0.600 0.763 1.483 9479
0.605 0.770 1.486 11707
0.605 0.769 1.477 11911
0.607 0.772 1.474 13724
0.610 0.775 1.471 19768
0.612 0.778 1.468 29366
0.614 0.781 1.465 40229
0.617 0.784 1.462 43895
0.616 0.783 1.453 40149
0.619 0.786 1.450 39717
0.624 0.793 1.453 34732
0.626 0.796 1.450 20978
0.635 0.807 1.460 15115
0.640 0.814 1.463 19626
0.639 0.813 1.454 19413
0.639 0.812 1.444 15963
0.647 0.823 1.453 14310
0.653 0.830 1.456 13683
0.649 0.825 1.441 10473
0.648 0.824 1.432 13331
0.653 0.831 1.435 17977
0.659 0.838 1.438 13115
0.664 0.845 1.441 11758
0.670 0.852 1.443 13423
0.672 0.855 1.440 12774
0.732 0.931 1.545 11025
0.741 0.942 1.553 10101
0.747 0.949 1.556 13403
0.749 0.953 1.552 20324
0.752 0.956 1.548 25057
0.755 0.959 1.545 21668
0.757 0.962 1.541 14750
0.763 0.970 1.543 10656
0.762 0.969 1.534 9989
0.765 0.972 1.530 11242
0.770 0.979 1.532 7673
0.776 0.987 1.534 4696
0.779 0.990 1.531 9113
0.784 0.997 1.533 16238
0.794 1.009 1.541 20661
0.800 1.016 1.543 19922
0.799 1.015 1.533 20338
0.801 1.018 1.529 24054
0.807 1.026 1.531 29283
0.813 1.033 1.533 27685
0.815 1.036 1.529 19009
0.818 1.040 1.525 15990
0.820 1.043 1.521 15378
0.816 1.037 1.506 13690
0.818 1.040 1.502 12462
0.824 1.048 1.504 14270
0.823 1.046 1.494 17055
0.826 1.050 1.490 15320
0.832 1.057 1.492 13047
0.838 1.065 1.493 10196
0.854 1.086 1.511 14294
0.849 1.080 1.496 26920
0.848 1.078 1.487 32950
0.851 1.081 1.482 27737
0.850 1.080 1.473 24774
0.852 1.083 1.469 20238
0.854 1.086 1.465 24002
0.853 1.084 1.455 28511
0.856 1.087 1.451 26470
0.861 1.095 1.452 23507
0.867 1.103 1.454 18477
0.870 1.106 1.449 22487
0.876 1.113 1.451 35718
0.878 1.116 1.446 38205
0.884 1.124 1.447 25463
0.890 1.131 1.448 14239
0.892 1.134 1.444 10527
0.891 1.133 1.435 13238
0.897 1.140 1.436 17821
0.903 1.148 1.437 18103
0.909 1.156 1.437 18667
0.911 1.159 1.433 21289
0.914 1.161 1.429 18911
0.920 1.169 1.429 11485
0.930 1.182 1.435 11323
0.932 1.185 1.431 12672
0.934 1.187 1.426 10986
0.940 1.195 1.427 13592
0.946 1.203 1.427 17952
0.953 1.211 1.428 12813
0.962 1.223 1.433 5776
1.029 1.308 1.513 5818
1.036 1.316 1.513 6265
1.038 1.320 1.508 12775
1.044 1.328 1.508 20973
1.047 1.331 1.503 18693
0.984 1.251 1.415 13143
1.063 1.352 1.508 14073
1.070 1.360 1.508 21685
1.068 1.358 1.498 19911
1.071 1.361 1.493 12293
1.081 1.374 1.497 10979
1.087 1.382 1.497 15361
1.094 1.390 1.496 15346
1.100 1.398 1.496 11072
1.110 1.411 1.500 8142
1.128 1.434 1.513 11649
1.131 1.437 1.508 13987
1.129 1.435 1.498 16243
1.132 1.438 1.493 18138
1.138 1.447 1.492 17698
1.137 1.445 1.482 17956
1.143 1.453 1.481 20873
1.149 1.461 1.480 24546
1.152 1.464 1.474 24814
1.154 1.467 1.469 25267
1.165 1.480 1.472 28463
1.175 1.493 1.476 24628
1.181 1.502 1.475 16726
1.180 1.500 1.465 14588
1.186 1.508 1.463 13880
1.193 1.516 1.462 13210
1.228 1.560 1.492 10110
1.230 1.563 1.486 6518
1.261 1.603 1.511 8194
1.263 1.606 1.505 12966
1.270 1.614 1.503 16818
1.276 1.622 1.501 13148
1.283 1.631 1.499 10621
1.285 1.634 1.493 11104
1.288 1.637 1.487 9445
1.294 1.645 1.485 7349
1.305 1.659 1.487 7395
1.312 1.667 1.485 11335
1.318 1.676 1.483 14661
1.321 1.679 1.477 15058
1.327 1.687 1.475 13850
1.334 1.695 1.472 12574
1.336 1.698 1.466 11278
1.347 1.712 1.468 11102
1.354 1.720 1.465 12882
1.360 1.729 1.463 11684
1.375 1.748 1.469 10236
1.378 1.751 1.462 8706
1.397 1.775 1.471 9230
1.412 1.795 1.477 11939
1.419 1.803 1.474 12936
1.430 1.817 1.475 13312
1.436 1.825 1.472 12887
1.443 1.834 1.469 11238
1.458 1.853 1.474 9964
1.460 1.856 1.467 11816
1.463 1.859 1.460 13669
1.465 1.862 1.453 11886
1.467 1.865 1.446 10102
1.470 1.868 1.439 6778
1.515 1.926 1.469 4233
1.518 1.929 1.462 6389
1.520 1.932 1.454 7370
1.522 1.935 1.447 8352
1.529 1.944 1.444 8256
1.531 1.947 1.436 8221
1.529 1.944 1.425 6741
1.580 2.008 1.458 6282
1.586 2.016 1.454 5778
1.593 2.025 1.450 5515
1.595 2.028 1.442 5307
1.607 2.042 1.441 5171
1.605 2.039 1.430 6860
1.607 2.042 1.423 8545
1.618 2.056 1.422 9846
1.620 2.059 1.414 11541
1.623 2.062 1.406 11748
1.620 2.060 1.395 9560
1.618 2.057 1.384 7433
1.620 2.060 1.377 5727
1.676 2.130 1.409 5573
1.652 2.099 1.381 4214
1.649 2.096 1.370 4412
1.651 2.099 1.362 4412
1.730 2.198 1.409 4135
1.732 2.201 1.401 4135
1.739 2.210 1.396 3550
1.759 2.236 1.400 3588
1.761 2.238 1.392 1794
0.389 0.493 1.601 16807
0.392 0.496 1.600 17165
0.394 0.500 1.598 17524
0.397 0.503 1.596 14504
0.403 0.511 1.608 11987
0.404 0.512 1.599 13032
0.407 0.515 1.597 14212
0.409 0.519 1.595 14236
0.410 0.519 1.586 14039
0.412 0.523 1.584 13897
0.415 0.526 1.582 13640
0.418 0.529 1.580 13384
0.422 0.535 1.585 13660
0.425 0.539 1.583 14108
0.430 0.545 1.588 12205
0.432 0.548 1.586 10630
0.435 0.551 1.584 7850
0.437 0.555 1.582 5030
0.438 0.555 1.572 6389
0.440 0.558 1.570 7933
0.443 0.561 1.568 10614
0.446 0.565 1.566 13558
0.450 0.571 1.571 15935
0.455 0.577 1.576 19051
0.458 0.580 1.573 22788
0.460 0.584 1.571 25284
0.465 0.590 1.576 24816
0.468 0.593 1.574 24584
0.470 0.596 1.571 21051
0.473 0.600 1.569 17519
0.473 0.600 1.560 20884
0.476 0.603 1.558 24264
0.481 0.609 1.562 26973
0.486 0.616 1.567 30173
0.488 0.619 1.564 24437
0.493 0.625 1.569 18900
0.501 0.635 1.580 19408
0.508 0.644 1.591 20571
0.513 0.651 1.596 21005
0.514 0.651 1.586 24313
0.516 0.654 1.584 26779
0.521 0.661 1.588 25598
0.524 0.664 1.586 23047
0.526 0.667 1.583 20714
0.529 0.671 1.581 18008
0.534 0.677 1.585 14788
0.534 0.677 1.575 14236
0.537 0.680 1.573 22872
0.539 0.684 1.570 33647
0.542 0.687 1.568 35749
0.547 0.693 1.572 32148
0.550 0.697 1.569 25445
0.552 0.700 1.566 22048
0.557 0.707 1.570 19770
0.563 0.713 1.574 16264
0.565 0.717 1.572 14552
0.554 0.703 1.536 15528
0.557 0.706 1.533 18729
0.562 0.712 1.537 18807
0.576 0.730 1.561 19653
0.575 0.729 1.551 23182
0.575 0.729 1.542 21170
0.580 0.736 1.546 18329
0.580 0.735 1.536 17426
0.580 0.735 1.527 15521
0.585 0.742 1.531 20099
0.588 0.745 1.528 25043
0.590 0.748 1.525 26034
0.590 0.748 1.516 26925
0.589 0.747 1.507 21001
0.592 0.750 1.504 12119
0.594 0.753 1.501 7096
0.591 0.749 1.485 6416
0.596 0.756 1.489 6035
0.599 0.759 1.486 6314
0.619 0.784 1.521 8352
0.609 0.772 1.493 9492
0.606 0.768 1.477 9650
0.608 0.771 1.474 10868
0.611 0.774 1.471 16339
0.613 0.777 1.468 26829
0.616 0.780 1.465 39120
0.618 0.783 1.462 43303
0.617 0.782 1.453 41105
0.620 0.785 1.450 42170
0.625 0.792 1.453 37043
0.627 0.795 1.450 22585
0.633 0.802 1.454 16003
0.641 0.813 1.463 20117
0.641 0.812 1.454 19083
0.640 0.811 1.444 15314
0.648 0.822 1.453 14107
0.654 0.829 1.456 13763
0.653 0.828 1.447 10951
0.649 0.823 1.432 13971
0.655 0.830 1.435 17948
0.660 0.837 1.438 12410
0.666 0.844 1.441 11708
0.671 0.851 1.443 13524
0.673 0.854 1.440 13365
0.737 0.934 1.551 11334
0.742 0.941 1.553 9611
0.748 0.948 1.556 11800
0.748 0.947 1.546 19312
0.750 0.951 1.542 24289
0.753 0.954 1.539 19715
0.758 0.961 1.541 12995
0.764 0.969 1.543 9765
0.760 0.963 1.528 9473
0.766 0.971 1.530 11272
0.772 0.978 1.532 9604
0.777 0.985 1.534 7321
0.780 0.989 1.531 9450
0.789 1.000 1.539 17147
0.795 1.008 1.541 22217
0.801 1.015 1.543 19000
0.803 1.018 1.539 18081
0.806 1.022 1.535 24167
0.808 1.025 1.531 31006
0.814 1.032 1.533 28360
0.817 1.035 1.529 18588
0.819 1.039 1.525 14760
0.818 1.037 1.515 14065
0.814 1.032 1.500 12830
0.820 1.039 1.502 11169
0.826 1.047 1.504 13521
0.825 1.045 1.494 17907
0.827 1.048 1.490 14728
0.833 1.056 1.492 11442
0.843 1.068 1.499 10746
0.856 1.084 1.511 14559
0.851 1.079 1.496 24533
0.853 1.082 1.492 30749
0.852 1.080 1.482 26464
0.851 1.079 1.473 22768
0.853 1.082 1.469 18275
0.856 1.085 1.465 20374
0.858 1.088 1.461 23524
0.861 1.091 1.457 21926
0.863 1.094 1.452 20463
0.869 1.101 1.454 15533
0.875 1.109 1.455 18292
0.877 1.112 1.451 35155
0.883 1.120 1.452 43004
0.886 1.123 1.447 30462
0.888 1.126 1.443 16124
0.890 1.128 1.439 8818
0.893 1.131 1.435 8659
0.899 1.139 1.436 13844
0.905 1.147 1.437 15213
0.911 1.154 1.437 16793
0.917 1.162 1.438 19911
0.919 1.165 1.434 17087
0.929 1.177 1.440 11501
0.931 1.180 1.435 12357
0.930 1.179 1.426 13909
0.936 1.186 1.426 10876
0.946 1.199 1.432 13370
0.948 1.202 1.427 18801
0.950 1.205 1.423 13907
0.960 1.217 1.428 6116
1.035 1.312 1.518 7260
1.037 1.315 1.513 7977
1.044 1.323 1.513 14246
1.046 1.326 1.508 23273
1.049 1.329 1.503 21673
0.986 1.249 1.415 13966
1.065 1.350 1.508 14125
1.068 1.353 1.503 22001
1.070 1.356 1.498 21588
1.069 1.354 1.488 15132
1.079 1.367 1.492 12398
1.089 1.380 1.497 15136
1.095 1.388 1.496 14512
1.106 1.401 1.500 11112
1.128 1.430 1.519 9343
1.130 1.433 1.513 13193
1.133 1.436 1.508 15532
1.131 1.434 1.498 17432
1.134 1.437 1.493 19100
1.140 1.445 1.492 18259
1.143 1.448 1.486 17452
1.145 1.451 1.481 20565
1.151 1.459 1.480 24823
1.154 1.462 1.474 24882
1.156 1.465 1.469 23940
1.171 1.484 1.477 26053
1.177 1.492 1.476 24296
1.179 1.495 1.470 17180
1.178 1.493 1.460 15205
1.184 1.501 1.459 14116
1.195 1.514 1.462 13368
1.201 1.522 1.461 10236
1.216 1.541 1.468 5934
1.263 1.601 1.511 5982
1.270 1.609 1.509 9774
1.272 1.612 1.503 13155
1.279 1.621 1.501 11961
1.285 1.629 1.499 11200
1.288 1.632 1.493 11995
1.290 1.635 1.487 10618
1.293 1.638 1.481 8445
1.303 1.652 1.483 7513
1.314 1.665 1.485 11465
1.321 1.674 1.483 15588
1.323 1.677 1.477 16169
1.330 1.685 1.475 14478
1.336 1.694 1.472 12334
1.339 1.697 1.466 11000
1.349 1.710 1.468 11322
1.356 1.719 1.465 13553
1.367 1.732 1.467 12706
1.378 1.746 1.469 11635
1.380 1.749 1.462 9845
1.395 1.768 1.467 9668
1.414 1.793 1.477 11648
1.421 1.801 1.474 12608
1.432 1.815 1.475 12940
1.439 1.823 1.472 12226
1.441 1.826 1.465 10549
1.465 1.857 1.477 9502
1.467 1.860 1.470 11505
1.465 1.857 1.460 13577
1.468 1.860 1.453 11878
1.470 1.863 1.446 10178
1.472 1.866 1.439 6757
1.522 1.929 1.473 4822
1.520 1.927 1.462 7197
1.523 1.930 1.454 8308
1.525 1.933 1.447 9420
1.527 1.936 1.440 9082
1.530 1.939 1.433 8745
1.532 1.942 1.425 7312
1.530 1.939 1.415 5880
1.594 2.020 1.457 5984
1.596 2.023 1.450 6410
1.598 2.026 1.442 6242
1.596 2.023 1.431 6099
1.603 2.032 1.427 7236
1.610 2.040 1.423 8422
1.621 2.054 1.422 9780
1.623 2.057 1.414 11504
1.625 2.060 1.406 11736
1.623 2.057 1.395 9509
1.621 2.055 1.384 7306
1.623 2.057 1.377 5507
1.679 2.128 1.409 6030
1.672 2.119 1.394 4593
1.657 2.100 1.373 4652
1.659 2.103 1.365 4652
1.737 2.202 1.412 4043
1.739 2.205 1.404 4043
1.751 2.219 1.402 3856
1.757 2.227 1.397 3957
1.760 2.230 1.388 1978
0.391 0.492 1.601 17183
0.393 0.495 1.600 16984
0.396 0.498 1.598 16784
0.400 0.504 1.603 13875
0.405 0.510 1.608 11429
0.406 0.511 1.599 12315
0.408 0.514 1.597 13408
0.411 0.517 1.595 13415
0.412 0.518 1.586 12915
0.414 0.521 1.584 12474
0.417 0.525 1.582 12314
0.419 0.528 1.580 12154
0.424 0.534 1.585 12619
0.427 0.537 1.583 13228
0.432 0.543 1.588 11217
0.434 0.546 1.586 9526
0.437 0.550 1.584 6923
0.439 0.553 1.582 4249
0.442 0.556 1.579 6264
0.442 0.557 1.570 8411
0.445 0.560 1.568 10766
0.447 0.563 1.566 13340
0.452 0.569 1.571 15288
0.457 0.575 1.576 17967
0.460 0.579 1.573 21514
0.462 0.582 1.571 23890
0.467 0.588 1.576 23444
0.470 0.591 1.574 23176
0.472 0.595 1.571 19682
0.475 0.598 1.569 16187
0.478 0.601 1.567 19268
0.480 0.604 1.564 22348
0.483 0.608 1.562 24790
0.488 0.614 1.567 27829
0.493 0.620 1.571 22844
0.498 0.627 1.576 18256
0.503 0.633 1.580 19543
0.510 0.643 1.591 20891
0.516 0.649 1.596 21069
0.518 0.652 1.593 23562
0.521 0.656 1.591 25225
0.523 0.659 1.588 23926
0.526 0.662 1.586 21622
0.529 0.665 1.583 19787
0.531 0.669 1.581 17210
0.536 0.675 1.585 14727
0.536 0.675 1.575 14675
0.539 0.679 1.573 23102
0.542 0.682 1.570 33723
0.544 0.685 1.568 35777
0.549 0.692 1.572 32599
0.552 0.695 1.569 26431
0.555 0.698 1.566 23092
0.560 0.705 1.570 21317
0.565 0.711 1.574 18206
0.568 0.715 1.572 16660
0.562 0.708 1.549 16617
0.562 0.707 1.540 19063
0.567 0.714 1.544 19270
0.578 0.728 1.561 21433
0.578 0.727 1.551 25208
0.578 0.727 1.542 23682
0.583 0.734 1.546 19905
0.585 0.737 1.543 18051
0.585 0.737 1.534 15734
0.585 0.736 1.524 19779
0.590 0.743 1.528 24286
0.593 0.746 1.525 25753
0.592 0.746 1.516 27561
0.592 0.745 1.507 22386
0.594 0.748 1.504 13780
0.594 0.748 1.494 8661
0.594 0.747 1.485 7228
0.602 0.757 1.495 6341
0.610 0.768 1.505 6075
0.624 0.786 1.527 7758
0.636 0.800 1.543 7863
0.609 0.766 1.477 7346
0.608 0.765 1.468 7826
0.613 0.772 1.471 12637
0.616 0.775 1.468 23860
0.618 0.778 1.465 37100
0.621 0.781 1.462 41871
0.620 0.780 1.453 41312
0.625 0.787 1.456 43674
0.628 0.790 1.453 38493
0.630 0.793 1.450 23474
0.635 0.800 1.454 16114
0.644 0.811 1.463 19764
0.643 0.810 1.454 18203
0.646 0.813 1.450 14941
0.651 0.820 1.453 14523
0.657 0.827 1.456 14323
0.656 0.826 1.447 11971
0.652 0.821 1.432 14563
0.654 0.824 1.429 17729
0.660 0.830 1.432 11821
0.668 0.841 1.441 11867
0.674 0.848 1.443 13811
0.673 0.847 1.434 13999
0.740 0.931 1.551 12261
0.749 0.943 1.559 9247
0.751 0.946 1.556 10355
0.751 0.945 1.546 18243
0.753 0.948 1.542 23792
0.756 0.951 1.539 18964
0.762 0.959 1.541 12512
0.764 0.962 1.538 9703
0.763 0.961 1.528 9010
0.769 0.968 1.530 11053
0.775 0.975 1.532 11265
0.781 0.983 1.534 9597
0.787 0.990 1.537 9608
0.796 1.002 1.544 17397
0.802 1.009 1.546 22886
0.804 1.012 1.543 17586
0.803 1.011 1.533 15577
0.809 1.019 1.535 23674
0.812 1.022 1.531 32083
0.818 1.029 1.533 28874
0.820 1.033 1.529 18530
0.823 1.036 1.525 13719
0.818 1.030 1.510 13602
0.817 1.029 1.500 13234
0.823 1.036 1.502 9941
0.829 1.044 1.504 11385
0.828 1.043 1.494 17183
0.827 1.041 1.484 14073
0.840 1.058 1.497 10221
0.843 1.061 1.493 11122
0.856 1.077 1.506 14238
0.855 1.076 1.496 22257
0.857 1.079 1.492 28756
0.859 1.082 1.488 25998
0.855 1.076 1.473 21006
0.857 1.079 1.469 15787
0.860 1.082 1.465 15930
0.862 1.085 1.461 17817
0.864 1.088 1.457 17145
0.867 1.091 1.452 16859
0.873 1.098 1.454 12608
0.879 1.106 1.455 14921
0.881 1.109 1.451 33456
0.887 1.117 1.452 45680
0.889 1.120 1.447 34753
0.892 1.123 1.443 19100
0.894 1.125 1.439 9580
0.893 1.124 1.429 6824
0.906 1.141 1.441 10970
0.909 1.144 1.437 12898
0.918 1.156 1.443 15190
0.921 1.159 1.438 19728
0.923 1.162 1.434 18621
0.929 1.170 1.434 13345
0.935 1.177 1.435 12628
0.938 1.180 1.431 12246
0.951 1.197 1.441 9231
0.950 1.196 1.432 13202
0.952 1.198 1.427 19472
0.954 1.201 1.423 14717
0.961 1.209 1.423 6795
1.039 1.308 1.518 8822
1.046 1.316 1.518 10125
1.052 1.324 1.518 16765
1.051 1.323 1.508 26047
1.053 1.326 1.503 24634
1.060 1.334 1.503 16301
1.066 1.342 1.503 15555
1.072 1.350 1.503 23363
1.075 1.353 1.498 23931
1.073 1.351 1.488 18485
1.083 1.364 1.492 14819
1.090 1.372 1.492 15457
1.104 1.390 1.501 14145
1.114 1.403 1.505 11855
1.133 1.426 1.519 11077
1.135 1.429 1.513 14425
1.138 1.432 1.508 16450
1.136 1.430 1.498 17929
1.139 1.433 1.493 19614
1.145 1.441 1.492 18543
1.147 1.444 1.486 17140
1.154 1.452 1.485 20102
1.156 1.455 1.480 24292
1.159 1.458 1.474 24102
1.161 1.461 1.469 21964
1.176 1.480 1.477 22811
1.186 1.493 1.480 23220
1.184 1.491 1.470 17561
1.175 1.479 1.451 16037
1.185 1.492 1.455 14787
1.196 1.505 1.458 13949
1.202 1.513 1.457 10807
1.196 1.506 1.442 5957
1.195 1.504 1.432 4159
1.275 1.605 1.509 7063
1.282 1.613 1.507 10030
1.284 1.616 1.501 10788
1.287 1.619 1.495 11475
1.293 1.628 1.493 12452
1.296 1.631 1.487 11437
1.298 1.634 1.481 9365
1.309 1.647 1.483 7703
1.320 1.661 1.485 11502
1.326 1.669 1.483 16167
1.329 1.672 1.477 16903
1.335 1.681 1.475 14788
1.338 1.684 1.468 12065
1.344 1.692 1.466 10550
1.355 1.706 1.468 11364
1.362 1.714 1.465 13895
1.373 1.728 1.467 13418
1.383 1.741 1.469 12817
1.386 1.744 1.462 10880
1.397 1.758 1.463 9895
1.420 1.788 1.477 10932
1.431 1.802 1.478 11958
1.438 1.810 1.475 12234
1.441 1.813 1.468 11329
1.447 1.822 1.465 9628
1.471 1.852 1.477 8874
1.474 1.855 1.470 11018
1.472 1.852 1.460 13294
1.474 1.855 1.453 11757
1.476 1.858 1.446 10220
1.479 1.861 1.439 6793
1.529 1.924 1.473 5525
1.531 1.927 1.465 7962
1.534 1.930 1.458 9227
1.536 1.933 1.451 10492
1.534 1.931 1.440 9921
1.536 1.934 1.433 9353
1.539 1.937 1.425 7864
1.541 1.940 1.418 6375
1.600 2.014 1.457 6500
1.603 2.017 1.450 7538
1.601 2.015 1.439 7323
1.603 2.018 1.431 7190
1.610 2.026 1.427 7673
1.617 2.035 1.423 8260
1.628 2.049 1.422 9557
1.630 2.052 1.414 11246
1.628 2.049 1.403 11552
1.630 2.052 1.395 9303
1.632 2.055 1.388 7054
1.688 2.125 1.420 5390
1.686 2.122 1.409 6346
1.679 2.114 1.394 4932
1.664 2.094 1.373 4762
1.666 2.097 1.365 4762
1.754 2.207 1.419 3950
1.756 2.210 1.410 3950
1.758 2.213 1.402 4120
1.765 2.221 1.397 4340
1.767 2.224 1.388 2170
0.391 0.491 1.601 17653
0.394 0.494 1.600 16872
0.397 0.498 1.598 16092
0.401 0.504 1.603 13316
0.406 0.509 1.608 10928
0.407 0.510 1.599 11800
0.409 0.513 1.597 12925
0.412 0.517 1.595 12916
0.412 0.517 1.586 12236
0.413 0.518 1.577 11582
0.418 0.524 1.582 11680
0.420 0.527 1.580 11786
0.425 0.533 1.585 12324
0.428 0.537 1.583 12968
0.432 0.543 1.588 10672
0.435 0.546 1.586 8705
0.438 0.549 1.584 6476
0.442 0.555 1.589 4237
0.443 0.556 1.579 6606
0.443 0.556 1.570 9080
0.446 0.559 1.568 11027
0.448 0.563 1.566 13143
0.453 0.569 1.571 14579
0.458 0.575 1.576 16666
0.461 0.578 1.573 19872
0.463 0.581 1.571 22057
0.468 0.588 1.576 21622
0.471 0.591 1.574 21338
0.473 0.594 1.571 18006
0.476 0.597 1.569 14675
0.479 0.601 1.567 17420
0.481 0.604 1.564 20166
0.486 0.610 1.569 22484
0.489 0.613 1.567 25220
0.494 0.620 1.571 21241
0.499 0.626 1.576 17773
0.506 0.635 1.587 19564
0.511 0.642 1.591 20952
0.517 0.648 1.596 20862
0.519 0.652 1.593 22542
0.522 0.655 1.591 23397
0.524 0.658 1.588 21836
0.527 0.661 1.586 19831
0.530 0.665 1.583 18562
0.532 0.668 1.581 16269
0.537 0.674 1.585 14612
0.540 0.678 1.582 15148
0.543 0.681 1.580 23200
0.545 0.684 1.577 33567
0.545 0.684 1.568 35553
0.550 0.691 1.572 32805
0.553 0.694 1.569 27246
0.556 0.697 1.566 24032
0.561 0.704 1.570 22935
0.566 0.711 1.574 20257
0.569 0.714 1.572 18785
0.571 0.717 1.569 18183
0.566 0.710 1.546 19315
0.571 0.717 1.550 19588
0.579 0.727 1.561 22947
0.579 0.726 1.551 27189
0.579 0.726 1.542 26461
0.584 0.733 1.546 21856
0.589 0.740 1.549 18843
0.589 0.739 1.540 15770
0.586 0.735 1.524 19315
0.591 0.742 1.528 23584
0.594 0.745 1.525 25628
0.593 0.745 1.516 28287
0.593 0.744 1.507 23812
0.595 0.747 1.504 15441
0.598 0.750 1.501 10130
0.598 0.750 1.492 8085
0.606 0.760 1.501 6853
0.614 0.771 1.511 6475
0.625 0.785 1.527 7245
0.637 0.799 1.543 6826
0.613 0.769 1.483 5550
0.615 0.772 1.480 5207
0.614 0.771 1.471 9013
0.617 0.774 1.468 20463
0.619 0.777 1.465 34353
0.622 0.780 1.462 39688
0.621 0.779 1.453 40628
0.626 0.786 1.456 44184
0.629 0.789 1.453 39098
0.631 0.792 1.450 23665
0.637 0.799 1.454 15507
0.645 0.810 1.463 18545
0.648 0.813 1.460 16879
0.647 0.812 1.450 14756
0.652 0.819 1.453 15171
0.658 0.826 1.456 15034
0.657 0.825 1.447 13193
0.656 0.824 1.438 15238
0.655 0.823 1.429 17292
0.661 0.829 1.432 11359
0.670 0.840 1.441 12129
0.675 0.847 1.443 14168
0.674 0.846 1.434 14688
0.741 0.930 1.551 13346
0.747 0.937 1.553 9978
0.750 0.941 1.550 10967
0.752 0.944 1.546 18121
0.755 0.947 1.542 22921
0.757 0.950 1.539 18007
0.763 0.957 1.541 12055
0.769 0.965 1.543 9779
0.765 0.960 1.528 8448
0.771 0.967 1.530 10644
0.776 0.974 1.532 12613
0.782 0.982 1.534 11806
0.788 0.989 1.537 9684
0.801 1.005 1.550 17004
0.803 1.008 1.546 22447
0.806 1.011 1.543 15766
0.805 1.010 1.533 13359
0.811 1.018 1.535 22645
0.813 1.021 1.531 32157
0.819 1.028 1.533 28807
0.822 1.031 1.529 18399
0.821 1.030 1.519 13274
0.820 1.029 1.510 13079
0.819 1.028 1.500 13425
0.825 1.035 1.502 9570
0.831 1.043 1.504 10258
0.826 1.037 1.488 16666
0.829 1.040 1.484 13108
0.842 1.056 1.497 9046
0.844 1.059 1.493 11567
0.854 1.071 1.500 13888
0.856 1.074 1.496 20108
0.859 1.077 1.492 26555
0.861 1.081 1.488 26002
0.860 1.079 1.478 19720
0.862 1.082 1.474 13394
0.865 1.085 1.470 11788
0.864 1.084 1.461 12259
0.866 1.087 1.457 12565
0.868 1.090 1.452 12777
0.874 1.097 1.454 9616
0.884 1.109 1.460 12192
0.886 1.112 1.456 31159
0.889 1.115 1.452 46202
0.891 1.118 1.447 37825
0.893 1.121 1.443 22245
0.892 1.120 1.434 11496
0.894 1.122 1.429 7048
0.904 1.135 1.436 10129
0.910 1.142 1.437 12904
0.920 1.155 1.443 15565
0.922 1.158 1.438 20280
0.925 1.161 1.434 18878
0.935 1.173 1.440 13175
0.941 1.181 1.440 11820
0.947 1.188 1.441 10383
0.953 1.196 1.441 8770
0.952 1.194 1.432 13220
0.954 1.197 1.427 19368
0.960 1.205 1.428 15131
0.962 1.208 1.423 7825
1.041 1.307 1.518 10370
1.048 1.315 1.518 12321
1.054 1.323 1.518 19499
1.056 1.326 1.513 28833
1.055 1.324 1.503 27202
1.058 1.327 1.498 19281
1.064 1.335 1.498 18352
1.070 1.343 1.498 25906
1.073 1.346 1.493 27429
1.075 1.349 1.488 21979
1.085 1.362 1.492 17941
1.092 1.370 1.492 16168
1.110 1.393 1.506 13892
1.120 1.406 1.510 12991
1.131 1.419 1.514 12734
1.133 1.422 1.509 15447
1.140 1.430 1.508 16934
1.138 1.428 1.498 17892
1.141 1.431 1.493 19647
1.147 1.440 1.492 18594
1.150 1.443 1.486 16900
1.156 1.451 1.485 19670
1.158 1.454 1.480 23003
1.161 1.457 1.474 22422
1.163 1.460 1.469 19208
1.182 1.483 1.482 19175
1.188 1.491 1.480 21609
1.183 1.484 1.466 17786
1.177 1.477 1.451 16812
1.187 1.490 1.455 15545
1.198 1.503 1.458 14514
1.200 1.506 1.452 11250
1.194 1.499 1.438 6225
1.193 1.497 1.428 3764
1.282 1.608 1.513 5036
1.284 1.611 1.507 7406
1.287 1.615 1.501 9510
1.289 1.618 1.495 11308
1.291 1.621 1.489 12534
1.298 1.629 1.487 12081
1.300 1.632 1.481 10277
1.307 1.640 1.479 8167
1.322 1.659 1.485 11545
1.329 1.667 1.483 16500
1.331 1.670 1.477 17361
1.333 1.673 1.471 14962
1.340 1.682 1.468 11725
1.342 1.685 1.462 10021
1.358 1.704 1.468 11280
1.364 1.712 1.465 14074
1.375 1.726 1.467 13964
1.386 1.739 1.469 13727
1.388 1.742 1.462 11669
1.395 1.751 1.459 9924
1.427 1.791 1.480 9939
1.434 1.800 1.478 11079
1.441 1.808 1.475 11309
1.443 1.811 1.468 10362
1.450 1.819 1.465 8605
1.474 1.850 1.477 8045
1.476 1.853 1.470 10288
1.474 1.850 1.460 12727
1.477 1.853 1.453 11433
1.479 1.856 1.446 10140
1.486 1.865 1.442 6862
1.532 1.922 1.473 6109
1.534 1.925 1.465 8589
1.536 1.928 1.458 10017
1.539 1.931 1.451 11446
1.537 1.929 1.440 10653
1.539 1.931 1.433 9885
1.541 1.934 1.425 8354
1.544 1.937 1.418 6823
1.603 2.012 1.457 6982
1.606 2.015 1.450 8477
1.604 2.012 1.439 8242
1.606 2.015 1.431 8055
1.613 2.024 1.427 7923
1.619 2.032 1.423 7902
1.631 2.046 1.422 9076
1.633 2.049 1.414 10697
1.631 2.047 1.403 11099
1.633 2.049 1.395 8912
1.635 2.052 1.388 6725
1.691 2.122 1.420 5252
1.689 2.120 1.409 6354
1.682 2.111 1.394 5027
1.671 2.097 1.376 4767
1.673 2.100 1.368 4767
1.761 2.210 1.422 3770
1.764 2.213 1.414 3770
1.766 2.216 1.405 4173
1.768 2.219 1.397 4575
1.770 2.222 1.388 2287
0.393 0.490 1.601 18881
0.395 0.493 1.600 17618
0.398 0.496 1.598 16354
0.403 0.502 1.603 13493
0.408 0.508 1.608 10952
0.408 0.509 1.599 11885
0.409 0.510 1.590 13066
0.411 0.513 1.588 13066
0.414 0.516 1.586 12229
0.414 0.517 1.577 11432
0.419 0.523 1.582 11622
0.422 0.526 1.580 11852
0.427 0.532 1.585 12276
0.429 0.535 1.583 12794
0.434 0.541 1.588 10175
0.437 0.544 1.586 7896
0.439 0.548 1.584 6504
0.444 0.554 1.589 5172
0.444 0.554 1.579 7563
0.445 0.555 1.570 9994
0.447 0.558 1.568 11427
0.452 0.564 1.573 13018
0.455 0.567 1.571 13856
0.460 0.573 1.576 15254
0.462 0.577 1.573 17996
0.465 0.580 1.571 19948
0.470 0.586 1.576 19512
0.473 0.589 1.574 19212
0.475 0.593 1.571 16133
0.478 0.596 1.569 13054
0.480 0.599 1.567 15400
0.483 0.602 1.564 17746
0.488 0.609 1.569 19932
0.493 0.615 1.574 22535
0.496 0.618 1.571 19472
0.506 0.631 1.589 17606
0.508 0.634 1.587 19672
0.513 0.640 1.591 21170
0.519 0.647 1.596 20817
0.521 0.650 1.593 21572
0.524 0.653 1.591 21451
0.526 0.656 1.588 19440
0.529 0.660 1.586 17669
0.532 0.663 1.583 17033
0.534 0.666 1.581 15102
0.540 0.673 1.585 14553
0.542 0.676 1.582 15945
0.545 0.679 1.580 23534
0.547 0.683 1.577 33330
0.547 0.683 1.568 35030
0.553 0.689 1.572 32488
0.555 0.692 1.569 27413
0.558 0.696 1.566 24418
0.563 0.702 1.570 24219
0.568 0.709 1.574 22102
0.571 0.712 1.572 20659
0.574 0.715 1.569 19700
0.571 0.712 1.553 19630
0.576 0.718 1.557 20282
0.581 0.725 1.561 24272
0.581 0.725 1.551 28796
0.581 0.724 1.542 28985
0.589 0.735 1.552 23613
0.592 0.738 1.549 19492
0.591 0.737 1.540 15609
0.588 0.733 1.524 18779
0.594 0.740 1.528 22894
0.593 0.740 1.519 25727
0.596 0.743 1.516 29115
