0.571 0.338 1.611 24400
0.574 0.340 1.609 24212
0.581 0.344 1.615 17890
0.588 0.348 1.620 12336
0.594 0.352 1.625 11353
0.598 0.354 1.623 10414
0.602 0.356 1.621 10849
0.605 0.358 1.618 11283
0.609 0.361 1.616 10011
0.610 0.361 1.607 8655
0.613 0.363 1.605 9216
0.617 0.365 1.603 9861
0.621 0.367 1.601 12408
0.621 0.368 1.591 16034
0.625 0.370 1.589 17830
0.628 0.372 1.587 19117
0.632 0.374 1.585 18753
0.639 0.378 1.590 19839
0.646 0.382 1.594 20415
0.653 0.386 1.599 19769
0.659 0.390 1.604 18068
0.666 0.394 1.608 16887
0.673 0.399 1.613 16566
0.680 0.403 1.618 15071
0.681 0.403 1.608 12818
0.684 0.405 1.606 10615
0.691 0.409 1.610 8313
0.702 0.415 1.622 6601
0.709 0.420 1.626 6071
0.702 0.416 1.603 7359
0.709 0.420 1.608 14171
0.717 0.424 1.612 30125
0.720 0.426 1.609 41464
0.724 0.428 1.607 44510
0.731 0.433 1.611 47627
0.735 0.435 1.609 40023
0.738 0.437 1.606 22867
0.738 0.437 1.597 13806
0.703 0.416 1.520 13699
0.703 0.416 1.511 11708
0.706 0.418 1.508 9334
0.767 0.454 1.613 13310
0.771 0.456 1.611 16298
0.775 0.459 1.608 17848
0.778 0.461 1.605 17745
0.782 0.463 1.602 17080
0.786 0.465 1.600 17591
0.789 0.467 1.597 16465
0.797 0.472 1.601 14095
0.767 0.454 1.539 13354
0.778 0.460 1.549 11125
0.800 0.474 1.579 10556
0.804 0.476 1.577 12264
0.807 0.478 1.574 15011
0.811 0.480 1.571 17607
0.814 0.482 1.568 14204
0.814 0.482 1.559 11692
0.814 0.482 1.549 10727
0.825 0.488 1.560 10876
0.836 0.495 1.570 9709
0.840 0.497 1.567 7901
0.844 0.499 1.564 8661
0.847 0.501 1.561 9274
0.859 0.508 1.571 10964
0.874 0.517 1.587 17997
0.878 0.519 1.584 21339
0.881 0.522 1.581 20338
0.885 0.524 1.578 15696
0.893 0.528 1.581 13606
0.896 0.530 1.578 14315
0.904 0.535 1.581 10635
0.916 0.542 1.591 10962
0.927 0.549 1.600 12600
0.939 0.556 1.610 13548
0.943 0.558 1.607 16430
0.947 0.560 1.603 21754
0.950 0.562 1.600 27305
0.954 0.565 1.597 26422
0.953 0.564 1.587 19788
0.974 0.576 1.609 15949
0.982 0.581 1.612 16230
0.985 0.583 1.608 16451
0.989 0.585 1.605 18955
0.989 0.585 1.595 17355
0.996 0.590 1.598 12571
0.996 0.589 1.588 14073
0.999 0.592 1.585 16158
1.016 0.601 1.600 11635
1.020 0.604 1.596 12437
1.023 0.606 1.593 17646
1.031 0.610 1.595 15695
1.031 0.610 1.586 10666
1.047 0.620 1.600 11257
1.056 0.625 1.602 19770
1.059 0.627 1.599 23277
1.063 0.629 1.595 17326
1.071 0.634 1.597 13131
1.075 0.636 1.594 13329
1.078 0.638 1.590 15575
1.077 0.638 1.580 18731
1.085 0.642 1.582 18257
1.089 0.645 1.579 16447
1.093 0.647 1.575 11313
1.101 0.651 1.577 7095
1.114 0.659 1.585 8118
1.126 0.667 1.593 8225
1.139 0.674 1.600 8841
1.138 0.674 1.591 10994
1.151 0.681 1.598 17148
1.160 0.686 1.600 27414
1.163 0.688 1.596 29190
1.171 0.693 1.598 29775
1.170 0.693 1.588 25287
1.169 0.692 1.578 14545
1.178 0.697 1.580 13749
1.181 0.699 1.576 23526
1.185 0.701 1.572 31572
1.193 0.706 1.573 28309
1.206 0.714 1.580 16396
1.215 0.719 1.582 11097
1.223 0.724 1.583 14396
1.232 0.729 1.585 21623
1.235 0.731 1.580 23726
1.244 0.736 1.582 25892
1.247 0.738 1.577 22696
1.261 0.746 1.584 18573
1.269 0.751 1.585 16962
1.283 0.759 1.592 14825
1.286 0.761 1.587 21530
1.290 0.763 1.583 34826
1.293 0.766 1.578 40789
1.297 0.768 1.574 29200
1.306 0.773 1.575 20625
1.309 0.775 1.570 22851
1.318 0.780 1.571 20761
1.326 0.785 1.572 12250
1.330 0.787 1.567 9373
1.339 0.792 1.568 9001
1.347 0.797 1.569 10704
1.356 0.803 1.569 11783
1.359 0.805 1.565 8532
1.368 0.810 1.565 9954
1.382 0.818 1.571 13875
1.391 0.823 1.572 13808
1.405 0.831 1.577 11172
1.413 0.836 1.577 13425
1.417 0.839 1.573 22540
1.420 0.841 1.568 30098
1.424 0.843 1.563 26529
1.428 0.845 1.558 14500
1.457 0.863 1.578 12668
1.461 0.865 1.573 20201
1.464 0.867 1.568 18909
1.479 0.875 1.573 12329
1.493 0.883 1.578 11022
1.502 0.889 1.578 9022
1.510 0.894 1.578 6480
1.525 0.902 1.583 8720
1.528 0.905 1.577 11711
1.532 0.907 1.572 8276
1.541 0.912 1.572 4057
1.566 0.927 1.586 6043
1.564 0.926 1.576 8746
1.573 0.931 1.575 12905
1.577 0.933 1.570 19807
1.580 0.935 1.564 21546
1.578 0.934 1.554 20635
1.587 0.939 1.553 20965
1.602 0.948 1.557 20523
1.611 0.953 1.557 20781
1.614 0.955 1.551 23793
1.612 0.954 1.541 25710
1.616 0.956 1.535 25291
1.625 0.962 1.534 22171
1.639 0.970 1.538 21157
1.648 0.976 1.537 21775
1.652 0.978 1.531 13712
1.666 0.986 1.535 6317
1.681 0.995 1.538 6308
1.690 1.000 1.537 7426
1.699 1.006 1.536 9574
1.703 1.008 1.530 11349
1.734 1.026 1.546 10357
1.749 1.035 1.549 14049
1.752 1.037 1.543 14932
1.767 1.046 1.546 10630
1.776 1.051 1.545 9862
1.774 1.050 1.534 14098
1.778 1.052 1.528 16626
1.781 1.054 1.522 15210
1.785 1.056 1.516 12746
1.799 1.065 1.518 14325
1.803 1.067 1.512 17351
1.812 1.072 1.510 14842
1.810 1.071 1.500 12310
1.813 1.073 1.494 12387
1.816 1.075 1.487 11456
1.820 1.077 1.481 9527
1.841 1.089 1.487 8896
1.913 1.133 1.531 9200
1.917 1.135 1.524 8184
1.926 1.140 1.522 6844
1.912 1.132 1.503 6311
1.927 1.141 1.505 6922
1.937 1.146 1.502 8043
1.952 1.155 1.503 9502
1.955 1.157 1.497 9716
1.947 1.152 1.482 8221
1.962 1.161 1.483 7727
1.965 1.163 1.477 7640
1.974 1.169 1.474 6472
2.013 1.192 1.490 4765
2.028 1.201 1.491 4120
2.079 1.231 1.515 3650
2.083 1.233 1.508 4584
2.068 1.224 1.490 6153
2.072 1.226 1.483 8078
2.081 1.232 1.479 7654
2.084 1.234 1.472 6130
2.082 1.232 1.461 4036
2.121 1.255 1.476 3515
2.203 1.304 1.517 3895
2.170 1.284 1.488 5416
2.167 1.283 1.477 7204
2.164 1.281 1.466 7453
2.162 1.279 1.454 7881
2.250 1.332 1.498 6897
2.247 1.330 1.486 9016
2.250 1.332 1.479 9244
2.254 1.334 1.471 9473
2.257 1.336 1.463 7448
2.248 1.331 1.448 5619
2.276 1.347 1.455 5476
2.298 1.360 1.457 6387
2.301 1.362 1.449 5919
2.304 1.364 1.442 5394
2.307 1.366 1.434 5394
2.311 1.368 1.426 3866
2.437 1.442 1.485 3608
2.434 1.441 1.473 4799
2.431 1.439 1.462 6193
2.435 1.441 1.453 6536
2.438 1.443 1.445 6879
2.435 1.441 1.433 5044
2.438 1.443 1.425 3284
2.442 1.445 1.417 3284
2.438 1.443 1.405 2663
2.054 1.216 1.200 2876
2.057 1.218 1.193 2876
2.060 1.219 1.186 3417
0.535 0.315 1.587 13423
0.545 0.321 1.600 13031
0.554 0.326 1.612 15454
0.561 0.330 1.617 18417
0.567 0.334 1.623 21478
0.568 0.334 1.613 23661
0.572 0.336 1.611 25708
0.575 0.339 1.609 25483
0.582 0.343 1.615 19027
0.588 0.346 1.620 13403
0.595 0.350 1.625 12173
0.599 0.353 1.623 11017
0.603 0.355 1.621 11069
0.606 0.357 1.618 11122
0.610 0.359 1.616 9550
0.614 0.361 1.614 7905
0.614 0.362 1.605 8740
0.618 0.364 1.603 9765
0.622 0.366 1.601 12554
0.625 0.368 1.598 15951
0.626 0.368 1.589 17601
0.629 0.371 1.587 18730
0.633 0.373 1.585 18252
0.640 0.377 1.590 19194
0.647 0.381 1.594 19578
0.650 0.383 1.592 18947
0.660 0.389 1.604 17128
0.667 0.393 1.608 15787
0.674 0.397 1.613 14763
0.681 0.401 1.618 12928
0.685 0.403 1.615 10987
0.689 0.405 1.613 9046
0.696 0.410 1.617 8056
0.706 0.416 1.629 7802
0.710 0.418 1.626 7258
0.710 0.418 1.617 8021
0.710 0.418 1.608 14206
0.718 0.422 1.612 30241
0.721 0.425 1.609 41985
0.725 0.427 1.607 45380
0.732 0.431 1.611 48868
0.736 0.433 1.609 41238
0.739 0.435 1.606 24146
0.739 0.435 1.597 15346
0.704 0.414 1.520 14499
0.704 0.414 1.511 12505
0.704 0.414 1.501 10122
0.768 0.452 1.613 12944
0.772 0.455 1.611 15997
0.776 0.457 1.608 17290
0.779 0.459 1.605 16784
0.787 0.463 1.609 15901
0.787 0.463 1.600 16006
0.790 0.465 1.597 14316
0.798 0.470 1.601 11641
0.768 0.452 1.539 12557
0.779 0.458 1.549 10340
0.801 0.472 1.579 10652
0.805 0.474 1.577 13017
0.808 0.476 1.574 15630
0.812 0.478 1.571 17623
0.816 0.480 1.568 13383
0.815 0.480 1.559 10220
0.838 0.493 1.588 9570
0.846 0.498 1.592 11838
0.841 0.495 1.576 9872
0.845 0.498 1.573 7319
0.845 0.497 1.564 7399
0.848 0.499 1.561 7807
0.868 0.511 1.584 10533
0.875 0.515 1.587 17932
0.879 0.517 1.584 20827
0.883 0.520 1.581 19606
0.890 0.524 1.584 15282
0.894 0.526 1.581 14631
0.897 0.528 1.578 16329
0.905 0.533 1.581 11553
0.921 0.542 1.597 10881
0.929 0.547 1.600 12073
0.941 0.554 1.610 13105
0.944 0.556 1.607 16773
0.948 0.558 1.603 22598
0.952 0.560 1.600 27475
0.955 0.562 1.597 25868
0.959 0.565 1.593 20545
0.975 0.574 1.609 18156
0.983 0.579 1.612 17741
0.987 0.581 1.608 18222
0.991 0.583 1.605 21635
0.994 0.585 1.601 19291
0.998 0.587 1.598 13328
0.997 0.587 1.588 14321
1.001 0.589 1.585 16357
1.022 0.602 1.606 12740
1.025 0.604 1.602 12579
1.029 0.606 1.599 15858
1.028 0.605 1.589 13889
1.032 0.608 1.586 12021
1.049 0.617 1.600 13902
1.057 0.622 1.602 21148
1.061 0.624 1.599 22654
1.064 0.627 1.595 15539
1.072 0.631 1.597 11045
1.072 0.631 1.588 11454
1.075 0.633 1.584 13179
1.079 0.635 1.580 17531
1.087 0.640 1.582 19224
1.090 0.642 1.579 16419
1.094 0.644 1.575 10845
1.098 0.646 1.571 6828
1.115 0.656 1.585 6762
1.096 0.645 1.552 6658
1.136 0.669 1.595 8192
1.131 0.666 1.579 11555
1.148 0.676 1.593 16159
1.156 0.681 1.594 25853
1.160 0.683 1.590 26187
1.173 0.691 1.598 25931
1.172 0.690 1.588 21436
1.171 0.689 1.578 11313
1.179 0.694 1.580 15631
1.178 0.694 1.570 27447
1.186 0.698 1.572 34310
1.195 0.703 1.573 29838
1.198 0.706 1.569 13776
1.221 0.719 1.588 8214
1.230 0.724 1.589 11903
1.233 0.726 1.585 19925
1.237 0.728 1.580 20261
1.245 0.733 1.582 22283
1.249 0.735 1.577 21608
1.262 0.743 1.584 16682
1.271 0.748 1.585 19090
1.275 0.750 1.581 16729
1.288 0.758 1.587 17857
1.292 0.760 1.583 30341
1.290 0.760 1.573 36583
1.299 0.765 1.574 24792
1.307 0.770 1.575 18963
1.311 0.772 1.570 22633
1.325 0.780 1.577 21440
1.328 0.782 1.572 14898
1.332 0.784 1.567 11056
1.335 0.786 1.563 9872
1.349 0.794 1.569 12696
1.358 0.799 1.569 14860
1.361 0.801 1.565 11336
1.370 0.807 1.565 12166
1.384 0.815 1.571 14867
1.398 0.823 1.577 13154
1.406 0.828 1.577 11834
1.415 0.833 1.577 17816
1.419 0.835 1.573 28952
1.422 0.837 1.568 34310
1.426 0.839 1.563 27884
1.424 0.839 1.553 13918
1.465 0.862 1.583 11752
1.468 0.864 1.578 21275
1.472 0.866 1.573 21164
1.486 0.875 1.578 14482
1.495 0.880 1.578 12853
1.504 0.885 1.578 10303
1.513 0.890 1.578 6681
1.521 0.896 1.578 8410
1.530 0.901 1.577 12107
1.529 0.900 1.567 9920
1.532 0.902 1.562 6224
1.541 0.907 1.561 8116
1.545 0.909 1.556 11030
1.559 0.918 1.561 14317
1.573 0.926 1.565 20127
1.582 0.932 1.564 20359
1.580 0.930 1.554 20829
1.589 0.936 1.553 24006
1.598 0.941 1.553 22411
1.613 0.950 1.557 18714
1.611 0.948 1.546 19126
1.614 0.950 1.541 20576
1.618 0.953 1.535 19750
1.627 0.958 1.534 16190
1.647 0.970 1.543 18053
1.651 0.972 1.537 20702
1.648 0.970 1.527 13107
1.669 0.982 1.535 6689
1.678 0.988 1.534 7907
1.687 0.993 1.532 9382
1.701 1.002 1.536 10479
1.705 1.004 1.530 11384
1.742 1.026 1.551 9789
1.751 1.031 1.549 13618
1.760 1.036 1.548 14419
1.775 1.045 1.551 11041
1.784 1.051 1.549 10873
1.782 1.049 1.538 16091
1.780 1.048 1.528 19038
1.789 1.053 1.526 17868
1.793 1.055 1.520 13711
1.808 1.064 1.523 13404
1.817 1.070 1.521 16635
1.820 1.072 1.514 14412
1.812 1.067 1.500 12311
1.816 1.069 1.494 12829
1.819 1.071 1.487 11988
1.822 1.073 1.481 10265
1.837 1.082 1.483 9786
1.910 1.125 1.527 10657
1.920 1.130 1.524 9122
1.911 1.125 1.509 7335
1.915 1.127 1.503 7048
1.930 1.136 1.505 7277
1.939 1.142 1.502 8317
1.948 1.147 1.499 9862
1.958 1.153 1.497 9910
1.949 1.148 1.482 8068
1.964 1.157 1.483 7259
1.974 1.162 1.480 6773
1.983 1.167 1.478 5693
2.022 1.190 1.494 3959
2.037 1.199 1.495 3753
2.082 1.226 1.515 4420
2.086 1.228 1.508 5566
2.071 1.219 1.490 7100
2.075 1.221 1.483 9225
2.084 1.227 1.479 8983
2.087 1.229 1.472 7425
2.091 1.231 1.465 5026
2.124 1.250 1.476 4104
2.175 1.281 1.499 4130
2.173 1.279 1.488 5572
2.176 1.281 1.480 7024
2.173 1.280 1.469 7018
2.171 1.278 1.458 7129
2.253 1.326 1.498 6513
2.250 1.325 1.486 8665
2.254 1.327 1.479 9058
2.257 1.329 1.471 9451
2.254 1.327 1.460 7604
2.251 1.325 1.448 5995
2.285 1.345 1.458 6085
2.301 1.354 1.457 7478
2.310 1.360 1.453 7103
2.313 1.362 1.445 6773
2.317 1.364 1.437 6773
2.320 1.366 1.429 4669
2.441 1.437 1.485 4303
2.438 1.435 1.473 5381
2.441 1.437 1.465 6463
2.438 1.435 1.453 6564
2.441 1.437 1.445 6682
2.445 1.439 1.437 4970
2.442 1.437 1.425 3319
2.445 1.439 1.417 3319
2.055 1.210 1.207 2888
2.057 1.211 1.200 3327
2.060 1.213 1.193 3327
2.063 1.214 1.186 3852
0.536 0.314 1.587 13872
0.545 0.319 1.600 14007
0.555 0.325 1.612 16618
0.561 0.329 1.617 18811
0.568 0.332 1.623 21155
0.569 0.333 1.613 23599
0.572 0.335 1.611 25856
0.576 0.337 1.609 25640
0.583 0.341 1.615 19350
0.589 0.345 1.620 13955
0.596 0.349 1.625 12726
0.600 0.351 1.623 11615
0.603 0.353 1.621 11333
0.607 0.355 1.618 11051
0.611 0.358 1.616 9245
0.615 0.360 1.614 7425
0.615 0.360 1.605 8378
0.619 0.362 1.603 9598
0.622 0.364 1.601 12391
0.626 0.367 1.598 15635
0.630 0.369 1.596 17015
0.630 0.369 1.587 18047
0.637 0.373 1.592 17550
0.641 0.375 1.590 18140
0.648 0.379 1.594 18112
0.651 0.381 1.592 17626
0.661 0.387 1.604 16161
0.668 0.391 1.608 14990
0.675 0.395 1.613 13236
0.682 0.399 1.618 10944
0.686 0.402 1.615 9591
0.690 0.404 1.613 8238
0.697 0.408 1.617 8872
0.704 0.412 1.622 9731
0.711 0.416 1.626 8608
0.711 0.416 1.617 8702
0.715 0.419 1.614 14277
0.718 0.421 1.612 30385
0.722 0.423 1.609 42279
0.726 0.425 1.607 45759
0.733 0.429 1.611 49369
0.737 0.431 1.609 41607
0.740 0.434 1.606 24791
0.737 0.432 1.590 16811
0.701 0.411 1.513 15268
0.705 0.413 1.511 13255
0.755 0.442 1.596 10856
0.766 0.448 1.606 12409
0.773 0.453 1.611 15215
0.777 0.455 1.608 16151
0.781 0.457 1.605 15122
0.788 0.461 1.609 13991
0.788 0.461 1.600 14038
0.792 0.463 1.597 12351
0.765 0.448 1.541 10490
0.769 0.450 1.539 11729
0.780 0.457 1.549 9655
0.802 0.470 1.579 11247
0.806 0.472 1.577 13959
0.809 0.474 1.574 16397
0.813 0.476 1.571 17881
0.824 0.483 1.581 13497
0.836 0.489 1.591 10450
0.843 0.494 1.595 11543
0.851 0.498 1.599 13603
0.850 0.498 1.589 10569
0.866 0.507 1.606 7490
0.846 0.495 1.564 6103
0.849 0.497 1.561 6310
0.869 0.509 1.584 10455
0.877 0.513 1.587 18153
0.880 0.515 1.584 20712
0.888 0.520 1.587 19414
0.891 0.522 1.584 16033
0.895 0.524 1.581 16664
0.899 0.526 1.578 18700
0.906 0.531 1.581 12626
0.922 0.540 1.597 10853
0.930 0.545 1.600 11456
0.942 0.552 1.610 12868
0.946 0.554 1.607 17506
0.945 0.553 1.597 23926
0.953 0.558 1.600 28026
0.957 0.560 1.597 25018
0.960 0.562 1.593 20462
0.977 0.572 1.609 19785
0.985 0.576 1.612 19362
0.988 0.579 1.608 20081
0.992 0.581 1.605 24204
0.991 0.580 1.595 22033
0.995 0.583 1.592 15034
0.999 0.585 1.588 14834
1.002 0.587 1.585 15654
1.023 0.599 1.606 13784
1.027 0.601 1.602 13468
1.031 0.603 1.599 14546
1.039 0.608 1.601 13495
1.042 0.610 1.598 15550
1.055 0.618 1.606 19154
1.058 0.620 1.602 24426
1.067 0.625 1.605 22305
1.070 0.627 1.601 14433
1.069 0.626 1.591 10819
1.073 0.628 1.588 10608
1.077 0.630 1.584 11577
1.080 0.633 1.580 16709
1.088 0.637 1.582 20361
1.092 0.639 1.579 16815
1.096 0.642 1.575 10444
1.099 0.644 1.571 7105
1.098 0.643 1.562 6900
1.097 0.642 1.552 6623
1.119 0.655 1.571 9058
1.123 0.657 1.568 13558
1.145 0.670 1.587 15637
1.158 0.678 1.594 23896
1.162 0.680 1.590 23559
1.170 0.685 1.592 23649
1.169 0.684 1.582 21017
1.163 0.681 1.567 15757
1.176 0.689 1.574 22954
1.180 0.691 1.570 31713
1.188 0.696 1.572 34915
1.196 0.701 1.573 27527
1.190 0.697 1.558 10613
1.233 0.722 1.599 7944
1.231 0.721 1.589 14272
1.235 0.723 1.585 21246
1.239 0.725 1.580 17687
1.247 0.730 1.582 18675
1.251 0.732 1.577 20647
1.264 0.740 1.584 14635
1.273 0.745 1.585 20547
1.276 0.747 1.581 19436
1.285 0.752 1.582 15200
1.288 0.754 1.577 26317
1.292 0.757 1.573 32154
1.301 0.762 1.574 20224
1.309 0.767 1.575 17116
1.313 0.769 1.570 21860
1.326 0.777 1.577 22054
1.330 0.779 1.572 18173
1.329 0.778 1.562 13700
1.337 0.783 1.563 11277
1.351 0.791 1.569 14972
1.360 0.796 1.569 17236
1.358 0.795 1.560 13095
1.372 0.803 1.565 13488
1.381 0.808 1.566 15337
1.395 0.817 1.572 12093
1.408 0.825 1.577 11906
1.417 0.830 1.577 21698
1.421 0.832 1.573 35004
1.430 0.837 1.573 38297
1.428 0.836 1.563 28859
1.426 0.835 1.553 13111
1.472 0.862 1.588 11443
1.470 0.861 1.578 23388
1.474 0.863 1.573 24232
1.488 0.871 1.578 16076
1.502 0.880 1.583 12990
1.506 0.882 1.578 11084
1.509 0.884 1.573 7860
1.524 0.892 1.578 8817
1.527 0.894 1.572 12758
1.531 0.896 1.567 12200
1.534 0.898 1.562 9022
1.538 0.900 1.557 10655
1.547 0.906 1.556 15094
1.556 0.911 1.556 19258
1.570 0.919 1.560 21304
1.579 0.925 1.559 18273
1.583 0.927 1.554 20267
1.592 0.932 1.553 27236
1.601 0.937 1.553 24684
1.610 0.943 1.552 16395
1.613 0.945 1.546 14928
1.617 0.947 1.541 17367
1.620 0.949 1.535 17369
1.629 0.954 1.534 14622
1.649 0.966 1.543 16464
1.653 0.968 1.537 18706
1.651 0.967 1.527 11888
1.671 0.978 1.535 6472
1.674 0.980 1.529 9212
1.684 0.986 1.528 11748
1.698 0.994 1.531 11770
1.707 1.000 1.530 11107
1.745 1.022 1.551 9093
1.759 1.030 1.554 13077
1.769 1.036 1.552 14337
1.783 1.044 1.555 12050
1.793 1.050 1.553 12572
1.790 1.048 1.543 18441
1.788 1.047 1.532 21894
1.792 1.049 1.526 21519
1.801 1.055 1.524 16484
1.816 1.063 1.527 13730
1.837 1.075 1.534 16159
1.840 1.077 1.527 13978
1.815 1.063 1.500 11688
1.818 1.065 1.494 12617
1.821 1.067 1.487 12027
1.825 1.069 1.481 10657
1.904 1.115 1.529 10706
1.913 1.120 1.527 12469
1.916 1.122 1.520 10394
1.914 1.121 1.509 8107
1.917 1.123 1.503 7702
1.933 1.132 1.505 7703
1.942 1.137 1.502 8590
1.951 1.142 1.499 10235
1.960 1.148 1.497 10031
1.952 1.143 1.482 7750
1.967 1.152 1.483 6621
1.976 1.157 1.480 5738
1.986 1.163 1.478 4873
2.037 1.193 1.502 3593
2.076 1.215 1.519 4016
2.085 1.221 1.515 5266
2.089 1.223 1.508 6537
2.080 1.218 1.493 7828
2.077 1.216 1.483 9938
2.087 1.222 1.479 10059
2.090 1.224 1.472 8769
2.093 1.226 1.465 6262
2.127 1.245 1.476 4669
2.136 1.251 1.473 4453
2.176 1.274 1.488 5719
2.179 1.276 1.480 7016
2.183 1.278 1.473 6693
2.180 1.276 1.462 6444
2.256 1.321 1.498 5992
2.253 1.319 1.486 8034
2.257 1.321 1.479 8599
2.260 1.323 1.471 9165
2.257 1.322 1.460 7582
2.254 1.320 1.448 6199
2.288 1.340 1.458 6509
2.304 1.349 1.457 8335
2.313 1.355 1.453 8081
2.323 1.360 1.448 7895
2.326 1.362 1.440 7895
2.323 1.360 1.429 5363
2.438 1.427 1.482 4919
2.441 1.429 1.473 5781
2.444 1.431 1.465 6644
2.448 1.433 1.457 6502
2.451 1.435 1.448 6360
2.448 1.433 1.437 4861
2.445 1.432 1.425 3439
2.448 1.434 1.417 3439
2.064 1.208 1.211 3228
2.066 1.210 1.204 3778
2.069 1.212 1.197 3778
2.072 1.213 1.189 4333
0.537 0.313 1.587 12663
0.546 0.318 1.600 13118
0.556 0.324 1.612 15836
0.562 0.327 1.617 17908
0.566 0.330 1.615 20086
0.569 0.332 1.613 22583
0.573 0.334 1.611 24973
0.577 0.336 1.609 24866
0.583 0.340 1.615 19113
0.590 0.344 1.620 14242
0.597 0.348 1.625 13481
0.601 0.350 1.623 12819
0.604 0.352 1.621 12339
0.608 0.354 1.618 11860
0.612 0.356 1.616 9708
0.615 0.358 1.614 7608
0.619 0.361 1.612 8570
0.623 0.363 1.610 9913
0.626 0.365 1.608 12475
0.627 0.365 1.598 15288
0.631 0.367 1.596 16325
0.634 0.369 1.594 17167
0.638 0.372 1.592 16646
0.642 0.374 1.590 17176
0.648 0.378 1.594 17245
0.652 0.380 1.592 16731
0.659 0.384 1.597 15436
0.669 0.390 1.608 14262
0.676 0.394 1.613 12131
0.683 0.398 1.618 9558
0.687 0.400 1.615 9321
0.691 0.402 1.613 9085
0.698 0.406 1.617 10449
0.701 0.408 1.615 11987
0.708 0.413 1.619 10139
0.712 0.415 1.617 9376
0.716 0.417 1.614 14620
0.719 0.419 1.612 30662
0.723 0.421 1.609 42520
0.727 0.423 1.607 45847
0.734 0.428 1.611 49340
0.738 0.430 1.609 41373
0.738 0.430 1.599 25042
0.738 0.430 1.590 17802
0.745 0.434 1.594 16142
0.752 0.438 1.598 13819
0.756 0.440 1.596 11777
0.767 0.447 1.606 12087
0.774 0.451 1.611 14303
0.774 0.451 1.601 15080
0.782 0.455 1.605 13516
0.789 0.460 1.609 12163
0.789 0.459 1.600 12020
0.793 0.462 1.597 10283
0.766 0.446 1.541 9907
0.770 0.448 1.539 11163
0.781 0.455 1.549 9291
0.803 0.468 1.579 12123
0.807 0.470 1.577 15087
0.811 0.472 1.574 17069
0.814 0.474 1.571 17832
0.829 0.483 1.588 14019
0.837 0.487 1.591 11433
0.844 0.492 1.595 12773
0.848 0.494 1.592 14394
0.856 0.498 1.596 10873
0.867 0.505 1.606 7562
0.851 0.496 1.570 4929
0.855 0.498 1.567 5286
0.874 0.509 1.590 11249
0.878 0.511 1.587 18746
0.881 0.513 1.584 20677
0.889 0.518 1.587 19397
0.893 0.520 1.584 16305
0.900 0.524 1.588 17616
0.904 0.526 1.585 19678
0.912 0.531 1.588 12660
0.924 0.538 1.597 10073
0.931 0.542 1.600 10599
0.943 0.549 1.610 12704
0.947 0.552 1.607 18146
0.946 0.551 1.597 25374
0.954 0.556 1.600 28582
0.958 0.558 1.597 24058
0.962 0.560 1.593 19838
0.978 0.570 1.609 20923
0.986 0.574 1.612 21035
0.990 0.576 1.608 21130
0.993 0.578 1.605 24481
0.993 0.578 1.595 22667
0.996 0.580 1.592 15744
0.996 0.580 1.582 14373
1.012 0.590 1.597 14466
1.025 0.597 1.606 14779
1.033 0.601 1.608 14964
1.036 0.604 1.605 14166
1.044 0.608 1.607 14163
1.044 0.608 1.598 20128
1.056 0.615 1.606 25011
1.060 0.617 1.602 27361
1.068 0.622 1.605 22163
1.072 0.624 1.601 14150
1.071 0.624 1.591 11496
1.074 0.626 1.588 11244
1.074 0.625 1.578 11612
1.082 0.630 1.580 17556
1.090 0.635 1.582 22116
1.093 0.637 1.579 17427
1.097 0.639 1.575 10771
1.101 0.641 1.571 7352
1.104 0.643 1.567 6677
1.099 0.640 1.552 7357
1.121 0.653 1.571 10915
1.124 0.655 1.568 15486
1.147 0.668 1.587 15060
1.160 0.675 1.594 21836
1.163 0.677 1.590 21793
1.172 0.682 1.592 23717
1.171 0.682 1.582 24473
1.169 0.681 1.573 22010
1.178 0.686 1.574 29708
1.181 0.688 1.570 34485
1.190 0.693 1.572 34007
1.198 0.698 1.573 25468
1.187 0.691 1.552 9565
1.234 0.719 1.599 10443
1.233 0.718 1.589 18087
1.237 0.720 1.585 23417
1.245 0.725 1.586 18172
1.249 0.727 1.582 17358
1.252 0.729 1.577 20382
1.261 0.734 1.579 14496
1.269 0.739 1.580 21649
1.273 0.741 1.575 22183
1.287 0.749 1.582 14691
1.290 0.751 1.577 24286
1.294 0.754 1.573 29144
1.297 0.756 1.569 17512
1.311 0.764 1.575 16219
1.315 0.766 1.570 21444
1.328 0.774 1.577 22203
1.332 0.776 1.572 19974
1.330 0.775 1.562 15293
1.344 0.783 1.568 12539
1.358 0.791 1.574 16484
1.362 0.793 1.569 17976
1.360 0.792 1.560 12983
1.374 0.800 1.565 13486
1.383 0.805 1.566 15674
1.396 0.813 1.572 11731
1.410 0.821 1.577 11679
1.419 0.827 1.577 23747
1.423 0.829 1.573 38703
1.432 0.834 1.573 41022
1.430 0.833 1.563 29282
1.428 0.832 1.553 12497
1.474 0.858 1.588 12643
1.472 0.857 1.578 25351
1.476 0.860 1.573 26763
1.490 0.868 1.578 16983
1.504 0.876 1.583 12135
1.508 0.878 1.578 11156
1.511 0.880 1.573 9298
1.526 0.889 1.578 9252
1.529 0.891 1.572 13083
1.533 0.893 1.567 13939
1.531 0.892 1.557 10960
1.540 0.897 1.557 12005
1.549 0.902 1.556 17834
1.558 0.907 1.556 23690
1.567 0.913 1.555 23108
1.576 0.918 1.555 16919
1.590 0.926 1.559 19852
1.594 0.928 1.553 29695
1.603 0.934 1.553 27003
1.606 0.936 1.547 15556
1.610 0.938 1.542 11958
1.613 0.940 1.536 15380
1.622 0.945 1.535 16629
1.631 0.950 1.534 14604
1.652 0.962 1.543 14693
1.661 0.967 1.542 16201
1.659 0.966 1.531 10352
1.668 0.971 1.530 6283
1.682 0.980 1.534 10142
1.686 0.982 1.528 13333
1.695 0.987 1.527 12874
1.710 0.996 1.530 10612
1.753 1.021 1.555 8663
1.762 1.026 1.554 12634
1.777 1.035 1.557 14534
1.792 1.043 1.560 13327
1.795 1.045 1.553 14362
1.793 1.044 1.543 20515
1.791 1.043 1.532 24202
1.794 1.045 1.526 24384
1.803 1.050 1.524 19366
1.830 1.066 1.536 14688
1.845 1.074 1.538 16229
1.854 1.080 1.536 14332
1.817 1.058 1.500 10837
1.821 1.060 1.494 11951
1.818 1.059 1.483 11483
1.827 1.064 1.481 10238
1.906 1.110 1.529 12125
1.916 1.116 1.527 14237
1.919 1.118 1.520 11694
1.934 1.127 1.522 9134
1.920 1.118 1.503 8233
1.935 1.127 1.505 8011
1.945 1.133 1.502 8583
1.954 1.138 1.499 10257
1.963 1.143 1.497 9909
1.967 1.145 1.490 7371
1.976 1.151 1.487 6143
1.985 1.156 1.484 4983
1.994 1.162 1.482 4347
2.075 1.209 1.526 4027
2.079 1.211 1.519 4843
2.088 1.216 1.515 6058
2.091 1.218 1.508 7323
2.089 1.217 1.497 8128
2.074 1.208 1.479 9931
2.090 1.217 1.479 10523
2.099 1.222 1.476 9768
2.096 1.221 1.465 7317
2.124 1.237 1.473 5164
2.139 1.246 1.473 4862
2.179 1.269 1.488 5791
2.182 1.271 1.480 7002
2.186 1.273 1.473 6540
2.189 1.275 1.465 6078
2.259 1.316 1.498 5523
2.256 1.314 1.486 7372
2.260 1.316 1.479 8041
2.263 1.318 1.471 8710
2.260 1.316 1.460 7378
2.258 1.315 1.448 6193
2.298 1.338 1.462 6696
2.307 1.344 1.457 8747
2.317 1.349 1.453 8538
2.326 1.355 1.448 8477
2.329 1.357 1.440 8477
2.333 1.359 1.432 5681
2.435 1.418 1.478 5402
2.444 1.424 1.473 6105
2.448 1.426 1.465 6809
2.451 1.428 1.457 6387
2.454 1.429 1.448 5965
2.451 1.428 1.437 4617
2.448 1.426 1.425 3400
2.452 1.428 1.417 3400
2.067 1.204 1.211 3367
2.069 1.205 1.204 3936
2.072 1.207 1.197 3936
2.075 1.208 1.189 4546
0.538 0.311 1.587 12476
0.547 0.317 1.600 12887
0.556 0.322 1.612 15339
0.560 0.324 1.610 17342
0.567 0.328 1.615 19478
0.570 0.330 1.613 21955
0.574 0.332 1.611 24417
0.578 0.335 1.609 24403
0.584 0.338 1.615 18942
0.591 0.342 1.620 14369
0.598 0.346 1.625 13695
0.601 0.348 1.623 13139
0.605 0.351 1.621 12484
0.609 0.353 1.618 11829
0.616 0.357 1.623 9858
0.619 0.359 1.621 7874
0.620 0.359 1.612 8856
0.624 0.361 1.610 10243
0.627 0.363 1.608 12794
0.628 0.364 1.598 15313
0.631 0.366 1.596 16174
0.635 0.368 1.594 16907
0.639 0.370 1.592 16304
0.642 0.372 1.590 16509
0.649 0.376 1.594 16314
0.653 0.378 1.592 15817
0.660 0.382 1.597 14640
0.670 0.388 1.608 13451
0.674 0.390 1.606 11082
0.681 0.394 1.611 8294
0.684 0.396 1.608 8995
0.688 0.399 1.606 9696
0.695 0.403 1.610 11342
0.702 0.407 1.615 13307
0.709 0.411 1.619 10815
0.713 0.413 1.617 9396
0.717 0.415 1.614 14524
0.720 0.417 1.612 30688
0.724 0.420 1.609 42512
0.728 0.422 1.607 45821
0.735 0.426 1.611 49282
0.739 0.428 1.609 41259
0.739 0.428 1.599 25645
0.739 0.428 1.590 18948
0.746 0.432 1.594 17692
0.757 0.439 1.605 15542
0.757 0.439 1.596 12899
0.714 0.413 1.506 12322
0.772 0.447 1.604 13338
0.775 0.449 1.601 14040
0.783 0.453 1.605 12204
0.790 0.458 1.609 10743
0.790 0.458 1.600 10426
0.790 0.458 1.590 8664
0.767 0.445 1.541 9553
0.771 0.447 1.539 10833
0.782 0.453 1.549 9117
0.804 0.466 1.579 12834
0.808 0.468 1.577 16017
0.812 0.470 1.574 17735
0.819 0.475 1.577 18144
0.834 0.483 1.594 14749
0.842 0.488 1.598 12323
0.845 0.490 1.595 13772
0.849 0.492 1.592 15180
0.857 0.496 1.596 11398
0.868 0.503 1.606 7951
0.872 0.505 1.603 4842
0.864 0.500 1.580 5245
0.875 0.507 1.590 12011
0.879 0.509 1.587 18993
0.887 0.514 1.591 20421
0.890 0.516 1.587 19001
0.894 0.518 1.584 16165
0.902 0.522 1.588 18003
0.905 0.524 1.585 20251
0.913 0.529 1.588 12818
0.929 0.538 1.604 9395
0.933 0.540 1.600 9584
0.945 0.547 1.610 12116
0.944 0.547 1.600 18308
0.948 0.549 1.597 26019
0.951 0.551 1.594 28669
0.959 0.556 1.597 23102
0.967 0.560 1.600 19255
0.979 0.567 1.609 20639
0.987 0.572 1.612 21070
0.991 0.574 1.608 21235
0.995 0.576 1.605 24153
0.994 0.576 1.595 22452
0.998 0.578 1.592 15622
1.001 0.580 1.588 13925
1.009 0.585 1.591 14628
1.026 0.594 1.606 15687
1.034 0.599 1.608 16862
1.042 0.604 1.611 15649
1.050 0.608 1.613 16423
1.050 0.608 1.604 24197
1.053 0.610 1.600 29971
1.061 0.615 1.602 30010
1.069 0.620 1.605 22130
1.073 0.622 1.601 14585
1.077 0.624 1.597 12858
1.076 0.623 1.588 12255
1.075 0.623 1.578 12394
1.083 0.627 1.580 18522
1.091 0.632 1.582 22621
1.095 0.634 1.579 17045
1.099 0.636 1.575 10473
1.102 0.639 1.571 7508
1.106 0.641 1.567 6733
1.105 0.640 1.558 7042
1.122 0.650 1.571 11627
1.126 0.652 1.568 16299
1.148 0.665 1.587 14219
1.161 0.673 1.594 19502
1.165 0.675 1.590 19882
1.173 0.680 1.592 23652
1.172 0.679 1.582 27876
1.171 0.678 1.573 27251
1.179 0.683 1.574 34928
1.183 0.685 1.570 36740
1.191 0.690 1.572 33118
1.200 0.695 1.573 24538
1.203 0.697 1.569 9761
1.236 0.716 1.599 13170
1.240 0.718 1.594 21312
1.243 0.720 1.590 25409
1.247 0.722 1.586 21478
1.255 0.727 1.587 19001
1.254 0.727 1.577 20104
1.263 0.731 1.579 15089
1.271 0.736 1.580 21953
1.275 0.739 1.575 23683
1.278 0.741 1.571 14979
1.292 0.748 1.577 22309
1.296 0.751 1.573 26379
1.299 0.753 1.569 15835
1.313 0.761 1.575 15621
1.316 0.763 1.570 20522
1.330 0.771 1.577 21052
1.329 0.770 1.567 20494
1.332 0.772 1.562 16669
1.346 0.780 1.568 13596
1.360 0.788 1.574 16730
1.363 0.790 1.569 17206
1.362 0.789 1.560 12023
1.376 0.797 1.565 12891
1.384 0.802 1.566 15538
1.393 0.807 1.566 11676
1.412 0.818 1.577 11153
1.421 0.823 1.577 24045
1.425 0.825 1.573 40049
1.433 0.830 1.573 42114
1.437 0.833 1.568 29568
1.441 0.835 1.563 13135
1.471 0.852 1.583 14037
1.474 0.854 1.578 26605
1.478 0.856 1.573 28541
1.492 0.864 1.578 17625
1.506 0.873 1.583 10626
1.510 0.875 1.578 10610
1.513 0.877 1.573 10620
1.528 0.885 1.578 9635
1.531 0.887 1.572 13453
1.535 0.889 1.567 15687
1.533 0.888 1.557 12887
1.542 0.893 1.557 13317
1.551 0.898 1.556 20342
1.560 0.904 1.556 27389
1.569 0.909 1.555 24761
1.578 0.914 1.555 16077
1.592 0.922 1.559 19347
1.596 0.925 1.553 30632
1.600 0.927 1.548 28912
1.603 0.929 1.542 16070
1.607 0.931 1.537 11015
1.616 0.936 1.536 14852
1.625 0.941 1.535 17256
1.628 0.943 1.530 16011
1.654 0.958 1.543 13452
1.663 0.963 1.542 14116
1.661 0.962 1.531 9669
1.670 0.967 1.530 6181
1.685 0.976 1.534 10858
1.688 0.978 1.528 14457
1.697 0.983 1.527 13776
1.706 0.988 1.525 10262
1.761 1.020 1.560 8070
1.770 1.025 1.558 11773
1.785 1.034 1.561 14248
1.794 1.039 1.560 14045
1.803 1.045 1.558 15405
1.795 1.040 1.543 21815
1.799 1.042 1.537 25965
1.797 1.041 1.526 26395
1.806 1.046 1.524 21506
1.832 1.061 1.536 15206
1.847 1.070 1.538 15786
1.857 1.076 1.536 14359
1.866 1.081 1.534 10361
1.817 1.053 1.489 11523
1.821 1.055 1.483 11216
1.830 1.060 1.481 10067
1.915 1.109 1.533 13306
1.918 1.111 1.527 15792
1.922 1.113 1.520 12861
1.943 1.125 1.526 10293
1.940 1.124 1.515 8728
1.944 1.126 1.509 8232
1.947 1.128 1.502 8363
1.956 1.133 1.499 10115
1.966 1.139 1.497 9808
1.975 1.144 1.494 7303
1.984 1.150 1.491 5882
1.988 1.152 1.484 4606
1.997 1.157 1.482 4124
2.072 1.200 1.522 4591
2.081 1.206 1.519 5690
2.091 1.211 1.515 6839
2.094 1.213 1.508 8077
2.092 1.212 1.497 8459
2.077 1.203 1.479 9803
2.098 1.216 1.483 11042
2.102 1.218 1.476 10943
2.099 1.216 1.465 8498
2.115 1.225 1.465 6024
2.142 1.241 1.473 5464
2.182 1.264 1.488 5822
2.185 1.266 1.480 6993
2.188 1.268 1.473 6468
2.192 1.270 1.465 5943
2.256 1.307 1.494 5005
2.259 1.309 1.486 6616
2.263 1.311 1.479 7340
2.260 1.309 1.467 8110
2.263 1.311 1.460 7045
2.261 1.310 1.448 6089
2.301 1.333 1.462 6730
2.310 1.338 1.457 8910
2.320 1.344 1.453 8693
2.329 1.349 1.448 8685
2.332 1.351 1.440 8685
2.336 1.353 1.432 5811
2.438 1.412 1.478 5711
2.442 1.414 1.470 6317
2.445 1.416 1.462 6923
2.454 1.422 1.457 6197
2.458 1.424 1.448 5544
2.461 1.426 1.440 4405
2.458 1.424 1.428 3368
2.461 1.426 1.420 3368
2.069 1.199 1.211 3422
2.072 1.200 1.204 3982
2.075 1.202 1.197 3982
2.084 1.207 1.193 4653
0.538 0.310 1.587 12005
0.548 0.316 1.600 12656
0.557 0.321 1.612 14969
0.561 0.323 1.610 17191
0.564 0.325 1.608 19412
0.571 0.329 1.613 21883
0.575 0.331 1.611 24457
0.578 0.333 1.609 24535
0.585 0.337 1.615 19177
0.592 0.341 1.620 14749
0.598 0.345 1.625 14137
0.602 0.347 1.623 13654
0.606 0.349 1.621 12969
0.613 0.353 1.626 12408
0.616 0.355 1.623 10631
0.620 0.357 1.621 8921
0.621 0.358 1.612 9519
0.624 0.360 1.610 10586
0.628 0.362 1.608 12995
0.629 0.362 1.598 14981
0.632 0.364 1.596 15563
0.636 0.366 1.594 16294
0.640 0.368 1.592 15727
0.643 0.371 1.590 15628
0.650 0.375 1.594 15253
0.654 0.377 1.592 14669
0.661 0.381 1.597 13621
0.668 0.385 1.601 12424
0.675 0.389 1.606 9990
0.682 0.393 1.611 7003
0.685 0.395 1.608 8981
0.689 0.397 1.606 10959
0.696 0.401 1.610 12894
0.700 0.403 1.608 15280
0.707 0.407 1.612 12082
0.714 0.411 1.617 9627
0.721 0.415 1.621 14263
0.721 0.416 1.612 30123
0.725 0.418 1.609 41728
0.729 0.420 1.607 45004
0.736 0.424 1.611 48369
0.740 0.426 1.609 40433
0.740 0.426 1.599 26263
0.744 0.428 1.597 20557
0.751 0.433 1.601 19920
0.758 0.437 1.605 18067
0.758 0.437 1.596 14600
0.715 0.412 1.506 12497
0.722 0.416 1.510 12217
0.776 0.447 1.601 12326
0.784 0.452 1.605 10263
0.791 0.456 1.609 8666
0.791 0.456 1.600 8022
0.757 0.436 1.531 7491
0.768 0.443 1.541 9320
0.772 0.445 1.539 10694
0.783 0.451 1.549 9254
0.806 0.464 1.579 14059
0.809 0.466 1.577 17517
0.813 0.468 1.574 18776
0.820 0.473 1.577 18637
0.835 0.481 1.594 15638
0.843 0.486 1.598 13266
0.847 0.488 1.595 14708
0.854 0.492 1.599 15724
0.858 0.494 1.596 11690
0.869 0.501 1.606 8216
0.873 0.503 1.603 5229
0.869 0.501 1.587 5842
0.876 0.505 1.590 13039
0.880 0.507 1.587 19130
0.888 0.511 1.591 19762
0.891 0.514 1.587 17943
0.895 0.516 1.584 15314
0.903 0.520 1.588 17525
0.906 0.522 1.585 20032
0.914 0.527 1.588 12228
0.930 0.536 1.604 7456
0.934 0.538 1.600 8005
0.942 0.542 1.603 11317
0.945 0.545 1.600 17965
0.949 0.547 1.597 26240
0.953 0.549 1.594 28376
0.961 0.553 1.597 21281
0.968 0.558 1.600 18141
0.981 0.565 1.609 20190
0.984 0.567 1.605 20993
0.992 0.572 1.608 20616
0.996 0.574 1.605 22420
0.995 0.573 1.595 20920
0.995 0.573 1.586 14607
1.003 0.578 1.588 12981
1.011 0.582 1.591 14577
1.032 0.594 1.612 16867
1.040 0.599 1.614 19973
1.044 0.601 1.611 18800
1.052 0.606 1.613 21092
1.051 0.605 1.604 30095
1.059 0.610 1.606 35723
1.063 0.612 1.602 33096
1.066 0.614 1.599 22641
1.075 0.619 1.601 15582
1.078 0.621 1.597 14565
1.077 0.621 1.588 13328
1.081 0.623 1.584 13256
1.089 0.627 1.586 18904
1.093 0.630 1.582 22659
1.097 0.632 1.579 16463
1.096 0.631 1.569 10390
1.104 0.636 1.571 7847
1.107 0.638 1.567 6404
1.116 0.643 1.569 6850
1.124 0.647 1.571 12952
1.127 0.649 1.568 16792
1.150 0.662 1.587 12641
1.163 0.670 1.594 16288
1.166 0.672 1.590 17335
1.170 0.674 1.586 24439
1.174 0.676 1.582 32195
1.173 0.676 1.573 32825
1.181 0.680 1.574 40356
1.185 0.682 1.570 39096
1.193 0.687 1.572 31671
1.201 0.692 1.573 23923
1.215 0.700 1.580 11575
1.238 0.713 1.599 16606
1.241 0.715 1.594 24359
1.245 0.717 1.590 26241
1.254 0.722 1.592 25893
1.252 0.721 1.582 22182
1.256 0.723 1.577 20235
1.259 0.726 1.573 16961
1.268 0.730 1.574 21856
1.272 0.733 1.570 25209
1.275 0.735 1.566 17743
1.294 0.745 1.577 21140
1.297 0.747 1.573 23667
1.296 0.747 1.563 14868
1.310 0.754 1.570 15426
1.318 0.759 1.570 19126
1.327 0.764 1.571 19065
1.325 0.764 1.561 19897
1.334 0.769 1.562 17879
1.348 0.776 1.568 14718
1.362 0.784 1.574 15875
1.365 0.786 1.569 14622
1.364 0.786 1.560 9542
1.378 0.794 1.565 11225
1.386 0.799 1.566 15001
1.395 0.804 1.566 12308
1.409 0.812 1.572 10636
1.423 0.820 1.577 22760
1.427 0.822 1.573 39301
1.435 0.827 1.573 41489
1.439 0.829 1.568 29088
1.448 0.834 1.568 15350
1.473 0.848 1.583 16084
1.476 0.850 1.578 27295
1.480 0.852 1.573 29668
1.489 0.858 1.573 18408
1.503 0.866 1.578 8302
1.512 0.871 1.578 9229
1.516 0.873 1.573 11818
1.524 0.878 1.573 10006
1.533 0.883 1.572 13780
1.537 0.885 1.567 17586
1.535 0.884 1.557 14990
1.544 0.890 1.557 14929
1.553 0.895 1.556 23313
1.562 0.900 1.556 31240
1.566 0.902 1.550 26341
1.575 0.907 1.550 15059
1.595 0.919 1.559 18180
1.598 0.921 1.553 30905
1.602 0.923 1.548 31098
1.605 0.925 1.542 18608
1.603 0.924 1.532 11589
1.618 0.932 1.536 14420
1.627 0.937 1.535 17594
1.630 0.939 1.530 17190
1.651 0.951 1.538 13373
1.671 0.963 1.546 12597
1.663 0.958 1.531 8830
1.683 0.970 1.539 6037
1.693 0.975 1.538 11897
1.696 0.977 1.532 15821
1.700 0.979 1.527 14723
1.703 0.981 1.521 9775
1.769 1.019 1.564 7632
1.778 1.024 1.563 10335
1.793 1.033 1.566 13548
1.796 1.035 1.560 14496
1.806 1.040 1.558 16126
1.798 1.036 1.543 22827
1.801 1.038 1.537 27781
1.805 1.040 1.531 28332
1.808 1.042 1.524 23581
1.835 1.057 1.536 15364
1.856 1.069 1.542 14817
1.859 1.071 1.536 13762
1.868 1.076 1.534 10119
1.820 1.048 1.489 10483
1.823 1.050 1.483 10431
1.832 1.056 1.481 9539
1.917 1.105 1.533 14590
1.921 1.107 1.527 17533
1.930 1.112 1.524 14389
1.945 1.121 1.526 12117
1.949 1.123 1.519 10254
1.946 1.121 1.509 8612
1.950 1.123 1.502 7868
1.959 1.129 1.499 9684
1.974 1.137 1.501 9499
1.978 1.139 1.494 7165
1.987 1.145 1.491 5660
2.002 1.154 1.492 4572
2.042 1.176 1.509 4222
2.075 1.195 1.522 5539
2.084 1.201 1.519 7136
2.094 1.206 1.515 8257
2.103 1.212 1.512 9643
2.101 1.210 1.501 9315
2.098 1.209 1.490 9189
2.107 1.214 1.487 11818
2.105 1.212 1.476 12569
2.108 1.214 1.469 10335
2.117 1.220 1.465 7585
2.145 1.236 1.473 6553
2.179 1.255 1.484 5814
2.188 1.261 1.480 6885
2.192 1.262 1.473 6291
2.201 1.268 1.469 5842
2.253 1.298 1.490 4380
2.263 1.303 1.486 5596
2.260 1.302 1.475 6347
2.263 1.304 1.467 7180
2.267 1.306 1.460 6381
2.264 1.304 1.448 5670
2.304 1.327 1.462 6514
2.313 1.333 1.457 8769
2.329 1.342 1.456 8563
2.339 1.347 1.452 8565
2.342 1.349 1.444 8565
2.345 1.351 1.436 5722
2.442 1.407 1.478 5808
2.445 1.408 1.470 6311
2.448 1.410 1.462 6814
2.458 1.416 1.457 5785
2.461 1.418 1.448 4950
2.464 1.420 1.440 4153
2.461 1.418 1.428 3431
2.465 1.420 1.420 3431
2.072 1.194 1.211 3376
2.075 1.195 1.204 3918
2.078 1.197 1.197 3918
2.087 1.202 1.193 4690
0.539 0.309 1.587 10331
0.548 0.314 1.600 11556
0.558 0.320 1.612 13965
0.561 0.322 1.610 16627
0.565 0.324 1.608 19289
0.572 0.328 1.613 21556
0.575 0.330 1.611 24143
0.579 0.332 1.609 24330
0.586 0.336 1.615 19365
0.593 0.340 1.620 15245
0.599 0.343 1.625 15024
0.603 0.345 1.623 14956
0.607 0.348 1.621 14324
0.613 0.352 1.626 13865
0.617 0.354 1.623 12039
0.621 0.356 1.621 10340
0.625 0.358 1.619 10502
0.628 0.360 1.617 10997
0.629 0.360 1.608 12965
0.633 0.363 1.605 14226
0.633 0.363 1.596 14423
0.637 0.365 1.594 15223
0.641 0.367 1.592 14824
0.644 0.369 1.590 14759
0.651 0.373 1.594 14570
0.655 0.375 1.592 13848
0.662 0.379 1.597 12916
0.669 0.383 1.601 11891
0.676 0.387 1.606 9513
0.679 0.389 1.604 6787
0.683 0.391 1.601 9724
0.687 0.393 1.599 12662
0.694 0.397 1.604 14833
0.701 0.402 1.608 17460
0.708 0.406 1.612 13573
0.715 0.410 1.617 9981
0.722 0.414 1.621 14612
0.722 0.414 1.612 29983
0.726 0.416 1.609 41184
0.730 0.418 1.607 44054
0.737 0.422 1.611 47011
0.741 0.424 1.609 38899
0.741 0.425 1.599 26124
0.745 0.427 1.597 21886
0.752 0.431 1.601 21912
0.759 0.435 1.605 20477
0.763 0.437 1.602 16596
0.766 0.439 1.600 12735
0.723 0.414 1.510 12317
0.726 0.416 1.507 10801
0.781 0.448 1.598 8369
0.751 0.431 1.536 7196
0.751 0.430 1.526 8123
0.758 0.435 1.531 7956
0.770 0.441 1.541 9268
0.773 0.443 1.539 10750
0.784 0.449 1.549 9603
0.807 0.462 1.579 15310
0.810 0.464 1.577 18978
0.814 0.466 1.574 19691
0.821 0.471 1.577 19128
0.837 0.479 1.594 16982
0.844 0.484 1.598 14759
0.848 0.486 1.595 16023
0.855 0.490 1.599 16341
0.859 0.492 1.596 11747
0.871 0.499 1.606 8343
0.874 0.501 1.603 5655
0.870 0.499 1.587 6612
0.878 0.503 1.590 13892
0.885 0.507 1.594 19181
0.889 0.509 1.591 18908
0.893 0.511 1.587 16638
0.896 0.514 1.584 14284
0.904 0.518 1.588 16599
0.908 0.520 1.585 18662
0.915 0.525 1.588 10605
0.931 0.534 1.604 5487
0.935 0.536 1.600 7597
0.943 0.540 1.603 11344
0.947 0.542 1.600 17911
0.950 0.545 1.597 26638
0.954 0.547 1.594 28073
0.958 0.549 1.590 19745
0.970 0.556 1.600 17360
0.982 0.563 1.609 20224
0.986 0.565 1.605 21249
0.994 0.569 1.608 19567
0.997 0.571 1.605 20151
0.992 0.569 1.589 19296
0.992 0.568 1.579 13610
1.008 0.578 1.594 12411
1.016 0.582 1.597 14030
1.033 0.592 1.612 18479
1.041 0.597 1.614 23759
1.049 0.601 1.617 22705
1.053 0.603 1.613 25994
1.052 0.603 1.604 35524
1.061 0.608 1.606 39555
1.064 0.610 1.602 34613
1.068 0.612 1.599 22866
1.076 0.617 1.601 15916
1.080 0.619 1.597 15636
1.079 0.618 1.588 14405
1.083 0.620 1.584 13909
1.086 0.622 1.580 19334
1.094 0.627 1.582 22812
1.098 0.629 1.579 15620
1.097 0.629 1.569 9696
1.105 0.633 1.571 7529
1.113 0.638 1.573 5564
1.126 0.645 1.581 7767
1.125 0.645 1.571 15507
1.129 0.647 1.568 16813
1.156 0.662 1.593 11223
1.164 0.667 1.594 13249
1.168 0.669 1.590 15158
1.172 0.671 1.586 25646
1.171 0.671 1.577 35739
1.179 0.676 1.578 36524
1.183 0.678 1.574 43590
1.186 0.680 1.570 40504
1.195 0.684 1.572 29566
1.203 0.689 1.573 22128
1.216 0.697 1.580 12374
1.239 0.710 1.599 20377
1.243 0.712 1.594 27118
1.252 0.717 1.596 27180
1.250 0.716 1.586 30642
1.254 0.718 1.582 26258
1.262 0.723 1.583 21672
1.261 0.723 1.573 19340
1.270 0.728 1.574 22340
1.273 0.730 1.570 26713
1.277 0.732 1.566 20780
1.296 0.742 1.577 21641
1.294 0.742 1.568 22558
1.298 0.744 1.563 14776
1.311 0.751 1.570 15603
1.315 0.753 1.565 18032
1.324 0.758 1.566 16968
1.327 0.760 1.561 17721
1.336 0.765 1.562 17592
1.355 0.776 1.574 16592
1.363 0.781 1.574 15429
1.362 0.780 1.564 11977
1.366 0.782 1.560 7111
1.379 0.790 1.565 9438
1.388 0.795 1.566 14275
1.397 0.800 1.566 13155
1.416 0.811 1.577 10652
1.425 0.816 1.577 20661
1.429 0.819 1.573 36636
1.437 0.824 1.573 39036
1.446 0.829 1.573 27494
1.455 0.834 1.573 17342
1.469 0.842 1.578 17719
1.478 0.847 1.578 26373
1.482 0.849 1.573 28728
1.491 0.854 1.573 18553
1.494 0.856 1.568 8297
1.514 0.867 1.578 8789
1.518 0.870 1.573 12242
1.527 0.875 1.573 10057
1.535 0.880 1.572 13866
1.539 0.882 1.567 18796
1.543 0.884 1.562 16255
1.546 0.886 1.557 16067
1.561 0.894 1.561 25714
1.564 0.896 1.556 33806
1.568 0.898 1.550 27421
1.577 0.903 1.550 14405
1.597 0.915 1.559 16740
1.600 0.917 1.553 30214
1.604 0.919 1.548 32463
1.607 0.921 1.542 21199
1.605 0.920 1.532 12616
1.620 0.928 1.536 14646
1.629 0.933 1.535 18747
1.633 0.935 1.530 18917
1.647 0.944 1.533 14206
1.673 0.959 1.546 11922
1.665 0.954 1.531 8656
1.708 0.979 1.558 7896
1.700 0.974 1.543 12973
1.698 0.973 1.532 16623
1.702 0.975 1.527 15144
1.705 0.977 1.521 9606
1.771 1.015 1.564 7724
1.780 1.020 1.563 9264
1.795 1.029 1.566 12939
1.799 1.031 1.560 14548
1.802 1.033 1.553 16290
1.800 1.032 1.543 23305
1.804 1.034 1.537 28822
1.807 1.036 1.531 29279
1.817 1.041 1.529 24728
1.826 1.046 1.527 15858
1.858 1.065 1.542 13336
1.867 1.070 1.540 12880
1.871 1.072 1.534 9743
1.822 1.044 1.489 9480
1.826 1.046 1.483 9669
1.835 1.051 1.481 8846
1.920 1.100 1.533 15611
1.923 1.102 1.527 19008
1.939 1.111 1.528 15928
1.948 1.116 1.526 13977
1.951 1.118 1.519 11896
1.955 1.120 1.513 8876
1.958 1.122 1.506 7109
1.962 1.124 1.499 8916
1.977 1.133 1.501 9055
1.980 1.135 1.494 7004
1.996 1.144 1.495 5674
2.029 1.163 1.508 5628
2.044 1.171 1.509 5186
2.078 1.190 1.522 6785
2.087 1.196 1.519 9053
2.102 1.205 1.519 10235
2.106 1.207 1.512 11899
2.109 1.209 1.505 10861
2.113 1.211 1.498 9822
2.116 1.213 1.491 12934
2.114 1.211 1.480 14217
2.111 1.210 1.469 12292
2.126 1.218 1.469 9388
2.142 1.227 1.469 7921
2.157 1.236 1.469 6131
2.191 1.255 1.480 6664
2.201 1.261 1.476 6029
2.204 1.263 1.469 5638
2.213 1.268 1.465 4130
2.266 1.298 1.486 4604
2.263 1.297 1.475 5336
2.266 1.299 1.467 6118
2.270 1.300 1.460 5562
2.267 1.299 1.448 5057
2.313 1.325 1.465 6068
2.317 1.327 1.457 8216
2.332 1.336 1.456 8033
2.342 1.342 1.452 8087
2.345 1.344 1.444 8087
2.348 1.346 1.436 5432
2.439 1.397 1.475 5605
2.442 1.399 1.467 6078
2.445 1.401 1.458 6551
2.455 1.407 1.453 5332
2.464 1.412 1.448 4387
2.468 1.414 1.440 3913
2.465 1.412 1.428 3502
2.468 1.414 1.420 3502
2.559 1.466 1.456 3423
2.562 1.468 1.448 4145
2.087 1.196 1.200 3780
2.089 1.197 1.193 4603
0.540 0.308 1.587 9577
0.549 0.313 1.600 11143
0.559 0.318 1.612 13517
0.562 0.320 1.610 16457
0.566 0.323 1.608 19398
0.570 0.325 1.606 21463
0.576 0.328 1.611 23892
0.580 0.331 1.609 24114
0.587 0.334 1.615 19281
0.593 0.338 1.620 15226
0.600 0.342 1.625 15162
0.604 0.344 1.623 15244
0.611 0.348 1.628 14652
0.614 0.350 1.626 14250
0.618 0.352 1.623 12670
0.622 0.354 1.621 11268
0.625 0.356 1.619 11394
0.629 0.359 1.617 11774
0.633 0.361 1.615 13414
0.634 0.361 1.605 14089
0.634 0.361 1.596 13749
0.638 0.363 1.594 14308
0.641 0.366 1.592 13830
0.648 0.369 1.597 13671
0.652 0.372 1.594 13332
0.656 0.374 1.592 12450
0.663 0.378 1.597 11591
0.669 0.382 1.601 10738
0.673 0.384 1.599 8806
0.677 0.386 1.597 6575
0.684 0.390 1.601 10197
0.688 0.392 1.599 13885
0.695 0.396 1.604 16086
0.702 0.400 1.608 18770
0.705 0.402 1.606 14548
0.716 0.408 1.617 10013
0.723 0.412 1.621 14481
0.723 0.412 1.612 28988
0.727 0.414 1.609 39649
0.731 0.416 1.607 42233
0.738 0.421 1.611 44867
0.742 0.423 1.609 36826
0.745 0.425 1.606 25677
0.746 0.425 1.597 22781
0.753 0.429 1.601 23283
0.760 0.433 1.605 22073
0.764 0.435 1.602 17914
0.767 0.437 1.600 12683
0.724 0.412 1.510 12181
0.727 0.414 1.507 10786
0.734 0.418 1.512 8374
0.752 0.429 1.536 7899
0.752 0.429 1.526 8955
0.760 0.433 1.531 8475
0.771 0.439 1.541 9472
0.774 0.441 1.539 11108
0.785 0.447 1.549 10180
0.808 0.460 1.579 16774
0.811 0.462 1.577 20720
0.815 0.464 1.574 20746
0.826 0.471 1.584 19367
0.842 0.480 1.601 17732
0.849 0.484 1.604 15719
0.849 0.484 1.595 16800
0.857 0.488 1.599 16668
0.864 0.492 1.602 12054
0.872 0.497 1.606 8965
0.875 0.499 1.603 6738
0.871 0.496 1.587 7851
0.879 0.501 1.590 14176
0.882 0.503 1.587 18126
0.890 0.507 1.591 17028
0.894 0.509 1.587 14599
0.897 0.511 1.584 12495
0.901 0.514 1.581 14638
0.909 0.518 1.585 16417
0.917 0.522 1.588 8934
0.924 0.527 1.591 5199
0.936 0.534 1.600 8160
0.940 0.536 1.597 11219
0.944 0.538 1.594 17649
0.947 0.540 1.591 26111
0.955 0.544 1.594 26603
0.959 0.546 1.590 16807
0.975 0.556 1.606 14543
0.983 0.560 1.609 18790
0.987 0.562 1.605 20958
0.991 0.565 1.602 19331
0.999 0.569 1.605 18329
0.989 0.564 1.583 16818
0.989 0.563 1.573 12683
1.010 0.575 1.594 12749
1.018 0.580 1.597 14071
1.035 0.590 1.612 20140
1.043 0.594 1.614 27195
1.051 0.599 1.617 26658
1.055 0.601 1.613 30005
1.054 0.601 1.604 38959
1.062 0.605 1.606 42238
1.066 0.607 1.602 35068
1.069 0.609 1.599 21475
1.077 0.614 1.601 16451
1.081 0.616 1.597 17388
1.080 0.616 1.588 14776
1.084 0.618 1.584 13413
1.092 0.622 1.586 18253
1.096 0.625 1.582 20882
1.099 0.627 1.579 13700
1.098 0.626 1.569 8521
1.107 0.631 1.571 6560
1.115 0.635 1.573 5918
1.128 0.643 1.581 10097
1.131 0.645 1.577 17583
1.130 0.644 1.568 16909
1.153 0.657 1.587 10270
1.166 0.664 1.594 10312
1.174 0.669 1.596 12766
1.168 0.666 1.581 25566
1.172 0.668 1.577 37037
1.180 0.673 1.578 37884
1.184 0.675 1.574 44594
1.188 0.677 1.570 41048
1.196 0.682 1.572 27289
1.205 0.687 1.573 19103
1.237 0.705 1.603 11648
1.241 0.707 1.599 23522
1.245 0.709 1.594 29078
1.248 0.711 1.590 27396
1.252 0.714 1.586 34401
1.256 0.716 1.582 30012
1.264 0.720 1.583 23517
1.263 0.720 1.573 21499
1.271 0.725 1.574 22192
1.275 0.727 1.570 27097
1.279 0.729 1.566 23208
1.297 0.739 1.577 23002
1.296 0.739 1.568 22529
1.299 0.741 1.563 14952
1.313 0.748 1.570 15246
1.317 0.750 1.565 16028
1.325 0.755 1.566 14030
1.329 0.757 1.561 14630
1.338 0.762 1.562 16809
1.351 0.770 1.568 18345
1.365 0.778 1.574 14456
1.364 0.777 1.564 10099
1.367 0.779 1.560 6050
1.386 0.790 1.571 8018
1.395 0.795 1.571 13320
1.404 0.800 1.572 14086
1.418 0.808 1.577 11173
1.427 0.813 1.577 18066
1.430 0.815 1.573 31743
1.439 0.820 1.573 34202
1.448 0.825 1.573 25232
1.457 0.830 1.573 18587
1.471 0.838 1.578 17807
1.480 0.844 1.578 23308
1.484 0.846 1.573 25526
1.493 0.851 1.573 17639
1.496 0.853 1.568 10691
1.505 0.858 1.568 10604
1.520 0.866 1.573 11907
1.529 0.871 1.573 9943
1.538 0.876 1.572 14117
1.541 0.878 1.567 19533
1.545 0.880 1.562 16998
1.548 0.882 1.557 17020
1.563 0.891 1.561 27851
1.566 0.893 1.556 35368
1.570 0.895 1.550 28004
1.573 0.897 1.545 14200
1.593 0.908 1.554 14808
1.602 0.913 1.553 27982
1.606 0.915 1.548 32595
1.610 0.917 1.542 23486
1.613 0.919 1.537 14155
1.628 0.928 1.541 15344
1.631 0.930 1.535 19906
1.635 0.932 1.530 20564
1.649 0.940 1.533 15071
1.675 0.955 1.546 11281
1.668 0.950 1.531 8615
1.710 0.975 1.558 10398
1.703 0.970 1.543 14315
1.701 0.969 1.532 17052
1.704 0.971 1.527 15218
1.708 0.973 1.521 9893
1.773 1.011 1.564 7826
1.788 1.019 1.567 8171
1.798 1.025 1.566 11708
1.801 1.027 1.560 13733
1.805 1.029 1.553 15616
1.803 1.027 1.543 22966
1.806 1.029 1.537 28790
1.810 1.031 1.531 28971
1.819 1.037 1.529 24629
1.828 1.042 1.527 16033
1.803 1.027 1.499 11355
1.870 1.066 1.540 11352
1.873 1.068 1.534 8801
1.819 1.037 1.485 8435
1.828 1.042 1.483 8842
1.837 1.047 1.481 8209
1.922 1.096 1.533 16105
1.926 1.098 1.527 19905
1.941 1.106 1.528 17192
1.956 1.115 1.530 15719
1.960 1.117 1.523 13579
1.958 1.116 1.513 9301
1.961 1.118 1.506 6424
1.970 1.123 1.503 8121
1.980 1.128 1.501 8533
1.989 1.134 1.498 6868
2.022 1.152 1.511 6045
2.032 1.158 1.508 6619
2.047 1.167 1.509 6055
2.086 1.189 1.526 8340
2.096 1.194 1.522 11222
2.105 1.200 1.519 12804
2.115 1.205 1.516 14841
2.118 1.207 1.509 13337
2.134 1.216 1.509 12074
2.119 1.208 1.491 14976
2.116 1.206 1.480 16325
2.120 1.208 1.472 14674
2.129 1.213 1.469 11647
2.145 1.222 1.469 9493
2.154 1.228 1.466 7210
2.188 1.247 1.477 6360
2.197 1.252 1.473 5613
2.213 1.261 1.473 5316
2.216 1.263 1.465 3892
2.281 1.300 1.493 3567
2.266 1.291 1.475 4243
2.269 1.293 1.467 4973
2.273 1.295 1.460 4700
