0.463 0.648 1.578 5849
0.467 0.654 1.583 8371
0.470 0.658 1.580 10463
0.472 0.661 1.578 14227
0.472 0.661 1.568 17981
0.477 0.668 1.573 19443
0.480 0.671 1.570 20426
0.482 0.675 1.568 17579
0.482 0.675 1.559 16708
0.482 0.675 1.549 18086
0.487 0.682 1.554 19739
0.492 0.688 1.558 26733
0.496 0.695 1.562 32202
0.501 0.702 1.566 35224
0.506 0.709 1.570 32401
0.508 0.712 1.568 25129
0.511 0.715 1.565 21641
0.516 0.722 1.569 25264
0.518 0.726 1.566 31090
0.521 0.729 1.564 30940
0.523 0.732 1.561 24276
0.523 0.732 1.552 18473
0.525 0.735 1.549 16186
0.528 0.739 1.546 12109
0.538 0.753 1.563 10347
0.543 0.760 1.567 13791
0.550 0.770 1.577 20942
0.553 0.774 1.575 25073
0.555 0.777 1.572 25982
0.560 0.784 1.575 22503
0.560 0.784 1.566 15814
0.554 0.776 1.544 10899
0.554 0.776 1.534 9916
0.562 0.787 1.544 11100
0.567 0.794 1.548 18295
0.569 0.797 1.545 26901
0.569 0.796 1.536 24831
0.574 0.803 1.539 19726
0.584 0.818 1.555 18882
0.587 0.822 1.552 18402
0.578 0.810 1.524 20918
0.583 0.817 1.527 26249
0.597 0.835 1.550 28395
0.602 0.843 1.553 22058
0.590 0.826 1.518 16702
0.593 0.830 1.515 12442
0.617 0.864 1.563 11425
0.620 0.868 1.559 13624
0.625 0.875 1.562 16169
0.630 0.882 1.565 12956
0.635 0.890 1.568 7936
0.601 0.841 1.484 7120
0.643 0.900 1.568 7922
0.640 0.896 1.552 9115
0.645 0.903 1.555 10607
0.647 0.906 1.552 10630
0.650 0.910 1.549 11941
0.652 0.913 1.545 14951
0.657 0.920 1.548 19620
0.663 0.928 1.551 25726
0.665 0.931 1.547 26693
0.670 0.939 1.550 25540
0.673 0.942 1.547 20814
0.678 0.949 1.549 11404
0.678 0.949 1.540 4986
0.680 0.952 1.536 9407
0.682 0.955 1.533 18707
0.688 0.963 1.535 25747
0.690 0.966 1.532 31832
0.689 0.965 1.522 39981
0.692 0.968 1.519 48904
0.697 0.976 1.521 44340
0.696 0.975 1.512 26493
0.705 0.987 1.520 19341
0.710 0.994 1.522 20932
0.719 1.006 1.530 21594
0.715 1.001 1.515 16370
0.711 0.995 1.500 11142
0.729 1.020 1.525 11351
0.734 1.028 1.527 15156
0.730 1.022 1.512 13036
0.733 1.026 1.508 19840
0.738 1.033 1.510 25212
0.740 1.037 1.506 17736
0.743 1.040 1.502 13169
0.755 1.056 1.516 14706
0.760 1.064 1.517 15111
0.766 1.072 1.519 15353
0.768 1.075 1.515 20721
0.770 1.078 1.511 23607
0.766 1.073 1.496 19299
0.765 1.071 1.487 11446
0.764 1.070 1.477 11923
0.793 1.110 1.518 16979
0.798 1.117 1.519 20025
0.807 1.130 1.526 15254
0.809 1.133 1.522 16392
0.812 1.136 1.518 15945
0.811 1.135 1.508 14041
0.813 1.138 1.504 10822
0.819 1.146 1.506 13528
0.814 1.140 1.491 14688
0.820 1.148 1.492 11996
0.829 1.161 1.498 13663
0.824 1.154 1.483 12463
0.823 1.153 1.474 11826
0.829 1.161 1.475 9204
0.835 1.169 1.476 10301
0.833 1.167 1.467 9815
0.822 1.151 1.441 5576
0.831 1.164 1.447 4636
0.844 1.181 1.459 7612
0.853 1.194 1.465 16513
0.855 1.197 1.461 24022
0.857 1.200 1.456 25901
0.859 1.203 1.452 28344
0.865 1.211 1.453 23473
0.867 1.214 1.448 13839
0.866 1.212 1.439 12222
0.875 1.225 1.445 9783
0.927 1.297 1.512 6542
0.932 1.305 1.512 7504
0.882 1.234 1.431 9246
0.887 1.242 1.432 9445
0.886 1.241 1.422 6292
0.967 1.353 1.528 5984
0.962 1.347 1.513 10087
0.964 1.350 1.508 13801
0.974 1.363 1.513 12907
0.979 1.371 1.513 10634
0.985 1.380 1.513 7994
0.998 1.398 1.523 9029
0.997 1.396 1.513 9035
0.992 1.389 1.498 12180
0.998 1.398 1.498 15912
1.004 1.406 1.498 12934
1.021 1.429 1.512 12212
1.027 1.438 1.511 18942
1.026 1.436 1.501 26086
1.028 1.439 1.496 31926
1.030 1.442 1.491 30608
1.029 1.440 1.481 25563
1.031 1.444 1.476 19953
1.048 1.467 1.489 12440
1.054 1.476 1.489 8739
1.053 1.474 1.479 5306
1.055 1.477 1.473 4504
1.102 1.543 1.523 4141
1.101 1.541 1.513 8588
1.103 1.544 1.507 13587
1.101 1.542 1.497 13464
1.100 1.540 1.487 11086
1.102 1.543 1.482 8528
1.116 1.562 1.489 7092
1.122 1.571 1.488 7731
1.139 1.595 1.500 9243
1.149 1.609 1.503 12299
1.152 1.612 1.498 15049
1.165 1.632 1.505 14364
1.179 1.651 1.512 10224
1.147 1.606 1.467 8863
1.203 1.684 1.522 10337
1.201 1.682 1.511 11831
1.200 1.680 1.501 12229
1.202 1.683 1.495 12544
1.220 1.708 1.506 14426
1.222 1.711 1.500 16579
1.221 1.709 1.489 16137
1.223 1.712 1.483 13281
1.229 1.721 1.481 10198
1.231 1.724 1.475 9744
1.245 1.744 1.481 9563
1.255 1.758 1.483 11427
1.258 1.761 1.477 11743
1.264 1.770 1.474 10603
1.266 1.773 1.468 9175
1.272 1.781 1.465 8577
1.275 1.784 1.459 6339
1.324 1.854 1.501 6873
1.331 1.863 1.498 10639
1.333 1.866 1.491 11381
1.331 1.864 1.480 12189
1.333 1.867 1.474 8990
1.348 1.887 1.479 6266
1.354 1.896 1.476 7116
1.360 1.904 1.473 9528
1.362 1.908 1.466 12228
1.369 1.916 1.463 10497
1.371 1.919 1.456 8811
1.422 1.990 1.494 6925
1.432 2.005 1.495 6498
1.442 2.019 1.495 5950
1.412 1.977 1.458 5458
1.410 1.975 1.447 6571
1.417 1.983 1.443 5700
1.447 2.026 1.462 6174
1.454 2.035 1.458 6536
1.460 2.044 1.454 6972
1.462 2.047 1.447 5731
1.468 2.056 1.443 4625
1.471 2.059 1.436 4332
1.465 2.051 1.421 4155
1.487 2.082 1.431 4202
1.490 2.085 1.424 4377
1.492 2.089 1.416 3475
1.539 2.155 1.447 3886
1.550 2.170 1.446 3786
1.569 2.196 1.452 4242
1.571 2.199 1.444 4242
1.573 2.202 1.436 5273
1.575 2.205 1.428 6304
1.582 2.214 1.423 5090
1.600 2.241 1.429 4218
1.598 2.238 1.417 4562
1.596 2.235 1.406 4929
1.603 2.244 1.401 4293
1.630 2.282 1.412 4750
1.632 2.285 1.404 4750
1.672 2.341 1.424 4676
1.679 2.350 1.419 5747
1.681 2.353 1.411 2873
1.518 2.125 1.280 297
0.365 0.507 1.594 12299
0.367 0.511 1.592 12917
0.370 0.514 1.590 13535
0.372 0.517 1.589 11419
0.376 0.523 1.594 9445
0.379 0.527 1.592 12546
0.381 0.530 1.590 15648
0.384 0.534 1.588 15648
0.386 0.537 1.586 17074
0.391 0.543 1.591 18540
0.393 0.547 1.589 16651
0.398 0.553 1.594 15085
0.400 0.556 1.592 13298
0.401 0.557 1.583 11693
0.405 0.563 1.588 10196
0.410 0.569 1.593 8915
0.410 0.570 1.584 12302
0.412 0.573 1.582 15669
0.413 0.574 1.572 17757
0.415 0.577 1.570 19994
0.418 0.581 1.568 16912
0.420 0.584 1.566 13583
0.422 0.587 1.564 12126
0.427 0.594 1.569 11288
0.429 0.597 1.566 13011
0.432 0.600 1.564 14683
0.434 0.604 1.562 12339
0.434 0.604 1.553 10041
0.439 0.610 1.557 8450
0.444 0.617 1.562 7130
0.453 0.630 1.581 5527
0.462 0.642 1.599 5224
0.465 0.646 1.597 4852
0.467 0.649 1.594 4481
0.465 0.646 1.578 5715
0.467 0.650 1.576 9284
0.472 0.656 1.580 11942
0.474 0.660 1.578 15755
0.477 0.663 1.575 19271
0.479 0.667 1.573 19822
0.482 0.670 1.570 19711
0.484 0.673 1.568 16407
0.484 0.673 1.559 16251
0.484 0.673 1.549 18680
0.489 0.680 1.554 21172
0.494 0.687 1.558 30117
0.499 0.693 1.562 36382
0.504 0.700 1.566 39453
0.508 0.707 1.570 35899
0.511 0.710 1.568 27733
0.513 0.714 1.565 22433
0.518 0.720 1.569 24753
0.521 0.724 1.566 31011
0.523 0.727 1.564 31054
0.525 0.731 1.561 24032
0.528 0.734 1.558 17479
0.528 0.734 1.549 14983
0.530 0.737 1.546 11564
0.538 0.747 1.557 10107
0.548 0.762 1.574 12547
0.553 0.769 1.577 18529
0.555 0.772 1.575 22692
0.560 0.779 1.578 24427
0.563 0.782 1.575 22537
0.562 0.782 1.566 17690
0.560 0.778 1.550 11729
0.554 0.770 1.528 9958
0.556 0.774 1.525 10537
0.569 0.792 1.548 16563
0.572 0.795 1.545 23967
0.571 0.795 1.536 21820
0.577 0.802 1.539 17073
0.584 0.812 1.549 17408
0.584 0.812 1.540 18834
0.581 0.808 1.524 23552
0.586 0.815 1.527 28810
0.597 0.830 1.543 26487
0.602 0.837 1.547 21155
0.593 0.825 1.518 18116
0.612 0.851 1.553 13695
0.620 0.862 1.563 13354
0.625 0.870 1.566 14433
0.628 0.873 1.562 16608
0.633 0.880 1.565 13629
0.638 0.888 1.568 8254
0.603 0.839 1.484 8234
0.606 0.842 1.481 8604
0.640 0.890 1.546 9277
0.645 0.897 1.549 10143
0.650 0.904 1.552 7953
0.653 0.908 1.549 7256
0.655 0.911 1.545 11675
0.660 0.918 1.548 19637
0.666 0.926 1.551 26131
0.668 0.929 1.547 23756
0.673 0.936 1.550 18113
0.679 0.944 1.553 13148
0.681 0.947 1.549 7949
0.678 0.942 1.534 4395
0.680 0.946 1.530 10012
0.685 0.953 1.533 19264
0.691 0.960 1.535 25833
0.693 0.964 1.532 32506
0.692 0.963 1.522 39976
0.695 0.966 1.519 47913
0.700 0.974 1.521 42689
0.699 0.973 1.512 24086
0.708 0.984 1.520 16160
0.716 0.996 1.528 17840
0.722 1.004 1.530 20060
0.718 0.998 1.515 15534
0.714 0.993 1.500 9062
0.735 1.022 1.531 8492
0.738 1.026 1.527 12514
0.734 1.020 1.512 12584
0.736 1.023 1.508 19654
0.741 1.031 1.510 24289
0.744 1.034 1.506 16654
0.749 1.042 1.508 12632
0.758 1.054 1.516 15778
0.764 1.062 1.517 17457
0.769 1.069 1.519 17806
0.775 1.077 1.521 22403
0.777 1.080 1.517 24093
0.773 1.075 1.502 17737
0.765 1.064 1.481 10484
0.794 1.104 1.522 14084
0.799 1.112 1.523 19776
0.802 1.115 1.519 19056
0.807 1.123 1.521 17080
0.813 1.131 1.522 16939
0.812 1.129 1.513 16201
0.811 1.128 1.503 14835
0.817 1.136 1.504 10975
0.819 1.139 1.500 14569
0.818 1.137 1.491 16411
0.820 1.141 1.486 12244
0.833 1.158 1.498 12209
0.825 1.147 1.478 13357
0.824 1.145 1.468 15991
0.829 1.153 1.470 12364
0.838 1.166 1.476 10466
0.837 1.164 1.467 8499
0.829 1.153 1.446 5423
0.828 1.151 1.437 4478
0.847 1.178 1.459 6975
0.853 1.186 1.460 15462
0.859 1.194 1.461 21128
0.861 1.197 1.456 24919
0.863 1.200 1.452 28778
0.869 1.208 1.453 20640
0.871 1.211 1.448 11558
0.863 1.200 1.429 13563
0.869 1.208 1.429 11857
0.874 1.216 1.430 6968
0.880 1.224 1.431 6656
0.886 1.232 1.431 9011
0.891 1.240 1.432 8897
0.894 1.243 1.427 6257
0.971 1.350 1.528 7256
0.970 1.348 1.518 8439
0.972 1.352 1.513 10109
0.978 1.360 1.513 9351
0.984 1.368 1.513 8499
0.990 1.376 1.513 6731
1.003 1.395 1.523 7629
0.998 1.388 1.508 9673
0.997 1.386 1.498 13935
1.003 1.394 1.498 17729
1.005 1.397 1.493 14797
1.022 1.421 1.507 10944
1.032 1.434 1.511 17754
1.030 1.433 1.501 28029
1.033 1.436 1.496 35430
1.035 1.439 1.491 31890
1.033 1.437 1.481 24880
1.036 1.440 1.476 18523
1.057 1.469 1.494 10622
1.059 1.472 1.489 8707
1.057 1.470 1.479 5598
1.060 1.473 1.473 4240
1.107 1.539 1.523 4225
1.106 1.537 1.513 9719
1.108 1.541 1.507 15058
1.106 1.539 1.497 15298
1.109 1.542 1.492 12521
1.107 1.540 1.482 8116
1.125 1.564 1.494 5244
1.127 1.567 1.488 7685
1.141 1.586 1.496 12471
1.147 1.595 1.495 17938
1.153 1.603 1.493 19850
1.155 1.606 1.487 17369
1.150 1.599 1.473 13613
1.148 1.597 1.463 14443
1.150 1.600 1.457 13147
1.207 1.678 1.511 10668
1.205 1.676 1.501 10146
1.204 1.674 1.491 9896
1.226 1.704 1.506 12736
1.228 1.707 1.500 16151
1.226 1.705 1.489 16403
1.232 1.714 1.487 12964
1.239 1.722 1.485 9863
1.241 1.725 1.479 9662
1.251 1.740 1.481 10121
1.261 1.754 1.483 11968
1.263 1.757 1.477 12447
1.270 1.765 1.474 11239
1.276 1.774 1.472 10159
1.278 1.777 1.465 9947
1.284 1.786 1.463 7403
1.318 1.833 1.489 7614
1.337 1.859 1.498 11312
1.339 1.862 1.491 12068
1.337 1.859 1.480 12855
1.340 1.863 1.474 9477
1.354 1.882 1.479 6245
1.360 1.891 1.476 6924
1.366 1.900 1.473 9653
1.373 1.909 1.470 12754
1.375 1.912 1.463 11081
1.381 1.921 1.460 9459
1.424 1.980 1.491 7164
1.434 1.995 1.491 6648
1.449 2.015 1.495 6083
1.419 1.973 1.458 5519
1.421 1.976 1.451 6618
1.423 1.979 1.443 5701
1.458 2.027 1.466 6676
1.460 2.030 1.458 7095
1.463 2.034 1.451 7514
1.469 2.042 1.447 6191
1.475 2.051 1.443 5095
1.473 2.049 1.432 4938
1.471 2.046 1.421 5010
1.486 2.066 1.424 4522
1.492 2.075 1.420 4536
1.498 2.084 1.416 3521
1.546 2.150 1.447 3814
1.553 2.159 1.443 3665
1.576 2.191 1.452 4040
1.578 2.194 1.444 4040
1.576 2.191 1.432 5231
1.578 2.194 1.425 6484
1.585 2.203 1.420 5200
1.562 2.171 1.392 4667
1.601 2.227 1.414 4854
1.604 2.230 1.406 5511
1.606 2.233 1.398 4597
1.637 2.277 1.412 4724
1.640 2.280 1.404 4724
1.680 2.336 1.424 4619
1.686 2.345 1.419 5852
1.688 2.348 1.411 2926
1.525 2.120 1.280 325
0.365 0.507 1.594 13214
0.368 0.510 1.592 13727
0.370 0.514 1.590 14240
0.373 0.517 1.589 11852
0.377 0.523 1.594 9647
0.379 0.527 1.592 13543
0.382 0.530 1.590 17439
0.384 0.533 1.588 17439
0.387 0.537 1.586 19037
0.389 0.540 1.584 20636
0.394 0.546 1.589 18472
0.398 0.553 1.594 16573
0.399 0.553 1.585 14789
0.401 0.557 1.583 13266
0.404 0.560 1.581 11443
0.406 0.563 1.579 9720
0.408 0.567 1.577 12382
0.411 0.570 1.575 14944
0.413 0.573 1.572 17563
0.416 0.577 1.570 20183
0.418 0.580 1.568 16955
0.421 0.584 1.566 13531
0.425 0.590 1.571 11138
0.428 0.593 1.569 9255
0.430 0.597 1.566 10776
0.432 0.600 1.564 12316
0.435 0.603 1.562 10563
0.435 0.604 1.553 8880
0.440 0.610 1.557 8277
0.442 0.613 1.555 7744
0.453 0.629 1.581 5532
0.465 0.645 1.606 4839
0.467 0.649 1.604 4898
0.445 0.617 1.525 5372
0.465 0.646 1.578 6181
0.468 0.649 1.576 10128
0.473 0.656 1.580 13104
0.475 0.659 1.578 16694
0.478 0.663 1.575 19888
0.480 0.666 1.573 19734
0.485 0.673 1.577 18992
0.485 0.673 1.568 15045
0.485 0.673 1.559 15563
0.487 0.676 1.556 19216
0.492 0.683 1.560 22755
0.497 0.690 1.565 32872
0.499 0.693 1.562 39222
0.502 0.696 1.559 42066
0.507 0.703 1.564 38246
0.509 0.706 1.561 29888
0.514 0.713 1.565 23001
0.519 0.720 1.569 24235
0.521 0.723 1.566 30761
0.524 0.727 1.564 31124
0.526 0.730 1.561 23910
0.528 0.733 1.558 16841
0.531 0.737 1.556 14291
0.531 0.736 1.546 11614
0.536 0.743 1.550 9868
0.548 0.761 1.574 11241
0.553 0.768 1.577 16073
0.558 0.775 1.581 20580
0.561 0.778 1.578 23126
0.563 0.782 1.575 22507
0.563 0.781 1.566 19348
0.563 0.781 1.557 13193
0.555 0.770 1.528 10617
0.557 0.773 1.525 11565
0.570 0.791 1.548 15603
0.573 0.794 1.545 21657
0.572 0.794 1.536 19300
0.577 0.801 1.539 14641
0.582 0.808 1.543 15426
0.582 0.808 1.533 18956
0.582 0.807 1.524 25317
0.587 0.814 1.527 31031
0.597 0.829 1.543 25969
0.603 0.836 1.547 21263
0.594 0.824 1.518 19168
0.616 0.854 1.559 15353
0.624 0.866 1.569 15209
0.626 0.869 1.566 15446
0.631 0.876 1.569 17241
0.637 0.884 1.572 14480
0.642 0.891 1.575 8660
0.604 0.839 1.484 9402
0.607 0.842 1.481 9356
0.603 0.837 1.466 8611
0.646 0.896 1.549 9100
0.608 0.843 1.460 7747
0.616 0.854 1.469 5640
0.656 0.910 1.545 7678
0.664 0.922 1.554 17979
0.667 0.925 1.551 24367
0.669 0.928 1.547 19784
0.674 0.936 1.550 11730
0.680 0.943 1.553 7630
0.682 0.947 1.549 5791
0.676 0.937 1.528 4600
0.681 0.945 1.530 10021
0.686 0.952 1.533 18537
0.692 0.960 1.535 24542
0.694 0.963 1.532 30624
0.693 0.962 1.522 36563
0.696 0.965 1.519 43556
0.701 0.973 1.521 38592
0.700 0.972 1.512 21711
0.709 0.984 1.520 13221
0.717 0.996 1.528 15106
0.720 0.999 1.524 19430
0.719 0.998 1.515 16027
0.715 0.992 1.500 7735
0.733 1.017 1.525 6493
0.732 1.016 1.515 10310
0.731 1.015 1.506 11423
0.737 1.023 1.508 17478
0.742 1.030 1.510 21403
0.742 1.029 1.500 14491
0.750 1.041 1.508 11079
0.759 1.053 1.516 15152
0.765 1.061 1.517 19609
0.767 1.064 1.514 20338
0.776 1.076 1.521 23594
0.778 1.080 1.517 24588
0.784 1.087 1.519 17368
0.796 1.104 1.532 14615
0.798 1.108 1.527 20632
0.801 1.111 1.523 22706
0.803 1.114 1.519 18876
0.805 1.117 1.515 18592
0.811 1.125 1.517 16342
0.813 1.128 1.513 15435
0.812 1.127 1.503 15317
0.814 1.130 1.499 13024
0.820 1.138 1.500 16912
0.819 1.137 1.491 17865
0.821 1.140 1.486 14495
0.827 1.148 1.488 11763
0.823 1.141 1.473 13930
0.825 1.145 1.468 17078
0.830 1.152 1.470 12796
0.836 1.160 1.471 9453
0.835 1.159 1.461 7344
0.830 1.152 1.446 3343
0.826 1.146 1.432 2528
0.852 1.182 1.464 5694
0.854 1.185 1.460 13438
0.860 1.193 1.461 18295
0.862 1.196 1.456 23274
0.864 1.200 1.452 27315
0.867 1.203 1.448 18122
0.865 1.201 1.438 9772
0.868 1.204 1.434 12171
0.870 1.207 1.429 11997
0.875 1.215 1.430 8165
0.881 1.223 1.431 7249
0.887 1.231 1.431 8422
0.893 1.239 1.432 8519
0.966 1.341 1.528 8127
0.969 1.344 1.523 8727
0.971 1.347 1.518 7628
0.973 1.351 1.513 7214
0.976 1.354 1.508 6256
0.982 1.362 1.508 6447
0.988 1.370 1.508 5947
0.997 1.384 1.513 6735
0.996 1.382 1.503 10692
0.998 1.385 1.498 15614
1.004 1.393 1.498 19896
1.006 1.396 1.493 17769
1.023 1.420 1.507 11378
1.033 1.433 1.511 17220
1.032 1.432 1.501 30192
1.034 1.435 1.496 38765
1.036 1.438 1.491 32702
1.035 1.436 1.481 23365
1.033 1.434 1.471 16760
1.058 1.468 1.494 9366
1.060 1.471 1.489 9315
1.059 1.469 1.479 6734
1.061 1.472 1.473 4482
1.105 1.533 1.519 4498
1.103 1.531 1.508 10821
1.106 1.534 1.503 16552
1.108 1.537 1.497 17253
1.110 1.541 1.492 14507
1.116 1.549 1.491 9277
1.130 1.568 1.498 7101
1.132 1.571 1.493 11021
1.138 1.580 1.491 18434
1.145 1.588 1.490 25580
1.147 1.591 1.484 27028
1.149 1.595 1.479 24372
1.148 1.592 1.468 21298
1.150 1.596 1.463 22283
1.152 1.599 1.457 20184
1.154 1.602 1.451 15232
1.156 1.605 1.445 11358
1.221 1.694 1.508 9698
1.231 1.708 1.510 13016
1.229 1.706 1.500 16555
1.228 1.704 1.489 16662
1.234 1.712 1.487 13337
1.244 1.727 1.489 10343
1.243 1.724 1.479 9935
1.253 1.738 1.481 10554
1.259 1.747 1.479 12265
1.265 1.756 1.477 12953
1.271 1.764 1.474 11863
1.278 1.773 1.472 11487
1.280 1.776 1.465 11704
1.286 1.785 1.463 8852
1.316 1.826 1.485 8522
1.338 1.857 1.498 11885
1.341 1.861 1.491 12650
1.343 1.864 1.484 13414
1.341 1.861 1.474 9860
1.356 1.881 1.479 6031
1.362 1.890 1.476 6507
1.368 1.899 1.473 9478
1.375 1.907 1.470 12919
1.381 1.916 1.467 11302
1.383 1.919 1.460 9779
1.422 1.973 1.487 7565
1.432 1.988 1.487 6747
1.451 2.013 1.495 6014
1.425 1.977 1.462 5468
1.423 1.974 1.451 6539
1.429 1.983 1.447 5655
1.456 2.020 1.462 6908
1.462 2.029 1.458 7365
1.464 2.032 1.451 7823
1.471 2.041 1.447 6611
1.477 2.050 1.443 5784
1.475 2.047 1.432 5735
1.473 2.044 1.421 5989
1.480 2.053 1.417 5123
1.494 2.073 1.420 4818
1.496 2.076 1.413 3571
1.548 2.149 1.447 3783
1.555 2.158 1.443 3695
1.578 2.190 1.452 4057
1.580 2.193 1.444 4057
1.578 2.190 1.432 5416
1.576 2.187 1.421 6919
1.566 2.173 1.403 5851
1.564 2.170 1.392 5470
1.599 2.219 1.411 5172
1.602 2.222 1.402 6010
1.608 2.231 1.398 4954
1.640 2.275 1.412 4695
1.642 2.278 1.404 4695
1.635 2.269 1.389 4471
1.688 2.343 1.419 5795
1.691 2.346 1.411 2897
1.527 2.119 1.280 290
0.367 0.506 1.594 13554
0.369 0.509 1.592 14101
0.372 0.512 1.590 14647
0.374 0.516 1.589 12073
0.379 0.522 1.594 9745
0.381 0.525 1.592 13936
0.384 0.529 1.590 18126
0.386 0.532 1.588 18126
0.388 0.536 1.586 19778
0.393 0.542 1.591 21484
0.395 0.545 1.589 19431
0.400 0.551 1.594 17670
0.400 0.552 1.585 16030
0.403 0.555 1.583 14682
0.405 0.559 1.581 12724
0.408 0.562 1.579 10739
0.410 0.565 1.577 12226
0.413 0.569 1.575 13740
0.415 0.572 1.572 16467
0.417 0.576 1.570 19193
0.420 0.579 1.568 16332
0.422 0.582 1.566 13342
0.427 0.589 1.571 10204
0.429 0.592 1.569 7314
0.432 0.595 1.566 8470
0.434 0.599 1.564 9683
0.434 0.599 1.555 9300
0.435 0.599 1.546 9182
0.439 0.606 1.551 8561
0.446 0.615 1.562 8301
0.453 0.625 1.574 6293
0.460 0.634 1.585 4932
0.444 0.613 1.528 5530
0.447 0.616 1.525 6289
0.467 0.644 1.578 6722
0.470 0.648 1.576 10695
0.475 0.654 1.580 13914
0.477 0.658 1.578 17335
0.480 0.661 1.575 20246
0.484 0.668 1.580 19893
0.487 0.671 1.577 18548
0.489 0.675 1.575 14436
0.489 0.675 1.565 15752
0.489 0.675 1.556 20341
0.494 0.681 1.560 24646
0.499 0.688 1.565 35200
0.501 0.691 1.562 41181
0.504 0.695 1.559 44059
0.509 0.701 1.564 40541
0.511 0.705 1.561 32684
0.516 0.712 1.565 24448
0.521 0.718 1.569 24588
0.523 0.722 1.566 31134
0.526 0.725 1.564 31673
0.528 0.728 1.561 24211
0.531 0.732 1.558 16622
0.533 0.735 1.556 14307
0.533 0.735 1.546 12168
0.538 0.742 1.550 10204
0.551 0.759 1.574 10599
0.556 0.766 1.577 14561
0.561 0.773 1.581 19550
0.563 0.777 1.578 22753
0.566 0.780 1.575 22762
0.566 0.780 1.566 20581
0.565 0.779 1.557 14713
0.560 0.772 1.534 11609
0.559 0.771 1.525 12655
0.570 0.786 1.542 15225
0.575 0.793 1.545 19091
0.575 0.792 1.536 16335
0.577 0.796 1.533 12296
0.582 0.803 1.536 13860
0.582 0.802 1.527 18516
0.584 0.805 1.524 26095
0.589 0.812 1.527 32318
0.597 0.823 1.537 25716
0.605 0.834 1.547 20415
0.596 0.822 1.518 19322
0.618 0.853 1.559 17460
0.626 0.864 1.569 17492
0.632 0.871 1.572 16604
0.634 0.874 1.569 17895
0.639 0.882 1.572 15372
0.645 0.889 1.575 9307
0.607 0.837 1.484 10256
0.609 0.840 1.481 9901
0.640 0.883 1.540 8961
0.608 0.838 1.463 9137
0.610 0.841 1.460 8253
0.618 0.852 1.469 6066
0.659 0.908 1.545 7775
0.664 0.916 1.548 17059
0.669 0.923 1.551 23222
0.672 0.926 1.547 16657
0.677 0.934 1.550 7678
0.626 0.863 1.438 5540
0.679 0.936 1.537 5319
0.678 0.935 1.528 4567
0.684 0.943 1.530 10412
0.689 0.950 1.533 18442
0.695 0.958 1.535 23591
0.700 0.965 1.538 28813
0.699 0.964 1.528 32104
0.702 0.967 1.525 36735
0.704 0.971 1.521 32669
0.703 0.970 1.512 19412
0.712 0.981 1.520 11535
0.720 0.993 1.528 13294
0.723 0.997 1.524 18482
0.722 0.996 1.515 15545
0.721 0.994 1.505 7311
0.736 1.015 1.525 6329
0.732 1.010 1.510 8887
0.735 1.013 1.506 10137
0.740 1.020 1.508 16581
0.742 1.024 1.504 20124
0.745 1.027 1.500 13673
0.750 1.034 1.502 10054
0.762 1.051 1.516 13507
0.768 1.059 1.517 20837
0.770 1.062 1.514 21773
0.776 1.070 1.515 23909
0.781 1.077 1.517 24138
0.787 1.085 1.519 18406
0.799 1.102 1.532 18647
0.802 1.105 1.527 25271
0.804 1.108 1.523 24728
0.803 1.107 1.514 18722
0.809 1.115 1.515 19348
0.811 1.118 1.511 15888
0.813 1.121 1.507 15193
0.812 1.120 1.497 16076
0.818 1.128 1.499 16507
0.820 1.131 1.495 19809
0.823 1.134 1.491 18742
0.821 1.133 1.481 16643
0.827 1.140 1.482 13498
0.826 1.139 1.473 15259
0.828 1.142 1.468 17774
0.834 1.150 1.470 13867
0.840 1.158 1.471 8969
0.835 1.151 1.456 8125
0.834 1.150 1.446 6859
0.836 1.153 1.442 5141
0.845 1.165 1.448 6313
0.858 1.183 1.460 11330
0.864 1.191 1.461 15339
0.866 1.194 1.456 21637
0.868 1.197 1.452 24817
0.867 1.195 1.443 15501
0.869 1.198 1.438 9058
0.868 1.196 1.429 11007
0.873 1.204 1.429 10088
0.883 1.217 1.435 7517
0.888 1.225 1.436 7280
0.891 1.228 1.431 8249
0.896 1.236 1.432 8839
0.970 1.338 1.528 10213
0.973 1.341 1.523 9947
0.972 1.339 1.513 7826
0.974 1.343 1.508 6656
0.976 1.346 1.503 5448
0.982 1.354 1.503 5932
0.984 1.357 1.498 6189
0.998 1.376 1.508 7003
1.000 1.379 1.503 11625
1.002 1.382 1.498 16966
1.008 1.390 1.498 21831
1.014 1.398 1.498 20647
1.028 1.417 1.507 12905
1.037 1.430 1.511 17388
1.036 1.428 1.501 32065
1.038 1.432 1.496 41153
1.041 1.435 1.491 32676
1.039 1.433 1.481 21098
1.034 1.426 1.466 15042
1.036 1.429 1.461 9420
1.061 1.463 1.484 10741
1.060 1.461 1.474 8107
1.066 1.469 1.473 4874
1.109 1.530 1.519 4830
1.108 1.528 1.508 11813
1.110 1.531 1.503 17782
1.116 1.539 1.502 18876
1.119 1.542 1.496 16632
1.125 1.551 1.495 11568
1.139 1.570 1.503 11119
1.137 1.568 1.493 16322
1.143 1.576 1.491 25524
1.149 1.585 1.490 33724
1.152 1.588 1.484 35029
1.150 1.586 1.474 32340
1.152 1.589 1.468 29547
1.155 1.592 1.463 30258
1.157 1.595 1.457 27679
1.159 1.598 1.451 21456
1.161 1.601 1.445 16513
1.164 1.604 1.439 12813
1.236 1.704 1.510 12724
1.239 1.708 1.504 16682
1.237 1.705 1.494 16776
1.243 1.714 1.492 14264
1.249 1.723 1.489 11989
1.252 1.726 1.483 11503
1.254 1.729 1.477 11374
1.264 1.743 1.479 12413
1.271 1.752 1.477 13371
1.277 1.760 1.474 12450
1.283 1.769 1.472 12731
1.289 1.778 1.470 13467
1.292 1.781 1.463 10358
1.322 1.822 1.485 9339
1.344 1.853 1.498 12293
1.346 1.856 1.491 13012
1.349 1.860 1.484 13731
1.347 1.857 1.474 9993
1.361 1.877 1.479 5526
1.368 1.886 1.476 5802
1.378 1.900 1.477 8968
1.384 1.909 1.474 12652
1.387 1.912 1.467 11163
1.393 1.921 1.463 9727
1.424 1.963 1.483 7852
1.438 1.983 1.487 6730
1.453 2.003 1.491 5830
1.431 1.972 1.462 5392
1.429 1.970 1.451 6395
1.435 1.979 1.447 5641
1.462 2.016 1.462 6970
1.468 2.025 1.458 7408
1.471 2.028 1.451 7886
1.473 2.031 1.443 6910
1.483 2.045 1.443 6437
1.481 2.043 1.432 6463
1.480 2.040 1.421 6872
1.486 2.049 1.417 5740
1.496 2.063 1.417 5020
1.503 2.072 1.413 3534
1.559 2.150 1.450 3869
1.566 2.159 1.446 3907
1.580 2.179 1.448 4222
1.583 2.182 1.440 4222
1.576 2.173 1.426 5689
1.579 2.176 1.418 7382
1.572 2.168 1.403 6477
1.570 2.165 1.392 6107
1.602 2.209 1.407 5338
1.608 2.218 1.402 6335
1.611 2.220 1.394 5214
1.647 2.270 1.412 4635
1.649 2.273 1.404 4635
1.642 2.264 1.389 4588
1.696 2.338 1.419 5613
1.698 2.341 1.411 2806
1.533 2.114 1.280 276
0.368 0.504 1.594 13869
0.371 0.508 1.592 14220
0.373 0.511 1.590 14570
0.378 0.517 1.596 11969
0.380 0.521 1.594 9631
0.383 0.524 1.592 14159
0.385 0.528 1.590 18687
0.388 0.531 1.588 18687
0.390 0.534 1.586 20553
0.395 0.541 1.591 22493
0.397 0.544 1.589 20531
0.402 0.550 1.594 18837
0.402 0.551 1.585 17214
0.404 0.554 1.583 15859
0.407 0.557 1.581 13778
0.409 0.561 1.579 11578
0.410 0.561 1.570 12135
0.414 0.568 1.575 12810
0.417 0.571 1.572 15587
0.419 0.574 1.570 18364
0.422 0.578 1.568 16061
0.424 0.581 1.566 13704
0.429 0.587 1.571 9825
0.431 0.591 1.569 6077
0.434 0.594 1.566 6632
0.434 0.594 1.557 7409
0.434 0.595 1.548 8287
0.436 0.598 1.546 9320
0.443 0.607 1.557 8535
0.453 0.620 1.576 9244
0.455 0.623 1.574 7465
0.446 0.611 1.537 6260
0.448 0.614 1.535 6813
0.453 0.621 1.539 6337
0.467 0.640 1.571 6736
0.472 0.646 1.576 10765
0.477 0.653 1.580 14330
0.479 0.656 1.578 17963
0.482 0.660 1.575 20942
0.486 0.666 1.580 20274
0.489 0.670 1.577 18342
0.491 0.673 1.575 14178
0.491 0.673 1.565 16609
0.494 0.676 1.563 22092
0.496 0.680 1.560 26976
0.501 0.686 1.565 37522
0.501 0.686 1.555 42984
0.506 0.693 1.559 45854
0.511 0.700 1.564 42793
0.513 0.703 1.561 35502
0.516 0.707 1.558 26440
0.523 0.717 1.569 25671
0.526 0.720 1.566 31999
0.528 0.723 1.564 32404
0.533 0.730 1.568 24506
0.536 0.734 1.565 16444
0.535 0.733 1.556 14404
0.535 0.733 1.546 12575
0.540 0.740 1.550 10351
0.550 0.754 1.567 9856
0.558 0.765 1.577 12855
0.563 0.772 1.581 18294
0.566 0.775 1.578 22119
0.568 0.778 1.575 22497
0.568 0.778 1.566 21136
0.570 0.781 1.563 16070
0.562 0.770 1.534 12996
0.564 0.773 1.532 14304
0.570 0.780 1.535 15719
0.575 0.787 1.539 17287
0.577 0.790 1.536 13771
0.579 0.794 1.533 10405
0.582 0.797 1.530 12473
0.584 0.800 1.527 17809
0.587 0.804 1.524 25859
0.589 0.807 1.521 32649
0.600 0.821 1.537 25316
0.608 0.832 1.547 19526
0.599 0.820 1.518 18995
0.621 0.851 1.559 19801
0.629 0.862 1.569 19665
0.634 0.869 1.572 17667
0.637 0.872 1.569 18330
0.642 0.880 1.572 16118
0.647 0.887 1.575 9901
0.609 0.835 1.484 10930
0.612 0.838 1.481 10299
0.643 0.881 1.540 9989
0.608 0.832 1.457 9702
0.613 0.839 1.460 9071
0.618 0.846 1.463 7261
0.659 0.902 1.539 8597
0.667 0.914 1.548 15171
0.672 0.921 1.551 20430
0.678 0.928 1.554 13739
0.680 0.932 1.550 8555
0.683 0.935 1.547 8610
0.685 0.938 1.543 6454
0.687 0.942 1.540 4691
0.690 0.945 1.536 10940
0.695 0.952 1.539 18718
0.698 0.956 1.535 23334
0.703 0.963 1.538 28379
0.702 0.962 1.528 28619
0.705 0.965 1.525 29625
0.704 0.964 1.515 25496
0.706 0.968 1.512 16139
0.715 0.979 1.520 9544
0.724 0.991 1.528 10702
0.723 0.990 1.518 16913
0.725 0.993 1.515 15210
0.727 0.997 1.511 8266
0.666 0.913 1.391 7471
0.732 1.003 1.504 8865
0.738 1.010 1.506 10278
0.743 1.018 1.508 16801
0.746 1.021 1.504 19802
0.748 1.024 1.500 13175
0.747 1.023 1.491 9071
0.762 1.044 1.510 11895
0.768 1.052 1.512 21623
0.770 1.055 1.508 21369
0.779 1.067 1.515 21659
0.781 1.070 1.511 22622
0.790 1.083 1.519 19226
0.803 1.099 1.532 21770
0.805 1.103 1.527 28578
0.807 1.106 1.523 26376
0.806 1.105 1.514 19070
0.809 1.108 1.510 19664
0.811 1.111 1.506 15826
0.813 1.114 1.502 16201
0.816 1.117 1.497 18498
0.821 1.125 1.499 19776
0.824 1.128 1.495 21810
0.823 1.127 1.485 19621
0.825 1.130 1.481 18042
0.831 1.138 1.482 14586
0.830 1.136 1.473 16790
0.832 1.139 1.468 19296
0.838 1.147 1.470 14452
0.843 1.155 1.471 8960
0.839 1.149 1.456 8342
0.841 1.152 1.452 8883
0.840 1.150 1.442 8882
0.842 1.153 1.438 9731
0.855 1.171 1.449 10822
0.864 1.183 1.456 12874
0.870 1.191 1.456 19698
0.868 1.189 1.447 21951
0.870 1.192 1.443 13545
0.869 1.191 1.433 8985
0.868 1.189 1.423 10315
0.877 1.202 1.429 7689
0.894 1.224 1.445 6461
0.896 1.227 1.441 7322
0.963 1.319 1.528 9001
0.969 1.327 1.528 10578
0.975 1.335 1.528 11914
0.977 1.338 1.523 10811
0.976 1.336 1.513 8908
0.978 1.340 1.508 8633
0.977 1.338 1.498 7706
0.983 1.346 1.498 7198
0.985 1.349 1.494 7332
0.998 1.367 1.503 8037
1.004 1.376 1.503 12337
1.007 1.379 1.498 17900
1.013 1.387 1.498 23445
1.019 1.395 1.498 23331
1.032 1.414 1.507 15735
1.042 1.427 1.511 18545
1.040 1.425 1.501 33343
1.043 1.428 1.496 42385
1.045 1.432 1.491 31785
1.044 1.430 1.481 18951
1.035 1.417 1.462 14337
1.044 1.431 1.466 11137
1.062 1.454 1.479 12843
1.064 1.458 1.474 9758
1.070 1.466 1.473 5385
1.110 1.521 1.514 5192
1.113 1.524 1.508 12510
1.115 1.527 1.503 18650
1.121 1.536 1.502 20288
1.124 1.539 1.496 18328
1.130 1.547 1.495 14110
1.143 1.566 1.503 15637
1.142 1.564 1.493 22317
1.148 1.573 1.491 33033
1.154 1.581 1.490 41788
1.157 1.584 1.484 43047
1.155 1.582 1.474 40782
1.157 1.585 1.468 37510
1.160 1.588 1.463 37624
1.162 1.592 1.457 34698
1.164 1.595 1.451 27347
1.166 1.598 1.445 21367
1.169 1.601 1.439 16939
1.242 1.701 1.510 13087
1.244 1.704 1.504 16092
1.242 1.702 1.494 15701
1.252 1.716 1.496 14001
1.259 1.724 1.494 12386
1.257 1.722 1.483 11865
1.259 1.725 1.477 11770
1.270 1.739 1.479 12486
1.276 1.748 1.477 13564
1.282 1.756 1.474 12803
1.292 1.770 1.476 13819
1.295 1.774 1.470 15248
1.297 1.777 1.463 11875
1.327 1.818 1.485 9860
1.350 1.849 1.498 12490
1.352 1.852 1.491 13183
1.354 1.855 1.484 13877
1.353 1.853 1.474 9916
1.367 1.873 1.479 4834
1.378 1.887 1.480 4962
1.388 1.901 1.481 8407
1.390 1.905 1.474 12113
1.397 1.913 1.470 10724
1.403 1.922 1.467 9410
1.430 1.959 1.483 8026
1.440 1.973 1.483 6668
1.459 1.999 1.491 5637
1.437 1.968 1.462 5228
1.435 1.966 1.451 6125
1.462 2.003 1.466 5579
1.468 2.011 1.462 7006
1.471 2.014 1.455 7442
1.477 2.023 1.451 7894
1.479 2.026 1.443 7132
1.490 2.041 1.443 6970
1.488 2.038 1.432 7034
1.486 2.035 1.421 7545
1.492 2.044 1.417 6144
1.503 2.058 1.417 4999
1.509 2.067 1.413 3326
1.566 2.145 1.450 4073
1.572 2.154 1.446 4246
1.587 2.174 1.448 4654
1.589 2.177 1.440 4654
1.583 2.169 1.426 6186
1.585 2.172 1.418 7878
1.579 2.163 1.403 6991
1.577 2.160 1.392 6571
1.609 2.204 1.407 5371
1.615 2.213 1.402 6285
1.613 2.210 1.391 5227
1.654 2.265 1.412 4580
1.600 2.192 1.362 4667
1.654 2.265 1.392 4628
1.703 2.333 1.419 5329
1.705 2.336 1.411 2664
1.540 2.109 1.280 297
0.369 0.504 1.594 14029
0.372 0.507 1.592 14032
0.374 0.511 1.590 14035
0.378 0.517 1.596 11668
0.381 0.520 1.594 9402
0.383 0.524 1.592 14486
0.386 0.527 1.590 19571
0.388 0.530 1.588 19571
0.391 0.534 1.586 21457
0.395 0.540 1.591 23455
0.398 0.543 1.589 21297
0.402 0.550 1.594 19398
0.403 0.550 1.585 17608
0.405 0.553 1.583 16078
0.408 0.557 1.581 14140
0.408 0.557 1.572 12075
0.411 0.561 1.570 11847
0.415 0.567 1.575 11710
0.418 0.570 1.572 14556
0.420 0.574 1.570 17402
0.423 0.577 1.568 15787
0.425 0.580 1.566 14193
0.430 0.587 1.571 10455
0.432 0.590 1.569 6743
0.432 0.590 1.559 6050
0.430 0.588 1.543 6145
0.435 0.594 1.548 7551
0.440 0.600 1.553 9152
0.449 0.613 1.571 9532
0.453 0.619 1.576 11123
0.456 0.623 1.574 9112
0.449 0.614 1.544 8107
0.452 0.617 1.541 7199
0.454 0.620 1.539 5285
0.470 0.642 1.578 6176
0.473 0.646 1.576 10864
0.478 0.652 1.580 14650
0.480 0.656 1.578 18330
0.483 0.659 1.575 21252
0.487 0.666 1.580 20252
0.490 0.669 1.577 17724
0.492 0.672 1.575 13684
0.492 0.672 1.565 17420
0.495 0.676 1.563 24093
0.497 0.679 1.560 29325
0.502 0.686 1.565 39574
0.502 0.686 1.555 44501
0.507 0.692 1.559 47221
0.512 0.699 1.564 44679
0.514 0.702 1.561 38149
0.517 0.706 1.558 28498
0.524 0.716 1.569 26577
0.527 0.719 1.566 32281
0.529 0.723 1.564 32511
0.534 0.730 1.568 24306
0.537 0.733 1.565 15849
0.536 0.733 1.556 13998
0.536 0.732 1.546 12445
0.541 0.739 1.550 10023
0.552 0.753 1.567 8975
0.559 0.764 1.577 11271
0.564 0.771 1.581 16895
0.564 0.771 1.572 21359
0.569 0.777 1.575 21803
0.569 0.777 1.566 21097
0.569 0.777 1.557 16984
0.563 0.769 1.534 14279
0.566 0.772 1.532 15524
0.571 0.779 1.535 16364
0.576 0.786 1.539 16099
0.578 0.790 1.536 11892
0.578 0.789 1.526 9265
0.583 0.796 1.530 11712
0.583 0.796 1.521 17180
0.588 0.803 1.524 25196
0.590 0.806 1.521 32254
0.601 0.821 1.537 24723
0.609 0.832 1.547 18976
0.614 0.839 1.550 18197
0.625 0.854 1.566 21250
0.630 0.861 1.569 21397
0.636 0.868 1.572 18452
0.638 0.871 1.569 18158
0.643 0.879 1.572 16129
0.649 0.886 1.575 10236
0.611 0.834 1.484 11333
0.613 0.837 1.481 10573
0.647 0.884 1.546 11130
0.609 0.831 1.457 10358
0.611 0.834 1.454 10288
0.616 0.842 1.457 8953
0.645 0.881 1.509 8834
0.668 0.913 1.548 11897
0.674 0.920 1.551 15898
0.679 0.927 1.554 12584
0.684 0.935 1.556 11608
0.687 0.938 1.553 11987
0.686 0.937 1.543 8631
0.634 0.866 1.431 6363
0.694 0.948 1.542 10700
0.697 0.951 1.539 17571
0.699 0.955 1.535 22349
0.704 0.962 1.538 27879
0.707 0.965 1.534 26402
0.706 0.964 1.525 23997
0.705 0.963 1.515 20057
0.708 0.967 1.512 13750
0.713 0.974 1.514 8167
0.722 0.986 1.522 8493
0.724 0.989 1.518 15344
0.723 0.988 1.509 14644
0.729 0.995 1.511 8723
0.668 0.912 1.391 8734
0.673 0.919 1.394 9959
0.742 1.014 1.512 12028
0.748 1.021 1.514 18023
0.750 1.025 1.510 20387
0.753 1.028 1.506 14416
0.752 1.027 1.497 9733
0.764 1.043 1.510 11778
0.766 1.046 1.506 21702
0.772 1.054 1.508 20665
0.777 1.062 1.510 18261
0.780 1.065 1.506 19258
0.792 1.081 1.519 18717
0.801 1.094 1.526 24299
0.807 1.102 1.527 30217
0.809 1.105 1.523 26630
0.808 1.103 1.514 18904
0.810 1.107 1.510 19394
0.813 1.110 1.506 15025
0.815 1.113 1.502 16088
0.817 1.116 1.497 19973
0.823 1.124 1.499 21439
0.825 1.127 1.495 21979
0.824 1.126 1.485 20322
0.827 1.129 1.481 18959
0.832 1.137 1.482 14840
0.831 1.135 1.473 16956
0.833 1.138 1.468 19418
0.839 1.146 1.470 14286
0.841 1.149 1.465 9098
0.840 1.148 1.456 9562
0.842 1.151 1.452 11236
0.841 1.149 1.442 11436
0.843 1.152 1.438 11672
0.849 1.160 1.439 11929
0.862 1.177 1.450 11132
0.871 1.190 1.456 17411
0.870 1.188 1.447 19178
0.865 1.181 1.432 13499
0.867 1.185 1.428 9808
0.866 1.183 1.418 9510
0.868 1.186 1.414 7361
0.888 1.213 1.435 5886
0.898 1.226 1.441 6489
0.964 1.317 1.528 10195
0.970 1.325 1.528 12315
0.976 1.334 1.528 12929
0.979 1.337 1.523 11178
0.978 1.335 1.513 10167
0.980 1.338 1.508 11474
0.982 1.341 1.503 11167
0.985 1.345 1.498 9445
0.987 1.348 1.494 8441
0.997 1.361 1.498 9237
1.006 1.374 1.503 12572
1.009 1.377 1.498 18220
1.015 1.386 1.498 24527
1.021 1.394 1.498 25582
1.034 1.412 1.507 18794
1.044 1.426 1.511 19840
1.042 1.424 1.501 33800
1.045 1.427 1.496 42175
1.051 1.435 1.496 30136
1.049 1.433 1.486 17271
1.044 1.426 1.471 14740
1.050 1.434 1.471 14249
1.064 1.453 1.479 15572
1.070 1.461 1.479 11508
1.072 1.464 1.473 5449
1.113 1.519 1.514 5690
1.115 1.523 1.508 12922
1.117 1.526 1.503 18967
1.123 1.534 1.502 21027
1.130 1.543 1.501 19514
1.136 1.551 1.500 16402
1.146 1.565 1.503 19949
1.144 1.563 1.493 28444
1.150 1.571 1.491 40351
1.153 1.574 1.486 49445
1.155 1.577 1.480 50173
1.157 1.581 1.474 48238
1.160 1.584 1.468 45074
1.162 1.587 1.463 44526
1.164 1.590 1.457 41228
1.166 1.593 1.451 32620
1.169 1.596 1.445 25538
1.171 1.599 1.439 20419
1.173 1.602 1.433 12986
1.246 1.702 1.504 15152
1.249 1.705 1.498 14662
1.255 1.714 1.496 13956
1.261 1.722 1.494 12963
1.260 1.720 1.483 12306
1.262 1.723 1.477 11678
1.272 1.737 1.479 11969
1.278 1.746 1.477 13359
1.285 1.755 1.474 12740
1.295 1.769 1.476 14570
1.297 1.772 1.470 16650
1.304 1.780 1.467 13235
1.330 1.816 1.485 10144
1.353 1.847 1.498 12765
1.355 1.850 1.491 13459
1.357 1.853 1.484 14152
1.355 1.851 1.474 9944
1.366 1.865 1.475 4081
1.397 1.907 1.495 4715
1.399 1.911 1.488 7916
1.397 1.908 1.477 11234
1.404 1.917 1.474 9939
1.418 1.937 1.479 8964
1.433 1.957 1.483 8028
1.443 1.971 1.483 6582
1.462 1.997 1.491 5416
1.444 1.972 1.465 5200
1.442 1.969 1.454 6057
1.448 1.978 1.451 5651
1.471 2.009 1.462 6918
1.473 2.012 1.455 7305
1.480 2.021 1.451 7695
1.482 2.024 1.443 7148
1.497 2.044 1.447 7209
1.491 2.036 1.432 7348
1.489 2.033 1.421 7968
1.491 2.036 1.414 6323
1.501 2.051 1.413 4857
1.567 2.140 1.458 3238
1.573 2.148 1.454 4440
1.580 2.157 1.449 4790
1.586 2.166 1.445 5341
1.588 2.169 1.437 5341
1.586 2.166 1.426 6718
1.584 2.164 1.414 8316
1.582 2.161 1.403 7344
1.580 2.158 1.392 6799
1.608 2.196 1.404 5399
1.614 2.204 1.399 6321
1.616 2.207 1.391 5345
1.606 2.193 1.373 4802
1.603 2.190 1.362 5000
1.657 2.263 1.392 4565
1.650 2.254 1.378 5260
1.653 2.257 1.370 2630
1.543 2.107 1.280 306
0.371 0.503 1.594 14503
0.375 0.509 1.600 13944
0.377 0.512 1.598 13417
0.380 0.516 1.596 11268
0.384 0.522 1.601 9120
0.385 0.522 1.592 14633
0.387 0.526 1.590 20145
0.390 0.529 1.588 20145
0.392 0.533 1.586 22096
0.397 0.539 1.591 24162
0.399 0.542 1.589 22007
0.404 0.548 1.594 20037
0.404 0.549 1.585 18087
0.407 0.552 1.583 16322
0.409 0.556 1.581 14519
0.410 0.556 1.572 12666
0.412 0.560 1.570 11465
0.417 0.566 1.575 10244
0.417 0.566 1.565 12932
0.420 0.570 1.563 15650
0.424 0.576 1.568 14556
0.427 0.579 1.566 13757
0.431 0.585 1.571 10634
0.434 0.589 1.569 7541
0.434 0.589 1.559 5698
0.430 0.583 1.536 5299
0.437 0.593 1.548 6316
0.446 0.605 1.567 8796
0.451 0.612 1.571 10147
0.455 0.618 1.576 11930
0.455 0.618 1.567 9894
0.453 0.615 1.551 8626
0.456 0.619 1.548 6721
0.456 0.619 1.539 4033
0.472 0.641 1.578 5634
0.475 0.644 1.576 11124
0.480 0.651 1.580 15149
0.482 0.654 1.578 18620
0.485 0.658 1.575 21266
0.489 0.664 1.580 20090
0.492 0.668 1.577 17143
0.494 0.671 1.575 13317
0.497 0.674 1.572 18288
0.497 0.674 1.563 25571
0.502 0.681 1.567 31219
0.502 0.681 1.558 40600
0.504 0.684 1.555 44846
0.509 0.691 1.559 47445
0.514 0.698 1.564 45732
0.516 0.701 1.561 40328
0.519 0.704 1.558 30311
0.526 0.714 1.569 27306
0.529 0.718 1.566 32154
0.531 0.721 1.564 32259
0.536 0.728 1.568 24049
0.539 0.731 1.565 15453
0.541 0.735 1.562 13990
0.538 0.731 1.546 12282
0.541 0.734 1.544 9521
0.556 0.755 1.574 8313
0.562 0.762 1.577 10228
0.567 0.769 1.581 15848
0.566 0.769 1.572 20674
0.572 0.776 1.575 20873
0.571 0.776 1.566 20593
0.571 0.775 1.557 17509
0.565 0.767 1.534 15352
0.568 0.771 1.532 16476
0.573 0.778 1.535 16758
0.575 0.781 1.532 15242
0.578 0.784 1.529 10297
0.572 0.776 1.507 8897
0.580 0.787 1.517 11122
0.585 0.794 1.521 16441
0.587 0.797 1.518 23983
0.593 0.804 1.521 31222
0.603 0.819 1.537 23962
0.611 0.830 1.547 17819
0.619 0.841 1.556 18107
0.628 0.852 1.566 22326
0.633 0.859 1.569 22642
0.635 0.862 1.566 19224
0.641 0.870 1.569 18297
0.646 0.877 1.572 16193
0.651 0.884 1.575 10158
0.616 0.836 1.491 11303
0.615 0.835 1.481 10771
0.650 0.882 1.546 11762
0.611 0.830 1.457 10899
0.613 0.833 1.454 11542
0.616 0.836 1.450 10944
0.624 0.847 1.460 10172
0.635 0.862 1.475 10184
0.679 0.922 1.557 12386
0.682 0.925 1.554 12254
0.687 0.933 1.556 14723
0.690 0.936 1.553 15692
0.689 0.935 1.543 11360
0.637 0.864 1.431 7918
0.697 0.946 1.542 10574
0.699 0.949 1.539 16676
0.705 0.957 1.541 21573
0.707 0.960 1.538 27344
0.710 0.963 1.534 24420
0.709 0.962 1.525 18534
0.711 0.965 1.521 15665
0.714 0.969 1.518 13479
0.719 0.976 1.520 9787
0.722 0.979 1.516 9732
0.724 0.983 1.513 14510
0.726 0.986 1.509 13212
0.732 0.993 1.511 8507
0.670 0.910 1.391 9551
0.676 0.917 1.394 10793
0.749 1.016 1.517 13666
0.751 1.019 1.514 20010
0.753 1.022 1.510 22717
0.759 1.030 1.512 18659
0.761 1.033 1.508 14521
0.760 1.032 1.499 13866
0.769 1.044 1.506 21174
0.772 1.047 1.502 18810
0.777 1.055 1.504 15304
0.780 1.058 1.500 16981
0.795 1.079 1.519 17623
0.804 1.091 1.526 25417
0.810 1.099 1.527 29837
0.812 1.102 1.523 24973
0.815 1.106 1.519 17863
0.814 1.104 1.510 18375
0.816 1.107 1.506 13673
0.818 1.111 1.502 15291
0.821 1.114 1.497 19927
0.826 1.122 1.499 21427
0.825 1.120 1.489 20887
0.828 1.123 1.485 20078
0.830 1.126 1.481 18985
0.832 1.130 1.477 14695
0.835 1.133 1.473 16020
0.837 1.136 1.468 18492
0.839 1.139 1.464 14433
0.841 1.142 1.460 9221
0.844 1.145 1.456 10558
0.846 1.148 1.452 13608
0.845 1.146 1.442 14337
0.847 1.149 1.438 14122
0.849 1.152 1.434 13824
0.858 1.165 1.440 10312
0.875 1.187 1.456 15209
0.874 1.186 1.447 17169
0.865 1.174 1.427 14753
0.871 1.182 1.428 10368
0.873 1.185 1.423 7257
0.868 1.178 1.409 6616
0.885 1.201 1.425 5847
0.966 1.311 1.532 6274
0.972 1.319 1.533 10750
0.974 1.322 1.528 13146
0.980 1.331 1.528 13137
0.983 1.334 1.523 10975
0.982 1.332 1.513 10968
0.984 1.335 1.508 13778
0.986 1.339 1.503 14130
0.989 1.342 1.498 11271
0.991 1.345 1.494 9016
1.001 1.358 1.498 9675
1.010 1.371 1.503 12227
1.016 1.379 1.503 17774
1.022 1.388 1.503 24706
1.028 1.396 1.503 27215
1.035 1.404 1.502 21343
1.044 1.417 1.507 20732
1.047 1.421 1.501 33053
1.053 1.429 1.501 40173
1.055 1.432 1.496 27813
1.054 1.430 1.486 15511
1.052 1.428 1.476 15612
1.055 1.431 1.471 17580
1.064 1.445 1.475 18020
1.074 1.458 1.479 12611
1.077 1.461 1.473 5342
1.113 1.511 1.509 6075
1.116 1.514 1.504 12995
1.122 1.522 1.503 18502
1.128 1.531 1.502 20586
1.134 1.539 1.501 19579
1.140 1.548 1.500 17933
1.147 1.556 1.498 23527
1.149 1.559 1.493 33265
1.155 1.568 1.491 44703
1.157 1.571 1.486 53019
1.160 1.574 1.480 53204
1.162 1.577 1.474 51663
1.164 1.580 1.468 49396
1.167 1.583 1.463 48921
1.169 1.586 1.457 45639
1.171 1.589 1.451 36290
1.173 1.592 1.445 28344
1.176 1.596 1.439 22893
1.178 1.599 1.433 14836
1.251 1.698 1.504 15176
1.250 1.696 1.494 14212
1.260 1.710 1.496 13598
1.266 1.719 1.494 12855
1.265 1.716 1.483 12318
1.267 1.720 1.477 11331
1.277 1.734 1.479 11364
1.284 1.742 1.477 13063
1.290 1.751 1.474 12520
1.300 1.765 1.476 14845
1.303 1.768 1.470 17470
1.309 1.776 1.467 14197
1.335 1.812 1.485 10059
1.358 1.843 1.498 12772
1.360 1.846 1.491 13537
1.363 1.849 1.484 14302
1.361 1.847 1.474 9972
1.392 1.889 1.494 3887
1.402 1.903 1.495 5049
1.405 1.906 1.488 7674
1.407 1.909 1.481 10298
1.409 1.913 1.474 9089
1.428 1.938 1.483 8487
1.439 1.952 1.483 7749
1.449 1.967 1.483 6381
1.464 1.987 1.487 5239
1.450 1.967 1.465 5231
1.448 1.965 1.454 6056
1.454 1.973 1.451 5777
1.473 1.999 1.458 6811
1.479 2.008 1.455 7061
1.482 2.011 1.447 7350
1.488 2.020 1.443 7010
1.503 2.040 1.447 7103
1.493 2.026 1.429 7442
1.495 2.029 1.421 8197
1.497 2.032 1.414 6375
1.503 2.040 1.410 4619
1.573 2.135 1.458 3487
1.580 2.144 1.454 4869
1.590 2.158 1.453 5417
1.592 2.161 1.445 6177
1.595 2.164 1.437 6177
1.593 2.162 1.426 7262
1.591 2.159 1.414 8648
1.589 2.156 1.403 7507
1.586 2.153 1.392 6759
1.593 2.162 1.387 5431
1.621 2.200 1.399 5971
1.619 2.197 1.388 5277
1.612 2.188 1.373 4978
1.610 2.185 1.362 5183
1.664 2.258 1.392 4338
1.653 2.243 1.375 5250
1.655 2.246 1.366 2625
1.204 1.634 1.030 946
0.372 0.502 1.594 15086
0.376 0.508 1.600 14009
0.378 0.512 1.598 13041
0.381 0.515 1.596 11065
0.385 0.521 1.601 9146
0.386 0.522 1.592 14919
0.389 0.525 1.590 20747
0.391 0.528 1.588 20747
0.394 0.532 1.586 22706
0.398 0.538 1.591 24796
0.401 0.541 1.589 22747
0.405 0.547 1.594 20771
0.406 0.548 1.585 18801
0.408 0.551 1.583 16903
0.411 0.555 1.581 15052
0.411 0.555 1.572 13195
0.413 0.559 1.570 11534
0.416 0.562 1.567 9865
0.418 0.565 1.565 12148
0.421 0.569 1.563 14430
0.423 0.572 1.561 13708
0.428 0.578 1.566 13366
0.430 0.582 1.564 10762
0.435 0.588 1.569 8252
0.435 0.588 1.559 5902
0.435 0.588 1.550 3933
0.442 0.598 1.562 5874
0.449 0.607 1.574 8896
0.452 0.611 1.571 10655
0.454 0.614 1.569 12414
0.457 0.617 1.567 10246
0.455 0.614 1.551 8449
0.457 0.618 1.548 6201
0.457 0.618 1.539 3348
0.474 0.640 1.578 5214
0.476 0.643 1.576 11432
0.481 0.650 1.580 15772
0.483 0.653 1.578 19052
0.488 0.660 1.582 21457
0.491 0.663 1.580 20233
0.493 0.667 1.577 17018
0.496 0.670 1.575 13362
0.498 0.673 1.572 19076
0.498 0.673 1.563 26522
0.503 0.680 1.567 32322
0.503 0.680 1.558 40498
0.506 0.683 1.555 43855
0.510 0.690 1.559 46721
0.513 0.693 1.557 46505
0.518 0.700 1.561 42347
0.520 0.703 1.558 32082
0.528 0.713 1.569 27661
0.530 0.717 1.566 31394
0.535 0.723 1.570 31428
0.538 0.727 1.568 23593
0.540 0.730 1.565 15245
0.543 0.733 1.562 14015
0.543 0.733 1.553 12163
0.542 0.733 1.544 9232
0.558 0.754 1.574 8129
0.563 0.761 1.577 9825
0.566 0.764 1.575 15651
0.568 0.768 1.572 20691
0.573 0.775 1.575 20439
0.573 0.774 1.566 20328
0.573 0.774 1.557 17902
0.567 0.766 1.534 15865
0.569 0.770 1.532 16630
0.572 0.773 1.529 16558
0.577 0.780 1.532 14484
0.577 0.779 1.523 9457
0.571 0.771 1.501 8782
0.579 0.782 1.511 10814
0.584 0.789 1.514 15334
0.589 0.796 1.518 22475
0.597 0.807 1.527 29779
0.605 0.818 1.537 22860
0.613 0.828 1.547 16252
0.624 0.843 1.563 17545
0.629 0.850 1.566 22833
0.635 0.858 1.569 23354
0.637 0.861 1.566 19852
0.642 0.868 1.569 18314
0.648 0.875 1.572 15944
0.653 0.883 1.575 9702
0.618 0.835 1.491 11018
0.617 0.834 1.481 10737
0.652 0.881 1.546 12387
0.610 0.824 1.450 11492
0.615 0.831 1.454 12916
0.617 0.834 1.450 12959
0.623 0.841 1.453 11746
0.634 0.857 1.469 10474
0.627 0.848 1.447 10245
0.687 0.928 1.560 11963
0.689 0.931 1.556 16847
0.692 0.935 1.553 18441
0.691 0.934 1.543 13872
0.638 0.863 1.431 9268
0.699 0.945 1.542 10806
0.701 0.948 1.539 16280
0.707 0.955 1.541 20835
0.712 0.963 1.544 26859
0.715 0.966 1.540 23219
0.714 0.965 1.531 15003
0.716 0.968 1.527 13666
0.722 0.976 1.529 15151
0.721 0.975 1.520 11614
0.720 0.974 1.510 10948
0.726 0.981 1.513 13205
0.728 0.984 1.509 10944
0.737 0.996 1.517 8014
0.672 0.908 1.391 9786
0.748 1.011 1.521 12333
0.754 1.019 1.523 15498
0.753 1.018 1.514 22487
0.755 1.021 1.510 25899
0.761 1.028 1.512 23489
0.763 1.032 1.508 20431
0.766 1.035 1.504 17211
0.771 1.042 1.506 20495
0.777 1.050 1.508 16566
0.776 1.049 1.498 12582
0.782 1.056 1.500 14921
0.794 1.073 1.513 16627
0.806 1.090 1.526 25410
0.812 1.097 1.527 28036
0.818 1.105 1.529 21991
0.817 1.104 1.519 16258
0.816 1.103 1.510 16766
0.818 1.106 1.506 11989
0.821 1.109 1.502 15014
0.823 1.112 1.497 20263
0.825 1.115 1.493 20669
0.828 1.118 1.489 19516
0.830 1.122 1.485 18719
0.832 1.125 1.481 17767
0.835 1.128 1.477 14400
0.837 1.131 1.473 15192
0.839 1.134 1.468 17937
0.838 1.132 1.459 15406
0.840 1.136 1.455 9786
0.846 1.143 1.456 11107
0.848 1.146 1.452 14798
0.847 1.145 1.442 16410
0.849 1.148 1.438 16474
0.851 1.151 1.434 16104
0.857 1.159 1.435 11331
0.874 1.181 1.451 13121
0.872 1.179 1.442 16748
0.867 1.172 1.427 16366
0.873 1.180 1.428 10913
0.883 1.193 1.434 6117
0.878 1.186 1.419 5811
0.880 1.189 1.415 6186
0.969 1.309 1.532 6159
0.975 1.317 1.533 10627
0.905 1.222 1.427 13211
0.983 1.329 1.528 12526
0.982 1.327 1.518 10336
0.984 1.330 1.513 11161
0.987 1.333 1.508 14892
0.989 1.337 1.503 15699
0.991 1.340 1.498 12215
0.994 1.343 1.494 9040
1.000 1.351 1.493 9482
1.009 1.364 1.498 11484
1.019 1.377 1.503 16685
1.025 1.386 1.503 24208
1.031 1.394 1.503 27984
1.037 1.402 1.502 23148
1.047 1.415 1.507 21155
1.053 1.424 1.506 31865
1.056 1.427 1.501 37279
1.058 1.430 1.496 25161
1.060 1.433 1.490 14415
1.055 1.426 1.476 16387
1.061 1.434 1.475 20292
1.067 1.442 1.475 19635
1.077 1.456 1.479 13216
1.083 1.464 1.478 5395
1.116 1.509 1.509 6427
1.119 1.512 1.504 12812
1.125 1.520 1.503 17403
1.131 1.529 1.502 19176
1.141 1.542 1.505 18569
1.147 1.551 1.504 18739
1.150 1.554 1.498 25956
1.152 1.557 1.493 36131
1.154 1.560 1.487 46709
1.161 1.568 1.486 53906
1.163 1.572 1.480 54123
1.165 1.575 1.474 53099
1.168 1.578 1.468 51064
1.170 1.581 1.463 50486
1.172 1.584 1.457 47583
1.174 1.587 1.451 38148
1.177 1.590 1.445 29730
1.179 1.593 1.439 24322
1.181 1.596 1.433 16151
1.251 1.690 1.500 13984
1.253 1.694 1.494 12829
1.263 1.708 1.496 12357
1.270 1.716 1.494 11785
1.268 1.714 1.483 11231
1.270 1.717 1.477 10158
1.285 1.736 1.483 10229
1.291 1.745 1.481 12263
1.293 1.748 1.474 11882
1.304 1.762 1.476 14745
1.306 1.765 1.470 17812
1.312 1.774 1.467 14718
1.335 1.804 1.481 9763
1.366 1.846 1.502 12587
1.364 1.844 1.491 13402
1.366 1.847 1.484 14260
1.365 1.844 1.474 9910
1.396 1.886 1.494 4468
1.406 1.900 1.495 5523
1.408 1.903 1.488 7377
1.411 1.907 1.481 9231
1.417 1.915 1.478 8168
1.432 1.935 1.483 7913
1.442 1.949 1.483 7289
1.453 1.964 1.483 6117
1.468 1.984 1.487 5093
1.454 1.964 1.465 5232
1.456 1.967 1.458 6002
1.462 1.976 1.454 5960
1.477 1.996 1.458 6771
1.483 2.005 1.455 6799
1.486 2.008 1.447 6990
1.492 2.017 1.443 6763
1.503 2.031 1.443 6724
1.497 2.023 1.429 7402
1.499 2.026 1.421 8211
1.501 2.029 1.414 6259
1.503 2.032 1.406 4307
1.582 2.137 1.462 3680
1.584 2.140 1.454 5197
1.595 2.155 1.453 5962
1.597 2.158 1.445 6929
1.599 2.161 1.437 6929
1.597 2.158 1.426 7711
1.595 2.156 1.414 8805
1.593 2.153 1.403 7455
1.591 2.150 1.392 6438
1.597 2.159 1.387 5312
1.621 2.190 1.396 5651
1.623 2.193 1.388 5194
1.617 2.185 1.373 5053
1.614 2.182 1.362 5263
1.655 2.237 1.383 3979
1.657 2.240 1.375 4978
1.660 2.243 1.366 2489
1.207 1.632 1.030 590
0.373 0.501 1.594 15685
0.376 0.504 1.592 14161
0.380 0.510 1.598 12856
0.383 0.514 1.596 11147
0.387 0.520 1.601 9520
0.388 0.520 1.592 15509
0.390 0.524 1.590 21580
0.393 0.527 1.588 21580
0.397 0.533 1.593 23271
0.400 0.537 1.591 25104
0.402 0.540 1.589 22722
0.407 0.546 1.594 20342
0.407 0.547 1.585 18248
