0.322 0.762 1.633 16870
0.322 0.763 1.624 16955
0.324 0.767 1.621 19556
0.326 0.771 1.619 22833
0.328 0.774 1.616 24073
0.329 0.778 1.614 20650
0.332 0.786 1.618 17288
0.334 0.790 1.615 15396
0.337 0.798 1.620 13593
0.341 0.805 1.624 13645
0.344 0.813 1.628 10803
0.349 0.825 1.639 9358
0.351 0.829 1.636 9896
0.352 0.833 1.633 10287
0.352 0.833 1.624 10496
0.352 0.833 1.615 10073
0.354 0.837 1.612 9204
0.357 0.845 1.616 8903
0.359 0.849 1.613 8601
0.364 0.861 1.624 9203
0.369 0.873 1.634 10887
0.371 0.877 1.631 10931
0.367 0.869 1.609 12611
0.367 0.868 1.599 19977
0.371 0.876 1.603 24125
0.371 0.876 1.593 24351
0.374 0.884 1.597 28499
0.377 0.892 1.601 28956
0.381 0.900 1.604 26790
0.384 0.908 1.608 22471
0.386 0.912 1.605 15881
0.389 0.920 1.609 18938
0.393 0.928 1.612 23386
0.394 0.932 1.609 23385
0.398 0.940 1.613 18989
0.399 0.944 1.609 15620
0.403 0.953 1.613 15030
0.406 0.961 1.616 14894
0.406 0.960 1.607 14658
0.408 0.964 1.604 10760
0.409 0.968 1.600 7199
0.411 0.972 1.597 7554
0.416 0.985 1.607 10837
0.420 0.993 1.610 16830
0.423 1.001 1.613 17022
0.425 1.005 1.610 18626
0.429 1.014 1.613 28002
0.430 1.018 1.610 34083
0.432 1.022 1.606 30084
0.434 1.026 1.603 27366
0.433 1.025 1.593 32136
0.435 1.029 1.590 38731
0.439 1.037 1.593 47483
0.440 1.041 1.590 49609
0.442 1.045 1.586 44421
0.444 1.049 1.583 36192
0.445 1.053 1.579 25366
0.447 1.057 1.576 15015
0.446 1.056 1.566 10560
0.448 1.060 1.563 12726
0.448 1.059 1.554 17280
0.449 1.062 1.550 15546
0.455 1.076 1.559 11771
0.460 1.089 1.567 9313
0.460 1.088 1.558 7127
0.472 1.115 1.584 7039
0.473 1.119 1.581 11887
0.475 1.123 1.577 14651
0.477 1.127 1.574 12761
0.480 1.136 1.576 10151
0.494 1.168 1.608 8901
0.494 1.167 1.598 13838
0.493 1.167 1.588 15681
0.495 1.170 1.585 13859
0.497 1.174 1.581 14201
0.500 1.183 1.583 19751
0.504 1.192 1.585 24041
0.508 1.201 1.587 20894
0.511 1.209 1.589 17052
0.505 1.193 1.562 10973
0.521 1.232 1.598 8683
0.518 1.226 1.583 17776
0.522 1.235 1.585 21951
0.524 1.239 1.581 17349
0.519 1.227 1.559 13261
0.529 1.251 1.578 11908
0.535 1.265 1.586 10391
0.541 1.279 1.593 9779
0.534 1.263 1.566 6712
0.538 1.272 1.568 8752
0.546 1.291 1.580 18616
0.548 1.295 1.576 31505
0.547 1.294 1.567 26064
0.549 1.297 1.562 12894
0.555 1.312 1.569 12782
0.556 1.315 1.565 10555
0.560 1.324 1.566 17460
0.562 1.328 1.562 32968
0.566 1.337 1.563 31502
0.569 1.346 1.564 31950
0.571 1.350 1.560 28109
0.575 1.359 1.561 23105
0.576 1.363 1.557 28863
0.578 1.367 1.552 24376
0.582 1.376 1.553 22161
0.586 1.385 1.554 23501
0.590 1.394 1.555 17857
0.593 1.403 1.556 18534
0.597 1.413 1.557 25923
0.601 1.422 1.558 17736
0.612 1.447 1.574 7199
0.611 1.446 1.564 7981
0.608 1.439 1.549 10329
0.617 1.459 1.560 13979
0.621 1.468 1.561 17912
0.625 1.477 1.561 12712
0.631 1.492 1.567 14800
0.635 1.502 1.567 26173
0.639 1.511 1.567 27300
0.641 1.515 1.563 17319
0.637 1.507 1.547 9081
0.644 1.522 1.553 14186
0.650 1.537 1.558 23799
0.654 1.547 1.558 20015
0.658 1.556 1.558 19190
0.660 1.560 1.553 19925
0.656 1.552 1.538 13243
0.665 1.573 1.548 7678
0.669 1.582 1.548 10181
0.673 1.592 1.548 15300
0.675 1.596 1.543 17777
0.681 1.611 1.547 14440
0.685 1.620 1.547 11102
0.689 1.630 1.547 15899
0.693 1.639 1.546 21127
0.697 1.649 1.546 24691
0.699 1.653 1.541 30384
0.700 1.656 1.535 26766
0.704 1.666 1.535 18537
0.711 1.681 1.539 17636
0.715 1.691 1.538 16857
0.719 1.700 1.538 19153
0.723 1.710 1.537 18971
0.725 1.714 1.531 15722
0.729 1.723 1.531 11979
0.738 1.745 1.539 10936
0.737 1.743 1.529 10969
0.738 1.746 1.523 9166
0.745 1.762 1.527 12545
0.749 1.772 1.526 18006
0.753 1.781 1.525 16274
0.757 1.791 1.523 14344
0.756 1.789 1.513 10663
0.776 1.834 1.539 13624
0.775 1.832 1.529 25348
0.776 1.836 1.523 27124
0.780 1.845 1.521 23939
0.787 1.861 1.524 18968
0.796 1.883 1.531 17886
0.800 1.893 1.530 17815
0.807 1.909 1.532 20383
0.809 1.912 1.526 24729
0.813 1.922 1.524 29327
0.814 1.926 1.518 31530
0.816 1.930 1.512 31540
0.817 1.933 1.506 26437
0.819 1.937 1.500 14722
0.813 1.922 1.481 8904
0.817 1.932 1.479 6857
0.852 2.016 1.527 6838
0.854 2.019 1.521 10315
0.853 2.017 1.510 13371
0.854 2.021 1.504 13369
0.859 2.030 1.501 11815
0.863 2.040 1.499 11821
0.867 2.050 1.496 13459
0.866 2.048 1.486 14539
0.867 2.051 1.479 10244
0.887 2.099 1.501 4593
0.892 2.109 1.498 3730
0.893 2.112 1.491 4564
0.892 2.110 1.480 5482
0.902 2.132 1.486 6723
0.906 2.142 1.483 7655
0.905 2.139 1.472 6619
0.920 2.175 1.484 5108
0.926 2.191 1.485 4808
0.928 2.194 1.478 4529
0.929 2.198 1.471 4251
0.936 2.214 1.472 4710
0.943 2.231 1.472 5395
0.961 2.273 1.487 6069
0.946 2.238 1.458 7556
0.948 2.241 1.451 9461
0.949 2.245 1.443 9077
0.951 2.248 1.436 8694
0.958 2.265 1.436 6993
0.967 2.288 1.440 6361
0.988 2.337 1.458 5963
0.995 2.353 1.458 7175
0.997 2.357 1.450 8684
0.998 2.360 1.443 10192
1.002 2.370 1.439 10852
1.006 2.380 1.434 11767
1.005 2.377 1.423 8957
1.004 2.374 1.412 6482
1.005 2.377 1.405 5992
1.001 2.367 1.390 4019
1.041 2.463 1.430 3954
1.029 2.433 1.405 4153
1.028 2.430 1.394 5506
1.029 2.434 1.387 5987
1.030 2.437 1.379 6468
1.035 2.447 1.374 5872
1.042 2.463 1.373 5546
1.043 2.467 1.365 5546
1.044 2.470 1.357 3996
1.046 2.473 1.349 2447
1.075 2.543 1.373 2136
1.114 2.633 1.406 2436
1.115 2.637 1.398 1218
1.017 2.405 1.280 554
0.250 0.586 1.623 4603
0.252 0.590 1.621 5509
0.254 0.594 1.619 6415
0.255 0.598 1.617 6431
0.258 0.605 1.623 6479
0.259 0.606 1.613 6579
0.260 0.610 1.611 6075
0.261 0.611 1.602 5583
0.264 0.618 1.607 7389
0.267 0.625 1.612 9506
0.271 0.635 1.625 12331
0.274 0.642 1.630 15983
0.275 0.643 1.621 15002
0.276 0.647 1.618 14167
0.278 0.651 1.616 13535
0.278 0.652 1.607 12815
0.280 0.656 1.605 11534
0.283 0.663 1.610 11018
0.285 0.667 1.608 10954
0.288 0.674 1.613 9944
0.291 0.681 1.617 10878
0.291 0.682 1.608 13528
0.294 0.689 1.613 15016
0.296 0.693 1.611 14087
0.299 0.700 1.615 12956
0.301 0.704 1.613 11644
0.302 0.708 1.611 11063
0.303 0.709 1.601 11097
0.307 0.720 1.613 11297
0.310 0.727 1.618 12339
0.314 0.735 1.622 12100
0.318 0.746 1.634 12330
0.320 0.750 1.631 15772
0.322 0.754 1.629 19215
0.325 0.761 1.633 17925
0.327 0.765 1.631 16997
0.327 0.765 1.621 19259
0.329 0.769 1.619 22961
0.330 0.773 1.616 24875
0.332 0.777 1.614 21557
0.335 0.785 1.618 18390
0.337 0.789 1.615 15646
0.340 0.797 1.620 12947
0.343 0.804 1.624 13029
0.347 0.812 1.628 10756
0.352 0.824 1.639 9745
0.353 0.828 1.636 10426
0.355 0.832 1.633 11225
0.355 0.832 1.624 11594
0.357 0.836 1.621 11161
0.359 0.840 1.619 10010
0.360 0.844 1.616 9292
0.362 0.848 1.613 8967
0.367 0.859 1.624 9802
0.370 0.867 1.627 11846
0.372 0.871 1.625 12426
0.370 0.867 1.609 16767
0.370 0.867 1.599 26663
0.374 0.875 1.603 31862
0.375 0.879 1.600 32077
0.377 0.883 1.597 34725
0.379 0.887 1.594 32625
0.382 0.895 1.598 28860
0.386 0.903 1.602 23220
0.384 0.898 1.586 17650
0.389 0.911 1.596 20757
0.394 0.923 1.606 24907
0.398 0.931 1.609 23734
0.401 0.939 1.613 19690
0.403 0.943 1.609 17214
0.404 0.947 1.606 15667
0.408 0.955 1.610 14340
0.410 0.959 1.607 13641
0.409 0.959 1.597 10338
0.411 0.963 1.594 8266
0.413 0.966 1.591 8598
0.418 0.979 1.600 10593
0.423 0.992 1.610 15150
0.427 1.000 1.613 15751
0.429 1.004 1.610 17683
0.432 1.012 1.613 26507
0.434 1.016 1.610 31907
0.436 1.020 1.606 27535
0.435 1.019 1.597 23915
0.437 1.023 1.593 28554
0.441 1.032 1.596 34818
0.442 1.036 1.593 43426
0.442 1.035 1.583 46840
0.446 1.043 1.586 42078
0.447 1.047 1.583 34279
0.449 1.051 1.579 24356
0.452 1.060 1.582 15027
0.450 1.054 1.566 12140
0.452 1.058 1.563 17226
0.451 1.057 1.554 22865
0.453 1.061 1.550 20083
0.453 1.060 1.541 15724
0.460 1.078 1.555 10034
0.464 1.086 1.558 6656
0.474 1.109 1.578 6284
0.477 1.118 1.581 10222
0.477 1.117 1.571 10905
0.478 1.120 1.568 7735
0.480 1.124 1.564 5938
0.498 1.167 1.608 7594
0.500 1.171 1.604 13307
0.497 1.165 1.588 13770
0.501 1.174 1.590 8916
0.497 1.163 1.569 11126
0.504 1.181 1.583 20272
0.506 1.185 1.579 25246
0.512 1.199 1.587 22390
0.516 1.208 1.589 19771
0.515 1.206 1.579 13679
0.523 1.225 1.593 8891
0.523 1.224 1.583 16550
0.524 1.228 1.579 20697
0.528 1.237 1.581 16768
0.526 1.231 1.565 12246
0.527 1.234 1.561 11183
0.537 1.258 1.580 10823
0.541 1.267 1.582 11249
0.543 1.271 1.577 10817
0.547 1.280 1.579 14420
0.551 1.289 1.580 21275
0.552 1.293 1.576 25915
0.552 1.292 1.567 22927
0.553 1.295 1.562 12876
0.559 1.310 1.569 13140
0.561 1.313 1.565 15087
0.567 1.328 1.572 22072
0.566 1.326 1.562 36573
0.570 1.335 1.563 31756
0.574 1.344 1.564 28030
0.576 1.348 1.560 25889
0.580 1.357 1.561 23598
0.581 1.361 1.557 28380
0.583 1.365 1.552 23060
0.587 1.374 1.553 23178
0.591 1.383 1.554 22307
0.595 1.392 1.555 14117
0.598 1.401 1.556 15947
0.602 1.411 1.557 24922
0.606 1.420 1.558 20126
0.615 1.440 1.569 8066
0.616 1.444 1.564 5705
0.618 1.447 1.560 5957
0.622 1.457 1.560 10090
0.624 1.460 1.555 16639
0.628 1.470 1.556 13402
0.634 1.484 1.562 14487
0.638 1.494 1.562 24629
0.642 1.503 1.562 24615
0.643 1.507 1.557 15905
0.643 1.505 1.547 11081
0.649 1.520 1.553 15645
0.653 1.529 1.553 21586
0.657 1.539 1.553 16424
0.661 1.548 1.553 18998
0.663 1.552 1.548 24284
0.662 1.550 1.538 17225
0.663 1.554 1.533 8842
0.670 1.569 1.538 10829
0.676 1.584 1.543 16070
0.680 1.593 1.543 17153
0.687 1.608 1.547 14660
0.691 1.618 1.547 12023
0.693 1.622 1.542 16451
0.694 1.625 1.537 21011
0.701 1.641 1.541 20547
0.705 1.650 1.541 25869
0.706 1.654 1.535 24428
0.710 1.663 1.535 18403
0.717 1.679 1.539 18881
0.723 1.694 1.543 18290
0.728 1.704 1.542 18849
0.729 1.707 1.537 16262
0.731 1.711 1.531 12815
0.735 1.721 1.531 12230
0.741 1.736 1.534 12553
0.743 1.740 1.529 11985
0.745 1.744 1.523 9181
0.754 1.765 1.531 12138
0.755 1.769 1.526 17324
0.757 1.773 1.520 15206
0.761 1.782 1.519 12909
0.763 1.786 1.513 9483
0.782 1.831 1.539 13861
0.781 1.829 1.529 25841
0.783 1.833 1.523 27504
0.787 1.843 1.521 24370
0.794 1.858 1.524 20190
0.800 1.874 1.527 19805
0.807 1.890 1.530 20818
0.814 1.906 1.532 23869
0.815 1.910 1.526 28382
0.817 1.913 1.520 32500
0.821 1.923 1.518 33461
0.823 1.927 1.512 32722
0.824 1.930 1.506 27394
0.826 1.934 1.500 15488
0.822 1.925 1.485 10142
0.824 1.929 1.479 7646
0.857 2.007 1.523 7256
0.858 2.010 1.517 10581
0.860 2.014 1.510 13267
0.862 2.018 1.504 12477
0.866 2.027 1.501 10410
0.870 2.037 1.499 11750
0.874 2.047 1.496 14165
0.873 2.044 1.486 15044
0.875 2.048 1.479 10451
0.895 2.096 1.501 5690
0.896 2.099 1.494 4994
0.901 2.109 1.491 5057
0.902 2.113 1.484 5123
0.909 2.129 1.486 6767
0.913 2.139 1.483 8252
0.912 2.136 1.472 7619
0.919 2.152 1.473 5582
0.934 2.188 1.485 4796
0.936 2.191 1.478 4662
0.943 2.208 1.479 4616
0.947 2.217 1.475 5395
0.951 2.227 1.472 5736
0.969 2.269 1.487 5541
0.954 2.235 1.458 7019
0.956 2.238 1.451 8837
0.957 2.242 1.443 8897
0.961 2.251 1.440 9014
0.966 2.261 1.436 7221
0.973 2.278 1.436 6025
1.002 2.346 1.465 4824
1.006 2.356 1.461 5956
1.010 2.366 1.457 7767
1.012 2.370 1.450 9661
1.013 2.373 1.442 11724
1.015 2.376 1.434 13788
1.014 2.373 1.423 10881
1.015 2.377 1.416 8406
1.016 2.380 1.408 7664
1.018 2.384 1.400 4791
1.039 2.433 1.417 3848
1.038 2.430 1.405 4843
1.036 2.427 1.394 6204
1.038 2.430 1.387 6531
1.039 2.433 1.379 6858
1.043 2.443 1.374 6144
1.048 2.453 1.370 5637
1.049 2.456 1.362 5637
1.050 2.460 1.354 4103
1.052 2.463 1.346 2569
1.110 2.599 1.402 2087
1.114 2.609 1.397 2714
1.116 2.613 1.388 1357
1.026 2.402 1.280 582
0.252 0.586 1.623 4088
0.254 0.590 1.621 4853
0.255 0.594 1.619 5619
0.257 0.597 1.617 5420
0.259 0.601 1.615 5221
0.260 0.605 1.613 5411
0.262 0.609 1.611 5117
0.261 0.607 1.595 4809
0.267 0.620 1.615 7340
0.268 0.624 1.612 10255
0.273 0.634 1.625 12863
0.276 0.642 1.630 16277
0.276 0.642 1.621 15031
0.278 0.646 1.618 13963
0.280 0.650 1.616 13596
0.280 0.651 1.607 13098
0.282 0.655 1.605 11968
0.285 0.662 1.610 11768
0.286 0.666 1.608 11847
0.292 0.680 1.627 10926
0.293 0.680 1.617 11836
0.293 0.681 1.608 14264
0.296 0.688 1.613 15499
0.298 0.692 1.611 14029
0.299 0.696 1.608 12393
0.303 0.703 1.613 11173
0.304 0.707 1.611 11094
0.304 0.708 1.601 11618
0.308 0.715 1.606 11822
0.312 0.726 1.618 12778
0.316 0.734 1.622 13100
0.319 0.741 1.627 13862
0.322 0.749 1.631 17371
0.324 0.753 1.629 20976
0.325 0.757 1.626 19036
0.329 0.764 1.631 17562
0.329 0.765 1.621 19152
0.331 0.769 1.619 22997
0.332 0.772 1.616 25600
0.334 0.776 1.614 22596
0.337 0.784 1.618 19886
0.339 0.788 1.615 15830
0.342 0.796 1.620 11877
0.346 0.803 1.624 12131
0.351 0.815 1.635 10670
0.354 0.823 1.639 10207
0.356 0.827 1.636 11127
0.357 0.831 1.633 12422
0.357 0.831 1.624 12996
0.359 0.835 1.621 13327
0.361 0.839 1.619 13158
0.362 0.843 1.616 12658
0.364 0.847 1.613 11584
0.369 0.858 1.624 11180
0.373 0.866 1.627 13034
0.374 0.870 1.625 13833
0.371 0.862 1.602 19757
0.373 0.866 1.599 31727
0.376 0.874 1.603 37896
0.378 0.878 1.600 38574
0.379 0.882 1.597 40454
0.381 0.886 1.594 36468
0.384 0.894 1.598 31497
0.386 0.898 1.595 24846
0.386 0.897 1.586 19989
0.388 0.901 1.583 22994
0.395 0.918 1.599 25313
0.398 0.926 1.603 23261
0.403 0.938 1.613 19056
0.405 0.942 1.609 17272
0.407 0.946 1.606 15373
0.410 0.954 1.610 13305
0.412 0.958 1.607 11617
0.412 0.958 1.597 9894
0.414 0.961 1.594 9992
0.415 0.965 1.591 10194
0.419 0.974 1.594 10986
0.426 0.990 1.610 13491
0.430 0.999 1.613 13982
0.431 1.003 1.610 15182
0.435 1.011 1.613 22030
0.437 1.015 1.610 26416
0.438 1.019 1.606 22107
0.438 1.018 1.597 17937
0.440 1.022 1.593 22463
0.443 1.031 1.596 28820
0.445 1.034 1.593 36597
0.445 1.034 1.583 41845
0.448 1.042 1.586 38763
0.450 1.046 1.583 31952
0.454 1.054 1.586 22989
0.457 1.063 1.588 14936
0.453 1.053 1.566 13480
0.455 1.057 1.563 21102
0.454 1.056 1.554 27561
0.456 1.060 1.550 24406
0.455 1.059 1.541 19858
0.457 1.062 1.537 12274
0.457 1.061 1.528 6404
0.477 1.108 1.578 5548
0.480 1.116 1.581 8906
0.480 1.115 1.571 8715
0.481 1.119 1.568 5731
0.485 1.128 1.570 5044
0.499 1.161 1.602 6141
0.501 1.164 1.598 11532
0.505 1.173 1.600 11447
0.511 1.187 1.608 7064
0.500 1.161 1.569 11034
0.505 1.175 1.577 21898
0.509 1.184 1.579 25410
0.515 1.197 1.587 22296
0.519 1.206 1.589 21457
0.518 1.205 1.579 16804
0.518 1.204 1.569 10511
0.522 1.213 1.571 14168
0.528 1.227 1.579 16440
0.534 1.240 1.586 13661
0.527 1.224 1.559 10380
0.528 1.228 1.556 10422
0.543 1.262 1.586 11337
0.545 1.266 1.582 14693
0.546 1.270 1.577 15793
0.552 1.284 1.585 19164
0.554 1.288 1.580 20968
0.558 1.297 1.582 18124
0.557 1.295 1.572 19627
0.559 1.299 1.568 17237
0.563 1.308 1.569 17458
0.567 1.317 1.571 24322
0.570 1.326 1.572 32994
0.572 1.330 1.568 42255
0.574 1.334 1.563 32083
0.578 1.343 1.564 22364
0.577 1.341 1.555 20651
0.583 1.356 1.561 21915
0.585 1.360 1.557 27163
0.589 1.369 1.558 22234
0.590 1.372 1.553 23601
0.594 1.381 1.554 20734
0.598 1.391 1.555 10712
0.600 1.394 1.551 12498
0.606 1.409 1.557 21109
0.612 1.424 1.563 19748
0.616 1.433 1.564 9791
0.620 1.442 1.564 6118
0.622 1.446 1.560 5313
0.626 1.455 1.560 8669
0.627 1.459 1.555 15898
0.629 1.463 1.551 15661
0.638 1.483 1.562 17046
0.642 1.492 1.562 23484
0.646 1.501 1.562 21141
0.647 1.505 1.557 15307
0.647 1.503 1.547 13615
0.651 1.513 1.548 16556
0.657 1.528 1.553 17639
0.661 1.537 1.553 13688
0.665 1.546 1.553 20077
0.667 1.550 1.548 26618
0.666 1.548 1.538 19804
0.670 1.558 1.538 11096
0.674 1.567 1.538 13658
0.678 1.576 1.538 16903
0.685 1.591 1.543 15958
0.691 1.607 1.547 15241
0.693 1.610 1.542 13406
0.692 1.608 1.532 17443
0.696 1.618 1.532 22042
0.702 1.633 1.536 17618
0.712 1.654 1.546 20815
0.713 1.658 1.540 21068
0.715 1.662 1.535 18102
0.719 1.671 1.534 20497
0.725 1.686 1.538 20145
0.730 1.696 1.538 18196
0.731 1.700 1.532 13647
0.735 1.709 1.531 10309
0.739 1.719 1.531 11963
0.744 1.728 1.530 12600
0.748 1.738 1.529 11283
0.752 1.748 1.528 8902
0.758 1.763 1.531 11630
0.760 1.767 1.526 15804
0.762 1.771 1.520 13646
0.766 1.780 1.519 11228
0.765 1.778 1.509 9194
0.790 1.835 1.543 13629
0.789 1.833 1.533 25116
0.790 1.837 1.527 27188
0.792 1.841 1.521 24063
0.798 1.856 1.524 20225
0.808 1.878 1.531 20240
0.815 1.894 1.534 22748
0.819 1.904 1.532 26076
0.818 1.901 1.522 30883
0.822 1.911 1.520 34421
0.826 1.921 1.518 33527
0.828 1.924 1.512 31954
0.829 1.928 1.506 26833
0.828 1.926 1.495 15774
0.827 1.923 1.485 10838
0.829 1.927 1.479 7993
0.860 1.998 1.519 7870
0.861 2.002 1.512 11023
0.863 2.005 1.506 13155
0.867 2.015 1.504 11465
0.871 2.025 1.501 9020
0.875 2.035 1.499 11494
0.877 2.039 1.492 14280
0.878 2.042 1.486 14504
0.877 2.039 1.475 9962
0.900 2.093 1.501 6266
0.902 2.097 1.494 5819
0.904 2.100 1.487 5003
0.910 2.117 1.488 4324
0.915 2.126 1.486 6378
0.919 2.136 1.483 8523
0.918 2.134 1.472 8452
0.922 2.143 1.469 6280
0.937 2.179 1.481 4742
0.942 2.189 1.478 4574
0.949 2.205 1.479 4632
0.953 2.215 1.475 5658
0.957 2.225 1.472 5825
0.978 2.273 1.491 5159
0.957 2.226 1.454 6561
0.959 2.229 1.447 8168
0.963 2.239 1.443 8488
0.967 2.249 1.440 8930
0.972 2.259 1.436 7014
0.976 2.269 1.433 5345
1.016 2.363 1.476 4178
1.018 2.366 1.468 5152
1.022 2.376 1.464 7401
1.024 2.380 1.457 9703
1.022 2.377 1.446 12346
1.021 2.374 1.434 15180
1.023 2.377 1.427 12471
1.021 2.374 1.416 10159
1.023 2.377 1.408 9224
1.027 2.387 1.404 5845
1.043 2.424 1.413 4479
1.044 2.427 1.405 5573
1.043 2.424 1.394 6794
1.044 2.427 1.387 6801
1.045 2.430 1.379 6809
1.047 2.434 1.371 6042
1.051 2.444 1.366 5403
1.053 2.447 1.359 5403
1.054 2.450 1.351 4108
1.055 2.453 1.343 2813
1.117 2.596 1.402 3213
1.118 2.600 1.394 3702
1.120 2.603 1.385 1851
1.032 2.399 1.280 566
0.251 0.579 1.609 4334
0.254 0.586 1.614 4595
0.257 0.593 1.619 4868
0.259 0.597 1.617 4148
0.261 0.601 1.615 3429
0.262 0.604 1.613 3926
0.264 0.608 1.611 4690
0.267 0.615 1.617 5024
0.269 0.619 1.615 8156
0.272 0.626 1.620 11348
0.275 0.634 1.625 13766
0.278 0.641 1.630 16915
0.280 0.645 1.628 15404
0.280 0.645 1.618 14127
0.282 0.649 1.616 13825
0.284 0.653 1.614 13376
0.284 0.654 1.605 12319
0.287 0.661 1.610 12318
0.290 0.668 1.615 12559
0.295 0.679 1.627 11743
0.295 0.679 1.617 12649
0.297 0.683 1.615 14869
0.298 0.687 1.613 15880
0.300 0.691 1.611 13982
0.302 0.695 1.608 11865
0.305 0.702 1.613 10691
0.307 0.706 1.611 10909
0.307 0.707 1.601 11627
0.310 0.714 1.606 11790
0.315 0.725 1.618 12611
0.318 0.733 1.622 13358
0.321 0.740 1.627 14519
0.325 0.748 1.631 18027
0.326 0.752 1.629 21797
0.328 0.756 1.626 19706
0.331 0.763 1.631 17908
0.331 0.763 1.621 19066
0.333 0.767 1.619 23119
0.335 0.771 1.616 26292
0.337 0.775 1.614 23674
0.340 0.783 1.618 21435
0.342 0.787 1.615 16102
0.347 0.798 1.626 10899
0.350 0.806 1.631 11342
0.353 0.814 1.635 10931
0.357 0.822 1.639 11095
0.358 0.826 1.636 12095
0.360 0.829 1.633 13655
0.360 0.830 1.624 14342
0.362 0.834 1.621 15404
0.364 0.838 1.619 16197
0.365 0.841 1.616 15927
0.367 0.845 1.613 14276
0.370 0.853 1.617 12742
0.374 0.861 1.621 13981
0.376 0.865 1.618 14581
0.376 0.865 1.609 21430
0.375 0.865 1.599 35256
0.379 0.873 1.603 42451
0.381 0.877 1.600 43708
0.382 0.881 1.597 45222
0.384 0.884 1.594 39758
0.386 0.888 1.591 34037
0.387 0.892 1.588 26269
0.387 0.892 1.579 21794
0.391 0.900 1.583 24937
0.398 0.916 1.599 26019
0.401 0.924 1.603 22858
0.407 0.937 1.613 18119
0.408 0.941 1.609 16533
0.412 0.949 1.613 14473
0.414 0.953 1.610 12177
0.415 0.957 1.607 10126
0.417 0.960 1.604 9900
0.419 0.964 1.600 12000
0.420 0.968 1.597 11493
0.422 0.972 1.594 11065
0.427 0.985 1.604 12643
0.431 0.993 1.607 13054
0.435 1.001 1.610 12915
0.438 1.010 1.613 16501
0.440 1.014 1.610 19208
0.442 1.017 1.606 15379
0.439 1.012 1.590 11125
0.443 1.021 1.593 16030
0.449 1.034 1.602 22933
0.448 1.033 1.593 29253
0.448 1.032 1.583 36187
0.452 1.041 1.586 35043
0.453 1.045 1.583 29612
0.457 1.053 1.586 21770
0.461 1.061 1.588 14853
0.456 1.051 1.566 14455
0.458 1.055 1.563 23900
0.458 1.054 1.554 30507
0.459 1.058 1.550 27560
0.459 1.057 1.541 23657
0.461 1.061 1.537 14971
0.460 1.060 1.528 6933
0.480 1.106 1.578 5343
0.484 1.115 1.581 9673
0.484 1.114 1.571 9634
0.485 1.118 1.568 5398
0.489 1.126 1.570 3617
0.495 1.140 1.578 5634
0.503 1.158 1.592 12161
0.504 1.162 1.588 13426
0.508 1.170 1.590 9880
0.503 1.160 1.569 15045
0.509 1.173 1.577 23284
0.513 1.182 1.579 25196
0.519 1.196 1.587 21998
0.521 1.200 1.583 22782
0.522 1.203 1.579 19454
0.520 1.197 1.564 12282
0.521 1.201 1.560 12977
0.527 1.215 1.567 12657
0.536 1.234 1.581 10046
0.531 1.222 1.559 8262
0.532 1.226 1.556 9117
0.547 1.260 1.586 10873
0.549 1.264 1.582 15967
0.553 1.273 1.583 18118
0.557 1.282 1.585 21570
0.558 1.286 1.580 19701
0.564 1.300 1.588 13364
0.562 1.294 1.572 19613
0.563 1.297 1.568 22254
0.567 1.306 1.569 22447
0.571 1.315 1.571 33040
0.573 1.319 1.566 42843
0.574 1.323 1.562 47645
0.578 1.332 1.563 32863
0.582 1.341 1.564 16734
0.581 1.339 1.555 14486
0.588 1.354 1.561 19420
0.592 1.363 1.562 26145
0.593 1.367 1.558 22202
0.595 1.370 1.553 23672
0.599 1.380 1.554 19805
0.603 1.389 1.555 9236
0.604 1.392 1.551 10387
0.611 1.407 1.557 17714
0.617 1.421 1.563 18583
0.621 1.431 1.564 9647
0.623 1.434 1.559 6713
0.622 1.433 1.549 7534
0.628 1.447 1.555 9376
0.632 1.457 1.555 15520
0.634 1.460 1.551 17329
0.640 1.475 1.556 19980
0.644 1.484 1.557 22317
0.651 1.499 1.562 18096
0.652 1.503 1.557 15810
0.652 1.501 1.547 16788
0.653 1.505 1.543 18110
0.657 1.514 1.543 14909
0.666 1.535 1.553 11711
0.670 1.544 1.553 20409
0.672 1.548 1.548 26803
0.671 1.546 1.538 20862
0.675 1.555 1.538 13390
0.679 1.565 1.538 15925
0.683 1.574 1.538 16952
0.692 1.595 1.548 14454
0.696 1.604 1.547 15653
0.696 1.602 1.537 14873
0.697 1.606 1.532 18982
0.699 1.610 1.527 24266
0.705 1.625 1.532 17097
0.720 1.657 1.550 17292
0.719 1.655 1.540 18086
0.720 1.659 1.535 17737
0.727 1.674 1.539 21941
0.731 1.684 1.538 21832
0.735 1.694 1.538 17405
0.737 1.697 1.532 12371
0.738 1.701 1.527 10229
0.743 1.711 1.526 12664
0.747 1.720 1.525 12526
0.753 1.736 1.529 10238
0.758 1.745 1.528 8950
0.764 1.761 1.531 11106
0.766 1.764 1.526 14069
0.768 1.768 1.520 12227
0.769 1.772 1.514 9977
0.771 1.775 1.509 9591
0.796 1.833 1.543 13204
0.795 1.830 1.533 23728
0.796 1.834 1.527 26356
0.798 1.838 1.521 23601
0.805 1.854 1.524 19861
0.814 1.875 1.531 19834
0.821 1.891 1.534 23631
0.825 1.901 1.532 27151
0.824 1.899 1.522 32072
0.828 1.908 1.520 34985
0.833 1.918 1.518 32440
0.834 1.922 1.512 30193
0.836 1.925 1.506 25535
0.835 1.923 1.495 15587
0.834 1.920 1.485 11069
0.838 1.930 1.483 8181
0.863 1.989 1.515 8603
0.865 1.993 1.508 11617
0.869 2.003 1.506 13246
0.871 2.006 1.499 11083
0.886 2.041 1.514 8647
0.882 2.032 1.499 11458
0.884 2.036 1.492 14087
0.885 2.039 1.486 13522
0.884 2.037 1.475 9245
0.907 2.090 1.501 6415
0.909 2.094 1.494 6126
0.908 2.091 1.483 4805
0.909 2.095 1.477 3545
0.925 2.130 1.489 5719
0.923 2.127 1.479 8432
0.925 2.131 1.472 8841
0.926 2.134 1.465 6759
0.933 2.150 1.466 4837
0.949 2.186 1.478 4327
0.959 2.208 1.483 4415
0.960 2.212 1.475 5612
0.964 2.222 1.472 5855
0.985 2.270 1.491 5375
0.965 2.222 1.454 6347
0.969 2.232 1.451 7641
0.971 2.236 1.443 8026
0.975 2.246 1.440 8544
0.979 2.256 1.436 6546
0.981 2.259 1.429 4652
1.030 2.372 1.483 4269
1.034 2.382 1.479 5424
1.033 2.379 1.468 7573
1.034 2.383 1.460 9741
1.030 2.373 1.446 12672
1.029 2.370 1.434 15958
1.030 2.374 1.427 13531
1.029 2.371 1.416 11442
1.033 2.381 1.412 10428
1.035 2.384 1.404 6806
1.051 2.420 1.413 5201
1.052 2.424 1.405 6238
1.051 2.420 1.394 7309
1.052 2.424 1.387 7005
1.054 2.427 1.379 6701
1.055 2.430 1.371 5863
1.059 2.440 1.366 5031
1.061 2.443 1.359 5031
1.062 2.447 1.351 4061
1.124 2.589 1.410 3748
1.125 2.593 1.402 4203
1.127 2.596 1.394 4657
1.128 2.599 1.385 2328
1.040 2.396 1.280 592
0.253 0.578 1.609 5480
0.256 0.585 1.614 5118
0.258 0.589 1.612 4920
0.261 0.596 1.617 3826
0.264 0.603 1.623 2856
0.265 0.607 1.621 3948
0.267 0.611 1.619 5946
0.270 0.618 1.624 6863
0.272 0.622 1.622 10206
0.274 0.626 1.620 13548
0.277 0.633 1.625 15797
0.280 0.640 1.630 18798
0.282 0.644 1.628 16985
0.282 0.645 1.618 15312
0.284 0.649 1.616 14407
0.284 0.649 1.607 13398
0.286 0.653 1.605 12239
0.289 0.660 1.610 12149
0.292 0.667 1.615 12418
0.297 0.678 1.627 11570
0.297 0.679 1.617 12508
0.297 0.679 1.608 14753
0.300 0.686 1.613 15632
0.302 0.690 1.611 13727
0.304 0.694 1.608 11433
0.307 0.702 1.613 10467
0.309 0.706 1.611 11052
0.310 0.709 1.608 11659
0.312 0.713 1.606 11551
0.317 0.724 1.618 11943
0.320 0.732 1.622 13041
0.323 0.739 1.627 14489
0.325 0.743 1.624 18179
0.328 0.751 1.629 22033
0.330 0.755 1.626 19889
0.332 0.759 1.624 17927
0.334 0.763 1.621 18659
0.335 0.766 1.619 22855
0.337 0.770 1.616 26501
0.339 0.774 1.614 24306
0.342 0.782 1.618 22500
0.344 0.786 1.615 16469
0.349 0.797 1.626 10709
0.352 0.805 1.631 11487
0.355 0.813 1.635 11810
0.359 0.821 1.639 12428
0.361 0.825 1.636 13298
0.362 0.829 1.633 14758
0.364 0.832 1.631 15398
0.364 0.833 1.621 16970
0.366 0.837 1.619 18521
0.368 0.840 1.616 18476
0.369 0.844 1.613 16515
0.373 0.852 1.617 14210
0.376 0.860 1.621 14635
0.378 0.864 1.618 14563
0.378 0.864 1.609 22119
0.380 0.868 1.606 37934
0.381 0.872 1.603 46369
0.383 0.876 1.600 47920
0.385 0.880 1.597 49387
0.386 0.883 1.594 42888
0.388 0.887 1.591 36474
0.390 0.891 1.588 28223
0.390 0.891 1.579 23673
0.393 0.899 1.583 26777
0.398 0.911 1.593 27275
0.404 0.923 1.603 22631
0.409 0.936 1.613 17011
0.413 0.944 1.616 15300
0.414 0.948 1.613 12945
0.416 0.952 1.610 10686
0.418 0.955 1.607 9055
0.420 0.959 1.604 10570
0.423 0.968 1.607 14160
0.423 0.967 1.597 12403
0.425 0.971 1.594 10621
0.430 0.984 1.604 11930
0.434 0.992 1.607 12788
0.437 1.000 1.610 11557
0.441 1.008 1.613 11074
0.445 1.017 1.616 11457
0.446 1.021 1.612 9075
0.448 1.025 1.609 6475
0.448 1.024 1.600 12344
0.452 1.032 1.602 17687
0.451 1.032 1.593 21718
0.451 1.031 1.583 30120
0.455 1.039 1.586 31347
0.456 1.043 1.583 28040
0.460 1.052 1.586 21594
0.466 1.065 1.594 14778
0.459 1.050 1.566 14522
0.461 1.054 1.563 25134
0.461 1.053 1.554 31932
0.460 1.052 1.544 30164
0.462 1.056 1.541 27553
0.461 1.055 1.531 18382
0.461 1.054 1.522 7911
0.483 1.105 1.578 5475
0.487 1.113 1.581 10621
0.489 1.117 1.577 10091
0.492 1.126 1.579 4497
0.505 1.154 1.606 2493
0.498 1.138 1.578 4498
0.502 1.147 1.580 13665
0.505 1.156 1.582 17107
0.507 1.159 1.579 14966
0.509 1.163 1.575 17984
0.513 1.172 1.577 23409
0.516 1.181 1.579 24551
0.522 1.194 1.587 21578
0.524 1.198 1.583 23588
0.526 1.202 1.579 20866
0.523 1.196 1.564 12547
0.522 1.195 1.554 11969
0.526 1.203 1.556 10395
0.535 1.222 1.569 6253
0.543 1.241 1.582 6389
0.547 1.250 1.584 8346
0.551 1.259 1.586 10661
0.552 1.263 1.582 16428
0.556 1.272 1.583 19196
0.560 1.280 1.585 22645
0.562 1.284 1.580 18794
0.566 1.293 1.582 14029
0.565 1.292 1.572 25270
0.567 1.296 1.568 27333
0.571 1.305 1.569 26541
0.575 1.314 1.571 39432
0.576 1.318 1.566 50008
0.578 1.321 1.562 50945
0.580 1.325 1.558 34089
0.583 1.334 1.559 12390
0.583 1.333 1.549 9870
0.591 1.352 1.561 18152
0.595 1.361 1.562 25171
0.597 1.365 1.558 21988
0.599 1.369 1.553 23411
0.603 1.378 1.554 18908
0.607 1.387 1.555 8691
0.606 1.385 1.545 8884
0.615 1.405 1.557 13783
0.621 1.420 1.563 16523
0.623 1.424 1.558 9595
0.624 1.427 1.554 7256
0.623 1.426 1.544 9360
0.630 1.440 1.550 10417
0.634 1.449 1.550 15102
0.640 1.464 1.556 17879
0.644 1.473 1.556 21850
0.648 1.483 1.557 20694
0.652 1.492 1.557 16010
0.654 1.496 1.552 17737
0.656 1.499 1.547 20626
0.657 1.503 1.543 21076
0.657 1.501 1.533 16094
0.670 1.533 1.553 11249
0.675 1.542 1.553 19608
0.676 1.546 1.548 25255
0.675 1.544 1.538 21416
0.679 1.554 1.538 16002
0.684 1.563 1.538 17852
0.688 1.572 1.538 16247
0.694 1.587 1.543 13370
0.698 1.597 1.543 16152
0.700 1.600 1.537 16448
0.699 1.598 1.527 20724
0.703 1.608 1.527 26957
0.710 1.623 1.532 19043
0.724 1.656 1.550 15094
0.726 1.659 1.545 15630
0.727 1.663 1.540 17671
0.731 1.672 1.539 22966
0.733 1.676 1.534 22732
0.737 1.686 1.533 15913
0.741 1.695 1.532 11905
0.743 1.699 1.527 12170
0.745 1.703 1.521 14223
0.749 1.712 1.520 12453
0.756 1.728 1.524 8913
0.765 1.749 1.532 9118
0.767 1.753 1.527 10365
0.771 1.762 1.526 12232
0.772 1.766 1.520 10932
0.769 1.758 1.505 8998
0.776 1.773 1.509 10172
0.795 1.819 1.534 12739
0.800 1.828 1.533 21692
0.801 1.832 1.527 25140
0.803 1.836 1.521 23055
0.810 1.851 1.524 19322
0.819 1.873 1.531 18958
0.826 1.889 1.534 23735
0.830 1.899 1.532 27334
0.829 1.896 1.522 32393
0.834 1.906 1.520 34665
0.838 1.916 1.518 30526
0.839 1.919 1.512 27704
0.841 1.923 1.506 23765
0.840 1.921 1.495 15119
0.839 1.918 1.485 11014
0.848 1.940 1.492 8450
0.869 1.987 1.515 9264
0.870 1.990 1.508 12524
0.872 1.994 1.502 13701
0.876 2.004 1.499 11464
0.891 2.038 1.514 9026
0.888 2.030 1.499 11841
0.889 2.033 1.492 13504
0.888 2.031 1.482 12107
0.890 2.034 1.475 8110
0.916 2.094 1.505 6028
0.912 2.085 1.490 5809
0.913 2.089 1.483 4503
0.901 2.061 1.457 3337
0.930 2.127 1.489 4885
0.929 2.124 1.479 8205
0.931 2.128 1.472 8987
0.932 2.132 1.465 7056
0.937 2.141 1.462 5197
0.955 2.183 1.478 4047
0.967 2.212 1.486 4377
0.969 2.216 1.479 5670
0.971 2.219 1.472 5998
0.994 2.274 1.495 6078
0.971 2.220 1.454 6203
0.975 2.230 1.451 7241
0.977 2.233 1.443 7564
0.981 2.243 1.440 8006
0.982 2.246 1.433 6038
0.984 2.250 1.425 4069
1.036 2.369 1.483 4659
1.038 2.373 1.476 6205
1.042 2.383 1.471 8033
1.044 2.387 1.464 9885
1.037 2.371 1.446 12796
1.035 2.368 1.434 16370
1.037 2.371 1.427 14277
1.036 2.368 1.416 12456
1.040 2.378 1.412 11478
1.044 2.388 1.407 7794
1.054 2.411 1.410 5932
1.059 2.421 1.405 6901
1.060 2.424 1.398 7928
1.059 2.421 1.387 7242
1.060 2.424 1.379 6651
1.062 2.427 1.371 5639
1.063 2.431 1.363 4626
1.064 2.434 1.355 4626
1.130 2.583 1.419 4695
1.131 2.586 1.410 4695
1.132 2.589 1.402 5129
1.134 2.593 1.394 5563
1.135 2.596 1.385 2781
1.047 2.393 1.280 566
0.257 0.580 1.616 7087
0.260 0.587 1.621 6658
0.262 0.591 1.619 6352
0.265 0.598 1.625 5288
0.268 0.605 1.630 4388
0.268 0.606 1.621 6010
0.271 0.613 1.626 9001
0.273 0.617 1.624 10393
0.275 0.620 1.622 13421
0.277 0.624 1.620 16449
0.280 0.631 1.625 18150
0.283 0.639 1.630 20631
0.285 0.643 1.628 18555
0.286 0.646 1.626 16478
0.287 0.647 1.616 14643
0.287 0.648 1.607 12821
0.287 0.648 1.598 11533
0.290 0.656 1.603 11100
0.294 0.663 1.608 11409
0.297 0.670 1.613 10489
0.298 0.674 1.610 11590
0.300 0.678 1.608 14132
0.303 0.685 1.613 15003
0.305 0.689 1.611 13295
0.307 0.693 1.608 10482
0.310 0.700 1.613 9190
0.312 0.704 1.611 10332
0.314 0.708 1.608 11107
0.317 0.715 1.613 11077
0.320 0.723 1.618 11680
0.323 0.730 1.622 13244
0.325 0.734 1.620 14910
0.329 0.742 1.624 18320
0.332 0.749 1.629 21822
0.334 0.753 1.626 19366
0.335 0.757 1.624 16961
0.337 0.761 1.621 17104
0.339 0.765 1.619 21750
0.341 0.769 1.616 26307
0.342 0.773 1.614 24904
0.346 0.780 1.618 23953
0.347 0.784 1.615 16869
0.354 0.799 1.633 10775
0.358 0.807 1.637 12037
0.359 0.811 1.635 13326
0.363 0.819 1.639 14659
0.364 0.823 1.636 15301
0.366 0.827 1.633 16296
0.368 0.831 1.631 16656
0.368 0.831 1.621 18497
0.370 0.835 1.619 20843
0.371 0.839 1.616 21183
0.373 0.843 1.613 18998
0.377 0.850 1.617 15811
0.380 0.858 1.621 14716
0.384 0.866 1.625 13410
0.380 0.858 1.602 21789
0.384 0.866 1.606 40663
0.385 0.870 1.603 50764
0.387 0.874 1.600 52400
0.389 0.878 1.597 53454
0.390 0.882 1.594 46018
0.392 0.885 1.591 39164
0.394 0.889 1.588 31331
0.392 0.885 1.573 27365
0.397 0.897 1.583 29644
0.401 0.905 1.586 28542
0.404 0.913 1.590 21674
0.414 0.934 1.613 14062
0.417 0.942 1.616 12026
0.419 0.946 1.613 8762
0.421 0.950 1.610 6861
0.422 0.953 1.607 8019
0.426 0.962 1.610 12400
0.430 0.970 1.613 15957
0.429 0.969 1.604 11943
0.431 0.973 1.600 7989
0.435 0.982 1.604 8998
0.436 0.985 1.600 12301
0.438 0.989 1.597 12961
0.444 1.002 1.607 9826
0.447 1.010 1.610 9650
0.451 1.019 1.612 14394
0.453 1.022 1.609 17717
0.455 1.026 1.606 18623
0.456 1.030 1.602 15278
0.454 1.025 1.587 14703
0.456 1.029 1.583 22840
0.459 1.037 1.586 26803
0.461 1.041 1.583 25640
0.467 1.054 1.592 20496
0.469 1.058 1.588 14623
0.462 1.043 1.560 14998
0.466 1.052 1.563 24279
0.465 1.051 1.554 31344
0.465 1.050 1.544 32914
0.467 1.054 1.541 33451
0.466 1.053 1.531 24577
0.468 1.056 1.528 12339
0.488 1.103 1.578 7733
0.490 1.106 1.575 9918
0.494 1.115 1.577 7900
0.496 1.119 1.574 4127
0.501 1.132 1.582 5976
0.505 1.141 1.584 9607
0.511 1.154 1.592 12099
0.517 1.168 1.600 13303
0.519 1.172 1.596 13620
0.516 1.166 1.581 17507
0.520 1.174 1.583 22282
0.524 1.183 1.585 22711
0.528 1.192 1.587 21432
0.530 1.196 1.583 24483
0.533 1.204 1.585 21887
0.535 1.208 1.581 12081
0.528 1.192 1.554 10354
0.534 1.206 1.562 12312
0.536 1.210 1.558 8388
0.549 1.239 1.582 6896
0.532 1.202 1.533 10082
0.539 1.216 1.540 12067
0.558 1.260 1.582 15202
0.564 1.274 1.589 17614
0.568 1.283 1.590 23483
0.568 1.282 1.580 19646
0.569 1.286 1.576 18427
0.569 1.284 1.567 34937
0.573 1.293 1.568 33925
0.577 1.302 1.569 30109
0.578 1.306 1.565 43574
0.582 1.315 1.566 53703
0.584 1.319 1.562 52585
0.586 1.322 1.558 39729
0.590 1.331 1.559 25423
0.591 1.335 1.555 20922
0.598 1.349 1.561 20914
0.602 1.358 1.562 22552
0.603 1.362 1.558 21324
0.605 1.366 1.553 23488
0.607 1.370 1.549 17635
0.615 1.389 1.561 8648
0.615 1.388 1.551 8526
0.621 1.402 1.557 9211
0.625 1.411 1.558 10583
0.624 1.410 1.548 8162
0.629 1.419 1.548 10283
0.630 1.423 1.544 14256
0.634 1.432 1.544 12196
0.641 1.446 1.550 13622
0.647 1.461 1.556 16979
0.651 1.470 1.556 20117
0.655 1.480 1.557 16837
0.659 1.489 1.557 15760
0.661 1.493 1.552 23126
0.660 1.491 1.542 27364
0.662 1.495 1.538 28376
0.666 1.504 1.538 25340
0.670 1.513 1.538 19518
0.679 1.534 1.548 16708
0.683 1.543 1.548 20034
0.683 1.541 1.538 21952
0.687 1.550 1.538 20021
0.691 1.560 1.538 19517
0.692 1.563 1.533 13976
0.699 1.578 1.538 12849
0.703 1.588 1.538 18440
0.705 1.591 1.533 18371
0.707 1.595 1.527 23085
0.711 1.605 1.527 30889
0.720 1.625 1.536 23670
0.727 1.641 1.541 15434
0.733 1.656 1.545 14102
0.738 1.665 1.544 18830
0.739 1.669 1.539 23358
0.741 1.673 1.534 22551
0.740 1.671 1.524 14480
0.742 1.674 1.518 12168
0.748 1.690 1.522 15766
0.750 1.693 1.517 17345
0.752 1.697 1.511 13642
0.761 1.718 1.520 8264
0.768 1.734 1.523 9576
0.769 1.737 1.518 9116
0.787 1.776 1.539 9433
0.788 1.780 1.534 10266
0.803 1.813 1.551 9589
0.792 1.787 1.522 11960
0.799 1.803 1.525 12903
0.808 1.825 1.533 18036
0.812 1.834 1.532 23563
0.814 1.838 1.526 23159
0.816 1.842 1.520 18932
0.828 1.869 1.531 17382
0.835 1.885 1.534 22370
0.839 1.895 1.532 25375
0.838 1.892 1.522 30433
0.840 1.896 1.516 32513
0.847 1.912 1.518 25536
0.851 1.922 1.516 22465
0.853 1.925 1.510 19981
0.852 1.923 1.500 13835
0.851 1.920 1.489 10346
0.858 1.936 1.492 8927
0.875 1.976 1.510 10089
0.880 1.986 1.508 13664
0.884 1.996 1.506 14250
0.886 2.000 1.499 12706
0.904 2.040 1.518 11070
0.903 2.038 1.507 13623
0.899 2.029 1.492 12864
0.898 2.026 1.482 9656
0.899 2.030 1.475 6192
0.926 2.090 1.505 4466
0.916 2.068 1.482 4289
0.918 2.072 1.475 4960
0.919 2.075 1.469 5632
0.924 2.085 1.466 5988
0.936 2.114 1.475 7513
0.938 2.117 1.468 8467
0.939 2.121 1.461 6824
0.944 2.131 1.458 5323
0.982 2.217 1.501 4079
0.992 2.239 1.505 5582
0.982 2.217 1.483 5989
1.001 2.259 1.498 6480
1.008 2.275 1.499 7603
1.009 2.279 1.491 7309
1.017 2.295 1.491 7146
1.021 2.305 1.488 7213
1.023 2.309 1.480 7303
1.024 2.312 1.473 6201
1.023 2.310 1.462 5152
1.039 2.345 1.472 6203
1.046 2.362 1.472 8359
1.050 2.372 1.468 9104
1.055 2.382 1.464 10453
1.048 2.366 1.446 12559
1.047 2.363 1.434 15924
1.048 2.366 1.427 14541
1.050 2.370 1.419 13284
1.051 2.373 1.412 12521
1.055 2.383 1.407 9356
1.063 2.399 1.406 7500
1.070 2.416 1.405 8058
1.074 2.426 1.401 9131
1.076 2.429 1.393 7990
1.077 2.432 1.385 6850
1.079 2.436 1.378 5423
1.083 2.445 1.373 4015
1.143 2.581 1.430 4289
1.142 2.577 1.419 5922
1.143 2.581 1.410 5922
1.145 2.584 1.402 6243
1.143 2.581 1.391 6600
1.145 2.584 1.382 3300
1.058 2.388 1.280 477
0.259 0.579 1.616 7495
0.262 0.586 1.621 6950
0.264 0.590 1.619 6409
0.267 0.597 1.625 5707
0.270 0.604 1.630 5117
0.271 0.608 1.628 6863
0.273 0.612 1.626 10131
0.275 0.616 1.624 11653
0.277 0.620 1.622 14494
0.279 0.624 1.620 17335
0.282 0.631 1.625 18837
0.285 0.638 1.630 21089
0.287 0.642 1.628 19066
0.287 0.642 1.618 17060
0.289 0.646 1.616 15022
0.289 0.647 1.607 12988
0.289 0.648 1.598 11471
0.292 0.655 1.603 10655
0.296 0.662 1.608 10752
0.297 0.666 1.605 9840
0.301 0.673 1.610 10801
0.302 0.677 1.608 13540
0.304 0.681 1.606 14578
0.307 0.688 1.611 13163
0.308 0.689 1.601 10491
0.314 0.703 1.620 9058
0.314 0.703 1.611 10191
0.316 0.707 1.608 10919
0.319 0.714 1.613 10717
0.322 0.722 1.618 11113
0.326 0.729 1.622 12827
0.327 0.733 1.620 14591
0.331 0.741 1.624 17438
0.334 0.748 1.629 20518
0.336 0.752 1.626 18051
0.338 0.756 1.624 15624
0.339 0.760 1.621 15902
0.341 0.764 1.619 20961
0.343 0.768 1.616 25782
0.345 0.772 1.614 24592
0.348 0.779 1.618 23868
0.350 0.783 1.615 16574
0.357 0.798 1.633 10658
0.360 0.806 1.637 11892
0.362 0.810 1.635 13420
0.365 0.818 1.639 14984
0.367 0.822 1.636 15608
0.369 0.826 1.633 16550
0.371 0.830 1.631 16880
0.371 0.830 1.621 18657
0.372 0.834 1.619 21111
0.374 0.838 1.616 21609
0.376 0.841 1.613 19493
0.378 0.845 1.610 16173
0.381 0.853 1.614 14205
0.381 0.853 1.605 11982
0.383 0.857 1.602 20116
0.386 0.865 1.606 39930
0.388 0.869 1.603 50858
0.390 0.873 1.600 52729
0.392 0.877 1.597 54026
0.393 0.880 1.594 46491
0.395 0.884 1.591 39529
0.395 0.884 1.582 32131
0.395 0.884 1.573 28283
0.398 0.892 1.576 29900
0.404 0.904 1.586 28320
0.405 0.908 1.583 21398
0.413 0.924 1.600 12934
0.420 0.940 1.616 9939
0.422 0.944 1.613 6376
0.395 0.885 1.514 5004
0.423 0.948 1.600 7723
0.429 0.960 1.610 13227
0.433 0.968 1.613 16326
0.432 0.968 1.604 11709
0.434 0.972 1.600 7304
0.438 0.980 1.604 8406
0.440 0.984 1.600 13555
0.441 0.988 1.597 16045
0.445 0.996 1.600 14222
0.451 1.009 1.610 15124
0.452 1.013 1.606 20227
0.456 1.021 1.609 22973
0.458 1.025 1.606 21728
0.458 1.024 1.596 16239
0.457 1.024 1.587 13757
0.459 1.028 1.583 20654
0.463 1.036 1.586 25670
0.464 1.040 1.583 24983
0.466 1.044 1.579 19285
0.472 1.057 1.588 13884
0.465 1.042 1.560 15336
0.469 1.050 1.563 22567
0.471 1.054 1.560 28859
0.468 1.049 1.544 31923
0.470 1.052 1.541 34795
0.470 1.051 1.531 26237
0.471 1.055 1.528 13676
0.490 1.096 1.572 10112
0.494 1.105 1.575 12194
0.495 1.109 1.571 11290
0.497 1.112 1.568 5417
0.505 1.131 1.582 3855
0.507 1.134 1.578 9902
0.513 1.148 1.586 14167
0.517 1.156 1.588 15049
0.516 1.155 1.579 16102
0.518 1.159 1.575 18913
0.522 1.168 1.577 21497
0.528 1.181 1.585 21283
0.532 1.190 1.587 20156
0.533 1.194 1.583 22734
0.537 1.203 1.585 20292
0.539 1.207 1.581 11401
0.538 1.205 1.571 10107
0.540 1.209 1.567 14812
0.542 1.213 1.563 10313
0.552 1.237 1.582 7198
0.538 1.205 1.538 12132
0.540 1.209 1.535 15112
0.562 1.258 1.582 12943
0.568 1.272 1.589 14319
0.570 1.276 1.585 22040
0.572 1.280 1.580 19686
0.571 1.279 1.571 19589
0.573 1.282 1.567 36409
0.577 1.291 1.568 33221
0.581 1.300 1.569 28117
0.582 1.304 1.565 41586
0.584 1.308 1.561 51061
0.586 1.312 1.557 50260
0.592 1.326 1.563 41143
0.594 1.330 1.559 33605
0.596 1.333 1.555 28687
0.602 1.348 1.561 22690
0.606 1.357 1.562 20784
0.605 1.355 1.552 22047
0.607 1.359 1.548 24182
0.611 1.368 1.549 16968
0.620 1.388 1.561 8708
0.621 1.391 1.556 9164
0.626 1.400 1.557 9135
0.627 1.404 1.552 9363
0.626 1.402 1.542 9439
0.631 1.412 1.543 12935
0.635 1.421 1.544 17169
0.639 1.430 1.544 13940
0.645 1.444 1.550 11947
0.652 1.459 1.556 14085
0.656 1.468 1.556 16175
0.660 1.478 1.557 14948
0.662 1.481 1.552 17217
0.663 1.485 1.547 24670
0.665 1.489 1.542 28859
0.667 1.492 1.538 31143
0.671 1.502 1.538 30194
0.672 1.505 1.533 24012
0.682 1.526 1.543 16236
0.688 1.541 1.548 16514
0.687 1.539 1.538 19489
0.692 1.548 1.538 19443
0.693 1.552 1.533 18496
0.697 1.561 1.533 12565
0.704 1.576 1.538 12705
0.708 1.586 1.538 18883
0.712 1.595 1.537 18283
0.714 1.599 1.532 22858
0.716 1.602 1.527 30596
0.722 1.617 1.532 24269
0.729 1.633 1.536 16156
0.736 1.648 1.540 13641
0.743 1.663 1.544 18435
0.744 1.667 1.539 21947
0.744 1.665 1.529 20565
0.743 1.663 1.519 13642
0.747 1.672 1.518 12356
0.751 1.681 1.517 16381
0.755 1.691 1.517 17702
0.754 1.689 1.506 13998
0.764 1.710 1.515 8159
0.771 1.725 1.519 9406
0.772 1.729 1.513 8551
0.795 1.780 1.544 10267
0.797 1.783 1.538 11024
0.806 1.805 1.546 11031
0.803 1.797 1.531 12764
0.799 1.789 1.516 12812
0.814 1.822 1.533 16099
0.818 1.832 1.532 22224
0.820 1.835 1.526 22628
0.821 1.839 1.520 18384
0.834 1.867 1.531 15967
0.841 1.882 1.534 20177
0.845 1.892 1.532 22541
0.841 1.884 1.518 27311
0.846 1.893 1.516 29352
0.853 1.909 1.518 21992
0.857 1.919 1.516 19388
0.859 1.923 1.510 17889
0.858 1.920 1.500 12823
0.857 1.918 1.489 9593
0.864 1.933 1.492 8638
0.884 1.980 1.515 9859
0.886 1.984 1.508 13595
0.890 1.993 1.506 14095
0.892 1.997 1.499 12804
0.910 2.038 1.518 11925
0.912 2.041 1.511 14493
0.905 2.026 1.492 12350
0.901 2.017 1.478 8434
0.930 2.083 1.511 6284
0.932 2.087 1.505 4458
0.923 2.065 1.482 4099
0.927 2.075 1.479 5748
0.928 2.079 1.473 7591
0.930 2.082 1.466 7500
0.937 2.098 1.467 7078
0.944 2.114 1.468 7554
0.946 2.118 1.461 6198
0.950 2.128 1.458 4924
0.997 2.232 1.513 4708
0.999 2.236 1.505 6469
1.000 2.240 1.498 6630
1.008 2.256 1.498 6942
1.015 2.272 1.499 7867
1.017 2.276 1.491 7481
1.018 2.279 1.484 7094
1.028 2.302 1.488 7061
1.030 2.306 1.480 7178
1.029 2.303 1.469 6789
1.027 2.300 1.458 6563
1.043 2.336 1.469 6910
1.051 2.352 1.468 9104
1.055 2.362 1.464 9240
1.062 2.378 1.464 10316
1.055 2.362 1.446 11738
1.054 2.359 1.434 14434
1.055 2.363 1.427 13489
1.057 2.366 1.419 12632
1.058 2.370 1.412 12050
1.063 2.379 1.407 9548
1.070 2.396 1.406 7928
1.077 2.412 1.405 8273
1.082 2.422 1.401 9444
1.083 2.426 1.393 8145
1.088 2.435 1.389 6966
1.089 2.439 1.381 5470
1.094 2.449 1.376 3979
1.151 2.577 1.430 4204
1.150 2.574 1.419 5946
1.151 2.577 1.410 5946
1.153 2.581 1.402 6168
1.151 2.577 1.391 6480
1.153 2.581 1.382 3240
1.065 2.385 1.280 379
0.262 0.581 1.623 7058
0.264 0.585 1.621 6543
0.265 0.589 1.619 6029
0.268 0.596 1.625 5764
0.270 0.600 1.623 5572
0.272 0.604 1.621 7417
0.275 0.611 1.626 10930
0.277 0.615 1.624 12645
0.279 0.619 1.622 15344
0.280 0.623 1.620 18043
0.284 0.630 1.625 19313
0.287 0.637 1.630 21300
0.289 0.641 1.628 19294
0.289 0.641 1.618 17352
0.291 0.645 1.616 15363
0.291 0.646 1.607 13389
0.291 0.647 1.598 11796
0.294 0.654 1.603 10759
0.298 0.661 1.608 10690
0.299 0.665 1.605 9690
0.301 0.669 1.603 10359
0.303 0.673 1.601 13358
0.306 0.680 1.606 14668
0.308 0.684 1.604 13552
0.310 0.688 1.601 10757
0.316 0.702 1.620 8842
0.318 0.706 1.618 10286
0.318 0.706 1.608 11370
0.321 0.713 1.613 11334
0.326 0.724 1.625 11997
0.328 0.728 1.622 13731
0.330 0.732 1.620 15464
0.333 0.740 1.624 17355
0.335 0.744 1.622 19863
0.337 0.747 1.619 17273
0.338 0.751 1.617 14474
0.342 0.759 1.621 14435
0.343 0.763 1.619 19707
0.345 0.767 1.616 25000
0.347 0.771 1.614 24275
0.350 0.778 1.618 23957
0.352 0.782 1.615 16633
0.359 0.797 1.633 11379
0.362 0.805 1.637 12846
0.364 0.809 1.635 14281
0.368 0.817 1.639 15889
0.370 0.821 1.636 16428
0.371 0.825 1.633 17297
0.373 0.828 1.631 17678
0.373 0.829 1.621 19398
0.375 0.833 1.619 22082
0.377 0.836 1.616 22886
0.378 0.840 1.613 20815
0.380 0.844 1.610 17276
0.382 0.848 1.607 14597
0.384 0.852 1.605 12161
0.385 0.856 1.602 19032
0.389 0.864 1.606 39239
0.391 0.868 1.603 51161
0.392 0.871 1.600 53202
0.394 0.875 1.597 54729
0.396 0.879 1.594 47493
0.398 0.883 1.591 40770
0.398 0.883 1.582 34075
0.397 0.882 1.573 30138
0.401 0.890 1.576 30721
0.405 0.898 1.580 28644
0.408 0.906 1.583 21848
0.412 0.914 1.587 13172
0.419 0.931 1.603 8209
0.425 0.943 1.613 4567
0.398 0.883 1.514 4182
0.428 0.951 1.607 7331
0.432 0.959 1.610 13377
0.436 0.967 1.613 16021
0.437 0.971 1.610 11179
0.439 0.975 1.607 6423
0.439 0.974 1.597 8122
0.441 0.978 1.594 15841
0.444 0.987 1.597 20525
0.448 0.995 1.600 20674
0.452 1.003 1.603 23738
0.455 1.011 1.606 27975
0.459 1.020 1.609 28321
0.461 1.024 1.606 23962
0.461 1.023 1.596 16735
0.460 1.022 1.587 12893
0.462 1.026 1.583 18256
0.466 1.034 1.586 24323
0.468 1.038 1.583 24664
0.469 1.042 1.579 19479
0.467 1.037 1.564 14761
0.469 1.041 1.560 15677
0.474 1.054 1.569 21359
0.474 1.053 1.560 27233
0.472 1.047 1.544 30422
0.473 1.051 1.541 35668
0.473 1.050 1.531 28279
0.474 1.054 1.528 15620
0.487 1.081 1.554 9766
0.497 1.103 1.575 12605
0.499 1.107 1.571 12726
0.502 1.116 1.574 7459
0.504 1.119 1.570 6020
0.501 1.114 1.554 7311
0.507 1.127 1.563 13788
0.509 1.131 1.559 21271
0.513 1.139 1.561 19978
0.521 1.158 1.575 16903
0.527 1.171 1.583 18068
0.529 1.175 1.579 18448
0.533 1.184 1.581 18345
0.535 1.187 1.577 21197
0.541 1.201 1.585 18853
0.543 1.205 1.581 11560
0.542 1.204 1.571 11836
0.544 1.208 1.567 17774
0.545 1.211 1.563 12941
0.549 1.220 1.565 8324
0.542 1.204 1.538 11162
0.548 1.218 1.546 14775
0.552 1.226 1.548 13284
0.570 1.265 1.583 10506
0.574 1.274 1.585 19904
0.573 1.273 1.575 21461
0.573 1.272 1.565 24299
0.574 1.276 1.561 37401
0.578 1.284 1.562 30424
0.582 1.293 1.564 23476
0.586 1.302 1.565 35499
0.588 1.306 1.561 42718
0.590 1.310 1.557 41967
0.594 1.319 1.558 40374
0.598 1.328 1.559 42468
0.600 1.331 1.555 37759
0.604 1.340 1.556 24627
0.610 1.355 1.562 18923
0.609 1.353 1.552 23413
0.613 1.362 1.553 26794
0.615 1.366 1.549 18815
0.622 1.380 1.555 10011
0.623 1.384 1.551 10061
0.627 1.393 1.552 10594
0.629 1.397 1.547 11306
0.631 1.401 1.542 13803
0.637 1.415 1.548 17267
0.641 1.424 1.549 19808
0.643 1.428 1.544 15202
0.650 1.443 1.550 9852
0.656 1.457 1.556 9338
0.660 1.466 1.556 9491
0.664 1.476 1.557 12508
0.666 1.479 1.552 19529
0.668 1.483 1.547 26448
0.669 1.487 1.542 30829
0.671 1.490 1.538 36279
0.675 1.500 1.538 38889
0.677 1.503 1.533 31932
0.684 1.518 1.538 18974
0.690 1.533 1.543 12577
0.692 1.537 1.538 14328
0.696 1.546 1.538 17229
0.698 1.550 1.533 16630
0.702 1.559 1.533 11411
0.706 1.568 1.533 13251
0.713 1.583 1.538 19284
0.720 1.598 1.542 18475
0.719 1.596 1.532 22553
0.721 1.600 1.527 29100
0.725 1.610 1.527 24448
0.724 1.607 1.517 19341
0.725 1.611 1.511 15148
0.745 1.655 1.540 17138
0.750 1.664 1.539 19444
0.749 1.662 1.529 17457
0.748 1.660 1.519 12084
0.749 1.664 1.513 12094
0.756 1.679 1.517 16139
0.758 1.683 1.512 17420
0.759 1.686 1.506 14341
0.798 1.772 1.566 9677
0.800 1.776 1.560 9680
0.801 1.780 1.554 10963
0.803 1.783 1.549 13818
0.805 1.787 1.543 13545
0.812 1.803 1.546 13227
0.811 1.800 1.536 14324
0.807 1.792 1.521 13156
0.819 1.820 1.533 14613
0.824 1.829 1.532 20848
0.825 1.833 1.526 22075
0.827 1.837 1.520 17927
0.839 1.864 1.531 13826
0.846 1.880 1.534 16759
0.851 1.890 1.532 18257
0.847 1.881 1.518 22937
0.849 1.885 1.511 25211
0.856 1.901 1.514 18426
0.866 1.922 1.521 16912
0.867 1.926 1.514 16555
0.866 1.924 1.504 12452
0.860 1.909 1.485 9264
0.869 1.931 1.492 8266
0.890 1.977 1.515 9924
0.895 1.987 1.512 14137
0.896 1.991 1.506 14356
0.901 2.000 1.504 13209
0.916 2.035 1.518 13257
0.921 2.045 1.515 16268
0.922 2.048 1.509 13813
0.935 2.077 1.518 10331
0.934 2.074 1.507 8703
0.938 2.084 1.505 6800
0.940 2.088 1.498 6544
0.939 2.085 1.487 8923
0.940 2.088 1.480 11627
0.939 2.086 1.470 10575
0.941 2.089 1.463 7812
0.948 2.105 1.464 6395
0.950 2.109 1.457 5250
0.954 2.119 1.454 4159
1.004 2.229 1.513 5834
1.006 2.233 1.505 7985
1.007 2.237 1.498 8074
1.014 2.253 1.498 7506
1.025 2.276 1.502 7871
1.023 2.273 1.491 7453
1.025 2.276 1.484 7095
1.032 2.293 1.484 6704
1.037 2.303 1.480 6668
1.036 2.300 1.469 7265
1.034 2.297 1.458 7976
1.050 2.332 1.469 7753
1.055 2.342 1.465 9984
1.062 2.359 1.464 9741
1.070 2.375 1.464 10273
1.062 2.359 1.446 10926
1.061 2.356 1.434 12383
1.063 2.360 1.427 12002
1.064 2.363 1.419 11648
1.069 2.373 1.415 11575
1.073 2.383 1.411 10097
1.074 2.386 1.403 8874
1.085 2.409 1.405 9041
1.089 2.419 1.401 10377
1.094 2.429 1.397 8886
1.098 2.439 1.392 7638
1.103 2.449 1.387 6080
1.113 2.472 1.389 4828
1.114 2.475 1.381 4905
1.157 2.570 1.419 5937
1.159 2.574 1.410 5937
1.157 2.570 1.399 6000
1.156 2.567 1.387 6199
1.157 2.570 1.379 3099
1.060 2.355 1.268 315
0.264 0.580 1.623 6554
0.265 0.584 1.621 5861
0.268 0.591 1.627 5178
0.270 0.595 1.625 5519
0.272 0.599 1.623 5861
0.274 0.603 1.621 7731
0.277 0.610 1.626 11274
0.279 0.614 1.624 12985
0.281 0.618 1.622 15456
