0.624 0.887 1.565 8859
0.623 0.886 1.556 5846
0.628 0.894 1.559 7921
0.631 0.897 1.556 10204
0.633 0.900 1.552 8680
0.604 0.859 1.481 7189
0.644 0.915 1.558 7039
0.643 0.914 1.549 10821
0.643 0.914 1.539 15271
0.645 0.917 1.536 19816
0.650 0.924 1.539 21859
0.652 0.928 1.535 18119
0.655 0.931 1.532 17167
0.657 0.934 1.529 18770
0.659 0.938 1.525 14544
0.671 0.954 1.540 8408
0.682 0.970 1.554 8691
0.684 0.973 1.551 8493
0.689 0.981 1.553 12826
0.692 0.984 1.550 24955
0.691 0.983 1.540 34135
0.697 0.991 1.542 32650
0.702 0.998 1.545 27381
0.707 1.006 1.547 27394
0.710 1.009 1.543 24964
0.709 1.008 1.534 16389
0.708 1.007 1.524 10951
0.714 1.015 1.527 16664
0.722 1.027 1.534 22195
0.727 1.035 1.537 18887
0.730 1.038 1.533 16472
0.732 1.041 1.529 13006
0.731 1.040 1.519 7860
0.734 1.043 1.516 7940
0.739 1.051 1.518 13036
0.744 1.059 1.520 13404
0.750 1.066 1.521 6950
0.743 1.056 1.500 9859
0.745 1.059 1.497 18248
0.750 1.067 1.498 12523
0.778 1.107 1.540 10191
0.781 1.110 1.536 17140
0.783 1.113 1.532 18497
0.785 1.117 1.527 22601
0.784 1.115 1.518 22721
0.787 1.119 1.514 17439
0.786 1.117 1.504 19789
0.794 1.130 1.511 22214
0.797 1.133 1.507 26382
0.799 1.136 1.503 27656
0.805 1.144 1.504 30538
0.807 1.147 1.500 25755
0.812 1.155 1.501 12893
0.828 1.178 1.519 7897
0.827 1.176 1.509 9495
0.816 1.160 1.483 9843
0.825 1.173 1.490 13917
0.830 1.181 1.491 13314
0.833 1.184 1.487 9206
0.828 1.178 1.472 11198
0.834 1.186 1.473 12815
0.843 1.199 1.479 14640
0.848 1.207 1.480 15187
0.851 1.210 1.476 10452
0.853 1.213 1.471 10755
0.862 1.226 1.477 19543
0.864 1.229 1.473 23981
0.866 1.232 1.468 19166
0.869 1.235 1.464 16000
0.867 1.234 1.454 14872
0.870 1.237 1.450 13718
0.872 1.240 1.445 15671
0.874 1.243 1.441 15689
0.876 1.246 1.436 10370
0.931 1.324 1.508 5709
0.937 1.332 1.508 5399
0.939 1.335 1.503 9381
0.945 1.344 1.503 18352
0.954 1.357 1.508 24558
0.960 1.365 1.508 23117
0.966 1.373 1.508 15768
0.979 1.392 1.518 13855
0.988 1.405 1.523 16160
0.998 1.419 1.528 13908
1.004 1.427 1.527 11708
0.999 1.420 1.512 14624
1.005 1.429 1.512 20586
1.010 1.437 1.512 24733
1.013 1.440 1.507 22088
1.019 1.449 1.506 12468
1.028 1.462 1.510 8718
1.030 1.465 1.505 13810
1.025 1.458 1.490 15491
1.028 1.461 1.485 14129
1.034 1.470 1.485 11406
1.051 1.494 1.498 10259
1.053 1.497 1.493 9610
1.066 1.516 1.501 8823
1.076 1.530 1.505 9688
1.085 1.544 1.508 7210
1.095 1.558 1.512 7486
1.097 1.561 1.506 10560
1.100 1.564 1.501 11326
1.110 1.578 1.504 9763
1.116 1.586 1.503 8097
1.118 1.590 1.497 8139
1.131 1.609 1.505 9062
1.137 1.618 1.503 9951
1.143 1.626 1.502 13488
1.149 1.635 1.501 18670
1.163 1.654 1.508 22600
1.169 1.663 1.506 24580
1.171 1.666 1.500 19939
1.178 1.675 1.498 11976
1.184 1.683 1.497 12887
1.186 1.686 1.491 16123
1.188 1.690 1.485 14100
1.187 1.687 1.474 9366
1.185 1.685 1.464 6800
1.203 1.710 1.475 5628
1.213 1.724 1.477 5793
1.207 1.716 1.462 6251
1.213 1.725 1.460 5138
1.246 1.772 1.487 7445
1.249 1.776 1.481 9054
1.255 1.784 1.478 9013
1.257 1.788 1.472 7068
1.298 1.846 1.506 7713
1.301 1.850 1.499 9409
1.299 1.847 1.489 10214
1.297 1.845 1.478 10128
1.299 1.848 1.471 8256
1.306 1.857 1.469 6497
1.324 1.882 1.478 5705
1.334 1.897 1.479 5422
1.320 1.877 1.456 5391
1.338 1.903 1.465 5205
1.344 1.912 1.462 5342
1.347 1.915 1.455 5396
1.345 1.912 1.444 5522
1.407 2.001 1.494 5248
1.413 2.010 1.491 5449
1.423 2.024 1.491 4728
1.426 2.028 1.484 4716
1.428 2.031 1.477 4703
1.434 2.040 1.473 6515
1.436 2.043 1.466 8416
1.443 2.052 1.462 8209
1.453 2.066 1.462 8435
1.459 2.075 1.458 6816
1.465 2.084 1.454 5435
1.472 2.093 1.450 4675
1.486 2.113 1.453 4155
1.488 2.117 1.446 3967
1.490 2.120 1.438 3779
1.521 2.163 1.455 2834
1.532 2.178 1.454 3793
1.538 2.187 1.449 4728
1.544 2.196 1.445 5679
1.546 2.199 1.437 5679
1.549 2.202 1.429 5889
1.555 2.211 1.425 6106
1.573 2.238 1.430 4708
1.588 2.258 1.432 4672
1.586 2.255 1.420 5525
1.588 2.259 1.412 6542
1.590 2.262 1.404 6625
1.601 2.276 1.402 7063
1.603 2.279 1.394 7063
1.605 2.282 1.386 5978
1.607 2.285 1.378 4894
1.609 2.288 1.370 2447
0.829 1.178 0.777 288
0.361 0.510 1.594 11477
0.363 0.513 1.592 13243
0.367 0.520 1.598 15040
0.370 0.523 1.596 13793
0.374 0.529 1.601 12712
0.375 0.530 1.592 17632
0.377 0.533 1.590 22719
0.380 0.537 1.588 22719
0.382 0.540 1.586 28413
0.384 0.544 1.584 34108
0.387 0.547 1.582 36060
0.391 0.553 1.587 39170
0.394 0.557 1.585 35597
0.396 0.560 1.583 32024
0.398 0.564 1.581 25128
0.401 0.567 1.579 18165
0.403 0.570 1.577 13149
0.406 0.574 1.575 8201
0.410 0.580 1.579 7672
0.419 0.592 1.598 8782
0.421 0.596 1.596 10060
0.424 0.599 1.594 10353
0.426 0.603 1.592 9034
0.429 0.606 1.590 7037
0.429 0.607 1.580 8486
0.429 0.607 1.571 10594
0.434 0.613 1.576 9738
0.436 0.617 1.574 9063
0.439 0.620 1.571 10644
0.443 0.627 1.576 12226
0.443 0.627 1.567 15485
0.446 0.630 1.564 18746
0.448 0.634 1.562 19820
0.453 0.640 1.567 21050
0.453 0.640 1.557 21441
0.458 0.647 1.562 21838
0.462 0.654 1.566 23090
0.465 0.657 1.564 19692
0.469 0.664 1.568 16409
0.472 0.667 1.566 12974
0.476 0.674 1.570 10615
0.479 0.677 1.568 11160
0.481 0.680 1.565 14589
0.484 0.684 1.563 18137
0.486 0.687 1.560 19462
0.488 0.691 1.558 23142
0.491 0.694 1.555 25497
0.498 0.704 1.566 25225
0.503 0.711 1.570 22229
0.503 0.711 1.561 17681
0.510 0.721 1.572 20686
0.515 0.728 1.576 24304
0.517 0.731 1.573 25101
0.522 0.738 1.577 21543
0.527 0.745 1.581 18703
0.529 0.749 1.578 18963
0.532 0.752 1.575 18594
0.537 0.759 1.579 15817
0.542 0.766 1.583 13457
0.544 0.770 1.580 20635
0.547 0.773 1.577 35848
0.552 0.780 1.581 42762
0.557 0.787 1.585 42672
0.556 0.787 1.575 34042
0.556 0.787 1.566 20953
0.556 0.786 1.557 21397
0.561 0.793 1.560 23612
0.563 0.797 1.557 21707
0.568 0.804 1.561 16147
0.568 0.803 1.552 10325
0.565 0.799 1.536 16355
0.567 0.802 1.533 19275
0.575 0.813 1.543 19585
0.580 0.820 1.546 23927
0.585 0.828 1.549 24261
0.588 0.831 1.546 16671
0.587 0.830 1.537 11414
0.595 0.842 1.547 12536
0.603 0.853 1.556 13080
0.605 0.856 1.553 13566
0.608 0.859 1.550 15953
0.613 0.867 1.553 16625
0.618 0.874 1.556 11256
0.629 0.889 1.572 6967
0.600 0.849 1.500 5020
0.631 0.892 1.559 7027
0.636 0.899 1.562 9355
0.638 0.903 1.559 8731
0.641 0.906 1.555 7677
0.646 0.914 1.558 8040
0.645 0.913 1.549 10324
0.645 0.912 1.539 15517
0.647 0.915 1.536 19298
0.652 0.923 1.539 19109
0.655 0.926 1.535 15164
0.657 0.929 1.532 15002
0.660 0.933 1.529 16133
0.665 0.940 1.531 12798
0.676 0.956 1.546 9134
0.687 0.972 1.560 6662
0.693 0.980 1.563 6372
0.692 0.979 1.553 11202
0.691 0.978 1.544 21843
0.694 0.981 1.540 32046
0.699 0.989 1.542 31286
0.705 0.996 1.545 28886
0.710 1.004 1.547 29893
0.712 1.007 1.543 26037
0.712 1.006 1.534 17397
0.711 1.005 1.524 12403
0.719 1.017 1.532 16306
0.725 1.025 1.534 21243
0.730 1.033 1.537 17144
0.729 1.031 1.527 15912
0.735 1.039 1.529 14053
0.734 1.038 1.519 9741
0.739 1.046 1.521 8070
0.745 1.053 1.523 10939
0.747 1.057 1.520 11900
0.753 1.065 1.521 7305
0.745 1.054 1.500 9223
0.748 1.057 1.497 14983
0.753 1.065 1.498 11786
0.781 1.105 1.540 13220
0.784 1.108 1.536 17831
0.786 1.111 1.532 16997
0.785 1.110 1.522 22851
0.787 1.113 1.518 21457
0.793 1.121 1.519 10645
0.792 1.120 1.510 11994
0.797 1.128 1.511 21592
0.800 1.131 1.507 30374
0.802 1.134 1.503 33554
0.808 1.142 1.504 37865
0.810 1.145 1.500 32939
0.812 1.149 1.496 18288
0.814 1.152 1.492 9808
0.830 1.174 1.509 8875
0.819 1.158 1.483 10304
0.825 1.166 1.485 14815
0.830 1.174 1.486 13580
0.816 1.153 1.455 9728
0.828 1.171 1.467 11688
0.827 1.169 1.457 11916
0.846 1.196 1.479 11828
0.852 1.204 1.480 12548
0.850 1.203 1.470 10405
0.856 1.211 1.471 11703
0.865 1.224 1.477 17441
0.867 1.227 1.473 20376
0.870 1.230 1.468 16616
0.868 1.228 1.459 14780
0.871 1.231 1.454 15129
0.873 1.234 1.450 14339
0.875 1.237 1.445 15629
0.874 1.236 1.436 15223
0.876 1.239 1.431 10541
0.875 1.237 1.422 6318
0.880 1.245 1.422 5949
0.939 1.328 1.498 6819
0.952 1.346 1.508 14395
0.958 1.354 1.508 20496
0.963 1.363 1.508 19784
0.973 1.376 1.513 14152
0.982 1.389 1.518 12035
0.992 1.403 1.523 14743
1.001 1.416 1.528 12459
1.000 1.414 1.518 9470
0.999 1.412 1.508 11893
1.008 1.426 1.512 15328
1.014 1.434 1.512 19644
1.017 1.438 1.507 19049
1.019 1.441 1.501 11283
1.028 1.454 1.506 7647
1.034 1.463 1.505 11812
1.029 1.456 1.490 13122
1.032 1.459 1.485 11766
1.041 1.472 1.489 9468
1.054 1.491 1.498 9395
1.060 1.500 1.497 9208
1.070 1.513 1.501 8779
1.080 1.527 1.505 10128
1.090 1.541 1.508 8056
1.096 1.549 1.507 7271
1.098 1.553 1.502 9263
1.104 1.561 1.501 9513
1.114 1.575 1.504 7748
1.123 1.589 1.507 7236
1.114 1.576 1.488 8746
1.117 1.579 1.483 11043
1.134 1.604 1.495 10527
1.144 1.618 1.498 14234
1.154 1.632 1.501 20393
1.167 1.651 1.508 24684
1.174 1.660 1.506 26243
1.176 1.663 1.500 21301
1.186 1.677 1.503 12727
1.192 1.686 1.501 13668
1.194 1.689 1.495 17249
1.196 1.692 1.489 14627
1.199 1.695 1.483 9450
1.205 1.704 1.481 6908
1.211 1.712 1.479 6233
1.213 1.716 1.473 5915
1.211 1.713 1.462 6349
1.218 1.722 1.460 5356
1.251 1.769 1.487 7210
1.253 1.772 1.481 8764
1.255 1.776 1.474 8719
1.258 1.779 1.468 7338
1.307 1.848 1.510 6700
1.309 1.852 1.503 8637
1.308 1.849 1.493 9242
1.302 1.841 1.478 8993
1.304 1.845 1.471 7280
1.318 1.864 1.477 5948
1.333 1.884 1.482 5631
1.339 1.893 1.479 5425
1.321 1.868 1.452 5570
1.347 1.905 1.469 5865
1.349 1.908 1.462 6646
1.352 1.911 1.455 6448
1.350 1.909 1.444 6305
1.356 1.918 1.441 4832
1.410 1.995 1.483 5218
1.429 2.021 1.491 4370
1.431 2.024 1.484 4734
1.433 2.027 1.477 5098
1.440 2.036 1.473 6982
1.446 2.045 1.469 8899
1.448 2.048 1.462 8727
1.454 2.057 1.458 8739
1.461 2.066 1.454 6738
1.467 2.074 1.450 4904
1.481 2.095 1.454 3883
1.492 2.110 1.453 3757
1.494 2.113 1.446 3629
1.496 2.116 1.438 3501
1.527 2.159 1.455 2796
1.537 2.174 1.454 3783
1.544 2.183 1.449 4593
1.550 2.192 1.445 5440
1.552 2.195 1.437 5440
1.554 2.198 1.429 5647
1.565 2.213 1.428 6005
1.583 2.239 1.433 5263
1.590 2.248 1.429 5442
1.592 2.251 1.420 6018
1.594 2.254 1.412 6594
1.600 2.263 1.407 6326
1.611 2.278 1.406 6541
1.613 2.281 1.397 6541
1.615 2.284 1.389 5521
1.667 2.358 1.419 4557
1.670 2.361 1.411 2278
0.832 1.176 0.777 289
0.362 0.509 1.594 11261
0.364 0.512 1.592 13667
0.369 0.519 1.598 16087
0.371 0.522 1.596 15000
0.376 0.528 1.601 14139
0.376 0.529 1.592 19279
0.379 0.532 1.590 24646
0.381 0.536 1.588 24646
0.383 0.539 1.586 30431
0.386 0.543 1.584 36215
0.388 0.546 1.582 37890
0.393 0.552 1.587 40784
0.395 0.556 1.585 36733
0.398 0.559 1.583 32682
0.400 0.563 1.581 25654
0.402 0.566 1.579 18568
0.405 0.569 1.577 13661
0.407 0.573 1.575 8812
0.412 0.579 1.579 7954
0.423 0.594 1.605 8582
0.423 0.595 1.596 10259
0.425 0.598 1.594 11022
0.428 0.602 1.592 9484
0.430 0.605 1.590 7123
0.430 0.605 1.580 8218
0.431 0.606 1.571 9928
0.435 0.612 1.576 9461
0.438 0.616 1.574 9090
0.440 0.619 1.571 11014
0.443 0.622 1.569 12938
0.445 0.626 1.567 16616
0.447 0.629 1.564 20294
0.450 0.633 1.562 21545
0.454 0.639 1.567 23030
0.455 0.639 1.557 22125
0.459 0.646 1.562 20065
0.464 0.652 1.566 19828
0.466 0.656 1.564 16452
0.471 0.662 1.568 13301
0.476 0.669 1.573 10707
0.478 0.672 1.570 9647
0.481 0.676 1.568 11012
0.483 0.679 1.565 15677
0.485 0.683 1.563 20015
0.488 0.686 1.560 21894
0.490 0.689 1.558 26625
0.493 0.693 1.555 29479
0.500 0.703 1.566 29267
0.502 0.706 1.564 25475
0.505 0.710 1.561 19917
0.509 0.716 1.565 20623
0.517 0.727 1.576 21862
0.519 0.730 1.573 22313
0.524 0.737 1.577 19910
0.529 0.744 1.581 19755
0.531 0.747 1.578 21572
0.534 0.751 1.575 21711
0.536 0.754 1.573 17807
0.544 0.765 1.583 13282
0.546 0.768 1.580 20727
0.549 0.772 1.577 35830
0.554 0.779 1.581 42221
0.559 0.786 1.585 41885
0.558 0.785 1.575 34057
0.558 0.785 1.566 20014
0.558 0.785 1.557 18516
0.563 0.792 1.560 21242
0.565 0.795 1.557 20052
0.570 0.802 1.561 15236
0.570 0.802 1.552 11646
0.570 0.801 1.542 19478
0.569 0.801 1.533 22256
0.575 0.808 1.536 20181
0.582 0.819 1.546 22746
0.587 0.826 1.549 22323
0.590 0.829 1.546 15395
0.592 0.833 1.543 12245
0.594 0.836 1.540 13327
0.605 0.851 1.556 12889
0.608 0.854 1.553 14127
0.610 0.858 1.550 15442
0.612 0.861 1.547 15144
0.615 0.864 1.544 9955
0.628 0.884 1.565 6315
0.600 0.843 1.494 5422
0.636 0.894 1.565 7407
0.638 0.898 1.562 9870
0.638 0.897 1.552 10450
0.643 0.904 1.555 10057
0.648 0.912 1.558 9570
0.648 0.911 1.549 10696
0.650 0.914 1.545 15486
0.653 0.918 1.542 18346
0.655 0.921 1.539 16869
0.660 0.928 1.541 13477
0.663 0.932 1.538 14077
0.665 0.935 1.535 14336
0.667 0.938 1.531 11825
0.678 0.954 1.546 10205
0.687 0.966 1.554 8167
0.692 0.974 1.557 8443
0.695 0.977 1.553 11034
0.694 0.976 1.544 19614
0.696 0.979 1.540 29741
0.702 0.987 1.542 30018
0.707 0.994 1.545 29354
0.713 1.002 1.547 31020
0.715 1.005 1.543 26363
0.714 1.004 1.534 17274
0.713 1.003 1.524 12486
0.722 1.015 1.532 14653
0.727 1.023 1.534 19346
0.727 1.022 1.525 16481
0.729 1.025 1.521 16075
0.734 1.033 1.523 14963
0.740 1.041 1.525 10686
0.745 1.048 1.527 9111
0.748 1.052 1.523 11294
0.750 1.055 1.520 12477
0.749 1.054 1.510 8538
0.751 1.057 1.506 8485
0.751 1.056 1.497 12335
0.756 1.063 1.498 10746
0.784 1.103 1.540 14844
0.786 1.106 1.536 17362
0.789 1.109 1.532 14620
0.788 1.108 1.522 21292
0.790 1.111 1.518 18375
0.802 1.128 1.530 8219
0.805 1.132 1.526 11444
0.804 1.130 1.517 22087
0.803 1.129 1.507 32117
0.805 1.132 1.503 37344
0.811 1.140 1.504 42805
0.813 1.143 1.500 39144
0.815 1.146 1.496 24968
0.814 1.145 1.486 13826
0.820 1.153 1.488 8757
0.822 1.156 1.483 10352
0.828 1.164 1.485 15440
0.826 1.162 1.475 14586
0.825 1.161 1.465 11866
0.828 1.164 1.461 13197
0.830 1.167 1.457 11344
0.849 1.194 1.479 8812
0.851 1.197 1.475 9929
0.850 1.196 1.465 10712
0.856 1.204 1.466 12526
0.868 1.221 1.477 14785
0.871 1.224 1.473 16540
0.869 1.223 1.463 14561
0.872 1.226 1.459 14145
0.874 1.229 1.454 15208
0.876 1.232 1.450 14468
0.875 1.230 1.440 15075
0.877 1.233 1.436 14488
0.879 1.236 1.431 10537
0.881 1.239 1.427 7213
0.883 1.242 1.422 7433
0.882 1.240 1.413 7632
0.959 1.349 1.513 10682
0.961 1.352 1.508 15869
0.971 1.365 1.513 16026
0.976 1.373 1.513 12267
0.986 1.387 1.518 10210
0.995 1.400 1.523 13265
1.001 1.408 1.523 11821
1.000 1.407 1.513 9004
0.999 1.405 1.503 11261
1.005 1.413 1.503 12065
1.018 1.432 1.512 15239
1.017 1.430 1.502 16218
1.023 1.438 1.501 10064
1.032 1.452 1.506 6743
1.034 1.455 1.500 9936
1.033 1.453 1.490 11052
1.032 1.451 1.480 9806
1.045 1.470 1.489 7580
1.062 1.494 1.503 8692
1.068 1.502 1.502 8988
1.074 1.511 1.501 8759
1.088 1.530 1.509 10361
1.094 1.538 1.508 8787
1.096 1.541 1.503 7886
1.102 1.550 1.502 9149
1.104 1.553 1.496 8899
1.106 1.556 1.491 6443
1.128 1.586 1.507 6295
1.119 1.573 1.488 9634
1.121 1.576 1.483 13645
1.123 1.579 1.477 13769
1.144 1.609 1.493 15593
1.158 1.629 1.501 21522
1.172 1.648 1.508 25535
1.178 1.657 1.506 26488
1.180 1.660 1.500 21657
1.190 1.674 1.503 13188
1.196 1.682 1.501 13902
1.199 1.686 1.495 17671
1.201 1.689 1.489 14814
1.207 1.698 1.487 9768
1.217 1.712 1.489 7812
1.219 1.715 1.483 6669
1.214 1.707 1.468 5674
1.216 1.710 1.462 6023
1.222 1.719 1.460 5265
1.252 1.760 1.483 7245
1.258 1.769 1.481 8664
1.260 1.772 1.474 8729
1.262 1.775 1.468 7992
1.261 1.773 1.457 7368
1.314 1.848 1.503 7972
1.312 1.846 1.493 8464
1.303 1.832 1.474 8147
1.309 1.841 1.471 6490
1.331 1.872 1.484 5971
1.337 1.881 1.482 5716
1.344 1.890 1.479 5479
1.326 1.865 1.452 5733
1.352 1.902 1.469 6458
1.358 1.910 1.466 7768
1.357 1.908 1.455 7305
1.359 1.911 1.448 6956
1.361 1.914 1.441 5163
1.412 1.985 1.480 5273
1.394 1.960 1.454 4496
1.440 2.026 1.488 4873
1.439 2.023 1.477 5547
1.445 2.032 1.473 7451
1.451 2.041 1.469 9368
1.453 2.044 1.462 9149
1.460 2.053 1.458 8943
1.462 2.056 1.451 6696
1.468 2.065 1.447 4549
1.474 2.074 1.443 3363
1.501 2.111 1.457 3494
1.499 2.109 1.446 3439
1.497 2.106 1.434 3477
1.537 2.161 1.458 2746
1.543 2.170 1.454 3717
1.549 2.179 1.449 4453
1.556 2.188 1.445 5195
1.558 2.191 1.437 5195
1.564 2.200 1.432 5467
1.570 2.209 1.428 6005
1.589 2.235 1.433 5625
1.596 2.244 1.429 5943
1.598 2.247 1.420 6314
1.596 2.244 1.409 6721
1.602 2.253 1.404 6125
1.617 2.274 1.406 6103
1.619 2.277 1.397 6103
1.621 2.280 1.389 5116
1.674 2.354 1.419 4635
1.676 2.357 1.411 2317
0.835 1.174 0.777 267
0.363 0.508 1.594 11171
0.365 0.512 1.592 14113
0.370 0.518 1.598 17104
0.372 0.521 1.596 16212
0.376 0.528 1.601 15716
0.377 0.528 1.592 20519
0.379 0.532 1.590 25719
0.382 0.535 1.588 25719
0.384 0.539 1.586 31651
0.387 0.542 1.584 37582
0.389 0.545 1.582 39319
0.394 0.552 1.587 42380
0.396 0.555 1.585 38043
0.398 0.558 1.583 33706
0.401 0.562 1.581 26391
0.403 0.565 1.579 19033
0.406 0.569 1.577 14079
0.408 0.572 1.575 9167
0.413 0.578 1.579 8065
0.424 0.594 1.605 8287
0.424 0.594 1.596 10364
0.426 0.597 1.594 11643
0.429 0.601 1.592 10170
0.431 0.604 1.590 7749
0.432 0.605 1.580 7984
0.434 0.608 1.578 8729
0.436 0.612 1.576 8747
0.441 0.618 1.581 8857
0.441 0.618 1.571 11072
0.444 0.622 1.569 13380
0.446 0.625 1.567 17329
0.448 0.628 1.564 21277
0.451 0.632 1.562 22737
0.456 0.638 1.567 24443
0.456 0.638 1.557 22506
0.460 0.645 1.562 18305
0.465 0.652 1.566 16511
0.467 0.655 1.564 13287
0.472 0.662 1.568 10370
0.479 0.672 1.580 9301
0.482 0.675 1.577 9717
0.484 0.678 1.575 11489
0.484 0.678 1.565 16854
0.487 0.682 1.563 21647
0.489 0.685 1.560 24060
0.491 0.688 1.558 29768
0.494 0.692 1.555 33064
0.499 0.699 1.559 33004
0.503 0.705 1.564 28433
0.506 0.709 1.561 22082
0.511 0.716 1.565 20479
0.518 0.726 1.576 19385
0.523 0.733 1.580 19702
0.525 0.736 1.577 19241
0.528 0.739 1.574 21551
0.530 0.743 1.572 24516
0.535 0.750 1.575 24709
0.538 0.753 1.573 20249
0.542 0.760 1.577 14291
0.547 0.767 1.580 21054
0.550 0.771 1.577 35124
0.555 0.778 1.581 41399
0.557 0.781 1.578 41420
0.560 0.784 1.575 34555
0.560 0.784 1.566 19712
0.559 0.784 1.557 15676
0.564 0.791 1.560 18513
0.567 0.794 1.557 18005
0.572 0.801 1.561 13863
0.572 0.801 1.552 12287
0.571 0.800 1.542 21351
0.574 0.804 1.539 23962
0.579 0.811 1.543 19738
0.584 0.818 1.546 20394
0.589 0.825 1.549 19767
0.594 0.832 1.553 15161
0.594 0.832 1.543 14493
0.596 0.835 1.540 15344
0.604 0.846 1.550 13843
0.609 0.853 1.553 15949
0.609 0.853 1.544 15951
0.611 0.856 1.541 13865
0.613 0.859 1.537 9253
0.630 0.883 1.565 6298
0.632 0.886 1.562 6339
0.635 0.889 1.559 8413
0.640 0.897 1.562 11366
0.639 0.896 1.552 12350
0.642 0.899 1.549 11601
0.650 0.911 1.558 10406
0.652 0.914 1.555 10992
0.652 0.913 1.545 15379
0.654 0.917 1.542 17689
0.659 0.924 1.545 15184
0.665 0.931 1.547 12924
0.667 0.935 1.544 14276
0.667 0.934 1.535 13433
0.672 0.941 1.537 11988
0.680 0.953 1.546 11532
0.689 0.965 1.554 10526
0.688 0.964 1.545 11879
0.693 0.971 1.547 12015
0.693 0.971 1.538 17902
0.698 0.978 1.540 26712
0.703 0.986 1.542 28210
0.709 0.993 1.545 28565
0.714 1.001 1.547 30823
0.717 1.004 1.543 26088
0.716 1.003 1.534 16205
0.718 1.006 1.530 11065
0.727 1.018 1.538 12086
0.729 1.022 1.534 16502
0.728 1.021 1.525 15303
0.731 1.024 1.521 15577
0.736 1.032 1.523 15419
0.745 1.044 1.531 11386
0.750 1.051 1.533 11696
0.753 1.055 1.529 13502
0.752 1.054 1.520 13759
0.757 1.061 1.521 9549
0.683 0.957 1.381 8666
0.752 1.054 1.497 11233
0.755 1.057 1.493 10630
0.786 1.101 1.540 14819
0.788 1.105 1.536 15379
0.791 1.108 1.532 11245
0.790 1.107 1.522 17974
0.792 1.110 1.518 14738
0.798 1.118 1.519 10853
0.803 1.126 1.521 17969
0.809 1.134 1.522 24845
0.808 1.132 1.513 32837
0.807 1.131 1.503 39440
0.813 1.139 1.504 45834
0.815 1.142 1.500 44203
0.814 1.140 1.491 31852
0.816 1.144 1.486 18357
0.818 1.147 1.482 10134
0.824 1.155 1.483 10806
0.826 1.158 1.479 15671
0.828 1.161 1.475 15308
0.827 1.159 1.465 14193
0.830 1.162 1.461 14665
0.832 1.166 1.457 10736
0.851 1.193 1.479 6504
0.850 1.191 1.470 8039
0.849 1.189 1.460 11647
0.854 1.197 1.461 13244
0.864 1.210 1.467 12796
0.866 1.213 1.462 14058
0.868 1.216 1.458 13673
0.870 1.219 1.454 14190
0.872 1.223 1.449 15270
0.878 1.231 1.450 14425
0.877 1.229 1.440 14295
0.879 1.232 1.436 13103
0.881 1.235 1.431 9673
0.883 1.238 1.427 7238
0.886 1.241 1.422 8365
0.884 1.239 1.413 9063
0.961 1.347 1.513 8177
0.967 1.355 1.513 11186
0.973 1.363 1.513 12148
0.979 1.372 1.513 10135
0.988 1.385 1.518 8483
0.998 1.398 1.523 11771
1.000 1.402 1.518 11391
0.995 1.395 1.503 9780
0.998 1.398 1.498 12394
1.004 1.406 1.498 12252
1.017 1.425 1.507 12531
1.019 1.428 1.502 13714
1.029 1.441 1.506 8933
1.031 1.445 1.501 5984
1.033 1.448 1.496 8737
1.036 1.451 1.490 10019
1.034 1.449 1.480 9198
1.044 1.463 1.485 6730
1.068 1.497 1.507 8181
1.071 1.500 1.502 8776
1.080 1.514 1.506 8853
1.090 1.528 1.509 10564
1.096 1.536 1.508 9429
1.099 1.539 1.503 8900
1.105 1.548 1.502 9568
1.103 1.546 1.492 8684
1.105 1.549 1.486 5864
1.134 1.589 1.512 5824
1.121 1.571 1.488 11292
1.124 1.574 1.483 17542
1.130 1.583 1.481 18946
1.143 1.602 1.489 19324
1.161 1.627 1.501 22732
1.175 1.646 1.508 25524
1.181 1.655 1.506 25751
1.187 1.663 1.505 21256
1.193 1.672 1.503 13212
1.203 1.686 1.505 13800
1.205 1.689 1.499 17477
1.208 1.692 1.493 14840
1.218 1.706 1.495 10390
1.224 1.715 1.494 8885
1.230 1.724 1.492 7071
1.217 1.705 1.468 5244
1.219 1.708 1.462 5447
1.225 1.717 1.460 5006
1.255 1.758 1.483 7568
1.257 1.761 1.477 8891
1.263 1.770 1.474 8978
1.265 1.773 1.468 8935
1.268 1.776 1.461 8718
1.321 1.852 1.507 7499
1.320 1.849 1.497 8038
1.302 1.825 1.470 7657
1.332 1.867 1.491 6206
1.338 1.875 1.488 6215
1.341 1.879 1.482 5913
1.347 1.887 1.479 5670
1.329 1.863 1.452 5782
1.359 1.905 1.473 6995
1.366 1.914 1.470 8578
1.364 1.911 1.459 7927
1.362 1.909 1.448 7497
1.364 1.912 1.441 5407
1.411 1.977 1.476 5450
1.397 1.958 1.454 4527
1.444 2.023 1.488 5017
1.446 2.026 1.480 5899
1.448 2.030 1.473 7774
1.451 2.033 1.466 9649
1.457 2.042 1.462 9355
1.459 2.045 1.454 9068
1.461 2.048 1.447 6666
1.468 2.057 1.443 4397
1.470 2.060 1.436 3442
1.505 2.109 1.457 3228
1.503 2.106 1.446 3212
1.497 2.098 1.431 3499
1.545 2.164 1.462 2751
1.551 2.173 1.457 3761
1.553 2.176 1.449 4401
1.559 2.185 1.445 5016
1.562 2.188 1.437 5016
1.568 2.197 1.432 5363
1.578 2.212 1.431 6012
1.593 2.232 1.433 5808
1.600 2.241 1.429 6186
1.602 2.244 1.420 6439
1.600 2.242 1.409 6817
1.606 2.250 1.404 5889
1.625 2.277 1.409 5654
1.627 2.280 1.401 5654
1.625 2.277 1.389 4749
1.678 2.351 1.419 4636
1.680 2.354 1.411 2318
0.837 1.173 0.777 280
0.364 0.507 1.594 11038
0.367 0.511 1.592 14932
0.369 0.514 1.590 18826
0.374 0.520 1.596 18041
0.378 0.526 1.601 17824
0.378 0.527 1.592 22001
0.381 0.531 1.590 26648
0.383 0.534 1.588 26648
0.386 0.537 1.586 32625
0.388 0.541 1.584 38601
0.391 0.544 1.582 40299
0.395 0.550 1.587 43386
0.398 0.554 1.585 38942
0.400 0.557 1.583 34497
0.403 0.561 1.581 27104
0.405 0.564 1.579 19685
0.407 0.567 1.577 14856
0.410 0.571 1.575 10053
0.414 0.577 1.579 8307
0.425 0.592 1.605 7982
0.426 0.593 1.596 10234
0.426 0.593 1.587 11875
0.430 0.600 1.592 10679
0.433 0.603 1.590 8602
0.433 0.603 1.580 7689
0.436 0.607 1.578 7255
0.440 0.613 1.583 7500
0.443 0.617 1.581 7865
0.443 0.617 1.571 10328
0.445 0.620 1.569 13065
0.448 0.624 1.567 17255
0.450 0.627 1.564 21445
0.453 0.630 1.562 23273
0.457 0.637 1.567 25255
0.457 0.637 1.557 22838
0.462 0.644 1.562 17135
0.465 0.647 1.560 14057
0.469 0.654 1.564 10841
0.476 0.664 1.575 7987
0.483 0.673 1.586 8887
0.486 0.677 1.584 10471
0.488 0.680 1.581 12369
0.488 0.680 1.572 18339
0.488 0.680 1.563 23339
0.491 0.684 1.560 26089
0.493 0.687 1.558 32333
0.496 0.690 1.555 35825
0.500 0.697 1.559 35937
0.505 0.704 1.564 30874
0.508 0.707 1.561 24009
0.510 0.711 1.558 20583
0.520 0.724 1.576 17407
0.525 0.731 1.580 17791
0.527 0.735 1.577 18854
0.530 0.738 1.574 23221
0.532 0.741 1.572 26739
0.537 0.748 1.575 26966
0.540 0.752 1.573 22257
0.545 0.759 1.577 15558
0.550 0.766 1.580 21192
0.552 0.769 1.577 33548
0.557 0.776 1.581 39959
0.560 0.779 1.578 40788
0.562 0.783 1.575 35148
0.562 0.783 1.566 20751
0.562 0.782 1.557 14291
0.567 0.789 1.560 16278
0.569 0.793 1.557 16081
0.574 0.800 1.561 12361
0.574 0.799 1.552 12706
0.576 0.803 1.549 22697
0.576 0.802 1.539 24971
0.581 0.809 1.543 18793
0.589 0.820 1.552 17259
0.594 0.827 1.556 16869
0.599 0.834 1.559 15014
0.596 0.830 1.543 16911
0.598 0.833 1.540 17527
0.606 0.844 1.550 14950
0.609 0.848 1.547 17608
0.611 0.851 1.544 16510
0.613 0.854 1.541 13062
0.613 0.854 1.531 8845
0.601 0.837 1.497 6272
0.632 0.880 1.556 6897
0.637 0.887 1.559 9276
0.642 0.895 1.562 12754
0.645 0.898 1.559 13280
0.644 0.897 1.549 11423
0.650 0.905 1.552 10494
0.655 0.912 1.555 12284
0.654 0.911 1.545 17025
0.657 0.915 1.542 18479
0.662 0.922 1.545 14962
0.667 0.930 1.547 13007
0.673 0.937 1.550 13903
0.675 0.940 1.547 12224
0.677 0.944 1.543 12459
0.683 0.951 1.546 13355
0.685 0.954 1.542 13227
0.688 0.958 1.539 15356
0.693 0.965 1.541 13012
0.695 0.969 1.538 15586
0.701 0.976 1.540 22181
0.706 0.984 1.542 25710
0.712 0.991 1.545 26931
0.717 0.999 1.547 28596
0.716 0.998 1.538 24351
0.719 1.001 1.534 14439
0.721 1.004 1.530 9458
0.733 1.021 1.544 10262
0.729 1.015 1.529 13894
0.728 1.014 1.519 13842
0.734 1.022 1.521 14595
0.739 1.030 1.523 15303
0.748 1.042 1.531 11895
0.753 1.049 1.533 14203
0.756 1.053 1.529 15293
0.758 1.056 1.525 14502
0.760 1.059 1.521 11055
0.689 0.959 1.387 9207
0.691 0.962 1.383 11051
0.758 1.055 1.493 11236
0.786 1.095 1.534 13786
0.788 1.098 1.530 12506
0.699 0.974 1.369 7550
0.796 1.109 1.527 13569
0.795 1.108 1.518 14363
0.798 1.111 1.514 17877
0.803 1.119 1.515 25043
0.809 1.127 1.517 28594
0.811 1.130 1.513 33147
0.810 1.128 1.503 39867
0.816 1.136 1.504 47022
0.818 1.140 1.500 47704
0.817 1.138 1.491 38458
0.816 1.137 1.481 23148
0.818 1.140 1.477 12106
0.824 1.148 1.478 12235
0.829 1.155 1.479 15995
0.828 1.154 1.470 15487
0.831 1.157 1.465 16014
0.833 1.160 1.461 15435
0.838 1.168 1.462 10600
0.851 1.186 1.474 5848
0.850 1.184 1.464 7857
0.852 1.187 1.460 13036
0.854 1.190 1.456 13714
0.863 1.203 1.462 12133
0.866 1.206 1.457 13633
0.868 1.209 1.453 14050
0.874 1.217 1.454 14763
0.876 1.220 1.449 15186
0.882 1.228 1.450 13807
0.877 1.221 1.435 13014
0.879 1.224 1.431 11080
0.885 1.232 1.431 8214
0.887 1.235 1.427 6713
0.889 1.238 1.422 8777
0.888 1.236 1.413 10161
0.890 1.239 1.408 7631
0.974 1.357 1.518 6732
0.980 1.366 1.518 8109
0.983 1.369 1.513 7903
0.992 1.382 1.518 6874
1.002 1.396 1.523 10293
1.001 1.394 1.513 11141
0.996 1.387 1.498 11087
1.002 1.395 1.498 14225
1.004 1.398 1.493 14387
1.017 1.417 1.502 12148
1.027 1.430 1.507 11978
1.033 1.439 1.506 7982
1.035 1.442 1.501 5589
1.037 1.445 1.496 8883
1.040 1.448 1.490 10705
1.038 1.446 1.480 10436
1.044 1.455 1.480 7597
1.076 1.499 1.512 7767
1.075 1.497 1.502 8535
1.081 1.506 1.501 9063
1.094 1.525 1.509 10860
1.101 1.533 1.508 10026
1.107 1.541 1.507 9979
1.109 1.545 1.502 10037
1.111 1.548 1.496 8488
1.110 1.546 1.486 5888
1.139 1.586 1.512 6552
1.129 1.573 1.493 14083
1.132 1.577 1.487 22518
1.134 1.580 1.481 25577
1.144 1.594 1.484 25341
1.158 1.613 1.492 24813
1.179 1.643 1.508 24764
1.182 1.646 1.502 24208
1.192 1.660 1.505 20111
1.198 1.668 1.503 13028
1.208 1.682 1.505 13691
1.210 1.686 1.499 17013
1.216 1.694 1.497 14795
1.226 1.708 1.500 11452
1.229 1.712 1.494 10071
1.235 1.720 1.492 7760
1.225 1.707 1.473 4618
1.224 1.705 1.462 4685
1.238 1.724 1.469 5073
1.260 1.755 1.483 8193
1.262 1.758 1.477 9470
1.264 1.761 1.470 9493
1.270 1.770 1.468 10048
1.273 1.773 1.461 10350
1.275 1.776 1.455 8013
1.325 1.846 1.497 7977
1.307 1.821 1.470 7720
1.341 1.869 1.495 6619
1.344 1.872 1.488 6655
1.346 1.875 1.482 6163
1.352 1.884 1.479 5868
1.359 1.892 1.476 6054
1.369 1.907 1.477 7542
1.375 1.916 1.474 9363
1.369 1.907 1.459 8520
1.367 1.905 1.448 7979
1.414 1.970 1.483 5745
1.417 1.973 1.476 5616
1.415 1.971 1.465 4405
1.445 2.014 1.484 5135
1.448 2.017 1.477 6152
1.454 2.025 1.473 7937
1.456 2.029 1.466 9741
1.459 2.032 1.458 9310
1.465 2.041 1.454 8915
1.467 2.044 1.447 6734
1.473 2.052 1.443 4609
1.467 2.044 1.429 4181
1.465 2.041 1.418 3886
1.472 2.050 1.414 3531
1.499 2.088 1.427 3717
1.551 2.160 1.462 2918
1.557 2.169 1.457 3974
1.559 2.172 1.449 4493
1.561 2.175 1.442 5012
1.564 2.178 1.434 5012
1.574 2.193 1.432 5320
1.580 2.202 1.428 6015
1.599 2.228 1.433 5820
1.606 2.237 1.429 6216
1.604 2.234 1.417 6378
1.606 2.237 1.409 6656
1.608 2.240 1.401 5542
1.631 2.272 1.409 5206
1.633 2.275 1.401 5206
1.631 2.272 1.389 4399
1.684 2.346 1.419 4598
1.686 2.349 1.411 2299
1.523 2.122 1.280 263
0.365 0.507 1.594 10716
0.368 0.510 1.592 15098
0.370 0.513 1.590 19480
0.375 0.520 1.596 19163
0.381 0.528 1.608 19766
0.382 0.529 1.599 23271
0.382 0.530 1.590 27170
0.385 0.533 1.588 27170
0.387 0.537 1.586 32796
0.389 0.540 1.584 38422
0.392 0.543 1.582 39890
0.396 0.550 1.587 42817
0.399 0.553 1.585 38418
0.401 0.556 1.583 34019
0.404 0.560 1.581 26955
0.406 0.563 1.579 19894
0.409 0.567 1.577 15430
0.411 0.570 1.575 10961
0.416 0.576 1.579 8661
0.427 0.591 1.605 7786
0.427 0.592 1.596 9995
0.427 0.592 1.587 11749
0.432 0.599 1.592 10790
0.434 0.602 1.590 9107
0.437 0.606 1.587 7363
0.439 0.609 1.585 6072
0.442 0.612 1.583 6414
0.446 0.619 1.588 6857
0.444 0.616 1.571 9705
0.445 0.616 1.562 12916
0.447 0.620 1.560 17343
0.452 0.626 1.564 21777
0.454 0.629 1.562 23892
0.459 0.636 1.567 26015
0.459 0.636 1.557 23279
0.461 0.640 1.555 16446
0.466 0.646 1.560 12389
0.471 0.653 1.564 9119
0.483 0.669 1.589 6646
0.485 0.672 1.586 9060
0.487 0.676 1.584 11534
0.490 0.679 1.581 13573
0.490 0.679 1.572 19972
0.490 0.679 1.563 25099
0.495 0.686 1.567 28079
0.497 0.689 1.565 34576
0.497 0.689 1.555 38060
0.502 0.696 1.559 38284
0.507 0.703 1.564 32848
0.509 0.706 1.561 25641
0.512 0.710 1.558 20797
0.522 0.723 1.576 15807
0.527 0.730 1.580 16129
0.529 0.733 1.577 18247
0.531 0.737 1.574 24077
0.534 0.740 1.572 27974
0.539 0.747 1.575 28323
0.541 0.750 1.573 23728
0.536 0.743 1.550 16821
0.551 0.764 1.580 21152
0.554 0.768 1.577 31706
0.559 0.775 1.581 38277
0.561 0.778 1.578 40005
0.564 0.782 1.575 35463
0.563 0.781 1.566 22095
0.563 0.781 1.557 13766
0.568 0.788 1.560 14569
0.571 0.791 1.557 14551
0.573 0.795 1.554 11412
0.576 0.798 1.552 12691
0.578 0.801 1.549 22816
0.580 0.805 1.546 25301
0.585 0.812 1.549 18391
0.591 0.819 1.552 15185
0.596 0.826 1.556 15364
0.601 0.833 1.559 15663
0.601 0.833 1.550 18748
0.600 0.832 1.540 19096
0.608 0.843 1.550 15745
0.610 0.846 1.547 18479
0.613 0.850 1.544 16550
0.612 0.849 1.534 12077
0.615 0.852 1.531 8421
0.600 0.832 1.491 6696
0.597 0.827 1.475 8085
0.639 0.886 1.559 10104
0.641 0.889 1.556 13911
0.647 0.897 1.559 13777
0.646 0.896 1.549 10414
0.652 0.903 1.552 9747
0.657 0.911 1.555 13375
0.659 0.914 1.552 19141
0.659 0.913 1.542 19783
0.664 0.921 1.545 15618
0.672 0.932 1.554 12928
0.678 0.940 1.556 13075
0.680 0.943 1.553 11806
0.683 0.946 1.549 13493
0.688 0.954 1.552 15606
0.690 0.957 1.548 15294
0.690 0.956 1.539 16544
0.695 0.964 1.541 13117
0.694 0.963 1.532 13018
0.700 0.970 1.534 17759
0.708 0.982 1.542 23090
0.714 0.990 1.545 24276
0.719 0.997 1.547 24960
0.719 0.996 1.538 21029
0.721 1.000 1.534 11470
0.655 0.908 1.401 7808
0.735 1.019 1.544 8372
0.728 1.009 1.523 11572
0.730 1.013 1.519 12039
0.736 1.020 1.521 12892
0.741 1.028 1.523 14284
0.750 1.040 1.531 12330
0.756 1.048 1.533 16200
0.758 1.051 1.529 17253
0.760 1.054 1.525 15721
0.763 1.057 1.521 13255
0.771 1.070 1.529 10993
0.764 1.059 1.508 13609
0.760 1.054 1.493 13680
0.788 1.093 1.534 11638
0.781 1.083 1.513 11758
0.777 1.077 1.498 9176
0.799 1.107 1.527 9960
0.798 1.106 1.518 14337
0.797 1.105 1.508 23785
0.806 1.117 1.515 30475
0.811 1.125 1.517 33091
0.814 1.128 1.513 34113
0.813 1.127 1.503 38844
0.818 1.135 1.504 46706
0.821 1.138 1.500 49315
0.820 1.136 1.491 43248
0.818 1.135 1.481 27266
0.821 1.138 1.477 14098
0.826 1.146 1.478 14392
0.829 1.149 1.474 16473
0.831 1.152 1.470 15303
0.833 1.155 1.465 17196
0.839 1.163 1.467 15546
0.845 1.171 1.468 10537
0.847 1.174 1.463 7368
0.849 1.177 1.459 9433
0.851 1.180 1.455 14484
0.857 1.188 1.456 13735
0.863 1.196 1.456 12104
0.861 1.194 1.447 14934
0.867 1.202 1.448 14913
0.873 1.210 1.448 15323
0.875 1.213 1.444 14659
0.881 1.221 1.445 12797
0.879 1.219 1.435 11294
0.882 1.222 1.431 8648
0.948 1.314 1.517 8138
0.957 1.327 1.523 7169
0.967 1.341 1.528 8850
0.890 1.235 1.413 10694
0.893 1.237 1.408 8236
0.898 1.245 1.409 4671
0.987 1.369 1.523 4769
0.986 1.367 1.513 6010
0.992 1.375 1.513 5808
1.005 1.393 1.523 8913
1.004 1.392 1.513 11060
0.999 1.385 1.498 12302
1.005 1.393 1.498 16159
1.011 1.401 1.498 16887
1.020 1.415 1.502 13106
1.034 1.433 1.511 11513
1.036 1.436 1.506 7433
1.035 1.434 1.496 5896
1.041 1.443 1.496 10494
1.043 1.446 1.490 12787
1.041 1.444 1.480 12787
1.040 1.442 1.471 9966
1.083 1.502 1.517 7431
1.082 1.500 1.506 8269
1.084 1.503 1.501 9421
1.098 1.522 1.509 11263
1.104 1.531 1.508 10480
1.110 1.539 1.507 10646
1.112 1.542 1.502 10088
1.115 1.545 1.496 8059
1.117 1.549 1.491 6598
1.138 1.578 1.507 8929
1.133 1.571 1.493 18114
1.135 1.574 1.487 28958
1.138 1.577 1.481 33438
1.144 1.586 1.480 33156
1.157 1.605 1.487 29407
1.160 1.608 1.481 23951
1.158 1.606 1.471 24781
1.157 1.604 1.461 21711
1.155 1.601 1.451 15154
1.215 1.685 1.510 13576
1.218 1.688 1.504 16376
1.220 1.692 1.497 14906
1.230 1.706 1.500 12602
1.236 1.714 1.498 11167
1.243 1.723 1.496 8508
1.245 1.726 1.489 5068
1.239 1.718 1.475 4367
1.249 1.732 1.477 5802
1.260 1.746 1.479 9101
1.266 1.755 1.477 10229
1.268 1.758 1.470 10246
1.278 1.772 1.472 11312
1.281 1.775 1.465 12180
1.287 1.784 1.463 9298
1.329 1.843 1.497 8234
1.355 1.879 1.514 8167
1.354 1.877 1.503 7429
1.344 1.863 1.484 7314
1.350 1.872 1.482 6475
1.364 1.892 1.487 6151
1.363 1.889 1.476 6510
1.377 1.909 1.481 8196
1.383 1.918 1.477 10283
1.382 1.916 1.467 9204
1.376 1.907 1.452 8402
1.419 1.967 1.483 6298
1.421 1.970 1.476 5738
1.419 1.968 1.465 4294
1.450 2.010 1.484 5187
1.452 2.013 1.477 6250
1.459 2.022 1.473 7888
1.461 2.025 1.466 9591
1.463 2.029 1.458 9112
1.465 2.032 1.451 8634
1.472 2.040 1.447 6808
1.478 2.049 1.443 5280
1.472 2.041 1.429 5072
1.474 2.044 1.421 5177
1.476 2.047 1.414 4491
1.495 2.073 1.420 3921
1.560 2.162 1.465 3164
1.562 2.165 1.457 4266
1.564 2.169 1.449 4723
1.566 2.172 1.442 5208
1.568 2.175 1.434 5208
1.575 2.183 1.429 5402
1.585 2.198 1.428 5961
1.604 2.224 1.433 5539
1.611 2.233 1.429 5897
1.609 2.230 1.417 6021
1.611 2.233 1.409 6246
1.613 2.236 1.401 5091
1.641 2.275 1.412 4761
1.643 2.278 1.404 4761
1.636 2.269 1.389 4050
1.694 2.348 1.422 4446
1.696 2.351 1.414 2223
1.528 2.118 1.280 288
0.368 0.508 1.601 10888
0.371 0.512 1.600 15056
0.373 0.515 1.598 19224
0.378 0.521 1.603 19370
0.382 0.527 1.608 20718
0.383 0.528 1.599 23920
0.385 0.532 1.597 27499
0.388 0.535 1.595 27530
0.388 0.536 1.586 32458
0.391 0.539 1.584 37438
0.393 0.542 1.582 38542
0.398 0.549 1.587 41128
0.400 0.552 1.585 36891
0.403 0.555 1.583 32653
0.405 0.559 1.581 26025
0.408 0.562 1.579 19406
0.410 0.566 1.577 15173
0.412 0.569 1.575 10931
0.417 0.575 1.579 8663
0.428 0.590 1.605 7847
0.428 0.591 1.596 10046
0.429 0.591 1.587 11863
0.433 0.598 1.592 11117
0.436 0.601 1.590 9685
0.438 0.605 1.587 7125
0.445 0.614 1.599 5230
0.448 0.617 1.597 5375
0.448 0.618 1.588 5397
0.444 0.612 1.564 8653
0.446 0.615 1.562 12322
0.448 0.619 1.560 17052
0.451 0.622 1.558 21782
0.456 0.628 1.562 24218
0.458 0.632 1.560 26711
0.460 0.635 1.557 23959
0.463 0.638 1.555 16578
0.465 0.642 1.553 11847
0.470 0.648 1.557 8725
0.484 0.668 1.589 6007
0.487 0.671 1.586 9188
0.489 0.675 1.584 12387
0.492 0.678 1.581 14785
0.492 0.678 1.572 21799
0.492 0.678 1.563 27158
0.496 0.685 1.567 30288
0.499 0.688 1.565 36500
0.499 0.688 1.555 39747
0.504 0.695 1.559 39914
0.509 0.702 1.564 34037
0.511 0.705 1.561 26615
0.513 0.708 1.558 20927
0.521 0.719 1.569 14701
0.528 0.729 1.580 14734
0.531 0.732 1.577 17364
0.533 0.736 1.574 24190
0.536 0.739 1.572 28511
0.541 0.746 1.575 29189
0.543 0.749 1.573 25007
0.538 0.742 1.550 18185
0.553 0.763 1.580 20776
0.556 0.766 1.577 29112
0.561 0.773 1.581 35847
0.563 0.777 1.578 38531
0.566 0.780 1.575 35076
0.565 0.780 1.566 23010
0.565 0.780 1.557 13520
0.570 0.787 1.560 13389
0.573 0.790 1.557 13319
0.575 0.793 1.554 10854
0.577 0.797 1.552 12355
0.580 0.800 1.549 21692
0.582 0.803 1.546 24730
0.587 0.810 1.549 18301
0.593 0.817 1.552 14138
0.598 0.825 1.556 14844
0.603 0.832 1.559 16133
0.603 0.831 1.550 19310
0.602 0.831 1.540 19496
0.610 0.842 1.550 15632
0.613 0.845 1.547 18249
0.615 0.848 1.544 16366
0.614 0.848 1.534 11759
0.617 0.851 1.531 8520
0.599 0.827 1.484 7362
0.599 0.826 1.475 9845
0.638 0.881 1.553 10943
0.644 0.888 1.556 14758
0.649 0.895 1.559 13874
0.646 0.890 1.543 9438
0.657 0.906 1.558 8655
0.659 0.909 1.555 12889
0.661 0.912 1.552 18501
0.664 0.916 1.548 18017
0.666 0.919 1.545 13532
0.672 0.927 1.547 11377
0.680 0.938 1.556 12395
0.682 0.941 1.553 12265
0.685 0.945 1.549 15485
0.690 0.952 1.552 18456
0.693 0.955 1.548 16769
0.692 0.955 1.539 16272
0.694 0.958 1.535 12913
0.697 0.961 1.532 11650
0.702 0.969 1.534 14586
0.711 0.980 1.542 20242
0.716 0.988 1.545 20718
0.722 0.996 1.547 20360
0.721 0.995 1.538 16814
0.720 0.994 1.528 7698
0.657 0.906 1.401 7598
0.659 0.909 1.398 8040
0.727 1.003 1.517 10544
0.730 1.006 1.513 11458
0.735 1.014 1.515 11904
0.741 1.022 1.517 12787
0.756 1.043 1.537 11927
0.758 1.046 1.533 17263
0.760 1.049 1.529 18327
0.763 1.052 1.525 16817
0.765 1.056 1.521 15843
0.771 1.063 1.523 13524
0.767 1.058 1.508 18100
0.766 1.056 1.498 19427
0.768 1.059 1.495 13922
0.780 1.076 1.507 13546
0.779 1.075 1.498 12045
0.778 1.074 1.488 9647
0.797 1.099 1.512 15087
0.799 1.103 1.508 28713
0.805 1.110 1.510 33607
0.814 1.123 1.517 37657
0.813 1.122 1.507 36052
0.819 1.129 1.508 37201
0.821 1.133 1.504 45376
0.823 1.136 1.500 49150
0.822 1.134 1.491 45669
0.821 1.133 1.481 30093
0.823 1.136 1.477 15706
0.826 1.139 1.473 16571
0.828 1.142 1.468 17295
0.830 1.145 1.464 15065
0.836 1.153 1.465 17714
0.842 1.161 1.467 15126
0.847 1.169 1.468 10404
0.850 1.172 1.463 8878
0.852 1.175 1.459 11075
0.854 1.178 1.455 15305
0.856 1.181 1.450 13307
0.862 1.189 1.451 12142
0.864 1.192 1.447 16477
0.870 1.200 1.448 15561
0.876 1.208 1.448 15353
0.878 1.211 1.444 13989
0.880 1.214 1.440 11550
0.882 1.217 1.435 9404
0.949 1.309 1.522 6833
0.955 1.317 1.523 8902
0.964 1.330 1.528 9378
0.970 1.338 1.528 10855
0.969 1.336 1.518 11744
0.971 1.340 1.513 9765
0.974 1.343 1.508 6361
0.979 1.351 1.508 4781
0.985 1.359 1.508 5623
0.991 1.368 1.508 5518
1.005 1.386 1.518 7701
1.003 1.384 1.508 10831
1.002 1.382 1.498 12998
1.008 1.390 1.498 17698
1.014 1.399 1.498 18923
1.027 1.417 1.507 14961
1.037 1.431 1.511 12419
1.039 1.434 1.506 7464
1.038 1.432 1.496 7080
1.044 1.440 1.496 13142
1.046 1.443 1.490 15631
1.045 1.441 1.480 15701
1.043 1.439 1.471 13176
1.049 1.448 1.470 7949
1.082 1.492 1.502 7957
1.088 1.501 1.501 9829
1.101 1.519 1.509 11756
1.108 1.528 1.508 10836
1.114 1.536 1.507 10848
1.120 1.545 1.506 9882
1.122 1.548 1.501 7656
1.128 1.556 1.500 7744
1.138 1.570 1.503 11930
1.137 1.568 1.493 22609
1.139 1.571 1.487 35588
1.141 1.574 1.481 41116
1.147 1.583 1.480 41149
1.157 1.597 1.483 35365
1.156 1.595 1.473 29732
1.158 1.598 1.467 31883
1.160 1.601 1.461 28424
1.159 1.598 1.451 20041
1.161 1.602 1.445 13163
1.222 1.685 1.504 15664
1.228 1.694 1.502 15155
1.234 1.703 1.500 13534
1.240 1.711 1.498 12014
1.247 1.720 1.496 9382
1.253 1.728 1.494 5966
1.247 1.721 1.479 4967
1.258 1.735 1.481 6795
1.264 1.743 1.479 9970
1.266 1.747 1.472 10987
1.272 1.755 1.470 10925
1.283 1.769 1.472 12517
1.289 1.778 1.470 13869
1.291 1.781 1.463 10771
1.325 1.828 1.489 8675
1.360 1.876 1.514 8984
1.358 1.873 1.503 8221
1.348 1.860 1.484 7984
1.355 1.869 1.482 6788
1.373 1.894 1.490 6578
1.371 1.892 1.480 7115
1.382 1.906 1.481 8840
1.388 1.915 1.477 11034
1.390 1.918 1.470 9804
1.384 1.910 1.456 8678
1.419 1.958 1.479 6639
1.430 1.972 1.480 5724
1.428 1.970 1.469 4161
1.455 2.007 1.484 5097
1.457 2.010 1.477 6100
1.463 2.019 1.473 7583
1.466 2.022 1.466 9201
1.468 2.025 1.458 8712
1.470 2.028 1.451 8223
1.477 2.037 1.447 6860
1.487 2.051 1.447 6226
1.481 2.043 1.432 5952
1.479 2.040 1.421 6344
1.481 2.043 1.414 5309
1.487 2.052 1.410 4276
1.565 2.159 1.465 3383
1.567 2.162 1.457 4548
1.569 2.165 1.449 5019
1.571 2.168 1.442 5533
1.574 2.171 1.434 5533
1.580 2.180 1.429 5611
1.586 2.189 1.425 5944
1.597 2.203 1.423 5154
1.616 2.229 1.429 5442
1.614 2.227 1.417 5597
1.612 2.224 1.406 5959
1.614 2.227 1.398 4718
1.646 2.271 1.412 4301
1.648 2.274 1.404 4301
1.642 2.265 1.389 3712
1.699 2.344 1.422 4237
1.701 2.347 1.414 2118
1.533 2.115 1.280 267
0.369 0.508 1.601 11680
0.372 0.511 1.600 15472
0.374 0.515 1.598 19265
0.379 0.521 1.603 20020
0.383 0.527 1.608 22016
0.384 0.528 1.599 24722
0.386 0.531 1.597 28004
0.389 0.534 1.595 28047
0.389 0.535 1.586 31877
0.392 0.538 1.584 36091
0.396 0.545 1.589 36890
0.399 0.548 1.587 39181
0.401 0.551 1.585 35284
0.403 0.555 1.583 31388
0.406 0.558 1.581 25350
0.408 0.562 1.579 19320
0.411 0.565 1.577 15298
0.413 0.568 1.575 11269
0.418 0.575 1.579 8865
0.429 0.590 1.605 7725
0.429 0.590 1.596 10015
0.429 0.591 1.587 12039
0.434 0.597 1.592 11489
0.437 0.600 1.590 10343
0.439 0.604 1.587 7452
0.444 0.610 1.592 5213
0.448 0.617 1.597 4825
0.442 0.608 1.567 4416
0.444 0.611 1.564 8105
0.447 0.615 1.562 11794
0.449 0.618 1.560 16798
0.452 0.621 1.558 21801
0.456 0.628 1.562 24694
0.459 0.631 1.560 27808
0.461 0.634 1.557 25006
0.464 0.638 1.555 17022
0.466 0.641 1.553 11749
0.469 0.644 1.550 8633
0.476 0.654 1.562 6011
0.488 0.671 1.586 9191
0.490 0.674 1.584 12967
0.492 0.677 1.581 15649
0.493 0.677 1.572 23229
0.495 0.681 1.570 28823
0.497 0.684 1.567 32008
0.500 0.687 1.565 37788
0.500 0.687 1.555 40745
0.505 0.694 1.559 40929
0.510 0.701 1.564 34957
0.512 0.704 1.561 27573
0.512 0.704 1.552 20864
0.522 0.718 1.569 13281
0.527 0.725 1.573 13104
0.529 0.728 1.570 16304
0.534 0.735 1.574 24005
0.537 0.738 1.572 28635
0.542 0.745 1.575 29488
0.544 0.748 1.573 25656
0.539 0.741 1.550 19148
0.554 0.762 1.580 20339
0.557 0.766 1.577 26672
0.562 0.773 1.581 33639
0.564 0.776 1.578 37381
0.567 0.779 1.575 34885
0.566 0.779 1.566 23959
0.569 0.782 1.563 13297
0.571 0.786 1.560 12047
0.574 0.789 1.557 11824
0.571 0.785 1.542 10715
0.579 0.796 1.552 12290
0.584 0.803 1.555 20660
0.586 0.806 1.552 23938
0.589 0.809 1.549 18645
0.594 0.817 1.552 14167
0.599 0.824 1.556 15038
0.604 0.831 1.559 16906
0.604 0.830 1.550 19766
0.603 0.830 1.540 19379
0.614 0.845 1.556 14971
0.614 0.844 1.547 17104
0.616 0.847 1.544 15574
0.619 0.851 1.541 11473
0.621 0.854 1.537 8702
0.598 0.822 1.478 8523
0.597 0.821 1.469 12047
0.599 0.824 1.466 11882
0.645 0.887 1.556 15070
0.650 0.894 1.559 13306
0.644 0.886 1.537 8831
0.658 0.905 1.558 8314
0.660 0.908 1.555 12596
0.663 0.912 1.552 17278
0.665 0.915 1.548 15546
0.668 0.918 1.545 11057
0.676 0.930 1.554 9730
0.681 0.937 1.556 11524
0.687 0.945 1.559 12285
0.686 0.944 1.549 16019
0.692 0.951 1.552 19495
0.694 0.954 1.548 17410
0.693 0.954 1.539 15602
0.696 0.957 1.535 12418
0.695 0.956 1.526 11682
0.651 0.896 1.433 14397
0.712 0.979 1.542 18566
0.715 0.983 1.539 17714
0.720 0.990 1.541 15555
0.722 0.993 1.538 12014
0.722 0.992 1.528 5337
0.658 0.905 1.401 7107
0.660 0.908 1.398 7583
0.729 1.002 1.517 9899
0.731 1.005 1.513 11067
0.740 1.017 1.521 11560
0.745 1.025 1.523 11809
0.757 1.041 1.537 11841
0.760 1.045 1.533 17645
0.762 1.048 1.529 18644
0.764 1.051 1.525 17849
0.767 1.054 1.521 18135
0.772 1.062 1.523 15747
0.768 1.056 1.508 21205
0.767 1.055 1.498 22538
0.773 1.063 1.500 14882
0.782 1.075 1.507 13632
0.784 1.078 1.504 13975
0.780 1.072 1.488 11103
0.799 1.098 1.512 16209
0.801 1.102 1.508 31580
0.807 1.109 1.510 34774
0.816 1.122 1.517 41174
0.818 1.125 1.513 37778
0.820 1.128 1.508 34916
0.823 1.131 1.504 42604
0.825 1.135 1.500 47370
0.824 1.133 1.491 46490
0.823 1.132 1.481 31599
0.825 1.135 1.477 16595
0.827 1.138 1.473 18206
0.830 1.141 1.468 17804
0.832 1.144 1.464 14382
0.834 1.147 1.460 17323
0.843 1.160 1.467 14247
0.849 1.168 1.468 10388
0.851 1.171 1.463 10010
0.854 1.174 1.459 12021
0.852 1.172 1.449 15203
0.855 1.175 1.445 12423
0.860 1.183 1.446 11566
0.866 1.191 1.447 17173
0.872 1.199 1.448 15836
0.878 1.207 1.448 14851
0.880 1.210 1.444 12997
0.882 1.213 1.440 10112
0.884 1.216 1.435 7420
0.954 1.312 1.527 6495
0.960 1.320 1.528 9714
0.966 1.329 1.528 11403
0.972 1.337 1.528 12471
0.971 1.335 1.518 12758
0.973 1.338 1.513 11569
0.975 1.342 1.508 9221
0.981 1.350 1.508 6990
0.984 1.353 1.503 6697
0.990 1.361 1.503 5877
0.999 1.374 1.508 7041
1.002 1.378 1.503 10345
1.004 1.381 1.498 13313
1.010 1.389 1.498 18879
1.020 1.402 1.503 20515
1.033 1.421 1.512 17913
1.039 1.429 1.511 14286
1.041 1.432 1.506 8381
1.040 1.430 1.496 9184
1.046 1.439 1.496 16305
1.048 1.442 1.490 18711
1.047 1.440 1.480 18660
1.049 1.443 1.475 16397
1.052 1.446 1.470 10386
1.073 1.475 1.488 7901
1.090 1.499 1.501 10280
1.104 1.518 1.509 12409
1.110 1.526 1.508 11265
1.120 1.540 1.512 10689
1.122 1.543 1.506 9628
1.128 1.552 1.505 7931
1.131 1.555 1.500 9455
1.141 1.569 1.503 14914
1.139 1.566 1.493 27186
1.141 1.570 1.487 42216
1.147 1.578 1.486 48497
1.150 1.581 1.480 48847
1.156 1.590 1.479 41980
1.158 1.593 1.473 36352
1.160 1.596 1.467 39240
1.163 1.599 1.461 34916
1.161 1.597 1.451 24717
1.163 1.600 1.445 16448
1.224 1.684 1.504 14920
1.230 1.692 1.502 15356
1.237 1.701 1.500 14247
1.243 1.709 1.498 12581
1.249 1.718 1.496 10328
1.259 1.732 1.498 7312
1.254 1.724 1.483 5989
1.260 1.733 1.481 7914
1.266 1.742 1.479 10730
1.269 1.745 1.472 11658
1.275 1.753 1.470 11452
1.289 1.773 1.476 13450
1.291 1.776 1.470 15336
1.298 1.785 1.467 12041
1.324 1.821 1.485 9199
1.358 1.868 1.510 9767
1.357 1.866 1.499 9050
1.351 1.858 1.484 8756
1.357 1.867 1.482 7216
1.376 1.892 1.490 7261
1.378 1.895 1.484 8045
1.388 1.910 1.484 9491
1.395 1.918 1.481 11610
1.397 1.921 1.474 10168
1.395 1.919 1.463 8789
1.422 1.956 1.479 6878
1.433 1.970 1.480 5704
1.451 1.996 1.487 4079
1.454 1.999 1.480 4941
1.456 2.002 1.473 5803
1.462 2.011 1.469 7189
1.469 2.020 1.466 8628
1.471 2.023 1.458 8197
1.473 2.026 1.451 7767
1.479 2.035 1.447 7020
1.490 2.049 1.447 7245
1.488 2.047 1.436 6941
1.482 2.038 1.421 7388
1.484 2.041 1.414 5983
1.486 2.044 1.406 4578
1.568 2.156 1.465 3616
1.570 2.159 1.457 4856
1.572 2.162 1.449 5386
1.575 2.166 1.442 5970
1.577 2.169 1.434 5970
1.583 2.177 1.429 6001
1.585 2.180 1.421 6179
1.592 2.189 1.417 5120
1.569 2.157 1.389 5073
1.613 2.218 1.414 5154
1.615 2.221 1.406 5617
1.617 2.224 1.398 4411
1.649 2.268 1.412 3845
1.651 2.271 1.404 3845
1.654 2.274 1.396 3387
1.703 2.342 1.422 3910
1.705 2.345 1.414 1955
1.536 2.112 1.280 330
0.371 0.507 1.601 11951
0.373 0.510 1.600 15934
0.376 0.514 1.598 19918
0.380 0.520 1.603 20988
0.385 0.526 1.608 23386
0.387 0.529 1.606 25666
0.388 0.530 1.597 28460
0.390 0.533 1.595 28508
0.391 0.534 1.586 31514
0.393 0.537 1.584 35118
0.398 0.543 1.589 35704
0.400 0.547 1.587 37646
0.403 0.550 1.585 33975
0.405 0.554 1.583 30305
0.408 0.557 1.581 24863
0.410 0.560 1.579 19419
0.413 0.564 1.577 15653
0.415 0.567 1.575 11889
0.417 0.570 1.572 9260
0.431 0.588 1.605 7316
0.429 0.586 1.589 9913
0.431 0.589 1.587 12133
0.434 0.593 1.585 11701
0.438 0.599 1.590 10765
0.441 0.603 1.587 7944
0.446 0.609 1.592 5549
0.448 0.612 1.590 4956
0.442 0.604 1.560 4874
0.444 0.607 1.557 8400
0.446 0.610 1.555 11927
0.451 0.617 1.560 16994
0.454 0.620 1.558 22160
0.458 0.626 1.562 25519
0.461 0.630 1.560 29255
0.463 0.633 1.557 26434
0.466 0.636 1.555 17886
0.468 0.640 1.553 12079
0.470 0.643 1.550 9057
0.478 0.653 1.562 6227
0.490 0.669 1.586 9332
0.492 0.672 1.584 13186
0.497 0.679 1.588 15831
0.495 0.676 1.572 23740
0.497 0.679 1.570 29662
0.499 0.683 1.567 32904
0.502 0.686 1.565 38281
0.502 0.686 1.555 40872
0.507 0.693 1.559 41039
0.512 0.699 1.564 35159
0.512 0.699 1.554 28141
0.514 0.703 1.552 20498
0.524 0.716 1.569 11865
0.529 0.723 1.573 11620
0.531 0.726 1.570 15228
0.536 0.733 1.574 23457
0.539 0.737 1.572 28296
0.544 0.743 1.575 29352
0.546 0.747 1.573 26010
0.541 0.739 1.550 20033
0.557 0.761 1.580 19958
0.559 0.764 1.577 24678
0.564 0.771 1.581 32046
0.567 0.774 1.578 36903
0.566 0.774 1.569 35294
0.569 0.777 1.566 25157
