-0.874 2.128 1.587 6224
-0.878 2.138 1.585 9152
-0.882 2.148 1.582 11191
-0.886 2.158 1.579 11331
-0.890 2.168 1.577 9388
-0.900 2.191 1.582 10699
-0.904 2.201 1.579 14615
-0.908 2.211 1.576 17511
-0.909 2.215 1.569 17899
-0.911 2.219 1.562 16714
-0.913 2.223 1.555 12261
-0.919 2.239 1.556 7400
-0.924 2.249 1.552 6019
-0.928 2.260 1.549 4285
-0.969 2.359 1.600 4264
-0.975 2.376 1.601 4189
-0.945 2.303 1.547 4515
-0.950 2.313 1.543 5874
-0.980 2.387 1.578 7951
-0.982 2.391 1.570 10861
-0.986 2.402 1.566 9981
-0.995 2.425 1.570 9249
-0.989 2.409 1.551 9103
-0.991 2.413 1.543 8987
-0.992 2.417 1.536 8281
-0.991 2.414 1.524 7648
-0.995 2.424 1.520 5177
-1.018 2.480 1.542 3978
-1.022 2.490 1.537 7177
-1.027 2.500 1.533 10669
-1.031 2.511 1.529 11305
-1.032 2.514 1.521 12049
-1.037 2.525 1.516 8616
-1.052 2.561 1.526 6393
-1.056 2.572 1.521 6365
-1.063 2.588 1.520 6855
-1.067 2.599 1.515 7552
-1.068 2.602 1.507 8181
-1.067 2.599 1.495 7605
-1.066 2.596 1.483 7839
-1.067 2.600 1.475 8477
-1.072 2.610 1.470 6839
-1.079 2.627 1.468 5949
-1.105 2.691 1.490 6569
-1.109 2.701 1.484 8043
-1.110 2.704 1.476 6965
-1.112 2.708 1.467 5888
-1.113 2.712 1.458 5888
-1.112 2.708 1.447 4932
-1.111 2.705 1.435 4168
-1.112 2.709 1.426 2084
-0.242 0.593 1.630 18719
-0.245 0.600 1.636 17368
-0.248 0.607 1.641 16451
-0.248 0.608 1.632 17433
-0.250 0.612 1.630 18829
-0.251 0.616 1.628 19227
-0.253 0.620 1.626 19201
-0.255 0.624 1.624 18776
-0.257 0.632 1.629 13242
-0.262 0.642 1.641 8052
-0.267 0.655 1.660 7199
-0.269 0.660 1.658 6566
-0.271 0.664 1.656 6729
-0.270 0.661 1.640 6967
-0.272 0.668 1.645 7319
-0.274 0.673 1.642 7462
-0.276 0.677 1.640 6970
-0.279 0.684 1.645 10100
-0.280 0.688 1.643 13497
-0.282 0.692 1.641 14637
-0.284 0.696 1.638 15778
-0.285 0.700 1.636 16349
-0.287 0.704 1.634 16920
-0.289 0.708 1.632 17487
-0.290 0.712 1.629 18031
-0.292 0.716 1.627 16549
-0.294 0.720 1.625 12230
-0.299 0.735 1.643 8808
-0.301 0.739 1.641 6811
-0.303 0.743 1.638 5190
-0.303 0.743 1.629 4989
-0.305 0.747 1.627 5020
-0.308 0.755 1.631 6992
-0.311 0.762 1.636 9292
-0.311 0.763 1.626 11475
-0.313 0.767 1.624 13579
-0.314 0.771 1.621 12397
-0.316 0.775 1.619 8640
-0.314 0.771 1.603 6053
-0.321 0.786 1.621 5631
-0.327 0.802 1.638 5773
-0.330 0.809 1.643 7354
-0.332 0.813 1.640 11413
-0.333 0.817 1.637 13885
-0.335 0.821 1.635 12942
-0.338 0.829 1.639 12141
-0.338 0.830 1.629 12067
-0.343 0.841 1.640 13940
-0.345 0.845 1.637 16363
-0.346 0.849 1.635 14566
-0.349 0.857 1.639 10308
-0.361 0.885 1.676 10074
-0.358 0.877 1.653 17245
-0.359 0.881 1.650 26821
-0.361 0.885 1.647 28952
-0.364 0.893 1.651 23398
-0.366 0.897 1.648 15794
-0.367 0.902 1.645 13334
-0.369 0.906 1.642 12932
-0.372 0.914 1.646 12194
-0.374 0.918 1.643 12999
-0.376 0.922 1.640 13739
-0.381 0.934 1.650 10853
-0.386 0.946 1.660 9448
-0.387 0.951 1.657 14898
-0.389 0.955 1.654 20751
-0.393 0.963 1.657 23472
-0.394 0.967 1.654 22912
-0.396 0.971 1.651 14419
-0.401 0.984 1.661 12283
-0.403 0.988 1.658 14259
-0.406 0.996 1.661 15518
-0.408 1.000 1.658 13911
-0.413 1.013 1.667 9550
-0.418 1.026 1.677 15238
-0.418 1.026 1.667 25300
-0.420 1.030 1.664 29112
-0.425 1.043 1.673 26538
-0.427 1.047 1.670 24605
-0.428 1.051 1.666 21049
-0.428 1.050 1.657 17650
-0.430 1.055 1.653 17365
-0.433 1.063 1.656 17920
-0.437 1.072 1.659 15332
-0.440 1.080 1.662 10133
-0.438 1.075 1.646 11406
-0.444 1.088 1.655 16521
-0.447 1.097 1.658 17396
-0.449 1.101 1.654 12551
-0.449 1.101 1.644 7540
-0.452 1.109 1.647 5601
-0.458 1.123 1.656 7606
-0.459 1.127 1.652 17539
-0.463 1.135 1.655 29955
-0.466 1.144 1.657 37243
-0.468 1.148 1.653 34045
-0.472 1.157 1.656 19365
-0.475 1.166 1.658 10003
-0.477 1.170 1.654 19758
-0.479 1.174 1.650 34059
-0.482 1.183 1.653 34876
-0.484 1.187 1.649 22731
-0.487 1.196 1.651 11209
-0.495 1.214 1.665 6831
-0.497 1.218 1.661 8078
-0.496 1.218 1.651 10667
-0.498 1.222 1.647 8908
-0.500 1.226 1.643 7367
-0.501 1.230 1.640 8307
-0.507 1.244 1.647 8201
-0.511 1.253 1.649 7675
-0.512 1.257 1.645 8646
-0.514 1.261 1.641 13027
-0.516 1.265 1.637 13340
-0.517 1.269 1.633 13626
-0.521 1.278 1.635 20977
-0.525 1.287 1.636 21679
-0.530 1.301 1.644 15666
-0.532 1.305 1.639 13421
-0.534 1.309 1.635 14641
-0.537 1.318 1.637 15933
-0.541 1.327 1.638 23057
-0.545 1.337 1.640 25731
-0.546 1.341 1.635 19905
-0.548 1.345 1.631 28084
-0.550 1.349 1.627 33441
-0.556 1.363 1.634 27685
-0.557 1.367 1.629 28583
-0.557 1.366 1.619 26994
-0.563 1.380 1.626 21714
-0.564 1.384 1.622 33583
-0.566 1.388 1.617 37004
-0.572 1.403 1.624 22797
-0.576 1.412 1.625 21684
-0.577 1.416 1.620 18266
-0.579 1.420 1.616 15446
-0.585 1.435 1.622 16943
-0.593 1.455 1.633 13687
-0.595 1.459 1.629 15074
-0.596 1.463 1.624 14797
-0.602 1.477 1.630 9780
-0.608 1.492 1.636 19056
-0.610 1.496 1.631 28488
-0.612 1.500 1.626 28672
-0.613 1.504 1.622 23001
-0.615 1.508 1.617 16794
-0.616 1.512 1.612 12490
-0.623 1.527 1.618 11988
-0.626 1.537 1.618 22263
-0.628 1.541 1.613 27537
-0.632 1.550 1.613 30851
-0.638 1.565 1.619 26899
-0.642 1.575 1.619 16297
-0.646 1.584 1.619 12235
-0.652 1.600 1.624 15376
-0.654 1.604 1.619 22172
-0.658 1.613 1.619 18062
-0.659 1.617 1.614 12050
-0.665 1.632 1.619 14417
-0.669 1.642 1.618 27337
-0.673 1.652 1.618 32329
-0.677 1.661 1.618 28198
-0.676 1.660 1.608 25280
-0.678 1.664 1.602 18404
-0.684 1.679 1.607 10602
-0.698 1.712 1.626 8779
-0.697 1.710 1.616 9577
-0.703 1.725 1.620 8151
-0.707 1.735 1.619 13588
-0.709 1.739 1.614 20893
-0.713 1.749 1.613 21347
-0.717 1.759 1.612 25712
-0.718 1.763 1.607 34500
-0.718 1.761 1.596 37247
-0.722 1.770 1.595 32677
-0.726 1.780 1.594 23279
-0.732 1.796 1.598 17354
-0.738 1.812 1.602 18274
-0.743 1.822 1.601 12661
-0.756 1.855 1.618 8476
-0.775 1.901 1.645 8175
-0.776 1.905 1.639 10590
-0.778 1.909 1.632 12125
-0.780 1.913 1.626 13015
-0.781 1.917 1.620 13148
-0.785 1.927 1.619 9778
-0.789 1.937 1.617 7863
-0.791 1.941 1.611 12182
-0.790 1.939 1.600 19954
-0.792 1.942 1.594 21748
-0.796 1.952 1.592 13922
-0.812 1.993 1.613 7523
-0.799 1.960 1.580 7048
-0.808 1.982 1.587 8669
-0.820 2.011 1.598 10747
-0.831 2.039 1.609 13457
-0.833 2.043 1.602 15134
-0.834 2.047 1.596 14506
-0.846 2.076 1.606 12398
-0.850 2.086 1.604 11400
-0.849 2.083 1.593 9733
-0.841 2.063 1.570 8250
-0.845 2.073 1.567 7856
-0.846 2.076 1.561 5863
-0.868 2.130 1.587 5668
-0.875 2.146 1.589 8912
-0.877 2.150 1.582 11291
-0.881 2.160 1.579 11722
-0.882 2.164 1.572 9698
-0.894 2.193 1.582 10481
-0.898 2.203 1.579 14209
-0.902 2.214 1.576 16751
-0.904 2.217 1.569 16579
-0.905 2.221 1.562 15078
-0.907 2.225 1.555 10720
-0.911 2.235 1.552 5784
-0.915 2.245 1.548 4503
-0.958 2.351 1.604 3329
-0.960 2.355 1.596 3181
-0.941 2.308 1.558 3456
-0.942 2.312 1.551 4058
-0.946 2.322 1.547 5674
-0.951 2.332 1.543 7542
-0.976 2.394 1.570 8853
-0.980 2.404 1.566 8208
-0.992 2.434 1.574 8037
-0.983 2.412 1.551 8394
-0.985 2.415 1.543 9093
-0.986 2.419 1.536 8255
-0.988 2.423 1.528 7417
-0.994 2.440 1.528 5226
-1.009 2.476 1.538 4852
-1.013 2.486 1.534 7984
-1.018 2.496 1.529 11274
-1.022 2.507 1.525 12054
-1.026 2.517 1.521 13035
-1.030 2.527 1.516 9115
-1.045 2.564 1.526 6442
-1.049 2.574 1.521 6333
-1.059 2.598 1.523 7056
-1.060 2.601 1.515 8127
-1.059 2.598 1.503 9215
-1.058 2.595 1.491 8557
-1.059 2.599 1.483 8777
-1.061 2.603 1.475 9447
-1.065 2.613 1.470 7506
-1.072 2.630 1.468 6319
-1.098 2.693 1.490 6708
-1.099 2.697 1.481 8174
-1.104 2.707 1.476 7022
-1.105 2.711 1.467 5889
-1.106 2.714 1.458 5889
-1.108 2.718 1.450 4977
-1.107 2.715 1.438 4197
-1.108 2.718 1.429 2098
-0.242 0.597 1.638 19457
-0.243 0.601 1.636 18224
-0.246 0.608 1.641 17407
-0.247 0.609 1.632 17903
-0.248 0.613 1.630 18815
-0.250 0.617 1.628 19147
-0.252 0.621 1.626 18705
-0.253 0.625 1.624 17932
-0.256 0.632 1.629 12564
-0.260 0.642 1.641 7498
-0.266 0.656 1.660 6992
-0.267 0.660 1.658 6928
-0.269 0.664 1.656 7054
-0.269 0.665 1.647 7263
-0.271 0.669 1.645 7355
-0.273 0.673 1.642 7200
-0.274 0.677 1.640 6719
-0.277 0.685 1.645 9828
-0.279 0.689 1.643 13187
-0.281 0.693 1.641 14146
-0.284 0.700 1.645 15234
-0.284 0.701 1.636 15567
-0.285 0.705 1.634 16030
-0.287 0.709 1.632 16409
-0.289 0.713 1.629 16714
-0.290 0.717 1.627 15160
-0.292 0.721 1.625 11063
-0.298 0.735 1.643 7860
-0.299 0.739 1.641 5879
-0.301 0.743 1.638 4440
-0.303 0.747 1.636 4553
-0.303 0.748 1.627 4770
-0.305 0.752 1.624 5926
-0.306 0.756 1.622 7081
-0.308 0.760 1.619 9081
-0.311 0.767 1.624 10845
-0.312 0.771 1.621 9804
-0.316 0.779 1.626 6628
-0.319 0.787 1.630 4374
-0.323 0.798 1.641 4524
-0.327 0.806 1.645 4828
-0.328 0.810 1.643 8217
-0.330 0.814 1.640 14056
-0.331 0.818 1.637 16506
-0.333 0.822 1.635 14775
-0.336 0.830 1.639 13622
-0.336 0.830 1.629 12520
-0.340 0.838 1.633 12596
-0.343 0.846 1.637 14201
-0.344 0.850 1.635 12462
-0.348 0.858 1.639 8894
-0.352 0.870 1.649 8682
-0.354 0.874 1.646 16291
-0.357 0.882 1.650 26973
-0.359 0.886 1.647 29987
-0.361 0.890 1.644 25044
-0.364 0.898 1.648 15929
-0.367 0.906 1.652 13011
-0.369 0.910 1.649 13115
-0.372 0.919 1.653 11530
-0.374 0.923 1.650 11345
-0.375 0.927 1.647 11612
-0.379 0.935 1.650 10045
-0.384 0.947 1.660 10010
-0.385 0.951 1.657 16345
-0.387 0.955 1.654 22577
-0.390 0.964 1.657 25103
-0.392 0.968 1.654 23482
-0.394 0.972 1.651 13562
-0.399 0.985 1.661 10687
-0.400 0.989 1.658 12617
-0.404 0.997 1.661 14275
-0.407 1.005 1.664 13435
-0.412 1.018 1.674 8995
-0.416 1.027 1.677 13573
-0.416 1.026 1.667 23289
-0.417 1.031 1.664 27530
-0.421 1.039 1.667 24698
-0.426 1.052 1.676 21845
-0.428 1.056 1.673 17590
-0.426 1.051 1.657 15748
-0.428 1.055 1.653 17012
-0.431 1.064 1.656 17198
-0.434 1.073 1.659 13564
-0.434 1.072 1.649 9573
-0.436 1.076 1.646 12088
-0.439 1.085 1.649 16360
-0.443 1.093 1.651 17206
-0.446 1.102 1.654 13574
-0.448 1.106 1.651 9550
-0.452 1.115 1.653 7649
-0.455 1.124 1.656 8726
-0.457 1.128 1.652 17894
-0.460 1.136 1.655 30465
-0.464 1.145 1.657 38017
-0.466 1.149 1.653 34963
-0.467 1.153 1.650 20251
-0.469 1.157 1.646 10118
-0.472 1.166 1.648 17390
-0.476 1.175 1.650 30186
-0.480 1.184 1.653 30484
-0.481 1.188 1.649 18358
-0.485 1.197 1.651 8916
-0.490 1.211 1.659 7337
-0.494 1.220 1.661 10012
-0.494 1.219 1.651 12512
-0.495 1.223 1.647 9962
-0.499 1.232 1.649 6883
-0.499 1.231 1.640 7059
-0.504 1.245 1.647 8711
-0.508 1.254 1.649 9338
-0.510 1.258 1.645 8571
-0.511 1.262 1.641 12925
-0.513 1.266 1.637 15457
-0.516 1.275 1.639 14037
-0.518 1.279 1.635 19628
-0.522 1.288 1.636 21778
-0.525 1.297 1.638 16069
-0.529 1.306 1.639 11962
-0.531 1.310 1.635 11843
-0.534 1.319 1.637 14655
-0.538 1.329 1.638 22374
-0.540 1.333 1.634 24460
-0.544 1.342 1.635 20971
-0.547 1.351 1.637 29934
-0.547 1.350 1.627 36149
-0.551 1.359 1.628 29435
-0.554 1.368 1.629 25743
-0.554 1.367 1.619 22501
-0.557 1.376 1.620 22980
-0.561 1.385 1.622 36496
-0.563 1.389 1.617 38695
-0.569 1.404 1.624 27180
-0.572 1.413 1.625 24112
-0.572 1.412 1.615 20319
-0.576 1.421 1.616 15082
-0.582 1.436 1.622 14747
-0.590 1.456 1.633 12389
-0.594 1.465 1.634 16697
-0.593 1.464 1.624 17840
-0.599 1.479 1.630 13112
-0.605 1.494 1.636 21688
-0.607 1.498 1.631 29282
-0.608 1.502 1.626 27685
-0.610 1.506 1.622 20884
-0.612 1.510 1.617 14411
-0.613 1.514 1.612 10203
-0.621 1.534 1.623 10528
-0.623 1.538 1.618 19829
-0.625 1.542 1.613 24887
-0.629 1.552 1.613 27971
-0.635 1.567 1.619 25555
-0.643 1.587 1.629 18380
-0.642 1.586 1.619 13203
-0.646 1.595 1.619 16271
-0.650 1.605 1.619 23695
-0.654 1.615 1.619 19122
-0.656 1.619 1.614 14084
-0.664 1.639 1.624 16139
-0.668 1.649 1.623 28250
-0.670 1.653 1.618 33966
-0.674 1.663 1.618 30263
-0.673 1.661 1.608 27153
-0.674 1.665 1.602 20071
-0.678 1.675 1.602 11162
-0.694 1.713 1.626 7950
-0.693 1.711 1.616 8803
-0.700 1.727 1.620 8102
-0.704 1.737 1.619 12752
-0.705 1.741 1.614 18987
-0.709 1.750 1.613 20508
-0.713 1.760 1.612 26892
-0.712 1.758 1.602 36820
-0.714 1.762 1.596 40489
-0.718 1.772 1.595 36230
-0.719 1.776 1.590 25805
-0.726 1.792 1.593 18180
-0.732 1.807 1.597 17312
-0.739 1.823 1.601 11525
-0.740 1.827 1.595 7959
-0.742 1.831 1.589 6898
-0.772 1.906 1.639 8461
-0.771 1.904 1.628 10333
-0.773 1.908 1.622 11610
-0.777 1.918 1.620 12162
-0.781 1.928 1.619 8889
-0.783 1.932 1.613 6814
-0.784 1.936 1.606 11352
-0.786 1.940 1.600 19530
-0.788 1.944 1.594 22016
-0.789 1.948 1.588 14523
-0.791 1.952 1.582 8185
-0.795 1.962 1.580 7612
-0.809 1.996 1.595 9370
-0.815 2.013 1.598 11333
-0.827 2.041 1.609 12399
-0.828 2.045 1.602 13105
-0.832 2.055 1.600 12512
-0.844 2.084 1.611 12335
-0.846 2.088 1.604 11099
-0.845 2.085 1.593 10347
-0.839 2.071 1.574 9046
-0.840 2.074 1.567 8203
-0.842 2.078 1.561 6058
-0.864 2.132 1.587 5161
-0.870 2.148 1.589 8483
-0.872 2.152 1.582 11069
-0.876 2.162 1.579 11754
-0.878 2.166 1.572 9878
-0.889 2.195 1.582 10083
-0.893 2.205 1.579 13482
-0.898 2.216 1.576 15583
-0.899 2.219 1.569 14879
-0.901 2.223 1.562 13167
-0.902 2.227 1.555 9041
-0.899 2.218 1.540 4618
-0.952 2.349 1.611 3562
-0.951 2.347 1.600 3055
-0.939 2.319 1.573 2760
-0.938 2.316 1.562 3218
-0.940 2.320 1.554 3694
-0.944 2.330 1.551 5300
-0.946 2.334 1.543 6933
-0.968 2.389 1.566 6966
-0.972 2.400 1.563 6521
-0.987 2.436 1.574 6844
-0.978 2.414 1.551 7492
-0.979 2.418 1.543 8747
-0.981 2.421 1.536 7880
-0.982 2.425 1.528 7014
-0.992 2.448 1.531 5512
-1.004 2.478 1.538 5935
-1.005 2.482 1.530 8817
-1.010 2.492 1.526 11861
-1.016 2.509 1.525 12625
-1.021 2.519 1.521 13795
-1.022 2.523 1.513 9570
-1.040 2.566 1.526 6652
-1.044 2.576 1.521 6371
-1.053 2.600 1.523 7210
-1.055 2.604 1.515 8594
-1.054 2.601 1.503 10064
-1.052 2.598 1.491 9300
-1.054 2.601 1.483 9445
-1.055 2.605 1.475 10126
-1.057 2.609 1.467 7995
-1.066 2.632 1.468 6454
-1.092 2.696 1.490 6719
-1.093 2.699 1.481 8174
-1.098 2.710 1.476 6991
-1.099 2.713 1.467 5843
-1.101 2.717 1.458 5843
-1.102 2.720 1.450 4980
-1.101 2.717 1.438 4174
-1.102 2.721 1.429 2087
-0.241 0.597 1.638 20145
-0.243 0.601 1.636 19005
-0.245 0.608 1.641 18282
-0.247 0.612 1.639 18312
-0.248 0.613 1.630 18726
-0.249 0.617 1.628 18971
-0.251 0.621 1.626 18073
-0.252 0.625 1.624 16930
-0.254 0.629 1.622 11892
-0.258 0.640 1.634 7118
-0.264 0.653 1.653 6993
-0.267 0.660 1.658 7494
-0.268 0.665 1.656 7501
-0.269 0.665 1.647 7590
-0.270 0.669 1.645 7350
-0.272 0.673 1.642 6831
-0.273 0.678 1.640 6370
-0.276 0.685 1.645 9343
-0.278 0.689 1.643 12524
-0.280 0.693 1.641 13249
-0.283 0.700 1.645 14203
-0.283 0.701 1.636 14345
-0.285 0.705 1.634 14716
-0.286 0.709 1.632 14973
-0.288 0.713 1.629 15113
-0.289 0.717 1.627 13649
-0.292 0.725 1.632 9991
-0.298 0.739 1.650 7202
-0.300 0.743 1.648 5339
-0.307 0.761 1.673 4227
-0.308 0.762 1.664 4640
-0.308 0.763 1.654 4316
-0.305 0.756 1.631 5344
-0.307 0.760 1.629 6407
-0.308 0.764 1.626 8557
-0.310 0.768 1.624 10564
-0.313 0.775 1.628 9663
-0.316 0.783 1.632 6886
-0.322 0.798 1.650 5469
-0.324 0.802 1.648 5500
-0.324 0.803 1.638 5458
-0.327 0.811 1.643 9688
-0.329 0.815 1.640 15960
-0.330 0.819 1.637 17873
-0.334 0.826 1.641 16205
-0.335 0.831 1.639 14865
-0.335 0.831 1.629 12980
-0.337 0.835 1.627 11106
-0.340 0.843 1.631 11526
-0.342 0.847 1.628 10036
-0.345 0.855 1.632 7324
-0.351 0.870 1.649 7492
-0.353 0.874 1.646 14831
-0.356 0.883 1.650 25678
-0.358 0.887 1.647 29403
-0.359 0.891 1.644 26159
-0.363 0.899 1.648 18032
-0.366 0.907 1.652 14145
-0.368 0.911 1.649 13117
-0.371 0.919 1.653 11497
-0.373 0.923 1.650 10443
-0.374 0.927 1.647 10032
-0.379 0.940 1.657 9681
-0.383 0.948 1.660 10814
-0.384 0.952 1.657 18218
-0.386 0.956 1.654 24778
-0.389 0.964 1.657 26984
-0.391 0.968 1.654 24192
-0.392 0.972 1.651 13070
-0.398 0.985 1.661 9597
-0.399 0.989 1.658 11469
-0.403 0.998 1.661 13427
-0.406 1.006 1.664 13556
-0.411 1.019 1.674 8675
-0.415 1.027 1.677 11607
-0.414 1.027 1.667 20748
-0.416 1.031 1.664 25433
-0.420 1.040 1.667 22724
-0.425 1.053 1.676 18887
-0.425 1.052 1.666 14361
-0.425 1.052 1.657 14251
-0.426 1.056 1.653 16835
-0.430 1.065 1.656 16645
-0.433 1.073 1.659 12260
-0.433 1.073 1.649 9843
-0.435 1.077 1.646 13260
-0.438 1.085 1.649 16554
-0.442 1.094 1.651 17315
-0.445 1.103 1.654 14806
-0.447 1.107 1.651 11789
-0.450 1.115 1.653 10224
-0.454 1.124 1.656 10156
-0.455 1.128 1.652 17733
-0.459 1.137 1.655 29857
-0.462 1.146 1.657 37287
-0.464 1.150 1.653 34226
-0.466 1.154 1.650 20180
-0.467 1.158 1.646 10457
-0.471 1.167 1.648 15744
-0.474 1.176 1.650 25787
-0.478 1.185 1.653 25574
-0.480 1.189 1.649 14796
-0.481 1.193 1.645 10258
-0.483 1.197 1.641 11511
-0.490 1.215 1.655 12089
-0.492 1.219 1.651 13816
-0.494 1.223 1.647 11270
-0.497 1.232 1.649 7814
-0.497 1.232 1.640 6744
-0.503 1.245 1.647 9303
-0.504 1.250 1.643 11689
-0.506 1.254 1.639 9307
-0.510 1.263 1.641 13244
-0.511 1.267 1.637 17984
-0.515 1.276 1.639 14698
-0.516 1.280 1.635 17387
-0.520 1.289 1.636 20483
-0.524 1.298 1.638 15521
-0.527 1.307 1.639 11054
-0.527 1.306 1.630 10600
-0.533 1.320 1.637 12644
-0.539 1.334 1.644 18383
-0.538 1.333 1.634 20916
-0.542 1.342 1.635 23247
-0.546 1.352 1.637 32126
-0.547 1.356 1.632 35296
-0.549 1.360 1.628 28028
-0.552 1.369 1.629 21381
-0.552 1.368 1.619 19526
-0.556 1.377 1.620 27066
-0.557 1.381 1.616 38924
-0.563 1.395 1.623 40498
-0.565 1.399 1.618 31106
-0.569 1.409 1.619 24768
-0.570 1.413 1.615 20994
-0.574 1.422 1.616 15375
-0.578 1.431 1.616 13146
-0.588 1.457 1.633 12455
-0.592 1.466 1.634 18971
-0.593 1.470 1.629 20277
-0.599 1.485 1.635 16076
-0.603 1.494 1.636 24052
-0.607 1.504 1.637 29001
-0.609 1.508 1.632 24930
-0.608 1.506 1.622 16479
-0.610 1.510 1.617 10225
-0.613 1.520 1.617 7522
-0.619 1.535 1.623 9151
-0.621 1.539 1.618 17176
-0.623 1.543 1.613 21575
-0.627 1.552 1.613 23946
-0.637 1.579 1.629 24795
-0.641 1.588 1.629 21086
-0.640 1.587 1.619 14505
-0.644 1.596 1.619 17480
-0.648 1.606 1.619 25580
-0.652 1.615 1.619 19973
-0.654 1.619 1.614 15398
-0.660 1.635 1.619 17884
-0.666 1.650 1.623 28981
-0.668 1.654 1.618 35249
-0.671 1.664 1.618 32008
-0.671 1.662 1.608 28553
-0.672 1.666 1.602 21350
-0.676 1.676 1.602 11777
-0.692 1.714 1.626 7032
-0.691 1.712 1.616 8652
-0.695 1.722 1.615 8000
-0.701 1.738 1.619 11054
-0.703 1.742 1.614 16153
-0.707 1.751 1.613 19617
-0.708 1.755 1.607 28110
-0.710 1.759 1.602 39254
-0.712 1.763 1.596 43735
-0.716 1.773 1.595 39698
-0.717 1.777 1.590 28457
-0.723 1.793 1.593 18915
-0.730 1.808 1.597 16077
-0.736 1.824 1.601 10622
-0.740 1.834 1.599 8253
-0.739 1.832 1.589 7295
-0.753 1.866 1.606 7555
-0.757 1.876 1.605 9524
-0.766 1.897 1.613 10933
-0.772 1.913 1.616 11543
-0.776 1.923 1.614 9038
-0.778 1.927 1.608 7444
-0.779 1.931 1.602 11498
-0.781 1.935 1.596 19244
-0.785 1.945 1.594 21817
-0.787 1.949 1.588 15113
-0.788 1.953 1.582 9102
-0.807 2.000 1.606 8841
-0.809 2.004 1.600 10946
-0.813 2.014 1.598 12768
-0.817 2.024 1.596 12921
-0.823 2.040 1.598 11113
-0.837 2.075 1.613 11651
-0.841 2.085 1.611 12464
-0.843 2.089 1.604 11135
-0.842 2.086 1.593 11434
-0.841 2.084 1.582 10403
-0.843 2.088 1.576 8977
-0.844 2.092 1.569 6606
-0.861 2.133 1.587 5194
-0.867 2.149 1.589 8006
-0.869 2.153 1.582 10714
-0.871 2.157 1.575 11576
-0.875 2.167 1.572 9795
-0.886 2.196 1.582 9527
-0.891 2.207 1.579 12435
-0.895 2.217 1.576 13975
-0.896 2.221 1.569 12800
-0.898 2.224 1.562 11002
-0.897 2.222 1.551 7408
-0.893 2.213 1.536 3961
-0.949 2.351 1.611 3551
-0.945 2.342 1.596 2898
-0.939 2.326 1.577 2836
-0.940 2.330 1.570 3052
-0.939 2.328 1.558 3295
-0.941 2.332 1.551 4700
-0.942 2.335 1.543 5967
-0.949 2.352 1.544 5599
-0.969 2.401 1.563 5059
-0.986 2.444 1.577 5589
-0.975 2.415 1.551 6368
-0.976 2.419 1.543 7844
-0.980 2.429 1.539 7069
-0.982 2.433 1.532 6432
-0.997 2.469 1.542 5949
-1.001 2.479 1.538 6861
-1.002 2.483 1.530 9520
-1.006 2.493 1.526 12188
-1.010 2.504 1.521 12926
-1.017 2.521 1.521 14259
-1.021 2.531 1.516 9900
-1.034 2.561 1.522 7002
-1.040 2.578 1.521 6464
-1.050 2.601 1.523 7280
-1.051 2.605 1.515 8936
-1.050 2.602 1.503 10693
-1.049 2.599 1.491 9802
-1.050 2.603 1.483 9853
-1.052 2.606 1.475 10525
-1.053 2.610 1.467 8262
-1.063 2.633 1.468 6361
-1.089 2.697 1.490 6506
-1.090 2.701 1.481 7930
-1.094 2.711 1.476 6807
-1.096 2.715 1.467 5730
-1.097 2.718 1.458 5730
-1.098 2.722 1.450 4924
-1.100 2.725 1.441 4118
-1.101 2.729 1.433 2059
-0.238 0.598 1.638 20664
-0.240 0.602 1.636 19544
-0.243 0.609 1.641 18853
-0.244 0.613 1.639 18447
-0.245 0.614 1.630 18400
-0.246 0.618 1.628 18569
-0.248 0.622 1.626 17244
-0.250 0.626 1.624 15750
-0.251 0.630 1.622 11362
-0.255 0.641 1.634 7158
-0.261 0.654 1.653 7236
-0.264 0.662 1.658 8111
-0.265 0.666 1.656 8008
-0.266 0.667 1.647 7984
-0.267 0.671 1.645 7294
-0.269 0.675 1.642 6301
-0.271 0.679 1.640 5858
-0.273 0.686 1.645 8560
-0.275 0.690 1.643 11416
-0.278 0.698 1.648 11946
-0.280 0.702 1.645 12752
-0.281 0.706 1.643 12768
-0.282 0.706 1.634 13018
-0.283 0.710 1.632 13173
-0.285 0.714 1.629 13198
-0.286 0.718 1.627 11808
-0.289 0.726 1.632 8632
-0.295 0.740 1.650 6179
-0.298 0.748 1.655 4717
-0.303 0.759 1.666 5127
-0.303 0.760 1.657 6295
-0.302 0.757 1.640 6932
-0.302 0.757 1.631 8558
-0.303 0.761 1.629 10202
-0.305 0.765 1.626 13377
-0.308 0.773 1.631 16485
-0.310 0.777 1.628 15959
-0.313 0.785 1.632 12420
-0.316 0.792 1.637 9396
-0.319 0.800 1.641 7606
-0.322 0.808 1.645 6177
-0.324 0.812 1.643 10076
-0.327 0.820 1.647 16236
-0.328 0.824 1.644 18253
-0.330 0.828 1.641 17175
-0.332 0.832 1.639 16175
-0.332 0.832 1.629 13417
-0.333 0.836 1.627 9723
-0.336 0.844 1.631 8579
-0.338 0.848 1.628 7612
-0.340 0.852 1.625 6267
-0.348 0.872 1.649 6644
-0.349 0.876 1.646 13140
-0.351 0.880 1.643 23301
-0.354 0.888 1.647 27241
-0.356 0.892 1.644 25874
-0.359 0.900 1.648 20757
-0.362 0.908 1.652 16097
-0.365 0.917 1.655 13402
-0.367 0.921 1.653 11123
-0.369 0.925 1.650 9747
-0.372 0.933 1.653 9394
-0.375 0.941 1.657 9680
-0.378 0.949 1.660 11720
-0.380 0.954 1.657 20126
-0.382 0.958 1.654 26864
-0.385 0.966 1.657 28756
-0.387 0.970 1.654 25120
-0.388 0.974 1.651 13385
-0.392 0.982 1.655 9783
-0.395 0.991 1.658 11205
-0.398 0.999 1.661 13253
-0.402 1.008 1.664 14264
-0.407 1.021 1.674 8822
-0.410 1.029 1.677 9683
-0.410 1.029 1.667 17680
-0.412 1.033 1.664 22757
-0.415 1.041 1.667 20476
-0.420 1.054 1.676 15918
-0.418 1.050 1.660 11969
-0.420 1.054 1.657 13388
-0.422 1.058 1.653 16940
-0.425 1.066 1.656 16413
-0.428 1.075 1.659 11752
-0.428 1.075 1.649 11006
-0.430 1.079 1.646 15001
-0.433 1.087 1.649 17118
-0.437 1.096 1.651 17375
-0.440 1.105 1.654 15720
-0.444 1.113 1.657 13837
-0.445 1.117 1.653 12493
-0.449 1.126 1.656 11212
-0.450 1.130 1.652 17129
-0.454 1.139 1.655 28486
-0.457 1.148 1.657 35330
-0.459 1.152 1.653 32087
-0.461 1.156 1.650 19139
-0.462 1.160 1.646 10929
-0.464 1.164 1.642 15283
-0.467 1.173 1.644 22394
-0.471 1.182 1.647 21384
-0.476 1.195 1.655 13522
-0.476 1.195 1.645 14073
-0.478 1.199 1.641 16741
-0.485 1.217 1.655 13831
-0.487 1.221 1.651 14354
-0.488 1.226 1.647 12333
-0.492 1.235 1.649 9776
-0.490 1.229 1.634 8160
-0.493 1.238 1.636 9878
-0.499 1.252 1.643 12764
-0.500 1.256 1.639 9889
-0.504 1.265 1.641 14153
-0.506 1.269 1.637 20716
-0.509 1.278 1.639 15882
-0.513 1.287 1.640 15316
-0.515 1.291 1.636 18357
-0.518 1.300 1.638 15027
-0.520 1.304 1.634 10899
-0.521 1.308 1.630 10039
-0.525 1.317 1.631 9874
-0.533 1.337 1.644 11756
-0.532 1.336 1.634 16915
-0.536 1.345 1.635 25817
-0.540 1.354 1.637 33677
-0.539 1.353 1.627 35816
-0.543 1.362 1.628 27853
-0.547 1.371 1.629 18632
-0.546 1.370 1.619 19897
-0.548 1.374 1.615 29253
-0.551 1.383 1.616 36276
-0.557 1.398 1.623 40071
-0.559 1.402 1.618 32729
-0.562 1.411 1.619 23100
-0.564 1.415 1.615 21001
-0.568 1.424 1.616 16008
-0.574 1.439 1.622 13179
-0.582 1.459 1.633 13623
-0.585 1.469 1.634 20234
-0.587 1.473 1.629 20571
-0.595 1.493 1.641 17541
-0.597 1.497 1.636 25168
-0.600 1.507 1.637 27349
-0.602 1.511 1.632 20858
-0.601 1.509 1.622 10791
-0.607 1.524 1.627 4666
-0.609 1.528 1.623 4502
-0.611 1.532 1.618 7638
-0.614 1.542 1.618 14492
-0.616 1.546 1.613 17883
-0.622 1.561 1.618 19352
-0.632 1.587 1.634 24347
-0.634 1.591 1.629 23040
-0.633 1.589 1.619 15717
-0.637 1.599 1.619 18388
-0.641 1.609 1.619 26457
-0.643 1.613 1.614 20034
-0.647 1.622 1.614 16185
-0.653 1.638 1.619 18918
-0.659 1.653 1.623 28669
-0.660 1.657 1.618 35837
-0.664 1.667 1.618 33238
-0.664 1.665 1.608 29131
-0.665 1.669 1.602 22075
-0.669 1.678 1.602 12443
-0.673 1.688 1.601 7588
-0.681 1.709 1.611 9255
-0.685 1.719 1.610 8148
-0.694 1.741 1.619 8937
-0.698 1.750 1.619 13027
-0.699 1.754 1.613 18592
-0.701 1.758 1.607 29397
-0.702 1.762 1.602 41103
-0.704 1.766 1.596 46215
-0.708 1.776 1.595 42329
-0.709 1.780 1.590 30647
-0.713 1.790 1.589 19663
-0.724 1.817 1.602 14608
-0.731 1.833 1.605 9921
-0.732 1.837 1.599 8410
-0.731 1.835 1.589 7693
-0.742 1.863 1.602 7921
-0.749 1.879 1.605 10295
-0.753 1.889 1.603 11332
-0.764 1.917 1.616 11474
-0.766 1.921 1.610 10284
-0.765 1.919 1.599 10123
-0.769 1.929 1.597 12801
-0.773 1.939 1.596 19059
-0.774 1.943 1.590 21449
-0.778 1.953 1.588 15102
-0.797 1.999 1.613 10135
-0.798 2.003 1.606 10366
-0.802 2.013 1.604 12498
-0.804 2.017 1.598 14508
-0.805 2.021 1.591 14616
-0.809 2.031 1.589 10001
-0.828 2.078 1.613 11218
-0.832 2.088 1.611 12704
-0.834 2.092 1.604 11425
-0.833 2.090 1.593 12659
-0.835 2.094 1.587 12227
-0.836 2.098 1.580 10477
-0.838 2.102 1.573 7714
-0.849 2.131 1.583 5583
-0.861 2.159 1.593 7567
-0.860 2.157 1.582 10218
-0.861 2.161 1.575 11209
-0.863 2.165 1.568 9532
-0.877 2.200 1.582 8820
-0.881 2.210 1.579 11109
-0.885 2.221 1.576 12041
-0.887 2.224 1.569 10501
-0.886 2.222 1.558 8751
-0.887 2.226 1.551 5893
-0.932 2.338 1.611 3705
-0.938 2.355 1.611 3454
-0.932 2.339 1.592 2883
-0.929 2.331 1.577 2928
-0.933 2.341 1.573 2880
-0.940 2.357 1.574 2837
-0.931 2.336 1.551 3832
-0.935 2.346 1.547 4736
-0.942 2.363 1.547 4472
-0.956 2.399 1.559 3957
-0.976 2.448 1.577 4311
-0.962 2.413 1.547 5095
-0.966 2.423 1.543 6480
-0.970 2.433 1.539 5970
-0.977 2.450 1.539 5858
-0.986 2.473 1.542 6347
-0.990 2.484 1.538 7484
-0.991 2.488 1.530 9854
-0.993 2.491 1.522 12225
-1.000 2.508 1.521 12849
-1.006 2.525 1.521 14345
-1.013 2.542 1.520 10088
-1.022 2.565 1.522 7455
-1.029 2.582 1.521 6592
-1.039 2.606 1.523 7251
-1.040 2.610 1.515 9079
-1.039 2.607 1.503 10965
-1.038 2.604 1.491 9933
-1.039 2.607 1.483 9882
-1.038 2.604 1.472 10565
-1.042 2.614 1.467 8241
-1.049 2.631 1.465 6117
-1.077 2.702 1.490 6104
-1.078 2.705 1.481 7469
-1.082 2.716 1.476 6500
-1.084 2.719 1.467 5580
-1.085 2.723 1.458 5580
-1.087 2.726 1.450 4849
-1.088 2.730 1.441 4118
-1.089 2.733 1.433 2059
-0.237 0.599 1.638 21362
-0.239 0.603 1.636 20269
-0.242 0.610 1.641 19623
-0.243 0.614 1.639 18869
-0.244 0.615 1.630 18368
-0.245 0.619 1.628 18437
-0.247 0.623 1.626 16655
-0.248 0.627 1.624 14805
-0.250 0.631 1.622 10967
-0.254 0.641 1.634 7388
-0.259 0.655 1.653 7597
-0.262 0.662 1.658 8619
-0.264 0.666 1.656 8400
-0.264 0.667 1.647 8235
-0.266 0.671 1.645 7199
-0.268 0.675 1.642 5851
-0.269 0.679 1.640 5432
-0.272 0.687 1.645 7807
-0.274 0.691 1.643 10288
-0.277 0.698 1.648 10726
-0.278 0.702 1.645 11364
-0.280 0.706 1.643 11254
-0.280 0.707 1.634 11362
-0.282 0.711 1.632 11370
-0.283 0.715 1.629 11227
-0.285 0.719 1.627 10001
-0.288 0.726 1.632 7343
-0.295 0.745 1.657 5420
-0.298 0.752 1.662 4343
-0.301 0.760 1.666 4983
-0.303 0.764 1.664 5930
-0.303 0.764 1.654 5960
-0.302 0.761 1.638 7490
-0.303 0.765 1.636 9188
-0.305 0.769 1.633 13294
-0.306 0.773 1.631 17400
-0.308 0.777 1.628 17240
-0.311 0.785 1.632 13830
-0.314 0.793 1.637 10195
-0.317 0.801 1.641 7845
-0.320 0.809 1.645 6266
-0.323 0.816 1.649 10149
-0.325 0.820 1.647 16803
-0.327 0.825 1.644 19367
-0.328 0.829 1.641 18119
-0.330 0.833 1.639 16840
-0.332 0.837 1.636 13497
-0.332 0.837 1.627 8092
-0.335 0.845 1.631 5767
-0.336 0.849 1.628 5962
-0.343 0.865 1.645 6492
-0.346 0.873 1.649 6853
-0.347 0.877 1.646 12172
-0.349 0.881 1.643 21033
-0.352 0.889 1.647 24759
-0.354 0.893 1.644 24718
-0.357 0.901 1.648 22470
-0.360 0.909 1.652 18049
-0.365 0.921 1.662 14453
-0.367 0.926 1.659 11165
-0.367 0.925 1.650 9416
-0.370 0.934 1.653 9250
-0.373 0.942 1.657 9662
-0.377 0.950 1.660 12568
-0.378 0.954 1.657 22105
-0.380 0.958 1.654 28964
-0.383 0.967 1.657 30531
-0.385 0.971 1.654 26170
-0.386 0.975 1.651 14271
-0.390 0.983 1.655 10978
-0.393 0.992 1.658 11996
-0.396 1.000 1.661 13877
-0.400 1.009 1.664 15304
-0.405 1.021 1.674 9462
-0.410 1.034 1.683 8293
-0.408 1.030 1.667 14512
-0.410 1.034 1.664 19833
-0.411 1.038 1.661 18220
-0.415 1.046 1.664 13486
-0.414 1.046 1.654 10705
-0.418 1.055 1.657 13056
-0.419 1.059 1.653 17346
-0.423 1.067 1.656 16701
-0.425 1.071 1.653 12248
-0.426 1.075 1.649 12826
-0.426 1.075 1.640 17031
-0.429 1.084 1.643 17879
-0.435 1.097 1.651 17059
-0.440 1.110 1.660 16063
-0.441 1.114 1.657 15301
-0.443 1.118 1.653 14141
-0.447 1.127 1.656 11844
-0.448 1.131 1.652 16509
-0.452 1.140 1.655 27097
-0.455 1.149 1.657 33089
-0.457 1.153 1.653 29609
-0.458 1.157 1.650 17672
-0.460 1.161 1.646 11155
-0.462 1.165 1.642 15406
-0.465 1.174 1.644 20127
-0.469 1.183 1.647 17902
-0.474 1.196 1.655 13818
-0.476 1.200 1.651 18727
-0.475 1.200 1.641 21114
-0.481 1.213 1.649 15249
-0.484 1.222 1.651 14437
-0.486 1.227 1.647 13210
-0.490 1.236 1.649 11823
-0.487 1.230 1.634 10034
-0.491 1.239 1.636 10465
-0.494 1.248 1.637 12584
-0.498 1.257 1.639 9947
-0.502 1.266 1.641 15377
-0.503 1.270 1.637 23630
-0.507 1.279 1.639 18650
-0.510 1.288 1.640 14571
-0.512 1.292 1.636 16195
-0.516 1.301 1.638 14800
-0.517 1.305 1.634 10783
-0.519 1.309 1.630 9225
-0.522 1.318 1.631 7586
-0.530 1.338 1.644 5598
-0.532 1.342 1.640 12665
-0.533 1.346 1.635 23791
-0.537 1.355 1.637 31528
-0.536 1.354 1.627 37197
-0.540 1.363 1.628 27571
-0.544 1.372 1.629 16747
-0.543 1.371 1.619 20654
-0.545 1.375 1.615 28514
-0.549 1.384 1.616 31292
-0.554 1.399 1.623 37699
-0.556 1.403 1.618 32841
-0.558 1.407 1.614 21995
-0.561 1.416 1.615 22110
-0.565 1.426 1.616 19131
-0.569 1.435 1.616 17866
-0.577 1.455 1.628 17014
-0.580 1.464 1.629 20960
-0.586 1.479 1.635 19611
-0.594 1.500 1.646 17908
-0.594 1.498 1.636 24168
-0.597 1.508 1.637 24600
-0.601 1.517 1.637 16961
-0.603 1.521 1.632 8655
-0.607 1.531 1.633 2947
-0.606 1.529 1.623 2714
-0.608 1.533 1.618 6926
-0.611 1.543 1.618 12162
-0.613 1.547 1.613 14192
-0.619 1.562 1.618 14782
-0.629 1.588 1.634 23231
-0.629 1.587 1.624 23948
-0.630 1.591 1.619 16343
-0.634 1.600 1.619 18836
-0.638 1.610 1.619 26756
-0.639 1.614 1.614 19627
-0.643 1.623 1.614 15901
-0.649 1.639 1.619 19162
-0.655 1.654 1.623 27867
-0.657 1.658 1.618 35654
-0.661 1.668 1.618 33814
-0.660 1.666 1.608 28914
-0.662 1.670 1.602 22092
-0.663 1.674 1.597 13089
-0.669 1.690 1.601 8778
-0.676 1.705 1.606 10529
-0.682 1.721 1.610 8711
-0.688 1.736 1.614 7062
-0.692 1.746 1.614 10375
-0.693 1.750 1.608 18055
-0.697 1.760 1.607 30615
-0.699 1.764 1.602 42555
-0.700 1.768 1.596 47829
-0.704 1.777 1.595 44126
-0.706 1.781 1.590 32610
-0.710 1.791 1.589 20341
-0.721 1.819 1.602 12888
-0.729 1.841 1.610 9217
-0.729 1.839 1.599 8199
-0.728 1.837 1.589 7863
-0.739 1.864 1.602 8300
-0.745 1.880 1.605 10774
-0.749 1.890 1.603 11970
-0.758 1.912 1.611 11737
-0.762 1.922 1.610 12146
-0.761 1.920 1.599 13093
-0.765 1.930 1.597 14525
-0.766 1.934 1.591 18736
-0.770 1.944 1.590 20384
-0.774 1.954 1.588 14341
-0.795 2.007 1.617 11293
-0.797 2.011 1.611 11562
-0.798 2.015 1.604 13721
-0.800 2.019 1.598 15944
-0.801 2.023 1.591 16278
-0.803 2.027 1.585 10932
-0.824 2.080 1.613 10949
-0.826 2.084 1.606 13084
-0.830 2.094 1.604 11855
-0.829 2.092 1.593 13610
-0.830 2.096 1.587 13529
-0.834 2.106 1.584 11704
-0.836 2.110 1.577 8811
-0.842 2.126 1.579 5929
-0.856 2.161 1.593 7076
-0.855 2.159 1.582 9555
-0.857 2.163 1.575 10563
-0.858 2.167 1.568 9044
-0.863 2.177 1.566 8010
-0.877 2.212 1.579 9547
-0.883 2.229 1.580 9813
-0.882 2.226 1.569 8101
-0.884 2.230 1.562 6596
-0.913 2.304 1.598 5427
-0.925 2.333 1.607 3735
-0.936 2.363 1.615 3244
-0.928 2.341 1.592 2852
-0.927 2.339 1.581 3066
-0.928 2.343 1.573 2812
-0.935 2.359 1.574 2606
-0.929 2.344 1.555 2975
-0.933 2.354 1.551 3428
-0.939 2.371 1.551 3615
-0.949 2.394 1.555 3327
-0.950 2.398 1.547 3072
-0.954 2.408 1.544 3850
-0.961 2.425 1.543 4789
-0.968 2.442 1.543 4667
-0.977 2.465 1.546 5419
-0.981 2.475 1.542 6439
-0.985 2.486 1.538 7751
-0.986 2.489 1.530 9740
-0.988 2.493 1.522 11730
-0.995 2.510 1.521 12263
-1.004 2.534 1.524 13918
-1.011 2.550 1.523 10168
-1.017 2.567 1.522 7776
-1.024 2.584 1.521 6678
-1.033 2.608 1.523 7082
-1.035 2.612 1.515 8966
-1.036 2.615 1.507 10831
-1.035 2.612 1.495 9657
-1.034 2.609 1.483 9466
-1.033 2.606 1.472 10141
-1.037 2.617 1.467 7910
-1.041 2.627 1.462 5770
-1.071 2.704 1.490 5520
-1.073 2.708 1.481 6785
-1.077 2.718 1.476 6059
-1.081 2.728 1.470 5405
-1.082 2.732 1.462 5405
-1.081 2.729 1.450 4717
-1.083 2.732 1.441 4070
-1.084 2.736 1.433 2035
-0.236 0.599 1.638 21956
-0.238 0.603 1.636 20963
-0.240 0.610 1.641 20440
-0.242 0.614 1.639 19498
-0.242 0.615 1.630 18674
-0.244 0.619 1.628 18609
-0.246 0.623 1.626 16381
-0.247 0.627 1.624 14218
-0.250 0.635 1.629 10674
-0.254 0.645 1.641 7533
-0.258 0.655 1.653 7855
-0.261 0.663 1.658 8917
-0.263 0.667 1.656 8619
-0.263 0.668 1.647 8359
-0.265 0.672 1.645 7120
-0.266 0.676 1.642 5552
-0.268 0.680 1.640 5116
-0.271 0.687 1.645 7039
-0.272 0.691 1.643 9037
-0.275 0.699 1.648 9433
-0.277 0.703 1.645 9969
-0.278 0.707 1.643 9833
-0.279 0.707 1.634 9877
-0.280 0.711 1.632 9716
-0.282 0.715 1.629 9389
-0.284 0.719 1.627 8409
-0.286 0.727 1.632 6595
-0.294 0.745 1.657 5589
-0.295 0.749 1.655 5061
-0.298 0.757 1.659 5864
-0.301 0.765 1.664 6525
-0.301 0.765 1.654 6047
-0.302 0.766 1.645 7735
-0.303 0.770 1.642 9626
-0.303 0.770 1.633 14320
-0.305 0.774 1.631 19092
-0.308 0.782 1.635 18863
-0.310 0.786 1.632 14618
-0.311 0.790 1.630 10229
-0.314 0.798 1.634 7389
-0.320 0.813 1.652 5790
-0.322 0.817 1.649 10193
-0.324 0.821 1.647 17576
-0.324 0.821 1.637 20632
-0.327 0.829 1.641 18730
-0.328 0.833 1.639 16821
-0.330 0.837 1.636 13415
-0.332 0.841 1.633 7356
-0.335 0.849 1.637 4838
-0.338 0.857 1.641 6455
-0.341 0.865 1.645 8166
-0.344 0.873 1.649 8136
-0.346 0.877 1.646 12169
-0.347 0.881 1.643 19704
-0.351 0.890 1.647 23228
-0.352 0.894 1.644 23802
-0.355 0.902 1.648 23136
-0.359 0.910 1.652 19529
-0.365 0.926 1.669 15526
-0.365 0.926 1.659 11928
-0.365 0.926 1.650 9357
-0.368 0.934 1.653 8865
-0.371 0.943 1.657 9298
-0.375 0.951 1.660 13210
-0.376 0.955 1.657 24122
-0.378 0.959 1.654 31070
-0.381 0.967 1.657 32325
-0.383 0.972 1.654 27333
-0.386 0.980 1.658 15386
-0.388 0.984 1.655 12592
-0.391 0.992 1.658 13492
-0.394 1.001 1.661 15055
-0.398 1.009 1.664 16440
-0.401 1.018 1.667 10539
-0.408 1.035 1.683 7505
-0.406 1.030 1.667 11464
-0.408 1.034 1.664 16696
-0.409 1.039 1.661 15942
-0.411 1.043 1.657 11696
-0.412 1.047 1.654 10092
-0.414 1.051 1.651 13177
-0.417 1.059 1.653 17827
-0.421 1.068 1.656 17214
-0.422 1.072 1.653 13149
-0.424 1.076 1.649 14725
-0.426 1.080 1.646 19012
-0.427 1.084 1.643 18705
-0.433 1.098 1.651 16457
-0.438 1.111 1.660 16026
-0.439 1.115 1.657 16219
-0.441 1.119 1.653 15219
-0.444 1.128 1.656 12352
-0.446 1.132 1.652 16348
-0.450 1.141 1.655 26267
-0.453 1.150 1.657 31098
-0.456 1.158 1.659 27262
-0.458 1.162 1.656 16083
-0.458 1.162 1.646 11315
-0.461 1.171 1.648 15658
-0.463 1.175 1.644 18498
-0.466 1.184 1.647 15355
-0.472 1.197 1.655 14330
-0.473 1.201 1.651 22194
-0.473 1.201 1.641 24172
-0.479 1.214 1.649 16060
-0.482 1.223 1.651 13955
-0.484 1.227 1.647 13889
-0.487 1.236 1.649 13745
-0.485 1.231 1.634 11655
-0.487 1.235 1.630 10671
-0.490 1.244 1.632 11261
-0.494 1.253 1.633 9554
-0.499 1.267 1.641 16767
-0.501 1.271 1.637 25859
-0.504 1.280 1.639 20650
-0.508 1.289 1.640 14053
-0.509 1.293 1.636 14492
-0.511 1.297 1.632 14533
-0.515 1.306 1.634 10524
-0.516 1.310 1.630 8241
-0.520 1.319 1.631 8070
-0.523 1.328 1.633 7464
-0.529 1.343 1.640 13733
-0.533 1.352 1.641 21528
-0.534 1.356 1.637 26805
-0.534 1.355 1.627 36499
-0.538 1.364 1.628 28046
-0.541 1.373 1.629 15368
-0.541 1.372 1.619 20425
-0.542 1.376 1.615 27862
-0.546 1.385 1.616 25179
-0.547 1.389 1.612 31934
-0.551 1.399 1.613 30029
-0.555 1.408 1.614 20783
-0.558 1.417 1.615 22725
-0.562 1.427 1.616 17431
-0.568 1.441 1.622 16176
-0.574 1.456 1.628 18818
-0.580 1.471 1.634 20702
-0.583 1.480 1.635 19218
-0.591 1.501 1.646 17938
-0.591 1.499 1.636 21747
-0.595 1.509 1.637 21087
-0.598 1.518 1.637 14597
-0.600 1.522 1.632 10766
-0.601 1.526 1.627 7208
-0.601 1.525 1.617 5432
-0.605 1.534 1.618 7770
-0.606 1.538 1.613 10876
-0.610 1.548 1.613 11282
-0.620 1.574 1.629 11628
-0.626 1.589 1.634 21804
-0.626 1.588 1.624 24067
-0.627 1.592 1.619 16456
-0.631 1.601 1.619 18874
-0.635 1.611 1.619 26620
-0.636 1.615 1.614 18688
-0.640 1.625 1.614 14175
-0.644 1.634 1.614 17924
-0.652 1.655 1.623 26026
-0.654 1.659 1.618 34367
-0.658 1.669 1.618 33372
-0.657 1.667 1.608 27642
-0.659 1.671 1.602 21130
-0.660 1.675 1.597 13335
-0.666 1.691 1.601 9949
-0.672 1.706 1.606 11972
-0.676 1.716 1.605 9444
-0.680 1.726 1.605 6664
-0.686 1.741 1.609 9401
-0.690 1.751 1.608 17973
-0.692 1.755 1.603 31202
-0.695 1.765 1.602 43176
-0.697 1.769 1.596 48202
-0.701 1.779 1.595 44607
-0.702 1.783 1.590 33688
-0.706 1.793 1.589 20709
-0.717 1.820 1.602 11039
-0.726 1.842 1.610 8445
-0.723 1.834 1.595 7853
-0.724 1.838 1.589 7829
-0.738 1.872 1.606 8435
-0.741 1.882 1.605 10881
-0.745 1.892 1.603 12036
-0.754 1.914 1.611 12108
-0.758 1.924 1.610 13819
-0.757 1.922 1.599 15476
-0.761 1.932 1.597 15730
-0.763 1.936 1.591 18001
-0.764 1.939 1.585 18842
-0.771 1.956 1.588 12896
-0.791 2.008 1.617 11653
-0.793 2.012 1.611 12012
-0.794 2.016 1.604 14244
-0.796 2.020 1.598 16671
-0.798 2.024 1.591 17226
-0.797 2.022 1.581 12207
-0.823 2.088 1.617 10939
-0.822 2.085 1.606 13531
-0.823 2.089 1.600 12243
-0.825 2.093 1.593 14139
-0.829 2.103 1.591 14195
-0.830 2.107 1.584 12402
-0.832 2.111 1.577 9557
-0.836 2.121 1.575 6247
-0.862 2.188 1.610 6793
-0.851 2.160 1.582 8758
-0.853 2.164 1.575 9759
-0.854 2.168 1.568 8426
-0.873 2.216 1.590 7247
-0.895 2.271 1.615 8187
-0.896 2.275 1.608 8843
-0.900 2.285 1.605 7489
-0.904 2.295 1.602 6271
-0.909 2.306 1.598 5611
-0.920 2.335 1.607 3701
-0.932 2.365 1.615 3023
-0.923 2.343 1.592 2859
-0.920 2.334 1.577 3399
-0.919 2.332 1.566 3249
-0.918 2.329 1.554 3183
-0.919 2.333 1.547 2552
-0.964 2.446 1.604 2728
-0.940 2.386 1.559 3235
-0.942 2.389 1.551 3038
-0.943 2.393 1.544 2840
-0.939 2.384 1.529 3023
-0.938 2.381 1.517 3230
-0.971 2.463 1.554 3759
-0.975 2.473 1.550 5076
-0.976 2.477 1.542 6315
-0.980 2.488 1.538 7748
-0.982 2.491 1.530 9283
-0.981 2.489 1.519 10836
-0.990 2.512 1.521 11278
-1.002 2.542 1.528 13161
-1.008 2.559 1.527 10085
-1.012 2.569 1.522 7829
-1.019 2.586 1.521 6690
-1.028 2.610 1.523 6827
-1.030 2.614 1.515 8642
-1.031 2.617 1.507 10381
-1.030 2.614 1.495 9035
-1.029 2.611 1.483 8656
-1.028 2.608 1.472 9281
-1.032 2.618 1.467 7297
-1.033 2.622 1.458 5337
-1.066 2.706 1.490 4936
-1.068 2.710 1.481 6063
-1.072 2.720 1.476 5594
-1.076 2.730 1.470 5206
-1.077 2.734 1.462 5206
-1.079 2.737 1.453 4575
-1.080 2.741 1.444 3944
-1.081 2.744 1.436 1972
-0.235 0.599 1.638 22674
-0.237 0.604 1.636 21821
-0.240 0.611 1.641 21463
-0.241 0.615 1.639 20389
-0.243 0.619 1.637 19315
-0.243 0.620 1.628 19069
-0.245 0.624 1.626 16412
-0.246 0.628 1.624 13954
-0.249 0.635 1.629 10614
-0.253 0.645 1.641 7731
-0.257 0.656 1.653 8131
-0.260 0.663 1.658 9194
-0.262 0.667 1.656 8770
-0.262 0.668 1.647 8368
-0.264 0.672 1.645 7032
-0.265 0.676 1.642 5305
-0.267 0.680 1.640 4790
-0.270 0.688 1.645 6227
-0.271 0.692 1.643 7735
-0.274 0.699 1.648 8138
-0.277 0.706 1.652 8652
-0.278 0.707 1.643 8503
-0.278 0.708 1.634 8503
-0.279 0.712 1.632 8224
-0.280 0.712 1.622 7776
-0.283 0.720 1.627 7002
-0.288 0.734 1.646 6273
-0.291 0.742 1.650 6075
-0.293 0.746 1.648 5837
-0.297 0.757 1.659 6846
-0.299 0.761 1.657 7960
-0.300 0.765 1.654 7697
-0.302 0.770 1.652 7664
-0.302 0.770 1.642 7694
-0.304 0.774 1.640 12495
-0.304 0.774 1.631 17320
-0.307 0.782 1.635 18300
-0.310 0.790 1.639 16127
-0.312 0.794 1.637 12903
-0.313 0.798 1.634 10307
-0.316 0.806 1.638 7988
-0.319 0.814 1.643 12132
-0.322 0.821 1.647 18696
-0.324 0.826 1.644 20741
-0.326 0.830 1.641 18471
-0.327 0.834 1.639 16148
-0.329 0.838 1.636 13171
-0.332 0.846 1.640 8096
-0.337 0.858 1.651 6499
-0.338 0.862 1.648 8857
-0.341 0.870 1.652 10523
-0.343 0.874 1.649 9928
-0.343 0.874 1.640 12750
-0.346 0.882 1.643 19187
-0.348 0.886 1.641 22920
-0.351 0.894 1.644 23777
-0.356 0.906 1.655 23642
-0.359 0.914 1.658 20273
-0.364 0.927 1.669 16485
-0.365 0.931 1.666 13263
-0.365 0.931 1.656 9844
-0.367 0.935 1.653 8235
-0.370 0.943 1.657 8570
-0.373 0.951 1.660 13681
-0.375 0.956 1.657 26217
-0.377 0.960 1.654 33158
-0.380 0.968 1.657 34153
-0.382 0.972 1.654 28702
-0.385 0.980 1.658 16854
-0.386 0.985 1.655 14363
-0.390 0.993 1.658 15259
-0.393 1.001 1.661 16436
-0.395 1.005 1.658 17552
-0.400 1.018 1.667 11663
-0.406 1.036 1.683 6985
-0.405 1.031 1.667 8842
-0.406 1.035 1.664 13529
-0.408 1.039 1.661 13499
-0.409 1.043 1.657 10145
-0.409 1.043 1.648 9840
-0.413 1.051 1.651 13502
-0.418 1.065 1.660 18266
-0.419 1.069 1.656 17767
-0.421 1.073 1.653 14188
-0.423 1.077 1.649 16546
-0.424 1.081 1.646 20918
-0.426 1.085 1.643 19572
-0.431 1.098 1.651 15733
-0.436 1.112 1.660 15454
-0.438 1.116 1.657 16470
-0.440 1.120 1.653 15582
-0.443 1.128 1.656 12688
-0.445 1.133 1.652 16758
-0.448 1.141 1.655 26199
-0.451 1.150 1.657 29581
-0.455 1.159 1.659 25341
-0.457 1.163 1.656 15198
-0.456 1.162 1.646 11779
-0.460 1.171 1.648 16051
-0.461 1.175 1.644 17219
-0.465 1.184 1.647 13475
-0.470 1.198 1.655 14709
-0.472 1.202 1.651 24527
-0.471 1.201 1.641 26123
-0.475 1.210 1.643 16737
-0.480 1.224 1.651 13479
-0.484 1.233 1.653 14254
-0.486 1.237 1.649 15012
-0.483 1.231 1.634 12686
-0.485 1.235 1.630 10614
-0.488 1.244 1.632 9686
-0.492 1.253 1.633 9040
-0.497 1.267 1.641 18326
-0.499 1.271 1.637 27968
-0.503 1.281 1.639 21818
-0.506 1.290 1.640 13472
-0.508 1.294 1.636 13513
-0.509 1.298 1.632 14869
-0.513 1.307 1.634 10543
-0.515 1.311 1.630 6604
-0.520 1.325 1.637 10299
-0.522 1.329 1.633 14818
-0.527 1.344 1.640 17270
-0.529 1.348 1.635 18346
-0.531 1.352 1.631 20766
-0.532 1.356 1.627 33081
-0.536 1.365 1.628 28466
-0.539 1.374 1.629 14231
-0.541 1.378 1.625 20055
-0.540 1.377 1.615 31413
-0.542 1.381 1.610 26308
-0.544 1.385 1.606 27984
-0.547 1.394 1.607 25130
-0.553 1.409 1.614 18576
-0.557 1.418 1.615 19532
-0.560 1.427 1.616 15205
-0.568 1.448 1.627 14980
-0.574 1.462 1.633 20575
-0.578 1.472 1.634 20109
-0.584 1.487 1.640 18551
-0.587 1.496 1.641 17020
-0.589 1.500 1.636 18006
-0.593 1.510 1.637 17068
-0.596 1.519 1.637 13601
-0.598 1.523 1.632 13415
-0.597 1.522 1.622 11420
-0.597 1.520 1.612 9101
-0.600 1.530 1.612 9818
-0.604 1.539 1.613 11031
-0.608 1.549 1.613 10087
-0.618 1.575 1.629 10650
-0.624 1.590 1.634 20138
-0.624 1.589 1.624 23093
-0.625 1.593 1.619 16123
-0.631 1.608 1.624 18371
-0.633 1.612 1.619 25737
-0.634 1.616 1.614 17578
-0.636 1.620 1.609 12240
-0.644 1.641 1.619 15927
-0.650 1.656 1.623 23966
-0.654 1.666 1.623 32579
-0.656 1.670 1.618 32069
-0.655 1.668 1.608 25779
-0.656 1.672 1.602 19681
-0.658 1.676 1.597 13004
-0.664 1.692 1.601 10714
-0.670 1.707 1.606 13338
-0.674 1.717 1.605 10498
-0.678 1.727 1.605 7818
-0.682 1.737 1.604 10589
-0.685 1.746 1.603 18227
-0.689 1.756 1.603 31632
-0.693 1.766 1.602 43134
-0.695 1.770 1.596 47775
-0.699 1.780 1.595 44122
-0.700 1.784 1.590 33902
-0.702 1.788 1.584 20994
-0.708 1.803 1.588 10225
-0.728 1.855 1.619 7561
-0.718 1.829 1.590 7362
-0.719 1.833 1.584 7692
-0.735 1.873 1.606 8264
-0.739 1.883 1.605 10624
-0.743 1.893 1.603 11552
-0.752 1.915 1.611 12215
-0.753 1.919 1.605 15095
-0.755 1.923 1.599 17139
-0.759 1.933 1.597 16092
-0.760 1.937 1.591 16403
-0.762 1.940 1.585 16787
-0.763 1.944 1.579 11363
-0.791 2.015 1.621 11524
-0.793 2.019 1.615 11976
-0.794 2.023 1.609 13941
-0.793 2.021 1.598 16281
-0.795 2.025 1.591 17250
-0.794 2.023 1.581 12998
-0.810 2.064 1.600 11392
-0.819 2.086 1.606 13794
-0.821 2.090 1.600 12461
-0.822 2.094 1.593 14239
-0.826 2.104 1.591 14261
-0.828 2.108 1.584 12565
-0.829 2.112 1.577 9911
-0.833 2.122 1.575 6547
-0.862 2.195 1.614 7332
-0.853 2.174 1.590 8083
-0.850 2.165 1.575 8898
-0.849 2.163 1.564 7806
-0.883 2.249 1.610 7687
-0.892 2.272 1.615 8110
-0.896 2.282 1.612 8292
-0.897 2.286 1.605 7192
-0.901 2.297 1.602 6137
-0.905 2.307 1.598 5574
-0.915 2.330 1.603 3669
-0.888 2.264 1.552 3664
-0.903 2.299 1.565 3426
-0.909 2.316 1.565 4522
-0.911 2.320 1.558 4743
-0.910 2.317 1.547 5013
-0.911 2.321 1.539 3786
-0.961 2.448 1.604 2894
-0.937 2.387 1.559 2977
-0.936 2.384 1.547 2891
-0.937 2.388 1.540 2807
-0.934 2.379 1.525 2637
-0.930 2.369 1.510 2770
-0.972 2.477 1.561 3427
-0.971 2.475 1.550 4852
-0.975 2.485 1.546 6199
-0.977 2.489 1.538 7613
-0.978 2.493 1.530 8622
-0.977 2.490 1.519 9777
-0.986 2.513 1.521 10047
-1.001 2.550 1.531 12258
-1.005 2.560 1.527 9717
-1.009 2.571 1.522 7592
-1.016 2.588 1.521 6666
-1.022 2.605 1.520 6610
-1.026 2.615 1.515 8191
-1.028 2.619 1.507 9723
-1.029 2.622 1.498 8287
-1.025 2.613 1.483 7586
-1.027 2.616 1.475 8126
-1.028 2.620 1.467 6463
-1.030 2.623 1.458 4801
-1.065 2.714 1.493 4364
-1.067 2.718 1.484 5339
-1.068 2.721 1.476 5118
-1.072 2.732 1.470 4984
-1.074 2.735 1.462 4984
-1.075 2.739 1.453 4352
-1.076 2.742 1.444 3720
-1.078 2.746 1.436 1860
-0.233 0.600 1.638 23294
-0.235 0.604 1.636 22584
-0.238 0.611 1.641 22386
-0.239 0.615 1.639 21240
-0.241 0.619 1.637 20093
-0.242 0.624 1.635 19571
-0.243 0.624 1.626 16510
-0.246 0.632 1.631 13830
-0.247 0.636 1.629 10442
-0.251 0.646 1.641 7590
-0.255 0.656 1.653 8093
-0.258 0.664 1.658 9166
-0.260 0.668 1.656 8764
-0.260 0.669 1.647 8384
-0.263 0.676 1.652 6987
-0.263 0.677 1.642 5198
-0.265 0.681 1.640 4668
-0.268 0.688 1.645 5419
-0.269 0.692 1.643 6243
-0.272 0.700 1.648 6617
-0.275 0.707 1.652 7178
-0.275 0.708 1.643 6899
-0.276 0.709 1.634 6867
-0.276 0.709 1.625 6426
-0.277 0.713 1.622 5909
-0.283 0.728 1.641 5553
-0.286 0.735 1.646 5747
-0.289 0.743 1.650 6173
-0.290 0.747 1.648 6194
-0.295 0.758 1.659 6627
-0.298 0.766 1.664 7138
-0.299 0.770 1.661 6423
-0.301 0.774 1.659 7802
-0.301 0.775 1.649 9224
-0.301 0.775 1.640 13538
-0.303 0.779 1.637 18230
-0.305 0.783 1.635 18434
-0.308 0.791 1.639 15367
-0.309 0.795 1.637 11780
-0.311 0.799 1.634 9591
-0.314 0.807 1.638 7683
-0.317 0.815 1.643 12456
-0.320 0.823 1.647 19085
-0.321 0.827 1.644 20840
-0.323 0.831 1.641 17974
-0.326 0.839 1.645 15069
-0.328 0.843 1.643 12747
-0.331 0.851 1.647 9919
-0.335 0.863 1.657 10159
-0.335 0.863 1.648 12375
-0.337 0.867 1.645 13307
-0.340 0.875 1.649 12056
-0.340 0.875 1.640 13597
-0.343 0.883 1.643 18769
-0.345 0.887 1.641 22757
-0.348 0.895 1.644 24072
-0.353 0.907 1.655 24312
-0.356 0.916 1.658 20824
-0.361 0.928 1.669 17169
-0.362 0.932 1.666 14930
-0.362 0.932 1.656 10993
-0.364 0.936 1.653 8043
-0.367 0.944 1.657 8150
-0.370 0.953 1.660 14301
-0.372 0.957 1.657 28468
-0.374 0.961 1.654 35337
-0.377 0.969 1.657 36088
-0.378 0.973 1.654 30255
-0.382 0.982 1.658 18321
-0.385 0.990 1.661 15947
-0.387 0.994 1.658 16813
-0.390 1.003 1.661 17617
-0.391 1.007 1.658 18383
-0.396 1.020 1.667 12551
-0.401 1.032 1.677 6991
-0.401 1.032 1.667 7082
-0.401 1.032 1.658 10846
-0.403 1.036 1.654 11434
-0.404 1.040 1.651 9113
-0.406 1.044 1.648 10018
-0.409 1.053 1.651 14022
-0.414 1.066 1.660 18723
-0.416 1.070 1.656 18411
-0.418 1.074 1.653 15278
-0.419 1.078 1.649 18159
-0.421 1.082 1.646 22654
-0.422 1.086 1.643 20398
-0.428 1.100 1.651 15056
-0.433 1.113 1.660 14444
-0.434 1.117 1.657 16044
-0.436 1.121 1.653 15299
-0.439 1.130 1.656 12779
-0.443 1.139 1.658 17450
-0.444 1.143 1.655 26540
-0.450 1.156 1.663 28438
-0.451 1.160 1.659 23539
-0.453 1.165 1.656 14462
-0.454 1.169 1.652 12312
-0.456 1.173 1.648 16567
-0.458 1.177 1.644 16462
-0.461 1.186 1.647 12217
-0.465 1.195 1.649 15133
-0.466 1.199 1.645 26283
-0.468 1.203 1.641 27604
-0.471 1.212 1.643 17490
-0.477 1.226 1.651 13099
-0.480 1.235 1.653 14182
-0.482 1.239 1.649 15427
-0.479 1.233 1.634 13062
-0.481 1.237 1.630 10340
-0.483 1.241 1.626 8094
-0.488 1.255 1.633 8390
