-0.861 1.539 1.655 16619
-0.863 1.543 1.649 13839
-0.868 1.552 1.649 10472
-0.876 1.567 1.654 11169
-0.884 1.581 1.659 17047
-0.890 1.590 1.659 25845
-0.895 1.599 1.658 24368
-0.900 1.609 1.658 25192
-0.899 1.607 1.647 31486
-0.904 1.616 1.647 30262
-0.906 1.620 1.641 20224
-0.911 1.629 1.641 9979
-0.920 1.644 1.645 8064
-0.919 1.642 1.635 6990
-0.942 1.684 1.663 10782
-0.941 1.683 1.652 17491
-0.947 1.692 1.652 20754
-0.946 1.690 1.641 28770
-0.948 1.694 1.635 37472
-0.956 1.709 1.639 41357
-0.961 1.718 1.638 42241
-0.963 1.722 1.632 29965
-0.965 1.726 1.626 17786
-0.974 1.741 1.630 18222
-0.979 1.750 1.629 15942
-1.003 1.793 1.655 11101
-1.008 1.803 1.654 11336
-1.017 1.818 1.657 14757
-1.016 1.816 1.646 19651
-1.021 1.825 1.645 20375
-1.026 1.835 1.643 17713
-1.028 1.838 1.637 15188
-1.027 1.837 1.626 12901
-1.033 1.846 1.624 9908
-1.038 1.855 1.623 10423
-1.040 1.859 1.616 16558
-1.049 1.874 1.619 19486
-1.057 1.890 1.621 19815
-1.056 1.888 1.611 19112
-1.061 1.897 1.609 20246
-1.067 1.907 1.607 18227
-1.072 1.916 1.604 14393
-1.084 1.937 1.611 14119
-1.089 1.947 1.609 14316
-1.091 1.950 1.602 10631
-1.093 1.954 1.596 7908
-1.111 1.987 1.610 9482
-1.114 1.991 1.603 11879
-1.116 1.994 1.597 11371
-1.118 1.998 1.590 9753
-1.146 2.049 1.617 9061
-1.145 2.046 1.606 11793
-1.144 2.044 1.594 10484
-1.149 2.054 1.592 7059
-1.154 2.063 1.589 5067
-1.156 2.067 1.582 5817
-1.198 2.142 1.624 11617
-1.200 2.146 1.616 15649
-1.202 2.149 1.609 16088
-1.204 2.153 1.602 16528
-1.207 2.157 1.594 15505
-1.215 2.172 1.595 15371
-1.221 2.182 1.592 16291
-1.223 2.186 1.584 14046
-1.225 2.189 1.577 11802
-1.227 2.193 1.570 12396
-1.232 2.203 1.566 13102
-1.282 2.291 1.612 9863
-1.280 2.289 1.601 9746
-1.282 2.292 1.593 8808
-1.281 2.290 1.581 6131
-1.266 2.263 1.555 5611
-1.312 2.346 1.596 6895
-1.311 2.344 1.584 8822
-1.316 2.353 1.580 9228
-1.325 2.369 1.579 10397
-1.331 2.379 1.575 9687
-1.333 2.383 1.567 9072
-1.342 2.398 1.566 7358
-1.347 2.408 1.562 6135
-1.353 2.418 1.557 7185
-1.355 2.422 1.549 8264
-1.391 2.487 1.576 9349
-1.393 2.491 1.568 10883
-1.395 2.494 1.559 10056
-1.397 2.498 1.551 9258
-1.403 2.508 1.546 8453
-1.408 2.517 1.541 7829
-1.407 2.515 1.529 5874
-1.402 2.506 1.514 4504
-1.404 2.509 1.505 4504
-1.406 2.513 1.497 3532
-1.450 2.591 1.528 2884
-1.490 2.664 1.555 3721
-1.492 2.668 1.546 5577
-1.505 2.690 1.547 6908
-1.510 2.700 1.541 8808
-1.512 2.703 1.532 8808
-1.514 2.707 1.523 8469
-1.520 2.717 1.517 8289
-1.522 2.720 1.508 4144
-0.732 1.308 0.802 339
-0.314 0.566 1.645 6472
-0.317 0.570 1.643 8780
-0.319 0.573 1.641 11089
-0.319 0.574 1.632 13453
-0.321 0.578 1.630 15819
-0.323 0.582 1.628 16311
-0.325 0.586 1.626 15724
-0.326 0.586 1.617 14711
-0.328 0.590 1.615 13099
-0.328 0.591 1.605 11767
-0.334 0.601 1.618 15021
-0.336 0.604 1.615 18964
-0.340 0.611 1.621 22095
-0.342 0.615 1.618 25309
-0.346 0.622 1.623 21875
-0.348 0.626 1.621 18974
-0.350 0.629 1.619 16255
-0.354 0.636 1.624 13110
-0.357 0.643 1.629 12895
-0.361 0.650 1.634 15210
-0.363 0.654 1.631 17686
-0.367 0.661 1.636 17085
-0.371 0.668 1.641 17925
-0.373 0.672 1.639 17144
-0.377 0.679 1.643 16441
-0.379 0.682 1.641 13657
-0.383 0.690 1.646 10432
-0.389 0.700 1.657 8027
-0.389 0.701 1.648 7715
-0.392 0.704 1.645 10090
-0.396 0.712 1.650 14773
-0.396 0.712 1.640 18746
-0.400 0.719 1.645 18159
-0.402 0.723 1.642 17581
-0.404 0.727 1.640 14681
-0.406 0.731 1.637 11780
-0.408 0.734 1.635 10939
-0.412 0.742 1.639 9440
-0.414 0.745 1.637 8584
-0.418 0.753 1.641 8767
-0.423 0.760 1.645 9449
-0.429 0.771 1.656 10839
-0.431 0.775 1.653 15190
-0.431 0.775 1.644 18047
-0.433 0.779 1.641 17665
-0.435 0.783 1.639 17242
-0.437 0.787 1.636 22674
-0.441 0.794 1.640 25075
-0.443 0.798 1.637 22116
-0.446 0.802 1.635 27484
-0.450 0.809 1.639 31482
-0.454 0.817 1.642 32684
-0.456 0.820 1.640 31713
-0.460 0.828 1.643 30628
-0.462 0.832 1.641 30046
-0.465 0.836 1.638 25103
-0.469 0.843 1.642 15288
-0.482 0.866 1.672 14266
-0.486 0.874 1.675 15057
-0.492 0.886 1.685 22050
-0.497 0.893 1.689 28504
-0.499 0.897 1.686 29076
-0.503 0.905 1.689 20786
-0.503 0.905 1.680 13468
-0.503 0.905 1.670 23893
-0.505 0.909 1.667 31853
-0.510 0.917 1.670 35175
-0.512 0.921 1.667 32456
-0.514 0.925 1.664 24022
-0.516 0.928 1.661 32136
-0.518 0.932 1.658 40763
-0.523 0.940 1.661 45640
-0.527 0.948 1.664 49089
-0.529 0.952 1.661 39975
-0.534 0.960 1.664 27056
-0.536 0.964 1.661 17735
-0.540 0.972 1.664 13406
-0.542 0.976 1.661 12786
-0.545 0.980 1.657 11872
-0.544 0.979 1.648 8749
-0.549 0.987 1.651 7547
-0.549 0.987 1.641 7134
-0.553 0.995 1.644 9622
-0.555 0.999 1.640 16296
-0.560 1.007 1.643 16757
-0.564 1.015 1.646 10031
-0.571 1.027 1.655 8990
-0.571 1.027 1.645 12460
-0.575 1.035 1.648 13393
-0.580 1.043 1.651 15601
-0.587 1.056 1.659 15665
-0.589 1.060 1.656 16006
-0.589 1.059 1.646 16235
-0.598 1.076 1.661 15772
-0.605 1.089 1.669 22425
-0.607 1.093 1.665 24760
-0.612 1.101 1.668 25873
-0.614 1.105 1.664 32612
-0.616 1.109 1.660 30837
-0.623 1.122 1.668 19718
-0.628 1.130 1.671 20998
-0.630 1.134 1.667 31723
-0.632 1.138 1.663 27854
-0.632 1.137 1.653 13142
-0.652 1.173 1.691 6284
-0.652 1.172 1.681 10508
-0.651 1.172 1.671 13466
-0.653 1.175 1.667 20429
-0.658 1.184 1.669 24450
-0.660 1.188 1.665 14757
-0.665 1.196 1.667 9791
-0.667 1.200 1.663 12343
-0.669 1.204 1.658 10009
-0.677 1.217 1.666 8303
-0.674 1.212 1.650 8886
-0.684 1.230 1.663 13596
-0.688 1.239 1.665 22754
-0.693 1.247 1.667 18356
-0.695 1.251 1.662 11001
-0.692 1.245 1.647 13920
-0.697 1.254 1.648 15416
-0.710 1.277 1.667 19444
-0.712 1.281 1.662 19610
-0.711 1.280 1.652 12620
-0.719 1.294 1.659 13681
-0.727 1.307 1.666 19525
-0.734 1.321 1.673 30263
-0.734 1.320 1.663 25679
-0.733 1.319 1.653 16924
-0.732 1.318 1.643 13566
-0.735 1.321 1.638 12146
-0.742 1.335 1.645 13162
-0.750 1.349 1.651 19453
-0.758 1.363 1.657 28954
-0.762 1.372 1.658 30094
-0.767 1.381 1.659 20958
-0.772 1.389 1.660 21796
-0.774 1.393 1.655 28064
-0.774 1.392 1.645 25346
-0.779 1.401 1.646 24738
-0.787 1.415 1.651 25222
-0.774 1.393 1.620 22783
-0.774 1.392 1.610 24620
-0.773 1.390 1.600 22272
-0.809 1.456 1.659 28012
-0.811 1.460 1.654 30425
-0.814 1.464 1.649 25672
-0.816 1.468 1.644 17064
-0.821 1.477 1.644 10402
-0.829 1.491 1.649 14343
-0.834 1.500 1.650 20811
-0.836 1.504 1.644 16820
-0.847 1.523 1.655 13487
-0.855 1.538 1.660 17506
-0.857 1.542 1.655 17712
-0.862 1.551 1.655 15289
-0.864 1.554 1.649 11754
-0.869 1.564 1.649 10264
-0.880 1.583 1.659 16089
-0.885 1.593 1.659 25306
-0.890 1.602 1.658 22730
-0.893 1.606 1.653 23632
-0.895 1.610 1.647 30904
-0.900 1.619 1.647 30443
-0.902 1.623 1.641 19970
-0.907 1.632 1.641 9598
-0.918 1.652 1.650 8260
-0.917 1.650 1.639 6761
-0.938 1.687 1.663 7385
-0.937 1.685 1.652 11917
-0.939 1.689 1.647 16069
-0.941 1.693 1.641 24459
-0.943 1.697 1.635 31570
-0.951 1.712 1.639 35511
-0.957 1.721 1.638 38282
-0.959 1.725 1.632 28252
-0.964 1.734 1.631 16661
-0.972 1.749 1.635 17548
-0.974 1.753 1.629 15692
-0.998 1.796 1.655 11593
-1.000 1.800 1.649 11955
-1.009 1.815 1.652 13696
-1.011 1.819 1.646 17235
-1.013 1.822 1.640 17768
-1.021 1.837 1.643 14587
-1.023 1.841 1.637 12370
-1.019 1.834 1.622 10996
-1.025 1.843 1.620 8898
-1.033 1.858 1.623 9549
-1.035 1.862 1.616 14936
-1.043 1.877 1.619 18182
-1.052 1.892 1.621 18993
-1.054 1.896 1.615 17930
-1.056 1.900 1.609 18297
-1.068 1.921 1.615 16891
-1.076 1.936 1.618 14888
-1.085 1.952 1.620 14892
-1.087 1.955 1.613 13123
-1.086 1.953 1.602 9731
-1.088 1.957 1.596 7692
-1.106 1.990 1.610 9040
-1.108 1.994 1.603 11341
-1.110 1.997 1.597 10785
-1.112 2.001 1.590 9644
-1.140 2.052 1.617 9646
-1.136 2.044 1.601 12878
-1.138 2.047 1.594 11765
-1.143 2.057 1.592 7701
-1.149 2.067 1.589 4985
-1.151 2.070 1.582 5654
-1.192 2.145 1.624 10976
-1.194 2.149 1.616 14732
-1.197 2.153 1.609 15277
-1.199 2.156 1.602 15823
-1.204 2.166 1.598 15369
-1.213 2.182 1.599 16536
-1.215 2.185 1.592 18205
-1.217 2.189 1.584 15097
-1.222 2.199 1.581 12077
-1.224 2.202 1.573 12511
-1.226 2.206 1.566 12945
-1.275 2.294 1.612 9527
-1.274 2.292 1.601 10293
-1.276 2.296 1.593 9691
-1.271 2.287 1.578 6957
-1.260 2.267 1.555 6446
-1.306 2.350 1.596 6772
-1.305 2.347 1.584 8748
-1.310 2.357 1.580 9078
-1.319 2.373 1.579 9945
-1.324 2.383 1.575 9080
-1.330 2.392 1.571 8430
-1.335 2.402 1.566 6705
-1.341 2.412 1.562 5300
-1.343 2.415 1.553 6096
-1.386 2.493 1.588 7513
-1.385 2.491 1.576 9013
-1.387 2.494 1.568 10592
-1.389 2.498 1.559 9839
-1.391 2.502 1.551 9139
-1.396 2.511 1.546 8055
-1.401 2.521 1.541 7248
-1.403 2.525 1.532 5270
-1.395 2.510 1.514 3874
-1.397 2.513 1.505 3874
-1.399 2.516 1.497 3180
-1.404 2.526 1.491 2555
-1.483 2.668 1.555 4234
-1.488 2.678 1.550 6357
-1.494 2.688 1.544 7792
-1.499 2.698 1.538 9705
-1.501 2.701 1.529 9705
-1.507 2.711 1.523 9226
-1.512 2.721 1.517 8823
-1.514 2.724 1.508 4411
-0.728 1.310 0.802 356
-0.314 0.566 1.645 5997
-0.316 0.570 1.643 8390
-0.318 0.574 1.641 10783
-0.318 0.575 1.632 13161
-0.321 0.578 1.630 15564
-0.323 0.582 1.628 15981
-0.325 0.586 1.626 15314
-0.325 0.587 1.617 14237
-0.327 0.591 1.615 12556
-0.328 0.591 1.605 11141
-0.333 0.601 1.618 14867
-0.335 0.605 1.615 19195
-0.339 0.612 1.621 22518
-0.341 0.615 1.618 25897
-0.345 0.622 1.623 22461
-0.347 0.626 1.621 19582
-0.349 0.630 1.619 16650
-0.353 0.637 1.624 12985
-0.357 0.644 1.629 12305
-0.359 0.647 1.627 14855
-0.363 0.654 1.631 17643
-0.366 0.661 1.636 16927
-0.370 0.668 1.641 17860
-0.374 0.675 1.646 17423
-0.376 0.679 1.643 17105
-0.378 0.683 1.641 14734
-0.382 0.690 1.646 11883
-0.386 0.697 1.650 8996
-0.388 0.701 1.648 7726
-0.391 0.705 1.645 9252
-0.393 0.709 1.643 13884
-0.395 0.712 1.640 18018
-0.399 0.720 1.645 17617
-0.401 0.724 1.642 17345
-0.403 0.727 1.640 14690
-0.405 0.731 1.637 12035
-0.407 0.735 1.635 11560
-0.411 0.742 1.639 10483
-0.413 0.746 1.637 9545
-0.417 0.753 1.641 9135
-0.422 0.761 1.645 9217
-0.430 0.775 1.663 10561
-0.430 0.775 1.653 15087
-0.430 0.776 1.644 18233
-0.432 0.780 1.641 17757
-0.434 0.783 1.639 17164
-0.436 0.787 1.636 22452
-0.440 0.795 1.640 25283
-0.451 0.813 1.664 23113
-0.445 0.802 1.635 28266
-0.449 0.810 1.639 32501
-0.453 0.817 1.642 33169
-0.455 0.821 1.640 31672
-0.459 0.829 1.643 30615
-0.461 0.832 1.641 30711
-0.463 0.836 1.638 26005
-0.468 0.844 1.642 16078
-0.480 0.867 1.672 13901
-0.485 0.875 1.675 14437
-0.491 0.886 1.685 21238
-0.493 0.890 1.682 27414
-0.495 0.894 1.679 27450
-0.502 0.906 1.689 19124
-0.498 0.898 1.667 13467
-0.500 0.902 1.664 24569
-0.504 0.910 1.667 31638
-0.508 0.917 1.670 34052
-0.511 0.921 1.667 30722
-0.513 0.925 1.664 23157
-0.515 0.929 1.661 31848
-0.517 0.933 1.658 40055
-0.521 0.941 1.661 44696
-0.526 0.949 1.664 47845
-0.528 0.953 1.661 39104
-0.532 0.961 1.664 26487
-0.535 0.965 1.661 16868
-0.539 0.973 1.664 12982
-0.541 0.976 1.661 13070
-0.541 0.976 1.651 12515
-0.543 0.980 1.648 9517
-0.545 0.984 1.644 7431
-0.547 0.988 1.641 6377
-0.552 0.996 1.644 10646
-0.556 1.004 1.647 19418
-0.558 1.008 1.643 19537
-0.563 1.016 1.646 11431
-0.570 1.028 1.655 9463
-0.569 1.028 1.645 12324
-0.574 1.036 1.648 14020
-0.581 1.048 1.657 17498
-0.585 1.056 1.659 17667
-0.590 1.065 1.662 18053
-0.590 1.064 1.652 17706
-0.594 1.072 1.655 15996
-0.601 1.085 1.663 20239
-0.606 1.093 1.665 22120
-0.608 1.097 1.662 25788
-0.613 1.106 1.664 34958
-0.617 1.114 1.666 32377
-0.622 1.122 1.668 19857
-0.627 1.131 1.671 20362
-0.629 1.135 1.667 32409
-0.631 1.139 1.663 29989
-0.633 1.142 1.659 14659
-0.651 1.174 1.691 6994
-0.650 1.173 1.681 9162
-0.650 1.172 1.671 13352
-0.652 1.176 1.667 20967
-0.654 1.180 1.663 24452
-0.659 1.189 1.665 15132
-0.663 1.197 1.667 10222
-0.666 1.201 1.663 12541
-0.670 1.210 1.664 11940
-0.675 1.218 1.666 11507
-0.675 1.217 1.656 10542
-0.682 1.231 1.663 13771
-0.687 1.239 1.665 22645
-0.692 1.248 1.667 17789
-0.694 1.252 1.662 9879
-0.691 1.246 1.647 13936
-0.693 1.250 1.642 15374
-0.708 1.278 1.667 18116
-0.708 1.277 1.657 21403
-0.707 1.276 1.647 17113
-0.712 1.285 1.648 13950
-0.725 1.308 1.666 14380
-0.730 1.317 1.667 21948
-0.729 1.316 1.657 24964
-0.729 1.315 1.647 24774
-0.731 1.319 1.643 20118
-0.733 1.322 1.638 13405
-0.740 1.336 1.645 12675
-0.748 1.350 1.651 17493
-0.756 1.364 1.657 24464
-0.761 1.373 1.658 24324
-0.768 1.387 1.664 17447
-0.771 1.390 1.660 22639
-0.773 1.394 1.655 30975
-0.775 1.398 1.650 27269
-0.780 1.407 1.651 25498
-0.785 1.416 1.651 24479
-0.778 1.404 1.631 16351
-0.775 1.398 1.615 14631
-0.805 1.453 1.664 18913
-0.807 1.457 1.659 25523
-0.810 1.461 1.654 28799
-0.812 1.465 1.649 24654
-0.814 1.469 1.644 16867
-0.819 1.478 1.644 10502
-0.827 1.492 1.649 14166
-0.832 1.501 1.650 21274
-0.834 1.505 1.644 18503
-0.845 1.524 1.655 13698
-0.853 1.539 1.660 17463
-0.858 1.548 1.660 18191
-0.860 1.552 1.655 15973
-0.862 1.556 1.649 12576
-0.867 1.565 1.649 9719
-0.875 1.579 1.654 14977
-0.883 1.594 1.659 23467
-0.885 1.598 1.653 20596
-0.891 1.607 1.653 22490
-0.893 1.611 1.647 30602
-0.898 1.620 1.647 30640
-0.900 1.624 1.641 19731
-0.905 1.633 1.641 9199
-0.916 1.653 1.650 8112
-0.915 1.652 1.639 6174
-0.936 1.688 1.663 5002
-0.932 1.681 1.648 7722
-0.934 1.685 1.642 12656
-0.936 1.689 1.636 20932
-0.941 1.698 1.635 25927
-0.952 1.718 1.644 30324
-0.957 1.728 1.643 34245
-0.960 1.732 1.637 26570
-0.965 1.741 1.636 16967
-0.973 1.756 1.639 18340
-0.975 1.760 1.633 15992
-0.990 1.786 1.646 12143
-0.992 1.790 1.640 13023
-1.006 1.816 1.652 12828
-1.009 1.820 1.646 15134
-1.011 1.824 1.640 15628
-1.013 1.827 1.634 11687
-1.018 1.837 1.632 9215
-1.014 1.829 1.617 8968
-1.019 1.839 1.615 7700
-1.031 1.860 1.623 8703
-1.036 1.869 1.621 13517
-1.044 1.884 1.623 16810
-1.050 1.894 1.621 17677
-1.052 1.898 1.615 16104
-1.057 1.907 1.613 15650
-1.072 1.934 1.624 16806
-1.077 1.943 1.622 17262
-1.082 1.953 1.620 15853
-1.084 1.957 1.613 11940
-1.083 1.955 1.602 8584
-1.085 1.958 1.596 7456
-1.107 1.997 1.614 8652
-1.109 2.001 1.608 10670
-1.108 1.999 1.597 9901
-1.110 2.002 1.590 9278
-1.135 2.047 1.612 9983
-1.133 2.045 1.601 13558
-1.135 2.049 1.594 12662
-1.141 2.058 1.592 8486
-1.156 2.086 1.601 5577
-1.148 2.072 1.582 5947
-1.186 2.141 1.619 10162
-1.192 2.150 1.616 13588
-1.194 2.154 1.609 14184
-1.199 2.164 1.606 14808
-1.205 2.174 1.602 14973
-1.210 2.183 1.599 17478
-1.215 2.193 1.596 19567
-1.217 2.197 1.588 15929
-1.226 2.212 1.589 12636
-1.221 2.204 1.573 12380
-1.223 2.208 1.566 12468
-1.225 2.211 1.559 8957
-1.271 2.294 1.601 10573
-1.270 2.291 1.589 10512
-1.265 2.283 1.574 7971
-1.260 2.274 1.559 7393
-1.303 2.351 1.596 6547
-1.302 2.349 1.584 8500
-1.307 2.359 1.580 8652
-1.316 2.374 1.579 9162
-1.318 2.378 1.571 8216
-1.327 2.394 1.571 7521
-1.332 2.404 1.566 5920
-1.334 2.407 1.558 4512
-1.381 2.491 1.596 5265
-1.383 2.495 1.588 7163
-1.385 2.499 1.579 8521
-1.383 2.496 1.568 10031
-1.385 2.500 1.559 9414
-1.387 2.503 1.551 8867
-1.393 2.513 1.546 7585
-1.402 2.529 1.544 6654
-1.400 2.527 1.532 4903
-1.454 2.624 1.574 3618
-1.456 2.628 1.566 3618
-1.462 2.638 1.560 2947
-1.404 2.534 1.495 2630
-1.480 2.670 1.555 4630
-1.485 2.680 1.550 6902
-1.491 2.690 1.544 8390
-1.496 2.700 1.538 10323
-1.498 2.703 1.529 10323
-1.503 2.713 1.523 9688
-1.505 2.716 1.514 9144
-1.507 2.720 1.505 4572
-0.727 1.311 0.802 347
-0.312 0.567 1.645 5472
-0.314 0.571 1.643 7812
-0.316 0.575 1.641 10151
-0.317 0.576 1.632 12676
-0.319 0.579 1.630 15201
-0.321 0.583 1.628 15538
-0.323 0.587 1.626 14862
-0.325 0.591 1.624 13850
-0.326 0.591 1.615 11997
-0.324 0.589 1.598 10455
-0.331 0.602 1.618 14725
-0.334 0.606 1.615 19445
-0.337 0.613 1.621 22909
-0.339 0.616 1.618 26408
-0.343 0.623 1.623 23021
-0.345 0.627 1.621 20259
-0.347 0.631 1.619 17172
-0.351 0.638 1.624 13027
-0.355 0.644 1.629 11835
-0.357 0.648 1.627 14676
-0.359 0.652 1.624 17629
-0.365 0.662 1.636 16730
-0.369 0.669 1.641 17599
-0.372 0.676 1.646 17511
-0.375 0.680 1.643 17521
-0.377 0.684 1.641 15673
-0.381 0.691 1.646 13264
-0.383 0.695 1.643 10191
-0.385 0.699 1.641 8222
-0.387 0.703 1.638 8857
-0.391 0.710 1.643 13283
-0.393 0.714 1.640 17460
-0.397 0.721 1.645 17140
-0.399 0.725 1.642 17111
-0.401 0.728 1.640 14588
-0.403 0.732 1.637 12065
-0.405 0.736 1.635 11857
-0.409 0.743 1.639 11149
-0.411 0.747 1.637 10203
-0.415 0.754 1.641 9352
-0.419 0.762 1.645 8953
-0.427 0.776 1.663 10131
-0.428 0.777 1.653 14912
-0.428 0.777 1.644 18513
-0.430 0.781 1.641 17956
-0.432 0.785 1.639 17201
-0.436 0.792 1.643 22446
-0.440 0.799 1.647 25547
-0.446 0.811 1.657 24327
-0.442 0.803 1.635 28692
-0.447 0.811 1.639 32917
-0.451 0.818 1.642 33162
-0.453 0.822 1.640 31191
-0.457 0.830 1.643 30136
-0.459 0.834 1.641 30822
-0.461 0.838 1.638 26459
-0.465 0.845 1.642 16707
-0.476 0.864 1.665 13454
-0.480 0.872 1.669 13820
-0.487 0.884 1.679 20366
-0.491 0.891 1.682 26285
-0.493 0.895 1.679 25976
-0.497 0.903 1.683 17480
-0.495 0.899 1.667 14397
-0.497 0.903 1.664 25859
-0.502 0.911 1.667 31753
-0.504 0.915 1.664 33345
-0.508 0.923 1.667 28921
-0.510 0.927 1.664 22228
-0.512 0.931 1.661 31095
-0.515 0.934 1.658 38580
-0.519 0.942 1.661 42980
-0.521 0.946 1.658 45769
-0.525 0.954 1.661 37396
-0.530 0.962 1.664 25442
-0.532 0.966 1.661 15992
-0.536 0.974 1.664 12806
-0.538 0.978 1.661 13513
-0.538 0.978 1.651 13311
-0.540 0.981 1.648 10501
-0.543 0.985 1.644 7607
-0.545 0.989 1.641 6321
-0.549 0.997 1.644 12564
-0.554 1.005 1.647 23286
-0.556 1.009 1.643 22934
-0.560 1.017 1.646 13429
-0.567 1.030 1.655 10140
-0.567 1.029 1.645 11988
-0.571 1.037 1.648 14662
-0.578 1.050 1.657 19967
-0.583 1.058 1.659 20103
-0.590 1.071 1.668 20229
-0.587 1.066 1.652 19210
-0.589 1.070 1.648 16178
-0.598 1.087 1.663 18174
-0.603 1.095 1.665 20189
-0.608 1.103 1.668 26132
-0.610 1.107 1.664 36487
-0.614 1.116 1.666 33036
-0.619 1.124 1.668 19485
-0.621 1.128 1.665 19231
-0.626 1.136 1.667 31915
-0.628 1.140 1.663 31331
-0.633 1.149 1.665 17440
-0.640 1.162 1.673 9597
-0.642 1.166 1.669 9756
-0.644 1.170 1.665 13839
-0.649 1.178 1.667 21568
-0.651 1.182 1.663 24138
-0.656 1.190 1.665 15050
-0.660 1.199 1.667 10025
-0.662 1.203 1.663 11645
-0.667 1.212 1.664 11946
-0.672 1.220 1.666 12478
-0.669 1.214 1.650 11249
-0.676 1.228 1.658 13282
-0.683 1.241 1.665 21547
-0.688 1.250 1.667 17048
-0.688 1.249 1.657 9173
-0.685 1.243 1.641 13865
-0.687 1.247 1.637 15321
-0.705 1.280 1.667 15802
-0.704 1.279 1.657 23467
-0.706 1.283 1.652 23681
-0.708 1.287 1.648 16864
-0.719 1.305 1.660 10889
-0.723 1.314 1.661 14210
-0.723 1.313 1.651 25173
-0.725 1.317 1.647 33444
-0.727 1.321 1.643 27322
-0.729 1.324 1.638 15200
-0.737 1.338 1.645 11349
-0.744 1.352 1.651 14491
-0.752 1.366 1.657 18897
-0.760 1.380 1.664 17928
-0.767 1.394 1.670 14631
-0.767 1.393 1.660 23269
-0.769 1.396 1.655 33095
-0.771 1.400 1.650 29665
-0.776 1.409 1.651 26007
-0.781 1.418 1.651 23026
-0.783 1.422 1.647 14496
-0.794 1.441 1.658 10339
-0.801 1.455 1.664 14832
-0.804 1.459 1.659 21806
-0.806 1.463 1.654 25845
-0.808 1.467 1.649 22270
-0.810 1.471 1.644 15802
-0.812 1.475 1.639 10507
-0.823 1.494 1.649 13988
-0.825 1.498 1.644 21784
-0.830 1.507 1.644 20599
-0.838 1.521 1.650 15470
-0.849 1.541 1.660 16902
-0.854 1.550 1.660 17994
-0.856 1.554 1.655 15757
-0.858 1.558 1.649 12852
-0.860 1.562 1.644 9745
-0.871 1.582 1.654 14007
-0.876 1.591 1.654 20651
-0.881 1.600 1.653 18463
-0.886 1.609 1.653 22105
-0.888 1.613 1.647 30676
-0.893 1.622 1.647 30669
-0.895 1.626 1.641 19323
-0.901 1.635 1.641 8817
-0.915 1.661 1.655 7761
-0.917 1.665 1.649 5742
-0.919 1.669 1.644 4574
-0.921 1.673 1.638 6808
-0.926 1.682 1.637 11756
-0.928 1.686 1.631 18842
-0.933 1.695 1.630 21849
-0.948 1.721 1.644 26606
-0.953 1.730 1.643 30516
-0.955 1.734 1.637 25096
-0.963 1.749 1.640 19094
-0.968 1.758 1.639 20293
-0.970 1.762 1.633 16743
-0.976 1.772 1.632 13229
-0.987 1.792 1.640 14681
-0.989 1.796 1.634 12689
-1.004 1.823 1.646 13576
-1.006 1.826 1.640 14296
-1.005 1.824 1.629 10306
-1.000 1.817 1.614 7140
-1.003 1.821 1.608 7338
-1.008 1.830 1.606 6518
-1.026 1.862 1.623 7728
-1.031 1.872 1.621 12306
-1.039 1.887 1.623 15203
-1.044 1.897 1.621 15672
-1.046 1.900 1.615 13555
-1.058 1.921 1.622 12665
-1.070 1.943 1.628 17283
-1.072 1.946 1.622 19330
-1.077 1.956 1.620 16553
-1.079 1.960 1.613 10863
-1.078 1.958 1.602 7369
-1.080 1.961 1.596 7198
-1.105 2.006 1.619 8337
-1.103 2.004 1.608 9819
-1.102 2.002 1.597 8761
-1.104 2.005 1.590 8743
-1.129 2.050 1.612 10146
-1.128 2.048 1.601 13885
-1.130 2.052 1.594 13145
-1.135 2.061 1.592 9159
-1.147 2.083 1.597 6290
-1.142 2.075 1.582 6468
-1.181 2.144 1.619 9173
-1.183 2.148 1.612 12319
-1.188 2.157 1.609 12908
-1.193 2.167 1.606 13680
-1.199 2.177 1.602 14516
-1.204 2.187 1.599 17888
-1.209 2.196 1.596 20313
-1.211 2.200 1.588 16280
-1.223 2.222 1.593 13009
-1.219 2.213 1.577 12059
-1.217 2.211 1.566 11744
-1.219 2.215 1.559 8493
-1.265 2.297 1.601 10576
-1.264 2.295 1.589 11201
-1.259 2.286 1.574 9041
-1.254 2.278 1.559 8472
-1.256 2.281 1.551 6267
-1.295 2.352 1.584 8153
-1.301 2.362 1.580 8056
-1.306 2.372 1.576 8269
-1.311 2.382 1.571 7234
-1.320 2.398 1.571 6458
-1.322 2.401 1.562 5139
-1.328 2.411 1.558 3890
-1.374 2.495 1.596 4930
-1.376 2.499 1.588 6668
-1.378 2.502 1.579 7919
-1.377 2.500 1.568 9206
-1.379 2.504 1.559 8808
-1.381 2.507 1.551 8498
-1.386 2.517 1.546 7130
-1.395 2.533 1.544 6186
-1.397 2.537 1.536 4692
-1.447 2.628 1.574 4138
-1.449 2.632 1.566 4138
-1.451 2.635 1.557 3306
-1.401 2.544 1.498 2733
-1.472 2.674 1.555 4912
-1.478 2.684 1.550 7227
-1.483 2.694 1.544 8674
-1.489 2.704 1.538 10543
-1.491 2.707 1.529 10543
-1.496 2.717 1.523 9812
-1.498 2.720 1.514 9252
-1.500 2.724 1.505 4626
-0.723 1.313 0.802 377
-0.313 0.570 1.652 5029
-0.313 0.571 1.643 7294
-0.314 0.572 1.634 9625
-0.316 0.576 1.632 12168
-0.318 0.580 1.630 14711
-0.320 0.584 1.628 14963
-0.322 0.588 1.626 14247
-0.324 0.591 1.624 13280
-0.326 0.595 1.622 11354
-0.323 0.590 1.598 9810
-0.330 0.603 1.618 14527
-0.334 0.609 1.623 19639
-0.336 0.613 1.621 23259
-0.338 0.617 1.618 26880
-0.340 0.621 1.616 23631
-0.344 0.628 1.621 20915
-0.346 0.631 1.619 17699
-0.348 0.635 1.617 13162
-0.352 0.642 1.622 11516
-0.356 0.649 1.627 14478
-0.358 0.653 1.624 17674
-0.363 0.663 1.636 16494
-0.367 0.670 1.641 17242
-0.371 0.677 1.646 17448
-0.373 0.681 1.643 17732
-0.375 0.685 1.641 16454
-0.379 0.692 1.646 14510
-0.381 0.696 1.643 11488
-0.383 0.700 1.641 9022
-0.385 0.703 1.638 8951
-0.389 0.711 1.643 12881
-0.391 0.714 1.640 16949
-0.394 0.718 1.638 16675
-0.398 0.725 1.642 16723
-0.400 0.729 1.640 14305
-0.402 0.733 1.637 11886
-0.404 0.737 1.635 11842
-0.408 0.744 1.639 11475
-0.410 0.748 1.637 10647
-0.412 0.752 1.634 9533
-0.418 0.763 1.645 8752
-0.422 0.770 1.649 9683
-0.424 0.774 1.647 14630
-0.424 0.774 1.637 18669
-0.428 0.782 1.641 18098
-0.430 0.785 1.639 17259
-0.434 0.793 1.643 22451
-0.439 0.800 1.647 25874
-0.445 0.812 1.657 25622
-0.441 0.804 1.635 28905
-0.445 0.812 1.639 32917
-0.449 0.819 1.642 32707
-0.451 0.823 1.640 30265
-0.455 0.831 1.643 29129
-0.457 0.835 1.641 30303
-0.459 0.838 1.638 26393
-0.464 0.846 1.642 17175
-0.474 0.865 1.665 13245
-0.478 0.873 1.669 13327
-0.483 0.881 1.672 19784
-0.487 0.889 1.676 25505
-0.491 0.896 1.679 24724
-0.491 0.896 1.670 17093
-0.493 0.900 1.667 15728
-0.495 0.904 1.664 27154
-0.500 0.912 1.667 31869
-0.502 0.916 1.664 32469
-0.504 0.920 1.661 26959
-0.508 0.928 1.664 21058
-0.510 0.932 1.661 29719
-0.513 0.935 1.658 36195
-0.517 0.943 1.661 40017
-0.521 0.951 1.664 42396
-0.523 0.955 1.661 34827
-0.528 0.963 1.664 23815
-0.530 0.967 1.661 15173
-0.534 0.975 1.664 13048
-0.534 0.975 1.654 14440
-0.536 0.979 1.651 14446
-0.538 0.982 1.648 11796
-0.540 0.986 1.644 7998
-0.545 0.994 1.647 6765
-0.549 1.002 1.650 15186
-0.551 1.006 1.647 27365
-0.554 1.010 1.643 26418
-0.560 1.023 1.652 15567
-0.565 1.031 1.655 10819
-0.565 1.030 1.645 11557
-0.571 1.043 1.654 15158
-0.576 1.051 1.657 22120
-0.580 1.059 1.659 22082
-0.587 1.072 1.668 21729
-0.585 1.067 1.652 19809
-0.587 1.071 1.648 15738
-0.596 1.088 1.663 15652
-0.601 1.096 1.665 18988
-0.605 1.105 1.668 26751
-0.607 1.109 1.664 36524
-0.612 1.117 1.666 32270
-0.617 1.125 1.668 18331
-0.619 1.129 1.665 17768
-0.623 1.138 1.667 30587
-0.626 1.142 1.663 31715
-0.630 1.150 1.665 20032
-0.635 1.158 1.667 12867
-0.637 1.162 1.663 11029
-0.639 1.166 1.659 14641
-0.646 1.179 1.667 22154
-0.648 1.183 1.663 23484
-0.653 1.192 1.665 14551
-0.658 1.200 1.667 9656
-0.660 1.204 1.663 10373
-0.665 1.213 1.664 10646
-0.669 1.221 1.666 11605
-0.666 1.216 1.650 11098
-0.671 1.224 1.652 12486
-0.681 1.243 1.665 20058
-0.686 1.251 1.667 16421
-0.669 1.222 1.622 9179
-0.682 1.245 1.641 13534
-0.684 1.248 1.637 15170
-0.699 1.276 1.661 13852
-0.702 1.280 1.657 25158
-0.704 1.284 1.652 29574
-0.709 1.293 1.653 19494
-0.713 1.302 1.655 9392
-0.718 1.310 1.656 9400
-0.720 1.314 1.651 26129
-0.722 1.318 1.647 41145
-0.724 1.322 1.643 33248
-0.727 1.326 1.638 16635
-0.734 1.340 1.645 9661
-0.742 1.353 1.651 11287
-0.749 1.367 1.657 13369
-0.760 1.386 1.669 13223
-0.767 1.400 1.675 14335
-0.764 1.394 1.660 23605
-0.766 1.398 1.655 33798
-0.768 1.402 1.650 31422
-0.773 1.411 1.651 26803
-0.778 1.420 1.651 22906
-0.780 1.424 1.647 15079
-0.785 1.433 1.647 8376
-0.796 1.452 1.658 10822
-0.801 1.461 1.659 18090
-0.800 1.460 1.648 22134
-0.805 1.469 1.649 19139
-0.810 1.478 1.649 14291
-0.809 1.476 1.639 10242
-0.820 1.496 1.649 13517
-0.822 1.500 1.644 21851
-0.827 1.509 1.644 22711
-0.832 1.518 1.644 18312
-0.843 1.537 1.655 16830
-0.850 1.552 1.660 17107
-0.853 1.556 1.655 14735
-0.855 1.560 1.649 12471
-0.857 1.564 1.644 10186
-0.868 1.583 1.654 13127
-0.873 1.593 1.654 17314
-0.878 1.602 1.653 16654
-0.883 1.611 1.653 22528
-0.885 1.615 1.647 30977
-0.890 1.624 1.647 30277
-0.892 1.628 1.641 18508
-0.897 1.637 1.641 8680
-0.911 1.663 1.655 7568
-0.916 1.672 1.654 5670
-0.918 1.676 1.648 5616
-0.918 1.674 1.638 8144
-0.923 1.684 1.637 12750
-0.925 1.688 1.631 18062
-0.933 1.702 1.635 19753
-0.944 1.723 1.644 24687
-0.949 1.732 1.643 27189
-0.954 1.742 1.642 23590
-0.960 1.751 1.640 21579
-0.965 1.760 1.639 22302
-0.964 1.759 1.629 17953
-0.972 1.774 1.632 14949
-0.980 1.789 1.635 16554
-0.985 1.798 1.634 13960
-0.997 1.819 1.642 12631
-0.999 1.823 1.636 14349
-0.998 1.821 1.625 11642
-0.994 1.813 1.610 7448
-0.996 1.817 1.604 5954
-1.004 1.832 1.606 5344
-1.022 1.864 1.623 6596
-1.027 1.874 1.621 11206
-1.035 1.889 1.623 13402
-1.041 1.899 1.621 13239
-1.043 1.903 1.615 10692
-1.060 1.935 1.631 10549
-1.063 1.939 1.624 17307
-1.065 1.943 1.618 20702
-1.067 1.946 1.611 17208
-1.066 1.944 1.600 10299
-1.064 1.942 1.589 7522
-1.063 1.940 1.578 7814
-1.100 2.008 1.619 8296
-1.103 2.012 1.612 9089
-1.101 2.010 1.601 7716
-1.100 2.008 1.590 8252
-1.125 2.053 1.612 10038
-1.124 2.050 1.601 13804
-1.126 2.054 1.594 13128
-1.131 2.064 1.592 9493
-1.139 2.079 1.593 6797
-1.138 2.077 1.582 6954
-1.176 2.146 1.619 8125
-1.178 2.150 1.612 11171
-1.184 2.160 1.609 11721
-1.189 2.170 1.606 12546
-1.198 2.185 1.606 13942
-1.203 2.195 1.603 17955
-1.205 2.199 1.596 20344
-1.210 2.209 1.592 16171
-1.219 2.224 1.593 12882
-1.214 2.216 1.577 11480
-1.213 2.213 1.566 10846
-1.215 2.217 1.559 7848
-1.257 2.294 1.597 10508
-1.259 2.297 1.589 11650
-1.254 2.289 1.574 9981
-1.250 2.280 1.559 9448
-1.252 2.284 1.551 6757
-1.290 2.355 1.584 7841
-1.296 2.365 1.580 7440
-1.301 2.375 1.576 7341
-1.307 2.384 1.571 6254
-1.315 2.400 1.571 5381
-1.317 2.404 1.562 4402
-1.319 2.408 1.554 3424
-1.369 2.498 1.596 4607
-1.374 2.508 1.591 6189
-1.373 2.505 1.579 7251
-1.375 2.509 1.571 8356
-1.373 2.506 1.559 8154
-1.372 2.504 1.547 8155
-1.381 2.520 1.546 6784
-1.390 2.536 1.544 5853
-1.440 2.627 1.583 4677
-1.438 2.625 1.571 4722
-1.440 2.628 1.562 4722
-1.446 2.638 1.557 3767
-1.392 2.541 1.495 2946
-1.467 2.677 1.555 5019
-1.469 2.680 1.546 7353
-1.478 2.697 1.544 8636
-1.483 2.707 1.538 10368
-1.485 2.710 1.529 10368
-1.487 2.714 1.520 9627
-1.492 2.724 1.514 9026
-1.494 2.727 1.505 4513
-0.720 1.314 0.802 360
-0.311 0.571 1.652 4719
-0.312 0.572 1.643 6853
-0.313 0.573 1.634 9143
-0.315 0.577 1.632 11628
-0.317 0.581 1.630 14114
-0.319 0.584 1.628 14280
-0.321 0.588 1.626 13532
-0.323 0.592 1.624 12617
-0.325 0.596 1.622 10768
-0.322 0.591 1.598 9147
-0.329 0.603 1.618 14368
-0.333 0.610 1.623 19874
-0.335 0.614 1.621 23640
-0.337 0.618 1.618 27406
-0.339 0.621 1.616 24345
-0.343 0.628 1.621 21607
-0.343 0.629 1.612 18323
-0.347 0.636 1.617 13433
-0.351 0.643 1.622 11298
-0.354 0.650 1.627 14212
-0.356 0.653 1.624 17597
-0.362 0.664 1.636 16210
-0.366 0.671 1.641 16806
-0.370 0.678 1.646 17253
-0.372 0.682 1.643 17764
-0.374 0.685 1.641 17065
-0.376 0.689 1.639 15609
-0.380 0.696 1.643 12667
-0.382 0.700 1.641 9958
-0.384 0.704 1.638 9417
-0.386 0.708 1.636 12815
-0.390 0.715 1.640 16486
-0.392 0.719 1.638 16270
-0.396 0.726 1.642 16197
-0.398 0.730 1.640 13797
-0.400 0.734 1.637 11397
-0.404 0.741 1.642 11500
-0.406 0.745 1.639 11507
-0.408 0.749 1.637 10873
-0.411 0.753 1.634 9673
-0.415 0.760 1.638 8537
-0.420 0.771 1.649 9239
-0.421 0.771 1.640 14466
-0.423 0.775 1.637 18938
-0.427 0.782 1.641 18227
-0.429 0.786 1.639 17367
-0.433 0.794 1.643 22580
-0.437 0.801 1.647 26603
-0.443 0.812 1.657 26971
-0.441 0.809 1.641 29588
-0.443 0.813 1.639 32556
-0.447 0.820 1.642 31864
-0.450 0.824 1.640 28960
-0.454 0.832 1.643 27575
-0.456 0.836 1.641 29021
-0.458 0.839 1.638 25710
-0.462 0.847 1.642 17481
-0.472 0.866 1.665 13279
-0.475 0.870 1.662 13176
-0.481 0.882 1.672 19806
-0.485 0.890 1.676 25415
-0.487 0.893 1.673 24264
-0.487 0.893 1.663 17485
-0.492 0.901 1.667 17519
-0.494 0.905 1.664 28630
-0.496 0.909 1.661 32198
-0.500 0.917 1.664 31689
-0.502 0.921 1.661 25342
-0.504 0.925 1.658 20002
-0.509 0.933 1.661 27722
-0.511 0.936 1.658 32976
-0.515 0.944 1.661 36235
-0.519 0.952 1.664 38346
-0.522 0.956 1.661 31712
-0.526 0.964 1.664 21831
-0.528 0.968 1.661 14528
-0.530 0.972 1.658 13591
-0.532 0.976 1.654 15339
-0.534 0.980 1.651 15475
-0.536 0.984 1.648 13061
-0.539 0.987 1.644 8615
-0.543 0.995 1.647 7669
-0.547 1.004 1.650 18109
-0.552 1.012 1.653 31495
-0.554 1.016 1.649 29988
-0.558 1.024 1.652 17827
-0.563 1.032 1.655 11423
-0.563 1.031 1.645 11154
-0.569 1.044 1.654 15988
-0.574 1.052 1.657 24454
-0.578 1.060 1.659 24271
-0.585 1.073 1.668 22641
-0.585 1.073 1.658 19887
-0.585 1.072 1.648 15085
-0.592 1.085 1.657 13723
-0.599 1.097 1.665 18716
-0.603 1.106 1.668 27391
-0.605 1.110 1.664 35278
-0.610 1.118 1.666 30140
-0.614 1.127 1.668 16575
-0.614 1.126 1.659 16403
-0.621 1.139 1.667 28801
-0.623 1.143 1.663 31253
-0.628 1.151 1.665 21982
-0.633 1.160 1.667 15405
-0.632 1.159 1.657 12245
-0.637 1.167 1.659 15598
-0.644 1.181 1.667 22455
-0.646 1.185 1.663 22081
-0.651 1.193 1.665 13505
-0.653 1.197 1.661 9029
-0.655 1.201 1.657 8716
-0.660 1.209 1.658 8538
-0.664 1.218 1.660 9235
-0.661 1.212 1.645 10209
-0.666 1.221 1.646 11669
-0.679 1.244 1.665 18454
-0.681 1.248 1.661 16207
-0.670 1.228 1.628 8991
-0.677 1.241 1.635 12961
-0.682 1.250 1.637 15377
-0.697 1.278 1.661 12986
-0.699 1.282 1.657 26212
-0.701 1.286 1.652 33764
-0.709 1.299 1.659 21308
-0.711 1.303 1.655 9079
-0.708 1.297 1.639 7758
-0.718 1.316 1.651 27429
-0.720 1.320 1.647 47073
-0.722 1.323 1.643 37077
-0.724 1.327 1.638 17286
-0.729 1.336 1.639 8008
-0.739 1.355 1.651 8465
-0.747 1.369 1.657 8250
-0.757 1.388 1.669 11502
-0.762 1.397 1.670 15731
-0.761 1.396 1.660 24109
-0.763 1.399 1.655 33341
-0.765 1.403 1.650 32199
-0.770 1.412 1.651 26767
-0.775 1.421 1.651 22392
-0.777 1.425 1.647 16531
-0.779 1.429 1.642 9019
-0.793 1.453 1.658 9284
-0.795 1.457 1.653 15718
-0.797 1.461 1.648 17971
-0.802 1.470 1.649 15596
-0.807 1.479 1.649 12682
-0.809 1.483 1.644 9863
-0.814 1.492 1.644 12733
-0.819 1.501 1.644 21340
-0.824 1.510 1.644 24688
-0.829 1.519 1.644 21696
-0.837 1.534 1.650 18209
-0.842 1.543 1.650 16258
-0.850 1.557 1.655 13134
-0.852 1.561 1.649 11798
-0.854 1.565 1.644 11212
-0.865 1.585 1.654 12247
-0.870 1.594 1.654 13616
-0.872 1.598 1.648 15156
-0.877 1.607 1.648 23682
-0.882 1.617 1.647 31336
-0.887 1.626 1.647 29291
-0.889 1.630 1.641 17141
-0.894 1.639 1.641 8914
-0.902 1.654 1.645 8049
-0.916 1.680 1.659 5915
-0.918 1.683 1.653 6731
-0.917 1.682 1.643 9597
-0.922 1.691 1.642 14135
-0.921 1.689 1.631 17952
-0.933 1.710 1.640 19777
-0.941 1.725 1.644 24301
-0.946 1.734 1.643 24292
-0.951 1.743 1.642 21874
-0.956 1.753 1.640 23376
-0.958 1.757 1.635 24380
-0.960 1.761 1.629 19422
-0.965 1.770 1.627 16723
-0.974 1.785 1.631 18453
-0.979 1.794 1.629 15498
-0.993 1.821 1.642 12415
-0.995 1.825 1.636 15278
-0.994 1.823 1.625 14590
-0.993 1.821 1.614 8310
-0.989 1.813 1.599 4989
-0.997 1.828 1.602 4478
-1.018 1.866 1.623 5257
-1.026 1.882 1.625 10112
-1.028 1.885 1.619 11442
-1.037 1.901 1.621 10551
-1.042 1.910 1.619 7790
-1.060 1.943 1.635 9257
-1.059 1.941 1.624 16817
-1.058 1.939 1.613 22079
-1.057 1.937 1.602 18635
-1.055 1.935 1.592 11889
-1.057 1.939 1.585 8967
-1.059 1.942 1.578 9446
-1.100 2.016 1.623 8508
-1.099 2.014 1.612 8620
-1.097 2.012 1.601 7005
-1.099 2.016 1.594 8003
-1.118 2.049 1.608 9911
-1.120 2.053 1.601 13428
-1.122 2.056 1.594 12766
-1.127 2.066 1.592 9582
-1.132 2.076 1.589 7227
-1.131 2.073 1.578 7419
-1.136 2.083 1.575 7774
-1.174 2.152 1.612 10118
-1.179 2.162 1.609 10680
-1.185 2.172 1.606 11506
-1.193 2.188 1.606 13340
-1.199 2.197 1.603 17548
-1.201 2.201 1.596 19722
-1.206 2.211 1.592 15576
-1.215 2.227 1.593 12293
-1.210 2.218 1.577 10633
-1.209 2.216 1.566 9817
-1.211 2.219 1.559 7083
-1.252 2.296 1.597 10260
-1.251 2.294 1.585 12094
-1.250 2.291 1.574 10802
-1.245 2.283 1.559 10312
-1.250 2.292 1.555 7332
-1.286 2.357 1.584 7590
-1.291 2.367 1.580 6884
-1.297 2.377 1.576 6486
-1.302 2.387 1.571 5365
-1.307 2.397 1.567 4386
-1.313 2.407 1.562 3743
-1.315 2.410 1.554 3106
-1.367 2.507 1.600 4254
-1.369 2.511 1.591 5643
-1.368 2.508 1.579 6494
-1.370 2.512 1.571 7419
-1.369 2.509 1.559 7475
-1.367 2.506 1.547 7864
-1.376 2.522 1.546 6564
-1.385 2.539 1.544 5677
-1.435 2.630 1.583 5019
-1.433 2.627 1.571 5297
-1.435 2.631 1.562 5297
-1.437 2.635 1.553 4295
-1.391 2.550 1.498 3305
-1.462 2.680 1.555 5000
-1.464 2.683 1.546 7291
-1.472 2.700 1.544 8300
-1.478 2.709 1.538 9826
-1.480 2.713 1.529 9826
-1.482 2.717 1.520 9121
-1.487 2.726 1.514 8500
-1.489 2.730 1.505 4250
-0.718 1.316 0.802 389
-0.310 0.572 1.652 4495
-0.310 0.573 1.643 6356
-0.311 0.574 1.634 8459
-0.313 0.578 1.632 10878
-0.317 0.584 1.637 13311
-0.317 0.585 1.628 13397
-0.319 0.589 1.626 12738
-0.321 0.593 1.624 11979
-0.323 0.597 1.622 10263
-0.325 0.600 1.620 8547
-0.327 0.604 1.618 14242
-0.331 0.611 1.623 20025
-0.333 0.615 1.621 23914
-0.335 0.619 1.618 27802
-0.337 0.622 1.616 24966
-0.339 0.626 1.614 22338
-0.341 0.630 1.612 18936
-0.345 0.637 1.617 13628
-0.349 0.644 1.622 11046
-0.353 0.651 1.627 13827
-0.355 0.654 1.624 17291
-0.358 0.661 1.629 15822
-0.364 0.672 1.641 16291
-0.368 0.679 1.646 16987
-0.370 0.683 1.643 17761
-0.372 0.686 1.641 17580
-0.374 0.690 1.639 16653
-0.376 0.694 1.636 13741
-0.378 0.698 1.634 10975
-0.380 0.702 1.631 10169
-0.384 0.709 1.636 13052
-0.386 0.713 1.634 16305
-0.390 0.720 1.638 15947
-0.392 0.724 1.636 15731
-0.394 0.728 1.633 13241
-0.396 0.731 1.631 10751
-0.402 0.742 1.642 11012
-0.404 0.746 1.639 11288
-0.404 0.746 1.630 10848
-0.407 0.750 1.627 9717
-0.409 0.754 1.625 8587
-0.415 0.765 1.636 8956
-0.419 0.772 1.640 14407
-0.421 0.776 1.637 19058
-0.423 0.780 1.635 18392
-0.427 0.787 1.639 17403
-0.431 0.795 1.643 22611
-0.435 0.802 1.647 27235
-0.441 0.814 1.657 28069
-0.439 0.810 1.641 30036
-0.441 0.814 1.639 31833
-0.445 0.821 1.642 30786
-0.447 0.825 1.640 27323
-0.451 0.833 1.643 25513
-0.453 0.837 1.641 27103
-0.456 0.841 1.638 24564
-0.460 0.848 1.642 17802
-0.468 0.864 1.658 14003
-0.472 0.871 1.662 13802
-0.476 0.879 1.666 20258
-0.481 0.887 1.669 25547
-0.483 0.891 1.666 23987
-0.485 0.895 1.663 18350
-0.489 0.903 1.667 19533
-0.491 0.906 1.664 29853
-0.493 0.910 1.661 32167
-0.498 0.918 1.664 30591
-0.500 0.922 1.661 23648
-0.502 0.926 1.658 18834
-0.506 0.934 1.661 24910
-0.508 0.938 1.658 28893
-0.513 0.946 1.661 31781
-0.517 0.954 1.664 33876
-0.519 0.958 1.661 28475
-0.523 0.966 1.664 20150
-0.525 0.970 1.661 14387
-0.528 0.973 1.658 14376
-0.530 0.977 1.654 16049
-0.532 0.981 1.651 16308
-0.534 0.985 1.648 14082
-0.538 0.993 1.651 9056
-0.540 0.997 1.647 8718
-0.545 1.005 1.650 21127
-0.549 1.013 1.653 35663
-0.551 1.017 1.649 33420
-0.556 1.025 1.652 19923
-0.560 1.033 1.655 11791
-0.562 1.037 1.651 10548
-0.567 1.045 1.654 16880
-0.571 1.054 1.657 26975
-0.576 1.062 1.659 26745
-0.582 1.075 1.668 23351
-0.582 1.074 1.658 20030
-0.582 1.074 1.648 14547
-0.591 1.091 1.663 12748
-0.598 1.104 1.671 18859
-0.600 1.107 1.668 27380
-0.602 1.111 1.664 32696
-0.607 1.120 1.666 26857
-0.609 1.124 1.662 14792
-0.611 1.128 1.659 15681
-0.616 1.136 1.661 27128
-0.620 1.144 1.663 30044
-0.625 1.153 1.665 22552
-0.629 1.161 1.667 16438
-0.629 1.161 1.657 13168
-0.634 1.169 1.659 16385
-0.638 1.178 1.661 22675
-0.643 1.186 1.663 20285
-0.645 1.190 1.659 11966
-0.650 1.199 1.661 8522
-0.652 1.203 1.657 8397
-0.654 1.206 1.653 8286
-0.659 1.215 1.654 8437
-0.655 1.209 1.639 9438
-0.660 1.218 1.640 10745
-0.675 1.246 1.665 16262
-0.677 1.250 1.661 14982
-0.666 1.229 1.628 8551
-0.676 1.248 1.641 12801
-0.681 1.256 1.642 16226
-0.691 1.275 1.655 13594
-0.696 1.284 1.657 26543
-0.698 1.287 1.652 35475
-0.705 1.301 1.659 21788
-0.710 1.310 1.660 9222
-0.696 1.284 1.622 8840
-0.714 1.318 1.651 29333
-0.716 1.322 1.647 49945
-0.718 1.325 1.643 38167
-0.720 1.329 1.638 16515
-0.703 1.298 1.595 6651
-0.733 1.352 1.646 6450
-0.699 1.290 1.570 6065
-0.753 1.390 1.669 11306
-0.758 1.399 1.670 16723
-0.757 1.398 1.660 23028
-0.760 1.401 1.655 31264
-0.762 1.405 1.650 31469
-0.766 1.414 1.651 26040
-0.771 1.423 1.651 21872
-0.773 1.427 1.647 17551
-0.778 1.436 1.647 11461
-0.786 1.450 1.653 12329
-0.788 1.454 1.648 14976
-0.793 1.463 1.648 13511
-0.798 1.472 1.649 11865
-0.803 1.481 1.649 10734
-0.805 1.485 1.644 8868
-0.810 1.494 1.644 11299
-0.815 1.503 1.644 20147
-0.820 1.513 1.644 26242
-0.825 1.522 1.644 24885
-0.830 1.531 1.644 20277
-0.835 1.540 1.644 15528
-0.842 1.554 1.649 11003
-0.847 1.564 1.649 11205
-0.849 1.567 1.644 12978
-0.854 1.577 1.644 12341
-0.862 1.591 1.649 10432
-0.867 1.601 1.648 14234
-0.872 1.610 1.648 25169
-0.877 1.619 1.647 31438
-0.882 1.628 1.647 27650
-0.885 1.632 1.641 15482
-0.890 1.641 1.641 9601
-0.895 1.651 1.640 9669
-0.903 1.666 1.644 6290
-0.914 1.686 1.653 7371
-0.916 1.690 1.648 10436
-0.918 1.694 1.642 15398
-0.920 1.697 1.636 18595
-0.928 1.712 1.640 20799
-0.936 1.727 1.644 24692
-0.941 1.737 1.643 21806
-0.946 1.746 1.642 19600
-0.951 1.755 1.640 24358
-0.953 1.759 1.635 26215
-0.956 1.763 1.629 20871
-0.961 1.773 1.627 18595
-0.966 1.782 1.626 20742
-0.974 1.797 1.629 17266
-0.985 1.818 1.637 12761
-0.990 1.827 1.636 16799
-0.989 1.825 1.625 17875
-0.991 1.829 1.619 9974
-0.990 1.827 1.608 4890
-0.992 1.831 1.602 4369
-1.004 1.852 1.609 4272
-1.021 1.885 1.625 8875
-1.023 1.888 1.619 9561
-1.029 1.898 1.617 7960
-1.034 1.907 1.615 5441
-1.055 1.946 1.635 8373
-1.047 1.932 1.615 17768
-1.046 1.930 1.604 24835
-1.048 1.934 1.598 22155
-1.047 1.932 1.587 15140
-1.049 1.936 1.581 11235
-1.051 1.939 1.574 11309
-1.053 1.943 1.568 9578
-1.093 2.017 1.612 8275
-1.092 2.015 1.601 6602
-1.094 2.019 1.594 7982
-1.106 2.040 1.600 9818
-1.114 2.056 1.601 12762
-1.116 2.059 1.594 12092
-1.121 2.069 1.592 9396
-1.123 2.073 1.585 7500
-1.125 2.076 1.578 7824
-1.131 2.086 1.575 8161
-1.158 2.138 1.600 9537
-1.164 2.147 1.597 9937
-1.179 2.175 1.606 10601
-1.187 2.191 1.606 12542
-1.193 2.201 1.603 16612
-1.195 2.204 1.596 18431
-1.200 2.214 1.592 14424
-1.208 2.230 1.593 11245
-1.204 2.222 1.577 9514
-1.203 2.219 1.566 8680
-1.201 2.217 1.555 6407
-1.246 2.300 1.597 9816
-1.245 2.297 1.585 12375
-1.244 2.295 1.574 11513
-1.242 2.292 1.562 11153
-1.244 2.296 1.555 7933
-1.276 2.355 1.580 7392
-1.285 2.371 1.580 6394
-1.290 2.381 1.576 5726
-1.259 2.322 1.531 5273
-1.261 2.326 1.523 4826
-1.262 2.330 1.516 3653
-1.311 2.420 1.558 2913
-1.361 2.511 1.600 3879
-1.363 2.514 1.591 5013
-1.365 2.518 1.583 5693
-1.363 2.515 1.571 6401
-1.358 2.506 1.556 6823
-1.360 2.510 1.547 7636
-1.366 2.520 1.542 6473
-1.374 2.536 1.541 5615
-1.427 2.634 1.583 5246
-1.426 2.631 1.571 5753
-1.428 2.635 1.562 5753
-1.430 2.639 1.553 4776
-1.418 2.617 1.531 3837
-1.448 2.671 1.549 4891
-1.453 2.681 1.543 7070
-1.462 2.697 1.541 7711
-1.471 2.713 1.538 8982
-1.472 2.717 1.529 8982
-1.474 2.721 1.520 8368
-1.480 2.730 1.514 7799
-1.482 2.734 1.505 3899
-0.714 1.318 0.802 356
-0.309 0.572 1.652 4081
-0.310 0.573 1.643 5710
-0.310 0.574 1.634 7557
-0.314 0.581 1.639 9856
-0.316 0.585 1.637 12210
-0.318 0.589 1.635 12239
-0.318 0.589 1.626 11813
-0.320 0.593 1.624 11319
-0.323 0.597 1.622 9744
-0.325 0.601 1.620 8170
-0.327 0.605 1.618 14107
-0.330 0.611 1.623 20150
-0.332 0.615 1.621 24218
-0.334 0.619 1.618 28286
-0.336 0.623 1.616 25691
-0.338 0.627 1.614 23218
-0.340 0.630 1.612 19601
-0.344 0.637 1.617 13859
-0.346 0.641 1.615 10903
-0.350 0.648 1.620 13411
-0.354 0.655 1.624 16734
-0.358 0.662 1.629 15258
-0.363 0.672 1.641 15565
-0.367 0.679 1.646 16518
-0.369 0.683 1.643 17583
-0.371 0.687 1.641 17801
-0.373 0.691 1.639 17296
-0.375 0.695 1.636 14730
-0.377 0.698 1.634 12173
-0.379 0.702 1.631 11238
-0.383 0.709 1.636 13511
-0.385 0.713 1.634 16347
-0.389 0.721 1.638 15701
-0.391 0.724 1.636 15467
-0.393 0.728 1.633 12746
-0.395 0.732 1.631 10025
-0.401 0.743 1.642 10179
-0.403 0.747 1.639 10668
-0.403 0.747 1.630 10692
-0.406 0.751 1.627 9893
-0.406 0.751 1.618 9191
-0.406 0.751 1.609 9320
-0.416 0.769 1.633 14376
-0.418 0.773 1.631 19104
-0.420 0.777 1.628 18586
-0.418 0.773 1.612 17920
-0.428 0.792 1.636 22677
-0.434 0.803 1.647 27910
-0.438 0.811 1.651 29453
-0.438 0.811 1.641 30558
-0.440 0.815 1.639 30984
-0.444 0.822 1.642 29574
-0.446 0.826 1.640 25461
-0.450 0.834 1.643 23255
-0.452 0.837 1.641 25099
-0.454 0.841 1.638 23369
-0.459 0.849 1.642 18367
-0.467 0.864 1.658 15824
-0.471 0.872 1.662 15468
-0.475 0.880 1.666 21370
-0.477 0.884 1.663 25801
-0.482 0.891 1.666 24075
-0.484 0.895 1.663 19141
-0.488 0.903 1.667 21114
-0.490 0.907 1.664 30234
-0.492 0.911 1.661 31060
-0.496 0.919 1.664 28516
-0.498 0.923 1.661 21537
-0.498 0.923 1.651 17425
-0.505 0.935 1.661 20866
-0.509 0.943 1.664 23486
-0.511 0.946 1.661 25914
-0.516 0.954 1.664 28191
-0.518 0.958 1.661 24432
-0.522 0.966 1.664 18474
-0.524 0.970 1.661 14631
-0.526 0.974 1.658 15210
-0.528 0.978 1.654 16591
-0.530 0.982 1.651 17061
-0.532 0.986 1.648 15027
-0.537 0.994 1.651 9686
-0.539 0.998 1.647 9803
-0.546 1.010 1.656 24051
-0.548 1.014 1.653 39285
-0.550 1.018 1.649 36317
-0.554 1.026 1.652 21778
-0.559 1.034 1.655 11885
-0.561 1.038 1.651 9869
-0.568 1.051 1.660 17680
-0.570 1.054 1.657 28442
-0.574 1.063 1.659 28321
-0.581 1.075 1.668 23341
-0.581 1.075 1.658 19764
-0.583 1.079 1.655 14323
-0.590 1.092 1.663 12372
-0.597 1.104 1.671 18821
-0.601 1.113 1.674 26492
-0.601 1.112 1.664 28672
-0.605 1.121 1.666 22828
-0.607 1.125 1.662 14078
-0.607 1.124 1.653 16368
-0.614 1.137 1.661 25858
-0.619 1.145 1.663 28073
-0.623 1.154 1.665 21273
-0.625 1.158 1.661 15848
-0.625 1.157 1.651 13879
-0.632 1.170 1.659 16966
-0.637 1.179 1.661 22284
-0.641 1.187 1.663 17776
-0.643 1.191 1.659 10317
-0.645 1.195 1.655 8764
-0.648 1.199 1.651 9724
-0.652 1.207 1.653 10071
-0.654 1.211 1.649 9029
-0.656 1.215 1.645 8516
-0.661 1.224 1.646 9478
-0.673 1.247 1.665 14216
-0.676 1.251 1.661 13631
-0.672 1.245 1.645 8369
-0.675 1.249 1.641 12851
-0.679 1.257 1.642 17168
-0.689 1.276 1.655 14825
-0.694 1.285 1.657 25916
-0.696 1.288 1.652 33955
-0.703 1.302 1.659 20563
-0.711 1.316 1.666 9432
-0.692 1.280 1.617 11504
-0.712 1.319 1.651 31178
-0.714 1.322 1.647 50935
-0.716 1.326 1.643 37681
-0.721 1.335 1.644 15307
-0.694 1.284 1.579 7290
-0.693 1.283 1.569 6574
-0.738 1.367 1.652 8930
-0.749 1.386 1.664 12684
-0.753 1.395 1.664 16013
-0.756 1.399 1.660 19589
-0.758 1.403 1.655 27065
-0.760 1.406 1.650 29189
-0.765 1.415 1.651 24660
-0.769 1.424 1.651 21204
-0.774 1.433 1.652 18308
-0.779 1.442 1.653 15093
-0.781 1.446 1.648 17509
-0.786 1.455 1.648 15238
-0.791 1.464 1.648 9015
-0.796 1.473 1.649 8195
-0.801 1.482 1.649 8606
-0.803 1.486 1.644 7494
-0.808 1.495 1.644 9385
-0.816 1.510 1.650 18347
-0.818 1.514 1.644 27126
-0.823 1.523 1.644 27720
-0.825 1.527 1.639 22770
-0.830 1.536 1.639 14960
-0.837 1.550 1.644 8355
-0.845 1.565 1.649 10513
-0.847 1.569 1.644 15133
-0.852 1.578 1.644 13618
-0.860 1.592 1.649 9355
-0.865 1.602 1.648 15011
-0.870 1.611 1.648 26612
-0.875 1.620 1.647 31027
-0.877 1.624 1.642 25200
-0.882 1.633 1.641 14605
-0.887 1.643 1.641 11707
-0.889 1.646 1.635 12155
-0.888 1.645 1.625 8287
-0.908 1.682 1.648 7179
-0.913 1.691 1.648 10575
-0.918 1.700 1.647 16395
-0.921 1.704 1.641 19642
-0.926 1.714 1.640 21941
-0.931 1.723 1.639 25415
-0.936 1.732 1.638 19806
-0.944 1.747 1.642 17117
-0.949 1.757 1.640 24561
-0.951 1.761 1.635 27469
-0.950 1.759 1.624 22319
-0.958 1.774 1.627 21036
-0.963 1.783 1.626 23921
-0.968 1.793 1.625 20190
-0.980 1.814 1.632 13989
-0.985 1.823 1.631 18853
-0.987 1.827 1.625 21567
-0.989 1.831 1.619 12473
-0.988 1.829 1.608 6071
-0.990 1.832 1.602 5373
-0.992 1.836 1.596 4637
-1.019 1.886 1.625 7572
-1.018 1.884 1.614 8313
-1.017 1.882 1.604 6887
-1.031 1.909 1.615 6047
-1.036 1.918 1.613 10510
-1.038 1.922 1.607 21555
-1.040 1.926 1.600 28530
-1.042 1.930 1.594 26624
-1.044 1.933 1.587 19308
-1.046 1.937 1.581 14407
-1.051 1.946 1.578 13553
-1.053 1.950 1.572 11446
-1.094 2.024 1.616 8208
-1.089 2.016 1.601 6632
-1.091 2.020 1.594 8235
-1.100 2.036 1.596 9930
-1.108 2.051 1.597 12011
-1.110 2.055 1.590 11227
-1.115 2.065 1.588 9166
-1.117 2.068 1.581 7778
-1.119 2.072 1.574 8247
-1.121 2.076 1.567 8717
-1.146 2.121 1.588 9694
-1.158 2.143 1.593 9911
-1.163 2.153 1.590 10665
-1.184 2.192 1.606 11564
-1.190 2.202 1.603 15087
-1.192 2.206 1.596 16443
-1.197 2.216 1.592 12707
-1.205 2.232 1.593 9777
-1.198 2.217 1.573 8169
-1.193 2.209 1.558 7631
-1.198 2.218 1.555 5934
-1.240 2.295 1.593 9198
-1.238 2.293 1.582 12566
-1.237 2.290 1.570 12113
-1.239 2.294 1.562 11904
-1.241 2.298 1.555 8483
-1.270 2.350 1.577 7399
-1.268 2.348 1.565 6354
-1.254 2.321 1.539 6418
-1.255 2.324 1.531 5948
-1.257 2.328 1.523 5477
-1.259 2.331 1.516 4109
-1.315 2.434 1.565 2971
-1.354 2.506 1.596 3470
-1.359 2.516 1.591 4307
-1.358 2.514 1.579 4844
-1.360 2.517 1.571 5382
-1.355 2.508 1.556 6411
-1.357 2.512 1.547 7534
-1.362 2.522 1.542 6577
-1.371 2.538 1.541 5750
-1.424 2.636 1.583 5367
-1.422 2.633 1.571 6100
-1.424 2.637 1.562 6100
-1.423 2.634 1.550 5233
-1.415 2.619 1.531 4659
-1.437 2.660 1.542 5014
-1.446 2.677 1.540 6831
-1.458 2.699 1.541 6942
-1.463 2.709 1.535 7852
-1.465 2.713 1.526 7852
-1.471 2.723 1.520 7389
-1.476 2.732 1.514 6973
-1.478 2.736 1.505 3486
-0.712 1.319 0.802 360
-0.298 0.556 1.609 3670
-0.308 0.574 1.643 4995
-0.309 0.575 1.634 6553
-0.312 0.582 1.639 8786
-0.314 0.586 1.637 11067
-0.316 0.589 1.635 11136
-0.318 0.593 1.633 11037
-0.320 0.597 1.631 10869
-0.322 0.601 1.629 9331
-0.323 0.602 1.620 7859
-0.327 0.609 1.625 13995
-0.329 0.612 1.623 20197
-0.331 0.616 1.621 24409
-0.331 0.617 1.611 28680
-0.335 0.624 1.616 26257
-0.337 0.627 1.614 23939
-0.339 0.631 1.612 20082
-0.342 0.638 1.617 14024
-0.345 0.642 1.615 10974
-0.348 0.649 1.620 13067
-0.352 0.656 1.624 16057
-0.356 0.663 1.629 14636
-0.361 0.673 1.641 14930
-0.365 0.680 1.646 15978
-0.367 0.684 1.643 17137
-0.369 0.688 1.641 17733
-0.371 0.692 1.639 17651
-0.373 0.696 1.636 15401
-0.375 0.699 1.634 13104
-0.377 0.703 1.631 12208
-0.379 0.707 1.629 14112
-0.383 0.714 1.634 16353
-0.385 0.718 1.631 15671
-0.389 0.725 1.636 15202
-0.391 0.729 1.633 12334
-0.393 0.733 1.631 9467
-0.397 0.740 1.635 9342
-0.399 0.744 1.632 9954
-0.400 0.744 1.623 10570
-0.402 0.748 1.621 10270
-0.402 0.748 1.611 10018
-0.404 0.752 1.609 10354
-0.412 0.767 1.626 14730
-0.416 0.774 1.631 19286
-0.416 0.774 1.621 19024
-0.416 0.775 1.612 18698
-0.426 0.793 1.636 22946
-0.432 0.804 1.647 28633
