-0.094 1.333 0.915 3677
-0.095 1.336 0.911 3352
-0.094 1.331 0.904 2924
-0.093 1.312 0.888 2677
-0.094 1.328 0.892 3579
-0.095 1.338 0.892 4389
-0.094 1.333 0.884 4270
-0.094 1.335 0.880 3388
-0.180 2.549 1.525 3147
-0.181 2.553 1.517 3673
-0.182 2.571 1.517 5202
-0.183 2.582 1.513 7084
-0.183 2.586 1.506 6706
-0.183 2.590 1.498 6329
-0.183 2.587 1.487 5122
-0.097 1.366 0.855 5332
-0.097 1.368 0.851 5867
-0.096 1.363 0.843 5372
-0.097 1.365 0.839 4881
-0.097 1.367 0.835 3894
-0.097 1.376 0.835 2997
-0.097 1.371 0.827 3055
-0.097 1.373 0.823 3181
-0.097 1.375 0.819 3917
-0.097 1.377 0.815 4677
-0.208 2.935 1.547 4832
-0.208 2.939 1.539 4832
-0.098 1.389 0.806 5648
-0.099 1.399 0.805 7163
-0.099 1.400 0.801 8140
-0.099 1.402 0.797 9145
-0.099 1.404 0.793 9173
-0.100 1.406 0.788 8487
-0.100 1.415 0.788 7839
-0.100 1.410 0.780 6587
-0.100 1.412 0.776 5375
-0.100 1.413 0.772 4570
-0.100 1.415 0.768 4983
-0.044 0.646 1.645 13033
-0.044 0.650 1.643 14563
-0.044 0.654 1.641 16093
-0.045 0.659 1.639 16621
-0.045 0.666 1.644 17309
-0.046 0.671 1.642 16857
-0.046 0.675 1.640 16281
-0.046 0.683 1.645 16266
-0.047 0.687 1.643 14194
-0.047 0.698 1.655 12919
-0.048 0.703 1.653 10730
-0.048 0.714 1.665 9305
-0.048 0.712 1.649 9460
-0.048 0.712 1.640 10714
-0.049 0.717 1.638 10927
-0.049 0.725 1.642 12258
-0.049 0.729 1.640 12733
-0.050 0.737 1.645 13051
-0.050 0.741 1.643 13979
-0.051 0.746 1.641 11847
-0.051 0.754 1.645 9768
-0.051 0.758 1.643 7025
-0.052 0.773 1.662 4495
-0.053 0.774 1.653 5065
-0.053 0.778 1.650 5638
-0.053 0.783 1.648 6532
-0.053 0.787 1.646 7289
-0.054 0.795 1.650 6609
-0.054 0.800 1.648 6178
-0.055 0.808 1.652 6128
-0.055 0.812 1.650 7934
-0.055 0.813 1.640 9732
-0.056 0.821 1.645 9256
-0.056 0.825 1.642 8813
-0.056 0.830 1.640 8811
-0.057 0.834 1.637 8809
-0.057 0.838 1.635 9341
-0.057 0.843 1.632 12810
-0.058 0.851 1.637 15974
-0.058 0.859 1.641 18200
-0.059 0.864 1.638 21048
-0.059 0.868 1.636 22336
-0.059 0.876 1.640 25715
-0.060 0.881 1.637 27286
-0.060 0.885 1.635 24959
-0.060 0.889 1.632 22626
-0.061 0.894 1.629 18143
-0.061 0.894 1.620 13705
-0.061 0.902 1.624 13700
-0.062 0.911 1.628 18707
-0.062 0.919 1.632 34652
-0.063 0.924 1.629 45398
-0.063 0.928 1.626 45524
-0.064 0.937 1.630 33253
-0.064 0.945 1.634 21072
-0.064 0.950 1.631 19381
-0.064 0.950 1.622 17836
-0.065 0.958 1.625 15151
-0.066 0.967 1.629 13791
-0.066 0.980 1.639 14150
-0.067 0.989 1.643 17699
-0.067 0.993 1.640 21431
-0.068 0.997 1.637 23613
-0.068 1.002 1.634 27420
-0.068 1.002 1.625 25687
-0.068 1.006 1.622 16368
-0.069 1.015 1.625 10556
-0.069 1.019 1.622 12141
-0.069 1.023 1.619 13398
-0.069 1.023 1.609 11075
-0.070 1.032 1.613 7016
-0.071 1.050 1.629 5498
-0.072 1.059 1.632 6100
-0.072 1.059 1.623 6574
-0.072 1.063 1.620 6612
-0.072 1.067 1.616 6157
-0.073 1.076 1.619 8293
-0.073 1.081 1.616 11901
-0.074 1.085 1.613 11319
-0.075 1.099 1.622 9461
-0.075 1.103 1.619 7417
-0.075 1.107 1.616 5441
-0.076 1.116 1.619 6896
-0.076 1.125 1.622 7285
-0.076 1.125 1.612 8047
-0.077 1.129 1.609 9801
-0.077 1.138 1.612 9641
-0.078 1.143 1.608 11175
-0.078 1.152 1.611 10129
-0.079 1.166 1.620 8422
-0.079 1.170 1.616 12397
-0.080 1.174 1.613 14424
-0.080 1.179 1.609 10582
-0.081 1.193 1.618 8032
-0.082 1.202 1.620 8334
-0.082 1.207 1.617 10671
-0.083 1.216 1.619 18957
-0.083 1.220 1.616 25543
-0.083 1.230 1.618 22854
-0.084 1.234 1.614 16413
-0.084 1.238 1.611 10157
-0.085 1.253 1.619 7180
-0.085 1.257 1.615 9419
-0.086 1.261 1.611 14501
-0.086 1.266 1.608 17596
-0.087 1.275 1.610 11062
-0.088 1.300 1.630 5648
-0.087 1.284 1.602 9644
-0.087 1.288 1.598 13542
-0.088 1.292 1.595 11324
-0.089 1.307 1.602 8746
-0.089 1.311 1.599 7710
-0.090 1.321 1.600 7245
-0.090 1.325 1.596 8002
-0.090 1.324 1.587 8273
-0.090 1.323 1.577 6938
-0.090 1.321 1.567 5511
-0.090 1.331 1.569 4562
-0.090 1.330 1.559 4478
-0.090 1.334 1.556 5374
-0.091 1.338 1.552 4756
-0.075 1.110 1.310 3669
-0.076 1.119 1.312 3778
-0.077 1.128 1.314 4071
-0.073 1.070 1.249 4709
-0.073 1.073 1.246 5246
-0.073 1.076 1.243 5644
-0.077 1.141 1.301 5409
-0.078 1.145 1.297 8541
-0.078 1.148 1.294 7530
-0.078 1.151 1.291 5592
-0.079 1.160 1.293 3805
-0.075 1.101 1.229 3590
-0.075 1.110 1.231 4384
-0.080 1.176 1.288 6038
-0.080 1.179 1.284 9065
-0.080 1.183 1.281 10018
-0.080 1.186 1.277 11567
-0.081 1.189 1.274 13319
-0.081 1.198 1.275 14195
-0.082 1.202 1.272 11343
-0.082 1.205 1.268 8827
-0.082 1.208 1.265 9552
-0.081 1.200 1.250 11293
-0.082 1.209 1.252 12383
-0.083 1.230 1.264 15098
-0.084 1.239 1.266 14072
-0.085 1.248 1.267 12694
-0.084 1.245 1.258 15467
-0.084 1.243 1.250 14570
-0.085 1.252 1.251 9251
-0.078 1.147 1.154 7694
-0.078 1.150 1.151 5976
-0.078 1.147 1.142 6921
-0.083 1.216 1.195 8628
-0.083 1.225 1.197 13390
-0.083 1.228 1.193 11113
-0.084 1.238 1.194 7632
-0.084 1.241 1.191 10068
-0.085 1.250 1.192 10710
-0.085 1.253 1.188 8968
-0.085 1.256 1.185 10426
-0.085 1.259 1.181 11597
-0.120 1.768 1.583 16602
-0.120 1.772 1.577 19645
-0.120 1.776 1.572 20289
-0.121 1.786 1.572 19751
-0.121 1.790 1.566 20162
-0.122 1.801 1.566 22140
-0.122 1.799 1.556 19745
-0.122 1.803 1.550 12426
-0.124 1.826 1.559 13770
-0.125 1.836 1.559 22244
-0.125 1.847 1.558 19081
-0.126 1.857 1.557 18565
-0.084 1.240 1.089 20989
-0.084 1.243 1.085 23915
-0.084 1.245 1.081 24213
-0.085 1.248 1.078 24765
-0.084 1.244 1.069 26244
-0.085 1.247 1.066 25061
-0.085 1.250 1.062 22197
-0.085 1.252 1.058 18184
-0.085 1.255 1.055 13868
-0.085 1.251 1.046 9709
-0.133 1.966 1.542 8600
-0.135 1.989 1.549 10887
-0.136 2.000 1.548 13159
-0.136 2.004 1.542 10648
-0.136 2.008 1.536 7676
-0.137 2.019 1.535 7524
-0.139 2.049 1.546 8989
-0.139 2.046 1.536 13162
-0.139 2.050 1.530 12634
-0.139 2.054 1.524 10178
-0.140 2.058 1.518 10485
-0.140 2.062 1.511 10187
-0.140 2.060 1.501 7774
-0.095 1.400 1.066 7891
-0.095 1.402 1.062 7854
-0.095 1.405 1.058 7353
-0.096 1.414 1.058 6701
-0.089 1.317 0.991 6263
-0.089 1.312 0.982 8298
-0.089 1.308 0.974 9632
-0.089 1.310 0.970 8973
-0.089 1.313 0.967 7506
-0.089 1.315 0.963 5872
-0.090 1.331 0.967 4308
-0.089 1.306 0.947 4776
-0.089 1.309 0.943 5772
-0.089 1.311 0.939 5706
-0.090 1.320 0.939 5968
-0.090 1.322 0.935 6744
-0.090 1.325 0.931 7254
-0.090 1.327 0.927 6704
-0.090 1.322 0.919 5937
-0.090 1.325 0.915 4402
-0.090 1.327 0.911 3171
-0.090 1.329 0.908 3135
-0.090 1.324 0.900 3071
-0.089 1.313 0.888 3210
-0.090 1.329 0.892 3901
-0.090 1.331 0.888 4374
-0.090 1.333 0.884 3943
-0.091 1.335 0.880 3112
-0.173 2.550 1.525 3292
-0.173 2.554 1.517 3888
-0.174 2.572 1.517 5407
-0.175 2.575 1.510 7234
-0.175 2.586 1.506 6772
-0.176 2.590 1.498 6319
-0.176 2.587 1.487 5144
-0.093 1.366 0.855 4392
-0.092 1.361 0.848 4858
-0.092 1.363 0.843 4175
-0.093 1.365 0.839 3491
-0.093 1.374 0.839 2676
-0.093 1.376 0.835 1948
-0.093 1.371 0.827 2687
-0.093 1.373 0.823 3537
-0.093 1.375 0.819 4121
-0.093 1.377 0.815 4701
-0.094 1.379 0.811 4143
-0.094 1.388 0.810 3597
-0.095 1.397 0.809 5245
-0.095 1.399 0.805 6979
-0.095 1.401 0.801 8111
-0.095 1.403 0.797 9355
-0.095 1.405 0.793 9468
-0.095 1.406 0.788 8890
-0.096 1.415 0.788 8355
-0.096 1.410 0.780 7090
-0.200 2.954 1.451 6591
-0.096 1.414 0.772 5024
-0.096 1.416 0.768 5566
-0.042 0.646 1.645 12443
-0.043 0.650 1.643 13971
-0.043 0.655 1.641 15500
-0.043 0.659 1.639 16077
-0.044 0.667 1.644 16699
-0.044 0.671 1.642 16222
-0.044 0.675 1.640 15347
-0.044 0.680 1.638 14949
-0.045 0.687 1.643 12708
-0.046 0.698 1.655 11267
-0.046 0.703 1.653 10002
-0.047 0.714 1.665 9148
-0.047 0.712 1.649 9692
-0.047 0.713 1.640 11125
-0.047 0.717 1.638 11150
-0.047 0.725 1.642 12299
-0.048 0.729 1.640 12849
-0.048 0.737 1.645 13009
-0.048 0.741 1.643 13776
-0.049 0.746 1.641 11587
-0.049 0.750 1.638 9397
-0.050 0.758 1.643 6761
-0.050 0.766 1.648 4251
-0.050 0.770 1.646 5527
-0.051 0.775 1.643 6802
-0.051 0.783 1.648 7797
-0.051 0.787 1.646 8567
-0.052 0.795 1.650 7780
-0.053 0.804 1.655 6728
-0.053 0.808 1.652 5937
-0.053 0.812 1.650 7254
-0.053 0.813 1.640 8989
-0.053 0.817 1.638 8874
-0.054 0.825 1.642 8770
-0.054 0.830 1.640 9244
-0.055 0.834 1.637 9719
-0.055 0.838 1.635 10570
-0.055 0.847 1.639 14343
-0.056 0.851 1.637 17405
-0.056 0.859 1.641 19104
-0.057 0.864 1.638 21325
-0.057 0.872 1.643 22202
-0.057 0.877 1.640 25121
-0.058 0.881 1.637 26643
-0.058 0.885 1.635 24494
-0.058 0.890 1.632 22352
-0.058 0.894 1.629 17935
-0.058 0.894 1.620 13145
-0.059 0.902 1.624 12616
-0.060 0.911 1.628 17934
-0.060 0.920 1.632 34613
-0.060 0.924 1.629 45533
-0.061 0.932 1.633 46106
-0.061 0.937 1.630 34190
-0.062 0.945 1.634 22019
-0.062 0.950 1.631 19795
-0.062 0.950 1.622 18432
-0.063 0.958 1.625 16650
-0.063 0.967 1.629 15432
-0.064 0.980 1.639 14559
-0.065 0.989 1.643 16621
-0.065 0.993 1.640 19769
-0.065 0.998 1.637 21384
-0.066 1.002 1.634 24597
-0.066 1.002 1.625 22786
-0.066 1.006 1.622 14461
-0.066 1.015 1.625 9336
-0.067 1.019 1.622 11012
-0.067 1.024 1.619 12318
-0.067 1.023 1.609 9563
-0.067 1.027 1.606 5718
-0.068 1.046 1.623 4433
-0.070 1.064 1.639 5168
-0.070 1.068 1.635 5001
-0.070 1.063 1.620 4084
-0.070 1.067 1.616 4964
-0.070 1.076 1.619 8013
-0.071 1.081 1.616 10981
-0.071 1.085 1.613 10359
-0.072 1.094 1.616 8679
-0.072 1.103 1.619 6729
-0.072 1.107 1.616 5777
-0.073 1.116 1.619 8210
-0.074 1.126 1.622 8410
-0.074 1.125 1.612 8702
-0.074 1.129 1.609 10120
-0.074 1.138 1.612 9819
-0.075 1.143 1.608 11417
-0.075 1.152 1.611 10206
-0.076 1.161 1.614 7616
-0.077 1.170 1.616 10816
-0.077 1.180 1.619 13252
-0.077 1.184 1.615 10335
-0.078 1.193 1.618 6489
-0.078 1.198 1.614 5379
-0.079 1.207 1.617 9537
-0.079 1.211 1.613 19872
-0.080 1.221 1.616 26822
-0.080 1.230 1.618 23847
-0.081 1.234 1.614 17773
-0.081 1.238 1.611 11424
-0.082 1.253 1.619 7993
-0.082 1.257 1.615 9086
-0.083 1.262 1.611 13774
-0.083 1.266 1.608 17515
-0.083 1.275 1.610 11506
-0.084 1.290 1.618 6494
-0.084 1.289 1.608 10906
-0.084 1.288 1.598 15773
-0.085 1.292 1.595 13761
-0.085 1.302 1.597 10515
-0.085 1.306 1.593 9207
-0.086 1.316 1.595 8607
-0.086 1.320 1.591 8998
-0.087 1.324 1.587 9286
-0.087 1.328 1.583 7671
-0.088 1.338 1.585 5310
-0.087 1.337 1.575 4229
-0.087 1.330 1.559 3855
-0.087 1.334 1.556 3206
-0.072 1.101 1.307 2674
-0.073 1.110 1.310 2956
-0.073 1.119 1.312 3352
-0.074 1.128 1.314 3866
-0.074 1.131 1.311 3739
-0.070 1.068 1.240 2959
-0.070 1.077 1.243 4217
-0.075 1.142 1.301 4472
-0.075 1.145 1.297 7602
-0.075 1.148 1.294 7039
-0.076 1.157 1.296 5942
-0.076 1.166 1.298 4245
-0.077 1.175 1.300 3860
-0.073 1.110 1.231 5101
-0.077 1.176 1.288 6882
-0.077 1.180 1.284 9681
-0.077 1.183 1.281 10491
-0.078 1.186 1.277 11665
-0.078 1.190 1.274 13356
-0.078 1.199 1.275 15012
-0.078 1.196 1.266 13028
-0.078 1.199 1.263 10497
-0.079 1.208 1.265 10395
-0.079 1.206 1.256 11654
-0.079 1.209 1.252 12941
-0.080 1.230 1.264 14769
-0.081 1.239 1.266 13210
-0.082 1.248 1.267 12243
-0.081 1.240 1.253 17074
-0.081 1.237 1.244 18031
-0.081 1.240 1.241 10441
-0.075 1.147 1.154 7770
-0.082 1.252 1.238 7188
-0.075 1.147 1.142 7902
-0.075 1.144 1.134 8196
-0.080 1.226 1.197 12356
-0.080 1.229 1.193 10547
-0.081 1.238 1.194 7509
-0.082 1.247 1.196 9945
-0.082 1.250 1.192 10372
-0.082 1.253 1.188 8534
-0.082 1.256 1.185 9863
-0.082 1.259 1.181 10983
-0.116 1.768 1.583 14855
-0.116 1.772 1.577 17135
-0.116 1.776 1.572 17723
-0.117 1.787 1.572 17489
-0.118 1.797 1.571 17601
-0.117 1.795 1.561 18854
-0.118 1.799 1.556 16971
-0.081 1.233 1.112 12668
-0.080 1.229 1.104 15437
-0.120 1.836 1.559 22273
-0.081 1.235 1.096 19104
-0.081 1.237 1.093 20806
-0.081 1.240 1.089 23406
-0.081 1.243 1.085 26201
-0.081 1.246 1.081 26211
-0.082 1.248 1.078 26539
-0.081 1.245 1.069 27652
-0.082 1.247 1.066 25995
-0.082 1.250 1.062 22642
-0.082 1.253 1.058 18247
-0.082 1.255 1.055 13843
-0.082 1.258 1.051 9660
-0.129 1.979 1.551 8808
-0.130 1.990 1.549 11185
-0.131 2.000 1.548 13263
-0.132 2.011 1.546 10603
-0.131 2.008 1.536 7423
-0.132 2.019 1.535 7166
-0.134 2.049 1.546 8661
-0.134 2.047 1.536 12388
-0.134 2.051 1.530 11787
-0.134 2.055 1.524 9424
-0.135 2.059 1.518 10005
-0.135 2.063 1.511 10060
-0.135 2.060 1.501 7543
-0.092 1.400 1.066 7993
-0.092 1.403 1.062 8020
-0.092 1.405 1.058 7513
-0.093 1.415 1.058 7019
-0.093 1.417 1.054 6327
-0.086 1.313 0.982 7433
-0.086 1.308 0.974 8752
-0.086 1.311 0.970 8205
-0.086 1.313 0.967 6819
-0.086 1.315 0.963 5337
-0.086 1.318 0.959 4052
-0.085 1.307 0.947 4746
-0.086 1.309 0.943 5620
-0.086 1.311 0.939 5456
-0.086 1.320 0.939 5326
-0.087 1.323 0.935 5887
-0.087 1.325 0.931 6511
-0.086 1.320 0.923 6056
-0.086 1.316 0.915 5501
-0.086 1.318 0.911 4018
-0.086 1.320 0.908 2987
-0.086 1.322 0.904 3231
-0.086 1.318 0.896 3369
-0.086 1.313 0.888 3628
-0.086 1.322 0.888 4132
-0.087 1.331 0.888 4262
-0.087 1.326 0.880 3647
-0.087 1.335 0.880 2781
-0.167 2.550 1.525 3230
-0.167 2.554 1.517 3847
-0.168 2.572 1.517 5284
-0.168 2.576 1.510 7003
-0.169 2.580 1.502 6507
-0.169 2.584 1.494 6012
-0.169 2.588 1.487 4883
-0.169 2.585 1.476 3833
-0.089 1.361 0.848 4007
-0.089 1.363 0.843 3189
-0.089 1.358 0.836 2412
-0.088 1.346 0.825 1803
-0.088 1.341 0.817 1400
-0.089 1.364 0.824 2478
-0.090 1.373 0.823 3763
-0.090 1.375 0.819 4190
-0.090 1.377 0.815 4585
-0.090 1.379 0.811 3731
-0.091 1.395 0.813 3001
-0.091 1.397 0.809 4697
-0.092 1.399 0.805 6394
-0.092 1.401 0.801 7574
-0.092 1.403 0.797 8940
-0.092 1.405 0.793 9124
-0.092 1.407 0.788 8664
-0.093 1.416 0.788 8241
-0.092 1.410 0.780 7053
-0.092 1.412 0.776 5901
-0.092 1.414 0.772 5098
-0.093 1.416 0.768 5729
-0.040 0.646 1.645 12817
-0.041 0.650 1.643 13955
-0.041 0.655 1.641 15092
-0.041 0.659 1.639 15486
-0.042 0.663 1.637 15880
-0.042 0.668 1.635 15251
-0.042 0.675 1.640 14089
-0.043 0.680 1.638 13429
-0.043 0.687 1.643 10962
-0.044 0.699 1.655 9321
-0.044 0.703 1.653 9409
-0.045 0.711 1.658 9584
-0.044 0.708 1.642 10464
-0.044 0.709 1.633 11904
-0.045 0.717 1.638 11649
-0.045 0.721 1.635 12597
-0.046 0.729 1.640 13068
-0.046 0.737 1.645 13127
-0.046 0.741 1.643 13822
-0.047 0.746 1.641 11593
-0.047 0.750 1.638 9365
-0.048 0.758 1.643 6924
-0.048 0.763 1.641 4609
-0.048 0.771 1.646 6408
-0.049 0.775 1.643 8270
-0.049 0.783 1.648 9324
-0.050 0.791 1.652 10155
-0.050 0.799 1.657 9182
-0.050 0.804 1.655 7609
-0.051 0.808 1.652 6272
-0.051 0.809 1.643 7532
-0.051 0.813 1.640 9440
-0.051 0.817 1.638 10126
-0.052 0.826 1.642 10930
-0.052 0.830 1.640 11731
-0.052 0.834 1.637 12532
-0.053 0.839 1.635 13311
-0.053 0.847 1.639 16747
-0.053 0.851 1.637 19386
-0.054 0.860 1.641 20130
-0.054 0.864 1.638 21353
-0.055 0.872 1.643 21453
-0.055 0.877 1.640 23483
-0.055 0.881 1.637 24997
-0.055 0.885 1.635 23193
-0.056 0.890 1.632 21391
-0.056 0.894 1.629 17244
-0.056 0.894 1.620 12246
-0.057 0.903 1.624 11072
-0.057 0.911 1.628 16416
-0.058 0.920 1.632 33437
-0.058 0.928 1.636 44655
-0.058 0.933 1.633 45735
-0.059 0.937 1.630 34426
-0.059 0.946 1.634 22580
-0.060 0.950 1.631 20508
-0.060 0.950 1.622 19954
-0.060 0.959 1.625 18700
-0.061 0.967 1.629 17517
-0.061 0.980 1.639 15031
-0.062 0.989 1.643 14943
-0.062 0.993 1.640 17327
-0.063 0.998 1.637 18542
-0.063 1.002 1.634 21352
-0.063 1.006 1.631 19722
-0.063 1.006 1.622 12433
-0.064 1.015 1.625 8138
-0.064 1.019 1.622 9550
-0.064 1.024 1.619 10510
-0.064 1.028 1.616 7415
-0.064 1.023 1.600 4591
-0.064 1.023 1.591 4600
-0.066 1.050 1.619 5023
-0.067 1.068 1.635 4768
-0.067 1.073 1.632 3350
-0.067 1.072 1.623 4723
-0.067 1.077 1.619 7477
-0.068 1.081 1.616 9432
-0.068 1.085 1.613 8899
-0.069 1.094 1.616 7523
-0.069 1.103 1.619 5890
-0.069 1.108 1.616 5987
-0.070 1.117 1.619 9192
-0.071 1.126 1.622 9277
-0.071 1.125 1.612 9166
-0.071 1.129 1.609 10161
-0.071 1.139 1.612 9800
-0.072 1.143 1.608 11612
-0.072 1.147 1.605 10228
-0.073 1.161 1.614 6756
-0.073 1.171 1.616 8567
-0.074 1.180 1.619 11059
-0.075 1.189 1.621 10246
-0.075 1.193 1.618 7400
-0.075 1.198 1.614 5108
-0.076 1.207 1.617 9045
-0.076 1.211 1.613 20200
-0.076 1.216 1.610 27583
-0.077 1.225 1.612 24546
-0.077 1.234 1.614 18858
-0.078 1.239 1.611 13314
-0.078 1.248 1.613 10333
-0.079 1.258 1.615 9824
-0.079 1.257 1.606 12759
-0.079 1.266 1.608 16721
-0.080 1.270 1.604 11989
-0.081 1.285 1.612 7686
-0.080 1.284 1.602 12274
-0.081 1.288 1.598 17977
-0.081 1.293 1.595 16332
-0.082 1.302 1.597 12846
-0.082 1.306 1.593 11329
-0.082 1.311 1.589 10555
-0.083 1.320 1.591 10363
-0.083 1.324 1.587 10606
-0.083 1.328 1.583 9980
-0.084 1.338 1.585 7699
-0.084 1.337 1.575 5127
-0.084 1.341 1.571 3672
-0.087 1.384 1.607 3046
-0.069 1.096 1.302 2144
-0.066 1.050 1.247 2747
-0.065 1.042 1.233 3334
-0.065 1.045 1.230 4000
-0.071 1.132 1.311 3126
-0.067 1.062 1.235 1996
-0.067 1.077 1.243 2755
-0.072 1.142 1.301 3580
-0.072 1.151 1.303 5971
-0.072 1.154 1.300 6079
-0.073 1.158 1.296 6215
-0.073 1.167 1.298 5030
-0.074 1.176 1.300 4905
-0.074 1.179 1.297 6398
-0.074 1.177 1.288 8156
-0.074 1.180 1.284 10300
-0.075 1.189 1.286 10935
-0.074 1.186 1.277 11647
-0.075 1.190 1.274 13102
-0.075 1.199 1.275 15645
-0.075 1.196 1.266 15100
-0.075 1.200 1.263 12572
-0.076 1.209 1.265 11383
-0.076 1.206 1.256 12008
-0.076 1.215 1.257 13330
-0.077 1.230 1.264 13651
-0.078 1.239 1.266 11793
-0.078 1.243 1.262 11869
-0.077 1.234 1.248 19676
-0.078 1.237 1.244 22273
-0.077 1.228 1.230 12933
-0.077 1.225 1.222 9534
-0.078 1.247 1.233 8860
-0.072 1.147 1.142 8542
-0.072 1.144 1.134 8417
-0.077 1.226 1.197 10775
-0.077 1.229 1.193 9600
-0.078 1.250 1.205 7507
-0.078 1.247 1.196 9560
-0.078 1.250 1.192 9818
-0.079 1.253 1.188 8070
-0.079 1.256 1.185 9333
-0.079 1.253 1.176 10504
-0.111 1.768 1.583 13292
-0.111 1.772 1.577 14822
-0.111 1.777 1.572 15230
-0.112 1.787 1.572 15274
-0.113 1.797 1.571 15002
-0.113 1.801 1.566 15418
-0.113 1.799 1.556 14245
-0.077 1.233 1.112 15288
-0.077 1.229 1.104 18334
-0.115 1.830 1.554 22799
-0.077 1.235 1.096 21980
-0.078 1.238 1.093 23251
-0.078 1.240 1.089 25429
-0.078 1.243 1.085 27864
-0.078 1.246 1.081 27506
-0.078 1.249 1.078 27579
-0.078 1.251 1.074 28404
-0.078 1.247 1.066 26136
-0.078 1.250 1.062 22301
-0.079 1.253 1.058 17610
-0.079 1.255 1.055 13280
-0.079 1.258 1.051 9346
-0.124 1.979 1.551 9148
-0.125 1.990 1.549 11204
-0.125 2.001 1.548 12686
-0.126 2.011 1.546 10014
-0.126 2.015 1.540 6572
-0.127 2.026 1.539 5929
-0.128 2.050 1.546 7444
-0.128 2.047 1.536 10593
-0.129 2.051 1.530 10368
-0.129 2.055 1.524 8399
-0.129 2.059 1.518 9380
-0.129 2.063 1.511 9899
-0.130 2.067 1.505 7398
-0.088 1.407 1.071 8168
-0.088 1.403 1.062 8192
-0.088 1.405 1.058 7620
-0.089 1.415 1.058 7178
-0.089 1.417 1.054 6598
-0.089 1.413 1.045 6504
-0.082 1.302 0.970 7659
-0.082 1.304 0.966 7281
-0.082 1.307 0.962 5966
-0.082 1.316 0.963 4665
-0.082 1.311 0.955 3840
-0.082 1.307 0.947 4672
-0.082 1.309 0.943 5422
-0.082 1.311 0.939 5175
-0.082 1.314 0.935 4561
-0.083 1.323 0.935 4769
-0.083 1.325 0.931 5536
-0.083 1.321 0.923 5333
-0.082 1.316 0.915 5172
-0.082 1.311 0.908 3911
-0.082 1.314 0.904 3201
-0.082 1.316 0.900 3637
-0.083 1.318 0.896 3862
-0.082 1.313 0.888 4150
-0.083 1.322 0.888 4440
-0.083 1.324 0.884 4237
-0.083 1.320 0.876 3408
-0.160 2.553 1.536 2491
-0.160 2.550 1.525 3101
-0.160 2.554 1.517 3724
-0.161 2.572 1.517 5076
-0.161 2.576 1.510 6652
-0.162 2.580 1.502 6118
-0.162 2.584 1.494 5584
-0.162 2.588 1.487 4503
-0.162 2.585 1.476 3479
-0.085 1.354 0.844 3342
-0.085 1.349 0.836 2613
-0.084 1.337 0.825 2094
-0.083 1.332 0.818 1945
-0.084 1.334 0.814 1813
-0.085 1.350 0.817 2874
-0.086 1.366 0.820 4179
-0.086 1.368 0.816 4354
-0.086 1.370 0.812 4523
-0.087 1.386 0.814 3374
-0.087 1.395 0.813 2530
-0.088 1.405 0.813 4154
-0.088 1.406 0.808 5789
-0.088 1.408 0.804 7022
-0.088 1.410 0.800 8410
-0.088 1.405 0.793 8665
-0.088 1.407 0.788 8313
-0.089 1.416 0.788 7994
-0.088 1.411 0.780 6890
-0.089 1.412 0.776 5820
-0.089 1.414 0.772 5071
-0.089 1.416 0.768 5791
-0.040 0.646 1.645 13088
-0.040 0.650 1.643 13755
-0.040 0.655 1.641 14422
-0.041 0.659 1.639 14642
-0.041 0.663 1.637 14862
-0.041 0.668 1.635 14265
-0.042 0.675 1.640 12950
-0.042 0.680 1.638 12323
-0.042 0.687 1.643 9879
-0.043 0.699 1.655 8153
-0.043 0.703 1.653 9040
-0.044 0.707 1.651 9927
-0.044 0.708 1.642 10964
-0.044 0.709 1.633 12438
-0.044 0.713 1.630 11960
-0.045 0.721 1.635 12870
-0.045 0.729 1.640 13328
-0.046 0.737 1.645 13239
-0.046 0.742 1.643 13798
-0.046 0.746 1.641 11501
-0.046 0.750 1.638 9204
-0.047 0.755 1.636 7265
-0.047 0.763 1.641 5478
-0.048 0.771 1.646 7612
-0.048 0.775 1.643 9952
-0.048 0.783 1.648 10989
-0.049 0.791 1.652 11802
-0.049 0.799 1.657 10605
-0.050 0.804 1.655 8497
-0.050 0.808 1.652 6760
-0.050 0.809 1.643 8181
-0.050 0.813 1.640 10401
-0.050 0.817 1.638 11856
-0.051 0.826 1.642 13600
-0.051 0.830 1.640 14609
-0.052 0.834 1.637 15618
-0.052 0.839 1.635 16207
-0.052 0.847 1.639 19138
-0.053 0.851 1.637 21329
-0.053 0.860 1.641 21134
-0.053 0.864 1.638 21431
-0.054 0.872 1.643 20570
-0.054 0.877 1.640 21453
-0.054 0.881 1.637 22822
-0.055 0.885 1.635 21432
-0.055 0.890 1.632 20022
-0.055 0.894 1.629 16283
-0.055 0.894 1.620 11441
-0.056 0.903 1.624 9913
-0.056 0.911 1.628 14886
-0.057 0.920 1.632 31273
-0.057 0.928 1.636 42318
-0.058 0.933 1.633 43772
-0.058 0.937 1.630 33410
-0.058 0.946 1.634 22285
-0.059 0.950 1.631 20790
-0.059 0.950 1.622 21218
-0.059 0.959 1.625 20152
-0.060 0.967 1.629 18910
-0.061 0.980 1.639 15284
-0.061 0.989 1.643 13285
-0.061 0.994 1.640 14803
-0.062 0.998 1.637 15679
-0.062 1.002 1.634 17950
-0.062 1.007 1.631 16543
-0.062 1.011 1.628 10528
-0.063 1.020 1.632 6975
-0.063 1.024 1.628 7880
-0.063 1.028 1.625 8349
-0.064 1.037 1.629 5775
-0.063 1.018 1.594 3703
-0.063 1.027 1.597 4660
-0.064 1.036 1.600 5423
-0.065 1.045 1.604 4977
-0.066 1.073 1.632 3446
-0.067 1.077 1.629 4751
-0.067 1.081 1.626 6770
-0.067 1.081 1.616 7915
-0.067 1.085 1.613 7788
-0.063 1.022 1.522 7062
-0.063 1.022 1.512 6885
-0.068 1.108 1.616 5926
-0.069 1.117 1.619 9159
-0.070 1.126 1.622 9236
-0.069 1.125 1.612 9038
-0.070 1.130 1.609 9707
-0.070 1.139 1.612 9412
-0.071 1.143 1.608 11540
-0.071 1.147 1.605 10141
-0.072 1.161 1.614 6028
-0.072 1.171 1.616 6566
-0.073 1.180 1.619 9112
-0.073 1.189 1.621 10665
-0.074 1.194 1.618 9797
-0.074 1.198 1.614 7123
-0.074 1.202 1.611 9320
-0.075 1.211 1.613 19243
-0.075 1.216 1.610 26646
-0.076 1.225 1.612 23889
-0.076 1.234 1.614 18723
-0.076 1.239 1.611 14186
-0.077 1.248 1.613 12029
-0.078 1.258 1.615 10544
-0.078 1.257 1.606 11628
-0.078 1.266 1.608 15026
-0.078 1.270 1.604 11239
-0.079 1.285 1.612 7781
-0.079 1.284 1.602 12720
-0.080 1.288 1.598 18961
-0.080 1.293 1.595 17950
-0.080 1.302 1.597 14528
-0.081 1.306 1.593 12778
-0.081 1.311 1.589 11912
-0.082 1.320 1.591 11339
-0.082 1.324 1.587 11677
-0.082 1.329 1.583 11898
-0.083 1.338 1.585 9646
-0.083 1.342 1.581 6284
-0.083 1.352 1.582 4297
-0.085 1.378 1.601 3952
-0.084 1.366 1.580 2151
-0.065 1.050 1.247 3071
-0.065 1.047 1.239 3879
-0.065 1.045 1.230 4257
-0.065 1.054 1.232 3916
-0.066 1.068 1.240 2686
-0.085 1.379 1.544 3417
-0.071 1.142 1.301 2879
-0.071 1.145 1.297 4342
-0.071 1.154 1.300 4913
-0.072 1.163 1.302 5858
-0.072 1.167 1.298 5391
-0.073 1.176 1.300 5639
-0.073 1.179 1.297 7341
-0.073 1.177 1.288 8751
-0.073 1.180 1.284 10256
-0.073 1.189 1.286 10724
-0.073 1.187 1.277 11024
-0.073 1.190 1.274 12129
-0.074 1.199 1.275 15257
-0.074 1.196 1.266 15936
-0.074 1.205 1.268 13693
-0.075 1.209 1.265 11682
-0.074 1.206 1.256 11606
-0.075 1.215 1.257 12723
-0.076 1.224 1.259 11645
-0.077 1.239 1.266 10393
-0.076 1.237 1.257 12285
-0.076 1.228 1.243 21822
-0.076 1.231 1.239 25139
-0.076 1.228 1.230 15521
-0.076 1.226 1.222 12669
-0.077 1.241 1.228 10449
-0.070 1.141 1.137 8296
-0.071 1.144 1.134 7841
-0.076 1.232 1.202 9092
-0.077 1.247 1.208 8380
-0.078 1.256 1.210 7674
-0.077 1.247 1.196 8788
-0.078 1.256 1.197 8978
-0.078 1.259 1.193 7562
-0.078 1.256 1.185 8738
-0.077 1.253 1.176 9785
-0.109 1.768 1.583 11955
-0.109 1.766 1.572 13030
-0.109 1.770 1.567 13041
-0.110 1.787 1.572 13250
-0.111 1.797 1.571 12607
-0.076 1.233 1.124 12724
-0.076 1.236 1.121 13783
-0.076 1.233 1.112 16596
-0.076 1.229 1.104 19585
-0.113 1.831 1.554 23033
-0.076 1.235 1.096 23040
-0.076 1.238 1.093 23857
-0.077 1.240 1.089 25513
-0.077 1.243 1.085 27487
-0.077 1.246 1.081 26827
-0.077 1.249 1.078 26664
-0.077 1.251 1.074 27227
-0.077 1.248 1.066 24605
-0.077 1.250 1.062 20616
-0.077 1.253 1.058 15999
-0.078 1.256 1.055 11970
-0.078 1.258 1.051 8445
-0.122 1.980 1.551 8998
-0.123 1.990 1.549 10488
-0.124 2.001 1.548 11215
-0.124 2.011 1.546 8798
-0.124 2.009 1.536 5394
-0.125 2.026 1.539 4367
-0.127 2.050 1.546 5696
-0.126 2.047 1.536 8390
-0.127 2.051 1.530 8679
-0.127 2.055 1.524 7258
-0.127 2.059 1.518 8496
-0.127 2.063 1.511 9332
-0.087 1.404 1.075 7227
-0.087 1.407 1.071 8051
-0.087 1.403 1.062 8080
-0.087 1.406 1.058 7463
-0.087 1.415 1.058 6932
-0.088 1.417 1.054 6411
-0.087 1.413 1.045 6416
-0.080 1.302 0.970 6623
-0.081 1.304 0.966 6309
-0.081 1.307 0.962 5082
-0.081 1.309 0.959 3965
-0.081 1.311 0.955 3536
-0.081 1.307 0.947 4420
-0.081 1.309 0.943 5068
-0.081 1.312 0.939 4787
-0.081 1.307 0.931 3854
-0.081 1.316 0.931 3778
-0.081 1.318 0.927 4656
-0.081 1.314 0.919 4752
-0.081 1.309 0.911 4955
-0.081 1.305 0.904 4049
-0.081 1.307 0.900 3503
-0.081 1.316 0.900 3958
-0.081 1.318 0.896 4167
-0.081 1.313 0.888 4446
-0.082 1.322 0.888 4533
-0.082 1.324 0.884 4086
-0.081 1.320 0.876 3174
-0.158 2.554 1.536 2243
-0.158 2.558 1.529 2836
-0.158 2.562 1.521 3428
-0.159 2.573 1.517 4674
-0.159 2.577 1.510 6064
-0.159 2.580 1.502 5526
-0.160 2.584 1.494 4988
-0.160 2.588 1.487 4013
-0.160 2.585 1.476 3080
-0.083 1.347 0.840 3009
-0.082 1.335 0.829 2690
-0.082 1.330 0.822 2690
-0.082 1.332 0.818 2597
-0.082 1.327 0.810 2521
-0.083 1.350 0.817 3385
-0.084 1.359 0.816 4474
-0.084 1.368 0.816 4444
-0.085 1.370 0.812 4383
-0.085 1.379 0.811 3008
-0.087 1.403 0.817 2158
-0.087 1.405 0.813 3572
-0.087 1.407 0.808 4986
-0.087 1.408 0.804 6174
-0.087 1.410 0.800 7542
-0.087 1.405 0.793 7816
-0.087 1.407 0.788 7582
-0.087 1.416 0.788 7374
-0.087 1.411 0.780 6411
-0.087 1.412 0.776 5473
-0.087 1.414 0.772 4794
-0.087 1.416 0.768 5522
-0.038 0.646 1.645 13907
-0.038 0.650 1.643 14106
-0.039 0.655 1.641 14305
-0.039 0.659 1.639 14225
-0.039 0.663 1.637 14144
-0.039 0.668 1.635 13579
-0.040 0.672 1.633 12425
-0.040 0.680 1.638 11916
-0.040 0.688 1.643 9577
-0.041 0.695 1.648 7880
-0.041 0.700 1.646 9299
-0.042 0.708 1.651 10816
-0.042 0.708 1.642 11848
-0.042 0.709 1.633 13305
-0.042 0.714 1.630 12688
-0.042 0.721 1.635 13361
-0.043 0.729 1.640 13676
-0.043 0.737 1.645 13340
-0.044 0.742 1.643 13692
-0.044 0.746 1.641 11303
-0.044 0.750 1.638 8913
-0.044 0.755 1.636 7775
-0.045 0.763 1.641 6665
-0.045 0.767 1.639 9055
-0.046 0.775 1.643 11762
-0.046 0.783 1.648 12725
-0.047 0.791 1.652 13540
-0.047 0.799 1.657 12214
-0.048 0.808 1.662 9834
-0.048 0.812 1.659 8036
-0.048 0.809 1.643 10048
-0.048 0.813 1.640 13010
-0.048 0.818 1.638 15355
-0.049 0.826 1.642 18258
-0.049 0.830 1.640 19510
-0.049 0.834 1.637 20762
-0.049 0.839 1.635 21012
-0.050 0.847 1.639 23059
-0.050 0.851 1.637 24608
-0.051 0.860 1.641 22971
-0.051 0.864 1.638 21949
-0.051 0.873 1.643 19324
-0.052 0.877 1.640 18126
-0.052 0.881 1.637 19138
-0.052 0.886 1.635 18395
-0.052 0.890 1.632 17618
-0.052 0.890 1.623 14718
-0.053 0.894 1.620 10448
-0.053 0.903 1.624 8680
-0.054 0.911 1.628 12738
-0.054 0.924 1.639 27639
-0.055 0.928 1.636 38265
-0.055 0.933 1.633 40179
-0.055 0.941 1.637 31366
-0.056 0.950 1.641 21453
-0.056 0.950 1.631 21051
-0.056 0.950 1.622 22757
-0.056 0.959 1.625 21575
-0.057 0.967 1.629 20265
-0.058 0.981 1.639 15750
-0.058 0.989 1.643 11380
-0.058 0.994 1.640 11412
-0.059 1.003 1.644 11895
-0.059 1.007 1.641 13256
-0.059 1.007 1.631 12172
-0.060 1.011 1.628 8472
-0.060 1.024 1.638 6340
-0.060 1.024 1.628 5951
-0.061 1.033 1.632 5306
-0.062 1.051 1.648 4969
-0.062 1.056 1.645 4179
-0.060 1.027 1.597 4416
-0.061 1.036 1.600 5492
-0.062 1.055 1.616 5293
-0.063 1.078 1.639 3877
-0.063 1.077 1.629 4762
-0.064 1.082 1.626 5527
-0.060 1.015 1.528 6127
-0.060 1.019 1.525 7511
-0.060 1.023 1.522 8488
-0.060 1.022 1.512 8565
-0.060 1.026 1.509 6982
-0.066 1.117 1.619 8685
-0.066 1.126 1.622 8990
-0.066 1.125 1.612 9223
-0.067 1.130 1.609 9715
-0.067 1.134 1.605 9028
-0.067 1.143 1.608 11078
-0.068 1.147 1.605 9847
-0.068 1.152 1.601 5384
-0.069 1.171 1.616 5335
-0.069 1.180 1.619 8710
-0.070 1.184 1.615 12410
-0.070 1.189 1.612 12655
-0.071 1.198 1.614 9440
-0.071 1.202 1.611 9378
-0.071 1.212 1.613 16899
-0.072 1.216 1.610 23833
-0.072 1.225 1.612 22344
-0.073 1.235 1.614 18624
-0.073 1.244 1.617 15218
-0.073 1.248 1.613 14623
-0.074 1.253 1.609 13204
-0.074 1.257 1.606 11496
-0.075 1.266 1.608 12790
-0.075 1.271 1.604 9196
-0.075 1.280 1.606 7005
-0.076 1.284 1.602 12979
-0.076 1.289 1.598 19472
-0.076 1.293 1.595 19430
-0.077 1.302 1.597 16605
-0.077 1.307 1.593 14614
-0.077 1.311 1.589 13330
-0.078 1.320 1.591 12466
-0.078 1.325 1.587 13207
-0.079 1.334 1.589 14158
-0.079 1.338 1.585 11963
-0.079 1.343 1.581 8141
-0.080 1.358 1.588 5383
-0.081 1.384 1.607 4950
-0.081 1.377 1.591 3755
-0.062 1.050 1.247 3394
-0.062 1.048 1.239 4307
-0.062 1.051 1.235 4214
-0.062 1.060 1.238 4629
-0.063 1.068 1.240 3709
-0.063 1.071 1.237 3493
-0.064 1.080 1.240 3001
-0.067 1.145 1.297 2436
-0.068 1.160 1.305 3505
-0.068 1.163 1.302 5009
-0.069 1.167 1.298 5478
-0.069 1.176 1.300 6319
-0.069 1.179 1.297 7923
-0.069 1.177 1.288 8848
-0.069 1.180 1.284 9661
-0.070 1.189 1.286 10013
-0.070 1.187 1.277 9935
-0.070 1.196 1.279 10715
-0.071 1.199 1.275 14209
-0.070 1.197 1.266 16106
-0.071 1.206 1.268 14457
-0.071 1.209 1.265 11731
-0.071 1.212 1.261 10685
-0.072 1.215 1.257 11116
-0.072 1.225 1.259 8558
-0.073 1.234 1.261 9560
-0.072 1.225 1.246 15181
-0.072 1.222 1.238 25143
-0.072 1.231 1.239 27873
-0.072 1.229 1.230 19456
-0.072 1.226 1.222 17678
-0.073 1.235 1.223 13380
-0.074 1.250 1.230 9084
-0.075 1.271 1.241 8162
-0.075 1.275 1.237 8215
-0.075 1.278 1.234 9020
-0.075 1.275 1.225 9377
-0.075 1.266 1.211 8779
-0.074 1.263 1.202 8322
-0.074 1.260 1.193 7268
-0.074 1.256 1.185 8439
-0.075 1.266 1.186 9280
-0.104 1.769 1.583 11337
-0.072 1.222 1.139 12814
-0.072 1.225 1.135 14398
-0.072 1.228 1.132 14220
-0.072 1.231 1.128 14271
-0.073 1.234 1.124 14219
-0.073 1.237 1.121 14953
-0.073 1.233 1.112 17471
-0.072 1.230 1.104 20350
-0.108 1.831 1.554 24037
-0.073 1.235 1.096 23318
-0.073 1.238 1.093 23515
-0.073 1.241 1.089 24507
-0.073 1.243 1.085 25842
-0.073 1.246 1.081 24821
-0.074 1.249 1.078 24367
-0.074 1.252 1.074 24581
-0.073 1.248 1.066 21711
-0.074 1.250 1.062 17723
-0.074 1.253 1.058 13325
-0.074 1.256 1.055 9824
-0.074 1.258 1.051 6923
-0.116 1.967 1.542 8613
-0.117 1.984 1.545 9166
-0.118 2.008 1.552 8744
-0.119 2.018 1.551 6965
-0.118 2.009 1.536 4946
-0.118 2.000 1.521 4800
-0.118 2.004 1.515 5157
-0.120 2.034 1.527 6667
-0.121 2.052 1.530 6949
-0.121 2.056 1.524 6253
-0.121 2.060 1.518 7544
-0.121 2.064 1.511 8500
-0.083 1.404 1.075 7425
-0.083 1.407 1.071 8162
-0.083 1.403 1.062 8149
-0.083 1.406 1.058 7468
-0.083 1.415 1.058 6557
-0.083 1.418 1.054 5967
-0.084 1.420 1.050 6171
-0.084 1.423 1.045 6027
-0.076 1.298 0.962 5167
-0.084 1.421 1.033 4035
-0.077 1.309 0.959 3207
-0.077 1.312 0.955 3225
-0.077 1.307 0.947 4169
-0.077 1.303 0.939 4779
-0.077 1.305 0.935 4549
-0.077 1.300 0.927 3396
-0.077 1.303 0.923 3211
-0.077 1.305 0.919 4070
-0.077 1.300 0.911 4479
-0.077 1.303 0.908 5003
-0.076 1.298 0.900 4474
-0.077 1.307 0.900 4064
-0.077 1.316 0.900 4333
-0.078 1.318 0.896 4526
-0.077 1.313 0.888 4798
-0.078 1.323 0.888 4624
-0.078 1.325 0.884 3897
-0.077 1.313 0.873 2955
-0.150 2.554 1.536 1936
-0.151 2.558 1.529 2473
-0.151 2.562 1.521 3010
-0.151 2.573 1.517 4086
-0.152 2.577 1.510 5252
-0.152 2.581 1.502 4716
-0.152 2.585 1.494 4180
-0.152 2.589 1.487 3336
-0.152 2.586 1.476 2509
-0.078 1.333 0.833 3130
-0.079 1.335 0.829 3458
-0.078 1.330 0.822 3882
-0.078 1.332 0.818 3847
-0.079 1.334 0.814 3812
-0.079 1.343 0.813 4373
-0.080 1.359 0.816 5143
-0.080 1.361 0.812 4790
-0.080 1.363 0.808 4398
-0.080 1.365 0.804 2912
-0.084 1.424 0.827 1912
-0.083 1.412 0.816 2947
-0.083 1.407 0.808 4021
-0.083 1.409 0.804 5146
-0.083 1.411 0.800 6474
-0.173 2.947 1.489 7210
-0.173 2.944 1.477 8469
-0.174 2.948 1.468 8469
-0.173 2.944 1.456 7754
-0.173 2.941 1.444 7450
-0.083 1.415 0.772 4340
-0.083 1.416 0.768 5041
-0.036 0.646 1.645 13912
-0.037 0.651 1.643 13681
-0.037 0.655 1.641 13449
-0.037 0.659 1.639 13360
-0.037 0.660 1.630 13417
-0.038 0.668 1.635 12765
-0.038 0.672 1.633 12140
-0.038 0.680 1.638 12082
-0.039 0.688 1.643 9832
-0.039 0.695 1.648 8130
-0.039 0.700 1.646 9681
-0.040 0.704 1.644 11233
-0.040 0.709 1.642 12152
-0.040 0.709 1.633 13469
-0.040 0.714 1.630 12742
-0.041 0.722 1.635 13177
-0.041 0.729 1.640 13308
-0.042 0.737 1.645 12715
-0.042 0.742 1.643 12824
-0.042 0.746 1.641 10441
-0.042 0.750 1.638 8058
-0.043 0.755 1.636 7894
-0.043 0.759 1.634 7730
-0.043 0.767 1.639 10222
-0.044 0.775 1.643 13029
-0.044 0.783 1.648 13879
-0.045 0.791 1.652 14600
-0.045 0.800 1.657 13134
-0.046 0.808 1.662 10520
-0.046 0.812 1.659 8601
-0.046 0.809 1.643 11062
-0.046 0.813 1.640 14517
-0.046 0.822 1.645 17437
-0.047 0.826 1.642 20994
-0.047 0.830 1.640 22394
-0.047 0.835 1.637 23794
-0.047 0.839 1.635 23898
-0.048 0.847 1.639 25495
-0.048 0.852 1.637 26659
-0.048 0.860 1.641 24086
-0.049 0.864 1.638 22233
-0.049 0.869 1.636 18291
-0.049 0.877 1.640 15328
-0.050 0.881 1.637 15893
-0.050 0.886 1.635 15695
-0.050 0.890 1.632 15461
-0.050 0.890 1.623 13472
-0.050 0.894 1.620 9849
-0.051 0.907 1.631 8156
-0.052 0.916 1.635 11156
-0.052 0.924 1.639 23962
-0.052 0.929 1.636 33686
-0.053 0.933 1.633 35824
-0.053 0.942 1.637 28764
-0.054 0.950 1.641 20216
-0.054 0.950 1.631 20575
-0.054 0.950 1.622 23219
-0.054 0.959 1.625 21947
-0.055 0.968 1.629 20566
-0.055 0.981 1.639 15778
-0.056 0.989 1.643 9989
-0.056 0.994 1.640 9002
-0.057 1.003 1.644 9029
-0.057 1.011 1.647 9347
-0.057 1.011 1.638 8843
-0.057 1.011 1.628 7240
-0.057 1.020 1.632 5939
-0.058 1.024 1.628 4401
-0.059 1.042 1.645 3542
-0.059 1.051 1.648 4977
-0.059 1.051 1.639 4750
-0.060 1.060 1.642 4010
-0.060 1.064 1.639 5035
-0.060 1.064 1.629 5033
-0.061 1.078 1.639 4013
-0.061 1.077 1.629 4626
-0.061 1.077 1.619 4629
-0.057 1.020 1.534 6247
-0.057 1.019 1.525 7862
-0.058 1.023 1.522 9089
-0.058 1.022 1.512 9317
-0.058 1.026 1.509 7504
-0.063 1.117 1.619 7510
-0.063 1.126 1.622 8293
-0.063 1.126 1.612 9023
-0.064 1.130 1.609 9318
-0.064 1.134 1.605 8401
-0.064 1.143 1.608 10284
-0.064 1.143 1.599 9345
-0.065 1.147 1.595 5256
-0.066 1.171 1.616 5395
-0.066 1.175 1.613 9203
-0.067 1.185 1.615 13229
-0.067 1.189 1.612 13587
-0.068 1.198 1.614 10108
-0.068 1.202 1.611 8835
-0.068 1.212 1.613 14469
-0.069 1.221 1.616 20588
-0.069 1.231 1.618 20224
-0.070 1.240 1.620 17666
-0.070 1.244 1.617 15275
-0.070 1.249 1.613 15942
-0.071 1.253 1.609 15098
-0.071 1.257 1.606 11254
-0.071 1.267 1.608 10557
-0.072 1.271 1.604 6769
-0.072 1.280 1.606 5873
-0.072 1.279 1.596 12679
-0.073 1.289 1.598 18631
-0.073 1.293 1.595 19553
-0.073 1.303 1.597 17200
-0.074 1.307 1.593 15105
-0.074 1.316 1.595 13896
-0.074 1.321 1.591 12791
-0.075 1.325 1.587 13453
-0.075 1.334 1.589 14866
-0.075 1.339 1.585 12896
-0.076 1.343 1.581 8856
-0.077 1.358 1.588 5570
-0.078 1.384 1.607 5503
-0.078 1.377 1.591 5096
-0.078 1.387 1.593 3677
-0.059 1.053 1.244 4316
-0.060 1.056 1.241 3957
-0.060 1.065 1.244 4478
-0.060 1.068 1.240 4053
-0.061 1.077 1.243 5148
-0.061 1.080 1.240 4113
-0.061 1.084 1.236 2141
-0.061 1.087 1.233 4210
-0.061 1.090 1.230 5332
-0.066 1.173 1.304 5034
-0.066 1.176 1.300 6219
-0.066 1.179 1.297 7465
-0.066 1.177 1.288 8022
-0.067 1.180 1.284 8442
-0.067 1.184 1.281 8743
-0.067 1.187 1.277 8468
-0.067 1.190 1.274 9198
-0.068 1.199 1.275 12583
-0.067 1.197 1.266 14965
-0.068 1.206 1.268 14057
-0.068 1.209 1.265 11315
-0.068 1.212 1.261 9773
-0.069 1.216 1.257 9282
-0.069 1.225 1.259 6203
-0.069 1.228 1.255 9606
-0.069 1.219 1.241 17553
-0.069 1.222 1.238 26674
-0.069 1.226 1.234 28288
-0.069 1.229 1.230 21570
-0.069 1.226 1.222 20801
-0.069 1.229 1.218 15338
-0.070 1.250 1.230 10299
-0.072 1.272 1.241 9515
-0.072 1.275 1.237 9286
-0.072 1.278 1.234 10584
-0.072 1.281 1.230 11256
-0.072 1.272 1.216 9332
-0.071 1.263 1.202 7730
-0.071 1.266 1.198 6914
-0.071 1.263 1.190 8274
-0.071 1.266 1.186 8955
-0.099 1.763 1.578 10927
-0.069 1.222 1.139 13086
-0.069 1.225 1.135 14640
-0.069 1.228 1.132 14472
-0.069 1.231 1.128 14434
-0.070 1.234 1.124 14211
-0.070 1.237 1.121 14617
-0.070 1.233 1.112 16668
-0.069 1.230 1.104 19178
-0.103 1.831 1.554 24003
-0.103 1.835 1.549 23879
-0.070 1.238 1.093 21378
-0.070 1.241 1.089 21827
-0.070 1.244 1.085 22611
-0.070 1.246 1.081 21448
-0.070 1.249 1.078 20858
-0.071 1.252 1.074 20866
-0.109 1.934 1.561 21524
-0.109 1.938 1.556 17029
-0.071 1.253 1.058 10658
-0.071 1.256 1.055 7712
-0.110 1.957 1.543 6705
-0.111 1.961 1.537 7883
-0.111 1.978 1.540 7633
-0.113 2.008 1.552 6537
-0.114 2.018 1.551 5889
-0.113 2.009 1.536 5558
-0.113 2.007 1.526 6354
-0.113 2.011 1.520 6820
-0.114 2.022 1.518 6820
-0.115 2.045 1.525 5817
-0.116 2.056 1.524 5345
-0.116 2.060 1.518 6469
-0.079 1.402 1.079 7348
-0.079 1.405 1.075 7382
-0.079 1.407 1.071 7990
-0.079 1.403 1.062 7971
-0.079 1.406 1.058 7337
-0.079 1.409 1.054 6122
-0.080 1.418 1.054 5319
-0.080 1.421 1.050 5670
-0.080 1.423 1.045 5560
-0.080 1.419 1.037 4698
-0.080 1.422 1.033 3725
-0.080 1.424 1.028 2896
-0.074 1.312 0.955 2895
-0.074 1.307 0.947 3849
-0.073 1.303 0.939 4512
-0.074 1.305 0.935 4294
-0.073 1.301 0.927 3291
-0.073 1.296 0.919 3147
-0.073 1.298 0.915 3917
-0.073 1.301 0.911 4418
-0.073 1.303 0.908 4888
-0.073 1.298 0.900 4589
-0.074 1.307 0.900 4221
-0.074 1.316 0.900 4349
-0.074 1.318 0.896 4534
-0.074 1.314 0.888 4805
-0.074 1.316 0.884 4450
-0.074 1.318 0.880 3580
-0.074 1.313 0.873 2680
-0.074 1.315 0.869 1746
-0.144 2.558 1.529 2058
-0.144 2.562 1.521 2514
-0.145 2.573 1.517 3424
-0.145 2.577 1.510 4382
-0.146 2.581 1.502 3896
-0.146 2.585 1.494 3410
-0.146 2.589 1.487 2711
-0.075 1.332 0.837 2408
-0.075 1.334 0.833 3360
-0.075 1.329 0.826 3983
-0.075 1.331 0.822 4678
-0.075 1.333 0.818 4710
-0.075 1.334 0.814 4742
-0.075 1.336 0.810 5092
-0.076 1.353 0.813 5605
-0.076 1.354 0.809 4998
-0.076 1.356 0.805 4381
-0.077 1.358 0.801 3088
-0.167 2.956 1.545 2061
-0.080 1.412 0.816 2415
-0.170 3.022 1.554 3204
-0.080 1.416 0.808 4129
-0.079 1.404 0.797 5335
-0.079 1.406 0.793 5626
-0.166 2.952 1.480 6149
-0.167 2.955 1.471 6149
-0.167 2.959 1.463 5538
-0.167 2.956 1.451 4943
-0.080 1.415 0.772 3663
-0.080 1.417 0.768 4278
-0.035 0.646 1.645 13795
-0.035 0.651 1.643 13040
-0.035 0.655 1.641 12286
-0.035 0.656 1.632 12539
-0.036 0.660 1.630 12960
-0.036 0.665 1.628 12368
-0.036 0.672 1.633 12302
-0.037 0.680 1.638 13011
-0.037 0.684 1.636 10775
-0.038 0.696 1.648 8954
-0.038 0.700 1.646 10304
-0.038 0.704 1.644 11654
-0.038 0.705 1.635 12566
-0.038 0.709 1.633 13879
-0.039 0.714 1.630 13102
-0.039 0.722 1.635 13412
-0.039 0.730 1.640 13386
-0.040 0.737 1.645 12451
-0.040 0.742 1.643 12265
-0.040 0.746 1.641 9817
-0.041 0.751 1.638 7369
-0.041 0.755 1.636 8200
-0.041 0.759 1.634 9031
-0.041 0.767 1.639 11570
-0.042 0.775 1.643 14406
-0.042 0.783 1.648 15071
-0.043 0.792 1.652 15623
-0.043 0.800 1.657 13978
-0.044 0.808 1.662 11072
-0.044 0.812 1.659 9018
-0.044 0.809 1.643 11993
-0.044 0.813 1.640 15947
-0.044 0.822 1.645 19421
-0.045 0.826 1.642 23523
-0.045 0.830 1.640 25108
-0.045 0.835 1.637 26694
-0.045 0.839 1.635 26684
-0.046 0.847 1.639 27997
-0.046 0.852 1.637 28900
-0.046 0.856 1.634 25579
-0.047 0.864 1.638 22876
-0.047 0.869 1.636 17708
-0.047 0.877 1.640 12667
-0.048 0.881 1.637 12703
-0.048 0.886 1.635 13165
-0.048 0.890 1.632 13596
-0.048 0.890 1.623 12590
-0.049 0.899 1.627 9877
-0.049 0.907 1.631 8400
-0.050 0.916 1.635 9857
-0.050 0.924 1.639 19987
-0.050 0.929 1.636 28629
-0.050 0.933 1.633 30922
-0.051 0.942 1.637 25850
-0.052 0.963 1.661 19664
-0.051 0.950 1.631 20357
-0.051 0.950 1.622 24016
-0.052 0.959 1.625 22347
-0.052 0.968 1.629 20699
-0.053 0.981 1.639 15618
-0.054 0.990 1.643 8772
-0.053 0.990 1.634 7265
-0.054 0.998 1.637 6959
-0.054 1.007 1.641 6609
-0.054 1.007 1.631 7252
-0.055 1.011 1.628 7250
-0.055 1.016 1.625 6035
-0.055 1.015 1.616 4030
-0.055 1.024 1.619 3143
-0.056 1.042 1.635 5584
-0.057 1.051 1.639 5616
-0.057 1.060 1.642 4457
-0.058 1.065 1.639 5125
-0.058 1.069 1.635 4871
-0.058 1.078 1.639 3941
-0.058 1.073 1.623 4497
-0.057 1.053 1.588 4760
-0.055 1.015 1.528 6304
-0.055 1.019 1.525 8198
-0.055 1.023 1.522 9597
-0.055 1.022 1.512 9935
-0.055 1.026 1.509 7950
-0.060 1.117 1.619 5857
-0.061 1.131 1.628 7302
-0.061 1.126 1.612 8726
-0.061 1.130 1.609 8831
-0.061 1.134 1.605 7684
-0.062 1.139 1.602 9511
-0.062 1.143 1.599 9020
-0.062 1.142 1.589 5493
-0.063 1.171 1.616 6333
-0.064 1.175 1.613 10615
-0.064 1.185 1.615 13988
-0.064 1.189 1.612 13554
-0.065 1.198 1.614 9618
-0.065 1.203 1.611 7723
-0.066 1.212 1.613 11775
-0.066 1.221 1.616 17115
-0.067 1.231 1.618 18155
-0.067 1.240 1.620 16656
-0.067 1.244 1.617 14809
-0.068 1.249 1.613 16704
-0.068 1.253 1.609 16723
-0.068 1.257 1.606 10970
-0.068 1.267 1.608 8215
-0.069 1.271 1.604 6328
-0.069 1.275 1.600 7522
-0.069 1.279 1.596 12775
-0.070 1.289 1.598 17319
-0.070 1.293 1.595 19412
-0.070 1.303 1.597 17217
-0.071 1.307 1.593 15382
-0.071 1.317 1.595 14751
-0.071 1.321 1.591 12853
-0.072 1.325 1.587 12985
-0.072 1.335 1.589 15091
-0.072 1.339 1.585 13474
-0.073 1.343 1.581 8955
-0.073 1.358 1.588 5569
-0.075 1.379 1.601 6449
-0.074 1.377 1.591 6605
-0.075 1.387 1.593 4916
-0.057 1.053 1.244 4038
-0.057 1.057 1.241 3442
-0.058 1.065 1.244 3650
-0.058 1.069 1.240 4276
-0.058 1.077 1.243 7197
-0.059 1.086 1.245 5471
-0.059 1.089 1.242 2654
-0.059 1.087 1.233 4997
-0.059 1.090 1.230 5713
-0.059 1.099 1.232 4681
-0.064 1.176 1.300 5706
-0.064 1.180 1.297 6656
-0.064 1.177 1.288 6845
-0.064 1.180 1.284 6937
-0.064 1.184 1.281 7308
-0.064 1.187 1.277 6962
-0.064 1.190 1.274 7709
-0.065 1.194 1.270 10739
-0.065 1.197 1.266 13202
-0.065 1.206 1.268 13167
-0.066 1.215 1.270 10946
-0.066 1.218 1.266 9373
-0.066 1.216 1.257 8048
-0.066 1.219 1.254 5615
-0.066 1.228 1.255 10698
-0.066 1.219 1.241 19260
-0.066 1.217 1.232 27095
-0.066 1.226 1.234 27741
-0.066 1.229 1.230 23095
-0.066 1.226 1.222 23480
-0.066 1.229 1.218 17662
-0.067 1.244 1.224 11909
-0.069 1.272 1.241 11159
-0.069 1.281 1.242 10545
-0.069 1.278 1.234 11830
-0.069 1.281 1.230 12909
-0.069 1.278 1.221 10290
-0.069 1.269 1.207 7610
-0.068 1.266 1.198 6968
-0.069 1.269 1.195 8556
-0.069 1.284 1.201 9271
-0.095 1.763 1.578 10521
-0.066 1.223 1.139 12727
-0.066 1.225 1.135 14217
-0.066 1.228 1.132 14058
-0.067 1.231 1.128 13979
-0.067 1.234 1.124 13676
-0.067 1.237 1.121 13735
-0.067 1.233 1.112 15144
-0.066 1.230 1.104 17103
-0.099 1.831 1.554 24197
-0.099 1.835 1.549 24812
-0.067 1.238 1.093 18487
-0.067 1.241 1.089 18541
-0.067 1.244 1.085 18931
-0.067 1.246 1.081 17686
-0.068 1.249 1.078 16962
-0.104 1.930 1.567 17676
-0.105 1.934 1.561 21814
-0.105 1.938 1.556 17500
-0.105 1.936 1.545 8415
-0.068 1.256 1.055 5779
-0.106 1.957 1.543 6581
-0.106 1.955 1.532 7049
-0.106 1.965 1.531 6434
-0.108 2.002 1.548 4885
-0.109 2.019 1.551 5661
-0.109 2.010 1.536 6906
-0.109 2.007 1.526 8127
-0.109 2.011 1.520 8655
-0.109 2.022 1.518 7913
-0.110 2.039 1.521 5318
-0.076 1.397 1.087 4890
-0.076 1.399 1.083 6671
-0.076 1.402 1.079 7569
-0.076 1.405 1.075 7508
-0.076 1.407 1.071 7985
-0.076 1.403 1.062 7953
-0.076 1.399 1.054 7492
-0.076 1.409 1.054 5857
-0.077 1.418 1.054 4736
-0.077 1.421 1.050 5180
-0.077 1.423 1.045 5080
-0.077 1.426 1.041 4316
-0.077 1.422 1.033 3432
-0.077 1.424 1.028 2702
-0.071 1.312 0.955 2587
-0.071 1.307 0.947 3552
-0.070 1.303 0.939 4298
-0.070 1.298 0.931 4147
-0.070 1.294 0.923 3415
-0.070 1.289 0.915 3406
-0.070 1.292 0.911 3974
-0.070 1.294 0.907 4418
-0.070 1.296 0.904 4779
-0.070 1.298 0.900 4522
-0.071 1.307 0.900 4165
-0.071 1.316 0.900 4226
-0.071 1.312 0.892 4420
-0.071 1.314 0.888 4702
-0.071 1.316 0.884 4199
-0.071 1.318 0.880 3222
-0.071 1.313 0.873 2404
-0.071 1.308 0.865 1621
-0.138 2.559 1.529 1660
-0.139 2.563 1.521 2027
-0.139 2.574 1.517 2783
-0.139 2.578 1.510 3557
-0.140 2.582 1.502 3128
-0.139 2.579 1.491 2714
-0.140 2.582 1.483 2139
-0.072 1.332 0.837 2566
-0.072 1.334 0.833 3630
-0.072 1.329 0.826 4519
-0.072 1.331 0.822 5427
-0.072 1.333 0.818 5549
-0.072 1.335 0.814 5672
-0.072 1.337 0.810 5875
-0.073 1.346 0.809 6121
-0.073 1.355 0.809 5360
-0.073 1.349 0.801 4589
-0.073 1.351 0.797 3525
-0.160 2.957 1.545 2731
-0.161 2.975 1.543 2487
-0.164 3.030 1.558 3296
-0.162 2.998 1.532 3595
-0.162 2.987 1.517 4449
-0.076 1.406 0.793 4526
-0.160 2.959 1.483 4578
-0.160 2.963 1.475 4578
-0.076 1.411 0.780 3896
-0.162 3.000 1.470 3590
-0.077 1.415 0.772 3005
-0.077 1.417 0.768 3566
-0.033 0.646 1.645 13419
-0.034 0.651 1.643 12244
-0.034 0.655 1.641 11068
-0.034 0.656 1.632 11951
-0.034 0.660 1.630 12835
-0.034 0.665 1.628 12324
-0.035 0.672 1.633 12874
-0.035 0.680 1.638 14310
-0.035 0.684 1.636 11972
-0.036 0.692 1.641 9983
-0.036 0.700 1.646 11091
-0.036 0.704 1.644 12230
-0.037 0.705 1.635 13101
-0.037 0.710 1.633 14309
-0.037 0.714 1.630 13422
-0.037 0.722 1.635 13503
-0.038 0.730 1.640 13258
-0.038 0.738 1.645 11927
-0.038 0.742 1.643 11402
-0.039 0.746 1.641 8966
-0.039 0.751 1.638 6530
-0.039 0.755 1.636 8578
-0.039 0.759 1.634 10627
-0.040 0.767 1.639 13179
-0.040 0.775 1.643 15972
-0.041 0.784 1.648 16441
-0.041 0.792 1.652 16816
-0.041 0.800 1.657 14966
-0.042 0.804 1.655 11657
-0.042 0.812 1.659 9258
-0.042 0.809 1.643 12633
-0.042 0.813 1.640 16982
-0.043 0.822 1.645 20925
-0.043 0.826 1.642 25481
-0.043 0.830 1.640 27242
-0.043 0.835 1.637 29003
-0.043 0.839 1.635 28890
-0.044 0.847 1.639 30051
-0.044 0.852 1.637 30801
-0.044 0.856 1.634 26910
-0.045 0.864 1.638 23554
-0.045 0.869 1.636 17311
-0.045 0.873 1.633 10212
-0.046 0.882 1.637 9498
-0.046 0.886 1.635 10564
-0.046 0.886 1.625 11648
-0.046 0.890 1.623 11547
-0.047 0.899 1.627 9943
-0.047 0.907 1.631 8755
-0.047 0.916 1.635 8694
-0.048 0.925 1.639 15934
-0.048 0.929 1.636 23246
-0.048 0.933 1.633 25518
-0.049 0.942 1.637 22916
-0.050 0.963 1.661 19270
-0.049 0.950 1.631 20408
-0.049 0.950 1.622 24539
-0.050 0.959 1.625 22288
-0.050 0.972 1.636 20304
-0.051 0.981 1.639 15023
-0.051 0.990 1.643 7884
-0.051 0.985 1.627 6736
-0.051 0.994 1.631 6700
-0.052 0.998 1.628 6914
-0.052 1.003 1.625 8799
-0.052 1.007 1.622 8401
-0.052 1.011 1.619 6489
-0.053 1.015 1.616 5553
-0.053 1.024 1.619 5804
-0.054 1.038 1.629 7732
-0.054 1.047 1.632 7113
-0.055 1.056 1.635 5531
-0.055 1.060 1.632 5706
-0.055 1.069 1.635 5252
-0.056 1.073 1.632 3978
-0.055 1.064 1.610 4574
-0.055 1.054 1.588 5799
-0.053 1.015 1.528 6250
-0.053 1.019 1.525 8466
-0.053 1.023 1.522 9938
-0.053 1.022 1.512 10268
-0.053 1.026 1.509 8110
-0.053 1.030 1.506 4593
-0.059 1.131 1.628 6332
-0.058 1.126 1.612 8088
-0.059 1.130 1.609 7927
-0.059 1.134 1.605 6707
-0.059 1.139 1.602 8482
-0.059 1.138 1.592 8488
-0.059 1.147 1.595 5632
-0.061 1.171 1.616 7322
-0.061 1.176 1.613 11770
-0.061 1.180 1.609 14308
-0.062 1.189 1.612 12707
-0.062 1.198 1.614 8284
-0.063 1.208 1.617 6493
-0.063 1.212 1.613 9546
-0.063 1.221 1.616 13891
-0.064 1.231 1.618 15797
-0.064 1.240 1.620 15157
-0.064 1.245 1.617 14093
-0.065 1.249 1.613 17367
-0.065 1.253 1.609 18186
-0.065 1.257 1.606 10931
-0.066 1.267 1.608 6413
-0.066 1.271 1.604 7796
-0.066 1.275 1.600 11343
-0.066 1.280 1.596 13472
-0.066 1.284 1.593 15824
-0.067 1.293 1.595 18835
-0.067 1.298 1.591 16996
-0.068 1.307 1.593 15356
-0.068 1.317 1.595 15477
-0.068 1.321 1.591 12830
-0.069 1.331 1.593 12494
-0.069 1.335 1.589 14749
-0.069 1.339 1.585 13694
-0.070 1.343 1.581 8826
-0.071 1.364 1.594 5927
-0.071 1.379 1.601 8243
-0.071 1.378 1.591 8277
-0.072 1.387 1.593 6191
-0.072 1.397 1.594 4549
-0.055 1.062 1.247 2614
-0.055 1.060 1.238 2513
-0.056 1.074 1.246 4869
-0.056 1.083 1.248 9772
-0.056 1.086 1.245 7463
-0.056 1.089 1.242 3513
-0.057 1.093 1.239 5675
-0.056 1.090 1.230 6180
-0.057 1.099 1.232 4454
-0.058 1.114 1.240 5044
