0.339 0.625 1.570 8656
0.343 0.632 1.575 8481
0.345 0.636 1.573 8137
0.345 0.636 1.564 12432
0.349 0.643 1.569 17171
0.350 0.647 1.566 18769
0.352 0.650 1.564 19981
0.353 0.651 1.555 17982
0.355 0.654 1.553 16283
0.358 0.661 1.557 15702
0.362 0.668 1.562 15705
0.364 0.672 1.560 13145
0.364 0.672 1.551 10645
0.370 0.682 1.562 8265
0.377 0.696 1.580 7488
0.379 0.700 1.578 10035
0.381 0.704 1.576 10996
0.387 0.714 1.587 10160
0.391 0.721 1.591 10906
0.395 0.729 1.596 10542
0.397 0.732 1.593 13766
0.397 0.733 1.584 17983
0.399 0.736 1.581 21649
0.401 0.740 1.579 24474
0.401 0.740 1.570 24942
0.405 0.747 1.574 20144
0.407 0.751 1.571 12549
0.407 0.751 1.562 9801
0.411 0.758 1.566 10580
0.415 0.766 1.570 11874
0.419 0.773 1.574 11902
0.419 0.773 1.565 12078
0.421 0.776 1.562 12682
0.423 0.780 1.560 13131
0.425 0.784 1.557 11126
0.435 0.802 1.581 7927
0.441 0.814 1.591 7397
0.431 0.794 1.549 10693
0.433 0.798 1.546 27256
0.435 0.802 1.544 38962
0.439 0.809 1.547 43296
0.441 0.813 1.545 37054
0.443 0.816 1.542 23027
0.455 0.840 1.572 19743
0.457 0.843 1.569 17698
0.461 0.851 1.573 18307
0.465 0.858 1.576 24842
0.467 0.862 1.573 27918
0.469 0.866 1.570 25585
0.471 0.869 1.567 17980
0.475 0.877 1.571 11476
0.480 0.885 1.574 12347
0.482 0.888 1.571 13241
0.484 0.892 1.568 13162
0.488 0.900 1.572 18650
0.490 0.904 1.569 22946
0.492 0.907 1.565 16427
0.501 0.923 1.581 12897
0.507 0.935 1.591 18214
0.507 0.935 1.581 21304
0.511 0.943 1.585 18157
0.506 0.934 1.563 18182
0.510 0.942 1.566 24138
0.515 0.950 1.569 26291
0.524 0.966 1.584 26435
0.523 0.965 1.575 24831
0.528 0.973 1.578 24485
0.530 0.977 1.574 20124
0.532 0.981 1.571 12917
0.522 0.963 1.537 7401
0.524 0.966 1.534 7858
0.535 0.987 1.555 9184
0.540 0.995 1.558 16566
0.541 0.999 1.554 29466
0.546 1.007 1.557 44380
0.548 1.010 1.554 45155
0.552 1.019 1.556 29291
0.559 1.031 1.565 16031
0.563 1.039 1.567 12060
0.560 1.034 1.552 9726
0.557 1.028 1.536 17784
0.559 1.032 1.533 27339
0.561 1.036 1.529 23111
0.561 1.034 1.520 13527
0.568 1.047 1.528 9134
0.577 1.065 1.542 14379
0.579 1.068 1.539 20513
0.581 1.072 1.535 19513
0.583 1.075 1.532 16419
0.580 1.069 1.516 18511
0.587 1.082 1.524 21410
0.589 1.086 1.521 14381
0.601 1.108 1.540 6876
0.600 1.107 1.531 12512
0.602 1.111 1.527 18241
0.604 1.114 1.523 17962
0.603 1.113 1.514 16917
0.610 1.126 1.521 21235
0.615 1.134 1.523 20263
0.619 1.143 1.525 13279
0.629 1.161 1.538 10761
0.631 1.164 1.535 11419
0.628 1.158 1.519 13867
0.624 1.152 1.504 14545
0.661 1.219 1.573 16308
0.660 1.218 1.564 22545
0.665 1.226 1.565 28804
0.667 1.230 1.561 39951
0.669 1.233 1.557 41794
0.671 1.237 1.553 39015
0.673 1.241 1.548 45614
0.674 1.244 1.544 37836
0.676 1.248 1.540 19847
0.681 1.256 1.541 17088
0.683 1.260 1.537 27170
0.688 1.269 1.538 37576
0.692 1.277 1.539 37893
0.697 1.286 1.541 32545
0.699 1.289 1.536 26953
0.706 1.303 1.543 18631
0.706 1.302 1.533 22243
0.708 1.305 1.528 27455
0.712 1.314 1.529 27929
0.717 1.323 1.530 23034
0.719 1.326 1.526 13984
0.721 1.330 1.521 11197
0.728 1.344 1.527 9078
0.730 1.347 1.523 7979
0.732 1.351 1.518 11963
0.737 1.359 1.519 15115
0.742 1.368 1.520 10044
0.749 1.382 1.525 6953
0.760 1.402 1.536 10783
0.770 1.421 1.547 14868
0.772 1.425 1.542 16390
0.768 1.418 1.527 19108
0.776 1.432 1.532 19050
0.787 1.451 1.543 26251
0.792 1.460 1.543 30960
0.796 1.469 1.543 22686
0.801 1.478 1.543 16668
0.806 1.487 1.543 17870
0.808 1.491 1.538 13966
0.807 1.489 1.528 7744
0.809 1.492 1.523 7261
0.820 1.512 1.533 12729
0.822 1.516 1.528 19186
0.824 1.519 1.523 20760
0.826 1.523 1.518 21243
0.836 1.543 1.527 25295
0.841 1.552 1.527 31140
0.846 1.561 1.526 25018
0.851 1.570 1.526 15583
0.856 1.579 1.525 15781
0.861 1.588 1.525 17011
0.866 1.597 1.524 13172
0.871 1.606 1.524 12499
0.873 1.610 1.518 12785
0.878 1.619 1.517 10747
0.876 1.617 1.507 11222
0.875 1.615 1.497 15154
0.880 1.624 1.496 18481
0.882 1.627 1.491 19653
0.887 1.636 1.490 14988
0.895 1.651 1.494 11946
0.897 1.655 1.488 12417
0.902 1.664 1.487 9764
0.913 1.684 1.495 6031
0.930 1.716 1.512 7804
0.929 1.714 1.502 12490
0.928 1.712 1.491 13195
0.930 1.715 1.486 11007
0.935 1.725 1.484 9355
0.943 1.740 1.487 11524
0.948 1.749 1.486 16157
0.978 1.804 1.519 19108
0.980 1.808 1.513 18160
0.985 1.817 1.511 12565
0.990 1.827 1.510 8721
0.992 1.830 1.504 9523
1.016 1.875 1.527 8912
1.024 1.890 1.529 10953
1.030 1.899 1.527 11950
1.031 1.903 1.521 12672
1.033 1.906 1.515 12203
1.039 1.916 1.512 10426
1.044 1.925 1.510 7459
1.052 1.941 1.512 7134
1.054 1.944 1.505 8026
1.062 1.959 1.507 7939
1.077 1.987 1.517 10382
1.079 1.990 1.510 14214
1.084 2.000 1.507 16606
1.086 2.003 1.501 15898
1.088 2.007 1.494 12655
1.090 2.010 1.487 8517
1.111 2.050 1.504 5411
1.113 2.053 1.497 8540
1.115 2.057 1.490 12044
1.113 2.054 1.480 12437
1.119 2.064 1.477 9232
1.120 2.067 1.470 6047
1.122 2.070 1.463 6696
1.124 2.074 1.456 7346
1.149 2.120 1.475 7521
1.154 2.129 1.472 8459
1.149 2.120 1.457 8700
1.151 2.124 1.450 8644
1.160 2.139 1.451 7927
1.168 2.155 1.451 6085
1.170 2.158 1.444 4375
1.185 2.186 1.451 4757
1.194 2.202 1.451 6287
1.199 2.212 1.447 8207
1.204 2.221 1.443 10285
1.216 2.243 1.447 9569
1.221 2.253 1.443 9526
1.213 2.237 1.424 7482
1.208 2.228 1.410 7058
1.213 2.238 1.406 5553
1.235 2.278 1.419 5054
1.261 2.325 1.436 7377
1.262 2.329 1.428 10301
1.264 2.332 1.420 10301
1.266 2.335 1.412 9160
1.264 2.332 1.401 8068
1.266 2.335 1.393 5761
1.302 2.402 1.419 3980
1.307 2.411 1.414 4819
1.312 2.421 1.409 5749
1.335 2.462 1.420 4830
1.337 2.466 1.412 4761
1.338 2.469 1.404 4761
1.337 2.466 1.392 3713
1.318 2.431 1.365 3410
1.319 2.434 1.357 1705
0.299 0.549 1.594 20072
0.301 0.552 1.592 17882
0.304 0.559 1.598 15760
0.305 0.560 1.589 11279
0.307 0.563 1.587 6867
0.305 0.561 1.570 6230
0.307 0.565 1.568 5673
0.309 0.569 1.566 5558
0.313 0.575 1.572 5927
0.315 0.579 1.570 6380
0.320 0.589 1.582 6633
0.324 0.595 1.587 7111
0.326 0.599 1.585 7177
0.330 0.606 1.590 7308
0.332 0.609 1.588 8681
0.334 0.613 1.586 10041
0.334 0.614 1.577 9565
0.336 0.617 1.575 9076
0.338 0.621 1.572 7678
0.340 0.625 1.570 6281
0.342 0.628 1.568 9106
0.344 0.632 1.566 12043
0.346 0.635 1.564 16953
0.349 0.642 1.569 22038
0.351 0.646 1.566 23534
0.353 0.650 1.564 24534
0.354 0.650 1.555 22048
0.356 0.654 1.553 19844
0.359 0.661 1.557 18996
0.363 0.668 1.562 18765
0.365 0.671 1.560 16100
0.367 0.675 1.558 13434
0.371 0.682 1.562 10058
0.377 0.692 1.574 8060
0.379 0.696 1.571 10209
0.382 0.703 1.576 10677
0.386 0.710 1.580 9493
0.392 0.721 1.591 10263
0.394 0.725 1.589 10079
0.398 0.732 1.593 13337
0.398 0.732 1.584 17710
0.400 0.736 1.581 21587
0.402 0.739 1.579 24946
0.402 0.739 1.570 25962
0.404 0.743 1.567 21170
0.408 0.750 1.571 13348
0.408 0.750 1.562 10266
0.412 0.758 1.566 11097
0.416 0.765 1.570 12705
0.420 0.772 1.574 13066
0.422 0.776 1.572 13479
0.422 0.776 1.562 14085
0.424 0.779 1.560 14347
0.426 0.783 1.557 12054
0.434 0.798 1.574 7268
0.447 0.821 1.605 5422
0.428 0.786 1.536 10591
0.432 0.794 1.540 26821
0.434 0.797 1.537 36814
0.438 0.805 1.541 40688
0.442 0.812 1.545 35354
0.444 0.816 1.542 22329
0.459 0.843 1.578 20285
0.461 0.846 1.575 18239
0.463 0.850 1.573 19271
0.467 0.858 1.576 25662
0.469 0.861 1.573 28774
0.471 0.865 1.570 26488
0.473 0.869 1.567 18605
0.477 0.876 1.571 11319
0.481 0.884 1.574 12331
0.483 0.888 1.571 13075
0.481 0.883 1.555 12341
0.489 0.899 1.572 17279
0.491 0.903 1.569 21595
0.493 0.906 1.565 15521
0.504 0.927 1.588 11455
0.508 0.935 1.591 18732
0.508 0.934 1.581 23490
0.512 0.942 1.585 19314
0.510 0.937 1.569 17811
0.512 0.941 1.566 23027
0.518 0.953 1.575 25810
0.525 0.965 1.584 27618
0.525 0.965 1.575 26131
0.529 0.973 1.578 25637
0.531 0.976 1.574 21901
0.533 0.980 1.571 14721
0.528 0.970 1.549 9103
0.530 0.974 1.546 8801
0.537 0.986 1.555 10184
0.541 0.994 1.558 17390
0.543 0.998 1.554 30309
0.545 1.002 1.551 44809
0.549 1.010 1.554 45895
0.554 1.018 1.556 29684
0.556 1.021 1.553 16785
0.560 1.029 1.555 14668
0.560 1.029 1.546 13188
0.559 1.028 1.536 20412
0.561 1.031 1.533 28772
0.565 1.039 1.535 23266
0.565 1.038 1.526 14120
0.572 1.051 1.534 9737
0.579 1.064 1.542 14481
0.581 1.067 1.539 20230
0.583 1.071 1.535 19646
0.585 1.074 1.532 17002
0.579 1.064 1.510 16801
0.588 1.081 1.524 18892
0.590 1.085 1.521 13708
0.600 1.103 1.534 5958
0.602 1.106 1.531 11011
0.604 1.110 1.527 14093
0.606 1.113 1.523 12601
0.605 1.112 1.514 14579
0.609 1.120 1.516 19736
0.614 1.129 1.518 18955
0.621 1.142 1.525 13092
0.631 1.160 1.538 11196
0.633 1.163 1.535 11741
0.630 1.157 1.519 12164
0.629 1.156 1.510 15343
0.633 1.164 1.511 18812
0.662 1.217 1.564 25422
0.667 1.225 1.565 34277
0.669 1.229 1.561 45784
0.671 1.232 1.557 46455
0.672 1.236 1.553 42128
0.674 1.240 1.548 45966
0.676 1.243 1.544 37363
0.678 1.247 1.540 20095
0.683 1.255 1.541 18378
0.685 1.259 1.537 29918
0.690 1.268 1.538 38621
0.694 1.276 1.539 36504
0.699 1.285 1.541 30555
0.701 1.288 1.536 23324
0.706 1.297 1.537 15427
0.708 1.301 1.533 21102
0.707 1.299 1.523 27450
0.714 1.313 1.529 27581
0.719 1.321 1.530 20675
0.721 1.325 1.526 12516
0.723 1.329 1.521 11004
0.728 1.337 1.522 8252
0.729 1.341 1.518 7036
0.734 1.350 1.518 11112
0.739 1.358 1.519 14432
0.744 1.367 1.520 9667
0.754 1.386 1.530 5244
0.768 1.411 1.546 8588
0.772 1.420 1.547 13966
0.772 1.418 1.537 16453
0.773 1.422 1.532 18938
0.775 1.425 1.527 19571
0.789 1.450 1.543 23315
0.794 1.459 1.543 27043
0.799 1.468 1.543 21284
0.804 1.477 1.543 17258
0.808 1.486 1.543 18969
0.810 1.489 1.538 15225
0.806 1.482 1.523 9344
0.808 1.486 1.518 8000
0.819 1.506 1.528 12984
0.824 1.515 1.528 21606
0.826 1.518 1.523 23841
0.828 1.522 1.518 22864
0.839 1.542 1.527 26669
0.844 1.551 1.527 31469
0.849 1.560 1.526 24173
0.853 1.569 1.526 14341
0.858 1.578 1.525 12828
0.860 1.581 1.520 13129
0.868 1.596 1.524 12011
0.870 1.599 1.519 13944
0.872 1.603 1.513 14148
0.877 1.612 1.513 11663
0.879 1.616 1.507 11059
0.878 1.613 1.497 14130
0.883 1.622 1.496 17650
0.885 1.626 1.491 19343
0.890 1.635 1.490 15158
0.898 1.650 1.494 12741
0.903 1.659 1.493 13479
0.904 1.662 1.487 10494
0.916 1.683 1.495 6261
0.936 1.721 1.516 6552
0.932 1.713 1.502 9873
0.931 1.710 1.491 11276
0.945 1.737 1.503 10274
0.937 1.723 1.484 9773
0.942 1.732 1.483 13046
0.951 1.747 1.486 16854
0.978 1.797 1.515 18844
0.983 1.806 1.513 18370
0.988 1.816 1.511 12823
0.993 1.825 1.510 8052
1.001 1.840 1.512 8601
1.019 1.873 1.527 9615
1.027 1.888 1.529 10919
1.032 1.898 1.527 11459
1.034 1.901 1.521 12029
1.036 1.905 1.515 11543
1.041 1.914 1.512 10008
1.040 1.912 1.502 7408
1.052 1.933 1.508 7032
1.054 1.936 1.501 7860
1.059 1.946 1.499 7664
1.080 1.985 1.517 10669
1.082 1.989 1.510 14814
1.087 1.998 1.507 17479
1.089 2.002 1.501 16772
1.088 1.999 1.490 13210
1.093 2.008 1.487 8739
1.114 2.048 1.504 5127
1.116 2.052 1.497 8436
1.118 2.055 1.490 12078
1.117 2.052 1.480 12497
1.118 2.056 1.473 9198
1.124 2.065 1.470 5946
1.125 2.069 1.463 6968
1.127 2.072 1.456 7989
1.152 2.118 1.475 8265
1.154 2.121 1.468 8726
1.153 2.119 1.457 8657
1.158 2.128 1.454 8494
1.163 2.138 1.451 8133
1.172 2.153 1.451 6480
1.177 2.163 1.447 5179
1.185 2.178 1.447 5714
1.194 2.194 1.447 6964
1.196 2.197 1.440 8502
1.201 2.207 1.436 10125
1.219 2.241 1.447 8824
1.225 2.251 1.443 8747
1.209 2.223 1.417 6933
1.204 2.214 1.403 6683
1.210 2.223 1.399 5514
1.239 2.276 1.419 4925
1.264 2.324 1.436 7934
1.266 2.327 1.428 11224
1.268 2.330 1.420 11224
1.269 2.333 1.412 10135
1.268 2.330 1.401 9091
1.270 2.333 1.393 6572
1.268 2.330 1.382 4101
1.311 2.409 1.414 5042
1.313 2.413 1.406 6154
1.311 2.410 1.394 5046
1.344 2.470 1.415 4440
1.345 2.473 1.407 4440
1.330 2.444 1.383 3618
1.318 2.422 1.362 3503
1.319 2.425 1.354 1751
0.300 0.548 1.594 19175
0.302 0.551 1.592 17219
0.306 0.558 1.598 15375
0.306 0.559 1.589 11014
0.307 0.560 1.579 6782
0.307 0.560 1.570 5981
0.309 0.564 1.568 5232
0.311 0.568 1.566 5103
0.315 0.574 1.572 5645
0.317 0.578 1.570 6323
0.321 0.584 1.575 6500
0.326 0.594 1.587 6881
0.328 0.598 1.585 6779
0.332 0.605 1.590 6693
0.334 0.608 1.588 7749
0.336 0.612 1.586 8809
0.336 0.612 1.577 7908
0.338 0.616 1.575 7012
0.340 0.620 1.572 6866
0.340 0.620 1.563 6855
0.342 0.624 1.561 11437
0.346 0.631 1.566 16297
0.348 0.634 1.564 21648
0.352 0.641 1.569 27017
0.354 0.645 1.566 28426
0.356 0.648 1.564 29244
0.356 0.649 1.555 26311
0.358 0.652 1.553 23615
0.362 0.659 1.557 22599
0.364 0.663 1.555 22192
0.367 0.670 1.560 19390
0.369 0.673 1.558 16651
0.371 0.677 1.555 12206
0.379 0.691 1.574 8983
0.381 0.695 1.571 10809
0.385 0.702 1.576 10652
0.389 0.709 1.580 9133
0.395 0.720 1.591 9690
0.397 0.723 1.589 9655
0.399 0.727 1.586 12861
0.401 0.731 1.584 17337
0.403 0.734 1.581 21336
0.405 0.738 1.579 25134
0.405 0.738 1.570 26596
0.407 0.742 1.567 21906
0.411 0.749 1.571 14036
0.411 0.749 1.562 10759
0.415 0.756 1.566 11619
0.419 0.763 1.570 13505
0.423 0.771 1.574 14162
0.425 0.774 1.572 14938
0.425 0.774 1.562 15586
0.427 0.778 1.560 15715
0.429 0.782 1.557 13200
0.435 0.793 1.568 8354
0.428 0.781 1.539 6797
0.430 0.785 1.536 12507
0.434 0.792 1.540 26629
0.436 0.796 1.537 34867
0.440 0.803 1.541 37896
0.442 0.807 1.538 33232
0.449 0.818 1.548 21373
0.464 0.845 1.585 20966
0.466 0.849 1.582 18890
0.465 0.849 1.573 19758
0.470 0.856 1.576 25833
0.472 0.860 1.573 28795
0.474 0.863 1.570 26567
0.476 0.867 1.567 18554
0.482 0.879 1.577 10723
0.486 0.887 1.581 11971
0.486 0.886 1.571 12929
0.484 0.882 1.555 12105
0.492 0.897 1.572 16277
0.494 0.901 1.569 20383
0.496 0.905 1.565 14638
0.512 0.933 1.600 10181
0.512 0.933 1.591 18857
0.511 0.932 1.581 24952
0.516 0.940 1.585 19856
0.513 0.935 1.569 17414
0.515 0.939 1.566 22158
0.522 0.951 1.575 25591
0.528 0.963 1.584 28497
0.528 0.963 1.575 27001
0.532 0.971 1.578 26333
0.534 0.974 1.574 23313
0.536 0.978 1.571 16349
0.534 0.973 1.555 11014
0.536 0.977 1.552 10564
0.540 0.985 1.555 11518
0.544 0.993 1.558 18079
0.546 0.996 1.554 30415
0.548 1.000 1.551 44410
0.553 1.008 1.554 45380
0.555 1.011 1.550 29908
0.559 1.019 1.553 18681
0.561 1.023 1.549 18597
0.561 1.022 1.540 17535
0.563 1.026 1.536 23957
0.565 1.029 1.533 30729
0.569 1.037 1.535 24251
0.568 1.036 1.526 15415
0.575 1.049 1.534 11354
0.582 1.062 1.542 14522
0.584 1.065 1.539 18938
0.586 1.069 1.535 19069
0.583 1.063 1.520 17235
0.582 1.062 1.510 15201
0.592 1.079 1.524 17181
0.594 1.083 1.521 13550
0.606 1.105 1.540 6226
0.606 1.104 1.531 11047
0.608 1.108 1.527 11645
0.604 1.102 1.512 8060
0.606 1.105 1.508 12425
0.611 1.113 1.510 18648
0.618 1.126 1.518 17371
0.625 1.140 1.525 13153
0.635 1.158 1.538 12193
0.642 1.171 1.546 12049
0.639 1.165 1.531 12175
0.638 1.163 1.521 17609
0.640 1.167 1.517 23386
0.663 1.209 1.558 27943
0.671 1.223 1.565 37685
0.673 1.227 1.561 49470
0.675 1.230 1.557 49887
0.677 1.234 1.553 45004
0.679 1.237 1.548 45727
0.681 1.241 1.544 36048
0.680 1.239 1.535 20467
0.687 1.253 1.541 19222
0.689 1.257 1.537 31146
0.694 1.265 1.538 37388
0.699 1.274 1.539 33193
0.703 1.282 1.541 27302
0.705 1.286 1.536 19882
0.707 1.290 1.532 14197
0.709 1.293 1.528 20540
0.711 1.297 1.523 26406
0.719 1.310 1.529 26338
0.721 1.314 1.525 17994
0.723 1.317 1.521 11196
0.724 1.321 1.516 11034
0.729 1.330 1.517 8385
0.731 1.333 1.512 8160
0.736 1.342 1.513 11642
0.744 1.356 1.519 14523
0.751 1.370 1.525 11932
0.753 1.373 1.520 5404
0.775 1.414 1.552 6616
0.774 1.412 1.542 13104
0.776 1.415 1.537 16143
0.778 1.419 1.532 18474
0.780 1.423 1.527 19735
0.794 1.447 1.543 19881
0.802 1.462 1.548 23572
0.804 1.465 1.543 20222
0.809 1.474 1.543 17795
0.813 1.483 1.543 20047
0.815 1.487 1.538 16945
0.811 1.479 1.523 11443
0.810 1.477 1.513 9569
0.824 1.503 1.528 13871
0.826 1.506 1.523 23847
0.828 1.510 1.518 25924
0.833 1.519 1.518 23585
0.844 1.539 1.527 27323
0.849 1.548 1.527 30944
0.854 1.557 1.526 22688
0.859 1.566 1.526 13150
0.861 1.569 1.521 10394
0.866 1.578 1.520 9986
0.874 1.593 1.524 11091
0.876 1.596 1.519 14749
0.878 1.600 1.513 14558
0.883 1.609 1.513 11721
0.884 1.613 1.507 10459
0.883 1.610 1.497 12890
0.888 1.619 1.496 16785
0.890 1.623 1.491 19076
0.895 1.632 1.490 15443
0.903 1.647 1.494 13690
0.908 1.656 1.493 14580
0.910 1.659 1.487 11215
0.918 1.674 1.491 6593
0.945 1.723 1.521 5580
0.935 1.704 1.497 7703
0.940 1.713 1.496 9603
0.954 1.739 1.508 10361
0.953 1.737 1.498 10219
0.948 1.729 1.483 14177
0.957 1.744 1.486 17021
0.981 1.788 1.511 18798
0.986 1.797 1.509 18466
0.991 1.807 1.507 12648
1.006 1.833 1.518 7436
1.017 1.854 1.525 9002
1.025 1.870 1.527 10159
1.034 1.885 1.529 10736
1.039 1.894 1.527 10875
1.041 1.898 1.521 11314
1.043 1.901 1.515 10931
1.045 1.905 1.508 9784
1.047 1.908 1.502 7646
1.058 1.929 1.508 7088
1.060 1.933 1.501 7988
1.065 1.942 1.499 7568
1.087 1.981 1.517 10881
1.089 1.985 1.510 15106
1.091 1.988 1.503 17969
1.092 1.992 1.497 17274
1.094 1.995 1.490 13716
1.096 1.999 1.483 8804
1.121 2.044 1.504 4610
1.123 2.048 1.497 8006
1.125 2.051 1.490 11713
1.124 2.049 1.480 12140
1.125 2.052 1.473 8907
1.127 2.055 1.466 5675
1.132 2.065 1.463 7095
1.151 2.099 1.475 8729
1.156 2.108 1.472 9168
1.158 2.111 1.465 9276
1.160 2.115 1.457 8625
1.165 2.124 1.454 8176
1.170 2.134 1.451 8051
1.179 2.149 1.451 6654
1.187 2.165 1.451 5898
1.193 2.174 1.447 6600
1.198 2.184 1.444 7625
1.200 2.187 1.436 8863
1.205 2.197 1.432 10105
1.210 2.206 1.429 8457
1.232 2.247 1.443 8025
1.214 2.213 1.414 6667
1.209 2.203 1.399 6598
1.214 2.213 1.395 5581
1.274 2.322 1.447 4979
1.275 2.325 1.439 8349
1.274 2.323 1.428 11737
1.276 2.326 1.420 11737
1.277 2.329 1.412 10769
1.276 2.326 1.401 9863
1.278 2.329 1.393 7193
1.276 2.326 1.382 4558
1.319 2.405 1.414 5174
1.321 2.408 1.406 6378
1.316 2.399 1.391 5282
1.314 2.396 1.380 4329
1.354 2.468 1.407 4091
1.321 2.408 1.367 3649
1.326 2.418 1.362 3323
1.328 2.421 1.354 1661
0.302 0.547 1.594 18001
0.305 0.553 1.600 16263
0.307 0.557 1.598 14626
0.308 0.558 1.589 10465
0.308 0.559 1.579 6492
0.309 0.559 1.570 5479
0.311 0.563 1.568 4527
0.313 0.567 1.566 4441
0.316 0.573 1.572 5343
0.320 0.580 1.577 6386
0.322 0.584 1.575 6670
0.326 0.590 1.580 7092
0.329 0.597 1.585 6410
0.331 0.601 1.583 5790
0.335 0.607 1.588 6400
0.337 0.611 1.586 7095
0.337 0.612 1.577 6087
0.338 0.612 1.567 5109
0.340 0.616 1.565 7678
0.342 0.619 1.563 10247
0.344 0.623 1.561 15562
0.348 0.630 1.566 21169
0.350 0.633 1.564 26816
0.353 0.640 1.569 32369
0.355 0.644 1.566 33768
0.357 0.648 1.564 34490
0.357 0.648 1.555 31115
0.359 0.651 1.553 27902
0.363 0.658 1.557 26623
0.365 0.662 1.555 25993
0.367 0.666 1.553 23021
0.371 0.673 1.558 20225
0.373 0.676 1.555 14775
0.381 0.690 1.574 10209
0.383 0.694 1.571 11595
0.387 0.701 1.576 10692
0.391 0.708 1.580 8856
0.395 0.715 1.585 9205
0.399 0.722 1.589 9286
0.401 0.726 1.586 12422
0.403 0.730 1.584 16806
0.405 0.733 1.581 20809
0.407 0.737 1.579 24977
0.407 0.737 1.570 26832
0.409 0.741 1.567 22282
0.413 0.748 1.571 14456
0.413 0.748 1.562 11035
0.417 0.755 1.566 11867
0.421 0.762 1.570 13906
0.425 0.770 1.574 14826
0.427 0.773 1.572 16085
0.429 0.777 1.569 17060
0.429 0.777 1.560 17186
0.431 0.780 1.557 14477
0.433 0.784 1.554 10154
0.430 0.780 1.539 9107
0.432 0.784 1.536 14380
0.436 0.791 1.540 26493
0.438 0.795 1.537 32810
0.443 0.802 1.541 34783
0.444 0.806 1.538 30785
0.451 0.817 1.548 20191
0.466 0.844 1.585 21432
0.468 0.848 1.582 19383
0.468 0.847 1.573 19822
0.472 0.855 1.576 25669
0.474 0.859 1.573 28445
0.474 0.858 1.564 26291
0.476 0.862 1.561 18166
0.484 0.878 1.577 9842
0.489 0.885 1.581 11173
0.491 0.889 1.578 12595
0.490 0.888 1.568 11994
0.495 0.896 1.572 15467
0.497 0.900 1.569 19371
0.496 0.899 1.559 14297
0.507 0.920 1.581 9276
0.512 0.927 1.585 19031
0.514 0.931 1.581 25743
0.518 0.939 1.585 19842
0.515 0.934 1.569 16910
0.517 0.938 1.566 21408
0.524 0.950 1.575 25458
0.531 0.962 1.584 29330
0.531 0.961 1.575 27424
0.535 0.969 1.578 26338
0.537 0.973 1.574 24285
0.539 0.977 1.571 17780
0.536 0.972 1.555 13118
0.538 0.975 1.552 13092
0.543 0.983 1.555 13097
0.547 0.991 1.558 18528
0.549 0.995 1.554 29782
0.551 0.998 1.551 42460
0.553 1.002 1.547 43358
0.557 1.010 1.550 29466
0.559 1.014 1.547 20970
0.564 1.022 1.549 23379
0.563 1.021 1.540 23265
0.565 1.024 1.536 28281
0.570 1.032 1.539 32638
0.572 1.036 1.535 24930
0.571 1.035 1.526 16411
0.578 1.047 1.534 12909
0.583 1.056 1.537 14950
0.587 1.064 1.539 17536
0.589 1.067 1.535 17270
0.586 1.062 1.520 15722
0.585 1.060 1.510 12510
0.595 1.078 1.524 13885
0.597 1.081 1.521 12088
0.601 1.090 1.523 6412
0.608 1.103 1.531 11982
0.608 1.101 1.521 12955
0.602 1.091 1.500 9209
0.606 1.099 1.502 12571
0.614 1.112 1.510 18533
0.615 1.115 1.506 16757
0.628 1.138 1.525 12807
0.638 1.156 1.538 13429
0.642 1.164 1.540 12209
0.642 1.163 1.531 14111
0.644 1.167 1.527 22403
0.646 1.170 1.523 28460
0.666 1.208 1.558 29282
0.674 1.221 1.565 38718
0.676 1.225 1.561 50825
0.678 1.228 1.557 51510
0.680 1.232 1.553 46763
0.682 1.236 1.548 44348
0.684 1.239 1.544 33380
0.683 1.238 1.535 20647
0.688 1.246 1.536 20429
0.692 1.255 1.537 31728
0.694 1.258 1.533 34445
0.702 1.272 1.539 27840
0.704 1.276 1.535 22835
0.706 1.279 1.531 17374
0.708 1.283 1.526 14861
0.713 1.291 1.528 19810
0.714 1.295 1.523 24239
0.719 1.303 1.524 24370
0.724 1.312 1.525 15155
0.726 1.316 1.521 10136
0.728 1.319 1.516 11249
0.733 1.328 1.517 8978
0.735 1.331 1.512 10250
0.739 1.340 1.513 13343
0.747 1.354 1.519 15335
0.755 1.368 1.525 16115
0.757 1.371 1.520 9899
0.762 1.380 1.521 6261
0.775 1.405 1.537 11502
0.777 1.408 1.532 14384
0.782 1.417 1.532 16615
0.781 1.415 1.522 18480
0.801 1.451 1.548 16693
0.805 1.460 1.548 20966
0.810 1.469 1.548 20277
0.815 1.477 1.548 18883
0.817 1.481 1.543 20531
0.819 1.485 1.538 18603
0.815 1.477 1.523 13855
0.817 1.481 1.518 11349
0.828 1.501 1.528 15299
0.830 1.504 1.523 25584
0.832 1.508 1.518 26684
0.837 1.517 1.518 23143
0.848 1.537 1.527 27171
0.853 1.546 1.527 29401
0.858 1.555 1.526 20210
0.863 1.564 1.526 12033
0.865 1.567 1.521 9026
0.870 1.576 1.520 8349
0.875 1.585 1.519 11053
0.877 1.589 1.514 14566
0.882 1.598 1.513 13597
0.887 1.607 1.513 10645
0.889 1.610 1.507 9229
0.887 1.608 1.497 11692
0.892 1.617 1.496 16370
0.894 1.621 1.491 19107
0.899 1.630 1.490 15802
0.911 1.650 1.498 14640
0.912 1.654 1.493 15686
0.914 1.657 1.487 12040
0.916 1.660 1.482 7475
0.918 1.664 1.476 6167
0.936 1.696 1.493 6590
0.944 1.711 1.496 8410
0.962 1.743 1.512 10342
0.957 1.735 1.498 10480
0.953 1.727 1.483 15135
0.961 1.742 1.486 17065
0.982 1.780 1.506 19034
0.987 1.789 1.505 18670
0.992 1.798 1.503 12483
1.013 1.837 1.523 7139
1.022 1.852 1.525 9658
1.030 1.867 1.527 10454
1.039 1.882 1.529 10334
1.044 1.892 1.527 10143
1.046 1.895 1.521 10448
1.048 1.899 1.515 10259
1.050 1.902 1.508 9639
1.051 1.905 1.502 8009
1.060 1.921 1.504 7260
1.065 1.930 1.501 7975
1.067 1.934 1.495 7327
1.092 1.979 1.517 11009
1.094 1.982 1.510 15172
1.096 1.986 1.503 18061
1.098 1.989 1.497 17370
1.099 1.992 1.490 13790
1.101 1.996 1.483 8823
1.113 2.017 1.488 4134
1.128 2.045 1.497 7262
1.130 2.048 1.490 10920
1.129 2.046 1.480 11385
1.131 2.049 1.473 8314
1.133 2.052 1.466 5242
1.158 2.098 1.486 7386
1.156 2.096 1.475 9689
1.162 2.105 1.472 10039
1.160 2.102 1.461 10024
1.165 2.112 1.457 8527
1.174 2.127 1.458 7700
1.176 2.131 1.451 7681
1.188 2.152 1.454 6602
1.196 2.168 1.455 6470
1.198 2.171 1.447 7249
1.203 2.181 1.444 8113
1.205 2.184 1.436 9043
1.207 2.187 1.429 9973
1.209 2.191 1.422 8337
1.238 2.243 1.443 7249
1.212 2.197 1.407 6639
1.214 2.200 1.399 6577
1.216 2.204 1.392 5680
1.283 2.325 1.450 5474
1.281 2.322 1.439 8798
1.283 2.325 1.431 12249
1.285 2.329 1.423 12249
1.283 2.326 1.412 11144
1.282 2.323 1.401 10283
1.283 2.326 1.393 7687
1.285 2.329 1.385 5091
1.325 2.402 1.414 5286
1.327 2.405 1.406 6796
1.322 2.395 1.391 5775
1.324 2.398 1.383 4931
1.325 2.402 1.375 4680
1.327 2.405 1.367 4031
1.367 2.478 1.394 3389
1.369 2.481 1.385 1694
0.303 0.546 1.594 16832
0.306 0.553 1.600 15444
0.308 0.557 1.598 14075
0.310 0.560 1.596 10218
0.309 0.558 1.579 6613
0.311 0.562 1.577 5328
0.312 0.563 1.568 4122
0.314 0.566 1.566 4055
0.317 0.573 1.572 5315
0.321 0.579 1.577 6714
0.323 0.583 1.575 7110
0.327 0.590 1.580 7555
0.329 0.593 1.578 6374
0.331 0.597 1.576 5194
0.334 0.604 1.581 5251
0.338 0.611 1.586 5473
0.338 0.611 1.577 5184
0.340 0.615 1.575 4876
0.341 0.615 1.565 9529
0.343 0.619 1.563 14259
0.345 0.622 1.561 19876
0.348 0.629 1.566 25966
0.350 0.633 1.564 31832
0.354 0.640 1.569 37563
0.356 0.643 1.566 38990
0.358 0.647 1.564 39670
0.358 0.647 1.555 35850
0.360 0.651 1.553 32166
0.364 0.658 1.557 30550
0.366 0.661 1.555 29591
0.368 0.665 1.553 26476
0.372 0.672 1.558 23557
0.374 0.676 1.555 17217
0.382 0.689 1.574 11293
0.384 0.693 1.571 12240
0.386 0.697 1.569 10613
0.390 0.704 1.573 8488
0.396 0.714 1.585 8861
0.400 0.722 1.589 9020
0.402 0.725 1.586 12112
0.404 0.729 1.584 16376
0.406 0.733 1.581 20301
0.408 0.736 1.579 24593
0.408 0.736 1.570 26547
0.412 0.744 1.574 22114
0.414 0.747 1.571 14488
0.414 0.747 1.562 11159
0.418 0.754 1.566 12117
0.422 0.762 1.570 14283
0.426 0.769 1.574 15289
0.428 0.773 1.572 16751
0.430 0.776 1.569 17912
0.430 0.776 1.560 18026
0.434 0.784 1.564 15296
0.434 0.783 1.554 11828
0.434 0.783 1.545 11347
0.436 0.787 1.542 16041
0.438 0.790 1.540 25934
0.440 0.794 1.537 30333
0.444 0.801 1.541 31327
0.446 0.805 1.538 27878
0.452 0.816 1.548 18914
0.465 0.839 1.578 21702
0.469 0.847 1.582 19621
0.471 0.851 1.579 19648
0.473 0.854 1.576 24875
0.475 0.858 1.573 27357
0.475 0.858 1.564 25389
0.477 0.861 1.561 17283
0.486 0.877 1.577 8579
0.490 0.885 1.581 9949
0.492 0.888 1.578 12088
0.492 0.888 1.568 11908
0.496 0.895 1.572 14594
0.498 0.899 1.569 18274
0.498 0.899 1.559 14577
0.504 0.910 1.569 9595
0.513 0.927 1.585 19430
0.515 0.930 1.581 25715
0.520 0.938 1.585 18809
0.517 0.933 1.569 15741
0.519 0.937 1.566 20321
0.528 0.953 1.581 25239
0.532 0.961 1.584 29927
0.532 0.961 1.575 27639
0.536 0.969 1.578 26056
0.538 0.972 1.574 24911
0.540 0.976 1.571 19192
0.538 0.971 1.555 15478
0.540 0.974 1.552 16128
0.544 0.982 1.555 14775
0.548 0.990 1.558 18276
0.550 0.994 1.554 28487
0.552 0.998 1.551 39981
0.554 1.001 1.547 41065
0.556 1.005 1.544 29046
0.561 1.013 1.547 23363
0.563 1.016 1.543 27631
0.565 1.020 1.540 27995
0.567 1.023 1.536 30996
0.571 1.031 1.539 32869
0.573 1.035 1.535 24728
0.575 1.039 1.532 17190
0.580 1.047 1.534 13453
0.584 1.055 1.537 14614
0.586 1.058 1.533 16695
0.591 1.066 1.535 16021
0.593 1.070 1.532 12927
0.584 1.055 1.505 8895
0.596 1.077 1.524 9942
0.596 1.076 1.515 10611
0.598 1.079 1.511 7908
0.607 1.097 1.525 12450
0.607 1.096 1.515 15396
0.606 1.094 1.506 13233
0.611 1.103 1.508 14786
0.613 1.106 1.504 17876
0.617 1.114 1.506 15294
0.630 1.137 1.525 11724
0.637 1.150 1.533 14582
0.642 1.159 1.535 12886
0.644 1.162 1.531 16616
0.645 1.166 1.527 27246
0.647 1.169 1.523 32573
0.668 1.207 1.558 28748
0.676 1.220 1.565 37199
0.678 1.224 1.561 50200
0.680 1.227 1.557 51562
0.682 1.231 1.553 47084
0.684 1.235 1.548 42165
0.686 1.238 1.544 29778
0.685 1.237 1.535 20235
0.690 1.245 1.536 22003
0.692 1.249 1.532 32165
0.696 1.257 1.533 30575
0.704 1.271 1.539 21295
0.706 1.274 1.535 17783
0.708 1.278 1.531 16324
0.707 1.276 1.521 17293
0.712 1.285 1.522 18639
0.719 1.299 1.528 20893
0.721 1.302 1.524 21382
0.723 1.306 1.520 13296
0.725 1.309 1.515 10566
0.730 1.318 1.516 11633
0.735 1.327 1.517 9611
0.739 1.335 1.518 12328
0.741 1.339 1.513 15264
0.749 1.353 1.519 16767
0.757 1.367 1.525 21179
0.759 1.370 1.520 15653
0.761 1.374 1.516 9486
0.768 1.388 1.521 10910
0.773 1.396 1.522 12643
0.781 1.411 1.527 13704
0.780 1.409 1.517 16281
0.806 1.455 1.553 14331
0.808 1.458 1.548 18947
0.813 1.467 1.548 20405
0.820 1.482 1.553 19970
0.822 1.485 1.548 20721
0.821 1.483 1.538 20081
0.817 1.476 1.523 16483
0.819 1.480 1.518 12966
0.827 1.494 1.523 16965
0.832 1.503 1.523 26451
0.834 1.506 1.518 25742
0.839 1.515 1.518 21503
0.850 1.535 1.527 26374
0.852 1.539 1.522 27609
0.857 1.548 1.521 17706
0.868 1.568 1.531 11086
0.867 1.566 1.521 8739
0.869 1.569 1.515 8801
0.874 1.578 1.515 11785
0.879 1.587 1.514 13389
0.881 1.591 1.509 11407
0.889 1.605 1.513 8474
0.891 1.609 1.507 7311
0.893 1.612 1.502 10459
0.895 1.616 1.496 16395
0.900 1.625 1.496 19309
0.902 1.628 1.490 16083
0.913 1.649 1.498 15566
0.915 1.652 1.493 16813
0.917 1.656 1.487 12958
0.919 1.659 1.482 8659
0.921 1.662 1.476 7552
0.945 1.706 1.502 6872
0.959 1.732 1.514 8324
0.964 1.741 1.512 10276
0.954 1.722 1.489 10613
0.955 1.725 1.483 15531
0.964 1.740 1.486 16780
0.982 1.772 1.502 19401
0.987 1.782 1.500 19237
0.989 1.785 1.494 13142
1.016 1.835 1.523 7190
1.025 1.850 1.525 10110
1.033 1.865 1.527 10399
1.041 1.881 1.529 9699
1.047 1.890 1.527 9256
1.049 1.893 1.521 9453
1.051 1.897 1.515 9503
1.052 1.900 1.508 9443
1.054 1.904 1.502 8344
1.060 1.913 1.499 7526
1.065 1.923 1.497 8058
1.070 1.932 1.495 7122
1.095 1.977 1.517 10960
1.097 1.980 1.510 14770
1.099 1.984 1.503 17531
1.101 1.987 1.497 16875
1.099 1.985 1.486 13549
1.101 1.988 1.479 8804
1.116 2.016 1.488 4188
1.131 2.043 1.497 6607
1.133 2.047 1.490 9948
1.132 2.044 1.480 10461
1.134 2.047 1.473 7551
1.159 2.093 1.493 4828
1.161 2.096 1.486 7540
1.160 2.094 1.475 10330
1.161 2.097 1.468 10722
1.163 2.101 1.461 10672
1.169 2.110 1.457 8363
1.177 2.126 1.458 7118
1.179 2.129 1.451 7093
1.191 2.151 1.454 6301
1.200 2.166 1.455 6767
1.201 2.170 1.447 7478
1.207 2.179 1.444 8201
1.205 2.176 1.433 8842
1.207 2.179 1.425 9494
1.209 2.183 1.418 8071
1.207 2.180 1.407 6734
1.212 2.189 1.403 6518
1.214 2.192 1.396 6389
1.219 2.202 1.392 5644
1.287 2.323 1.450 5710
1.288 2.326 1.443 9093
1.290 2.330 1.435 12506
1.292 2.333 1.427 12506
1.290 2.330 1.416 11378
1.289 2.327 1.404 10678
1.287 2.324 1.393 8091
1.289 2.327 1.385 5514
1.329 2.400 1.414 5819
1.331 2.403 1.406 7647
1.329 2.400 1.394 6611
1.327 2.396 1.383 5649
1.332 2.406 1.378 5368
1.331 2.403 1.367 4334
1.371 2.476 1.394 3552
1.373 2.479 1.385 1776
0.306 0.548 1.601 15963
0.308 0.552 1.600 14729
0.310 0.556 1.598 13494
0.312 0.559 1.596 9981
0.311 0.557 1.579 6737
0.313 0.561 1.577 5281
0.313 0.562 1.568 3866
0.315 0.565 1.566 3816
0.319 0.572 1.572 5475
0.323 0.578 1.577 7245
0.325 0.582 1.575 7706
0.327 0.586 1.573 8168
0.329 0.589 1.571 6598
0.327 0.587 1.554 5244
0.334 0.600 1.574 4356
0.338 0.606 1.579 4025
0.342 0.613 1.584 5539
0.344 0.617 1.582 7092
0.344 0.617 1.572 12416
0.346 0.621 1.570 17809
0.348 0.625 1.568 23667
0.350 0.628 1.566 30069
0.352 0.632 1.564 36134
0.356 0.639 1.569 42105
0.358 0.642 1.566 43763
0.360 0.646 1.564 44618
0.360 0.646 1.555 40311
0.362 0.650 1.553 36117
0.366 0.657 1.557 34108
0.368 0.660 1.555 32704
0.370 0.664 1.553 29470
0.374 0.671 1.558 26407
0.376 0.674 1.555 19381
0.382 0.685 1.567 12296
0.386 0.692 1.571 12830
0.388 0.696 1.569 10618
0.392 0.703 1.573 8145
0.398 0.713 1.585 8478
0.400 0.717 1.582 8761
0.404 0.724 1.586 11730
0.406 0.728 1.584 15804
0.408 0.731 1.581 19578
0.410 0.735 1.579 23906
0.410 0.735 1.570 25887
0.414 0.742 1.574 21636
0.416 0.746 1.571 14324
0.416 0.746 1.562 11167
0.420 0.753 1.566 12270
0.424 0.760 1.570 14318
0.428 0.768 1.574 15189
0.430 0.771 1.572 16636
0.432 0.775 1.569 17857
0.432 0.775 1.560 18031
0.436 0.782 1.564 15461
0.436 0.782 1.554 12821
0.436 0.782 1.545 12940
0.438 0.785 1.542 17148
0.440 0.789 1.540 25252
0.442 0.793 1.537 27884
0.446 0.800 1.541 27923
0.448 0.803 1.538 24763
0.454 0.815 1.548 17415
0.467 0.838 1.578 21194
0.472 0.846 1.582 19064
0.474 0.849 1.579 18967
0.476 0.853 1.576 23437
0.478 0.856 1.573 25485
0.477 0.856 1.564 23710
0.482 0.864 1.567 16032
0.490 0.879 1.584 7423
0.495 0.887 1.587 8765
0.495 0.887 1.578 11363
0.497 0.890 1.575 11728
0.496 0.890 1.565 13642
0.498 0.893 1.562 17014
0.500 0.897 1.559 14941
0.502 0.901 1.556 10720
0.514 0.921 1.578 19381
0.516 0.925 1.575 24100
0.522 0.937 1.585 16425
0.520 0.932 1.569 13894
0.522 0.935 1.566 18745
0.531 0.952 1.581 25012
0.533 0.955 1.578 30393
0.535 0.959 1.575 27651
0.537 0.963 1.571 25383
0.541 0.971 1.574 24970
0.543 0.974 1.571 19960
0.541 0.969 1.555 17019
0.543 0.973 1.552 18335
0.547 0.981 1.555 15560
0.551 0.989 1.558 17249
0.553 0.992 1.554 26933
0.558 1.000 1.557 37429
0.557 0.999 1.547 37908
0.559 1.003 1.544 27600
0.564 1.011 1.547 24390
0.566 1.015 1.543 30337
0.568 1.018 1.540 30966
0.570 1.022 1.536 32439
0.574 1.030 1.539 32088
0.576 1.033 1.535 23592
0.578 1.037 1.532 16745
0.583 1.045 1.534 12524
0.587 1.053 1.537 13195
0.589 1.056 1.533 16456
0.594 1.065 1.535 15366
0.601 1.077 1.543 9858
0.585 1.048 1.499 4444
0.597 1.071 1.518 6435
0.599 1.074 1.515 9368
0.604 1.082 1.517 9547
0.611 1.095 1.525 12857
0.610 1.094 1.515 17027
0.612 1.097 1.512 16962
0.614 1.101 1.508 16436
0.619 1.109 1.510 16579
0.623 1.117 1.512 13427
0.630 1.130 1.520 11514
0.640 1.148 1.533 15782
0.645 1.157 1.535 14861
0.647 1.160 1.531 19302
0.649 1.164 1.527 29908
0.651 1.167 1.523 33898
0.653 1.171 1.519 27358
0.677 1.213 1.560 33061
0.681 1.222 1.561 46973
0.683 1.225 1.557 48924
0.685 1.229 1.553 44859
0.687 1.232 1.548 38541
0.689 1.236 1.544 25216
0.689 1.235 1.535 18913
0.693 1.243 1.536 23536
0.695 1.247 1.532 33156
0.697 1.250 1.527 27018
0.708 1.269 1.539 14598
0.710 1.272 1.535 12821
0.712 1.276 1.531 15495
0.711 1.274 1.521 19279
0.716 1.283 1.522 16683
0.723 1.297 1.528 16735
0.725 1.300 1.524 17524
0.727 1.304 1.520 12549
0.729 1.307 1.515 12031
0.731 1.311 1.511 12165
0.739 1.324 1.517 10066
0.744 1.333 1.518 14102
0.745 1.337 1.513 17223
0.753 1.350 1.519 18827
0.761 1.364 1.525 26173
0.763 1.368 1.520 21217
0.765 1.371 1.516 13396
0.767 1.375 1.511 13796
0.772 1.384 1.511 13843
0.780 1.398 1.517 11737
0.784 1.406 1.517 13986
0.810 1.452 1.553 12299
0.812 1.456 1.548 16977
0.817 1.465 1.548 20069
0.825 1.479 1.553 20137
0.827 1.483 1.548 20433
0.826 1.481 1.538 20907
0.822 1.474 1.523 18213
0.824 1.477 1.518 13719
0.832 1.491 1.523 18125
0.837 1.500 1.523 25888
0.839 1.504 1.518 22724
0.847 1.518 1.522 18666
0.852 1.527 1.522 24661
0.857 1.536 1.522 25214
0.859 1.540 1.517 15972
0.873 1.565 1.531 10218
0.872 1.563 1.521 9399
0.877 1.572 1.520 10219
0.879 1.576 1.515 12836
0.881 1.579 1.509 11764
0.883 1.583 1.504 8597
0.891 1.597 1.508 6235
0.893 1.601 1.503 5490
0.898 1.610 1.502 9671
0.903 1.619 1.501 16930
0.905 1.622 1.496 19519
0.907 1.626 1.490 16128
0.918 1.646 1.498 16331
0.920 1.649 1.493 17805
0.922 1.653 1.487 13809
0.927 1.662 1.486 9680
0.926 1.660 1.476 8507
0.953 1.709 1.506 7726
0.958 1.718 1.505 8621
0.970 1.738 1.512 10169
0.959 1.719 1.489 10609
0.961 1.722 1.483 15289
0.972 1.743 1.490 16337
0.987 1.769 1.502 19825
0.989 1.773 1.496 20017
0.991 1.776 1.490 14792
1.022 1.832 1.523 7619
1.030 1.847 1.525 10344
1.039 1.862 1.527 9916
1.047 1.877 1.529 8827
1.052 1.887 1.527 8299
1.054 1.890 1.521 8410
1.056 1.894 1.515 8651
1.058 1.897 1.508 9071
1.060 1.901 1.502 8476
1.065 1.910 1.499 7674
1.071 1.919 1.497 7955
1.079 1.935 1.499 6885
1.101 1.974 1.517 10710
1.103 1.977 1.510 14013
1.105 1.981 1.503 16532
1.107 1.984 1.497 15976
1.105 1.982 1.486 13127
1.107 1.985 1.479 8735
1.122 2.012 1.488 4781
1.134 2.034 1.493 6306
1.140 2.043 1.490 8886
1.138 2.040 1.480 9349
1.140 2.044 1.473 6664
1.169 2.096 1.497 4521
1.167 2.093 1.486 7512
1.166 2.090 1.475 10592
1.168 2.094 1.468 11073
1.170 2.097 1.461 11035
1.171 2.100 1.454 8216
1.184 2.122 1.458 6400
1.185 2.125 1.451 6288
1.197 2.147 1.454 5720
1.210 2.169 1.458 6626
1.211 2.172 1.451 7274
1.210 2.169 1.440 7947
1.212 2.172 1.433 8297
1.214 2.176 1.425 8647
1.215 2.179 1.418 7457
1.214 2.176 1.407 6356
1.219 2.185 1.403 6171
1.221 2.189 1.396 6075
1.226 2.198 1.392 5490
1.297 2.325 1.454 5750
1.295 2.323 1.443 9044
1.297 2.326 1.435 12382
1.299 2.329 1.427 12382
1.297 2.326 1.416 11369
1.296 2.323 1.404 10971
1.294 2.320 1.393 8381
1.296 2.323 1.385 5814
1.340 2.402 1.417 6211
1.341 2.405 1.409 8202
1.336 2.396 1.394 6987
1.338 2.399 1.386 5928
1.340 2.402 1.378 5731
1.341 2.405 1.370 4408
1.379 2.472 1.394 3606
1.380 2.475 1.385 1803
1.269 2.275 1.277 264
0.307 0.548 1.601 14820
0.309 0.551 1.600 13767
0.311 0.555 1.598 12715
0.313 0.559 1.596 9655
0.312 0.557 1.579 6804
0.314 0.560 1.577 5285
0.316 0.564 1.576 3767
0.318 0.568 1.574 3765
0.322 0.574 1.579 5411
0.324 0.578 1.577 7197
0.326 0.582 1.575 7683
0.328 0.585 1.573 8168
0.328 0.586 1.564 6542
0.330 0.589 1.562 5180
0.332 0.593 1.560 3927
0.341 0.609 1.586 3376
0.343 0.613 1.584 6492
0.345 0.616 1.582 9624
0.346 0.617 1.572 15255
0.348 0.620 1.570 21119
0.350 0.624 1.568 26867
0.352 0.628 1.566 33165
0.354 0.631 1.564 39281
0.357 0.638 1.569 45393
0.359 0.642 1.566 47346
0.361 0.645 1.564 48459
0.362 0.646 1.555 43670
0.364 0.649 1.553 39017
0.368 0.656 1.557 36509
0.370 0.660 1.555 34472
0.372 0.663 1.553 31310
0.375 0.670 1.558 28198
0.377 0.674 1.555 20909
0.383 0.684 1.567 13103
0.385 0.688 1.564 13341
0.389 0.695 1.569 10697
0.393 0.702 1.573 7868
0.399 0.712 1.585 8027
0.401 0.716 1.582 8397
0.405 0.723 1.586 11207
0.407 0.727 1.584 15126
0.409 0.731 1.581 18749
0.411 0.734 1.579 23214
0.411 0.734 1.570 25315
0.415 0.742 1.574 21235
0.417 0.745 1.571 14177
0.417 0.745 1.562 11108
0.422 0.752 1.566 12302
0.426 0.760 1.570 14127
0.430 0.767 1.574 14798
0.432 0.771 1.572 16201
0.434 0.774 1.569 17413
0.434 0.774 1.560 17632
0.438 0.781 1.564 15111
0.438 0.781 1.554 12731
0.438 0.781 1.545 13089
0.440 0.785 1.542 16833
0.442 0.788 1.540 23639
0.444 0.792 1.537 25207
0.448 0.799 1.541 24622
0.450 0.803 1.538 21720
0.456 0.814 1.548 15879
0.469 0.837 1.578 19810
0.471 0.841 1.575 17737
0.475 0.848 1.579 18032
0.477 0.852 1.576 22105
0.479 0.856 1.573 23449
0.481 0.859 1.570 21644
0.483 0.863 1.567 14475
0.492 0.878 1.584 6573
0.496 0.886 1.587 7687
0.496 0.886 1.578 10852
0.498 0.889 1.575 12019
0.498 0.889 1.565 13633
0.500 0.893 1.562 16677
0.502 0.896 1.559 15528
0.506 0.904 1.562 11668
0.515 0.920 1.578 18920
0.517 0.924 1.575 21534
0.524 0.936 1.585 13337
0.519 0.927 1.563 12414
0.526 0.939 1.572 17446
0.533 0.951 1.581 24987
0.535 0.954 1.578 31154
0.537 0.958 1.575 27418
0.539 0.962 1.571 24408
0.541 0.965 1.568 24864
0.543 0.969 1.565 20322
0.542 0.968 1.555 17388
0.544 0.972 1.552 18605
0.549 0.980 1.555 15050
0.553 0.988 1.558 15776
0.555 0.991 1.554 25989
0.560 0.999 1.557 35490
0.559 0.998 1.547 34335
0.561 1.002 1.544 25524
0.563 1.005 1.541 25007
0.568 1.013 1.543 31778
0.572 1.021 1.546 32309
0.574 1.025 1.542 32482
0.576 1.029 1.539 31271
0.578 1.032 1.535 22627
0.580 1.036 1.532 14944
0.585 1.044 1.534 10343
0.589 1.052 1.537 11526
0.591 1.055 1.533 16198
0.596 1.063 1.535 15646
0.603 1.076 1.543 9103
0.584 1.043 1.493 3405
0.589 1.051 1.495 5223
0.598 1.068 1.509 9341
0.603 1.076 1.511 10833
0.613 1.094 1.525 12420
0.615 1.097 1.521 16913
0.614 1.096 1.512 19025
0.616 1.100 1.508 17707
0.621 1.108 1.510 15849
0.625 1.116 1.512 12407
0.633 1.129 1.520 12055
0.640 1.142 1.527 17152
0.645 1.151 1.529 17869
0.647 1.154 1.525 21675
0.651 1.162 1.527 30678
0.653 1.166 1.523 33379
0.655 1.169 1.519 27104
0.679 1.212 1.560 28240
0.684 1.220 1.561 42156
0.686 1.224 1.557 43839
0.688 1.228 1.553 39486
0.690 1.231 1.548 33052
0.692 1.235 1.544 19675
0.694 1.238 1.540 16533
0.696 1.242 1.536 24704
0.698 1.245 1.532 34281
0.697 1.244 1.522 25294
0.704 1.257 1.529 9483
0.712 1.271 1.535 8774
0.711 1.269 1.525 14986
0.713 1.273 1.521 20571
0.715 1.276 1.517 14757
0.728 1.300 1.534 12196
0.728 1.299 1.524 13535
0.730 1.302 1.520 12191
0.732 1.306 1.515 13501
0.733 1.309 1.511 12879
0.744 1.328 1.522 10562
0.749 1.337 1.523 15365
0.748 1.335 1.513 18770
0.759 1.354 1.524 20886
0.764 1.363 1.525 30059
0.766 1.366 1.520 25429
0.767 1.370 1.516 16674
0.769 1.373 1.511 16877
0.771 1.377 1.506 16909
0.776 1.386 1.507 12658
0.781 1.394 1.507 13242
0.783 1.398 1.502 10758
0.812 1.449 1.543 15549
0.820 1.463 1.548 19522
0.825 1.472 1.548 19323
0.830 1.481 1.548 19461
0.826 1.474 1.533 21361
0.825 1.472 1.523 18579
0.827 1.476 1.518 13481
0.835 1.490 1.523 18637
0.840 1.499 1.523 24364
0.839 1.497 1.513 18681
0.850 1.517 1.522 15657
0.855 1.526 1.522 22488
0.857 1.529 1.517 22572
0.859 1.533 1.512 14984
0.870 1.552 1.521 9596
0.878 1.567 1.525 10132
0.880 1.570 1.520 11957
0.882 1.574 1.515 13739
0.884 1.577 1.509 10401
0.883 1.575 1.499 6399
0.891 1.590 1.503 5153
0.896 1.599 1.503 4857
0.904 1.614 1.506 9646
0.906 1.617 1.501 17756
0.908 1.620 1.496 19619
0.910 1.624 1.490 16054
0.921 1.644 1.498 16888
0.923 1.648 1.493 18646
0.928 1.657 1.492 14664
0.930 1.660 1.486 10616
0.929 1.658 1.476 8971
0.959 1.712 1.511 8650
0.961 1.716 1.505 9032
0.973 1.737 1.512 9817
0.962 1.717 1.489 10271
0.964 1.720 1.483 14640
0.979 1.747 1.495 16019
0.990 1.768 1.502 20191
0.992 1.771 1.496 20980
0.991 1.769 1.486 16768
1.025 1.830 1.523 8411
1.034 1.845 1.525 10404
1.039 1.854 1.523 9199
1.051 1.875 1.529 7854
1.056 1.885 1.527 7333
1.058 1.888 1.521 7335
1.060 1.892 1.515 7682
1.062 1.895 1.508 8457
1.064 1.899 1.502 8280
1.072 1.914 1.504 7482
1.077 1.923 1.501 7592
1.096 1.956 1.515 6843
1.105 1.972 1.517 10398
1.107 1.975 1.510 13185
1.108 1.979 1.503 15318
1.107 1.976 1.493 14883
1.109 1.979 1.486 12374
1.114 1.989 1.483 8567
1.126 2.010 1.488 5727
1.135 2.026 1.489 6256
1.143 2.041 1.490 7725
1.139 2.032 1.476 8067
1.140 2.036 1.469 5693
1.180 2.105 1.504 4755
1.171 2.091 1.486 7341
1.173 2.094 1.479 10457
1.172 2.091 1.468 10945
1.174 2.095 1.461 10888
1.175 2.098 1.454 7892
1.188 2.120 1.458 5560
1.189 2.123 1.451 5328
1.205 2.151 1.458 4923
1.214 2.166 1.458 6151
1.216 2.170 1.451 6722
1.214 2.167 1.440 7337
1.216 2.170 1.433 7385
1.218 2.173 1.425 7434
1.216 2.170 1.414 6567
1.218 2.174 1.407 5723
1.223 2.183 1.403 5681
1.225 2.186 1.396 5722
1.230 2.196 1.392 5357
1.301 2.323 1.454 5704
1.303 2.326 1.446 8881
1.302 2.323 1.435 12054
1.304 2.327 1.427 12054
1.302 2.324 1.416 11174
1.297 2.314 1.401 11168
1.298 2.318 1.393 8594
1.300 2.321 1.385 6021
1.348 2.406 1.420 6547
1.349 2.409 1.412 8584
1.344 2.399 1.398 7245
1.342 2.396 1.386 6190
1.348 2.406 1.381 6107
1.346 2.402 1.370 4557
1.387 2.475 1.397 3561
1.389 2.478 1.388 1780
1.273 2.272 1.277 254
0.308 0.547 1.601 14162
0.310 0.551 1.600 13255
0.312 0.554 1.598 12348
0.315 0.558 1.596 9807
0.315 0.559 1.587 7540
0.315 0.560 1.577 5912
0.317 0.563 1.576 4284
0.319 0.567 1.574 4278
0.323 0.573 1.579 5711
0.325 0.577 1.577 7229
0.327 0.581 1.575 7830
0.329 0.584 1.573 8431
0.331 0.588 1.571 7049
0.332 0.588 1.562 5862
0.335 0.595 1.567 4392
0.343 0.608 1.586 3757
0.345 0.612 1.584 7800
0.347 0.615 1.582 11863
0.347 0.616 1.572 17804
0.349 0.619 1.570 24024
0.351 0.623 1.568 29450
0.353 0.627 1.566 35419
0.355 0.630 1.564 41400
0.359 0.637 1.569 47447
0.361 0.641 1.566 49422
0.363 0.644 1.564 50539
0.363 0.645 1.555 45748
0.365 0.648 1.553 41123
0.369 0.655 1.557 38095
0.371 0.659 1.555 35388
0.373 0.662 1.553 32492
0.375 0.666 1.551 29596
0.377 0.669 1.548 22331
0.383 0.680 1.560 13933
0.387 0.687 1.564 14092
0.391 0.694 1.569 10888
0.395 0.701 1.573 7672
0.399 0.708 1.578 7739
0.403 0.715 1.582 8070
0.407 0.722 1.586 10708
0.409 0.726 1.584 14308
0.411 0.730 1.581 17519
0.413 0.733 1.579 21817
0.413 0.733 1.570 23826
0.417 0.740 1.574 19948
0.419 0.744 1.571 13213
0.419 0.744 1.562 10300
0.423 0.751 1.566 11648
0.428 0.759 1.570 13112
0.432 0.766 1.574 13483
0.434 0.769 1.572 14821
0.436 0.773 1.569 16099
0.436 0.773 1.560 16478
0.440 0.780 1.564 14070
0.440 0.780 1.554 11733
0.440 0.780 1.545 12087
0.442 0.783 1.542 15256
0.444 0.787 1.540 21359
0.446 0.791 1.537 22916
0.450 0.798 1.541 22334
0.452 0.801 1.538 19545
0.458 0.813 1.548 14598
0.469 0.832 1.572 17827
0.473 0.839 1.575 15905
0.475 0.843 1.573 16878
0.479 0.851 1.576 20987
0.481 0.854 1.573 21918
0.484 0.858 1.570 20178
0.486 0.862 1.567 13567
0.494 0.877 1.584 6533
0.499 0.885 1.587 7119
0.499 0.884 1.578 10756
0.498 0.884 1.568 12762
0.498 0.884 1.559 14173
0.502 0.891 1.562 16877
0.504 0.895 1.559 16681
0.511 0.907 1.569 13387
0.518 0.919 1.578 18511
0.520 0.922 1.575 18342
0.527 0.934 1.585 10550
0.521 0.925 1.563 11502
0.528 0.937 1.572 16698
0.535 0.949 1.581 24927
0.537 0.953 1.578 31571
0.539 0.957 1.575 26696
0.541 0.960 1.571 22959
0.543 0.964 1.568 24467
0.545 0.967 1.565 20604
0.545 0.967 1.555 17003
0.547 0.970 1.552 17695
0.551 0.978 1.555 14115
0.556 0.986 1.558 14792
0.558 0.990 1.554 25195
0.562 0.998 1.557 33283
0.564 1.001 1.554 30504
0.564 1.000 1.544 22063
0.566 1.004 1.541 24047
0.570 1.012 1.543 31453
0.572 1.016 1.540 31447
0.577 1.024 1.542 30725
0.579 1.027 1.539 29210
0.581 1.031 1.535 21770
0.580 1.030 1.526 13736
0.585 1.038 1.528 8324
0.592 1.050 1.537 10062
0.594 1.054 1.533 15368
0.599 1.062 1.535 15241
0.603 1.070 1.538 9308
0.589 1.046 1.499 4271
0.591 1.049 1.495 5311
0.601 1.067 1.509 8965
0.606 1.075 1.511 10996
0.613 1.088 1.519 11397
0.618 1.096 1.521 16203
0.620 1.099 1.517 19410
0.622 1.103 1.514 17588
0.624 1.106 1.510 15165
0.628 1.114 1.512 12828
0.633 1.123 1.514 12716
0.640 1.136 1.521 17392
0.645 1.144 1.523 19836
0.647 1.148 1.519 22280
0.651 1.156 1.521 28241
0.656 1.164 1.523 30086
0.658 1.168 1.519 26327
0.679 1.205 1.554 24619
0.684 1.214 1.555 34857
0.689 1.222 1.557 35177
0.691 1.226 1.553 31967
0.693 1.229 1.548 26923
0.695 1.233 1.544 14309
0.697 1.237 1.540 13825
0.699 1.240 1.536 25441
0.698 1.239 1.526 35503
0.700 1.242 1.522 25232
0.699 1.241 1.512 8839
0.704 1.249 1.513 7318
0.714 1.268 1.525 14608
0.716 1.271 1.521 21213
0.716 1.270 1.511 13459
0.735 1.304 1.539 8360
0.731 1.297 1.524 9931
0.733 1.300 1.520 11625
0.735 1.304 1.515 14616
0.737 1.307 1.511 13991
0.747 1.326 1.522 11433
0.752 1.335 1.523 16337
0.751 1.333 1.513 19714
0.762 1.352 1.524 22415
0.767 1.361 1.525 32517
0.769 1.364 1.520 27956
0.771 1.368 1.516 19084
0.773 1.371 1.511 20087
0.775 1.375 1.506 21156
0.777 1.378 1.502 16376
0.779 1.382 1.497 14676
0.787 1.396 1.502 10877
0.813 1.442 1.538 14935
0.821 1.456 1.543 19469
0.826 1.465 1.543 18429
0.831 1.474 1.543 18464
0.830 1.472 1.533 21641
0.828 1.470 1.523 17655
0.833 1.479 1.523 12381
0.842 1.493 1.528 18332
0.843 1.497 1.523 21900
0.845 1.500 1.518 14530
0.857 1.520 1.527 13703
0.859 1.523 1.522 20094
0.861 1.527 1.517 20262
0.859 1.525 1.507 14765
0.868 1.539 1.511 9188
0.882 1.565 1.525 10465
0.887 1.574 1.525 13387
0.889 1.577 1.519 14997
0.891 1.581 1.514 10758
0.905 1.606 1.528 6634
0.901 1.599 1.513 6395
0.903 1.602 1.507 6600
0.908 1.611 1.506 11069
0.910 1.615 1.501 18483
0.912 1.618 1.496 19273
0.914 1.622 1.490 15750
0.925 1.642 1.498 17382
0.927 1.645 1.493 19387
0.932 1.654 1.492 15485
0.934 1.658 1.486 11212
0.936 1.661 1.480 9014
0.964 1.710 1.511 9255
0.966 1.713 1.505 9136
0.977 1.734 1.512 9271
0.966 1.715 1.489 9562
0.968 1.718 1.483 13546
0.986 1.750 1.499 15751
0.995 1.765 1.502 20420
0.997 1.768 1.496 21618
0.995 1.766 1.486 18280
1.030 1.827 1.523 9011
1.035 1.837 1.521 10186
1.044 1.852 1.523 8419
1.055 1.873 1.529 6853
1.061 1.882 1.527 6374
1.063 1.886 1.521 6270
1.065 1.889 1.515 6650
1.067 1.892 1.508 7626
1.069 1.896 1.502 7778
1.077 1.911 1.504 6961
1.082 1.920 1.501 6978
1.101 1.953 1.515 7002
1.106 1.963 1.513 9975
1.112 1.972 1.510 12239
1.114 1.976 1.503 13950
1.112 1.973 1.493 13561
1.114 1.977 1.486 11360
1.119 1.986 1.483 8304
1.131 2.007 1.488 6619
1.140 2.023 1.489 6420
1.149 2.038 1.490 6891
1.140 2.023 1.472 7096
1.142 2.027 1.465 5002
1.185 2.102 1.504 5012
1.180 2.094 1.490 7284
1.179 2.091 1.479 10043
1.177 2.088 1.468 10427
1.179 2.092 1.461 10320
1.181 2.095 1.454 7340
1.190 2.111 1.454 4619
1.191 2.114 1.447 4212
1.214 2.154 1.462 4137
1.219 2.163 1.458 5470
1.221 2.167 1.451 5994
1.220 2.164 1.440 6566
1.221 2.167 1.433 6330
1.220 2.164 1.422 6120
1.222 2.167 1.414 5528
1.223 2.171 1.407 4936
1.229 2.180 1.403 5102
1.234 2.189 1.399 5378
1.239 2.199 1.395 5270
1.251 2.220 1.398 5701
1.309 2.323 1.446 8665
1.311 2.326 1.438 11783
1.313 2.330 1.430 11783
1.304 2.314 1.412 10933
1.303 2.311 1.401 11251
1.304 2.314 1.393 8683
1.306 2.317 1.385 6116
1.354 2.402 1.420 6794
1.356 2.405 1.412 8883
1.354 2.402 1.401 7550
1.352 2.399 1.390 6590
1.354 2.402 1.381 6643
1.356 2.405 1.373 4841
1.393 2.472 1.397 3503
1.395 2.475 1.388 1751
1.279 2.269 1.277 267
0.309 0.546 1.601 14478
