0.122 3.268 1.632 4868
0.123 3.279 1.625 5818
0.122 3.276 1.613 5103
0.123 3.280 1.603 4404
0.123 3.285 1.593 4404
0.123 3.289 1.584 2202
0.027 0.660 1.674 6465
0.027 0.664 1.672 7927
0.027 0.672 1.677 9402
0.027 0.673 1.668 7465
0.027 0.674 1.659 5782
0.027 0.675 1.649 5878
0.027 0.679 1.647 6957
0.027 0.680 1.638 7933
0.028 0.692 1.650 10656
0.028 0.699 1.655 13897
0.028 0.704 1.653 13219
0.029 0.712 1.658 12670
0.029 0.716 1.656 9595
0.029 0.720 1.654 6520
0.029 0.728 1.659 5309
0.030 0.743 1.678 5342
0.030 0.748 1.676 6330
0.030 0.756 1.680 10654
0.031 0.764 1.685 15240
0.031 0.765 1.676 16760
0.031 0.769 1.674 18463
0.031 0.774 1.671 16030
0.031 0.782 1.676 13794
0.032 0.790 1.681 10589
0.033 0.817 1.720 9521
0.032 0.806 1.690 10969
0.033 0.807 1.680 13119
0.033 0.812 1.678 11081
0.033 0.824 1.689 8922
0.034 0.847 1.722 7849
0.034 0.856 1.726 8761
0.035 0.860 1.723 8106
0.035 0.861 1.714 7177
0.034 0.846 1.677 7723
0.035 0.870 1.709 7780
0.035 0.879 1.713 8624
0.036 0.883 1.710 7325
0.036 0.892 1.714 6216
0.036 0.892 1.705 5978
0.036 0.893 1.695 5382
0.036 0.905 1.706 4815
0.037 0.914 1.710 5190
0.037 0.923 1.714 5842
0.037 0.923 1.705 8290
0.038 0.932 1.709 14888
0.038 0.936 1.706 19273
0.038 0.941 1.703 21839
0.038 0.945 1.701 24762
0.038 0.950 1.698 25120
0.038 0.954 1.695 20703
0.039 0.963 1.699 15317
0.039 0.963 1.689 14127
0.039 0.972 1.693 21637
0.039 0.977 1.690 30081
0.040 0.986 1.694 30848
0.040 0.990 1.691 26929
0.040 0.990 1.681 23286
0.040 0.990 1.672 24629
0.040 0.999 1.675 33238
0.041 1.008 1.679 41507
0.041 1.017 1.682 30555
0.041 1.021 1.679 19574
0.041 1.026 1.676 18400
0.041 1.026 1.667 19412
0.041 1.030 1.664 20582
0.042 1.039 1.667 18981
0.042 1.048 1.670 16639
0.043 1.057 1.674 18760
0.043 1.066 1.677 23143
0.043 1.071 1.674 30086
0.043 1.070 1.664 35758
0.043 1.079 1.667 37049
0.044 1.084 1.664 34453
0.044 1.088 1.661 28570
0.044 1.093 1.658 27769
0.044 1.097 1.654 26172
0.044 1.102 1.651 24394
0.045 1.111 1.654 24582
0.045 1.115 1.651 22738
0.045 1.115 1.641 18247
0.045 1.114 1.632 14888
0.046 1.138 1.653 14166
0.047 1.166 1.681 15457
0.047 1.176 1.684 14492
0.048 1.195 1.699 9511
0.049 1.219 1.721 9218
0.049 1.229 1.723 12488
0.050 1.233 1.719 15013
0.050 1.243 1.722 15954
0.050 1.247 1.718 18822
0.050 1.247 1.708 24984
0.050 1.251 1.705 31492
0.051 1.256 1.701 36744
0.051 1.265 1.703 36484
0.051 1.270 1.700 28400
0.052 1.280 1.702 16785
0.052 1.284 1.698 13201
0.052 1.284 1.688 11851
0.052 1.288 1.684 10351
0.052 1.298 1.686 9819
0.052 1.302 1.683 8199
0.052 1.301 1.673 7338
0.053 1.311 1.675 5889
0.053 1.316 1.671 10808
0.053 1.320 1.667 22962
0.053 1.324 1.663 32582
0.054 1.329 1.659 29414
0.054 1.333 1.655 16483
0.054 1.338 1.651 7224
0.054 1.347 1.653 5396
0.054 1.336 1.632 8325
0.054 1.345 1.633 14862
0.054 1.350 1.629 20280
0.055 1.354 1.625 22375
0.055 1.358 1.621 14865
0.056 1.379 1.635 11487
0.056 1.383 1.631 11034
0.056 1.382 1.621 12138
0.056 1.392 1.622 18891
0.056 1.396 1.618 17253
0.057 1.411 1.625 16498
0.057 1.410 1.616 21117
0.057 1.414 1.611 18994
0.058 1.441 1.630 15456
0.058 1.434 1.614 17902
0.058 1.433 1.604 15332
0.061 1.527 1.689 10518
0.062 1.537 1.690 15383
0.062 1.547 1.691 25256
0.062 1.552 1.687 29171
0.063 1.567 1.693 41927
0.064 1.583 1.700 45442
0.064 1.593 1.700 31195
0.064 1.592 1.690 25524
0.065 1.608 1.696 27735
0.065 1.618 1.697 24574
0.066 1.635 1.703 17811
0.066 1.639 1.698 12349
0.066 1.644 1.693 10076
0.067 1.654 1.694 11567
0.067 1.658 1.689 11754
0.067 1.669 1.689 9588
0.068 1.685 1.695 9841
0.068 1.689 1.690 25805
0.068 1.700 1.690 41310
0.068 1.698 1.680 43770
0.069 1.709 1.680 36944
0.069 1.719 1.680 26929
0.070 1.730 1.680 18865
0.071 1.752 1.691 15390
0.071 1.756 1.686 23595
0.071 1.755 1.675 27493
0.071 1.765 1.675 21945
0.071 1.770 1.670 22242
0.071 1.774 1.665 18130
0.072 1.791 1.670 9251
0.073 1.820 1.685 10008
0.074 1.836 1.689 18984
0.074 1.847 1.689 19809
0.075 1.857 1.689 11256
0.075 1.868 1.688 12347
0.075 1.873 1.683 18025
0.076 1.877 1.677 18838
0.076 1.894 1.681 14414
0.077 1.917 1.691 10549
0.077 1.921 1.685 9820
0.079 1.957 1.704 8822
0.079 1.968 1.703 9593
0.079 1.972 1.697 10298
0.080 1.977 1.691 15636
0.080 1.981 1.685 20015
0.080 1.998 1.689 18129
0.081 2.022 1.697 21707
0.082 2.033 1.696 17872
0.083 2.050 1.700 14589
0.082 2.048 1.689 20505
0.083 2.059 1.688 30587
0.083 2.063 1.681 34835
0.083 2.061 1.671 32484
0.083 2.072 1.669 33281
0.084 2.077 1.663 33246
0.084 2.081 1.657 29603
0.084 2.085 1.651 24382
0.084 2.090 1.645 20155
0.085 2.101 1.643 22986
0.085 2.098 1.632 26274
0.085 2.103 1.626 26969
0.085 2.107 1.620 26737
0.085 2.111 1.614 25251
0.085 2.116 1.607 20406
0.091 2.251 1.690 13489
0.092 2.282 1.701 14058
0.092 2.286 1.694 16859
0.093 2.297 1.692 20406
0.093 2.302 1.685 25309
0.093 2.306 1.678 26203
0.093 2.311 1.672 24670
0.093 2.315 1.665 19817
0.094 2.326 1.662 11626
0.096 2.384 1.689 9756
0.095 2.362 1.665 11049
0.095 2.366 1.658 12530
0.096 2.377 1.656 11697
0.096 2.381 1.649 8938
0.099 2.453 1.683 7922
0.099 2.464 1.680 11066
0.099 2.469 1.673 13518
0.100 2.480 1.670 14431
0.100 2.491 1.667 13335
0.101 2.496 1.659 9646
0.102 2.534 1.672 6915
0.102 2.538 1.665 7059
0.105 2.618 1.701 6652
0.105 2.615 1.690 7445
0.106 2.620 1.682 5525
0.107 2.645 1.686 4071
0.107 2.663 1.686 4929
0.107 2.654 1.670 8050
0.107 2.658 1.663 11452
0.107 2.656 1.651 11175
0.106 2.639 1.631 10935
0.106 2.630 1.616 8196
0.106 2.634 1.608 5390
0.106 2.631 1.597 5103
0.113 2.796 1.676 5685
0.113 2.814 1.675 7177
0.114 2.839 1.678 6655
0.116 2.879 1.688 7281
0.115 2.855 1.665 7164
0.115 2.860 1.656 7730
0.116 2.871 1.652 7340
0.119 2.946 1.679 8013
0.117 2.915 1.653 9162
0.118 2.919 1.644 10487
0.118 2.924 1.635 8073
0.117 2.914 1.620 5828
0.118 2.939 1.622 4317
0.120 2.986 1.634 4293
0.124 3.083 1.671 3960
0.125 3.095 1.665 3934
0.123 3.063 1.639 4657
0.124 3.068 1.630 5750
0.126 3.136 1.651 5136
0.127 3.148 1.645 6799
0.127 3.159 1.639 6326
0.128 3.171 1.633 6044
0.128 3.175 1.624 6044
0.128 3.179 1.615 5277
0.128 3.184 1.605 4510
0.132 3.274 1.635 4378
0.132 3.279 1.625 5111
0.132 3.283 1.616 4424
0.132 3.280 1.603 3814
0.132 3.284 1.593 3814
0.132 3.289 1.584 1907
0.027 0.656 1.667 5866
0.028 0.664 1.672 7316
0.028 0.668 1.670 8812
0.028 0.673 1.668 7073
0.028 0.674 1.659 5487
0.028 0.675 1.649 5528
0.028 0.676 1.640 6360
0.028 0.680 1.638 7144
0.029 0.692 1.650 9460
0.029 0.699 1.655 12381
0.029 0.704 1.653 11894
0.030 0.712 1.658 11444
0.030 0.716 1.656 8858
0.030 0.724 1.661 6320
0.031 0.732 1.666 5396
0.031 0.743 1.678 5637
0.031 0.748 1.676 6409
0.032 0.756 1.680 10826
0.032 0.764 1.685 15458
0.032 0.765 1.676 16787
0.032 0.769 1.674 18264
0.032 0.774 1.671 15683
0.033 0.782 1.676 13260
0.033 0.790 1.681 10283
0.034 0.817 1.720 9846
0.034 0.806 1.690 11017
0.034 0.811 1.687 13083
0.034 0.815 1.685 10899
0.034 0.824 1.689 8703
0.035 0.847 1.722 8037
0.036 0.856 1.726 8851
0.036 0.860 1.723 8017
0.036 0.861 1.714 6765
0.035 0.846 1.677 6830
0.036 0.870 1.709 7507
0.037 0.879 1.713 8676
0.037 0.883 1.710 7809
0.037 0.892 1.714 7111
0.037 0.892 1.705 6809
0.037 0.893 1.695 6163
0.038 0.901 1.700 5636
0.038 0.910 1.704 5817
0.039 0.923 1.714 6252
0.039 0.923 1.705 8287
0.039 0.932 1.709 14193
0.039 0.936 1.706 18333
0.039 0.941 1.703 20972
0.040 0.945 1.701 24267
0.040 0.950 1.698 24922
0.040 0.959 1.702 21070
0.040 0.963 1.699 16191
0.041 0.972 1.702 14840
0.041 0.972 1.693 22670
0.041 0.977 1.690 32234
0.041 0.985 1.694 34024
0.041 0.990 1.691 30900
0.041 0.990 1.681 26631
0.041 0.986 1.665 26806
0.042 0.999 1.675 34669
0.042 1.008 1.679 42347
0.043 1.017 1.682 31201
0.043 1.021 1.679 20341
0.043 1.026 1.676 18598
0.043 1.026 1.667 19254
0.043 1.030 1.664 20468
0.043 1.035 1.661 18568
0.044 1.048 1.670 15774
0.044 1.057 1.674 16892
0.045 1.066 1.677 20684
0.045 1.071 1.674 27362
0.045 1.070 1.664 32850
0.045 1.079 1.667 34372
0.045 1.084 1.664 33050
0.045 1.088 1.661 28422
0.046 1.093 1.658 28223
0.046 1.092 1.648 27429
0.046 1.101 1.651 25742
0.046 1.106 1.648 25545
0.047 1.115 1.651 23433
0.047 1.115 1.641 19023
0.047 1.114 1.632 15777
0.047 1.133 1.647 14260
0.049 1.176 1.694 15603
0.049 1.181 1.690 14553
0.050 1.205 1.712 9456
0.051 1.219 1.721 8234
0.051 1.228 1.723 10160
0.052 1.233 1.719 12130
0.052 1.243 1.722 14153
0.052 1.242 1.712 18728
0.052 1.247 1.708 25880
0.052 1.251 1.705 32243
0.053 1.256 1.701 37185
0.053 1.265 1.703 36875
0.053 1.270 1.700 28776
0.053 1.280 1.702 16761
0.054 1.284 1.698 13069
0.054 1.283 1.688 11487
0.054 1.293 1.690 8823
0.054 1.303 1.692 8414
0.055 1.307 1.689 8958
0.055 1.317 1.691 8351
0.056 1.332 1.699 6367
0.055 1.321 1.677 10263
0.055 1.320 1.667 20953
0.055 1.324 1.663 29778
0.056 1.329 1.659 27862
0.056 1.338 1.661 16322
0.056 1.338 1.651 7945
0.056 1.342 1.647 6069
0.056 1.341 1.637 9044
0.056 1.345 1.633 17419
0.056 1.350 1.629 24958
0.057 1.354 1.625 27481
0.057 1.358 1.621 17241
0.058 1.379 1.635 11500
0.058 1.378 1.625 12355
0.058 1.376 1.615 15543
0.058 1.392 1.622 20900
0.058 1.396 1.618 17265
0.059 1.411 1.625 12779
0.059 1.410 1.616 15853
0.059 1.414 1.611 16591
0.060 1.446 1.635 16036
0.060 1.440 1.620 17601
0.060 1.433 1.604 15327
0.064 1.521 1.684 12116
0.064 1.531 1.685 16521
0.064 1.541 1.686 28063
0.065 1.551 1.687 31660
0.066 1.567 1.693 40460
0.066 1.583 1.700 46292
0.067 1.593 1.700 33064
0.067 1.598 1.696 26530
0.067 1.608 1.696 29368
0.068 1.618 1.697 24894
0.068 1.629 1.698 17678
0.069 1.639 1.698 11893
0.069 1.643 1.693 10264
0.069 1.654 1.694 12137
0.069 1.658 1.689 12699
0.070 1.669 1.689 9069
0.071 1.691 1.700 8464
0.071 1.695 1.695 26168
0.071 1.700 1.690 41616
0.071 1.698 1.680 42209
0.071 1.709 1.680 37153
0.072 1.719 1.680 30674
0.072 1.730 1.680 24086
0.073 1.746 1.686 16863
0.073 1.750 1.681 21628
0.073 1.755 1.675 26346
0.074 1.765 1.675 20548
0.074 1.776 1.675 20336
0.074 1.780 1.670 16937
0.075 1.785 1.665 9807
0.076 1.819 1.685 10198
0.077 1.836 1.689 18369
0.077 1.847 1.689 19345
0.078 1.857 1.689 11360
0.078 1.868 1.688 11875
0.078 1.872 1.683 17239
0.078 1.877 1.677 18412
0.079 1.888 1.676 14197
0.080 1.904 1.681 9463
0.080 1.921 1.685 9072
0.082 1.957 1.704 10264
0.082 1.968 1.703 10904
0.082 1.972 1.697 11084
0.083 1.977 1.691 14645
0.083 1.981 1.685 17997
0.084 2.004 1.694 16497
0.085 2.022 1.697 21307
0.085 2.032 1.696 17710
0.085 2.043 1.695 13468
0.086 2.048 1.689 19292
0.086 2.059 1.688 31301
0.086 2.063 1.681 37182
0.086 2.061 1.671 34606
0.087 2.072 1.669 34434
0.087 2.076 1.663 34726
0.087 2.081 1.657 32077
0.087 2.085 1.651 28334
0.087 2.090 1.645 24295
0.088 2.100 1.643 25720
0.088 2.098 1.632 27599
0.088 2.103 1.626 27717
0.088 2.107 1.620 27683
0.088 2.111 1.614 26339
0.088 2.115 1.607 21462
0.089 2.126 1.606 14066
0.095 2.268 1.692 13247
0.096 2.286 1.694 15991
0.096 2.290 1.688 19524
0.096 2.301 1.685 24652
0.096 2.306 1.678 25779
0.097 2.310 1.672 24383
0.097 2.315 1.665 19333
0.097 2.326 1.662 10888
0.100 2.384 1.689 8189
0.098 2.355 1.661 10642
0.099 2.366 1.658 12676
0.099 2.377 1.656 11911
0.100 2.388 1.653 9221
0.103 2.453 1.683 6852
0.103 2.464 1.680 9963
0.103 2.469 1.673 12371
0.104 2.480 1.670 13798
0.104 2.491 1.667 13028
0.104 2.495 1.659 9385
0.106 2.534 1.672 6889
0.106 2.545 1.669 6782
0.109 2.611 1.697 6525
0.109 2.615 1.690 7406
0.110 2.620 1.682 5631
0.106 2.528 1.619 4169
0.111 2.663 1.686 5215
0.111 2.654 1.670 8541
0.111 2.658 1.663 12070
0.111 2.649 1.647 12119
0.110 2.639 1.631 11775
0.110 2.637 1.620 8537
0.110 2.641 1.612 5363
0.110 2.638 1.600 5001
0.116 2.782 1.668 5343
0.117 2.793 1.664 6354
0.120 2.874 1.696 6429
0.120 2.879 1.688 7333
0.120 2.869 1.672 7171
0.120 2.860 1.656 7684
0.120 2.871 1.652 7147
0.123 2.946 1.679 8834
0.122 2.922 1.656 9047
0.122 2.926 1.648 10345
0.122 2.924 1.635 7765
0.122 2.914 1.620 5416
0.123 2.932 1.618 3993
0.128 3.064 1.673 4213
0.129 3.076 1.667 4217
0.129 3.087 1.662 4245
0.128 3.063 1.639 4830
0.128 3.067 1.630 5964
0.131 3.129 1.648 5084
0.132 3.148 1.645 6827
0.132 3.159 1.639 6441
0.133 3.171 1.633 6262
0.133 3.175 1.624 6262
0.133 3.179 1.615 5477
0.133 3.184 1.605 4692
0.137 3.274 1.635 3928
0.137 3.279 1.625 4446
0.137 3.283 1.616 3822
0.143 3.425 1.667 3687
0.143 3.429 1.657 3687
0.144 3.434 1.647 1843
0.029 0.656 1.667 5746
0.030 0.661 1.665 7039
0.030 0.668 1.670 8441
0.030 0.673 1.668 6756
0.030 0.674 1.659 5151
0.030 0.678 1.656 5151
0.030 0.676 1.640 5727
0.031 0.680 1.638 6276
0.031 0.688 1.643 8182
0.031 0.696 1.648 10635
0.032 0.704 1.653 10408
0.032 0.708 1.651 10229
0.032 0.716 1.656 8071
0.033 0.727 1.668 6176
0.033 0.735 1.673 5593
0.033 0.743 1.678 5873
0.034 0.748 1.676 6493
0.034 0.756 1.680 10973
0.034 0.764 1.685 15650
0.034 0.765 1.676 16821
0.035 0.769 1.674 18107
0.035 0.774 1.671 15279
0.035 0.782 1.676 12544
0.035 0.790 1.681 9868
0.037 0.817 1.720 10067
0.036 0.810 1.697 10963
0.036 0.811 1.687 12888
0.037 0.815 1.685 10540
0.037 0.824 1.689 8331
0.038 0.847 1.722 8309
0.038 0.856 1.726 8992
0.039 0.860 1.723 7896
0.039 0.861 1.714 6390
0.039 0.862 1.704 6226
0.039 0.870 1.709 7419
0.039 0.878 1.713 8873
0.040 0.883 1.710 8247
0.040 0.892 1.714 7829
0.040 0.892 1.705 7545
0.040 0.893 1.695 7112
0.040 0.901 1.700 6628
0.041 0.906 1.697 6442
0.041 0.918 1.708 6549
0.041 0.923 1.705 8288
0.042 0.932 1.709 13632
0.042 0.936 1.706 17519
0.042 0.941 1.703 20016
0.042 0.945 1.701 23430
0.043 0.950 1.698 24348
0.043 0.958 1.702 21347
0.043 0.963 1.699 17132
0.044 0.972 1.702 15726
0.044 0.972 1.693 23823
0.044 0.981 1.697 34627
0.044 0.985 1.694 37268
0.044 0.990 1.691 34825
0.044 0.990 1.681 29786
0.044 0.986 1.665 28544
0.045 0.999 1.675 35577
0.045 1.008 1.679 42620
0.046 1.017 1.682 31794
0.046 1.021 1.679 21387
0.046 1.026 1.676 18908
0.046 1.026 1.667 19035
0.046 1.030 1.664 20194
0.046 1.034 1.661 17933
0.047 1.043 1.664 14704
0.047 1.052 1.667 14818
0.048 1.061 1.671 18088
0.048 1.066 1.667 24360
0.048 1.070 1.664 29558
0.048 1.079 1.667 31535
0.049 1.084 1.664 31732
0.049 1.088 1.661 28216
0.049 1.088 1.651 28341
0.049 1.092 1.648 28269
0.049 1.097 1.645 26359
0.050 1.106 1.648 25607
0.050 1.115 1.651 23245
0.050 1.114 1.641 19439
0.050 1.114 1.632 16425
0.051 1.133 1.647 13990
0.054 1.195 1.719 17523
0.054 1.200 1.715 16084
0.054 1.204 1.712 9895
0.055 1.219 1.721 7635
0.055 1.228 1.723 9376
0.055 1.233 1.719 11767
0.056 1.237 1.716 14457
0.056 1.242 1.712 19959
0.056 1.247 1.708 27354
0.056 1.251 1.705 33586
0.056 1.256 1.701 38070
0.057 1.265 1.703 37497
0.057 1.270 1.700 29379
0.057 1.279 1.702 16865
0.058 1.284 1.698 13219
0.058 1.288 1.694 12084
0.058 1.293 1.690 7936
0.059 1.313 1.705 7751
0.059 1.312 1.695 10013
0.059 1.322 1.697 9497
0.060 1.332 1.699 8165
0.059 1.320 1.677 10924
0.059 1.320 1.667 18913
0.059 1.324 1.663 26831
0.060 1.334 1.665 26293
0.060 1.338 1.661 16463
0.060 1.337 1.651 8571
0.060 1.336 1.641 6888
0.060 1.341 1.637 10611
0.060 1.345 1.633 20622
0.061 1.349 1.629 29222
0.061 1.354 1.625 31243
0.061 1.363 1.627 18972
0.062 1.384 1.640 10809
0.062 1.383 1.631 11696
0.062 1.376 1.615 16815
0.062 1.386 1.617 21501
0.063 1.396 1.618 16454
0.063 1.406 1.620 9542
0.063 1.404 1.610 11599
0.063 1.414 1.611 14350
0.065 1.446 1.635 16446
0.065 1.439 1.620 16472
0.064 1.433 1.604 14226
0.068 1.521 1.684 11216
0.068 1.525 1.679 17285
0.069 1.541 1.686 30513
0.070 1.551 1.687 32316
0.070 1.567 1.693 37279
0.071 1.583 1.700 45707
0.071 1.593 1.700 34114
0.072 1.598 1.696 26927
0.072 1.608 1.696 30288
0.073 1.618 1.697 25843
0.073 1.628 1.698 18816
0.073 1.633 1.693 11834
0.074 1.643 1.693 10237
0.074 1.654 1.694 12320
0.075 1.664 1.694 13220
0.075 1.668 1.689 8648
0.076 1.696 1.706 8229
0.076 1.695 1.695 26500
0.076 1.700 1.690 41816
0.076 1.704 1.685 41370
0.077 1.708 1.680 38007
0.077 1.719 1.680 35318
0.078 1.729 1.680 30898
0.078 1.740 1.681 19599
0.079 1.750 1.681 19604
0.079 1.755 1.675 24076
0.079 1.759 1.670 19083
0.080 1.776 1.675 17740
0.080 1.780 1.670 14150
0.081 1.803 1.680 9521
0.082 1.819 1.685 10458
0.082 1.836 1.689 17446
0.083 1.846 1.689 19211
0.083 1.857 1.689 12028
0.084 1.868 1.688 11303
0.084 1.872 1.683 16041
0.084 1.877 1.677 17749
0.084 1.881 1.672 13943
0.085 1.898 1.676 8730
0.087 1.946 1.705 8618
0.088 1.963 1.709 12145
0.088 1.967 1.703 11720
0.089 1.978 1.702 11136
0.089 1.976 1.691 13453
0.089 1.981 1.685 16132
0.090 2.004 1.694 15184
0.091 2.021 1.697 20010
0.091 2.032 1.696 16797
0.092 2.043 1.695 12073
0.092 2.047 1.689 17769
0.092 2.058 1.688 31310
0.093 2.063 1.681 38620
0.092 2.061 1.671 35803
0.093 2.072 1.669 34383
0.093 2.076 1.663 35047
0.093 2.081 1.657 33581
0.094 2.085 1.651 31407
0.094 2.089 1.645 27806
0.094 2.100 1.643 27811
0.094 2.098 1.632 27939
0.094 2.102 1.626 27242
0.095 2.107 1.620 27318
0.095 2.111 1.614 26246
0.095 2.115 1.607 21642
0.095 2.126 1.606 14331
0.102 2.268 1.692 12423
0.102 2.279 1.690 15193
0.103 2.290 1.688 18446
0.103 2.301 1.685 23443
0.103 2.306 1.678 24593
0.104 2.310 1.672 23069
0.104 2.315 1.665 17666
0.104 2.326 1.662 9666
0.105 2.350 1.668 7554
0.106 2.354 1.661 10507
0.106 2.365 1.658 12483
0.107 2.377 1.656 11708
0.107 2.388 1.653 9366
0.108 2.399 1.650 6130
0.111 2.470 1.684 8925
0.111 2.475 1.677 11346
0.111 2.479 1.670 13161
0.112 2.491 1.667 12745
0.112 2.495 1.659 9340
0.114 2.533 1.672 7002
0.114 2.545 1.669 6792
0.117 2.610 1.697 6338
0.117 2.615 1.690 7123
0.118 2.619 1.682 5474
0.119 2.644 1.686 4332
0.119 2.656 1.682 5487
0.119 2.653 1.670 8889
0.119 2.651 1.659 12554
0.119 2.648 1.647 12941
0.119 2.646 1.635 12699
0.119 2.643 1.624 9042
0.119 2.641 1.612 5361
0.122 2.728 1.650 5105
0.125 2.774 1.664 5231
0.125 2.779 1.656 5882
0.129 2.874 1.696 6199
0.129 2.878 1.688 7192
0.129 2.876 1.676 7277
0.129 2.873 1.664 7634
0.132 2.948 1.692 7116
0.132 2.952 1.683 9491
0.132 2.936 1.663 9108
0.132 2.933 1.651 10137
0.132 2.930 1.639 7418
0.131 2.920 1.623 4890
0.137 3.052 1.678 3878
0.137 3.064 1.673 4529
0.138 3.075 1.667 4513
0.139 3.087 1.662 4568
0.138 3.070 1.642 5169
0.138 3.067 1.630 6299
0.138 3.079 1.624 5194
0.141 3.147 1.645 6914
0.142 3.159 1.639 6643
0.142 3.170 1.633 6604
0.142 3.175 1.624 6604
0.143 3.179 1.615 5782
0.143 3.176 1.602 4971
0.143 3.180 1.593 3708
0.147 3.285 1.629 3844
0.147 3.282 1.616 3248
0.153 3.417 1.664 3546
0.154 3.421 1.653 3546
0.154 3.426 1.643 1773
0.031 0.653 1.659 5793
0.032 0.661 1.665 6955
0.032 0.668 1.670 8321
0.032 0.673 1.668 6638
0.032 0.677 1.666 4955
0.033 0.682 1.664 4955
0.032 0.676 1.640 5244
0.033 0.680 1.638 5719
0.033 0.688 1.643 7128
0.033 0.696 1.648 8895
0.034 0.704 1.653 8865
0.034 0.708 1.651 8999
0.034 0.716 1.656 7344
0.035 0.727 1.668 6161
0.035 0.735 1.673 5819
0.036 0.743 1.678 6146
0.036 0.748 1.676 6726
0.036 0.756 1.680 11261
0.037 0.764 1.685 16013
0.037 0.765 1.676 16982
0.037 0.769 1.674 18055
0.037 0.773 1.671 14888
0.037 0.782 1.676 11728
0.038 0.790 1.681 9464
0.039 0.817 1.720 10217
0.039 0.810 1.697 11056
0.039 0.811 1.687 12714
0.039 0.819 1.692 10273
0.040 0.827 1.696 8015
0.041 0.847 1.722 8489
0.041 0.855 1.726 9004
0.041 0.860 1.723 7640
0.041 0.865 1.721 5989
0.041 0.861 1.704 5882
0.042 0.870 1.709 7402
0.042 0.878 1.713 9108
0.042 0.883 1.710 8545
0.043 0.891 1.714 8272
0.043 0.892 1.705 8025
0.043 0.893 1.695 7765
0.043 0.897 1.693 7285
0.043 0.906 1.697 6801
0.044 0.918 1.708 6788
0.044 0.923 1.705 8474
0.045 0.931 1.709 13588
0.045 0.936 1.706 17322
0.045 0.945 1.710 19433
0.045 0.949 1.707 22334
0.046 0.954 1.704 23305
0.046 0.958 1.702 21082
0.046 0.963 1.699 17681
0.046 0.972 1.702 16333
0.047 0.972 1.693 24674
0.047 0.981 1.697 36907
0.047 0.985 1.694 40515
0.047 0.990 1.691 38796
0.047 0.990 1.681 32830
0.047 0.986 1.665 29619
0.048 0.999 1.675 35583
0.048 1.008 1.679 41889
0.049 1.017 1.682 32445
0.049 1.021 1.679 23152
0.049 1.025 1.676 19347
0.049 1.025 1.667 18175
0.049 1.030 1.664 18989
0.049 1.034 1.661 16330
0.050 1.043 1.664 12941
0.050 1.052 1.667 12328
0.051 1.061 1.671 15304
0.051 1.066 1.667 21584
0.051 1.070 1.664 26445
0.052 1.079 1.667 28748
0.052 1.084 1.664 30155
0.052 1.088 1.661 27601
0.052 1.088 1.651 28151
0.052 1.092 1.648 28524
0.052 1.096 1.645 26298
0.053 1.106 1.648 25045
0.053 1.115 1.651 22769
0.053 1.114 1.641 19401
0.053 1.114 1.632 16484
0.057 1.186 1.716 13287
0.057 1.195 1.719 20115
0.057 1.200 1.715 18369
0.058 1.204 1.712 10629
0.059 1.224 1.727 8120
0.059 1.228 1.723 11041
0.059 1.233 1.719 14533
0.059 1.237 1.716 17624
0.059 1.242 1.712 22919
0.060 1.246 1.708 29935
0.060 1.251 1.705 35619
0.060 1.255 1.701 39138
0.060 1.260 1.697 38089
0.061 1.270 1.700 29783
0.061 1.274 1.696 16782
0.061 1.279 1.692 13355
0.061 1.283 1.688 13082
0.062 1.293 1.690 8010
0.063 1.318 1.711 8120
0.063 1.317 1.701 10639
0.063 1.322 1.697 10229
0.064 1.331 1.699 9610
0.063 1.320 1.677 11084
0.063 1.325 1.673 16868
0.064 1.329 1.669 24324
0.064 1.334 1.665 25319
0.064 1.338 1.661 16885
0.064 1.337 1.651 9053
0.064 1.336 1.641 8482
0.064 1.346 1.643 13341
0.065 1.350 1.639 24319
0.065 1.349 1.629 33551
0.065 1.354 1.625 34997
0.065 1.363 1.627 21599
0.066 1.378 1.635 11461
0.066 1.383 1.631 11489
0.066 1.382 1.621 17168
0.066 1.386 1.617 21483
0.067 1.396 1.618 15927
0.070 1.455 1.671 8870
0.067 1.404 1.610 8942
0.069 1.436 1.634 13179
0.069 1.452 1.641 16165
0.069 1.445 1.625 13470
0.073 1.516 1.688 12294
0.073 1.521 1.684 11775
0.073 1.520 1.674 19772
0.074 1.541 1.686 31594
0.074 1.551 1.687 31046
0.075 1.567 1.693 32537
0.076 1.588 1.705 44844
0.076 1.599 1.706 35040
0.076 1.597 1.696 26776
0.077 1.608 1.696 30171
0.077 1.612 1.692 26916
0.078 1.628 1.698 20481
0.078 1.633 1.693 11774
0.079 1.643 1.693 9832
0.079 1.653 1.694 12058
0.080 1.664 1.694 13178
0.080 1.674 1.695 11089
0.081 1.696 1.706 11361
0.081 1.695 1.695 27603
0.081 1.699 1.690 42071
0.082 1.704 1.685 41216
0.082 1.708 1.680 38973
0.082 1.719 1.680 39527
0.083 1.729 1.680 37861
0.083 1.739 1.681 23001
0.084 1.750 1.681 17089
0.084 1.754 1.675 20526
0.084 1.759 1.670 17100
0.085 1.775 1.675 15210
0.085 1.780 1.670 10830
0.087 1.808 1.685 8846
0.087 1.819 1.685 10339
0.088 1.836 1.689 15889
0.088 1.846 1.689 18977
0.089 1.851 1.684 13071
0.089 1.867 1.688 10811
0.090 1.878 1.688 14748
0.090 1.883 1.682 16837
0.090 1.881 1.672 13531
0.090 1.885 1.666 8377
0.094 1.958 1.714 10455
0.094 1.963 1.709 14363
0.094 1.967 1.703 12394
0.095 1.978 1.702 10666
0.095 1.982 1.696 11636
0.094 1.974 1.680 13569
0.096 2.004 1.694 13753
0.097 2.021 1.697 18422
0.097 2.032 1.696 15890
0.098 2.043 1.695 10628
0.098 2.047 1.689 15855
0.098 2.058 1.688 30652
0.099 2.063 1.681 39099
0.099 2.061 1.671 36037
0.099 2.071 1.669 33319
0.099 2.076 1.663 34256
0.100 2.080 1.657 33925
0.100 2.085 1.651 33119
0.100 2.089 1.645 30199
0.100 2.100 1.643 29118
0.100 2.098 1.632 27498
0.101 2.102 1.626 25920
0.101 2.106 1.620 25906
0.101 2.111 1.614 24915
0.101 2.115 1.607 20725
0.102 2.126 1.606 13795
0.108 2.261 1.688 12127
0.109 2.272 1.685 14400
0.109 2.283 1.683 17139
0.110 2.301 1.685 21710
0.110 2.305 1.678 22883
0.111 2.310 1.672 21088
0.111 2.314 1.665 15261
0.111 2.325 1.662 8356
0.112 2.350 1.668 7875
0.113 2.354 1.661 10505
0.113 2.365 1.658 11984
0.114 2.383 1.660 11330
0.114 2.387 1.653 9589
0.114 2.392 1.646 6600
0.118 2.470 1.684 8287
0.118 2.475 1.677 10476
0.119 2.486 1.674 12468
0.119 2.490 1.667 12379
0.119 2.495 1.659 9425
0.121 2.533 1.672 7229
0.122 2.551 1.673 7237
0.124 2.596 1.689 6430
0.125 2.608 1.686 7165
0.125 2.612 1.678 5502
0.127 2.644 1.686 4534
0.127 2.649 1.678 5615
0.127 2.646 1.666 9041
0.127 2.651 1.659 12608
0.127 2.648 1.647 13304
0.127 2.645 1.635 13168
0.127 2.650 1.628 9343
0.128 2.675 1.631 5396
0.131 2.735 1.654 5794
0.132 2.760 1.657 5475
0.133 2.771 1.652 5773
0.137 2.873 1.696 5881
0.138 2.878 1.688 6898
0.138 2.882 1.680 7280
0.138 2.880 1.667 7744
0.141 2.947 1.692 7734
0.141 2.952 1.683 10023
0.141 2.949 1.671 9530
0.141 2.940 1.655 10124
0.141 2.937 1.643 7261
0.140 2.927 1.627 4540
0.146 3.052 1.678 4262
0.146 3.056 1.669 5011
0.147 3.075 1.667 4863
0.148 3.086 1.662 4937
0.147 3.069 1.642 5632
0.147 3.067 1.630 6689
0.147 3.078 1.624 5458
0.151 3.147 1.645 7004
0.151 3.158 1.639 6836
0.152 3.170 1.633 6913
0.152 3.174 1.624 6913
0.152 3.178 1.615 6017
0.152 3.175 1.602 5132
0.152 3.180 1.593 3852
0.157 3.285 1.629 3397
0.157 3.289 1.619 2817
0.163 3.417 1.664 3374
0.164 3.421 1.653 3374
0.164 3.425 1.643 1687
0.032 0.653 1.659 6068
0.033 0.661 1.665 7122
0.033 0.668 1.670 8534
0.033 0.673 1.668 6740
0.034 0.680 1.673 4968
0.034 0.685 1.671 4968
0.034 0.679 1.647 4838
0.034 0.680 1.638 5194
0.034 0.688 1.643 6239
0.034 0.692 1.641 7406
0.035 0.704 1.653 7622
0.035 0.711 1.658 8120
0.036 0.719 1.663 6920
0.036 0.731 1.675 6488
0.036 0.735 1.673 6322
0.037 0.743 1.678 6545
0.037 0.748 1.676 6921
0.037 0.756 1.680 11459
0.038 0.764 1.685 16263
0.038 0.764 1.676 17116
0.038 0.769 1.674 18060
0.038 0.773 1.671 14550
0.038 0.778 1.669 11039
0.039 0.793 1.688 9114
0.040 0.813 1.713 10330
0.040 0.810 1.697 11058
0.040 0.811 1.687 12371
0.040 0.819 1.692 9994
0.042 0.842 1.724 7942
0.042 0.847 1.722 8559
0.042 0.855 1.726 8826
0.042 0.860 1.723 7166
0.043 0.865 1.721 5503
0.043 0.861 1.704 5603
0.043 0.870 1.709 7304
0.043 0.878 1.713 9121
0.044 0.887 1.717 8488
0.044 0.891 1.714 8198
0.044 0.892 1.705 8128
0.044 0.892 1.695 8132
0.044 0.897 1.693 7576
0.045 0.906 1.697 6805
0.046 0.922 1.714 6914
0.046 0.923 1.705 8760
0.046 0.931 1.709 13799
0.046 0.936 1.706 17330
0.047 0.945 1.710 18970
0.047 0.949 1.707 21369
0.047 0.954 1.704 22284
0.047 0.958 1.702 20815
0.048 0.963 1.699 18209
0.048 0.972 1.702 16870
0.048 0.972 1.693 25289
0.048 0.981 1.697 38646
0.049 0.985 1.694 43083
0.049 0.990 1.691 42022
0.049 0.990 1.681 35461
0.049 0.990 1.672 30581
0.049 0.999 1.675 35214
0.050 1.008 1.679 40569
0.050 1.016 1.682 32878
0.050 1.021 1.679 24938
0.051 1.025 1.676 19944
0.051 1.025 1.667 17743
0.051 1.025 1.657 18553
0.051 1.030 1.654 15486
0.051 1.039 1.657 11878
0.052 1.048 1.661 10198
0.052 1.061 1.671 12826
0.053 1.066 1.667 19014
0.053 1.070 1.664 23563
0.053 1.079 1.667 26199
0.054 1.083 1.664 28596
0.054 1.088 1.661 26805
0.054 1.088 1.651 27572
0.054 1.092 1.648 28298
0.054 1.096 1.645 25602
0.055 1.105 1.648 23682
0.055 1.115 1.651 21555
0.055 1.114 1.641 18687
0.055 1.114 1.632 16065
0.059 1.190 1.722 14292
0.059 1.195 1.719 22153
0.059 1.200 1.715 20304
0.060 1.209 1.718 11607
0.060 1.223 1.727 9613
0.061 1.228 1.723 14091
0.061 1.233 1.719 18374
0.061 1.237 1.716 21512
0.061 1.242 1.712 26382
0.062 1.246 1.708 32886
0.062 1.251 1.705 37660
0.062 1.255 1.701 39595
0.062 1.260 1.697 37565
0.063 1.270 1.700 29055
0.063 1.274 1.696 16822
0.063 1.279 1.692 14994
0.063 1.283 1.688 15211
0.064 1.293 1.690 9851
0.065 1.318 1.711 9113
0.065 1.322 1.707 10862
0.066 1.327 1.703 10882
0.066 1.331 1.699 10867
0.065 1.325 1.683 10900
0.065 1.325 1.673 14981
0.066 1.329 1.669 22188
0.066 1.334 1.665 24454
0.066 1.338 1.661 17250
0.066 1.337 1.651 9310
0.066 1.336 1.641 10265
0.066 1.346 1.643 17149
0.067 1.350 1.639 28497
0.067 1.354 1.635 36485
0.067 1.353 1.625 36632
0.067 1.363 1.627 23354
0.068 1.378 1.635 11593
0.068 1.383 1.631 10082
0.068 1.381 1.621 16340
0.069 1.391 1.622 20955
0.069 1.396 1.618 15181
0.072 1.455 1.671 9127
0.070 1.421 1.627 8569
0.071 1.430 1.628 14163
0.072 1.451 1.641 15886
0.072 1.456 1.637 11358
0.075 1.510 1.683 12002
0.075 1.515 1.678 12611
0.075 1.519 1.674 19783
0.076 1.541 1.686 30824
0.077 1.551 1.687 28911
0.078 1.572 1.699 27673
0.078 1.588 1.705 43791
0.079 1.599 1.706 37037
0.079 1.603 1.701 27970
0.079 1.608 1.696 29591
0.080 1.612 1.692 27356
0.080 1.628 1.698 21485
0.081 1.638 1.698 11808
0.081 1.649 1.699 10257
0.082 1.653 1.694 12164
0.082 1.664 1.694 12739
0.083 1.674 1.695 14347
0.083 1.690 1.700 16600
0.084 1.695 1.695 29758
0.084 1.699 1.690 41330
0.084 1.704 1.685 40431
0.084 1.708 1.680 38772
0.085 1.719 1.680 41382
0.085 1.729 1.680 42563
0.086 1.739 1.681 25823
0.086 1.744 1.675 14873
0.087 1.754 1.675 16458
0.087 1.765 1.675 14983
0.088 1.775 1.675 14046
0.088 1.780 1.670 9177
0.090 1.814 1.690 8533
0.090 1.825 1.690 10086
0.091 1.835 1.689 14103
0.091 1.846 1.689 17859
0.091 1.851 1.684 13434
0.092 1.861 1.683 9655
0.093 1.878 1.688 13099
0.093 1.882 1.682 15606
0.093 1.881 1.672 12838
0.093 1.885 1.666 8115
0.097 1.958 1.714 12517
0.097 1.962 1.709 15783
0.097 1.967 1.703 12578
0.098 1.978 1.702 9877
0.098 1.982 1.696 9190
0.097 1.974 1.680 10157
0.099 2.004 1.694 11885
0.100 2.021 1.697 16539
0.100 2.032 1.696 14938
0.101 2.036 1.690 9817
0.101 2.047 1.689 14409
0.102 2.058 1.688 29594
0.102 2.062 1.681 38482
0.102 2.060 1.671 35231
0.102 2.071 1.669 31192
0.103 2.076 1.663 31985
0.103 2.080 1.657 32530
0.103 2.084 1.651 32776
0.103 2.089 1.645 30716
0.104 2.100 1.643 29134
0.104 2.098 1.632 26105
0.104 2.102 1.626 23635
0.104 2.106 1.620 23355
0.104 2.110 1.614 22294
0.104 2.115 1.607 18665
0.105 2.125 1.606 12465
0.111 2.254 1.683 12421
0.112 2.265 1.681 13730
0.113 2.283 1.683 15947
0.114 2.301 1.685 19986
0.114 2.312 1.683 21457
0.114 2.316 1.676 19289
0.115 2.321 1.669 13026
0.116 2.345 1.675 7574
0.116 2.356 1.672 8499
0.116 2.354 1.661 10491
0.117 2.365 1.658 11351
0.118 2.389 1.664 11045
0.118 2.387 1.653 9844
0.118 2.392 1.646 7124
0.122 2.477 1.689 7910
0.123 2.481 1.681 9608
0.123 2.486 1.674 11522
0.123 2.490 1.667 11740
0.123 2.494 1.659 9496
0.122 2.465 1.632 7407
0.126 2.558 1.677 7616
0.128 2.589 1.685 6771
0.128 2.601 1.682 7341
0.129 2.612 1.678 5557
0.130 2.637 1.682 4672
0.131 2.648 1.678 5688
0.131 2.646 1.666 9046
0.131 2.650 1.659 12464
0.131 2.648 1.647 13420
0.131 2.645 1.635 13282
0.131 2.650 1.628 9512
0.132 2.675 1.631 5424
0.135 2.735 1.654 6317
0.136 2.753 1.653 5887
0.137 2.764 1.649 5863
0.142 2.873 1.696 5552
0.142 2.878 1.688 6555
0.142 2.882 1.680 7242
0.143 2.887 1.671 7929
0.146 2.947 1.692 7979
0.146 2.952 1.683 10084
0.146 2.949 1.671 9728
0.145 2.939 1.655 10145
0.145 2.944 1.646 7314
0.145 2.934 1.630 4573
0.150 3.044 1.675 4696
0.150 3.042 1.662 5661
0.151 3.053 1.657 5419
0.152 3.086 1.662 5375
0.152 3.069 1.642 6148
0.152 3.074 1.633 7113
0.152 3.078 1.624 5699
0.155 3.147 1.645 7103
0.156 3.158 1.639 7056
0.157 3.170 1.633 7243
0.157 3.174 1.624 7243
0.157 3.178 1.615 6233
0.157 3.182 1.605 5223
0.157 3.179 1.593 3936
0.163 3.292 1.632 3174
0.155 3.144 1.555 2786
0.169 3.416 1.664 3218
0.169 3.421 1.653 3218
0.169 3.425 1.643 1609
0.034 0.653 1.659 6821
0.035 0.660 1.665 7455
0.035 0.668 1.670 8632
0.035 0.676 1.675 6785
0.036 0.697 1.709 5139
0.037 0.698 1.700 5104
0.036 0.682 1.654 4576
0.036 0.683 1.645 4769
0.036 0.688 1.643 5444
0.036 0.692 1.641 6118
0.037 0.703 1.653 6579
0.037 0.711 1.658 7568
0.038 0.723 1.670 6842
0.038 0.731 1.675 6837
0.039 0.739 1.680 6757
0.039 0.743 1.678 6898
0.039 0.744 1.669 7141
0.040 0.755 1.680 11739
0.040 0.764 1.685 16681
0.040 0.768 1.683 17526
0.040 0.769 1.674 18447
0.040 0.773 1.671 14515
0.041 0.778 1.669 10583
0.041 0.790 1.681 9003
0.043 0.813 1.713 10487
0.042 0.810 1.697 11112
0.043 0.814 1.694 12159
0.043 0.819 1.692 9872
0.044 0.842 1.724 7886
0.044 0.847 1.722 8503
0.045 0.851 1.719 8523
0.045 0.860 1.723 6549
0.045 0.864 1.721 4903
0.045 0.861 1.704 5235
0.046 0.870 1.709 7029
0.046 0.878 1.713 8874
0.046 0.883 1.710 8164
0.047 0.895 1.721 7824
0.047 0.892 1.705 7896
0.047 0.892 1.695 7869
0.047 0.897 1.693 7101
0.048 0.909 1.704 6464
0.048 0.922 1.714 6908
0.048 0.923 1.705 8879
0.049 0.931 1.709 13828
0.049 0.936 1.706 17086
0.049 0.945 1.710 18399
0.050 0.949 1.707 20441
0.050 0.954 1.704 21287
0.050 0.958 1.702 20423
0.050 0.963 1.699 18639
0.051 0.971 1.702 17383
0.051 0.976 1.700 25563
0.051 0.980 1.697 39612
0.052 0.985 1.694 44799
0.052 0.989 1.691 44394
0.052 0.990 1.681 37400
0.052 0.990 1.672 30912
0.052 0.999 1.675 34006
0.053 1.007 1.679 38318
0.053 1.016 1.682 32841
0.053 1.021 1.679 26507
0.054 1.025 1.676 20502
0.054 1.025 1.667 17268
0.054 1.025 1.657 18063
0.054 1.030 1.654 14847
0.054 1.034 1.651 10989
0.055 1.043 1.654 8491
0.056 1.066 1.677 10708
0.056 1.065 1.667 16529
0.056 1.070 1.664 20770
0.056 1.079 1.667 23642
0.057 1.083 1.664 26628
0.057 1.088 1.661 25255
0.057 1.087 1.651 26042
0.057 1.092 1.648 27094
0.057 1.096 1.645 24469
0.058 1.105 1.648 22237
0.058 1.114 1.651 20198
0.058 1.114 1.641 17623
0.059 1.118 1.638 15399
0.062 1.190 1.722 15170
0.063 1.200 1.725 23827
0.063 1.204 1.721 21950
0.063 1.209 1.718 12907
0.064 1.223 1.727 11765
0.064 1.228 1.723 17508
0.065 1.232 1.719 22045
0.065 1.237 1.716 25020
0.065 1.242 1.712 29475
0.065 1.246 1.708 35341
0.065 1.251 1.705 38876
0.066 1.255 1.701 39077
0.066 1.260 1.697 36151
0.066 1.269 1.700 27845
0.067 1.274 1.696 16821
0.067 1.278 1.692 16772
0.067 1.283 1.688 17331
0.067 1.287 1.684 12260
0.069 1.312 1.705 10403
0.069 1.322 1.707 10778
0.069 1.327 1.703 11377
0.069 1.326 1.693 11894
0.069 1.325 1.683 10779
0.069 1.324 1.673 14122
0.070 1.329 1.669 20956
0.070 1.333 1.665 23651
0.070 1.338 1.661 17286
0.070 1.337 1.651 9572
0.070 1.336 1.641 11213
0.070 1.346 1.643 20327
0.071 1.350 1.639 31757
0.071 1.354 1.635 36968
0.071 1.353 1.625 35422
0.071 1.363 1.627 24235
0.072 1.378 1.635 12246
0.072 1.382 1.631 8646
0.072 1.381 1.621 14860
0.073 1.386 1.617 19424
0.073 1.401 1.624 13262
0.076 1.449 1.665 8996
0.074 1.420 1.627 9611
0.075 1.425 1.623 15077
0.076 1.451 1.641 14753
0.077 1.467 1.648 10985
0.079 1.505 1.677 12257
0.079 1.509 1.673 14134
0.080 1.519 1.674 19350
0.081 1.541 1.686 29110
0.081 1.551 1.687 26837
0.083 1.578 1.704 24929
0.083 1.588 1.705 42743
0.084 1.598 1.706 39769
0.084 1.603 1.701 30343
0.084 1.607 1.696 29429
0.084 1.612 1.692 27355
0.085 1.628 1.698 21414
0.086 1.638 1.698 12190
0.087 1.654 1.704 12313
0.087 1.653 1.694 13284
0.087 1.663 1.694 12477
0.088 1.674 1.695 17200
0.088 1.690 1.700 22795
0.089 1.694 1.695 32216
0.089 1.699 1.690 39241
0.089 1.703 1.685 38705
0.089 1.708 1.680 37200
0.090 1.718 1.680 40673
0.091 1.729 1.680 44593
0.091 1.739 1.681 28588
0.091 1.744 1.675 14766
0.092 1.754 1.675 13758
0.092 1.764 1.675 13590
0.093 1.769 1.670 12816
0.093 1.779 1.670 7673
0.095 1.814 1.690 8350
0.095 1.819 1.685 9672
0.096 1.835 1.689 12168
0.097 1.846 1.689 15509
0.097 1.844 1.679 12456
0.097 1.861 1.683 8179
0.099 1.884 1.693 11297
0.099 1.882 1.682 14030
0.098 1.880 1.672 11821
0.099 1.885 1.666 7650
0.103 1.964 1.719 13772
0.103 1.962 1.709 16424
0.103 1.973 1.708 12926
0.104 1.977 1.702 9473
0.103 1.976 1.691 6959
0.103 1.974 1.680 6818
0.105 2.010 1.699 9547
0.106 2.021 1.697 14107
0.106 2.025 1.691 14190
0.107 2.036 1.690 9807
0.107 2.047 1.689 13680
0.108 2.058 1.688 28366
0.108 2.062 1.681 37156
0.108 2.060 1.671 33792
0.108 2.065 1.665 28407
0.109 2.075 1.663 28332
0.109 2.080 1.657 29361
0.109 2.084 1.651 30217
0.109 2.089 1.645 29260
0.110 2.099 1.643 27959
0.110 2.097 1.632 24129
0.110 2.095 1.622 20999
0.110 2.106 1.620 20348
0.110 2.110 1.614 19207
0.111 2.114 1.607 16279
0.111 2.125 1.606 10920
0.118 2.254 1.683 12877
0.118 2.258 1.677 13537
0.119 2.276 1.679 15238
0.120 2.300 1.685 18481
0.121 2.311 1.683 20120
0.122 2.322 1.680 17716
0.122 2.327 1.673 11750
0.123 2.351 1.679 8401
0.123 2.356 1.672 9651
0.124 2.360 1.665 10827
0.124 2.371 1.663 10880
0.125 2.389 1.664 10938
0.125 2.387 1.653 10020
0.125 2.384 1.642 7435
0.130 2.476 1.689 7995
0.130 2.481 1.681 9077
0.130 2.485 1.674 10682
0.130 2.490 1.667 11206
0.131 2.494 1.659 9611
0.129 2.471 1.636 8632
0.130 2.476 1.628 8882
0.135 2.582 1.681 7191
0.136 2.600 1.682 7570
0.136 2.605 1.674 5654
0.138 2.637 1.682 4712
0.138 2.641 1.674 5784
0.139 2.646 1.666 8961
0.139 2.650 1.659 12138
0.139 2.647 1.647 13355
0.139 2.652 1.639 13324
0.139 2.656 1.631 9633
0.143 2.723 1.658 5447
0.144 2.741 1.657 6745
0.144 2.752 1.653 6338
0.145 2.764 1.649 6093
0.145 2.768 1.641 5466
0.151 2.877 1.688 6180
0.151 2.882 1.680 7090
0.151 2.893 1.675 8035
0.154 2.947 1.692 7793
0.155 2.951 1.683 9652
0.154 2.949 1.671 9583
0.154 2.946 1.658 10112
0.154 2.950 1.650 7490
0.155 2.962 1.645 4887
0.159 3.030 1.668 5347
0.159 3.034 1.659 6328
0.159 3.046 1.653 6044
0.162 3.086 1.662 5831
0.161 3.069 1.642 6665
0.161 3.073 1.633 7528
0.161 3.077 1.624 5907
0.165 3.146 1.645 7164
0.165 3.158 1.639 7222
0.166 3.169 1.633 7493
0.166 3.173 1.624 7493
0.166 3.178 1.615 6368
0.167 3.182 1.605 5242
0.166 3.179 1.593 3950
0.173 3.299 1.635 3153
0.165 3.144 1.555 2925
0.179 3.416 1.664 2979
0.179 3.420 1.653 2979
0.179 3.425 1.643 1489
0.035 0.653 1.659 7893
0.036 0.660 1.665 8000
0.036 0.668 1.670 8544
0.036 0.676 1.675 6646
0.038 0.697 1.709 5236
0.038 0.698 1.700 5190
0.037 0.686 1.662 4592
0.037 0.683 1.645 4761
0.037 0.688 1.643 4901
0.037 0.689 1.634 5075
0.038 0.703 1.653 5803
0.039 0.715 1.665 7253
0.039 0.723 1.670 7120
0.039 0.730 1.675 7465
0.040 0.738 1.680 7490
0.040 0.743 1.678 7417
0.040 0.740 1.661 7602
0.041 0.755 1.680 11969
0.041 0.763 1.685 16903
0.041 0.768 1.683 17833
0.041 0.769 1.674 18771
0.042 0.773 1.671 14519
0.042 0.778 1.669 10267
0.043 0.789 1.681 9082
0.044 0.809 1.706 10663
0.044 0.810 1.697 11220
0.044 0.810 1.687 12007
0.044 0.819 1.692 9810
0.045 0.827 1.696 7720
0.045 0.835 1.701 8359
0.046 0.851 1.719 8162
0.046 0.860 1.723 5950
0.046 0.860 1.714 4296
0.046 0.861 1.704 4593
0.047 0.870 1.709 6354
0.047 0.874 1.706 8173
0.048 0.883 1.710 7544
0.048 0.895 1.721 7314
0.048 0.892 1.705 7426
0.048 0.892 1.695 7194
0.048 0.897 1.693 6195
0.049 0.913 1.710 6231
0.050 0.922 1.714 7146
0.050 0.923 1.705 9393
0.050 0.931 1.709 14300
0.050 0.936 1.706 17272
0.051 0.944 1.710 17887
0.051 0.949 1.707 19146
0.051 0.954 1.704 19757
0.052 0.958 1.702 19696
0.052 0.963 1.699 18957
0.052 0.971 1.702 17820
0.053 0.976 1.700 25811
0.053 0.980 1.697 40299
0.053 0.985 1.694 46088
0.053 0.989 1.691 46260
0.053 0.990 1.681 38888
0.053 0.990 1.672 30823
0.054 0.998 1.675 32186
0.054 1.007 1.679 35391
0.055 1.016 1.682 32578
0.055 1.021 1.679 28068
0.055 1.025 1.676 21062
0.055 1.030 1.673 16608
0.055 1.025 1.657 17124
0.055 1.029 1.654 13879
0.056 1.034 1.651 10182
0.056 1.038 1.648 7310
0.058 1.070 1.683 9045
0.057 1.065 1.667 14162
0.058 1.070 1.664 18070
0.058 1.074 1.661 21015
0.058 1.083 1.664 24182
0.059 1.088 1.661 23152
0.059 1.087 1.651 24106
0.059 1.092 1.648 25426
0.059 1.096 1.645 22813
0.060 1.110 1.654 20403
0.060 1.119 1.657 18624
0.060 1.119 1.648 16255
0.060 1.118 1.638 14552
0.064 1.195 1.729 16011
0.065 1.200 1.725 25056
0.065 1.204 1.721 23173
0.065 1.209 1.718 14461
0.066 1.223 1.727 14361
0.066 1.228 1.723 20776
0.066 1.232 1.719 24754
0.067 1.237 1.716 27295
0.067 1.241 1.712 31528
0.067 1.246 1.708 36852
0.067 1.251 1.705 39053
0.068 1.255 1.701 37613
0.068 1.260 1.697 33945
0.068 1.269 1.700 26012
0.069 1.274 1.696 16620
0.069 1.278 1.692 18339
0.069 1.283 1.688 19166
0.069 1.287 1.684 14562
0.070 1.302 1.692 12379
0.071 1.317 1.701 10422
0.071 1.321 1.697 11694
0.071 1.326 1.693 12790
0.071 1.325 1.683 10846
0.072 1.330 1.679 13748
0.072 1.329 1.669 20194
0.072 1.333 1.665 22774
0.072 1.338 1.661 16737
0.072 1.331 1.645 9634
0.072 1.341 1.647 11525
0.073 1.345 1.643 21796
0.073 1.350 1.639 32609
0.073 1.354 1.635 35450
0.073 1.358 1.631 33028
0.073 1.363 1.627 24642
0.074 1.378 1.635 14070
0.075 1.382 1.631 8206
0.074 1.381 1.621 12700
0.075 1.391 1.622 17265
0.076 1.406 1.630 13150
0.077 1.422 1.637 9790
0.077 1.420 1.627 11943
0.077 1.425 1.623 16816
0.078 1.446 1.635 13721
0.079 1.467 1.648 10826
0.081 1.499 1.671 12126
0.081 1.509 1.673 13604
0.082 1.519 1.674 18231
0.083 1.540 1.686 27669
0.084 1.562 1.698 26325
0.085 1.583 1.710 24968
0.086 1.588 1.705 41442
0.086 1.598 1.706 43414
0.086 1.603 1.701 34219
0.087 1.607 1.696 29445
0.087 1.612 1.692 26301
0.087 1.622 1.692 19984
0.088 1.638 1.698 12583
0.089 1.654 1.704 15709
0.089 1.659 1.699 15799
0.090 1.663 1.694 12399
0.090 1.674 1.695 18855
0.091 1.690 1.700 28410
0.091 1.694 1.695 34640
0.092 1.705 1.696 36750
0.092 1.703 1.685 36201
0.092 1.708 1.680 34120
0.093 1.718 1.680 37587
0.093 1.729 1.680 43997
0.094 1.739 1.681 29735
0.094 1.749 1.681 14906
0.095 1.760 1.681 12023
0.095 1.770 1.680 12291
0.095 1.769 1.670 10712
0.096 1.785 1.675 6110
0.098 1.814 1.690 7748
0.097 1.794 1.664 9500
0.099 1.835 1.689 10039
0.099 1.840 1.684 12152
0.099 1.838 1.674 10190
0.101 1.879 1.698 6841
0.102 1.884 1.693 9339
0.101 1.882 1.682 11905
0.101 1.880 1.672 10416
0.106 1.959 1.725 7956
0.106 1.964 1.719 14284
0.106 1.968 1.713 16561
0.106 1.973 1.708 13577
0.107 1.977 1.702 9609
0.106 1.969 1.686 6341
0.106 1.961 1.671 4820
0.109 2.022 1.708 7181
0.109 2.027 1.702 11643
0.109 2.025 1.691 13822
0.109 2.029 1.685 10391
0.110 2.047 1.689 13334
0.111 2.057 1.688 26857
0.111 2.062 1.681 35027
0.111 2.060 1.671 31899
0.111 2.064 1.665 25316
0.112 2.075 1.663 23842
0.112 2.080 1.657 24933
0.112 2.084 1.651 26036
0.113 2.095 1.649 26545
0.113 2.099 1.643 26108
0.113 2.097 1.632 21884
0.113 2.095 1.622 18162
0.113 2.106 1.620 16899
0.114 2.110 1.614 15358
0.114 2.114 1.607 13185
0.122 2.256 1.694 10239
0.121 2.254 1.683 13221
0.122 2.258 1.677 13508
0.123 2.276 1.679 14807
0.124 2.300 1.685 17401
0.125 2.318 1.687 19020
0.125 2.322 1.680 16841
0.126 2.340 1.682 11996
0.127 2.351 1.679 9731
0.127 2.356 1.672 10946
0.127 2.360 1.665 11247
0.128 2.371 1.663 10414
0.129 2.396 1.668 10738
0.129 2.393 1.657 9988
0.129 2.384 1.642 7730
0.133 2.476 1.689 8547
0.134 2.481 1.681 8644
0.134 2.492 1.678 9648
0.134 2.489 1.667 10371
0.134 2.494 1.659 9440
0.133 2.471 1.636 9270
0.133 2.475 1.628 9717
0.139 2.575 1.677 7448
0.140 2.593 1.678 7727
0.140 2.605 1.674 5779
0.142 2.630 1.678 4773
0.142 2.641 1.674 5911
0.143 2.645 1.666 8744
0.143 2.650 1.659 11578
0.143 2.647 1.647 12930
0.143 2.652 1.639 12981
0.143 2.656 1.631 9482
0.147 2.730 1.662 5775
0.148 2.741 1.657 6992
0.148 2.752 1.653 6618
0.149 2.757 1.645 6267
0.149 2.768 1.641 5668
0.155 2.877 1.688 5788
0.155 2.881 1.680 6902
0.156 2.893 1.675 8148
0.158 2.939 1.688 7394
0.159 2.951 1.683 8932
0.159 2.948 1.671 9248
0.159 2.946 1.658 10011
0.159 2.950 1.650 7691
0.160 2.969 1.648 5557
0.163 3.023 1.664 6091
0.163 3.027 1.655 6949
0.164 3.038 1.650 6725
0.165 3.057 1.648 6560
0.165 3.061 1.639 7310
0.166 3.073 1.633 8069
0.166 3.077 1.624 6190
0.170 3.146 1.645 7101
0.170 3.157 1.639 7234
0.171 3.169 1.633 7560
0.171 3.173 1.624 7560
0.171 3.177 1.615 6383
0.171 3.182 1.605 5207
0.171 3.179 1.593 3954
0.178 3.298 1.635 3287
0.169 3.144 1.555 2993
0.174 3.227 1.581 2898
0.174 3.232 1.571 2886
0.174 3.236 1.562 1443
0.037 0.653 1.659 8956
0.038 0.660 1.665 8628
0.038 0.668 1.670 8474
0.039 0.676 1.675 6666
0.040 0.697 1.709 5701
0.040 0.698 1.700 5698
0.040 0.689 1.669 4829
0.039 0.687 1.652 4890
0.040 0.691 1.650 4542
0.040 0.699 1.655 4222
0.041 0.710 1.667 5669
0.041 0.718 1.672 7749
0.042 0.726 1.677 8062
0.042 0.734 1.682 8604
0.042 0.738 1.680 8663
0.042 0.739 1.671 8486
0.042 0.740 1.661 8680
0.043 0.755 1.680 12831
0.044 0.763 1.685 17874
0.044 0.768 1.683 18849
0.044 0.772 1.681 19824
0.044 0.773 1.671 14989
0.045 0.777 1.669 10228
0.045 0.789 1.681 9653
0.046 0.805 1.699 11399
0.046 0.809 1.697 11965
0.046 0.810 1.687 12716
0.047 0.818 1.692 10220
0.047 0.823 1.689 7909
0.048 0.831 1.694 8496
0.048 0.843 1.705 7722
0.049 0.860 1.723 5172
0.049 0.860 1.714 3505
0.049 0.861 1.704 3577
0.050 0.869 1.709 5271
0.050 0.878 1.713 7057
0.051 0.886 1.717 6536
0.051 0.895 1.721 6391
0.051 0.892 1.705 6291
0.051 0.896 1.702 5672
0.052 0.905 1.706 4770
0.052 0.913 1.710 6040
0.053 0.922 1.714 7622
0.053 0.922 1.705 10212
0.053 0.927 1.702 15122
0.054 0.936 1.706 17674
0.054 0.944 1.710 17580
0.054 0.949 1.707 17752
0.055 0.953 1.704 17793
0.055 0.958 1.702 18888
0.055 0.962 1.699 19765
0.055 0.967 1.696 18960
0.056 0.976 1.700 26249
0.056 0.980 1.697 41088
0.056 0.985 1.694 47676
0.057 0.989 1.691 48637
0.057 0.989 1.681 41067
0.057 0.994 1.678 31550
0.057 0.998 1.675 30387
0.058 1.007 1.679 32404
0.058 1.016 1.682 33087
0.059 1.020 1.679 30840
0.059 1.025 1.676 22726
0.059 1.029 1.673 16272
0.059 1.029 1.664 15432
0.059 1.029 1.654 12014
0.059 1.034 1.651 8946
0.062 1.079 1.706 5949
0.062 1.079 1.696 8060
0.061 1.065 1.667 11781
0.061 1.070 1.664 15295
0.062 1.074 1.661 18204
0.062 1.083 1.664 20954
0.062 1.087 1.661 20451
0.062 1.087 1.651 21760
0.063 1.092 1.648 23042
0.063 1.096 1.645 20484
0.064 1.114 1.661 18732
0.064 1.119 1.657 17120
0.064 1.119 1.648 14567
0.064 1.118 1.638 13002
0.069 1.195 1.729 17618
0.069 1.199 1.725 26453
0.069 1.204 1.721 24404
0.069 1.209 1.718 17053
0.070 1.223 1.727 18703
0.070 1.228 1.723 25211
0.071 1.237 1.726 27406
0.071 1.237 1.716 28879
0.071 1.241 1.712 33180
0.071 1.246 1.708 38316
0.072 1.250 1.705 39143
0.072 1.255 1.701 36027
0.072 1.259 1.697 31628
0.073 1.269 1.700 23744
0.073 1.273 1.696 16339
0.073 1.278 1.692 20007
0.074 1.282 1.688 20894
0.074 1.287 1.684 16875
0.074 1.297 1.686 14631
0.075 1.311 1.695 11028
0.075 1.316 1.691 13013
0.076 1.320 1.687 14010
0.076 1.325 1.683 11500
0.076 1.329 1.679 13994
0.076 1.329 1.669 19328
0.076 1.333 1.665 21544
0.077 1.337 1.661 15795
0.076 1.331 1.645 9345
0.077 1.341 1.647 11599
0.077 1.345 1.643 21879
0.077 1.350 1.639 31163
0.078 1.354 1.635 31363
0.078 1.358 1.631 29089
0.078 1.368 1.633 26245
0.079 1.372 1.629 19002
0.079 1.377 1.625 10893
0.080 1.386 1.626 9840
0.080 1.396 1.628 12939
0.081 1.406 1.630 12575
0.081 1.416 1.631 10396
0.081 1.415 1.621 12701
0.082 1.424 1.623 15677
0.083 1.440 1.630 10960
0.084 1.472 1.653 10152
0.086 1.499 1.671 12221
0.087 1.520 1.684 13320
0.087 1.524 1.679 15617
0.089 1.551 1.697 25469
0.090 1.567 1.703 29913
0.091 1.583 1.710 27355
0.091 1.593 1.711 41400
0.092 1.598 1.706 49367
0.092 1.602 1.701 41293
0.092 1.607 1.696 29882
0.092 1.611 1.692 23617
0.093 1.616 1.687 17309
0.094 1.643 1.704 13064
0.095 1.654 1.704 20428
0.095 1.658 1.699 19557
0.095 1.663 1.694 12056
0.096 1.673 1.695 19401
0.097 1.689 1.700 34142
0.097 1.694 1.695 38075
0.097 1.698 1.690 34275
0.098 1.703 1.685 32589
0.098 1.707 1.680 29322
0.099 1.718 1.680 32213
0.099 1.728 1.680 41041
0.100 1.739 1.681 29521
0.101 1.755 1.686 14672
0.103 1.789 1.706 11846
0.102 1.770 1.680 11414
0.101 1.768 1.670 8798
0.103 1.791 1.680 5609
0.103 1.801 1.680 7120
0.103 1.794 1.664 9169
0.103 1.798 1.659 9200
0.106 1.845 1.689 7748
0.105 1.825 1.664 6234
0.108 1.891 1.708 6488
0.108 1.883 1.693 6836
0.108 1.882 1.682 8388
0.108 1.886 1.676 7861
0.112 1.959 1.725 8979
0.113 1.963 1.719 13852
0.113 1.968 1.713 15925
0.113 1.972 1.708 14730
0.113 1.977 1.702 10615
0.113 1.969 1.686 7456
0.113 1.967 1.676 6114
0.115 2.009 1.699 5395
0.115 2.014 1.693 9711
0.116 2.018 1.687 14546
0.116 2.029 1.685 11687
0.117 2.046 1.689 13474
0.118 2.057 1.688 25375
0.118 2.061 1.681 32524
0.118 2.060 1.671 29896
0.118 2.064 1.665 21790
0.119 2.068 1.658 18505
0.119 2.079 1.657 18929
0.119 2.084 1.651 19881
0.120 2.094 1.649 22491
0.120 2.099 1.643 23349
0.120 2.097 1.632 19183
0.120 2.094 1.622 15132
0.121 2.105 1.620 12932
0.121 2.110 1.614 10767
0.122 2.120 1.612 9434
0.130 2.269 1.703 11781
0.129 2.253 1.683 13644
0.129 2.251 1.672 13721
0.130 2.269 1.674 14915
0.132 2.300 1.685 17360
0.133 2.317 1.687 18829
0.134 2.328 1.685 16866
0.134 2.340 1.682 13335
0.134 2.344 1.675 11458
0.135 2.348 1.668 12328
0.135 2.353 1.661 11626
0.136 2.377 1.667 9900
0.137 2.395 1.668 10387
0.137 2.393 1.657 9900
0.137 2.384 1.642 8037
0.142 2.469 1.684 9157
0.142 2.480 1.681 8232
0.143 2.491 1.678 8336
0.143 2.496 1.671 9187
0.143 2.500 1.663 8861
0.142 2.471 1.636 9258
0.142 2.475 1.628 9877
0.148 2.575 1.677 7601
0.149 2.593 1.678 7967
0.149 2.604 1.674 6103
0.150 2.622 1.674 4988
0.151 2.640 1.674 6012
0.152 2.645 1.666 8524
0.152 2.649 1.659 11036
0.152 2.654 1.651 12398
0.152 2.651 1.639 12360
0.152 2.655 1.631 9129
0.157 2.743 1.669 6336
0.158 2.747 1.661 7444
0.158 2.752 1.653 6939
0.158 2.756 1.645 6435
0.159 2.767 1.641 5709
0.165 2.876 1.688 5509
0.165 2.881 1.680 6819
0.166 2.892 1.675 8301
0.167 2.911 1.673 7332
0.169 2.950 1.683 8089
0.169 2.948 1.671 8909
0.169 2.945 1.658 9987
0.170 2.957 1.653 8027
0.172 3.003 1.666 6413
0.173 3.015 1.661 7164
0.174 3.026 1.655 7983
0.174 3.031 1.646 7844
0.175 3.049 1.644 7770
