0.299 1.858 1.698 5609
0.301 1.868 1.698 4797
0.304 1.891 1.707 3894
0.310 1.926 1.726 5452
0.310 1.925 1.715 7977
0.308 1.917 1.700 12655
0.310 1.927 1.699 13453
0.313 1.944 1.703 10581
0.314 1.949 1.697 6918
0.317 1.972 1.706 6476
0.320 1.989 1.709 7937
0.323 2.006 1.713 8076
0.323 2.010 1.707 9252
0.324 2.015 1.701 8285
0.327 2.032 1.704 4860
0.328 2.036 1.698 4330
0.328 2.040 1.692 6756
0.330 2.051 1.691 10449
0.332 2.062 1.689 12378
0.335 2.079 1.692 10487
0.337 2.096 1.696 8061
0.337 2.094 1.685 7204
0.339 2.105 1.683 6829
0.343 2.129 1.690 6894
0.346 2.152 1.698 7513
0.349 2.169 1.700 6685
0.349 2.168 1.689 5375
0.349 2.166 1.678 4984
0.349 2.170 1.672 5856
0.349 2.168 1.661 5349
0.351 2.179 1.659 4290
0.351 2.183 1.652 4616
0.351 2.181 1.641 5167
0.368 2.289 1.705 5522
0.369 2.294 1.698 6507
0.368 2.285 1.683 5719
0.370 2.296 1.680 5414
0.371 2.307 1.678 4785
0.382 2.371 1.709 6077
0.383 2.382 1.707 6637
0.386 2.399 1.708 5303
0.389 2.417 1.709 5671
0.390 2.422 1.702 6970
0.390 2.426 1.695 7219
0.391 2.430 1.688 6097
0.392 2.435 1.680 4725
0.396 2.459 1.685 5204
0.396 2.464 1.678 6834
0.397 2.468 1.671 7530
0.397 2.466 1.659 5928
0.398 2.470 1.652 3362
0.400 2.488 1.653 2380
0.402 2.499 1.649 1945
0.424 2.632 1.718 2025
0.418 2.595 1.686 2513
0.417 2.593 1.674 4127
0.419 2.604 1.670 4605
0.422 2.622 1.670 4536
0.423 2.627 1.663 4669
0.423 2.631 1.655 4075
0.424 2.635 1.647 3369
0.427 2.653 1.647 3140
0.430 2.671 1.646 2383
0.435 2.703 1.654 1836
0.437 2.714 1.649 1977
0.439 2.725 1.645 2217
0.438 2.723 1.633 1833
0.463 2.879 1.707 2216
0.464 2.884 1.698 2646
0.465 2.888 1.689 3077
0.467 2.899 1.684 2752
0.468 2.911 1.679 2475
0.468 2.908 1.667 2362
0.469 2.913 1.658 2252
0.472 2.931 1.657 2309
0.476 2.956 1.659 2660
0.476 2.960 1.650 3269
0.478 2.972 1.645 3888
0.482 2.997 1.646 2974
0.488 3.030 1.651 2498
0.493 3.062 1.656 2361
0.495 3.073 1.650 2518
0.495 3.078 1.641 1923
0.503 3.124 1.652 1350
0.504 3.129 1.643 1839
0.504 3.133 1.633 2328
0.505 3.137 1.624 2328
0.504 3.134 1.611 2012
0.517 3.210 1.635 1909
0.517 3.214 1.625 1882
0.517 3.211 1.613 1873
0.535 3.323 1.651 1559
0.535 3.327 1.641 1745
0.536 3.331 1.631 1745
0.537 3.335 1.621 872
0.109 0.661 1.695 14232
0.109 0.665 1.693 16895
0.110 0.670 1.691 19559
0.111 0.678 1.697 22215
0.113 0.685 1.702 25433
0.113 0.690 1.700 25433
0.114 0.694 1.697 20621
0.116 0.702 1.702 15826
0.116 0.706 1.700 12376
0.118 0.718 1.712 9041
0.119 0.722 1.710 10783
0.120 0.730 1.715 12576
0.120 0.731 1.706 12763
0.121 0.736 1.704 12120
0.122 0.740 1.701 11241
0.122 0.741 1.692 9091
0.122 0.742 1.683 7335
0.123 0.746 1.680 6685
0.124 0.754 1.685 6202
0.125 0.759 1.683 5529
0.126 0.763 1.681 4856
0.131 0.797 1.734 6058
0.132 0.801 1.732 9291
0.133 0.806 1.730 14428
0.133 0.807 1.720 19675
0.133 0.811 1.718 21097
0.134 0.812 1.708 22574
0.134 0.816 1.706 20959
0.135 0.821 1.703 19345
0.136 0.829 1.708 23989
0.137 0.834 1.705 28934
0.138 0.838 1.703 27770
0.139 0.843 1.700 21636
0.139 0.847 1.697 16874
0.140 0.852 1.695 11843
0.141 0.860 1.699 7043
0.142 0.864 1.697 7159
0.142 0.861 1.680 7753
0.143 0.869 1.684 7679
0.146 0.890 1.709 10284
0.147 0.894 1.706 12707
0.149 0.903 1.710 11136
0.149 0.907 1.708 9829
0.151 0.916 1.712 8021
0.151 0.920 1.709 10561
0.152 0.925 1.706 14731
0.153 0.929 1.703 18910
0.154 0.934 1.701 24146
0.155 0.942 1.704 25253
0.156 0.947 1.702 23378
0.157 0.955 1.705 18750
0.159 0.964 1.709 17851
0.159 0.969 1.706 19944
0.161 0.977 1.710 19030
0.162 0.982 1.707 17834
0.161 0.978 1.691 20049
0.162 0.982 1.688 29909
0.163 0.991 1.691 36431
0.163 0.991 1.682 33918
0.165 1.004 1.692 38658
0.166 1.009 1.689 45051
0.167 1.013 1.686 42907
0.168 1.022 1.689 31615
0.170 1.031 1.693 23308
0.170 1.035 1.690 20711
0.171 1.040 1.686 15630
0.173 1.049 1.690 10996
0.175 1.067 1.706 13381
0.176 1.071 1.703 22340
0.178 1.080 1.706 23697
0.179 1.089 1.709 19723
0.180 1.094 1.706 16154
0.181 1.103 1.709 13821
0.182 1.107 1.706 10907
0.181 1.102 1.690 10488
0.183 1.111 1.693 12250
0.184 1.116 1.689 12258
0.184 1.120 1.686 11361
0.186 1.129 1.689 11579
0.188 1.143 1.698 10242
0.188 1.143 1.688 7492
0.189 1.147 1.685 7286
0.191 1.161 1.694 7574
0.192 1.166 1.690 8386
0.194 1.180 1.699 9699
0.196 1.194 1.708 15045
0.198 1.204 1.711 18192
0.199 1.208 1.707 17780
0.199 1.212 1.703 17083
0.200 1.217 1.700 14107
0.200 1.217 1.690 9516
0.199 1.211 1.674 7225
0.204 1.240 1.701 7123
0.206 1.255 1.709 11079
0.207 1.259 1.706 11820
0.208 1.264 1.702 10606
0.211 1.283 1.716 11756
0.212 1.288 1.712 17378
0.213 1.292 1.708 21320
0.214 1.302 1.711 20179
0.214 1.301 1.701 18576
0.216 1.311 1.703 14837
0.217 1.320 1.705 14699
0.218 1.325 1.701 11179
0.214 1.304 1.667 4599
0.216 1.313 1.669 4772
0.218 1.323 1.671 6831
0.222 1.348 1.691 10053
0.223 1.358 1.692 11506
0.225 1.367 1.694 12856
0.227 1.382 1.702 15266
0.230 1.397 1.709 21084
0.232 1.407 1.711 26309
0.232 1.412 1.707 26191
0.233 1.416 1.702 21546
0.234 1.421 1.698 18472
0.234 1.425 1.694 24446
0.236 1.435 1.695 25788
0.238 1.445 1.697 13775
0.238 1.449 1.692 12247
0.239 1.454 1.688 19169
0.241 1.464 1.689 17815
0.244 1.484 1.702 14322
0.246 1.494 1.703 12732
0.250 1.521 1.721 8576
0.251 1.525 1.716 15339
0.250 1.519 1.701 23813
0.250 1.518 1.690 23709
0.251 1.528 1.691 15425
0.253 1.538 1.692 13441
0.257 1.559 1.704 12533
0.258 1.569 1.705 22871
0.258 1.568 1.695 25710
0.259 1.572 1.690 16859
0.260 1.583 1.691 12117
0.264 1.604 1.702 10587
0.267 1.620 1.708 11269
0.265 1.613 1.693 8219
0.264 1.606 1.677 7470
0.266 1.616 1.678 8587
0.269 1.632 1.684 11233
0.270 1.642 1.684 8281
0.274 1.664 1.695 5307
0.274 1.663 1.685 5107
0.274 1.667 1.680 5858
0.276 1.677 1.680 5977
0.281 1.705 1.696 5699
0.285 1.733 1.712 9719
0.286 1.737 1.707 12714
0.288 1.748 1.707 10128
0.289 1.758 1.706 7755
0.291 1.769 1.706 7132
0.293 1.779 1.706 6629
0.295 1.795 1.711 7061
0.298 1.812 1.716 10465
0.299 1.816 1.710 11645
0.300 1.821 1.705 8582
0.299 1.819 1.695 5365
0.303 1.842 1.704 4285
0.305 1.852 1.704 7581
0.306 1.857 1.698 10174
0.307 1.867 1.698 8070
0.310 1.884 1.702 5428
0.317 1.925 1.726 5554
0.315 1.917 1.710 8237
0.315 1.916 1.700 12272
0.317 1.926 1.699 11883
0.320 1.943 1.703 8887
0.321 1.954 1.702 6011
0.325 1.977 1.710 6737
0.328 1.994 1.714 8925
0.331 2.011 1.718 9828
0.331 2.009 1.707 10760
0.332 2.020 1.706 9300
0.334 2.030 1.704 5970
0.335 2.035 1.698 5578
0.336 2.039 1.692 8006
0.337 2.050 1.691 10766
0.339 2.061 1.689 11775
0.343 2.084 1.697 10214
0.345 2.095 1.696 8381
0.344 2.093 1.685 7888
0.346 2.104 1.683 7375
0.350 2.127 1.690 7037
0.353 2.145 1.693 6246
0.357 2.168 1.700 5264
0.357 2.173 1.694 4425
0.358 2.177 1.687 3767
0.359 2.182 1.681 4110
0.359 2.180 1.670 3588
0.358 2.177 1.659 3387
0.359 2.182 1.652 4067
0.360 2.186 1.646 4565
0.378 2.294 1.709 5132
0.377 2.292 1.698 6035
0.375 2.277 1.678 6355
0.376 2.288 1.676 6748
0.378 2.299 1.673 5827
0.390 2.369 1.709 7459
0.391 2.374 1.702 8033
0.393 2.391 1.704 5796
0.396 2.409 1.705 5025
0.398 2.420 1.702 6077
0.399 2.425 1.695 6452
0.400 2.429 1.688 5652
0.401 2.440 1.684 4507
0.404 2.458 1.685 5724
0.405 2.462 1.678 7888
0.406 2.467 1.671 8616
0.405 2.464 1.659 6672
0.406 2.469 1.652 3734
0.411 2.500 1.661 2774
0.416 2.531 1.669 2095
0.433 2.630 1.718 1960
0.426 2.587 1.682 2963
0.426 2.592 1.674 4389
0.427 2.596 1.666 4776
0.430 2.614 1.666 4795
0.432 2.625 1.663 5155
0.433 2.630 1.655 4675
0.433 2.634 1.647 3882
0.436 2.652 1.647 3345
0.439 2.670 1.646 2403
0.444 2.702 1.654 1856
0.446 2.713 1.649 2081
0.448 2.724 1.645 2394
0.448 2.721 1.633 2038
0.472 2.871 1.703 2117
0.473 2.875 1.694 2616
0.475 2.886 1.689 3114
0.476 2.891 1.681 2697
0.479 2.909 1.679 2356
0.478 2.907 1.667 2340
0.479 2.911 1.658 2347
0.482 2.929 1.657 2437
0.486 2.954 1.659 2996
0.487 2.959 1.650 3648
0.488 2.963 1.641 4299
0.492 2.988 1.643 3239
0.497 3.021 1.648 2589
0.505 3.067 1.659 2658
0.507 3.079 1.654 2888
0.506 3.076 1.641 2243
0.514 3.123 1.652 1650
0.516 3.134 1.646 2263
0.516 3.138 1.637 2903
0.517 3.143 1.627 2903
0.517 3.140 1.615 2431
0.528 3.208 1.635 2201
0.529 3.212 1.625 2192
0.528 3.209 1.613 2207
0.545 3.314 1.648 1955
0.546 3.318 1.638 2143
0.547 3.322 1.628 2143
0.548 3.334 1.621 1071
0.111 0.661 1.695 12863
0.111 0.665 1.693 16689
0.112 0.670 1.691 20515
0.113 0.677 1.697 23710
0.115 0.685 1.702 27362
0.116 0.689 1.700 27362
0.116 0.694 1.697 21863
0.118 0.702 1.702 16571
0.118 0.706 1.700 12665
0.119 0.711 1.698 8760
0.122 0.725 1.717 10019
0.122 0.730 1.715 11746
0.123 0.734 1.713 12044
0.123 0.735 1.704 11668
0.124 0.740 1.701 11081
0.124 0.741 1.692 9256
0.124 0.738 1.676 8305
0.125 0.746 1.680 7629
0.126 0.754 1.685 7179
0.127 0.758 1.683 5995
0.128 0.766 1.688 4894
0.133 0.793 1.727 6107
0.134 0.801 1.732 8847
0.135 0.805 1.730 14383
0.135 0.806 1.720 20110
0.136 0.811 1.718 21494
0.136 0.812 1.708 22951
0.137 0.816 1.706 20934
0.137 0.821 1.703 18917
0.139 0.829 1.708 23696
0.140 0.833 1.705 28881
0.140 0.838 1.703 27906
0.141 0.842 1.700 21369
0.142 0.847 1.697 16158
0.143 0.851 1.695 11599
0.142 0.848 1.679 7184
0.145 0.864 1.697 8085
0.145 0.864 1.687 9310
0.146 0.873 1.691 8333
0.150 0.893 1.716 9243
0.150 0.894 1.706 10711
0.150 0.898 1.704 9151
0.152 0.907 1.708 7665
0.153 0.915 1.712 6304
0.155 0.924 1.716 8904
0.156 0.928 1.713 12385
0.156 0.933 1.710 16924
0.156 0.933 1.701 23356
0.158 0.942 1.704 25309
0.159 0.946 1.702 24284
0.160 0.955 1.705 19952
0.161 0.964 1.709 18293
0.162 0.968 1.706 19647
0.164 0.977 1.710 18418
0.164 0.981 1.707 17527
0.164 0.977 1.691 19322
0.164 0.982 1.688 27846
0.165 0.986 1.685 33471
0.166 0.991 1.682 31919
0.168 1.004 1.692 38312
0.170 1.012 1.695 45708
0.170 1.017 1.692 43838
0.171 1.021 1.689 32507
0.173 1.030 1.693 24575
0.173 1.035 1.690 22170
0.174 1.039 1.686 17011
0.176 1.048 1.690 11607
0.179 1.070 1.712 11875
0.180 1.075 1.709 20970
0.181 1.079 1.706 23806
0.182 1.084 1.703 21006
0.183 1.093 1.706 18318
0.185 1.102 1.709 16701
0.185 1.102 1.699 14686
0.185 1.102 1.690 13630
0.186 1.111 1.693 13950
0.187 1.115 1.689 13168
0.188 1.120 1.686 12467
0.189 1.129 1.689 12521
0.191 1.143 1.698 10220
0.195 1.161 1.713 7533
0.195 1.166 1.710 7422
0.195 1.166 1.700 7325
0.195 1.165 1.690 6833
0.198 1.179 1.699 8834
0.200 1.194 1.708 15277
0.202 1.203 1.711 18470
0.202 1.207 1.707 17279
0.203 1.212 1.703 16030
0.204 1.216 1.700 12809
0.204 1.216 1.690 8238
0.203 1.210 1.674 6893
0.207 1.235 1.695 6241
0.209 1.249 1.703 10069
0.210 1.254 1.700 11127
0.212 1.263 1.702 9885
0.214 1.278 1.710 11086
0.215 1.282 1.706 17000
0.216 1.292 1.708 20638
0.218 1.301 1.711 19857
0.219 1.306 1.707 18507
0.220 1.315 1.709 16177
0.221 1.320 1.705 17222
0.222 1.324 1.701 14686
0.223 1.329 1.697 7465
0.220 1.312 1.669 5893
0.220 1.312 1.659 6015
0.218 1.300 1.638 6566
0.228 1.362 1.698 8959
0.230 1.372 1.700 13466
0.231 1.382 1.702 15630
0.234 1.397 1.709 19254
0.236 1.406 1.711 22137
0.236 1.411 1.707 20290
0.237 1.415 1.702 16194
0.238 1.420 1.698 15141
0.239 1.424 1.694 22059
0.240 1.434 1.695 22631
0.242 1.444 1.697 11325
0.244 1.454 1.698 10425
0.244 1.458 1.694 17797
0.245 1.463 1.689 16418
0.249 1.484 1.702 12378
0.250 1.494 1.703 10669
0.251 1.498 1.698 6656
0.254 1.514 1.705 12535
0.254 1.518 1.701 22654
0.254 1.517 1.690 22080
0.256 1.527 1.691 13019
0.256 1.526 1.681 11749
0.256 1.530 1.677 11042
0.262 1.563 1.700 13729
0.262 1.562 1.689 14580
0.261 1.560 1.679 9582
0.267 1.593 1.702 10346
0.269 1.603 1.702 10791
0.270 1.613 1.703 9305
0.270 1.612 1.693 7222
0.269 1.605 1.677 6815
0.272 1.621 1.683 10073
0.273 1.631 1.684 14321
0.274 1.636 1.679 8963
0.277 1.652 1.684 4087
0.277 1.656 1.679 4969
0.280 1.672 1.685 6219
0.282 1.682 1.685 8160
0.285 1.698 1.691 8663
0.287 1.715 1.696 9212
0.290 1.731 1.701 11509
0.291 1.735 1.696 9354
0.294 1.757 1.706 7685
0.296 1.768 1.706 7889
0.300 1.790 1.716 7768
0.303 1.806 1.721 8978
0.304 1.817 1.721 11166
0.305 1.822 1.716 11272
0.305 1.820 1.705 8507
0.305 1.818 1.695 4644
0.310 1.853 1.714 5141
0.311 1.858 1.709 9903
0.311 1.856 1.698 12019
0.312 1.860 1.693 8762
0.315 1.877 1.697 5413
0.322 1.924 1.726 4913
0.320 1.910 1.705 7791
0.321 1.915 1.700 12223
0.323 1.925 1.699 12390
0.325 1.942 1.703 9041
0.328 1.959 1.707 5666
0.331 1.976 1.710 6493
0.334 1.993 1.714 8729
0.337 2.010 1.718 10624
0.336 2.008 1.707 11786
0.338 2.019 1.706 9972
0.340 2.029 1.704 6859
0.341 2.034 1.698 6900
0.342 2.038 1.692 8950
0.343 2.049 1.691 10497
0.344 2.053 1.685 10668
0.349 2.083 1.697 8954
0.351 2.094 1.696 8262
0.351 2.092 1.685 8708
0.352 2.103 1.683 7954
0.356 2.126 1.690 6727
0.358 2.137 1.689 4743
0.364 2.174 1.705 3876
0.365 2.178 1.698 3850
0.367 2.189 1.696 3322
0.368 2.193 1.690 3623
0.366 2.185 1.674 3255
0.366 2.183 1.663 3183
0.381 2.271 1.714 3702
0.367 2.192 1.650 3848
0.384 2.293 1.709 4853
0.383 2.285 1.694 5654
0.381 2.276 1.678 6814
0.383 2.287 1.676 7432
0.384 2.292 1.669 6232
0.397 2.368 1.709 8263
0.398 2.373 1.702 8713
0.399 2.384 1.699 5959
0.402 2.401 1.701 4428
0.404 2.412 1.698 5392
0.405 2.417 1.691 5917
0.407 2.428 1.688 5599
0.409 2.439 1.684 4780
0.412 2.457 1.685 5997
0.412 2.461 1.678 7909
0.413 2.466 1.671 8446
0.413 2.463 1.659 6612
0.413 2.468 1.652 3624
0.423 2.526 1.677 2933
0.430 2.564 1.689 2717
0.431 2.575 1.686 2618
0.432 2.579 1.678 3490
0.433 2.584 1.670 4575
0.435 2.595 1.666 4835
0.438 2.613 1.666 4849
0.440 2.624 1.663 5331
0.440 2.628 1.655 4933
0.441 2.633 1.647 4036
0.443 2.644 1.643 3253
0.451 2.689 1.658 2290
0.452 2.700 1.654 1810
0.454 2.711 1.649 2196
0.456 2.723 1.645 2675
0.456 2.720 1.633 2345
0.455 2.717 1.621 2087
0.480 2.867 1.691 2429
0.482 2.878 1.686 2998
0.483 2.882 1.677 2563
0.487 2.908 1.679 2220
0.487 2.905 1.667 2278
0.486 2.903 1.655 2367
0.491 2.928 1.657 2489
0.495 2.953 1.659 3261
0.496 2.957 1.650 3929
0.496 2.962 1.641 4596
0.499 2.980 1.639 3562
0.512 3.054 1.665 2844
0.514 3.066 1.659 3011
0.516 3.077 1.654 3250
0.515 3.075 1.641 2526
0.523 3.121 1.652 1933
0.525 3.133 1.646 2626
0.526 3.137 1.637 3353
0.526 3.141 1.627 3353
0.527 3.145 1.618 2755
0.537 3.206 1.635 2485
0.538 3.211 1.625 2521
0.537 3.208 1.613 2575
0.555 3.312 1.648 2131
0.556 3.316 1.638 2308
0.556 3.321 1.628 2308
0.557 3.325 1.618 1154
0.252 1.507 0.814 234
0.111 0.651 1.674 10971
0.114 0.665 1.693 15930
0.115 0.672 1.699 21738
0.116 0.677 1.697 25096
0.117 0.685 1.702 28906
0.118 0.689 1.700 28906
0.118 0.693 1.697 23146
0.120 0.701 1.702 17897
0.121 0.706 1.700 13203
0.121 0.707 1.691 8864
0.124 0.725 1.717 8976
0.125 0.729 1.715 10264
0.125 0.734 1.713 10674
0.126 0.735 1.704 10685
0.126 0.739 1.701 10348
0.127 0.740 1.692 9034
0.126 0.738 1.676 8584
0.127 0.746 1.680 8010
0.129 0.754 1.685 7609
0.130 0.762 1.690 5907
0.132 0.773 1.702 4528
0.135 0.792 1.727 6313
0.136 0.797 1.725 8699
0.137 0.801 1.723 14996
0.138 0.806 1.720 21292
0.138 0.810 1.718 22784
0.139 0.811 1.708 24513
0.139 0.816 1.706 22160
0.141 0.824 1.710 19905
0.142 0.828 1.708 24262
0.142 0.833 1.705 29023
0.143 0.837 1.703 27963
0.144 0.842 1.700 20842
0.145 0.846 1.697 15184
0.145 0.851 1.695 10763
0.145 0.847 1.679 6650
0.148 0.863 1.697 8085
0.148 0.864 1.687 9907
0.148 0.868 1.684 8670
0.152 0.889 1.709 8043
0.153 0.893 1.706 8586
0.153 0.898 1.704 7321
0.154 0.902 1.701 6057
0.156 0.915 1.712 5138
0.158 0.923 1.716 7896
0.159 0.928 1.713 10835
0.159 0.932 1.710 15685
0.159 0.933 1.701 22985
0.161 0.941 1.704 25442
0.162 0.946 1.702 25190
0.162 0.950 1.699 21021
0.164 0.959 1.702 18641
0.165 0.968 1.706 19319
0.166 0.972 1.703 17787
0.167 0.977 1.700 16990
0.167 0.977 1.691 18832
0.168 0.981 1.688 26439
0.168 0.986 1.685 31500
0.169 0.990 1.682 30201
0.171 1.003 1.692 37793
0.173 1.012 1.695 46263
0.174 1.016 1.692 44773
0.174 1.021 1.689 32803
0.176 1.030 1.693 23665
0.177 1.034 1.690 21251
0.177 1.039 1.686 16730
0.179 1.047 1.690 11268
0.182 1.065 1.706 10847
0.184 1.074 1.709 20190
0.184 1.079 1.706 23826
0.185 1.083 1.703 21745
0.187 1.092 1.706 19534
0.187 1.097 1.703 18971
0.188 1.101 1.699 18020
0.189 1.106 1.696 16044
0.190 1.110 1.693 14554
0.190 1.115 1.689 12868
0.191 1.119 1.686 12568
0.193 1.128 1.689 13104
0.195 1.142 1.698 10385
0.198 1.161 1.713 7945
0.199 1.165 1.710 8285
0.201 1.175 1.713 7375
0.199 1.165 1.690 5380
0.201 1.179 1.699 8882
0.204 1.193 1.708 14405
0.205 1.202 1.711 17726
0.206 1.207 1.707 16034
0.208 1.216 1.710 14242
0.208 1.216 1.700 12011
0.208 1.220 1.696 7194
0.208 1.220 1.686 5221
0.209 1.224 1.683 6357
0.213 1.248 1.703 8857
0.214 1.253 1.700 10462
0.215 1.257 1.696 9174
0.218 1.277 1.710 9875
0.219 1.281 1.706 15426
0.221 1.291 1.708 19265
0.222 1.300 1.711 19011
0.223 1.305 1.707 17187
0.225 1.315 1.709 16392
0.225 1.319 1.705 18723
0.226 1.324 1.701 15796
0.228 1.333 1.703 7354
0.222 1.301 1.657 4093
0.225 1.316 1.665 5032
0.231 1.352 1.696 5921
0.233 1.361 1.698 9655
0.234 1.371 1.700 14515
0.236 1.381 1.702 15759
0.238 1.391 1.703 18346
0.240 1.406 1.711 18467
0.241 1.410 1.707 15237
0.242 1.415 1.702 12391
0.242 1.419 1.698 12467
0.243 1.424 1.694 18878
0.245 1.433 1.695 18944
0.247 1.443 1.697 9738
0.248 1.453 1.698 9905
0.250 1.463 1.699 15995
0.251 1.467 1.695 14807
0.252 1.477 1.696 11598
0.255 1.493 1.703 9691
0.254 1.486 1.687 7612
0.258 1.507 1.699 12006
0.258 1.512 1.695 20371
0.259 1.516 1.690 18956
0.260 1.521 1.686 10579
0.261 1.525 1.681 11645
0.262 1.535 1.682 13525
0.265 1.551 1.689 13227
0.266 1.555 1.684 9310
0.273 1.599 1.718 6516
0.274 1.604 1.713 9165
0.274 1.602 1.702 9380
0.276 1.612 1.703 7305
0.275 1.611 1.693 5914
0.274 1.604 1.677 6093
0.277 1.620 1.683 10971
0.279 1.630 1.684 15813
0.279 1.635 1.679 8963
0.281 1.645 1.679 3312
0.284 1.661 1.685 4671
0.287 1.677 1.690 7114
0.288 1.687 1.691 10269
0.289 1.692 1.685 10998
0.292 1.708 1.691 10247
0.294 1.718 1.691 11233
0.295 1.728 1.691 9132
0.299 1.751 1.701 7165
0.302 1.767 1.706 7385
0.306 1.789 1.716 8361
0.307 1.800 1.716 10532
0.310 1.816 1.721 10626
0.311 1.821 1.716 10112
0.311 1.819 1.705 7845
0.312 1.823 1.700 4349
0.316 1.852 1.714 5634
0.317 1.857 1.709 9881
0.318 1.861 1.703 11020
0.319 1.865 1.698 7428
0.321 1.876 1.697 4352
0.328 1.917 1.721 3856
0.326 1.909 1.705 7922
0.327 1.914 1.700 13679
0.329 1.924 1.699 14370
0.332 1.941 1.703 10776
0.336 1.964 1.711 6124
0.337 1.975 1.710 6409
0.339 1.985 1.709 8258
0.342 2.002 1.713 10178
0.343 2.007 1.707 11605
0.345 2.018 1.706 9709
0.347 2.028 1.704 6963
0.346 2.027 1.694 7479
0.347 2.031 1.688 9104
0.349 2.042 1.686 9677
0.351 2.052 1.685 9538
0.356 2.082 1.697 8026
0.358 2.093 1.696 7929
0.357 2.091 1.685 8842
0.359 2.102 1.683 7920
0.363 2.125 1.690 6607
0.366 2.142 1.693 4878
0.371 2.172 1.705 4707
0.372 2.177 1.698 4330
0.373 2.181 1.692 3547
0.375 2.192 1.690 3846
0.375 2.197 1.683 3677
0.377 2.207 1.681 3387
0.387 2.264 1.710 3900
0.394 2.307 1.730 3888
0.394 2.305 1.718 4601
0.391 2.290 1.698 5147
0.388 2.268 1.674 6594
0.391 2.286 1.676 7314
0.391 2.290 1.669 6206
0.404 2.367 1.709 7958
0.405 2.371 1.702 8360
0.406 2.376 1.695 5935
0.408 2.387 1.692 4465
0.410 2.398 1.689 5318
0.413 2.416 1.691 5336
0.415 2.427 1.688 5003
0.417 2.438 1.684 4375
0.420 2.455 1.685 5338
0.420 2.460 1.678 6714
0.421 2.464 1.671 7001
0.421 2.462 1.659 5450
0.421 2.466 1.652 2895
0.436 2.551 1.693 3229
0.437 2.556 1.685 3202
0.437 2.560 1.678 3175
0.439 2.571 1.674 3816
0.441 2.582 1.670 4623
0.442 2.587 1.662 4694
0.446 2.611 1.666 4633
0.448 2.622 1.663 5155
0.449 2.627 1.655 4824
0.450 2.631 1.647 3904
0.451 2.642 1.643 3035
0.459 2.688 1.658 2174
0.475 2.781 1.699 1976
0.463 2.710 1.649 2258
0.465 2.721 1.645 2858
0.465 2.719 1.633 2545
0.464 2.716 1.621 2319
0.487 2.851 1.683 2356
0.490 2.870 1.682 2885
0.492 2.881 1.677 2442
0.497 2.906 1.679 2115
0.495 2.897 1.663 2163
0.496 2.901 1.655 2253
0.500 2.926 1.657 2408
0.504 2.951 1.659 3259
0.505 2.956 1.650 3907
0.506 2.960 1.641 4554
0.509 2.978 1.639 3623
0.523 3.060 1.668 3024
0.524 3.064 1.659 3118
0.526 3.076 1.654 3282
0.525 3.073 1.641 2526
0.533 3.119 1.652 2007
0.535 3.131 1.646 2722
0.536 3.135 1.637 3475
0.536 3.139 1.627 3475
0.537 3.144 1.618 2830
0.548 3.205 1.635 2601
0.548 3.209 1.625 2696
0.549 3.213 1.616 2791
0.551 3.225 1.609 2077
0.564 3.300 1.632 2237
0.565 3.304 1.622 2237
0.565 3.309 1.612 1118
0.256 1.499 0.811 209
0.115 0.663 1.703 10481
0.116 0.668 1.701 15818
0.116 0.672 1.699 21156
0.117 0.677 1.697 24449
0.119 0.684 1.702 28087
0.119 0.689 1.700 28087
0.120 0.693 1.697 21764
0.121 0.701 1.702 15875
0.122 0.705 1.700 12007
0.122 0.703 1.684 8479
0.126 0.725 1.717 9377
0.127 0.732 1.722 11106
0.128 0.737 1.720 11384
0.128 0.738 1.711 11427
0.129 0.743 1.708 11036
0.129 0.744 1.699 9162
0.128 0.741 1.683 8026
0.129 0.745 1.680 7778
0.130 0.753 1.685 7615
0.132 0.761 1.690 6392
0.134 0.773 1.702 5567
0.137 0.788 1.720 6825
0.138 0.796 1.725 8919
0.139 0.801 1.723 14802
0.140 0.805 1.720 20686
0.140 0.810 1.718 21847
0.140 0.811 1.708 23165
0.141 0.815 1.706 20777
0.143 0.823 1.710 18499
0.143 0.828 1.708 22754
0.144 0.832 1.705 27591
0.145 0.837 1.703 26846
0.146 0.841 1.700 19785
0.146 0.842 1.691 14071
0.147 0.846 1.688 10718
0.148 0.855 1.692 7375
0.150 0.863 1.697 9129
0.150 0.868 1.694 10978
0.151 0.872 1.691 9488
0.155 0.892 1.716 7595
0.155 0.893 1.706 6999
0.155 0.897 1.704 5838
0.156 0.898 1.694 4680
0.158 0.910 1.705 4549
0.160 0.923 1.716 7228
0.161 0.932 1.720 9436
0.161 0.932 1.710 14339
0.161 0.932 1.701 22154
0.163 0.941 1.704 25073
0.164 0.945 1.702 25522
0.165 0.950 1.699 22026
0.166 0.958 1.702 19491
0.168 0.967 1.706 19325
0.168 0.972 1.703 17266
0.169 0.976 1.700 16567
0.169 0.976 1.691 17864
0.170 0.981 1.688 23858
0.171 0.985 1.685 27931
0.172 0.994 1.688 26655
0.174 1.003 1.692 35012
0.175 1.012 1.695 44529
0.176 1.016 1.692 43625
0.178 1.025 1.696 32318
0.179 1.034 1.699 23370
0.180 1.038 1.696 20673
0.180 1.038 1.686 16464
0.181 1.047 1.690 10826
0.185 1.069 1.712 8955
0.186 1.074 1.709 18181
0.187 1.078 1.706 22971
0.188 1.083 1.703 22121
0.189 1.092 1.706 20317
0.190 1.096 1.703 19731
0.191 1.101 1.699 19155
0.191 1.105 1.696 17340
0.192 1.110 1.693 14735
0.193 1.114 1.689 12139
0.194 1.119 1.686 12358
0.195 1.128 1.689 13874
0.198 1.142 1.698 11204
0.201 1.160 1.713 8662
0.203 1.170 1.716 9017
0.203 1.174 1.713 7884
0.204 1.179 1.709 5057
0.205 1.183 1.705 7207
0.207 1.192 1.708 13535
0.208 1.202 1.711 16693
0.209 1.206 1.707 15153
0.210 1.211 1.703 13695
0.210 1.215 1.700 10626
0.211 1.220 1.696 6201
0.209 1.209 1.674 5866
0.212 1.224 1.683 6502
0.215 1.243 1.697 8615
0.217 1.252 1.700 9774
0.218 1.257 1.696 8749
0.221 1.276 1.710 8836
0.222 1.281 1.706 13903
0.224 1.290 1.708 16766
0.225 1.300 1.711 16254
0.226 1.304 1.707 13776
0.228 1.314 1.709 13620
0.228 1.319 1.705 15937
0.229 1.323 1.701 12478
0.233 1.343 1.714 6574
0.233 1.347 1.710 4571
0.231 1.331 1.683 6325
0.233 1.346 1.691 6670
0.236 1.361 1.698 9687
0.237 1.371 1.700 15340
0.238 1.375 1.696 16987
0.241 1.390 1.703 18934
0.242 1.400 1.705 16805
0.244 1.410 1.707 11873
0.245 1.414 1.702 9793
0.247 1.424 1.704 10473
0.246 1.423 1.694 15812
0.248 1.433 1.695 16031
0.249 1.437 1.691 8993
0.253 1.458 1.704 9762
0.254 1.468 1.705 14463
0.255 1.472 1.700 13361
0.256 1.477 1.696 10732
0.258 1.492 1.703 8499
0.258 1.491 1.693 9124
0.260 1.501 1.694 13561
0.262 1.511 1.695 19652
0.263 1.516 1.690 18304
0.264 1.526 1.691 11941
0.264 1.524 1.681 12292
0.265 1.529 1.677 11814
0.268 1.544 1.683 8335
0.269 1.554 1.684 5493
0.276 1.593 1.712 7653
0.278 1.603 1.713 9785
0.278 1.607 1.708 8157
0.272 1.572 1.665 5885
0.279 1.611 1.693 5352
0.279 1.609 1.683 7086
0.282 1.625 1.688 12184
0.282 1.630 1.684 16014
0.283 1.634 1.679 8638
0.285 1.644 1.679 3238
0.289 1.666 1.690 5852
0.291 1.682 1.696 9981
0.292 1.687 1.691 13477
0.293 1.691 1.685 13149
0.294 1.695 1.680 11277
0.297 1.717 1.691 10627
0.299 1.728 1.691 8899
0.302 1.744 1.696 6380
0.306 1.766 1.706 6143
0.311 1.794 1.722 8578
0.312 1.799 1.716 11670
0.313 1.809 1.716 10113
0.316 1.826 1.721 9155
0.315 1.818 1.705 7739
0.318 1.835 1.710 4599
0.321 1.851 1.714 5643
0.321 1.856 1.709 9360
0.322 1.860 1.703 9938
0.323 1.865 1.698 5671
0.325 1.875 1.697 2444
0.331 1.910 1.716 3362
0.330 1.902 1.700 8978
0.331 1.913 1.700 14660
0.333 1.924 1.699 15757
0.335 1.934 1.698 12506
0.339 1.957 1.707 7038
0.342 1.974 1.710 6660
0.343 1.979 1.705 7774
0.347 2.002 1.713 8969
0.347 2.006 1.707 10601
0.349 2.017 1.706 9023
0.351 2.027 1.704 6698
0.351 2.026 1.694 7660
0.352 2.030 1.688 8776
0.354 2.041 1.686 8791
0.355 2.052 1.685 8590
0.360 2.081 1.697 7338
0.361 2.086 1.691 7892
0.362 2.090 1.685 9386
0.364 2.101 1.683 8606
0.369 2.131 1.695 7775
0.371 2.142 1.693 5825
0.375 2.165 1.700 5480
0.376 2.170 1.694 4913
0.377 2.174 1.687 4081
0.378 2.185 1.685 4675
0.380 2.196 1.683 4753
0.381 2.200 1.677 4423
0.384 2.218 1.679 4698
0.387 2.235 1.681 4179
0.397 2.291 1.709 4305
0.397 2.289 1.698 4767
0.393 2.268 1.674 6062
0.396 2.285 1.676 6831
0.395 2.283 1.665 6040
0.410 2.366 1.709 7292
0.411 2.370 1.702 7820
0.411 2.375 1.695 6035
0.413 2.386 1.692 4935
0.414 2.390 1.685 5659
0.417 2.408 1.686 5216
0.420 2.426 1.688 4630
0.422 2.437 1.684 4016
0.425 2.454 1.685 4762
0.426 2.459 1.678 5821
0.427 2.463 1.671 6024
0.426 2.461 1.659 4771
0.432 2.492 1.668 2555
0.442 2.550 1.693 3217
0.442 2.555 1.685 3348
0.443 2.559 1.678 3480
0.445 2.570 1.674 4067
0.447 2.581 1.670 4658
0.448 2.586 1.662 4601
0.452 2.610 1.666 4439
0.454 2.621 1.663 4919
0.455 2.626 1.655 4625
0.456 2.630 1.647 3684
0.457 2.641 1.643 2780
0.465 2.687 1.658 2110
0.482 2.780 1.699 2119
0.479 2.764 1.679 2330
0.471 2.720 1.645 3014
0.470 2.711 1.629 2770
0.470 2.715 1.621 2620
0.491 2.836 1.676 2460
0.496 2.862 1.678 2822
0.499 2.880 1.677 2318
0.503 2.905 1.679 2013
0.502 2.895 1.663 2021
0.502 2.900 1.655 2078
0.507 2.925 1.657 2283
0.511 2.950 1.659 3168
0.512 2.955 1.650 3820
0.514 2.966 1.645 4489
0.516 2.977 1.639 3684
0.530 3.059 1.668 3237
0.531 3.063 1.659 3237
0.533 3.074 1.654 3296
0.532 3.072 1.641 2502
0.540 3.118 1.652 1992
0.542 3.130 1.646 2736
0.543 3.134 1.637 3501
0.544 3.138 1.627 3501
0.544 3.142 1.618 2839
0.555 3.203 1.635 2632
0.556 3.208 1.625 2793
0.556 3.212 1.616 2954
0.560 3.230 1.613 2217
0.569 3.285 1.625 2271
0.570 3.289 1.615 2271
0.570 3.293 1.606 1135
0.262 1.513 0.818 206
0.114 0.650 1.674 9697
0.117 0.667 1.701 15511
0.117 0.672 1.699 21615
0.118 0.676 1.697 24650
0.120 0.684 1.702 28014
0.120 0.689 1.700 28014
0.121 0.693 1.697 21371
0.122 0.701 1.702 15288
0.123 0.705 1.700 11570
0.122 0.696 1.670 9060
0.127 0.724 1.717 8712
0.128 0.732 1.722 10341
0.129 0.737 1.720 10665
0.129 0.738 1.711 10790
0.130 0.742 1.708 10551
0.130 0.743 1.699 8873
0.129 0.737 1.676 8445
0.131 0.749 1.687 7854
0.132 0.757 1.692 7710
0.134 0.765 1.697 6812
0.136 0.776 1.709 6212
0.138 0.788 1.720 7487
0.139 0.796 1.725 9441
0.140 0.801 1.723 15445
0.141 0.805 1.720 21449
0.142 0.810 1.718 22253
0.142 0.811 1.708 23260
0.142 0.815 1.706 20630
0.144 0.823 1.710 18108
0.145 0.828 1.708 22374
0.145 0.832 1.705 27279
0.146 0.837 1.703 26666
0.147 0.841 1.700 19423
0.147 0.842 1.691 13461
0.149 0.850 1.695 10740
0.150 0.858 1.699 8130
0.151 0.863 1.697 9974
0.152 0.867 1.694 11901
0.152 0.872 1.691 10194
0.154 0.880 1.695 7124
0.155 0.885 1.693 5746
0.156 0.893 1.697 4924
0.156 0.894 1.687 4322
0.156 0.894 1.678 4532
0.162 0.927 1.722 6316
0.163 0.931 1.720 8182
0.163 0.932 1.710 13225
0.163 0.932 1.701 21784
0.164 0.941 1.704 25069
0.165 0.945 1.702 26169
0.166 0.950 1.699 23221
0.167 0.958 1.702 20388
0.169 0.967 1.706 19030
0.170 0.971 1.703 16224
0.171 0.976 1.700 15669
0.171 0.976 1.691 16921
0.171 0.980 1.688 22184
0.172 0.985 1.685 25647
0.174 0.994 1.688 24308
0.176 1.007 1.699 32656
0.177 1.011 1.695 42666
0.178 1.016 1.692 42354
0.179 1.025 1.696 31774
0.181 1.033 1.699 22878
0.181 1.038 1.696 19909
0.181 1.038 1.686 15989
0.183 1.047 1.690 10370
0.186 1.065 1.706 7685
0.188 1.074 1.709 16978
0.188 1.078 1.706 22834
0.189 1.083 1.703 22882
0.191 1.092 1.706 21439
0.192 1.096 1.703 21086
0.192 1.101 1.699 20766
0.193 1.105 1.696 18791
0.193 1.105 1.686 15214
0.194 1.109 1.683 11856
0.196 1.123 1.692 12532
0.198 1.132 1.695 15160
0.200 1.146 1.704 12334
0.203 1.160 1.713 9485
0.204 1.169 1.716 9632
0.206 1.179 1.719 8119
0.206 1.178 1.709 4815
0.207 1.183 1.705 6485
0.209 1.197 1.714 12507
0.210 1.201 1.711 15693
0.211 1.206 1.707 14209
0.212 1.210 1.703 12545
0.212 1.215 1.700 9597
0.213 1.219 1.696 5774
0.213 1.219 1.686 6140
0.215 1.228 1.689 7127
0.217 1.243 1.697 7716
0.219 1.252 1.700 8697
0.220 1.257 1.696 8057
0.222 1.271 1.704 7593
0.224 1.281 1.706 11957
0.226 1.295 1.714 14108
0.228 1.305 1.717 13238
0.228 1.304 1.707 10562
0.229 1.309 1.703 10819
0.229 1.313 1.699 13475
0.231 1.323 1.701 10835
0.233 1.332 1.703 5447
0.229 1.311 1.669 4651
0.234 1.341 1.695 6705
0.235 1.346 1.691 8469
0.237 1.355 1.692 11558
0.239 1.365 1.694 16618
0.240 1.375 1.696 16612
0.243 1.390 1.703 17511
0.245 1.399 1.705 14733
0.246 1.409 1.707 9753
0.247 1.414 1.702 9027
0.249 1.424 1.704 9375
0.249 1.423 1.694 12754
0.250 1.432 1.695 14301
0.251 1.437 1.691 10210
0.255 1.458 1.704 10609
0.256 1.468 1.705 13515
0.257 1.472 1.700 12282
0.259 1.482 1.702 11550
0.261 1.492 1.703 8899
0.261 1.491 1.693 9812
0.263 1.506 1.699 14721
0.264 1.511 1.695 17950
0.265 1.515 1.690 14444
0.266 1.520 1.686 8570
0.266 1.524 1.681 11474
0.269 1.540 1.688 13417
0.273 1.561 1.700 9482
0.275 1.571 1.700 7192
0.275 1.575 1.696 9632
0.277 1.585 1.696 9104
0.272 1.556 1.659 7186
0.273 1.560 1.654 6467
0.280 1.604 1.687 6889
0.281 1.609 1.683 9676
0.284 1.625 1.688 14150
0.285 1.629 1.684 16447
0.286 1.634 1.679 9034
0.288 1.650 1.684 4236
0.292 1.671 1.695 7175
0.294 1.682 1.696 12289
0.295 1.686 1.691 15441
0.295 1.690 1.685 14321
0.296 1.695 1.680 12026
0.298 1.705 1.680 10689
0.302 1.727 1.691 8267
0.303 1.732 1.686 5279
0.308 1.760 1.701 5109
0.314 1.794 1.722 8592
0.313 1.792 1.711 12178
0.315 1.803 1.711 9964
0.318 1.819 1.716 8603
0.318 1.818 1.705 8009
0.320 1.828 1.705 5087
0.322 1.845 1.709 5353
0.323 1.849 1.704 8563
0.325 1.860 1.703 8965
0.326 1.864 1.698 4691
0.330 1.887 1.707 1991
0.332 1.898 1.706 3405
0.332 1.902 1.700 9177
0.334 1.913 1.700 14772
0.336 1.923 1.699 16669
0.338 1.934 1.698 13924
0.340 1.944 1.697 8303
0.344 1.967 1.706 7233
0.345 1.972 1.700 7303
0.350 2.001 1.713 7353
0.351 2.006 1.707 9395
0.352 2.016 1.706 8315
0.353 2.021 1.700 6629
0.354 2.025 1.694 7695
0.355 2.030 1.688 8287
0.357 2.040 1.686 8059
0.357 2.045 1.680 7855
0.361 2.068 1.688 6434
0.364 2.085 1.691 7183
0.365 2.090 1.685 8907
0.367 2.100 1.683 8224
0.373 2.137 1.700 8211
0.374 2.141 1.693 7061
0.377 2.158 1.696 6092
0.379 2.169 1.694 4527
0.389 2.225 1.723 4369
0.384 2.197 1.694 5137
0.385 2.202 1.688 6444
0.384 2.200 1.677 6137
0.386 2.210 1.675 5564
0.388 2.221 1.672 4094
0.400 2.291 1.709 3865
0.394 2.256 1.676 4409
0.396 2.267 1.674 5638
0.398 2.278 1.672 6205
0.398 2.276 1.660 5770
0.412 2.359 1.705 6462
0.413 2.363 1.698 7329
0.414 2.368 1.691 6062
0.416 2.379 1.688 5209
0.418 2.390 1.685 5762
0.420 2.401 1.682 5149
0.424 2.425 1.688 4374
0.426 2.436 1.684 3687
0.429 2.454 1.685 4204
0.430 2.458 1.678 5011
0.429 2.456 1.667 5221
0.430 2.460 1.659 4279
0.435 2.491 1.668 2477
0.447 2.556 1.697 3064
0.446 2.554 1.685 3435
0.447 2.558 1.678 3811
0.449 2.569 1.674 4264
0.451 2.581 1.670 4572
0.452 2.585 1.662 4383
0.456 2.610 1.666 4212
0.457 2.614 1.659 4635
0.459 2.625 1.655 4368
0.460 2.629 1.647 3441
0.462 2.641 1.643 2527
0.469 2.686 1.658 2041
0.486 2.779 1.699 2175
0.473 2.708 1.649 2384
0.475 2.719 1.645 3140
0.474 2.710 1.629 3018
0.474 2.714 1.621 2972
0.494 2.829 1.672 2581
0.498 2.847 1.671 2860
0.503 2.879 1.677 2181
0.509 2.911 1.683 1968
0.506 2.895 1.663 1926
0.507 2.899 1.655 1990
0.511 2.924 1.657 2239
0.516 2.949 1.659 3104
0.516 2.954 1.650 3746
0.518 2.965 1.645 4412
0.520 2.976 1.639 3739
0.534 3.058 1.668 3343
0.535 3.062 1.659 3226
0.536 3.067 1.650 3146
0.537 3.071 1.641 2365
0.546 3.124 1.655 1982
0.547 3.129 1.646 2765
0.548 3.133 1.637 3548
0.548 3.137 1.627 3548
0.549 3.142 1.618 2869
0.560 3.203 1.635 2645
0.560 3.207 1.625 2850
0.561 3.211 1.616 3054
0.564 3.230 1.613 2313
0.573 3.277 1.622 2303
0.573 3.281 1.612 2303
0.574 3.285 1.602 1151
0.264 1.512 0.818 223
0.116 0.650 1.674 9075
0.119 0.667 1.701 15300
0.119 0.672 1.699 21808
0.120 0.676 1.697 24618
0.122 0.684 1.702 27686
0.122 0.688 1.700 27686
0.123 0.693 1.697 20835
0.125 0.700 1.702 14553
0.124 0.695 1.679 11280
0.123 0.693 1.662 10007
0.123 0.690 1.646 8821
0.130 0.732 1.722 9261
0.131 0.736 1.720 9615
0.132 0.741 1.718 9789
0.132 0.742 1.708 9654
0.132 0.743 1.699 8264
0.130 0.733 1.669 8771
0.133 0.745 1.680 7877
0.135 0.756 1.692 7741
0.136 0.764 1.697 7042
0.138 0.776 1.709 6719
0.139 0.784 1.713 8200
0.141 0.792 1.718 10248
0.142 0.800 1.723 16114
0.143 0.805 1.720 22041
0.143 0.806 1.711 22637
0.144 0.810 1.708 23404
0.145 0.815 1.706 20620
0.146 0.823 1.710 18037
0.147 0.827 1.708 21888
0.149 0.836 1.712 26591
0.149 0.836 1.703 26124
0.150 0.841 1.700 18685
0.150 0.845 1.697 12424
0.151 0.850 1.695 10488
0.153 0.858 1.699 8773
0.153 0.862 1.697 10614
0.154 0.867 1.694 12560
0.155 0.871 1.691 10827
0.156 0.876 1.689 6865
0.156 0.876 1.679 4758
0.157 0.885 1.683 4307
0.158 0.889 1.681 4369
0.159 0.893 1.678 4917
0.164 0.922 1.716 5571
0.166 0.931 1.720 6981
0.165 0.927 1.703 12425
0.166 0.932 1.701 21463
0.167 0.940 1.704 25010
0.168 0.945 1.702 26589
0.169 0.949 1.699 24114
0.170 0.958 1.702 21090
0.172 0.966 1.706 18675
0.173 0.971 1.703 15464
0.174 0.975 1.700 15267
0.174 0.976 1.691 16347
0.174 0.980 1.688 20910
0.175 0.984 1.685 23913
0.177 0.993 1.688 22246
0.179 1.006 1.699 30051
0.180 1.011 1.695 39771
0.181 1.015 1.692 39815
0.182 1.024 1.696 30313
0.184 1.033 1.699 21565
0.185 1.037 1.696 18496
0.185 1.042 1.693 15277
0.186 1.046 1.690 10029
0.188 1.055 1.693 7220
0.190 1.069 1.703 16038
0.192 1.078 1.706 22705
0.193 1.082 1.703 23627
0.194 1.091 1.706 22280
0.195 1.096 1.703 21652
0.196 1.100 1.699 21497
0.197 1.105 1.696 19631
0.197 1.109 1.693 15243
0.197 1.109 1.683 11324
0.200 1.123 1.692 13095
0.201 1.132 1.695 16713
0.204 1.146 1.704 13762
0.206 1.159 1.713 10343
0.208 1.169 1.716 10281
0.210 1.178 1.719 8656
0.210 1.183 1.715 5149
0.210 1.182 1.705 5953
0.213 1.196 1.714 10791
0.214 1.201 1.711 13762
0.214 1.205 1.707 12973
0.215 1.210 1.703 11520
0.217 1.219 1.706 8712
0.218 1.224 1.702 5690
0.218 1.223 1.692 7000
0.218 1.228 1.689 7972
0.221 1.242 1.697 7000
0.222 1.246 1.693 7268
0.223 1.251 1.690 6550
0.226 1.270 1.704 6126
0.228 1.280 1.706 10150
0.229 1.289 1.708 11086
0.232 1.304 1.717 10340
0.232 1.303 1.707 8315
0.233 1.308 1.703 9971
0.233 1.312 1.699 14020
0.235 1.322 1.701 13372
0.236 1.326 1.697 8638
0.237 1.331 1.693 4824
0.238 1.340 1.695 7078
0.239 1.345 1.691 8953
0.241 1.355 1.692 10817
0.243 1.364 1.694 16525
0.244 1.374 1.696 17415
0.246 1.384 1.698 18046
0.248 1.393 1.699 14588
0.250 1.403 1.701 9196
0.251 1.413 1.702 9220
0.253 1.423 1.704 8670
0.253 1.422 1.694 10189
0.255 1.432 1.695 13883
0.256 1.436 1.691 12677
0.258 1.451 1.698 12873
0.261 1.467 1.705 13158
0.263 1.477 1.706 11143
0.263 1.481 1.702 12085
0.264 1.486 1.697 9802
0.265 1.490 1.693 10476
0.268 1.505 1.699 15091
0.269 1.510 1.695 16612
0.269 1.514 1.690 13423
0.273 1.535 1.702 8952
0.273 1.534 1.692 10731
0.275 1.544 1.693 13377
0.278 1.560 1.700 12509
0.277 1.559 1.689 9813
0.278 1.563 1.685 9686
0.279 1.568 1.680 8369
0.277 1.555 1.659 6927
0.277 1.559 1.654 6158
0.285 1.604 1.687 9407
0.286 1.608 1.683 13076
0.288 1.618 1.683 16493
0.290 1.628 1.684 16471
0.290 1.633 1.679 9819
0.292 1.643 1.679 5997
0.296 1.665 1.690 7825
0.299 1.681 1.696 13922
0.300 1.685 1.691 16878
0.301 1.690 1.685 14793
0.302 1.700 1.686 12041
0.303 1.704 1.680 11665
0.306 1.720 1.686 7719
0.308 1.731 1.686 3630
0.312 1.753 1.696 5058
0.317 1.781 1.711 9288
0.318 1.786 1.706 12226
0.320 1.796 1.706 9715
0.322 1.812 1.710 7830
0.324 1.823 1.710 7793
0.325 1.827 1.705 5546
0.327 1.838 1.704 5278
0.329 1.848 1.704 8027
0.330 1.853 1.698 8121
0.331 1.863 1.698 4281
0.336 1.886 1.707 2062
0.336 1.890 1.701 3524
0.338 1.901 1.700 8864
0.340 1.912 1.700 14272
0.342 1.922 1.699 16793
0.344 1.933 1.698 14768
0.346 1.943 1.697 9246
0.350 1.966 1.706 7780
0.351 1.971 1.700 7048
0.354 1.988 1.703 6087
0.357 2.004 1.707 8177
0.357 2.009 1.701 7581
0.359 2.020 1.700 6593
0.359 2.018 1.689 7885
0.361 2.029 1.688 8032
0.363 2.039 1.686 7501
0.364 2.044 1.680 7053
0.367 2.061 1.683 6117
0.370 2.078 1.686 7530
0.372 2.088 1.685 9380
0.373 2.099 1.683 8466
0.379 2.129 1.695 7552
0.381 2.140 1.693 6528
0.384 2.157 1.696 5931
0.386 2.168 1.694 4931
0.396 2.224 1.723 5484
0.392 2.202 1.699 6201
0.391 2.200 1.688 7433
0.391 2.198 1.677 6694
0.392 2.203 1.670 5744
0.393 2.207 1.663 3807
0.406 2.283 1.705 3214
0.401 2.255 1.676 4250
0.402 2.259 1.670 5325
0.404 2.270 1.667 5596
0.403 2.268 1.656 5827
0.419 2.357 1.705 5762
0.420 2.362 1.698 6870
0.421 2.366 1.691 5712
0.423 2.377 1.688 4854
0.425 2.388 1.685 5347
0.427 2.399 1.682 4912
0.431 2.424 1.688 4190
0.433 2.435 1.684 3481
0.435 2.446 1.681 3727
0.437 2.457 1.678 4312
0.437 2.455 1.667 4630
0.436 2.452 1.655 3763
0.438 2.463 1.652 2252
0.455 2.555 1.697 2939
0.455 2.559 1.689 3487
0.455 2.557 1.678 4064
0.457 2.568 1.674 4341
0.459 2.579 1.670 4433
0.460 2.584 1.662 4169
0.463 2.601 1.663 3995
0.465 2.613 1.659 4333
0.466 2.617 1.651 4047
0.468 2.628 1.647 3144
0.476 2.673 1.662 2337
0.478 2.684 1.658 1942
0.494 2.778 1.699 2127
0.482 2.707 1.649 2422
0.484 2.718 1.645 3284
0.482 2.708 1.629 3208
0.483 2.713 1.621 3232
0.503 2.827 1.672 2683
0.505 2.839 1.667 2985
0.503 2.829 1.652 2220
0.497 2.792 1.621 2299
0.516 2.900 1.667 1874
0.515 2.897 1.655 1901
0.519 2.916 1.653 2187
0.524 2.948 1.659 2936
0.525 2.952 1.650 3573
0.527 2.964 1.645 4241
0.530 2.982 1.643 3722
0.542 3.049 1.665 3355
0.544 3.061 1.659 3139
0.545 3.065 1.650 2967
0.546 3.069 1.641 2208
0.557 3.130 1.659 1974
0.556 3.127 1.646 2739
0.557 3.131 1.637 3513
0.558 3.136 1.627 3513
0.557 3.133 1.615 2830
0.569 3.201 1.635 2610
0.571 3.212 1.629 2827
0.572 3.217 1.619 3064
0.574 3.228 1.613 2352
0.583 3.275 1.622 2368
0.583 3.279 1.612 2368
0.584 3.283 1.602 1184
0.269 1.511 0.818 214
0.118 0.650 1.674 8851
0.121 0.667 1.701 15621
0.121 0.671 1.699 22555
0.122 0.676 1.697 25137
0.124 0.683 1.702 27883
0.124 0.688 1.700 27883
0.125 0.692 1.697 20639
0.127 0.703 1.710 14017
0.125 0.691 1.672 11708
0.125 0.689 1.655 11300
0.125 0.693 1.653 9747
0.133 0.735 1.729 8700
0.133 0.736 1.720 8907
0.134 0.741 1.718 9102
0.135 0.745 1.716 8966
0.134 0.743 1.699 7802
0.133 0.736 1.676 8227
0.135 0.744 1.680 8012
0.136 0.752 1.685 8057
0.138 0.764 1.697 7284
0.140 0.776 1.709 7285
0.142 0.784 1.713 9460
0.143 0.792 1.718 11863
0.144 0.796 1.716 17566
0.146 0.804 1.720 23304
0.146 0.805 1.711 23547
0.147 0.810 1.708 23825
0.147 0.814 1.706 20699
0.149 0.822 1.710 17807
0.150 0.831 1.715 21526
0.151 0.835 1.712 26159
0.151 0.836 1.703 25817
0.152 0.840 1.700 18252
0.153 0.845 1.697 11664
0.154 0.853 1.702 11219
0.155 0.858 1.699 10777
0.157 0.866 1.703 12445
0.157 0.870 1.701 14227
0.158 0.871 1.691 12318
0.158 0.875 1.689 7258
0.158 0.876 1.679 4217
0.164 0.908 1.724 4758
0.164 0.905 1.708 5678
0.162 0.893 1.678 5431
0.165 0.914 1.702 5015
0.169 0.934 1.726 6064
0.168 0.927 1.703 12191
0.168 0.931 1.701 21649
0.170 0.940 1.704 25142
0.171 0.944 1.702 26780
0.172 0.949 1.699 24530
0.173 0.957 1.702 21458
0.174 0.962 1.700 18041
0.176 0.970 1.703 14628
0.176 0.975 1.700 15014
0.177 0.979 1.697 16003
0.177 0.979 1.688 19427
0.178 0.984 1.685 21513
0.180 0.993 1.688 18902
0.182 1.006 1.699 25298
0.184 1.015 1.702 34514
0.184 1.019 1.699 35222
0.185 1.023 1.696 27830
0.188 1.037 1.706 20925
0.188 1.041 1.703 17625
0.189 1.046 1.699 14319
0.190 1.050 1.696 9257
0.190 1.050 1.687 7089
0.193 1.068 1.703 15462
0.195 1.077 1.706 22978
0.196 1.082 1.703 25137
0.197 1.091 1.706 24406
0.198 1.095 1.703 23144
0.199 1.099 1.699 22581
0.200 1.104 1.696 20957
0.201 1.108 1.693 15600
0.202 1.117 1.696 10682
0.204 1.127 1.698 13912
0.206 1.136 1.701 18457
0.207 1.145 1.704 15682
0.210 1.159 1.713 11796
0.211 1.168 1.716 11524
0.213 1.177 1.719 9677
0.214 1.182 1.715 6276
0.215 1.186 1.712 6696
0.216 1.196 1.714 9889
0.217 1.200 1.711 11818
0.219 1.210 1.713 11539
0.220 1.214 1.710 10378
0.220 1.219 1.706 7678
0.221 1.223 1.702 6275
0.221 1.223 1.692 9273
0.222 1.227 1.689 9608
0.224 1.236 1.691 7225
0.224 1.236 1.681 6655
0.224 1.240 1.678 5526
0.229 1.265 1.698 4834
0.231 1.274 1.700 9561
0.231 1.279 1.696 9637
0.236 1.303 1.717 6851
0.236 1.303 1.707 6733
0.236 1.302 1.697 11206
0.237 1.312 1.699 14904
0.239 1.321 1.701 13668
0.241 1.331 1.703 10181
0.242 1.335 1.699 7628
0.242 1.340 1.695 8818
0.243 1.344 1.691 8562
0.245 1.354 1.692 9182
0.247 1.364 1.694 14520
0.248 1.373 1.696 17193
0.250 1.383 1.698 18496
0.252 1.393 1.699 14593
0.254 1.402 1.701 10312
0.256 1.412 1.702 12085
0.257 1.422 1.704 10468
0.258 1.427 1.699 9198
0.259 1.431 1.695 15290
0.261 1.441 1.697 17855
0.262 1.445 1.692 18162
0.263 1.455 1.694 15780
0.266 1.470 1.700 10841
0.268 1.480 1.702 12068
0.268 1.479 1.692 12326
0.270 1.495 1.698 12900
0.272 1.505 1.699 17863
0.273 1.509 1.695 18292
0.274 1.514 1.690 12867
0.278 1.535 1.702 9436
0.275 1.522 1.681 10576
0.279 1.544 1.693 11646
0.280 1.548 1.689 17479
0.280 1.547 1.678 15643
0.280 1.546 1.668 8958
0.281 1.556 1.669 9780
0.281 1.554 1.659 9935
0.283 1.564 1.660 7966
0.290 1.603 1.687 12352
0.291 1.607 1.683 18083
0.293 1.617 1.683 19253
0.293 1.622 1.678 14077
0.295 1.632 1.679 9858
0.296 1.636 1.674 8718
0.299 1.652 1.679 10431
0.303 1.674 1.690 16246
0.305 1.684 1.691 16629
0.306 1.689 1.685 14197
0.307 1.699 1.686 12694
0.308 1.703 1.680 12287
0.310 1.714 1.681 8145
0.317 1.753 1.706 5959
0.318 1.758 1.701 9920
0.320 1.768 1.701 11808
0.322 1.779 1.701 12084
0.323 1.783 1.696 10083
0.327 1.805 1.705 7437
0.329 1.816 1.705 7813
0.329 1.820 1.700 6999
0.331 1.831 1.699 6207
0.333 1.841 1.699 7151
0.334 1.846 1.693 6719
0.334 1.844 1.683 4349
0.334 1.849 1.677 3566
0.343 1.895 1.706 4217
0.344 1.900 1.700 8279
0.346 1.911 1.700 13667
0.348 1.921 1.699 17074
0.350 1.932 1.698 15636
0.353 1.948 1.702 10370
0.354 1.959 1.701 8605
0.355 1.964 1.695 7272
0.357 1.974 1.694 5892
0.361 1.997 1.702 7786
0.362 2.002 1.696 8146
0.363 2.006 1.690 8125
0.365 2.017 1.689 8443
0.366 2.021 1.683 6956
0.369 2.038 1.686 6435
0.370 2.043 1.680 6129
0.370 2.047 1.674 5745
0.375 2.070 1.682 7115
0.378 2.087 1.685 8762
0.380 2.098 1.683 8243
0.384 2.122 1.690 7167
0.387 2.139 1.693 6274
0.391 2.162 1.700 6404
0.394 2.180 1.703 6302
0.401 2.216 1.719 7383
0.401 2.214 1.708 7622
0.397 2.193 1.683 8003
0.398 2.197 1.677 6901
0.400 2.208 1.675 5121
0.401 2.219 1.672 3192
0.406 2.243 1.679 2692
0.408 2.254 1.676 3693
0.409 2.258 1.670 4738
0.409 2.262 1.663 5167
0.410 2.267 1.656 6271
0.412 2.278 1.654 6256
0.428 2.367 1.702 6499
0.429 2.372 1.695 5364
0.430 2.376 1.688 4062
0.432 2.387 1.685 3934
0.436 2.411 1.691 4026
0.440 2.429 1.692 4024
0.442 2.440 1.689 3534
0.442 2.445 1.681 3597
0.443 2.449 1.674 4124
0.444 2.453 1.667 4589
0.443 2.451 1.655 3729
0.460 2.542 1.700 2696
0.462 2.553 1.697 3230
0.463 2.558 1.689 3690
0.464 2.562 1.682 4149
0.464 2.567 1.674 4295
0.466 2.578 1.670 4200
0.467 2.582 1.662 3853
0.470 2.600 1.663 3773
0.472 2.611 1.659 3929
0.473 2.615 1.651 3730
0.475 2.627 1.647 2873
0.483 2.672 1.662 2118
0.485 2.683 1.658 1836
0.502 2.776 1.699 2176
0.489 2.705 1.649 2509
0.492 2.716 1.645 3478
0.490 2.707 1.629 3483
0.491 2.711 1.621 3631
0.511 2.826 1.672 2964
0.512 2.830 1.664 3419
0.510 2.821 1.648 2745
0.505 2.790 1.621 2850
0.506 2.795 1.613 1909
0.524 2.896 1.655 1905
0.527 2.914 1.653 2122
0.533 2.946 1.659 2623
0.535 2.958 1.653 3333
0.537 2.969 1.648 4128
0.539 2.980 1.643 3835
0.543 2.999 1.641 3630
0.552 3.052 1.656 3075
0.553 3.056 1.647 2841
0.554 3.061 1.638 2205
0.567 3.135 1.662 2143
0.567 3.133 1.649 2869
0.566 3.130 1.637 3661
0.567 3.134 1.627 3661
0.565 3.124 1.611 2993
0.580 3.206 1.638 2709
0.581 3.211 1.629 2995
0.582 3.215 1.619 3280
0.585 3.233 1.616 2558
0.592 3.273 1.622 2605
0.593 3.277 1.612 2605
0.594 3.282 1.602 1302
0.275 1.518 0.821 219
0.123 0.665 1.710 8080
0.123 0.666 1.701 14734
0.124 0.671 1.699 21537
0.125 0.675 1.697 23804
0.126 0.683 1.702 26146
0.127 0.687 1.700 26146
0.128 0.692 1.697 19096
0.130 0.703 1.710 12896
0.127 0.687 1.665 12173
0.127 0.688 1.655 13039
0.128 0.693 1.653 11436
0.128 0.694 1.644 9876
0.136 0.736 1.720 8427
0.137 0.740 1.718 8486
0.137 0.745 1.716 8315
0.137 0.742 1.699 7363
0.135 0.733 1.669 8737
0.137 0.744 1.680 7744
0.139 0.755 1.692 7797
0.141 0.767 1.704 7518
0.143 0.775 1.709 7858
0.144 0.783 1.713 10394
0.145 0.788 1.711 13100
0.147 0.796 1.716 18151
0.148 0.800 1.713 23345
0.148 0.805 1.711 23149
0.149 0.809 1.708 22953
0.150 0.814 1.706 19938
0.152 0.822 1.710 17073
0.153 0.830 1.715 20490
0.154 0.835 1.712 24898
0.155 0.839 1.710 24781
0.156 0.844 1.707 17772
0.156 0.848 1.704 11416
0.157 0.853 1.702 11486
0.158 0.857 1.699 11557
0.160 0.865 1.703 12937
0.160 0.870 1.701 14357
0.161 0.870 1.691 12523
0.161 0.875 1.689 7814
0.167 0.903 1.727 5421
0.167 0.908 1.724 6471
0.168 0.908 1.714 7624
0.168 0.909 1.705 6063
0.165 0.897 1.675 5215
0.168 0.913 1.693 5627
0.170 0.922 1.697 11623
0.172 0.930 1.701 20570
0.173 0.939 1.704 23924
0.174 0.944 1.702 25719
0.175 0.948 1.699 24070
0.176 0.957 1.702 21239
0.177 0.961 1.700 17147
0.179 0.970 1.703 13241
0.180 0.974 1.700 13821
0.181 0.979 1.697 14948
0.181 0.979 1.688 17995
0.181 0.983 1.685 19584
0.184 0.996 1.695 16824
0.185 1.005 1.699 22499
0.187 1.014 1.702 31171
0.188 1.018 1.699 31996
0.189 1.023 1.696 25626
0.191 1.036 1.706 20141
0.192 1.041 1.703 16894
0.193 1.045 1.699 13577
0.194 1.049 1.696 8987
0.194 1.049 1.687 7116
0.196 1.063 1.696 15242
0.198 1.072 1.700 23051
0.199 1.081 1.703 25642
0.201 1.090 1.706 24932
0.202 1.094 1.703 22712
0.203 1.099 1.699 21453
0.204 1.103 1.696 20116
0.204 1.108 1.693 15532
0.206 1.117 1.696 11506
0.208 1.126 1.698 15467
0.209 1.135 1.701 20069
0.211 1.144 1.704 16345
0.214 1.158 1.713 11867
0.215 1.167 1.716 11466
0.217 1.177 1.719 9834
0.219 1.186 1.721 7047
0.219 1.186 1.712 7672
0.220 1.195 1.714 9785
0.222 1.204 1.717 10673
0.223 1.209 1.713 10513
0.224 1.213 1.710 9213
0.225 1.218 1.706 6450
0.225 1.222 1.702 6296
0.225 1.222 1.692 10077
0.228 1.236 1.701 10642
0.229 1.241 1.697 8507
0.228 1.235 1.681 6352
0.228 1.234 1.671 4832
0.230 1.249 1.680 4646
0.235 1.273 1.700 9548
0.234 1.268 1.684 10800
0.239 1.297 1.711 6051
0.240 1.302 1.707 7307
0.240 1.301 1.697 12278
0.241 1.306 1.693 13174
0.244 1.320 1.701 10940
0.246 1.335 1.709 10114
0.246 1.335 1.699 9320
0.247 1.339 1.695 10246
0.247 1.338 1.685 10308
0.249 1.348 1.686 9934
0.251 1.363 1.694 12186
0.253 1.372 1.696 13968
0.255 1.382 1.698 16853
0.257 1.392 1.699 13477
0.259 1.402 1.701 10258
0.259 1.406 1.697 13528
0.262 1.421 1.704 12280
0.263 1.426 1.699 10157
0.265 1.435 1.701 16131
0.266 1.440 1.697 20269
0.266 1.444 1.692 21040
0.268 1.454 1.694 17896
0.270 1.464 1.695 10727
0.272 1.474 1.696 10631
0.273 1.478 1.692 12356
0.276 1.494 1.698 13186
0.277 1.504 1.699 17526
0.277 1.503 1.689 18370
0.279 1.513 1.690 13386
0.282 1.528 1.697 9557
0.282 1.527 1.687 10801
0.282 1.531 1.682 12462
0.285 1.547 1.689 19963
0.285 1.546 1.678 18410
0.285 1.545 1.668 9374
0.286 1.549 1.664 10267
0.287 1.553 1.659 10750
0.288 1.563 1.660 8469
0.294 1.596 1.682 12379
0.296 1.606 1.683 20342
0.298 1.616 1.683 20146
0.298 1.615 1.673 13095
0.300 1.625 1.673 11242
0.302 1.635 1.674 11402
0.304 1.645 1.674 11703
0.309 1.673 1.690 15654
0.311 1.683 1.691 15161
0.311 1.688 1.685 13513
0.313 1.698 1.686 12477
0.314 1.702 1.680 13109
0.314 1.701 1.670 8124
0.324 1.758 1.712 8648
0.324 1.757 1.701 13278
0.326 1.767 1.701 12828
0.328 1.778 1.701 11225
0.329 1.782 1.696 9883
0.332 1.798 1.700 6897
0.335 1.815 1.705 7920
0.336 1.819 1.700 8222
0.336 1.824 1.694 6694
0.338 1.834 1.694 6220
0.339 1.839 1.688 5793
0.339 1.837 1.678 5147
0.341 1.847 1.677 5881
