-2.786 1.716 1.703 3235
-2.606 1.606 1.592 3070
-2.861 1.763 1.720 3281
-2.865 1.765 1.710 3281
-2.862 1.764 1.697 3725
-2.854 1.758 1.681 4222
-2.833 1.746 1.658 4441
-2.831 1.744 1.645 5208
-2.995 1.845 1.719 6098
-2.998 1.847 1.708 8340
-3.002 1.850 1.698 8340
-3.006 1.852 1.687 4170
-0.523 0.324 1.573 14360
-0.523 0.324 1.563 12044
-0.513 0.318 1.526 10179
-0.544 0.337 1.596 10503
-0.548 0.340 1.594 12665
-0.549 0.340 1.585 13108
-0.552 0.342 1.583 13726
-0.553 0.343 1.574 13793
-0.557 0.345 1.572 12225
-0.557 0.345 1.563 10466
-0.540 0.335 1.511 10507
-0.541 0.335 1.502 12012
-0.544 0.337 1.500 17029
-0.547 0.339 1.498 22045
-0.551 0.341 1.496 22796
-0.557 0.345 1.501 24205
-0.560 0.347 1.499 18828
-0.567 0.351 1.504 13831
-0.567 0.352 1.495 13212
-0.564 0.350 1.479 13658
-0.568 0.352 1.477 16094
-0.571 0.354 1.475 18530
-0.580 0.360 1.487 23992
-0.584 0.362 1.485 30049
-0.587 0.364 1.483 29258
-0.590 0.366 1.481 28468
-0.594 0.368 1.478 20316
-0.649 0.402 1.588 16186
-0.655 0.406 1.592 14314
-0.665 0.412 1.604 13400
-0.698 0.433 1.664 13053
-0.702 0.435 1.661 16344
-0.709 0.440 1.666 14632
-0.716 0.444 1.670 13320
-0.720 0.446 1.667 9826
-0.724 0.449 1.665 6333
-0.701 0.434 1.608 7620
-0.708 0.439 1.612 9333
-0.715 0.443 1.616 8839
-0.718 0.445 1.614 8222
-0.722 0.448 1.611 7606
-0.726 0.450 1.609 7893
-0.740 0.458 1.626 9325
-0.747 0.463 1.631 11129
-0.754 0.467 1.635 9866
-0.765 0.474 1.645 8584
-0.768 0.476 1.643 10699
-0.779 0.483 1.654 11663
-0.787 0.488 1.657 10441
-0.790 0.490 1.655 9898
-0.798 0.494 1.659 12097
-0.805 0.499 1.662 15474
-0.805 0.499 1.653 19147
-0.805 0.499 1.643 19916
-0.805 0.499 1.634 16303
-0.809 0.501 1.631 19501
-0.820 0.508 1.642 22691
-0.824 0.511 1.639 25576
-0.827 0.513 1.636 26448
-0.827 0.513 1.626 24411
-0.823 0.510 1.610 22900
-0.827 0.513 1.607 27757
-0.831 0.515 1.604 34205
-0.834 0.517 1.602 39373
-0.838 0.519 1.599 37087
-0.842 0.522 1.596 22725
-0.845 0.524 1.593 13293
-0.845 0.524 1.583 13987
-0.852 0.528 1.587 16459
-0.864 0.535 1.597 14935
-0.863 0.535 1.587 7295
-0.859 0.532 1.571 4000
-0.863 0.535 1.568 3842
-0.950 0.589 1.699 5494
-0.878 0.544 1.575 7569
-0.949 0.588 1.680 8381
-0.949 0.588 1.670 15668
-0.961 0.596 1.680 19613
-0.965 0.598 1.676 19465
-0.969 0.600 1.673 15588
-0.960 0.595 1.651 14135
-0.964 0.597 1.647 15420
-0.972 0.602 1.650 12615
-0.975 0.605 1.647 11729
-0.979 0.607 1.643 19067
-0.983 0.609 1.640 26079
-0.995 0.617 1.649 28921
-1.003 0.622 1.651 30903
-1.006 0.624 1.648 31539
-1.006 0.624 1.638 24516
-1.056 0.655 1.702 17371
-1.065 0.660 1.705 24418
-1.068 0.662 1.701 36940
-1.072 0.665 1.697 42935
-1.076 0.667 1.693 39687
-1.080 0.669 1.690 32537
-1.088 0.674 1.692 22783
-1.092 0.677 1.688 23437
-1.096 0.679 1.684 27033
-1.108 0.687 1.692 23995
-1.116 0.692 1.695 22808
-1.125 0.697 1.697 18094
-1.129 0.700 1.693 10693
-1.150 0.713 1.713 8216
-1.167 0.724 1.726 7931
-1.171 0.726 1.722 7787
-1.166 0.723 1.706 9047
-1.170 0.725 1.702 13475
-1.183 0.733 1.710 17119
-1.187 0.736 1.706 16926
-1.182 0.732 1.690 10577
-1.172 0.726 1.668 7101
-1.212 0.751 1.711 13411
-1.221 0.757 1.712 18866
-1.224 0.759 1.708 16066
-1.228 0.761 1.704 13926
-1.232 0.764 1.699 15945
-1.236 0.766 1.695 16219
-1.240 0.768 1.691 11545
-1.262 0.782 1.709 8818
-1.276 0.791 1.716 11993
-1.284 0.796 1.717 12573
-1.293 0.801 1.719 14564
-1.301 0.807 1.720 10815
-1.305 0.809 1.715 10215
-1.323 0.820 1.727 16653
-1.327 0.823 1.723 19017
-1.331 0.825 1.718 28013
-1.340 0.831 1.719 35113
-1.349 0.836 1.720 23183
-1.357 0.841 1.721 20409
-1.356 0.841 1.711 22300
-1.365 0.846 1.711 12981
-1.389 0.861 1.728 14582
-1.388 0.860 1.718 18226
-1.391 0.862 1.713 14228
-1.405 0.871 1.719 8328
-1.414 0.876 1.720 16200
-1.418 0.879 1.715 26664
-1.427 0.884 1.715 22167
-1.431 0.887 1.710 18403
-1.439 0.892 1.711 14811
-1.458 0.904 1.722 10075
-1.462 0.906 1.717 11366
-1.471 0.912 1.717 11668
-1.495 0.927 1.733 10450
-1.499 0.929 1.727 11113
-1.503 0.932 1.722 10372
-1.507 0.934 1.717 10999
-1.506 0.933 1.707 12948
-1.499 0.929 1.691 10731
-1.493 0.925 1.675 8817
-1.502 0.931 1.675 10220
-1.536 0.952 1.701 9588
-1.545 0.958 1.701 11039
-1.549 0.960 1.695 12058
-1.553 0.963 1.690 12266
-1.562 0.968 1.689 13344
-1.566 0.971 1.684 11687
-1.632 1.012 1.739 13192
-1.636 1.014 1.733 15469
-1.640 1.016 1.727 11095
-1.639 1.016 1.717 6861
-1.664 1.031 1.731 9640
-1.673 1.037 1.730 23383
-1.677 1.039 1.724 34685
-1.686 1.045 1.723 36084
-1.690 1.047 1.717 30651
-1.688 1.046 1.707 22172
-1.692 1.049 1.701 15970
-1.728 1.071 1.724 26289
-1.732 1.074 1.718 34508
-1.741 1.079 1.717 34487
-1.750 1.085 1.715 32610
-1.754 1.087 1.709 29975
-1.764 1.093 1.708 23649
-1.767 1.096 1.702 14400
-1.777 1.101 1.700 8802
-1.802 1.117 1.713 11167
-1.801 1.116 1.702 14554
-1.799 1.115 1.691 14000
-1.803 1.118 1.685 13394
-1.812 1.123 1.683 11475
-1.844 1.143 1.700 9996
-1.858 1.152 1.702 12200
-1.873 1.161 1.705 14889
-1.883 1.167 1.703 15857
-1.881 1.166 1.692 14222
-1.896 1.175 1.694 13261
-1.911 1.184 1.697 14934
-1.915 1.187 1.690 13638
-1.918 1.189 1.683 8486
-1.950 1.209 1.699 6571
-1.954 1.211 1.692 10110
-1.964 1.217 1.690 18696
-1.967 1.219 1.683 23437
-1.971 1.222 1.676 22564
-1.975 1.224 1.669 20866
-1.984 1.230 1.666 20361
-1.988 1.232 1.660 20693
-1.992 1.235 1.653 16649
-1.990 1.233 1.642 7947
-2.142 1.327 1.744 7516
-2.146 1.330 1.737 7331
-2.150 1.332 1.729 5468
-2.188 1.356 1.747 5187
-2.186 1.355 1.735 6311
-2.179 1.350 1.719 6738
-2.177 1.349 1.707 7275
-2.181 1.352 1.700 6421
-2.242 1.390 1.733 6689
-2.258 1.399 1.733 8378
-2.273 1.409 1.733 8727
-2.289 1.419 1.733 7950
-2.310 1.432 1.737 6798
-2.320 1.438 1.733 6631
-2.324 1.440 1.725 6506
-2.328 1.443 1.717 6502
-2.332 1.445 1.709 6499
-2.353 1.458 1.713 7598
-2.363 1.465 1.708 10041
-2.361 1.463 1.696 10642
-2.371 1.469 1.692 7927
-2.374 1.472 1.684 5264
-2.467 1.529 1.732 5632
-2.471 1.531 1.724 7130
-2.475 1.534 1.715 6913
-2.473 1.533 1.703 6722
-2.494 1.546 1.705 5537
-2.510 1.556 1.704 5195
-2.508 1.555 1.692 3955
-2.572 1.594 1.719 3579
-2.582 1.600 1.714 4509
-2.585 1.602 1.705 5522
-2.583 1.601 1.693 6888
-2.587 1.604 1.684 8384
-2.591 1.606 1.675 7829
-2.589 1.604 1.662 7349
-2.617 1.622 1.667 6684
-2.632 1.632 1.665 7351
-2.636 1.634 1.656 6796
-2.640 1.636 1.647 6504
-2.644 1.639 1.638 4323
-2.775 1.720 1.699 3264
-2.602 1.613 1.592 3072
-2.850 1.766 1.717 3322
-2.854 1.769 1.707 3322
-2.858 1.771 1.697 3766
-2.849 1.766 1.681 4240
-2.828 1.753 1.658 4420
-2.826 1.752 1.645 5191
-2.990 1.853 1.719 6109
-2.994 1.855 1.708 8368
-2.997 1.858 1.698 8368
-3.001 1.860 1.687 4184
-0.522 0.325 1.573 14250
-0.523 0.325 1.563 11951
-0.513 0.319 1.526 10078
-0.544 0.338 1.596 10445
-0.548 0.340 1.594 12585
-0.548 0.341 1.585 13017
-0.552 0.343 1.583 13623
-0.553 0.343 1.574 13681
-0.556 0.346 1.572 12122
-0.557 0.346 1.563 10363
-0.540 0.335 1.511 10394
-0.540 0.336 1.502 11952
-0.544 0.338 1.500 16904
-0.547 0.340 1.498 21857
-0.553 0.344 1.503 22606
-0.557 0.346 1.501 24001
-0.560 0.348 1.499 18690
-0.566 0.352 1.504 13742
-0.567 0.352 1.495 13110
-0.564 0.350 1.479 13525
-0.567 0.352 1.477 15914
-0.571 0.354 1.475 18304
-0.580 0.360 1.487 23750
-0.583 0.362 1.485 29778
-0.587 0.365 1.483 29007
-0.590 0.367 1.481 28236
-0.593 0.369 1.478 20151
-0.648 0.403 1.588 16049
-0.655 0.407 1.592 14189
-0.665 0.413 1.604 13270
-0.698 0.434 1.664 12934
-0.702 0.436 1.661 16197
-0.709 0.440 1.666 14509
-0.716 0.445 1.670 13215
-0.720 0.447 1.667 9762
-0.723 0.449 1.665 6309
-0.700 0.435 1.608 7731
-0.707 0.439 1.612 9435
-0.714 0.444 1.616 8901
-0.718 0.446 1.614 8267
-0.722 0.448 1.611 7634
-0.725 0.451 1.609 7887
-0.739 0.459 1.626 9338
-0.746 0.464 1.631 11152
-0.754 0.468 1.635 9844
-0.764 0.475 1.645 8523
-0.768 0.477 1.643 10600
-0.779 0.484 1.654 11604
-0.786 0.488 1.657 10435
-0.790 0.491 1.655 9901
-0.797 0.495 1.659 12052
-0.805 0.500 1.662 15422
-0.805 0.500 1.653 19006
-0.805 0.500 1.643 19752
-0.805 0.500 1.634 16185
-0.808 0.502 1.631 19346
-0.819 0.509 1.642 22468
-0.823 0.511 1.639 25346
-0.827 0.514 1.636 26259
-0.827 0.514 1.626 24301
-0.823 0.511 1.610 22892
-0.827 0.514 1.607 27675
-0.830 0.516 1.604 34022
-0.834 0.518 1.602 39144
-0.837 0.520 1.599 36836
-0.841 0.523 1.596 22571
-0.841 0.522 1.586 13260
-0.844 0.525 1.583 13991
-0.852 0.529 1.587 16392
-0.863 0.536 1.597 14775
-0.863 0.536 1.587 7146
-0.858 0.533 1.571 3924
-0.862 0.536 1.568 3826
-0.949 0.590 1.699 5342
-0.877 0.545 1.575 7506
-0.949 0.589 1.680 8305
-0.948 0.589 1.670 15596
-0.960 0.597 1.680 19474
-0.964 0.599 1.676 19222
-0.968 0.601 1.673 15289
-0.959 0.596 1.651 14071
-0.963 0.598 1.647 15556
-0.971 0.603 1.650 12893
-0.975 0.606 1.647 11843
-0.978 0.608 1.643 18921
-0.982 0.610 1.640 25876
-0.994 0.618 1.649 28838
-1.002 0.623 1.651 30776
-1.006 0.625 1.648 31270
-1.005 0.625 1.638 24319
-1.056 0.656 1.702 17068
-1.064 0.661 1.705 24246
-1.068 0.663 1.701 36837
-1.071 0.666 1.697 42713
-1.075 0.668 1.693 39433
-1.079 0.671 1.690 32317
-1.083 0.673 1.686 22531
-1.091 0.678 1.688 23135
-1.095 0.680 1.684 26701
-1.107 0.688 1.692 23674
-1.116 0.693 1.695 22603
-1.124 0.698 1.697 18035
-1.128 0.701 1.693 10726
-1.149 0.714 1.713 8199
-1.167 0.725 1.726 7839
-1.175 0.730 1.728 7647
-1.165 0.724 1.706 8815
-1.169 0.727 1.702 13360
-1.182 0.735 1.710 17023
-1.186 0.737 1.706 16622
-1.181 0.734 1.690 10363
-1.171 0.728 1.668 7083
-1.211 0.753 1.711 13353
-1.220 0.758 1.712 18850
-1.224 0.760 1.708 16159
-1.227 0.763 1.704 14011
-1.231 0.765 1.699 15851
-1.235 0.767 1.695 16065
-1.239 0.770 1.691 11411
-1.262 0.784 1.709 8804
-1.275 0.792 1.716 12103
-1.283 0.797 1.717 12939
-1.292 0.803 1.719 15029
-1.301 0.808 1.720 11015
-1.309 0.813 1.721 10076
-1.323 0.822 1.727 16424
-1.326 0.824 1.723 18832
-1.330 0.827 1.718 28205
-1.339 0.832 1.719 35700
-1.348 0.837 1.720 23439
-1.356 0.843 1.721 20225
-1.356 0.842 1.711 21995
-1.364 0.848 1.711 13035
-1.383 0.859 1.723 14429
-1.387 0.862 1.718 18227
-1.391 0.864 1.713 14151
-1.404 0.872 1.719 8319
-1.413 0.878 1.720 16189
-1.417 0.880 1.715 26626
-1.426 0.886 1.715 22403
-1.430 0.888 1.710 18667
-1.438 0.894 1.711 14905
-1.457 0.905 1.722 10077
-1.466 0.911 1.722 11328
-1.470 0.913 1.717 11712
-1.494 0.928 1.733 10409
-1.498 0.931 1.727 10974
-1.502 0.933 1.722 10271
-1.506 0.936 1.717 10959
-1.505 0.935 1.707 13071
-1.498 0.931 1.691 11001
-1.492 0.927 1.675 8663
-1.501 0.932 1.675 9992
-1.535 0.954 1.701 9557
-1.544 0.960 1.701 10881
-1.548 0.962 1.695 11844
-1.552 0.964 1.690 12073
-1.561 0.970 1.689 13058
-1.565 0.972 1.684 11506
-1.631 1.013 1.739 12872
-1.635 1.016 1.733 15179
-1.639 1.018 1.727 10929
-1.638 1.017 1.717 6777
-1.662 1.033 1.731 9546
-1.672 1.039 1.730 23145
-1.676 1.041 1.724 34293
-1.685 1.047 1.723 35841
-1.689 1.049 1.717 30616
-1.687 1.048 1.707 22164
-1.691 1.051 1.701 15851
-1.727 1.073 1.724 25923
-1.731 1.075 1.718 34049
-1.740 1.081 1.717 34155
-1.749 1.087 1.715 32461
-1.753 1.089 1.709 29832
-1.762 1.095 1.708 23385
-1.766 1.097 1.702 14107
-1.776 1.103 1.700 8780
-1.801 1.119 1.713 11169
-1.800 1.118 1.702 14537
-1.798 1.117 1.691 13936
-1.802 1.120 1.685 13363
-1.806 1.122 1.678 11473
-1.837 1.141 1.695 9859
-1.857 1.154 1.702 12162
-1.872 1.163 1.705 14923
-1.881 1.169 1.703 15817
-1.880 1.168 1.692 14185
-1.895 1.177 1.694 13224
-1.910 1.186 1.697 14873
-1.913 1.189 1.690 13580
-1.917 1.191 1.683 8488
-1.949 1.211 1.699 6680
-1.953 1.213 1.692 10135
-1.962 1.219 1.690 18639
-1.966 1.222 1.683 23356
-1.970 1.224 1.676 22458
-1.974 1.226 1.669 20714
-1.983 1.232 1.666 20237
-1.987 1.234 1.660 20610
-1.990 1.237 1.653 16507
-1.989 1.236 1.642 7854
-2.140 1.330 1.744 7465
-2.144 1.332 1.737 7334
-2.148 1.335 1.729 5481
-2.186 1.359 1.747 5126
-2.185 1.357 1.735 6256
-2.177 1.353 1.719 6697
-2.175 1.352 1.707 7246
-2.179 1.354 1.700 6401
-2.241 1.392 1.733 6628
-2.256 1.402 1.733 8309
-2.272 1.411 1.733 8644
-2.287 1.421 1.733 7866
-2.309 1.434 1.737 6738
-2.318 1.440 1.733 6593
-2.322 1.443 1.725 6484
-2.326 1.445 1.717 6485
-2.330 1.448 1.709 6485
-2.351 1.461 1.713 7553
-2.361 1.467 1.708 9989
-2.359 1.466 1.696 10602
-2.369 1.472 1.692 7897
-2.373 1.474 1.684 5244
-2.465 1.532 1.732 5584
-2.469 1.534 1.724 7084
-2.473 1.537 1.715 6881
-2.471 1.535 1.703 6697
-2.493 1.549 1.705 5531
-2.508 1.559 1.704 5196
-2.506 1.557 1.692 3947
-2.570 1.597 1.719 3582
-2.580 1.603 1.714 4484
-2.584 1.605 1.705 5476
-2.582 1.604 1.693 6832
-2.585 1.606 1.684 8320
-2.589 1.609 1.675 7780
-2.587 1.607 1.662 7314
-2.615 1.625 1.667 6654
-2.631 1.635 1.665 7312
-2.634 1.637 1.656 6752
-2.638 1.639 1.647 6454
-2.642 1.641 1.638 4281
-2.773 1.723 1.699 3202
-2.600 1.616 1.592 3108
-2.854 1.773 1.720 3277
-2.858 1.776 1.710 3277
-2.856 1.774 1.697 3725
-2.847 1.769 1.681 4210
-2.826 1.756 1.658 4418
-2.824 1.755 1.645 5196
-2.988 1.856 1.719 6043
-2.991 1.859 1.708 8267
-2.995 1.861 1.698 8267
-2.999 1.864 1.687 4133
-0.522 0.326 1.573 13834
-0.522 0.326 1.563 11644
-0.512 0.320 1.526 9961
-0.543 0.339 1.596 10131
-0.547 0.342 1.594 12142
-0.548 0.342 1.585 12652
-0.551 0.344 1.583 13302
-0.552 0.345 1.574 13361
-0.552 0.345 1.564 11931
-0.556 0.347 1.563 10282
-0.539 0.337 1.511 10746
-0.542 0.339 1.509 12563
-0.543 0.339 1.500 17463
-0.546 0.341 1.498 22486
-0.550 0.343 1.496 23119
-0.556 0.347 1.501 24281
-0.559 0.349 1.499 18937
-0.566 0.353 1.504 13846
-0.566 0.354 1.495 13832
-0.563 0.352 1.479 14635
-0.566 0.354 1.477 16154
-0.570 0.356 1.475 17673
-0.576 0.360 1.480 22710
-0.582 0.364 1.485 28413
-0.586 0.366 1.483 27767
-0.589 0.368 1.481 27121
-0.592 0.370 1.478 19356
-0.647 0.404 1.588 16488
-0.654 0.408 1.592 14267
-0.664 0.415 1.604 12915
-0.697 0.435 1.664 12566
-0.701 0.438 1.661 15912
-0.708 0.442 1.666 14433
-0.715 0.447 1.670 13423
-0.719 0.449 1.667 10028
-0.722 0.451 1.665 6633
-0.699 0.437 1.608 7561
-0.706 0.441 1.612 8911
-0.713 0.446 1.616 8284
-0.717 0.448 1.614 7710
-0.724 0.452 1.618 7172
-0.724 0.452 1.609 7612
-0.742 0.463 1.633 9408
-0.745 0.466 1.631 11342
-0.749 0.468 1.628 10396
-0.760 0.475 1.639 9228
-0.767 0.479 1.643 11359
-0.778 0.486 1.654 11992
-0.781 0.488 1.651 10697
-0.785 0.490 1.648 10146
-0.796 0.497 1.659 11803
-0.803 0.502 1.662 14893
-0.800 0.500 1.646 18414
-0.803 0.502 1.643 19404
-0.804 0.502 1.634 16148
-0.807 0.504 1.631 19119
-0.815 0.509 1.635 22090
-0.822 0.513 1.639 25055
-0.826 0.516 1.636 25994
-0.829 0.518 1.633 24174
-0.825 0.516 1.617 22324
-0.825 0.516 1.607 26587
-0.833 0.520 1.611 33023
-0.833 0.520 1.602 37679
-0.836 0.522 1.599 34479
-0.840 0.525 1.596 20520
-0.839 0.524 1.586 12212
-0.843 0.527 1.583 13531
-0.854 0.534 1.593 17877
-0.862 0.538 1.597 17262
-0.861 0.538 1.587 8573
-0.861 0.538 1.578 4333
-0.865 0.540 1.575 4344
-0.872 0.545 1.578 5455
-0.876 0.547 1.575 7408
-0.947 0.592 1.680 8212
-0.951 0.594 1.677 14968
-0.959 0.599 1.680 18643
-0.967 0.604 1.682 18185
-0.966 0.604 1.673 13689
-0.958 0.598 1.651 12249
-0.962 0.601 1.647 14754
-0.965 0.603 1.644 13115
-0.969 0.605 1.640 10487
-0.973 0.608 1.637 14896
-0.985 0.615 1.646 22878
-0.993 0.620 1.649 28760
-1.001 0.625 1.651 31283
-1.004 0.627 1.648 32196
-1.004 0.627 1.638 26307
-1.003 0.627 1.629 17761
-1.062 0.664 1.705 24497
-1.066 0.666 1.701 37749
-1.070 0.668 1.697 44627
-1.074 0.671 1.693 42060
-1.078 0.673 1.690 34225
-1.081 0.676 1.686 22635
-1.089 0.681 1.688 22439
-1.093 0.683 1.684 26522
-1.106 0.691 1.692 24482
-1.114 0.696 1.695 25447
-1.118 0.698 1.691 21826
-1.126 0.703 1.693 13697
-1.143 0.714 1.707 9081
-1.165 0.728 1.726 7121
-1.173 0.733 1.728 6949
-1.159 0.724 1.700 8493
-1.168 0.729 1.702 13264
-1.180 0.737 1.710 16868
-1.184 0.740 1.706 16286
-1.174 0.734 1.684 10669
-1.165 0.728 1.663 8963
-1.209 0.756 1.711 12213
-1.218 0.761 1.712 17143
-1.222 0.763 1.708 14400
-1.230 0.769 1.710 12360
-1.229 0.768 1.699 15201
-1.233 0.770 1.695 16207
-1.237 0.773 1.691 11785
-1.260 0.787 1.709 9525
-1.273 0.795 1.716 12296
-1.281 0.801 1.717 13246
-1.290 0.806 1.719 16006
-1.299 0.811 1.720 11667
-1.302 0.814 1.715 10505
-1.321 0.825 1.727 16569
-1.324 0.827 1.723 18971
-1.328 0.830 1.718 26752
-1.332 0.832 1.714 33274
-1.346 0.841 1.720 23965
-1.354 0.846 1.721 20961
-1.353 0.846 1.711 20948
-1.362 0.851 1.711 12455
-1.381 0.863 1.723 15040
-1.385 0.865 1.718 19185
-1.388 0.867 1.713 14207
-1.402 0.876 1.719 8955
-1.411 0.881 1.720 16719
-1.415 0.884 1.715 26885
-1.424 0.889 1.715 21677
-1.427 0.892 1.710 17021
-1.436 0.897 1.711 13286
-1.465 0.915 1.732 10727
-1.464 0.915 1.722 12679
-1.468 0.917 1.717 12288
-1.487 0.929 1.727 10147
-1.496 0.934 1.727 11338
-1.500 0.937 1.722 11088
-1.503 0.939 1.717 10952
-1.502 0.939 1.707 13171
-1.496 0.935 1.691 11572
-1.490 0.931 1.675 8612
-1.498 0.936 1.675 9936
-1.533 0.958 1.701 9965
-1.542 0.963 1.701 9968
-1.546 0.966 1.695 11208
-1.550 0.968 1.690 11998
-1.559 0.974 1.689 12670
-1.562 0.976 1.684 10830
-1.629 1.017 1.739 12115
-1.638 1.023 1.738 15419
-1.642 1.026 1.732 12576
-1.635 1.021 1.717 8340
-1.655 1.034 1.726 11739
-1.664 1.039 1.725 25579
-1.673 1.045 1.724 35480
-1.682 1.051 1.723 35187
-1.686 1.053 1.717 29456
-1.685 1.052 1.707 22624
-1.688 1.055 1.701 16692
-1.719 1.074 1.719 25101
-1.728 1.080 1.718 33746
-1.737 1.085 1.717 33860
-1.747 1.091 1.715 31884
-1.756 1.097 1.714 29257
-1.760 1.099 1.708 22632
-1.764 1.102 1.702 12886
-1.773 1.108 1.700 7391
-1.831 1.144 1.741 10808
-1.808 1.129 1.711 13367
-1.795 1.122 1.691 13046
-1.799 1.124 1.685 12836
-1.803 1.126 1.678 11077
-1.839 1.149 1.700 9766
-1.854 1.158 1.702 12666
-1.869 1.168 1.705 15565
-1.873 1.170 1.698 16504
-1.871 1.169 1.687 14963
-1.892 1.182 1.694 13593
-1.907 1.191 1.697 15226
-1.910 1.193 1.690 14179
-1.914 1.196 1.683 8895
-1.946 1.216 1.699 6734
-1.950 1.218 1.692 10094
-1.959 1.224 1.690 17936
-1.963 1.226 1.683 22829
-1.967 1.229 1.676 22484
-1.971 1.231 1.669 20783
-1.980 1.237 1.666 20144
-1.984 1.239 1.660 20428
-1.987 1.242 1.653 16319
-1.985 1.240 1.642 7702
-2.137 1.335 1.744 7406
-2.141 1.338 1.737 7231
-2.145 1.340 1.729 5349
-2.189 1.367 1.751 4779
-2.181 1.363 1.735 5924
-2.174 1.358 1.719 6587
-2.172 1.357 1.707 7266
-2.176 1.359 1.700 6356
-2.237 1.398 1.733 6171
-2.253 1.407 1.733 8043
-2.268 1.417 1.733 8670
-2.290 1.430 1.737 8080
-2.305 1.440 1.737 7153
-2.309 1.442 1.729 7102
-2.319 1.449 1.725 7109
-2.323 1.451 1.717 6965
-2.327 1.453 1.709 6821
-2.342 1.463 1.709 7731
-2.352 1.469 1.705 9877
-2.356 1.472 1.696 10390
-2.365 1.478 1.692 7591
-2.369 1.480 1.684 4912
-2.462 1.538 1.732 5292
-2.465 1.540 1.724 6794
-2.469 1.543 1.715 6688
-2.473 1.545 1.707 6581
-2.489 1.555 1.705 5483
-2.505 1.565 1.704 5248
-2.508 1.567 1.695 4197
-2.554 1.596 1.712 4187
-2.576 1.609 1.714 4685
-2.580 1.612 1.705 5513
-2.584 1.614 1.696 6767
-2.581 1.613 1.684 8218
-2.585 1.615 1.675 7518
-2.583 1.614 1.662 6905
-2.611 1.631 1.667 6339
-2.627 1.641 1.665 7214
-2.630 1.643 1.656 6788
-2.634 1.646 1.647 6623
-2.638 1.648 1.638 4438
-2.769 1.730 1.699 3235
-2.596 1.622 1.592 2893
-2.850 1.780 1.720 3491
-2.854 1.783 1.710 3491
-2.851 1.781 1.697 3857
-2.855 1.784 1.687 4229
-2.828 1.767 1.661 4016
-2.820 1.762 1.645 4598
-2.983 1.864 1.719 5906
-2.993 1.870 1.711 8149
-2.997 1.872 1.701 8149
-3.001 1.875 1.691 4074
-0.521 0.326 1.573 13645
-0.522 0.327 1.563 11517
-0.512 0.320 1.526 10168
-0.543 0.340 1.596 9810
-0.546 0.342 1.594 11699
-0.547 0.343 1.585 12202
-0.551 0.345 1.583 12801
-0.551 0.345 1.574 12882
-0.552 0.346 1.564 11622
-0.553 0.346 1.555 10130
-0.539 0.337 1.511 11119
-0.542 0.340 1.509 13265
-0.542 0.340 1.500 18095
-0.546 0.342 1.498 23143
-0.549 0.344 1.496 23699
-0.555 0.348 1.501 24721
-0.559 0.350 1.499 19304
-0.562 0.352 1.497 14107
-0.562 0.352 1.488 14423
-0.563 0.352 1.479 15360
-0.566 0.355 1.477 16168
-0.569 0.357 1.475 16975
-0.576 0.361 1.480 21533
-0.582 0.365 1.485 26741
-0.585 0.367 1.483 26121
-0.589 0.369 1.481 25502
-0.592 0.371 1.478 18171
-0.647 0.405 1.588 16682
-0.650 0.407 1.585 14210
-0.663 0.416 1.604 12456
-0.696 0.436 1.664 12382
-0.700 0.439 1.661 15780
-0.707 0.443 1.666 14420
-0.714 0.447 1.670 13566
-0.718 0.450 1.667 10229
-0.718 0.450 1.658 6947
-0.702 0.440 1.614 7403
-0.706 0.442 1.612 8370
-0.713 0.446 1.616 7641
-0.720 0.451 1.621 7230
-0.723 0.453 1.618 6833
-0.727 0.455 1.615 7437
-0.737 0.462 1.626 9432
-0.745 0.466 1.631 11376
-0.748 0.469 1.628 10758
-0.759 0.475 1.639 9808
-0.766 0.480 1.643 11975
-0.773 0.485 1.647 12481
-0.781 0.489 1.651 11010
-0.784 0.491 1.648 10454
-0.792 0.496 1.652 11619
-0.803 0.503 1.662 14341
-0.799 0.501 1.646 17805
-0.799 0.501 1.637 18904
-0.803 0.503 1.634 15962
-0.807 0.505 1.631 19108
-0.814 0.510 1.635 22248
-0.821 0.515 1.639 25103
-0.825 0.517 1.636 25919
-0.829 0.519 1.633 24216
-0.825 0.517 1.617 21917
-0.825 0.517 1.607 25953
-0.832 0.521 1.611 32790
-0.832 0.521 1.602 36861
-0.835 0.523 1.599 32643
-0.835 0.523 1.589 18678
-0.839 0.525 1.586 11000
-0.846 0.530 1.590 13266
-0.854 0.535 1.593 19600
-0.861 0.539 1.597 19333
-0.861 0.539 1.587 9734
-0.864 0.541 1.584 4842
-0.868 0.544 1.581 4779
-0.947 0.593 1.699 5781
-0.879 0.551 1.581 6974
-0.947 0.593 1.680 8543
-0.950 0.595 1.677 14797
-0.958 0.600 1.680 18333
-0.966 0.605 1.682 17738
-0.970 0.608 1.679 12617
-0.961 0.602 1.657 10795
-0.965 0.605 1.653 13788
-0.965 0.604 1.644 12943
-0.968 0.607 1.640 10097
-0.972 0.609 1.637 12839
-0.984 0.616 1.646 21582
-0.992 0.621 1.649 29605
-1.000 0.626 1.651 32582
-1.003 0.629 1.648 33641
-1.003 0.628 1.638 28207
-1.053 0.660 1.702 18397
-1.061 0.665 1.705 25392
-1.065 0.667 1.701 38887
-1.069 0.670 1.697 46069
-1.073 0.672 1.693 43836
-1.077 0.674 1.690 35404
-1.080 0.677 1.686 22321
-1.089 0.682 1.688 21230
-1.092 0.684 1.684 25665
-1.105 0.692 1.692 25438
-1.113 0.697 1.695 28659
-1.117 0.700 1.691 25516
-1.125 0.705 1.693 16545
-1.138 0.713 1.701 9931
-1.164 0.729 1.726 6854
-1.168 0.732 1.722 6423
-1.158 0.726 1.700 8460
-1.162 0.728 1.696 13299
-1.179 0.739 1.710 16789
-1.183 0.741 1.706 15920
-1.169 0.732 1.678 11176
-1.164 0.729 1.663 10672
-1.204 0.754 1.705 11417
-1.212 0.760 1.707 15398
-1.221 0.765 1.708 12579
-1.229 0.770 1.710 10856
-1.233 0.773 1.705 14579
-1.232 0.772 1.695 15612
-1.236 0.774 1.691 10972
-1.259 0.788 1.709 9957
-1.272 0.797 1.716 12794
-1.280 0.802 1.717 14010
-1.289 0.807 1.719 17473
-1.298 0.813 1.720 13924
-1.306 0.818 1.721 12627
-1.315 0.824 1.722 17186
-1.323 0.829 1.723 18685
-1.327 0.832 1.718 24749
-1.331 0.834 1.714 29566
-1.345 0.842 1.720 23572
-1.353 0.848 1.721 21076
-1.352 0.847 1.711 19409
-1.366 0.856 1.717 11969
-1.380 0.864 1.723 15478
-1.383 0.867 1.718 19749
-1.392 0.872 1.719 13993
-1.401 0.878 1.719 9148
-1.410 0.883 1.720 16591
-1.414 0.886 1.715 26516
-1.422 0.891 1.715 20597
-1.421 0.890 1.705 15060
-1.435 0.899 1.711 11431
-1.464 0.917 1.732 12103
-1.463 0.916 1.722 14260
-1.467 0.919 1.717 12487
-1.486 0.931 1.727 10129
-1.495 0.936 1.727 11699
-1.498 0.939 1.722 11812
-1.502 0.941 1.717 10971
-1.501 0.940 1.707 13300
-1.495 0.936 1.691 12187
-1.494 0.936 1.681 8487
-1.497 0.938 1.675 9589
-1.537 0.963 1.706 10394
-1.541 0.965 1.701 9278
-1.545 0.968 1.695 10606
-1.548 0.970 1.690 11789
-1.557 0.976 1.689 12047
-1.561 0.978 1.684 9923
-1.632 1.023 1.744 12707
-1.636 1.025 1.738 16905
-1.640 1.028 1.732 14867
-1.644 1.030 1.727 10308
-1.653 1.036 1.726 14047
-1.663 1.042 1.725 28162
-1.672 1.047 1.724 36561
-1.681 1.053 1.723 34082
-1.685 1.055 1.717 27648
-1.683 1.055 1.707 22508
-1.687 1.057 1.701 17051
-1.718 1.076 1.719 24812
-1.727 1.082 1.718 33847
-1.736 1.088 1.717 33809
-1.745 1.093 1.715 31366
-1.755 1.099 1.714 28631
-1.758 1.102 1.708 21804
-1.762 1.104 1.702 11870
-1.771 1.110 1.700 6323
-1.829 1.146 1.741 11384
-1.823 1.142 1.725 13160
-1.794 1.124 1.691 11967
-1.803 1.130 1.689 11997
-1.812 1.135 1.688 10272
-1.844 1.155 1.704 9787
-1.853 1.161 1.702 13258
-1.868 1.170 1.705 16157
-1.872 1.172 1.698 16931
-1.870 1.171 1.687 15293
-1.890 1.184 1.694 13651
-1.905 1.193 1.697 15483
-1.909 1.196 1.690 14768
-1.907 1.195 1.679 9461
-1.944 1.218 1.699 7011
-1.948 1.221 1.692 10141
-1.952 1.223 1.685 17251
-1.961 1.229 1.683 22175
-1.965 1.231 1.676 22250
-1.969 1.234 1.669 20462
-1.978 1.239 1.666 19523
-1.982 1.242 1.660 19653
-1.986 1.244 1.653 15620
-1.984 1.243 1.642 7275
-2.135 1.338 1.744 7532
-2.134 1.337 1.732 7270
-2.143 1.343 1.729 5293
-2.187 1.370 1.751 4539
-2.174 1.362 1.731 5722
-2.172 1.361 1.719 6597
-2.170 1.360 1.707 7377
-2.174 1.362 1.700 6356
-2.241 1.404 1.737 5881
-2.257 1.414 1.737 7952
-2.266 1.420 1.733 8781
-2.288 1.433 1.737 8438
-2.303 1.443 1.737 7699
-2.307 1.445 1.729 7703
-2.317 1.451 1.725 7784
-2.321 1.454 1.717 7466
-2.325 1.456 1.709 7147
-2.340 1.466 1.709 7900
-2.350 1.472 1.705 9768
-2.354 1.475 1.696 10173
-2.358 1.477 1.688 7323
-2.367 1.483 1.684 4624
-2.460 1.541 1.732 4999
-2.469 1.547 1.727 6473
-2.467 1.546 1.715 6460
-2.471 1.548 1.707 6449
-2.493 1.562 1.709 5514
-2.509 1.572 1.708 5366
-2.512 1.574 1.699 4587
-2.552 1.599 1.712 4918
-2.568 1.609 1.710 4891
-2.584 1.619 1.709 5544
-2.576 1.614 1.693 6620
-2.579 1.616 1.684 7997
-2.583 1.618 1.675 7169
-2.581 1.617 1.662 6427
-2.615 1.638 1.671 5979
-2.625 1.644 1.665 6971
-2.634 1.650 1.659 6623
-2.638 1.653 1.650 6533
-2.636 1.651 1.638 4401
-2.773 1.737 1.703 3294
-2.837 1.778 1.727 2757
-2.847 1.784 1.720 3684
-2.851 1.786 1.710 3684
-2.849 1.785 1.697 3956
-2.853 1.787 1.687 4233
-2.832 1.774 1.664 3761
-2.824 1.769 1.648 4124
-2.981 1.867 1.719 5856
-2.991 1.874 1.711 8172
-2.995 1.876 1.701 8172
-2.998 1.878 1.691 4086
-0.520 0.328 1.573 12844
-0.521 0.328 1.563 10955
-0.511 0.322 1.526 10015
-0.542 0.341 1.596 9423
-0.546 0.344 1.594 11269
-0.546 0.344 1.585 11887
-0.550 0.346 1.583 12580
-0.551 0.347 1.574 12668
-0.551 0.347 1.564 11536
-0.546 0.344 1.541 10274
-0.538 0.339 1.511 11736
-0.541 0.341 1.509 14100
-0.542 0.341 1.500 18793
-0.545 0.343 1.498 23865
-0.548 0.345 1.496 24264
-0.555 0.349 1.501 24988
-0.555 0.350 1.492 19664
-0.561 0.354 1.497 14402
-0.562 0.354 1.488 15295
-0.562 0.354 1.479 16578
-0.565 0.356 1.477 16640
-0.568 0.358 1.475 16703
-0.575 0.362 1.480 20509
-0.581 0.366 1.485 24962
-0.584 0.368 1.483 24419
-0.588 0.370 1.481 23876
-0.591 0.372 1.478 17017
-0.646 0.407 1.588 17343
-0.649 0.409 1.585 14523
-0.659 0.415 1.597 12077
-0.692 0.436 1.657 11687
-0.699 0.440 1.661 15019
-0.706 0.445 1.666 14118
-0.713 0.449 1.670 13735
-0.714 0.449 1.661 10803
-0.717 0.452 1.658 7969
-0.701 0.441 1.614 7843
-0.708 0.446 1.619 8229
-0.715 0.450 1.623 7337
-0.719 0.453 1.621 7008
-0.722 0.455 1.618 6678
-0.726 0.457 1.615 7589
-0.736 0.464 1.626 9902
-0.743 0.468 1.631 11921
-0.747 0.471 1.628 11938
-0.754 0.475 1.632 11342
-0.765 0.482 1.643 13463
-0.772 0.486 1.647 13611
-0.780 0.491 1.651 11747
-0.780 0.491 1.641 11025
-0.791 0.498 1.652 11431
-0.801 0.505 1.662 13499
-0.798 0.503 1.646 17117
-0.798 0.503 1.637 18572
-0.798 0.503 1.627 15879
-0.802 0.505 1.625 18811
-0.813 0.512 1.635 21136
-0.820 0.517 1.639 23735
-0.824 0.519 1.636 24582
-0.827 0.521 1.633 23200
-0.827 0.521 1.623 20516
-0.827 0.521 1.614 24343
-0.831 0.523 1.611 31511
-0.834 0.526 1.608 35045
-0.834 0.525 1.599 29558
-0.834 0.525 1.589 15816
-0.837 0.527 1.586 9352
-0.845 0.532 1.590 14129
-0.856 0.539 1.600 23963
-0.860 0.542 1.597 23778
-0.863 0.544 1.594 12054
-0.871 0.549 1.597 5880
-0.871 0.548 1.587 5627
-0.941 0.593 1.693 5829
-0.878 0.553 1.581 6902
-0.949 0.598 1.686 8804
-0.949 0.598 1.677 13944
-0.957 0.603 1.680 16825
-0.964 0.607 1.682 15869
-0.968 0.610 1.679 10404
-0.964 0.607 1.663 9027
-0.964 0.607 1.653 12917
-0.963 0.607 1.644 14287
-0.971 0.612 1.647 13885
-0.975 0.614 1.643 13130
-0.983 0.619 1.646 19113
-0.990 0.624 1.649 29439
-0.998 0.629 1.651 33471
-1.002 0.631 1.648 34928
-1.001 0.631 1.638 30185
-1.005 0.633 1.635 18518
-1.055 0.665 1.699 25015
-1.059 0.667 1.695 39084
-1.067 0.672 1.697 47205
-1.071 0.675 1.693 46038
-1.075 0.677 1.690 36973
-1.079 0.680 1.686 21577
-1.087 0.685 1.688 19176
-1.091 0.687 1.684 24458
-1.103 0.695 1.692 26520
-1.111 0.700 1.695 33011
-1.115 0.702 1.691 30793
-1.119 0.705 1.687 21090
-1.132 0.713 1.695 12348
-1.158 0.729 1.720 6006
-1.126 0.709 1.669 5263
-1.130 0.712 1.665 10409
-1.156 0.728 1.691 13659
-1.173 0.739 1.704 15955
-1.182 0.744 1.706 14819
-1.163 0.732 1.672 13227
-1.162 0.732 1.663 14765
-1.198 0.754 1.699 11352
-1.211 0.762 1.707 12580
-1.219 0.768 1.708 9140
-1.232 0.776 1.715 8252
-1.236 0.778 1.711 14432
-1.235 0.778 1.701 16150
-1.239 0.780 1.697 11257
-1.261 0.794 1.715 11618
-1.270 0.800 1.716 14152
-1.278 0.805 1.717 15118
-1.287 0.811 1.719 18678
-1.296 0.816 1.720 17635
-1.309 0.824 1.726 16332
-1.318 0.830 1.727 17305
-1.321 0.832 1.723 18194
-1.325 0.835 1.718 22648
-1.329 0.837 1.714 26036
-1.343 0.846 1.720 25548
-1.346 0.848 1.715 24690
-1.346 0.848 1.705 20950
-1.359 0.856 1.711 13119
-1.377 0.868 1.723 15892
-1.381 0.870 1.718 20625
-1.390 0.876 1.719 14438
-1.404 0.884 1.725 10859
-1.408 0.887 1.720 16238
-1.411 0.889 1.715 24433
-1.415 0.891 1.710 18025
-1.419 0.894 1.705 11935
-1.433 0.903 1.711 9610
-1.462 0.921 1.732 14039
-1.461 0.920 1.722 16132
-1.459 0.919 1.711 12594
-1.483 0.934 1.727 9474
-1.492 0.940 1.727 11451
-1.496 0.942 1.722 12335
-1.500 0.945 1.717 10370
-1.499 0.944 1.707 12622
-1.493 0.940 1.691 12742
-1.491 0.939 1.681 8800
-1.515 0.954 1.696 10403
-1.529 0.963 1.701 10892
-1.544 0.972 1.706 8152
-1.542 0.971 1.695 9573
-1.546 0.974 1.690 11108
-1.550 0.976 1.684 11039
-1.631 1.027 1.755 10285
-1.630 1.027 1.744 14670
-1.634 1.029 1.738 19068
-1.638 1.032 1.732 17968
-1.642 1.034 1.727 13622
-1.651 1.040 1.726 18007
-1.660 1.046 1.725 32060
-1.669 1.051 1.724 37801
-1.678 1.057 1.723 31832
-1.682 1.060 1.717 24647
-1.681 1.059 1.707 22732
-1.685 1.061 1.701 17971
-1.715 1.080 1.719 24043
-1.724 1.086 1.718 33830
-1.733 1.092 1.717 33634
-1.743 1.098 1.715 30480
-1.752 1.103 1.714 27947
-1.756 1.106 1.708 21142
-1.760 1.108 1.702 10640
-1.828 1.151 1.752 4998
-1.827 1.151 1.741 11484
-1.836 1.156 1.739 13469
-1.835 1.156 1.728 10985
-1.806 1.137 1.694 10824
-1.815 1.143 1.692 9570
-1.852 1.166 1.713 10015
-1.855 1.169 1.707 14154
-1.859 1.171 1.700 16982
-1.869 1.177 1.698 17315
-1.867 1.176 1.687 15818
-1.882 1.185 1.690 13480
-1.902 1.198 1.697 15194
-1.906 1.201 1.690 14901
-1.904 1.199 1.679 9825
-1.947 1.226 1.703 6828
-1.945 1.225 1.692 9719
-1.949 1.228 1.685 15903
-1.958 1.234 1.683 20511
-1.962 1.236 1.676 21149
-1.966 1.238 1.669 19409
-1.970 1.241 1.662 18541
-1.979 1.247 1.660 18714
-1.983 1.249 1.653 14869
-1.987 1.251 1.646 6783
-2.132 1.343 1.744 7164
-2.130 1.342 1.732 6843
-2.134 1.344 1.725 4916
-2.161 1.361 1.734 3998
-2.171 1.367 1.731 5376
-2.169 1.366 1.719 6655
-2.173 1.368 1.712 7583
-2.171 1.367 1.700 6489
-2.249 1.417 1.745 5568
-2.259 1.423 1.741 7709
-2.269 1.429 1.737 8739
-2.290 1.442 1.741 8745
-2.300 1.449 1.737 8376
-2.304 1.451 1.729 8486
-2.313 1.457 1.725 8707
-2.317 1.460 1.717 8132
-2.321 1.462 1.709 7556
-2.331 1.468 1.705 7982
-2.346 1.478 1.705 9485
-2.350 1.480 1.696 9815
-2.354 1.483 1.688 7038
-2.364 1.489 1.684 4335
-2.362 1.487 1.672 4413
-2.460 1.549 1.724 5748
-2.464 1.552 1.715 5871
-2.467 1.554 1.707 5995
-2.495 1.572 1.713 5389
-2.505 1.578 1.708 5513
-2.521 1.588 1.706 5306
-2.542 1.601 1.708 6109
-2.552 1.607 1.703 5410
-2.514 1.584 1.669 5774
-2.572 1.620 1.693 6251
-2.575 1.622 1.684 7385
-2.573 1.621 1.671 6406
-2.577 1.623 1.662 5478
-2.611 1.644 1.671 5301
-2.621 1.651 1.665 6491
-2.630 1.657 1.659 6349
-2.634 1.659 1.650 6400
-2.638 1.661 1.641 4332
-2.769 1.744 1.703 3379
-2.833 1.784 1.727 2856
-2.837 1.787 1.717 3856
-2.841 1.789 1.707 3856
-2.851 1.796 1.700 4018
-2.855 1.798 1.691 4184
-2.834 1.785 1.668 3399
-2.960 1.864 1.722 3866
-2.976 1.875 1.719 5557
-2.986 1.881 1.711 7859
-2.990 1.883 1.701 7859
-2.994 1.886 1.691 3929
-0.520 0.329 1.573 11936
-0.518 0.328 1.556 10337
-0.507 0.321 1.518 9594
-0.541 0.343 1.596 9168
-0.545 0.345 1.594 10957
-0.545 0.345 1.585 11691
-0.549 0.348 1.583 12487
-0.550 0.348 1.574 12548
-0.550 0.349 1.564 11483
-0.542 0.343 1.534 10534
-0.537 0.340 1.511 12349
-0.540 0.342 1.509 14764
-0.544 0.344 1.507 19284
-0.544 0.345 1.498 24313
-0.550 0.349 1.503 24577
-0.551 0.349 1.494 25085
-0.554 0.351 1.492 19897
-0.560 0.355 1.497 14620
-0.561 0.355 1.488 15996
-0.561 0.355 1.479 17564
-0.564 0.357 1.477 17155
-0.567 0.359 1.475 16745
-0.574 0.363 1.480 19811
-0.577 0.365 1.478 23503
-0.584 0.370 1.483 22988
-0.587 0.372 1.481 22505
-0.638 0.404 1.583 18037
-0.645 0.408 1.588 18191
-0.648 0.410 1.585 15001
-0.655 0.415 1.590 11985
-0.691 0.438 1.657 10872
-0.698 0.442 1.661 13982
-0.705 0.446 1.666 13603
-0.709 0.449 1.663 13754
-0.712 0.451 1.661 11446
-0.713 0.451 1.651 9394
-0.710 0.450 1.635 8872
-0.707 0.448 1.619 8501
-0.714 0.452 1.623 7470
-0.717 0.454 1.621 7149
-0.724 0.459 1.625 7006
-0.728 0.461 1.622 8018
-0.735 0.466 1.626 10771
-0.739 0.468 1.624 12895
-0.746 0.472 1.628 13555
-0.750 0.475 1.625 13575
-0.760 0.481 1.636 15452
-0.768 0.486 1.640 15002
-0.775 0.491 1.644 12549
-0.778 0.493 1.641 11580
-0.786 0.498 1.645 11191
-0.804 0.509 1.669 12543
-0.793 0.502 1.640 16368
-0.797 0.505 1.637 18124
-0.782 0.495 1.601 16271
-0.797 0.505 1.618 18714
-0.811 0.514 1.635 19563
-0.819 0.519 1.639 21505
-0.822 0.521 1.636 22394
-0.826 0.523 1.633 21551
-0.826 0.523 1.623 19099
-0.826 0.523 1.614 22653
-0.830 0.525 1.611 29998
-0.833 0.528 1.608 33179
-0.833 0.527 1.599 26658
-0.836 0.530 1.596 13435
-0.836 0.530 1.586 8166
-0.844 0.534 1.590 15508
-0.855 0.541 1.600 28680
-0.858 0.544 1.597 28142
-0.862 0.546 1.594 14564
-0.870 0.551 1.597 7120
-0.873 0.553 1.594 6474
-0.928 0.588 1.674 6540
-0.876 0.555 1.581 7147
-0.948 0.600 1.686 9232
-0.947 0.600 1.677 13528
-0.955 0.605 1.680 15746
-0.963 0.610 1.682 13933
-0.971 0.615 1.685 8860
-0.966 0.612 1.669 8399
-0.962 0.609 1.653 12517
-0.966 0.612 1.650 16605
-0.974 0.617 1.653 19990
-0.977 0.619 1.649 16496
-0.985 0.624 1.652 18316
-0.993 0.629 1.655 28297
-0.997 0.631 1.651 33467
-1.000 0.634 1.648 35480
-1.000 0.633 1.638 31116
-1.004 0.636 1.635 18507
-1.054 0.667 1.699 23782
-1.058 0.670 1.695 38521
-1.066 0.675 1.697 47379
-1.070 0.677 1.693 48025
-1.073 0.680 1.690 39181
-1.077 0.682 1.686 22079
-1.081 0.685 1.682 18228
-1.089 0.690 1.684 23442
-1.102 0.698 1.692 27209
-1.110 0.703 1.695 36847
-1.114 0.705 1.691 36025
-1.117 0.708 1.687 26003
-1.126 0.713 1.689 15756
-1.129 0.715 1.685 7634
-1.124 0.712 1.669 7313
-1.128 0.714 1.665 13707
-1.141 0.722 1.673 14999
-1.171 0.742 1.704 14592
-1.180 0.747 1.706 13296
-1.156 0.732 1.667 16145
-1.156 0.732 1.657 19301
-1.164 0.737 1.658 12597
-1.209 0.765 1.707 10435
-1.213 0.768 1.702 5347
-1.235 0.782 1.721 5955
-1.239 0.784 1.717 15148
-1.238 0.784 1.707 17786
-1.242 0.786 1.702 12211
-1.259 0.798 1.715 13215
-1.268 0.803 1.716 16045
-1.276 0.808 1.717 16176
-1.285 0.814 1.719 19340
-1.294 0.819 1.720 20900
-1.307 0.828 1.726 19198
-1.316 0.833 1.727 16899
-1.319 0.836 1.723 17711
-1.323 0.838 1.718 21113
-1.327 0.840 1.714 23008
-1.341 0.849 1.720 27417
-1.344 0.851 1.715 28857
-1.343 0.851 1.705 23206
-1.357 0.859 1.711 14369
-1.375 0.871 1.723 16434
-1.384 0.876 1.724 20806
-1.393 0.882 1.724 14796
-1.402 0.888 1.725 12428
-1.405 0.890 1.720 15861
-1.409 0.892 1.715 22357
-1.413 0.895 1.710 15304
-1.412 0.894 1.700 8927
-1.436 0.909 1.716 8694
-1.459 0.924 1.732 15449
-1.453 0.920 1.717 17180
-1.457 0.923 1.711 11948
-1.481 0.938 1.727 8118
-1.490 0.944 1.727 10363
-1.494 0.946 1.722 12399
-1.498 0.948 1.717 9830
-1.491 0.944 1.701 11769
-1.490 0.944 1.691 13003
-1.494 0.946 1.686 9325
-1.518 0.961 1.701 11497
-1.527 0.967 1.701 10962
-1.541 0.976 1.706 6980
-1.540 0.975 1.695 8556
-1.544 0.978 1.690 10474
-1.547 0.980 1.684 10180
-1.623 1.028 1.749 12194
-1.627 1.031 1.744 16469
-1.631 1.033 1.738 20908
-1.635 1.036 1.732 20313
-1.639 1.038 1.727 16592
-1.648 1.044 1.726 21796
-1.657 1.050 1.725 35187
-1.667 1.055 1.724 38151
-1.676 1.061 1.723 28870
-1.674 1.060 1.712 22023
-1.678 1.063 1.707 23011
-1.687 1.068 1.706 18922
-1.712 1.084 1.719 23113
-1.722 1.090 1.718 33601
-1.731 1.096 1.717 33516
-1.740 1.102 1.715 29797
-1.749 1.108 1.714 27432
-1.753 1.110 1.708 20772
-1.751 1.109 1.697 10009
-1.825 1.156 1.752 4698
-1.824 1.155 1.741 10869
-1.833 1.161 1.739 13319
-1.837 1.163 1.733 11223
-1.819 1.152 1.708 10266
-1.823 1.155 1.701 9195
-1.849 1.171 1.713 10498
-1.853 1.173 1.707 15325
-1.856 1.176 1.700 17867
-1.860 1.178 1.694 17328
-1.864 1.180 1.687 15784
-1.868 1.183 1.681 13227
-1.894 1.199 1.692 14330
-1.903 1.205 1.690 14324
-1.901 1.204 1.679 9795
-1.944 1.231 1.703 6235
-1.942 1.230 1.692 8928
-1.946 1.232 1.685 14409
-1.955 1.238 1.683 18680
-1.959 1.241 1.676 19599
-1.963 1.243 1.669 17788
-1.967 1.245 1.662 17012
-1.976 1.251 1.660 17306
-1.980 1.254 1.653 13855
-1.995 1.263 1.654 6360
-2.123 1.345 1.740 6645
-2.127 1.347 1.732 6284
-2.125 1.346 1.721 4617
-2.158 1.366 1.734 3534
-2.162 1.369 1.727 5192
-2.165 1.371 1.719 6814
-2.169 1.374 1.712 7901
-2.167 1.373 1.700 6760
-2.252 1.426 1.749 5487
-2.261 1.432 1.745 7479
-2.265 1.435 1.737 8468
-2.287 1.448 1.741 8832
-2.296 1.454 1.737 8841
-2.300 1.457 1.729 9038
-2.310 1.463 1.725 9361
-2.314 1.465 1.717 8556
-2.312 1.464 1.705 7806
-2.327 1.474 1.705 7936
-2.337 1.480 1.701 9082
-2.341 1.482 1.693 9506
-2.345 1.485 1.684 6782
-2.360 1.495 1.684 4181
-2.358 1.493 1.672 4623
-2.362 1.496 1.664 5066
-2.360 1.494 1.652 5526
-2.363 1.497 1.643 6063
-2.367 1.499 1.635 5422
-2.507 1.588 1.711 5651
-2.523 1.597 1.710 6028
-2.532 1.604 1.705 6973
-2.512 1.591 1.682 6023
-2.510 1.590 1.669 6474
-2.562 1.622 1.689 5804
-2.566 1.625 1.680 6636
-2.569 1.627 1.671 5585
-2.573 1.629 1.662 4534
-2.607 1.651 1.671 4699
-2.617 1.657 1.665 5999
-2.626 1.663 1.659 6006
-2.630 1.665 1.650 6175
-2.634 1.668 1.641 4221
-2.764 1.751 1.703 3467
-2.829 1.791 1.727 2874
-2.833 1.794 1.717 3902
-2.837 1.796 1.707 3902
-2.846 1.803 1.700 3951
-2.850 1.805 1.691 4018
-2.854 1.807 1.681 3279
-2.949 1.868 1.719 3738
-2.972 1.882 1.719 5111
-2.982 1.888 1.711 7267
-2.985 1.891 1.701 7267
-2.989 1.893 1.691 3633
-0.516 0.328 1.565 10915
-0.517 0.328 1.556 9572
-0.507 0.322 1.518 9038
-0.541 0.343 1.596 8951
-0.544 0.346 1.594 10626
-0.548 0.348 1.592 11462
-0.549 0.348 1.583 12323
-0.549 0.349 1.574 12336
-0.547 0.347 1.557 11375
-0.539 0.342 1.527 10953
-0.539 0.343 1.518 13135
-0.540 0.343 1.509 15630
-0.543 0.345 1.507 20107
-0.544 0.345 1.498 24934
-0.550 0.349 1.503 25025
-0.550 0.350 1.494 25223
-0.554 0.352 1.492 20109
-0.557 0.354 1.490 14751
-0.560 0.356 1.488 16452
-0.560 0.356 1.479 18169
-0.564 0.358 1.477 17468
-0.567 0.360 1.475 16768
-0.573 0.364 1.480 18948
-0.577 0.366 1.478 21681
-0.580 0.368 1.476 21009
-0.586 0.372 1.481 20456
-0.637 0.405 1.583 19123
-0.644 0.409 1.588 19015
-0.648 0.411 1.585 15407
-0.654 0.416 1.590 11824
-0.687 0.437 1.650 9598
-0.694 0.441 1.654 12265
-0.701 0.445 1.659 12769
-0.708 0.450 1.663 13764
-0.709 0.450 1.654 12453
-0.709 0.450 1.644 11791
-0.709 0.451 1.635 10893
-0.710 0.451 1.626 9238
-0.713 0.453 1.623 7988
-0.720 0.458 1.627 7941
-0.734 0.466 1.645 8928
-0.731 0.464 1.629 9261
-0.735 0.467 1.626 12170
-0.738 0.469 1.624 14451
-0.742 0.471 1.621 15756
-0.749 0.476 1.625 16501
-0.760 0.483 1.636 18140
-0.767 0.487 1.640 17070
-0.774 0.492 1.644 13934
-0.774 0.492 1.635 12642
-0.778 0.494 1.632 11217
-0.789 0.501 1.642 11483
-0.792 0.503 1.640 15431
-0.792 0.503 1.630 17406
-0.781 0.496 1.601 17233
-0.789 0.501 1.605 19394
-0.807 0.513 1.628 17795
-0.818 0.520 1.639 18116
-0.822 0.522 1.636 18835
-0.825 0.524 1.633 18730
-0.825 0.524 1.623 16864
-0.829 0.527 1.620 20560
-0.829 0.526 1.611 28032
-0.832 0.529 1.608 31094
-0.836 0.531 1.605 24372
-0.840 0.533 1.602 12792
-0.855 0.543 1.619 9815
-0.847 0.538 1.596 19495
-0.854 0.543 1.600 34844
-0.858 0.545 1.597 33576
-0.861 0.547 1.594 17567
-0.873 0.554 1.603 8399
-0.924 0.587 1.677 7902
-0.919 0.584 1.661 8728
-0.935 0.594 1.677 8392
-0.943 0.599 1.680 10110
-0.947 0.601 1.677 13424
-0.954 0.606 1.680 15019
-0.962 0.611 1.682 12285
-0.970 0.616 1.685 9145
-0.970 0.616 1.676 10311
-0.961 0.611 1.653 12917
-0.965 0.613 1.650 19315
-0.973 0.618 1.653 26927
-0.981 0.623 1.656 23340
-0.988 0.628 1.658 19839
-0.992 0.630 1.655 26537
-0.996 0.633 1.651 32698
-1.000 0.635 1.648 35428
-1.003 0.637 1.644 31020
-1.003 0.637 1.635 17430
-1.053 0.669 1.699 21628
-1.057 0.671 1.695 36435
-1.065 0.676 1.697 45700
-1.069 0.679 1.693 48835
-1.072 0.681 1.690 40703
-1.072 0.681 1.680 22740
-1.080 0.686 1.682 16910
-1.088 0.691 1.684 20933
-1.101 0.699 1.692 26962
-1.109 0.704 1.695 40252
-1.113 0.707 1.691 41435
-1.116 0.709 1.687 31314
-1.125 0.714 1.689 20102
-1.124 0.714 1.679 11192
-1.128 0.716 1.675 10381
-1.127 0.716 1.665 17768
-1.135 0.721 1.667 18362
-1.166 0.741 1.698 12839
-1.134 0.720 1.647 13878
-1.151 0.731 1.661 20804
-1.155 0.733 1.657 24952
-1.158 0.736 1.653 16567
-1.212 0.770 1.712 10803
-1.166 0.741 1.645 3896
-1.234 0.784 1.721 7058
-1.237 0.786 1.717 19837
-1.237 0.786 1.707 22080
-1.241 0.788 1.702 15117
-1.258 0.799 1.715 14698
-1.267 0.805 1.716 17602
-1.275 0.810 1.717 17451
-1.284 0.816 1.719 19747
-1.292 0.821 1.720 23207
-1.306 0.829 1.726 20937
-1.314 0.835 1.727 15451
-1.318 0.837 1.723 16184
-1.317 0.837 1.713 18633
-1.326 0.842 1.714 18658
-1.339 0.851 1.720 27268
-1.338 0.850 1.710 31581
-1.342 0.853 1.705 26234
-1.351 0.858 1.706 16724
-1.379 0.876 1.728 16820
-1.383 0.878 1.724 19766
-1.392 0.884 1.724 14854
-1.400 0.890 1.725 13278
-1.399 0.889 1.714 14489
-1.403 0.891 1.709 19022
-1.407 0.894 1.705 12233
-1.411 0.896 1.700 6198
-1.454 0.924 1.737 8873
-1.458 0.926 1.732 16961
-1.452 0.922 1.717 17648
-1.451 0.922 1.706 10865
-1.480 0.940 1.727 6154
-1.489 0.946 1.727 8537
-1.492 0.948 1.722 12047
-1.501 0.954 1.722 9813
-1.490 0.947 1.701 10880
-1.494 0.949 1.696 12968
-1.493 0.948 1.686 10223
-1.517 0.964 1.701 12341
-1.526 0.969 1.701 10469
-1.535 0.975 1.701 5352
-1.538 0.977 1.695 7027
-1.542 0.980 1.690 9182
-1.623 1.031 1.760 10333
-1.622 1.030 1.749 13511
-1.626 1.033 1.744 18132
-1.630 1.035 1.738 22905
-1.634 1.038 1.732 22854
-1.638 1.040 1.727 20034
-1.647 1.046 1.726 25502
-1.656 1.052 1.725 37061
-1.660 1.054 1.719 37253
-1.669 1.060 1.718 24818
-1.673 1.063 1.712 18747
-1.677 1.065 1.707 22552
-1.686 1.071 1.706 19284
-1.705 1.083 1.714 21828
-1.720 1.093 1.718 32846
-1.729 1.098 1.717 33434
-1.738 1.104 1.715 29200
-1.748 1.110 1.714 26655
-1.751 1.113 1.708 20141
-1.750 1.112 1.697 10081
-1.748 1.111 1.686 4349
-1.822 1.158 1.741 9705
-1.832 1.164 1.739 12276
-1.835 1.166 1.733 10660
-1.818 1.155 1.708 9782
-1.821 1.157 1.701 8868
-1.847 1.173 1.713 11328
-1.851 1.176 1.707 16924
-1.855 1.178 1.700 18772
-1.859 1.181 1.694 16711
-1.857 1.180 1.683 14813
-1.866 1.186 1.681 12309
-1.892 1.202 1.692 13009
-1.896 1.204 1.686 13138
-1.900 1.207 1.679 9473
-1.881 1.195 1.655 5978
-1.941 1.233 1.692 7782
-1.944 1.235 1.685 12258
-1.954 1.241 1.683 15925
-1.963 1.247 1.680 17017
-1.961 1.246 1.669 15025
-1.965 1.248 1.662 14348
-1.974 1.254 1.660 14869
-1.978 1.257 1.653 12114
-2.021 1.284 1.675 6409
-2.036 1.294 1.677 6563
-2.119 1.346 1.728 5522
-2.123 1.349 1.721 4218
-2.156 1.369 1.734 3177
-2.160 1.372 1.727 5103
-2.158 1.371 1.715 7018
-2.167 1.377 1.712 8174
-2.165 1.376 1.700 7038
-2.250 1.429 1.749 5533
-2.259 1.435 1.745 7370
-2.269 1.441 1.741 8130
-2.284 1.451 1.741 8781
-2.294 1.457 1.737 9139
-2.298 1.460 1.729 9380
-2.308 1.466 1.725 9711
-2.306 1.465 1.713 8772
-2.310 1.467 1.705 7924
-2.319 1.473 1.701 7804
-2.329 1.479 1.697 8559
-2.333 1.482 1.689 9091
-2.337 1.484 1.681 6717
-2.334 1.483 1.669 4347
-2.356 1.497 1.672 4896
-2.360 1.499 1.664 5579
-2.357 1.498 1.652 6250
-2.361 1.500 1.643 6981
-2.365 1.502 1.635 6344
-2.511 1.595 1.715 5833
-2.520 1.601 1.710 6498
-2.530 1.607 1.705 7416
-2.516 1.598 1.685 6359
-2.514 1.597 1.673 6578
-2.559 1.626 1.689 5028
-2.563 1.628 1.680 5463
-2.567 1.631 1.671 4438
-2.571 1.633 1.662 3414
-2.604 1.654 1.671 3972
-2.614 1.661 1.665 5245
-2.624 1.667 1.659 5363
-2.634 1.673 1.654 5711
-2.637 1.675 1.644 3894
-2.762 1.755 1.703 3515
-2.826 1.795 1.727 2739
-2.830 1.798 1.717 3710
-2.834 1.800 1.707 3710
-2.844 1.807 1.700 3668
-2.854 1.813 1.694 3687
-2.858 1.815 1.684 3343
-2.947 1.872 1.719 3516
-2.969 1.886 1.719 4581
-2.979 1.892 1.711 6483
-2.983 1.895 1.701 6483
-2.987 1.897 1.691 3241
-0.515 0.329 1.565 10412
-0.516 0.330 1.556 9243
-0.506 0.323 1.518 8964
-0.540 0.345 1.596 8882
-0.543 0.347 1.594 10461
-0.547 0.349 1.592 11446
-0.550 0.352 1.590 12431
-0.554 0.354 1.588 12431
-0.535 0.342 1.529 11975
-0.538 0.344 1.527 11997
-0.539 0.344 1.518 14685
-0.542 0.346 1.516 17506
-0.542 0.346 1.507 21823
-0.543 0.347 1.498 26474
-0.549 0.351 1.503 26414
-0.549 0.351 1.494 26261
-0.553 0.353 1.492 20878
-0.556 0.355 1.490 15220
-0.559 0.357 1.488 16784
-0.559 0.357 1.479 18375
-0.563 0.360 1.477 17630
-0.566 0.362 1.475 16885
-0.572 0.366 1.480 18244
-0.576 0.368 1.478 19872
-0.632 0.404 1.594 19169
-0.633 0.404 1.585 21161
-0.636 0.406 1.583 20320
-0.643 0.411 1.588 19816
-0.647 0.413 1.585 15767
-0.650 0.415 1.583 11718
-0.683 0.436 1.643 8554
-0.693 0.443 1.654 10512
-0.700 0.447 1.659 12109
-0.707 0.452 1.663 13995
-0.707 0.452 1.654 14268
-0.708 0.452 1.644 15102
-0.711 0.455 1.642 13925
-0.712 0.455 1.632 10877
-0.712 0.455 1.623 9253
-0.726 0.464 1.641 10233
-0.733 0.468 1.645 12145
-0.733 0.468 1.636 11779
-0.733 0.469 1.626 14025
-0.737 0.471 1.624 16069
-0.741 0.473 1.621 18054
-0.748 0.478 1.625 19458
-0.755 0.482 1.629 21090
-0.762 0.487 1.633 19830
-0.769 0.491 1.637 16042
-0.769 0.492 1.628 14591
-0.773 0.494 1.625 12251
-0.784 0.501 1.636 11534
-0.787 0.503 1.633 14785
-0.787 0.503 1.624 16650
-0.780 0.498 1.601 18129
-0.784 0.501 1.598 20362
-0.798 0.510 1.615 17180
-0.817 0.522 1.639 15428
-0.820 0.524 1.636 15911
-0.828 0.529 1.639 16879
-0.828 0.529 1.630 16084
-0.828 0.529 1.620 20025
-0.831 0.531 1.618 27758
-0.831 0.531 1.608 30550
-0.835 0.533 1.605 24520
-0.842 0.538 1.609 15123
-0.834 0.533 1.586 12968
-0.845 0.540 1.596 23763
-0.853 0.545 1.600 39453
-0.856 0.547 1.597 37158
-0.860 0.549 1.594 19452
-0.914 0.584 1.674 10155
-0.918 0.587 1.671 10984
-0.918 0.586 1.661 11837
-0.930 0.594 1.670 10829
-0.941 0.601 1.680 11894
-0.945 0.604 1.677 14619
-0.953 0.609 1.680 15698
-0.957 0.611 1.676 12297
-0.960 0.614 1.673 10694
-0.964 0.616 1.669 12867
-0.960 0.613 1.653 14178
-0.967 0.618 1.656 22288
-0.975 0.623 1.659 32345
-0.979 0.625 1.656 29550
-0.983 0.628 1.652 21935
-0.990 0.633 1.655 25299
-0.994 0.635 1.651 32549
-0.998 0.638 1.648 35681
-1.002 0.640 1.644 30627
-1.005 0.642 1.641 16058
-1.051 0.672 1.699 20082
-1.051 0.671 1.689 33963
-1.059 0.676 1.691 42299
-1.067 0.682 1.693 47453
-1.071 0.684 1.690 40613
-1.070 0.684 1.680 23251
-1.070 0.683 1.670 15080
-1.086 0.694 1.684 16791
-1.103 0.705 1.698 26609
-1.107 0.707 1.695 42705
-1.106 0.707 1.685 45468
-1.115 0.712 1.687 35379
-1.123 0.717 1.689 24089
-1.122 0.717 1.679 14915
-1.126 0.719 1.675 13960
-1.130 0.722 1.671 21312
-1.133 0.724 1.667 20749
-1.150 0.735 1.681 12681
-1.132 0.723 1.647 17536
-1.149 0.734 1.661 26528
-1.153 0.736 1.657 30683
-1.156 0.739 1.653 20639
-1.215 0.776 1.718 17276
-1.219 0.779 1.714 10506
-1.227 0.784 1.715 15153
-1.231 0.786 1.711 28774
-1.235 0.789 1.707 28464
-1.243 0.794 1.708 18883
-1.252 0.800 1.709 16872
-1.265 0.808 1.716 19434
-1.269 0.810 1.712 19692
-1.277 0.816 1.713 20901
-1.290 0.824 1.720 24725
-1.304 0.833 1.726 21813
-1.312 0.838 1.727 12988
-1.316 0.841 1.723 13767
-1.315 0.840 1.713 15346
-1.324 0.846 1.714 13280
-1.337 0.854 1.720 23672
-1.336 0.854 1.710 29947
-1.340 0.856 1.705 25928
-1.354 0.865 1.711 17350
-1.381 0.883 1.734 18007
-1.385 0.885 1.729 19521
-1.394 0.891 1.730 15122
-1.403 0.896 1.730 13424
-1.397 0.893 1.714 13442
-1.401 0.895 1.709 16716
-1.405 0.897 1.705 11033
-1.433 0.916 1.726 5324
-1.452 0.928 1.737 9898
-1.451 0.927 1.727 18474
-1.450 0.926 1.717 17688
-1.444 0.922 1.701 9992
-1.472 0.941 1.722 4592
-1.481 0.946 1.722 6902
