-0.468 1.177 1.641 23450
-0.470 1.181 1.637 20186
-0.477 1.200 1.651 12939
-0.482 1.214 1.659 6602
-0.490 1.232 1.673 5591
-0.493 1.241 1.675 7209
-0.487 1.226 1.647 8045
-0.483 1.215 1.626 9726
-0.485 1.219 1.622 11099
-0.492 1.238 1.636 12978
-0.498 1.252 1.643 17113
-0.501 1.261 1.645 21001
-0.501 1.260 1.635 21119
-0.503 1.264 1.631 16296
-0.506 1.273 1.633 13827
-0.508 1.277 1.629 19725
-0.507 1.276 1.619 21275
-0.507 1.275 1.609 15264
-0.512 1.289 1.617 12024
-0.516 1.298 1.618 14115
-0.522 1.313 1.625 13010
-0.523 1.317 1.621 13407
-0.521 1.310 1.606 15559
-0.539 1.356 1.647 19313
-0.543 1.365 1.648 17524
-0.550 1.385 1.660 10069
-0.544 1.368 1.634 12181
-0.547 1.377 1.635 12805
-0.547 1.376 1.625 10992
-0.557 1.401 1.643 16851
-0.558 1.405 1.638 21238
-0.558 1.404 1.628 17039
-0.560 1.408 1.624 13329
-0.563 1.417 1.625 10022
-0.561 1.410 1.609 11502
-0.586 1.473 1.664 16637
-0.589 1.483 1.665 14865
-0.595 1.497 1.671 11430
-0.597 1.502 1.666 13173
-0.599 1.506 1.662 14069
-0.602 1.515 1.662 17885
-0.604 1.519 1.657 24250
-0.606 1.523 1.653 24991
-0.612 1.538 1.658 24029
-0.615 1.548 1.659 19890
-0.619 1.558 1.659 15181
-0.621 1.562 1.654 19397
-0.627 1.577 1.659 24196
-0.631 1.586 1.660 24185
-0.632 1.591 1.655 16767
-0.636 1.600 1.655 10747
-0.640 1.610 1.655 12014
-0.644 1.620 1.655 11969
-0.650 1.635 1.660 11428
-0.651 1.639 1.655 10081
-0.655 1.649 1.655 9483
-0.657 1.653 1.649 9349
-0.659 1.657 1.644 7466
-0.671 1.689 1.664 10343
-0.678 1.705 1.669 12701
-0.682 1.715 1.668 12493
-0.683 1.719 1.663 15610
-0.685 1.723 1.657 13614
-0.698 1.756 1.676 8195
-0.702 1.765 1.676 9132
-0.703 1.770 1.670 10621
-0.707 1.780 1.669 11803
-0.711 1.789 1.669 14619
-0.711 1.788 1.658 15253
-0.712 1.792 1.652 15695
-0.718 1.808 1.656 14122
-0.741 1.864 1.694 17919
-0.743 1.869 1.688 21914
-0.744 1.873 1.682 19493
-0.744 1.871 1.671 15288
-0.748 1.881 1.670 11404
-0.747 1.879 1.659 10822
-0.749 1.883 1.653 16520
-0.753 1.893 1.652 24130
-0.757 1.903 1.651 26572
-0.758 1.907 1.645 25524
-0.757 1.905 1.634 22940
-0.761 1.915 1.632 19582
-0.768 1.931 1.636 19030
-0.769 1.936 1.629 13534
-0.788 1.982 1.655 8941
-0.789 1.986 1.649 10932
-0.789 1.984 1.638 11497
-0.797 2.006 1.645 11411
-0.801 2.016 1.643 14162
-0.803 2.020 1.637 13187
-0.805 2.024 1.630 10041
-0.806 2.028 1.624 12946
-0.810 2.038 1.622 18781
-0.809 2.036 1.611 20150
-0.809 2.034 1.600 18802
-0.813 2.044 1.598 14775
-0.817 2.054 1.596 8466
-0.877 2.207 1.692 6557
-0.879 2.211 1.685 5982
-0.851 2.140 1.627 5356
-0.875 2.200 1.658 5598
-0.874 2.198 1.647 8029
-0.878 2.209 1.644 7736
-0.894 2.250 1.662 6915
-0.899 2.260 1.659 6481
-0.895 2.252 1.644 5956
-0.894 2.250 1.633 7173
-0.896 2.254 1.626 8823
-0.897 2.258 1.619 9018
-0.902 2.268 1.615 6547
-0.943 2.373 1.673 7289
-0.943 2.371 1.661 6333
-0.937 2.356 1.642 5985
-0.936 2.354 1.630 6058
-0.937 2.358 1.623 5514
-0.944 2.375 1.623 4890
-1.001 2.519 1.702 5328
-1.003 2.524 1.694 6739
-1.000 2.515 1.678 8298
-0.996 2.506 1.662 8226
-0.995 2.504 1.650 6588
-0.999 2.514 1.646 4588
-1.014 2.551 1.657 2975
-1.016 2.555 1.649 3042
-1.048 2.637 1.686 3291
-1.050 2.641 1.678 4151
-1.051 2.645 1.669 5011
-1.056 2.656 1.665 4560
-1.062 2.673 1.664 4674
-1.064 2.677 1.655 4427
-1.055 2.655 1.632 4794
-1.057 2.659 1.624 4723
-1.066 2.682 1.626 4945
-1.070 2.693 1.621 4207
-1.106 2.782 1.659 4029
-1.115 2.806 1.661 3989
-1.120 2.817 1.655 4286
-1.155 2.907 1.691 4825
-1.152 2.898 1.675 6317
-1.151 2.895 1.663 6575
-1.150 2.893 1.650 6938
-1.154 2.904 1.644 6365
-1.158 2.914 1.639 5968
-1.168 2.938 1.639 5048
-1.177 2.962 1.640 5106
-1.179 2.966 1.631 5106
-1.183 2.977 1.625 4734
-1.185 2.981 1.615 4485
-1.237 3.112 1.668 4129
-1.236 3.110 1.655 4058
-1.235 3.107 1.641 5228
-1.237 3.111 1.632 6422
-1.238 3.115 1.622 6422
-1.240 3.119 1.612 3211
-0.241 0.614 1.674 10197
-0.244 0.622 1.679 12013
-0.246 0.626 1.677 13839
-0.248 0.630 1.675 12737
-0.250 0.637 1.680 11958
-0.252 0.641 1.678 11958
-0.254 0.645 1.676 9976
-0.255 0.650 1.674 7994
-0.257 0.654 1.672 6527
-0.256 0.651 1.655 5362
-0.258 0.656 1.653 5366
-0.258 0.656 1.644 5372
-0.263 0.670 1.663 7047
-0.265 0.674 1.661 8938
-0.267 0.678 1.659 8759
-0.268 0.683 1.657 10023
-0.270 0.687 1.654 11465
-0.271 0.691 1.652 13571
-0.273 0.695 1.650 15678
-0.273 0.695 1.641 13534
-0.275 0.700 1.638 11652
-0.277 0.704 1.636 10568
-0.279 0.711 1.641 9675
-0.282 0.719 1.646 16312
-0.284 0.723 1.643 23170
-0.284 0.723 1.634 26426
-0.287 0.731 1.639 28613
-0.289 0.735 1.636 25703
-0.292 0.742 1.641 22610
-0.295 0.750 1.645 22115
-0.296 0.754 1.643 25703
-0.299 0.762 1.647 29265
-0.301 0.766 1.645 25859
-0.303 0.770 1.642 22452
-0.304 0.774 1.640 19353
-0.307 0.782 1.644 16625
-0.309 0.786 1.642 14445
-0.310 0.790 1.639 15901
-0.312 0.794 1.637 19536
-0.314 0.798 1.634 17590
-0.315 0.802 1.632 15644
-0.317 0.806 1.629 12377
-0.332 0.844 1.687 13344
-0.332 0.845 1.678 19363
-0.334 0.849 1.675 24954
-0.335 0.853 1.672 26665
-0.337 0.857 1.670 23251
-0.340 0.865 1.674 15937
-0.345 0.877 1.684 13042
-0.346 0.881 1.681 14540
-0.348 0.885 1.679 14788
-0.351 0.893 1.682 13780
-0.353 0.898 1.680 14786
-0.356 0.906 1.683 14382
-0.359 0.914 1.687 13467
-0.359 0.914 1.678 13702
-0.359 0.914 1.668 19503
-0.361 0.918 1.665 24997
-0.361 0.918 1.655 22249
-0.361 0.918 1.646 17313
-0.363 0.922 1.643 11565
-0.376 0.955 1.686 8622
-0.366 0.930 1.637 8656
-0.372 0.947 1.654 8284
-0.380 0.968 1.677 9261
-0.382 0.972 1.674 8935
-0.382 0.972 1.664 7378
-0.385 0.980 1.667 10484
-0.389 0.989 1.671 16165
-0.390 0.993 1.667 17831
-0.392 0.997 1.664 17854
-0.395 1.005 1.667 20529
-0.399 1.014 1.671 19514
-0.404 1.027 1.680 15738
-0.404 1.027 1.670 16775
-0.405 1.031 1.667 17092
-0.412 1.048 1.683 13968
-0.415 1.057 1.686 13380
-0.417 1.061 1.682 13363
-0.419 1.065 1.679 13386
-0.422 1.074 1.682 16745
-0.425 1.082 1.685 16746
-0.425 1.082 1.675 13124
-0.425 1.082 1.665 14521
-0.429 1.090 1.668 15457
-0.432 1.099 1.671 14589
-0.434 1.103 1.667 14985
-0.439 1.116 1.676 12607
-0.442 1.125 1.679 12659
-0.442 1.125 1.669 19147
-0.444 1.129 1.665 21946
-0.445 1.133 1.662 18880
-0.445 1.132 1.652 17595
-0.449 1.141 1.655 14412
-0.456 1.159 1.669 17222
-0.457 1.163 1.665 18102
-0.457 1.163 1.656 18845
-0.455 1.157 1.640 23701
-0.460 1.171 1.648 26081
-0.464 1.180 1.650 26809
-0.465 1.184 1.647 20789
-0.465 1.183 1.637 16123
-0.469 1.192 1.639 10199
-0.466 1.186 1.623 6022
-0.468 1.190 1.620 5917
-0.489 1.243 1.675 5738
-0.487 1.238 1.659 6552
-0.478 1.217 1.626 8671
-0.480 1.221 1.622 12478
-0.485 1.235 1.630 12597
-0.493 1.254 1.643 13380
-0.495 1.258 1.639 19105
-0.496 1.262 1.635 23140
-0.498 1.266 1.631 18437
-0.499 1.270 1.627 11671
-0.503 1.279 1.629 14740
-0.502 1.278 1.619 21385
-0.502 1.277 1.609 19988
-0.508 1.291 1.617 16712
-0.511 1.300 1.618 18425
-0.515 1.309 1.620 14603
-0.516 1.313 1.616 12086
-0.518 1.317 1.611 15190
-0.523 1.332 1.618 15203
-0.535 1.362 1.642 16138
-0.537 1.366 1.638 14437
-0.538 1.370 1.634 16236
-0.540 1.374 1.629 19406
-0.542 1.378 1.625 17658
-0.547 1.392 1.631 20273
-0.551 1.402 1.633 20840
-0.553 1.406 1.628 22117
-0.554 1.410 1.624 23995
-0.554 1.408 1.614 15442
-0.555 1.412 1.609 14891
-0.557 1.416 1.605 16920
-0.575 1.463 1.643 12406
-0.562 1.430 1.601 10476
-0.591 1.504 1.666 9964
-0.595 1.513 1.667 13169
-0.597 1.518 1.662 18074
-0.596 1.516 1.652 21394
-0.600 1.526 1.653 19752
-0.606 1.541 1.658 19917
-0.609 1.550 1.659 18220
-0.613 1.560 1.659 13975
-0.615 1.564 1.654 16644
-0.619 1.574 1.654 18426
-0.622 1.583 1.654 16908
-0.626 1.593 1.655 12540
-0.632 1.608 1.660 9300
-0.636 1.618 1.660 10919
-0.638 1.622 1.655 11711
-0.644 1.637 1.660 11072
-0.647 1.647 1.660 10722
-0.651 1.657 1.660 11038
-0.651 1.655 1.649 10756
-0.652 1.659 1.644 8812
-0.663 1.686 1.659 8809
-0.673 1.713 1.674 11193
-0.675 1.717 1.668 13127
-0.674 1.716 1.658 16636
-0.678 1.725 1.657 14628
-0.689 1.752 1.672 9032
-0.693 1.762 1.671 10263
-0.697 1.772 1.670 14394
-0.701 1.782 1.669 16707
-0.704 1.792 1.669 18835
-0.704 1.790 1.658 19399
-0.708 1.800 1.657 19693
-0.712 1.810 1.656 16895
-0.734 1.867 1.694 18449
-0.736 1.871 1.688 22386
-0.737 1.876 1.682 20055
-0.739 1.880 1.676 14577
-0.740 1.884 1.670 11215
-0.744 1.894 1.669 11107
-0.744 1.892 1.658 16235
-0.748 1.902 1.657 24969
-0.749 1.906 1.651 27360
-0.751 1.910 1.645 25548
-0.750 1.908 1.634 21722
-0.754 1.918 1.632 18050
-0.758 1.928 1.631 18381
-0.760 1.932 1.625 12796
-0.783 1.991 1.660 9109
-0.784 1.995 1.653 10740
-0.781 1.987 1.638 11729
-0.787 2.003 1.641 12778
-0.794 2.019 1.643 16048
-0.795 2.023 1.637 14587
-0.797 2.027 1.630 10926
-0.801 2.037 1.628 13763
-0.802 2.041 1.622 20136
-0.802 2.039 1.611 22440
-0.801 2.037 1.600 21365
-0.805 2.047 1.598 16458
-0.806 2.051 1.592 9124
-0.810 2.061 1.589 6049
-0.812 2.065 1.583 5271
-0.843 2.144 1.627 4535
-0.864 2.197 1.654 5903
-0.865 2.202 1.647 8084
-0.867 2.206 1.640 7611
-0.886 2.254 1.662 7142
-0.887 2.258 1.655 7515
-0.887 2.255 1.644 6935
-0.886 2.253 1.633 7343
-0.885 2.251 1.622 8457
-0.889 2.261 1.619 8564
-0.928 2.360 1.672 7064
-0.934 2.377 1.673 8987
-0.933 2.375 1.661 7804
-0.930 2.366 1.646 7026
-0.927 2.357 1.630 6606
-0.928 2.361 1.623 5475
-0.932 2.372 1.619 4458
-0.992 2.523 1.702 5550
-0.993 2.527 1.694 7178
-0.993 2.525 1.682 8425
-0.987 2.510 1.662 8578
-0.986 2.508 1.650 7233
-0.990 2.518 1.646 5119
-1.004 2.555 1.657 4194
-1.006 2.559 1.649 4172
-1.010 2.569 1.645 4177
-1.040 2.645 1.678 4707
-1.039 2.642 1.666 5845
-1.043 2.653 1.661 4897
-1.050 2.670 1.660 4205
-1.051 2.674 1.652 3939
-1.073 2.731 1.672 4467
-1.057 2.689 1.638 4706
-1.059 2.693 1.630 5737
-1.060 2.697 1.621 4708
-1.098 2.793 1.662 3737
-1.105 2.811 1.661 3706
-1.109 2.821 1.655 3926
-1.144 2.911 1.691 5047
-1.143 2.909 1.679 6576
-1.140 2.900 1.663 6699
-1.139 2.897 1.650 7040
-1.146 2.915 1.648 6462
-1.152 2.932 1.645 6392
-1.162 2.956 1.646 6290
-1.166 2.967 1.640 6683
-1.168 2.971 1.631 6683
-1.172 2.982 1.625 6188
-1.174 2.986 1.615 5781
-1.175 2.990 1.606 4578
-1.224 3.115 1.655 4013
-1.223 3.112 1.641 4949
-1.225 3.116 1.632 5901
-1.226 3.120 1.622 5901
-1.228 3.124 1.612 2950
-0.241 0.618 1.681 9584
-0.242 0.622 1.679 11236
-0.244 0.627 1.677 12888
-0.247 0.634 1.682 11863
-0.248 0.638 1.680 11193
-0.250 0.642 1.678 11193
-0.251 0.646 1.676 9504
-0.253 0.650 1.674 7815
-0.255 0.655 1.672 6589
-0.255 0.656 1.662 5607
-0.257 0.660 1.660 5478
-0.258 0.664 1.658 5349
-0.261 0.671 1.663 7306
-0.263 0.675 1.661 9319
-0.266 0.683 1.666 9011
-0.266 0.683 1.657 9939
-0.268 0.688 1.654 11252
-0.269 0.692 1.652 13674
-0.271 0.696 1.650 16095
-0.271 0.696 1.641 14293
-0.273 0.700 1.638 12746
-0.274 0.705 1.636 10942
-0.277 0.712 1.641 9371
-0.280 0.720 1.646 15676
-0.282 0.724 1.643 22198
-0.282 0.724 1.634 25145
-0.285 0.732 1.639 26800
-0.286 0.736 1.636 23670
-0.289 0.743 1.641 20784
-0.292 0.751 1.645 21270
-0.295 0.759 1.650 25452
-0.297 0.763 1.647 29013
-0.298 0.767 1.645 25645
-0.300 0.771 1.642 22276
-0.302 0.775 1.640 19640
-0.306 0.786 1.651 17673
-0.306 0.787 1.642 15781
-0.308 0.791 1.639 17587
-0.309 0.795 1.637 21181
-0.311 0.799 1.634 18978
-0.312 0.803 1.632 16775
-0.314 0.807 1.629 13573
-0.329 0.845 1.687 11875
-0.329 0.846 1.678 18039
-0.331 0.850 1.675 23959
-0.332 0.854 1.672 25910
-0.334 0.858 1.670 22855
-0.337 0.866 1.674 15275
-0.342 0.878 1.684 11761
-0.343 0.882 1.681 13138
-0.345 0.886 1.679 13805
-0.348 0.895 1.682 13230
-0.350 0.899 1.680 14513
-0.353 0.907 1.683 13975
-0.356 0.915 1.687 12855
-0.356 0.915 1.678 13396
-0.358 0.919 1.675 19238
-0.358 0.920 1.665 24909
-0.358 0.920 1.655 22100
-0.359 0.924 1.653 18395
-0.369 0.948 1.682 13356
-0.372 0.957 1.686 9652
-0.363 0.932 1.637 7639
-0.362 0.932 1.628 5870
-0.380 0.978 1.690 7283
-0.382 0.982 1.686 7330
-0.384 0.986 1.683 7456
-0.382 0.982 1.667 13625
-0.385 0.990 1.671 20805
-0.387 0.994 1.667 20656
-0.387 0.994 1.658 18570
-0.392 1.007 1.667 20959
-0.393 1.011 1.664 19193
-0.398 1.024 1.674 13946
-0.400 1.028 1.670 16729
-0.402 1.032 1.667 18211
-0.407 1.045 1.677 13971
-0.412 1.058 1.686 12820
-0.413 1.062 1.682 12959
-0.415 1.066 1.679 13010
-0.417 1.071 1.676 16968
-0.420 1.079 1.678 17937
-0.422 1.083 1.675 15892
-0.421 1.083 1.665 17248
-0.425 1.092 1.668 15876
-0.428 1.100 1.671 13949
-0.430 1.105 1.667 14091
-0.435 1.118 1.676 12400
-0.440 1.131 1.685 14251
-0.440 1.131 1.675 21102
-0.440 1.130 1.665 22437
-0.441 1.134 1.662 16875
-0.443 1.139 1.658 12496
-0.448 1.152 1.667 10987
-0.452 1.161 1.669 17083
-0.451 1.160 1.659 18745
-0.451 1.160 1.650 18142
-0.453 1.164 1.646 20709
-0.456 1.173 1.648 23311
-0.460 1.181 1.650 24956
-0.461 1.186 1.647 17779
-0.461 1.185 1.637 12256
-0.461 1.184 1.627 9071
-0.460 1.183 1.617 7091
-0.464 1.192 1.620 7681
-0.469 1.206 1.628 7295
-0.482 1.239 1.659 6533
-0.472 1.214 1.620 8191
-0.478 1.228 1.628 12863
-0.479 1.232 1.624 11782
-0.483 1.241 1.626 9233
-0.490 1.260 1.639 16352
-0.492 1.264 1.635 23899
-0.493 1.268 1.631 19839
-0.495 1.272 1.627 10493
-0.498 1.281 1.629 10379
-0.498 1.280 1.619 19465
-0.498 1.279 1.609 22385
-0.503 1.293 1.617 19654
-0.507 1.302 1.618 21329
-0.510 1.311 1.620 15963
-0.512 1.315 1.616 11428
-0.515 1.324 1.617 14645
-0.519 1.334 1.618 16001
-0.527 1.353 1.631 17103
-0.532 1.368 1.638 19789
-0.534 1.372 1.634 21775
-0.535 1.376 1.629 25456
-0.537 1.380 1.625 22569
-0.541 1.389 1.626 21682
-0.544 1.398 1.627 19141
-0.546 1.402 1.623 26210
-0.549 1.412 1.624 33371
-0.551 1.416 1.619 20721
-0.550 1.414 1.609 16594
-0.552 1.418 1.605 16414
-0.568 1.460 1.638 11653
-0.559 1.437 1.606 11065
-0.559 1.436 1.596 8163
-0.592 1.521 1.672 11844
-0.591 1.520 1.662 17166
-0.593 1.524 1.657 18445
-0.594 1.528 1.653 15182
-0.600 1.543 1.658 16844
-0.604 1.552 1.659 17161
-0.608 1.562 1.659 12565
-0.609 1.566 1.654 13577
-0.613 1.576 1.654 12680
-0.617 1.585 1.654 9687
-0.623 1.601 1.660 8886
-0.629 1.616 1.665 8310
-0.633 1.626 1.665 10131
-0.634 1.630 1.660 11867
-0.636 1.634 1.655 10831
-0.642 1.649 1.660 10975
-0.646 1.659 1.660 12340
-0.645 1.657 1.649 11228
-0.649 1.667 1.649 9575
-0.657 1.688 1.659 9203
-0.665 1.710 1.669 10344
-0.669 1.719 1.668 13474
-0.668 1.718 1.658 16506
-0.672 1.728 1.657 14765
-0.681 1.749 1.667 9821
-0.687 1.765 1.671 10676
-0.691 1.775 1.670 15725
-0.694 1.785 1.669 18680
-0.696 1.789 1.664 20914
-0.698 1.793 1.658 21733
-0.701 1.803 1.657 21610
-0.705 1.813 1.656 18106
-0.730 1.876 1.699 17604
-0.729 1.874 1.688 20600
-0.731 1.878 1.682 18284
-0.735 1.888 1.681 12441
-0.736 1.892 1.675 9892
-0.740 1.902 1.673 10383
-0.740 1.901 1.663 15058
-0.741 1.905 1.657 24603
-0.743 1.909 1.651 26720
-0.744 1.913 1.645 24472
-0.746 1.917 1.639 19935
-0.747 1.921 1.632 16267
-0.751 1.931 1.631 17411
-0.753 1.935 1.625 12243
-0.776 1.993 1.660 9432
-0.780 2.004 1.658 10591
-0.777 1.996 1.642 11764
-0.780 2.006 1.641 13682
-0.784 2.016 1.639 16933
-0.788 2.026 1.637 15060
-0.792 2.036 1.635 11477
-0.794 2.040 1.628 14088
-0.795 2.044 1.622 20295
-0.795 2.042 1.611 22943
-0.794 2.040 1.600 21999
-0.798 2.050 1.598 16568
-0.799 2.054 1.592 9219
-0.801 2.058 1.585 6595
-0.802 2.062 1.578 5724
-0.862 2.215 1.674 5019
-0.861 2.213 1.663 6602
-0.858 2.205 1.647 8078
-0.859 2.209 1.640 7527
-0.878 2.257 1.662 7094
-0.880 2.261 1.655 8037
-0.881 2.265 1.648 7453
-0.880 2.263 1.637 7244
-0.877 2.254 1.622 7962
-0.881 2.264 1.619 7990
-0.920 2.363 1.672 8018
-0.926 2.380 1.673 9949
-0.925 2.378 1.661 8478
-0.922 2.369 1.646 7139
-0.921 2.367 1.634 6428
-0.920 2.365 1.623 4926
-0.952 2.445 1.662 4865
-0.983 2.527 1.702 5620
-0.985 2.531 1.694 7399
-0.984 2.529 1.682 8432
-0.978 2.513 1.662 8554
-0.977 2.511 1.650 7405
-0.981 2.522 1.646 5294
-0.995 2.558 1.657 5247
-0.997 2.562 1.649 5100
-0.999 2.566 1.641 4954
-1.028 2.642 1.674 5105
-1.030 2.646 1.666 6341
-1.031 2.650 1.657 5085
-1.038 2.667 1.656 3939
-1.042 2.678 1.652 3780
-1.064 2.734 1.672 4636
-1.050 2.699 1.642 4973
-1.049 2.697 1.630 6133
-1.051 2.701 1.621 4882
-1.055 2.711 1.616 3667
-1.098 2.821 1.664 3324
-1.138 2.924 1.708 3713
-1.134 2.915 1.691 4813
-1.133 2.913 1.679 6246
-1.130 2.904 1.663 6210
-1.129 2.901 1.650 6481
-1.141 2.932 1.655 6155
-1.148 2.949 1.652 6658
-1.154 2.967 1.649 6948
-1.156 2.971 1.640 7465
-1.158 2.975 1.631 7465
-1.162 2.986 1.625 7023
-1.163 2.990 1.615 6622
-1.165 2.994 1.606 5329
-1.174 3.018 1.606 4329
-1.213 3.116 1.641 4655
-1.211 3.113 1.628 5211
-1.213 3.117 1.619 5211
-1.215 3.121 1.609 2605
-0.239 0.619 1.681 8856
-0.241 0.623 1.679 10317
-0.243 0.627 1.677 11777
-0.245 0.634 1.682 10932
-0.247 0.638 1.680 10291
-0.249 0.643 1.678 10291
-0.250 0.647 1.676 8939
-0.252 0.651 1.674 7587
-0.253 0.655 1.672 6642
-0.254 0.656 1.662 5883
-0.255 0.660 1.660 5604
-0.258 0.667 1.665 5392
-0.260 0.672 1.663 7418
-0.261 0.676 1.661 9444
-0.264 0.683 1.666 9052
-0.266 0.687 1.664 9796
-0.266 0.688 1.654 10993
-0.268 0.692 1.652 13606
-0.269 0.696 1.650 16220
-0.270 0.697 1.641 14679
-0.271 0.701 1.638 13393
-0.273 0.705 1.636 11102
-0.276 0.713 1.641 9076
-0.279 0.720 1.646 14934
-0.280 0.724 1.643 21000
-0.280 0.725 1.634 23622
-0.283 0.732 1.639 24863
-0.285 0.736 1.636 21678
-0.288 0.744 1.641 19056
-0.291 0.752 1.645 20365
-0.294 0.759 1.650 24849
-0.295 0.763 1.647 28136
-0.297 0.767 1.645 24904
-0.298 0.771 1.642 21672
-0.300 0.776 1.640 19614
-0.304 0.787 1.651 18428
-0.305 0.787 1.642 16854
-0.306 0.791 1.639 18816
-0.308 0.795 1.637 22201
-0.309 0.800 1.634 19873
-0.311 0.804 1.632 17544
-0.312 0.808 1.629 14342
-0.317 0.819 1.640 10606
-0.327 0.846 1.678 16650
-0.329 0.850 1.675 22716
-0.331 0.855 1.672 24862
-0.332 0.859 1.670 22169
-0.335 0.867 1.674 14462
-0.340 0.879 1.684 10455
-0.342 0.883 1.681 11576
-0.343 0.887 1.679 12669
-0.345 0.891 1.676 12641
-0.346 0.895 1.673 14267
-0.351 0.908 1.683 13786
-0.354 0.916 1.687 12592
-0.354 0.916 1.678 13485
-0.356 0.920 1.675 19352
-0.358 0.924 1.672 24609
-0.358 0.924 1.662 21691
-0.359 0.928 1.659 18880
-0.367 0.949 1.682 14680
-0.370 0.957 1.686 10357
-0.374 0.966 1.689 8250
-0.380 0.983 1.706 7617
-0.382 0.987 1.703 7672
-0.382 0.987 1.693 7670
-0.382 0.987 1.683 8313
-0.380 0.982 1.667 16084
-0.383 0.991 1.671 24281
-0.383 0.991 1.661 22535
-0.383 0.991 1.651 18778
-0.388 1.003 1.661 20698
-0.391 1.012 1.664 18663
-0.395 1.020 1.667 13348
-0.398 1.029 1.670 16906
-0.400 1.033 1.667 18661
-0.405 1.046 1.677 13382
-0.410 1.059 1.686 11614
-0.413 1.068 1.689 11589
-0.413 1.067 1.679 11809
-0.414 1.071 1.676 16095
-0.418 1.080 1.678 17838
-0.419 1.084 1.675 17624
-0.419 1.084 1.665 18403
-0.423 1.093 1.668 15157
-0.426 1.101 1.671 12572
-0.429 1.110 1.673 12805
-0.435 1.123 1.682 12393
-0.440 1.137 1.691 16284
-0.440 1.136 1.681 22838
-0.438 1.131 1.665 22425
-0.439 1.135 1.662 15192
-0.441 1.139 1.658 9536
-0.446 1.153 1.667 10066
-0.449 1.162 1.669 16920
-0.449 1.161 1.659 18914
-0.449 1.161 1.650 17255
-0.451 1.165 1.646 18231
-0.454 1.173 1.648 20628
-0.457 1.182 1.650 22799
-0.461 1.191 1.653 16001
-0.459 1.186 1.637 11396
-0.458 1.185 1.627 9612
-0.458 1.184 1.617 8091
-0.463 1.198 1.626 9324
-0.469 1.212 1.634 10006
-0.472 1.221 1.636 8247
-0.470 1.215 1.620 8545
-0.475 1.229 1.628 13200
-0.477 1.233 1.624 11401
-0.473 1.222 1.602 8017
-0.486 1.256 1.633 14615
-0.489 1.265 1.635 24185
-0.491 1.269 1.631 20396
-0.492 1.273 1.627 11366
-0.496 1.282 1.629 9026
-0.496 1.281 1.619 17031
-0.495 1.280 1.609 22751
-0.501 1.294 1.617 21074
-0.504 1.303 1.618 22996
-0.508 1.312 1.620 16565
-0.509 1.316 1.616 10772
-0.515 1.331 1.623 14198
-0.518 1.340 1.624 17795
-0.524 1.354 1.631 19851
-0.529 1.369 1.638 22466
-0.531 1.373 1.634 25087
-0.533 1.377 1.629 28590
-0.534 1.381 1.625 23338
-0.538 1.390 1.626 19409
-0.539 1.394 1.622 15924
-0.543 1.403 1.623 28332
-0.547 1.413 1.624 38752
-0.548 1.417 1.619 24319
-0.548 1.415 1.609 16887
-0.549 1.419 1.605 14216
-0.565 1.461 1.638 10156
-0.556 1.438 1.606 10381
-0.581 1.502 1.661 7665
-0.589 1.522 1.672 10894
-0.588 1.521 1.662 16152
-0.590 1.525 1.657 16611
-0.591 1.529 1.653 12631
-0.599 1.549 1.664 15740
-0.603 1.559 1.664 16870
-0.605 1.563 1.659 11580
-0.608 1.573 1.659 11473
-0.610 1.577 1.654 8909
-0.618 1.598 1.665 6005
-0.624 1.613 1.670 8163
-0.628 1.623 1.670 9212
-0.632 1.632 1.670 10333
-0.631 1.631 1.660 11942
-0.635 1.641 1.660 10608
-0.641 1.656 1.665 11159
-0.644 1.666 1.665 13877
-0.644 1.664 1.654 11487
-0.648 1.674 1.654 9600
-0.654 1.690 1.659 9670
-0.662 1.711 1.669 10026
-0.666 1.721 1.668 13446
-0.665 1.719 1.658 15864
-0.669 1.729 1.657 14558
-0.677 1.750 1.667 10432
-0.681 1.760 1.666 10826
-0.685 1.770 1.665 15694
-0.691 1.786 1.669 18911
-0.693 1.790 1.664 21341
-0.694 1.794 1.658 22318
-0.698 1.804 1.657 21792
-0.702 1.814 1.656 17867
-0.726 1.877 1.699 16014
-0.728 1.881 1.693 18128
-0.729 1.885 1.687 16034
-0.731 1.890 1.681 10840
-0.735 1.900 1.679 8540
-0.739 1.910 1.678 9059
-0.736 1.902 1.663 13693
-0.737 1.906 1.657 23507
-0.739 1.910 1.651 25429
-0.741 1.914 1.645 23023
-0.742 1.918 1.639 18158
-0.746 1.928 1.637 14698
-0.748 1.932 1.631 16377
-0.749 1.936 1.625 11929
-0.774 2.001 1.664 9988
-0.776 2.005 1.658 10955
-0.773 1.997 1.642 12147
-0.777 2.007 1.641 14649
-0.780 2.017 1.639 17837
-0.784 2.028 1.637 15550
-0.788 2.038 1.635 12026
-0.790 2.042 1.628 14466
-0.791 2.046 1.622 20601
-0.791 2.044 1.611 23077
-0.790 2.041 1.600 21829
-0.794 2.052 1.598 15923
-0.795 2.055 1.592 9160
-0.794 2.053 1.581 7785
-0.796 2.057 1.574 6706
-0.855 2.210 1.670 6615
-0.854 2.208 1.658 7584
-0.856 2.212 1.651 8251
-0.855 2.210 1.640 7574
-0.874 2.258 1.662 7072
-0.875 2.262 1.655 8277
-0.877 2.266 1.648 7690
-0.876 2.264 1.637 6972
-0.870 2.249 1.617 7322
-0.874 2.260 1.614 7227
-0.915 2.365 1.672 8338
-0.919 2.376 1.669 10161
-0.921 2.380 1.661 8501
-0.920 2.377 1.650 6920
-0.916 2.369 1.634 6175
-0.945 2.443 1.670 5427
-0.947 2.447 1.662 5637
-0.978 2.528 1.702 5712
-0.980 2.533 1.694 7609
-0.979 2.530 1.682 8446
-0.973 2.515 1.662 8404
-0.972 2.513 1.650 7337
-0.986 2.549 1.662 5478
-0.993 2.566 1.661 6032
-0.994 2.571 1.653 5666
-0.994 2.568 1.641 5357
-1.023 2.644 1.674 5164
-1.024 2.648 1.666 6393
-1.026 2.652 1.657 5023
-1.028 2.656 1.649 3653
-1.037 2.680 1.652 3655
-1.056 2.730 1.668 4703
-1.045 2.701 1.642 5224
-1.044 2.699 1.630 6249
-1.046 2.703 1.621 4869
-1.050 2.713 1.616 3511
-1.100 2.843 1.675 3109
-1.132 2.926 1.708 3522
-1.129 2.917 1.691 4414
-1.128 2.915 1.679 5722
-1.127 2.913 1.666 5553
-1.123 2.903 1.650 5698
-1.135 2.934 1.655 5616
-1.144 2.958 1.655 6539
-1.149 2.969 1.649 7034
-1.150 2.973 1.640 7603
-1.152 2.977 1.631 7603
-1.156 2.988 1.625 7263
-1.157 2.992 1.615 6927
-1.159 2.996 1.606 5648
-1.168 3.020 1.606 4778
-1.206 3.118 1.641 4242
-1.205 3.116 1.628 4403
-1.207 3.120 1.619 4403
-1.208 3.124 1.609 2201
-0.238 0.619 1.681 8577
-0.239 0.624 1.679 9899
-0.241 0.628 1.677 11220
-0.244 0.635 1.682 10558
-0.246 0.642 1.687 10010
-0.248 0.646 1.685 10010
-0.248 0.647 1.676 8865
-0.250 0.652 1.674 7783
-0.251 0.656 1.672 7023
-0.252 0.657 1.662 6329
-0.255 0.664 1.667 6086
-0.258 0.671 1.672 5909
-0.258 0.672 1.663 7945
-0.259 0.676 1.661 9982
-0.262 0.684 1.666 9458
-0.264 0.688 1.664 9963
-0.264 0.689 1.654 10978
-0.266 0.693 1.652 13749
-0.267 0.697 1.650 16521
-0.268 0.698 1.641 15283
-0.269 0.702 1.638 14307
-0.272 0.709 1.643 11580
-0.274 0.713 1.641 9158
-0.276 0.721 1.646 14570
-0.278 0.725 1.643 20153
-0.278 0.726 1.634 22446
-0.280 0.730 1.632 23436
-0.283 0.737 1.636 20041
-0.286 0.745 1.641 17703
-0.289 0.752 1.645 19874
-0.291 0.760 1.650 24509
-0.294 0.768 1.654 27512
-0.295 0.768 1.645 24357
-0.296 0.772 1.642 21325
-0.299 0.780 1.647 20083
-0.302 0.788 1.651 19570
-0.304 0.792 1.649 18314
-0.304 0.792 1.639 20232
-0.305 0.796 1.637 23314
-0.307 0.800 1.634 20889
-0.309 0.804 1.632 18464
-0.310 0.809 1.629 15199
-0.315 0.820 1.640 10929
-0.325 0.847 1.678 15327
-0.327 0.851 1.675 21465
-0.328 0.856 1.672 23811
-0.330 0.860 1.670 21516
-0.333 0.868 1.674 13753
-0.336 0.876 1.678 9276
-0.339 0.884 1.681 9948
-0.341 0.888 1.679 11543
-0.342 0.892 1.676 12454
-0.344 0.896 1.673 14329
-0.347 0.905 1.677 13882
-0.350 0.913 1.680 12553
-0.352 0.917 1.678 14021
-0.353 0.921 1.675 20049
-0.355 0.925 1.672 25005
-0.356 0.930 1.669 21672
-0.358 0.934 1.666 19613
-0.364 0.950 1.682 15905
-0.368 0.959 1.686 11057
-0.372 0.971 1.696 10477
-0.377 0.984 1.706 10227
-0.379 0.988 1.703 9396
-0.379 0.988 1.693 9332
-0.377 0.984 1.677 10031
-0.377 0.984 1.667 18506
-0.380 0.992 1.671 27537
-0.382 0.996 1.667 24191
-0.379 0.987 1.645 19194
-0.385 1.004 1.661 20198
-0.387 1.009 1.658 18221
-0.392 1.021 1.667 13285
-0.395 1.030 1.670 17882
-0.397 1.034 1.667 19577
-0.400 1.043 1.670 12910
-0.405 1.056 1.680 10015
-0.408 1.064 1.682 9842
-0.408 1.064 1.673 10423
-0.411 1.073 1.676 14781
-0.415 1.081 1.678 17971
-0.416 1.085 1.675 19493
-0.416 1.085 1.665 18591
-0.419 1.094 1.668 13144
-0.423 1.102 1.671 10520
-0.428 1.116 1.680 11852
-0.433 1.129 1.689 12947
-0.438 1.143 1.697 18962
-0.436 1.138 1.681 25364
-0.436 1.137 1.672 23051
-0.436 1.137 1.662 14161
-0.437 1.141 1.658 9303
-0.443 1.154 1.667 11083
-0.444 1.158 1.663 18060
-0.446 1.163 1.659 19827
-0.446 1.162 1.650 16892
-0.447 1.166 1.646 16167
-0.452 1.180 1.654 18455
-0.456 1.189 1.656 21489
-0.457 1.193 1.653 16268
-0.457 1.192 1.643 13585
-0.455 1.186 1.627 11336
-0.455 1.185 1.617 9378
-0.458 1.194 1.620 11226
-0.465 1.213 1.634 13295
-0.469 1.222 1.636 11164
-0.466 1.216 1.620 9228
-0.474 1.235 1.634 14153
-0.475 1.239 1.630 12533
-0.469 1.223 1.602 7275
-0.484 1.262 1.639 13221
-0.486 1.266 1.635 24051
-0.487 1.270 1.631 20787
-0.489 1.274 1.627 13250
-0.492 1.283 1.629 11078
-0.492 1.282 1.619 16227
-0.491 1.281 1.609 22032
-0.495 1.290 1.611 21934
-0.500 1.305 1.618 24429
-0.504 1.314 1.620 17459
-0.505 1.318 1.616 11020
-0.513 1.337 1.628 14753
-0.516 1.347 1.630 20319
-0.520 1.356 1.631 22339
-0.525 1.370 1.638 23009
-0.527 1.374 1.634 26876
-0.529 1.378 1.629 30314
-0.530 1.382 1.625 21587
-0.534 1.392 1.626 14005
-0.535 1.396 1.622 11713
-0.539 1.405 1.623 29955
-0.542 1.414 1.624 42206
-0.544 1.418 1.619 26662
-0.543 1.417 1.609 15946
-0.543 1.416 1.599 11351
-0.561 1.463 1.638 8153
-0.565 1.472 1.639 9385
-0.574 1.498 1.656 9312
-0.584 1.524 1.672 10252
-0.584 1.522 1.662 15029
-0.585 1.527 1.657 14900
-0.589 1.536 1.658 11293
-0.595 1.551 1.664 15770
-0.599 1.561 1.664 16955
-0.600 1.565 1.659 10687
-0.606 1.580 1.664 9871
-0.612 1.595 1.670 8528
-0.618 1.611 1.675 7028
-0.619 1.615 1.670 8657
-0.623 1.625 1.670 10984
-0.627 1.634 1.670 12236
-0.628 1.638 1.665 13841
-0.630 1.643 1.660 11368
-0.638 1.664 1.670 11766
-0.640 1.668 1.665 16087
-0.641 1.672 1.659 12294
-0.645 1.682 1.659 9566
-0.651 1.697 1.664 10296
-0.657 1.713 1.669 10324
-0.661 1.723 1.668 13610
-0.662 1.727 1.663 15215
-0.664 1.731 1.657 13992
-0.670 1.747 1.662 10795
-0.676 1.762 1.666 10674
-0.680 1.772 1.665 15057
-0.686 1.788 1.669 18195
-0.687 1.792 1.664 20760
-0.691 1.802 1.663 22069
-0.693 1.806 1.657 21139
-0.696 1.816 1.656 17099
-0.723 1.885 1.703 13854
-0.722 1.883 1.693 15380
-0.724 1.887 1.687 14474
-0.728 1.898 1.685 10817
-0.732 1.908 1.684 8395
-0.733 1.912 1.678 8024
-0.733 1.910 1.667 12560
-0.732 1.908 1.657 22538
-0.736 1.918 1.655 24440
-0.735 1.916 1.645 21930
-0.737 1.921 1.639 16912
-0.740 1.931 1.637 13344
-0.742 1.935 1.631 15115
-0.743 1.939 1.625 11713
-0.768 2.003 1.664 10564
-0.767 2.001 1.653 11883
-0.767 1.999 1.642 13243
-0.771 2.009 1.641 16036
-0.775 2.020 1.639 19148
-0.778 2.030 1.637 16547
-0.782 2.040 1.635 13007
-0.784 2.044 1.628 15178
-0.785 2.048 1.622 21470
-0.785 2.046 1.611 23943
-0.784 2.044 1.600 22293
-0.785 2.048 1.594 15977
-0.787 2.052 1.587 9931
-0.786 2.049 1.576 9860
-0.787 2.053 1.570 8365
-0.849 2.213 1.670 8435
-0.848 2.211 1.658 9011
-0.849 2.215 1.651 9085
-0.849 2.213 1.640 8073
-0.867 2.261 1.662 7313
-0.869 2.265 1.655 8591
-0.870 2.269 1.648 7936
-0.869 2.267 1.637 6671
-0.864 2.252 1.617 6618
-0.894 2.332 1.659 6621
-0.906 2.361 1.668 8521
-0.912 2.378 1.669 9992
-0.914 2.382 1.661 8122
-0.913 2.380 1.650 6259
-0.909 2.371 1.634 5598
-0.938 2.446 1.670 6180
-0.942 2.457 1.666 6352
-0.971 2.531 1.702 5989
-0.972 2.536 1.694 8014
-0.972 2.533 1.682 8691
-0.966 2.518 1.662 8322
-0.965 2.516 1.650 7236
-0.981 2.559 1.665 5988
-0.985 2.569 1.661 6865
-0.987 2.573 1.653 6229
-0.986 2.571 1.641 5701
-1.015 2.647 1.674 5297
-1.014 2.644 1.662 6545
-1.016 2.649 1.654 5055
-1.017 2.653 1.645 3565
-1.031 2.689 1.655 3781
-1.043 2.720 1.661 5015
-1.037 2.704 1.642 5485
-1.036 2.702 1.630 6196
-1.038 2.706 1.621 4673
-1.097 2.862 1.694 3768
-1.094 2.853 1.678 3306
-1.124 2.930 1.708 3233
-1.118 2.914 1.688 4007
-1.119 2.918 1.679 5161
-1.118 2.916 1.666 4886
-1.115 2.907 1.650 4899
-1.129 2.944 1.658 4958
-1.138 2.968 1.659 6222
-1.140 2.972 1.649 6820
-1.144 2.983 1.643 7470
-1.146 2.987 1.634 7470
-1.145 2.984 1.621 7281
-1.146 2.988 1.612 7143
-1.150 2.999 1.606 5895
-1.159 3.023 1.606 5355
-1.161 3.027 1.597 4548
-1.157 3.018 1.581 3945
-1.159 3.022 1.571 4069
-1.160 3.026 1.562 2034
-0.237 0.620 1.681 8219
-0.238 0.624 1.679 9424
-0.241 0.631 1.684 10695
-0.243 0.635 1.682 10099
-0.245 0.643 1.687 9668
-0.247 0.647 1.685 9668
-0.247 0.648 1.676 8604
-0.249 0.652 1.674 7706
-0.250 0.656 1.672 7100
-0.252 0.660 1.670 6494
-0.254 0.664 1.667 6442
-0.256 0.672 1.672 6524
-0.258 0.676 1.670 8410
-0.258 0.677 1.661 10344
-0.261 0.684 1.666 9705
-0.263 0.688 1.664 9948
-0.264 0.693 1.661 10784
-0.265 0.693 1.652 13584
-0.266 0.697 1.650 16412
-0.266 0.698 1.641 15506
-0.268 0.702 1.638 14870
-0.271 0.710 1.643 11940
-0.272 0.714 1.641 9321
-0.275 0.721 1.646 14113
-0.277 0.725 1.643 19028
-0.277 0.726 1.634 21003
-0.279 0.730 1.632 21793
-0.280 0.734 1.629 18388
-0.284 0.745 1.641 16425
-0.287 0.753 1.645 19234
-0.290 0.761 1.650 23744
-0.293 0.768 1.654 26521
-0.293 0.769 1.645 23411
-0.295 0.773 1.642 20693
-0.298 0.781 1.647 20145
-0.301 0.788 1.651 20128
-0.302 0.792 1.649 19214
-0.303 0.793 1.639 21028
-0.304 0.797 1.637 23771
-0.306 0.801 1.634 21335
-0.307 0.805 1.632 18900
-0.309 0.809 1.629 15622
-0.313 0.821 1.640 11005
-0.324 0.848 1.678 14047
-0.325 0.852 1.675 20085
-0.327 0.856 1.672 22546
-0.328 0.860 1.670 20660
-0.330 0.864 1.667 13256
-0.335 0.876 1.678 8529
-0.339 0.888 1.688 8508
-0.339 0.889 1.679 10457
-0.341 0.893 1.676 12395
-0.342 0.897 1.673 14353
-0.346 0.905 1.677 13820
-0.349 0.913 1.680 12317
-0.350 0.918 1.678 14317
-0.353 0.926 1.681 20584
-0.353 0.926 1.672 25066
-0.355 0.930 1.669 21681
-0.358 0.938 1.672 19944
-0.364 0.955 1.689 16644
-0.368 0.963 1.692 11635
-0.371 0.972 1.696 12172
-0.376 0.984 1.706 12258
-0.377 0.989 1.703 10768
-0.376 0.984 1.686 10598
-0.376 0.984 1.677 11313
-0.376 0.984 1.667 20040
-0.379 0.993 1.671 29587
-0.380 0.997 1.667 25347
-0.377 0.988 1.645 18910
-0.382 1.001 1.655 19532
-0.385 1.009 1.658 17430
-0.388 1.018 1.661 13358
-0.393 1.031 1.670 18623
-0.395 1.035 1.667 20115
-0.397 1.039 1.664 12246
-0.401 1.052 1.673 8482
-0.403 1.056 1.670 8510
-0.406 1.065 1.673 9617
-0.410 1.073 1.676 13563
-0.413 1.082 1.678 17592
-0.415 1.086 1.675 19530
-0.414 1.086 1.665 16753
-0.416 1.090 1.662 10352
-0.421 1.103 1.671 8375
-0.426 1.117 1.680 10942
-0.431 1.130 1.689 13260
-0.436 1.143 1.697 20870
-0.434 1.138 1.681 26903
-0.434 1.138 1.672 23133
-0.436 1.142 1.668 13591
-0.436 1.141 1.658 10169
-0.439 1.150 1.661 12989
-0.442 1.159 1.663 19244
-0.444 1.163 1.659 20481
-0.444 1.163 1.650 16290
-0.445 1.167 1.646 14279
-0.451 1.180 1.654 16638
-0.454 1.189 1.656 20568
-0.457 1.198 1.659 17579
-0.457 1.197 1.649 16880
-0.455 1.192 1.633 12922
-0.453 1.186 1.617 9972
-0.456 1.195 1.620 12579
-0.465 1.219 1.639 16105
-0.467 1.223 1.636 13574
-0.476 1.247 1.655 10197
-0.474 1.241 1.640 15440
-0.475 1.245 1.636 14199
-0.479 1.254 1.637 7492
-0.482 1.263 1.639 13449
-0.484 1.267 1.635 23945
-0.487 1.276 1.637 21399
-0.489 1.280 1.633 15214
-0.490 1.284 1.629 15060
-0.490 1.283 1.619 17226
-0.489 1.282 1.609 20605
-0.493 1.291 1.611 21950
-0.498 1.305 1.618 24872
-0.502 1.315 1.620 18260
-0.503 1.319 1.616 12019
-0.511 1.338 1.628 15474
-0.514 1.347 1.630 21256
-0.518 1.357 1.631 22886
-0.523 1.371 1.638 21542
-0.525 1.375 1.634 25899
-0.526 1.379 1.629 29951
-0.528 1.383 1.625 19058
-0.532 1.393 1.626 9111
-0.535 1.402 1.627 8562
-0.537 1.406 1.623 30023
-0.540 1.415 1.624 42301
-0.542 1.419 1.619 26910
-0.543 1.423 1.615 14678
-0.541 1.416 1.599 8298
-0.561 1.469 1.643 6419
-0.566 1.484 1.650 8911
-0.572 1.499 1.656 10529
-0.580 1.519 1.667 9768
-0.581 1.523 1.662 13799
-0.583 1.527 1.657 13548
-0.587 1.537 1.658 10519
-0.592 1.552 1.664 15344
-0.596 1.562 1.664 16131
-0.598 1.566 1.659 9498
-0.604 1.581 1.664 8801
-0.611 1.602 1.675 9928
-0.615 1.612 1.675 9119
-0.617 1.616 1.670 9467
-0.618 1.620 1.665 12040
-0.624 1.635 1.670 14189
-0.628 1.645 1.670 16666
-0.630 1.649 1.665 13045
-0.638 1.670 1.675 12898
-0.639 1.674 1.670 18039
-0.639 1.673 1.659 13423
-0.642 1.683 1.659 9620
-0.648 1.698 1.664 10776
-0.654 1.714 1.669 11202
-0.660 1.729 1.673 14015
-0.660 1.728 1.663 14738
-0.661 1.732 1.657 13293
-0.667 1.748 1.662 10603
-0.671 1.758 1.661 10173
-0.677 1.773 1.665 13997
-0.683 1.789 1.669 16685
-0.684 1.793 1.664 19212
-0.688 1.803 1.663 21063
-0.690 1.807 1.657 20053
-0.694 1.817 1.656 16208
-0.720 1.886 1.703 11819
-0.719 1.884 1.693 13083
-0.723 1.895 1.691 14072
-0.725 1.899 1.685 12375
-0.729 1.909 1.684 8922
-0.730 1.913 1.678 7293
-0.730 1.911 1.667 12117
-0.731 1.915 1.661 21988
-0.733 1.919 1.655 23833
-0.734 1.924 1.649 21080
-0.736 1.928 1.643 16007
-0.737 1.932 1.637 11913
-0.739 1.936 1.631 13500
-0.740 1.940 1.625 11269
-0.765 2.004 1.664 10904
-0.764 2.003 1.653 12593
-0.764 2.001 1.642 13803
-0.767 2.011 1.641 16548
-0.771 2.021 1.639 19617
-0.775 2.031 1.637 17103
-0.779 2.041 1.635 13762
-0.781 2.045 1.628 15539
-0.780 2.043 1.617 21924
-0.781 2.047 1.611 24588
-0.781 2.045 1.600 22733
-0.782 2.049 1.594 16433
-0.784 2.053 1.587 11000
-0.783 2.051 1.576 11624
-0.784 2.054 1.570 9656
-0.843 2.208 1.665 9821
-0.844 2.212 1.658 10171
-0.846 2.216 1.651 9862
-0.845 2.214 1.640 8477
-0.863 2.262 1.662 7363
-0.865 2.266 1.655 8485
-0.867 2.270 1.648 7704
-0.868 2.274 1.641 6155
-0.860 2.253 1.617 5784
-0.891 2.333 1.659 6405
-0.902 2.363 1.668 8403
-0.908 2.380 1.669 9424
-0.910 2.384 1.661 7433
-0.911 2.388 1.654 5442
-0.933 2.443 1.678 5291
-0.934 2.447 1.670 6643
-0.938 2.458 1.666 6703
-0.967 2.533 1.702 6191
-0.968 2.537 1.694 8306
-0.968 2.535 1.682 8874
-0.962 2.520 1.662 8052
-0.961 2.517 1.650 6862
-0.980 2.567 1.669 6402
-0.984 2.577 1.665 7408
-0.983 2.575 1.653 6542
-0.982 2.573 1.641 5836
-1.011 2.648 1.674 5378
-1.010 2.646 1.662 6649
-1.012 2.650 1.654 5127
-1.013 2.654 1.645 3605
-1.027 2.691 1.655 3914
-1.036 2.715 1.658 5346
-1.033 2.706 1.642 5510
-1.032 2.703 1.630 5870
-1.033 2.707 1.621 4273
-1.070 2.804 1.662 4229
-1.090 2.854 1.678 3595
-1.091 2.859 1.669 2965
-1.110 2.909 1.685 3658
-1.112 2.913 1.675 4653
-1.111 2.911 1.663 4285
-1.110 2.908 1.650 4164
-1.127 2.953 1.661 4222
-1.134 2.970 1.659 5697
-1.138 2.981 1.653 6314
-1.139 2.985 1.643 6979
-1.141 2.989 1.634 6979
-1.140 2.986 1.621 6983
-1.141 2.990 1.612 7049
-1.145 3.001 1.606 5915
-1.155 3.025 1.606 5758
-1.156 3.029 1.597 4845
-1.153 3.020 1.581 4059
-1.154 3.023 1.571 4113
-1.156 3.027 1.562 2056
-0.235 0.620 1.681 7878
-0.237 0.628 1.686 8996
-0.239 0.632 1.684 10170
-0.241 0.636 1.682 9540
-0.243 0.643 1.687 9197
-0.245 0.648 1.685 9197
-0.245 0.649 1.676 8146
-0.246 0.650 1.667 7488
-0.248 0.657 1.672 7004
-0.250 0.661 1.670 6625
-0.253 0.668 1.675 6807
-0.256 0.676 1.680 7190
-0.256 0.677 1.670 8895
-0.256 0.678 1.661 10702
-0.259 0.685 1.666 9962
-0.261 0.689 1.664 10004
-0.262 0.693 1.661 10740
-0.263 0.694 1.652 13433
-0.264 0.698 1.650 16216
-0.266 0.702 1.648 15581
-0.266 0.703 1.638 15246
-0.269 0.711 1.643 12272
-0.270 0.715 1.641 9597
-0.273 0.722 1.646 13717
-0.275 0.726 1.643 17914
-0.275 0.727 1.634 19558
-0.276 0.731 1.632 20178
-0.278 0.735 1.629 17019
-0.281 0.743 1.634 15449
-0.286 0.757 1.652 18768
-0.289 0.765 1.657 23066
-0.291 0.769 1.654 25432
-0.292 0.773 1.652 22527
-0.293 0.774 1.642 20107
-0.296 0.781 1.647 20211
-0.297 0.786 1.644 20800
-0.300 0.793 1.649 20111
-0.300 0.794 1.639 21727
-0.302 0.798 1.637 24038
-0.303 0.802 1.634 21607
-0.305 0.806 1.632 19176
-0.306 0.810 1.629 15890
-0.311 0.822 1.640 10959
-0.321 0.849 1.678 12721
-0.323 0.853 1.675 18581
-0.323 0.853 1.666 21272
-0.324 0.857 1.663 19752
-0.327 0.865 1.667 12975
-0.332 0.877 1.678 8204
-0.336 0.889 1.688 7380
-0.338 0.894 1.685 9670
-0.338 0.894 1.676 12690
-0.338 0.894 1.666 14622
-0.343 0.906 1.677 13827
-0.346 0.914 1.680 12117
-0.347 0.919 1.678 14684
-0.351 0.927 1.681 21113
-0.351 0.927 1.672 25105
-0.352 0.931 1.669 21617
-0.355 0.939 1.672 20257
-0.362 0.956 1.689 17424
-0.365 0.964 1.692 12371
-0.368 0.973 1.696 13812
-0.373 0.985 1.706 14238
-0.374 0.990 1.703 12195
-0.373 0.985 1.686 11838
-0.373 0.985 1.677 12288
-0.373 0.985 1.667 20979
-0.376 0.994 1.671 31039
-0.377 0.998 1.667 26317
-0.377 0.998 1.658 18994
-0.379 1.002 1.655 18846
-0.380 1.006 1.651 16522
-0.385 1.019 1.661 13458
-0.390 1.032 1.670 19128
-0.392 1.036 1.667 20360
-0.390 1.031 1.651 11624
-0.388 1.026 1.635 7224
-0.400 1.057 1.670 7679
-0.403 1.066 1.673 9313
-0.406 1.075 1.676 12503
-0.410 1.083 1.678 16800
-0.411 1.087 1.675 18757
-0.411 1.087 1.665 14461
-0.413 1.091 1.662 7648
-0.419 1.109 1.677 6224
-0.425 1.122 1.686 10095
-0.430 1.136 1.695 13692
-0.431 1.140 1.691 22355
-0.431 1.140 1.681 27967
-0.431 1.139 1.672 23085
-0.432 1.143 1.668 13401
-0.432 1.143 1.658 11447
-0.436 1.152 1.661 15251
-0.439 1.160 1.663 21088
-0.440 1.165 1.659 21749
-0.442 1.169 1.656 16050
-0.442 1.168 1.646 12619
-0.447 1.182 1.654 15087
-0.450 1.191 1.656 20093
-0.454 1.200 1.659 19512
-0.453 1.199 1.649 20371
-0.453 1.198 1.639 14592
-0.449 1.187 1.617 10454
-0.452 1.196 1.620 13519
-0.461 1.220 1.639 18736
-0.465 1.229 1.641 15791
-0.472 1.248 1.655 12380
-0.470 1.242 1.640 16908
-0.471 1.246 1.636 15829
-0.477 1.260 1.643 9620
-0.478 1.264 1.639 14218
-0.482 1.273 1.641 24163
-0.483 1.278 1.637 22461
-0.485 1.282 1.633 17524
-0.486 1.286 1.629 18977
-0.486 1.285 1.619 18023
-0.485 1.283 1.609 18542
-0.489 1.293 1.611 21427
-0.494 1.307 1.618 24975
-0.498 1.316 1.620 19163
-0.499 1.320 1.616 13657
-0.507 1.340 1.628 16517
-0.512 1.354 1.635 21548
-0.512 1.353 1.625 22452
-0.517 1.367 1.632 19554
-0.521 1.377 1.634 23847
-0.520 1.375 1.624 28551
-0.524 1.385 1.625 16993
-0.529 1.399 1.631 8913
-0.531 1.403 1.627 9512
-0.532 1.407 1.623 28845
-0.536 1.417 1.624 40122
-0.539 1.426 1.625 26001
-0.543 1.436 1.626 14517
-0.553 1.461 1.643 8901
-0.540 1.427 1.600 5896
-0.564 1.491 1.655 8432
-0.565 1.495 1.650 11031
-0.571 1.510 1.656 9618
-0.577 1.525 1.662 12614
-0.578 1.529 1.657 12299
-0.582 1.539 1.658 9543
-0.588 1.554 1.664 14066
-0.591 1.564 1.664 14426
-0.595 1.573 1.664 8181
-0.601 1.589 1.670 8200
-0.607 1.604 1.675 10885
-0.608 1.608 1.670 10479
-0.610 1.612 1.665 9892
-0.613 1.622 1.665 12533
-0.619 1.637 1.670 15846
-0.623 1.647 1.670 19247
-0.624 1.651 1.665 14766
-0.635 1.678 1.680 14147
-0.634 1.676 1.670 19810
-0.636 1.681 1.664 14791
-0.637 1.685 1.659 9880
-0.643 1.700 1.664 11412
-0.649 1.716 1.669 12590
-0.655 1.731 1.673 14891
-0.654 1.730 1.663 14345
-0.658 1.740 1.662 12439
-0.662 1.750 1.662 9996
-0.666 1.760 1.661 9470
-0.671 1.775 1.665 12819
-0.677 1.791 1.669 14827
-0.679 1.795 1.664 17014
-0.683 1.805 1.663 19510
-0.687 1.815 1.662 19282
-0.688 1.819 1.656 16209
-0.692 1.829 1.655 11260
-0.716 1.892 1.697 11375
-0.717 1.897 1.691 14356
-0.719 1.901 1.685 14027
-0.721 1.905 1.679 9472
-0.724 1.915 1.678 6822
-0.724 1.913 1.667 12022
-0.725 1.918 1.661 21598
-0.727 1.922 1.655 23300
-0.728 1.926 1.649 20323
-0.728 1.924 1.639 15173
-0.729 1.928 1.632 10363
-0.733 1.938 1.631 11585
-0.735 1.942 1.625 10617
-0.759 2.007 1.664 10968
-0.758 2.005 1.653 12839
-0.758 2.003 1.642 13871
-0.761 2.013 1.641 16550
-0.765 2.023 1.639 19750
-0.769 2.033 1.637 17618
-0.773 2.044 1.635 14510
-0.774 2.048 1.628 15752
-0.774 2.045 1.617 22302
-0.775 2.050 1.611 25159
-0.774 2.047 1.600 23164
-0.776 2.051 1.594 17334
-0.775 2.049 1.583 12548
-0.776 2.053 1.576 13200
-0.778 2.057 1.570 10738
-0.836 2.211 1.665 10896
-0.835 2.208 1.654 11179
-0.839 2.219 1.651 10531
-0.838 2.217 1.640 8804
-0.857 2.265 1.662 7364
-0.858 2.269 1.655 8316
-0.860 2.273 1.648 7427
-0.861 2.277 1.641 5754
-0.877 2.319 1.658 5304
-0.884 2.336 1.659 6127
-0.895 2.366 1.668 8095
-0.901 2.382 1.669 8629
-0.903 2.387 1.661 6646
-0.907 2.397 1.658 4706
-0.925 2.446 1.678 5738
-0.929 2.457 1.674 6940
-0.931 2.461 1.666 6744
-0.959 2.536 1.702 6371
-0.961 2.540 1.694 8578
-0.960 2.538 1.682 9114
-0.954 2.523 1.662 7845
-0.951 2.514 1.647 6458
-0.974 2.576 1.673 6840
-0.976 2.580 1.665 7895
-0.975 2.578 1.653 6703
-0.974 2.576 1.641 5850
-1.003 2.651 1.674 5394
-1.002 2.649 1.662 6643
-1.003 2.653 1.654 5122
-1.003 2.651 1.642 3606
-1.019 2.694 1.655 4047
-1.028 2.718 1.658 5646
-1.025 2.709 1.642 5489
-1.026 2.713 1.633 5514
-1.055 2.790 1.664 4118
-1.064 2.814 1.666 4954
-1.081 2.858 1.678 3953
-1.082 2.862 1.669 3105
-1.099 2.906 1.681 3475
-1.101 2.910 1.672 4254
-1.102 2.914 1.663 3945
-1.104 2.918 1.654 3755
-1.118 2.956 1.661 3557
-1.127 2.980 1.662 5054
-1.129 2.984 1.653 5730
-1.130 2.988 1.643 6406
-1.132 2.992 1.634 6406
-1.131 2.990 1.621 6578
-1.132 2.994 1.612 6780
-1.141 3.018 1.612 5786
-1.148 3.035 1.609 6079
-1.147 3.033 1.597 5021
-1.146 3.030 1.584 4094
-1.147 3.034 1.574 4113
-1.149 3.038 1.565 2056
-0.234 0.624 1.688 7646
-0.236 0.628 1.686 8602
-0.237 0.633 1.684 9559
-0.240 0.640 1.689 8949
-0.241 0.644 1.687 8523
-0.243 0.648 1.685 8523
-0.245 0.652 1.683 7431
-0.244 0.650 1.667 6871
-0.247 0.658 1.672 6638
-0.248 0.662 1.670 6589
-0.251 0.669 1.675 7101
-0.254 0.677 1.680 7773
-0.254 0.678 1.670 9291
-0.254 0.678 1.661 10991
-0.257 0.686 1.666 10156
-0.259 0.690 1.664 10028
-0.260 0.694 1.661 10688
-0.261 0.695 1.652 13245
-0.262 0.699 1.650 15954
-0.264 0.703 1.648 15553
-0.264 0.704 1.638 15424
-0.267 0.711 1.643 12496
-0.268 0.715 1.641 9840
-0.271 0.723 1.646 13237
-0.273 0.727 1.643 16656
-0.273 0.728 1.634 18026
-0.274 0.732 1.632 18565
-0.276 0.736 1.629 15835
-0.279 0.743 1.634 14816
-0.284 0.758 1.652 18579
-0.287 0.766 1.657 22490
-0.289 0.770 1.654 24207
-0.290 0.774 1.652 21636
-0.290 0.775 1.642 19572
-0.293 0.782 1.647 20144
-0.295 0.786 1.644 21223
-0.296 0.790 1.642 20745
-0.298 0.795 1.639 22117
-0.299 0.799 1.637 23966
-0.301 0.803 1.634 21633
-0.302 0.807 1.632 19301
-0.304 0.811 1.629 15984
-0.308 0.823 1.640 10735
-0.319 0.850 1.678 11343
-0.319 0.850 1.668 16866
-0.320 0.854 1.666 19752
-0.322 0.858 1.663 18730
-0.325 0.866 1.667 12780
-0.329 0.878 1.678 8193
-0.332 0.887 1.681 6694
-0.334 0.891 1.679 9303
-0.334 0.891 1.669 13240
-0.336 0.895 1.666 15116
-0.339 0.903 1.670 14063
-0.342 0.911 1.674 12042
-0.345 0.920 1.678 15187
-0.348 0.928 1.681 21809
-0.349 0.932 1.678 25513
-0.351 0.936 1.675 21788
-0.359 0.957 1.699 20620
-0.360 0.961 1.695 18119
-0.362 0.965 1.692 13175
-0.365 0.974 1.696 15406
-0.370 0.987 1.706 16166
-0.371 0.991 1.703 13651
-0.370 0.987 1.686 13084
-0.370 0.986 1.677 13117
-0.371 0.991 1.674 21609
-0.373 0.995 1.671 31822
-0.374 0.999 1.667 26833
-0.376 1.003 1.664 19197
-0.376 1.003 1.655 17786
-0.378 1.007 1.651 15421
-0.382 1.020 1.661 13572
-0.387 1.033 1.670 19414
-0.387 1.033 1.661 20371
-0.385 1.028 1.645 11534
-0.383 1.023 1.629 7501
-0.393 1.049 1.657 7403
-0.398 1.063 1.666 9606
-0.403 1.076 1.676 11820
-0.407 1.084 1.678 15721
-0.408 1.089 1.675 17236
-0.410 1.093 1.672 11861
-0.409 1.092 1.662 4929
-0.418 1.115 1.683 4728
-0.421 1.124 1.686 9609
-0.426 1.137 1.695 14050
-0.428 1.141 1.691 23331
-0.428 1.141 1.681 28561
-0.427 1.140 1.672 22956
-0.429 1.145 1.668 13387
-0.429 1.144 1.658 12707
-0.432 1.153 1.661 17441
-0.435 1.162 1.663 23272
-0.437 1.166 1.659 23470
-0.439 1.170 1.656 16269
-0.438 1.169 1.646 11433
-0.443 1.183 1.654 13782
-0.447 1.192 1.656 19890
-0.450 1.201 1.659 21470
-0.450 1.200 1.649 23503
-0.450 1.199 1.639 16170
-0.446 1.189 1.617 10651
-0.451 1.203 1.626 14208
-0.460 1.226 1.645 21152
-0.463 1.235 1.647 17946
-0.468 1.249 1.655 15066
-0.468 1.249 1.645 18729
-0.470 1.253 1.641 17353
-0.473 1.262 1.643 11496
-0.476 1.271 1.645 14778
-0.478 1.275 1.641 24730
-0.479 1.279 1.637 23935
-0.481 1.283 1.633 19637
-0.482 1.287 1.629 22110
-0.482 1.286 1.619 18737
-0.482 1.285 1.609 16701
-0.485 1.294 1.611 20958
-0.490 1.308 1.618 25113
-0.494 1.318 1.620 20170
-0.497 1.327 1.621 15435
-0.503 1.341 1.628 17320
-0.508 1.356 1.635 20827
-0.510 1.360 1.631 21290
-0.513 1.369 1.632 17892
-0.517 1.378 1.634 21451
-0.518 1.382 1.629 26365
-0.522 1.392 1.630 16754
-0.525 1.401 1.631 13123
-0.527 1.405 1.627 13048
-0.528 1.409 1.623 26969
-0.532 1.418 1.624 36733
-0.535 1.428 1.625 24748
-0.541 1.443 1.631 16069
-0.546 1.457 1.637 10799
-0.544 1.451 1.622 7532
-0.560 1.493 1.655 8798
-0.561 1.497 1.650 11509
-0.561 1.495 1.640 10702
-0.572 1.527 1.662 11432
-0.574 1.531 1.657 11347
-0.578 1.541 1.658 8559
-0.585 1.561 1.669 11917
-0.587 1.565 1.664 11790
-0.590 1.575 1.664 6999
-0.598 1.596 1.675 8229
-0.602 1.606 1.675 11283
-0.603 1.610 1.670 10966
-0.605 1.614 1.665 9605
-0.611 1.629 1.670 12380
-0.614 1.639 1.670 17175
-0.618 1.649 1.670 21537
-0.620 1.653 1.665 16529
-0.630 1.680 1.680 15258
-0.629 1.678 1.670 21017
-0.631 1.682 1.664 15925
-0.632 1.687 1.659 10174
-0.640 1.708 1.669 12153
-0.646 1.723 1.674 14495
-0.650 1.733 1.673 16123
-0.651 1.738 1.668 14168
-0.653 1.742 1.662 11415
-0.657 1.752 1.662 8894
-0.663 1.767 1.666 8482
-0.666 1.777 1.665 11623
-0.672 1.793 1.669 12851
-0.676 1.803 1.669 14445
-0.677 1.807 1.663 17534
-0.681 1.817 1.662 18394
-0.683 1.821 1.656 16392
-0.687 1.831 1.655 12383
-0.708 1.889 1.693 9914
-0.710 1.893 1.687 14841
-0.713 1.903 1.685 15268
-0.715 1.907 1.679 9898
-0.717 1.911 1.673 6743
-0.718 1.916 1.667 12117
-0.722 1.926 1.666 21277
-0.721 1.924 1.655 22594
-0.723 1.928 1.649 19382
-0.722 1.926 1.639 14384
-0.724 1.930 1.632 8965
-0.727 1.940 1.631 9640
-0.731 1.950 1.629 9944
-0.753 2.009 1.664 10761
-0.752 2.007 1.653 12752
-0.752 2.005 1.642 13598
-0.755 2.015 1.641 16266
-0.759 2.025 1.639 19596
-0.763 2.036 1.637 17602
-0.767 2.046 1.635 14498
-0.766 2.044 1.624 15478
-0.768 2.048 1.617 22564
-0.767 2.046 1.607 25771
-0.768 2.050 1.600 23569
-0.770 2.054 1.594 18298
-0.769 2.051 1.583 14090
-0.770 2.055 1.576 14607
-0.772 2.059 1.570 11740
-0.827 2.207 1.661 11736
-0.829 2.211 1.654 12060
-0.833 2.221 1.651 11083
-0.832 2.219 1.640 9027
-0.848 2.261 1.658 7213
-0.851 2.271 1.655 7845
-0.853 2.276 1.648 6952
-0.857 2.286 1.645 5358
-0.868 2.315 1.654 5128
-0.874 2.332 1.655 5826
-0.888 2.368 1.668 7630
-0.892 2.379 1.665 7678
-0.896 2.389 1.661 5797
-0.919 2.451 1.690 4838
-0.920 2.455 1.682 6219
-0.922 2.459 1.674 7078
-0.923 2.464 1.666 6556
-0.952 2.539 1.702 6550
-0.953 2.543 1.694 8838
-0.952 2.541 1.682 9425
-0.947 2.525 1.662 7739
-0.973 2.594 1.693 7245
-0.972 2.592 1.681 7393
-0.968 2.583 1.665 8189
-0.970 2.587 1.657 6714
-0.967 2.578 1.641 5722
-0.995 2.654 1.674 5300
-0.994 2.652 1.662 6500
-0.993 2.650 1.650 5032
-0.995 2.654 1.642 3578
-1.011 2.697 1.655 4149
-1.023 2.728 1.661 5973
-1.022 2.725 1.649 5482
-1.018 2.716 1.633 5175
-1.049 2.800 1.668 4473
-1.058 2.824 1.669 5723
-1.055 2.814 1.653 4431
-1.074 2.865 1.669 3299
-1.086 2.896 1.674 3638
-1.090 2.907 1.668 4304
-1.091 2.911 1.659 3994
-1.095 2.922 1.654 3886
-1.104 2.946 1.655 3225
-1.118 2.983 1.662 4377
-1.120 2.988 1.653 5064
-1.119 2.985 1.640 5769
-1.120 2.989 1.631 5769
-1.122 2.993 1.621 6086
-1.121 2.990 1.609 6462
-1.135 3.028 1.616 5891
-1.139 3.039 1.609 6451
-1.138 3.036 1.597 5163
-1.137 3.033 1.584 4037
-1.139 3.037 1.574 3994
-1.140 3.041 1.565 1997
-0.232 0.625 1.688 7623
-0.234 0.629 1.686 8288
-0.237 0.636 1.691 8959
-0.238 0.640 1.689 8286
-0.241 0.648 1.694 7740
-0.243 0.652 1.692 7740
-0.243 0.653 1.683 6585
-0.241 0.648 1.660 5946
