0.974 1.620 1.650 16078
0.977 1.623 1.644 14459
0.976 1.622 1.634 11510
0.975 1.620 1.623 10012
0.977 1.624 1.618 9070
0.982 1.633 1.617 7260
0.991 1.647 1.621 7211
1.003 1.667 1.630 6763
1.005 1.671 1.624 14056
1.007 1.675 1.618 20999
1.013 1.684 1.617 18168
1.018 1.693 1.616 13402
1.011 1.680 1.596 9482
1.006 1.673 1.581 9720
1.012 1.682 1.580 7949
1.034 1.718 1.602 6444
1.036 1.722 1.596 6862
1.035 1.720 1.585 5585
1.037 1.724 1.579 5488
1.039 1.727 1.573 5340
1.122 1.864 1.676 5916
1.124 1.868 1.669 6669
1.126 1.872 1.663 9646
1.132 1.881 1.661 13444
1.134 1.885 1.654 12932
1.137 1.889 1.648 11677
1.139 1.893 1.641 11372
1.155 1.919 1.652 12904
1.164 1.934 1.655 21900
1.169 1.944 1.652 26114
1.175 1.953 1.650 22362
1.184 1.968 1.652 15891
1.197 1.989 1.658 14122
1.199 1.993 1.651 14579
1.198 1.991 1.640 13581
1.197 1.989 1.629 16932
1.202 1.998 1.626 20520
1.204 2.002 1.619 22303
1.203 2.000 1.608 20113
1.205 2.003 1.601 15717
1.204 2.001 1.590 12484
1.206 2.005 1.583 8830
1.212 2.014 1.581 8196
1.214 2.018 1.574 6537
1.216 2.021 1.567 4878
1.218 2.025 1.560 3501
1.227 2.040 1.561 3189
1.230 2.044 1.554 4172
1.232 2.047 1.547 4152
1.234 2.051 1.540 3993
1.232 2.048 1.529 2809
1.383 2.299 1.686 2352
1.386 2.303 1.678 3439
1.388 2.307 1.670 5029
1.390 2.311 1.662 6488
1.393 2.315 1.654 6358
1.395 2.318 1.646 5796
1.397 2.322 1.638 5234
1.399 2.326 1.630 7865
1.402 2.330 1.622 10496
1.404 2.333 1.614 10210
1.406 2.337 1.606 9924
1.412 2.347 1.602 7956
1.483 2.464 1.664 8715
1.496 2.486 1.666 8228
1.498 2.490 1.658 8007
1.500 2.494 1.649 6258
1.524 2.534 1.662 6079
1.534 2.550 1.660 5374
1.547 2.572 1.662 5960
1.557 2.588 1.661 5719
1.570 2.610 1.662 6771
1.565 2.601 1.646 7060
1.567 2.605 1.637 7920
1.573 2.615 1.632 7428
1.575 2.619 1.623 6925
1.578 2.622 1.614 4932
1.643 2.730 1.662 5924
1.645 2.734 1.653 5156
1.658 2.756 1.653 4560
1.660 2.760 1.644 4560
1.670 2.776 1.641 3422
1.728 2.872 1.681 3482
1.727 2.870 1.668 5394
1.725 2.868 1.655 7642
1.724 2.865 1.641 7726
1.726 2.869 1.632 7838
1.728 2.873 1.622 7838
1.730 2.876 1.612 3919
0.791 1.315 0.818 471
0.345 0.570 1.688 17203
0.348 0.574 1.686 14209
0.350 0.578 1.684 11215
0.354 0.585 1.689 13070
0.356 0.588 1.687 15096
0.359 0.592 1.685 15096
0.361 0.596 1.683 21283
0.363 0.600 1.681 27471
0.366 0.604 1.679 26553
0.368 0.608 1.677 25635
0.370 0.611 1.675 19653
0.374 0.618 1.680 14092
0.377 0.622 1.677 13012
0.375 0.620 1.661 12014
0.378 0.624 1.659 12975
0.380 0.627 1.657 17249
0.382 0.631 1.654 20563
0.384 0.635 1.652 22647
0.389 0.642 1.657 24847
0.389 0.642 1.648 26102
0.391 0.646 1.645 27473
0.393 0.650 1.643 25305
0.398 0.657 1.648 23487
0.398 0.657 1.639 19379
0.400 0.661 1.636 15656
0.403 0.665 1.634 14244
0.407 0.672 1.639 11847
0.409 0.675 1.636 8638
0.443 0.731 1.745 7455
0.447 0.738 1.749 7625
0.450 0.742 1.747 8076
0.452 0.746 1.744 10060
0.454 0.750 1.741 14143
0.457 0.754 1.739 17143
0.461 0.762 1.743 18200
0.464 0.766 1.740 18380
0.466 0.770 1.738 19190
0.468 0.774 1.735 20001
0.471 0.778 1.732 21871
0.473 0.782 1.730 19945
0.478 0.789 1.734 16187
0.482 0.796 1.738 12852
0.485 0.800 1.735 9617
0.487 0.804 1.732 13162
0.489 0.808 1.729 19035
0.492 0.812 1.726 21363
0.494 0.816 1.724 20588
0.499 0.824 1.727 18267
0.501 0.828 1.725 17141
0.504 0.832 1.722 20000
0.506 0.835 1.719 23380
0.508 0.839 1.716 27684
0.511 0.843 1.713 31251
0.513 0.847 1.710 27545
0.515 0.851 1.707 22736
0.518 0.855 1.704 18103
0.520 0.859 1.701 12280
0.525 0.867 1.705 10426
0.534 0.882 1.721 10796
0.536 0.886 1.718 15947
0.534 0.882 1.702 19823
0.534 0.882 1.692 19411
0.534 0.882 1.683 17627
0.539 0.890 1.686 13154
0.541 0.894 1.683 11428
0.543 0.897 1.680 12444
0.548 0.905 1.683 15297
0.553 0.913 1.687 15834
0.557 0.921 1.690 16428
0.560 0.924 1.687 20348
0.560 0.924 1.677 20806
0.562 0.928 1.674 17362
0.564 0.932 1.671 15720
0.569 0.940 1.674 16772
0.574 0.948 1.677 12410
0.581 0.959 1.686 10639
0.583 0.963 1.683 11204
0.586 0.967 1.680 9892
0.593 0.979 1.689 8583
0.600 0.991 1.698 13962
0.603 0.995 1.694 25858
0.607 1.003 1.697 30969
0.610 1.007 1.694 21499
0.615 1.015 1.697 11866
0.614 1.015 1.687 8651
0.619 1.023 1.689 7196
0.624 1.031 1.692 8816
0.629 1.039 1.695 11686
0.634 1.047 1.697 13121
0.636 1.051 1.694 13760
0.641 1.059 1.696 12475
0.646 1.067 1.699 12909
0.648 1.071 1.695 14890
0.653 1.079 1.697 13212
0.653 1.079 1.687 13975
0.655 1.082 1.684 19208
0.660 1.091 1.686 22284
0.668 1.103 1.694 23970
0.670 1.107 1.690 16301
0.681 1.124 1.705 10179
0.678 1.119 1.689 9427
0.677 1.119 1.679 13385
0.688 1.136 1.693 17593
0.696 1.149 1.701 23406
0.701 1.157 1.703 25627
0.703 1.161 1.699 24090
0.705 1.165 1.695 23566
0.710 1.173 1.696 19238
0.713 1.177 1.692 20706
0.718 1.185 1.694 24828
0.717 1.185 1.684 26562
0.720 1.188 1.680 24794
0.725 1.197 1.682 17513
0.733 1.210 1.689 11546
0.738 1.218 1.691 13120
0.743 1.227 1.692 17975
0.745 1.231 1.688 17919
0.750 1.239 1.689 14785
0.753 1.243 1.685 14724
0.755 1.247 1.681 15188
0.766 1.265 1.694 13658
0.771 1.273 1.695 13015
0.776 1.282 1.696 15685
0.779 1.286 1.692 30425
0.784 1.295 1.693 41716
0.786 1.298 1.688 43653
0.789 1.302 1.684 52813
0.791 1.306 1.679 53091
0.793 1.310 1.675 36360
0.796 1.314 1.670 26426
0.801 1.322 1.671 26711
0.806 1.331 1.672 19741
0.820 1.354 1.689 14277
0.825 1.363 1.690 18084
0.819 1.352 1.669 15051
0.815 1.346 1.654 11550
0.847 1.399 1.703 15401
0.850 1.403 1.698 12753
0.852 1.407 1.693 10170
0.863 1.426 1.705 9196
0.875 1.445 1.716 11761
0.874 1.444 1.705 13950
0.873 1.442 1.695 12645
0.876 1.446 1.690 16935
0.881 1.455 1.690 23666
0.884 1.459 1.685 18459
0.889 1.468 1.685 13489
0.891 1.472 1.680 11463
0.900 1.486 1.686 7439
0.905 1.495 1.686 5856
0.904 1.493 1.675 8878
0.907 1.497 1.670 11374
0.912 1.506 1.670 9437
0.921 1.520 1.675 6002
0.926 1.529 1.675 4778
0.935 1.543 1.680 6416
0.937 1.547 1.675 10130
0.939 1.551 1.669 13031
0.945 1.560 1.669 13266
0.950 1.569 1.669 12372
0.956 1.578 1.668 15373
0.958 1.582 1.663 22865
0.960 1.586 1.657 25323
0.963 1.590 1.652 22306
0.965 1.593 1.646 22719
0.970 1.602 1.646 21209
0.976 1.611 1.645 15228
0.978 1.615 1.639 11854
0.977 1.613 1.629 11172
0.976 1.612 1.619 11077
0.978 1.615 1.613 8985
0.984 1.625 1.612 6483
0.989 1.634 1.611 6243
1.014 1.675 1.639 6253
1.013 1.673 1.629 14543
1.012 1.672 1.618 21313
1.014 1.675 1.612 19585
1.023 1.690 1.616 14854
1.029 1.699 1.615 9497
1.011 1.670 1.581 7731
1.017 1.679 1.580 6677
1.035 1.710 1.597 6468
1.038 1.714 1.591 6726
1.043 1.723 1.590 5601
1.049 1.732 1.588 5423
1.047 1.730 1.578 4982
1.127 1.861 1.676 5259
1.129 1.865 1.669 5774
1.132 1.869 1.663 8974
1.137 1.878 1.661 13588
1.140 1.882 1.654 13466
1.142 1.886 1.648 11901
1.144 1.890 1.641 10798
1.164 1.921 1.657 11505
1.173 1.936 1.659 21674
1.175 1.940 1.652 26385
1.177 1.944 1.646 22579
1.190 1.965 1.652 16924
1.202 1.986 1.658 16682
1.205 1.989 1.651 16905
1.207 1.993 1.644 14703
1.206 1.991 1.633 16781
1.208 1.995 1.626 20563
1.210 1.998 1.619 21505
1.212 2.002 1.612 17037
1.215 2.006 1.606 11628
1.213 2.004 1.594 8457
1.215 2.007 1.588 6350
1.218 2.011 1.581 7222
1.220 2.014 1.574 7107
1.225 2.024 1.571 7029
1.231 2.033 1.568 5851
1.237 2.043 1.565 4718
1.239 2.046 1.558 4569
1.241 2.050 1.551 4634
1.247 2.059 1.548 4473
1.277 2.109 1.572 4006
1.280 2.113 1.565 3323
1.353 2.234 1.635 2936
1.391 2.297 1.666 4172
1.397 2.307 1.662 5105
1.403 2.317 1.658 4916
1.405 2.320 1.650 5545
1.411 2.330 1.646 6242
1.410 2.328 1.634 9036
1.412 2.332 1.626 11898
1.410 2.329 1.614 11881
1.413 2.333 1.606 11869
1.419 2.343 1.602 9825
1.486 2.454 1.660 8530
1.499 2.476 1.663 7546
1.505 2.486 1.658 7156
1.508 2.490 1.649 5583
1.488 2.457 1.619 5418
1.494 2.467 1.614 4812
1.555 2.567 1.662 5176
1.564 2.583 1.661 5070
1.578 2.605 1.662 5921
1.572 2.597 1.646 6497
1.575 2.600 1.637 7521
1.581 2.610 1.632 7416
1.583 2.614 1.623 7304
1.585 2.618 1.614 5404
1.658 2.738 1.669 5634
1.668 2.754 1.666 5407
1.670 2.757 1.657 5244
1.672 2.761 1.647 5244
1.678 2.771 1.641 4028
1.736 2.867 1.681 3615
1.735 2.865 1.668 5601
1.733 2.863 1.655 7883
1.736 2.866 1.645 7686
1.734 2.864 1.632 7528
1.736 2.868 1.622 7528
1.739 2.871 1.612 3764
0.795 1.313 0.818 390
0.347 0.569 1.688 17125
0.349 0.573 1.686 14149
0.353 0.580 1.691 11194
0.356 0.583 1.689 13438
0.358 0.587 1.687 15682
0.360 0.591 1.685 15682
0.363 0.595 1.683 21592
0.365 0.599 1.681 27503
0.367 0.603 1.679 26233
0.370 0.606 1.677 24964
0.372 0.610 1.675 18823
0.376 0.617 1.680 12908
0.378 0.621 1.677 11687
0.377 0.619 1.661 10936
0.379 0.622 1.659 11888
0.382 0.626 1.657 16362
0.384 0.630 1.654 19885
0.386 0.634 1.652 22225
0.390 0.640 1.657 24598
0.391 0.641 1.648 25730
0.393 0.645 1.645 26894
0.395 0.649 1.643 24547
0.400 0.655 1.648 22510
0.400 0.656 1.639 18562
0.402 0.660 1.636 14959
0.405 0.663 1.634 13546
0.409 0.670 1.639 11249
0.411 0.674 1.636 8163
0.445 0.730 1.745 8060
0.449 0.737 1.749 8160
0.452 0.741 1.747 8660
0.454 0.745 1.744 10016
0.457 0.749 1.741 13553
0.459 0.753 1.739 16671
0.464 0.760 1.743 18312
0.466 0.764 1.740 18996
0.468 0.768 1.738 19241
0.471 0.772 1.735 19486
0.473 0.776 1.732 20535
0.476 0.780 1.730 17841
0.480 0.788 1.734 14459
0.485 0.795 1.738 12437
0.491 0.806 1.748 10334
0.489 0.803 1.732 13276
0.492 0.807 1.729 18512
0.494 0.811 1.726 20589
0.499 0.818 1.730 19786
0.501 0.822 1.727 18145
0.504 0.826 1.725 17561
0.506 0.830 1.722 20733
0.508 0.834 1.719 24336
0.511 0.838 1.716 28658
0.513 0.842 1.713 32506
0.516 0.846 1.710 28440
0.518 0.850 1.707 23384
0.520 0.853 1.704 17562
0.523 0.857 1.701 11107
0.525 0.861 1.698 9911
0.530 0.869 1.702 9972
0.541 0.888 1.725 14842
0.534 0.877 1.695 18040
0.532 0.873 1.679 18750
0.537 0.880 1.683 17990
0.541 0.888 1.686 14696
0.544 0.892 1.683 12539
0.546 0.896 1.680 13615
0.551 0.903 1.683 17038
0.556 0.911 1.687 18179
0.563 0.923 1.696 17311
0.565 0.927 1.693 20266
0.562 0.923 1.677 20617
0.565 0.926 1.674 17704
0.565 0.926 1.664 15439
0.569 0.934 1.667 16419
0.574 0.942 1.670 13494
0.584 0.958 1.686 10850
0.586 0.962 1.683 11374
0.589 0.965 1.680 11029
0.593 0.973 1.682 9774
0.603 0.989 1.698 13508
0.606 0.993 1.694 24773
0.610 1.001 1.697 30262
0.615 1.009 1.700 21774
0.618 1.013 1.697 12214
0.620 1.017 1.693 8380
0.625 1.025 1.696 7714
0.630 1.033 1.698 10005
0.635 1.041 1.701 12340
0.637 1.045 1.697 13952
0.639 1.049 1.694 14528
0.642 1.053 1.690 11827
0.649 1.065 1.699 11885
0.652 1.069 1.695 15035
0.657 1.077 1.697 14105
0.659 1.081 1.693 16043
0.659 1.080 1.684 20848
0.664 1.089 1.686 21553
0.669 1.097 1.688 22669
0.674 1.105 1.690 16208
0.681 1.118 1.698 11188
0.681 1.117 1.689 11300
0.678 1.112 1.673 13250
0.688 1.129 1.687 14402
0.699 1.146 1.701 20692
0.704 1.155 1.703 23362
0.709 1.163 1.705 21118
0.712 1.167 1.700 22181
0.714 1.171 1.696 20258
0.716 1.175 1.692 20669
0.721 1.183 1.694 24442
0.721 1.182 1.684 26556
0.723 1.186 1.680 24002
0.728 1.195 1.682 16266
0.736 1.208 1.689 11404
0.744 1.221 1.697 13748
0.747 1.225 1.692 19055
0.752 1.233 1.694 19212
0.754 1.237 1.689 14697
0.756 1.241 1.685 11307
0.762 1.249 1.687 11172
0.776 1.272 1.705 11319
0.778 1.276 1.700 12578
0.780 1.280 1.696 21397
0.783 1.284 1.692 39525
0.788 1.292 1.693 46850
0.790 1.296 1.688 44173
0.793 1.300 1.684 51646
0.795 1.304 1.679 46977
0.797 1.307 1.675 25277
0.802 1.316 1.676 18292
0.805 1.320 1.671 23592
0.810 1.329 1.672 19373
0.815 1.337 1.673 10990
0.821 1.346 1.674 11412
0.820 1.345 1.664 14020
0.819 1.344 1.654 14420
0.852 1.397 1.703 12954
0.854 1.401 1.698 13378
0.856 1.404 1.693 12122
0.865 1.418 1.699 11450
0.876 1.437 1.710 12433
0.879 1.441 1.705 13065
0.878 1.440 1.695 11491
0.880 1.444 1.690 15139
0.886 1.453 1.690 20419
0.888 1.456 1.685 14863
0.893 1.465 1.685 11984
0.899 1.474 1.686 12026
0.904 1.483 1.686 8117
0.913 1.497 1.691 5274
0.909 1.491 1.675 8344
0.911 1.495 1.670 12983
0.917 1.503 1.670 11011
0.925 1.518 1.675 5821
0.940 1.542 1.690 4587
0.946 1.551 1.690 6599
0.945 1.550 1.680 10350
0.944 1.548 1.669 13588
0.949 1.557 1.669 12467
0.958 1.572 1.674 11329
0.960 1.575 1.668 15511
0.963 1.579 1.663 24169
0.965 1.583 1.657 27652
0.967 1.587 1.652 24753
0.970 1.590 1.646 24204
0.975 1.599 1.646 21952
0.977 1.603 1.640 15072
0.976 1.602 1.630 11154
0.979 1.605 1.624 11169
0.981 1.609 1.619 11455
0.980 1.607 1.608 8642
0.989 1.622 1.612 5521
1.011 1.658 1.635 5916
1.019 1.672 1.639 8800
1.022 1.676 1.633 15627
1.017 1.669 1.618 20890
1.020 1.672 1.612 19832
1.028 1.687 1.616 15489
1.037 1.701 1.619 10057
1.029 1.689 1.599 6042
1.028 1.687 1.589 5987
1.041 1.707 1.597 6419
1.043 1.710 1.591 6545
1.055 1.731 1.599 6274
1.057 1.734 1.593 5702
1.056 1.732 1.582 4518
1.129 1.852 1.671 4416
1.132 1.856 1.665 4745
1.137 1.865 1.663 7717
1.143 1.875 1.661 12729
1.145 1.879 1.654 13231
1.148 1.882 1.648 11644
1.150 1.886 1.641 9926
1.173 1.924 1.661 9981
1.178 1.933 1.659 20335
1.181 1.937 1.652 25057
1.183 1.940 1.646 21528
1.196 1.961 1.652 16909
1.208 1.982 1.658 18476
1.211 1.986 1.651 18923
1.213 1.989 1.644 15858
1.215 1.993 1.637 16917
1.217 1.997 1.630 21040
1.220 2.001 1.624 21002
1.222 2.004 1.617 15357
1.224 2.008 1.610 9749
1.226 2.012 1.603 6930
1.225 2.009 1.592 5613
1.227 2.013 1.585 7022
1.229 2.017 1.578 7328
1.232 2.020 1.571 7634
1.234 2.024 1.564 5970
1.243 2.039 1.565 3019
1.295 2.124 1.614 3226
1.294 2.122 1.602 2787
1.285 2.108 1.583 3359
1.291 2.117 1.580 4234
1.289 2.115 1.569 3362
1.374 2.254 1.651 3260
1.387 2.275 1.655 4086
1.397 2.291 1.655 4311
1.417 2.324 1.666 4060
1.416 2.322 1.654 6066
1.418 2.326 1.646 8173
1.417 2.324 1.634 10776
1.419 2.327 1.626 13647
1.421 2.331 1.618 13661
1.420 2.329 1.606 13799
1.426 2.338 1.602 11786
1.428 2.342 1.594 9897
1.430 2.345 1.586 7395
1.513 2.481 1.658 6145
1.497 2.455 1.631 5255
1.495 2.453 1.619 5003
1.497 2.456 1.611 4443
1.562 2.563 1.662 4342
1.572 2.578 1.661 4269
1.589 2.606 1.666 4804
1.580 2.592 1.646 5718
1.583 2.596 1.637 6944
1.589 2.606 1.632 7251
1.594 2.615 1.626 7608
1.597 2.619 1.617 5906
1.677 2.751 1.679 5912
1.680 2.755 1.670 5963
1.682 2.759 1.660 6014
1.684 2.762 1.651 6014
1.686 2.766 1.641 4595
1.745 2.862 1.681 3604
1.744 2.860 1.668 5494
1.742 2.857 1.655 7615
1.744 2.861 1.645 7199
1.743 2.859 1.632 6833
1.745 2.862 1.622 6833
1.747 2.866 1.612 3416
0.799 1.311 0.818 404
0.348 0.568 1.688 17267
0.352 0.575 1.693 14251
0.355 0.579 1.691 11420
0.357 0.583 1.689 13810
0.359 0.586 1.687 16199
0.362 0.590 1.685 16199
0.364 0.594 1.683 21774
0.366 0.598 1.681 27349
0.369 0.602 1.679 25922
0.371 0.606 1.677 24496
0.373 0.609 1.675 18331
0.378 0.616 1.680 12172
0.376 0.614 1.663 10582
0.379 0.618 1.661 9548
0.381 0.622 1.659 10431
0.383 0.625 1.657 14903
0.386 0.629 1.654 18493
0.388 0.633 1.652 21067
0.390 0.637 1.650 23641
0.392 0.640 1.648 24686
0.395 0.644 1.645 25731
0.397 0.648 1.643 23357
0.401 0.655 1.648 21264
0.402 0.655 1.639 17549
0.404 0.659 1.636 14156
0.406 0.663 1.634 12839
0.410 0.669 1.639 10696
0.413 0.673 1.636 7757
0.445 0.726 1.738 8091
0.449 0.733 1.742 8064
0.454 0.740 1.747 8549
0.456 0.744 1.744 9553
0.458 0.748 1.741 12679
0.461 0.752 1.739 15743
0.465 0.759 1.743 17721
0.468 0.763 1.740 18704
0.470 0.767 1.738 18717
0.475 0.775 1.742 18802
0.475 0.775 1.732 19065
0.477 0.779 1.730 15812
0.484 0.790 1.740 12768
0.487 0.794 1.738 11929
0.491 0.801 1.742 10895
0.491 0.802 1.732 13303
0.494 0.806 1.729 18017
0.496 0.810 1.726 19969
0.501 0.817 1.730 19073
0.503 0.821 1.727 17532
0.506 0.825 1.725 17168
0.508 0.829 1.722 20648
0.510 0.833 1.719 24569
0.513 0.837 1.716 28978
0.515 0.841 1.713 33212
0.518 0.844 1.710 29161
0.522 0.852 1.714 24062
0.525 0.856 1.711 17609
0.525 0.856 1.701 10863
0.525 0.856 1.691 10284
0.529 0.864 1.695 10516
0.543 0.886 1.725 13637
0.532 0.868 1.682 16436
0.532 0.868 1.673 17661
0.539 0.879 1.683 17652
0.544 0.887 1.686 15328
0.546 0.891 1.683 12871
0.548 0.894 1.680 14000
0.553 0.902 1.683 17992
0.555 0.906 1.680 20083
0.565 0.921 1.696 18116
0.567 0.925 1.693 20398
0.567 0.925 1.683 20549
0.567 0.925 1.674 17936
0.567 0.925 1.664 15333
0.572 0.933 1.667 16277
0.576 0.940 1.670 14386
0.584 0.952 1.680 11197
0.588 0.960 1.683 11892
0.591 0.964 1.680 12430
0.596 0.972 1.682 11332
0.603 0.984 1.692 13502
0.608 0.992 1.694 23673
0.613 1.000 1.697 29336
0.615 1.004 1.694 22145
0.620 1.012 1.697 13489
0.620 1.011 1.687 9576
0.627 1.023 1.696 8561
0.632 1.032 1.698 10342
0.637 1.040 1.701 11855
0.640 1.043 1.697 13706
0.639 1.043 1.687 14129
0.644 1.051 1.690 10339
0.652 1.064 1.699 10775
0.654 1.067 1.695 16019
0.659 1.076 1.697 14763
0.662 1.079 1.693 15649
0.664 1.083 1.690 19691
0.666 1.087 1.686 19558
0.671 1.095 1.688 21077
0.676 1.103 1.690 16307
0.681 1.112 1.692 11492
0.684 1.116 1.689 12072
0.681 1.111 1.673 12306
0.688 1.123 1.681 11387
0.704 1.149 1.707 17712
0.709 1.158 1.709 21091
0.712 1.161 1.705 19343
0.714 1.165 1.700 21222
0.717 1.169 1.696 20246
0.719 1.173 1.692 19049
0.721 1.177 1.688 22507
0.724 1.181 1.684 25435
0.726 1.185 1.680 22700
0.731 1.193 1.682 15426
0.739 1.206 1.689 11227
0.747 1.219 1.697 13793
0.749 1.223 1.692 19280
0.755 1.231 1.694 19805
0.757 1.235 1.689 14312
0.759 1.239 1.685 8916
0.765 1.248 1.687 8964
0.778 1.270 1.705 9885
0.778 1.269 1.695 12707
0.783 1.278 1.696 25666
0.786 1.282 1.692 43920
0.788 1.286 1.687 48499
0.793 1.294 1.688 44504
0.796 1.298 1.684 49399
0.798 1.302 1.679 38439
0.803 1.310 1.680 15894
0.814 1.329 1.692 14340
0.814 1.328 1.682 20674
0.816 1.332 1.678 17259
0.821 1.340 1.678 8706
0.824 1.344 1.674 8478
0.823 1.343 1.664 11794
0.822 1.342 1.654 14826
0.822 1.341 1.643 12564
0.857 1.399 1.698 13171
0.860 1.402 1.693 13141
0.868 1.416 1.699 11721
0.876 1.430 1.705 11615
0.882 1.439 1.705 11866
0.881 1.438 1.695 10746
0.884 1.442 1.690 14139
0.886 1.445 1.685 18321
0.891 1.454 1.685 12265
0.897 1.463 1.685 11039
0.902 1.472 1.686 12690
0.911 1.486 1.691 9509
0.916 1.495 1.691 6663
0.912 1.489 1.675 9189
0.915 1.492 1.670 13948
0.920 1.501 1.670 11696
0.929 1.515 1.675 5060
0.944 1.540 1.690 4420
0.949 1.549 1.690 6391
0.948 1.547 1.680 9581
0.948 1.546 1.669 12757
0.953 1.555 1.669 11165
0.962 1.569 1.674 10256
0.964 1.573 1.668 14978
0.966 1.577 1.663 23743
0.969 1.581 1.657 27280
0.971 1.584 1.652 24798
0.973 1.588 1.646 24423
0.976 1.592 1.641 22086
0.978 1.596 1.635 15751
0.977 1.594 1.625 12320
0.982 1.603 1.624 11239
0.988 1.612 1.623 10518
0.984 1.605 1.608 7574
1.015 1.657 1.646 6044
1.018 1.661 1.640 7107
1.023 1.670 1.639 10800
1.026 1.673 1.633 16212
1.021 1.666 1.618 19968
1.023 1.670 1.612 19036
1.036 1.690 1.621 15104
1.041 1.699 1.619 10078
1.057 1.724 1.632 5838
1.036 1.690 1.594 5672
1.045 1.704 1.597 6386
1.054 1.719 1.600 6639
1.062 1.734 1.603 7206
1.065 1.737 1.597 6007
1.060 1.730 1.582 4177
1.069 1.744 1.585 3810
1.136 1.853 1.665 4119
1.142 1.863 1.663 6586
1.147 1.872 1.661 11395
1.150 1.876 1.654 12390
1.152 1.880 1.648 11005
1.154 1.883 1.641 9295
1.177 1.921 1.661 8732
1.183 1.930 1.659 18147
1.185 1.934 1.652 22628
1.188 1.938 1.646 19553
1.197 1.953 1.647 16053
1.213 1.979 1.658 18883
1.215 1.983 1.651 19770
1.218 1.987 1.644 16342
1.220 1.990 1.637 17093
1.222 1.994 1.630 21272
1.224 1.998 1.624 20891
1.227 2.001 1.617 14902
1.236 2.017 1.618 9755
1.238 2.020 1.611 7126
1.233 2.012 1.596 5398
1.235 2.016 1.589 6747
1.234 2.014 1.578 7557
1.236 2.017 1.571 8406
1.238 2.021 1.564 7022
1.248 2.036 1.565 4764
1.253 2.045 1.562 4207
1.256 2.049 1.555 4115
1.290 2.105 1.583 3850
1.296 2.114 1.580 4795
1.302 2.124 1.577 3644
1.383 2.257 1.655 3203
1.389 2.266 1.651 4355
1.388 2.264 1.639 5148
1.390 2.268 1.631 4406
1.421 2.319 1.654 6765
1.423 2.322 1.646 9578
1.422 2.320 1.634 12001
1.424 2.324 1.626 14654
1.427 2.328 1.618 14827
1.425 2.325 1.606 15063
1.431 2.335 1.602 13092
1.433 2.339 1.594 11183
1.435 2.342 1.586 8534
1.434 2.340 1.574 6020
1.499 2.445 1.627 5057
1.501 2.449 1.619 4652
1.503 2.453 1.611 4104
1.568 2.559 1.662 3829
1.574 2.569 1.657 3765
1.595 2.603 1.666 3910
1.583 2.582 1.643 5098
1.589 2.592 1.637 6373
1.595 2.602 1.632 6985
1.601 2.612 1.626 7757
1.603 2.615 1.617 6182
1.687 2.753 1.682 6012
1.686 2.751 1.670 6118
1.688 2.755 1.660 6260
1.691 2.758 1.651 6260
1.693 2.762 1.641 4794
1.752 2.858 1.681 3463
1.750 2.856 1.668 5220
1.749 2.853 1.655 7166
1.751 2.857 1.645 6664
1.750 2.855 1.632 6220
1.752 2.858 1.622 6220
1.754 2.862 1.612 3110
0.802 1.309 0.818 472
0.349 0.568 1.688 16966
0.353 0.574 1.693 14340
0.357 0.581 1.699 11923
0.358 0.582 1.689 14396
0.360 0.586 1.687 17015
0.363 0.590 1.685 17015
0.365 0.594 1.683 22359
0.367 0.597 1.681 27704
0.370 0.601 1.679 26111
0.372 0.605 1.677 24518
0.374 0.609 1.675 18285
0.377 0.613 1.672 12053
0.377 0.613 1.663 10049
0.378 0.614 1.654 8522
0.382 0.621 1.659 9136
0.384 0.625 1.657 13493
0.386 0.628 1.654 17084
0.389 0.632 1.652 19818
0.391 0.636 1.650 22552
0.393 0.640 1.648 23486
0.396 0.643 1.645 24419
0.398 0.647 1.643 22093
0.402 0.654 1.648 20049
0.402 0.655 1.639 16464
0.405 0.658 1.636 13184
0.407 0.662 1.634 11952
0.411 0.669 1.639 10015
0.441 0.718 1.734 7860
0.446 0.725 1.738 8686
0.450 0.732 1.742 8364
0.455 0.739 1.747 8695
0.457 0.743 1.744 9358
0.460 0.747 1.741 12077
0.462 0.751 1.739 15087
0.466 0.759 1.743 17416
0.469 0.763 1.740 18690
0.471 0.766 1.738 18538
0.476 0.774 1.742 18506
0.476 0.774 1.732 17963
0.481 0.782 1.736 14249
0.485 0.789 1.740 11820
0.490 0.797 1.744 11798
0.492 0.801 1.742 11417
0.493 0.801 1.732 13358
0.495 0.805 1.729 17600
0.497 0.809 1.726 19526
0.502 0.816 1.730 18656
0.504 0.820 1.727 17184
0.507 0.824 1.725 16898
0.509 0.828 1.722 20379
0.509 0.828 1.712 24360
0.514 0.836 1.716 28732
0.516 0.840 1.713 33284
0.519 0.844 1.710 29475
0.523 0.851 1.714 24810
0.526 0.855 1.711 18331
0.528 0.859 1.708 10826
0.526 0.855 1.691 10331
0.531 0.863 1.695 10958
0.533 0.867 1.692 13618
0.533 0.867 1.682 15907
0.533 0.867 1.673 16909
0.540 0.878 1.683 17196
0.545 0.886 1.686 15334
0.547 0.890 1.683 12764
0.549 0.894 1.680 13926
0.554 0.901 1.683 18388
0.557 0.905 1.680 21583
0.569 0.925 1.703 18724
0.571 0.928 1.700 20584
0.568 0.924 1.683 20254
0.568 0.924 1.674 17870
0.568 0.924 1.664 15257
0.573 0.932 1.667 15894
0.575 0.936 1.664 14593
0.583 0.947 1.674 11092
0.590 0.959 1.683 11934
0.592 0.963 1.680 13048
0.597 0.971 1.682 12037
0.604 0.983 1.692 13332
0.609 0.991 1.694 22578
0.614 0.999 1.697 28246
0.617 1.003 1.694 22113
0.619 1.007 1.690 14443
0.621 1.010 1.687 10905
0.629 1.023 1.696 9440
0.634 1.031 1.698 10650
0.639 1.039 1.701 11882
0.641 1.043 1.697 13843
0.641 1.042 1.687 13771
0.643 1.046 1.684 9307
0.653 1.063 1.699 10006
0.656 1.066 1.695 16258
0.661 1.075 1.697 15127
0.663 1.078 1.693 16025
0.665 1.082 1.690 20004
0.668 1.086 1.686 19040
0.673 1.094 1.688 19600
0.678 1.102 1.690 15584
0.683 1.111 1.692 11939
0.685 1.115 1.689 13015
0.682 1.110 1.673 11333
0.687 1.118 1.675 9217
0.706 1.148 1.707 15680
0.711 1.157 1.709 19699
0.714 1.160 1.705 17809
0.719 1.169 1.706 20259
0.718 1.168 1.696 20150
0.718 1.167 1.686 17332
0.723 1.176 1.688 20277
0.725 1.180 1.684 23452
0.728 1.183 1.680 20298
0.736 1.196 1.688 14401
0.741 1.205 1.689 10939
0.746 1.213 1.691 13669
0.754 1.226 1.698 19377
0.756 1.230 1.694 19768
0.759 1.234 1.689 13612
0.761 1.238 1.685 6998
0.769 1.251 1.692 7942
0.777 1.264 1.699 9999
0.780 1.268 1.695 14459
0.785 1.277 1.696 29750
0.787 1.281 1.692 47415
0.790 1.284 1.687 50057
0.795 1.293 1.688 44585
0.797 1.297 1.684 44927
0.800 1.301 1.679 28318
0.808 1.314 1.686 12550
0.810 1.318 1.681 17501
0.816 1.327 1.682 21035
0.821 1.335 1.683 15036
0.829 1.349 1.689 7722
0.835 1.357 1.690 8102
0.828 1.347 1.669 9094
0.821 1.336 1.648 14674
0.824 1.339 1.643 14991
0.859 1.397 1.698 13105
0.862 1.401 1.693 14020
0.870 1.415 1.699 11450
0.879 1.429 1.705 10499
0.884 1.438 1.705 11019
0.883 1.436 1.695 10648
0.886 1.440 1.690 13479
0.888 1.444 1.685 16750
0.890 1.448 1.680 10558
0.902 1.467 1.691 10660
0.904 1.471 1.686 13722
0.913 1.485 1.691 11074
0.915 1.489 1.686 9237
0.915 1.487 1.675 11198
0.917 1.491 1.670 15003
0.919 1.495 1.665 12625
0.928 1.509 1.670 5150
0.946 1.538 1.690 4438
0.952 1.547 1.690 6318
0.954 1.551 1.685 8623
0.953 1.550 1.674 11106
0.955 1.554 1.669 9746
0.967 1.573 1.679 9389
0.966 1.572 1.668 14646
0.969 1.575 1.663 23250
0.971 1.579 1.657 26084
0.973 1.583 1.652 23996
0.976 1.587 1.646 24470
0.978 1.590 1.641 23010
0.980 1.594 1.635 17346
0.979 1.592 1.625 13623
0.985 1.601 1.624 11438
0.990 1.610 1.623 9528
1.016 1.652 1.652 7114
1.018 1.655 1.646 6788
1.020 1.659 1.640 8363
1.026 1.668 1.639 12711
1.028 1.672 1.633 16829
1.024 1.665 1.618 18858
1.026 1.668 1.612 17620
1.038 1.688 1.621 14142
1.047 1.703 1.624 9970
1.056 1.717 1.627 6064
1.041 1.694 1.598 5409
1.047 1.703 1.597 5999
1.059 1.723 1.605 6755
1.068 1.738 1.608 7889
1.067 1.736 1.597 6108
1.069 1.739 1.591 3829
1.075 1.748 1.590 3455
1.139 1.852 1.665 3776
1.144 1.861 1.663 5630
1.150 1.870 1.661 9872
1.152 1.874 1.654 11247
1.155 1.878 1.648 10037
1.157 1.882 1.641 8530
1.183 1.925 1.666 7847
1.186 1.928 1.659 15675
1.188 1.932 1.652 19836
1.190 1.936 1.646 17356
1.200 1.951 1.647 15081
1.212 1.972 1.654 19030
1.215 1.975 1.647 20262
1.217 1.979 1.640 16708
1.223 1.989 1.637 17020
1.225 1.992 1.630 21063
1.227 1.996 1.624 20472
1.233 2.005 1.621 14718
1.242 2.020 1.622 10508
1.245 2.024 1.615 8065
1.240 2.016 1.600 6796
1.238 2.014 1.589 8089
1.241 2.018 1.582 9060
1.239 2.015 1.571 10086
1.241 2.019 1.564 8712
1.247 2.028 1.561 6411
1.253 2.038 1.558 5532
1.259 2.047 1.555 5326
1.257 2.045 1.544 4682
1.306 2.124 1.588 3811
1.305 2.122 1.577 2839
1.386 2.255 1.655 3388
1.392 2.264 1.651 4571
1.395 2.268 1.643 5719
1.397 2.272 1.635 5602
1.421 2.311 1.650 7696
1.427 2.320 1.646 10858
1.425 2.318 1.634 13192
1.428 2.322 1.626 15641
1.430 2.326 1.618 15948
1.429 2.323 1.606 16269
1.434 2.333 1.602 14241
1.437 2.336 1.594 12226
1.439 2.340 1.586 9469
1.437 2.338 1.574 6884
1.502 2.443 1.627 4976
1.501 2.441 1.615 4530
1.503 2.444 1.607 3912
1.572 2.557 1.662 3620
1.574 2.560 1.653 3519
1.580 2.570 1.648 3447
1.586 2.580 1.643 4654
1.592 2.590 1.637 5897
1.598 2.599 1.632 6746
1.604 2.609 1.626 7855
1.607 2.613 1.617 6364
1.691 2.751 1.682 6141
1.690 2.748 1.670 6243
1.692 2.752 1.660 6449
1.695 2.756 1.651 6449
1.697 2.760 1.641 4929
1.703 2.769 1.635 3497
1.754 2.853 1.668 4907
1.757 2.857 1.658 6684
1.755 2.854 1.645 6109
1.754 2.852 1.632 5571
1.756 2.856 1.622 5571
1.758 2.859 1.612 2785
0.808 1.314 0.821 465
0.351 0.567 1.688 16349
0.355 0.573 1.693 14332
0.359 0.580 1.699 12627
0.360 0.581 1.689 15303
0.362 0.585 1.687 18235
0.365 0.588 1.685 18235
0.367 0.592 1.683 23303
0.369 0.596 1.681 28370
0.372 0.600 1.679 26498
0.374 0.604 1.677 24625
0.376 0.607 1.675 18368
0.379 0.611 1.672 12110
0.379 0.612 1.663 9690
0.380 0.613 1.654 7719
0.382 0.617 1.652 8122
0.386 0.623 1.657 12073
0.389 0.627 1.654 15536
0.391 0.631 1.652 18322
0.393 0.635 1.650 21108
0.396 0.638 1.648 22060
0.398 0.642 1.645 23012
0.400 0.646 1.643 20754
0.404 0.653 1.648 18780
0.405 0.653 1.639 15174
0.407 0.657 1.636 11878
0.409 0.661 1.634 10804
0.414 0.667 1.639 9111
0.444 0.716 1.734 8212
0.448 0.723 1.738 9101
0.453 0.731 1.742 8593
0.457 0.738 1.747 8829
0.460 0.742 1.744 9299
0.462 0.746 1.741 11621
0.465 0.750 1.739 14454
0.469 0.757 1.743 17262
0.472 0.761 1.740 18875
0.474 0.765 1.738 18836
0.479 0.772 1.742 18846
0.479 0.773 1.732 17471
0.483 0.780 1.736 13329
0.488 0.787 1.740 11195
0.493 0.795 1.744 11867
0.495 0.799 1.742 12150
0.495 0.799 1.732 13768
0.498 0.803 1.729 17297
0.502 0.811 1.733 19182
0.505 0.815 1.730 18170
0.507 0.818 1.727 16794
0.510 0.822 1.725 16708
0.512 0.826 1.722 20069
0.512 0.827 1.712 24046
0.517 0.834 1.716 28335
0.519 0.838 1.713 33273
0.522 0.842 1.710 29854
0.526 0.849 1.714 25668
0.529 0.853 1.711 19324
0.531 0.857 1.708 11686
0.531 0.857 1.698 10998
0.531 0.857 1.688 12173
0.534 0.861 1.685 14869
0.534 0.861 1.676 16036
0.536 0.865 1.673 16132
0.546 0.880 1.689 17196
0.548 0.884 1.686 15728
0.550 0.888 1.683 12647
0.553 0.892 1.680 13428
0.557 0.899 1.683 18595
0.560 0.903 1.680 23387
0.572 0.923 1.703 19576
0.577 0.930 1.706 21101
0.574 0.926 1.690 20014
0.572 0.922 1.674 17445
0.571 0.922 1.664 15154
0.574 0.926 1.661 15613
0.579 0.934 1.664 14917
0.586 0.945 1.674 11165
0.593 0.957 1.683 11976
0.598 0.965 1.686 13542
0.603 0.973 1.689 12857
0.608 0.981 1.692 13064
0.613 0.989 1.694 21029
0.618 0.997 1.697 27198
0.620 1.001 1.694 22403
0.622 1.004 1.690 15682
0.625 1.008 1.687 12047
0.630 1.016 1.689 10477
0.637 1.028 1.698 11337
0.642 1.036 1.701 12024
0.645 1.040 1.697 13970
0.647 1.044 1.694 13360
0.647 1.044 1.684 8588
0.660 1.065 1.705 10503
0.659 1.064 1.695 16819
0.662 1.068 1.691 15257
0.667 1.076 1.693 16145
0.669 1.080 1.690 20072
0.672 1.084 1.686 18888
0.677 1.092 1.688 18733
0.679 1.096 1.684 15281
0.687 1.108 1.692 12450
0.689 1.112 1.689 14300
0.689 1.112 1.679 11675
0.691 1.115 1.675 8243
0.710 1.146 1.707 14699
0.715 1.154 1.709 19085
0.720 1.162 1.710 16843
0.723 1.166 1.706 19090
0.720 1.161 1.691 20126
0.719 1.160 1.681 16237
0.727 1.173 1.688 18010
0.730 1.177 1.684 20955
0.732 1.181 1.680 17194
0.740 1.194 1.688 13325
0.748 1.207 1.695 10539
0.750 1.211 1.691 13448
0.758 1.224 1.698 19159
0.761 1.228 1.694 18886
0.763 1.231 1.689 12440
0.768 1.240 1.691 5587
0.777 1.253 1.698 7588
0.782 1.262 1.699 10363
0.784 1.265 1.695 16391
0.790 1.274 1.696 33058
0.792 1.278 1.692 49253
0.794 1.282 1.687 50782
0.800 1.290 1.688 43390
0.802 1.294 1.684 38713
0.804 1.298 1.679 22658
0.810 1.306 1.680 13559
0.812 1.310 1.676 23324
0.817 1.319 1.677 25065
0.826 1.332 1.683 15526
0.834 1.346 1.689 10504
0.833 1.345 1.679 11766
0.827 1.334 1.658 12490
0.826 1.333 1.648 17388
0.828 1.336 1.643 17206
0.831 1.340 1.639 13161
0.867 1.398 1.693 14716
0.875 1.412 1.699 10761
0.884 1.426 1.705 9258
0.886 1.430 1.700 11032
0.888 1.433 1.695 11395
0.891 1.437 1.690 12917
0.893 1.441 1.685 15272
0.895 1.445 1.680 9348
0.907 1.464 1.691 10720
0.910 1.468 1.686 14901
0.915 1.476 1.686 12784
0.921 1.485 1.686 11965
0.923 1.489 1.681 13399
0.925 1.493 1.675 16046
0.924 1.492 1.665 13629
0.927 1.495 1.660 5973
0.948 1.530 1.685 4533
0.954 1.539 1.685 6117
0.959 1.548 1.685 7234
0.958 1.547 1.674 8591
0.970 1.566 1.684 8555
0.973 1.570 1.679 8687
0.972 1.568 1.668 14612
0.974 1.572 1.663 22837
0.977 1.576 1.657 24422
0.979 1.580 1.652 22366
0.981 1.583 1.646 24190
0.983 1.587 1.641 24873
0.986 1.591 1.635 20160
0.985 1.589 1.625 14862
0.990 1.598 1.624 11013
1.003 1.618 1.633 8857
1.021 1.648 1.652 8227
1.024 1.652 1.646 7332
1.026 1.655 1.640 9396
1.032 1.665 1.639 14289
1.034 1.668 1.633 17240
1.029 1.661 1.618 17405
1.032 1.665 1.612 15532
1.047 1.690 1.625 12686
1.056 1.705 1.629 9712
1.062 1.714 1.627 6202
1.051 1.696 1.603 5187
1.056 1.705 1.602 5586
1.076 1.736 1.619 7044
1.074 1.734 1.608 8260
1.073 1.732 1.597 5903
1.154 1.862 1.696 3624
1.153 1.861 1.685 3778
1.155 1.864 1.678 4403
1.154 1.863 1.667 4941
1.157 1.866 1.661 8087
1.162 1.876 1.659 9875
1.161 1.874 1.648 9027
1.164 1.878 1.641 7898
1.187 1.915 1.661 7308
1.193 1.924 1.659 12947
1.191 1.922 1.648 16719
1.197 1.932 1.646 14910
1.206 1.947 1.647 13920
1.219 1.967 1.654 18816
1.222 1.971 1.647 20726
1.224 1.975 1.640 17013
1.230 1.984 1.637 16599
1.236 1.994 1.635 20437
1.238 1.997 1.628 19573
1.240 2.001 1.621 14557
1.249 2.016 1.622 11442
1.252 2.020 1.615 8938
1.247 2.012 1.600 7448
1.249 2.015 1.593 8353
1.248 2.013 1.582 9157
1.250 2.017 1.575 9905
1.252 2.020 1.568 8427
1.258 2.030 1.565 5818
1.300 2.097 1.602 4686
1.313 2.118 1.606 4318
1.315 2.122 1.599 3935
1.314 2.120 1.588 3881
1.363 2.199 1.631 3722
1.365 2.203 1.624 4181
1.397 2.253 1.647 4836
1.402 2.263 1.643 6245
1.405 2.267 1.635 6563
1.429 2.306 1.650 8623
1.435 2.315 1.646 11985
1.434 2.313 1.634 14244
1.436 2.317 1.626 16520
1.438 2.321 1.618 16939
1.440 2.324 1.610 17358
1.443 2.328 1.602 15246
1.445 2.331 1.594 13134
1.447 2.335 1.586 10191
1.446 2.333 1.574 7437
1.448 2.336 1.566 5380
1.509 2.436 1.615 4537
1.512 2.439 1.607 3881
1.581 2.551 1.662 3554
1.583 2.555 1.653 3524
1.574 2.540 1.634 3531
1.592 2.568 1.639 4410
1.601 2.584 1.637 5477
1.611 2.600 1.635 6481
1.614 2.604 1.626 7777
1.620 2.613 1.621 6479
1.705 2.751 1.686 6378
1.703 2.749 1.673 6487
1.702 2.746 1.660 6721
1.704 2.750 1.651 6721
1.707 2.754 1.641 5076
1.713 2.763 1.635 3511
1.768 2.853 1.671 4561
1.767 2.851 1.658 6114
1.769 2.854 1.648 5436
1.767 2.852 1.635 4847
1.770 2.856 1.625 4847
1.772 2.859 1.615 2423
0.813 1.311 0.821 455
0.352 0.566 1.688 16022
0.356 0.573 1.693 14578
0.360 0.579 1.699 13459
0.361 0.580 1.689 16288
0.363 0.584 1.687 19422
0.365 0.588 1.685 19422
0.368 0.592 1.683 24171
0.370 0.596 1.681 28919
0.372 0.599 1.679 26905
0.375 0.603 1.677 24891
0.377 0.607 1.675 18790
0.378 0.608 1.665 12735
0.378 0.609 1.656 9707
0.379 0.609 1.647 7149
0.383 0.616 1.652 7189
0.387 0.623 1.657 10403
0.389 0.627 1.654 13506
0.392 0.630 1.652 16330
0.394 0.634 1.650 19154
0.396 0.638 1.648 20196
0.399 0.642 1.645 21239
0.401 0.645 1.643 19120
0.405 0.652 1.648 17306
0.406 0.653 1.639 13791
0.408 0.656 1.636 10602
0.410 0.660 1.634 9683
0.414 0.667 1.639 8230
0.445 0.716 1.734 8684
0.449 0.723 1.738 9642
0.454 0.730 1.742 8916
0.458 0.737 1.747 9030
0.461 0.741 1.744 9317
0.463 0.745 1.741 11196
0.465 0.749 1.739 13785
0.470 0.756 1.743 16961
0.472 0.760 1.740 18812
0.475 0.764 1.738 18953
0.477 0.768 1.735 19094
0.480 0.772 1.732 16983
0.484 0.779 1.736 12743
0.489 0.787 1.740 10899
0.491 0.791 1.738 12119
0.494 0.795 1.735 12995
0.496 0.799 1.732 14200
0.499 0.803 1.729 17126
0.503 0.810 1.733 19041
0.506 0.814 1.730 17880
0.508 0.818 1.727 16438
0.511 0.822 1.725 16359
0.513 0.826 1.722 19441
0.513 0.826 1.712 23280
0.518 0.834 1.716 27427
0.520 0.837 1.713 32777
0.523 0.841 1.710 30025
0.527 0.849 1.714 26514
0.530 0.853 1.711 20516
0.532 0.857 1.708 12893
0.535 0.860 1.705 12044
0.535 0.861 1.695 13678
0.535 0.861 1.685 16588
0.537 0.864 1.682 16147
0.537 0.864 1.673 14906
0.547 0.880 1.689 17147
0.549 0.883 1.686 15740
0.551 0.887 1.683 12022
0.554 0.891 1.680 12178
0.558 0.899 1.683 17943
0.561 0.903 1.680 24350
0.568 0.914 1.690 20331
0.580 0.934 1.712 21749
0.578 0.930 1.696 20368
0.573 0.922 1.674 17248
0.570 0.917 1.658 15606
0.575 0.925 1.661 15885
0.580 0.933 1.664 14993
0.587 0.945 1.674 11226
0.594 0.957 1.683 12162
0.599 0.964 1.686 14198
0.604 0.972 1.689 13796
0.609 0.980 1.692 12626
0.614 0.988 1.694 19150
0.619 0.996 1.697 25942
0.621 1.000 1.694 22533
0.624 1.004 1.690 16740
0.623 1.003 1.681 13164
0.631 1.015 1.689 11171
0.639 1.028 1.698 11217
0.644 1.036 1.701 11717
0.646 1.040 1.697 13846
0.648 1.043 1.694 12663
0.656 1.056 1.702 7619
0.661 1.064 1.705 10815
0.661 1.063 1.695 17253
0.663 1.067 1.691 15492
0.665 1.071 1.687 15807
0.668 1.075 1.684 19306
0.673 1.083 1.686 18455
0.675 1.087 1.682 17635
0.680 1.095 1.684 14450
0.685 1.103 1.686 13242
0.691 1.111 1.689 15963
0.693 1.115 1.685 12847
0.709 1.141 1.711 9876
0.709 1.140 1.701 14720
0.717 1.153 1.709 18921
0.725 1.166 1.716 16626
0.724 1.165 1.706 18076
0.721 1.160 1.691 20215
0.721 1.160 1.681 15731
0.729 1.172 1.688 15850
0.731 1.176 1.684 17938
0.736 1.185 1.686 14417
0.741 1.193 1.688 12818
0.749 1.206 1.695 10149
0.752 1.210 1.691 12608
0.760 1.223 1.698 17799
0.762 1.227 1.694 16687
0.765 1.231 1.689 11125
0.770 1.239 1.691 5385
0.778 1.252 1.698 7586
0.783 1.261 1.699 9670
0.789 1.269 1.700 16758
0.791 1.273 1.696 34039
0.793 1.277 1.692 48554
0.796 1.281 1.687 49943
0.801 1.289 1.688 41384
0.803 1.293 1.684 33346
0.806 1.297 1.679 21015
0.808 1.301 1.675 15887
0.814 1.309 1.676 26047
0.819 1.318 1.677 28457
0.827 1.331 1.683 17182
0.833 1.340 1.684 14294
0.832 1.339 1.674 17197
0.828 1.333 1.658 19029
0.828 1.332 1.648 22599
0.830 1.336 1.643 19702
0.832 1.339 1.639 13946
0.868 1.397 1.693 15386
0.877 1.411 1.699 9728
0.885 1.425 1.705 7370
0.888 1.428 1.700 11053
0.890 1.432 1.695 12400
0.892 1.436 1.690 12429
0.895 1.440 1.685 13680
0.897 1.444 1.680 8196
0.909 1.463 1.691 10714
0.911 1.467 1.686 15299
0.917 1.475 1.686 14007
0.922 1.484 1.686 14291
0.925 1.488 1.681 15087
0.927 1.492 1.675 16353
0.926 1.491 1.665 13780
0.925 1.489 1.655 6557
0.947 1.524 1.680 4371
0.952 1.533 1.680 5009
0.958 1.542 1.680 5076
0.970 1.561 1.689 6363
0.975 1.570 1.689 8186
0.975 1.569 1.679 8499
0.974 1.567 1.668 14915
0.976 1.571 1.663 21865
0.975 1.569 1.652 21879
0.981 1.578 1.652 19794
0.983 1.582 1.646 23482
0.985 1.586 1.641 27396
0.988 1.590 1.635 24172
0.990 1.593 1.630 17404
0.992 1.597 1.624 11864
1.004 1.616 1.633 10269
1.023 1.647 1.652 9077
1.029 1.656 1.651 7633
1.028 1.654 1.640 10003
1.034 1.663 1.639 15016
1.036 1.667 1.633 16840
1.031 1.660 1.618 15606
1.030 1.658 1.608 13348
1.049 1.689 1.625 11250
1.058 1.703 1.629 9366
1.061 1.707 1.623 6255
1.060 1.705 1.612 5191
1.062 1.709 1.606 5366
1.081 1.740 1.623 7496
1.080 1.738 1.613 8335
1.079 1.736 1.602 5602
1.160 1.866 1.700 5431
1.162 1.870 1.694 5834
1.161 1.869 1.683 6079
1.160 1.867 1.672 5285
1.162 1.871 1.665 6806
1.172 1.885 1.668 8412
1.164 1.873 1.648 7817
1.176 1.893 1.655 7565
1.189 1.914 1.661 7249
1.195 1.923 1.659 10453
1.194 1.921 1.648 13709
1.196 1.925 1.641 12646
1.205 1.940 1.643 12837
1.218 1.960 1.649 18248
1.220 1.964 1.643 20593
1.223 1.968 1.636 17213
1.232 1.983 1.637 15969
1.238 1.992 1.635 19279
1.240 1.996 1.628 18330
1.246 2.005 1.625 14066
1.252 2.015 1.622 11625
1.254 2.018 1.615 9136
1.246 2.005 1.596 7278
1.248 2.008 1.589 7755
1.250 2.012 1.582 8439
1.252 2.015 1.575 9005
1.254 2.019 1.568 7870
1.260 2.028 1.565 6009
1.262 2.032 1.558 5133
1.319 2.122 1.610 4847
1.317 2.120 1.599 4717
1.316 2.118 1.588 4922
1.365 2.198 1.631 4759
1.371 2.207 1.628 5428
1.395 2.246 1.643 5464
1.405 2.261 1.643 6872
1.411 2.271 1.639 7265
1.432 2.304 1.650 9419
1.434 2.308 1.642 12974
1.436 2.311 1.634 14978
1.439 2.315 1.626 16983
1.441 2.319 1.618 17509
1.443 2.322 1.610 18035
1.445 2.326 1.602 15922
1.448 2.330 1.594 13808
1.450 2.333 1.586 10732
1.448 2.331 1.574 7866
1.450 2.334 1.566 5821
1.512 2.434 1.615 4937
1.514 2.437 1.607 4103
1.584 2.549 1.662 3721
1.583 2.547 1.650 3828
1.581 2.545 1.638 4042
1.591 2.560 1.636 4435
1.601 2.576 1.634 5153
1.614 2.598 1.635 6155
1.620 2.608 1.630 7612
1.623 2.611 1.621 6485
1.708 2.749 1.686 6479
1.707 2.747 1.673 6581
1.705 2.744 1.660 6805
1.707 2.748 1.651 6805
1.714 2.758 1.644 5111
1.716 2.761 1.635 3498
1.771 2.851 1.671 4132
1.774 2.855 1.661 5414
1.772 2.852 1.648 4759
1.775 2.856 1.638 4137
1.777 2.860 1.628 4137
1.779 2.863 1.618 2068
0.810 1.304 0.818 411
0.356 0.568 1.695 16427
0.358 0.571 1.693 15528
0.362 0.578 1.699 14910
0.363 0.579 1.689 17918
0.365 0.583 1.687 21208
0.368 0.587 1.685 21208
0.370 0.590 1.683 25777
0.372 0.594 1.681 30347
0.375 0.598 1.679 28280
0.377 0.602 1.677 26214
0.379 0.606 1.675 20320
0.380 0.606 1.665 14668
0.381 0.607 1.656 11120
0.381 0.608 1.647 7940
0.385 0.615 1.652 7583
0.389 0.621 1.657 9194
0.392 0.625 1.654 11061
0.394 0.629 1.652 13973
0.396 0.633 1.650 16885
0.399 0.636 1.648 18107
0.401 0.640 1.645 19330
0.403 0.644 1.643 17525
0.408 0.651 1.648 16023
0.408 0.651 1.639 12613
0.410 0.655 1.636 9537
0.413 0.658 1.634 8830
0.443 0.707 1.729 8274
0.447 0.714 1.734 9044
0.450 0.718 1.731 10144
0.456 0.728 1.742 9128
0.461 0.735 1.747 9075
0.463 0.739 1.744 9125
0.466 0.743 1.741 10500
0.468 0.747 1.739 12833
0.473 0.755 1.743 16355
0.475 0.759 1.740 18423
0.478 0.762 1.738 18956
0.480 0.766 1.735 19488
0.483 0.770 1.732 16608
0.485 0.774 1.730 12379
0.488 0.778 1.727 11030
0.492 0.785 1.731 12396
0.497 0.793 1.735 13848
0.499 0.797 1.732 14553
0.504 0.804 1.736 17004
0.506 0.808 1.733 18978
0.509 0.812 1.730 17669
0.511 0.816 1.727 15822
0.514 0.820 1.725 15371
0.516 0.824 1.722 18177
0.516 0.824 1.712 21988
0.521 0.832 1.716 26070
0.523 0.835 1.713 32088
0.526 0.839 1.710 30461
0.531 0.847 1.714 27864
0.535 0.854 1.717 22627
0.538 0.858 1.714 14830
0.538 0.858 1.705 13740
0.538 0.858 1.695 15714
0.538 0.859 1.685 18813
0.543 0.866 1.689 16623
0.545 0.870 1.686 14149
0.552 0.881 1.696 16879
0.552 0.881 1.686 15509
0.555 0.885 1.683 11426
0.557 0.889 1.680 11090
0.562 0.897 1.683 17471
0.564 0.900 1.680 25182
0.571 0.912 1.690 21256
0.584 0.931 1.712 22776
0.581 0.927 1.696 21666
0.579 0.923 1.680 18306
0.574 0.915 1.658 17761
0.576 0.919 1.655 17866
0.581 0.927 1.658 16134
0.593 0.946 1.680 11907
0.600 0.958 1.689 12893
0.603 0.962 1.686 15304
0.608 0.970 1.689 15235
0.613 0.978 1.692 12195
0.618 0.986 1.694 16421
0.623 0.994 1.697 23674
0.625 0.997 1.694 21886
0.625 0.997 1.684 17888
0.627 1.001 1.681 15174
0.632 1.009 1.683 12143
0.640 1.021 1.692 10418
0.647 1.033 1.701 10881
0.650 1.037 1.697 13448
0.652 1.041 1.694 12047
0.660 1.053 1.702 7353
0.665 1.061 1.705 10861
0.665 1.061 1.695 18428
0.664 1.060 1.685 17609
0.667 1.064 1.681 16140
0.672 1.072 1.684 17937
0.677 1.080 1.686 17251
0.679 1.084 1.682 15240
0.684 1.092 1.684 12566
0.690 1.101 1.686 13901
0.695 1.109 1.689 17859
0.700 1.117 1.691 15782
0.713 1.138 1.711 13348
0.707 1.129 1.689 16791
0.718 1.146 1.703 20046
0.726 1.159 1.710 17376
0.729 1.163 1.706 17883
0.725 1.158 1.691 20304
0.725 1.157 1.681 15330
0.730 1.165 1.682 14383
0.735 1.173 1.684 15114
0.743 1.186 1.692 12503
0.749 1.195 1.693 13396
0.754 1.203 1.695 10006
0.756 1.207 1.691 11168
0.762 1.215 1.692 15130
0.767 1.224 1.694 12993
0.769 1.228 1.689 9670
0.775 1.236 1.691 6387
0.780 1.245 1.692 8115
0.788 1.258 1.699 9067
0.793 1.266 1.700 16007
0.796 1.270 1.696 30864
0.798 1.274 1.692 43223
0.801 1.278 1.687 46390
0.806 1.286 1.688 39464
0.808 1.290 1.684 29951
0.808 1.289 1.674 21056
0.810 1.293 1.669 17545
0.818 1.306 1.676 26147
0.821 1.310 1.671 29981
0.832 1.328 1.683 19511
0.838 1.337 1.684 18585
0.837 1.336 1.674 21564
0.833 1.330 1.658 25276
0.833 1.329 1.648 27813
0.832 1.327 1.638 21857
0.837 1.336 1.639 14217
0.873 1.394 1.693 15302
0.879 1.403 1.694 8691
0.888 1.416 1.700 5954
0.890 1.420 1.695 12082
0.895 1.429 1.695 13906
0.898 1.433 1.690 11878
0.900 1.437 1.685 11836
0.903 1.440 1.680 7076
0.914 1.459 1.691 10467
0.920 1.468 1.691 15131
0.922 1.472 1.686 15045
0.925 1.476 1.681 16533
0.930 1.485 1.681 16405
0.933 1.488 1.675 16085
0.929 1.482 1.660 13409
0.928 1.481 1.650 7546
0.946 1.510 1.670 4555
0.948 1.514 1.665 4004
0.938 1.497 1.639 6279
0.940 1.500 1.634 7855
0.981 1.566 1.689 8392
0.977 1.560 1.674 9086
0.976 1.558 1.663 15447
0.982 1.567 1.663 20181
0.981 1.566 1.652 18192
0.987 1.575 1.652 16170
0.989 1.578 1.646 22422
0.991 1.582 1.641 30199
0.994 1.586 1.635 29028
0.996 1.589 1.630 22050
1.002 1.598 1.629 15804
1.007 1.607 1.628 14214
1.016 1.622 1.632 10749
1.015 1.620 1.622 8117
1.034 1.650 1.640 10149
1.036 1.654 1.634 14880
1.042 1.663 1.633 15571
1.038 1.656 1.618 13627
1.037 1.654 1.608 11562
1.059 1.690 1.630 9968
1.065 1.699 1.629 9045
1.067 1.703 1.623 6494
1.066 1.701 1.612 5494
1.072 1.710 1.611 5409
1.088 1.736 1.623 7721
1.086 1.734 1.613 8122
1.164 1.858 1.707 5812
1.167 1.862 1.700 7710
1.169 1.866 1.694 8148
1.172 1.870 1.687 8144
1.171 1.868 1.676 7223
1.183 1.888 1.683 7418
1.189 1.898 1.681 8284
1.185 1.890 1.666 7266
1.187 1.894 1.659 8376
1.193 1.903 1.657 8086
1.199 1.913 1.655 8966
1.201 1.916 1.648 11233
1.203 1.920 1.641 10875
1.213 1.935 1.643 12453
1.222 1.950 1.645 18396
1.228 1.959 1.643 21020
1.227 1.957 1.631 18180
1.240 1.978 1.637 15252
1.245 1.987 1.635 17717
1.248 1.991 1.628 16690
1.254 2.000 1.625 12986
1.259 2.010 1.622 10950
1.262 2.013 1.615 8752
1.289 2.057 1.637 7142
1.295 2.067 1.634 9262
1.294 2.065 1.623 9711
1.263 2.016 1.579 8948
1.266 2.020 1.572 8007
1.322 2.110 1.625 6913
1.328 2.120 1.622 6768
1.330 2.123 1.614 5731
1.366 2.179 1.643 5048
1.371 2.189 1.639 5497
1.374 2.192 1.631 5836
1.380 2.202 1.628 6301
1.397 2.229 1.635 6204
1.410 2.250 1.639 7639
1.416 2.260 1.635 7687
1.440 2.299 1.650 10001
1.443 2.302 1.642 13664
1.445 2.306 1.634 15368
1.447 2.310 1.626 17071
1.450 2.313 1.618 17785
1.452 2.317 1.610 18499
1.454 2.321 1.602 16399
1.456 2.324 1.594 14298
1.459 2.328 1.586 11067
1.457 2.325 1.574 8097
1.459 2.329 1.566 6198
1.521 2.428 1.615 5750
1.524 2.432 1.607 4819
1.594 2.543 1.662 3973
1.592 2.541 1.650 4351
1.591 2.539 1.638 4771
1.597 2.548 1.632 4827
1.607 2.564 1.630 4990
1.624 2.592 1.635 5842
1.630 2.602 1.630 7450
1.636 2.611 1.624 6472
1.718 2.742 1.686 6650
1.717 2.740 1.673 6681
1.716 2.738 1.660 6837
1.718 2.741 1.651 6837
1.724 2.751 1.644 5038
1.726 2.755 1.635 3301
1.786 2.850 1.674 3857
1.788 2.854 1.664 4890
1.787 2.852 1.651 4267
1.785 2.849 1.638 3708
1.788 2.853 1.628 3708
1.790 2.857 1.618 1854
0.819 1.307 0.821 454
0.357 0.567 1.695 16715
0.360 0.570 1.693 16122
0.364 0.577 1.699 15700
0.364 0.578 1.689 18910
0.367 0.582 1.687 22291
0.369 0.586 1.685 22291
0.372 0.589 1.683 26653
0.374 0.593 1.681 31015
0.376 0.597 1.679 28917
0.379 0.601 1.677 26819
0.379 0.602 1.667 21345
0.382 0.605 1.665 16129
0.384 0.609 1.663 12503
0.385 0.610 1.654 9105
0.387 0.614 1.652 8421
0.391 0.620 1.657 8393
0.394 0.624 1.654 8836
0.396 0.628 1.652 11687
0.398 0.631 1.650 14538
0.401 0.635 1.648 15921
0.403 0.639 1.645 17305
0.405 0.643 1.643 15807
0.409 0.649 1.648 14632
0.412 0.653 1.646 11394
0.412 0.654 1.636 8461
0.414 0.657 1.634 7959
0.445 0.706 1.729 8392
0.449 0.713 1.734 9305
0.452 0.717 1.731 10503
0.458 0.727 1.742 9391
0.463 0.734 1.747 9307
0.465 0.738 1.744 9284
0.468 0.742 1.741 10287
0.472 0.749 1.746 12437
0.475 0.753 1.743 16120
0.477 0.757 1.740 18333
0.480 0.761 1.738 19290
0.482 0.765 1.735 20246
0.485 0.769 1.732 16914
0.487 0.773 1.730 12576
0.490 0.777 1.727 11571
0.494 0.784 1.731 13012
0.497 0.788 1.728 14820
0.502 0.795 1.732 14848
0.506 0.803 1.736 16854
0.509 0.807 1.733 18620
0.511 0.811 1.730 17283
0.514 0.815 1.727 15196
0.518 0.822 1.731 14484
0.519 0.822 1.722 16850
0.519 0.823 1.712 20419
0.523 0.830 1.716 24239
0.526 0.834 1.713 30560
0.531 0.841 1.717 29901
0.533 0.845 1.714 28070
0.538 0.853 1.717 23586
0.540 0.857 1.714 16513
0.540 0.857 1.705 15704
0.540 0.857 1.695 17754
0.540 0.857 1.685 20451
0.545 0.865 1.689 17036
0.548 0.868 1.686 13794
0.555 0.880 1.696 16840
0.557 0.884 1.693 15475
0.557 0.884 1.683 10952
0.560 0.887 1.680 9928
0.564 0.895 1.683 16444
0.567 0.899 1.680 24898
0.572 0.906 1.683 21618
0.586 0.930 1.712 23182
0.586 0.930 1.703 22821
0.584 0.926 1.687 19621
0.576 0.914 1.658 19643
0.578 0.917 1.655 19302
0.583 0.925 1.658 16735
0.596 0.945 1.680 12640
0.603 0.957 1.689 13538
0.606 0.960 1.686 15931
0.611 0.968 1.689 16539
0.615 0.976 1.692 12312
0.620 0.984 1.694 14522
0.625 0.992 1.697 21980
0.628 0.996 1.694 21293
0.628 0.995 1.684 18386
0.630 0.999 1.681 16011
0.632 1.003 1.677 12485
0.640 1.015 1.686 9610
0.650 1.031 1.701 10001
0.653 1.035 1.697 13014
0.658 1.043 1.700 11609
0.666 1.056 1.708 7477
0.668 1.059 1.705 10728
0.665 1.055 1.689 18626
0.667 1.058 1.685 18649
0.670 1.062 1.681 16068
0.675 1.070 1.684 16199
0.680 1.078 1.686 16453
0.682 1.082 1.682 13767
0.688 1.090 1.684 11433
0.693 1.099 1.686 14483
0.701 1.111 1.695 19219
0.706 1.119 1.697 18767
0.714 1.132 1.705 16379
0.711 1.127 1.689 19322
0.719 1.140 1.697 20972
0.729 1.157 1.710 17989
0.732 1.161 1.706 17976
0.729 1.156 1.691 20335
0.731 1.159 1.686 14966
0.733 1.163 1.682 13579
0.736 1.167 1.678 13159
0.747 1.184 1.692 11304
0.752 1.193 1.693 13644
0.757 1.201 1.695 10009
0.760 1.205 1.691 10097
0.765 1.213 1.692 12431
0.770 1.222 1.694 9368
0.773 1.225 1.689 8314
0.778 1.234 1.691 7494
0.783 1.242 1.692 8762
0.789 1.251 1.694 10845
0.797 1.264 1.700 15952
0.799 1.268 1.696 25051
0.802 1.272 1.692 33694
0.804 1.275 1.687 38788
0.810 1.284 1.688 35608
0.812 1.288 1.684 27184
0.811 1.287 1.674 21279
0.814 1.291 1.669 17495
0.822 1.304 1.676 22875
0.825 1.308 1.671 26794
0.836 1.326 1.683 18818
0.841 1.334 1.684 19336
0.841 1.333 1.674 23200
0.837 1.327 1.658 27130
0.839 1.331 1.654 27261
0.836 1.325 1.638 20410
0.875 1.388 1.698 12897
0.877 1.391 1.693 15055
0.883 1.400 1.694 8232
0.882 1.399 1.684 6140
0.894 1.418 1.695 13099
0.899 1.426 1.695 14740
0.902 1.430 1.690 11005
0.904 1.434 1.685 9890
