-1.038 0.207 1.693 14451
-1.051 0.210 1.703 13051
-1.060 0.212 1.706 13394
-1.064 0.213 1.703 16242
-1.073 0.214 1.706 17978
-1.073 0.214 1.696 16514
-1.078 0.215 1.693 12714
-1.082 0.216 1.690 9471
-1.087 0.217 1.686 9971
-1.086 0.217 1.677 11150
-1.091 0.218 1.674 11266
-1.095 0.219 1.670 8767
-1.104 0.221 1.673 7572
-1.108 0.221 1.670 12394
-1.117 0.223 1.673 20021
-1.122 0.224 1.669 21165
-1.126 0.225 1.666 12997
-1.140 0.228 1.675 7819
-1.154 0.230 1.684 7221
-1.154 0.230 1.674 7212
-1.148 0.229 1.658 13027
-1.148 0.229 1.649 16086
-1.157 0.231 1.651 12128
-1.166 0.233 1.654 9216
-1.146 0.229 1.620 13698
-1.145 0.229 1.610 16258
-1.140 0.228 1.594 12890
-1.139 0.227 1.585 13186
-1.148 0.229 1.587 20566
-1.162 0.232 1.596 30834
-1.176 0.235 1.605 29804
-1.180 0.236 1.601 19852
-1.169 0.234 1.579 14271
-1.183 0.236 1.588 14437
-1.198 0.239 1.596 26356
-1.207 0.241 1.599 26020
-1.216 0.243 1.601 16253
-1.220 0.244 1.597 11532
-1.224 0.245 1.594 8320
-1.229 0.245 1.590 8549
-1.233 0.246 1.586 12732
-1.237 0.247 1.582 17225
-1.241 0.248 1.579 18235
-1.245 0.249 1.575 11568
-1.254 0.251 1.577 7245
-1.264 0.252 1.579 7619
-1.268 0.253 1.575 8489
-1.267 0.253 1.566 8033
-1.265 0.253 1.556 7239
-1.269 0.254 1.552 7282
-1.279 0.255 1.554 4897
-1.363 0.272 1.636 7093
-1.356 0.271 1.621 8359
-1.398 0.279 1.657 13510
-1.408 0.281 1.658 28022
-1.412 0.282 1.654 38421
-1.417 0.283 1.650 38591
-1.421 0.284 1.645 31913
-1.425 0.285 1.641 22039
-1.429 0.285 1.637 15404
-1.521 0.304 1.722 19783
-1.537 0.307 1.728 22058
-1.541 0.308 1.724 21845
-1.546 0.309 1.719 27318
-1.556 0.311 1.720 19222
-1.577 0.315 1.732 21607
-1.582 0.316 1.727 28017
-1.581 0.316 1.717 18012
-1.608 0.321 1.734 14913
-1.623 0.324 1.740 24000
-1.628 0.325 1.735 26387
-1.632 0.326 1.730 21235
-1.643 0.328 1.731 13936
-1.659 0.331 1.736 11096
-1.669 0.333 1.737 15788
-1.668 0.333 1.726 15725
-1.666 0.333 1.716 11780
-1.671 0.334 1.711 11395
-1.675 0.335 1.706 12129
-1.680 0.336 1.701 16047
-1.684 0.336 1.696 19490
-1.695 0.338 1.696 19036
-1.699 0.339 1.691 16781
-1.709 0.341 1.691 11314
-1.725 0.345 1.696 11211
-1.724 0.344 1.686 19173
-1.728 0.345 1.681 33531
-1.733 0.346 1.675 41958
-1.743 0.348 1.675 44040
-1.747 0.349 1.670 36838
-1.752 0.350 1.665 24971
-1.762 0.352 1.664 18742
-1.772 0.354 1.664 13967
-1.783 0.356 1.664 12510
-1.799 0.359 1.669 9304
-1.809 0.361 1.668 5921
-1.934 0.386 1.762 8599
-1.933 0.386 1.751 11242
-1.937 0.387 1.746 10659
-1.942 0.388 1.740 7776
-2.014 0.402 1.788 13666
-2.018 0.403 1.782 21192
-2.023 0.404 1.776 22754
-2.034 0.406 1.775 22724
-2.032 0.406 1.764 21838
-2.031 0.406 1.753 19731
-2.035 0.406 1.747 16047
-2.040 0.407 1.740 12908
-2.051 0.410 1.739 12334
-2.061 0.412 1.738 11462
-2.103 0.420 1.760 12134
-2.120 0.423 1.763 17405
-2.125 0.424 1.756 14306
-2.136 0.427 1.755 8471
-2.147 0.429 1.753 6439
-2.183 0.436 1.770 8315
-2.200 0.439 1.772 13419
-2.205 0.440 1.766 15538
-2.203 0.440 1.754 15401
-2.208 0.441 1.748 19374
-2.212 0.442 1.741 22340
-2.217 0.443 1.735 18108
-2.228 0.445 1.732 15006
-2.232 0.446 1.726 12486
-2.243 0.448 1.723 13035
-2.286 0.457 1.743 16081
-2.284 0.456 1.732 20171
-2.282 0.456 1.721 19964
-2.287 0.457 1.714 18888
-2.285 0.456 1.703 15989
-2.289 0.457 1.696 14949
-2.300 0.459 1.693 15920
-2.298 0.459 1.682 11874
-2.433 0.486 1.761 8328
-2.444 0.488 1.758 7728
-2.442 0.488 1.746 6371
-2.440 0.487 1.735 5122
-2.438 0.487 1.723 5934
-2.443 0.488 1.716 7307
-2.460 0.491 1.717 6771
-2.498 0.499 1.730 9552
-2.509 0.501 1.727 11686
-2.513 0.502 1.719 11777
-2.518 0.503 1.712 11122
-2.522 0.504 1.704 7958
-2.534 0.506 1.700 4603
-2.538 0.507 1.693 4484
-2.629 0.525 1.737 3802
-2.607 0.521 1.714 3889
-2.598 0.519 1.698 4107
-2.603 0.520 1.690 5381
-2.614 0.522 1.686 6437
-2.645 0.528 1.694 4899
-2.683 0.536 1.705 5962
-2.688 0.537 1.697 6597
-2.692 0.538 1.689 6041
-2.697 0.539 1.681 4850
-2.715 0.542 1.681 7243
-2.726 0.544 1.676 10179
-2.723 0.544 1.664 10971
-2.728 0.545 1.656 11931
-2.773 0.554 1.670 13331
-2.784 0.556 1.666 17276
-2.789 0.557 1.657 18222
-2.793 0.558 1.649 19169
-2.797 0.559 1.641 14326
-2.781 0.555 1.621 10554
-2.785 0.556 1.613 8803
-2.782 0.556 1.601 7120
-2.835 0.566 1.618 8744
-2.853 0.570 1.616 10871
-2.850 0.569 1.604 9264
-2.847 0.569 1.592 7755
-2.858 0.571 1.587 5412
-2.911 0.581 1.603 3294
-2.888 0.577 1.580 3729
-2.899 0.579 1.575 4195
-3.330 0.665 1.774 3788
-3.335 0.666 1.764 5918
-3.333 0.666 1.750 6742
-3.337 0.667 1.740 7603
-3.342 0.667 1.730 7603
-3.346 0.668 1.720 6285
-3.351 0.669 1.710 4967
-3.362 0.672 1.703 4179
-3.388 0.677 1.703 3881
-3.385 0.676 1.690 4090
-3.383 0.676 1.676 4392
-3.387 0.676 1.666 4392
-3.391 0.677 1.656 2196
-0.619 0.125 1.609 9386
-0.623 0.126 1.607 8393
-0.630 0.127 1.612 7427
-0.628 0.127 1.596 7465
-0.629 0.127 1.587 7926
-0.630 0.127 1.577 6951
-0.630 0.127 1.568 6201
-0.634 0.128 1.566 5990
-0.688 0.139 1.672 5410
-0.693 0.140 1.670 6082
-0.694 0.140 1.660 7819
-0.698 0.141 1.658 9650
-0.696 0.140 1.642 11255
-0.696 0.141 1.633 13291
-0.704 0.142 1.638 12675
-0.708 0.143 1.635 12389
-0.713 0.144 1.633 11561
-0.720 0.145 1.638 8795
-0.725 0.146 1.636 7005
-0.729 0.147 1.634 8048
-0.737 0.149 1.638 9293
-0.737 0.149 1.629 11223
-0.738 0.149 1.620 13421
-0.746 0.151 1.625 16146
-0.754 0.152 1.629 18393
-0.758 0.153 1.627 18397
-0.766 0.155 1.632 16911
-0.774 0.156 1.636 15866
-0.782 0.158 1.641 16912
-0.794 0.160 1.652 19780
-0.798 0.161 1.650 19636
-0.802 0.162 1.647 16972
-0.803 0.162 1.638 17079
-0.807 0.163 1.636 17305
-0.815 0.164 1.640 18559
-0.823 0.166 1.644 20920
-0.828 0.167 1.642 20361
-0.828 0.167 1.632 17686
-0.832 0.168 1.630 15873
-0.844 0.170 1.641 17708
-0.856 0.173 1.652 21421
-0.865 0.174 1.656 29040
-0.869 0.175 1.653 34830
-0.881 0.178 1.664 35666
-0.882 0.178 1.655 45116
-0.886 0.179 1.652 53908
-0.890 0.180 1.650 52863
-0.891 0.180 1.640 48304
-0.899 0.181 1.644 43970
-0.903 0.182 1.641 36781
-0.962 0.194 1.725 26214
-0.966 0.195 1.722 25737
-0.971 0.196 1.720 21988
-0.975 0.197 1.717 17050
-0.988 0.199 1.727 18491
-0.988 0.199 1.717 25470
-0.989 0.199 1.708 29614
-0.993 0.200 1.705 28809
-0.997 0.201 1.702 27170
-1.006 0.203 1.705 20280
-1.015 0.205 1.709 15415
-1.015 0.205 1.699 14628
-1.020 0.206 1.696 15289
-1.024 0.207 1.693 17141
-1.033 0.208 1.696 18643
-1.037 0.209 1.693 19385
-1.046 0.211 1.696 16743
-1.059 0.214 1.706 13781
-1.068 0.216 1.709 14157
-1.073 0.216 1.706 16233
-1.073 0.216 1.696 15825
-1.073 0.216 1.687 13033
-1.077 0.217 1.683 10656
-1.086 0.219 1.686 10716
-1.086 0.219 1.677 11440
-1.090 0.220 1.674 11505
-1.095 0.221 1.670 9038
-1.104 0.223 1.673 8385
-1.108 0.224 1.670 14585
-1.117 0.225 1.673 22077
-1.126 0.227 1.676 20671
-1.130 0.228 1.672 11630
-1.140 0.230 1.675 7446
-1.149 0.232 1.678 7064
-1.153 0.233 1.674 7723
-1.148 0.232 1.658 13118
-1.147 0.232 1.649 17267
-1.156 0.233 1.651 13033
-1.166 0.235 1.654 9792
-1.150 0.232 1.626 13742
-1.150 0.232 1.616 16346
-1.144 0.231 1.601 11442
-1.138 0.230 1.585 9262
-1.147 0.232 1.587 15979
-1.161 0.234 1.596 27455
-1.176 0.237 1.605 28833
-1.175 0.237 1.595 21105
-1.169 0.236 1.579 15071
-1.178 0.238 1.582 14975
-1.192 0.241 1.590 26396
-1.201 0.242 1.593 23503
-1.216 0.245 1.601 13062
-1.220 0.246 1.597 10089
-1.214 0.245 1.582 10058
-1.223 0.247 1.584 11573
-1.232 0.249 1.586 13886
-1.242 0.251 1.588 16990
-1.240 0.250 1.579 16527
-1.245 0.251 1.575 10884
-1.254 0.253 1.577 9918
-1.258 0.254 1.573 11456
-1.262 0.255 1.569 9900
-1.266 0.255 1.566 7601
-1.265 0.255 1.556 8190
-1.269 0.256 1.552 10109
-1.278 0.258 1.554 7374
-1.368 0.276 1.642 9424
-1.356 0.274 1.621 9641
-1.392 0.281 1.651 12607
-1.407 0.284 1.658 26387
-1.412 0.285 1.654 38110
-1.416 0.286 1.650 37142
-1.420 0.287 1.645 28612
-1.425 0.287 1.641 20643
-1.423 0.287 1.631 15230
-1.521 0.307 1.722 22209
-1.531 0.309 1.723 23013
-1.541 0.311 1.724 22058
-1.545 0.312 1.719 29157
-1.550 0.313 1.714 19577
-1.577 0.318 1.732 18620
-1.581 0.319 1.727 26240
-1.580 0.319 1.717 17207
-1.607 0.324 1.734 13147
-1.617 0.326 1.734 21312
-1.622 0.327 1.730 25704
-1.632 0.329 1.730 22335
-1.636 0.330 1.725 16825
-1.647 0.332 1.726 13308
-1.662 0.335 1.731 14280
-1.661 0.335 1.721 14826
-1.660 0.335 1.711 13777
-1.665 0.336 1.706 13695
-1.669 0.337 1.701 12002
-1.679 0.339 1.701 13847
-1.684 0.340 1.696 16818
-1.694 0.342 1.696 16581
-1.704 0.344 1.696 16226
-1.714 0.346 1.696 12017
-1.725 0.348 1.696 12966
-1.729 0.349 1.691 22381
-1.728 0.349 1.681 38059
-1.738 0.351 1.680 48586
-1.742 0.352 1.675 52464
-1.747 0.352 1.670 42638
-1.751 0.353 1.665 26461
-1.767 0.357 1.670 18764
-1.778 0.359 1.669 14637
-1.788 0.361 1.669 14038
-1.804 0.364 1.674 10441
-1.815 0.366 1.673 6996
-1.928 0.389 1.757 8203
-1.932 0.390 1.751 11251
-1.943 0.392 1.751 12386
-1.947 0.393 1.745 9839
-2.013 0.406 1.788 14794
-2.011 0.406 1.777 22532
-2.016 0.407 1.771 21618
-2.033 0.410 1.775 19323
-2.025 0.409 1.759 19558
-2.030 0.410 1.753 18465
-2.041 0.412 1.751 16062
-2.045 0.413 1.745 13496
-2.050 0.414 1.739 12656
-2.061 0.416 1.738 11256
-2.102 0.424 1.760 11410
-2.120 0.428 1.763 16792
-2.130 0.430 1.761 13288
-2.129 0.430 1.750 7067
-2.133 0.430 1.744 5525
-2.176 0.439 1.765 7997
-2.199 0.444 1.772 13493
-2.204 0.445 1.766 15714
-2.202 0.444 1.754 15475
-2.207 0.445 1.748 19737
-2.211 0.446 1.741 23200
-2.222 0.448 1.739 19339
-2.233 0.451 1.737 16396
-2.238 0.452 1.730 13462
-2.242 0.452 1.723 13828
-2.279 0.460 1.739 18482
-2.283 0.461 1.732 23461
-2.281 0.460 1.721 22883
-2.286 0.461 1.714 20427
-2.290 0.462 1.707 15407
-2.301 0.464 1.704 13874
-2.306 0.465 1.698 15130
-2.310 0.466 1.691 11207
-2.425 0.489 1.757 8353
-2.437 0.492 1.753 7899
-2.441 0.493 1.746 6217
-2.446 0.493 1.739 4576
-2.431 0.490 1.719 5123
-2.442 0.493 1.716 6325
-2.453 0.495 1.713 5812
-2.503 0.505 1.734 7431
-2.508 0.506 1.727 9643
-2.512 0.507 1.719 10123
-2.517 0.508 1.712 9849
-2.521 0.509 1.704 7166
-2.533 0.511 1.700 4291
-2.637 0.532 1.753 4364
-2.635 0.532 1.741 4384
-2.633 0.531 1.730 3943
-2.597 0.524 1.698 4184
-2.602 0.525 1.690 6560
-2.613 0.527 1.686 8046
-2.637 0.532 1.690 6081
-2.682 0.541 1.705 7109
-2.687 0.542 1.697 7484
-2.684 0.542 1.685 6306
-2.662 0.537 1.662 4721
-2.713 0.548 1.681 6538
-2.725 0.550 1.676 9442
-2.729 0.551 1.668 10275
-2.727 0.550 1.656 11292
-2.779 0.561 1.674 13298
-2.783 0.562 1.666 17160
-2.787 0.562 1.657 17981
-2.799 0.565 1.653 18894
-2.803 0.566 1.644 14043
-2.849 0.575 1.658 9602
-2.853 0.576 1.649 8979
-2.836 0.572 1.630 8787
-2.848 0.575 1.625 10799
-2.859 0.577 1.620 12906
-2.856 0.576 1.608 10948
-2.853 0.576 1.596 9256
-2.857 0.577 1.587 6533
-2.875 0.580 1.585 3919
-2.886 0.582 1.580 4511
-2.898 0.585 1.575 5125
-2.888 0.583 1.559 3896
-3.334 0.673 1.764 5736
-3.331 0.672 1.750 6792
-3.336 0.673 1.740 7879
-3.340 0.674 1.730 7879
-3.345 0.675 1.720 6654
-3.349 0.676 1.710 5428
-3.361 0.678 1.703 4453
-3.387 0.683 1.703 3970
-3.384 0.683 1.690 4235
-3.381 0.682 1.676 4613
-3.386 0.683 1.666 4613
-3.390 0.684 1.656 2306
-0.618 0.126 1.609 9242
-0.622 0.127 1.607 8112
-0.630 0.129 1.612 7130
-0.628 0.128 1.596 6605
-0.628 0.128 1.587 6732
-0.629 0.129 1.577 5879
-0.630 0.129 1.568 5252
-0.634 0.130 1.566 5064
-0.701 0.143 1.700 4347
-0.703 0.144 1.691 4543
-0.697 0.142 1.667 7117
-0.698 0.143 1.658 9876
-0.695 0.142 1.642 11238
-0.696 0.142 1.633 13263
-0.704 0.144 1.638 12667
-0.705 0.144 1.628 12349
-0.712 0.146 1.633 11316
-0.720 0.147 1.638 8615
-0.721 0.147 1.629 6980
-0.729 0.149 1.634 7854
-0.736 0.151 1.638 8969
-0.737 0.151 1.629 11201
-0.738 0.151 1.620 13798
-0.746 0.152 1.625 16286
-0.753 0.154 1.629 18247
-0.758 0.155 1.627 17591
-0.766 0.156 1.632 14797
-0.777 0.159 1.643 14327
-0.785 0.160 1.648 16071
-0.793 0.162 1.652 18928
-0.798 0.163 1.650 18603
-0.802 0.164 1.647 16081
-0.802 0.164 1.638 15928
-0.807 0.165 1.636 15952
-0.815 0.167 1.640 17603
-0.823 0.168 1.644 20136
-0.827 0.169 1.642 19741
-0.827 0.169 1.632 18348
-0.832 0.170 1.630 17269
-0.844 0.172 1.641 19330
-0.852 0.174 1.645 22955
-0.860 0.176 1.649 30995
-0.869 0.178 1.653 35392
-0.881 0.180 1.664 33111
-0.881 0.180 1.655 44070
-0.886 0.181 1.652 54112
-0.886 0.181 1.643 54487
-0.890 0.182 1.640 51372
-0.898 0.184 1.644 47679
-0.903 0.185 1.641 38783
-0.961 0.196 1.725 26184
-0.966 0.197 1.722 26437
-0.970 0.198 1.720 23729
-0.975 0.199 1.717 18244
-0.988 0.202 1.727 18610
-0.988 0.202 1.717 25347
-0.988 0.202 1.708 31047
-0.992 0.203 1.705 31349
-0.997 0.204 1.702 29842
-1.006 0.206 1.705 22896
-1.010 0.206 1.702 16295
-1.015 0.207 1.699 14048
-1.019 0.208 1.696 14795
-1.023 0.209 1.693 18053
-1.032 0.211 1.696 21311
-1.037 0.212 1.693 22879
-1.046 0.214 1.696 19857
-1.059 0.216 1.706 14229
-1.072 0.219 1.716 11933
-1.072 0.219 1.706 13856
-1.068 0.218 1.690 14401
-1.072 0.219 1.687 12955
-1.077 0.220 1.683 11437
-1.086 0.222 1.686 10603
-1.085 0.222 1.677 10776
-1.085 0.222 1.667 11241
-1.094 0.224 1.670 9923
-1.103 0.225 1.673 10249
-1.112 0.227 1.676 16694
-1.116 0.228 1.673 22843
-1.126 0.230 1.676 19414
-1.135 0.232 1.678 10545
-1.139 0.233 1.675 7316
-1.143 0.234 1.672 7242
-1.153 0.236 1.674 7937
-1.147 0.234 1.658 12803
-1.147 0.234 1.649 16785
-1.161 0.237 1.658 13338
-1.165 0.238 1.654 9973
-1.155 0.236 1.632 13136
-1.154 0.236 1.622 15024
-1.153 0.236 1.613 9499
-1.148 0.235 1.597 6140
-1.157 0.236 1.600 12210
-1.166 0.238 1.602 23381
-1.175 0.240 1.605 26805
-1.174 0.240 1.595 21893
-1.168 0.239 1.579 15579
-1.172 0.240 1.576 16093
-1.192 0.244 1.590 26129
-1.201 0.245 1.593 21478
-1.215 0.248 1.601 11279
-1.219 0.249 1.597 9497
-1.213 0.248 1.582 12089
-1.217 0.249 1.578 14330
-1.232 0.252 1.586 14769
-1.241 0.254 1.588 16716
-1.240 0.253 1.579 15687
-1.244 0.254 1.575 10551
-1.248 0.255 1.571 10844
-1.257 0.257 1.573 14141
-1.261 0.258 1.569 12298
-1.265 0.259 1.566 8588
-1.264 0.258 1.556 8708
-1.268 0.259 1.552 11592
-1.278 0.261 1.554 9685
-1.367 0.279 1.642 10885
-1.360 0.278 1.626 10016
-1.392 0.284 1.651 11442
-1.407 0.288 1.658 22207
-1.411 0.288 1.654 33993
-1.415 0.289 1.650 32856
-1.420 0.290 1.645 23552
-1.424 0.291 1.641 17085
-1.499 0.306 1.710 12722
-1.515 0.310 1.716 22870
-1.530 0.313 1.723 22021
-1.535 0.314 1.718 20869
-1.539 0.315 1.714 27604
-1.544 0.315 1.709 18227
-1.576 0.322 1.732 14393
-1.580 0.323 1.727 22641
-1.585 0.324 1.722 14901
-1.612 0.329 1.739 10509
-1.622 0.332 1.740 17745
-1.621 0.331 1.730 22835
-1.625 0.332 1.725 21265
-1.630 0.333 1.720 19180
-1.634 0.334 1.715 17335
-1.645 0.336 1.715 13323
-1.655 0.338 1.716 13441
-1.659 0.339 1.711 14738
-1.664 0.340 1.706 14832
-1.668 0.341 1.701 11100
-1.678 0.343 1.701 10488
-1.683 0.344 1.696 13267
-1.705 0.348 1.706 13969
-1.709 0.349 1.701 16442
-1.708 0.349 1.691 15814
-1.718 0.351 1.691 17663
-1.728 0.353 1.691 25996
-1.727 0.353 1.681 40281
-1.737 0.355 1.680 51540
-1.741 0.356 1.675 55341
-1.746 0.357 1.670 44926
-1.750 0.358 1.665 26801
-1.766 0.361 1.670 17554
-1.777 0.363 1.669 14740
-1.793 0.366 1.674 14705
-1.815 0.371 1.684 11343
-1.820 0.372 1.678 7684
-1.927 0.394 1.757 7774
-1.931 0.395 1.751 9556
-1.942 0.397 1.751 12057
-1.952 0.399 1.750 10784
-2.006 0.410 1.783 15451
-2.010 0.411 1.777 22387
-2.015 0.412 1.771 18930
-2.020 0.413 1.765 15383
-2.024 0.414 1.759 16009
-2.035 0.416 1.757 15533
-2.040 0.417 1.751 14271
-2.044 0.418 1.745 12529
-2.055 0.420 1.744 11492
-2.059 0.421 1.738 9692
-2.108 0.431 1.764 9857
-2.118 0.433 1.763 14784
-2.142 0.438 1.771 11871
-2.146 0.439 1.764 5690
-2.132 0.436 1.744 4542
-2.168 0.443 1.760 6457
-2.198 0.449 1.772 11937
-2.203 0.450 1.766 14190
-2.207 0.451 1.759 13955
-2.206 0.451 1.748 17952
-2.210 0.452 1.741 21440
-2.221 0.454 1.739 18459
-2.232 0.456 1.737 16108
-2.236 0.457 1.730 13252
-2.247 0.459 1.728 13455
-2.271 0.464 1.734 18909
-2.282 0.466 1.732 23891
-2.280 0.466 1.721 22991
-2.285 0.467 1.714 19495
-2.289 0.468 1.707 13364
-2.300 0.470 1.704 11970
-2.318 0.474 1.706 13445
-2.315 0.473 1.695 9897
-2.424 0.495 1.757 8304
-2.429 0.496 1.749 7808
-2.433 0.497 1.742 5745
-2.458 0.502 1.747 3995
-2.436 0.498 1.723 4063
-2.440 0.499 1.716 5029
-2.451 0.501 1.713 4756
-2.502 0.511 1.734 5430
-2.513 0.514 1.731 7660
-2.518 0.515 1.723 8265
-2.522 0.516 1.716 8260
-2.527 0.516 1.708 6282
-2.531 0.517 1.700 4088
-2.636 0.539 1.753 4650
-2.634 0.538 1.741 4718
-2.632 0.538 1.730 4299
-2.602 0.532 1.702 4578
-2.607 0.533 1.694 7476
-2.611 0.534 1.686 9220
-2.636 0.539 1.690 7117
-2.681 0.548 1.705 8189
-2.679 0.547 1.693 8347
-2.683 0.548 1.685 6835
-2.667 0.545 1.666 5254
-2.705 0.553 1.677 5806
-2.723 0.557 1.676 7920
-2.728 0.558 1.668 8769
-2.725 0.557 1.656 9767
-2.777 0.568 1.674 12428
-2.782 0.569 1.666 16013
-2.793 0.571 1.661 16996
-2.797 0.572 1.653 18268
-2.808 0.574 1.648 13888
-2.847 0.582 1.658 11602
-2.845 0.581 1.645 10692
-2.842 0.581 1.633 10262
-2.846 0.582 1.625 12225
-2.857 0.584 1.620 14257
-2.854 0.583 1.608 12132
-2.852 0.583 1.596 10199
-2.863 0.585 1.590 7190
-2.874 0.587 1.585 4265
-2.885 0.590 1.580 4865
-2.889 0.591 1.571 5505
-2.886 0.590 1.559 4192
-3.332 0.681 1.764 5063
-3.337 0.682 1.754 6253
-3.341 0.683 1.744 7444
-3.346 0.684 1.734 7444
-3.350 0.685 1.723 6395
-3.348 0.684 1.710 5384
-3.359 0.687 1.703 4282
-3.392 0.693 1.706 3616
-3.382 0.691 1.690 3973
-3.380 0.691 1.676 4456
-3.384 0.692 1.666 4456
-3.388 0.693 1.656 2228
-0.618 0.128 1.609 9069
-0.622 0.129 1.607 7737
-0.630 0.130 1.612 6584
-0.631 0.130 1.603 5874
-0.628 0.130 1.587 5768
-0.629 0.130 1.577 5013
-0.630 0.130 1.568 4495
-0.634 0.131 1.566 4325
-0.701 0.145 1.700 4016
-0.709 0.147 1.705 4003
-0.697 0.144 1.667 6690
-0.697 0.144 1.658 9978
-0.695 0.144 1.642 11249
-0.696 0.144 1.633 13408
-0.700 0.145 1.630 12936
-0.704 0.146 1.628 12748
-0.712 0.147 1.633 11625
-0.720 0.149 1.638 8986
-0.720 0.149 1.629 7492
-0.728 0.151 1.634 7826
-0.740 0.153 1.645 8434
-0.737 0.152 1.629 10781
-0.737 0.152 1.620 13598
-0.745 0.154 1.625 15990
-0.753 0.156 1.629 17958
-0.757 0.157 1.627 16764
-0.769 0.159 1.639 13427
-0.777 0.161 1.643 13368
-0.785 0.162 1.648 15411
-0.793 0.164 1.652 18059
-0.797 0.165 1.650 17610
-0.802 0.166 1.647 15343
-0.802 0.166 1.638 15158
-0.806 0.167 1.636 15122
-0.814 0.168 1.640 16842
-0.822 0.170 1.644 19297
-0.823 0.170 1.635 19282
-0.827 0.171 1.632 19079
-0.831 0.172 1.630 18675
-0.840 0.174 1.634 20745
-0.848 0.175 1.638 23969
-0.856 0.177 1.643 32355
-0.864 0.179 1.647 36088
-0.873 0.180 1.651 31543
-0.877 0.181 1.648 43112
-0.881 0.182 1.645 53770
-0.885 0.183 1.643 55138
-0.890 0.184 1.640 53001
-0.898 0.186 1.644 49950
-0.902 0.186 1.641 39953
-0.957 0.198 1.719 25865
-0.965 0.199 1.722 26673
-0.970 0.200 1.720 24884
-0.974 0.201 1.717 18974
-0.987 0.204 1.727 18470
-0.987 0.204 1.717 24923
-0.988 0.204 1.708 31925
-0.992 0.205 1.705 33175
-0.996 0.206 1.702 31622
-1.005 0.208 1.705 24808
-1.010 0.209 1.702 17332
-1.014 0.210 1.699 13914
-1.014 0.210 1.689 14436
-1.023 0.211 1.693 17898
-1.032 0.213 1.696 22488
-1.036 0.214 1.693 24947
-1.045 0.216 1.696 22439
-1.054 0.218 1.700 15459
-1.072 0.222 1.716 10639
-1.072 0.222 1.706 11770
-1.063 0.220 1.683 13493
-1.067 0.221 1.680 13155
-1.076 0.222 1.683 12057
-1.085 0.224 1.686 10038
-1.085 0.224 1.677 9700
-1.085 0.224 1.667 10639
-1.098 0.227 1.677 10826
-1.103 0.228 1.673 12132
-1.112 0.230 1.676 18507
-1.121 0.232 1.679 23314
-1.130 0.234 1.682 18849
-1.139 0.235 1.685 10149
-1.138 0.235 1.675 6740
-1.133 0.234 1.659 7417
-1.152 0.238 1.674 8370
-1.142 0.236 1.652 13033
-1.146 0.237 1.649 16946
-1.160 0.240 1.658 14181
-1.164 0.241 1.654 10678
-1.154 0.239 1.632 12859
-1.158 0.239 1.629 15138
-1.158 0.239 1.619 11009
-1.162 0.240 1.615 7080
-1.166 0.241 1.612 11802
-1.170 0.242 1.608 21302
-1.174 0.243 1.605 25032
-1.174 0.243 1.595 21700
-1.168 0.241 1.579 15740
-1.172 0.242 1.576 17017
-1.186 0.245 1.584 25433
-1.195 0.247 1.587 19668
-1.215 0.251 1.601 10000
-1.214 0.251 1.591 8923
-1.207 0.250 1.576 12881
-1.217 0.251 1.578 15850
-1.231 0.254 1.586 15334
-1.240 0.256 1.588 16402
-1.239 0.256 1.579 15514
-1.243 0.257 1.575 11231
-1.247 0.258 1.571 12235
-1.251 0.259 1.567 15702
-1.261 0.261 1.569 13126
-1.265 0.261 1.566 8517
-1.264 0.261 1.556 8691
-1.268 0.262 1.552 12176
-1.277 0.264 1.554 10484
-1.366 0.282 1.642 11113
-1.365 0.282 1.632 9698
-1.375 0.284 1.634 10134
-1.401 0.289 1.652 17437
-1.410 0.291 1.654 28501
-1.415 0.292 1.650 28096
-1.419 0.293 1.645 18915
-1.423 0.294 1.641 13450
-1.498 0.310 1.710 13339
-1.514 0.313 1.716 22935
-1.524 0.315 1.717 20809
-1.528 0.316 1.713 19768
-1.538 0.318 1.714 25432
-1.543 0.319 1.709 17238
-1.564 0.323 1.721 12772
-1.580 0.326 1.727 19785
-1.579 0.326 1.717 13071
-1.611 0.333 1.739 8048
-1.621 0.335 1.740 14203
-1.620 0.335 1.730 18878
-1.625 0.336 1.725 19054
-1.629 0.337 1.720 20900
-1.628 0.336 1.709 21426
-1.638 0.339 1.710 13753
-1.648 0.341 1.710 12126
-1.658 0.343 1.711 14718
-1.663 0.344 1.706 15269
-1.667 0.345 1.701 10213
-1.678 0.347 1.701 7121
-1.682 0.348 1.696 10292
-1.692 0.350 1.696 13429
-1.702 0.352 1.696 18207
-1.701 0.352 1.686 21594
-1.711 0.354 1.686 23313
-1.722 0.356 1.686 28764
-1.732 0.358 1.686 41042
-1.736 0.359 1.680 52018
-1.741 0.360 1.675 56072
-1.745 0.361 1.670 46414
-1.749 0.362 1.665 27179
-1.766 0.365 1.670 16330
-1.782 0.368 1.674 15382
-1.792 0.370 1.674 15395
-1.814 0.375 1.684 12000
-1.927 0.398 1.768 9076
-1.932 0.399 1.762 8718
-1.942 0.401 1.761 9783
-1.947 0.402 1.756 12973
-1.952 0.403 1.750 11332
-1.999 0.413 1.778 16281
-2.003 0.414 1.772 22059
-2.008 0.415 1.766 16910
-2.013 0.416 1.760 12741
-2.017 0.417 1.754 12592
-2.034 0.420 1.757 12491
-2.045 0.423 1.756 12100
-2.043 0.422 1.745 10832
-2.054 0.425 1.744 9849
-2.065 0.427 1.742 7875
-2.107 0.435 1.764 8990
-2.117 0.438 1.763 12808
-2.147 0.444 1.775 10645
-2.152 0.445 1.769 5656
-2.144 0.443 1.753 4246
-2.155 0.445 1.751 5404
-2.197 0.454 1.772 9698
-2.208 0.456 1.770 12020
-2.206 0.456 1.759 11804
-2.205 0.456 1.748 15436
-2.209 0.457 1.741 18665
-2.220 0.459 1.739 16603
-2.231 0.461 1.737 15001
-2.242 0.463 1.735 12794
-2.246 0.464 1.728 12865
-2.270 0.469 1.734 17752
-2.281 0.471 1.732 22351
-2.279 0.471 1.721 21264
-2.284 0.472 1.714 17191
-2.288 0.473 1.707 10949
-2.312 0.478 1.713 10402
-2.323 0.480 1.710 12005
-2.327 0.481 1.703 8828
-2.410 0.498 1.748 8545
-2.415 0.499 1.741 8025
-2.419 0.500 1.733 6298
-2.391 0.494 1.705 4257
-2.461 0.509 1.740 3839
-2.439 0.504 1.716 4240
-2.450 0.506 1.713 3986
-2.514 0.520 1.743 4104
-2.519 0.521 1.735 6247
-2.523 0.522 1.727 6758
-2.521 0.521 1.716 6918
-2.526 0.522 1.708 5559
-2.537 0.524 1.705 4038
-2.635 0.545 1.753 4694
-2.639 0.545 1.745 4856
-2.630 0.544 1.730 4458
-2.601 0.538 1.702 4887
-2.606 0.539 1.694 7881
-2.610 0.539 1.686 9754
-2.635 0.545 1.690 7609
-2.680 0.554 1.705 8989
-2.677 0.553 1.693 8965
-2.682 0.554 1.685 7358
-2.679 0.554 1.673 5819
-2.697 0.557 1.673 5401
-2.729 0.564 1.680 6425
-2.726 0.564 1.668 7179
-2.792 0.577 1.694 8209
-2.776 0.574 1.674 11244
-2.780 0.575 1.666 14765
-2.792 0.577 1.661 16153
-2.803 0.579 1.656 17966
-2.814 0.582 1.652 14429
-2.846 0.588 1.658 13406
-2.843 0.588 1.645 12165
-2.841 0.587 1.633 11387
-2.845 0.588 1.625 13210
-2.856 0.590 1.620 15124
-2.853 0.590 1.608 12945
-2.850 0.589 1.596 10904
-2.862 0.591 1.590 7667
-2.873 0.594 1.585 4428
-2.884 0.596 1.580 4995
-2.888 0.597 1.571 5610
-2.885 0.596 1.559 4305
-3.331 0.688 1.764 4594
-3.335 0.689 1.754 5724
-3.340 0.690 1.744 6854
-3.344 0.691 1.734 6854
-3.349 0.692 1.723 5943
-3.353 0.693 1.713 5032
-3.365 0.695 1.707 3947
-3.390 0.701 1.706 3230
-3.381 0.699 1.690 3611
-3.619 0.748 1.785 4190
-3.624 0.749 1.774 4190
-3.629 0.750 1.763 2095
-0.615 0.128 1.601 9099
-0.622 0.130 1.607 7552
-0.629 0.132 1.612 6239
-0.630 0.132 1.603 5357
-0.628 0.131 1.587 4923
-0.629 0.131 1.577 4266
-0.679 0.142 1.676 3854
-0.693 0.145 1.695 4147
-0.697 0.146 1.693 4127
-0.702 0.147 1.691 4106
-0.703 0.147 1.682 6720
-0.701 0.146 1.665 9794
-0.695 0.145 1.642 10637
-0.695 0.145 1.633 12899
-0.700 0.146 1.630 12656
-0.704 0.147 1.628 12697
-0.712 0.149 1.633 11512
-0.719 0.150 1.638 9151
-0.720 0.151 1.629 7952
-0.728 0.152 1.634 7854
-0.739 0.155 1.645 8042
-0.733 0.153 1.622 10576
-0.737 0.154 1.620 13649
-0.745 0.156 1.625 15916
-0.749 0.157 1.622 17880
-0.753 0.157 1.620 16237
-0.769 0.161 1.639 12385
-0.780 0.163 1.650 13102
-0.788 0.165 1.655 15580
-0.796 0.166 1.659 17763
-0.797 0.167 1.650 16903
-0.801 0.167 1.647 14821
-0.802 0.168 1.638 14756
-0.806 0.168 1.636 14782
-0.814 0.170 1.640 16515
-0.822 0.172 1.644 18887
-0.822 0.172 1.635 19590
-0.827 0.173 1.632 20479
-0.831 0.174 1.630 20603
-0.839 0.175 1.634 22086
-0.847 0.177 1.638 24592
-0.856 0.179 1.643 33168
-0.864 0.181 1.647 36533
-0.868 0.181 1.644 31164
-0.876 0.183 1.648 42263
-0.881 0.184 1.645 52849
-0.885 0.185 1.643 55071
-0.889 0.186 1.640 54044
-0.898 0.188 1.644 51446
-0.902 0.189 1.641 40604
-0.956 0.200 1.719 25352
-0.965 0.202 1.722 26722
-0.969 0.203 1.720 25932
-0.974 0.204 1.717 19603
-0.987 0.206 1.727 18051
-0.983 0.205 1.711 24398
-0.987 0.206 1.708 32636
-0.992 0.207 1.705 34826
-0.996 0.208 1.702 33054
-1.000 0.209 1.699 26481
-1.009 0.211 1.702 18281
-1.009 0.211 1.692 13615
-1.014 0.212 1.689 13383
-1.022 0.214 1.693 16927
-1.031 0.216 1.696 23533
-1.036 0.217 1.693 27270
-1.045 0.218 1.696 25219
-1.053 0.220 1.700 17398
-1.071 0.224 1.716 9631
-1.062 0.222 1.693 10200
-1.058 0.221 1.677 13222
-1.067 0.223 1.680 13511
-1.076 0.225 1.683 12627
-1.080 0.226 1.680 9204
-1.084 0.227 1.677 8437
-1.089 0.228 1.674 10092
-1.098 0.229 1.677 11683
-1.107 0.231 1.680 13994
-1.111 0.232 1.676 20079
-1.120 0.234 1.679 23742
-1.129 0.236 1.682 18345
-1.138 0.238 1.685 9801
-1.143 0.239 1.681 5613
-1.142 0.239 1.672 6639
-1.156 0.242 1.681 9190
-1.146 0.240 1.658 13818
-1.146 0.240 1.649 17880
-1.160 0.242 1.658 15610
-1.164 0.243 1.654 11645
-1.154 0.241 1.632 12466
-1.158 0.242 1.629 15355
-1.162 0.243 1.625 13012
-1.161 0.243 1.615 9902
-1.166 0.244 1.612 13450
-1.175 0.246 1.614 20618
-1.174 0.245 1.605 23558
-1.168 0.244 1.589 21071
-1.167 0.244 1.579 16361
-1.171 0.245 1.576 18806
-1.185 0.248 1.584 24786
-1.195 0.250 1.587 17809
-1.209 0.253 1.595 9742
-1.208 0.253 1.585 8915
-1.207 0.252 1.576 12723
-1.216 0.254 1.578 17091
-1.230 0.257 1.586 15621
-1.240 0.259 1.588 15182
-1.239 0.259 1.579 14550
-1.238 0.259 1.569 11682
-1.247 0.261 1.571 12937
-1.251 0.262 1.567 15744
-1.260 0.263 1.569 12761
-1.264 0.264 1.566 8429
-1.263 0.264 1.556 8871
-1.267 0.265 1.552 12307
-1.276 0.267 1.554 10492
-1.366 0.286 1.642 10110
-1.284 0.269 1.546 10981
-1.288 0.269 1.542 11894
-1.395 0.292 1.647 12635
-1.404 0.294 1.648 21985
-1.409 0.294 1.644 22548
-1.483 0.310 1.713 20433
-1.488 0.311 1.709 14264
-1.498 0.313 1.710 13598
-1.513 0.316 1.716 22206
-1.518 0.317 1.712 18896
-1.528 0.319 1.713 18809
-1.532 0.320 1.708 23204
-1.542 0.322 1.709 16983
-1.563 0.327 1.721 13583
-1.579 0.330 1.727 17380
-1.578 0.330 1.717 12090
-1.605 0.335 1.734 6442
-1.620 0.339 1.740 10650
-1.625 0.340 1.735 13953
-1.624 0.339 1.725 15943
-1.623 0.339 1.714 22720
-1.621 0.339 1.704 24996
-1.626 0.340 1.699 15090
-1.642 0.343 1.705 11060
-1.652 0.345 1.705 14020
-1.662 0.347 1.706 15314
-1.661 0.347 1.695 10022
-1.659 0.347 1.685 4686
-1.681 0.351 1.696 8082
-1.686 0.352 1.691 15155
-1.690 0.353 1.686 23661
-1.694 0.354 1.680 29512
-1.710 0.358 1.686 29163
-1.721 0.360 1.686 30829
-1.731 0.362 1.686 39969
-1.735 0.363 1.680 50375
-1.740 0.364 1.675 55557
-1.744 0.365 1.670 47768
-1.748 0.366 1.665 27789
-1.765 0.369 1.670 15778
-1.775 0.371 1.669 16960
-1.785 0.373 1.669 15962
-1.814 0.379 1.684 11857
-1.926 0.403 1.768 10318
-1.937 0.405 1.767 10173
-1.941 0.406 1.761 11816
-1.946 0.407 1.756 14454
-1.951 0.408 1.750 11922
-1.998 0.418 1.778 16462
-2.002 0.419 1.772 20709
-2.007 0.420 1.766 15511
-2.006 0.419 1.755 12208
-2.010 0.420 1.749 10771
-2.039 0.426 1.762 9827
-2.044 0.427 1.756 10031
-2.042 0.427 1.745 8731
-2.059 0.431 1.749 7738
-2.089 0.437 1.761 6881
-2.112 0.442 1.769 8772
-2.116 0.442 1.763 10969
-2.152 0.450 1.780 9315
-2.157 0.451 1.773 6054
-2.155 0.451 1.762 5234
-2.179 0.456 1.770 5562
-2.202 0.460 1.777 7366
-2.207 0.461 1.770 9202
-2.205 0.461 1.759 9322
-2.204 0.461 1.748 12601
-2.208 0.462 1.741 15173
-2.225 0.465 1.744 14234
-2.236 0.468 1.741 13967
-2.247 0.470 1.739 13012
-2.245 0.469 1.728 12398
-2.275 0.476 1.739 15521
-2.280 0.477 1.732 19251
-2.285 0.478 1.725 18378
-2.283 0.477 1.714 13955
-2.287 0.478 1.707 8457
-2.324 0.486 1.722 9630
-2.328 0.487 1.715 10789
-2.346 0.490 1.716 8530
-2.402 0.502 1.744 9163
-2.407 0.503 1.736 8553
-2.405 0.503 1.725 7460
-2.416 0.505 1.722 5283
-2.440 0.510 1.727 4380
-2.445 0.511 1.720 4060
-2.456 0.513 1.717 3362
-2.526 0.528 1.751 3535
-2.531 0.529 1.743 5179
-2.529 0.529 1.731 5513
-2.527 0.528 1.720 5712
-2.531 0.529 1.712 4957
-2.536 0.530 1.705 4021
-2.633 0.551 1.753 4576
-2.638 0.551 1.745 4764
-2.629 0.550 1.730 4560
-2.600 0.544 1.702 5330
-2.604 0.545 1.694 8251
-2.616 0.547 1.690 10206
-2.633 0.551 1.690 8059
-2.678 0.560 1.705 9791
-2.683 0.561 1.697 9571
-2.680 0.560 1.685 7909
-2.678 0.560 1.673 6481
-2.689 0.562 1.669 5198
-2.721 0.569 1.676 4709
-2.718 0.568 1.664 5372
-2.791 0.583 1.694 6611
-2.775 0.580 1.674 9831
-2.779 0.581 1.666 13507
-2.790 0.583 1.661 15369
-2.801 0.586 1.656 17994
-2.820 0.589 1.655 15540
-2.838 0.593 1.654 15198
-2.842 0.594 1.645 13480
-2.839 0.594 1.633 12135
-2.843 0.594 1.625 13759
-2.855 0.597 1.620 15497
-2.852 0.596 1.608 13308
-2.856 0.597 1.599 11232
-2.860 0.598 1.590 7954
-2.871 0.600 1.585 4627
-2.882 0.603 1.580 5146
-2.886 0.603 1.571 5715
-2.890 0.604 1.563 4432
-3.266 0.683 1.733 5146
-3.334 0.697 1.754 5250
-3.338 0.698 1.744 6325
-3.343 0.699 1.734 6325
-3.347 0.700 1.723 5412
-3.359 0.702 1.717 4514
-3.363 0.703 1.707 3560
-3.523 0.737 1.768 2880
-3.613 0.755 1.796 3453
-3.618 0.756 1.785 4487
-3.622 0.757 1.774 4487
-3.627 0.758 1.763 2243
-0.614 0.129 1.601 8998
-0.622 0.131 1.607 7333
-0.629 0.132 1.612 5973
-0.630 0.133 1.603 5028
-0.628 0.132 1.587 4377
-0.671 0.141 1.671 4196
-0.675 0.142 1.669 4338
-0.683 0.144 1.674 4534
-0.694 0.146 1.686 4442
-0.698 0.147 1.684 4480
-0.703 0.148 1.682 6891
-0.704 0.148 1.672 9472
-0.698 0.147 1.649 9888
-0.695 0.146 1.633 12175
-0.700 0.147 1.630 12172
-0.704 0.148 1.628 12481
-0.711 0.150 1.633 11354
-0.719 0.151 1.638 9201
-0.723 0.152 1.636 8147
-0.728 0.153 1.634 7811
-0.753 0.158 1.674 7994
-0.733 0.154 1.622 10270
-0.737 0.155 1.620 13344
-0.745 0.157 1.625 15533
-0.749 0.158 1.622 17517
-0.753 0.158 1.620 15884
-0.768 0.162 1.639 11960
-0.780 0.164 1.650 13257
-0.788 0.166 1.655 15974
-0.796 0.167 1.659 17717
-0.797 0.168 1.650 16404
-0.801 0.168 1.647 14328
-0.801 0.169 1.638 14436
-0.806 0.169 1.636 14578
-0.814 0.171 1.640 16348
-0.818 0.172 1.637 18703
-0.822 0.173 1.635 20021
-0.826 0.174 1.632 21707
-0.831 0.175 1.630 22075
-0.839 0.176 1.634 22777
-0.847 0.178 1.638 24409
-0.855 0.180 1.643 32854
-0.864 0.182 1.647 36059
-0.868 0.183 1.644 30678
-0.876 0.184 1.648 41287
-0.880 0.185 1.645 51889
-0.885 0.186 1.643 54776
-0.889 0.187 1.640 54544
-0.897 0.189 1.644 52231
-0.902 0.190 1.641 40911
-0.956 0.201 1.719 24715
-0.964 0.203 1.722 26414
-0.969 0.204 1.720 26273
-0.973 0.205 1.717 19809
-0.986 0.208 1.727 17493
-0.982 0.207 1.711 23751
-0.987 0.208 1.708 32523
-0.991 0.209 1.705 35314
-0.996 0.209 1.702 33453
-1.000 0.210 1.699 27439
-1.009 0.212 1.702 19272
-1.009 0.212 1.692 14037
-1.013 0.213 1.689 13024
-1.022 0.215 1.693 16460
-1.027 0.216 1.690 24233
-1.035 0.218 1.693 28672
-1.040 0.219 1.690 26870
-1.049 0.221 1.693 18623
-1.062 0.223 1.703 9405
-1.049 0.221 1.674 10359
-1.057 0.222 1.677 13213
-1.066 0.224 1.680 13764
-1.071 0.225 1.677 13055
-1.080 0.227 1.680 8532
-1.084 0.228 1.677 7480
-1.088 0.229 1.674 9661
-1.097 0.231 1.677 12164
-1.106 0.233 1.680 15151
-1.111 0.234 1.676 20819
-1.120 0.236 1.679 23510
-1.129 0.237 1.682 17584
-1.143 0.240 1.691 9482
-1.147 0.241 1.688 4939
-1.152 0.242 1.684 6319
-1.156 0.243 1.681 10080
-1.146 0.241 1.658 14607
-1.150 0.242 1.655 18662
-1.159 0.244 1.658 16336
-1.164 0.245 1.654 12125
-1.153 0.243 1.632 12160
-1.158 0.244 1.629 15334
-1.162 0.244 1.625 14380
-1.161 0.244 1.615 11768
-1.165 0.245 1.612 14749
-1.174 0.247 1.614 20786
-1.174 0.247 1.605 22963
-1.168 0.246 1.589 20563
-1.167 0.245 1.579 16955
-1.176 0.247 1.582 20646
-1.185 0.249 1.584 24992
-1.194 0.251 1.587 16493
-1.209 0.254 1.595 9816
-1.208 0.254 1.585 9103
-1.207 0.254 1.576 12026
-1.216 0.256 1.578 17188
-1.230 0.259 1.586 15113
-1.239 0.261 1.588 13331
-1.238 0.261 1.579 12874
-1.237 0.260 1.569 11627
-1.246 0.262 1.571 13127
-1.251 0.263 1.567 15109
-1.260 0.265 1.569 12597
-1.264 0.266 1.566 9230
-1.263 0.266 1.556 9255
-1.267 0.266 1.552 12506
-1.276 0.268 1.554 10891
-1.280 0.269 1.550 8801
-1.284 0.270 1.546 11816
-1.293 0.272 1.548 12528
-1.389 0.292 1.641 10178
-1.404 0.295 1.648 17305
-1.408 0.296 1.644 18043
-1.483 0.312 1.713 20014
-1.487 0.313 1.709 13946
-1.497 0.315 1.710 13081
-1.507 0.317 1.711 20286
-1.517 0.319 1.712 16995
-1.527 0.321 1.713 17857
-1.532 0.322 1.708 20830
-1.542 0.324 1.709 16102
-1.563 0.329 1.721 14714
-1.578 0.332 1.727 16372
-1.583 0.333 1.722 12337
-1.599 0.336 1.728 6777
-1.620 0.341 1.740 8311
-1.619 0.341 1.730 10008
-1.618 0.340 1.719 13357
-1.622 0.341 1.714 23436
-1.621 0.341 1.704 26382
-1.625 0.342 1.699 15921
-1.641 0.345 1.705 10979
-1.651 0.347 1.705 13593
-1.662 0.350 1.706 15414
-1.655 0.348 1.690 10750
-1.653 0.348 1.680 5558
-1.669 0.351 1.685 7883
-1.679 0.353 1.685 17057
-1.684 0.354 1.680 28287
-1.688 0.355 1.675 34908
-1.704 0.359 1.681 32631
-1.720 0.362 1.686 31275
-1.731 0.364 1.686 37489
-1.735 0.365 1.680 47475
-1.739 0.366 1.675 54270
-1.744 0.367 1.670 48370
-1.748 0.368 1.665 28041
-1.758 0.370 1.664 15917
-1.775 0.373 1.669 18408
-1.779 0.374 1.664 16289
-1.813 0.381 1.684 10951
-1.920 0.404 1.763 9772
-1.936 0.407 1.767 10278
-1.947 0.410 1.766 13154
-1.946 0.409 1.756 15285
-1.950 0.410 1.750 12628
-1.991 0.419 1.773 16766
-2.002 0.421 1.772 19320
-2.000 0.421 1.761 14907
-1.999 0.421 1.750 12840
-2.003 0.421 1.744 10230
-2.039 0.429 1.762 8010
-2.043 0.430 1.756 8420
-2.048 0.431 1.750 6985
-2.065 0.434 1.753 6024
-2.094 0.441 1.766 6773
-2.111 0.444 1.769 8717
-2.116 0.445 1.763 9823
-2.145 0.451 1.775 8226
-2.163 0.455 1.778 6365
-2.174 0.457 1.776 6941
-2.184 0.460 1.774 6619
-2.208 0.465 1.782 6354
-2.213 0.465 1.775 6981
-2.205 0.464 1.759 7384
-2.203 0.463 1.748 10176
-2.207 0.464 1.741 12163
-2.225 0.468 1.744 12557
-2.242 0.472 1.746 13671
-2.253 0.474 1.744 13892
-2.258 0.475 1.737 12850
-2.275 0.479 1.739 13736
-2.286 0.481 1.736 16368
-2.284 0.480 1.725 15973
-2.288 0.481 1.718 11912
-2.293 0.482 1.711 7678
-2.323 0.489 1.722 9232
-2.328 0.490 1.715 10005
-2.345 0.493 1.716 8730
-2.395 0.504 1.739 9757
-2.400 0.505 1.732 9056
-2.404 0.506 1.725 8400
-2.415 0.508 1.722 6323
-2.433 0.512 1.723 5141
-2.444 0.514 1.720 4098
-2.455 0.516 1.717 2980
-2.526 0.531 1.751 3421
-2.530 0.532 1.743 4762
-2.528 0.532 1.731 4952
-2.533 0.533 1.724 5153
-2.537 0.534 1.716 4670
-2.542 0.535 1.709 3977
-2.633 0.554 1.753 4331
-2.637 0.555 1.745 4510
-2.628 0.553 1.730 4546
-2.599 0.547 1.702 5585
-2.611 0.549 1.698 8434
-2.615 0.550 1.690 10391
-2.633 0.554 1.690 8269
-2.678 0.563 1.705 10211
-2.682 0.564 1.697 9806
-2.680 0.564 1.685 8051
-2.677 0.563 1.673 6723
-2.682 0.564 1.665 5114
-2.713 0.571 1.673 3600
-2.711 0.570 1.661 4144
-2.790 0.587 1.694 5096
-2.774 0.584 1.674 8546
-2.778 0.585 1.666 12378
-2.796 0.588 1.665 14746
-2.808 0.591 1.660 18020
-2.826 0.594 1.659 16468
-2.837 0.597 1.654 16443
-2.841 0.598 1.645 14151
-2.838 0.597 1.633 12157
-2.843 0.598 1.625 13668
-2.854 0.600 1.620 15267
-2.851 0.600 1.608 13133
-2.855 0.601 1.599 11088
-2.859 0.602 1.590 7823
-3.135 0.660 1.717 4895
-2.882 0.606 1.580 4959
-2.886 0.607 1.571 5439
-2.890 0.608 1.563 4285
-3.265 0.687 1.733 5722
-3.263 0.686 1.720 5561
-3.337 0.702 1.744 5759
-3.342 0.703 1.734 5759
-3.353 0.705 1.727 4865
-3.358 0.706 1.717 3977
-3.369 0.709 1.710 3252
-3.522 0.741 1.768 2786
-3.612 0.760 1.796 3517
-3.617 0.761 1.785 4551
-3.621 0.762 1.774 4551
-3.626 0.763 1.763 2275
-0.614 0.131 1.601 8876
-0.621 0.132 1.607 7108
-0.632 0.135 1.619 5706
-0.636 0.136 1.617 4765
-0.663 0.141 1.666 4482
-0.667 0.142 1.664 4482
-0.675 0.144 1.669 4891
-0.679 0.145 1.667 5317
-0.690 0.147 1.679 5087
-0.698 0.149 1.684 5162
-0.699 0.149 1.675 7229
-0.703 0.150 1.672 9353
-0.697 0.149 1.649 9315
-0.695 0.148 1.633 11599
-0.699 0.149 1.630 11878
-0.703 0.150 1.628 12509
-0.711 0.152 1.633 11470
-0.719 0.153 1.638 9516
-0.723 0.154 1.636 8623
-0.727 0.155 1.634 8011
-0.753 0.161 1.674 8195
-0.732 0.156 1.622 10261
-0.736 0.157 1.620 13423
-0.744 0.159 1.625 15483
-0.748 0.160 1.622 17413
-0.753 0.160 1.620 15592
-0.772 0.164 1.646 11720
-0.780 0.166 1.650 13893
-0.791 0.169 1.662 17140
-0.796 0.170 1.659 18380
-0.796 0.170 1.650 16496
-0.800 0.171 1.647 14364
-0.801 0.171 1.638 14413
-0.805 0.172 1.636 14467
-0.813 0.173 1.640 16079
-0.818 0.174 1.637 18368
-0.822 0.175 1.635 20520
-0.826 0.176 1.632 23347
-0.830 0.177 1.630 24024
-0.838 0.179 1.634 23583
-0.847 0.180 1.638 23971
-0.855 0.182 1.643 32258
-0.859 0.183 1.640 35571
-0.867 0.185 1.644 30159
-0.876 0.187 1.648 39980
-0.880 0.188 1.645 50378
-0.884 0.188 1.643 54100
-0.889 0.189 1.640 54701
-0.897 0.191 1.644 52501
-0.901 0.192 1.641 40717
-0.955 0.204 1.719 23912
-0.964 0.205 1.722 25977
-0.968 0.206 1.720 26677
-0.973 0.207 1.717 20281
-0.982 0.209 1.720 17032
-0.982 0.209 1.711 23179
-0.986 0.210 1.708 32361
-0.991 0.211 1.705 35838
-0.995 0.212 1.702 33760
-1.000 0.213 1.699 28468
-1.008 0.215 1.702 20949
-1.008 0.215 1.692 15621
-1.013 0.216 1.689 13716
-1.017 0.217 1.686 16401
-1.026 0.219 1.690 24770
-1.035 0.221 1.693 29543
-1.039 0.222 1.690 28113
-1.048 0.223 1.693 19912
-1.044 0.222 1.677 10246
-1.043 0.222 1.667 11423
-1.057 0.225 1.677 13491
-1.061 0.226 1.674 14657
-1.070 0.228 1.677 13917
-1.079 0.230 1.680 8171
-1.083 0.231 1.677 6879
-1.092 0.233 1.680 9542
-1.097 0.234 1.677 12844
-1.106 0.236 1.680 16427
-1.115 0.238 1.682 21638
-1.119 0.239 1.679 23363
-1.133 0.242 1.688 16892
-1.142 0.243 1.691 9362
-1.146 0.244 1.688 5223
-1.151 0.245 1.684 7108
-1.155 0.246 1.681 11351
-1.145 0.244 1.658 15779
-1.150 0.245 1.655 19486
-1.154 0.246 1.651 16804
-1.158 0.247 1.648 12339
-1.158 0.247 1.638 11980
-1.157 0.247 1.629 15321
-1.161 0.248 1.625 15525
-1.160 0.247 1.615 13327
-1.170 0.249 1.618 15965
-1.174 0.250 1.614 20984
-1.173 0.250 1.605 22361
-1.167 0.249 1.589 19394
-1.166 0.249 1.579 17382
-1.175 0.251 1.582 23140
-1.184 0.252 1.584 25901
-1.189 0.253 1.581 15892
-1.208 0.257 1.595 9936
-1.202 0.256 1.579 9801
-1.206 0.257 1.576 12230
-1.215 0.259 1.578 17732
-1.224 0.261 1.580 14570
-1.234 0.263 1.582 10457
-1.238 0.264 1.579 10635
-1.237 0.264 1.569 12182
-1.246 0.266 1.571 14722
-1.250 0.266 1.567 14869
-1.259 0.268 1.569 11699
-1.263 0.269 1.566 9024
-1.262 0.269 1.556 9602
-1.266 0.270 1.552 12692
-1.275 0.272 1.554 11176
-1.279 0.273 1.550 9318
-1.283 0.274 1.546 12570
-1.293 0.276 1.548 12946
-1.383 0.295 1.635 8323
-1.398 0.298 1.642 13506
-1.407 0.300 1.644 13348
-1.482 0.316 1.713 18118
-1.487 0.317 1.709 12715
-1.502 0.320 1.715 12083
-1.506 0.321 1.711 17173
-1.516 0.323 1.712 13767
-1.526 0.325 1.713 15350
-1.531 0.326 1.708 17258
-1.552 0.331 1.720 15096
-1.567 0.334 1.726 15958
-1.578 0.336 1.727 16138
-1.582 0.337 1.722 13255
-1.598 0.341 1.728 8049
-1.613 0.344 1.734 6616
-1.618 0.345 1.730 6628
-1.617 0.345 1.719 11599
-1.621 0.346 1.714 23918
-1.620 0.345 1.704 26373
-1.625 0.346 1.699 16340
-1.635 0.348 1.700 11730
-1.651 0.352 1.705 13566
-1.661 0.354 1.706 16173
-1.659 0.354 1.695 12026
-1.652 0.352 1.680 7403
-1.662 0.354 1.680 9784
-1.673 0.357 1.680 20198
-1.683 0.359 1.680 33595
-1.687 0.360 1.675 40419
-1.703 0.363 1.681 36173
-1.719 0.366 1.686 31242
-1.730 0.369 1.686 33619
-1.734 0.370 1.680 42989
-1.738 0.371 1.675 52054
-1.743 0.371 1.670 48741
-1.747 0.372 1.665 28311
-1.757 0.375 1.664 16430
-1.768 0.377 1.664 19425
-1.772 0.378 1.659 16447
-1.914 0.408 1.769 9657
-1.913 0.408 1.758 10095
-1.923 0.410 1.757 10664
-1.940 0.414 1.761 14053
-1.944 0.414 1.756 16110
-1.955 0.417 1.755 13281
-1.990 0.424 1.773 16534
-1.995 0.425 1.767 17873
-1.999 0.426 1.761 15137
-1.998 0.426 1.750 14641
-2.002 0.427 1.744 10648
-2.019 0.430 1.748 6727
-2.042 0.435 1.756 7104
-2.047 0.436 1.750 5635
-2.058 0.439 1.749 4872
-2.099 0.447 1.771 6874
-2.110 0.450 1.769 8828
-2.115 0.451 1.763 9402
-2.132 0.454 1.766 7690
-2.161 0.461 1.778 6707
-2.172 0.463 1.776 8786
-2.183 0.465 1.774 8576
-2.207 0.470 1.782 6104
-2.218 0.473 1.779 5385
-2.210 0.471 1.764 5962
-2.195 0.468 1.743 8021
-2.213 0.472 1.746 9273
-2.230 0.475 1.748 11670
-2.247 0.479 1.750 14578
-2.252 0.480 1.744 15793
-2.256 0.481 1.737 14437
-2.274 0.485 1.739 12791
-2.285 0.487 1.736 14482
-2.289 0.488 1.730 15127
-2.287 0.488 1.718 12279
-2.298 0.490 1.716 9486
-2.315 0.494 1.717 9166
-2.326 0.496 1.715 9212
-2.350 0.501 1.721 8914
-2.387 0.509 1.735 10454
-2.392 0.510 1.728 9645
-2.403 0.512 1.725 9130
-2.421 0.516 1.726 7319
-2.432 0.518 1.723 5985
-2.443 0.521 1.720 4401
-2.460 0.524 1.721 2858
-2.531 0.539 1.755 3527
-2.529 0.539 1.743 4423
-2.533 0.540 1.736 4609
-2.538 0.541 1.728 4795
-2.542 0.542 1.720 4339
-2.547 0.543 1.713 3726
-2.631 0.561 1.753 3963
-2.636 0.562 1.745 4113
-2.627 0.560 1.730 4498
-2.605 0.555 1.706 5741
-2.609 0.556 1.698 8293
-2.613 0.557 1.690 10077
-2.665 0.568 1.710 8368
-2.676 0.570 1.705 10497
-2.681 0.571 1.697 9962
-2.678 0.571 1.685 8131
-2.676 0.570 1.673 6897
-2.680 0.571 1.665 5306
-2.685 0.572 1.657 3716
-2.702 0.576 1.657 3401
-2.775 0.592 1.686 3704
-2.772 0.591 1.674 7389
-2.777 0.592 1.666 11122
-2.795 0.596 1.665 14016
-2.806 0.598 1.660 17884
-2.824 0.602 1.659 17331
-2.835 0.604 1.654 17701
-2.840 0.605 1.645 14805
-2.837 0.605 1.633 12013
-2.841 0.606 1.625 13427
-2.852 0.608 1.620 14870
-2.849 0.607 1.608 12874
-2.854 0.608 1.599 10908
-2.858 0.609 1.590 7651
-3.133 0.668 1.717 6087
-3.138 0.669 1.707 5159
-2.891 0.616 1.575 5016
-3.259 0.695 1.743 5009
-3.256 0.694 1.730 6506
-3.261 0.695 1.720 6309
-3.265 0.696 1.710 6113
-3.270 0.697 1.700 6113
-3.351 0.714 1.727 4351
-3.363 0.717 1.720 3454
-3.367 0.718 1.710 2977
-3.513 0.749 1.764 2697
-3.610 0.770 1.796 3637
-3.615 0.771 1.785 4695
-3.619 0.772 1.774 4695
-3.624 0.772 1.763 2347
-0.614 0.132 1.601 8488
-0.621 0.134 1.607 6779
-0.632 0.136 1.619 5502
-0.645 0.139 1.639 4600
-0.666 0.143 1.673 4569
-0.670 0.144 1.671 4569
-0.675 0.145 1.669 5233
-0.679 0.146 1.667 5897
-0.687 0.148 1.672 5826
-0.694 0.150 1.677 5990
-0.699 0.151 1.675 7955
-0.703 0.151 1.672 9920
-0.701 0.151 1.656 9525
-0.695 0.150 1.633 11454
-0.699 0.151 1.630 11779
-0.703 0.151 1.628 12444
-0.711 0.153 1.633 11431
-0.718 0.155 1.638 9498
-0.723 0.156 1.636 8595
-0.727 0.157 1.634 7864
-0.753 0.162 1.674 8155
-0.732 0.158 1.622 10075
-0.736 0.159 1.620 13333
-0.744 0.160 1.625 15436
-0.748 0.161 1.622 17519
-0.752 0.162 1.620 15611
-0.771 0.166 1.646 11976
-0.779 0.168 1.650 14777
-0.791 0.170 1.662 18488
-0.795 0.171 1.659 19076
-0.796 0.171 1.650 16735
-0.800 0.172 1.647 14639
-0.801 0.172 1.638 14443
-0.801 0.173 1.629 14294
-0.809 0.174 1.633 15636
-0.817 0.176 1.637 17736
-0.821 0.177 1.635 20865
-0.826 0.178 1.632 24951
-0.830 0.179 1.630 25907
-0.838 0.181 1.634 24207
-0.846 0.182 1.638 23255
-0.854 0.184 1.643 31373
-0.859 0.185 1.640 35046
-0.863 0.186 1.637 29952
-0.871 0.188 1.641 38844
-0.880 0.190 1.645 48151
-0.884 0.190 1.643 52904
-0.888 0.191 1.640 54433
-0.896 0.193 1.644 52186
-0.901 0.194 1.641 40042
-0.955 0.206 1.719 23059
-0.963 0.208 1.722 25440
-0.968 0.209 1.720 26783
-0.972 0.210 1.717 20517
-0.977 0.210 1.714 16786
-0.977 0.211 1.704 22529
-0.982 0.211 1.701 32254
-0.990 0.213 1.705 35953
-0.995 0.214 1.702 33592
-0.999 0.215 1.699 29337
-1.008 0.217 1.702 22991
-1.008 0.217 1.692 17761
-1.012 0.218 1.689 15117
-1.017 0.219 1.686 16682
-1.026 0.221 1.690 24675
-1.034 0.223 1.693 29572
-1.039 0.224 1.690 28701
-1.048 0.226 1.693 20917
-1.043 0.225 1.677 11731
-1.043 0.225 1.667 12794
-1.056 0.228 1.677 14003
-1.061 0.229 1.674 15677
-1.070 0.230 1.677 14686
-1.079 0.232 1.680 8055
-1.092 0.235 1.690 6619
-1.092 0.235 1.680 9365
-1.096 0.236 1.677 13280
-1.105 0.238 1.680 17425
-1.114 0.240 1.682 22434
-1.123 0.242 1.685 23205
-1.132 0.244 1.688 16278
-1.142 0.246 1.691 9347
-1.146 0.247 1.688 6279
-1.155 0.249 1.690 8451
-1.155 0.249 1.681 12850
-1.149 0.248 1.665 17510
-1.149 0.248 1.655 20683
-1.153 0.248 1.651 17415
-1.158 0.249 1.648 12742
-1.157 0.249 1.638 12382
-1.156 0.249 1.629 15805
-1.161 0.250 1.625 16277
-1.165 0.251 1.621 14357
-1.169 0.252 1.618 16847
-1.173 0.253 1.614 20570
-1.172 0.253 1.605 20896
-1.167 0.251 1.589 17775
-1.171 0.252 1.586 17489
-1.175 0.253 1.582 24794
-1.184 0.255 1.584 26385
-1.188 0.256 1.581 15112
-1.207 0.260 1.595 9577
-1.201 0.259 1.579 10163
-1.205 0.260 1.576 12104
-1.215 0.262 1.578 17499
-1.219 0.263 1.574 14579
-1.233 0.266 1.582 9024
-1.237 0.267 1.579 9375
-1.236 0.266 1.569 13340
-1.245 0.268 1.571 16851
-1.254 0.270 1.573 15641
-1.259 0.271 1.569 11320
-1.257 0.271 1.560 8637
-1.256 0.271 1.550 9903
-1.265 0.273 1.552 12927
-1.275 0.275 1.554 11430
-1.279 0.276 1.550 9618
-1.283 0.276 1.546 12891
-1.292 0.278 1.548 12945
-1.382 0.298 1.635 7685
-1.392 0.300 1.637 10900
-1.477 0.318 1.717 9520
-1.481 0.319 1.713 14674
-1.491 0.321 1.714 10858
-1.501 0.323 1.715 11257
-1.511 0.326 1.716 13899
-1.516 0.327 1.712 10020
-1.520 0.328 1.707 12106
-1.530 0.330 1.708 13960
-1.557 0.335 1.726 14735
-1.572 0.339 1.732 16862
-1.577 0.340 1.727 16614
-1.581 0.341 1.722 14426
-1.597 0.344 1.728 8987
-1.607 0.346 1.729 5719
-1.606 0.346 1.719 5585
-1.616 0.348 1.719 11228
-1.621 0.349 1.714 24073
-1.619 0.349 1.704 25121
-1.624 0.350 1.699 15859
-1.640 0.353 1.705 12710
-1.650 0.355 1.705 14017
-1.660 0.358 1.706 17309
-1.659 0.357 1.695 13441
-1.657 0.357 1.685 9306
-1.662 0.358 1.680 12289
-1.672 0.360 1.680 23186
-1.682 0.362 1.680 37552
-1.686 0.363 1.675 44176
-1.702 0.367 1.681 38058
-1.718 0.370 1.686 29919
-1.723 0.371 1.681 28781
-1.733 0.373 1.680 37224
-1.737 0.374 1.675 48784
-1.742 0.375 1.670 48242
-1.746 0.376 1.665 28059
-1.756 0.378 1.664 16918
-1.767 0.381 1.664 19726
-1.771 0.382 1.659 16195
-1.907 0.411 1.764 10671
-1.912 0.412 1.758 11461
-1.904 0.410 1.742 12111
-1.945 0.419 1.766 14030
-1.950 0.420 1.760 15883
-1.960 0.422 1.760 12832
-1.983 0.427 1.768 15185
-1.994 0.430 1.767 15511
-1.992 0.429 1.756 14978
-1.997 0.430 1.750 16322
-2.001 0.431 1.744 11476
-2.012 0.434 1.743 6232
-2.041 0.440 1.756 5787
-2.040 0.439 1.745 5334
-2.026 0.436 1.725 5622
-2.092 0.451 1.766 6893
-2.103 0.453 1.764 9030
-2.114 0.455 1.763 9681
-2.112 0.455 1.752 8336
-2.154 0.464 1.773 7153
-2.171 0.468 1.776 10060
-2.176 0.469 1.770 10090
-2.193 0.473 1.772 6678
-2.210 0.476 1.775 5107
-2.209 0.476 1.764 5720
-2.194 0.473 1.743 6523
-2.218 0.478 1.750 7373
-2.229 0.480 1.748 11654
-2.246 0.484 1.750 16165
-2.251 0.485 1.744 18039
-2.255 0.486 1.737 16627
-2.273 0.490 1.739 13734
-2.283 0.492 1.736 15262
-2.282 0.492 1.725 17269
-2.286 0.493 1.718 15858
-2.291 0.494 1.711 13186
-2.301 0.496 1.709 9917
-2.332 0.502 1.719 8448
-2.349 0.506 1.721 8851
-2.386 0.514 1.735 10664
-2.391 0.515 1.728 9879
-2.402 0.518 1.725 9400
-2.419 0.521 1.726 7894
-2.430 0.524 1.723 6465
-2.442 0.526 1.720 4609
-2.459 0.530 1.721 2893
-2.530 0.545 1.755 3490
-2.527 0.545 1.743 4014
-2.532 0.546 1.736 4208
-2.537 0.547 1.728 4403
-2.548 0.549 1.724 3944
-2.559 0.551 1.721 3590
-2.570 0.554 1.717 3643
-2.574 0.555 1.709 3840
-2.586 0.557 1.706 4691
-2.603 0.561 1.706 5888
-2.608 0.562 1.698 7975
-2.612 0.563 1.690 9431
-2.664 0.574 1.710 8314
-2.675 0.576 1.705 10425
-2.679 0.577 1.697 9794
-2.677 0.577 1.685 7998
-2.681 0.578 1.677 6908
-2.686 0.579 1.669 5548
-2.697 0.581 1.665 4292
-2.708 0.583 1.661 3218
-2.767 0.596 1.682 3652
-2.771 0.597 1.674 6841
