-0.288 2.165 1.691 11946
-0.290 2.176 1.689 11718
-0.290 2.181 1.683 9598
-0.290 2.179 1.672 9187
-0.291 2.183 1.665 7933
-0.304 2.285 1.726 9642
-0.305 2.289 1.719 15992
-0.306 2.294 1.712 21153
-0.306 2.298 1.705 19285
-0.307 2.303 1.698 14931
-0.308 2.314 1.696 13893
-0.309 2.318 1.689 15001
-0.310 2.329 1.686 13536
-0.313 2.347 1.688 12242
-0.314 2.358 1.685 12874
-0.315 2.363 1.678 11840
-0.317 2.380 1.680 9390
-0.320 2.405 1.685 10350
-0.322 2.416 1.682 11247
-0.328 2.460 1.700 15934
-0.328 2.465 1.693 21967
-0.329 2.469 1.685 24089
-0.330 2.474 1.678 21967
-0.331 2.485 1.675 17797
-0.332 2.496 1.671 12296
-0.333 2.500 1.664 7098
-0.334 2.505 1.657 6847
-0.334 2.509 1.649 8104
-0.334 2.507 1.638 9412
-0.335 2.518 1.634 8164
-0.341 2.563 1.650 6971
-0.359 2.696 1.718 6871
-0.360 2.701 1.710 8094
-0.360 2.705 1.701 9316
-0.360 2.703 1.690 7087
-0.343 2.577 1.608 4993
-0.371 2.788 1.716 5459
-0.372 2.792 1.707 5325
-0.372 2.790 1.695 5208
-0.373 2.801 1.691 4420
-0.376 2.819 1.690 3683
-0.377 2.831 1.685 4282
-0.379 2.842 1.681 4910
-0.381 2.860 1.680 4484
-0.385 2.893 1.686 4885
-0.394 2.960 1.710 5525
-0.395 2.964 1.701 7952
-0.395 2.962 1.689 7657
-0.393 2.952 1.673 7870
-0.399 2.999 1.685 6465
-0.404 3.031 1.691 7796
-0.403 3.029 1.678 8013
-0.404 3.033 1.669 8244
-0.405 3.037 1.660 6169
-0.406 3.049 1.655 4128
-0.404 3.032 1.635 4287
-0.404 3.036 1.626 4476
-0.416 3.126 1.658 4571
-0.415 3.116 1.642 5006
-0.434 3.255 1.697 5166
-0.434 3.259 1.687 6310
-0.435 3.264 1.677 6310
-0.434 3.261 1.664 5901
-0.432 3.244 1.645 6042
-0.432 3.241 1.632 5312
-0.431 3.238 1.619 4776
-0.454 3.408 1.683 4311
-0.453 3.398 1.667 5158
-0.453 3.402 1.657 5158
-0.454 3.406 1.647 2579
-0.086 0.655 1.674 13113
-0.086 0.659 1.672 12465
-0.087 0.663 1.670 11817
-0.087 0.668 1.668 13084
-0.088 0.675 1.673 14856
-0.089 0.680 1.671 14856
-0.090 0.684 1.669 13585
-0.090 0.685 1.660 12597
-0.090 0.686 1.650 9201
-0.089 0.684 1.634 6011
-0.091 0.698 1.653 6299
-0.092 0.706 1.658 7235
-0.093 0.711 1.656 9218
-0.093 0.711 1.647 11310
-0.094 0.716 1.645 11624
-0.094 0.720 1.642 12216
-0.094 0.721 1.633 11883
-0.096 0.736 1.652 9613
-0.099 0.758 1.685 9603
-0.099 0.759 1.676 11461
-0.100 0.763 1.674 13340
-0.100 0.764 1.664 14863
-0.101 0.769 1.662 16617
-0.102 0.777 1.667 16992
-0.103 0.788 1.678 18493
-0.104 0.797 1.683 21292
-0.105 0.801 1.680 24613
-0.106 0.809 1.685 23445
-0.107 0.817 1.689 23688
-0.108 0.826 1.694 23473
-0.109 0.830 1.691 22615
-0.109 0.835 1.689 21143
-0.110 0.839 1.686 16011
-0.112 0.855 1.704 11940
-0.111 0.848 1.681 13381
-0.112 0.852 1.679 15698
-0.113 0.861 1.683 16358
-0.113 0.865 1.680 17737
-0.114 0.870 1.678 16825
-0.114 0.874 1.675 18408
-0.115 0.878 1.672 21146
-0.116 0.883 1.670 18033
-0.116 0.887 1.667 14485
-0.117 0.892 1.664 12653
-0.118 0.904 1.675 12414
-0.119 0.913 1.679 14239
-0.121 0.921 1.683 12369
-0.122 0.930 1.687 12042
-0.122 0.930 1.678 13147
-0.124 0.947 1.695 19839
-0.125 0.952 1.692 28705
-0.126 0.960 1.696 30840
-0.126 0.965 1.693 26312
-0.126 0.965 1.683 31722
-0.127 0.969 1.680 41936
-0.127 0.970 1.671 42770
-0.127 0.974 1.668 36577
-0.127 0.970 1.652 29994
-0.128 0.978 1.655 29445
-0.129 0.983 1.653 23798
-0.129 0.987 1.650 14789
-0.130 0.991 1.647 11059
-0.131 1.000 1.650 8757
-0.137 1.049 1.712 12024
-0.137 1.045 1.696 21083
-0.137 1.049 1.693 27367
-0.138 1.058 1.696 24845
-0.140 1.067 1.700 25842
-0.141 1.076 1.703 33118
-0.142 1.085 1.706 34166
-0.143 1.090 1.703 28837
-0.143 1.090 1.693 20940
-0.144 1.099 1.696 16758
-0.145 1.108 1.699 20188
-0.145 1.108 1.690 19020
-0.145 1.107 1.680 14263
-0.146 1.117 1.683 12858
-0.147 1.126 1.686 14960
-0.148 1.130 1.682 19398
-0.149 1.139 1.685 23093
-0.150 1.149 1.688 21758
-0.151 1.153 1.685 19478
-0.152 1.162 1.688 22581
-0.153 1.172 1.690 26092
-0.154 1.176 1.687 22493
-0.155 1.185 1.689 13203
-0.156 1.195 1.692 9051
-0.157 1.199 1.689 9322
-0.157 1.199 1.679 8455
-0.158 1.208 1.681 11514
-0.160 1.222 1.690 15351
-0.161 1.227 1.686 14139
-0.160 1.226 1.676 8529
-0.160 1.226 1.667 7523
-0.161 1.230 1.663 10872
-0.162 1.235 1.659 11103
-0.163 1.244 1.662 7958
-0.164 1.253 1.664 8382
-0.167 1.273 1.678 14991
-0.168 1.283 1.680 19938
-0.168 1.282 1.671 18074
-0.168 1.281 1.661 16703
-0.169 1.291 1.663 12453
-0.170 1.300 1.665 8492
-0.174 1.331 1.691 11108
-0.176 1.346 1.699 12109
-0.177 1.350 1.695 12048
-0.177 1.349 1.685 22942
-0.177 1.354 1.681 32750
-0.178 1.363 1.682 27538
-0.178 1.363 1.672 13634
-0.179 1.367 1.668 9816
-0.180 1.377 1.670 20540
-0.181 1.381 1.666 29761
-0.182 1.391 1.668 24803
-0.183 1.395 1.663 14773
-0.183 1.400 1.659 9803
-0.184 1.404 1.655 12998
-0.185 1.414 1.657 18770
-0.186 1.418 1.652 19735
-0.188 1.433 1.659 18351
-0.192 1.465 1.684 21748
-0.193 1.475 1.685 31403
-0.194 1.480 1.680 27879
-0.195 1.490 1.682 22482
-0.197 1.505 1.688 24461
-0.198 1.510 1.684 26889
-0.198 1.514 1.679 25051
-0.200 1.530 1.686 17150
-0.202 1.545 1.692 18015
-0.203 1.550 1.688 19452
-0.204 1.560 1.689 16525
-0.205 1.564 1.684 16340
-0.205 1.563 1.674 17726
-0.207 1.579 1.680 16707
-0.209 1.595 1.686 17986
-0.209 1.599 1.681 23145
-0.210 1.604 1.677 29430
-0.211 1.614 1.677 29606
-0.212 1.624 1.678 21764
-0.215 1.640 1.684 10638
-0.217 1.662 1.695 22401
-0.219 1.672 1.695 33431
-0.220 1.682 1.695 20106
-0.221 1.687 1.690 11693
-0.222 1.697 1.691 16626
-0.223 1.707 1.691 12161
-0.226 1.724 1.696 11067
-0.226 1.728 1.691 16251
-0.228 1.739 1.691 20811
-0.228 1.743 1.686 27127
-0.229 1.748 1.681 23822
-0.229 1.752 1.675 12456
-0.230 1.756 1.670 11328
-0.232 1.773 1.675 21070
-0.233 1.783 1.675 25863
-0.234 1.788 1.670 19360
-0.235 1.798 1.669 15228
-0.237 1.815 1.674 21962
-0.238 1.819 1.669 25554
-0.239 1.823 1.663 26682
-0.240 1.834 1.663 31266
-0.241 1.838 1.657 23799
-0.240 1.830 1.642 12226
-0.241 1.841 1.641 10961
-0.242 1.851 1.641 13657
-0.246 1.880 1.655 13894
-0.250 1.909 1.669 11435
-0.253 1.932 1.678 8886
-0.255 1.949 1.681 10665
-0.258 1.972 1.690 12023
-0.259 1.983 1.689 16059
-0.258 1.975 1.674 17987
-0.259 1.979 1.668 15457
-0.260 1.990 1.666 12228
-0.262 2.001 1.665 10670
-0.262 2.005 1.659 15156
-0.263 2.009 1.653 18240
-0.263 2.007 1.643 12091
-0.276 2.107 1.706 11309
-0.277 2.118 1.705 13865
-0.277 2.116 1.694 14896
-0.278 2.127 1.692 13984
-0.280 2.138 1.690 15269
-0.280 2.142 1.684 13468
-0.284 2.172 1.696 13284
-0.285 2.177 1.689 13867
-0.285 2.181 1.683 11729
-0.286 2.186 1.676 9994
-0.285 2.177 1.661 7023
-0.300 2.292 1.730 10382
-0.301 2.297 1.723 18052
-0.300 2.295 1.712 23484
-0.301 2.299 1.705 21390
-0.302 2.310 1.703 17108
-0.303 2.315 1.696 16437
-0.304 2.326 1.693 17948
-0.305 2.330 1.686 15536
-0.307 2.348 1.688 13716
-0.309 2.359 1.685 15113
-0.309 2.363 1.678 14012
-0.311 2.374 1.675 10239
-0.316 2.412 1.689 9615
-0.316 2.416 1.682 11312
-0.322 2.461 1.700 17738
-0.323 2.465 1.693 24113
-0.323 2.470 1.685 26061
-0.324 2.474 1.678 23293
-0.324 2.479 1.671 18577
-0.326 2.490 1.667 12387
-0.328 2.508 1.668 8009
-0.329 2.512 1.661 9077
-0.328 2.510 1.649 10998
-0.329 2.514 1.642 12948
-0.330 2.525 1.638 11506
-0.333 2.543 1.639 8245
-0.335 2.561 1.639 7219
-0.354 2.702 1.710 7669
-0.354 2.706 1.701 8797
-0.356 2.718 1.697 6766
-0.338 2.585 1.612 5431
-0.365 2.788 1.716 5224
-0.365 2.793 1.707 4947
-0.365 2.791 1.695 4740
-0.367 2.802 1.691 4279
-0.370 2.827 1.694 4522
-0.371 2.838 1.689 5565
-0.372 2.843 1.681 6619
-0.373 2.854 1.676 5598
-0.377 2.880 1.678 5209
-0.387 2.961 1.710 5298
-0.389 2.972 1.705 7648
-0.389 2.970 1.692 7334
-0.386 2.953 1.673 7528
-0.393 3.007 1.689 6826
-0.396 3.025 1.687 8307
-0.396 3.029 1.678 8429
-0.396 3.027 1.666 8569
-0.397 3.031 1.657 6492
-0.396 3.029 1.644 4441
-0.398 3.040 1.639 4789
-0.398 3.044 1.630 5118
-0.419 3.204 1.695 4292
-0.421 3.216 1.689 4761
-0.426 3.256 1.697 5896
-0.427 3.260 1.687 7230
-0.427 3.265 1.677 7230
-0.428 3.269 1.667 6746
-0.425 3.245 1.645 7092
-0.424 3.242 1.632 6092
-0.424 3.239 1.619 5327
-0.446 3.409 1.683 4317
-0.446 3.406 1.670 5197
-0.446 3.410 1.660 5197
-0.447 3.415 1.650 2598
-0.084 0.651 1.667 13586
-0.085 0.659 1.672 13140
-0.086 0.664 1.670 12779
-0.087 0.671 1.675 13825
-0.087 0.676 1.673 15435
-0.088 0.680 1.671 15435
-0.088 0.684 1.669 14136
-0.088 0.682 1.652 13346
-0.089 0.686 1.650 10370
-0.088 0.684 1.634 7679
-0.090 0.695 1.646 7074
-0.091 0.706 1.658 7413
-0.092 0.711 1.656 9381
-0.092 0.712 1.647 11384
-0.093 0.716 1.645 11797
-0.093 0.720 1.642 12544
-0.094 0.725 1.640 12181
-0.095 0.736 1.652 10214
-0.098 0.755 1.678 10369
-0.098 0.759 1.676 11712
-0.099 0.764 1.674 13054
-0.099 0.764 1.664 14335
-0.099 0.769 1.662 15812
-0.100 0.777 1.667 15839
-0.102 0.789 1.678 16798
-0.103 0.797 1.683 19533
-0.104 0.801 1.680 22719
-0.105 0.809 1.685 22010
-0.106 0.818 1.689 22758
-0.107 0.826 1.694 23380
-0.107 0.830 1.691 23077
-0.108 0.835 1.689 21534
-0.108 0.839 1.686 16207
-0.111 0.855 1.704 11931
-0.110 0.848 1.681 12815
-0.110 0.853 1.679 14539
-0.111 0.857 1.676 15299
-0.112 0.865 1.680 16716
-0.112 0.870 1.678 16560
-0.113 0.874 1.675 18913
-0.114 0.879 1.672 21799
-0.114 0.883 1.670 18754
-0.115 0.887 1.667 15153
-0.115 0.892 1.664 13023
-0.117 0.904 1.675 13250
-0.118 0.913 1.679 15568
-0.119 0.921 1.683 13830
-0.120 0.930 1.687 13475
-0.120 0.930 1.678 14202
-0.122 0.943 1.688 20163
-0.123 0.952 1.692 28417
-0.124 0.961 1.696 30638
-0.124 0.961 1.686 26686
-0.125 0.965 1.683 32747
-0.125 0.970 1.680 43210
-0.125 0.970 1.671 43912
-0.125 0.970 1.661 38467
-0.125 0.970 1.652 32717
-0.127 0.979 1.655 31285
-0.127 0.983 1.653 24826
-0.127 0.983 1.643 16006
-0.128 0.992 1.647 12100
-0.129 1.000 1.650 10052
-0.135 1.045 1.706 14086
-0.135 1.045 1.696 23585
-0.136 1.049 1.693 29832
-0.137 1.058 1.696 26616
-0.138 1.067 1.700 25860
-0.139 1.076 1.703 32044
-0.140 1.081 1.700 33109
-0.141 1.090 1.703 27848
-0.141 1.090 1.693 19865
-0.142 1.099 1.696 15926
-0.143 1.108 1.699 20673
-0.143 1.108 1.690 19503
-0.143 1.108 1.680 13629
-0.145 1.122 1.689 11947
-0.145 1.121 1.680 13481
-0.146 1.130 1.682 17822
-0.147 1.140 1.685 23124
-0.149 1.149 1.688 23619
-0.149 1.153 1.685 21315
-0.150 1.158 1.681 24108
-0.151 1.167 1.684 27013
-0.152 1.176 1.687 21824
-0.153 1.186 1.689 11607
-0.155 1.200 1.698 7731
-0.155 1.199 1.689 7857
-0.156 1.204 1.685 6781
-0.156 1.208 1.681 8594
-0.158 1.223 1.690 11065
-0.159 1.232 1.692 10068
-0.159 1.227 1.676 8293
-0.159 1.226 1.667 11203
-0.159 1.230 1.663 14813
-0.160 1.235 1.659 12554
-0.160 1.239 1.656 9001
-0.161 1.249 1.658 9591
-0.165 1.273 1.678 14211
-0.165 1.278 1.674 18815
-0.165 1.277 1.665 16794
-0.166 1.281 1.661 16066
-0.166 1.286 1.657 13778
-0.167 1.295 1.659 9865
-0.170 1.315 1.673 11088
-0.173 1.335 1.687 11996
-0.175 1.350 1.695 11013
-0.174 1.350 1.685 21056
-0.175 1.354 1.681 32380
-0.176 1.358 1.677 29566
-0.176 1.363 1.672 16248
-0.176 1.362 1.663 10261
-0.178 1.377 1.670 19219
-0.179 1.381 1.666 27991
-0.180 1.391 1.668 23654
-0.180 1.396 1.663 15266
-0.180 1.394 1.654 10532
-0.182 1.404 1.655 11703
-0.182 1.409 1.651 16083
-0.183 1.418 1.652 17607
-0.185 1.428 1.654 14756
-0.189 1.466 1.684 18550
-0.191 1.475 1.685 30165
-0.191 1.480 1.680 28355
-0.193 1.490 1.682 22421
-0.195 1.505 1.688 21407
-0.196 1.515 1.689 24767
-0.196 1.514 1.679 25156
-0.198 1.530 1.686 16990
-0.200 1.546 1.692 18645
-0.200 1.550 1.688 24231
-0.201 1.554 1.683 16824
-0.202 1.565 1.684 13024
-0.202 1.563 1.674 15290
-0.204 1.579 1.680 13967
-0.206 1.595 1.686 15270
-0.206 1.594 1.676 20395
-0.207 1.604 1.677 28847
-0.209 1.614 1.677 30122
-0.210 1.624 1.678 21733
-0.211 1.634 1.678 9977
-0.216 1.668 1.700 21085
-0.216 1.672 1.695 33290
-0.218 1.683 1.695 20037
-0.218 1.687 1.690 10159
-0.219 1.697 1.691 14356
-0.222 1.714 1.696 11486
-0.224 1.730 1.701 10431
-0.223 1.729 1.691 14941
-0.225 1.739 1.691 21046
-0.226 1.749 1.691 29061
-0.226 1.748 1.681 26738
-0.227 1.752 1.675 14986
-0.227 1.757 1.670 11307
-0.229 1.773 1.675 19172
-0.231 1.784 1.675 25016
-0.231 1.788 1.670 20993
-0.232 1.798 1.669 15839
-0.234 1.809 1.669 19548
-0.235 1.819 1.669 22742
-0.236 1.824 1.663 25437
-0.237 1.834 1.663 32013
-0.238 1.839 1.657 24431
-0.238 1.843 1.652 11350
-0.245 1.896 1.686 10980
-0.244 1.889 1.670 12033
-0.245 1.893 1.665 14714
-0.247 1.910 1.669 13427
-0.250 1.933 1.678 10495
-0.252 1.950 1.681 13374
-0.255 1.973 1.690 14877
-0.256 1.983 1.689 17836
-0.255 1.975 1.674 17940
-0.256 1.980 1.668 15010
-0.258 1.997 1.671 11285
-0.260 2.007 1.670 10844
-0.260 2.012 1.664 16441
-0.260 2.010 1.653 19393
-0.260 2.014 1.647 13148
-0.272 2.107 1.706 10644
-0.273 2.112 1.700 12986
-0.274 2.116 1.694 13765
-0.274 2.121 1.688 12431
-0.276 2.138 1.690 12923
-0.278 2.149 1.689 11741
-0.281 2.173 1.696 13781
-0.281 2.177 1.689 14691
-0.282 2.182 1.683 12746
-0.283 2.186 1.676 10564
-0.282 2.184 1.665 6639
-0.297 2.299 1.734 10989
-0.297 2.297 1.723 19124
-0.298 2.302 1.716 24552
-0.298 2.306 1.709 22251
-0.299 2.311 1.703 17846
-0.300 2.322 1.700 17487
-0.301 2.326 1.693 19068
-0.301 2.331 1.686 16439
-0.304 2.348 1.688 14559
-0.305 2.359 1.685 16253
-0.306 2.364 1.678 15171
-0.307 2.375 1.675 10801
-0.312 2.413 1.689 9161
-0.313 2.424 1.686 11209
-0.317 2.455 1.696 18704
-0.319 2.466 1.693 24925
-0.319 2.470 1.685 26627
-0.320 2.475 1.678 23482
-0.321 2.479 1.671 18635
-0.322 2.490 1.667 12156
-0.324 2.508 1.668 8741
-0.325 2.513 1.661 11112
-0.325 2.517 1.653 13255
-0.325 2.515 1.642 15448
-0.327 2.526 1.638 13835
-0.329 2.544 1.639 9604
-0.331 2.562 1.639 7835
-0.350 2.709 1.713 7220
-0.351 2.714 1.705 8267
-0.352 2.725 1.701 6492
-0.358 2.771 1.716 5192
-0.357 2.761 1.700 5230
-0.358 2.773 1.696 4769
-0.360 2.784 1.691 4320
-0.365 2.823 1.702 4356
-0.366 2.835 1.697 5254
-0.367 2.839 1.689 6509
-0.368 2.844 1.681 7764
-0.369 2.855 1.676 6391
-0.372 2.880 1.678 5538
-0.383 2.961 1.710 4973
-0.384 2.973 1.705 7060
-0.384 2.970 1.692 6774
-0.382 2.954 1.673 6980
-0.389 3.007 1.689 6852
-0.391 3.026 1.687 8315
-0.391 3.023 1.675 8362
-0.391 3.027 1.666 8409
-0.392 3.032 1.657 6546
-0.394 3.050 1.655 4702
-0.393 3.041 1.639 5178
-0.394 3.045 1.630 5663
-0.414 3.205 1.695 4739
-0.416 3.217 1.689 5223
-0.421 3.257 1.697 6223
-0.423 3.268 1.690 7738
-0.423 3.273 1.680 7738
-0.423 3.270 1.667 7131
-0.420 3.246 1.645 7574
-0.419 3.243 1.632 6413
-0.418 3.233 1.616 5511
-0.441 3.409 1.683 4334
-0.441 3.414 1.673 5269
-0.442 3.418 1.663 5269
-0.442 3.423 1.653 2634
-0.082 0.652 1.667 13946
-0.083 0.656 1.665 13852
-0.084 0.664 1.670 13977
-0.085 0.671 1.675 14980
-0.085 0.676 1.673 16528
-0.086 0.680 1.671 16528
-0.086 0.681 1.662 15282
-0.086 0.682 1.652 15042
-0.086 0.683 1.643 12669
-0.087 0.688 1.641 10435
-0.087 0.692 1.639 8855
-0.089 0.707 1.658 7719
-0.090 0.711 1.656 9619
-0.090 0.715 1.654 11519
-0.090 0.716 1.645 12098
-0.091 0.721 1.642 13178
-0.092 0.725 1.640 12859
-0.093 0.736 1.652 11104
-0.095 0.755 1.678 11206
-0.096 0.759 1.676 12003
-0.096 0.764 1.674 12800
-0.097 0.765 1.664 13850
-0.097 0.769 1.662 15046
-0.098 0.777 1.667 14673
-0.100 0.789 1.678 15013
-0.101 0.797 1.683 17676
-0.101 0.801 1.680 20710
-0.102 0.810 1.685 20360
-0.103 0.818 1.689 21455
-0.104 0.826 1.694 22802
-0.105 0.831 1.691 23039
-0.105 0.835 1.689 21557
-0.106 0.839 1.686 16229
-0.108 0.856 1.704 11789
-0.107 0.848 1.681 12161
-0.108 0.853 1.679 13220
-0.108 0.857 1.676 14110
-0.109 0.862 1.673 15676
-0.109 0.866 1.671 16268
-0.110 0.875 1.675 19179
-0.111 0.879 1.672 22169
-0.112 0.883 1.670 19169
-0.112 0.888 1.667 15585
-0.113 0.896 1.671 13503
-0.115 0.909 1.682 14680
-0.116 0.917 1.686 17620
-0.117 0.926 1.690 16032
-0.117 0.930 1.687 15572
-0.118 0.935 1.684 15989
-0.119 0.944 1.688 20825
-0.120 0.948 1.685 27772
-0.121 0.957 1.689 30316
-0.121 0.961 1.686 27116
-0.122 0.966 1.683 33770
-0.122 0.970 1.680 44263
-0.122 0.970 1.671 44587
-0.122 0.970 1.661 40240
-0.123 0.975 1.658 35344
-0.123 0.975 1.649 33079
-0.124 0.983 1.653 25970
-0.125 0.988 1.650 17506
-0.126 0.996 1.653 13573
-0.131 1.036 1.702 11863
-0.131 1.041 1.699 17172
-0.132 1.045 1.696 26348
-0.133 1.050 1.693 32478
-0.134 1.059 1.696 28442
-0.135 1.068 1.700 25620
-0.136 1.077 1.703 30319
-0.137 1.081 1.700 31498
-0.138 1.090 1.703 26328
-0.138 1.090 1.693 18464
-0.139 1.099 1.696 14604
-0.140 1.109 1.699 20307
-0.140 1.108 1.690 19064
-0.140 1.108 1.680 12815
-0.142 1.122 1.689 11632
-0.142 1.122 1.680 13109
-0.143 1.131 1.682 16699
-0.145 1.145 1.692 22871
-0.145 1.149 1.688 25599
-0.146 1.154 1.685 23399
-0.146 1.158 1.681 25875
-0.147 1.167 1.684 28393
-0.149 1.177 1.687 21224
-0.150 1.186 1.689 9518
-0.152 1.200 1.698 6709
-0.152 1.205 1.695 8144
-0.153 1.209 1.691 7848
-0.153 1.209 1.681 8785
-0.154 1.218 1.684 8048
-0.156 1.233 1.692 6104
-0.154 1.217 1.664 8152
-0.155 1.226 1.667 14821
-0.155 1.231 1.663 20128
-0.156 1.235 1.659 16714
-0.156 1.240 1.656 12923
-0.158 1.249 1.658 13732
-0.160 1.269 1.672 15282
-0.161 1.278 1.674 18583
-0.161 1.278 1.665 15843
-0.162 1.282 1.661 15924
-0.162 1.286 1.657 16855
-0.163 1.291 1.653 13466
-0.165 1.311 1.667 12155
-0.168 1.331 1.681 12336
-0.170 1.346 1.689 10111
-0.170 1.350 1.685 19498
-0.171 1.354 1.681 32700
-0.172 1.359 1.677 32799
-0.171 1.358 1.667 20938
-0.172 1.362 1.663 11831
-0.174 1.377 1.670 16828
-0.174 1.382 1.666 24650
-0.175 1.386 1.662 21340
-0.176 1.396 1.663 14835
-0.176 1.395 1.654 10358
-0.177 1.399 1.649 9231
-0.178 1.409 1.651 12609
-0.179 1.419 1.652 16114
-0.180 1.429 1.654 12342
-0.186 1.472 1.689 14902
-0.186 1.476 1.685 28038
-0.186 1.475 1.675 28381
-0.188 1.490 1.682 21808
-0.190 1.506 1.688 16586
-0.191 1.516 1.689 19864
-0.192 1.520 1.685 21820
-0.192 1.525 1.680 14706
-0.194 1.541 1.687 19084
-0.195 1.545 1.682 28733
-0.196 1.549 1.678 20015
-0.197 1.560 1.678 11726
-0.197 1.564 1.674 10586
-0.199 1.580 1.680 9660
-0.201 1.590 1.681 14033
-0.201 1.589 1.671 22449
-0.202 1.599 1.671 31317
-0.203 1.609 1.672 31342
-0.204 1.619 1.672 21121
-0.206 1.629 1.673 9605
-0.211 1.669 1.700 19974
-0.212 1.679 1.700 33186
-0.212 1.683 1.695 20733
-0.212 1.682 1.685 9559
-0.215 1.704 1.696 12340
-0.217 1.720 1.701 12706
-0.218 1.731 1.701 11469
-0.218 1.729 1.691 12746
-0.220 1.740 1.691 19984
-0.221 1.750 1.691 30005
-0.221 1.754 1.686 29560
-0.222 1.759 1.680 19547
-0.223 1.763 1.675 12672
-0.224 1.774 1.675 16439
-0.225 1.784 1.675 23017
-0.226 1.789 1.670 22106
-0.226 1.793 1.664 16996
-0.228 1.810 1.669 16933
-0.230 1.820 1.669 18830
-0.231 1.830 1.668 23381
-0.232 1.835 1.663 31217
-0.232 1.839 1.657 23752
-0.235 1.862 1.667 10834
-0.239 1.897 1.686 10906
-0.238 1.889 1.670 12234
-0.240 1.900 1.669 16665
-0.241 1.910 1.669 15936
-0.244 1.933 1.678 12361
-0.246 1.950 1.681 16085
-0.249 1.973 1.690 17451
-0.250 1.984 1.689 19416
-0.249 1.976 1.674 18290
-0.250 1.980 1.668 15289
-0.252 1.997 1.671 10756
-0.254 2.014 1.675 11696
-0.254 2.013 1.664 18160
-0.254 2.011 1.653 20304
-0.254 2.015 1.647 13965
-0.265 2.102 1.702 10248
-0.266 2.106 1.696 13262
-0.266 2.111 1.689 14182
-0.267 2.115 1.683 11350
-0.269 2.133 1.686 9499
-0.274 2.169 1.702 9687
-0.275 2.180 1.700 14064
-0.276 2.185 1.694 15046
-0.276 2.189 1.687 13484
-0.276 2.187 1.676 11089
-0.277 2.191 1.670 6752
-0.291 2.306 1.739 11718
-0.291 2.304 1.728 19906
-0.291 2.303 1.716 25073
-0.291 2.307 1.709 22599
-0.293 2.318 1.707 18046
-0.294 2.329 1.704 18007
-0.295 2.334 1.698 19299
-0.295 2.338 1.691 16768
-0.297 2.349 1.688 15396
-0.298 2.360 1.685 17311
-0.299 2.365 1.678 16320
-0.300 2.376 1.675 11564
-0.305 2.413 1.689 9065
-0.306 2.425 1.686 11614
-0.310 2.456 1.696 20076
-0.311 2.467 1.693 25751
-0.311 2.465 1.681 27270
-0.312 2.469 1.674 23769
-0.313 2.480 1.671 18760
-0.314 2.491 1.667 12272
-0.317 2.509 1.668 9800
-0.317 2.514 1.661 13365
-0.318 2.518 1.653 15727
-0.318 2.522 1.646 18089
-0.319 2.527 1.638 16231
-0.320 2.538 1.635 11135
-0.323 2.556 1.635 8829
-0.342 2.710 1.713 7036
-0.343 2.715 1.705 7888
-0.344 2.726 1.701 6429
-0.349 2.765 1.712 5826
-0.347 2.749 1.693 6135
-0.348 2.760 1.688 5136
-0.350 2.771 1.684 4192
-0.357 2.831 1.706 4632
-0.358 2.836 1.697 6093
-0.359 2.840 1.689 7500
-0.359 2.845 1.681 8907
-0.361 2.856 1.676 7254
-0.364 2.881 1.678 6080
-0.374 2.962 1.710 4753
-0.375 2.974 1.705 6375
-0.376 2.978 1.696 6197
-0.373 2.955 1.673 6378
-0.380 3.008 1.689 6835
-0.381 3.020 1.684 8313
-0.382 3.024 1.675 8191
-0.382 3.029 1.666 8069
-0.383 3.033 1.657 6683
-0.385 3.051 1.655 5561
-0.386 3.056 1.646 5998
-0.385 3.053 1.633 6542
-0.387 3.064 1.627 5387
-0.405 3.211 1.686 5898
-0.412 3.265 1.700 6574
-0.413 3.269 1.690 8239
-0.413 3.274 1.680 8239
-0.414 3.278 1.671 7493
-0.410 3.247 1.645 8019
-0.410 3.244 1.632 6764
-0.408 3.234 1.616 5774
-0.431 3.411 1.683 4462
-0.431 3.415 1.673 5504
-0.432 3.419 1.663 5504
-0.432 3.424 1.653 2752
-0.080 0.652 1.667 14057
-0.081 0.656 1.665 14334
-0.082 0.664 1.670 14878
-0.083 0.672 1.675 15975
-0.083 0.676 1.673 17610
-0.084 0.681 1.671 17610
-0.084 0.682 1.662 16356
-0.084 0.683 1.652 16381
-0.084 0.684 1.643 14512
-0.085 0.688 1.641 12645
-0.085 0.692 1.639 10412
-0.086 0.700 1.644 8273
-0.088 0.711 1.656 9833
-0.088 0.716 1.654 11548
-0.088 0.716 1.645 12213
-0.089 0.721 1.642 13494
-0.089 0.725 1.640 13168
-0.091 0.737 1.652 11636
-0.093 0.752 1.671 11762
-0.094 0.760 1.676 12075
-0.094 0.764 1.674 12491
-0.095 0.769 1.671 13390
-0.095 0.773 1.669 14290
-0.096 0.777 1.667 13659
-0.097 0.789 1.678 13639
-0.098 0.797 1.683 16308
-0.099 0.802 1.680 19239
-0.100 0.814 1.692 19120
-0.101 0.818 1.689 20247
-0.102 0.826 1.694 22012
-0.102 0.831 1.691 22614
-0.103 0.835 1.689 21220
-0.103 0.840 1.686 16024
-0.105 0.852 1.697 11513
-0.104 0.849 1.681 11657
-0.105 0.853 1.679 12302
-0.106 0.858 1.676 13214
-0.106 0.862 1.673 14922
-0.107 0.866 1.671 16067
-0.108 0.875 1.675 19431
-0.108 0.879 1.672 22541
-0.109 0.884 1.670 19576
-0.109 0.888 1.667 15914
-0.110 0.897 1.671 13957
-0.112 0.909 1.682 16049
-0.113 0.918 1.686 19648
-0.114 0.926 1.690 18040
-0.115 0.931 1.687 16984
-0.115 0.935 1.684 17074
-0.116 0.944 1.688 20940
-0.117 0.948 1.685 27083
-0.118 0.957 1.689 29516
-0.118 0.961 1.686 26926
-0.118 0.962 1.677 34116
-0.119 0.970 1.680 44458
-0.119 0.970 1.671 44250
-0.119 0.971 1.661 40758
-0.120 0.975 1.658 36886
-0.120 0.975 1.649 33679
-0.121 0.979 1.646 26219
-0.122 0.988 1.650 18227
-0.123 0.997 1.653 14496
-0.128 1.037 1.702 14230
-0.128 1.041 1.699 19456
-0.128 1.041 1.690 27939
-0.129 1.046 1.686 33762
-0.130 1.055 1.690 29565
-0.131 1.064 1.693 24934
-0.133 1.077 1.703 28214
-0.133 1.082 1.700 29577
-0.134 1.086 1.696 24820
-0.134 1.091 1.693 17323
-0.135 1.095 1.690 13501
-0.137 1.109 1.699 19258
-0.136 1.109 1.690 17966
-0.136 1.109 1.680 12108
-0.138 1.122 1.689 11844
-0.138 1.122 1.680 13680
-0.139 1.127 1.676 16556
-0.141 1.145 1.692 22511
-0.142 1.150 1.688 26831
-0.141 1.149 1.678 24760
-0.143 1.159 1.681 26769
-0.144 1.168 1.684 29062
-0.144 1.172 1.681 21414
-0.144 1.172 1.671 9604
-0.148 1.201 1.698 7510
-0.148 1.205 1.695 10887
-0.149 1.210 1.691 11166
-0.149 1.209 1.681 11561
-0.149 1.214 1.678 9227
-0.149 1.213 1.668 5475
-0.150 1.218 1.664 8016
-0.151 1.227 1.667 16428
-0.152 1.231 1.663 23404
-0.152 1.236 1.659 20338
-0.153 1.245 1.662 16502
-0.154 1.250 1.658 17430
-0.156 1.269 1.672 16943
-0.157 1.279 1.674 18753
-0.157 1.278 1.665 15332
-0.158 1.282 1.661 15842
-0.158 1.287 1.657 19166
-0.160 1.296 1.659 16606
-0.161 1.311 1.667 12990
-0.164 1.331 1.681 11889
-0.166 1.346 1.689 9398
-0.166 1.351 1.685 18624
-0.167 1.355 1.681 32763
-0.167 1.359 1.677 35147
-0.167 1.359 1.667 25693
-0.167 1.358 1.657 13983
-0.170 1.378 1.670 14486
-0.170 1.382 1.666 20998
-0.171 1.387 1.662 18476
-0.171 1.391 1.658 13204
-0.172 1.396 1.654 8978
-0.172 1.394 1.644 7360
-0.174 1.415 1.657 11293
-0.175 1.425 1.658 17127
-0.177 1.440 1.665 13212
-0.182 1.478 1.695 16112
-0.182 1.477 1.685 26858
-0.182 1.481 1.680 27835
-0.184 1.491 1.682 20080
-0.185 1.507 1.688 11824
-0.187 1.517 1.689 14045
-0.187 1.521 1.685 16531
-0.188 1.531 1.686 11766
-0.190 1.541 1.687 18210
-0.190 1.546 1.682 29110
-0.191 1.550 1.678 21519
-0.191 1.554 1.673 11211
-0.193 1.565 1.674 7086
-0.196 1.592 1.691 6268
-0.196 1.591 1.681 14199
-0.196 1.589 1.671 28323
-0.196 1.594 1.666 35909
-0.197 1.604 1.666 31352
-0.199 1.620 1.672 19753
-0.201 1.630 1.673 9381
-0.205 1.669 1.700 18686
-0.207 1.680 1.700 31993
-0.207 1.684 1.695 21168
-0.207 1.683 1.685 10102
-0.210 1.705 1.696 11335
-0.212 1.721 1.701 13752
-0.213 1.731 1.701 12570
-0.214 1.736 1.696 11238
-0.215 1.746 1.696 18250
-0.216 1.751 1.691 29199
-0.216 1.755 1.686 30757
-0.217 1.760 1.680 23063
-0.218 1.770 1.680 14148
-0.218 1.774 1.675 13710
-0.220 1.785 1.675 20312
-0.220 1.789 1.670 21863
-0.221 1.794 1.664 17612
-0.223 1.810 1.669 14782
-0.224 1.821 1.669 15204
-0.225 1.831 1.668 20576
-0.226 1.836 1.663 28377
-0.226 1.840 1.657 21349
-0.229 1.863 1.667 9994
-0.233 1.892 1.681 10007
-0.233 1.896 1.675 12058
-0.234 1.901 1.669 17958
-0.235 1.911 1.669 17434
-0.239 1.940 1.682 13312
-0.240 1.951 1.681 17134
-0.243 1.974 1.690 18129
-0.244 1.985 1.689 19643
-0.243 1.977 1.674 18593
-0.244 1.981 1.668 16023
-0.245 1.992 1.666 10940
-0.248 2.015 1.675 12397
-0.248 2.013 1.664 19082
-0.248 2.011 1.653 20062
-0.248 2.016 1.647 13668
-0.259 2.103 1.702 9991
-0.259 2.107 1.696 14126
-0.259 2.105 1.685 15390
-0.260 2.110 1.678 11346
-0.262 2.127 1.681 6529
-0.268 2.176 1.707 8727
-0.268 2.181 1.700 13631
-0.269 2.185 1.694 14673
-0.270 2.190 1.687 13445
-0.269 2.188 1.676 11058
-0.270 2.192 1.670 6937
-0.284 2.307 1.739 11576
-0.284 2.305 1.728 19468
-0.284 2.303 1.716 24135
-0.284 2.308 1.709 21803
-0.285 2.319 1.707 17718
-0.287 2.330 1.704 17595
-0.287 2.335 1.698 18266
-0.288 2.339 1.691 16333
-0.289 2.350 1.688 15560
-0.291 2.361 1.685 17430
-0.291 2.366 1.678 16548
-0.293 2.377 1.675 11869
-0.297 2.414 1.689 9154
-0.299 2.432 1.691 12032
-0.302 2.457 1.696 20657
-0.304 2.468 1.693 25503
-0.303 2.466 1.681 26767
-0.304 2.470 1.674 23023
-0.305 2.481 1.671 18126
-0.306 2.486 1.663 12371
-0.308 2.503 1.664 10464
-0.310 2.515 1.661 14531
-0.310 2.519 1.653 16973
-0.311 2.523 1.646 19416
-0.311 2.528 1.638 17505
-0.313 2.539 1.635 12041
-0.315 2.557 1.635 9455
-0.315 2.561 1.627 7083
-0.334 2.716 1.705 7578
-0.337 2.734 1.705 6289
-0.320 2.601 1.620 6246
-0.338 2.750 1.693 6646
-0.339 2.754 1.684 5418
-0.340 2.759 1.676 4190
-0.349 2.832 1.706 4813
-0.350 2.844 1.701 6585
-0.351 2.848 1.693 8019
-0.351 2.853 1.684 9453
-0.353 2.864 1.680 7717
-0.354 2.875 1.675 6447
-0.354 2.873 1.663 4594
-0.366 2.975 1.705 5626
-0.367 2.979 1.696 5562
-0.364 2.956 1.673 5771
-0.370 3.002 1.685 6525
-0.371 3.014 1.680 7954
-0.372 3.018 1.671 7666
-0.373 3.030 1.666 7385
-0.374 3.041 1.660 6593
-0.377 3.060 1.658 6248
-0.376 3.057 1.646 6636
-0.377 3.061 1.636 7115
-0.394 3.200 1.692 5843
-0.395 3.212 1.686 6384
-0.402 3.266 1.700 6610
-0.403 3.271 1.690 8299
-0.403 3.275 1.680 8299
-0.404 3.280 1.671 7588
-0.399 3.241 1.641 8145
-0.399 3.245 1.632 6831
-0.398 3.235 1.616 5869
-0.420 3.412 1.683 4496
-0.421 3.416 1.673 5607
-0.421 3.421 1.663 5607
-0.422 3.425 1.653 2803
-0.076 0.652 1.667 15192
-0.077 0.657 1.665 15958
-0.078 0.665 1.670 17116
-0.079 0.672 1.675 18250
-0.079 0.677 1.673 19913
-0.080 0.681 1.671 19913
-0.080 0.682 1.662 19042
-0.079 0.680 1.645 20539
-0.080 0.684 1.643 19406
-0.080 0.688 1.641 18272
-0.081 0.693 1.639 14550
-0.081 0.697 1.637 10828
-0.082 0.705 1.642 11035
-0.084 0.716 1.654 11994
-0.084 0.721 1.652 13114
-0.084 0.721 1.642 14830
-0.085 0.726 1.640 14379
-0.086 0.737 1.652 13247
-0.087 0.749 1.664 13445
-0.088 0.757 1.669 12607
-0.089 0.765 1.674 12013
-0.090 0.769 1.671 12796
-0.091 0.777 1.676 13594
-0.091 0.782 1.674 12289
-0.093 0.793 1.685 11447
-0.093 0.798 1.683 14010
-0.094 0.806 1.687 16688
-0.095 0.814 1.692 17008
-0.096 0.823 1.696 18263
-0.097 0.827 1.694 20250
-0.097 0.832 1.691 21066
-0.098 0.836 1.689 19659
-0.098 0.840 1.686 14891
-0.100 0.853 1.697 10560
-0.099 0.849 1.681 10627
-0.100 0.854 1.679 10894
-0.100 0.854 1.669 11845
-0.100 0.859 1.667 13931
-0.101 0.867 1.671 16126
-0.102 0.875 1.675 20396
-0.103 0.880 1.672 23714
-0.103 0.884 1.670 20476
-0.104 0.893 1.674 16530
-0.105 0.897 1.671 15127
-0.107 0.914 1.689 18450
-0.107 0.918 1.686 22262
-0.108 0.927 1.690 20381
-0.109 0.931 1.687 18817
-0.109 0.936 1.684 18938
-0.110 0.940 1.681 21678
-0.111 0.949 1.685 26687
-0.111 0.953 1.682 29337
-0.112 0.958 1.680 27157
-0.112 0.962 1.677 34343
-0.113 0.967 1.674 43710
-0.113 0.967 1.664 42325
-0.114 0.971 1.661 40104
-0.114 0.976 1.658 37838
-0.115 0.980 1.655 32725
-0.115 0.980 1.646 24655
-0.116 0.989 1.650 18047
-0.117 1.002 1.660 14996
-0.121 1.037 1.702 19080
-0.121 1.038 1.693 25419
-0.122 1.042 1.690 32720
-0.122 1.046 1.686 37837
-0.123 1.055 1.690 32581
-0.124 1.064 1.693 23825
-0.125 1.073 1.696 23143
-0.127 1.083 1.700 25401
-0.127 1.087 1.696 22458
-0.127 1.087 1.687 16206
-0.128 1.091 1.683 12028
-0.130 1.110 1.699 15917
-0.131 1.119 1.702 15025
-0.130 1.114 1.686 11582
-0.131 1.119 1.683 13945
-0.132 1.128 1.686 15968
-0.132 1.132 1.682 17017
-0.134 1.146 1.692 21322
-0.135 1.155 1.694 29345
-0.135 1.155 1.685 29345
-0.135 1.155 1.675 30802
-0.136 1.164 1.678 31810
-0.137 1.168 1.674 24150
-0.137 1.173 1.671 13887
-0.139 1.192 1.686 15351
-0.140 1.201 1.689 21125
-0.141 1.206 1.685 20200
-0.141 1.205 1.675 18166
-0.141 1.210 1.672 13887
-0.142 1.214 1.668 7401
-0.142 1.218 1.664 8557
-0.144 1.228 1.667 18891
-0.144 1.232 1.663 29999
-0.145 1.242 1.665 29419
-0.146 1.251 1.668 24953
-0.147 1.256 1.664 24227
-0.148 1.265 1.666 21267
-0.149 1.275 1.668 19527
-0.149 1.274 1.659 14799
-0.150 1.283 1.661 16385
-0.151 1.293 1.663 23119
-0.152 1.297 1.659 21928
-0.153 1.312 1.667 16090
-0.155 1.327 1.675 12279
-0.156 1.331 1.671 12516
-0.157 1.341 1.673 23151
-0.158 1.351 1.675 35285
-0.158 1.355 1.671 40361
-0.159 1.360 1.667 35444
-0.159 1.359 1.657 20177
-0.161 1.374 1.664 13949
-0.162 1.383 1.666 16552
-0.162 1.388 1.662 13838
-0.163 1.392 1.658 9538
-0.164 1.407 1.665 5243
-0.166 1.423 1.672 7229
-0.166 1.422 1.662 15893
-0.167 1.431 1.664 24428
-0.169 1.447 1.671 22495
-0.173 1.479 1.695 20500
-0.173 1.483 1.690 24346
-0.173 1.482 1.680 24182
-0.174 1.492 1.682 17676
-0.177 1.513 1.694 9035
-0.177 1.518 1.689 6474
-0.179 1.528 1.690 10920
-0.180 1.538 1.691 11317
-0.181 1.548 1.692 13568
-0.181 1.552 1.688 19192
-0.181 1.551 1.678 16979
-0.182 1.561 1.678 13765
-0.184 1.571 1.679 12110
-0.184 1.576 1.675 9303
-0.185 1.586 1.675 19525
-0.186 1.590 1.671 42500
-0.186 1.595 1.666 45404
-0.187 1.599 1.661 30960
-0.189 1.615 1.667 17241
-0.190 1.625 1.668 9759
-0.195 1.670 1.700 15910
-0.196 1.681 1.700 26949
-0.197 1.685 1.695 20055
-0.197 1.690 1.690 11703
-0.199 1.700 1.691 10920
-0.201 1.722 1.701 13984
-0.202 1.733 1.701 14405
-0.203 1.737 1.696 10090
-0.205 1.753 1.701 13741
-0.205 1.752 1.691 23699
-0.205 1.756 1.686 29366
-0.207 1.767 1.686 27935
-0.207 1.771 1.680 17859
-0.208 1.782 1.680 10016
-0.209 1.792 1.680 13777
-0.210 1.797 1.675 18551
-0.210 1.795 1.664 17208
-0.211 1.805 1.664 11815
-0.213 1.822 1.669 9671
-0.215 1.839 1.673 14364
-0.215 1.843 1.668 19519
-0.215 1.841 1.657 13859
-0.218 1.864 1.667 7336
-0.220 1.881 1.671 7204
-0.222 1.898 1.675 10410
-0.223 1.908 1.674 19006
-0.224 1.919 1.674 19115
-0.227 1.942 1.682 14306
-0.229 1.959 1.686 16893
-0.231 1.976 1.690 16991
-0.231 1.980 1.684 18038
-0.231 1.978 1.674 19510
-0.232 1.983 1.668 19069
-0.233 1.993 1.666 14248
-0.235 2.010 1.670 13997
-0.235 2.015 1.664 19273
-0.235 2.013 1.653 17635
-0.236 2.017 1.647 11258
-0.245 2.098 1.697 10486
-0.246 2.109 1.696 17044
-0.246 2.107 1.685 19014
-0.247 2.111 1.678 15185
-0.248 2.122 1.677 8383
-0.252 2.152 1.689 7480
-0.255 2.183 1.700 11152
-0.255 2.181 1.689 12565
-0.255 2.185 1.683 12329
-0.256 2.189 1.676 10199
-0.257 2.200 1.674 7067
-0.270 2.309 1.739 9680
-0.270 2.314 1.732 15465
-0.270 2.312 1.721 19023
-0.271 2.316 1.714 17954
-0.271 2.321 1.707 17302
-0.273 2.332 1.704 16942
-0.273 2.336 1.698 15808
-0.274 2.341 1.691 15081
-0.275 2.352 1.688 15405
-0.276 2.363 1.685 16531
-0.277 2.367 1.678 15831
-0.278 2.378 1.675 12056
-0.282 2.416 1.689 9868
-0.285 2.441 1.695 13401
-0.287 2.458 1.696 20922
-0.288 2.463 1.689 24082
-0.288 2.467 1.681 24454
-0.289 2.472 1.674 20544
-0.289 2.476 1.667 16263
-0.290 2.481 1.659 12626
-0.293 2.505 1.664 11307
-0.294 2.516 1.661 15033
-0.295 2.521 1.653 17634
-0.295 2.525 1.646 20235
-0.296 2.529 1.638 18802
-0.297 2.541 1.635 13598
-0.299 2.559 1.635 10995
-0.300 2.570 1.631 8364
-0.318 2.725 1.709 6960
-0.305 2.606 1.631 7155
-0.304 2.603 1.620 7602
-0.306 2.614 1.616 8028
-0.306 2.618 1.608 7347
-0.307 2.623 1.600 6192
-0.331 2.834 1.706 5061
-0.333 2.846 1.701 7123
-0.333 2.850 1.693 8408
-0.334 2.855 1.684 9692
-0.334 2.859 1.676 8133
-0.335 2.871 1.671 6878
-0.335 2.868 1.659 5131
-0.347 2.970 1.701 4429
-0.345 2.954 1.682 4575
-0.346 2.958 1.673 5081
-0.350 2.998 1.682 5685
-0.352 3.009 1.676 7069
-0.352 3.014 1.668 6378
-0.354 3.025 1.662 5728
-0.356 3.043 1.660 6346
-0.358 3.062 1.658 7944
-0.358 3.066 1.649 8199
-0.359 3.071 1.640 8534
-0.374 3.203 1.692 6815
-0.375 3.207 1.682 7519
-0.375 3.212 1.673 6789
-0.383 3.280 1.694 8276
-0.384 3.285 1.684 8276
-0.385 3.296 1.677 7836
-0.379 3.243 1.641 7945
-0.379 3.241 1.629 6847
-0.378 3.238 1.616 5885
-0.399 3.414 1.683 4580
-0.400 3.419 1.673 5787
-0.400 3.423 1.663 5787
-0.401 3.428 1.653 2893
-0.074 0.653 1.667 15044
-0.075 0.657 1.665 15767
-0.076 0.665 1.670 16908
-0.077 0.672 1.675 18173
-0.078 0.680 1.680 19942
-0.078 0.685 1.678 19942
-0.078 0.682 1.662 19526
-0.077 0.680 1.645 21626
-0.078 0.684 1.643 20603
-0.078 0.689 1.641 19580
-0.079 0.693 1.639 15474
-0.079 0.697 1.637 11367
-0.080 0.705 1.642 11153
-0.082 0.720 1.661 11976
-0.082 0.721 1.652 13149
-0.082 0.722 1.642 14827
-0.083 0.726 1.640 14229
-0.084 0.737 1.652 13233
-0.085 0.749 1.664 13620
-0.086 0.757 1.669 12421
-0.087 0.765 1.674 11549
-0.088 0.773 1.678 12268
-0.089 0.777 1.676 13155
-0.090 0.786 1.681 11727
-0.090 0.794 1.685 10689
-0.091 0.798 1.683 13080
-0.092 0.806 1.687 15665
-0.093 0.815 1.692 16086
-0.094 0.823 1.696 17344
-0.094 0.827 1.694 19117
-0.095 0.832 1.691 19781
-0.095 0.836 1.689 18416
-0.096 0.841 1.686 14057
-0.097 0.849 1.691 10068
-0.097 0.850 1.681 10129
-0.097 0.854 1.679 10304
-0.097 0.855 1.669 11301
-0.098 0.859 1.667 13471
-0.099 0.867 1.671 15911
-0.100 0.876 1.675 20519
-0.100 0.880 1.672 23926
-0.101 0.885 1.670 20664
-0.102 0.893 1.674 16755
-0.103 0.902 1.678 15353
-0.104 0.914 1.689 18923
-0.105 0.919 1.686 22700
-0.106 0.927 1.690 20934
-0.106 0.932 1.687 19121
-0.107 0.940 1.691 19064
-0.107 0.941 1.681 21274
-0.108 0.949 1.685 25674
-0.109 0.954 1.682 28446
-0.109 0.958 1.680 26673
-0.110 0.963 1.677 33411
-0.110 0.967 1.674 41922
-0.110 0.967 1.664 39662
-0.111 0.972 1.661 37576
-0.111 0.976 1.658 36412
-0.112 0.980 1.655 30745
-0.112 0.985 1.653 22595
-0.113 0.989 1.650 16952
-0.118 1.033 1.705 15870
-0.118 1.033 1.696 20754
-0.118 1.038 1.693 27347
-0.119 1.042 1.690 33273
-0.119 1.047 1.686 37576
-0.120 1.056 1.690 32132
-0.121 1.065 1.693 22244
-0.122 1.074 1.696 20110
-0.123 1.083 1.700 22889
-0.124 1.087 1.696 21101
-0.124 1.087 1.687 16099
-0.124 1.092 1.683 11882
-0.127 1.110 1.699 13908
-0.128 1.124 1.709 13850
-0.127 1.114 1.686 11892
-0.128 1.119 1.683 14645
-0.129 1.128 1.686 16664
-0.129 1.133 1.682 17312
-0.131 1.147 1.692 20745
-0.132 1.156 1.694 29629
-0.132 1.155 1.685 30767
-0.132 1.155 1.675 32136
-0.133 1.164 1.678 32573
-0.133 1.169 1.674 25109
-0.134 1.173 1.671 15499
-0.136 1.192 1.686 19115
-0.137 1.202 1.689 25006
-0.137 1.206 1.685 22835
-0.137 1.206 1.675 19226
-0.138 1.210 1.672 14315
-0.138 1.214 1.668 7592
-0.139 1.219 1.664 8647
-0.140 1.228 1.667 18931
-0.140 1.233 1.663 30763
-0.142 1.242 1.665 31684
-0.143 1.257 1.674 27321
-0.143 1.256 1.664 25531
-0.144 1.265 1.666 22061
-0.145 1.275 1.668 19273
-0.145 1.274 1.659 14955
-0.146 1.284 1.661 16339
-0.147 1.293 1.663 22823
-0.148 1.303 1.665 22312
-0.150 1.313 1.667 17161
-0.151 1.322 1.669 12935
-0.152 1.332 1.671 14508
-0.153 1.341 1.673 25892
-0.154 1.351 1.675 35700
-0.154 1.356 1.671 40668
-0.154 1.355 1.661 37327
-0.155 1.359 1.657 22094
-0.156 1.369 1.658 15308
-0.158 1.384 1.666 16493
-0.159 1.394 1.668 13561
-0.159 1.393 1.658 9916
-0.160 1.408 1.665 5456
-0.162 1.423 1.672 7879
-0.162 1.422 1.662 17136
-0.163 1.432 1.664 25537
-0.165 1.447 1.671 24605
-0.168 1.474 1.689 20524
-0.170 1.489 1.696 20811
-0.169 1.483 1.680 19940
-0.170 1.493 1.682 16640
-0.173 1.514 1.694 10616
-0.173 1.518 1.689 8472
-0.174 1.528 1.690 12600
-0.175 1.538 1.691 13061
-0.176 1.548 1.692 13014
-0.177 1.553 1.688 13665
-0.177 1.557 1.683 12800
-0.178 1.562 1.678 14509
-0.179 1.572 1.679 15205
-0.180 1.576 1.675 14017
-0.181 1.586 1.675 24186
-0.181 1.591 1.671 45328
-0.182 1.595 1.666 45556
-0.182 1.600 1.661 29504
-0.183 1.610 1.662 16227
-0.186 1.632 1.673 9618
-0.190 1.671 1.700 13972
-0.192 1.681 1.700 22999
-0.192 1.686 1.695 17590
-0.193 1.690 1.690 10944
-0.194 1.701 1.691 9787
-0.196 1.723 1.701 12242
-0.197 1.727 1.696 13023
-0.198 1.738 1.696 8856
-0.200 1.754 1.701 11195
-0.200 1.753 1.691 19483
-0.200 1.757 1.686 25728
-0.201 1.767 1.686 26420
-0.203 1.778 1.685 17578
-0.203 1.782 1.680 8842
-0.204 1.793 1.680 11174
-0.205 1.797 1.675 15786
-0.205 1.796 1.664 15280
-0.207 1.812 1.669 10458
-0.208 1.823 1.669 8281
-0.210 1.839 1.673 11758
-0.210 1.844 1.668 15066
-0.211 1.848 1.662 10330
-0.212 1.859 1.662 5841
-0.213 1.869 1.661 6007
-0.216 1.898 1.675 8976
-0.218 1.909 1.674 17581
-0.219 1.919 1.674 17938
-0.221 1.942 1.682 13360
-0.223 1.959 1.686 15121
-0.225 1.970 1.685 15310
-0.226 1.981 1.684 16518
-0.226 1.979 1.674 18895
-0.226 1.983 1.668 19488
-0.227 1.988 1.662 15426
-0.229 2.011 1.670 13906
-0.230 2.016 1.664 17710
-0.229 2.014 1.653 15486
-0.230 2.018 1.647 9585
-0.239 2.099 1.697 10572
-0.240 2.110 1.696 17333
-0.241 2.114 1.689 19570
-0.241 2.118 1.683 16424
-0.243 2.129 1.681 10740
-0.245 2.147 1.684 8798
-0.247 2.164 1.687 9473
-0.249 2.181 1.689 11140
-0.248 2.179 1.678 11451
-0.249 2.184 1.672 9501
-0.252 2.214 1.683 6785
-0.263 2.310 1.739 7817
-0.264 2.314 1.732 12299
-0.264 2.312 1.721 15134
-0.264 2.317 1.714 15259
-0.265 2.321 1.707 16967
-0.266 2.333 1.704 17023
-0.266 2.337 1.698 15606
-0.267 2.342 1.691 14717
-0.268 2.353 1.688 14498
-0.269 2.364 1.685 14867
-0.270 2.368 1.678 14254
-0.271 2.379 1.675 11438
-0.275 2.410 1.685 10233
-0.277 2.435 1.691 13638
-0.280 2.459 1.696 20001
-0.281 2.464 1.689 22394
-0.281 2.468 1.681 22374
-0.282 2.473 1.674 18664
-0.282 2.477 1.667 14972
-0.283 2.481 1.659 12400
-0.286 2.506 1.664 11038
-0.287 2.517 1.661 14147
-0.287 2.522 1.653 16681
-0.288 2.526 1.646 19215
-0.288 2.530 1.638 18013
-0.290 2.541 1.635 13145
-0.292 2.559 1.635 10637
-0.293 2.571 1.631 8111
-0.297 2.609 1.643 6434
-0.297 2.607 1.631 6608
-0.298 2.611 1.624 6862
-0.298 2.615 1.616 7730
-0.298 2.619 1.608 7780
-0.299 2.624 1.600 6962
-0.299 2.628 1.593 5433
-0.324 2.847 1.701 6879
-0.325 2.851 1.693 7952
-0.325 2.856 1.684 9025
-0.326 2.860 1.676 7736
-0.327 2.872 1.671 6611
-0.327 2.869 1.659 5099
-0.326 2.859 1.643 3992
-0.337 2.955 1.682 4273
-0.336 2.952 1.669 4797
-0.341 2.992 1.678 5110
-0.342 3.003 1.673 6367
-0.344 3.015 1.668 5565
-0.344 3.019 1.659 4795
-0.348 3.052 1.664 6057
-0.349 3.063 1.658 8089
-0.350 3.074 1.652 8345
-0.351 3.079 1.643 8692
-0.365 3.204 1.692 6743
-0.366 3.208 1.682 7498
-0.365 3.206 1.670 6812
-0.375 3.289 1.697 7757
-0.375 3.293 1.687 7757
-0.377 3.305 1.681 7648
-0.379 3.323 1.677 7968
-0.378 3.321 1.664 6557
-0.369 3.239 1.616 5542
-0.378 3.315 1.638 4402
-0.390 3.420 1.673 5519
-0.390 3.424 1.663 5519
-0.391 3.429 1.653 2759
-0.073 0.653 1.667 14885
-0.073 0.657 1.665 16004
-0.074 0.665 1.670 17784
-0.075 0.673 1.675 19376
-0.076 0.677 1.673 21277
-0.076 0.681 1.671 21277
-0.076 0.679 1.654 21490
-0.076 0.680 1.645 24436
-0.076 0.685 1.643 23544
-0.077 0.689 1.641 22653
-0.077 0.693 1.639 17760
-0.078 0.698 1.637 12867
-0.078 0.702 1.635 12093
-0.080 0.720 1.661 12294
-0.081 0.721 1.652 13818
-0.081 0.722 1.642 15945
-0.081 0.726 1.640 15263
-0.082 0.738 1.652 14226
-0.084 0.749 1.664 14740
-0.085 0.757 1.669 12837
-0.085 0.765 1.674 11456
-0.086 0.773 1.678 12284
-0.087 0.781 1.683 13283
-0.088 0.789 1.688 11525
-0.089 0.794 1.685 10088
-0.090 0.802 1.690 12417
-0.090 0.807 1.687 14775
-0.091 0.815 1.692 15144
-0.092 0.823 1.696 16268
-0.092 0.828 1.694 17722
-0.093 0.832 1.691 18182
-0.093 0.836 1.689 16888
-0.094 0.841 1.686 13053
-0.095 0.849 1.691 9566
-0.095 0.850 1.681 9591
-0.095 0.854 1.679 9664
-0.095 0.855 1.669 10964
-0.096 0.855 1.660 13452
-0.096 0.864 1.664 16230
-0.098 0.876 1.675 21088
-0.098 0.880 1.672 24581
-0.099 0.885 1.670 21230
-0.100 0.893 1.674 17134
-0.101 0.902 1.678 15820
-0.102 0.914 1.689 19668
-0.103 0.923 1.693 23613
-0.104 0.928 1.690 21858
-0.105 0.936 1.694 19808
-0.105 0.941 1.691 19631
-0.105 0.941 1.681 20902
-0.106 0.945 1.679 24318
-0.107 0.954 1.682 26828
-0.107 0.954 1.673 25570
-0.108 0.963 1.677 31681
-0.108 0.967 1.674 39079
-0.108 0.967 1.664 36502
-0.109 0.972 1.661 34176
-0.109 0.976 1.658 33297
-0.110 0.981 1.655 27891
-0.110 0.981 1.646 19772
-0.111 0.989 1.650 15033
-0.115 1.034 1.705 15642
-0.115 1.034 1.696 20869
-0.116 1.038 1.693 27955
-0.116 1.043 1.690 33529
-0.117 1.047 1.686 37661
-0.117 1.052 1.683 32521
-0.119 1.065 1.693 20862
-0.120 1.074 1.696 16983
-0.121 1.079 1.693 20815
-0.121 1.083 1.690 21134
-0.121 1.083 1.680 17226
-0.121 1.087 1.677 12716
-0.124 1.106 1.693 11795
-0.126 1.124 1.709 13036
-0.124 1.110 1.680 14313
-0.125 1.114 1.677 15872
-0.126 1.128 1.686 17445
-0.127 1.133 1.682 17981
-0.128 1.147 1.692 20919
-0.129 1.156 1.694 31054
-0.129 1.156 1.685 34057
-0.129 1.155 1.675 35582
-0.130 1.165 1.678 35207
-0.131 1.169 1.674 27327
-0.132 1.178 1.677 18057
-0.133 1.193 1.686 23493
-0.134 1.202 1.689 29424
-0.135 1.206 1.685 25956
-0.135 1.211 1.681 20628
-0.136 1.215 1.678 14862
-0.136 1.220 1.674 7510
-0.136 1.219 1.664 8281
-0.137 1.229 1.667 19171
-0.138 1.233 1.663 32457
-0.139 1.242 1.665 34972
-0.140 1.257 1.674 30604
-0.141 1.261 1.670 26140
-0.141 1.266 1.666 21351
-0.142 1.275 1.668 17684
-0.142 1.275 1.659 14516
-0.143 1.284 1.661 15198
-0.145 1.294 1.663 20560
-0.146 1.303 1.665 21865
-0.147 1.313 1.667 18348
-0.148 1.322 1.669 14222
-0.149 1.332 1.671 16316
-0.150 1.342 1.673 29016
-0.150 1.346 1.669 37930
-0.151 1.356 1.671 41705
-0.151 1.355 1.661 39923
-0.152 1.359 1.657 25285
-0.153 1.369 1.658 18796
-0.155 1.384 1.666 18599
-0.156 1.394 1.668 14976
-0.156 1.393 1.658 11656
-0.157 1.408 1.665 7231
-0.158 1.418 1.667 8967
-0.159 1.422 1.662 17614
-0.159 1.427 1.658 25558
-0.162 1.448 1.671 26145
-0.163 1.463 1.678 21603
-0.166 1.484 1.690 17527
-0.166 1.489 1.686 16932
-0.167 1.499 1.687 18331
-0.169 1.514 1.694 12828
-0.170 1.519 1.689 10375
-0.171 1.529 1.690 12960
-0.172 1.539 1.691 17127
-0.172 1.543 1.687 18741
-0.173 1.548 1.682 13524
-0.173 1.552 1.678 10891
-0.175 1.562 1.678 15116
-0.176 1.572 1.679 18090
-0.176 1.577 1.675 19040
-0.177 1.581 1.670 30139
-0.178 1.591 1.671 48463
-0.178 1.590 1.660 45519
-0.178 1.594 1.656 27921
-0.180 1.610 1.662 15319
-0.182 1.632 1.673 9221
-0.186 1.666 1.695 11623
-0.188 1.682 1.700 18295
-0.188 1.686 1.695 14337
-0.189 1.691 1.690 9634
-0.190 1.701 1.691 8478
-0.192 1.717 1.696 9674
-0.193 1.728 1.696 10347
-0.194 1.738 1.696 6768
-0.196 1.754 1.701 8206
-0.196 1.753 1.691 14577
-0.196 1.757 1.686 20957
-0.198 1.768 1.686 23602
-0.199 1.778 1.685 16755
-0.200 1.789 1.685 7896
-0.201 1.799 1.685 8509
-0.201 1.798 1.675 12072
-0.201 1.802 1.669 12650
-0.203 1.813 1.669 9080
-0.204 1.829 1.674 7270
-0.206 1.840 1.673 9465
-0.206 1.844 1.668 11001
-0.207 1.849 1.662 7197
-0.208 1.859 1.662 4510
-0.208 1.857 1.651 5577
-0.211 1.893 1.670 7558
-0.214 1.915 1.679 15558
-0.215 1.926 1.678 16097
-0.217 1.943 1.682 11823
-0.220 1.966 1.691 12635
-0.220 1.971 1.685 13585
-0.221 1.975 1.679 15626
-0.220 1.973 1.669 18525
-0.222 1.984 1.668 20306
-0.222 1.988 1.662 17414
-0.224 2.005 1.665 14265
-0.225 2.016 1.664 15570
-0.226 2.020 1.658 13362
-0.228 2.037 1.661 8551
-0.235 2.099 1.697 10802
-0.236 2.110 1.696 17653
-0.236 2.115 1.689 20344
-0.237 2.119 1.683 18183
-0.238 2.130 1.681 13818
-0.239 2.141 1.679 10871
-0.240 2.145 1.673 9878
-0.242 2.162 1.676 10851
-0.242 2.167 1.669 11512
-0.243 2.171 1.663 9488
-0.241 2.156 1.643 7226
-0.249 2.232 1.686 8089
-0.251 2.243 1.683 8799
-0.258 2.313 1.721 10561
-0.258 2.311 1.709 12756
-0.259 2.315 1.703 17819
-0.260 2.327 1.700 19405
-0.261 2.338 1.698 18210
-0.262 2.349 1.695 16448
-0.263 2.353 1.688 14074
-0.264 2.364 1.685 12980
-0.265 2.369 1.678 12634
-0.266 2.380 1.675 11450
-0.269 2.404 1.681 11756
-0.272 2.435 1.691 14535
-0.274 2.453 1.692 19559
-0.275 2.464 1.689 21202
-0.276 2.469 1.681 20496
-0.276 2.467 1.670 16616
-0.277 2.478 1.667 13432
-0.277 2.482 1.659 12130
-0.279 2.500 1.660 11058
-0.281 2.518 1.661 13034
-0.282 2.522 1.653 15452
-0.282 2.527 1.646 17869
-0.283 2.531 1.638 16850
-0.284 2.542 1.635 12298
-0.286 2.560 1.635 10086
-0.287 2.571 1.631 7697
-0.292 2.610 1.643 5755
-0.291 2.600 1.628 5807
-0.291 2.605 1.620 5871
-0.292 2.616 1.616 7043
-0.293 2.620 1.608 7667
-0.293 2.624 1.600 7089
-0.294 2.628 1.593 5499
-0.317 2.840 1.697 6925
-0.318 2.845 1.689 7614
-0.318 2.849 1.681 8304
-0.320 2.861 1.676 7262
-0.320 2.865 1.667 6310
-0.320 2.863 1.655 5164
-0.320 2.860 1.643 4237
-0.329 2.948 1.678 4267
-0.330 2.953 1.669 4951
-0.331 2.964 1.664 4897
-0.335 2.997 1.669 5826
-0.336 3.008 1.664 4854
-0.351 3.140 1.718 4388
-0.342 3.059 1.667 5861
-0.343 3.071 1.662 8421
-0.344 3.075 1.652 8795
-0.345 3.087 1.647 9267
-0.358 3.205 1.692 6827
-0.359 3.209 1.682 7707
-0.358 3.206 1.670 7144
-0.368 3.296 1.700 7507
-0.369 3.301 1.690 7507
-0.370 3.313 1.684 7976
-0.371 3.324 1.677 8693
-0.371 3.321 1.664 7094
-0.371 3.319 1.651 5759
-0.370 3.316 1.638 4642
-0.382 3.421 1.673 5434
-0.383 3.425 1.663 5434
-0.383 3.430 1.653 2717
-0.071 0.653 1.667 14843
-0.072 0.661 1.672 15889
-0.073 0.665 1.670 17662
-0.073 0.673 1.675 19321
-0.074 0.677 1.673 21213
-0.074 0.682 1.671 21213
-0.074 0.679 1.654 22020
-0.074 0.680 1.645 25432
-0.075 0.685 1.643 24601
-0.075 0.689 1.641 23770
-0.076 0.693 1.639 18524
-0.076 0.698 1.637 13279
-0.077 0.702 1.635 12371
-0.079 0.724 1.668 12075
-0.078 0.718 1.645 13862
-0.079 0.722 1.642 16255
-0.079 0.726 1.640 15514
-0.081 0.738 1.652 14552
-0.082 0.749 1.664 15190
-0.083 0.757 1.669 12713
-0.084 0.769 1.681 10885
-0.085 0.777 1.685 11743
-0.085 0.781 1.683 12785
-0.086 0.790 1.688 11000
-0.087 0.798 1.692 9451
-0.088 0.802 1.690 11571
-0.088 0.807 1.687 13691
-0.089 0.815 1.692 14096
-0.090 0.823 1.696 15145
-0.090 0.828 1.694 16211
-0.091 0.832 1.691 16410
-0.091 0.837 1.689 15272
-0.092 0.841 1.686 12000
-0.092 0.846 1.684 9000
-0.093 0.850 1.681 8966
-0.093 0.851 1.672 8970
-0.093 0.855 1.669 10493
-0.093 0.855 1.660 13237
-0.094 0.864 1.664 16104
-0.096 0.876 1.675 20920
-0.096 0.881 1.672 24293
-0.097 0.885 1.670 20984
-0.098 0.894 1.674 16878
-0.099 0.902 1.678 15520
-0.100 0.915 1.689 19286
-0.101 0.923 1.693 23191
-0.101 0.928 1.690 21879
-0.102 0.936 1.694 20286
-0.103 0.941 1.691 20209
-0.103 0.941 1.681 20571
-0.103 0.946 1.679 22972
-0.104 0.954 1.682 24911
-0.104 0.954 1.673 24187
-0.105 0.963 1.677 29407
-0.106 0.968 1.674 35833
-0.106 0.968 1.664 32722
-0.106 0.972 1.661 30271
-0.107 0.981 1.665 30041
-0.107 0.981 1.655 24850
-0.108 0.985 1.653 16772
-0.113 1.034 1.715 15154
-0.113 1.034 1.705 15886
-0.113 1.034 1.696 21187
-0.113 1.038 1.693 28011
-0.114 1.043 1.690 32705
-0.114 1.047 1.686 36422
-0.115 1.052 1.683 31551
-0.116 1.065 1.693 19251
-0.117 1.074 1.696 14603
-0.118 1.079 1.693 19386
-0.118 1.079 1.683 21226
-0.118 1.083 1.680 18257
-0.118 1.083 1.671 13921
-0.120 1.097 1.680 11230
-0.121 1.106 1.683 13211
-0.121 1.110 1.680 16903
-0.122 1.115 1.677 16383
-0.123 1.129 1.686 16647
-0.124 1.133 1.682 17374
-0.125 1.147 1.692 20534
-0.126 1.152 1.688 31177
-0.126 1.151 1.678 35591
-0.126 1.156 1.675 37586
