0.897 1.662 1.613 16591
0.899 1.666 1.607 23810
0.901 1.669 1.602 24760
0.903 1.673 1.596 20166
0.905 1.677 1.591 14806
0.907 1.680 1.585 14588
0.909 1.684 1.579 17393
0.911 1.688 1.574 15252
0.913 1.691 1.568 13547
0.921 1.706 1.572 12919
0.929 1.721 1.575 13713
0.934 1.731 1.574 15505
0.939 1.740 1.573 14116
0.935 1.732 1.558 9785
0.931 1.724 1.543 8302
0.933 1.728 1.537 8151
0.935 1.732 1.531 8934
0.940 1.741 1.530 8398
0.957 1.773 1.546 8899
0.959 1.777 1.540 14109
0.958 1.775 1.530 16471
0.963 1.784 1.529 14513
1.046 1.938 1.637 9565
1.061 1.965 1.648 10789
1.069 1.980 1.650 12972
1.078 1.996 1.652 15048
1.083 2.006 1.650 11981
1.082 2.004 1.639 8140
1.084 2.007 1.632 9183
1.095 2.029 1.638 11914
1.101 2.039 1.636 11388
1.109 2.054 1.637 8633
1.114 2.064 1.635 6616
1.113 2.062 1.624 5599
1.138 2.107 1.646 4412
1.136 2.105 1.635 4987
1.139 2.109 1.628 5179
1.121 2.077 1.596 6362
1.123 2.080 1.589 8002
1.128 2.090 1.586 9214
1.130 2.094 1.579 10147
1.132 2.097 1.572 8371
1.138 2.107 1.569 5023
1.208 2.237 1.646 4762
1.161 2.151 1.579 4855
1.176 2.178 1.587 5921
1.178 2.182 1.580 5740
1.255 2.325 1.663 5660
1.254 2.323 1.651 5969
1.256 2.327 1.643 4763
1.294 2.397 1.678 6434
1.297 2.401 1.670 9308
1.299 2.405 1.662 9093
1.297 2.403 1.650 9008
1.300 2.407 1.642 8345
1.302 2.411 1.634 7683
1.314 2.433 1.637 12173
1.316 2.437 1.629 17538
1.321 2.447 1.624 17775
1.326 2.457 1.620 18657
1.332 2.467 1.615 14075
1.334 2.470 1.607 9589
1.336 2.474 1.599 7540
1.375 2.546 1.630 6335
1.380 2.556 1.625 6497
1.386 2.566 1.620 6805
1.421 2.632 1.646 6449
1.420 2.630 1.634 8065
1.425 2.640 1.629 6784
1.448 2.681 1.641 6339
1.463 2.710 1.646 4959
1.482 2.746 1.654 5582
1.505 2.787 1.665 5691
1.507 2.791 1.655 6239
1.509 2.795 1.646 4447
1.566 2.900 1.690 5234
1.568 2.904 1.680 5234
1.566 2.901 1.667 5269
1.565 2.899 1.655 5458
1.595 2.954 1.671 4217
1.597 2.957 1.661 5034
1.599 2.961 1.651 6555
1.601 2.965 1.641 8077
1.603 2.969 1.631 8077
1.605 2.973 1.621 4038
0.320 0.588 1.695 21344
0.322 0.592 1.693 15980
0.326 0.599 1.699 10908
0.328 0.603 1.697 9194
0.330 0.607 1.694 7481
0.332 0.611 1.692 7481
0.331 0.609 1.676 9825
0.333 0.613 1.674 12210
0.336 0.617 1.672 14399
0.339 0.624 1.677 16630
0.342 0.628 1.675 17538
0.344 0.632 1.672 18447
0.346 0.636 1.670 17208
0.348 0.640 1.668 15970
0.352 0.647 1.673 15509
0.350 0.644 1.657 11518
0.349 0.642 1.640 9603
0.351 0.646 1.638 8805
0.352 0.646 1.629 8204
0.357 0.656 1.641 11252
0.361 0.663 1.645 14576
0.363 0.667 1.643 14343
0.365 0.671 1.641 14111
0.367 0.675 1.639 11181
0.367 0.676 1.629 8263
0.371 0.683 1.634 6984
0.373 0.686 1.632 5216
0.397 0.730 1.713 9883
0.399 0.734 1.710 14665
0.405 0.745 1.722 17177
0.407 0.749 1.719 20527
0.410 0.753 1.716 19619
0.412 0.757 1.714 17630
0.414 0.761 1.711 16775
0.416 0.765 1.709 14663
0.418 0.769 1.706 12551
0.420 0.773 1.703 8482
0.421 0.773 1.694 4697
0.425 0.781 1.698 6027
0.431 0.792 1.709 10948
0.433 0.796 1.706 13664
0.437 0.804 1.710 11871
0.439 0.808 1.708 10083
0.441 0.812 1.705 12577
0.444 0.816 1.702 18126
0.448 0.823 1.706 21670
0.450 0.827 1.703 21348
0.452 0.831 1.701 20503
0.454 0.835 1.698 19980
0.456 0.839 1.695 19493
0.459 0.843 1.692 18391
0.461 0.847 1.689 18193
0.465 0.855 1.693 16564
0.467 0.859 1.690 15769
0.469 0.863 1.687 17294
0.473 0.870 1.691 21379
0.476 0.874 1.688 24651
0.478 0.878 1.685 23681
0.480 0.882 1.682 21263
0.486 0.894 1.692 16515
0.493 0.906 1.702 16115
0.493 0.906 1.692 16132
0.495 0.910 1.689 17970
0.497 0.914 1.686 21079
0.501 0.922 1.690 21401
0.503 0.926 1.686 20566
0.506 0.929 1.683 18214
0.508 0.933 1.680 17621
0.512 0.941 1.683 21267
0.516 0.949 1.687 24715
0.519 0.953 1.683 24850
0.521 0.957 1.680 21747
0.523 0.961 1.677 16177
0.525 0.965 1.674 11099
0.536 0.985 1.696 7526
0.540 0.994 1.699 9439
0.545 1.002 1.702 13359
0.549 1.010 1.705 15310
0.552 1.014 1.701 13485
0.556 1.022 1.704 15331
0.558 1.026 1.701 22615
0.563 1.034 1.704 25832
0.567 1.043 1.706 29649
0.569 1.047 1.703 33064
0.569 1.046 1.693 32181
0.571 1.050 1.689 32593
0.573 1.054 1.686 42643
0.576 1.058 1.682 49044
0.580 1.066 1.685 43540
0.582 1.070 1.681 38981
0.584 1.074 1.678 37801
0.586 1.078 1.674 29609
0.593 1.091 1.683 18249
0.603 1.108 1.697 15554
0.605 1.112 1.693 14740
0.607 1.116 1.690 17693
0.612 1.124 1.692 23008
0.616 1.133 1.694 23072
0.621 1.141 1.696 16350
0.623 1.145 1.692 9094
0.628 1.154 1.695 9156
0.635 1.167 1.703 12087
0.639 1.176 1.705 12607
0.639 1.175 1.695 10326
0.644 1.183 1.697 11575
0.648 1.192 1.699 15940
0.648 1.191 1.689 11322
0.658 1.209 1.702 5854
0.652 1.199 1.681 7494
0.652 1.199 1.671 13496
0.654 1.202 1.667 14454
0.659 1.211 1.668 14341
0.661 1.215 1.664 12791
0.660 1.214 1.654 18547
0.663 1.218 1.650 24180
0.665 1.222 1.646 15805
0.674 1.240 1.659 13672
0.679 1.249 1.661 19235
0.681 1.253 1.657 25652
0.681 1.252 1.647 28058
0.683 1.255 1.642 24882
0.688 1.264 1.644 33122
0.692 1.273 1.645 37137
0.697 1.281 1.647 29540
0.723 1.329 1.693 21589
0.728 1.338 1.694 25816
0.733 1.347 1.695 16373
0.735 1.351 1.690 25118
0.740 1.360 1.691 40255
0.747 1.374 1.698 27145
0.752 1.383 1.699 20008
0.754 1.387 1.694 26928
0.757 1.391 1.689 23278
0.753 1.385 1.674 13239
0.744 1.368 1.647 13930
0.746 1.372 1.643 16739
0.773 1.422 1.687 24385
0.776 1.426 1.682 36561
0.778 1.430 1.677 35750
0.780 1.434 1.672 22855
0.782 1.437 1.668 13645
0.787 1.447 1.668 9130
0.797 1.466 1.679 8768
0.800 1.470 1.674 14219
0.802 1.474 1.669 18353
0.804 1.478 1.664 18313
0.806 1.481 1.659 11285
0.819 1.506 1.675 7127
0.824 1.515 1.675 9201
0.829 1.525 1.675 10176
0.831 1.528 1.670 9795
0.834 1.532 1.665 12612
0.839 1.542 1.665 20545
0.844 1.551 1.665 28619
0.846 1.555 1.660 28019
0.854 1.569 1.665 28089
0.861 1.584 1.670 29384
0.866 1.593 1.669 25621
0.866 1.591 1.659 20583
0.868 1.595 1.654 11680
0.879 1.615 1.663 8689
0.881 1.619 1.658 11905
0.883 1.623 1.652 14186
0.885 1.627 1.647 15452
0.890 1.636 1.646 15633
0.889 1.635 1.636 13720
0.891 1.638 1.630 12615
0.896 1.648 1.630 11101
0.898 1.651 1.624 7303
0.900 1.655 1.619 7019
0.902 1.659 1.613 12765
0.904 1.663 1.607 20502
0.907 1.667 1.602 22936
0.906 1.665 1.591 19887
0.911 1.674 1.591 15076
0.913 1.678 1.585 14447
0.915 1.681 1.579 16093
0.917 1.685 1.574 13380
0.915 1.683 1.563 12392
0.924 1.698 1.567 13387
0.935 1.718 1.575 15763
0.940 1.728 1.574 17856
0.945 1.737 1.573 13969
0.947 1.741 1.567 7922
0.936 1.722 1.543 6571
0.938 1.725 1.537 6944
0.940 1.729 1.531 8369
0.945 1.738 1.530 9096
0.966 1.776 1.551 8711
0.965 1.774 1.540 12568
0.964 1.772 1.530 14488
0.969 1.781 1.529 12596
0.980 1.802 1.536 8175
1.067 1.962 1.648 9199
1.079 1.983 1.655 12215
1.084 1.993 1.652 14451
1.089 2.002 1.650 11693
1.091 2.006 1.643 8868
1.093 2.010 1.636 10280
1.102 2.025 1.638 12502
1.107 2.035 1.636 12044
1.115 2.051 1.637 9915
1.118 2.054 1.630 8149
1.116 2.052 1.619 7146
1.112 2.044 1.604 5694
1.114 2.048 1.597 4952
1.116 2.052 1.590 5377
1.125 2.067 1.592 6812
1.139 2.095 1.601 9086
1.138 2.093 1.590 10829
1.137 2.090 1.579 11872
1.139 2.094 1.572 9497
1.144 2.104 1.569 5382
1.215 2.233 1.646 4390
1.168 2.147 1.579 5064
1.180 2.169 1.583 5797
1.260 2.317 1.670 5383
1.259 2.315 1.659 5690
1.261 2.319 1.651 6055
1.263 2.323 1.643 4619
1.305 2.399 1.682 5791
1.304 2.397 1.670 8672
1.303 2.395 1.658 8763
1.305 2.399 1.650 8971
1.307 2.403 1.642 8218
1.309 2.407 1.634 7465
1.321 2.429 1.637 11981
1.327 2.439 1.632 17281
1.329 2.443 1.624 17441
1.334 2.453 1.620 18134
1.339 2.462 1.615 13516
1.342 2.466 1.607 8975
1.344 2.470 1.599 7041
1.383 2.542 1.630 6428
1.388 2.552 1.625 6509
1.394 2.562 1.620 6760
1.429 2.628 1.646 6920
1.428 2.625 1.634 8309
1.434 2.636 1.629 6993
1.442 2.652 1.627 5902
1.472 2.706 1.646 4406
1.518 2.791 1.681 5352
1.514 2.782 1.665 5671
1.512 2.780 1.652 6193
1.518 2.790 1.646 4484
1.575 2.895 1.690 5147
1.577 2.899 1.680 5147
1.576 2.896 1.667 5196
1.574 2.894 1.655 5411
1.604 2.949 1.671 4489
1.606 2.952 1.661 5556
1.608 2.956 1.651 7013
1.610 2.960 1.641 8470
1.612 2.964 1.631 8470
1.614 2.968 1.621 4235
0.320 0.585 1.688 22509
0.323 0.592 1.693 16282
0.327 0.599 1.699 10231
0.328 0.600 1.689 8617
0.328 0.601 1.680 7369
0.331 0.605 1.678 7369
0.333 0.608 1.676 10329
0.335 0.612 1.674 13288
0.337 0.616 1.672 15625
0.341 0.623 1.677 17969
0.343 0.627 1.675 18698
0.345 0.631 1.672 19427
0.347 0.635 1.670 18091
0.349 0.639 1.668 16755
0.351 0.643 1.666 16223
0.352 0.643 1.657 12004
0.351 0.641 1.640 9930
0.353 0.645 1.638 9121
0.353 0.646 1.629 8535
0.358 0.656 1.641 11972
0.362 0.663 1.645 15726
0.364 0.667 1.643 15509
0.367 0.670 1.641 15291
0.369 0.674 1.639 12160
0.369 0.675 1.629 9094
0.373 0.682 1.634 7749
0.375 0.686 1.632 5923
0.399 0.729 1.713 9238
0.401 0.733 1.710 14003
0.407 0.744 1.722 16558
0.409 0.748 1.719 19951
0.411 0.752 1.716 19125
0.413 0.756 1.714 17153
0.416 0.760 1.711 16292
0.418 0.764 1.709 14265
0.422 0.772 1.713 12310
0.422 0.772 1.703 8158
0.422 0.773 1.694 4407
0.434 0.794 1.725 6101
0.434 0.795 1.716 10581
0.437 0.799 1.713 12984
0.439 0.803 1.710 11147
0.441 0.807 1.708 9311
0.443 0.811 1.705 11865
0.447 0.818 1.709 17694
0.450 0.822 1.706 21310
0.452 0.826 1.703 21312
0.454 0.830 1.701 20873
0.456 0.834 1.698 20433
0.458 0.838 1.695 19952
0.460 0.842 1.692 18473
0.463 0.846 1.689 17846
0.467 0.854 1.693 15865
0.469 0.858 1.690 15053
0.471 0.862 1.687 16906
0.475 0.869 1.691 20899
0.477 0.873 1.688 23700
0.480 0.877 1.685 22485
0.484 0.885 1.688 20119
0.488 0.893 1.692 16380
0.495 0.905 1.702 16988
0.495 0.905 1.692 17229
0.497 0.909 1.689 19061
0.499 0.913 1.686 21682
0.503 0.920 1.690 20994
0.505 0.924 1.686 19446
0.508 0.928 1.683 17020
0.510 0.932 1.680 16964
0.514 0.940 1.683 21786
0.518 0.948 1.687 25629
0.521 0.952 1.683 25700
0.523 0.956 1.680 22465
0.525 0.960 1.677 17221
0.527 0.964 1.674 12290
0.538 0.984 1.696 7740
0.547 1.001 1.712 9739
0.547 1.001 1.702 13823
0.552 1.009 1.705 15945
0.554 1.013 1.701 14128
0.558 1.021 1.704 16198
0.560 1.025 1.701 23699
0.565 1.033 1.704 26067
0.569 1.041 1.706 29152
0.572 1.045 1.703 32757
0.571 1.045 1.693 32440
0.574 1.049 1.689 34250
0.576 1.053 1.686 44119
0.578 1.057 1.682 49665
0.582 1.065 1.685 44609
0.584 1.069 1.681 39920
0.587 1.073 1.678 38458
0.589 1.077 1.674 30229
0.596 1.090 1.683 18338
0.605 1.107 1.697 16036
0.610 1.115 1.700 15737
0.609 1.115 1.690 17675
0.614 1.123 1.692 22071
0.619 1.132 1.694 22198
0.623 1.140 1.696 16062
0.625 1.144 1.692 10877
0.630 1.153 1.695 12308
0.635 1.161 1.697 14001
0.642 1.174 1.705 13815
0.642 1.174 1.695 10508
0.646 1.182 1.697 10848
0.651 1.191 1.699 15620
0.651 1.190 1.689 11771
0.658 1.203 1.696 6882
0.655 1.198 1.681 9042
0.655 1.197 1.671 14249
0.659 1.206 1.672 14398
0.664 1.214 1.674 14129
0.663 1.214 1.664 14423
0.663 1.213 1.654 21254
0.665 1.216 1.650 25800
0.667 1.220 1.646 17243
0.675 1.234 1.654 14654
0.682 1.247 1.661 18458
0.681 1.246 1.651 24415
0.683 1.250 1.647 25158
0.686 1.254 1.642 20485
0.690 1.263 1.644 27710
0.695 1.271 1.645 31097
0.700 1.280 1.647 25196
0.726 1.328 1.693 18317
0.734 1.342 1.699 26869
0.738 1.351 1.701 18511
0.738 1.350 1.690 28264
0.743 1.358 1.691 43336
0.750 1.372 1.698 29578
0.755 1.381 1.699 22297
0.757 1.385 1.694 29045
0.760 1.389 1.689 27355
0.759 1.388 1.679 17715
0.750 1.372 1.653 11605
0.749 1.371 1.643 12647
0.776 1.420 1.687 20298
0.779 1.424 1.682 35508
0.781 1.428 1.677 37353
0.783 1.432 1.672 22087
0.785 1.436 1.668 10998
0.787 1.440 1.663 7045
0.803 1.469 1.684 4709
0.800 1.463 1.669 8929
0.805 1.472 1.669 13393
0.807 1.476 1.664 15347
0.809 1.480 1.659 10124
0.825 1.510 1.680 5754
0.830 1.519 1.680 9909
0.835 1.528 1.681 12556
0.840 1.537 1.681 14117
0.843 1.541 1.675 16870
0.842 1.540 1.665 24084
0.847 1.549 1.665 32287
0.849 1.553 1.660 32766
0.857 1.567 1.665 33219
0.862 1.576 1.664 33450
0.870 1.591 1.669 26186
0.869 1.590 1.659 21275
0.871 1.593 1.654 13058
0.882 1.613 1.663 8931
0.887 1.623 1.663 10611
0.886 1.621 1.652 11837
0.888 1.625 1.647 13560
0.894 1.634 1.646 15423
0.896 1.638 1.641 15269
0.898 1.642 1.635 15272
0.900 1.646 1.630 14623
0.905 1.655 1.629 10916
0.907 1.659 1.623 8935
0.909 1.663 1.618 11612
0.908 1.661 1.607 17717
0.910 1.665 1.602 21562
0.912 1.668 1.596 20562
0.914 1.672 1.591 16348
0.919 1.681 1.590 14775
0.921 1.685 1.584 15912
0.917 1.677 1.569 13621
0.919 1.681 1.563 13190
0.927 1.696 1.567 14625
0.935 1.711 1.570 18055
0.940 1.720 1.569 19972
0.946 1.729 1.568 13993
0.951 1.739 1.567 6798
0.937 1.714 1.538 4298
0.939 1.717 1.532 5028
0.944 1.727 1.531 6450
0.949 1.736 1.530 7459
0.970 1.774 1.551 8246
0.969 1.772 1.540 9760
0.967 1.769 1.530 9560
0.985 1.802 1.546 8266
0.990 1.811 1.545 7363
1.074 1.965 1.652 7536
1.083 1.981 1.655 11176
1.088 1.990 1.652 13336
1.100 2.011 1.659 11041
1.099 2.010 1.647 9771
1.098 2.008 1.636 11451
1.103 2.017 1.634 12654
1.111 2.033 1.636 12016
1.120 2.048 1.637 10912
1.122 2.052 1.630 9868
1.121 2.050 1.619 9027
1.116 2.042 1.604 7794
1.118 2.046 1.597 7041
1.120 2.049 1.590 7561
1.126 2.059 1.588 8487
1.141 2.086 1.597 10163
1.143 2.090 1.590 11286
1.142 2.088 1.579 11434
1.140 2.086 1.568 8790
1.142 2.089 1.561 4600
1.220 2.231 1.646 3895
1.179 2.156 1.587 4410
1.184 2.166 1.583 5497
1.265 2.314 1.670 5192
1.264 2.312 1.659 5582
1.266 2.316 1.651 5998
1.268 2.320 1.643 4466
1.307 2.391 1.678 5224
1.309 2.395 1.670 7945
1.308 2.392 1.658 8330
1.307 2.390 1.646 8798
1.309 2.394 1.638 7958
1.341 2.453 1.664 7265
1.330 2.432 1.641 11495
1.332 2.436 1.632 16657
1.337 2.446 1.628 16618
1.339 2.450 1.620 17118
1.345 2.460 1.615 12615
1.347 2.463 1.607 8127
1.349 2.467 1.599 6400
1.388 2.539 1.630 6292
1.394 2.549 1.625 6357
1.399 2.559 1.620 6576
1.435 2.625 1.646 7210
1.434 2.622 1.634 8347
1.439 2.632 1.629 7048
1.445 2.642 1.623 5808
1.474 2.696 1.642 3825
1.524 2.788 1.681 5296
1.519 2.779 1.665 5559
1.518 2.777 1.652 6051
1.524 2.787 1.646 4427
1.581 2.891 1.690 4991
1.583 2.895 1.680 4991
1.582 2.893 1.667 5044
1.577 2.884 1.651 5279
1.610 2.945 1.671 4733
1.612 2.949 1.661 5986
1.614 2.953 1.651 7367
1.617 2.957 1.641 8747
1.619 2.960 1.631 8747
1.621 2.964 1.621 4373
0.733 1.341 0.814 210
0.322 0.584 1.688 23275
0.324 0.588 1.686 16317
0.328 0.595 1.691 9490
0.328 0.596 1.682 8423
0.329 0.597 1.673 7637
0.331 0.601 1.671 7637
0.333 0.604 1.669 10956
0.337 0.611 1.674 14329
0.339 0.615 1.672 16761
0.341 0.619 1.670 19194
0.345 0.626 1.675 19687
0.347 0.630 1.672 20195
0.349 0.634 1.670 18803
0.351 0.638 1.668 17412
0.353 0.642 1.666 16800
0.354 0.642 1.657 12363
0.353 0.640 1.640 10105
0.355 0.644 1.638 9371
0.355 0.644 1.629 8784
0.361 0.655 1.641 12719
0.364 0.662 1.645 16878
0.367 0.665 1.643 16723
0.369 0.669 1.641 16569
0.371 0.673 1.639 13207
0.371 0.674 1.629 9925
0.375 0.681 1.634 8547
0.379 0.688 1.639 6725
0.403 0.731 1.720 8626
0.403 0.732 1.710 13395
0.409 0.743 1.722 15865
0.411 0.747 1.719 19306
0.414 0.751 1.716 18519
0.416 0.755 1.714 16275
0.418 0.759 1.711 15126
0.420 0.763 1.709 13151
0.424 0.770 1.713 11406
0.426 0.774 1.710 7391
0.436 0.792 1.735 4305
0.437 0.793 1.725 5750
0.437 0.793 1.716 9470
0.439 0.797 1.713 11577
0.441 0.801 1.710 9984
0.444 0.805 1.708 8390
0.446 0.809 1.705 11162
0.450 0.817 1.709 17433
0.452 0.821 1.706 21024
0.454 0.825 1.703 21315
0.456 0.829 1.701 21124
0.459 0.833 1.698 20643
0.461 0.837 1.695 20136
0.463 0.841 1.692 18342
0.467 0.848 1.696 17415
0.469 0.852 1.693 15138
0.474 0.860 1.697 14390
0.476 0.864 1.694 16775
0.478 0.868 1.691 20695
0.480 0.872 1.688 23032
0.485 0.880 1.691 21449
0.487 0.884 1.688 19045
0.493 0.895 1.699 16505
0.495 0.899 1.695 18188
0.497 0.903 1.692 18895
0.500 0.907 1.689 20456
0.504 0.915 1.693 22342
0.506 0.919 1.690 20613
0.508 0.923 1.686 18481
0.510 0.927 1.683 15860
0.513 0.931 1.680 16112
0.517 0.939 1.683 21958
0.521 0.947 1.687 26091
0.524 0.951 1.683 26072
0.523 0.950 1.674 22942
0.526 0.954 1.671 18575
0.530 0.962 1.674 14019
0.541 0.983 1.696 8577
0.550 0.999 1.712 10482
0.550 0.999 1.702 14496
0.555 1.007 1.705 16746
0.557 1.011 1.701 15050
0.559 1.015 1.698 17096
0.564 1.023 1.701 24427
0.568 1.031 1.704 25785
0.573 1.040 1.706 27924
0.572 1.039 1.697 31525
0.575 1.043 1.693 31915
0.577 1.047 1.689 34938
0.579 1.051 1.686 44443
0.581 1.055 1.682 49409
0.586 1.063 1.685 45015
0.588 1.067 1.681 40217
0.590 1.071 1.678 38226
0.592 1.075 1.674 29989
0.599 1.088 1.683 17680
0.611 1.109 1.703 15783
0.616 1.118 1.706 16743
0.615 1.117 1.696 17961
0.618 1.121 1.692 21117
0.622 1.130 1.694 21067
0.627 1.138 1.696 15984
0.632 1.147 1.698 13148
0.634 1.151 1.695 15757
0.638 1.159 1.697 16411
0.643 1.168 1.699 15274
0.645 1.172 1.695 10849
0.650 1.180 1.697 10543
0.655 1.189 1.699 15600
0.657 1.193 1.695 12266
0.659 1.197 1.691 7967
0.659 1.196 1.681 10975
0.658 1.195 1.671 15927
0.663 1.204 1.672 14330
0.668 1.212 1.674 12850
0.667 1.211 1.664 15202
0.667 1.211 1.654 23283
0.669 1.214 1.650 26817
0.671 1.218 1.646 18718
0.678 1.232 1.654 16424
0.683 1.240 1.655 17996
0.685 1.244 1.651 22799
0.685 1.243 1.641 22144
0.687 1.247 1.637 16910
0.694 1.260 1.644 22317
0.696 1.264 1.640 24208
0.704 1.278 1.647 20368
0.733 1.331 1.698 16026
0.740 1.344 1.705 28215
0.743 1.348 1.701 21452
0.742 1.347 1.690 31253
0.747 1.356 1.691 45013
0.755 1.370 1.698 30010
0.760 1.379 1.699 23846
0.762 1.383 1.694 30889
0.764 1.387 1.689 30507
0.763 1.386 1.679 21943
0.763 1.385 1.669 11366
0.759 1.378 1.654 8954
0.781 1.418 1.687 17665
0.783 1.422 1.682 32868
0.785 1.426 1.677 36521
0.787 1.429 1.672 21992
0.790 1.433 1.668 9123
0.797 1.447 1.673 5773
0.808 1.467 1.684 4294
0.802 1.455 1.664 5676
0.809 1.469 1.669 8884
0.812 1.473 1.664 11664
0.814 1.477 1.659 8685
0.824 1.497 1.670 5948
0.835 1.516 1.680 11686
0.840 1.525 1.681 16029
0.845 1.535 1.681 19849
0.847 1.538 1.675 22904
0.850 1.542 1.670 27847
0.852 1.546 1.665 35908
0.854 1.550 1.660 36802
0.859 1.559 1.660 36148
0.867 1.574 1.664 35836
0.872 1.583 1.664 26796
0.874 1.587 1.659 21491
0.876 1.591 1.654 13925
0.890 1.616 1.668 9075
0.892 1.620 1.663 9413
0.891 1.618 1.652 9324
0.894 1.622 1.647 10980
0.899 1.632 1.646 14753
0.901 1.635 1.641 16179
0.903 1.639 1.635 16521
0.908 1.648 1.635 16411
0.910 1.652 1.629 13628
0.912 1.656 1.623 12257
0.914 1.660 1.618 13231
0.916 1.663 1.612 16473
0.915 1.662 1.602 20746
0.917 1.665 1.596 21535
0.919 1.669 1.591 17669
0.924 1.678 1.590 14846
0.923 1.676 1.579 15728
0.922 1.675 1.569 15685
0.924 1.678 1.563 15976
0.933 1.693 1.567 16424
0.941 1.708 1.570 19521
0.946 1.717 1.569 21686
0.951 1.726 1.568 14783
0.959 1.741 1.571 6039
0.980 1.779 1.593 2639
1.023 1.857 1.646 3249
0.949 1.724 1.531 3888
0.958 1.739 1.534 5485
0.975 1.771 1.551 7928
0.990 1.797 1.563 8651
1.005 1.824 1.575 8274
1.003 1.822 1.564 7948
0.999 1.814 1.549 6896
1.081 1.962 1.652 6394
1.089 1.977 1.655 10330
1.094 1.987 1.652 12219
1.116 2.025 1.672 11165
1.111 2.018 1.656 11059
1.104 2.004 1.636 12497
1.106 2.008 1.630 12672
1.118 2.029 1.636 11437
1.123 2.039 1.633 11411
1.125 2.043 1.626 11479
1.124 2.041 1.615 11101
1.123 2.038 1.604 10305
1.125 2.042 1.597 9551
1.127 2.046 1.590 9987
1.132 2.055 1.588 9864
1.137 2.065 1.585 9711
1.143 2.075 1.582 9918
1.145 2.078 1.575 10054
1.147 2.082 1.568 8785
1.152 2.092 1.565 6106
1.157 2.101 1.562 4655
1.186 2.153 1.587 4336
1.191 2.162 1.583 4897
1.269 2.304 1.666 4838
1.271 2.308 1.659 5328
1.274 2.312 1.651 5819
1.276 2.316 1.643 4307
1.311 2.380 1.674 4851
1.313 2.384 1.666 7199
1.312 2.382 1.654 7814
1.314 2.386 1.646 8575
1.316 2.390 1.638 7680
1.352 2.455 1.667 7864
1.337 2.428 1.641 10999
1.339 2.432 1.632 15701
1.345 2.442 1.628 15516
1.350 2.452 1.623 15766
1.352 2.455 1.615 11450
1.355 2.459 1.607 7133
1.401 2.543 1.645 6168
1.399 2.541 1.633 6109
1.402 2.544 1.625 6022
1.448 2.629 1.662 6779
1.443 2.620 1.646 7311
1.445 2.624 1.638 8192
1.447 2.628 1.629 6917
1.453 2.638 1.623 5608
1.531 2.779 1.690 3665
1.533 2.783 1.681 5225
1.528 2.774 1.665 5394
1.527 2.772 1.652 5862
1.529 2.776 1.643 4340
1.593 2.893 1.694 4813
1.596 2.897 1.684 4813
1.587 2.882 1.664 4832
1.586 2.879 1.651 5054
1.619 2.940 1.671 4942
1.622 2.944 1.661 6323
1.624 2.948 1.651 7606
1.622 2.945 1.638 8940
1.624 2.949 1.628 8940
1.626 2.953 1.618 4470
0.734 1.332 0.811 208
0.323 0.583 1.688 24073
0.325 0.587 1.686 16740
0.327 0.591 1.684 9407
0.330 0.595 1.682 8663
0.330 0.596 1.673 8268
0.332 0.600 1.671 8268
0.334 0.604 1.669 11914
0.337 0.608 1.667 15561
0.340 0.614 1.672 18046
0.343 0.618 1.670 20551
0.346 0.625 1.675 20696
0.349 0.629 1.672 20882
0.351 0.633 1.670 19373
0.353 0.637 1.668 17864
0.355 0.641 1.666 17181
0.355 0.641 1.657 12593
0.354 0.639 1.640 10126
0.356 0.643 1.638 9591
0.357 0.644 1.629 9054
0.362 0.654 1.641 13572
0.364 0.657 1.638 18143
0.368 0.665 1.643 18048
0.370 0.668 1.641 17975
0.372 0.672 1.639 14419
0.373 0.673 1.629 10931
0.377 0.680 1.634 9578
0.380 0.687 1.639 7758
0.403 0.727 1.713 8115
0.405 0.731 1.710 12872
0.411 0.742 1.722 15121
0.413 0.746 1.719 18574
0.415 0.750 1.716 17871
0.418 0.754 1.714 15160
0.420 0.758 1.711 13472
0.422 0.762 1.709 11469
0.428 0.773 1.720 9967
0.436 0.787 1.738 6877
0.442 0.798 1.749 4863
0.442 0.799 1.739 5493
0.439 0.792 1.716 8804
0.441 0.796 1.713 10909
0.443 0.800 1.710 9632
0.447 0.808 1.714 8479
0.450 0.812 1.712 11287
0.452 0.816 1.709 17816
0.454 0.820 1.706 21537
0.456 0.824 1.703 21862
0.459 0.828 1.701 21411
0.461 0.832 1.698 20635
0.463 0.836 1.695 20089
0.465 0.840 1.692 18018
0.469 0.847 1.696 16934
0.472 0.851 1.693 14441
0.476 0.859 1.697 14241
0.478 0.863 1.694 17096
0.480 0.867 1.691 20826
0.482 0.871 1.688 22392
0.487 0.878 1.691 20306
0.489 0.882 1.688 17962
0.495 0.894 1.699 16736
0.497 0.898 1.695 19502
0.500 0.902 1.692 20525
0.502 0.906 1.689 21830
0.506 0.914 1.693 23236
0.508 0.918 1.690 20317
0.511 0.922 1.686 17610
0.513 0.926 1.683 14704
0.515 0.929 1.680 15178
0.519 0.937 1.683 22092
0.524 0.945 1.687 26507
0.526 0.949 1.683 26409
0.526 0.949 1.674 23855
0.528 0.953 1.671 20530
0.535 0.965 1.680 16523
0.544 0.981 1.696 10146
0.553 0.998 1.712 11239
0.555 1.002 1.708 15007
0.557 1.006 1.705 17462
0.559 1.010 1.701 15939
0.562 1.014 1.698 17671
0.566 1.022 1.701 24442
0.571 1.030 1.704 24924
0.575 1.038 1.706 25916
0.577 1.042 1.703 29107
0.577 1.042 1.693 30389
0.579 1.046 1.689 34831
0.582 1.050 1.686 43631
0.584 1.054 1.682 48037
0.588 1.062 1.685 44787
0.590 1.066 1.681 40145
0.593 1.070 1.678 37392
0.595 1.074 1.674 29114
0.602 1.086 1.683 16541
0.614 1.108 1.703 15200
0.618 1.116 1.706 18004
0.618 1.116 1.696 18890
0.620 1.120 1.692 20027
0.625 1.128 1.694 19394
0.630 1.137 1.696 15887
0.634 1.145 1.698 15801
0.637 1.149 1.695 19207
0.641 1.157 1.697 18915
0.646 1.166 1.699 17018
0.648 1.170 1.695 11821
0.653 1.178 1.697 11066
0.658 1.187 1.699 15935
0.660 1.191 1.695 12688
0.662 1.195 1.691 8590
0.662 1.194 1.681 12512
0.664 1.198 1.677 17661
0.666 1.202 1.672 13572
0.673 1.215 1.680 10279
0.670 1.210 1.664 14526
0.670 1.209 1.654 24290
0.672 1.213 1.650 27419
0.677 1.221 1.652 21172
0.681 1.230 1.654 18713
0.684 1.234 1.649 17747
0.688 1.242 1.651 20609
0.688 1.241 1.641 18955
0.690 1.245 1.637 13971
0.697 1.259 1.644 17270
0.697 1.258 1.634 16986
0.702 1.266 1.635 13655
0.739 1.334 1.704 14747
0.744 1.342 1.705 28869
0.746 1.346 1.701 23402
0.745 1.345 1.690 31312
0.750 1.354 1.691 44315
0.758 1.368 1.698 29749
0.763 1.377 1.699 24914
0.765 1.381 1.694 30508
0.767 1.385 1.689 30667
0.769 1.389 1.685 24305
0.772 1.393 1.680 11723
0.779 1.407 1.686 6378
0.784 1.416 1.687 15358
0.787 1.420 1.682 30765
0.789 1.424 1.677 34529
0.791 1.428 1.672 21028
0.793 1.431 1.668 9437
0.804 1.451 1.679 7987
0.809 1.460 1.679 8956
0.811 1.464 1.674 8346
0.816 1.473 1.674 7132
0.818 1.477 1.669 8036
0.817 1.475 1.659 6839
0.828 1.495 1.670 6491
0.839 1.514 1.680 14050
0.844 1.523 1.681 20177
0.849 1.532 1.681 26015
0.851 1.536 1.675 28841
0.853 1.540 1.670 30867
0.855 1.544 1.665 38655
0.858 1.548 1.660 41033
0.863 1.557 1.660 38866
0.871 1.572 1.664 36837
0.873 1.576 1.659 26573
0.878 1.585 1.659 20855
0.883 1.594 1.659 14315
0.894 1.614 1.668 9652
0.896 1.618 1.663 9591
0.898 1.622 1.657 7534
0.904 1.631 1.657 8659
0.903 1.629 1.646 13659
0.905 1.633 1.641 16185
0.910 1.642 1.640 16405
0.912 1.646 1.635 16683
0.914 1.650 1.629 15323
0.916 1.654 1.623 15364
0.915 1.652 1.613 16107
0.917 1.656 1.607 16222
0.919 1.659 1.602 19408
0.921 1.663 1.596 21666
0.923 1.667 1.591 18655
0.925 1.671 1.585 15638
0.924 1.669 1.575 17163
0.926 1.672 1.569 18459
0.928 1.676 1.563 19336
0.937 1.691 1.567 18163
0.945 1.706 1.570 20170
0.950 1.715 1.569 22683
0.952 1.718 1.564 15739
0.957 1.728 1.562 6309
0.943 1.703 1.534 3144
1.027 1.854 1.646 3714
1.026 1.852 1.635 4187
1.025 1.850 1.624 5163
0.983 1.774 1.555 7287
1.001 1.806 1.572 9712
1.006 1.816 1.570 9868
1.011 1.825 1.568 8504
1.000 1.806 1.545 6604
1.089 1.965 1.657 6242
1.094 1.974 1.655 9481
1.096 1.978 1.648 10724
1.121 2.023 1.672 11336
1.120 2.021 1.660 12194
1.109 2.001 1.636 12993
1.108 1.999 1.625 12132
1.119 2.021 1.631 10138
1.128 2.036 1.633 11638
1.127 2.034 1.622 13655
1.129 2.038 1.615 13659
1.128 2.036 1.604 13203
1.130 2.039 1.597 12351
1.132 2.043 1.590 12597
1.134 2.047 1.583 11410
1.139 2.056 1.581 10010
1.148 2.072 1.582 9532
1.153 2.081 1.579 9817
1.155 2.085 1.572 9797
1.157 2.089 1.565 7985
1.162 2.098 1.562 6530
1.184 2.138 1.579 4869
1.196 2.159 1.583 4556
1.275 2.301 1.666 4194
1.277 2.305 1.659 4847
1.279 2.309 1.651 5501
1.194 2.156 1.542 4627
1.314 2.371 1.670 4919
1.319 2.381 1.666 6516
1.318 2.379 1.654 7403
1.320 2.383 1.646 8297
1.319 2.380 1.634 7475
1.358 2.451 1.667 8429
1.347 2.431 1.644 10326
1.345 2.428 1.632 14331
1.351 2.438 1.628 14003
1.356 2.448 1.623 14042
1.358 2.452 1.615 10045
1.408 2.542 1.658 7341
1.407 2.540 1.645 6414
1.406 2.537 1.633 5911
1.449 2.615 1.668 6094
1.454 2.625 1.662 6854
1.453 2.623 1.650 7281
1.452 2.621 1.638 7938
1.454 2.624 1.629 6657
1.456 2.628 1.620 5376
1.538 2.775 1.690 3753
1.540 2.779 1.681 5184
1.535 2.771 1.665 5271
1.534 2.768 1.652 5729
1.536 2.772 1.643 4332
1.604 2.895 1.697 4647
1.606 2.899 1.687 4647
1.594 2.878 1.664 4574
1.586 2.863 1.645 4772
1.627 2.936 1.671 5121
1.629 2.940 1.661 6571
1.627 2.937 1.648 7711
1.629 2.941 1.638 8940
1.632 2.945 1.628 8940
1.634 2.949 1.618 4470
0.737 1.330 0.811 223
0.324 0.583 1.688 24655
0.326 0.587 1.686 17132
0.328 0.590 1.684 9610
0.329 0.591 1.675 9383
0.331 0.595 1.673 9165
0.333 0.599 1.671 9165
0.335 0.603 1.669 13027
0.338 0.607 1.667 16888
0.341 0.614 1.672 19231
0.343 0.618 1.670 21663
0.347 0.625 1.675 21568
0.349 0.629 1.672 21603
0.352 0.632 1.670 19854
0.354 0.636 1.668 18106
0.356 0.640 1.666 17351
0.356 0.641 1.657 12648
0.355 0.639 1.640 9970
0.357 0.642 1.638 9787
0.361 0.649 1.643 9606
0.363 0.653 1.641 14515
0.365 0.657 1.638 19425
0.369 0.664 1.643 19248
0.371 0.668 1.641 19110
0.373 0.672 1.639 15384
0.374 0.672 1.629 11764
0.378 0.679 1.634 10488
0.382 0.686 1.639 8737
0.400 0.720 1.699 8093
0.404 0.727 1.703 12668
0.412 0.741 1.722 14554
0.414 0.745 1.719 18014
0.417 0.749 1.716 17524
0.419 0.753 1.714 14403
0.421 0.757 1.711 12097
0.425 0.765 1.716 10084
0.433 0.779 1.733 9437
0.437 0.786 1.738 7429
0.441 0.794 1.742 5617
0.442 0.794 1.732 6051
0.440 0.791 1.716 9707
0.442 0.795 1.713 12108
0.445 0.799 1.710 10851
0.449 0.807 1.714 9752
0.451 0.811 1.712 12483
0.453 0.815 1.709 19101
0.455 0.819 1.706 22988
0.458 0.823 1.703 22764
0.460 0.827 1.701 21196
0.462 0.831 1.698 19851
0.464 0.835 1.695 19323
0.466 0.839 1.692 17259
0.471 0.846 1.696 16331
0.475 0.854 1.700 14135
0.477 0.858 1.697 14617
0.479 0.862 1.694 17782
0.482 0.866 1.691 21202
0.484 0.870 1.688 21852
0.488 0.878 1.691 19177
0.490 0.882 1.688 16918
0.497 0.893 1.699 16649
0.499 0.897 1.695 20275
0.501 0.901 1.692 21700
0.503 0.905 1.689 22911
0.508 0.913 1.693 23938
0.510 0.917 1.690 20068
0.512 0.921 1.686 16953
0.514 0.925 1.683 13775
0.516 0.929 1.680 14283
0.521 0.937 1.683 21957
0.525 0.945 1.687 26599
0.527 0.948 1.683 26499
0.527 0.948 1.674 24409
0.529 0.952 1.671 22041
0.536 0.964 1.680 18771
0.545 0.980 1.696 12011
0.554 0.997 1.712 11989
0.554 0.997 1.702 15390
0.559 1.005 1.705 17998
0.561 1.009 1.701 16491
0.563 1.013 1.698 17593
0.568 1.021 1.701 23639
0.572 1.029 1.704 23417
0.577 1.037 1.706 23424
0.579 1.041 1.703 26130
0.579 1.041 1.693 28280
0.581 1.045 1.689 33940
0.583 1.049 1.686 41257
0.585 1.053 1.682 44802
0.590 1.061 1.685 43423
0.592 1.065 1.681 39657
0.594 1.069 1.678 36141
0.596 1.073 1.674 27716
0.603 1.085 1.683 15151
0.615 1.107 1.703 14298
0.620 1.115 1.706 18814
0.620 1.115 1.696 19753
0.622 1.119 1.692 18935
0.627 1.127 1.694 17580
0.634 1.140 1.702 16202
0.636 1.144 1.698 18059
0.638 1.148 1.695 21780
0.643 1.156 1.697 21062
0.648 1.165 1.699 18456
0.650 1.169 1.695 12682
0.655 1.177 1.697 11711
0.659 1.186 1.699 15961
0.662 1.190 1.695 12581
0.666 1.199 1.696 8637
0.663 1.193 1.681 13073
0.666 1.197 1.677 18750
0.670 1.206 1.678 13118
0.678 1.219 1.686 7711
0.672 1.209 1.664 11880
0.672 1.208 1.654 23075
0.674 1.212 1.650 27547
0.679 1.220 1.652 24083
0.681 1.224 1.648 21268
0.685 1.233 1.649 18216
0.690 1.241 1.651 18405
0.690 1.240 1.641 16135
0.692 1.244 1.637 11268
0.697 1.253 1.638 12214
0.699 1.257 1.634 12431
0.698 1.256 1.624 10577
0.741 1.332 1.704 14222
0.746 1.341 1.705 28215
0.748 1.345 1.701 23487
0.750 1.349 1.696 27451
0.752 1.353 1.691 38229
0.760 1.367 1.698 27542
0.765 1.376 1.699 26295
0.767 1.380 1.694 30179
0.769 1.384 1.689 29227
0.772 1.388 1.685 23758
0.777 1.397 1.685 9921
0.787 1.416 1.697 4631
0.784 1.410 1.681 12969
0.786 1.413 1.677 27482
0.791 1.422 1.677 32095
0.793 1.426 1.672 20034
0.795 1.430 1.668 10057
0.806 1.449 1.679 10350
0.811 1.458 1.679 13796
0.813 1.462 1.674 13512
0.818 1.471 1.674 8542
0.823 1.480 1.675 6055
0.822 1.479 1.664 5198
0.836 1.504 1.680 6919
0.841 1.513 1.680 15368
0.846 1.522 1.681 23100
0.851 1.531 1.681 30739
0.851 1.530 1.670 33416
0.856 1.539 1.670 32429
0.858 1.543 1.665 39059
0.860 1.547 1.660 43100
0.865 1.556 1.660 40411
0.870 1.565 1.659 36654
0.875 1.574 1.659 25931
0.880 1.583 1.659 20241
0.886 1.593 1.659 14693
0.897 1.613 1.668 10839
0.902 1.622 1.668 11143
0.904 1.626 1.662 8935
0.909 1.635 1.662 9865
0.908 1.633 1.651 13843
0.907 1.632 1.641 15904
0.912 1.641 1.640 15509
0.918 1.650 1.639 16073
0.917 1.649 1.629 16252
0.916 1.647 1.619 17664
0.918 1.651 1.613 18419
0.920 1.654 1.607 16077
0.922 1.658 1.602 17515
0.924 1.662 1.596 20766
0.926 1.665 1.591 18512
0.925 1.664 1.580 16221
0.924 1.662 1.570 18613
0.926 1.665 1.564 20679
0.931 1.674 1.563 22427
0.939 1.689 1.567 19213
0.948 1.704 1.570 19840
0.953 1.713 1.569 22427
0.955 1.717 1.564 15821
0.957 1.721 1.558 6916
0.949 1.707 1.538 4565
0.954 1.716 1.537 4448
1.032 1.856 1.640 4814
1.028 1.849 1.624 5644
1.001 1.801 1.578 6991
1.004 1.805 1.572 11191
1.009 1.814 1.570 11420
1.011 1.818 1.564 8976
0.997 1.793 1.536 6785
1.092 1.963 1.657 6864
1.094 1.967 1.650 8935
1.099 1.977 1.648 9353
1.127 2.027 1.676 11291
1.119 2.013 1.656 13159
1.112 2.000 1.636 13119
1.111 1.998 1.625 11441
1.116 2.007 1.623 9203
1.128 2.029 1.629 12251
1.130 2.032 1.622 16180
1.129 2.030 1.611 16567
1.131 2.034 1.604 16190
1.133 2.038 1.597 15203
1.135 2.041 1.590 15255
1.137 2.045 1.583 12961
1.139 2.049 1.577 10614
1.148 2.064 1.578 9285
1.156 2.080 1.579 9787
1.162 2.089 1.576 11024
1.164 2.093 1.569 10203
1.166 2.096 1.562 8867
1.174 2.112 1.563 6245
1.196 2.152 1.579 4686
1.202 2.161 1.576 3441
1.284 2.309 1.663 4267
1.286 2.313 1.655 5156
1.194 2.148 1.539 4917
1.314 2.363 1.666 5222
1.319 2.373 1.662 6074
1.322 2.377 1.654 7053
1.324 2.381 1.646 8032
1.323 2.378 1.634 7278
1.362 2.449 1.667 8786
1.350 2.429 1.644 9712
1.349 2.426 1.632 12878
1.355 2.436 1.628 12378
1.360 2.446 1.623 12183
1.362 2.450 1.615 8557
1.412 2.540 1.658 7953
1.414 2.544 1.649 6732
1.410 2.535 1.633 5827
1.449 2.607 1.664 6070
1.455 2.617 1.659 6661
1.457 2.621 1.650 7094
1.456 2.618 1.638 7587
1.458 2.622 1.629 6336
1.460 2.626 1.620 5114
1.542 2.773 1.690 3857
1.544 2.777 1.681 5194
1.539 2.768 1.665 5150
1.534 2.760 1.649 5587
1.540 2.770 1.643 4303
1.615 2.905 1.704 4603
1.618 2.909 1.694 4603
1.602 2.882 1.667 4279
1.583 2.848 1.638 4488
1.631 2.934 1.671 5208
1.633 2.937 1.661 6624
1.632 2.935 1.648 7611
1.634 2.939 1.638 8660
1.636 2.943 1.628 8660
1.638 2.946 1.618 4330
0.743 1.335 0.814 260
0.326 0.582 1.688 25380
0.328 0.586 1.686 17774
0.328 0.587 1.677 10512
0.331 0.590 1.675 10305
0.331 0.591 1.666 10201
0.333 0.595 1.664 10201
0.337 0.602 1.669 14117
0.339 0.606 1.667 18137
0.343 0.613 1.672 20362
0.345 0.617 1.670 22699
0.349 0.624 1.675 22390
0.351 0.627 1.672 22290
0.354 0.631 1.670 20337
0.356 0.635 1.668 18385
0.358 0.639 1.666 17509
0.358 0.640 1.657 12714
0.359 0.641 1.647 9858
0.361 0.644 1.645 10078
0.363 0.648 1.643 10213
0.365 0.652 1.641 15543
0.369 0.659 1.645 20897
0.371 0.663 1.643 20678
0.373 0.667 1.641 20459
0.375 0.670 1.639 16390
0.376 0.671 1.629 12438
0.380 0.678 1.634 11225
0.384 0.685 1.639 9508
0.391 0.699 1.657 8247
0.407 0.726 1.703 12467
0.414 0.740 1.722 13969
0.417 0.744 1.719 17376
0.419 0.748 1.716 17082
0.421 0.752 1.714 13837
0.423 0.756 1.711 11180
0.429 0.767 1.722 9680
0.435 0.778 1.733 9931
0.440 0.785 1.738 8019
0.442 0.789 1.735 6110
0.442 0.790 1.725 7181
0.441 0.787 1.709 11398
0.445 0.794 1.713 13839
0.447 0.798 1.710 12040
0.451 0.806 1.714 10283
0.453 0.810 1.712 13587
0.456 0.814 1.709 20474
0.458 0.818 1.706 24057
0.460 0.822 1.703 23194
0.462 0.826 1.701 20502
0.465 0.829 1.698 18672
0.467 0.833 1.695 18216
0.469 0.837 1.692 16427
0.473 0.845 1.696 15856
0.478 0.853 1.700 14417
0.482 0.860 1.703 15550
0.484 0.864 1.700 18907
0.486 0.868 1.697 21891
0.486 0.868 1.688 21503
0.491 0.876 1.691 18165
0.493 0.880 1.688 15848
0.497 0.888 1.692 16133
0.502 0.896 1.695 20404
0.504 0.900 1.692 22311
0.506 0.904 1.689 23321
0.510 0.911 1.693 23790
0.513 0.915 1.690 19259
0.515 0.919 1.686 15993
0.517 0.923 1.683 12587
0.521 0.931 1.687 13109
0.524 0.935 1.683 21096
0.528 0.943 1.687 25809
0.528 0.943 1.677 25827
0.530 0.947 1.674 24263
0.535 0.955 1.677 23205
0.539 0.963 1.680 20899
0.548 0.979 1.696 13833
0.555 0.991 1.705 12770
0.557 0.995 1.702 15683
0.562 1.003 1.705 18211
0.564 1.007 1.701 16852
0.566 1.011 1.698 17414
0.571 1.019 1.701 22553
0.575 1.027 1.704 21748
0.578 1.031 1.700 20667
0.582 1.039 1.703 22657
0.582 1.039 1.693 25371
0.584 1.043 1.689 31703
0.586 1.047 1.686 37369
0.589 1.051 1.682 40281
0.593 1.059 1.685 40964
0.595 1.063 1.681 38279
0.598 1.067 1.678 34352
0.600 1.071 1.674 26154
0.607 1.084 1.683 13533
0.619 1.105 1.703 13181
0.624 1.113 1.706 19639
0.623 1.113 1.696 20963
0.625 1.117 1.692 18066
0.630 1.125 1.694 15743
0.637 1.138 1.702 16289
0.642 1.147 1.705 19797
0.642 1.146 1.695 23497
0.647 1.155 1.697 22709
0.651 1.163 1.699 19252
0.654 1.167 1.695 12957
0.658 1.175 1.697 12431
0.663 1.184 1.699 16315
0.668 1.193 1.700 12517
0.670 1.196 1.696 8355
0.667 1.191 1.681 13118
0.669 1.195 1.677 19409
0.674 1.204 1.678 14877
0.679 1.212 1.680 7650
0.671 1.197 1.653 10248
0.675 1.206 1.654 20109
0.677 1.210 1.650 27460
0.682 1.218 1.652 28123
0.684 1.222 1.648 24092
0.687 1.226 1.644 18799
0.691 1.234 1.645 17409
0.693 1.238 1.641 13815
0.696 1.242 1.637 8049
0.700 1.251 1.638 6877
0.694 1.240 1.617 8714
0.702 1.253 1.624 9648
0.745 1.330 1.704 12908
0.750 1.339 1.705 25666
0.752 1.343 1.701 23150
0.754 1.347 1.696 23641
0.757 1.351 1.691 29972
0.764 1.365 1.698 23906
0.766 1.369 1.693 27035
0.769 1.373 1.689 29288
0.774 1.381 1.689 26578
0.776 1.385 1.685 21951
0.775 1.384 1.675 11396
0.777 1.388 1.670 7571
0.782 1.397 1.671 13543
0.790 1.411 1.677 22195
0.798 1.425 1.683 25638
0.800 1.429 1.678 16827
0.802 1.433 1.673 9580
0.810 1.447 1.679 12013
0.815 1.456 1.679 17222
0.818 1.460 1.674 18022
0.823 1.469 1.674 12319
0.828 1.478 1.675 7211
0.830 1.482 1.670 4623
0.844 1.506 1.686 7379
0.846 1.510 1.680 15584
0.851 1.519 1.681 24441
0.853 1.523 1.675 33823
0.855 1.527 1.670 36879
0.860 1.536 1.670 33218
0.863 1.540 1.665 37520
0.865 1.544 1.660 42372
0.870 1.553 1.660 39980
0.875 1.562 1.659 35319
0.880 1.572 1.659 24222
0.885 1.581 1.659 18352
0.890 1.590 1.659 14010
0.904 1.615 1.673 12050
0.907 1.619 1.668 13462
0.912 1.628 1.667 12712
0.917 1.638 1.667 13675
0.913 1.631 1.651 14806
0.912 1.629 1.641 15217
0.917 1.638 1.640 14193
0.923 1.647 1.639 15376
0.922 1.646 1.629 16826
0.921 1.644 1.619 19171
0.923 1.648 1.613 19976
0.925 1.652 1.607 15564
0.927 1.655 1.602 15241
0.929 1.659 1.596 19193
0.931 1.663 1.591 17134
0.930 1.661 1.580 15215
0.929 1.659 1.570 17602
0.934 1.668 1.569 20564
0.936 1.672 1.563 23474
0.944 1.686 1.567 19681
0.953 1.701 1.570 18761
0.958 1.710 1.569 20707
0.960 1.714 1.564 14935
0.962 1.718 1.558 7001
0.958 1.710 1.543 5329
0.960 1.713 1.537 5554
0.971 1.734 1.545 5238
1.037 1.851 1.629 5882
1.007 1.798 1.578 7204
1.009 1.802 1.572 11835
1.011 1.805 1.566 11940
1.016 1.815 1.564 8799
0.996 1.778 1.527 6736
1.098 1.960 1.657 7844
1.100 1.964 1.650 8856
1.102 1.967 1.644 8499
1.133 2.023 1.676 10746
1.122 2.004 1.652 13943
1.118 1.996 1.636 13339
1.117 1.994 1.625 10843
1.122 2.004 1.623 9517
1.131 2.019 1.625 13858
1.136 2.029 1.622 18781
1.135 2.027 1.611 19662
1.137 2.030 1.604 19414
1.139 2.034 1.597 18266
1.141 2.038 1.590 17827
1.143 2.041 1.583 14319
1.145 2.045 1.577 11251
1.151 2.055 1.574 9049
1.163 2.076 1.579 9321
1.168 2.086 1.576 11672
1.170 2.089 1.569 11370
1.172 2.093 1.562 9995
1.181 2.108 1.563 7377
1.193 2.130 1.567 5348
1.192 2.128 1.556 3923
1.190 2.125 1.545 4875
1.196 2.135 1.542 5605
1.197 2.138 1.535 5437
1.321 2.359 1.666 5523
1.323 2.363 1.658 5739
1.329 2.373 1.654 6652
1.331 2.377 1.646 7621
1.371 2.447 1.679 7031
1.369 2.445 1.667 8828
1.361 2.431 1.648 9090
1.360 2.428 1.636 11407
1.362 2.432 1.628 10654
1.368 2.442 1.623 10205
1.421 2.538 1.670 7263
1.420 2.535 1.658 8461
1.422 2.539 1.649 7003
1.455 2.599 1.673 5702
1.457 2.602 1.664 5986
1.463 2.612 1.659 6461
1.465 2.616 1.650 6848
1.467 2.620 1.641 7236
1.466 2.618 1.629 5922
1.465 2.615 1.617 4804
1.554 2.774 1.694 3816
1.552 2.772 1.681 5042
1.548 2.764 1.665 4950
1.543 2.755 1.649 5466
1.548 2.765 1.643 4339
1.624 2.900 1.704 4584
1.626 2.904 1.694 4584
1.632 2.914 1.687 4198
1.585 2.830 1.632 4334
1.640 2.929 1.671 5109
1.642 2.932 1.661 6343
1.641 2.930 1.648 7149
1.643 2.934 1.638 8021
1.645 2.938 1.628 8021
1.647 2.941 1.618 4010
0.747 1.333 0.814 256
0.327 0.581 1.688 25964
0.327 0.582 1.679 18748
0.328 0.583 1.670 11901
0.330 0.587 1.668 11602
0.332 0.591 1.666 11302
0.334 0.595 1.664 11302
0.338 0.602 1.669 15015
0.340 0.605 1.667 19034
0.344 0.612 1.672 21311
0.346 0.616 1.670 23674
0.350 0.623 1.675 22989
0.352 0.627 1.672 22454
0.355 0.631 1.670 20434
0.357 0.635 1.668 18414
0.359 0.639 1.666 17435
0.359 0.639 1.657 12756
0.360 0.640 1.647 9946
0.362 0.644 1.645 10314
0.366 0.651 1.650 10663
0.368 0.655 1.648 16407
0.370 0.658 1.645 22150
0.372 0.662 1.643 22024
0.374 0.666 1.641 21898
0.376 0.670 1.639 17478
0.377 0.670 1.629 13103
0.381 0.677 1.634 11785
0.385 0.684 1.639 9843
0.392 0.698 1.657 8486
0.406 0.722 1.696 11978
0.414 0.736 1.715 13095
0.418 0.743 1.719 16389
0.420 0.747 1.716 16312
0.422 0.751 1.714 13183
0.423 0.752 1.704 10456
0.431 0.766 1.722 9180
0.439 0.780 1.740 9506
0.441 0.784 1.738 7497
0.445 0.792 1.742 5534
0.443 0.789 1.725 7310
0.444 0.789 1.716 11693
0.446 0.793 1.713 13569
0.448 0.797 1.710 11416
0.450 0.801 1.708 9264
0.455 0.809 1.712 13785
0.457 0.813 1.709 20943
0.461 0.821 1.713 23874
0.461 0.821 1.703 22655
0.464 0.825 1.701 19924
0.466 0.829 1.698 18096
0.468 0.833 1.695 17560
0.470 0.837 1.692 15815
0.475 0.844 1.696 15530
0.481 0.856 1.706 15092
0.483 0.860 1.703 17188
0.485 0.864 1.700 20689
0.488 0.868 1.697 23426
0.490 0.871 1.694 21818
0.492 0.875 1.691 17692
0.494 0.879 1.688 15006
0.499 0.887 1.692 15167
0.503 0.895 1.695 19993
0.505 0.899 1.692 22554
0.510 0.907 1.696 23480
0.512 0.911 1.693 23088
0.516 0.918 1.696 18156
0.516 0.918 1.686 14851
0.521 0.926 1.690 11370
0.523 0.930 1.687 11691
0.527 0.938 1.690 19690
0.530 0.942 1.687 24333
0.529 0.942 1.677 24557
0.532 0.946 1.674 23746
0.536 0.954 1.677 24469
0.541 0.962 1.680 22918
0.550 0.978 1.696 15472
0.557 0.990 1.705 13467
0.559 0.994 1.702 15784
0.563 1.002 1.705 18012
0.566 1.006 1.701 16795
0.568 1.010 1.698 16798
0.570 1.014 1.694 21335
0.575 1.022 1.697 20725
0.579 1.030 1.700 18982
0.584 1.039 1.703 20038
0.586 1.042 1.699 22175
0.586 1.042 1.689 27952
0.588 1.046 1.686 32117
0.590 1.050 1.682 34640
0.595 1.058 1.685 37358
0.597 1.062 1.681 35792
0.599 1.066 1.678 31740
0.601 1.070 1.674 24140
0.604 1.074 1.670 12076
0.621 1.104 1.703 12122
0.625 1.112 1.706 20404
0.625 1.112 1.696 22358
0.627 1.116 1.692 17382
0.632 1.124 1.694 14067
0.642 1.142 1.708 16316
0.644 1.146 1.705 20866
0.644 1.145 1.695 24220
0.648 1.154 1.697 23379
0.653 1.162 1.699 18947
0.655 1.166 1.695 12230
0.660 1.174 1.697 13024
0.665 1.183 1.699 17282
0.670 1.192 1.700 12769
0.675 1.200 1.702 7696
0.666 1.185 1.675 12682
0.671 1.194 1.677 19450
0.676 1.203 1.678 17467
0.678 1.206 1.674 11719
0.672 1.196 1.653 11592
0.675 1.200 1.649 16988
0.679 1.209 1.650 27683
0.684 1.217 1.652 32331
0.689 1.226 1.654 26803
0.688 1.225 1.644 19300
0.688 1.224 1.634 18979
0.690 1.228 1.630 15991
0.689 1.227 1.620 6947
0.727 1.293 1.689 4431
0.694 1.234 1.611 6851
0.701 1.247 1.618 8783
0.747 1.329 1.704 10342
0.752 1.338 1.705 21607
0.751 1.337 1.695 21696
0.754 1.341 1.690 18602
0.759 1.350 1.691 20035
0.766 1.363 1.698 19031
0.769 1.367 1.693 25423
0.771 1.371 1.689 26552
0.776 1.380 1.689 22940
0.778 1.384 1.685 18752
0.780 1.388 1.680 11678
0.780 1.387 1.670 8793
0.785 1.396 1.671 12299
0.790 1.405 1.671 19485
0.797 1.419 1.677 21527
0.802 1.428 1.678 12772
0.808 1.437 1.678 8222
0.813 1.446 1.679 13256
0.818 1.455 1.679 20454
0.823 1.464 1.679 22175
0.825 1.468 1.674 16249
0.830 1.477 1.675 9166
0.832 1.480 1.670 4939
0.846 1.505 1.686 7690
0.851 1.514 1.686 15402
0.853 1.518 1.681 24976
0.855 1.522 1.675 35634
0.858 1.526 1.670 38602
0.863 1.535 1.670 33061
0.865 1.539 1.665 35167
0.867 1.543 1.660 39908
0.872 1.552 1.660 37823
0.877 1.561 1.659 32441
0.880 1.565 1.654 22149
0.885 1.574 1.654 16636
0.896 1.594 1.664 12898
0.910 1.619 1.678 13385
0.909 1.618 1.668 16067
0.914 1.627 1.667 16913
0.917 1.631 1.662 17247
0.916 1.629 1.651 15698
0.918 1.633 1.646 13847
0.923 1.642 1.645 12430
0.928 1.651 1.644 14473
0.927 1.650 1.634 16857
0.923 1.643 1.619 19684
0.925 1.646 1.613 20470
0.927 1.650 1.607 15035
0.930 1.654 1.602 13888
0.932 1.657 1.596 17961
0.934 1.661 1.591 15408
0.933 1.659 1.580 13204
0.932 1.657 1.570 15426
0.937 1.667 1.569 19085
0.942 1.676 1.568 22846
0.947 1.685 1.567 19509
0.955 1.700 1.570 16897
0.961 1.709 1.569 18340
0.963 1.713 1.564 13942
0.965 1.716 1.558 7016
0.963 1.714 1.547 5931
0.965 1.718 1.542 6639
0.971 1.727 1.540 5988
1.040 1.850 1.629 5960
1.010 1.796 1.578 7083
1.012 1.800 1.572 11197
1.014 1.804 1.566 10934
1.000 1.779 1.537 7862
1.102 1.960 1.668 6432
1.101 1.958 1.657 8677
1.100 1.956 1.646 9279
1.102 1.960 1.639 8677
1.136 2.022 1.676 9925
1.125 2.002 1.652 14341
1.121 1.995 1.636 13266
1.120 1.992 1.625 9963
1.125 2.002 1.623 10363
1.134 2.017 1.625 16388
1.136 2.021 1.618 21884
1.138 2.025 1.611 23023
1.140 2.029 1.604 22841
1.142 2.032 1.597 21521
1.144 2.036 1.590 20347
1.146 2.040 1.583 15275
1.145 2.037 1.572 11485
1.151 2.047 1.570 8758
1.169 2.080 1.583 9075
1.171 2.084 1.576 12020
1.173 2.087 1.569 12309
1.175 2.091 1.562 10941
1.181 2.101 1.559 8134
1.196 2.128 1.567 5272
1.178 2.096 1.537 4518
1.190 2.117 1.541 5419
1.314 2.337 1.674 5760
1.319 2.347 1.670 5881
1.321 2.351 1.662 5858
1.327 2.361 1.658 5575
1.329 2.365 1.650 6241
1.335 2.375 1.646 7054
1.374 2.445 1.679 6776
1.373 2.443 1.667 8466
1.368 2.435 1.652 8367
1.364 2.426 1.636 10025
1.369 2.436 1.632 8975
1.375 2.446 1.627 8321
1.425 2.536 1.670 7687
1.424 2.533 1.658 8849
1.426 2.537 1.649 7234
1.425 2.535 1.637 5682
1.461 2.600 1.664 5806
1.467 2.610 1.659 6236
1.469 2.614 1.650 6565
1.475 2.624 1.645 6906
1.474 2.622 1.632 5474
1.469 2.613 1.617 4385
1.558 2.772 1.694 3730
1.557 2.770 1.681 4865
1.552 2.761 1.665 4730
1.547 2.753 1.649 5276
1.553 2.763 1.643 4322
1.632 2.904 1.707 4556
1.634 2.908 1.697 4556
1.637 2.912 1.687 4226
1.586 2.822 1.628 4193
1.645 2.926 1.671 4877
1.647 2.930 1.661 5791
1.645 2.927 1.648 6386
1.648 2.931 1.638 7090
1.650 2.935 1.628 7090
1.652 2.939 1.618 3545
0.745 1.326 0.811 266
0.327 0.577 1.681 28483
0.329 0.581 1.679 21913
0.330 0.582 1.670 15623
0.332 0.586 1.668 14898
0.334 0.590 1.666 14172
0.336 0.594 1.664 14172
0.340 0.600 1.669 17860
0.342 0.604 1.667 22010
0.346 0.611 1.672 24142
0.348 0.615 1.670 26456
0.352 0.622 1.675 25130
0.354 0.626 1.672 23931
0.357 0.630 1.670 21664
0.359 0.633 1.668 19398
0.361 0.637 1.666 18201
0.363 0.641 1.664 13666
0.364 0.642 1.654 10818
0.366 0.646 1.652 11612
0.368 0.650 1.650 12407
0.370 0.653 1.648 18642
0.372 0.657 1.645 24877
0.374 0.661 1.643 24975
0.377 0.665 1.641 25074
0.379 0.669 1.639 20273
0.381 0.672 1.636 15382
0.383 0.676 1.634 13232
0.387 0.683 1.639 10132
0.395 0.697 1.657 8542
0.406 0.717 1.689 11547
0.414 0.731 1.708 11781
0.420 0.742 1.719 14607
0.422 0.746 1.716 14725
0.425 0.750 1.714 10742
0.425 0.750 1.704 7026
0.441 0.778 1.750 6340
0.445 0.786 1.754 6765
0.445 0.786 1.745 6812
0.446 0.787 1.735 7006
0.446 0.787 1.725 7623
0.448 0.791 1.723 10109
0.451 0.795 1.720 11836
0.453 0.799 1.717 11890
0.455 0.803 1.714 11944
0.459 0.811 1.718 15137
0.462 0.815 1.716 21473
0.464 0.819 1.713 24568
0.466 0.823 1.710 24270
0.468 0.827 1.707 20970
0.471 0.831 1.704 17670
0.471 0.831 1.695 16602
0.473 0.835 1.692 15057
0.479 0.846 1.702 15875
0.486 0.858 1.713 18376
0.488 0.862 1.710 22071
0.488 0.862 1.700 25148
0.490 0.866 1.697 27088
0.493 0.870 1.694 22890
0.495 0.874 1.691 17082
0.499 0.882 1.695 13545
0.502 0.885 1.692 13462
0.504 0.889 1.689 20261
0.508 0.897 1.692 24066
0.513 0.905 1.696 24953
0.517 0.913 1.699 22913
0.519 0.917 1.696 16564
0.522 0.921 1.693 12879
0.524 0.925 1.690 9562
0.528 0.932 1.693 9544
0.530 0.936 1.690 16557
0.530 0.936 1.680 20850
0.533 0.940 1.677 21541
0.535 0.944 1.674 22692
0.539 0.952 1.677 26881
0.546 0.964 1.686 26703
0.553 0.976 1.696 18791
0.560 0.988 1.705 14861
0.562 0.992 1.702 16437
0.564 0.996 1.698 18465
0.569 1.004 1.701 17104
0.571 1.008 1.698 15423
0.573 1.012 1.694 19421
0.578 1.020 1.697 20784
0.583 1.028 1.700 19600
0.587 1.037 1.703 19972
0.589 1.041 1.699 18980
0.592 1.044 1.696 20171
0.591 1.044 1.686 21911
0.594 1.048 1.682 25731
0.598 1.056 1.685 31922
0.601 1.060 1.681 31191
0.603 1.064 1.678 26284
0.605 1.068 1.674 19302
0.607 1.072 1.670 9330
0.624 1.102 1.703 11448
0.626 1.106 1.700 22532
0.629 1.110 1.696 24824
0.631 1.114 1.692 16768
0.636 1.122 1.694 12848
0.643 1.135 1.702 17001
0.648 1.143 1.705 21926
0.650 1.147 1.701 23347
0.652 1.151 1.697 22459
0.657 1.160 1.699 17122
0.667 1.177 1.713 11059
0.669 1.181 1.709 14731
0.671 1.185 1.705 18965
0.674 1.189 1.700 13996
0.676 1.193 1.696 7474
0.670 1.183 1.675 12259
0.675 1.192 1.677 19077
0.680 1.200 1.678 21681
0.679 1.200 1.668 23383
0.682 1.203 1.664 18812
0.684 1.207 1.660 17858
0.686 1.211 1.656 32951
0.688 1.215 1.652 40675
0.690 1.219 1.648 32700
0.692 1.223 1.644 21717
0.692 1.222 1.634 24670
0.694 1.225 1.630 28139
0.693 1.224 1.620 15673
0.693 1.223 1.610 7508
0.700 1.237 1.617 6424
0.716 1.264 1.641 6717
0.754 1.331 1.710 7373
0.754 1.330 1.699 15322
0.756 1.334 1.695 18153
0.755 1.333 1.685 22423
0.760 1.342 1.686 16971
0.774 1.366 1.703 13234
0.773 1.365 1.693 21823
0.775 1.369 1.689 20998
0.780 1.378 1.689 16405
0.783 1.382 1.685 11516
0.790 1.395 1.691 7473
0.796 1.404 1.692 10661
0.798 1.408 1.687 10224
0.803 1.417 1.687 11610
0.802 1.416 1.677 16070
0.807 1.425 1.678 11335
0.812 1.434 1.678 8532
0.820 1.448 1.684 14328
0.825 1.457 1.684 23898
0.828 1.461 1.679 27799
0.830 1.465 1.674 21714
0.832 1.469 1.669 12020
0.837 1.478 1.670 5984
0.854 1.507 1.691 7641
0.856 1.511 1.686 14384
0.858 1.515 1.681 23966
