-0.020 0.669 1.670 10105
-0.020 0.683 1.689 7721
-0.020 0.694 1.702 7804
-0.021 0.702 1.707 7949
-0.021 0.703 1.697 8878
-0.021 0.698 1.674 10846
-0.021 0.699 1.665 12562
-0.021 0.703 1.662 14555
-0.021 0.711 1.667 14763
-0.021 0.715 1.665 15334
-0.021 0.723 1.670 13718
-0.022 0.735 1.682 12849
-0.022 0.736 1.673 13308
-0.022 0.740 1.671 13689
-0.022 0.752 1.683 14002
-0.022 0.756 1.680 12088
-0.022 0.761 1.678 10174
-0.022 0.758 1.662 10049
-0.022 0.759 1.652 10454
-0.023 0.767 1.657 8175
-0.023 0.775 1.662 6074
-0.023 0.794 1.688 6620
-0.024 0.802 1.692 7770
-0.024 0.807 1.690 9139
-0.024 0.811 1.687 10509
-0.024 0.812 1.678 10660
-0.024 0.813 1.669 10935
-0.024 0.825 1.680 13057
-0.024 0.829 1.677 14026
-0.025 0.837 1.682 13046
-0.025 0.842 1.679 19079
-0.025 0.846 1.677 24335
-0.025 0.851 1.674 25743
-0.025 0.851 1.665 27186
-0.025 0.856 1.662 22300
-0.025 0.864 1.667 14897
-0.026 0.881 1.684 14670
-0.026 0.885 1.682 13565
-0.026 0.890 1.679 10485
-0.026 0.894 1.677 11358
-0.026 0.898 1.674 11992
-0.027 0.907 1.678 12118
-0.027 0.920 1.689 11607
-0.027 0.924 1.686 10596
-0.027 0.933 1.690 11962
-0.028 0.946 1.701 13971
-0.028 0.954 1.704 15011
-0.028 0.959 1.702 13721
-0.028 0.959 1.692 19340
-0.028 0.968 1.696 27688
-0.029 0.977 1.700 32078
-0.029 0.986 1.703 25354
-0.029 0.990 1.700 16325
-0.029 0.990 1.691 12948
-0.029 0.999 1.694 18418
-0.030 1.008 1.698 27735
-0.030 1.017 1.702 35146
-0.030 1.026 1.705 35739
-0.031 1.039 1.715 30788
-0.031 1.040 1.705 27986
-0.031 1.040 1.696 22260
-0.031 1.049 1.699 24331
-0.031 1.049 1.690 30701
-0.031 1.053 1.686 32052
-0.031 1.058 1.683 24939
-0.031 1.058 1.674 12829
-0.031 1.071 1.683 9429
-0.032 1.080 1.687 14268
-0.032 1.085 1.683 15769
-0.032 1.089 1.680 15075
-0.032 1.094 1.677 12438
-0.032 1.098 1.674 12344
-0.032 1.103 1.670 14395
-0.033 1.107 1.667 18669
-0.033 1.107 1.658 22215
-0.033 1.111 1.654 20301
-0.033 1.120 1.657 18447
-0.033 1.129 1.660 15428
-0.034 1.143 1.669 16023
-0.034 1.148 1.666 19251
-0.034 1.152 1.663 20048
-0.034 1.166 1.672 19056
-0.035 1.176 1.674 16167
-0.035 1.195 1.689 20052
-0.035 1.199 1.686 26791
-0.036 1.209 1.689 20196
-0.036 1.213 1.685 13429
-0.036 1.218 1.681 12898
-0.036 1.237 1.696 11881
-0.037 1.247 1.699 9774
-0.037 1.251 1.695 8359
-0.037 1.251 1.685 9775
-0.037 1.265 1.693 10642
-0.037 1.275 1.696 16355
-0.038 1.280 1.692 20376
-0.038 1.289 1.694 15153
-0.038 1.294 1.690 8812
-0.039 1.319 1.711 8010
-0.039 1.323 1.707 11267
-0.039 1.333 1.709 14397
-0.039 1.338 1.705 16187
-0.039 1.326 1.683 12693
-0.039 1.320 1.667 8714
-0.040 1.346 1.687 11089
-0.040 1.361 1.695 16272
-0.040 1.371 1.696 15847
-0.040 1.375 1.692 9792
-0.041 1.380 1.688 8566
-0.041 1.384 1.684 15961
-0.041 1.389 1.680 20292
-0.041 1.399 1.682 12891
-0.042 1.419 1.695 7252
-0.040 1.348 1.610 11965
-0.042 1.423 1.681 20401
-0.042 1.433 1.682 28764
-0.042 1.437 1.678 25895
-0.043 1.447 1.679 24925
-0.042 1.446 1.669 29527
-0.043 1.451 1.665 33230
-0.043 1.460 1.667 29591
-0.043 1.470 1.668 20216
-0.044 1.486 1.675 23459
-0.044 1.496 1.676 25312
-0.044 1.506 1.677 18603
-0.044 1.511 1.673 19580
-0.045 1.521 1.674 35504
-0.045 1.531 1.675 35664
-0.045 1.546 1.681 17998
-0.046 1.557 1.682 12511
-0.046 1.561 1.678 9317
-0.046 1.571 1.678 14430
-0.046 1.570 1.668 21122
-0.046 1.569 1.658 17096
-0.046 1.579 1.659 11154
-0.046 1.577 1.649 10639
-0.047 1.605 1.666 9354
-0.048 1.627 1.677 10249
-0.048 1.620 1.662 12650
-0.047 1.612 1.646 13016
-0.047 1.611 1.636 9185
-0.049 1.650 1.663 8345
-0.049 1.667 1.669 10181
-0.049 1.665 1.659 11805
-0.049 1.658 1.643 12277
-0.050 1.692 1.664 16156
-0.050 1.690 1.654 18673
-0.050 1.689 1.644 13025
-0.051 1.735 1.675 12715
-0.051 1.733 1.665 14078
-0.051 1.744 1.665 10226
-0.052 1.754 1.665 12552
-0.052 1.765 1.665 11712
-0.052 1.763 1.655 8152
-0.053 1.792 1.670 7842
-0.053 1.814 1.680 15001
-0.054 1.825 1.679 18606
-0.054 1.835 1.679 14620
-0.054 1.828 1.664 12449
-0.054 1.838 1.663 13395
-0.055 1.861 1.673 15845
-0.055 1.884 1.682 16442
-0.056 1.895 1.681 13717
-0.056 1.911 1.686 10447
-0.057 1.928 1.690 12559
-0.057 1.939 1.689 12108
-0.057 1.943 1.683 7181
-0.057 1.942 1.673 4668
-0.057 1.946 1.667 6580
-0.058 1.957 1.666 8321
-0.060 2.031 1.713 9810
-0.060 2.035 1.707 15339
-0.060 2.046 1.706 15523
-0.060 2.050 1.700 12064
-0.061 2.061 1.698 8270
-0.061 2.091 1.711 10537
-0.062 2.096 1.705 15794
-0.062 2.100 1.699 12642
-0.062 2.111 1.697 10432
-0.063 2.135 1.705 11527
-0.063 2.152 1.708 12271
-0.063 2.151 1.697 11859
-0.063 2.149 1.686 11332
-0.063 2.160 1.684 10366
-0.065 2.203 1.705 12242
-0.065 2.207 1.698 10378
-0.065 2.212 1.692 7832
-0.065 2.216 1.685 6255
-0.067 2.273 1.714 4746
-0.067 2.284 1.712 6319
-0.067 2.289 1.705 9870
-0.067 2.287 1.694 13427
-0.067 2.291 1.688 13658
-0.068 2.309 1.690 13970
-0.068 2.320 1.687 15965
-0.069 2.331 1.685 17074
-0.069 2.342 1.682 14803
-0.069 2.340 1.671 13831
-0.069 2.345 1.664 15042
-0.069 2.362 1.665 13627
-0.070 2.394 1.675 13757
-0.071 2.411 1.677 14424
-0.071 2.429 1.678 13083
-0.073 2.467 1.692 13202
-0.073 2.485 1.693 14742
-0.073 2.483 1.681 18541
-0.073 2.488 1.674 27358
-0.073 2.492 1.667 31673
-0.073 2.496 1.659 33084
-0.073 2.501 1.652 31302
-0.074 2.512 1.649 28331
-0.074 2.510 1.637 26001
-0.074 2.514 1.630 23892
-0.074 2.518 1.622 21489
-0.075 2.536 1.623 16596
-0.075 2.554 1.623 15380
-0.075 2.565 1.620 15691
-0.076 2.570 1.612 16231
-0.076 2.581 1.608 13486
-0.076 2.592 1.605 11194
-0.076 2.596 1.597 11159
-0.076 2.600 1.589 10162
-0.077 2.619 1.589 9560
-0.077 2.616 1.578 8004
-0.077 2.620 1.570 6486
-0.085 2.875 1.696 5388
-0.085 2.887 1.692 7965
-0.085 2.891 1.683 8499
-0.085 2.896 1.675 9033
-0.085 2.900 1.666 7189
-0.085 2.898 1.654 5392
-0.086 2.930 1.660 4338
-0.086 2.942 1.655 4416
-0.087 2.960 1.653 3397
-0.087 2.972 1.648 2635
-0.090 3.047 1.675 4113
-0.089 3.044 1.662 6257
-0.089 3.042 1.650 6805
-0.089 3.039 1.637 7555
-0.090 3.050 1.632 6084
-0.090 3.055 1.623 4567
-0.095 3.223 1.692 5029
-0.095 3.228 1.682 6287
-0.095 3.225 1.670 5893
-0.093 3.172 1.633 6753
-0.093 3.176 1.624 6753
-0.095 3.245 1.644 6268
-0.096 3.257 1.638 7066
-0.096 3.254 1.625 6418
-0.096 3.258 1.616 5794
-0.096 3.270 1.609 4249
-0.099 3.354 1.635 3650
-0.099 3.358 1.625 3650
-0.099 3.362 1.615 1825
-0.045 1.527 0.814 202
-0.018 0.660 1.674 12596
-0.018 0.664 1.672 10735
-0.018 0.672 1.677 8969
-0.018 0.686 1.697 7786
-0.019 0.694 1.702 8033
-0.019 0.702 1.707 8143
-0.019 0.700 1.690 9260
-0.019 0.698 1.674 11517
-0.019 0.699 1.665 12811
-0.019 0.703 1.662 14396
-0.019 0.711 1.667 14335
-0.019 0.715 1.665 14632
-0.019 0.723 1.670 12804
-0.020 0.735 1.682 11634
-0.020 0.736 1.673 12158
-0.020 0.740 1.671 12739
-0.020 0.755 1.690 13469
-0.020 0.760 1.687 12059
-0.021 0.764 1.685 10649
-0.020 0.762 1.669 10241
-0.020 0.762 1.659 10405
-0.021 0.767 1.657 8190
-0.021 0.775 1.662 6162
-0.021 0.794 1.688 6640
-0.022 0.802 1.692 7641
-0.022 0.807 1.690 8913
-0.022 0.811 1.687 10185
-0.022 0.812 1.678 10854
-0.022 0.813 1.669 11602
-0.022 0.825 1.680 13619
-0.022 0.829 1.677 14567
-0.022 0.834 1.675 13439
-0.023 0.842 1.679 19757
-0.023 0.846 1.677 25419
-0.023 0.851 1.674 26811
-0.023 0.851 1.665 28260
-0.023 0.856 1.662 22895
-0.023 0.860 1.660 14561
-0.024 0.881 1.684 15280
-0.024 0.885 1.682 14526
-0.024 0.890 1.679 11416
-0.024 0.894 1.677 12413
-0.024 0.899 1.674 13129
-0.024 0.903 1.671 13168
-0.025 0.916 1.682 11661
-0.025 0.928 1.693 10224
-0.025 0.933 1.690 12082
-0.025 0.946 1.701 14667
-0.026 0.955 1.704 15540
-0.026 0.959 1.702 14525
-0.026 0.959 1.692 20661
-0.026 0.968 1.696 29212
-0.026 0.977 1.700 33181
-0.026 0.986 1.703 25944
-0.027 0.990 1.700 16774
-0.027 0.990 1.691 13853
-0.027 0.995 1.688 19251
-0.027 1.008 1.698 27885
-0.027 1.013 1.695 35659
-0.028 1.026 1.705 35656
-0.028 1.040 1.715 27845
-0.028 1.040 1.705 23225
-0.028 1.044 1.702 18800
-0.028 1.049 1.699 23383
-0.028 1.049 1.690 30725
-0.028 1.053 1.686 31982
-0.028 1.053 1.677 24839
-0.028 1.058 1.674 12699
-0.029 1.071 1.683 8013
-0.029 1.080 1.687 11520
-0.029 1.085 1.683 13006
-0.029 1.089 1.680 12333
-0.029 1.089 1.671 9461
-0.029 1.094 1.667 8921
-0.029 1.098 1.664 10386
-0.030 1.102 1.661 14755
-0.030 1.107 1.658 19511
-0.030 1.106 1.648 18357
-0.030 1.120 1.657 16833
-0.030 1.130 1.660 14443
-0.031 1.144 1.669 15788
-0.031 1.148 1.666 19958
-0.031 1.152 1.663 21119
-0.031 1.167 1.672 20371
-0.032 1.176 1.674 17214
-0.032 1.190 1.683 20045
-0.032 1.200 1.686 26337
-0.032 1.209 1.689 19815
-0.033 1.213 1.685 13640
-0.033 1.223 1.687 14573
-0.033 1.237 1.696 14639
-0.033 1.247 1.699 11858
-0.034 1.251 1.695 9648
-0.034 1.251 1.685 10278
-0.034 1.266 1.693 10019
-0.034 1.275 1.696 15859
-0.034 1.280 1.692 20624
-0.035 1.289 1.694 15737
-0.035 1.294 1.690 9103
-0.035 1.319 1.711 8579
-0.036 1.323 1.707 12167
-0.036 1.333 1.709 14075
-0.036 1.332 1.699 15493
-0.036 1.327 1.683 11958
-0.035 1.321 1.667 7235
-0.036 1.341 1.681 10060
-0.037 1.361 1.695 14779
-0.037 1.371 1.696 15347
-0.037 1.370 1.686 10002
-0.037 1.375 1.682 8589
-0.037 1.384 1.684 15732
-0.037 1.394 1.686 19868
-0.038 1.399 1.682 12695
-0.038 1.419 1.695 6895
-0.036 1.348 1.610 11646
-0.038 1.423 1.681 17991
-0.038 1.433 1.682 24973
-0.039 1.437 1.678 21514
-0.039 1.447 1.679 18971
-0.039 1.441 1.664 23390
-0.039 1.451 1.665 25656
-0.039 1.461 1.667 21089
-0.040 1.476 1.673 15319
-0.040 1.497 1.686 21019
-0.040 1.496 1.676 21867
-0.040 1.506 1.677 18427
-0.041 1.516 1.678 23517
-0.041 1.526 1.679 37883
-0.041 1.531 1.675 34802
-0.042 1.547 1.681 13989
-0.042 1.557 1.682 7407
-0.042 1.567 1.683 6572
-0.042 1.571 1.678 13670
-0.042 1.570 1.668 21128
-0.042 1.575 1.664 17731
-0.042 1.579 1.659 12588
-0.043 1.583 1.654 11752
-0.043 1.599 1.660 9828
-0.044 1.633 1.683 10272
-0.044 1.626 1.667 13065
-0.043 1.618 1.651 14335
-0.044 1.623 1.647 9063
-0.044 1.656 1.668 9784
-0.045 1.667 1.669 11977
-0.045 1.671 1.664 13438
-0.045 1.676 1.659 11919
-0.046 1.698 1.670 15789
-0.046 1.696 1.659 17366
-0.045 1.689 1.644 12189
-0.047 1.735 1.675 15432
-0.047 1.733 1.665 16493
-0.047 1.738 1.660 12048
-0.047 1.748 1.660 13390
-0.047 1.765 1.665 10791
-0.043 1.618 1.532 7869
-0.044 1.622 1.527 7760
-0.049 1.820 1.685 13258
-0.049 1.831 1.684 17344
-0.049 1.835 1.679 15909
-0.049 1.828 1.664 15751
-0.049 1.838 1.663 15330
-0.050 1.861 1.673 15317
-0.050 1.878 1.677 14302
-0.051 1.901 1.686 10707
-0.052 1.924 1.695 8404
-0.052 1.935 1.695 11737
-0.052 1.939 1.689 13290
-0.052 1.944 1.683 9912
-0.052 1.942 1.673 6916
-0.052 1.946 1.667 8397
-0.053 1.970 1.676 9948
-0.054 1.999 1.689 11226
-0.055 2.035 1.707 14566
-0.055 2.046 1.706 13084
-0.055 2.051 1.700 10118
-0.055 2.061 1.698 7743
-0.056 2.085 1.706 11217
-0.056 2.096 1.705 15699
-0.056 2.101 1.699 11821
-0.057 2.111 1.697 10876
-0.057 2.135 1.705 13697
-0.058 2.153 1.708 14855
-0.058 2.151 1.697 14175
-0.058 2.149 1.686 12012
-0.058 2.160 1.684 10178
-0.059 2.197 1.700 11752
-0.059 2.208 1.698 9721
-0.059 2.206 1.687 7303
-0.060 2.217 1.685 5920
-0.061 2.260 1.706 5199
-0.061 2.278 1.708 5478
-0.061 2.283 1.701 8534
-0.061 2.287 1.694 11835
-0.062 2.292 1.688 12687
-0.062 2.309 1.690 13977
-0.062 2.320 1.687 17312
-0.063 2.331 1.685 19235
-0.063 2.343 1.682 16476
-0.063 2.340 1.671 14613
-0.063 2.345 1.664 15513
-0.063 2.363 1.665 13755
-0.064 2.394 1.675 14139
-0.065 2.412 1.677 14998
-0.065 2.423 1.674 13614
-0.066 2.461 1.688 11782
-0.067 2.486 1.693 12379
-0.067 2.477 1.677 16687
-0.067 2.488 1.674 25477
-0.067 2.492 1.667 29522
-0.067 2.497 1.659 29830
-0.067 2.501 1.652 26674
-0.067 2.512 1.649 23383
-0.067 2.510 1.637 21776
-0.068 2.514 1.630 20342
-0.068 2.518 1.622 18628
-0.068 2.536 1.623 15414
-0.069 2.554 1.623 15524
-0.069 2.566 1.620 16085
-0.069 2.570 1.612 16756
-0.069 2.581 1.608 13955
-0.070 2.592 1.605 11456
-0.070 2.596 1.597 11559
-0.070 2.601 1.589 10615
-0.070 2.619 1.589 9968
-0.070 2.616 1.578 8299
-0.070 2.613 1.566 6762
-0.077 2.883 1.700 5440
-0.078 2.887 1.692 7969
-0.078 2.892 1.683 8397
-0.078 2.903 1.678 8922
-0.078 2.901 1.666 7102
-0.078 2.905 1.658 5380
-0.079 2.923 1.656 4402
-0.079 2.942 1.655 4345
-0.080 2.967 1.657 3254
-0.078 2.894 1.609 2728
-0.082 3.054 1.678 3683
-0.082 3.059 1.669 5327
-0.082 3.042 1.650 5789
-0.082 3.039 1.637 6688
-0.082 3.050 1.632 5562
-0.082 3.055 1.623 4409
-0.087 3.223 1.692 5082
-0.087 3.221 1.679 6348
-0.087 3.225 1.670 5893
-0.085 3.172 1.633 7007
-0.085 3.177 1.624 7007
-0.087 3.253 1.648 6427
-0.087 3.257 1.638 7428
-0.087 3.254 1.625 6441
-0.088 3.259 1.616 5581
-0.088 3.263 1.606 4106
-0.090 3.361 1.638 3435
-0.090 3.366 1.628 3435
-0.091 3.370 1.618 1717
-0.041 1.527 0.814 216
-0.016 0.663 1.681 10519
-0.017 0.668 1.679 9004
-0.017 0.679 1.691 7726
-0.017 0.686 1.697 7932
-0.017 0.694 1.702 8684
-0.017 0.699 1.700 8684
-0.017 0.700 1.690 10576
-0.017 0.698 1.674 13459
-0.017 0.699 1.665 13879
-0.017 0.703 1.662 14668
-0.018 0.708 1.660 14259
-0.018 0.715 1.665 14156
-0.018 0.723 1.670 11890
-0.018 0.738 1.689 10141
-0.018 0.736 1.673 10720
-0.018 0.740 1.671 11387
-0.019 0.755 1.690 12404
-0.019 0.760 1.687 11771
-0.019 0.761 1.678 11187
-0.019 0.762 1.669 10735
-0.019 0.762 1.659 10758
-0.019 0.767 1.657 8577
-0.019 0.779 1.669 6793
-0.020 0.794 1.688 7027
-0.020 0.802 1.692 7850
-0.020 0.807 1.690 9103
-0.020 0.811 1.687 10356
-0.020 0.812 1.678 11607
-0.020 0.816 1.675 12949
-0.020 0.821 1.673 14735
-0.021 0.829 1.677 15464
-0.021 0.834 1.675 14374
-0.021 0.842 1.679 21046
-0.021 0.846 1.677 27452
-0.021 0.851 1.674 28902
-0.021 0.851 1.665 30392
-0.021 0.856 1.662 24185
-0.021 0.860 1.660 14675
-0.022 0.885 1.691 16680
-0.022 0.889 1.689 16319
-0.022 0.890 1.679 12907
-0.022 0.894 1.677 13952
-0.022 0.899 1.674 14723
-0.022 0.903 1.671 14938
-0.023 0.916 1.682 12315
-0.023 0.929 1.693 10333
-0.023 0.937 1.697 12809
-0.024 0.946 1.701 15954
-0.024 0.950 1.698 16716
-0.024 0.959 1.702 16066
-0.024 0.959 1.692 22966
-0.024 0.968 1.696 31901
-0.024 0.977 1.700 35255
-0.024 0.982 1.697 27086
-0.025 0.990 1.700 17365
-0.025 0.991 1.691 15028
-0.025 0.995 1.688 20280
-0.025 1.004 1.691 28099
-0.025 1.013 1.695 36504
-0.025 1.022 1.699 36478
-0.026 1.040 1.715 23951
-0.026 1.044 1.712 16103
-0.026 1.049 1.709 14470
-0.026 1.049 1.699 23019
-0.026 1.049 1.690 30837
-0.026 1.053 1.686 31681
-0.026 1.053 1.677 24298
-0.026 1.058 1.674 12619
-0.027 1.071 1.683 6698
-0.027 1.080 1.687 7952
-0.027 1.085 1.683 9449
-0.027 1.089 1.680 8945
-0.027 1.089 1.671 6365
-0.027 1.080 1.648 5846
-0.027 1.084 1.645 7496
-0.027 1.098 1.654 12141
-0.027 1.102 1.651 17304
-0.028 1.106 1.648 16139
-0.028 1.120 1.657 14412
-0.028 1.130 1.660 12597
-0.028 1.139 1.663 15015
-0.028 1.143 1.660 20833
-0.029 1.152 1.663 22609
-0.029 1.162 1.665 22950
-0.029 1.171 1.668 19177
-0.030 1.195 1.689 19259
-0.030 1.205 1.692 24490
-0.030 1.209 1.689 19106
-0.030 1.214 1.685 14731
-0.030 1.223 1.687 18170
-0.031 1.232 1.690 18880
-0.031 1.242 1.692 14473
-0.031 1.246 1.689 11122
-0.031 1.251 1.685 10762
-0.031 1.261 1.687 8720
-0.032 1.275 1.696 13806
-0.032 1.280 1.692 19761
-0.032 1.289 1.694 16298
-0.032 1.294 1.690 10010
-0.033 1.319 1.711 9239
-0.033 1.323 1.707 13327
-0.033 1.328 1.703 14193
-0.033 1.327 1.693 15269
-0.033 1.321 1.677 12059
-0.033 1.321 1.667 6743
-0.033 1.336 1.675 9172
-0.034 1.356 1.689 12136
-0.034 1.371 1.696 13347
-0.034 1.370 1.686 9709
-0.034 1.375 1.682 8379
-0.034 1.384 1.684 14491
-0.035 1.389 1.680 18028
-0.035 1.399 1.682 11654
-0.035 1.419 1.695 6172
-0.033 1.343 1.604 10648
-0.035 1.423 1.681 14718
-0.035 1.427 1.677 20259
-0.036 1.432 1.672 16685
-0.036 1.436 1.668 14534
-0.036 1.441 1.664 18018
-0.036 1.451 1.665 16767
-0.036 1.466 1.672 11598
-0.037 1.482 1.679 10894
-0.037 1.497 1.686 17893
-0.037 1.502 1.682 18093
-0.037 1.506 1.677 19554
-0.038 1.516 1.678 28551
-0.038 1.526 1.679 41427
-0.038 1.531 1.675 35597
-0.038 1.535 1.670 10972
-0.038 1.528 1.655 5037
-0.039 1.573 1.689 5915
-0.039 1.571 1.678 14440
-0.039 1.570 1.668 22725
-0.039 1.575 1.664 18982
-0.039 1.585 1.664 14486
-0.040 1.589 1.660 12746
-0.040 1.594 1.655 10086
-0.041 1.633 1.683 10635
-0.040 1.626 1.667 13059
-0.040 1.618 1.651 14574
-0.041 1.652 1.673 10158
-0.041 1.656 1.668 12429
-0.041 1.667 1.669 15166
-0.042 1.677 1.669 16779
-0.042 1.682 1.664 12911
-0.042 1.698 1.670 14243
-0.042 1.696 1.659 14518
-0.042 1.707 1.660 11310
-0.043 1.735 1.675 18151
-0.043 1.733 1.665 19021
-0.043 1.732 1.655 15470
-0.043 1.742 1.655 16203
-0.044 1.759 1.660 11026
-0.040 1.618 1.532 8051
-0.045 1.804 1.680 7830
-0.045 1.820 1.685 13317
-0.046 1.831 1.684 15791
-0.045 1.829 1.674 17861
-0.045 1.828 1.664 20799
-0.046 1.838 1.663 18263
-0.046 1.855 1.668 15055
-0.047 1.872 1.672 11829
-0.047 1.907 1.691 8159
-0.048 1.936 1.705 7393
-0.048 1.935 1.695 11484
-0.048 1.939 1.689 14967
-0.048 1.944 1.683 11914
-0.049 1.954 1.682 8863
-0.049 1.959 1.677 10073
-0.049 1.976 1.680 12998
-0.050 1.999 1.689 14782
-0.050 2.023 1.697 14868
-0.050 2.027 1.691 11462
-0.051 2.032 1.685 9256
-0.051 2.055 1.694 7897
-0.052 2.072 1.697 12794
-0.052 2.090 1.700 15341
-0.052 2.107 1.703 10664
-0.053 2.118 1.702 12228
-0.053 2.135 1.705 17433
-0.053 2.146 1.703 19034
-0.054 2.157 1.701 18141
-0.054 2.162 1.695 14305
-0.054 2.166 1.689 10674
-0.055 2.197 1.700 10719
-0.055 2.201 1.694 8857
-0.055 2.206 1.687 6857
-0.056 2.256 1.712 6205
-0.056 2.254 1.701 6673
-0.056 2.258 1.694 6190
-0.057 2.276 1.697 7420
-0.057 2.274 1.685 9475
-0.057 2.285 1.683 10875
-0.057 2.303 1.685 13870
-0.058 2.320 1.687 18180
-0.058 2.338 1.689 20911
-0.058 2.343 1.682 18044
-0.058 2.341 1.671 15523
-0.058 2.345 1.664 16027
-0.059 2.363 1.665 13875
-0.060 2.394 1.675 14361
-0.060 2.412 1.677 15531
-0.060 2.423 1.674 14345
-0.061 2.448 1.679 10562
-0.061 2.472 1.684 9173
-0.062 2.477 1.677 14302
-0.062 2.481 1.670 22614
-0.062 2.492 1.667 25997
-0.062 2.497 1.659 24605
-0.062 2.501 1.652 19261
-0.062 2.512 1.649 15479
-0.062 2.510 1.637 14844
-0.063 2.514 1.630 14381
-0.063 2.519 1.622 13839
-0.063 2.543 1.627 13211
-0.064 2.561 1.627 15103
-0.064 2.566 1.620 16097
-0.064 2.570 1.612 17090
-0.064 2.581 1.608 14239
-0.064 2.585 1.601 11477
-0.064 2.590 1.593 11647
-0.065 2.601 1.589 10622
-0.065 2.619 1.589 10026
-0.065 2.616 1.578 8231
-0.065 2.613 1.566 6813
-0.072 2.883 1.700 5662
-0.072 2.887 1.692 8071
-0.072 2.899 1.687 8540
-0.072 2.910 1.682 9176
-0.072 2.908 1.670 7391
-0.072 2.905 1.658 5963
-0.073 2.917 1.653 4880
-0.073 2.935 1.651 4319
-0.072 2.897 1.621 3378
-0.072 2.901 1.613 3332
-0.076 3.069 1.685 3737
-0.076 3.073 1.676 4930
-0.075 3.035 1.646 4923
-0.075 3.032 1.634 6002
-0.076 3.043 1.628 5291
-0.076 3.048 1.619 4539
-0.080 3.224 1.692 5461
-0.080 3.221 1.679 6832
-0.080 3.225 1.670 6103
-0.079 3.172 1.633 7251
-0.079 3.177 1.624 7251
-0.081 3.260 1.651 6607
-0.081 3.265 1.641 7413
-0.081 3.262 1.629 6120
-0.081 3.259 1.616 5046
-0.081 3.263 1.606 3800
-0.084 3.361 1.638 2922
-0.084 3.366 1.628 2922
-0.084 3.370 1.618 1461
-0.038 1.527 0.814 221
-0.014 0.663 1.681 8529
-0.014 0.671 1.686 7603
-0.015 0.679 1.691 6972
-0.015 0.686 1.697 8030
-0.015 0.691 1.694 9233
-0.015 0.696 1.692 9233
-0.015 0.697 1.683 11811
-0.015 0.698 1.674 14939
-0.015 0.699 1.665 14774
-0.015 0.703 1.662 14914
-0.015 0.708 1.660 14269
-0.015 0.716 1.665 13776
-0.015 0.720 1.663 11133
-0.016 0.728 1.668 8579
-0.016 0.732 1.666 9192
-0.016 0.740 1.671 9753
-0.016 0.759 1.697 10978
-0.016 0.760 1.687 10951
-0.016 0.761 1.678 11008
-0.016 0.762 1.669 10420
-0.016 0.762 1.659 10264
-0.017 0.770 1.664 8429
-0.017 0.782 1.676 7159
-0.017 0.794 1.688 7114
-0.017 0.802 1.692 7646
-0.017 0.807 1.690 8825
-0.017 0.811 1.687 10004
-0.017 0.812 1.678 11902
-0.018 0.817 1.675 13834
-0.018 0.821 1.673 15503
-0.018 0.825 1.671 16090
-0.018 0.830 1.668 15039
-0.018 0.838 1.672 21627
-0.018 0.847 1.677 28179
-0.018 0.851 1.674 29656
-0.018 0.852 1.665 31203
-0.018 0.856 1.662 24612
-0.019 0.876 1.687 15086
-0.019 0.885 1.691 17772
-0.019 0.889 1.689 17642
-0.019 0.894 1.686 14021
-0.019 0.894 1.677 14771
-0.019 0.899 1.674 15428
-0.019 0.903 1.671 15917
-0.020 0.916 1.682 12694
-0.020 0.929 1.693 10440
-0.020 0.937 1.697 13315
-0.020 0.946 1.701 16735
-0.020 0.950 1.698 17338
-0.021 0.959 1.702 16905
-0.021 0.960 1.692 23859
-0.021 0.968 1.696 32736
-0.021 0.977 1.700 35615
-0.021 0.982 1.697 26924
-0.021 0.990 1.700 17141
-0.021 0.991 1.691 14942
-0.022 0.999 1.694 19789
-0.022 1.004 1.691 26823
-0.022 1.013 1.695 35601
-0.022 1.022 1.699 36528
-0.022 1.035 1.709 20727
-0.023 1.053 1.725 10757
-0.022 1.044 1.702 11608
-0.023 1.049 1.699 22892
-0.023 1.049 1.690 30243
-0.023 1.053 1.686 30698
-0.023 1.053 1.677 23200
-0.023 1.058 1.674 12376
-0.023 1.076 1.690 6091
-0.023 1.080 1.687 5324
-0.023 1.085 1.683 6731
-0.023 1.089 1.680 6529
-0.023 1.089 1.671 4881
-0.023 1.075 1.642 4959
-0.023 1.079 1.639 8236
-0.024 1.093 1.648 13153
-0.024 1.102 1.651 15936
-0.024 1.107 1.648 14039
-0.024 1.116 1.651 12097
-0.024 1.130 1.660 10956
-0.025 1.139 1.663 14734
-0.025 1.143 1.660 20962
-0.025 1.148 1.656 22921
-0.025 1.162 1.665 24554
-0.025 1.166 1.662 21092
-0.026 1.190 1.683 17577
-0.026 1.205 1.692 21883
-0.026 1.209 1.689 17911
-0.026 1.219 1.691 15535
-0.026 1.223 1.687 20392
-0.027 1.233 1.690 20820
-0.027 1.242 1.692 15108
-0.027 1.252 1.695 11349
-0.027 1.256 1.691 10593
-0.027 1.276 1.706 7219
-0.027 1.275 1.696 10435
-0.028 1.280 1.692 16934
-0.028 1.284 1.688 15699
-0.028 1.294 1.690 10850
-0.028 1.319 1.711 8930
-0.028 1.318 1.701 13171
-0.029 1.328 1.703 13876
-0.029 1.327 1.693 14716
-0.028 1.322 1.677 12536
-0.028 1.310 1.655 7784
-0.028 1.320 1.657 9262
-0.029 1.351 1.683 9871
-0.029 1.360 1.685 10868
-0.029 1.360 1.675 9298
-0.029 1.369 1.677 8050
-0.030 1.385 1.684 12133
-0.030 1.389 1.680 14920
-0.030 1.399 1.682 9756
-0.029 1.328 1.596 6109
-0.029 1.337 1.598 8933
-0.031 1.423 1.681 11169
-0.031 1.428 1.677 15419
-0.029 1.356 1.592 15327
-0.031 1.436 1.668 13503
-0.031 1.446 1.669 15636
-0.031 1.462 1.677 11739
-0.032 1.477 1.684 8579
-0.032 1.487 1.685 9585
-0.032 1.492 1.680 14909
-0.032 1.502 1.682 15660
-0.032 1.506 1.677 21138
-0.033 1.516 1.678 31221
-0.033 1.527 1.679 43008
-0.033 1.531 1.675 36271
-0.033 1.541 1.676 14716
-0.033 1.546 1.671 11678
-0.033 1.556 1.672 9614
-0.034 1.572 1.678 14515
-0.034 1.570 1.668 22834
-0.034 1.575 1.664 19183
-0.034 1.591 1.670 15917
-0.034 1.589 1.660 13810
-0.034 1.599 1.660 10138
-0.035 1.633 1.683 10474
-0.035 1.626 1.667 12243
-0.035 1.619 1.651 13062
-0.036 1.652 1.673 11429
-0.036 1.657 1.668 13969
-0.036 1.667 1.669 17325
-0.036 1.677 1.669 19528
-0.036 1.688 1.669 13858
-0.036 1.692 1.664 11730
-0.037 1.696 1.659 10762
-0.037 1.719 1.670 9994
-0.037 1.735 1.675 18344
-0.037 1.734 1.665 20510
-0.037 1.732 1.655 18608
-0.038 1.742 1.655 18584
-0.038 1.753 1.655 12486
-0.038 1.787 1.675 7909
-0.039 1.792 1.670 12421
-0.039 1.815 1.680 15527
-0.039 1.825 1.679 14845
-0.039 1.830 1.674 18670
-0.039 1.834 1.669 23580
-0.040 1.838 1.663 19643
-0.040 1.849 1.663 15128
-0.040 1.866 1.667 11208
-0.040 1.870 1.662 7807
-0.042 1.943 1.710 6694
-0.042 1.941 1.700 9803
-0.042 1.939 1.689 13809
-0.042 1.944 1.683 13515
-0.042 1.961 1.687 14097
-0.042 1.959 1.677 14423
-0.042 1.964 1.671 13226
-0.043 1.999 1.689 16854
-0.043 2.017 1.693 16535
-0.043 2.015 1.682 12160
-0.044 2.026 1.681 9816
-0.044 2.049 1.689 8931
-0.044 2.066 1.692 14054
-0.045 2.084 1.696 14693
-0.045 2.107 1.703 9175
-0.046 2.118 1.702 13272
-0.046 2.129 1.700 19808
-0.046 2.146 1.703 21067
-0.046 2.157 1.701 20001
-0.047 2.162 1.695 16143
-0.047 2.166 1.689 10966
-0.047 2.190 1.696 9175
-0.047 2.201 1.694 7755
-0.049 2.271 1.732 6545
-0.049 2.263 1.717 6895
-0.048 2.248 1.697 7591
-0.048 2.252 1.690 7922
-0.049 2.263 1.688 7432
-0.049 2.268 1.681 7908
-0.049 2.292 1.688 9290
-0.050 2.310 1.690 13504
-0.050 2.321 1.687 16892
-0.050 2.338 1.689 19231
-0.051 2.350 1.686 17379
-0.051 2.347 1.675 15551
-0.050 2.345 1.664 15789
-0.051 2.370 1.670 13497
-0.052 2.401 1.680 13547
-0.052 2.412 1.677 14655
-0.052 2.416 1.670 13721
-0.052 2.428 1.667 10428
-0.053 2.459 1.676 7890
-0.053 2.470 1.673 12253
-0.053 2.481 1.670 19527
-0.054 2.486 1.662 22224
-0.054 2.490 1.655 19855
-0.054 2.495 1.648 12966
-0.054 2.513 1.649 8909
-0.054 2.517 1.641 9472
-0.054 2.521 1.634 10034
-0.054 2.526 1.626 10379
-0.055 2.550 1.631 11459
-0.055 2.569 1.631 13682
-0.055 2.573 1.623 15020
-0.055 2.577 1.616 16357
-0.056 2.581 1.608 13555
-0.056 2.586 1.601 10753
-0.056 2.590 1.593 10903
-0.056 2.601 1.589 9701
-0.056 2.619 1.589 9324
-0.056 2.616 1.578 7467
-0.056 2.607 1.562 6265
-0.062 2.883 1.700 5491
-0.062 2.887 1.692 7694
-0.063 2.906 1.691 8268
-0.063 2.910 1.682 9166
-0.063 2.908 1.670 7497
-0.063 2.905 1.658 6404
-0.063 2.917 1.653 5148
-0.063 2.928 1.648 4231
-0.063 2.904 1.625 3819
-0.063 2.909 1.616 3857
-0.066 3.076 1.689 3853
-0.066 3.080 1.680 4748
-0.065 3.021 1.639 4600
-0.065 3.032 1.634 5631
-0.066 3.044 1.628 5112
-0.070 3.234 1.708 4699
-0.069 3.224 1.692 5530
-0.069 3.221 1.679 6857
-0.069 3.226 1.670 5938
-0.068 3.173 1.633 6782
-0.068 3.177 1.624 6782
-0.070 3.268 1.654 6074
-0.070 3.265 1.641 6737
-0.070 3.262 1.629 5481
-0.070 3.259 1.616 4469
-0.070 3.263 1.606 3460
-0.073 3.391 1.651 2761
-0.073 3.395 1.641 2761
-0.073 3.399 1.631 1380
-0.033 1.528 0.814 227
-0.012 0.666 1.688 9701
-0.013 0.674 1.693 8126
-0.013 0.679 1.691 6572
-0.013 0.683 1.689 8164
-0.013 0.688 1.687 9756
-0.013 0.692 1.685 9756
-0.013 0.693 1.676 12829
-0.013 0.698 1.674 16084
-0.013 0.699 1.665 16074
-0.013 0.703 1.662 16215
-0.013 0.708 1.660 15209
-0.013 0.712 1.658 14204
-0.013 0.717 1.656 11176
-0.013 0.721 1.654 8148
-0.014 0.729 1.659 8413
-0.014 0.737 1.664 8603
-0.014 0.755 1.690 9174
-0.014 0.756 1.680 9729
-0.014 0.757 1.671 10502
-0.014 0.758 1.662 10406
-0.014 0.762 1.659 10554
-0.014 0.771 1.664 8646
-0.015 0.779 1.669 7093
-0.015 0.794 1.688 6146
-0.015 0.802 1.692 6019
-0.015 0.807 1.690 7545
-0.015 0.808 1.680 9144
-0.015 0.812 1.678 11943
-0.015 0.817 1.675 14792
-0.015 0.821 1.673 16463
-0.015 0.825 1.671 17176
-0.015 0.826 1.661 16318
-0.016 0.838 1.672 22355
-0.016 0.843 1.670 28706
-0.016 0.847 1.667 30532
-0.016 0.852 1.665 32357
-0.016 0.856 1.662 25700
-0.016 0.876 1.687 15478
-0.017 0.885 1.691 18381
-0.017 0.889 1.689 18548
-0.017 0.894 1.686 14990
-0.017 0.894 1.677 15912
-0.017 0.895 1.667 16943
-0.017 0.903 1.671 17515
-0.017 0.912 1.675 13459
-0.017 0.929 1.693 10726
-0.017 0.937 1.697 13975
-0.018 0.946 1.701 17646
-0.018 0.951 1.698 18069
-0.018 0.959 1.702 17387
-0.018 0.960 1.692 24212
-0.018 0.968 1.696 33100
-0.018 0.977 1.700 35690
-0.018 0.982 1.697 26952
-0.018 0.990 1.700 17082
-0.018 0.991 1.691 14802
-0.019 1.000 1.694 19602
-0.019 1.004 1.691 26654
-0.019 1.013 1.695 35817
-0.019 1.022 1.699 37405
-0.019 1.031 1.702 21027
-0.019 1.035 1.699 10059
-0.019 1.040 1.696 12168
-0.020 1.049 1.699 22700
-0.020 1.049 1.690 29408
-0.020 1.053 1.686 29852
-0.020 1.053 1.677 22386
-0.020 1.058 1.674 12266
-0.020 1.076 1.690 6870
-0.020 1.081 1.687 4953
-0.020 1.085 1.683 5482
-0.020 1.089 1.680 5454
-0.020 1.089 1.671 5136
-0.020 1.080 1.648 5476
-0.020 1.089 1.651 9514
-0.020 1.093 1.648 15331
-0.021 1.102 1.651 17035
-0.021 1.107 1.648 14688
-0.021 1.116 1.651 12469
-0.021 1.130 1.660 11797
-0.021 1.139 1.663 16653
-0.021 1.139 1.653 22815
-0.021 1.148 1.656 25179
-0.022 1.157 1.659 28070
-0.022 1.161 1.656 24391
-0.022 1.166 1.652 16810
-0.022 1.205 1.692 19037
-0.023 1.209 1.689 17214
-0.023 1.214 1.685 16927
-0.023 1.223 1.687 22120
-0.023 1.233 1.690 21793
-0.023 1.242 1.692 15096
-0.023 1.252 1.695 10776
-0.024 1.261 1.697 10344
-0.024 1.276 1.706 7055
-0.024 1.265 1.684 9557
-0.024 1.275 1.686 14902
-0.024 1.284 1.688 15391
-0.024 1.294 1.690 11781
-0.024 1.304 1.692 8853
-0.025 1.318 1.701 12745
-0.025 1.323 1.697 13494
-0.025 1.322 1.687 14628
-0.025 1.322 1.677 14289
-0.025 1.321 1.667 10228
-0.025 1.325 1.663 10962
-0.025 1.319 1.647 12223
-0.025 1.329 1.649 11873
-0.025 1.349 1.663 10424
-0.025 1.359 1.665 8729
-0.026 1.379 1.678 10370
-0.026 1.389 1.680 12539
-0.026 1.367 1.647 9055
-0.025 1.333 1.602 7718
-0.025 1.332 1.593 8113
-0.025 1.358 1.612 9263
-0.025 1.362 1.608 12485
-0.025 1.361 1.598 13557
-0.027 1.437 1.668 12891
-0.027 1.452 1.675 13846
-0.025 1.363 1.574 10888
-0.028 1.483 1.689 7921
-0.028 1.487 1.685 9158
-0.028 1.492 1.680 12967
-0.028 1.502 1.682 14164
-0.028 1.506 1.677 22187
-0.028 1.517 1.678 33182
-0.028 1.527 1.679 44925
-0.029 1.531 1.675 36434
-0.029 1.541 1.676 18065
-0.029 1.546 1.671 18527
-0.029 1.556 1.672 11957
-0.029 1.572 1.678 13069
-0.029 1.576 1.674 21938
-0.029 1.575 1.664 19920
-0.030 1.591 1.670 18269
-0.030 1.595 1.665 15628
-0.030 1.594 1.655 10479
-0.030 1.627 1.677 9332
-0.030 1.626 1.667 12064
-0.030 1.624 1.657 12916
-0.031 1.664 1.684 11886
-0.031 1.657 1.668 13862
-0.031 1.667 1.669 17518
-0.031 1.677 1.669 19690
-0.032 1.688 1.669 13814
-0.032 1.692 1.664 10064
-0.032 1.697 1.659 8404
-0.032 1.719 1.670 8262
-0.032 1.735 1.675 17808
-0.032 1.728 1.660 22996
-0.032 1.732 1.655 22797
-0.033 1.742 1.655 21709
-0.033 1.753 1.655 15015
-0.033 1.769 1.660 11386
-0.033 1.792 1.670 16579
-0.034 1.809 1.675 17596
-0.034 1.819 1.674 13957
-0.034 1.830 1.674 18525
-0.034 1.834 1.669 25232
-0.034 1.839 1.663 21085
-0.034 1.843 1.658 16160
-0.035 1.854 1.657 12516
-0.035 1.864 1.657 9976
-0.035 1.869 1.651 8035
-0.036 1.935 1.695 8534
-0.036 1.933 1.684 13073
-0.036 1.950 1.688 14761
-0.037 1.961 1.687 17693
-0.037 1.959 1.677 16099
-0.037 1.982 1.685 13661
-0.037 2.000 1.689 18563
-0.038 2.010 1.688 18687
-0.038 2.015 1.682 14024
-0.038 2.019 1.676 11026
-0.038 2.043 1.684 10487
-0.039 2.066 1.692 15067
-0.039 2.077 1.691 14568
-0.039 2.082 1.685 9120
-0.039 2.105 1.692 15285
-0.039 2.110 1.686 22404
-0.040 2.127 1.689 21593
-0.040 2.158 1.701 19944
-0.040 2.162 1.695 16781
-0.040 2.167 1.689 11149
-0.041 2.184 1.691 7911
-0.041 2.202 1.694 6628
-0.042 2.258 1.723 6194
-0.042 2.263 1.717 6730
-0.042 2.248 1.697 8221
-0.042 2.252 1.690 9199
-0.042 2.263 1.688 8244
-0.042 2.261 1.677 8169
-0.043 2.299 1.692 9371
-0.043 2.310 1.690 13675
-0.043 2.314 1.683 15636
-0.043 2.325 1.680 16881
-0.044 2.343 1.682 16570
-0.044 2.347 1.675 16691
-0.044 2.345 1.664 16915
-0.044 2.363 1.665 14005
-0.045 2.394 1.675 12562
-0.045 2.412 1.677 13342
-0.045 2.417 1.670 12575
-0.045 2.428 1.667 10088
-0.046 2.439 1.664 8172
-0.046 2.470 1.673 10985
-0.046 2.475 1.666 16941
-0.046 2.486 1.662 19138
-0.046 2.484 1.651 16474
-0.046 2.488 1.644 9537
-0.047 2.492 1.636 5182
-0.047 2.524 1.645 6997
-0.047 2.528 1.638 8955
-0.047 2.533 1.630 9625
-0.048 2.551 1.631 10790
-0.048 2.569 1.631 12442
-0.048 2.573 1.623 13929
-0.048 2.577 1.616 15417
-0.048 2.582 1.608 12828
-0.048 2.586 1.601 10239
-0.048 2.590 1.593 10236
-0.049 2.601 1.589 8830
-0.049 2.619 1.589 8728
-0.049 2.623 1.581 6807
-0.049 2.607 1.562 5643
-0.054 2.876 1.696 5090
-0.054 2.888 1.692 7114
-0.054 2.906 1.691 7786
-0.054 2.918 1.686 8830
-0.054 2.915 1.673 7325
-0.054 2.898 1.654 6594
-0.054 2.903 1.645 5350
-0.055 2.921 1.644 4296
-0.054 2.904 1.625 4419
-0.054 2.909 1.616 4680
-0.057 3.076 1.689 3823
-0.058 3.081 1.680 4681
-0.056 3.014 1.636 4766
-0.056 3.025 1.630 5724
-0.057 3.044 1.628 5266
-0.057 3.055 1.623 5030
-0.060 3.224 1.692 5164
-0.060 3.221 1.679 6455
-0.060 3.226 1.670 5628
-0.059 3.166 1.630 6627
-0.059 3.170 1.621 6627
-0.061 3.268 1.654 5803
-0.061 3.272 1.645 6441
-0.061 3.269 1.632 5231
-0.061 3.266 1.619 4202
-0.061 3.263 1.606 3307
-0.063 3.391 1.651 2554
-0.063 3.395 1.641 2554
-0.063 3.400 1.631 1277
-0.047 2.517 1.239 262
-0.011 0.670 1.695 7389
-0.011 0.674 1.693 6681
-0.011 0.679 1.691 5973
-0.011 0.683 1.689 8126
-0.011 0.684 1.680 10428
-0.011 0.689 1.678 10428
-0.011 0.693 1.676 13518
-0.011 0.694 1.667 16616
-0.011 0.699 1.665 16473
-0.011 0.703 1.662 16331
-0.011 0.708 1.660 15340
-0.011 0.712 1.658 14349
-0.011 0.717 1.656 10971
-0.011 0.707 1.626 8143
-0.012 0.725 1.652 7342
-0.012 0.733 1.657 7010
-0.012 0.759 1.697 7585
-0.012 0.756 1.680 8553
-0.012 0.757 1.671 9990
-0.012 0.758 1.662 9739
-0.012 0.762 1.659 9650
-0.012 0.771 1.664 8223
-0.013 0.782 1.676 7328
-0.013 0.791 1.681 6500
-0.013 0.802 1.692 6160
-0.013 0.803 1.683 7442
-0.013 0.808 1.680 8784
-0.013 0.812 1.678 11910
-0.013 0.817 1.675 15085
-0.013 0.821 1.673 16614
-0.013 0.826 1.671 17228
-0.013 0.822 1.654 16581
-0.013 0.838 1.672 22272
-0.013 0.843 1.670 28638
-0.014 0.847 1.667 30248
-0.014 0.852 1.665 31858
-0.014 0.856 1.662 25197
-0.014 0.876 1.687 15534
-0.014 0.885 1.691 18851
-0.014 0.889 1.689 19255
-0.014 0.894 1.686 15697
-0.014 0.894 1.677 16269
-0.014 0.899 1.674 17143
-0.014 0.903 1.671 18044
-0.015 0.916 1.682 13824
-0.015 0.941 1.713 11006
-0.015 0.937 1.697 14038
-0.015 0.946 1.701 17551
-0.015 0.951 1.698 17797
-0.015 0.959 1.702 17370
-0.015 0.960 1.692 23862
-0.015 0.968 1.696 32251
-0.016 0.977 1.700 34221
-0.016 0.982 1.697 25150
-0.016 0.991 1.700 15764
-0.016 0.999 1.704 14109
-0.016 1.004 1.701 18459
-0.016 1.008 1.698 24552
-0.016 1.013 1.695 33590
-0.016 1.022 1.699 36326
-0.016 1.031 1.702 22513
-0.016 1.031 1.692 13542
-0.017 1.035 1.689 15690
-0.017 1.044 1.693 23810
-0.017 1.049 1.690 28780
-0.017 1.053 1.686 28748
-0.017 1.053 1.677 21200
-0.017 1.062 1.680 11991
-0.017 1.076 1.690 8259
-0.017 1.081 1.687 5436
-0.017 1.076 1.671 4900
-0.017 1.080 1.667 4973
-0.017 1.089 1.671 5186
-0.017 1.094 1.667 6024
-0.017 1.093 1.658 10893
-0.017 1.093 1.648 16579
-0.018 1.102 1.651 16956
-0.018 1.107 1.648 14309
-0.018 1.116 1.651 12968
-0.018 1.135 1.666 13588
-0.018 1.139 1.663 18270
-0.018 1.139 1.653 23387
-0.018 1.148 1.656 24684
-0.019 1.157 1.659 28584
-0.019 1.162 1.656 26093
-0.019 1.161 1.646 18010
-0.019 1.205 1.692 16654
-0.019 1.209 1.689 16133
-0.019 1.214 1.685 16896
-0.020 1.223 1.687 22786
-0.020 1.233 1.690 22039
-0.020 1.242 1.692 14439
-0.020 1.252 1.695 11207
-0.020 1.266 1.703 11911
-0.020 1.276 1.706 9870
-0.020 1.265 1.684 10200
-0.020 1.270 1.680 12077
-0.021 1.284 1.688 14469
-0.021 1.289 1.684 13465
-0.021 1.299 1.686 9617
-0.021 1.313 1.695 12986
-0.021 1.318 1.691 14299
-0.021 1.322 1.687 14291
-0.021 1.322 1.677 14279
-0.021 1.316 1.661 11254
-0.021 1.320 1.657 11600
-0.021 1.324 1.653 12814
-0.021 1.329 1.649 11520
-0.022 1.349 1.663 9835
-0.022 1.354 1.659 9106
-0.022 1.363 1.661 9227
-0.022 1.378 1.668 10105
-0.022 1.367 1.647 9977
-0.022 1.344 1.614 9853
-0.022 1.348 1.610 8015
-0.022 1.363 1.617 8388
-0.022 1.362 1.608 10643
-0.022 1.356 1.592 12313
-0.023 1.437 1.668 11853
-0.023 1.452 1.675 11925
-0.022 1.363 1.574 9964
-0.024 1.489 1.695 8308
-0.024 1.488 1.685 9383
-0.024 1.492 1.680 11569
-0.024 1.496 1.676 13555
-0.024 1.507 1.677 24774
-0.024 1.517 1.678 35017
-0.024 1.527 1.679 45094
-0.024 1.531 1.675 37593
-0.025 1.541 1.676 22690
-0.025 1.546 1.671 24072
-0.025 1.550 1.667 13323
-0.025 1.572 1.678 12402
-0.025 1.576 1.674 21667
-0.025 1.581 1.669 19903
-0.026 1.597 1.675 18724
-0.026 1.595 1.665 17058
-0.026 1.600 1.660 11601
-0.026 1.627 1.677 10399
-0.026 1.632 1.672 12672
-0.026 1.630 1.662 13141
-0.027 1.664 1.684 13843
-0.027 1.663 1.674 13892
-0.027 1.673 1.674 17951
-0.027 1.683 1.674 20850
-0.027 1.694 1.675 14640
-0.027 1.692 1.664 9121
-0.027 1.697 1.659 6462
-0.028 1.725 1.675 6553
-0.028 1.735 1.675 16840
-0.028 1.728 1.660 24722
-0.028 1.726 1.650 24725
-0.028 1.737 1.650 21845
-0.028 1.753 1.655 15106
-0.028 1.769 1.660 13578
-0.029 1.792 1.670 20417
-0.029 1.803 1.670 20787
-0.029 1.813 1.669 14572
-0.029 1.824 1.669 18453
-0.029 1.834 1.669 25286
-0.029 1.839 1.663 20909
-0.029 1.843 1.658 16392
-0.030 1.854 1.657 13661
-0.030 1.858 1.652 11510
-0.030 1.869 1.651 8579
-0.031 1.935 1.695 7670
-0.031 1.933 1.684 11452
-0.031 1.950 1.688 15820
-0.031 1.961 1.687 19687
-0.031 1.966 1.681 17325
-0.032 1.976 1.680 14921
-0.032 2.000 1.689 18988
-0.032 2.004 1.683 19738
-0.032 2.009 1.677 14599
-0.032 2.026 1.681 11598
-0.033 2.043 1.684 12299
-0.033 2.060 1.688 15619
-0.033 2.071 1.686 14626
-0.033 2.075 1.680 10016
-0.033 2.093 1.683 17417
-0.034 2.104 1.682 24780
-0.034 2.095 1.666 23717
-0.034 2.151 1.697 19313
-0.035 2.162 1.695 16853
-0.035 2.167 1.689 10662
-0.035 2.178 1.687 6433
-0.035 2.189 1.685 5246
-0.036 2.265 1.728 6102
-0.036 2.263 1.717 6702
-0.036 2.241 1.692 8646
-0.036 2.252 1.690 9908
-0.036 2.263 1.688 8860
-0.036 2.255 1.672 8118
-0.037 2.318 1.705 10207
-0.037 2.310 1.690 13465
-0.037 2.314 1.683 13391
-0.037 2.325 1.680 12922
-0.038 2.376 1.703 14526
-0.038 2.348 1.675 16090
-0.038 2.352 1.668 15956
-0.038 2.363 1.665 13088
-0.038 2.394 1.675 10830
-0.039 2.412 1.677 11064
-0.039 2.417 1.670 10642
-0.039 2.435 1.671 9306
-0.039 2.439 1.664 8371
-0.039 2.464 1.669 10811
-0.040 2.475 1.666 15662
-0.040 2.479 1.658 17394
-0.040 2.484 1.651 14477
-0.040 2.481 1.640 7853
-0.040 2.486 1.632 3902
-0.040 2.531 1.649 6334
-0.041 2.542 1.646 9453
-0.041 2.540 1.634 9981
-0.041 2.558 1.635 10184
-0.041 2.569 1.631 10757
-0.041 2.573 1.623 12435
-0.041 2.577 1.616 14112
-0.041 2.582 1.608 11908
-0.041 2.586 1.601 9704
-0.041 2.590 1.593 9295
-0.042 2.601 1.589 7545
-0.042 2.619 1.589 7410
-0.042 2.624 1.581 5685
-0.041 2.572 1.544 4690
-0.041 2.569 1.532 5020
-0.046 2.888 1.692 6734
-0.046 2.906 1.691 7547
-0.047 2.918 1.686 8793
-0.047 2.915 1.673 7263
-0.046 2.899 1.654 6626
-0.046 2.903 1.645 5400
-0.046 2.893 1.630 4260
-0.046 2.905 1.625 4670
-0.047 2.916 1.620 5097
-0.047 2.920 1.611 4006
-0.049 3.081 1.680 4598
-0.048 3.014 1.636 4777
-0.048 3.025 1.630 5642
-0.049 3.044 1.628 5221
-0.049 3.055 1.623 5145
-0.052 3.231 1.695 5093
-0.052 3.222 1.679 6225
-0.052 3.226 1.670 5403
-0.051 3.166 1.630 6116
-0.051 3.170 1.621 6116
-0.052 3.268 1.654 5171
-0.052 3.280 1.648 5740
-0.052 3.277 1.635 4726
-0.052 3.274 1.622 3834
-0.052 3.271 1.609 3008
-0.054 3.398 1.654 2602
-0.054 3.403 1.644 2602
-0.055 3.407 1.634 1301
-0.040 2.517 1.239 358
-0.010 0.663 1.681 6883
-0.010 0.668 1.679 7191
-0.010 0.672 1.677 7499
-0.010 0.677 1.675 9649
-0.010 0.681 1.673 11799
-0.010 0.686 1.671 11799
-0.010 0.690 1.669 15117
-0.010 0.698 1.674 18522
-0.010 0.699 1.665 17267
-0.010 0.703 1.662 16099
-0.010 0.708 1.660 14860
-0.010 0.712 1.658 13622
-0.010 0.717 1.656 10514
-0.010 0.707 1.626 8094
-0.010 0.715 1.630 6876
-0.011 0.755 1.699 6343
-0.011 0.759 1.697 7380
-0.011 0.760 1.687 8608
-0.011 0.761 1.678 10107
-0.011 0.762 1.669 9152
-0.011 0.759 1.652 8431
-0.011 0.774 1.671 7999
-0.011 0.786 1.683 8420
-0.011 0.794 1.688 7882
-0.012 0.802 1.692 7658
-0.012 0.807 1.690 8803
-0.012 0.808 1.680 10044
-0.012 0.812 1.678 13047
-0.012 0.817 1.675 16032
-0.012 0.821 1.673 16679
-0.012 0.826 1.671 16351
-0.012 0.822 1.654 15792
-0.012 0.838 1.672 21435
-0.012 0.843 1.670 28063
-0.012 0.847 1.667 29436
-0.012 0.852 1.665 30809
-0.012 0.856 1.662 23847
-0.013 0.880 1.694 15597
-0.013 0.885 1.691 19013
-0.013 0.893 1.695 19215
-0.013 0.898 1.693 15517
-0.013 0.894 1.677 15446
-0.013 0.899 1.674 15828
-0.013 0.903 1.671 17102
-0.013 0.916 1.682 13948
-0.014 0.941 1.713 11981
-0.014 0.942 1.703 14557
-0.014 0.946 1.701 17107
-0.014 0.955 1.704 17172
-0.014 0.959 1.702 17294
-0.014 0.960 1.692 23678
-0.014 0.968 1.696 31499
-0.014 0.977 1.700 33034
-0.014 0.986 1.703 23926
-0.014 0.999 1.714 15438
-0.015 1.004 1.711 14391
-0.015 1.004 1.701 16752
-0.015 1.008 1.698 20875
-0.015 1.013 1.695 29483
-0.015 1.022 1.699 33910
-0.015 1.026 1.695 24778
-0.015 1.022 1.679 19446
-0.015 1.031 1.683 20900
-0.015 1.044 1.693 26062
-0.015 1.049 1.690 28827
-0.015 1.053 1.686 28192
-0.015 1.058 1.683 20305
-0.015 1.067 1.687 11298
-0.016 1.076 1.690 8587
-0.016 1.081 1.687 5874
-0.016 1.076 1.671 5151
-0.016 1.085 1.674 5115
-0.016 1.094 1.677 5847
-0.016 1.098 1.674 7498
-0.016 1.098 1.664 12976
-0.016 1.098 1.654 18837
-0.016 1.102 1.651 18159
-0.016 1.107 1.648 14596
-0.016 1.125 1.664 14556
-0.016 1.135 1.666 17269
-0.016 1.139 1.663 21289
-0.016 1.139 1.653 24276
-0.017 1.153 1.663 25170
-0.017 1.157 1.659 28919
-0.017 1.162 1.656 25780
-0.017 1.161 1.646 16549
-0.017 1.205 1.692 14732
-0.017 1.204 1.682 15065
-0.018 1.219 1.691 15997
-0.018 1.223 1.687 22206
-0.018 1.233 1.690 20948
-0.018 1.242 1.692 13508
-0.018 1.252 1.695 12950
-0.018 1.266 1.703 15884
-0.018 1.276 1.706 14831
-0.018 1.265 1.684 12830
-0.018 1.270 1.680 10523
-0.019 1.284 1.688 13579
-0.019 1.289 1.684 15262
-0.019 1.299 1.686 10923
-0.019 1.308 1.689 14151
-0.019 1.318 1.691 16141
-0.019 1.322 1.687 13663
-0.019 1.311 1.665 13278
-0.019 1.310 1.655 11481
-0.019 1.320 1.657 9611
-0.019 1.324 1.653 10136
-0.019 1.329 1.649 8266
-0.019 1.339 1.651 8048
-0.020 1.348 1.653 9614
-0.019 1.337 1.632 10634
-0.019 1.341 1.628 12096
-0.020 1.356 1.635 10919
-0.019 1.344 1.614 8776
-0.020 1.359 1.621 6847
-0.020 1.374 1.629 7609
-0.020 1.351 1.596 9670
-0.020 1.350 1.586 12934
-0.020 1.360 1.588 11544
-0.021 1.463 1.687 11669
-0.020 1.368 1.580 10117
-0.022 1.489 1.695 9573
-0.022 1.488 1.685 9514
-0.022 1.486 1.675 9522
-0.022 1.502 1.682 16378
-0.022 1.512 1.683 32150
-0.022 1.522 1.684 36458
-0.022 1.527 1.679 44151
-0.022 1.531 1.675 40504
-0.022 1.541 1.676 28702
-0.022 1.546 1.671 29386
-0.022 1.550 1.667 14917
-0.023 1.572 1.678 11187
-0.023 1.576 1.674 20555
-0.023 1.581 1.669 18411
-0.023 1.597 1.675 17923
-0.023 1.601 1.671 17577
-0.023 1.611 1.671 12510
-0.024 1.627 1.677 11766
-0.024 1.632 1.672 13666
-0.024 1.648 1.678 16102
-0.024 1.658 1.679 16715
-0.024 1.669 1.679 14814
-0.024 1.673 1.674 19187
-0.024 1.683 1.674 22963
-0.025 1.694 1.675 15828
-0.024 1.692 1.664 8617
-0.025 1.709 1.670 5412
-0.025 1.737 1.686 6125
-0.025 1.735 1.675 15413
-0.025 1.728 1.660 24696
-0.025 1.726 1.650 23418
-0.025 1.743 1.655 18876
-0.026 1.765 1.665 14156
-0.026 1.782 1.670 14544
-0.026 1.792 1.670 22919
-0.026 1.803 1.670 23677
-0.026 1.813 1.669 15740
-0.026 1.824 1.669 18174
-0.027 1.834 1.669 24097
-0.027 1.839 1.663 19298
-0.027 1.849 1.663 15802
-0.027 1.860 1.662 13742
-0.027 1.870 1.662 11257
-0.028 1.924 1.695 8468
-0.028 1.929 1.690 7259
-0.028 1.933 1.684 9484
-0.028 1.957 1.693 16024
-0.028 1.961 1.687 21371
-0.028 1.966 1.681 18698
-0.029 1.976 1.680 14795
-0.029 2.000 1.689 17873
-0.029 2.004 1.683 18956
-0.029 2.009 1.677 13524
-0.030 2.038 1.690 12021
-0.030 2.043 1.684 14649
-0.030 2.060 1.688 16501
-0.030 2.071 1.686 15052
-0.030 2.076 1.680 11190
-0.030 2.086 1.679 19035
-0.030 2.091 1.672 26214
-0.030 2.095 1.666 25212
-0.031 2.151 1.697 18307
-0.031 2.169 1.700 16538
-0.031 2.173 1.693 10031
-0.032 2.184 1.691 5086
-0.033 2.260 1.735 5192
-0.033 2.271 1.732 6679
-0.033 2.269 1.721 7220
-0.032 2.241 1.692 8753
-0.033 2.252 1.690 9990
-0.033 2.270 1.692 9136
-0.034 2.327 1.721 8974
-0.034 2.325 1.709 11952
-0.034 2.323 1.698 14075
-0.034 2.321 1.687 11808
-0.034 2.378 1.715 11197
-0.034 2.376 1.703 15033
-0.034 2.374 1.692 16312
-0.034 2.372 1.681 13872
-0.034 2.383 1.678 11675
-0.035 2.401 1.680 8822
-0.035 2.412 1.677 8319
-0.035 2.417 1.670 8267
-0.035 2.435 1.671 8302
-0.035 2.446 1.668 8514
-0.036 2.464 1.669 10873
-0.036 2.475 1.666 14950
-0.036 2.479 1.658 16477
-0.036 2.477 1.647 13493
-0.036 2.481 1.640 7598
-0.036 2.520 1.653 4910
-0.037 2.538 1.653 8431
-0.037 2.542 1.646 12096
-0.037 2.546 1.638 11999
-0.037 2.558 1.635 10182
-0.037 2.569 1.631 9171
-0.037 2.573 1.623 11000
-0.037 2.577 1.616 12828
-0.037 2.582 1.608 11021
-0.037 2.586 1.601 9213
-0.037 2.590 1.593 8373
-0.038 2.601 1.589 6239
-0.038 2.619 1.589 5725
-0.038 2.631 1.585 4352
-0.037 2.565 1.540 4712
-0.037 2.569 1.532 5160
-0.042 2.888 1.692 6462
-0.042 2.913 1.694 7511
-0.042 2.918 1.686 8951
-0.042 2.915 1.673 7280
-0.042 2.899 1.654 6487
-0.042 2.903 1.645 5280
-0.042 2.900 1.633 4125
-0.042 2.912 1.628 4607
-0.042 2.916 1.620 5140
-0.042 2.920 1.611 3951
-0.045 3.081 1.680 4552
-0.044 3.014 1.636 4689
-0.044 3.026 1.630 5504
-0.044 3.044 1.628 5098
-0.044 3.056 1.623 5071
-0.047 3.231 1.695 5199
-0.047 3.229 1.682 6051
-0.047 3.233 1.673 5260
-0.046 3.159 1.627 5443
-0.046 3.163 1.617 5443
-0.047 3.268 1.654 4705
-0.048 3.287 1.651 5432
-0.048 3.284 1.638 4526
-0.047 3.281 1.625 3694
-0.047 3.278 1.613 2757
-0.049 3.398 1.654 2606
-0.049 3.403 1.644 2606
-0.049 3.407 1.634 1303
-0.036 2.517 1.239 522
-0.008 0.663 1.681 7578
-0.008 0.668 1.679 8159
-0.008 0.672 1.677 8741
-0.008 0.677 1.675 10750
-0.008 0.681 1.673 12758
-0.008 0.686 1.671 12758
-0.008 0.690 1.669 16068
-0.008 0.698 1.674 19387
-0.008 0.699 1.665 17973
-0.008 0.703 1.662 16569
-0.008 0.708 1.660 15127
-0.008 0.712 1.658 13686
-0.008 0.713 1.649 10689
-0.008 0.710 1.633 8420
-0.008 0.715 1.630 7018
-0.009 0.755 1.699 5950
-0.009 0.759 1.697 6812
-0.009 0.760 1.687 8205
-0.009 0.761 1.678 9811
-0.009 0.762 1.669 8721
-0.009 0.763 1.659 7772
-0.009 0.774 1.671 7750
-0.009 0.786 1.683 8415
-0.009 0.794 1.688 7795
-0.009 0.802 1.692 7403
-0.009 0.803 1.683 8611
-0.009 0.808 1.680 9950
-0.009 0.812 1.678 13160
-0.009 0.817 1.675 16326
-0.009 0.821 1.673 16786
-0.009 0.826 1.671 16209
-0.009 0.822 1.654 15600
-0.010 0.838 1.672 21002
-0.010 0.843 1.670 27497
-0.010 0.847 1.667 28862
-0.010 0.852 1.665 30227
-0.010 0.856 1.662 23308
-0.010 0.880 1.694 15625
-0.010 0.885 1.691 19124
-0.010 0.893 1.695 19448
-0.010 0.898 1.693 15783
-0.010 0.894 1.677 15255
-0.010 0.899 1.674 15454
-0.010 0.903 1.671 16905
-0.011 0.920 1.689 14189
-0.011 0.941 1.713 12231
-0.011 0.942 1.703 14718
-0.011 0.946 1.701 16985
-0.011 0.955 1.704 17027
-0.011 0.959 1.702 17294
-0.011 0.960 1.692 23092
-0.011 0.968 1.696 30322
-0.011 0.977 1.700 31524
-0.011 0.986 1.703 22710
-0.011 1.004 1.720 15375
-0.012 1.008 1.717 14600
-0.012 1.008 1.708 16030
-0.012 1.013 1.705 18919
-0.012 1.017 1.702 27258
-0.012 1.022 1.699 32770
-0.012 1.022 1.689 26729
-0.012 1.022 1.679 23777
-0.012 1.031 1.683 24801
-0.012 1.045 1.693 27551
-0.012 1.049 1.690 28489
-0.012 1.054 1.686 27463
-0.012 1.058 1.683 19576
-0.012 1.072 1.693 10895
-0.012 1.076 1.690 8816
-0.012 1.081 1.687 6096
-0.012 1.085 1.683 5026
-0.012 1.090 1.680 5090
-0.012 1.094 1.677 6325
-0.013 1.099 1.674 8405
-0.013 1.098 1.664 13972
-0.013 1.098 1.654 19723
-0.013 1.102 1.651 19123
-0.013 1.111 1.654 16058
-0.013 1.125 1.664 17568
-0.013 1.139 1.673 21191
-0.013 1.144 1.669 24776
-0.013 1.139 1.653 26078
-0.013 1.153 1.663 26057
-0.013 1.157 1.659 29359
-0.013 1.162 1.656 26221
-0.013 1.166 1.652 16653
-0.014 1.205 1.692 13520
-0.014 1.204 1.682 14408
-0.014 1.219 1.691 15443
-0.014 1.223 1.687 21550
-0.014 1.233 1.690 19824
-0.014 1.242 1.692 13437
-0.014 1.252 1.695 14742
-0.014 1.266 1.703 18350
-0.015 1.276 1.706 18013
-0.015 1.270 1.690 15689
-0.015 1.275 1.686 12258
-0.015 1.285 1.688 14915
-0.015 1.289 1.684 16878
-0.015 1.293 1.680 12834
-0.015 1.303 1.683 15765
-0.015 1.313 1.685 17599
-0.015 1.317 1.681 13866
-0.015 1.306 1.659 14353
-0.015 1.310 1.655 12625
-0.015 1.320 1.657 10252
-0.015 1.325 1.653 10349
-0.015 1.329 1.649 7968
-0.015 1.328 1.640 8239
-0.015 1.348 1.653 10352
-0.015 1.337 1.632 11760
-0.015 1.346 1.633 12610
-0.015 1.356 1.635 11669
-0.015 1.350 1.620 10246
-0.016 1.359 1.621 9019
-0.016 1.369 1.623 9367
-0.015 1.357 1.602 9689
-0.015 1.350 1.586 13495
-0.016 1.360 1.588 11507
-0.017 1.463 1.687 10977
-0.016 1.385 1.597 9675
-0.017 1.489 1.695 9602
-0.017 1.488 1.685 9112
-0.017 1.470 1.658 8380
-0.017 1.502 1.682 17929
-0.017 1.512 1.683 35818
-0.017 1.522 1.684 37101
-0.017 1.527 1.679 44003
-0.017 1.531 1.675 42012
-0.018 1.541 1.676 32909
-0.018 1.546 1.671 33131
-0.018 1.550 1.667 16030
-0.018 1.578 1.684 10776
-0.018 1.576 1.674 19796
-0.018 1.586 1.675 17680
-0.018 1.597 1.675 17211
-0.018 1.601 1.671 17387
-0.018 1.611 1.671 12620
-0.019 1.627 1.677 11835
-0.019 1.638 1.678 14464
-0.019 1.648 1.678 18336
-0.019 1.658 1.679 17536
-0.019 1.674 1.684 14379
-0.019 1.673 1.674 18559
-0.019 1.683 1.674 22809
-0.019 1.694 1.675 15824
-0.019 1.698 1.670 8467
-0.020 1.720 1.680 6015
-0.020 1.731 1.680 6602
-0.020 1.729 1.670 15241
-0.020 1.728 1.660 25058
-0.020 1.726 1.650 23315
-0.020 1.743 1.655 17726
-0.020 1.765 1.665 14462
