0.275 1.776 1.701 12754
0.276 1.786 1.701 11389
0.278 1.797 1.701 11857
0.279 1.807 1.700 16035
0.280 1.812 1.695 15052
0.280 1.810 1.684 10895
0.284 1.839 1.699 13350
0.286 1.849 1.699 20164
0.289 1.866 1.703 17784
0.291 1.882 1.708 16024
0.293 1.893 1.707 19699
0.292 1.891 1.696 16342
0.291 1.884 1.681 8909
0.291 1.882 1.670 5951
0.293 1.892 1.669 7914
0.302 1.952 1.708 13079
0.304 1.963 1.707 15942
0.306 1.980 1.710 21417
0.308 1.991 1.709 30506
0.309 1.995 1.703 32297
0.308 1.993 1.693 22193
0.310 2.004 1.691 17821
0.311 2.008 1.685 18807
0.310 2.007 1.675 11653
0.311 2.011 1.669 7326
0.321 2.078 1.710 7586
0.320 2.070 1.694 8344
0.321 2.075 1.688 8460
0.332 2.149 1.733 10459
0.334 2.160 1.731 12258
0.335 2.164 1.724 12636
0.334 2.163 1.713 12207
0.332 2.148 1.693 13432
0.337 2.178 1.705 22313
0.338 2.182 1.698 34571
0.339 2.193 1.696 39163
0.339 2.191 1.685 36356
0.340 2.196 1.679 27044
0.341 2.207 1.677 19491
0.343 2.218 1.675 19779
0.345 2.228 1.672 22271
0.345 2.233 1.666 20392
0.345 2.231 1.655 11690
0.344 2.222 1.639 7547
0.344 2.226 1.633 5461
0.367 2.375 1.721 3316
0.369 2.386 1.718 2527
0.369 2.384 1.707 2431
0.370 2.395 1.704 3646
0.373 2.413 1.705 7854
0.374 2.417 1.698 10723
0.375 2.422 1.691 11582
0.375 2.426 1.683 11480
0.376 2.431 1.676 10519
0.378 2.442 1.673 9588
0.380 2.459 1.674 6663
0.385 2.491 1.683 4613
0.384 2.482 1.667 4405
0.384 2.486 1.660 3769
0.386 2.497 1.657 3190
0.400 2.589 1.701 3116
0.401 2.594 1.694 4213
0.400 2.584 1.678 5525
0.405 2.616 1.686 7109
0.407 2.634 1.686 9793
0.408 2.638 1.678 10165
0.409 2.643 1.670 10537
0.409 2.647 1.662 7942
0.410 2.652 1.655 4860
0.409 2.642 1.639 4555
0.410 2.653 1.635 3866
0.416 2.692 1.646 3462
0.419 2.710 1.646 3432
0.421 2.721 1.641 3581
0.426 2.753 1.648 4043
0.430 2.778 1.651 5200
0.431 2.789 1.646 5693
0.432 2.794 1.638 6260
0.432 2.791 1.626 5440
0.430 2.781 1.610 5168
0.431 2.786 1.602 4912
0.431 2.790 1.594 4656
0.456 2.948 1.664 4085
0.453 2.931 1.645 5141
0.454 2.935 1.636 6488
0.456 2.947 1.631 7889
0.454 2.937 1.615 5826
0.453 2.927 1.599 4343
0.481 3.107 1.677 3536
0.487 3.147 1.684 3616
0.490 3.166 1.682 3371
0.495 3.198 1.686 4227
0.494 3.196 1.673 5063
0.494 3.193 1.660 5968
0.494 3.197 1.651 5968
0.495 3.202 1.641 5372
0.495 3.199 1.628 4863
0.500 3.232 1.632 5102
0.501 3.243 1.625 5857
0.503 3.254 1.619 5399
0.505 3.266 1.612 5224
0.506 3.270 1.603 5224
0.506 3.274 1.593 2612
0.234 1.510 0.814 233
0.104 0.662 1.695 14620
0.104 0.663 1.686 14831
0.105 0.667 1.684 15058
0.105 0.669 1.675 12816
0.105 0.670 1.666 11078
0.106 0.674 1.664 11078
0.107 0.678 1.662 9534
0.108 0.686 1.667 8121
0.111 0.704 1.693 11061
0.111 0.708 1.691 15087
0.113 0.720 1.703 17611
0.114 0.724 1.701 20849
0.115 0.732 1.706 18854
0.116 0.737 1.704 15118
0.116 0.738 1.694 13199
0.116 0.742 1.692 8957
0.116 0.736 1.669 4739
0.120 0.762 1.709 4546
0.121 0.773 1.720 5182
0.123 0.781 1.725 6019
0.123 0.786 1.723 6999
0.125 0.794 1.727 6539
0.125 0.798 1.725 6167
0.126 0.803 1.723 9827
0.127 0.808 1.720 13487
0.127 0.808 1.711 17808
0.128 0.813 1.708 22232
0.128 0.817 1.706 22698
0.130 0.826 1.710 23375
0.130 0.830 1.708 28172
0.132 0.838 1.712 35105
0.132 0.839 1.703 37378
0.132 0.844 1.700 34034
0.133 0.848 1.697 30547
0.134 0.853 1.695 24103
0.135 0.861 1.699 18022
0.136 0.865 1.697 12659
0.135 0.862 1.680 7678
0.136 0.866 1.678 8812
0.137 0.875 1.682 9482
0.139 0.887 1.693 9831
0.140 0.892 1.690 8570
0.139 0.888 1.674 8165
0.141 0.901 1.685 11329
0.143 0.913 1.695 22650
0.144 0.918 1.693 30860
0.145 0.922 1.690 27898
0.145 0.926 1.687 24966
0.147 0.935 1.691 25093
0.147 0.939 1.688 23913
0.149 0.948 1.692 20886
0.151 0.961 1.702 20812
0.152 0.970 1.706 22427
0.154 0.978 1.710 20436
0.155 0.987 1.714 19708
0.155 0.987 1.704 17624
0.156 0.992 1.701 17482
0.157 1.001 1.705 19808
0.158 1.005 1.702 20514
0.159 1.010 1.699 20330
0.159 1.014 1.695 27124
0.160 1.019 1.692 35000
0.161 1.027 1.696 32851
0.163 1.036 1.699 23178
0.164 1.045 1.703 12644
0.165 1.050 1.699 9612
0.166 1.059 1.703 11838
0.168 1.068 1.706 18526
0.169 1.077 1.709 24789
0.170 1.081 1.706 25461
0.170 1.086 1.703 21721
0.170 1.086 1.693 14971
0.171 1.090 1.690 8145
0.176 1.122 1.725 5351
0.175 1.118 1.709 5284
0.175 1.117 1.699 13920
0.176 1.122 1.696 21102
0.178 1.131 1.698 27402
0.179 1.140 1.701 30624
0.180 1.145 1.698 19327
0.181 1.154 1.701 8730
0.183 1.168 1.710 11001
0.185 1.177 1.713 17078
0.186 1.182 1.709 22287
0.185 1.181 1.699 23028
0.186 1.186 1.696 21505
0.188 1.195 1.698 23302
0.189 1.205 1.701 22771
0.191 1.214 1.703 18703
0.192 1.223 1.706 12571
0.194 1.233 1.708 14613
0.194 1.237 1.705 22479
0.194 1.237 1.695 23218
0.195 1.241 1.691 19004
0.196 1.251 1.693 17990
0.198 1.260 1.696 21254
0.200 1.275 1.704 20546
0.202 1.284 1.706 20827
0.202 1.289 1.702 26555
0.204 1.298 1.705 29626
0.205 1.303 1.701 21467
0.205 1.307 1.697 16682
0.207 1.317 1.699 17490
0.208 1.326 1.701 19012
0.209 1.331 1.697 19769
0.210 1.341 1.699 14344
0.211 1.345 1.695 9020
0.214 1.365 1.708 8320
0.216 1.375 1.710 9325
0.216 1.374 1.700 11082
0.216 1.379 1.696 13655
0.219 1.394 1.703 16559
0.221 1.409 1.711 27140
0.222 1.413 1.707 36861
0.222 1.412 1.697 35844
0.222 1.417 1.692 28425
0.223 1.421 1.688 30880
0.225 1.431 1.689 33326
0.225 1.436 1.685 23188
0.225 1.435 1.675 16328
0.228 1.455 1.688 13421
0.230 1.465 1.689 12075
0.232 1.481 1.696 8127
0.237 1.513 1.720 8904
0.238 1.517 1.715 12126
0.239 1.522 1.711 13638
0.240 1.526 1.706 19315
0.239 1.525 1.696 20769
0.239 1.524 1.686 17507
0.240 1.528 1.681 15871
0.242 1.538 1.682 15246
0.244 1.554 1.689 10453
0.247 1.575 1.700 9004
0.248 1.580 1.696 10539
0.250 1.596 1.702 11795
0.250 1.595 1.692 8105
0.255 1.622 1.708 4820
0.255 1.626 1.704 9143
0.256 1.631 1.699 12476
0.257 1.635 1.694 13951
0.258 1.645 1.694 18241
0.260 1.656 1.695 19142
0.262 1.672 1.700 19885
0.263 1.676 1.695 17633
0.266 1.692 1.701 12979
0.266 1.697 1.696 13990
0.266 1.695 1.685 15291
0.267 1.700 1.680 12462
0.269 1.716 1.686 12594
0.271 1.726 1.686 15739
0.274 1.743 1.691 13698
0.276 1.759 1.696 10191
0.280 1.781 1.706 12875
0.280 1.786 1.701 12529
0.283 1.802 1.706 12588
0.284 1.807 1.700 15969
0.284 1.811 1.695 14233
0.284 1.809 1.684 9286
0.289 1.838 1.699 12009
0.290 1.849 1.699 20091
0.292 1.859 1.698 17068
0.294 1.876 1.703 14301
0.296 1.886 1.702 18382
0.296 1.885 1.691 15803
0.296 1.883 1.681 8816
0.295 1.881 1.670 6660
0.297 1.892 1.669 7945
0.306 1.952 1.708 12481
0.308 1.962 1.707 14853
0.311 1.979 1.710 20500
0.312 1.990 1.709 30522
0.313 1.994 1.703 33520
0.314 1.999 1.697 23425
0.314 2.003 1.691 18456
0.315 2.008 1.685 19153
0.315 2.006 1.675 11881
0.315 2.004 1.664 6318
0.326 2.078 1.710 7083
0.325 2.070 1.694 8828
0.326 2.074 1.688 8268
0.337 2.148 1.733 9325
0.339 2.159 1.731 11187
0.340 2.164 1.724 11454
0.339 2.162 1.713 10859
0.336 2.141 1.689 12576
0.342 2.177 1.705 21359
0.342 2.182 1.698 32850
0.344 2.193 1.696 37095
0.345 2.197 1.690 34338
0.345 2.195 1.679 25869
0.347 2.212 1.681 20556
0.348 2.217 1.675 21754
0.350 2.228 1.672 23371
0.350 2.232 1.666 20469
0.351 2.236 1.659 11657
0.349 2.221 1.639 7382
0.349 2.225 1.633 5513
0.373 2.374 1.721 3557
0.374 2.385 1.718 2939
0.374 2.383 1.707 2963
0.376 2.394 1.704 4429
0.379 2.412 1.705 9283
0.379 2.416 1.698 12671
0.380 2.421 1.691 13486
0.381 2.425 1.683 12672
0.381 2.430 1.676 11043
0.383 2.441 1.673 9571
0.388 2.472 1.682 7061
0.391 2.490 1.683 5369
0.389 2.481 1.667 4803
0.390 2.485 1.660 3695
0.391 2.489 1.653 3054
0.406 2.588 1.701 2528
0.407 2.593 1.694 3232
0.406 2.584 1.678 4951
0.407 2.595 1.674 7144
0.412 2.626 1.682 9236
0.414 2.637 1.678 9391
0.415 2.642 1.670 9638
0.415 2.646 1.662 7174
0.416 2.651 1.655 4633
0.416 2.648 1.643 4656
0.417 2.659 1.639 4001
0.422 2.691 1.646 3854
0.425 2.709 1.646 3815
0.427 2.720 1.641 3923
0.431 2.745 1.644 4086
0.436 2.777 1.651 5154
0.438 2.788 1.646 5690
0.438 2.793 1.638 6311
0.438 2.790 1.626 5287
0.436 2.780 1.610 4742
0.437 2.785 1.602 4710
0.439 2.796 1.597 4714
0.459 2.926 1.653 4169
0.460 2.930 1.645 5228
0.462 2.941 1.639 6539
0.462 2.946 1.631 7888
0.462 2.943 1.618 5766
0.459 2.926 1.599 4333
0.488 3.106 1.677 3714
0.493 3.139 1.681 3689
0.497 3.164 1.682 3201
0.502 3.197 1.686 3716
0.501 3.194 1.673 4529
0.501 3.192 1.660 5470
0.502 3.196 1.651 5470
0.502 3.200 1.641 4977
0.502 3.198 1.628 4556
0.507 3.230 1.632 4989
0.509 3.242 1.625 5906
0.511 3.253 1.619 5606
0.512 3.265 1.612 5521
0.513 3.269 1.603 5521
0.514 3.273 1.593 2760
0.237 1.509 0.814 239
0.105 0.662 1.695 13174
0.105 0.663 1.686 13802
0.105 0.664 1.677 14647
0.106 0.668 1.675 13194
0.106 0.670 1.666 11992
0.107 0.674 1.664 11992
0.108 0.678 1.662 9867
0.108 0.683 1.660 7742
0.110 0.694 1.672 9922
0.112 0.708 1.691 13955
0.114 0.719 1.703 16696
0.115 0.724 1.701 20284
0.116 0.732 1.706 18481
0.117 0.736 1.704 15165
0.117 0.741 1.701 13509
0.118 0.745 1.699 8759
0.117 0.736 1.669 4205
0.121 0.765 1.716 4193
0.123 0.773 1.720 5085
0.123 0.777 1.718 6314
0.125 0.786 1.723 7610
0.125 0.790 1.720 7146
0.126 0.795 1.718 6683
0.127 0.799 1.716 10393
0.127 0.804 1.713 14104
0.128 0.808 1.711 18414
0.129 0.813 1.708 22724
0.130 0.817 1.706 22801
0.131 0.825 1.710 23051
0.132 0.830 1.708 27662
0.133 0.838 1.712 34666
0.133 0.839 1.703 37402
0.134 0.843 1.700 34841
0.134 0.848 1.697 31905
0.135 0.852 1.695 25604
0.136 0.861 1.699 19648
0.137 0.865 1.697 13786
0.137 0.866 1.687 8160
0.137 0.866 1.678 8523
0.138 0.871 1.675 8819
0.140 0.883 1.686 9015
0.141 0.887 1.683 8141
0.141 0.888 1.674 7975
0.143 0.904 1.691 11086
0.145 0.913 1.695 22082
0.145 0.917 1.693 29871
0.146 0.922 1.690 26962
0.147 0.926 1.687 25324
0.148 0.935 1.691 26887
0.150 0.943 1.695 25781
0.150 0.948 1.692 22680
0.152 0.961 1.702 22258
0.154 0.969 1.706 22836
0.155 0.978 1.710 20717
0.156 0.983 1.707 20441
0.157 0.987 1.704 18531
0.157 0.992 1.701 17635
0.158 0.996 1.698 19116
0.159 1.005 1.702 18994
0.161 1.014 1.705 20214
0.161 1.018 1.702 29007
0.161 1.018 1.692 36754
0.163 1.027 1.696 33457
0.164 1.036 1.699 22837
0.166 1.045 1.703 12867
0.166 1.050 1.699 10328
0.168 1.059 1.703 12219
0.169 1.068 1.706 18670
0.171 1.077 1.709 25192
0.171 1.081 1.706 26845
0.172 1.086 1.703 23931
0.172 1.085 1.693 17354
0.174 1.094 1.696 9527
0.177 1.117 1.718 6170
0.176 1.113 1.702 5426
0.177 1.117 1.699 13302
0.178 1.122 1.696 20432
0.179 1.131 1.698 26480
0.180 1.135 1.695 29396
0.181 1.144 1.698 18594
0.183 1.154 1.701 8419
0.185 1.168 1.710 10427
0.187 1.177 1.713 16157
0.187 1.181 1.709 21333
0.187 1.181 1.699 22764
0.188 1.186 1.696 23001
0.189 1.195 1.698 26444
0.191 1.204 1.701 25369
0.192 1.214 1.703 19848
0.194 1.223 1.706 12813
0.195 1.232 1.708 14789
0.195 1.232 1.699 22276
0.196 1.236 1.695 22471
0.197 1.241 1.691 18776
0.198 1.250 1.693 18153
0.200 1.260 1.696 20613
0.202 1.274 1.704 20272
0.204 1.284 1.706 21862
0.204 1.288 1.702 29264
0.206 1.298 1.705 33140
0.206 1.302 1.701 23577
0.207 1.307 1.697 16305
0.209 1.317 1.699 16226
0.210 1.326 1.701 17818
0.212 1.336 1.703 18839
0.212 1.340 1.699 15075
0.213 1.345 1.695 9960
0.216 1.360 1.702 8843
0.217 1.369 1.704 9831
0.218 1.374 1.700 11280
0.219 1.378 1.696 13928
0.222 1.399 1.709 17338
0.223 1.408 1.711 26742
0.224 1.413 1.707 34553
0.224 1.412 1.697 33496
0.225 1.417 1.692 27314
0.226 1.426 1.694 31018
0.227 1.431 1.689 31921
0.228 1.435 1.685 22042
0.227 1.434 1.675 15402
0.232 1.460 1.694 12808
0.232 1.465 1.689 12585
0.235 1.480 1.696 8527
0.240 1.512 1.720 7809
0.241 1.522 1.721 11567
0.241 1.521 1.711 15719
0.242 1.526 1.706 19929
0.241 1.519 1.690 16113
0.241 1.518 1.680 16428
0.242 1.528 1.681 20389
0.244 1.538 1.682 18121
0.248 1.565 1.700 14131
0.250 1.575 1.700 11557
0.250 1.580 1.696 11825
0.252 1.590 1.696 11364
0.252 1.588 1.686 7387
0.258 1.627 1.714 4902
0.258 1.626 1.704 8793
0.258 1.630 1.699 11012
0.260 1.641 1.699 11451
0.262 1.651 1.700 17256
0.263 1.661 1.700 20973
0.265 1.671 1.700 22037
0.266 1.676 1.695 19484
0.266 1.680 1.690 14516
0.269 1.696 1.696 12693
0.269 1.695 1.685 11613
0.268 1.694 1.675 9334
0.271 1.710 1.680 10095
0.274 1.726 1.686 13666
0.276 1.742 1.691 12654
0.279 1.758 1.696 8188
0.282 1.781 1.706 12314
0.283 1.785 1.701 13315
0.286 1.802 1.706 12983
0.287 1.812 1.705 16189
0.287 1.811 1.695 14074
0.287 1.809 1.684 9071
0.291 1.838 1.699 12494
0.292 1.842 1.694 20900
0.295 1.859 1.698 17799
0.296 1.869 1.698 13588
0.298 1.880 1.697 16763
0.299 1.884 1.691 15474
0.298 1.883 1.681 9378
0.299 1.887 1.675 7425
0.301 1.897 1.674 8072
0.309 1.951 1.708 11545
0.311 1.962 1.707 13279
0.314 1.979 1.710 19328
0.315 1.989 1.709 30290
0.316 1.994 1.703 34688
0.317 1.998 1.697 24709
0.318 2.003 1.691 18289
0.318 2.007 1.685 18252
0.318 2.005 1.675 11966
0.319 2.010 1.669 5741
0.328 2.071 1.705 7120
0.327 2.063 1.689 9521
0.329 2.074 1.688 8253
0.342 2.154 1.737 7678
0.342 2.159 1.731 9338
0.344 2.170 1.729 9751
0.342 2.155 1.709 9103
0.338 2.134 1.684 11578
0.345 2.177 1.705 19807
0.346 2.181 1.698 30033
0.348 2.192 1.696 33833
0.348 2.197 1.690 31503
0.349 2.201 1.683 24676
0.351 2.212 1.681 21885
0.351 2.216 1.675 23616
0.353 2.227 1.672 24454
0.355 2.238 1.670 20603
0.357 2.249 1.668 11655
0.353 2.227 1.644 6026
0.354 2.231 1.637 4737
0.376 2.374 1.721 3521
0.378 2.385 1.718 3174
0.378 2.383 1.707 3316
0.379 2.394 1.704 4982
0.381 2.405 1.701 10262
0.383 2.416 1.698 13963
0.384 2.420 1.691 14806
0.384 2.425 1.683 13523
0.385 2.429 1.676 11397
0.388 2.447 1.677 9646
0.392 2.471 1.682 7735
0.393 2.476 1.675 6229
0.393 2.480 1.667 5251
0.394 2.485 1.660 3660
0.395 2.489 1.653 3047
0.395 2.493 1.645 2087
0.410 2.585 1.690 2391
0.409 2.583 1.678 4494
0.410 2.587 1.670 7308
0.415 2.619 1.678 8617
0.417 2.630 1.674 8624
0.419 2.641 1.670 8686
0.419 2.646 1.662 6445
0.420 2.650 1.655 4439
0.421 2.654 1.647 4726
0.423 2.665 1.643 4094
0.428 2.697 1.650 4139
0.429 2.708 1.646 4129
0.431 2.720 1.641 4213
0.434 2.738 1.641 4192
0.440 2.777 1.651 5055
0.442 2.788 1.646 5690
0.444 2.799 1.642 6400
0.443 2.796 1.630 5245
0.457 2.884 1.665 4779
0.442 2.791 1.606 4568
0.443 2.795 1.597 4829
0.464 2.925 1.653 4419
0.464 2.929 1.645 5425
0.466 2.941 1.639 6734
0.467 2.945 1.631 8047
0.466 2.942 1.618 5852
0.477 3.010 1.641 4619
0.491 3.098 1.673 3946
0.492 3.103 1.664 3997
0.500 3.157 1.678 3028
0.507 3.196 1.686 3196
0.506 3.194 1.673 4042
0.506 3.191 1.660 5118
0.507 3.195 1.651 5118
0.506 3.193 1.638 4739
0.507 3.197 1.628 4397
0.512 3.230 1.632 4931
0.514 3.241 1.625 5958
0.516 3.252 1.619 5802
0.517 3.264 1.612 5827
0.518 3.268 1.603 5827
0.519 3.272 1.593 2913
0.239 1.509 0.814 200
0.107 0.661 1.695 11925
0.107 0.662 1.686 12985
0.107 0.664 1.677 14582
0.108 0.668 1.675 13812
0.108 0.669 1.666 13159
0.109 0.674 1.664 13159
0.110 0.678 1.662 10482
0.110 0.682 1.660 7806
0.111 0.690 1.665 9443
0.114 0.705 1.684 12940
0.116 0.719 1.703 15750
0.117 0.724 1.701 19582
0.118 0.732 1.706 18098
0.119 0.736 1.704 15351
0.120 0.740 1.701 13995
0.120 0.745 1.699 9118
0.119 0.735 1.669 4330
0.123 0.761 1.709 4274
0.124 0.769 1.713 4866
0.126 0.777 1.718 6381
0.126 0.782 1.716 7931
0.128 0.790 1.720 7526
0.128 0.794 1.718 7180
0.129 0.799 1.716 10937
0.130 0.803 1.713 14694
0.131 0.808 1.711 18926
0.131 0.812 1.708 23159
0.132 0.817 1.706 22786
0.133 0.825 1.710 22543
0.134 0.830 1.708 26829
0.135 0.834 1.705 33719
0.135 0.839 1.703 36936
0.136 0.843 1.700 35219
0.137 0.847 1.697 32889
0.138 0.852 1.695 26976
0.139 0.860 1.699 21365
0.140 0.865 1.697 15072
0.140 0.865 1.687 8836
0.140 0.866 1.678 8259
0.141 0.870 1.675 8074
0.142 0.879 1.679 8236
0.143 0.883 1.677 7760
0.143 0.887 1.674 7915
0.146 0.904 1.691 10871
0.147 0.912 1.695 21108
0.148 0.917 1.693 28221
0.149 0.921 1.690 25462
0.150 0.930 1.694 25474
0.151 0.934 1.691 28605
0.152 0.943 1.695 27492
0.153 0.947 1.692 23980
0.154 0.956 1.696 23106
0.157 0.969 1.706 22880
0.158 0.978 1.710 20663
0.159 0.982 1.707 21036
0.159 0.987 1.704 19105
0.159 0.987 1.694 17525
0.161 0.996 1.698 18219
0.162 1.005 1.702 17375
0.164 1.013 1.705 20478
0.164 1.018 1.702 31054
0.164 1.018 1.692 38259
0.166 1.027 1.696 33943
0.167 1.036 1.699 22888
0.168 1.040 1.696 13498
0.169 1.049 1.699 11063
0.171 1.058 1.703 12229
0.172 1.067 1.706 18234
0.174 1.076 1.709 25460
0.175 1.081 1.706 28470
0.175 1.085 1.703 26631
0.175 1.085 1.693 20414
0.177 1.094 1.696 12111
0.180 1.112 1.712 7942
0.179 1.107 1.696 6488
0.180 1.112 1.693 13219
0.181 1.121 1.696 20208
0.183 1.130 1.698 25935
0.183 1.135 1.695 28571
0.184 1.139 1.692 18000
0.186 1.153 1.701 8334
0.188 1.162 1.704 9716
0.190 1.176 1.713 14616
0.191 1.181 1.709 19704
0.191 1.181 1.699 22162
0.192 1.190 1.702 24012
0.193 1.194 1.698 29095
0.194 1.204 1.701 27814
0.196 1.213 1.703 20761
0.197 1.218 1.700 13207
0.199 1.232 1.708 15218
0.199 1.231 1.699 22212
0.200 1.236 1.695 21888
0.200 1.240 1.691 19149
0.202 1.250 1.693 19176
0.203 1.259 1.696 20468
0.206 1.274 1.704 19997
0.207 1.283 1.706 22434
0.208 1.288 1.702 31514
0.210 1.297 1.705 36389
0.210 1.302 1.701 25690
0.211 1.306 1.697 15964
0.213 1.321 1.705 14977
0.215 1.331 1.707 16604
0.216 1.335 1.703 17840
0.216 1.340 1.699 15998
0.217 1.344 1.695 11023
0.219 1.354 1.696 10136
0.220 1.363 1.698 11364
0.222 1.373 1.700 11472
0.223 1.378 1.696 14370
0.226 1.398 1.709 17845
0.227 1.408 1.711 24714
0.227 1.407 1.701 30670
0.228 1.411 1.697 30650
0.229 1.416 1.692 26207
0.230 1.426 1.694 30778
0.231 1.430 1.689 29286
0.233 1.440 1.691 20162
0.234 1.450 1.692 14856
0.237 1.465 1.699 13249
0.237 1.470 1.695 13312
0.239 1.480 1.696 9103
0.243 1.506 1.714 7025
0.246 1.522 1.721 11091
0.246 1.521 1.711 16994
0.246 1.520 1.701 21372
0.245 1.518 1.690 20053
0.246 1.523 1.686 22444
0.247 1.527 1.681 25254
0.248 1.537 1.682 20923
0.253 1.564 1.700 18929
0.254 1.574 1.700 14701
0.255 1.579 1.696 12794
0.257 1.589 1.696 10772
0.257 1.588 1.686 8154
0.263 1.626 1.714 6278
0.262 1.619 1.698 8845
0.262 1.624 1.693 10147
0.266 1.646 1.705 9369
0.267 1.650 1.700 16334
0.268 1.660 1.700 22030
0.270 1.671 1.700 23536
0.271 1.675 1.695 20947
0.271 1.679 1.690 15713
0.273 1.690 1.691 11200
0.274 1.694 1.685 7016
0.273 1.687 1.670 5472
0.276 1.709 1.680 7824
0.280 1.731 1.691 12687
0.282 1.747 1.696 11776
0.285 1.764 1.701 6957
0.288 1.780 1.706 11339
0.288 1.784 1.701 13492
0.291 1.801 1.706 12829
0.293 1.811 1.705 15413
0.292 1.810 1.695 13330
0.293 1.814 1.689 9436
0.296 1.831 1.694 13699
0.297 1.841 1.694 21983
0.299 1.852 1.693 19096
0.301 1.862 1.693 13396
0.304 1.879 1.697 14869
0.303 1.877 1.686 14525
0.304 1.882 1.681 10044
0.306 1.892 1.680 8614
0.308 1.909 1.684 9040
0.315 1.950 1.708 10267
0.317 1.961 1.707 11000
0.320 1.978 1.710 17587
0.321 1.988 1.709 29335
0.322 1.993 1.703 35017
0.323 1.997 1.697 25597
0.323 2.002 1.691 17500
0.324 2.006 1.685 16586
0.325 2.011 1.679 12304
0.328 2.028 1.683 8026
0.331 2.051 1.691 9163
0.332 2.055 1.685 10606
0.335 2.073 1.688 8487
0.347 2.147 1.733 5961
0.350 2.164 1.735 7144
0.350 2.169 1.729 7663
0.343 2.122 1.686 7803
0.344 2.126 1.679 10642
0.352 2.176 1.705 18241
0.353 2.187 1.703 26178
0.354 2.191 1.696 28873
0.355 2.196 1.690 27345
0.355 2.200 1.683 23239
0.357 2.211 1.681 23136
0.358 2.215 1.675 24936
0.360 2.226 1.672 24919
0.361 2.237 1.670 20375
0.366 2.267 1.681 11880
0.370 2.291 1.687 6468
0.365 2.257 1.654 4178
0.373 2.307 1.678 3275
0.385 2.384 1.718 3235
0.385 2.381 1.707 3503
0.385 2.386 1.699 5283
0.388 2.404 1.701 10797
0.389 2.408 1.694 14615
0.391 2.419 1.691 15393
0.392 2.424 1.683 13831
0.393 2.435 1.680 11554
0.395 2.446 1.677 9959
0.398 2.463 1.678 8375
0.399 2.468 1.671 7005
0.401 2.479 1.667 5604
0.401 2.483 1.660 3595
0.402 2.488 1.653 2980
0.403 2.492 1.645 2443
0.412 2.550 1.670 2479
0.413 2.555 1.662 4963
0.416 2.573 1.662 7777
0.420 2.597 1.666 8388
0.424 2.622 1.670 8020
0.425 2.633 1.666 7973
0.427 2.644 1.662 5990
0.428 2.649 1.655 4434
0.429 2.653 1.647 4801
0.432 2.671 1.646 4098
0.436 2.696 1.650 4299
0.437 2.707 1.646 4322
0.439 2.718 1.641 4360
0.441 2.730 1.637 4275
0.448 2.775 1.651 4976
0.450 2.786 1.646 5731
0.452 2.798 1.642 6644
0.453 2.802 1.633 5282
0.467 2.890 1.668 4904
0.468 2.894 1.660 4599
0.453 2.801 1.601 4850
0.472 2.924 1.653 4743
0.474 2.935 1.648 5693
0.475 2.939 1.639 6987
0.476 2.943 1.631 8281
0.476 2.948 1.622 6030
0.486 3.008 1.641 5013
0.499 3.090 1.670 4313
0.500 3.094 1.660 4575
0.502 3.106 1.655 3093
0.516 3.195 1.686 2702
0.513 3.178 1.666 3756
0.514 3.182 1.657 4933
0.515 3.187 1.647 4933
0.516 3.191 1.638 4625
0.516 3.195 1.628 4317
0.522 3.228 1.632 4875
0.523 3.239 1.625 5970
0.526 3.258 1.622 6023
0.527 3.262 1.612 6252
0.528 3.266 1.603 6252
0.528 3.271 1.593 3126
0.109 0.661 1.695 11030
0.109 0.659 1.679 13120
0.110 0.663 1.677 15765
0.110 0.668 1.675 15407
0.111 0.672 1.673 15049
0.112 0.677 1.671 15049
0.112 0.678 1.662 11648
0.112 0.679 1.652 8336
0.113 0.686 1.657 10074
0.115 0.697 1.670 12616
0.119 0.719 1.703 14677
0.119 0.723 1.701 18818
0.121 0.731 1.706 17754
0.121 0.736 1.704 15780
0.122 0.740 1.701 14858
0.123 0.745 1.699 10390
0.123 0.745 1.690 5935
0.125 0.757 1.702 5142
0.127 0.769 1.713 5033
0.128 0.773 1.711 6881
0.129 0.781 1.716 8888
0.130 0.786 1.713 8864
0.130 0.790 1.711 8841
0.132 0.798 1.716 12279
0.133 0.803 1.713 15930
0.133 0.807 1.711 20030
0.134 0.812 1.708 24130
0.135 0.816 1.706 23083
0.136 0.821 1.703 22036
0.137 0.829 1.708 25582
0.138 0.834 1.705 32385
0.138 0.838 1.703 36554
0.139 0.843 1.700 36216
0.140 0.847 1.697 34900
0.141 0.851 1.695 28926
0.142 0.860 1.699 23164
0.143 0.864 1.697 16235
0.143 0.865 1.687 9252
0.142 0.861 1.671 7973
0.143 0.866 1.668 7706
0.144 0.874 1.672 8158
0.146 0.882 1.677 7616
0.147 0.891 1.681 7855
0.149 0.903 1.691 10368
0.151 0.912 1.695 19110
0.151 0.916 1.693 25140
0.152 0.921 1.690 23075
0.153 0.929 1.694 26260
0.154 0.934 1.691 31684
0.156 0.942 1.695 30264
0.156 0.947 1.692 25816
0.158 0.956 1.696 24511
0.160 0.968 1.706 23750
0.161 0.977 1.710 21711
0.162 0.982 1.707 22899
0.163 0.986 1.704 20591
0.163 0.986 1.694 18014
0.164 0.995 1.698 17780
0.166 1.004 1.702 16186
0.167 1.013 1.705 21911
0.168 1.017 1.702 34641
0.168 1.017 1.692 41005
0.169 1.026 1.696 34852
0.171 1.035 1.699 22797
0.172 1.040 1.696 14134
0.172 1.044 1.693 11745
0.175 1.057 1.703 11808
0.176 1.066 1.706 17264
0.178 1.075 1.709 25518
0.178 1.080 1.706 30504
0.179 1.084 1.703 30474
0.180 1.089 1.699 25313
0.180 1.093 1.696 16574
0.183 1.107 1.706 11460
0.183 1.107 1.696 9074
0.183 1.111 1.693 13779
0.185 1.120 1.696 19454
0.186 1.130 1.698 24726
0.187 1.134 1.695 27142
0.188 1.139 1.692 17411
0.190 1.152 1.701 8098
0.192 1.162 1.704 8572
0.194 1.176 1.713 12681
0.195 1.180 1.709 17844
0.195 1.180 1.699 20892
0.196 1.189 1.702 24650
0.198 1.199 1.704 32137
0.199 1.203 1.701 31148
0.200 1.212 1.703 22543
0.201 1.217 1.700 14565
0.202 1.226 1.702 16631
0.203 1.231 1.699 23129
0.204 1.235 1.695 22812
0.205 1.240 1.691 21130
0.206 1.249 1.693 21768
0.208 1.259 1.696 21836
0.210 1.273 1.704 20219
0.211 1.278 1.700 23100
0.212 1.287 1.702 33890
0.214 1.297 1.705 39879
0.215 1.301 1.701 27949
0.216 1.306 1.697 15875
0.219 1.325 1.711 14835
0.220 1.330 1.707 17419
0.220 1.334 1.703 18849
0.221 1.339 1.699 18352
0.222 1.343 1.695 12734
0.223 1.353 1.696 13022
0.224 1.357 1.692 15767
0.226 1.367 1.694 12660
0.227 1.377 1.696 14797
0.231 1.397 1.709 18502
0.232 1.407 1.711 21080
0.232 1.406 1.701 25117
0.232 1.405 1.691 26530
0.234 1.415 1.692 24802
0.235 1.425 1.694 28825
0.236 1.429 1.689 24134
0.238 1.439 1.691 16781
0.240 1.455 1.698 15180
0.243 1.470 1.705 14623
0.242 1.469 1.695 13516
0.244 1.479 1.696 9195
0.248 1.500 1.709 7546
0.250 1.515 1.715 11188
0.251 1.520 1.711 17276
0.250 1.513 1.695 24664
0.251 1.518 1.690 28614
0.251 1.522 1.686 31772
0.252 1.526 1.681 31559
0.254 1.536 1.682 25017
0.259 1.569 1.705 24817
0.261 1.579 1.706 18738
0.260 1.578 1.696 14238
0.260 1.577 1.685 9956
0.264 1.598 1.697 9379
0.266 1.614 1.703 11397
0.267 1.618 1.698 11205
0.268 1.623 1.693 9809
0.271 1.645 1.705 8175
0.272 1.649 1.700 15638
0.274 1.659 1.700 22187
0.276 1.670 1.700 24810
0.276 1.674 1.695 22772
0.277 1.678 1.690 16998
0.278 1.683 1.685 11130
0.281 1.705 1.696 7487
0.283 1.715 1.696 6422
0.284 1.720 1.691 8662
0.288 1.742 1.701 13180
0.289 1.752 1.701 11651
0.292 1.768 1.706 7358
0.294 1.779 1.706 11137
0.294 1.783 1.701 13016
0.297 1.800 1.706 11960
0.299 1.810 1.705 13139
0.299 1.809 1.695 11702
0.299 1.813 1.689 9680
0.302 1.830 1.694 15275
0.304 1.840 1.694 24233
0.306 1.851 1.693 22264
0.306 1.855 1.688 15231
0.308 1.866 1.687 12643
0.310 1.876 1.686 13299
0.311 1.887 1.686 12317
0.314 1.903 1.690 12249
0.316 1.914 1.689 12200
0.319 1.931 1.693 9804
0.321 1.947 1.697 8304
0.327 1.983 1.715 15389
0.328 1.987 1.709 26798
0.330 1.998 1.708 33667
0.331 2.003 1.702 26146
0.330 2.001 1.691 16302
0.331 2.005 1.685 14431
0.332 2.010 1.679 13620
0.336 2.033 1.688 12695
0.337 2.044 1.686 12904
0.339 2.054 1.685 12089
0.343 2.078 1.692 8998
0.346 2.095 1.696 6662
0.346 2.093 1.685 5388
0.347 2.104 1.683 5190
0.348 2.108 1.677 7087
0.359 2.176 1.716 9376
0.360 2.181 1.709 15568
0.361 2.185 1.703 19093
0.363 2.196 1.701 19781
0.362 2.194 1.690 19363
0.364 2.205 1.688 20989
0.365 2.210 1.681 25715
0.364 2.208 1.670 28346
0.366 2.218 1.668 27121
0.369 2.236 1.670 20885
0.375 2.273 1.685 12581
0.378 2.290 1.687 6898
0.379 2.295 1.680 4631
0.380 2.299 1.673 3980
0.380 2.303 1.666 3365
0.387 2.347 1.685 3370
0.394 2.385 1.699 5367
0.395 2.396 1.697 10659
0.397 2.407 1.694 14263
0.398 2.411 1.686 14899
0.401 2.429 1.688 13471
0.402 2.433 1.680 11520
0.405 2.451 1.681 10882
0.406 2.462 1.678 9451
0.407 2.467 1.671 7870
0.408 2.471 1.663 5767
0.410 2.482 1.660 3225
0.409 2.480 1.649 2766
0.411 2.491 1.645 3036
0.421 2.549 1.670 4348
0.421 2.553 1.662 7001
0.423 2.564 1.658 9370
0.425 2.575 1.655 9553
0.431 2.614 1.666 7764
0.433 2.625 1.663 7595
0.435 2.636 1.659 6168
0.437 2.647 1.655 4960
0.438 2.652 1.647 5004
0.443 2.683 1.654 4137
0.446 2.701 1.654 4230
0.447 2.706 1.646 4232
0.447 2.710 1.637 4234
0.450 2.728 1.637 3935
0.460 2.787 1.658 4821
0.462 2.799 1.654 5908
0.463 2.803 1.645 7058
0.463 2.807 1.637 5552
0.477 2.888 1.668 5199
0.477 2.892 1.660 5089
0.479 2.904 1.655 5000
0.482 2.922 1.653 5443
0.484 2.933 1.648 6390
0.485 2.938 1.639 7666
0.486 2.942 1.631 8942
0.488 2.953 1.625 6561
0.496 3.007 1.641 5620
0.509 3.081 1.666 4995
0.509 3.086 1.657 5383
0.511 3.097 1.651 3704
0.522 3.165 1.672 2537
0.523 3.169 1.663 3903
0.524 3.174 1.653 5268
0.525 3.178 1.644 5268
0.525 3.182 1.635 4954
0.526 3.186 1.625 4640
0.533 3.226 1.632 5078
0.536 3.245 1.629 6325
0.538 3.256 1.622 6632
0.538 3.260 1.612 7032
0.539 3.265 1.603 7032
0.540 3.269 1.593 3516
0.111 0.661 1.695 10295
0.111 0.659 1.679 12787
0.112 0.663 1.677 15776
0.112 0.667 1.675 15800
0.113 0.672 1.673 15825
0.114 0.676 1.671 15825
0.114 0.677 1.662 12195
0.114 0.678 1.652 8708
0.115 0.686 1.657 10595
0.117 0.694 1.662 12805
0.121 0.718 1.703 13415
0.122 0.726 1.708 17708
0.123 0.731 1.706 16877
0.124 0.735 1.704 15302
0.124 0.740 1.701 14558
0.125 0.744 1.699 10390
0.126 0.749 1.697 6222
0.127 0.757 1.702 5688
0.129 0.765 1.706 5593
0.130 0.773 1.711 7511
0.131 0.781 1.716 9531
0.131 0.782 1.706 9813
0.132 0.786 1.704 10152
0.134 0.794 1.709 13275
0.135 0.802 1.713 16703
0.136 0.807 1.711 20697
0.136 0.811 1.708 24690
0.137 0.816 1.706 23384
0.138 0.820 1.703 22077
0.139 0.829 1.708 24732
0.140 0.833 1.705 31067
0.141 0.838 1.703 35680
0.142 0.842 1.700 35848
0.142 0.847 1.697 34891
0.143 0.851 1.695 28856
0.145 0.859 1.699 22936
0.145 0.864 1.697 15939
0.145 0.864 1.687 8795
0.145 0.861 1.671 7185
0.146 0.865 1.668 6948
0.147 0.874 1.672 7751
0.148 0.882 1.677 7305
0.150 0.890 1.681 7543
0.152 0.903 1.691 9499
0.153 0.911 1.695 16795
0.154 0.916 1.693 21947
0.155 0.920 1.690 20903
0.156 0.929 1.694 26255
0.157 0.933 1.691 32696
0.158 0.942 1.695 31184
0.159 0.946 1.692 26272
0.161 0.955 1.696 24790
0.163 0.968 1.706 23966
0.164 0.977 1.710 21900
0.165 0.981 1.707 23249
0.165 0.981 1.697 20765
0.166 0.986 1.694 17849
0.167 0.995 1.698 17476
0.169 1.003 1.702 15767
0.170 1.012 1.705 22613
0.171 1.017 1.702 35727
0.171 1.017 1.692 41311
0.173 1.026 1.696 34274
0.174 1.035 1.699 22377
0.175 1.039 1.696 14490
0.176 1.043 1.693 12043
0.177 1.052 1.696 11213
0.179 1.066 1.706 15801
0.181 1.075 1.709 24650
0.182 1.079 1.706 30837
0.182 1.084 1.703 32063
0.183 1.088 1.699 27969
0.185 1.097 1.703 19477
0.186 1.106 1.706 13506
0.186 1.106 1.696 10856
0.187 1.111 1.693 13831
0.188 1.120 1.696 17638
0.190 1.129 1.698 22350
0.191 1.133 1.695 24732
0.191 1.138 1.692 16464
0.193 1.147 1.694 8073
0.195 1.161 1.704 7767
0.198 1.175 1.713 11174
0.198 1.180 1.709 15675
0.198 1.179 1.699 18521
0.200 1.189 1.702 23320
0.202 1.198 1.704 31872
0.202 1.202 1.701 31107
0.204 1.212 1.703 22519
0.205 1.216 1.700 15163
0.206 1.226 1.702 17140
0.207 1.230 1.699 23016
0.208 1.235 1.695 22751
0.209 1.244 1.697 21649
0.210 1.248 1.693 22736
0.212 1.258 1.696 21849
0.214 1.272 1.704 19370
0.215 1.277 1.700 22621
0.216 1.286 1.702 33840
0.218 1.296 1.705 40020
0.219 1.300 1.701 27735
0.220 1.305 1.697 15307
0.222 1.320 1.705 14557
0.224 1.329 1.707 18532
0.224 1.334 1.703 20836
0.226 1.343 1.705 20342
0.226 1.343 1.695 13829
0.227 1.352 1.696 14987
0.228 1.357 1.692 18613
0.230 1.366 1.694 13206
0.231 1.376 1.696 14268
0.234 1.391 1.703 18109
0.236 1.401 1.705 18306
0.236 1.400 1.695 19848
0.236 1.405 1.691 22390
0.238 1.414 1.692 22671
0.240 1.424 1.694 24889
0.240 1.429 1.689 19652
0.242 1.439 1.691 14080
0.245 1.459 1.704 15489
0.248 1.475 1.711 15103
0.248 1.474 1.700 12335
0.249 1.478 1.696 9113
0.251 1.493 1.703 8001
0.255 1.514 1.715 10255
0.256 1.524 1.716 15236
0.254 1.512 1.695 24872
0.255 1.517 1.690 30574
0.256 1.521 1.686 33212
0.257 1.526 1.681 32999
0.257 1.530 1.677 26415
0.264 1.568 1.705 25909
0.266 1.584 1.711 19911
0.265 1.577 1.696 14921
0.264 1.570 1.680 10318
0.270 1.603 1.702 10253
0.271 1.613 1.703 14661
0.272 1.618 1.698 12556
0.272 1.616 1.688 9316
0.276 1.638 1.699 8023
0.277 1.648 1.700 15042
0.279 1.658 1.700 20741
0.281 1.669 1.700 24048
0.281 1.673 1.695 22564
0.282 1.678 1.690 16987
0.283 1.682 1.685 12425
0.286 1.698 1.691 11223
0.287 1.708 1.691 10529
0.289 1.719 1.691 10529
0.291 1.729 1.691 13014
0.296 1.757 1.706 11160
0.298 1.774 1.712 8309
0.299 1.778 1.706 10884
0.300 1.782 1.701 11569
0.303 1.799 1.706 9907
0.304 1.809 1.705 10131
0.305 1.814 1.700 8982
0.305 1.812 1.689 8503
0.308 1.829 1.694 15463
0.309 1.839 1.694 24959
0.311 1.850 1.693 23693
0.312 1.854 1.688 16162
0.313 1.859 1.682 11188
0.315 1.875 1.686 12115
0.318 1.892 1.691 14593
0.321 1.909 1.695 14987
0.323 1.919 1.694 14399
0.324 1.924 1.688 10164
0.322 1.916 1.673 7128
0.333 1.982 1.715 13113
0.334 1.986 1.709 22725
0.336 1.997 1.708 29781
0.337 2.002 1.702 24839
0.336 2.000 1.691 15482
0.337 2.004 1.685 13795
0.339 2.015 1.684 15028
0.342 2.032 1.688 14552
0.344 2.043 1.686 14040
0.344 2.047 1.680 12058
0.350 2.083 1.697 8599
0.351 2.087 1.691 7405
0.352 2.092 1.685 7136
0.353 2.096 1.678 6304
0.354 2.107 1.677 6724
0.366 2.175 1.716 10094
0.366 2.173 1.705 13771
0.367 2.184 1.703 14047
0.369 2.195 1.701 13341
0.369 2.193 1.690 13990
0.371 2.204 1.688 19545
0.371 2.208 1.681 26661
0.371 2.206 1.670 29298
0.373 2.217 1.668 27759
0.376 2.235 1.670 21434
0.382 2.272 1.685 12319
0.385 2.289 1.687 6559
0.386 2.293 1.680 4596
0.385 2.291 1.669 4260
0.387 2.302 1.666 3361
0.395 2.346 1.685 3247
0.399 2.370 1.691 5100
0.403 2.394 1.697 9745
0.404 2.399 1.689 12603
0.405 2.410 1.686 13078
0.408 2.428 1.688 12108
0.410 2.439 1.684 10887
0.412 2.450 1.681 11120
0.414 2.461 1.678 9890
0.414 2.459 1.667 8139
0.414 2.463 1.659 5654
0.416 2.474 1.656 3050
0.416 2.472 1.644 2919
0.431 2.563 1.689 3782
0.430 2.554 1.674 5393
0.429 2.552 1.662 8023
0.430 2.556 1.654 10114
0.433 2.574 1.655 9943
0.439 2.612 1.666 7566
0.441 2.624 1.663 7578
0.443 2.635 1.659 6476
0.445 2.646 1.655 5284
0.446 2.650 1.647 4930
0.451 2.682 1.654 4105
0.454 2.700 1.654 4019
0.455 2.704 1.646 3875
0.454 2.702 1.634 3815
0.470 2.795 1.674 3586
0.471 2.800 1.666 4860
0.472 2.804 1.657 6033
0.474 2.815 1.653 7218
0.474 2.820 1.644 5663
0.487 2.893 1.672 5171
0.487 2.898 1.663 5253
0.488 2.902 1.655 5335
0.491 2.920 1.653 5721
0.493 2.932 1.648 6566
0.494 2.936 1.639 7771
0.495 2.940 1.631 8977
0.496 2.952 1.625 6659
0.505 3.005 1.641 5699
0.517 3.073 1.663 5070
0.519 3.084 1.657 5448
0.521 3.095 1.651 3782
0.532 3.163 1.672 2473
0.533 3.168 1.663 3911
0.532 3.165 1.650 5376
0.533 3.169 1.641 5376
0.535 3.181 1.635 5037
0.536 3.185 1.625 4724
0.542 3.225 1.632 4985
0.546 3.243 1.629 6234
0.547 3.255 1.622 6648
0.549 3.266 1.616 7138
0.550 3.270 1.606 7138
0.551 3.274 1.596 3569
0.114 0.663 1.703 10048
0.113 0.658 1.679 12899
0.113 0.659 1.670 16269
0.114 0.667 1.675 16465
0.115 0.671 1.673 16710
0.116 0.676 1.671 16710
0.116 0.677 1.662 12814
0.116 0.678 1.652 9136
0.117 0.686 1.657 10906
0.118 0.690 1.655 12793
0.123 0.718 1.703 12116
0.124 0.726 1.708 16475
0.125 0.730 1.706 15999
0.126 0.735 1.704 15006
0.127 0.739 1.701 14488
0.127 0.744 1.699 10634
0.127 0.745 1.690 6791
0.129 0.753 1.695 6137
0.131 0.764 1.706 5895
0.132 0.772 1.711 7955
0.133 0.777 1.709 10121
0.134 0.781 1.706 10931
0.134 0.782 1.697 11847
0.136 0.794 1.709 14382
0.137 0.798 1.706 17458
0.138 0.807 1.711 21266
0.139 0.811 1.708 25074
0.140 0.816 1.706 23537
0.140 0.820 1.703 22000
0.142 0.828 1.708 23565
0.143 0.833 1.705 29351
0.143 0.837 1.703 34455
0.144 0.842 1.700 35214
0.145 0.846 1.697 34729
0.146 0.851 1.695 28664
0.146 0.855 1.692 22598
0.147 0.860 1.690 15613
0.148 0.864 1.687 8322
0.147 0.860 1.671 6471
0.148 0.865 1.668 6212
0.149 0.873 1.672 7398
0.151 0.882 1.677 7149
0.153 0.894 1.687 7681
0.154 0.903 1.691 8729
0.156 0.911 1.695 14002
0.157 0.915 1.693 18100
0.157 0.920 1.690 18676
0.159 0.928 1.694 26516
0.160 0.937 1.698 33795
0.161 0.942 1.695 32070
0.162 0.946 1.692 26689
0.163 0.955 1.696 25024
0.166 0.968 1.706 24126
0.167 0.976 1.710 21973
0.168 0.981 1.707 23478
0.168 0.981 1.697 20974
0.169 0.985 1.694 17880
0.170 0.994 1.698 17543
0.172 1.003 1.702 16046
0.174 1.016 1.712 23512
0.174 1.016 1.702 36154
0.174 1.016 1.692 40962
0.175 1.025 1.696 33549
0.177 1.034 1.699 22506
0.178 1.039 1.696 15397
0.178 1.043 1.693 12713
0.180 1.052 1.696 10854
0.182 1.065 1.706 14144
0.184 1.074 1.709 23599
0.185 1.079 1.706 31140
0.185 1.083 1.703 33778
0.186 1.088 1.699 30892
0.188 1.097 1.703 22696
0.188 1.101 1.699 15931
0.189 1.106 1.696 13242
0.189 1.106 1.686 14256
0.191 1.115 1.689 15641
0.192 1.124 1.692 19719
0.194 1.133 1.695 22385
0.195 1.137 1.692 16104
0.197 1.151 1.701 9076
0.198 1.156 1.697 7876
0.200 1.170 1.706 10444
0.202 1.179 1.709 13722
0.202 1.179 1.699 15732
0.203 1.188 1.702 21379
0.205 1.197 1.704 30688
0.206 1.202 1.701 30521
0.207 1.211 1.703 22357
0.208 1.216 1.700 15940
0.210 1.225 1.702 18384
0.210 1.230 1.699 23614
0.211 1.234 1.695 23052
0.213 1.243 1.697 22539
0.214 1.248 1.693 23699
0.215 1.257 1.696 21794
0.217 1.267 1.698 18501
0.218 1.276 1.700 22095
0.220 1.286 1.702 33467
0.222 1.295 1.705 39636
0.222 1.300 1.701 27494
0.223 1.304 1.697 15842
0.226 1.319 1.705 15425
0.227 1.329 1.707 21356
0.228 1.333 1.703 24697
0.230 1.343 1.705 22829
0.231 1.347 1.700 15228
0.231 1.352 1.696 17531
0.232 1.356 1.692 21607
0.233 1.361 1.688 13854
0.235 1.376 1.696 13074
0.238 1.391 1.703 18489
0.239 1.395 1.699 16518
0.240 1.399 1.695 15508
0.240 1.404 1.691 19249
0.242 1.414 1.692 19496
0.244 1.424 1.694 18781
0.244 1.428 1.689 15972
0.246 1.438 1.691 13128
0.250 1.458 1.704 17038
0.251 1.468 1.705 15291
0.252 1.473 1.700 11115
0.253 1.477 1.696 10063
0.255 1.493 1.703 8658
0.259 1.514 1.715 8660
0.261 1.524 1.716 11626
0.259 1.512 1.695 23570
0.259 1.511 1.685 30052
0.260 1.521 1.686 31461
0.261 1.525 1.681 32961
0.263 1.535 1.682 27227
0.269 1.573 1.711 25456
0.271 1.583 1.711 21153
0.269 1.571 1.690 16272
0.269 1.569 1.680 12855
0.271 1.585 1.686 11584
0.275 1.607 1.698 18219
0.277 1.617 1.698 13760
0.277 1.621 1.693 7665
0.279 1.632 1.694 7575
0.281 1.642 1.694 14649
0.284 1.658 1.700 19273
0.285 1.668 1.700 22370
0.286 1.672 1.695 21544
0.287 1.677 1.690 16997
0.288 1.681 1.685 14364
0.290 1.692 1.685 15448
0.291 1.702 1.686 15476
0.293 1.712 1.686 13098
0.296 1.728 1.691 12993
0.302 1.762 1.712 11307
0.303 1.773 1.712 11331
0.305 1.783 1.711 12651
0.305 1.782 1.701 10397
0.308 1.798 1.706 7639
0.311 1.814 1.710 6367
0.312 1.825 1.710 5255
0.313 1.829 1.705 7057
0.314 1.834 1.699 16027
0.315 1.838 1.694 25691
0.316 1.849 1.693 24852
0.317 1.853 1.688 17350
0.318 1.858 1.682 10775
0.322 1.880 1.691 12715
0.324 1.891 1.691 18323
0.326 1.908 1.695 17960
0.328 1.918 1.694 16233
0.328 1.916 1.683 11158
0.328 1.915 1.673 7744
0.340 1.987 1.720 11619
0.341 1.992 1.714 18208
0.342 1.996 1.708 24534
0.342 2.001 1.702 23079
0.343 2.005 1.696 16139
0.344 2.009 1.690 14980
0.345 2.014 1.684 16691
0.348 2.031 1.688 15213
0.349 2.042 1.686 13948
0.350 2.046 1.680 11100
0.361 2.107 1.716 8596
0.357 2.086 1.691 8031
0.357 2.084 1.680 8967
0.359 2.095 1.678 7496
0.371 2.170 1.722 7577
0.372 2.174 1.716 11319
0.372 2.172 1.705 13008
0.373 2.177 1.698 10840
0.372 2.175 1.687 8830
0.374 2.186 1.685 11051
0.377 2.203 1.688 19326
0.378 2.207 1.681 27183
0.377 2.205 1.670 28820
0.379 2.216 1.668 27025
0.382 2.234 1.670 21013
0.387 2.264 1.681 11341
0.393 2.294 1.691 5778
0.393 2.299 1.685 4251
0.390 2.277 1.660 4535
0.394 2.301 1.666 3507
0.401 2.345 1.685 3145
0.405 2.369 1.691 5102
0.408 2.387 1.692 8571
0.410 2.398 1.689 10510
0.412 2.409 1.686 10490
0.416 2.433 1.692 10404
0.418 2.444 1.689 10188
0.419 2.449 1.681 11337
0.420 2.453 1.674 10578
0.421 2.457 1.667 8670
0.421 2.462 1.659 5830
0.422 2.466 1.652 3208
0.423 2.470 1.644 3425
0.439 2.562 1.689 4661
0.438 2.560 1.678 6456
0.437 2.551 1.662 8972
0.437 2.555 1.654 10813
0.439 2.566 1.651 10199
0.446 2.604 1.663 7578
0.449 2.622 1.663 7874
0.451 2.633 1.659 6986
0.453 2.645 1.655 5710
0.453 2.649 1.647 5017
0.460 2.687 1.658 4234
0.462 2.699 1.654 4086
0.461 2.696 1.642 3752
0.461 2.694 1.630 3622
0.479 2.801 1.678 3862
0.480 2.805 1.669 5409
0.481 2.810 1.661 6675
0.482 2.814 1.653 7940
0.485 2.832 1.652 6407
0.487 2.844 1.647 5289
0.496 2.896 1.663 5449
0.496 2.901 1.655 5643
0.500 2.919 1.653 6019
0.502 2.930 1.648 6770
0.502 2.935 1.639 7917
0.503 2.939 1.631 9064
0.505 2.950 1.625 6854
0.514 3.004 1.641 5820
0.526 3.071 1.663 5041
0.528 3.082 1.657 5343
0.527 3.080 1.644 3764
0.541 3.162 1.672 2451
0.542 3.166 1.663 3963
0.541 3.163 1.650 5543
0.542 3.168 1.641 5543
0.543 3.172 1.631 5206
0.545 3.183 1.625 4928
0.552 3.223 1.632 5029
0.555 3.242 1.629 6190
0.557 3.253 1.622 6643
0.559 3.264 1.616 7230
0.559 3.269 1.606 7230
0.560 3.273 1.596 3615
0.115 0.663 1.703 10075
0.114 0.658 1.679 12775
0.115 0.659 1.670 16268
0.116 0.667 1.675 16623
0.117 0.671 1.673 17054
0.117 0.676 1.671 17054
0.118 0.677 1.662 13089
0.118 0.681 1.660 9270
0.119 0.685 1.657 11435
0.120 0.690 1.655 13600
0.121 0.697 1.660 12117
0.126 0.726 1.708 15388
0.127 0.730 1.706 14995
0.128 0.735 1.704 14175
0.129 0.739 1.701 13747
0.129 0.743 1.699 10165
0.129 0.744 1.690 6619
0.131 0.752 1.695 6192
0.133 0.764 1.706 6209
0.134 0.772 1.711 8233
0.135 0.776 1.709 10406
0.136 0.781 1.706 11654
0.136 0.782 1.697 13137
0.137 0.790 1.702 15335
0.139 0.798 1.706 18379
0.140 0.803 1.704 21870
0.140 0.807 1.701 25360
0.142 0.815 1.706 23554
0.143 0.820 1.703 21778
0.144 0.828 1.708 22542
0.145 0.832 1.705 27751
0.146 0.837 1.703 33033
0.146 0.841 1.700 34077
0.147 0.846 1.697 33806
0.148 0.850 1.695 27817
0.149 0.855 1.692 21829
0.149 0.859 1.690 15137
0.149 0.860 1.680 8108
0.150 0.860 1.671 6075
0.150 0.864 1.668 5991
0.152 0.873 1.672 7680
0.153 0.881 1.677 7734
0.155 0.894 1.687 8257
0.157 0.902 1.691 8154
0.158 0.911 1.695 11365
0.160 0.919 1.699 14549
0.161 0.924 1.697 16881
0.161 0.928 1.694 26738
0.163 0.937 1.698 34443
0.164 0.941 1.695 32558
0.164 0.946 1.692 26898
0.167 0.958 1.702 25235
0.168 0.967 1.706 24319
0.170 0.976 1.710 21931
0.170 0.980 1.707 23246
0.170 0.980 1.697 20736
0.171 0.985 1.694 17558
0.173 0.994 1.698 17334
0.175 1.007 1.708 16279
0.177 1.016 1.712 23668
0.177 1.016 1.702 35463
0.177 1.016 1.692 39997
0.178 1.025 1.696 32827
0.180 1.034 1.699 23020
0.181 1.038 1.696 16497
0.181 1.042 1.693 13575
0.182 1.047 1.690 10875
0.185 1.065 1.706 12654
0.187 1.074 1.709 22558
0.188 1.078 1.706 31161
0.188 1.083 1.703 34799
0.189 1.087 1.699 32764
0.191 1.096 1.703 24688
0.191 1.101 1.699 17353
0.192 1.105 1.696 14834
0.192 1.105 1.686 14792
0.194 1.114 1.689 14483
0.195 1.123 1.692 18041
0.197 1.132 1.695 20874
0.198 1.137 1.692 15934
0.200 1.151 1.701 9852
0.201 1.155 1.697 8026
0.203 1.169 1.706 10031
0.205 1.179 1.709 12199
0.205 1.178 1.699 13107
0.206 1.187 1.702 18915
0.208 1.197 1.704 28645
0.209 1.201 1.701 29441
0.211 1.211 1.703 21892
0.211 1.215 1.700 15954
0.213 1.224 1.702 18992
0.214 1.229 1.699 24164
0.214 1.233 1.695 23019
0.216 1.243 1.697 22537
0.217 1.247 1.693 23799
0.218 1.252 1.690 20815
0.220 1.266 1.698 17165
0.221 1.271 1.694 21350
0.223 1.285 1.702 32343
0.225 1.295 1.705 38456
0.226 1.299 1.701 27459
0.226 1.299 1.691 17110
0.229 1.318 1.705 16011
0.230 1.323 1.701 23318
0.232 1.332 1.703 27638
0.233 1.342 1.705 24368
0.234 1.347 1.700 16812
0.235 1.351 1.696 20139
0.236 1.356 1.692 23734
0.236 1.360 1.688 14608
0.240 1.380 1.702 12518
0.242 1.390 1.703 18673
0.242 1.394 1.699 15930
0.243 1.399 1.695 14016
0.244 1.403 1.691 17847
0.246 1.413 1.692 16717
0.246 1.418 1.688 14225
0.248 1.427 1.689 14553
0.250 1.437 1.691 15373
0.253 1.452 1.698 19481
0.254 1.462 1.699 16721
0.255 1.467 1.695 11501
0.257 1.477 1.696 11689
0.259 1.487 1.697 9426
0.261 1.502 1.704 8243
0.261 1.501 1.694 9333
0.262 1.505 1.689 22013
0.263 1.510 1.685 28441
0.264 1.520 1.686 28537
0.265 1.524 1.681 31279
0.267 1.534 1.682 26217
0.273 1.572 1.711 24357
0.275 1.582 1.711 21100
0.273 1.570 1.690 17188
0.272 1.563 1.675 15285
0.275 1.579 1.681 13410
0.279 1.606 1.698 20822
0.281 1.616 1.698 15143
0.283 1.626 1.699 6784
0.284 1.631 1.694 7584
0.284 1.635 1.689 15557
0.287 1.651 1.695 18913
0.290 1.667 1.700 20604
0.291 1.672 1.695 20200
0.291 1.676 1.690 17016
0.292 1.680 1.685 15966
0.294 1.691 1.685 18387
0.296 1.701 1.686 18651
0.298 1.711 1.686 14212
0.300 1.727 1.691 12233
0.306 1.761 1.712 11831
0.308 1.772 1.712 12675
0.309 1.776 1.706 14049
0.310 1.781 1.701 10324
0.313 1.797 1.706 5806
0.315 1.814 1.710 4493
0.318 1.830 1.715 3566
0.319 1.835 1.710 6240
0.319 1.833 1.699 16412
0.320 1.837 1.694 25963
0.321 1.848 1.693 24880
0.322 1.852 1.688 17344
0.324 1.863 1.687 10710
0.327 1.880 1.691 14020
0.329 1.890 1.691 21148
0.330 1.901 1.690 19611
0.333 1.917 1.694 16749
0.332 1.909 1.678 11730
0.332 1.908 1.668 8338
0.345 1.986 1.720 10840
0.346 1.991 1.714 14561
0.347 1.995 1.708 19791
0.348 2.000 1.702 21183
0.348 2.004 1.696 17326
0.350 2.015 1.695 16856
0.351 2.019 1.689 17705
0.352 2.024 1.683 14642
0.355 2.041 1.686 12731
0.356 2.045 1.680 9915
0.367 2.113 1.720 8493
0.362 2.079 1.686 8921
0.362 2.084 1.680 10257
0.364 2.094 1.678 8214
0.376 2.162 1.718 8664
0.378 2.173 1.716 12063
0.378 2.171 1.705 12690
0.377 2.169 1.694 10226
0.374 2.148 1.669 8918
0.379 2.178 1.681 10951
0.382 2.196 1.683 19314
0.384 2.206 1.681 26137
0.383 2.204 1.670 26844
0.385 2.215 1.668 25287
0.388 2.233 1.670 20098
0.392 2.256 1.676 10722
0.400 2.300 1.696 5241
0.392 2.252 1.654 4234
0.394 2.263 1.652 4612
0.400 2.300 1.666 3433
0.413 2.377 1.707 3302
0.413 2.375 1.695 5144
0.414 2.379 1.688 7785
0.416 2.390 1.685 8838
0.418 2.401 1.682 8322
0.424 2.439 1.696 9001
0.425 2.443 1.689 9545
0.426 2.447 1.681 11183
0.426 2.452 1.674 10812
0.426 2.450 1.662 8879
0.427 2.454 1.655 5952
0.429 2.465 1.652 3416
0.429 2.469 1.644 3923
0.445 2.561 1.689 5144
0.445 2.559 1.678 7051
0.443 2.550 1.662 9397
0.444 2.554 1.654 11061
0.446 2.565 1.651 10225
0.453 2.603 1.663 7445
0.456 2.621 1.663 7944
0.458 2.632 1.659 7290
0.460 2.643 1.655 5960
0.460 2.648 1.647 5046
0.466 2.679 1.654 4233
0.470 2.704 1.657 4215
0.469 2.695 1.642 3749
0.467 2.685 1.626 3580
0.487 2.800 1.678 3960
0.488 2.804 1.669 5742
0.490 2.815 1.665 7124
0.490 2.820 1.656 8547
0.492 2.831 1.652 6924
0.494 2.842 1.647 5504
0.503 2.895 1.663 5483
0.504 2.899 1.655 5736
0.507 2.918 1.653 6115
0.509 2.929 1.648 6800
0.510 2.933 1.639 7891
0.511 2.938 1.631 8983
0.513 2.949 1.625 6888
0.521 2.995 1.637 5752
0.534 3.070 1.663 4810
0.535 3.074 1.654 5065
0.534 3.071 1.641 3649
0.534 3.069 1.628 2460
0.550 3.165 1.663 3956
0.550 3.162 1.650 5559
0.551 3.166 1.641 5559
0.553 3.178 1.635 5256
0.553 3.182 1.625 5012
0.559 3.214 1.629 4996
0.563 3.240 1.629 6069
0.565 3.251 1.622 6509
0.567 3.263 1.616 7119
0.568 3.267 1.606 7119
0.569 3.271 1.596 3559
0.116 0.663 1.703 10401
0.115 0.658 1.679 12846
0.116 0.659 1.670 16382
0.117 0.667 1.675 16861
0.118 0.671 1.673 17451
0.118 0.675 1.671 17451
0.119 0.680 1.669 13697
0.119 0.681 1.660 10085
0.120 0.685 1.657 12201
0.121 0.689 1.655 14318
0.122 0.697 1.660 12404
0.127 0.725 1.708 14201
0.128 0.730 1.706 13917
0.129 0.734 1.704 13262
0.130 0.739 1.701 12890
0.130 0.743 1.699 9564
0.131 0.748 1.697 6237
0.133 0.756 1.702 6192
0.134 0.764 1.706 6528
0.135 0.772 1.711 8628
0.136 0.776 1.709 10904
0.137 0.781 1.706 12498
0.137 0.782 1.697 14404
0.139 0.790 1.702 16235
0.140 0.798 1.706 18957
0.141 0.802 1.704 22112
0.142 0.807 1.701 25267
0.143 0.815 1.706 23284
0.144 0.819 1.703 21431
0.145 0.828 1.708 21350
0.146 0.832 1.705 25903
0.147 0.837 1.703 31296
0.148 0.841 1.700 32561
0.148 0.846 1.697 32467
0.149 0.850 1.695 26617
0.150 0.854 1.692 20768
0.151 0.859 1.690 14545
0.151 0.859 1.680 7978
0.151 0.860 1.671 5674
0.152 0.868 1.675 5348
0.154 0.877 1.679 7223
0.155 0.885 1.683 7663
0.157 0.897 1.694 8663
0.158 0.902 1.691 7733
0.160 0.910 1.695 9077
0.161 0.919 1.699 11415
0.162 0.923 1.697 15455
0.164 0.932 1.701 27119
0.164 0.936 1.698 34979
0.165 0.941 1.695 32987
0.167 0.949 1.699 27481
0.168 0.958 1.702 25939
0.170 0.967 1.706 24788
0.171 0.976 1.710 21912
0.172 0.980 1.707 22967
0.172 0.980 1.697 20497
0.174 0.989 1.701 17366
0.174 0.993 1.698 17225
0.177 1.007 1.708 16578
0.178 1.015 1.712 23418
0.178 1.016 1.702 34251
0.178 1.016 1.692 38562
0.180 1.024 1.696 31848
0.181 1.033 1.699 23466
0.182 1.038 1.696 17521
0.183 1.042 1.693 14338
0.184 1.047 1.690 10895
0.187 1.065 1.706 11197
0.188 1.074 1.709 21416
0.189 1.078 1.706 30905
0.190 1.083 1.703 35433
0.191 1.087 1.699 34219
0.192 1.096 1.703 26281
0.193 1.101 1.699 18434
0.194 1.105 1.696 16043
0.194 1.105 1.686 14882
0.195 1.109 1.683 13026
0.197 1.123 1.692 16017
0.199 1.132 1.695 19303
0.200 1.141 1.698 16140
0.202 1.150 1.701 11120
0.203 1.155 1.697 8570
0.204 1.164 1.700 9927
0.207 1.178 1.709 10752
0.208 1.183 1.705 10395
0.208 1.187 1.702 16065
0.209 1.192 1.698 25928
0.211 1.201 1.701 27644
0.212 1.210 1.703 21111
0.213 1.215 1.700 15831
0.215 1.224 1.702 19300
0.216 1.234 1.705 24414
0.216 1.233 1.695 22855
0.218 1.242 1.697 22222
0.219 1.247 1.693 23427
0.220 1.251 1.690 19784
0.222 1.266 1.698 15852
0.223 1.270 1.694 20578
0.225 1.285 1.702 31040
0.227 1.294 1.705 36863
0.228 1.299 1.701 28036
0.228 1.298 1.691 19415
0.230 1.313 1.699 17156
0.232 1.323 1.701 25170
0.234 1.332 1.703 30828
0.235 1.342 1.705 26370
0.236 1.346 1.700 18888
0.237 1.351 1.696 22746
0.238 1.355 1.692 25319
0.239 1.360 1.688 15174
0.242 1.380 1.702 12584
0.244 1.390 1.703 19094
0.244 1.389 1.693 16928
0.244 1.393 1.689 14235
0.246 1.403 1.691 17548
0.248 1.413 1.692 15229
0.249 1.417 1.688 11310
0.251 1.432 1.695 14767
0.253 1.442 1.697 19029
0.254 1.447 1.692 23303
0.256 1.456 1.694 20129
0.257 1.466 1.695 13089
0.259 1.476 1.696 13373
0.261 1.486 1.697 10162
0.262 1.491 1.693 8847
0.262 1.495 1.688 9910
0.264 1.505 1.689 21004
0.265 1.509 1.685 26418
0.267 1.519 1.686 25585
0.268 1.529 1.687 29356
0.269 1.534 1.682 24618
0.275 1.566 1.705 23107
0.278 1.582 1.711 20708
0.274 1.564 1.685 18648
0.273 1.557 1.669 18011
0.277 1.578 1.681 15756
0.282 1.606 1.698 23066
0.282 1.610 1.693 18448
