-0.248 2.237 1.502 2837
-0.249 2.247 1.499 3443
-0.255 2.299 1.521 5524
-0.255 2.303 1.514 7672
-0.256 2.307 1.507 9574
-0.256 2.311 1.500 11476
-0.257 2.321 1.497 12637
-0.258 2.325 1.490 15140
-0.257 2.322 1.480 16367
-0.259 2.333 1.477 16359
-0.259 2.337 1.470 16477
-0.259 2.341 1.463 15667
-0.259 2.338 1.452 14993
-0.298 2.687 1.635 14564
-0.298 2.691 1.627 16851
-0.299 2.695 1.619 19139
-0.300 2.706 1.614 17981
-0.300 2.711 1.606 16837
-0.301 2.715 1.598 12614
-0.302 2.726 1.594 8620
-0.303 2.730 1.586 6995
-0.303 2.734 1.578 5370
-0.303 2.732 1.566 6342
-0.302 2.729 1.554 7504
-0.303 2.733 1.546 7227
-0.303 2.737 1.538 6950
-0.304 2.741 1.530 5226
-0.303 2.738 1.519 3577
-0.304 2.742 1.510 3206
-0.306 2.760 1.509 2883
-0.306 2.764 1.501 3336
-0.307 2.768 1.493 3765
-0.307 2.772 1.485 3499
-0.307 2.768 1.473 2849
-0.366 3.307 1.717 2495
-0.367 3.311 1.707 3188
-0.367 3.316 1.697 3188
-0.369 3.327 1.691 3336
-0.370 3.339 1.684 3602
-0.378 3.415 1.707 4002
-0.379 3.420 1.697 4515
-0.375 3.388 1.670 3852
-0.375 3.385 1.657 3826
-0.376 3.390 1.647 3826
-0.264 2.383 1.197 2740
-0.264 2.386 1.189 3573
-0.071 0.653 1.667 11523
-0.071 0.657 1.665 9519
-0.072 0.662 1.663 7515
-0.071 0.660 1.646 9976
-0.072 0.661 1.637 13364
-0.072 0.665 1.635 14056
-0.072 0.669 1.633 17638
-0.073 0.677 1.638 20598
-0.074 0.681 1.636 20108
-0.074 0.686 1.634 19618
-0.075 0.690 1.632 16295
-0.075 0.694 1.630 12971
-0.078 0.719 1.670 11588
-0.079 0.727 1.675 11876
-0.079 0.728 1.666 12243
-0.077 0.711 1.621 14171
-0.077 0.716 1.619 13039
-0.078 0.720 1.617 12233
-0.079 0.728 1.622 11904
-0.080 0.736 1.627 8803
-0.081 0.744 1.631 6423
-0.082 0.759 1.650 4409
-0.084 0.778 1.676 4311
-0.085 0.786 1.681 4383
-0.086 0.798 1.692 4668
-0.087 0.802 1.690 8710
-0.087 0.807 1.687 12752
-0.088 0.811 1.685 15820
-0.089 0.820 1.689 18672
-0.089 0.824 1.687 16182
-0.089 0.825 1.677 12065
-0.090 0.833 1.682 10306
-0.091 0.841 1.686 9687
-0.092 0.850 1.691 9421
-0.092 0.854 1.688 7867
-0.093 0.859 1.685 6313
-0.093 0.863 1.683 8239
-0.094 0.871 1.687 10404
-0.094 0.872 1.678 9002
-0.095 0.876 1.675 8464
-0.095 0.881 1.672 9382
-0.096 0.889 1.677 8177
-0.097 0.898 1.681 7159
-0.098 0.906 1.685 10112
-0.099 0.919 1.695 13502
-0.100 0.928 1.699 13779
-0.101 0.932 1.697 12655
-0.102 0.941 1.701 12048
-0.102 0.945 1.698 12874
-0.102 0.941 1.681 15588
-0.102 0.946 1.679 22144
-0.103 0.950 1.676 25063
-0.103 0.950 1.666 25958
-0.104 0.959 1.670 33519
-0.105 0.968 1.674 41170
-0.105 0.972 1.671 44746
-0.106 0.981 1.675 38471
-0.107 0.990 1.678 28820
-0.108 0.998 1.682 30672
-0.110 1.016 1.699 26331
-0.112 1.034 1.715 28528
-0.112 1.034 1.705 30959
-0.112 1.034 1.696 38298
-0.112 1.034 1.686 49099
-0.112 1.034 1.677 50190
-0.112 1.038 1.674 48823
-0.113 1.043 1.670 45649
-0.113 1.047 1.667 39381
-0.115 1.061 1.677 28420
-0.116 1.074 1.687 14894
-0.118 1.088 1.696 9044
-0.118 1.093 1.693 9406
-0.119 1.102 1.696 10872
-0.120 1.111 1.699 11486
-0.118 1.092 1.664 14661
-0.119 1.101 1.667 20606
-0.121 1.115 1.677 20060
-0.123 1.134 1.692 16949
-0.122 1.128 1.676 17922
-0.123 1.138 1.679 17539
-0.125 1.152 1.688 15886
-0.125 1.156 1.685 13865
-0.125 1.151 1.669 15607
-0.126 1.160 1.672 18918
-0.127 1.174 1.681 20330
-0.128 1.184 1.683 21458
-0.129 1.188 1.680 22109
-0.130 1.197 1.682 28077
-0.131 1.207 1.685 34176
-0.132 1.216 1.687 25880
-0.133 1.226 1.690 13432
-0.135 1.245 1.705 11328
-0.134 1.240 1.689 13751
-0.134 1.239 1.679 17549
-0.135 1.249 1.681 19369
-0.136 1.253 1.678 14900
-0.136 1.257 1.674 11965
-0.137 1.267 1.676 10304
-0.137 1.266 1.666 5973
-0.137 1.266 1.656 8915
-0.138 1.275 1.659 18878
-0.139 1.285 1.661 29173
-0.140 1.294 1.663 21860
-0.141 1.304 1.665 11646
-0.143 1.319 1.673 13320
-0.144 1.328 1.675 21390
-0.144 1.333 1.671 30613
-0.144 1.332 1.661 30647
-0.145 1.341 1.663 29520
-0.146 1.346 1.659 25293
-0.146 1.350 1.655 16334
-0.146 1.349 1.645 13218
-0.147 1.359 1.647 9010
-0.149 1.374 1.654 5933
-0.148 1.368 1.639 8068
-0.150 1.388 1.652 12197
-0.151 1.398 1.654 17081
-0.153 1.413 1.661 19616
-0.154 1.423 1.662 17616
-0.156 1.444 1.675 16880
-0.157 1.448 1.671 17108
-0.158 1.458 1.672 12596
-0.159 1.468 1.673 10663
-0.162 1.495 1.692 15058
-0.162 1.494 1.682 21625
-0.162 1.492 1.671 22072
-0.163 1.502 1.673 22690
-0.164 1.518 1.679 17858
-0.167 1.539 1.691 22135
-0.167 1.544 1.687 28616
-0.168 1.548 1.682 28157
-0.169 1.558 1.683 28722
-0.169 1.563 1.678 31820
-0.170 1.567 1.674 31615
-0.170 1.572 1.669 25571
-0.171 1.582 1.670 20603
-0.173 1.598 1.676 18271
-0.177 1.631 1.698 22485
-0.178 1.641 1.699 19436
-0.179 1.657 1.705 17481
-0.180 1.662 1.700 27442
-0.180 1.666 1.695 25477
-0.182 1.682 1.700 24138
-0.182 1.681 1.690 24528
-0.182 1.685 1.685 19005
-0.184 1.696 1.685 19977
-0.184 1.700 1.680 25209
-0.185 1.705 1.675 25174
-0.186 1.715 1.675 22090
-0.187 1.731 1.681 15886
-0.189 1.742 1.681 12388
-0.188 1.740 1.670 15699
-0.189 1.745 1.665 14996
-0.191 1.761 1.670 17010
-0.192 1.777 1.675 27729
-0.193 1.782 1.670 30074
-0.193 1.786 1.664 24569
-0.194 1.791 1.659 23881
-0.195 1.801 1.659 26134
-0.197 1.818 1.664 19921
-0.201 1.859 1.688 21012
-0.201 1.857 1.678 25151
-0.201 1.855 1.667 25735
-0.202 1.866 1.667 21237
-0.204 1.889 1.676 20284
-0.207 1.912 1.685 21867
-0.207 1.916 1.679 18080
-0.208 1.921 1.674 12255
-0.210 1.944 1.682 12453
-0.212 1.954 1.681 15125
-0.213 1.965 1.680 11185
-0.214 1.976 1.679 12556
-0.214 1.974 1.669 19815
-0.214 1.978 1.663 18863
-0.215 1.989 1.662 10781
-0.216 2.000 1.661 7570
-0.226 2.086 1.716 11773
-0.226 2.085 1.705 17139
-0.226 2.089 1.699 17537
-0.227 2.100 1.697 12406
-0.229 2.117 1.700 12781
-0.230 2.122 1.694 16234
-0.231 2.133 1.692 19767
-0.232 2.143 1.690 21570
-0.233 2.148 1.684 16937
-0.233 2.152 1.678 15864
-0.236 2.176 1.685 15262
-0.237 2.194 1.687 15099
-0.238 2.198 1.681 14779
-0.239 2.209 1.679 15002
-0.241 2.226 1.681 16736
-0.242 2.237 1.679 16839
-0.243 2.242 1.672 13792
-0.252 2.325 1.718 15361
-0.251 2.323 1.707 23973
-0.252 2.327 1.700 28568
-0.252 2.332 1.693 28439
-0.253 2.336 1.686 22961
-0.253 2.341 1.679 13014
-0.255 2.352 1.677 8775
-0.255 2.356 1.670 6280
-0.256 2.361 1.663 2527
-0.244 2.252 1.584 2836
-0.243 2.249 1.573 3335
-0.243 2.247 1.562 4362
-0.244 2.251 1.556 4802
-0.244 2.255 1.549 4032
-0.243 2.246 1.534 2520
-0.242 2.236 1.519 1719
-0.242 2.233 1.509 1899
-0.241 2.230 1.498 2185
-0.243 2.248 1.499 2823
-0.248 2.293 1.517 4026
-0.249 2.303 1.514 5509
-0.250 2.307 1.507 7030
-0.250 2.311 1.500 8552
-0.251 2.322 1.497 9336
-0.252 2.326 1.490 11232
-0.251 2.323 1.480 12270
-0.253 2.334 1.477 12183
-0.253 2.337 1.470 12253
-0.253 2.341 1.463 11803
-0.290 2.683 1.643 13040
-0.291 2.687 1.635 14727
-0.291 2.692 1.627 16862
-0.292 2.696 1.619 18997
-0.292 2.700 1.611 17915
-0.293 2.704 1.603 16834
-0.294 2.716 1.598 12404
-0.294 2.720 1.590 8207
-0.295 2.724 1.582 5753
-0.295 2.721 1.571 3302
-0.294 2.718 1.559 3842
-0.295 2.722 1.551 4533
-0.295 2.726 1.543 4392
-0.296 2.738 1.538 4293
-0.296 2.734 1.527 3457
-0.296 2.738 1.519 2663
-0.298 2.750 1.514 2000
-0.301 2.782 1.520 1604
-0.302 2.786 1.511 1616
-0.301 2.783 1.500 1697
-0.302 2.787 1.491 1467
-0.300 2.769 1.473 1400
-0.358 3.307 1.717 2012
-0.359 3.312 1.707 2652
-0.359 3.317 1.697 2652
-0.360 3.328 1.691 2823
-0.369 3.411 1.717 3767
-0.370 3.416 1.707 4497
-0.370 3.413 1.693 5244
-0.367 3.389 1.670 4313
-0.367 3.386 1.657 4168
-0.367 3.391 1.647 4168
-0.258 2.384 1.197 2511
-0.258 2.387 1.189 3328
-0.069 0.653 1.667 11717
-0.070 0.658 1.665 9576
-0.070 0.662 1.663 7434
-0.070 0.660 1.646 9768
-0.070 0.661 1.637 12812
-0.071 0.665 1.635 13653
-0.071 0.670 1.633 17250
-0.071 0.674 1.631 20006
-0.072 0.682 1.636 19579
-0.073 0.686 1.634 19245
-0.074 0.694 1.639 16154
-0.074 0.698 1.637 13225
-0.076 0.720 1.670 13174
-0.077 0.727 1.675 13609
-0.077 0.728 1.666 13721
-0.075 0.712 1.621 13913
-0.076 0.716 1.619 12721
-0.076 0.720 1.617 11773
-0.077 0.728 1.622 11366
-0.078 0.736 1.627 8179
-0.078 0.740 1.624 5628
-0.082 0.777 1.685 4676
-0.083 0.782 1.683 5646
-0.083 0.786 1.681 5304
-0.084 0.791 1.678 4962
-0.085 0.799 1.683 8788
-0.085 0.803 1.680 12694
-0.086 0.811 1.685 16116
-0.087 0.816 1.682 19395
-0.087 0.820 1.680 17176
-0.087 0.825 1.677 12901
-0.088 0.833 1.682 10609
-0.089 0.841 1.686 9349
-0.090 0.850 1.691 8590
-0.091 0.854 1.688 7173
-0.091 0.855 1.679 5765
-0.092 0.863 1.683 7817
-0.092 0.872 1.687 10027
-0.093 0.876 1.684 8652
-0.093 0.877 1.675 7878
-0.093 0.881 1.672 8509
-0.094 0.889 1.677 7763
-0.095 0.898 1.681 7259
-0.096 0.906 1.685 9744
-0.097 0.919 1.695 12627
-0.098 0.928 1.699 12808
-0.099 0.932 1.697 11846
-0.100 0.941 1.701 11936
-0.100 0.945 1.698 13169
-0.100 0.941 1.681 15784
-0.100 0.946 1.679 21895
-0.101 0.950 1.676 24512
-0.101 0.951 1.666 24369
-0.102 0.959 1.670 30751
-0.103 0.968 1.674 37916
-0.103 0.972 1.671 41297
-0.104 0.981 1.675 36056
-0.105 0.990 1.678 27615
-0.106 0.999 1.682 29993
-0.108 1.016 1.699 26477
-0.110 1.034 1.715 28375
-0.110 1.034 1.705 30475
-0.110 1.034 1.696 38731
-0.110 1.034 1.686 50168
-0.110 1.034 1.677 52035
-0.110 1.039 1.674 51416
-0.111 1.043 1.670 47588
-0.111 1.048 1.667 39306
-0.112 1.057 1.671 26803
-0.114 1.075 1.687 13419
-0.115 1.088 1.696 7758
-0.115 1.084 1.680 7236
-0.115 1.088 1.677 7479
-0.115 1.088 1.667 11033
-0.115 1.088 1.658 16161
-0.117 1.101 1.667 20104
-0.118 1.115 1.677 18944
-0.120 1.129 1.686 15772
-0.120 1.129 1.676 16498
-0.121 1.138 1.679 15372
-0.122 1.152 1.688 13842
-0.123 1.156 1.685 14230
-0.123 1.156 1.675 17967
-0.123 1.160 1.672 20592
-0.125 1.175 1.681 20684
-0.126 1.184 1.683 23564
-0.126 1.188 1.680 25468
-0.127 1.198 1.682 30654
-0.128 1.207 1.685 36833
-0.129 1.217 1.687 28848
-0.130 1.226 1.690 14794
-0.132 1.240 1.699 12395
-0.131 1.240 1.689 15394
-0.131 1.239 1.679 18597
-0.132 1.249 1.681 20829
-0.133 1.253 1.678 15890
-0.133 1.258 1.674 12744
-0.134 1.267 1.676 12123
-0.134 1.267 1.666 6807
-0.134 1.266 1.656 7573
-0.136 1.280 1.665 16322
-0.136 1.285 1.661 25030
-0.137 1.294 1.663 17833
-0.137 1.294 1.653 8180
-0.139 1.314 1.667 8958
-0.140 1.323 1.669 18906
-0.141 1.333 1.671 30708
-0.141 1.332 1.661 31380
-0.142 1.336 1.657 29428
-0.143 1.346 1.659 23608
-0.143 1.351 1.655 14767
-0.143 1.350 1.645 13482
-0.144 1.359 1.647 13059
-0.145 1.369 1.649 10750
-0.145 1.368 1.639 9683
-0.146 1.372 1.635 10018
-0.148 1.398 1.654 14782
-0.150 1.413 1.661 20073
-0.151 1.423 1.662 17697
-0.153 1.444 1.675 17132
-0.154 1.454 1.677 16317
-0.155 1.464 1.678 11762
-0.148 1.391 1.594 10075
-0.159 1.495 1.692 12496
-0.158 1.494 1.682 16997
-0.158 1.493 1.671 18089
-0.159 1.503 1.673 20282
-0.160 1.513 1.674 15124
-0.163 1.540 1.691 20646
-0.163 1.538 1.681 27240
-0.164 1.549 1.682 22361
-0.165 1.553 1.678 25624
-0.166 1.563 1.678 33717
-0.166 1.562 1.668 36413
-0.166 1.566 1.664 31142
-0.167 1.576 1.664 24691
-0.169 1.598 1.676 19361
-0.173 1.631 1.698 20751
-0.174 1.642 1.699 18797
-0.176 1.658 1.705 16652
-0.176 1.662 1.700 23181
-0.177 1.667 1.695 21558
-0.178 1.683 1.700 24011
-0.178 1.681 1.690 27867
-0.179 1.686 1.685 25778
-0.179 1.690 1.680 25048
-0.180 1.701 1.680 30512
-0.181 1.705 1.675 33202
-0.182 1.715 1.675 27401
-0.182 1.720 1.670 15463
-0.184 1.736 1.675 10955
-0.185 1.741 1.670 16553
-0.185 1.745 1.665 15198
-0.187 1.767 1.675 19218
-0.189 1.778 1.675 32133
-0.189 1.782 1.670 33506
-0.189 1.787 1.664 26488
-0.189 1.785 1.654 24164
-0.190 1.795 1.654 27037
-0.193 1.818 1.664 24876
-0.197 1.853 1.683 23809
-0.196 1.851 1.673 26711
-0.197 1.856 1.667 25703
-0.198 1.866 1.667 22448
-0.200 1.889 1.676 24299
-0.203 1.912 1.685 25056
-0.203 1.917 1.679 20617
-0.204 1.921 1.674 13173
-0.206 1.944 1.682 11493
-0.207 1.955 1.681 15038
-0.208 1.959 1.676 12559
-0.209 1.970 1.675 14800
-0.209 1.974 1.669 21087
-0.210 1.979 1.663 17341
-0.211 1.989 1.662 8623
-0.212 2.000 1.661 6515
-0.221 2.087 1.716 10793
-0.221 2.085 1.705 16361
-0.222 2.090 1.699 17384
-0.223 2.107 1.702 13233
-0.225 2.118 1.700 12294
-0.226 2.129 1.698 13770
-0.227 2.139 1.697 17186
-0.227 2.144 1.690 19783
-0.228 2.148 1.684 16447
-0.228 2.153 1.678 16064
-0.231 2.177 1.685 16334
-0.233 2.194 1.687 16873
-0.233 2.199 1.681 15909
-0.234 2.210 1.679 15363
-0.236 2.227 1.681 17669
-0.237 2.238 1.679 18543
-0.238 2.242 1.672 15605
-0.246 2.319 1.714 16293
-0.246 2.323 1.707 25025
-0.247 2.328 1.700 28899
-0.247 2.332 1.693 28613
-0.248 2.337 1.686 23110
-0.248 2.341 1.679 12812
-0.249 2.352 1.677 8216
-0.250 2.357 1.670 5796
-0.250 2.361 1.663 2218
-0.239 2.252 1.584 2196
-0.239 2.250 1.573 2808
-0.239 2.254 1.567 3848
-0.239 2.258 1.560 4240
-0.239 2.255 1.549 3500
-0.238 2.246 1.534 2009
-0.236 2.230 1.515 1192
-0.237 2.234 1.509 1347
-0.237 2.238 1.502 1613
-0.238 2.248 1.499 2285
-0.240 2.266 1.501 3023
-0.244 2.304 1.514 3570
-0.245 2.308 1.507 4741
-0.245 2.312 1.500 5911
-0.246 2.322 1.497 6372
-0.247 2.326 1.490 7683
-0.246 2.323 1.480 8498
-0.248 2.334 1.477 8345
-0.284 2.675 1.658 9474
-0.284 2.679 1.650 11811
-0.285 2.684 1.643 13141
-0.285 2.688 1.635 14472
-0.286 2.692 1.627 16457
-0.286 2.697 1.619 18443
-0.286 2.701 1.611 17502
-0.287 2.705 1.603 16562
-0.287 2.709 1.595 12397
-0.288 2.720 1.590 8286
-0.288 2.718 1.579 6207
-0.288 2.715 1.567 4261
-0.288 2.719 1.559 4042
-0.288 2.716 1.547 3885
-0.288 2.720 1.539 3216
-0.289 2.724 1.531 2548
-0.290 2.735 1.527 2188
-0.290 2.739 1.519 1834
-0.292 2.757 1.517 1565
-0.303 2.853 1.554 1669
-0.303 2.857 1.546 1494
-0.303 2.861 1.537 1313
-0.304 2.865 1.529 1250
-0.304 2.862 1.517 1194
-0.350 3.301 1.713 1671
-0.351 3.313 1.707 2223
-0.352 3.317 1.697 2223
-0.361 3.408 1.727 2762
-0.362 3.412 1.717 3959
-0.362 3.417 1.707 4823
-0.362 3.414 1.693 5788
-0.359 3.390 1.670 4792
-0.359 3.387 1.657 4549
-0.360 3.391 1.647 4549
-0.360 3.396 1.637 2274
-0.253 2.387 1.189 2847
-0.065 0.654 1.667 12377
-0.065 0.658 1.665 9925
-0.066 0.663 1.663 7474
-0.065 0.660 1.646 9677
-0.065 0.661 1.637 12495
-0.066 0.666 1.635 13436
-0.066 0.670 1.633 17013
-0.067 0.674 1.631 19649
-0.068 0.682 1.636 19385
-0.068 0.686 1.634 19264
-0.069 0.694 1.639 16468
-0.070 0.712 1.665 14253
-0.071 0.720 1.670 14410
-0.072 0.728 1.675 14755
-0.072 0.729 1.666 14701
-0.070 0.712 1.621 13622
-0.071 0.713 1.612 12451
-0.071 0.721 1.617 11325
-0.072 0.729 1.622 10668
-0.073 0.736 1.627 7435
-0.073 0.741 1.624 4824
-0.077 0.778 1.685 5261
-0.077 0.782 1.683 6513
-0.078 0.787 1.681 6120
-0.078 0.791 1.678 5727
-0.079 0.799 1.683 9180
-0.080 0.804 1.680 12645
-0.080 0.812 1.685 16247
-0.081 0.817 1.682 19885
-0.081 0.821 1.680 17746
-0.082 0.825 1.677 13338
-0.082 0.830 1.675 10779
-0.083 0.842 1.686 9261
-0.084 0.850 1.691 8366
-0.085 0.855 1.688 6777
-0.085 0.855 1.679 5287
-0.085 0.864 1.683 7029
-0.086 0.872 1.687 8858
-0.087 0.877 1.684 7743
-0.087 0.881 1.682 7255
-0.088 0.886 1.679 7753
-0.088 0.890 1.677 7451
-0.089 0.899 1.681 7508
-0.090 0.907 1.685 9447
-0.091 0.916 1.689 11779
-0.091 0.924 1.693 12070
-0.092 0.929 1.690 11135
-0.093 0.942 1.701 12112
-0.094 0.946 1.698 14058
-0.093 0.942 1.681 16452
-0.094 0.947 1.679 21740
-0.094 0.951 1.676 23750
-0.095 0.955 1.673 23002
-0.095 0.960 1.670 28263
-0.096 0.969 1.674 34801
-0.096 0.973 1.671 37986
-0.097 0.982 1.675 33898
-0.098 0.991 1.678 26899
-0.099 0.999 1.682 29932
-0.101 1.017 1.699 27296
-0.102 1.030 1.709 27889
-0.102 1.035 1.705 29149
-0.102 1.035 1.696 38276
-0.102 1.035 1.686 50522
-0.102 1.035 1.677 53208
-0.103 1.039 1.674 53192
-0.103 1.044 1.670 48607
-0.104 1.048 1.667 38283
-0.105 1.057 1.671 24680
-0.106 1.071 1.680 11618
-0.107 1.085 1.690 5988
-0.107 1.080 1.674 5421
-0.106 1.075 1.658 7625
-0.107 1.084 1.661 13892
-0.108 1.088 1.658 17994
-0.109 1.102 1.667 19345
-0.110 1.111 1.670 17581
-0.111 1.125 1.680 14399
-0.112 1.134 1.682 14827
-0.112 1.134 1.673 12979
-0.114 1.153 1.688 11923
-0.115 1.157 1.685 14982
-0.114 1.157 1.675 20604
-0.115 1.161 1.672 22338
-0.116 1.175 1.681 21054
-0.117 1.185 1.683 25344
-0.118 1.189 1.680 28075
-0.119 1.199 1.682 31464
-0.120 1.208 1.685 36790
-0.120 1.217 1.687 29681
-0.121 1.227 1.690 15699
-0.122 1.236 1.692 13277
-0.122 1.236 1.683 17136
-0.123 1.240 1.679 20674
-0.124 1.250 1.681 23512
-0.124 1.249 1.671 18730
-0.125 1.259 1.674 15753
-0.125 1.263 1.670 14489
-0.125 1.267 1.666 7587
-0.125 1.267 1.656 6554
-0.127 1.281 1.665 14519
-0.128 1.291 1.667 21450
-0.128 1.295 1.663 14032
-0.127 1.279 1.635 6186
-0.129 1.299 1.649 7673
-0.131 1.319 1.663 18981
-0.131 1.329 1.665 31805
-0.132 1.333 1.661 32582
-0.132 1.337 1.657 29638
-0.133 1.347 1.659 22513
-0.134 1.352 1.655 13665
-0.134 1.351 1.645 12514
-0.135 1.360 1.647 15671
-0.136 1.375 1.654 15970
-0.137 1.385 1.656 10217
-0.139 1.400 1.663 6867
-0.138 1.399 1.654 12445
-0.140 1.415 1.661 21193
-0.141 1.424 1.662 19313
-0.143 1.445 1.675 17512
-0.145 1.461 1.682 15830
-0.146 1.471 1.684 12617
-0.146 1.475 1.679 11493
-0.138 1.396 1.590 12446
-0.149 1.500 1.687 10917
-0.148 1.494 1.671 12997
-0.149 1.504 1.673 17050
-0.150 1.514 1.674 15538
-0.152 1.535 1.686 21656
-0.152 1.540 1.681 24553
-0.153 1.544 1.677 18479
-0.153 1.548 1.672 25173
-0.154 1.559 1.673 36093
-0.155 1.563 1.668 41314
-0.155 1.567 1.664 36722
-0.156 1.572 1.659 29291
-0.158 1.593 1.671 20571
-0.162 1.632 1.698 18869
-0.162 1.637 1.693 18927
-0.164 1.653 1.699 17777
-0.165 1.663 1.700 19591
-0.166 1.674 1.700 18416
-0.167 1.684 1.700 24104
-0.167 1.683 1.690 31079
-0.167 1.687 1.685 32531
-0.167 1.692 1.680 31358
-0.168 1.702 1.680 36470
-0.169 1.706 1.675 40226
-0.170 1.717 1.675 31941
-0.170 1.721 1.670 17676
-0.171 1.731 1.670 12658
-0.172 1.742 1.670 18345
-0.173 1.746 1.665 16411
-0.175 1.769 1.675 23233
-0.176 1.779 1.675 36936
-0.177 1.784 1.670 37120
-0.177 1.788 1.664 29798
-0.177 1.786 1.654 25800
-0.178 1.803 1.659 29577
-0.180 1.819 1.664 31002
-0.183 1.848 1.678 27402
-0.183 1.853 1.673 28094
-0.184 1.857 1.667 24477
-0.185 1.874 1.672 22727
-0.188 1.897 1.681 27390
-0.189 1.914 1.685 27634
-0.190 1.918 1.679 22831
-0.190 1.922 1.674 13895
-0.193 1.946 1.682 10837
-0.193 1.950 1.677 16111
-0.193 1.954 1.671 17392
-0.194 1.965 1.670 19768
-0.195 1.970 1.664 22554
-0.196 1.980 1.663 15642
-0.197 1.991 1.662 8007
-0.198 2.002 1.661 7099
-0.207 2.088 1.716 9874
-0.207 2.087 1.705 15550
-0.207 2.091 1.699 16884
-0.209 2.108 1.702 13692
-0.210 2.119 1.700 11753
-0.213 2.149 1.712 12072
-0.213 2.147 1.701 14489
-0.212 2.146 1.690 16946
-0.213 2.150 1.684 14955
-0.214 2.161 1.682 15496
-0.216 2.185 1.689 17080
-0.217 2.196 1.687 18207
-0.218 2.200 1.681 16638
-0.219 2.211 1.679 15320
-0.221 2.235 1.686 17934
-0.222 2.246 1.683 19316
-0.223 2.251 1.677 16485
-0.230 2.321 1.714 17317
-0.230 2.325 1.707 26030
-0.231 2.330 1.700 28780
-0.231 2.334 1.693 28077
-0.231 2.339 1.686 22588
-0.232 2.343 1.679 12107
-0.233 2.354 1.677 7247
-0.233 2.359 1.670 5024
-0.234 2.363 1.663 1855
-0.223 2.254 1.584 1579
-0.223 2.258 1.577 2270
-0.223 2.256 1.567 3355
-0.224 2.260 1.560 3735
-0.224 2.264 1.553 3110
-0.223 2.254 1.538 1689
-0.220 2.225 1.511 791
-0.222 2.242 1.513 950
-0.223 2.253 1.510 1277
-0.223 2.257 1.503 1882
-0.224 2.261 1.497 2346
-0.225 2.271 1.494 2212
-0.227 2.289 1.495 2905
-0.228 2.307 1.496 3805
-0.229 2.317 1.493 3890
-0.230 2.321 1.487 4574
-0.230 2.325 1.480 5099
-0.264 2.673 1.666 5450
-0.265 2.677 1.658 9529
-0.265 2.681 1.650 11723
-0.266 2.686 1.643 12754
-0.266 2.690 1.635 13786
-0.267 2.694 1.627 15681
-0.267 2.699 1.619 17575
-0.267 2.703 1.611 16711
-0.267 2.700 1.599 15936
-0.268 2.711 1.595 12085
-0.269 2.715 1.587 8323
-0.269 2.720 1.579 7004
-0.269 2.717 1.567 5745
-0.269 2.721 1.559 5092
-0.270 2.732 1.554 4440
-0.277 2.799 1.578 2980
-0.287 2.902 1.620 2304
-0.287 2.899 1.608 1959
-0.285 2.875 1.585 1964
-0.284 2.865 1.570 1932
-0.283 2.862 1.558 2069
-0.284 2.866 1.549 1676
-0.283 2.863 1.537 1287
-0.284 2.875 1.532 1247
-0.285 2.879 1.524 1221
-0.327 3.303 1.713 1516
-0.327 3.308 1.704 1995
-0.328 3.313 1.694 1995
-0.337 3.410 1.727 2839
-0.338 3.415 1.717 4105
-0.338 3.419 1.707 5059
-0.337 3.409 1.690 6254
-0.336 3.392 1.670 5283
-0.335 3.389 1.657 4940
-0.336 3.394 1.647 4940
-0.336 3.398 1.637 2470
-0.236 2.389 1.189 2229
-0.063 0.654 1.667 13191
-0.064 0.658 1.665 10468
-0.064 0.663 1.663 7744
-0.064 0.664 1.653 9442
-0.064 0.662 1.637 11786
-0.064 0.666 1.635 12800
-0.065 0.670 1.633 16215
-0.065 0.675 1.631 18615
-0.066 0.682 1.636 18481
-0.066 0.687 1.634 18528
-0.067 0.694 1.639 16157
-0.069 0.716 1.672 15514
-0.070 0.720 1.670 15798
-0.070 0.728 1.675 16148
-0.070 0.729 1.666 15888
-0.069 0.712 1.621 13021
-0.069 0.713 1.612 11799
-0.070 0.721 1.617 10485
-0.070 0.729 1.622 9836
-0.071 0.733 1.620 6860
-0.075 0.781 1.702 4358
-0.075 0.782 1.692 5737
-0.076 0.783 1.683 7278
-0.076 0.787 1.681 7036
-0.077 0.795 1.685 6911
-0.077 0.800 1.683 9798
-0.077 0.800 1.673 12793
-0.078 0.808 1.678 16613
-0.079 0.817 1.682 20455
-0.079 0.821 1.680 18426
-0.080 0.826 1.677 14101
-0.080 0.830 1.675 11520
-0.081 0.842 1.686 9454
-0.082 0.851 1.691 8218
-0.083 0.855 1.688 6450
-0.083 0.856 1.679 4788
-0.083 0.864 1.683 6028
-0.085 0.876 1.694 7346
-0.085 0.885 1.698 6635
-0.085 0.881 1.682 6628
-0.085 0.886 1.679 7276
-0.086 0.894 1.683 7445
-0.087 0.899 1.681 8004
-0.088 0.907 1.685 9251
-0.088 0.916 1.689 11170
-0.089 0.920 1.686 11715
-0.090 0.929 1.690 10915
-0.090 0.938 1.694 12802
-0.091 0.946 1.698 15506
-0.091 0.947 1.688 17616
-0.091 0.947 1.679 21661
-0.092 0.951 1.676 22822
-0.092 0.956 1.673 21660
-0.093 0.960 1.670 25867
-0.094 0.969 1.674 31962
-0.094 0.973 1.671 35120
-0.095 0.982 1.675 32156
-0.096 0.991 1.678 26408
-0.096 1.000 1.682 29944
-0.098 1.017 1.699 28132
-0.099 1.031 1.709 27481
-0.100 1.035 1.705 27805
-0.099 1.031 1.689 37797
-0.100 1.035 1.686 50798
-0.100 1.035 1.677 53985
-0.100 1.040 1.674 54302
-0.101 1.044 1.670 48879
-0.101 1.049 1.667 36712
-0.102 1.058 1.671 22554
-0.103 1.067 1.674 10650
-0.104 1.080 1.683 5467
-0.104 1.080 1.674 5051
-0.104 1.080 1.664 8960
-0.105 1.089 1.667 17530
-0.106 1.093 1.664 19649
-0.106 1.098 1.661 18682
-0.107 1.111 1.670 16100
-0.109 1.125 1.680 12875
-0.110 1.135 1.682 13128
-0.109 1.134 1.673 10996
-0.112 1.158 1.694 10329
-0.112 1.158 1.685 15589
-0.112 1.157 1.675 22623
-0.112 1.162 1.672 23580
-0.113 1.176 1.681 21086
-0.114 1.185 1.683 26437
-0.115 1.190 1.680 29469
-0.116 1.199 1.682 30598
-0.117 1.208 1.685 34464
-0.118 1.218 1.687 28563
-0.118 1.227 1.690 15879
-0.119 1.237 1.692 13568
-0.119 1.231 1.676 17569
-0.120 1.241 1.679 22059
-0.121 1.250 1.681 26194
-0.121 1.249 1.671 21653
-0.122 1.259 1.674 18046
-0.122 1.263 1.670 16013
-0.122 1.268 1.666 8364
-0.123 1.272 1.662 5891
-0.124 1.287 1.671 12735
-0.125 1.291 1.667 18066
-0.125 1.296 1.663 10913
-0.123 1.279 1.635 5379
-0.125 1.299 1.649 9590
-0.127 1.314 1.657 21078
-0.128 1.329 1.665 32818
-0.129 1.333 1.661 33754
-0.129 1.338 1.657 30167
-0.130 1.347 1.659 21909
-0.131 1.357 1.661 12715
-0.131 1.356 1.651 10772
-0.132 1.366 1.653 17595
-0.133 1.381 1.660 21266
-0.134 1.391 1.662 12213
-0.137 1.422 1.687 6553
-0.136 1.405 1.659 10684
-0.137 1.415 1.661 22091
-0.137 1.419 1.657 21616
-0.137 1.418 1.647 18940
-0.138 1.428 1.648 16018
-0.142 1.471 1.684 13895
-0.142 1.475 1.679 14877
-0.135 1.397 1.590 12773
-0.135 1.401 1.586 11445
-0.144 1.494 1.671 8049
-0.145 1.504 1.673 12997
-0.147 1.520 1.679 15384
-0.148 1.530 1.680 21097
-0.149 1.540 1.681 20189
-0.149 1.539 1.671 16608
-0.149 1.543 1.667 27838
-0.150 1.559 1.673 37523
-0.151 1.563 1.668 44439
-0.151 1.562 1.658 41124
-0.151 1.566 1.654 33505
-0.153 1.582 1.660 21895
-0.158 1.633 1.698 16655
-0.158 1.637 1.693 18304
-0.160 1.653 1.699 19210
-0.160 1.658 1.694 17583
-0.162 1.674 1.700 16224
-0.162 1.679 1.695 23644
-0.162 1.683 1.690 32992
-0.163 1.693 1.690 37707
-0.163 1.692 1.680 36814
-0.164 1.702 1.680 41467
-0.165 1.707 1.675 45137
-0.165 1.711 1.670 35600
-0.166 1.716 1.665 20699
-0.167 1.726 1.665 16000
-0.168 1.736 1.665 21132
-0.169 1.753 1.670 18890
-0.171 1.769 1.675 27772
-0.172 1.780 1.675 41090
-0.172 1.784 1.670 40141
-0.173 1.788 1.664 33100
-0.172 1.787 1.654 27789
-0.174 1.803 1.659 32235
-0.176 1.820 1.664 36191
-0.177 1.836 1.668 32127
-0.178 1.847 1.668 29227
-0.179 1.851 1.662 23005
-0.181 1.880 1.676 22335
-0.183 1.897 1.681 28624
-0.185 1.914 1.685 28835
-0.185 1.918 1.679 23889
-0.186 1.923 1.674 14188
-0.187 1.940 1.678 10890
-0.188 1.950 1.677 17898
-0.188 1.949 1.666 21900
-0.189 1.959 1.665 23825
-0.190 1.970 1.664 23241
-0.191 1.974 1.658 14304
-0.192 1.985 1.657 8163
-0.193 1.996 1.656 7854
-0.201 2.083 1.711 9076
-0.201 2.087 1.705 14511
-0.202 2.092 1.699 15802
-0.204 2.109 1.702 13504
-0.205 2.120 1.700 11209
-0.208 2.150 1.712 11379
-0.207 2.148 1.701 12146
-0.207 2.146 1.690 13527
-0.208 2.151 1.684 12755
-0.209 2.161 1.682 14619
-0.211 2.185 1.689 17492
-0.212 2.196 1.687 18898
-0.212 2.201 1.681 16909
-0.213 2.212 1.679 15008
-0.216 2.236 1.686 17615
-0.217 2.247 1.683 19184
-0.217 2.251 1.677 16493
-0.223 2.315 1.709 18230
-0.224 2.326 1.707 26803
-0.225 2.330 1.700 28232
-0.225 2.335 1.693 26916
-0.226 2.339 1.686 21469
-0.226 2.344 1.679 11026
-0.227 2.355 1.677 6065
-0.228 2.359 1.670 4123
-0.228 2.364 1.663 1580
-0.218 2.261 1.588 1143
-0.218 2.259 1.577 1868
-0.218 2.263 1.571 3030
-0.219 2.267 1.564 3431
-0.219 2.264 1.553 2886
-0.218 2.262 1.542 1661
-0.220 2.279 1.544 886
-0.220 2.276 1.533 1078
-0.219 2.267 1.518 1346
-0.218 2.257 1.503 1693
-0.218 2.254 1.493 2051
-0.217 2.252 1.482 2100
-0.218 2.262 1.479 2449
-0.219 2.273 1.477 2933
-0.220 2.284 1.474 2646
-0.257 2.664 1.682 2676
-0.258 2.669 1.674 3337
-0.257 2.666 1.662 5257
-0.258 2.678 1.658 9117
-0.259 2.682 1.650 11072
-0.259 2.686 1.643 11865
-0.260 2.691 1.635 12659
-0.260 2.695 1.627 14565
-0.260 2.692 1.615 16536
-0.260 2.697 1.607 15823
-0.261 2.701 1.599 15111
-0.261 2.705 1.591 11509
-0.262 2.716 1.587 7954
-0.263 2.720 1.579 7179
-0.262 2.717 1.567 6411
-0.263 2.729 1.562 5699
-0.264 2.740 1.558 5029
-0.268 2.779 1.568 3401
-0.282 2.917 1.627 2547
-0.281 2.907 1.611 2108
-0.277 2.869 1.582 2473
-0.277 2.866 1.570 2337
-0.276 2.863 1.558 2334
-0.277 2.874 1.553 1830
-0.278 2.878 1.544 1327
-0.278 2.882 1.536 1441
-0.279 2.886 1.527 1556
-0.279 2.890 1.519 1556
-0.319 3.309 1.704 1838
-0.320 3.313 1.694 1838
-0.329 3.411 1.727 2837
-0.330 3.423 1.720 4143
-0.329 3.413 1.703 5147
-0.328 3.403 1.687 6522
-0.327 3.393 1.670 5616
-0.327 3.390 1.657 5202
-0.328 3.395 1.647 5202
-0.328 3.399 1.637 2601
-0.231 2.397 1.193 1789
-0.062 0.657 1.674 13796
-0.062 0.658 1.665 10869
-0.062 0.663 1.663 7951
-0.062 0.664 1.653 9207
-0.062 0.662 1.637 11013
-0.063 0.666 1.635 12019
-0.063 0.670 1.633 15212
-0.063 0.675 1.631 17400
-0.064 0.682 1.636 17565
-0.065 0.687 1.634 17894
-0.065 0.694 1.639 15938
-0.067 0.716 1.672 16595
-0.068 0.720 1.670 17074
-0.069 0.728 1.675 17592
-0.069 0.733 1.673 17106
-0.068 0.727 1.650 12691
-0.067 0.713 1.612 11302
-0.068 0.721 1.617 9898
-0.069 0.729 1.622 9131
-0.069 0.733 1.620 6392
-0.073 0.781 1.702 4368
-0.074 0.782 1.692 5988
-0.074 0.783 1.683 7789
-0.074 0.791 1.688 7814
-0.075 0.795 1.685 8009
-0.075 0.796 1.676 10233
-0.075 0.800 1.673 12675
-0.076 0.809 1.678 16587
-0.077 0.817 1.682 20537
-0.077 0.821 1.680 18653
-0.078 0.826 1.677 14423
-0.078 0.830 1.675 11817
-0.079 0.842 1.686 9283
-0.080 0.851 1.691 7729
-0.080 0.855 1.688 5987
-0.081 0.856 1.679 4382
-0.081 0.864 1.683 5144
-0.082 0.877 1.694 5929
-0.083 0.885 1.698 5698
-0.083 0.886 1.689 6157
-0.084 0.890 1.686 6910
-0.084 0.895 1.683 7603
-0.085 0.899 1.681 8478
-0.085 0.908 1.685 9010
-0.086 0.916 1.689 10508
-0.087 0.921 1.686 11288
-0.087 0.925 1.683 10701
-0.088 0.938 1.694 13575
-0.089 0.942 1.691 17109
-0.089 0.947 1.688 19006
-0.089 0.947 1.679 21676
-0.090 0.956 1.682 21986
-0.090 0.956 1.673 20263
-0.091 0.965 1.677 23845
-0.092 0.973 1.680 29396
-0.092 0.978 1.678 32666
-0.092 0.982 1.675 30761
-0.093 0.991 1.678 26256
-0.094 1.000 1.682 30212
-0.096 1.018 1.699 28970
-0.097 1.031 1.709 26844
-0.097 1.031 1.699 26430
-0.097 1.031 1.689 37326
-0.097 1.031 1.680 50975
-0.097 1.035 1.677 54584
-0.098 1.040 1.674 55179
-0.098 1.044 1.670 49005
-0.099 1.049 1.667 35127
-0.100 1.058 1.671 20611
-0.100 1.062 1.667 10728
-0.100 1.067 1.664 6782
-0.102 1.080 1.674 6148
-0.102 1.085 1.671 11012
-0.102 1.089 1.667 20559
-0.103 1.094 1.664 21154
-0.103 1.098 1.661 18180
-0.105 1.112 1.670 14834
-0.106 1.126 1.680 11591
-0.107 1.135 1.682 11727
-0.107 1.135 1.673 9409
-0.109 1.158 1.694 8662
-0.109 1.158 1.685 15635
-0.109 1.157 1.675 24153
-0.109 1.162 1.672 24371
-0.111 1.176 1.681 20602
-0.112 1.185 1.683 26433
-0.112 1.190 1.680 29450
-0.113 1.199 1.682 28124
-0.114 1.209 1.685 30185
-0.115 1.218 1.687 25917
-0.115 1.227 1.690 15377
-0.116 1.232 1.686 13391
-0.116 1.231 1.676 17512
-0.117 1.241 1.679 23076
-0.118 1.250 1.681 28211
-0.118 1.250 1.671 23480
-0.118 1.259 1.674 18759
-0.119 1.264 1.670 16076
-0.119 1.268 1.666 8579
-0.121 1.288 1.680 6176
-0.121 1.287 1.671 11583
-0.122 1.292 1.667 15474
-0.122 1.301 1.669 9474
-0.123 1.311 1.671 5509
-0.123 1.305 1.655 12804
-0.124 1.314 1.657 24146
-0.125 1.324 1.659 34088
-0.125 1.328 1.655 35277
-0.126 1.338 1.657 31059
-0.127 1.348 1.659 21706
-0.128 1.357 1.661 11640
-0.128 1.357 1.651 8198
-0.129 1.372 1.658 19093
-0.130 1.381 1.660 26488
-0.131 1.397 1.668 16638
-0.134 1.423 1.687 7655
-0.132 1.400 1.654 9855
-0.133 1.415 1.661 23024
-0.134 1.420 1.657 24457
-0.133 1.418 1.647 21868
-0.133 1.417 1.637 18864
-0.139 1.477 1.689 14635
-0.139 1.476 1.679 18009
-0.140 1.486 1.680 16413
-0.132 1.401 1.586 11803
-0.133 1.411 1.588 8318
-0.143 1.516 1.684 10808
-0.143 1.520 1.679 15347
-0.144 1.530 1.680 18961
-0.145 1.540 1.681 15543
-0.145 1.539 1.671 16928
-0.145 1.538 1.661 31939
-0.146 1.554 1.667 38529
-0.147 1.564 1.668 45787
-0.147 1.562 1.658 44269
-0.147 1.567 1.654 37014
-0.148 1.571 1.649 24674
-0.150 1.593 1.660 14708
-0.154 1.638 1.693 16769
-0.155 1.648 1.694 20242
-0.155 1.652 1.689 17799
-0.157 1.669 1.695 14855
-0.158 1.679 1.695 22676
-0.158 1.683 1.690 33486
-0.159 1.694 1.690 40922
-0.159 1.692 1.680 40838
-0.160 1.703 1.680 44781
-0.161 1.707 1.675 48002
-0.161 1.712 1.670 38595
-0.161 1.716 1.665 23654
-0.162 1.726 1.665 19360
-0.163 1.737 1.665 24195
-0.165 1.753 1.670 21861
-0.166 1.770 1.675 31868
-0.167 1.780 1.675 44112
-0.168 1.784 1.670 42261
-0.168 1.789 1.664 36087
-0.169 1.793 1.659 29837
-0.170 1.804 1.659 34459
-0.171 1.820 1.664 40268
-0.172 1.831 1.663 36238
-0.173 1.841 1.663 30338
-0.174 1.846 1.657 22313
-0.178 1.887 1.681 21481
-0.179 1.904 1.686 28211
-0.180 1.908 1.680 28858
-0.181 1.919 1.679 23894
-0.181 1.923 1.674 13955
-0.183 1.940 1.678 11405
-0.183 1.945 1.672 19918
-0.183 1.949 1.666 25478
-0.184 1.960 1.665 26676
-0.185 1.970 1.664 23083
-0.186 1.975 1.658 14208
-0.187 1.986 1.657 9723
-0.188 1.996 1.656 8671
-0.196 2.083 1.711 8435
-0.196 2.088 1.705 13347
-0.197 2.098 1.703 14265
-0.198 2.109 1.702 12623
-0.200 2.127 1.705 10861
-0.202 2.150 1.712 10835
-0.202 2.148 1.701 10321
-0.203 2.153 1.695 10221
-0.199 2.119 1.661 10519
-0.204 2.168 1.687 13943
-0.206 2.186 1.689 17756
-0.207 2.197 1.687 19247
-0.207 2.201 1.681 16896
-0.208 2.212 1.679 14529
-0.210 2.236 1.686 16757
-0.211 2.247 1.683 18337
-0.212 2.252 1.677 15880
-0.218 2.315 1.709 18925
-0.219 2.326 1.707 27176
-0.219 2.331 1.700 27249
-0.220 2.335 1.693 25220
-0.220 2.340 1.686 19831
-0.221 2.344 1.679 9641
-0.221 2.349 1.672 4838
-0.222 2.360 1.670 3168
-0.223 2.371 1.667 1404
-0.223 2.375 1.660 1245
-0.213 2.266 1.582 1673
-0.214 2.270 1.575 2785
-0.213 2.267 1.564 3205
-0.214 2.272 1.557 2782
-0.213 2.269 1.546 1771
-0.214 2.280 1.544 1157
-0.214 2.277 1.533 1360
-0.214 2.274 1.522 1611
-0.213 2.265 1.507 1696
-0.212 2.255 1.493 2122
-0.213 2.259 1.486 2335
-0.213 2.263 1.479 2629
-0.213 2.267 1.473 2923
-0.214 2.270 1.466 2608
-0.251 2.665 1.682 2395
-0.250 2.662 1.670 3032
-0.251 2.667 1.662 4926
-0.252 2.678 1.658 8400
-0.252 2.683 1.650 10067
-0.253 2.687 1.643 10640
-0.253 2.691 1.635 11214
-0.254 2.696 1.627 13241
-0.253 2.693 1.615 15463
-0.254 2.697 1.607 14778
-0.254 2.701 1.599 14094
-0.255 2.706 1.591 10663
-0.255 2.710 1.583 7233
-0.255 2.714 1.575 6850
-0.256 2.718 1.567 6467
-0.257 2.729 1.562 5805
-0.260 2.761 1.569 5495
-0.261 2.780 1.568 3856
-0.275 2.925 1.630 2873
-0.272 2.887 1.601 2443
-0.270 2.870 1.582 3066
-0.270 2.867 1.570 2758
-0.269 2.864 1.558 2547
-0.270 2.875 1.553 2036
-0.271 2.879 1.544 1513
-0.271 2.883 1.536 1787
-0.271 2.880 1.524 2103
-0.271 2.884 1.515 2103
-0.272 2.888 1.507 1821
-0.311 3.307 1.690 1732
-0.321 3.412 1.727 2765
-0.322 3.423 1.720 4043
-0.321 3.414 1.703 5066
-0.320 3.404 1.687 6625
-0.319 3.387 1.667 5827
-0.318 3.384 1.654 5412
-0.319 3.388 1.644 5412
-0.319 3.392 1.634 2706
-0.225 2.390 1.189 1383
-0.060 0.657 1.674 14328
-0.061 0.662 1.672 11239
-0.061 0.666 1.670 8150
-0.061 0.667 1.661 8975
-0.061 0.665 1.644 10222
-0.061 0.666 1.635 11133
-0.062 0.670 1.633 14050
-0.062 0.675 1.631 15980
-0.063 0.683 1.636 16422
-0.063 0.687 1.634 16985
-0.064 0.698 1.646 15317
-0.066 0.716 1.672 17485
-0.066 0.721 1.670 18222
-0.067 0.725 1.668 18958
-0.067 0.733 1.673 18315
-0.068 0.744 1.685 13312
-0.066 0.713 1.612 10911
-0.066 0.721 1.617 9409
-0.067 0.729 1.622 8533
-0.067 0.733 1.620 6018
-0.072 0.781 1.702 4570
-0.072 0.782 1.692 6314
-0.072 0.783 1.683 8228
-0.073 0.791 1.688 8468
-0.073 0.795 1.685 8864
-0.073 0.796 1.676 10514
-0.074 0.801 1.673 12412
-0.074 0.809 1.678 16300
-0.075 0.817 1.682 20224
-0.076 0.822 1.680 18589
-0.076 0.822 1.671 14719
-0.076 0.830 1.675 12156
-0.077 0.839 1.679 9355
-0.078 0.851 1.691 7441
-0.079 0.855 1.688 5775
-0.078 0.852 1.672 4284
-0.079 0.860 1.676 4635
-0.081 0.881 1.701 4983
-0.081 0.885 1.698 5127
-0.082 0.890 1.695 5886
-0.082 0.890 1.686 6666
-0.082 0.895 1.683 7753
-0.083 0.899 1.681 8828
-0.084 0.916 1.698 8925
-0.085 0.920 1.695 10153
-0.085 0.921 1.686 10990
-0.085 0.925 1.683 10747
-0.086 0.938 1.694 14459
-0.087 0.943 1.691 18651
-0.087 0.947 1.688 20205
-0.087 0.947 1.679 21836
-0.088 0.956 1.682 21555
-0.088 0.960 1.680 19245
-0.089 0.965 1.677 22019
-0.090 0.974 1.680 27518
-0.090 0.978 1.678 30521
-0.090 0.982 1.675 29340
-0.091 0.991 1.678 25841
-0.092 1.000 1.682 30082
-0.094 1.018 1.699 29384
-0.094 1.027 1.702 25938
-0.095 1.031 1.699 25052
-0.095 1.031 1.689 36661
-0.095 1.031 1.680 51098
-0.095 1.036 1.677 55005
-0.096 1.040 1.674 55773
-0.096 1.045 1.670 49165
-0.096 1.049 1.667 33898
-0.097 1.053 1.664 19461
-0.098 1.062 1.667 11474
-0.098 1.067 1.664 8758
-0.099 1.080 1.674 7575
-0.100 1.085 1.671 12640
-0.100 1.089 1.667 22435
-0.101 1.094 1.664 21954
-0.101 1.098 1.661 17522
-0.102 1.107 1.664 13586
-0.103 1.121 1.673 10151
-0.104 1.130 1.676 10028
-0.104 1.130 1.666 7867
-0.107 1.158 1.694 6841
-0.107 1.158 1.685 15083
-0.106 1.158 1.675 24835
-0.107 1.162 1.672 24608
-0.108 1.176 1.681 19888
-0.109 1.186 1.683 25681
-0.109 1.190 1.680 28303
-0.110 1.199 1.682 24499
-0.112 1.214 1.691 24658
-0.112 1.218 1.687 22083
-0.113 1.228 1.690 14058
-0.113 1.232 1.686 12466
-0.114 1.237 1.683 16829
-0.115 1.246 1.685 24040
-0.115 1.251 1.681 30244
-0.115 1.250 1.671 25697
-0.115 1.254 1.668 19727
-0.116 1.264 1.670 16218
-0.117 1.273 1.672 9640
-0.118 1.288 1.680 6776
-0.119 1.293 1.677 10214
-0.119 1.297 1.673 12872
-0.120 1.307 1.675 9564
-0.121 1.311 1.671 7991
-0.120 1.305 1.655 15533
-0.121 1.315 1.657 26208
-0.122 1.324 1.659 35064
-0.122 1.329 1.655 37056
-0.123 1.333 1.651 32371
-0.124 1.348 1.659 21811
-0.125 1.358 1.661 11157
-0.125 1.357 1.651 6802
-0.127 1.377 1.664 20851
-0.128 1.387 1.666 30837
-0.128 1.397 1.668 21535
-0.129 1.407 1.669 9618
-0.128 1.395 1.648 10486
-0.130 1.410 1.655 24226
-0.131 1.420 1.657 27439
-0.130 1.413 1.641 24364
-0.130 1.418 1.637 21789
-0.136 1.477 1.689 14586
-0.136 1.476 1.679 20545
-0.137 1.486 1.680 22669
-0.137 1.490 1.676 18000
-0.138 1.500 1.677 10633
-0.140 1.522 1.689 11893
-0.140 1.520 1.679 15800
-0.141 1.531 1.680 15633
-0.142 1.546 1.687 13182
-0.141 1.534 1.666 20513
-0.141 1.538 1.661 35799
-0.142 1.548 1.662 38492
-0.143 1.558 1.663 45708
-0.144 1.563 1.658 45605
-0.144 1.567 1.654 39215
-0.145 1.571 1.649 27144
-0.146 1.587 1.655 15046
-0.151 1.638 1.693 14564
-0.152 1.648 1.694 20020
-0.152 1.653 1.689 18309
-0.153 1.663 1.689 14052
-0.154 1.679 1.695 21044
-0.155 1.684 1.690 32662
-0.156 1.694 1.690 41990
-0.156 1.693 1.680 42827
-0.156 1.697 1.675 46521
-0.157 1.707 1.675 49321
-0.157 1.712 1.670 40710
-0.158 1.716 1.665 26021
-0.159 1.727 1.665 22007
-0.160 1.737 1.665 26727
-0.161 1.753 1.670 24261
-0.163 1.770 1.675 34811
-0.164 1.780 1.675 46015
-0.164 1.785 1.670 43314
-0.165 1.789 1.664 38509
-0.165 1.794 1.659 31609
-0.166 1.810 1.664 36170
-0.167 1.821 1.664 42908
-0.168 1.831 1.663 38691
-0.169 1.836 1.658 31118
-0.169 1.840 1.652 22314
-0.174 1.894 1.686 20083
-0.175 1.904 1.686 26831
-0.176 1.909 1.680 27990
-0.177 1.919 1.679 22812
-0.177 1.924 1.674 13066
-0.178 1.941 1.678 11896
-0.179 1.945 1.672 21500
-0.179 1.949 1.666 27691
-0.180 1.960 1.665 27983
-0.181 1.965 1.659 22453
-0.181 1.969 1.653 14896
-0.182 1.980 1.652 11926
-0.183 1.990 1.651 9464
-0.185 2.014 1.659 9088
-0.192 2.088 1.705 11984
-0.193 2.099 1.703 12370
-0.194 2.110 1.702 11210
-0.196 2.127 1.705 10327
-0.197 2.144 1.708 10515
-0.198 2.149 1.701 9029
-0.198 2.153 1.695 7584
-0.200 2.171 1.698 8726
-0.200 2.175 1.691 13471
-0.201 2.186 1.689 17781
-0.202 2.197 1.687 19049
-0.202 2.202 1.681 16367
-0.204 2.213 1.679 13611
-0.206 2.237 1.686 15479
-0.207 2.248 1.683 16923
-0.207 2.252 1.677 14702
-0.213 2.316 1.709 19122
-0.214 2.327 1.707 26900
-0.214 2.331 1.700 25690
-0.215 2.336 1.693 22965
-0.215 2.340 1.686 17717
-0.216 2.345 1.679 8036
-0.215 2.342 1.668 3646
-0.216 2.354 1.665 2244
-0.217 2.365 1.663 1204
-0.218 2.369 1.656 1462
-0.209 2.273 1.586 1582
-0.209 2.270 1.575 2616
-0.209 2.275 1.568 3026
-0.209 2.272 1.557 2732
-0.209 2.276 1.551 1926
-0.210 2.280 1.544 1392
-0.209 2.277 1.533 1585
-0.209 2.275 1.522 1828
-0.208 2.265 1.507 1743
-0.207 2.255 1.493 2245
-0.208 2.266 1.490 2648
-0.208 2.263 1.479 2839
-0.209 2.267 1.473 3034
-0.209 2.271 1.466 2704
-0.245 2.665 1.682 2072
-0.245 2.663 1.670 2692
-0.245 2.667 1.662 4496
-0.246 2.672 1.655 7529
-0.247 2.683 1.650 8830
-0.247 2.687 1.643 9190
-0.248 2.692 1.635 9550
-0.248 2.696 1.627 11728
-0.248 2.693 1.615 14200
-0.248 2.698 1.607 13552
-0.248 2.695 1.595 12937
-0.249 2.706 1.591 9613
-0.249 2.710 1.583 6321
-0.250 2.714 1.575 6209
-0.250 2.719 1.567 6096
-0.251 2.730 1.562 5504
-0.255 2.769 1.572 5772
-0.256 2.780 1.568 4174
-0.269 2.925 1.630 3213
-0.264 2.873 1.594 2921
-0.264 2.870 1.582 3612
-0.264 2.867 1.570 3137
-0.264 2.871 1.561 2709
-0.264 2.875 1.553 2235
-0.266 2.887 1.548 1750
-0.265 2.876 1.532 2164
-0.265 2.880 1.524 2650
-0.265 2.884 1.515 2650
-0.265 2.881 1.503 2350
-0.265 2.885 1.495 2071
-0.314 3.412 1.727 2602
-0.315 3.424 1.720 3820
-0.313 3.407 1.700 4830
-0.312 3.397 1.684 6563
-0.312 3.387 1.667 5883
-0.311 3.384 1.654 5475
-0.312 3.389 1.644 5475
-0.312 3.393 1.634 2737
-0.220 2.391 1.189 1007
-0.059 0.658 1.674 14859
-0.059 0.662 1.672 11624
-0.060 0.666 1.670 8390
-0.060 0.668 1.661 8928
-0.060 0.669 1.651 9634
-0.060 0.666 1.635 10334
-0.060 0.671 1.633 12841
-0.060 0.675 1.631 14438
-0.061 0.683 1.636 15352
-0.061 0.687 1.634 16308
-0.063 0.702 1.653 15196
-0.064 0.716 1.672 18666
-0.064 0.721 1.670 19530
-0.065 0.729 1.675 20398
-0.066 0.733 1.673 19591
-0.067 0.745 1.685 14238
-0.064 0.714 1.612 10793
-0.064 0.721 1.617 9165
-0.065 0.729 1.622 8091
-0.065 0.730 1.613 5703
-0.069 0.778 1.695 4850
-0.070 0.782 1.692 6749
-0.070 0.783 1.683 8785
-0.071 0.791 1.688 9247
-0.071 0.796 1.685 9847
-0.071 0.796 1.676 10909
-0.072 0.801 1.673 12263
-0.072 0.809 1.678 16018
-0.073 0.813 1.675 19901
-0.073 0.818 1.673 18624
-0.073 0.822 1.671 15292
-0.074 0.831 1.675 12893
-0.075 0.839 1.679 9905
-0.076 0.851 1.691 7543
-0.076 0.852 1.681 5911
-0.077 0.856 1.679 4386
-0.077 0.861 1.676 4383
-0.079 0.881 1.701 4265
-0.079 0.885 1.698 4857
-0.080 0.890 1.695 6120
-0.080 0.890 1.686 6828
-0.080 0.899 1.690 8342
-0.081 0.903 1.687 9577
-0.082 0.916 1.698 9546
-0.083 0.925 1.702 10403
-0.083 0.925 1.693 10748
-0.083 0.930 1.690 10879
-0.084 0.938 1.694 15325
-0.084 0.943 1.691 19974
-0.084 0.943 1.681 21260
-0.085 0.947 1.679 22019
-0.085 0.956 1.682 21298
-0.086 0.961 1.680 18415
-0.087 0.969 1.683 20589
-0.087 0.978 1.687 25886
-0.087 0.978 1.678 28427
-0.088 0.983 1.675 27712
-0.089 0.992 1.678 25125
-0.090 1.005 1.688 29649
-0.091 1.018 1.699 29386
-0.092 1.027 1.702 25198
-0.092 1.031 1.699 23736
-0.092 1.031 1.689 35971
-0.092 1.031 1.680 51186
-0.093 1.036 1.677 55401
-0.093 1.040 1.674 56298
-0.093 1.045 1.670 49295
-0.094 1.049 1.667 32672
-0.094 1.054 1.664 18569
-0.095 1.063 1.667 12669
-0.096 1.072 1.671 11141
-0.097 1.081 1.674 9367
-0.097 1.085 1.671 13848
-0.097 1.090 1.667 22981
-0.098 1.094 1.664 21505
-0.098 1.094 1.654 16447
-0.099 1.103 1.658 12537
-0.100 1.117 1.667 8919
-0.101 1.126 1.670 8219
-0.101 1.125 1.660 6479
-0.102 1.144 1.676 5382
-0.103 1.153 1.678 14693
-0.103 1.158 1.675 25008
-0.104 1.162 1.672 24171
-0.105 1.177 1.681 18819
-0.106 1.186 1.683 24319
-0.106 1.190 1.680 26341
-0.107 1.200 1.682 20258
-0.108 1.214 1.691 18917
-0.109 1.223 1.694 18056
-0.110 1.228 1.690 12485
-0.110 1.232 1.686 11366
-0.111 1.237 1.683 16078
-0.111 1.246 1.685 24984
-0.112 1.251 1.681 32160
-0.112 1.250 1.671 27863
-0.112 1.255 1.668 20139
-0.113 1.264 1.670 15741
-0.114 1.274 1.672 10706
-0.115 1.283 1.674 7865
-0.116 1.293 1.677 9046
-0.116 1.302 1.679 11071
-0.117 1.307 1.675 10770
-0.117 1.311 1.671 11071
-0.117 1.305 1.655 18433
-0.118 1.315 1.657 27846
-0.118 1.325 1.659 35464
-0.119 1.329 1.655 38444
-0.119 1.333 1.651 33549
-0.120 1.348 1.659 22007
-0.122 1.363 1.667 11368
-0.123 1.373 1.668 7647
-0.123 1.378 1.664 23153
-0.124 1.387 1.666 34366
-0.125 1.397 1.668 25876
-0.125 1.402 1.663 12483
-0.125 1.395 1.648 11736
-0.126 1.410 1.655 26200
-0.127 1.420 1.657 30765
-0.126 1.414 1.641 26528
-0.127 1.418 1.637 24261
-0.127 1.417 1.627 16804
-0.132 1.476 1.679 22649
-0.133 1.486 1.680 29855
-0.133 1.491 1.676 26330
-0.134 1.501 1.677 15221
-0.136 1.522 1.689 14578
-0.136 1.521 1.679 17010
-0.136 1.525 1.675 14483
-0.137 1.535 1.676 13487
-0.137 1.534 1.666 25903
-0.137 1.539 1.661 38622
-0.138 1.549 1.662 37553
-0.139 1.559 1.663 44340
-0.140 1.563 1.658 45531
-0.140 1.567 1.654 40252
-0.140 1.572 1.649 28898
-0.142 1.588 1.655 15530
-0.146 1.633 1.688 12352
-0.147 1.643 1.688 19254
-0.147 1.647 1.684 18726
-0.149 1.663 1.689 12975
-0.150 1.680 1.695 18572
-0.150 1.684 1.690 30505
-0.151 1.694 1.690 41039
-0.151 1.693 1.680 42827
-0.152 1.697 1.675 46804
-0.153 1.708 1.675 49577
-0.153 1.712 1.670 42086
-0.153 1.717 1.665 27826
-0.154 1.727 1.665 23632
-0.155 1.737 1.665 28504
-0.157 1.754 1.670 26007
-0.158 1.770 1.675 36477
-0.159 1.781 1.675 46639
-0.160 1.785 1.670 42940
-0.160 1.790 1.664 40234
-0.160 1.794 1.659 33063
-0.162 1.811 1.664 37910
-0.163 1.821 1.664 44640
-0.164 1.832 1.663 39817
-0.164 1.836 1.658 31490
-0.164 1.834 1.647 22334
-0.169 1.894 1.686 18059
-0.170 1.905 1.686 24629
-0.171 1.909 1.680 26534
-0.172 1.920 1.679 20777
-0.172 1.930 1.678 11535
-0.173 1.941 1.678 12069
-0.174 1.946 1.672 22253
-0.174 1.950 1.666 28407
-0.175 1.961 1.665 27790
-0.176 1.965 1.659 21647
-0.176 1.969 1.653 16244
-0.177 1.980 1.652 14616
-0.178 1.991 1.651 10447
-0.181 2.020 1.664 10199
-0.187 2.088 1.705 10432
-0.188 2.099 1.703 10278
-0.189 2.110 1.702 9651
-0.191 2.134 1.709 9739
-0.192 2.145 1.708 10305
-0.191 2.143 1.697 8809
-0.189 2.115 1.668 6400
-0.195 2.178 1.702 7964
-0.195 2.182 1.696 13254
-0.195 2.187 1.689 17665
-0.196 2.198 1.687 18433
-0.197 2.202 1.681 15453
-0.198 2.213 1.679 12387
-0.200 2.237 1.686 13782
-0.201 2.248 1.683 14962
-0.202 2.259 1.681 13103
-0.206 2.310 1.705 18778
-0.207 2.321 1.703 25973
-0.208 2.332 1.700 23607
-0.209 2.343 1.698 20415
-0.209 2.341 1.686 15198
-0.209 2.339 1.675 6285
-0.208 2.330 1.660 2819
-0.209 2.334 1.653 1897
-0.210 2.345 1.650 1247
-0.211 2.356 1.647 1621
-0.211 2.361 1.640 1548
-0.203 2.271 1.575 2485
-0.203 2.275 1.568 2937
-0.203 2.273 1.557 2729
-0.203 2.277 1.551 2066
-0.204 2.281 1.544 1562
-0.204 2.278 1.533 1779
-0.203 2.275 1.522 2048
-0.203 2.272 1.511 1905
-0.202 2.263 1.497 2450
-0.203 2.267 1.490 3027
-0.203 2.271 1.483 3070
-0.203 2.268 1.473 3184
-0.203 2.271 1.466 2841
-0.203 2.275 1.459 2000
-0.238 2.664 1.670 2304
-0.238 2.668 1.662 3990
-0.239 2.672 1.655 6569
-0.239 2.677 1.647 7501
-0.240 2.688 1.643 7585
-0.241 2.692 1.635 7723
-0.240 2.690 1.623 10143
-0.241 2.694 1.615 12716
-0.240 2.691 1.603 12139
-0.241 2.696 1.595 11719
-0.241 2.700 1.587 8494
-0.242 2.704 1.579 5269
-0.243 2.715 1.575 5298
-0.243 2.719 1.567 5355
-0.246 2.758 1.577 4952
-0.248 2.777 1.576 5834
-0.248 2.781 1.568 4356
-0.261 2.926 1.630 3606
-0.257 2.874 1.594 3360
-0.257 2.871 1.582 4010
-0.256 2.868 1.570 3390
-0.257 2.872 1.561 2785
-0.257 2.876 1.553 2376
-0.258 2.887 1.548 1964
-0.256 2.870 1.529 2532
-0.257 2.874 1.520 3131
-0.257 2.878 1.512 3131
-0.258 2.882 1.503 2820
-0.257 2.879 1.491 2554
-0.305 3.413 1.727 2394
-0.306 3.425 1.720 3533
-0.304 3.401 1.697 4592
-0.303 3.391 1.680 6486
-0.302 3.381 1.664 5866
-0.302 3.385 1.654 5468
-0.303 3.390 1.644 5468
-0.303 3.394 1.634 2734
-0.223 2.493 1.233 843
-0.057 0.658 1.674 15145
-0.058 0.662 1.672 11782
-0.058 0.667 1.670 8418
-0.058 0.671 1.668 8901
-0.059 0.675 1.666 9384
-0.058 0.670 1.642 9607
-0.058 0.671 1.633 11467
-0.059 0.678 1.638 12694
-0.059 0.683 1.636 14144
-0.060 0.687 1.634 15594
-0.061 0.705 1.660 15231
-0.062 0.716 1.672 19836
-0.063 0.721 1.670 20848
-0.063 0.729 1.675 21907
-0.064 0.733 1.673 20928
-0.065 0.745 1.685 15296
-0.065 0.749 1.683 10661
-0.063 0.722 1.617 8322
-0.063 0.726 1.615 7108
-0.067 0.773 1.697 5694
-0.068 0.778 1.695 5327
-0.068 0.782 1.692 7278
-0.068 0.783 1.683 9367
-0.069 0.791 1.688 9992
-0.069 0.796 1.685 10755
-0.069 0.797 1.676 11313
-0.069 0.797 1.666 12231
-0.070 0.805 1.671 15717
-0.071 0.814 1.675 19363
-0.071 0.818 1.673 18429
-0.072 0.823 1.671 15753
-0.072 0.827 1.668 13683
-0.073 0.839 1.679 10547
-0.074 0.847 1.684 7772
-0.074 0.852 1.681 6291
-0.075 0.856 1.679 4809
-0.075 0.865 1.683 4764
-0.076 0.869 1.680 4522
-0.077 0.882 1.691 5237
-0.077 0.886 1.689 6740
-0.078 0.895 1.693 7464
-0.078 0.899 1.690 9219
-0.079 0.904 1.687 10467
-0.080 0.916 1.698 10710
-0.080 0.925 1.702 10988
-0.081 0.929 1.699 10489
-0.081 0.930 1.690 10880
-0.081 0.934 1.687 15935
-0.082 0.943 1.691 20749
-0.082 0.943 1.681 22002
-0.082 0.948 1.679 22373
-0.083 0.956 1.682 21425
-0.084 0.961 1.680 18014
-0.084 0.970 1.683 19651
-0.085 0.978 1.687 25128
-0.086 0.983 1.684 26485
-0.086 0.987 1.681 25870
-0.086 0.992 1.678 23899
-0.087 1.005 1.688 28780
-0.089 1.018 1.699 28874
-0.089 1.027 1.702 24355
-0.089 1.027 1.692 23008
-0.090 1.032 1.689 35293
-0.090 1.032 1.680 51073
-0.090 1.036 1.677 55579
-0.091 1.041 1.674 56563
-0.091 1.045 1.670 49206
-0.091 1.049 1.667 31582
-0.092 1.054 1.664 18078
-0.092 1.063 1.667 14222
-0.093 1.072 1.671 13423
-0.094 1.081 1.674 10999
-0.094 1.085 1.671 14312
-0.095 1.094 1.674 22233
-0.095 1.094 1.664 20015
-0.095 1.094 1.654 15376
-0.096 1.103 1.658 12083
-0.097 1.117 1.667 8310
-0.098 1.121 1.664 6969
-0.098 1.121 1.654 5934
-0.098 1.130 1.657 5568
-0.100 1.154 1.678 14503
-0.101 1.158 1.675 24522
-0.101 1.163 1.672 23144
-0.102 1.177 1.681 17603
-0.103 1.186 1.683 22481
-0.104 1.191 1.680 23848
-0.104 1.200 1.682 16278
-0.106 1.219 1.697 13980
-0.106 1.224 1.694 14230
-0.106 1.223 1.684 11080
-0.107 1.228 1.680 10763
-0.108 1.237 1.683 15180
-0.108 1.247 1.685 25217
-0.109 1.251 1.681 33402
-0.109 1.251 1.671 29498
-0.110 1.260 1.674 20496
-0.110 1.270 1.676 15468
-0.111 1.274 1.672 11815
-0.111 1.278 1.668 9439
-0.112 1.288 1.671 8719
-0.113 1.303 1.679 10897
-0.114 1.307 1.675 12637
-0.114 1.312 1.671 13760
-0.114 1.311 1.661 20991
-0.114 1.315 1.657 28718
-0.115 1.325 1.659 34995
